# .PCD v0.7 - Point Cloud Data file format
VERSION 0.7
FIELDS x y z intensity
SIZE 4 4 4 4
TYPE F F F F
COUNT 1 1 1 1
WIDTH 353
HEIGHT 1
VIEWPOINT 0 0 0 1 0 0 0
POINTS 353
DATA ascii
-36.937778 -16.446039 -3.537599 0.000000
-34.472294 -16.363976 -3.907971 0.000000
-31.568600 -24.664389 -4.387543 0.000000
-31.254318 -23.552124 -4.286078 0.000000
-31.053679 -22.562119 -4.203919 0.000000
-30.999269 -21.706230 -4.144632 0.000000
-37.351974 -22.443613 -3.812543 0.000000
-37.324841 -21.549807 -3.770808 0.000000
-36.904182 -20.456614 -3.691676 0.000000
-37.244221 -19.803368 -3.690552 0.000000
-36.882496 -18.792839 -3.621654 0.000000
-37.209312 -18.148470 -3.622089 0.000000
-29.678522 -17.832945 -3.792076 0.000000
-29.843260 -17.230303 -3.774123 0.000000
-29.873346 -16.559353 -3.740806 0.000000
-30.416645 -16.173084 -3.772911 0.000000
-30.972322 -15.781459 -3.807088 0.000000
-31.067976 -15.153139 -3.785759 0.000000
-31.495712 -14.686969 -3.806063 0.000000
-31.566549 -14.054612 -3.784401 0.000000
-46.387672 -23.635969 -3.412454 0.000000
-46.381691 -22.622131 -3.382453 0.000000
-46.368862 -21.622433 -3.353483 0.000000
-46.996822 -20.924616 -3.371970 0.000000
-46.089146 -18.621492 -3.258208 0.000000
-46.649918 -17.907480 -3.275253 0.000000
-36.972725 -17.240934 -3.569222 0.000000
-46.355564 -16.872297 -3.233420 0.000000
-46.350025 -15.959862 -3.213113 0.000000
-37.418438 -15.883457 -3.556537 0.000000
-37.520844 -15.159674 -3.540583 0.000000
-38.100399 -14.625627 -3.570636 0.000000
-34.031864 -24.381840 -4.581486 0.000000
-33.403072 -20.455856 -4.187104 0.000000
-33.662910 -19.804615 -4.146639 0.000000
-33.483963 -18.895393 -4.055891 0.000000
-33.497635 -18.122261 -3.990321 0.000000
-33.954418 -17.609219 -3.977072 0.000000
-34.295753 -17.029015 -3.951219 0.000000
-35.216316 -15.980624 -3.927196 0.000000
-35.500996 -15.364419 -3.896861 0.000000
-35.739307 -14.727779 -3.862474 0.000000
-36.525772 -14.324661 -3.885370 0.000000
-42.643234 -23.441032 -3.973823 0.000000
-42.601501 -22.441082 -3.897770 0.000000
-43.499748 -21.961491 -3.905399 0.000000
-43.480888 -20.992569 -3.834014 0.000000
-43.502007 -20.060974 -3.767908 0.000000
-43.425819 -18.189342 -3.631249 0.000000
-32.646599 -24.039593 -4.568479 0.000000
-32.355415 -22.929686 -4.451569 0.000000
-32.052353 -21.849215 -4.337269 0.000000
-32.244938 -21.133976 -4.288696 0.000000
-31.751450 -17.646435 -3.962706 0.000000
-32.223415 -17.153482 -3.955959 0.000000
-32.607899 -16.607874 -3.939529 0.000000
-32.769093 -15.947286 -3.898770 0.000000
-33.474560 -15.552833 -3.918816 0.000000
-33.739307 -14.939192 -3.890722 0.000000
-40.415081 -22.603394 -3.927678 0.000000
-40.360947 -21.625589 -3.856028 0.000000
-41.189735 -21.129807 -3.864269 0.000000
-41.158508 -20.183676 -3.797278 0.000000
-41.165451 -19.273407 -3.735379 0.000000
-41.114605 -18.351616 -3.670280 0.000000
-42.156666 -17.032497 -3.637754 0.000000
-42.489178 -16.285841 -3.606595 0.000000
-42.822392 -15.538278 -3.576040 0.000000
-43.154659 -14.788582 -3.545921 0.000000
-43.493050 -14.038751 -3.516752 0.000000
-51.313633 -24.189690 -3.330617 0.000000
-51.682632 -23.244123 -3.287571 0.000000
-33.305450 -24.549910 -4.549819 0.000000
-32.964161 -23.382046 -4.427951 0.000000
-33.170242 -22.619169 -4.376070 0.000000
-32.885609 -21.551735 -4.268053 0.000000
-33.145561 -20.854338 -4.226821 0.000000
-32.927631 -17.457462 -3.938170 0.000000
-33.142704 -16.788530 -3.900355 0.000000
-33.903584 -16.386471 -3.920998 0.000000
-34.185265 -15.744469 -3.891387 0.000000
-34.417736 -15.081423 -3.857611 0.000000
-35.221809 -14.659424 -3.882126 0.000000
-35.484638 -14.000468 -3.852378 0.000000
-42.931313 -22.756855 -3.904421 0.000000
-42.882549 -21.733936 -3.832453 0.000000
-42.878616 -20.752243 -3.766107 0.000000
-42.806568 -19.755749 -3.696143 0.000000
-42.741199 -18.780687 -3.628589 0.000000
-43.701733 -18.252779 -3.641342 0.000000
-43.793152 -17.352755 -3.587720 0.000000
-44.139706 -16.558704 -3.554228 0.000000
-44.484741 -15.762541 -3.521188 0.000000
-44.842804 -14.968836 -3.489617 0.000000
-32.793724 -24.121304 -4.498656 0.000000
-33.001068 -23.332153 -4.445602 0.000000
-32.699001 -22.226435 -4.334867 0.000000
-32.962452 -21.505823 -4.292795 0.000000
-32.631214 -20.437792 -4.184996 0.000000
-32.357224 -19.435974 -4.087087 0.000000
-33.331413 -16.707706 -3.941020 0.000000
-33.615257 -16.052958 -3.911354 0.000000
-33.848106 -15.376472 -3.877413 0.000000
-34.666683 -14.947751 -3.902683 0.000000
-34.930763 -14.275868 -3.872876 0.000000
-42.721909 -21.282978 -3.794806 0.000000
-42.639572 -20.258598 -3.723908 0.000000
-42.562439 -19.255840 -3.655343 0.000000
-43.544903 -18.716265 -3.668760 0.000000
-43.494804 -17.737837 -3.604422 0.000000
-43.812798 -16.914520 -3.568631 0.000000
-44.159130 -16.101217 -3.535543 0.000000
-44.517620 -15.290289 -3.503879 0.000000
-44.884689 -14.479303 -3.473316 0.000000
-32.511280 -24.641367 -4.546603 0.000000
-32.716984 -23.829281 -4.492577 0.000000
-32.398899 -22.692886 -4.379907 0.000000
-32.662510 -21.951715 -4.337104 0.000000
-32.315002 -20.854813 -4.227498 0.000000
-32.027004 -19.826406 -4.128018 0.000000
-32.189579 -19.074753 -4.080431 0.000000
-31.962729 -18.127571 -3.992952 0.000000
-32.933949 -16.190771 -3.914048 0.000000
-33.164452 -15.503192 -3.880005 0.000000
-33.989754 -15.066459 -3.905536 0.000000
-34.251827 -14.383794 -3.875679 0.000000
-41.467651 -24.195179 -3.930874 0.000000
-42.231045 -20.506931 -3.727134 0.000000
-42.141762 -19.483747 -3.658047 0.000000
-43.133530 -18.931746 -3.671591 0.000000
-43.072304 -17.934170 -3.606844 0.000000
-43.273376 -17.051741 -3.562709 0.000000
-43.616322 -16.224771 -3.529615 0.000000
-43.976917 -15.402247 -3.498346 0.000000
-44.340832 -14.577985 -3.467825 0.000000
-31.718208 -23.996161 -4.547581 0.000000
-31.397606 -22.851103 -4.434793 0.000000
-31.657188 -22.099239 -4.392108 0.000000
-31.307426 -20.994339 -4.282380 0.000000
-30.779072 -19.822819 -4.156476 0.000000
-31.249290 -19.236671 -4.143299 0.000000
-30.597286 -18.059263 -4.010333 0.000000
-30.216091 -17.061274 -3.910063 0.000000
-32.631992 -15.000751 -3.930199 0.000000
-32.888390 -14.315707 -3.900943 0.000000
-40.116192 -24.111349 -3.956441 0.000000
-40.936241 -23.504196 -3.956678 0.000000
-40.860863 -22.430948 -3.883979 0.000000
-41.610500 -18.777651 -3.692463 0.000000
-41.546658 -17.783167 -3.628744 0.000000
-41.783638 -16.917816 -3.588710 0.000000
-42.133183 -16.095650 -3.557655 0.000000
-42.484329 -15.272174 -3.527285 0.000000
-42.837772 -14.446898 -3.497613 0.000000
-31.510288 -24.760942 -4.652410 0.000000
-31.160645 -23.566822 -4.533899 0.000000
-31.429050 -22.791914 -4.489674 0.000000
-30.981129 -21.600269 -4.366831 0.000000
-30.001167 -20.146095 -4.189465 0.000000
-30.774567 -19.711296 -4.207624 0.000000
-32.272011 -14.596193 -3.939662 0.000000
-29.826969 -18.357618 -4.041841 0.000000
-30.393288 -17.000656 -3.979850 0.000000
-30.822922 -16.391785 -3.965210 0.000000
-40.773979 -24.131859 -4.016446 0.000000
-40.692459 -23.027767 -3.941396 0.000000
-40.658787 -21.968775 -3.872262 0.000000
-40.555584 -20.896692 -3.799634 0.000000
-41.388168 -18.253870 -3.677766 0.000000
-41.439323 -17.293560 -3.622467 0.000000
-41.794926 -16.452789 -3.590268 0.000000
-42.520077 -14.769609 -3.528569 0.000000
-31.158443 -23.488327 -4.583128 0.000000
-30.124489 -21.921354 -4.393749 0.000000
-29.874191 -19.981693 -4.228877 0.000000
-31.834503 -14.155460 -3.947017 0.000000
-40.426651 -23.599327 -3.993612 0.000000
-29.247910 -17.118071 -3.974909 0.000000
-29.687172 -16.507803 -3.960989 0.000000
-30.056236 -15.861354 -3.940529 0.000000
-40.382961 -22.510136 -3.922676 0.000000
-40.267735 -21.407766 -3.848193 0.000000
-40.157162 -20.329069 -3.776128 0.000000
-41.017086 -17.660419 -3.657278 0.000000
-41.332516 -16.785507 -3.621385 0.000000
-41.697155 -15.927209 -3.589636 0.000000
-42.061203 -15.066209 -3.558412 0.000000
-42.418503 -14.200070 -3.527268 0.000000
-29.636696 -15.505322 -3.999420 0.000000
-30.056049 -14.856560 -3.984064 0.000000
-39.698383 -23.999901 -4.066657 0.000000
-39.484680 -22.809858 -3.981035 0.000000
-40.277653 -19.998997 -3.845899 0.000000
-39.363483 -21.689714 -3.905037 0.000000
-39.246689 -20.593653 -3.831483 0.000000
-40.330200 -16.962753 -3.667012 0.000000
-40.699680 -16.094835 -3.634993 0.000000
-41.063835 -15.222681 -3.603178 0.000000
-41.421551 -14.345616 -3.571476 0.000000
-29.604385 -24.511614 -4.681351 0.000000
-29.645927 -14.526609 -3.963829 0.000000
-39.858147 -23.821386 -4.035438 0.000000
-39.653675 -22.618372 -3.951731 0.000000
-39.514526 -21.470619 -3.875269 0.000000
-40.594688 -20.858141 -3.890303 0.000000
-40.489105 -19.742678 -3.818910 0.000000
-40.379093 -18.644770 -3.749093 0.000000
-41.005116 -15.764368 -3.614829 0.000000
-41.368584 -14.858831 -3.582297 0.000000
-41.742496 -13.953238 -3.551023 0.000000
-39.179054 -22.606638 -3.942822 0.000000
-40.278168 -21.979147 -3.958974 0.000000
-40.145401 -20.815395 -3.885652 0.000000
-40.008255 -19.671247 -3.814014 0.000000
-39.856071 -18.541845 -3.743244 0.000000
-40.500031 -15.613845 -3.614986 0.000000
-40.861229 -14.688249 -3.583731 0.000000
-42.307503 -14.058364 -3.623005 0.000000
-40.960262 -21.770054 -3.916373 0.000000
-40.765659 -20.554079 -3.842386 0.000000
-40.555614 -19.355677 -3.769390 0.000000
-40.368507 -18.188253 -3.699906 0.000000
-41.113808 -15.192451 -3.585452 0.000000
-42.602661 -14.540635 -3.626867 0.000000
-29.324608 -24.620180 -4.669153 0.000000
-40.315094 -24.573545 -4.015068 0.000000
-41.245201 -23.781498 -4.019592 0.000000
-40.439857 -19.939398 -3.793385 0.000000
-40.187138 -18.717161 -3.723206 0.000000
-39.976940 -17.532974 -3.657697 0.000000
-42.091702 -14.863252 -3.641715 0.000000
-29.841230 -24.674425 -4.642677 0.000000
-42.133812 -24.796352 -4.013237 0.000000
-42.003990 -23.491896 -3.949998 0.000000
-40.896576 -19.459614 -3.725981 0.000000
-40.530197 -18.176073 -3.655666 0.000000
-40.532394 -17.035929 -3.609970 0.000000
-42.288315 -15.276059 -3.627636 0.000000
-42.551315 -14.204971 -3.599987 0.000000
-41.904404 -24.244104 -4.013045 0.000000
-41.459351 -22.802773 -3.934790 0.000000
-41.015236 -21.397047 -3.858853 0.000000
-41.732517 -14.501527 -3.646430 0.000000
-40.133919 -18.687618 -3.713794 0.000000
-39.817429 -17.419170 -3.651900 0.000000
-40.054916 -16.340010 -3.625346 0.000000
-41.247299 -24.592306 -4.068884 0.000000
-40.792633 -23.126863 -3.989173 0.000000
-40.339172 -21.697729 -3.911835 0.000000
-39.870354 -20.297403 -3.835727 0.000000
-39.217476 -16.515308 -3.665584 0.000000
-39.435478 -15.417408 -3.638238 0.000000
-40.430290 -23.599813 -4.016294 0.000000
-39.948502 -22.134373 -3.937931 0.000000
-39.451393 -20.699200 -3.860844 0.000000
-38.994026 -19.312283 -3.788362 0.000000
-38.789696 -15.662106 -3.652195 0.000000
-40.411957 -24.188246 -4.042133 0.000000
-39.825363 -22.650774 -3.958353 0.000000
-39.286186 -21.170319 -3.879839 0.000000
-38.789597 -19.741060 -3.806110 0.000000
-38.279404 -18.341349 -3.733624 0.000000
-38.302780 -15.928708 -3.655804 0.000000
-39.858116 -15.138026 -3.708432 0.000000
-39.688179 -23.228588 -4.006423 0.000000
-39.108772 -21.702583 -3.926345 0.000000
-38.574738 -20.230707 -3.851239 0.000000
-38.027206 -18.790260 -3.777426 0.000000
-37.581787 -17.414831 -3.711654 0.000000
-39.376724 -15.446867 -3.740574 0.000000
-37.959145 -21.987684 -3.984911 0.000000
-37.404282 -20.494757 -3.909278 0.000000
-36.836723 -19.034540 -3.834980 0.000000
-36.366676 -17.639193 -3.768511 0.000000
-36.431343 -16.424131 -3.735381 0.000000
-38.197510 -14.418077 -3.767299 0.000000
-43.949528 -23.331665 -3.802899 0.000000
-43.335209 -21.692217 -3.726922 0.000000
-42.724964 -20.093348 -3.653380 0.000000
-42.013386 -18.504021 -3.576833 0.000000
-43.415691 -17.506578 -3.608560 0.000000
-42.462883 -22.002161 -3.766145 0.000000
-41.842270 -20.379143 -3.691683 0.000000
-41.118774 -18.765837 -3.614193 0.000000
-42.506599 -17.744974 -3.644401 0.000000
-42.748680 -15.017757 -3.580631 0.000000
-41.112350 -24.767120 -4.020983 0.000000
-39.022163 -19.797068 -3.776546 0.000000
-38.336967 -18.227589 -3.700238 0.000000
-39.796135 -17.256304 -3.738332 0.000000
-39.991119 -15.936909 -3.710717 0.000000
-41.148033 -23.672628 -3.933492 0.000000
-39.093964 -18.733831 -3.697029 0.000000
-40.471794 -17.706335 -3.727835 0.000000
-40.563065 -16.328545 -3.693640 0.000000
-41.309944 -23.910309 -3.940337 0.000000
-40.554207 -22.178436 -3.855878 0.000000
-39.189796 -18.889603 -3.701604 0.000000
-40.597992 -17.846323 -3.732871 0.000000
-40.606758 -16.427046 -3.694433 0.000000
-40.739872 -23.881178 -3.952694 0.000000
-39.987865 -22.143997 -3.867793 0.000000
-38.629688 -18.843212 -3.712595 0.000000
-40.054035 -17.792219 -3.743622 0.000000
-40.103497 -16.373682 -3.706449 0.000000
-40.174469 -24.008879 -3.992178 0.000000
-38.733727 -20.578718 -3.825613 0.000000
-39.451401 -17.871407 -3.776715 0.000000
-39.452126 -16.432373 -3.736082 0.000000
-39.669518 -15.052832 -3.707492 0.000000
-37.513470 -22.008549 -3.957672 0.000000
-36.914974 -20.366562 -3.881344 0.000000
-37.624508 -17.683300 -3.833158 0.000000
-37.723347 -16.280605 -3.797634 0.000000
-37.972538 -14.919169 -3.770964 0.000000
-33.807556 -21.134996 -4.115520 0.000000
-32.804581 -19.423109 -4.015058 0.000000
-31.677856 -17.729650 -3.910299 0.000000
-33.481613 -15.470049 -3.930955 0.000000
-33.713760 -14.160988 -3.905509 0.000000
-34.546494 -23.226620 -4.301406 0.000000
-32.331802 -19.645718 -4.083504 0.000000
-31.193619 -17.932423 -3.977028 0.000000
-32.652580 -15.558786 -3.977893 0.000000
-32.888580 -14.240973 -3.952253 0.000000
-34.863529 -23.519127 -4.303760 0.000000
-31.397144 -18.121069 -3.976596 0.000000
-32.768497 -15.674711 -3.971689 0.000000
-32.998821 -14.332489 -3.945772 0.000000
-35.725964 -24.630093 -4.366416 0.000000
-34.453419 -22.682442 -4.248218 0.000000
-30.415447 -17.167999 -3.899688 0.000000
-32.942257 -14.964709 -3.958343 0.000000
-34.213627 -22.970953 -4.294714 0.000000
-32.939625 -21.069933 -4.178126 0.000000
-32.416103 -15.098547 -3.982807 0.000000
-33.838924 -23.223143 -4.347332 0.000000
-32.552265 -21.302359 -4.229347 0.000000
-31.450413 -16.580791 -4.041003 0.000000
-31.579956 -22.898317 -4.458248 0.000000
-31.406845 -21.701944 -4.333214 0.000000
-31.733154 -20.618532 -4.213383 0.000000
-30.492134 -15.745204 -4.025222 0.000000
-32.664200 -21.268452 -4.208769 0.000000
-31.277122 -19.320164 -4.093998 0.000000
-31.818001 -17.898727 -4.079642 0.000000
-33.603062 -23.529505 -4.368297 0.000000
-29.342945 -19.149511 -4.058854 0.000000
-31.491367 -18.123615 -4.125871 0.000000
-30.893780 -14.882011 -4.015595 0.000000
-32.754765 -23.686602 -4.428703 0.000000
-31.837589 -23.787388 -4.501135 0.000000
-31.117676 -23.927061 -4.547624 0.000000
