# .PCD v0.7 - Point Cloud Data file format
VERSION 0.7
FIELDS x y z intensity
SIZE 4 4 4 4
TYPE F F F F
COUNT 1 1 1 1
WIDTH 1206
HEIGHT 1
VIEWPOINT 0 0 0 1 0 0 0
POINTS 1206
DATA ascii
-31.007988 -6.591198 -3.471929 0.000000
-38.910904 -6.163110 -3.446829 0.000000
-38.732578 -5.443735 -3.422096 0.000000
-31.789787 -5.035235 -3.525080 0.000000
-47.122437 -11.749178 -3.183244 0.000000
-47.211647 -10.899931 -3.175935 0.000000
-47.215679 -9.178039 -3.152725 0.000000
-47.211662 -8.324901 -3.142276 0.000000
-48.051823 -6.753470 -3.180559 0.000000
-47.937767 -5.886254 -3.165726 0.000000
-47.846313 -5.029090 -3.153411 0.000000
-35.850128 -4.402085 -3.160166 0.000000
-47.839897 -4.185669 -3.147693 0.000000
-46.260242 -3.235042 -3.039584 0.000000
-33.175442 -3.487112 -2.918594 0.000000
-40.719051 -6.449488 -2.702260 0.000000
-31.036276 -6.597206 -2.776116 0.000000
-29.256437 -2.559834 -2.569516 0.000000
-39.977390 4.908401 -2.640060 0.000000
-39.548462 5.557965 -2.617742 0.000000
-39.205441 6.209331 -2.601817 0.000000
-36.177433 7.031972 -2.415701 0.000000
-35.906918 7.632050 -2.406168 0.000000
-35.647053 9.551392 -2.418978 0.000000
-35.714237 10.240700 -2.435295 0.000000
-31.024054 -6.594617 -2.078979 0.000000
-35.592999 8.217095 -2.394379 0.000000
-35.466457 8.842574 -2.395885 0.000000
-33.509712 10.244752 -2.296823 0.000000
-33.481995 10.878757 -2.307587 0.000000
-30.515318 -9.915276 -0.000126 0.000000
-31.586107 -6.139960 -0.000126 0.000000
-42.953251 -5.274241 -0.000126 0.000000
-43.277168 -4.548844 -0.000126 0.000000
-30.339617 -4.264180 -0.000126 0.000000
-30.487471 -5.926417 0.677564 0.000000
-41.181499 -7.261632 0.912319 0.000000
-40.169460 -6.362444 0.887300 0.000000
-41.024822 -5.765887 0.903836 0.000000
-30.536270 -7.613786 1.373930 0.000000
-32.053864 -7.400476 1.436186 0.000000
-30.269978 -11.619814 2.125027 0.000000
-29.565083 -8.477919 2.015767 0.000000
-32.254444 -7.446781 2.169552 0.000000
-30.092670 -5.849670 2.009170 0.000000
-35.304108 -5.591847 2.342671 0.000000
-29.877329 -6.350871 2.672211 0.000000
-32.183849 -3.951922 2.836754 0.000000
-29.652082 -6.302986 3.319858 0.000000
-32.269234 -4.535370 3.568663 0.000000
-32.661541 -3.433100 3.596599 0.000000
-31.650484 -2.769284 3.479408 0.000000
-37.810493 -8.729501 4.249721 0.000000
-32.527576 -3.994117 4.314390 0.000000
-34.429562 -7.318471 4.633896 0.000000
-40.394238 -4.960035 4.456985 0.000000
-30.070360 -9.193684 4.839631 0.000000
-29.855150 -12.704996 -4.014425 0.000000
-30.216782 -12.241866 -4.005397 0.000000
-31.042486 -11.969173 -4.055582 0.000000
-31.160822 -11.387896 -4.016129 0.000000
-31.485472 -10.889354 -4.003346 0.000000
-31.632696 -10.322073 -3.969494 0.000000
-32.263039 -9.301647 -3.944731 0.000000
-32.436928 -8.740986 -3.916573 0.000000
-32.456005 -8.136314 -3.871443 0.000000
-31.237961 -7.208657 -3.686584 0.000000
-33.074512 -6.480935 -3.806177 0.000000
-33.277187 -5.923422 -3.785474 0.000000
-32.285839 -5.133929 -3.635699 0.000000
-36.784210 -13.687640 -3.853921 0.000000
-37.040703 -13.049895 -3.823067 0.000000
-37.288479 -12.408601 -3.792120 0.000000
-38.369549 -11.313663 -3.788273 0.000000
-38.627037 -10.661397 -3.759597 0.000000
-38.813385 -9.986897 -3.725000 0.000000
-38.971794 -9.305238 -3.688676 0.000000
-39.322025 -7.951710 -3.621550 0.000000
-39.509396 -7.276801 -3.590215 0.000000
-31.014772 -6.577528 -3.618462 0.000000
-40.383125 -6.732881 -3.618823 0.000000
-40.584534 -6.044656 -3.589270 0.000000
-39.319561 -5.123442 -3.437178 0.000000
-37.802193 -4.216220 -3.268045 0.000000
-46.536373 -13.120874 -3.443669 0.000000
-46.915730 -12.351632 -3.413129 0.000000
-48.190201 -11.816566 -3.444283 0.000000
-48.976978 -10.222237 -3.384349 0.000000
-49.349709 -9.410089 -3.353372 0.000000
-50.046543 -7.756149 -3.289077 0.000000
-31.047638 -6.620476 -2.925978 0.000000
-33.082977 -2.977490 -2.841274 0.000000
-31.953671 3.811888 -2.391540 0.000000
-32.242481 4.399768 -2.385897 0.000000
-32.454449 4.990349 -2.375041 0.000000
-30.891058 5.339279 -2.243441 0.000000
-31.173569 5.929742 -2.239104 0.000000
-31.348972 6.514336 -2.227702 0.000000
-31.550142 7.113695 -2.218229 0.000000
-31.944736 7.765471 -2.221554 0.000000
-32.598816 8.496065 -2.241528 0.000000
-33.727509 9.374302 -2.291349 0.000000
-32.376415 9.632697 -2.183632 0.000000
-33.327198 10.508554 -2.221932 0.000000
-40.739887 -6.847338 -2.747707 0.000000
-30.532980 -2.133489 -2.600600 0.000000
-31.038898 -6.653039 -2.231483 0.000000
-30.861902 -7.247011 -0.874093 0.000000
-30.566860 -4.428244 -0.051828 0.000000
-40.393402 -6.915260 -0.052011 0.000000
-31.917929 -5.851549 0.603009 0.000000
-32.228882 -7.129189 1.279735 0.000000
-30.290199 -6.081676 1.212818 0.000000
-32.150726 -7.738646 1.977332 0.000000
-32.075653 -5.379853 2.048180 0.000000
-32.946384 -3.871918 3.626850 0.000000
-31.816216 -3.143978 3.515291 0.000000
-29.513126 -6.570364 3.811511 0.000000
-30.001930 -9.521818 3.854538 0.000000
-32.071133 -5.487345 4.191755 0.000000
-41.187969 -5.831777 4.558721 0.000000
-29.276983 -10.385867 -3.936062 0.000000
-29.469213 -9.854245 -3.912186 0.000000
-30.212545 -9.506828 -3.956467 0.000000
-30.494524 -8.390254 -3.899089 0.000000
-30.510595 -7.798928 -3.857124 0.000000
-31.228352 -7.394010 -3.898126 0.000000
-31.082699 -6.760857 -3.839089 0.000000
-31.285812 -6.215292 -3.821375 0.000000
-31.431881 -5.655332 -3.797933 0.000000
-34.703011 -13.893532 -3.882392 0.000000
-34.950176 -13.264576 -3.854166 0.000000
-35.198009 -12.636000 -3.826796 0.000000
-35.426208 -12.000053 -3.798203 0.000000
-35.658646 -11.365527 -3.770807 0.000000
-36.676426 -10.258339 -3.771396 0.000000
-36.794563 -9.578471 -3.734555 0.000000
-36.969528 -8.915884 -3.703997 0.000000
-37.234863 -7.571269 -3.637476 0.000000
-38.156563 -6.351263 -3.632724 0.000000
-38.336117 -5.676192 -3.605695 0.000000
-35.471767 -4.542300 -3.314797 0.000000
-44.163265 -12.527857 -3.459232 0.000000
-44.507381 -11.769561 -3.431733 0.000000
-45.691475 -11.225387 -3.464301 0.000000
-46.396038 -9.656815 -3.410265 0.000000
-47.391018 -7.246798 -3.327283 0.000000
-31.119202 -6.802875 -3.116771 0.000000
-47.620800 -6.415268 -3.293604 0.000000
-47.937828 -5.591770 -3.265945 0.000000
-48.349663 -4.772055 -3.244505 0.000000
-33.109062 -3.580474 -3.073954 0.000000
-47.250805 -3.793501 -3.129689 0.000000
-40.971241 -6.918058 -2.948068 0.000000
-31.160385 -6.846011 -2.395637 0.000000
-31.035339 -6.881723 -0.947352 0.000000
-30.752670 -6.261196 -0.202116 0.000000
-30.520039 -4.494465 -0.124999 0.000000
-30.418295 -3.914762 -0.099484 0.000000
-42.105141 -8.044792 -0.187554 0.000000
-30.643072 -7.470910 1.174599 0.000000
-32.124878 -7.249553 1.256604 0.000000
-33.188965 -6.259232 1.344905 0.000000
-31.568256 -8.975947 1.919142 0.000000
-30.678585 -7.512986 1.892866 0.000000
-32.118885 -7.282245 2.002410 0.000000
-31.934757 -5.432956 2.045365 0.000000
-35.767277 -6.839319 2.279002 0.000000
-32.426708 -3.768773 2.881274 0.000000
-30.776876 -8.200091 3.336286 0.000000
-31.849663 -3.140780 3.578677 0.000000
-33.781071 -7.766502 3.685545 0.000000
-32.533051 -4.415361 3.618951 0.000000
-42.786278 -6.003411 3.793305 0.000000
-34.729996 -7.383878 4.614147 0.000000
-44.473297 -5.509378 4.983633 0.000000
-29.408066 -10.914800 -3.949896 0.000000
-29.611420 -10.359771 -3.924875 0.000000
-30.506721 -10.037922 -3.982266 0.000000
-30.890537 -8.265028 -3.886369 0.000000
-31.513710 -7.806543 -3.912054 0.000000
-31.204815 -7.104682 -3.834066 0.000000
-31.063721 -6.457123 -3.776554 0.000000
-31.718533 -5.983278 -3.806934 0.000000
-31.206539 -5.271286 -3.711829 0.000000
-35.751713 -13.343169 -3.823862 0.000000
-35.995041 -12.676761 -3.793838 0.000000
-36.241997 -12.011478 -3.764965 0.000000
-37.542942 -10.166904 -3.733635 0.000000
-37.768368 -9.480088 -3.705050 0.000000
-38.143105 -7.346380 -3.597642 0.000000
-39.030491 -6.781194 -3.628363 0.000000
-39.220249 -6.069907 -3.599817 0.000000
-37.584866 -5.077719 -3.420922 0.000000
-35.834702 -4.132313 -3.237067 0.000000
-45.936958 -12.573132 -3.399006 0.000000
-47.240730 -12.012734 -3.432373 0.000000
-48.380722 -9.514713 -3.346134 0.000000
-48.747246 -8.665962 -3.317143 0.000000
-31.326694 -7.168906 -3.088535 0.000000
-31.096691 -6.498940 -3.029457 0.000000
-49.481792 -6.946918 -3.260115 0.000000
-49.841042 -6.074381 -3.231512 0.000000
-30.551437 -2.838673 -2.772446 0.000000
-29.330639 8.466505 -2.179511 0.000000
-29.619162 9.123517 -2.179181 0.000000
-29.309418 10.226569 -2.122817 0.000000
-29.493906 10.883911 -2.116919 0.000000
-41.010162 -6.419695 -2.789248 0.000000
-31.364075 -7.212600 -2.334420 0.000000
-31.111732 -6.536648 -2.282166 0.000000
-30.916584 -7.171317 -0.814811 0.000000
-31.053997 -6.591941 -0.788285 0.000000
-31.806465 -6.141402 -0.773462 0.000000
-30.588589 -9.599951 -0.174872 0.000000
-30.667320 -4.157063 0.059269 0.000000
-41.212261 -7.371029 0.049455 0.000000
-41.781113 -6.687467 0.086622 0.000000
-30.548973 -5.944816 0.711226 0.000000
-32.107990 -7.570763 1.475522 0.000000
-30.320431 -5.929847 1.431971 0.000000
-33.957600 -5.395348 1.652431 0.000000
-41.004028 -11.405600 1.840012 0.000000
-32.315331 -7.658116 2.264392 0.000000
-32.660164 -7.101619 2.306019 0.000000
-41.065281 -5.875898 2.030387 0.000000
-29.626825 -5.847916 2.826922 0.000000
-40.773399 -11.383832 2.808532 0.000000
-42.639454 -6.172131 3.103139 0.000000
-32.728657 -2.764946 3.230436 0.000000
-29.652916 -6.469455 3.536890 0.000000
-33.186966 -6.649884 3.955488 0.000000
-32.008232 -3.327254 3.900768 0.000000
-35.992874 -6.562363 4.293938 0.000000
-44.039413 -6.443744 4.232741 0.000000
-44.455750 -4.851759 4.326497 0.000000
-29.507311 -10.118312 -3.970009 0.000000
-29.628218 -9.518951 -3.936587 0.000000
-30.735998 -7.929295 -3.925944 0.000000
-30.832228 -7.317557 -3.893101 0.000000
-30.933302 -6.708819 -3.861858 0.000000
-31.040956 -6.102727 -3.832352 0.000000
-38.698723 -6.202872 -3.622597 0.000000
-35.199112 -13.605803 -3.844325 0.000000
-35.454880 -12.930754 -3.815371 0.000000
-35.702633 -12.252593 -3.786469 0.000000
-36.562267 -11.769538 -3.814958 0.000000
-37.286240 -9.685717 -3.731108 0.000000
-37.328697 -8.939162 -3.687204 0.000000
-37.610786 -7.501247 -3.619636 0.000000
-37.515594 -5.266289 -3.482061 0.000000
-35.168415 -4.217988 -3.250435 0.000000
-46.946018 -12.275769 -3.447786 0.000000
-47.341846 -11.436344 -3.419752 0.000000
-48.094170 -9.729175 -3.362155 0.000000
-49.195889 -7.112048 -3.276538 0.000000
-31.118986 -6.785251 -3.103701 0.000000
-49.551609 -6.222769 -3.247909 0.000000
-49.942333 -5.329531 -3.221605 0.000000
-29.280035 -2.838730 -2.740259 0.000000
-40.902496 -6.625017 -2.821029 0.000000
-31.141043 -6.824824 -2.329240 0.000000
-41.869450 -6.927243 0.129499 0.000000
-30.462408 -6.186240 0.771565 0.000000
-30.689482 -7.521513 1.499409 0.000000
-32.134003 -7.227477 1.588261 0.000000
-31.974302 -5.900361 1.623148 0.000000
-30.313089 -6.188179 1.521073 0.000000
-41.137264 -10.965396 1.968628 0.000000
-32.114159 -7.258454 2.385972 0.000000
-43.961548 -6.539705 2.271515 0.000000
-30.098024 -6.175801 2.261123 0.000000
-32.165783 -8.588673 2.356042 0.000000
-30.428602 -8.153860 3.005497 0.000000
-32.093620 -7.289356 3.185447 0.000000
-32.789932 -3.542945 3.358093 0.000000
-32.875477 -2.912793 3.388254 0.000000
-30.222418 -8.763788 3.747947 0.000000
-32.627445 -4.198190 4.125367 0.000000
-40.500336 -5.293060 4.072075 0.000000
-29.880362 -9.968538 4.475113 0.000000
-36.014149 -7.524733 4.455996 0.000000
-42.306477 -7.233018 5.220742 0.000000
-29.551409 -7.847142 -3.889883 0.000000
-29.643240 -7.234553 -3.857400 0.000000
-37.811211 -6.925692 -3.654567 0.000000
-29.742205 -6.625600 -3.826769 0.000000
-37.993404 -6.192037 -3.625991 0.000000
-29.851511 -6.020081 -3.798273 0.000000
-34.513283 -13.701288 -3.846631 0.000000
-34.774738 -13.018689 -3.818415 0.000000
-35.029591 -12.333310 -3.790388 0.000000
-35.895710 -11.841763 -3.819204 0.000000
-36.146736 -11.141561 -3.791619 0.000000
-36.641380 -9.734677 -3.738069 0.000000
-36.677814 -8.976999 -3.694056 0.000000
-31.227659 -6.992668 -3.180336 0.000000
-31.479345 -6.389479 -3.162805 0.000000
-37.081497 -5.289954 -3.508836 0.000000
-34.156368 -4.153912 -3.232129 0.000000
-44.697315 -13.748011 -3.437281 0.000000
-46.406528 -12.338134 -3.442794 0.000000
-46.798485 -11.485776 -3.414846 0.000000
-47.908737 -8.876280 -3.329013 0.000000
-48.628731 -7.099100 -3.272305 0.000000
-40.818249 -6.716754 -2.850147 0.000000
-48.955982 -6.194755 -3.242516 0.000000
-49.335869 -5.289506 -3.216121 0.000000
-49.681862 -4.371382 -3.188047 0.000000
-31.306536 -7.045349 -2.380577 0.000000
-31.433874 -6.415178 -2.352659 0.000000
-41.185333 -7.782658 1.153288 0.000000
-32.264095 -7.440235 1.686332 0.000000
-33.864380 -6.407345 1.808515 0.000000
-34.108913 -5.756888 1.844022 0.000000
-35.448170 -5.274885 1.936181 0.000000
-41.288300 -5.379979 2.262618 0.000000
-30.747225 -7.811428 3.191405 0.000000
-29.815538 -6.314019 3.131045 0.000000
-32.523224 -4.885225 3.436682 0.000000
-32.889824 -3.610968 3.511999 0.000000
-36.313164 -6.828354 -3.681947 0.000000
-36.488560 -6.095593 -3.654012 0.000000
-33.148640 -13.632704 -3.872939 0.000000
-33.655613 -12.261392 -3.818124 0.000000
-34.518963 -11.767879 -3.848508 0.000000
-34.764080 -11.065951 -3.821552 0.000000
-35.273876 -8.896887 -3.725377 0.000000
-35.353195 -8.154716 -3.687200 0.000000
-31.117035 -6.533042 -3.279110 0.000000
-35.264355 -5.150520 -3.510772 0.000000
-31.834694 -3.960508 -3.190160 0.000000
-43.184391 -13.616418 -3.467972 0.000000
-45.233799 -11.347221 -3.448119 0.000000
-45.601223 -10.486288 -3.420641 0.000000
-46.308666 -8.740645 -3.365091 0.000000
-46.899090 -6.951152 -3.303896 0.000000
-40.888569 -6.880736 -2.981609 0.000000
-47.211594 -6.050736 -3.274996 0.000000
-47.588593 -5.151135 -3.250284 0.000000
-46.596996 -4.107646 -3.146256 0.000000
-31.153011 -6.575462 -2.451293 0.000000
-30.639954 -9.977572 -0.101078 0.000000
-30.731243 -7.297907 0.826548 0.000000
-30.526520 -5.921926 0.868457 0.000000
-32.473484 -7.027755 1.753027 0.000000
-30.308651 -5.914522 1.670197 0.000000
-31.926289 -5.542080 1.770747 0.000000
-34.968506 -5.338115 1.944499 0.000000
-41.480755 -10.661771 2.131984 0.000000
-32.932724 -3.711341 3.612599 0.000000
-34.946941 -6.882692 3.723296 0.000000
-32.616959 -8.583815 4.339465 0.000000
-33.296272 -6.600010 4.452491 0.000000
-30.074409 -9.329454 4.865193 0.000000
-32.537952 -13.899736 -3.910867 0.000000
-32.794384 -13.199781 -3.882020 0.000000
-33.952991 -12.003767 -3.886348 0.000000
-34.205124 -11.288193 -3.858760 0.000000
-34.403858 -10.556465 -3.827170 0.000000
-34.774258 -9.086708 -3.764247 0.000000
-34.854702 -8.328361 -3.725037 0.000000
-35.796474 -6.966731 -3.715560 0.000000
-35.975479 -6.218930 -3.686828 0.000000
-35.335510 -5.345544 -3.591485 0.000000
-31.141888 -6.794479 -3.363221 0.000000
-47.397259 -5.274480 -3.272716 0.000000
-31.469028 -4.068645 -3.236046 0.000000
-42.875408 -13.921240 -3.498008 0.000000
-43.242867 -13.072865 -3.468765 0.000000
-45.359879 -10.726681 -3.448529 0.000000
-46.090954 -8.943964 -3.391532 0.000000
-46.474850 -8.045786 -3.364718 0.000000
-46.738064 -7.121272 -3.330962 0.000000
-47.026703 -6.195927 -3.299225 0.000000
-46.574734 -4.225807 -3.177899 0.000000
-31.176369 -6.838162 -2.503742 0.000000
-31.117477 -6.898871 -0.782984 0.000000
-41.440308 -7.328231 0.185759 0.000000
-40.109268 -10.602221 1.107538 0.000000
-33.192696 -8.934477 1.848227 0.000000
-32.146912 -7.225279 1.841920 0.000000
-30.282101 -6.148768 1.773036 0.000000
-31.960266 -5.763557 1.878473 0.000000
-30.693222 -7.650467 2.605538 0.000000
-30.687832 -7.685484 3.463154 0.000000
-32.562393 -8.931019 5.443898 0.000000
-32.639553 -8.213339 5.461186 0.000000
-32.092358 -13.441811 -3.917635 0.000000
-32.355324 -12.729851 -3.889597 0.000000
-33.268597 -12.223834 -3.921989 0.000000
-33.535332 -11.498578 -3.895118 0.000000
-33.733345 -10.752451 -3.862894 0.000000
-34.083675 -10.046538 -3.845007 0.000000
-34.222630 -8.491236 -3.762576 0.000000
-35.306210 -6.333100 -3.719584 0.000000
-35.174854 -5.523099 -3.665831 0.000000
-44.934616 -10.941504 -3.476691 0.000000
-45.958237 -8.191227 -3.385560 0.000000
-31.257111 -7.094864 -3.465443 0.000000
-31.429066 -6.400458 -3.438671 0.000000
-46.601913 -6.321692 -3.324644 0.000000
-46.960403 -5.381343 -3.296933 0.000000
-31.097206 -4.193625 -3.294123 0.000000
-46.085396 -4.309714 -3.199125 0.000000
-42.787399 -13.333912 -3.497422 0.000000
-44.165146 -12.727735 -3.534120 0.000000
-40.977634 -6.450175 -3.038226 0.000000
-31.340481 -7.149685 -2.574753 0.000000
-31.356064 -6.424451 -2.537574 0.000000
-30.943466 -7.141955 -0.777438 0.000000
-33.003338 -6.099115 0.176807 0.000000
-33.535141 -8.574896 1.984618 0.000000
-35.357159 -5.799100 2.173329 0.000000
-43.368824 -8.933676 2.518233 0.000000
-29.941200 -6.375236 2.717393 0.000000
-32.962658 -9.370448 5.725774 0.000000
-32.691975 -8.537985 5.694650 0.000000
-32.984798 -6.332130 5.766223 0.000000
-31.254612 -12.855370 -3.935344 0.000000
-32.173679 -12.342476 -3.967933 0.000000
-32.442463 -11.608651 -3.940680 0.000000
-32.655685 -10.857633 -3.909243 0.000000
-33.007660 -10.142920 -3.890978 0.000000
-33.242138 -7.793350 -3.769437 0.000000
-34.189827 -6.377358 -3.759616 0.000000
-43.176285 -12.854388 -3.578103 0.000000
-43.945370 -11.046556 -3.519581 0.000000
-44.324276 -10.132428 -3.490592 0.000000
-44.918148 -8.256034 -3.423802 0.000000
-31.090942 -6.596995 -3.543392 0.000000
-45.552734 -6.366438 -3.361453 0.000000
-45.904243 -5.416152 -3.332924 0.000000
-44.309685 -4.262765 -3.192970 0.000000
-46.302486 6.447470 -2.826316 0.000000
-48.287422 7.664431 -2.882625 0.000000
-41.790382 -13.468526 -3.541061 0.000000
-31.131290 -6.643506 -2.621763 0.000000
-30.761574 -7.512072 1.947693 0.000000
-32.584541 -7.119364 2.060399 0.000000
-32.418396 -7.903532 2.985715 0.000000
-32.598644 -4.091639 3.112452 0.000000
-30.593632 -7.592176 4.699774 0.000000
-35.539413 -5.355164 5.343667 0.000000
-30.005531 -9.736345 5.528414 0.000000
-31.703556 -12.735943 -3.991870 0.000000
-31.975906 -11.980885 -3.963953 0.000000
-32.192471 -11.208609 -3.931945 0.000000
-32.562473 -10.476894 -3.914224 0.000000
-32.734238 -9.690498 -3.880020 0.000000
-32.874126 -8.077133 -3.797410 0.000000
-31.133179 -6.931885 -3.607778 0.000000
-33.793091 -6.611600 -3.783025 0.000000
-33.964016 -5.817306 -3.752953 0.000000
-43.182125 -13.325378 -3.588918 0.000000
-43.578007 -12.396717 -3.558997 0.000000
-44.348049 -10.517012 -3.499167 0.000000
-45.105293 -8.609220 -3.440304 0.000000
-45.646320 -6.642312 -3.370539 0.000000
-45.960835 -5.657398 -3.338999 0.000000
-45.356117 -4.572154 -3.256279 0.000000
-29.649929 -4.410469 -3.365088 0.000000
-46.526360 6.573626 -2.837022 0.000000
-48.722244 7.842373 -2.901014 0.000000
-40.928677 -6.938725 -3.143895 0.000000
-31.221287 -6.988316 -2.651761 0.000000
-30.990425 -7.022954 -0.727015 0.000000
-40.441898 -9.892414 1.417635 0.000000
-43.231720 -6.564404 2.852815 0.000000
-33.142544 -6.789360 3.276517 0.000000
-40.514359 -5.296533 3.901158 0.000000
-34.036137 -6.166402 4.389564 0.000000
-32.607723 -3.562732 4.319986 0.000000
-32.885399 -6.826480 5.264938 0.000000
-30.777246 -12.529613 -3.987614 0.000000
-31.196711 -11.806271 -3.974175 0.000000
-31.508959 -11.046367 -3.951904 0.000000
-31.737917 -10.261565 -3.923195 0.000000
-31.901442 -9.460349 -3.889806 0.000000
-32.807495 -7.976444 -3.874052 0.000000
-31.114832 -6.827324 -3.690625 0.000000
-32.912567 -6.318796 -3.794846 0.000000
-32.727608 -5.459839 -3.737843 0.000000
-42.688942 -13.111009 -3.593151 0.000000
-43.060570 -12.156573 -3.563217 0.000000
-43.809158 -10.233281 -3.505222 0.000000
-44.425339 -8.263284 -3.441329 0.000000
-40.785461 -6.688702 -3.180760 0.000000
-45.015404 -6.269908 -3.378124 0.000000
-45.249557 -5.258123 -3.343880 0.000000
-43.557808 8.964457 -2.686814 0.000000
-37.350609 5.438582 -2.493822 0.000000
-38.584351 6.455545 -2.520157 0.000000
-40.534615 7.602016 -2.579381 0.000000
-31.169401 -6.876069 -2.698360 0.000000
-31.236631 -6.965856 -0.711718 0.000000
-32.163445 -7.216415 1.304348 0.000000
-40.670425 -9.788257 1.518927 0.000000
-30.167761 -10.905496 2.116306 0.000000
-32.033028 -5.634547 3.373903 0.000000
-32.582458 -8.291197 5.428713 0.000000
-32.689987 -11.772482 6.474905 0.000000
-30.826328 -12.120651 -3.981306 0.000000
-31.250118 -11.368655 -3.969780 0.000000
-31.463543 -10.555135 -3.941050 0.000000
-31.689903 -9.744623 -3.914360 0.000000
-31.245178 -7.098182 -3.748959 0.000000
-32.638706 -6.493507 -3.819894 0.000000
-32.745106 -5.653897 -3.788002 0.000000
-42.963215 -13.552824 -3.597131 0.000000
-43.316288 -12.559616 -3.567567 0.000000
-43.670326 -11.562595 -3.538673 0.000000
-44.680862 -8.532985 -3.452479 0.000000
-40.888344 -6.899748 -3.190162 0.000000
-45.178791 -6.462239 -3.387959 0.000000
-45.354752 -5.413062 -3.352638 0.000000
-43.200130 10.201338 -2.679325 0.000000
-31.336452 -7.151629 -2.720711 0.000000
-35.207489 5.435087 -2.426491 0.000000
-35.154446 6.315799 -2.394732 0.000000
-36.734024 7.385326 -2.440253 0.000000
-38.762768 8.573907 -2.505410 0.000000
-31.978882 -7.381259 0.381489 0.000000
-33.656166 -5.942313 0.453260 0.000000
-33.463520 -6.821496 1.498634 0.000000
-33.807243 -7.838205 3.664095 0.000000
-31.754452 -4.931989 3.568385 0.000000
-32.719826 -8.576106 5.719757 0.000000
-30.655491 -9.893270 -3.926080 0.000000
-31.702538 -7.485309 -3.890404 0.000000
-31.718731 -5.745034 -3.816305 0.000000
-29.941334 -11.465732 -3.952050 0.000000
-30.265190 -10.673609 -3.935924 0.000000
-30.664009 -9.021595 -3.885560 0.000000
-31.195183 -6.527062 -3.811739 0.000000
-42.409321 -13.842389 -3.612943 0.000000
-42.723412 -12.818885 -3.584696 0.000000
-43.037498 -11.792971 -3.557162 0.000000
-43.665565 -9.731647 -3.504147 0.000000
-41.020966 -7.165442 -3.268244 0.000000
-44.200634 -6.552831 -3.406656 0.000000
-44.402203 -5.494054 -3.377015 0.000000
-31.154934 -6.553443 -2.742751 0.000000
-29.894722 7.631833 -2.207080 0.000000
-30.059914 8.488307 -2.192970 0.000000
-30.547886 9.409144 -2.194247 0.000000
-31.020889 10.349667 -2.194910 0.000000
-36.785255 -7.640955 1.681934 0.000000
-41.084877 -12.584620 1.716548 0.000000
-32.347416 -7.806773 2.615692 0.000000
-36.578888 -8.677738 5.225524 0.000000
-31.664028 -11.333503 5.822813 0.000000
-34.469513 -6.507905 7.344233 0.000000
-42.601562 -12.023080 7.136068 0.000000
-29.533278 -10.824709 -3.916318 0.000000
-29.871271 -10.013149 -3.905782 0.000000
-29.878901 -9.123853 -3.869476 0.000000
-31.083178 -6.688947 -3.860443 0.000000
-31.125315 -5.806358 -3.830881 0.000000
-42.815994 -13.134785 -3.573295 0.000000
-43.079643 -12.064047 -3.547373 0.000000
-43.913712 -7.732691 -3.439328 0.000000
-43.966324 -6.627078 -3.405786 0.000000
-44.088127 -5.532505 -3.376945 0.000000
-31.138468 -6.726171 -2.760699 0.000000
-30.642321 -7.640201 1.608501 0.000000
-30.034128 -9.376081 4.833184 0.000000
-42.887863 -6.800515 8.892758 0.000000
-42.153038 -12.300572 -3.595041 0.000000
-42.364410 -11.202465 -3.570761 0.000000
-42.654694 -7.856764 -3.483817 0.000000
-40.928741 -6.506562 -3.355741 0.000000
-42.846466 -5.639600 -3.430406 0.000000
-38.729820 -4.125398 -3.175816 0.000000
-31.230061 -7.067289 -2.872476 0.000000
-30.161472 -6.103588 2.792886 0.000000
-32.645588 -8.409409 4.087460 0.000000
-41.144981 -13.535302 -3.661214 0.000000
-41.360229 -12.420214 -3.635723 0.000000
-41.573929 -11.305920 -3.611044 0.000000
-41.864403 -7.910859 -3.522591 0.000000
-42.008263 -5.655599 -3.465606 0.000000
-40.825668 -6.636030 -3.432080 0.000000
-37.417328 -4.083822 -3.184673 0.000000
-31.381136 -7.304195 -2.964633 0.000000
-33.361229 -7.766375 3.061016 0.000000
-42.228973 -12.793604 4.949844 0.000000
-32.482857 -8.651115 5.438842 0.000000
-34.331421 -5.999565 6.895089 0.000000
-37.746277 -10.754165 7.304939 0.000000
-40.507980 -13.744912 -3.676220 0.000000
-40.714653 -12.609399 -3.650863 0.000000
-40.919556 -11.475056 -3.626333 0.000000
-41.123161 -10.341450 -3.602638 0.000000
-41.138626 -9.176651 -3.569281 0.000000
-40.768921 -6.812455 -3.483657 0.000000
-41.112953 -5.708620 -3.471511 0.000000
-31.187292 -6.531344 -2.983381 0.000000
-36.275681 -4.099777 -3.179691 0.000000
-33.250923 -8.986619 1.902906 0.000000
-41.339569 -8.163387 2.197308 0.000000
-31.377657 -10.688945 4.287737 0.000000
-34.381287 -6.184952 7.135052 0.000000
-31.721937 -4.870002 8.056410 0.000000
-40.233643 -12.810706 -3.656243 0.000000
-40.423737 -11.651519 -3.631743 0.000000
-40.612305 -10.493693 -3.608102 0.000000
-40.615997 -6.949074 -3.512015 0.000000
-31.143782 -6.714044 -3.022917 0.000000
-35.430275 -4.117350 -3.175320 0.000000
-34.654228 -6.295044 3.426789 0.000000
-30.052145 -9.709300 5.618300 0.000000
-32.784081 -11.332808 5.893635 0.000000
-29.774790 -11.719030 8.111943 0.000000
-32.898155 -5.129026 8.518540 0.000000
-39.904083 -11.886153 -3.664310 0.000000
-40.080170 -10.704952 -3.640889 0.000000
-40.057281 -7.094891 -3.546346 0.000000
-40.087990 -5.908469 -3.519019 0.000000
-31.198814 -6.965748 -3.091861 0.000000
-34.756702 -4.209131 -3.206360 0.000000
-30.189922 -8.915726 -0.546426 0.000000
-32.118431 -7.196455 2.084972 0.000000
-38.526176 -12.028049 -3.718711 0.000000
-38.687454 -10.837127 -3.695745 0.000000
-38.551140 -7.191585 -3.598466 0.000000
-38.566475 -5.998923 -3.571548 0.000000
-32.519821 -4.215613 -3.217011 0.000000
-40.189682 -11.192863 0.817637 0.000000
-32.383759 -7.547323 2.119430 0.000000
-42.673759 -11.763857 7.214478 0.000000
-32.325165 -7.650595 8.923450 0.000000
-44.105236 -12.193419 -3.497527 0.000000
-44.281666 -10.874634 -3.472729 0.000000
-44.379414 -5.547939 -3.355784 0.000000
-40.954922 -6.477003 -3.224984 0.000000
-31.317505 -6.458154 -2.800773 0.000000
-30.512634 -9.688941 -0.118891 0.000000
-29.268417 -9.521866 3.889986 0.000000
-43.117668 -12.340049 -3.527754 0.000000
-43.294670 -11.003905 -3.502600 0.000000
-40.828079 -6.653634 -3.294515 0.000000
-43.337517 -5.602771 -3.381887 0.000000
-31.157158 -6.660259 -2.871492 0.000000
-29.315739 -8.675420 -0.089525 0.000000
-34.234261 -7.122606 -0.065453 0.000000
-40.526588 -11.992147 -3.632049 0.000000
-40.696167 -10.681578 -3.607546 0.000000
-40.578163 -6.685007 -3.509713 0.000000
-31.162689 -6.745745 -3.076573 0.000000
-38.067047 -5.124533 -3.359899 0.000000
-39.807159 -8.035226 4.611058 0.000000
-41.125885 -12.296367 -3.612691 0.000000
-41.305008 -10.956511 -3.587503 0.000000
-40.816429 -6.824703 -3.469684 0.000000
-39.979591 -5.404738 -3.401318 0.000000
-31.175034 -6.878389 -3.039393 0.000000
-32.918968 -7.212293 2.856410 0.000000
-40.982056 -13.695132 -3.639066 0.000000
-41.343948 -10.973694 -3.587568 0.000000
-40.789497 -6.776481 -3.467155 0.000000
-39.704964 -5.315652 -3.387960 0.000000
-31.180260 -6.870181 -3.044700 0.000000
-40.481911 -6.797310 -0.089540 0.000000
-35.475586 -7.541641 3.052884 0.000000
-40.494556 -13.624675 -3.650254 0.000000
-40.873539 -10.885096 -3.597996 0.000000
-40.791035 -6.710433 -3.497461 0.000000
-38.104214 -5.081777 -3.343879 0.000000
-31.170330 -6.842629 -3.077862 0.000000
-40.466328 -6.732444 -0.071983 0.000000
-35.600361 -7.527012 3.121333 0.000000
-32.346905 -8.389333 6.052545 0.000000
-40.274849 -10.920791 -3.626240 0.000000
-40.223869 -6.723625 -3.524242 0.000000
-37.497742 -5.082738 -3.367854 0.000000
-31.218102 -6.947062 -3.134148 0.000000
-40.506912 -6.816469 -0.077327 0.000000
-32.135414 -7.175407 3.020439 0.000000
-38.580280 -10.818748 -3.690628 0.000000
-38.534740 -9.418197 -3.653997 0.000000
-38.371540 -6.634449 -3.581053 0.000000
-35.186619 -4.962617 -3.399813 0.000000
-31.298740 -7.093841 -3.273092 0.000000
-30.378170 -9.516800 -0.202626 0.000000
-40.558994 -6.941634 -0.173713 0.000000
-34.345436 -10.231256 -3.832043 0.000000
-34.170441 -8.866281 -3.789412 0.000000
-33.789223 -6.171195 -3.706489 0.000000
-31.329185 -7.170514 -3.609545 0.000000
-33.122505 -12.924554 -3.927570 0.000000
-33.354950 -11.608990 -3.903856 0.000000
-33.548424 -10.287318 -3.879100 0.000000
-33.398026 -8.916033 -3.837260 0.000000
-32.952019 -6.193146 -3.749967 0.000000
-33.227009 -12.991924 -3.920835 0.000000
-33.481647 -8.912901 -3.830080 0.000000
-33.019184 -6.145401 -3.742996 0.000000
-33.158085 -13.597371 -3.932761 0.000000
-33.583561 -9.471787 -3.851197 0.000000
-31.289341 -6.440737 -3.672370 0.000000
-30.268696 -9.030948 -0.384333 0.000000
-32.644047 -13.721024 -3.956665 0.000000
-32.869900 -12.344888 -3.931524 0.000000
-33.149349 -9.569243 -3.875686 0.000000
-31.128841 -6.541699 -3.708697 0.000000
-32.960499 -6.868347 3.105414 0.000000
-31.899639 -13.804127 -3.986771 0.000000
-32.126186 -12.419579 -3.961453 0.000000
-32.451595 -9.633864 -3.907542 0.000000
-31.135128 -6.667948 -3.775285 0.000000
-32.978371 -7.095750 3.029890 0.000000
-31.330780 -12.938851 -3.993215 0.000000
-31.547478 -11.494104 -3.968519 0.000000
-31.421555 -8.533140 -3.894898 0.000000
-31.990593 -13.321530 -3.971027 0.000000
-32.215652 -11.840591 -3.945694 0.000000
-32.194473 -8.818473 -3.875902 0.000000
-31.577042 -5.768445 -3.783164 0.000000
-31.543098 -8.792782 -0.148249 0.000000
-31.523006 -11.931593 -3.971834 0.000000
-31.533192 -8.890802 -3.902817 0.000000
-30.486530 -5.776199 -3.789178 0.000000
-31.358418 -9.107330 -0.180931 0.000000
-35.867313 10.612888 4.381790 0.000000
-36.144459 10.388084 9.285673 0.000000
-36.580132 -4.735901 1.547980 0.000000
-41.193321 -5.783798 1.552206 0.000000
-33.264046 -2.002853 4.035467 0.000000
-32.734116 -4.165100 4.048014 0.000000
-41.778458 -9.068810 6.992514 0.000000
-31.207848 -2.881378 8.937990 0.000000
-38.732056 -3.857307 9.368297 0.000000
-39.412399 -7.122726 9.526940 0.000000
-39.201492 -6.961853 12.176605 0.000000
-31.174187 -6.762650 -0.867519 0.000000
-36.547844 -6.144127 1.640752 0.000000
-40.321350 -6.602913 1.650451 0.000000
-30.125916 -8.531395 1.611695 0.000000
-33.266663 -8.706253 1.620587 0.000000
-33.768387 -1.190262 4.103931 0.000000
-31.975258 -2.235619 4.079108 0.000000
-41.000237 -4.461616 4.280496 0.000000
-31.852783 -4.734825 4.102698 0.000000
-32.664757 -8.169167 4.154987 0.000000
-33.276550 -6.017716 6.658632 0.000000
-32.601425 -8.128021 6.688173 0.000000
-40.244019 -9.351700 6.991568 0.000000
-31.535240 -1.889824 8.925356 0.000000
-31.937027 -4.842827 9.062055 0.000000
-30.738243 -9.167282 9.175474 0.000000
-40.838379 -7.082939 9.618771 0.000000
-43.185471 -6.243286 9.713843 0.000000
-29.814217 -5.593788 11.446693 0.000000
-41.217915 -6.199974 -1.204203 0.000000
-31.822788 -6.097580 -1.049336 0.000000
-36.188961 -4.656426 1.422546 0.000000
-40.332256 -11.033981 1.400499 0.000000
-38.960979 -1.729134 3.955381 0.000000
-33.248646 -2.141281 3.862812 0.000000
-35.410450 -6.666725 3.947544 0.000000
-33.733097 -7.884682 6.458760 0.000000
-43.218433 -5.143349 6.706316 0.000000
-40.997227 -8.803635 6.720263 0.000000
-31.079563 -2.832901 8.654906 0.000000
-33.405964 -7.592629 8.960694 0.000000
-44.778500 -3.688843 9.381431 0.000000
-38.753399 -4.195747 9.091037 0.000000
-37.766071 -6.038620 9.112742 0.000000
-44.017590 -5.792320 9.419768 0.000000
-39.443226 -2.142792 11.598308 0.000000
-36.884258 -5.290756 11.590064 0.000000
-33.530529 -7.716751 11.502721 0.000000
-44.652073 -9.095154 12.311687 0.000000
-37.007553 -4.366135 1.500943 0.000000
-41.440994 -5.436844 1.502503 0.000000
-32.360527 -5.533722 1.490215 0.000000
-36.043175 -6.189629 1.492439 0.000000
-32.015068 -2.621086 3.899183 0.000000
-29.337372 -5.367020 3.882372 0.000000
-33.514969 -1.381042 3.912921 0.000000
-42.960808 -4.008499 4.110195 0.000000
-40.918777 -5.017311 4.082846 0.000000
-32.184387 -5.384163 3.931624 0.000000
-33.421539 -6.536263 6.445656 0.000000
-32.319283 -8.223686 6.452765 0.000000
-45.789291 -9.066185 6.931310 0.000000
-31.388489 -2.088478 8.650937 0.000000
-34.087036 -7.162186 8.988573 0.000000
-32.749855 -8.647469 8.983529 0.000000
-44.594276 -5.341003 9.454676 0.000000
-42.985123 -6.755989 9.423679 0.000000
-31.011665 -9.752579 11.447568 0.000000
-39.739273 -6.763268 11.855639 0.000000
-40.809925 -6.454788 -0.245499 0.000000
-34.349834 -3.483490 2.276640 0.000000
-34.195637 -5.977036 2.271492 0.000000
-32.264942 -6.851303 2.253909 0.000000
-32.131611 -1.531128 4.620170 0.000000
-42.938503 -5.591583 4.941451 0.000000
-35.695354 -7.382286 4.784463 0.000000
-34.701168 -9.200264 4.784608 0.000000
-44.319157 -9.515007 5.025250 0.000000
-36.563602 -8.206139 7.348226 0.000000
-34.003132 -8.557793 7.255086 0.000000
-44.743519 -7.111046 7.656262 0.000000
-41.341236 -9.751480 7.585988 0.000000
-31.923687 -1.388664 9.331212 0.000000
-31.125317 -3.213806 9.363201 0.000000
-33.623013 -8.218674 9.720418 0.000000
-39.845745 -5.716225 9.968998 0.000000
-43.406040 -6.023849 10.189891 0.000000
-31.287807 -6.011353 11.920877 0.000000
-38.323910 -7.111351 12.496589 0.000000
-33.483505 -6.539665 -0.278048 0.000000
-31.096336 -6.914360 -0.260349 0.000000
-34.699463 -5.031258 2.159145 0.000000
-32.169205 -5.301224 2.144334 0.000000
-29.331207 -7.867790 2.127179 0.000000
-32.942444 -8.750587 2.148012 0.000000
-39.747704 10.292747 2.192247 0.000000
-32.377960 -2.908180 4.504544 0.000000
-32.235245 -5.378044 4.537688 0.000000
-45.652412 -3.864098 4.815279 0.000000
-32.563484 -0.562180 6.804571 0.000000
-33.879799 -6.959740 7.042217 0.000000
-33.647415 -12.309853 7.196483 0.000000
-42.883987 -12.592781 7.548510 0.000000
-35.955177 10.713547 8.873610 0.000000
-31.520607 -2.145302 9.151613 0.000000
-35.100037 -2.829735 9.376484 0.000000
-34.439224 -7.507362 9.547316 0.000000
-31.870468 -7.736343 9.421838 0.000000
-30.929077 -9.546028 9.456438 0.000000
-29.554398 -5.463608 11.563197 0.000000
-39.604691 -6.848045 12.346564 0.000000
-40.835152 -6.588509 -0.471974 0.000000
-29.276169 -9.043388 2.033474 0.000000
-44.612885 -4.470978 4.613410 0.000000
-35.180382 -6.779785 4.477913 0.000000
-33.373047 -10.504440 6.979495 0.000000
-44.346344 -9.702637 7.323979 0.000000
-31.219872 -3.009148 8.987015 0.000000
-43.134483 -3.246468 9.607449 0.000000
-39.508507 -5.408524 9.516117 0.000000
-32.739624 -7.110359 9.257572 0.000000
-31.234795 -8.321808 9.243581 0.000000
-33.716820 -8.073494 11.800122 0.000000
-44.698586 -10.013878 12.645462 0.000000
-36.427177 -4.049965 1.037480 0.000000
-41.262566 -5.785248 0.987663 0.000000
-44.992134 -6.353355 0.946216 0.000000
-32.632133 -3.042458 3.394363 0.000000
-38.165581 -3.000710 3.417667 0.000000
-39.673492 -6.999054 3.498601 0.000000
-43.430008 -2.330452 5.915133 0.000000
-43.891350 -5.338989 6.021538 0.000000
-36.800217 -6.973602 5.929096 0.000000
-35.564117 -5.761116 8.272541 0.000000
-41.397522 -5.797669 8.487387 0.000000
-39.776978 -7.020943 8.486116 0.000000
-46.765274 -5.052406 8.656897 0.000000
-44.901474 -6.168282 8.636784 0.000000
-36.553230 10.240906 9.776883 0.000000
-33.036461 -0.796730 10.240201 0.000000
-32.086128 -2.418465 10.293919 0.000000
-43.892212 -2.644394 10.942190 0.000000
-39.244553 -3.853531 10.761551 0.000000
-32.234306 -10.586655 10.839566 0.000000
-45.447060 -6.599220 11.266284 0.000000
-31.789253 -6.114288 -0.164522 0.000000
-34.303658 -5.963272 2.159426 0.000000
-32.815155 -7.143875 2.168286 0.000000
-41.637039 -7.572708 2.168515 0.000000
-41.251480 -9.969261 2.183502 0.000000
-46.872574 10.492912 4.437117 0.000000
-39.440933 -0.407799 4.489673 0.000000
-32.119530 -1.260101 4.386962 0.000000
-35.197731 -6.827827 4.555168 0.000000
-42.390625 -8.250313 4.698193 0.000000
-34.288353 -8.629539 4.581761 0.000000
-34.242157 -5.869171 6.883208 0.000000
-33.203918 -7.504524 6.913481 0.000000
-43.450836 -6.478584 7.198696 0.000000
-39.566742 -8.332771 7.139574 0.000000
-33.419182 -10.486900 7.034721 0.000000
-48.045609 -5.060608 7.305697 0.000000
-32.078026 -1.191017 8.906513 0.000000
-31.244202 -2.898628 8.956545 0.000000
-32.787010 -7.061035 9.248669 0.000000
-39.342911 -5.419548 9.469935 0.000000
-33.953415 -11.031334 9.516325 0.000000
-45.082069 -5.215668 9.743338 0.000000
-44.206284 -7.134888 9.793266 0.000000
-33.691322 -7.965294 11.737940 0.000000
-38.006729 -6.816109 11.926809 0.000000
-29.384789 -3.187500 1.425059 0.000000
-36.057426 -4.684654 1.445861 0.000000
-41.649010 -7.325188 1.451747 0.000000
-40.656723 -11.931938 1.408425 0.000000
-34.797409 -6.112030 3.778237 0.000000
-30.870621 -7.414345 3.708668 0.000000
-33.577156 -7.554512 3.763895 0.000000
-30.161552 -9.388748 3.709969 0.000000
-45.689323 -5.619217 4.003353 0.000000
-42.863892 -5.785522 3.944078 0.000000
-41.709427 -10.168251 3.948558 0.000000
-40.299019 -0.968018 6.223833 0.000000
-44.429276 -1.966598 6.401609 0.000000
-43.843864 -6.699142 6.475433 0.000000
-36.611839 -7.956741 6.237419 0.000000
-40.456345 -8.992004 6.399426 0.000000
-33.889847 -10.681824 6.204063 0.000000
-31.154701 -2.532631 8.164548 0.000000
-37.397057 -6.070854 8.620624 0.000000
-33.199615 -7.227272 8.448946 0.000000
-33.427261 -10.218880 8.577565 0.000000
-29.613625 -11.667648 8.449625 0.000000
-39.232712 -5.168823 8.683950 0.000000
-46.031502 -5.980514 9.078049 0.000000
-44.306900 -7.148163 9.025687 0.000000
-32.674728 -1.540955 10.465842 0.000000
-39.141693 -2.528557 10.962811 0.000000
-33.169266 -4.577698 10.659961 0.000000
-33.221306 -7.281548 10.809482 0.000000
-32.012901 -8.734726 10.810682 0.000000
-44.689873 -2.246765 11.343236 0.000000
-40.672493 -6.543198 11.272893 0.000000
-46.200066 -6.159271 11.640813 0.000000
-41.010960 -6.470421 -1.829559 0.000000
-31.001461 -1.928276 0.631583 0.000000
-44.528057 -4.450562 0.674883 0.000000
-32.154499 -5.702515 0.558008 0.000000
-30.920856 -7.060890 0.519577 0.000000
-41.527515 -7.028908 0.597160 0.000000
-38.692837 -1.849068 3.017433 0.000000
-31.396893 -2.394203 2.846283 0.000000
-33.005978 -6.665329 2.856626 0.000000
-37.619579 -6.010681 2.964754 0.000000
-43.921612 -3.984055 3.125009 0.000000
-32.288525 -0.844223 5.089219 0.000000
-34.706692 -5.824348 5.226936 0.000000
-35.131771 -8.971565 5.273334 0.000000
-43.374043 -3.568726 5.545897 0.000000
-46.618793 -3.785187 5.677926 0.000000
-45.175686 -10.628510 5.671762 0.000000
-37.322407 10.794804 7.343756 0.000000
-33.630192 0.256371 7.352346 0.000000
-48.548359 9.265411 8.046615 0.000000
-33.781597 -7.618690 7.554097 0.000000
-36.611515 -7.830742 7.708937 0.000000
-43.639050 -3.871697 8.001900 0.000000
-47.079624 -4.248375 8.205149 0.000000
-38.773403 -7.281776 7.811388 0.000000
-44.108631 -6.944984 8.096065 0.000000
-36.920864 11.045002 9.443276 0.000000
-32.259220 -0.943398 9.528932 0.000000
-31.469952 -2.663078 9.543240 0.000000
-33.000004 -6.863281 9.820106 0.000000
-31.527172 -7.994987 9.769230 0.000000
-44.388332 -2.017113 10.440159 0.000000
-43.072559 -3.438835 10.394301 0.000000
-40.147793 -5.999039 10.279841 0.000000
-43.313747 -6.286766 10.516364 0.000000
-29.255924 -5.580925 11.772656 0.000000
-38.354412 -7.009277 12.612568 0.000000
-50.783428 -8.769829 -2.814831 0.000000
-29.738323 7.709305 -1.847007 0.000000
-34.016132 -6.317566 -0.207516 0.000000
-41.469181 -5.760788 -0.156647 0.000000
-31.132336 -5.901115 -0.208677 0.000000
-35.157711 -4.921059 2.144890 0.000000
-33.777515 -6.144211 2.100986 0.000000
-32.323040 -7.282967 2.057462 0.000000
-42.327160 -4.005257 2.303463 0.000000
-41.590778 -8.677040 2.221792 0.000000
-32.076733 -1.849709 4.337333 0.000000
-39.680355 -1.649010 4.610818 0.000000
-44.990047 -3.881409 4.807329 0.000000
-43.740582 -10.883102 4.765371 0.000000
-33.388569 -5.889931 6.689406 0.000000
-43.134731 -4.911293 7.173115 0.000000
-41.918034 -9.167648 7.177290 0.000000
-31.287861 -1.192589 8.696620 0.000000
-31.595936 -4.067062 8.813500 0.000000
-30.598194 -5.626099 8.803631 0.000000
-38.790432 -3.528038 9.273316 0.000000
-32.044231 -9.991074 9.050752 0.000000
-43.465366 -2.687057 9.570736 0.000000
-39.633625 -6.991684 9.439325 0.000000
-44.192272 -5.969086 9.717399 0.000000
-29.720150 -4.738449 10.952353 0.000000
-31.376408 -9.312035 11.319232 0.000000
-39.383739 -6.826416 11.833669 0.000000
-44.372364 -8.947006 12.347915 0.000000
-31.969322 -6.275040 -1.671564 0.000000
-41.525551 -5.560623 0.785390 0.000000
-32.260391 -6.712631 0.589251 0.000000
-45.157921 -6.335419 0.825139 0.000000
-46.165298 9.902309 3.595387 0.000000
-37.727516 -1.981796 3.115206 0.000000
-32.351479 -6.927719 2.868439 0.000000
-39.958588 -6.820656 3.116373 0.000000
-45.216537 -6.505516 3.294982 0.000000
-39.672905 -9.288239 3.070833 0.000000
-41.717514 10.915932 5.629032 0.000000
-30.995316 -0.347610 5.078364 0.000000
-43.365036 -2.269318 5.681706 0.000000
-40.513367 -4.801956 5.540189 0.000000
-35.046829 -7.266273 5.280519 0.000000
-32.728127 -10.273926 5.179398 0.000000
-47.364059 -3.244858 5.880566 0.000000
-34.016953 -6.265961 7.532677 0.000000
-33.164688 -8.067131 7.512940 0.000000
-30.342720 -10.453644 7.388953 0.000000
-38.515289 -8.313888 7.848912 0.000000
-39.998589 -7.090576 7.922374 0.000000
-44.523628 -6.084229 8.198447 0.000000
-43.580658 -7.904846 8.164575 0.000000
-36.513512 10.504879 9.546108 0.000000
-31.959862 -1.567467 9.524790 0.000000
-31.163261 -3.285500 9.520379 0.000000
-32.509033 -7.446747 9.766101 0.000000
-39.051308 -3.599518 10.150173 0.000000
-31.499298 -9.082413 9.748080 0.000000
-39.771240 -6.976158 10.312869 0.000000
-44.962006 -6.612778 10.717852 0.000000
-51.823418 0.902863 -2.657660 0.000000
-31.811874 -6.145866 -0.655366 0.000000
-32.384918 -6.911209 1.594845 0.000000
-38.526596 -5.405350 1.778456 0.000000
-36.724663 -6.220116 1.715209 0.000000
-41.296928 -5.516746 1.844357 0.000000
-33.904648 -0.771698 3.973242 0.000000
-33.155510 -2.537880 3.929924 0.000000
-43.857986 -2.808464 4.360089 0.000000
-32.340599 -6.974228 3.867490 0.000000
-29.454994 -9.183456 3.745856 0.000000
-35.468414 -7.717415 3.982786 0.000000
-33.213280 -5.345268 6.175345 0.000000
-33.153915 -8.017342 6.197828 0.000000
-44.125359 -5.819839 6.780583 0.000000
-42.506454 -6.950401 6.696677 0.000000
-46.759850 -5.611916 6.929879 0.000000
-39.021759 -8.896629 6.519522 0.000000
-30.969482 -2.978722 8.229928 0.000000
-34.847191 -4.561546 8.535839 0.000000
-32.336319 -7.197296 8.431665 0.000000
-31.527763 -9.057442 8.428022 0.000000
-43.606636 -2.804558 9.123089 0.000000
-41.128914 -5.697945 9.004569 0.000000
-39.740601 -7.000443 8.935771 0.000000
-43.888062 -5.709717 9.203520 0.000000
-32.397453 -2.056725 10.514024 0.000000
-30.465034 -5.167580 10.483364 0.000000
-31.131508 -8.703651 10.691195 0.000000
-39.114899 -6.472252 11.260550 0.000000
-43.863518 -5.804169 11.648902 0.000000
-35.888638 -4.586174 1.150030 0.000000
-37.990932 -4.137756 1.191359 0.000000
-32.824871 -1.382172 3.361065 0.000000
-34.096699 -5.407875 3.374879 0.000000
-31.016544 -2.064171 5.475327 0.000000
-35.693386 -4.549553 5.707217 0.000000
-43.893017 -2.263229 6.067248 0.000000
-32.458187 -1.236839 9.901853 0.000000
-31.513447 -2.784241 9.898077 0.000000
-29.364651 -8.456779 10.001686 0.000000
-33.023533 -7.196823 10.200700 0.000000
-38.345432 -4.858086 10.493523 0.000000
-32.839588 -1.648041 3.510361 0.000000
-30.954365 -2.267281 5.593966 0.000000
-31.209316 -2.688805 7.791487 0.000000
-32.383129 -1.527687 10.037086 0.000000
-32.110531 -3.855438 10.096624 0.000000
-31.066212 -5.348709 10.065133 0.000000
-30.897331 -2.424538 0.461518 0.000000
-32.564629 -1.705978 0.533514 0.000000
-41.482933 10.835091 5.548119 0.000000
-32.431198 -1.858177 4.877235 0.000000
-36.812859 10.336300 7.314115 0.000000
-36.377060 10.589481 9.333362 0.000000
-31.832001 -1.476570 9.182362 0.000000
-31.086365 -3.261810 9.166799 0.000000
-32.274723 -0.394485 0.112380 0.000000
-31.290920 -2.266357 8.697743 0.000000
-32.053902 -1.703445 4.322335 0.000000
-30.909086 -0.391006 8.537996 0.000000
-31.404436 -3.715157 8.717275 0.000000
-31.439980 -6.247322 -2.272376 0.000000
-31.116848 -5.897438 -0.021040 0.000000
-31.472610 -0.775429 2.273319 0.000000
-32.032146 -1.538261 4.443877 0.000000
-30.829159 -0.214211 8.665765 0.000000
-31.626270 -3.969406 8.862548 0.000000
-30.846193 -7.243126 1.979164 0.000000
-32.793541 -6.819015 2.027218 0.000000
-34.145317 -5.594658 2.077432 0.000000
-30.869646 -7.374107 4.243841 0.000000
-32.813118 -4.011909 4.307928 0.000000
-39.411736 -0.700294 4.567666 0.000000
-37.338814 -6.732284 4.473276 0.000000
-40.703888 -4.912460 4.605926 0.000000
-33.059586 -7.372498 6.615983 0.000000
-36.481445 -8.763145 6.808290 0.000000
-31.284109 -2.275368 8.627513 0.000000
-32.685989 -6.983986 8.880644 0.000000
-35.249924 -4.391365 8.953394 0.000000
-33.838776 -11.622398 9.120089 0.000000
-39.828278 -7.008942 9.339836 0.000000
-33.307777 -7.905617 11.272627 0.000000
-39.573639 -6.820427 11.705795 0.000000
-31.253416 -6.615067 -1.248635 0.000000
-36.316673 -4.279396 1.174779 0.000000
-38.990578 -4.584488 1.214911 0.000000
-43.483643 -6.857628 1.238542 0.000000
-45.897591 -6.602745 1.291457 0.000000
-30.119841 -5.277916 3.287703 0.000000
-32.042213 -4.851891 3.346782 0.000000
-32.558205 -2.595886 3.379300 0.000000
-41.625763 -7.808708 3.619944 0.000000
-38.789787 10.945534 5.838555 0.000000
-31.335440 -1.147110 5.540427 0.000000
-33.569679 -6.966865 5.694307 0.000000
-33.207581 -9.595009 5.707012 0.000000
-36.480225 -4.697166 5.801646 0.000000
-44.044685 -1.976501 6.144757 0.000000
-43.528633 -7.144043 6.147205 0.000000
-29.911013 -5.197800 7.762516 0.000000
-31.047686 -3.750221 7.784685 0.000000
-35.127502 -6.070961 8.079569 0.000000
-40.704453 -6.949943 8.431656 0.000000
-45.091965 -6.073624 8.683978 0.000000
-44.516396 -8.391655 8.699222 0.000000
-29.338903 -4.517807 9.939562 0.000000
-31.946573 -2.130096 10.013039 0.000000
-29.911596 -8.391792 10.160155 0.000000
-33.340797 -6.879822 10.321784 0.000000
-36.314484 -4.712761 10.439027 0.000000
-40.017647 -6.250778 10.776556 0.000000
-44.172813 -2.346382 10.947689 0.000000
-43.528389 -7.380440 11.087390 0.000000
-45.420189 -6.556290 11.202035 0.000000
-39.239502 -8.421555 13.246374 0.000000
-40.965904 -6.451622 -1.231834 0.000000
-30.747416 -5.758659 0.988038 0.000000
-36.505272 -4.187828 1.164520 0.000000
-37.958755 -3.026718 1.234923 0.000000
-46.237846 -6.639717 1.322833 0.000000
-32.616722 -2.377129 3.376700 0.000000
-34.479095 -7.813095 3.373625 0.000000
-40.607155 -9.380142 3.574876 0.000000
-42.164429 -8.166916 3.650604 0.000000
-42.778275 -5.866867 3.708626 0.000000
-31.420988 -0.981255 5.559207 0.000000
-33.696350 -6.915344 5.697545 0.000000
-36.638878 -4.630272 5.834516 0.000000
-44.284966 -1.912132 6.238435 0.000000
-45.054726 -8.631348 6.281049 0.000000
-46.411613 -7.134201 6.353098 0.000000
-30.410879 -5.699318 7.813119 0.000000
-33.433060 -6.704514 8.020256 0.000000
-35.263107 -6.034569 8.119865 0.000000
-39.320305 -5.069778 8.362895 0.000000
-38.622917 -7.222656 8.359171 0.000000
-44.024376 -7.596100 8.723493 0.000000
-45.256256 -6.000885 8.780544 0.000000
-46.950722 -4.921021 8.881721 0.000000
-32.067177 -2.073738 10.077501 0.000000
-30.037706 -8.458771 10.186636 0.000000
-33.432518 -6.842659 10.367952 0.000000
-36.530319 -4.775986 10.525991 0.000000
-40.333015 -6.423553 10.887764 0.000000
-44.362801 -2.287102 11.083561 0.000000
-43.612953 -7.271675 11.183483 0.000000
-45.559814 -6.489395 11.318693 0.000000
-38.378929 -7.209816 13.187719 0.000000
-29.506824 -2.042152 0.722843 0.000000
-30.915413 -7.083420 0.601492 0.000000
-37.981129 -1.052376 0.869923 0.000000
-45.187061 -6.419014 0.820707 0.000000
-32.378632 -2.978470 3.010310 0.000000
-32.915512 -6.766502 2.984387 0.000000
-37.253887 -6.208229 3.106095 0.000000
-40.148228 -6.720436 3.180998 0.000000
-41.177448 -4.920113 3.233557 0.000000
-30.779999 -0.988609 5.210607 0.000000
-30.872559 -7.230171 5.260158 0.000000
-33.101002 -7.124489 5.344185 0.000000
-35.875103 -4.577004 5.438483 0.000000
-41.480030 -5.391777 5.679322 0.000000
-43.515476 -1.850655 5.760993 0.000000
-47.478519 -3.249924 5.946018 0.000000
-42.522938 -9.731384 5.741700 0.000000
-31.395496 -8.071716 7.643072 0.000000
-33.579624 -7.882011 7.749399 0.000000
-36.390903 -8.449486 7.910634 0.000000
-41.687466 -5.752609 8.144851 0.000000
-36.604832 10.513596 9.670898 0.000000
-40.857990 -10.991463 8.210660 0.000000
-44.613285 -6.128548 8.322988 0.000000
-43.565182 -11.123177 8.363649 0.000000
-31.715939 -2.421768 9.784923 0.000000
-31.361149 -8.128380 10.005055 0.000000
-32.959839 -7.146004 10.064471 0.000000
-35.687801 -4.558617 10.139235 0.000000
