# .PCD v0.7 - Point Cloud Data file format
VERSION 0.7
FIELDS x y z intensity
SIZE 4 4 4 4
TYPE F F F F
COUNT 1 1 1 1
WIDTH 1223
HEIGHT 1
VIEWPOINT 0 0 0 1 0 0 0
POINTS 1223
DATA ascii
-40.511684 15.434697 0.022423 0.000000
-40.780777 16.351028 0.063815 0.000000
-34.371098 13.940767 0.853097 0.000000
-37.703949 14.405654 0.904222 0.000000
-50.164875 16.767853 1.131641 0.000000
-50.997009 18.024239 1.208023 0.000000
-39.564419 15.003313 1.891056 0.000000
-40.036110 16.790455 2.018911 0.000000
-40.066097 18.471287 2.129985 0.000000
-33.574207 12.882006 2.389516 0.000000
-49.557594 17.489080 2.330764 0.000000
-46.865738 18.477484 2.317595 0.000000
-37.792423 15.874032 2.808825 0.000000
-36.759087 17.009552 2.843485 0.000000
-36.112591 17.504688 2.850478 0.000000
-35.613323 18.053778 2.869273 0.000000
-35.196766 18.634869 2.895173 0.000000
-33.505634 12.146382 3.132204 0.000000
-43.576828 15.475373 3.062164 0.000000
-39.703529 15.800591 2.895810 0.000000
-35.964359 12.237113 3.312055 0.000000
-37.458328 14.177158 3.565222 0.000000
-35.722656 17.282146 3.699782 0.000000
-35.143246 17.785681 3.704429 0.000000
-39.630642 12.588185 3.597710 0.000000
-40.997211 17.055435 4.038362 0.000000
-41.080437 17.935268 4.115782 0.000000
-36.146179 19.049046 3.880588 0.000000
-46.115517 18.084270 4.473199 0.000000
-34.738277 18.313738 4.602095 0.000000
-36.448074 17.555712 4.676756 0.000000
-35.466854 17.887791 4.623365 0.000000
-41.554150 16.369764 5.021246 0.000000
-41.573360 17.222445 5.097945 0.000000
-40.213715 17.531864 5.004950 0.000000
-44.002285 16.375496 5.242448 0.000000
-42.243576 14.052456 5.890649 0.000000
-32.944290 14.515154 5.716658 0.000000
-40.926872 15.267415 5.852769 0.000000
-40.729713 16.017828 5.901146 0.000000
-38.706730 16.873343 5.761796 0.000000
-37.003742 14.622211 6.258327 0.000000
-35.233219 18.455523 6.452167 0.000000
-34.569939 18.907610 6.423050 0.000000
-40.766521 14.351853 6.729855 0.000000
-47.786278 16.668659 6.747664 0.000000
-40.167881 16.578938 6.876178 0.000000
-42.109177 15.617567 7.033151 0.000000
-49.518955 20.198854 7.270724 0.000000
-29.893818 11.626134 -2.124703 0.000000
-29.943161 12.268168 -2.110908 0.000000
-29.306547 13.932449 -2.024840 0.000000
-34.605389 16.724361 0.297012 0.000000
-34.193569 13.584735 0.992404 0.000000
-37.766285 14.042813 1.059405 0.000000
-34.143433 14.281809 1.030342 0.000000
-39.001812 13.606961 1.993536 0.000000
-37.611668 13.945914 1.968836 0.000000
-38.075634 15.669453 2.091131 0.000000
-40.449085 18.241583 2.330436 0.000000
-47.576996 18.149330 2.552314 0.000000
-33.615772 12.605843 2.582431 0.000000
-36.495026 17.388283 3.073578 0.000000
-35.865547 17.911602 3.080224 0.000000
-35.400547 18.497501 3.100764 0.000000
-35.136017 19.174147 3.139136 0.000000
-39.397594 12.890492 2.912358 0.000000
-39.174671 13.611852 2.948461 0.000000
-38.195400 15.664894 3.037786 0.000000
-39.516647 17.814213 3.260729 0.000000
-35.278294 17.604231 3.930308 0.000000
-46.994644 17.890797 3.658593 0.000000
-34.719193 18.134165 3.935541 0.000000
-38.310333 15.658176 3.991835 0.000000
-37.514103 16.959351 4.037369 0.000000
-36.029411 17.144144 3.945666 0.000000
-34.669239 12.153897 4.307284 0.000000
-43.238625 14.796738 4.291554 0.000000
-41.167347 15.840195 4.216104 0.000000
-46.508038 14.865057 4.541679 0.000000
-35.856777 17.812658 4.909275 0.000000
-49.601360 17.719824 4.983475 0.000000
-34.946510 18.192539 4.862209 0.000000
-36.952251 19.957254 5.211163 0.000000
-33.361286 13.086618 5.093674 0.000000
-40.108929 15.428095 5.094427 0.000000
-53.057518 15.690770 5.094557 0.000000
-40.150234 18.830301 5.396060 0.000000
-38.355465 12.452181 5.621070 0.000000
-39.723267 16.068237 6.102207 0.000000
-38.995258 17.452984 6.151394 0.000000
-49.075397 17.489883 6.117261 0.000000
-43.306908 12.995658 6.250795 0.000000
-36.510334 13.360227 6.391841 0.000000
-41.289566 14.936421 6.180193 0.000000
-50.413582 19.970579 6.452108 0.000000
-40.487030 16.290855 7.224437 0.000000
-49.885220 16.691538 7.337807 0.000000
-40.175488 17.871593 7.346117 0.000000
-42.950287 16.288250 7.559978 0.000000
-33.259361 15.160704 0.226867 0.000000
-34.753090 16.506256 0.276609 0.000000
-34.079948 13.223355 0.991583 0.000000
-34.440266 14.075141 1.041509 0.000000
-43.339771 15.285824 2.283939 0.000000
-40.183453 15.159234 2.172017 0.000000
-40.417072 17.816650 2.342265 0.000000
-47.420773 18.490854 2.611075 0.000000
-35.585030 18.310579 3.156181 0.000000
-35.251015 18.976555 3.188309 0.000000
-36.096127 17.718098 3.139388 0.000000
-39.839001 18.415697 3.384112 0.000000
-39.919796 13.324053 4.033046 0.000000
-36.764771 13.190248 3.785688 0.000000
-35.527161 17.431257 4.019569 0.000000
-48.961861 17.945187 3.835828 0.000000
-48.549862 18.819233 3.872709 0.000000
-39.617222 17.409721 4.314884 0.000000
-39.301361 18.149082 4.350120 0.000000
-33.666759 17.370836 4.777354 0.000000
-47.733521 17.490301 4.921482 0.000000
-46.320297 17.998844 4.854136 0.000000
-39.622753 15.663927 5.185982 0.000000
-42.667439 14.000214 6.408378 0.000000
-40.683784 14.276649 6.198001 0.000000
-40.437843 15.041838 6.235310 0.000000
-41.393692 16.214375 6.450470 0.000000
-40.641491 14.213639 7.214669 0.000000
-40.127621 14.892540 7.206784 0.000000
-40.527157 17.600603 7.527592 0.000000
-33.045242 14.883760 0.208871 0.000000
-34.464893 16.972353 0.291577 0.000000
-37.734447 14.089576 1.102100 0.000000
-36.413033 14.470708 1.105370 0.000000
-34.100338 14.466617 1.076542 0.000000
-37.552208 13.987466 2.059422 0.000000
-34.403259 17.655989 2.177648 0.000000
-40.550591 17.537094 2.369046 0.000000
-40.612232 18.459459 2.427038 0.000000
-47.789009 18.131184 2.643170 0.000000
-37.822815 16.494339 3.207203 0.000000
-36.466473 17.646019 3.214885 0.000000
-35.786560 18.197451 3.218270 0.000000
-35.381325 18.855431 3.244405 0.000000
-35.364796 19.690655 3.304256 0.000000
-35.827057 17.341377 4.119403 0.000000
-35.065704 17.845560 4.104017 0.000000
-48.373508 18.263132 3.891835 0.000000
-41.424728 17.752338 4.561995 0.000000
-39.427166 17.903446 4.426329 0.000000
-34.345596 16.700060 4.889026 0.000000
-33.849270 17.286177 4.894221 0.000000
-47.325871 17.865580 5.009801 0.000000
-40.644993 14.786723 5.330716 0.000000
-40.226803 15.519001 5.348011 0.000000
-33.509354 13.310620 5.417113 0.000000
-35.614689 17.983706 6.089109 0.000000
-40.906635 13.953337 6.341914 0.000000
-41.685131 15.051022 6.524997 0.000000
-39.855946 17.082787 6.489353 0.000000
-36.299419 13.378185 6.704276 0.000000
-40.038330 15.358438 7.404900 0.000000
-41.046444 17.459551 7.744954 0.000000
-42.121826 18.772991 8.022221 0.000000
-41.839622 19.600109 8.068678 0.000000
-47.928719 14.885648 -2.440320 0.000000
-38.661007 14.185782 -1.981233 0.000000
-34.148556 13.494274 0.985662 0.000000
-34.176689 14.275196 1.025738 0.000000
-39.911026 15.228843 2.188136 0.000000
-38.234238 15.561197 2.153980 0.000000
-40.481739 17.200974 2.320524 0.000000
-40.439587 18.099707 2.372271 0.000000
-37.997906 16.290104 3.209746 0.000000
-39.817673 17.820490 3.405948 0.000000
-35.900223 18.067707 3.221678 0.000000
-35.483620 18.747864 3.247948 0.000000
-35.333241 19.542629 3.296605 0.000000
-36.112347 17.256311 4.169363 0.000000
-35.194534 17.734283 4.140390 0.000000
-49.016838 17.978828 3.897595 0.000000
-34.546059 18.301353 4.138706 0.000000
-37.477509 16.916052 4.242147 0.000000
-41.266651 17.369020 4.550779 0.000000
-34.524387 16.599815 4.964006 0.000000
-33.951618 17.185535 4.961044 0.000000
-37.373081 14.304590 5.046395 0.000000
-35.490059 16.144888 5.015727 0.000000
-46.445423 18.137630 4.985121 0.000000
-33.894844 13.963819 5.621124 0.000000
-40.740334 14.445772 5.377564 0.000000
-40.525486 16.159224 5.488802 0.000000
-51.719639 18.747215 5.416531 0.000000
-39.512878 16.662788 6.501308 0.000000
-40.581417 15.233127 6.502226 0.000000
-39.823631 13.223971 7.308152 0.000000
-40.699024 14.332509 7.524883 0.000000
-48.589569 16.634033 7.549674 0.000000
-41.712082 17.363079 7.940466 0.000000
-40.727146 17.942951 7.863138 0.000000
-41.876896 19.309202 8.152827 0.000000
-46.957859 17.114601 8.633964 0.000000
-35.229115 14.232666 2.065937 0.000000
-34.481232 17.276188 2.220700 0.000000
-37.398968 14.049723 2.126501 0.000000
-38.216564 16.027538 2.266470 0.000000
-40.419579 17.676144 2.433763 0.000000
-33.431461 12.093403 2.812330 0.000000
-39.465645 12.843582 3.185848 0.000000
-37.553062 14.046164 3.156290 0.000000
-37.670944 15.800104 3.274473 0.000000
-36.335117 17.942522 3.346631 0.000000
-35.694611 18.565008 3.356169 0.000000
-35.516979 19.370811 3.403214 0.000000
-39.983791 15.644670 3.387896 0.000000
-41.690300 18.062283 3.635520 0.000000
-34.787315 18.149654 4.281272 0.000000
-37.607765 13.168472 4.128649 0.000000
-35.575050 17.601736 4.296119 0.000000
-42.140640 13.460812 4.490666 0.000000
-41.301243 16.929806 4.666502 0.000000
-41.555908 17.961945 4.760111 0.000000
-41.745907 18.992033 4.850197 0.000000
-35.082748 16.520798 5.176575 0.000000
-34.374340 17.093952 5.158041 0.000000
-47.549255 17.905163 5.200026 0.000000
-39.602448 14.534792 5.450133 0.000000
-40.303940 15.639528 5.601257 0.000000
-38.996944 16.130724 5.514852 0.000000
-37.056736 14.602383 6.241500 0.000000
-34.601368 18.835932 6.340764 0.000000
-33.922997 13.606386 6.755550 0.000000
-39.817947 16.344492 6.710278 0.000000
-39.911507 17.291218 6.803184 0.000000
-39.285069 17.992382 6.793453 0.000000
-41.229141 13.982063 7.803111 0.000000
-41.183170 14.880901 7.874124 0.000000
-39.224770 17.918013 7.886314 0.000000
-41.959763 19.883343 8.450295 0.000000
-46.336426 18.387566 8.901583 0.000000
-47.995243 14.585658 -2.526956 0.000000
-35.202538 18.210512 0.295189 0.000000
-34.306175 17.003971 0.250241 0.000000
-34.234234 14.421773 1.121756 0.000000
-38.088551 16.510729 1.273426 0.000000
-42.448917 14.963632 2.409786 0.000000
-40.278961 15.301480 2.356337 0.000000
-38.181080 15.588861 2.303136 0.000000
-36.300797 15.876840 2.257798 0.000000
-34.675552 17.044823 2.272920 0.000000
-40.608585 18.242516 2.535056 0.000000
-34.108429 12.671050 2.978346 0.000000
-36.673073 17.725204 3.438568 0.000000
-35.677483 19.144129 3.482210 0.000000
-39.571041 13.237118 3.311271 0.000000
-41.828953 15.694969 3.584345 0.000000
-38.292839 15.573124 3.385516 0.000000
-37.952084 16.365761 3.417733 0.000000
-36.174213 17.494068 4.449374 0.000000
-35.079365 17.968752 4.404741 0.000000
-34.388817 18.574509 4.400741 0.000000
-41.934124 16.634071 4.815105 0.000000
-40.094284 17.010229 4.704204 0.000000
-39.849190 17.874311 4.748132 0.000000
-34.426514 17.670500 5.356806 0.000000
-37.320702 14.302399 5.366291 0.000000
-38.802391 16.539850 5.679094 0.000000
-52.317387 18.643064 5.733692 0.000000
-41.135334 14.452626 5.746538 0.000000
-40.826092 16.242870 5.849864 0.000000
-34.935780 18.696587 6.537267 0.000000
-33.575966 11.562069 6.745008 0.000000
-39.961662 17.806458 7.032941 0.000000
-39.639702 18.646353 7.069922 0.000000
-42.247490 15.652771 7.119406 0.000000
-40.695454 16.149971 6.977642 0.000000
-43.035164 17.851860 7.393784 0.000000
-35.705391 16.303835 7.458958 0.000000
-40.968098 14.302699 8.009324 0.000000
-40.484043 16.032673 8.092086 0.000000
-42.246239 19.530922 8.660302 0.000000
-46.336597 18.855339 9.156265 0.000000
-48.011139 14.982227 -2.601205 0.000000
-38.516792 14.558287 -2.126528 0.000000
-34.669338 14.213376 1.132272 0.000000
-33.714500 13.062869 2.062006 0.000000
-38.201050 16.103462 2.379862 0.000000
-33.603550 12.168789 3.002273 0.000000
-37.542652 14.041687 3.329714 0.000000
-37.699722 15.898529 3.453502 0.000000
-36.984241 17.506460 3.518771 0.000000
-41.760963 18.138893 3.813355 0.000000
-36.345379 18.203707 3.531058 0.000000
-35.845413 18.940781 3.554283 0.000000
-42.699303 16.419104 3.754973 0.000000
-36.722977 17.365273 4.590517 0.000000
-35.480194 17.838608 4.533978 0.000000
-34.591106 18.409676 4.511860 0.000000
-41.474125 16.996212 4.916625 0.000000
-40.065033 17.533861 4.849667 0.000000
-33.711235 12.923074 5.062568 0.000000
-40.572392 15.701584 5.928723 0.000000
-34.092644 12.151193 6.059491 0.000000
-34.654766 19.239073 6.727787 0.000000
-36.966381 14.625474 6.592850 0.000000
-34.651443 20.156229 6.814255 0.000000
-33.136929 14.317480 7.132657 0.000000
-50.027943 16.134890 6.875077 0.000000
-40.204445 16.500977 7.125549 0.000000
-49.415672 19.349754 7.052106 0.000000
-34.484425 16.449772 7.513826 0.000000
-40.708328 15.630913 8.297655 0.000000
-48.078182 20.000088 8.336680 0.000000
-43.877724 14.501217 8.645326 0.000000
-39.047806 14.157331 -2.186213 0.000000
-34.640766 16.474863 0.248043 0.000000
-39.650928 15.115049 1.318526 0.000000
-38.434761 15.736101 1.332679 0.000000
-38.096985 16.589573 1.370043 0.000000
-40.311394 15.239231 2.517203 0.000000
-38.165512 15.607626 2.463795 0.000000
-35.331608 16.601896 2.422903 0.000000
-38.311676 15.597980 3.614587 0.000000
-36.277428 16.858212 3.581087 0.000000
-36.707878 17.940992 3.673379 0.000000
-36.127388 18.685955 3.690259 0.000000
-35.841297 19.532494 3.730627 0.000000
-43.928520 16.149006 3.958705 0.000000
-41.512024 17.524202 3.909061 0.000000
-34.920685 18.199190 4.690546 0.000000
-39.143482 15.782579 4.840270 0.000000
-36.006855 17.650400 4.732115 0.000000
-40.020817 18.013315 5.059549 0.000000
-33.227749 13.208466 5.249226 0.000000
-41.746086 17.539770 5.157319 0.000000
-40.042702 15.984375 6.115896 0.000000
-39.047409 16.669460 6.069806 0.000000
-37.521107 17.156527 5.959155 0.000000
-41.261303 16.274090 7.483135 0.000000
-40.745937 17.127176 7.490596 0.000000
-40.318169 17.999327 7.512178 0.000000
-35.545807 16.422276 7.933298 0.000000
-35.272812 17.249304 7.971508 0.000000
-40.985119 16.141195 8.667538 0.000000
-46.514210 18.800945 9.671681 0.000000
-46.491905 13.670259 -2.680594 0.000000
-48.040184 15.112467 -2.713949 0.000000
-34.618408 16.532047 0.210399 0.000000
-38.396744 15.699572 1.325002 0.000000
-38.088898 16.589708 1.362299 0.000000
-38.215820 15.599630 2.493198 0.000000
-35.328674 16.659903 2.451159 0.000000
-39.714729 15.016471 2.514395 0.000000
-34.245300 12.682043 3.284328 0.000000
-36.250343 16.899532 3.639548 0.000000
-36.692703 18.005957 3.730760 0.000000
-36.132835 18.789146 3.748844 0.000000
-39.784874 15.979968 3.779538 0.000000
-44.349335 16.150114 4.042254 0.000000
-41.583588 17.513519 3.968348 0.000000
-39.226448 15.775663 4.940420 0.000000
-35.996696 17.725977 4.824222 0.000000
-40.301338 15.063601 4.977902 0.000000
-40.089951 18.045292 5.154218 0.000000
-33.599342 13.311383 5.428034 0.000000
-46.707237 18.956585 5.716029 0.000000
-41.253036 16.276283 6.381617 0.000000
-38.911674 17.626722 6.250649 0.000000
-41.192703 15.184773 7.553611 0.000000
-40.042923 15.894381 7.469232 0.000000
-41.184189 17.235371 7.707660 0.000000
-40.500214 18.065775 7.692419 0.000000
-49.666382 19.759132 7.447426 0.000000
-38.691429 16.460245 8.566402 0.000000
-37.626465 18.110464 8.561451 0.000000
-40.102898 15.857972 8.714384 0.000000
-39.130211 17.589518 8.724101 0.000000
-48.469833 12.132648 -2.886764 0.000000
-39.729828 12.643402 -2.433626 0.000000
-38.406475 14.334875 -2.321385 0.000000
-43.951839 14.584922 -2.590606 0.000000
-35.847317 33.968731 -1.815786 0.000000
-36.201256 35.469101 -1.811773 0.000000
-31.787243 26.959904 -1.736167 0.000000
-34.903458 18.132324 0.251622 0.000000
-33.737396 13.040373 2.269619 0.000000
-35.847099 16.400738 2.505073 0.000000
-34.975063 17.100021 2.509529 0.000000
-39.748718 15.485175 2.597025 0.000000
-38.046539 16.043098 2.564217 0.000000
-37.485878 15.842748 3.731053 0.000000
-35.705967 17.283068 3.711610 0.000000
-36.380398 18.485821 3.817436 0.000000
-41.061672 15.772405 3.928198 0.000000
-41.153137 17.908857 4.049283 0.000000
-35.203972 18.050795 4.893713 0.000000
-36.310875 19.418472 5.066693 0.000000
-40.066730 18.593172 5.298517 0.000000
-43.117691 17.333965 5.455288 0.000000
-42.192272 18.162075 5.434427 0.000000
-35.437889 18.082066 6.089347 0.000000
-39.481976 16.292999 6.361465 0.000000
-35.209541 16.034025 7.087593 0.000000
-40.689636 14.498020 7.637387 0.000000
-49.776512 17.883032 7.481274 0.000000
-49.734009 20.305332 7.637003 0.000000
-33.778149 17.446091 8.174788 0.000000
-41.984489 19.086308 8.122758 0.000000
-35.325253 16.982121 8.351378 0.000000
-40.016521 15.311475 8.880654 0.000000
-39.661236 16.244106 8.901730 0.000000
-46.958828 17.114058 8.573494 0.000000
-46.400349 18.121054 8.577708 0.000000
-46.852055 19.355356 10.161755 0.000000
-29.688187 33.446945 -1.776643 0.000000
-38.424232 15.644693 1.292559 0.000000
-34.514919 13.651484 2.318428 0.000000
-35.152977 16.716497 2.474081 0.000000
-38.251068 15.557686 2.529891 0.000000
-35.182068 17.674662 3.711795 0.000000
-37.619480 13.347097 3.634613 0.000000
-39.615898 14.818585 3.816087 0.000000
-39.718761 15.889343 3.873369 0.000000
-36.082355 16.947397 3.723981 0.000000
-41.731098 17.495920 4.064560 0.000000
-36.069439 18.969675 3.828394 0.000000
-35.753639 17.810793 4.960257 0.000000
-36.375896 19.028196 5.079506 0.000000
-36.394356 20.070593 5.144211 0.000000
-42.796555 17.740837 5.493803 0.000000
-40.235489 18.117237 5.319031 0.000000
-33.632683 14.258764 5.745784 0.000000
-39.138805 17.752905 6.500224 0.000000
-40.765045 15.001576 6.493354 0.000000
-39.870731 16.897814 6.518383 0.000000
-38.135242 14.340986 7.445807 0.000000
-40.268612 15.896120 7.801832 0.000000
-39.243584 17.738729 7.803673 0.000000
-35.110065 17.485449 8.508324 0.000000
-41.861694 17.393267 8.091646 0.000000
-41.882576 19.621290 8.249214 0.000000
-36.188713 15.811933 8.532408 0.000000
-35.606033 16.641287 8.512446 0.000000
-40.142609 15.819463 9.091091 0.000000
-39.720100 15.456647 2.589280 0.000000
-38.086639 16.116581 2.556554 0.000000
-37.565735 15.946494 3.801054 0.000000
-39.267014 17.463530 3.962508 0.000000
-37.101067 17.918066 3.862146 0.000000
-36.263695 18.717230 3.852366 0.000000
-41.045784 15.734825 3.988008 0.000000
-50.790649 16.779488 4.582512 0.000000
-34.884163 18.249836 4.984704 0.000000
-36.408104 19.785072 5.182838 0.000000
-40.105263 15.473484 5.248239 0.000000
-43.150719 17.338762 5.573746 0.000000
-40.192169 18.788061 5.418313 0.000000
-50.749039 20.577112 6.320140 0.000000
-39.638618 16.402695 6.580687 0.000000
-33.866821 13.925708 7.071098 0.000000
-41.898903 15.860224 6.775615 0.000000
-36.163048 13.463269 7.322941 0.000000
-36.305901 15.516646 7.457976 0.000000
-34.941315 16.168400 7.333916 0.000000
-49.800499 20.272036 7.794530 0.000000
-42.232361 19.305904 8.401162 0.000000
-35.896584 16.393309 8.719858 0.000000
-34.941757 18.160112 8.710135 0.000000
-38.456062 15.587556 1.189251 0.000000
-38.275471 15.512011 2.501263 0.000000
-35.035221 16.802664 2.434544 0.000000
-35.986103 17.031710 3.753167 0.000000
-35.038425 17.816257 3.733264 0.000000
-39.604946 14.693875 3.863338 0.000000
-39.770584 15.833473 3.915194 0.000000
-41.642052 17.423910 4.080023 0.000000
-34.431175 16.574446 4.896056 0.000000
-33.783451 17.417540 4.886360 0.000000
-40.414005 15.951959 5.325698 0.000000
-42.639172 17.642986 5.570291 0.000000
-42.612190 17.600512 6.997473 0.000000
-34.288811 16.472895 7.381725 0.000000
-37.892296 14.222856 7.689932 0.000000
-36.831734 16.098631 7.662921 0.000000
-40.441216 15.890172 8.082846 0.000000
-42.020401 19.752659 8.489574 0.000000
-36.173798 15.899456 8.871221 0.000000
-35.707924 16.826921 8.863661 0.000000
-35.106766 17.707653 8.836892 0.000000
-42.046959 16.232492 9.719736 0.000000
-40.456543 15.374510 2.641894 0.000000
-38.029732 15.944704 2.577469 0.000000
-35.459473 17.439983 3.846553 0.000000
-41.144440 17.821638 4.174318 0.000000
-35.241104 16.277029 5.086660 0.000000
-34.105148 17.035666 5.034557 0.000000
-39.150566 18.384357 6.878505 0.000000
-36.335388 15.410146 7.782316 0.000000
-35.615677 16.307205 7.745326 0.000000
-39.907616 15.116287 8.195411 0.000000
-39.259750 18.378916 8.296099 0.000000
-35.000648 18.257513 9.108666 0.000000
-39.639053 18.446791 9.768731 0.000000
-36.491066 17.124001 2.627567 0.000000
-39.780495 15.626706 2.692851 0.000000
-50.095284 19.250681 3.162060 0.000000
-35.020180 17.811949 3.933407 0.000000
-41.189285 17.094040 4.247581 0.000000
-41.315933 18.328117 4.300890 0.000000
-34.996262 16.677004 5.218298 0.000000
-34.131210 17.536043 5.190236 0.000000
-43.063011 17.503960 5.873083 0.000000
-39.246269 18.905218 7.079726 0.000000
-41.178864 15.831564 7.121600 0.000000
-42.734421 17.390493 7.347069 0.000000
-40.079933 17.942568 7.113069 0.000000
-35.437012 16.725664 7.949692 0.000000
-39.470413 18.931925 8.552751 0.000000
-35.517868 17.819017 9.386768 0.000000
-36.105721 17.530024 2.702871 0.000000
-37.992981 15.676749 2.711980 0.000000
-38.294937 15.711894 4.150727 0.000000
-37.678642 16.734789 4.151936 0.000000
-35.638031 17.378988 4.061150 0.000000
-39.305061 19.529398 4.345167 0.000000
-48.225403 16.553408 4.739409 0.000000
-35.277184 19.502081 6.902181 0.000000
-40.983200 16.237188 7.307871 0.000000
-39.447876 19.502447 7.309185 0.000000
-43.755142 18.113085 7.666515 0.000000
-35.741096 16.181320 8.176730 0.000000
-35.251678 17.187634 8.170409 0.000000
-35.886246 17.318239 9.660836 0.000000
-35.462097 18.346037 9.662789 0.000000
-38.367989 16.770859 9.980861 0.000000
-38.062645 16.069160 2.779823 0.000000
-36.764965 16.956293 2.760081 0.000000
-37.385262 15.890410 4.195086 0.000000
-35.218666 17.712074 4.135932 0.000000
-39.555618 17.589819 4.374281 0.000000
-43.374313 17.171509 6.157157 0.000000
-40.593559 16.531282 7.441993 0.000000
-40.334053 17.711510 7.467646 0.000000
-34.399143 17.414253 8.272668 0.000000
-35.486931 18.828611 9.920705 0.000000
-38.018349 16.376793 2.781104 0.000000
-36.401161 17.220633 2.749314 0.000000
-35.537697 18.206942 2.747957 0.000000
-36.360367 17.181959 4.211728 0.000000
-41.287537 17.058874 4.480402 0.000000
-39.220337 19.115061 4.433958 0.000000
-40.674026 15.630208 5.955583 0.000000
-38.955872 16.521528 5.855065 0.000000
-41.086151 16.953274 7.608990 0.000000
-40.420273 18.078079 7.591001 0.000000
-36.163551 15.857392 8.549625 0.000000
-35.453232 16.881498 8.512752 0.000000
-35.060905 17.969675 8.519611 0.000000
-39.518070 17.193678 1.900678 0.000000
-38.056324 18.138163 1.891075 0.000000
-35.719021 18.790339 3.356739 0.000000
-36.123280 17.629593 4.846725 0.000000
-34.604992 18.481400 4.778804 0.000000
-41.773624 17.630405 5.204363 0.000000
-39.932507 17.202995 6.663249 0.000000
-35.677959 16.254017 7.767385 0.000000
-40.706013 16.041765 8.295025 0.000000
-39.243122 18.311129 8.230881 0.000000
-35.653179 17.441679 9.325535 0.000000
-35.045094 18.516569 9.300192 0.000000
-34.730896 16.637953 0.334772 0.000000
-35.231514 17.994656 0.357423 0.000000
-39.596939 17.672882 1.965732 0.000000
-36.277802 18.189781 3.456878 0.000000
-35.588280 19.291258 3.457981 0.000000
-33.627274 17.539244 4.820463 0.000000
-36.259438 19.435577 5.048597 0.000000
-40.438629 17.800816 5.261261 0.000000
-39.894127 17.654919 6.853969 0.000000
-35.466187 16.668953 7.980462 0.000000
-41.239197 16.571478 8.593332 0.000000
-39.412689 18.846540 8.490085 0.000000
-35.595757 17.924164 9.600829 0.000000
-34.621262 18.177118 0.199374 0.000000
-34.378281 18.092587 1.728380 0.000000
-37.989677 16.293205 3.356336 0.000000
-37.074829 17.401833 3.348499 0.000000
-35.816193 18.405600 3.325173 0.000000
-35.411522 19.591299 3.341603 0.000000
-39.442390 17.860481 6.742102 0.000000
-36.019791 15.817569 7.956546 0.000000
-34.336502 16.724184 7.816526 0.000000
-35.479004 18.215731 9.573477 0.000000
-47.736748 14.084979 0.207848 0.000000
-38.498062 15.363975 0.242745 0.000000
-34.140137 15.818948 0.256680 0.000000
-39.793343 18.285217 1.960341 0.000000
-35.875809 18.702328 3.481686 0.000000
-37.757301 16.488184 3.500921 0.000000
-36.860588 17.617041 3.493205 0.000000
-40.452560 19.754402 5.394242 0.000000
-42.787827 17.432844 7.208727 0.000000
-50.206635 20.459667 7.939584 0.000000
-40.150238 18.781750 2.041847 0.000000
-41.105606 17.556473 3.755048 0.000000
-36.588577 17.969910 3.576475 0.000000
-35.812592 19.119410 3.574579 0.000000
-34.052017 17.385695 5.026434 0.000000
-43.055450 17.919733 5.612640 0.000000
-40.125458 17.301279 7.114468 0.000000
-34.146225 17.352886 8.193293 0.000000
-34.422596 17.946854 1.956015 0.000000
-36.160381 16.967283 3.605718 0.000000
-36.345325 18.346088 3.649790 0.000000
-33.588207 17.651253 8.290042 0.000000
-35.483784 16.744923 8.455751 0.000000
-37.218765 17.447172 3.719096 0.000000
-36.246796 18.608248 3.709315 0.000000
-40.243462 18.001572 7.374311 0.000000
-35.424545 16.992710 8.585419 0.000000
-38.448578 19.005175 8.989698 0.000000
-38.878101 13.854626 0.201597 0.000000
-38.450619 15.182839 0.226108 0.000000
-33.619144 15.682646 0.243226 0.000000
-41.408489 17.069860 3.842815 0.000000
-36.871494 17.608488 3.670185 0.000000
-36.057186 18.818577 3.669504 0.000000
-35.309383 17.198544 8.615303 0.000000
-35.744202 19.095098 3.424082 0.000000
-34.069824 17.328354 4.980162 0.000000
-36.619392 19.256376 5.191001 0.000000
-43.049019 17.610491 7.382176 0.000000
-34.520103 17.355043 8.375770 0.000000
-35.598160 19.396399 3.462010 0.000000
-41.101166 17.603661 3.616569 0.000000
-40.189110 17.362566 7.235225 0.000000
-35.072029 17.773708 8.570189 0.000000
-37.318043 17.326441 3.571415 0.000000
-39.816654 19.195501 9.288958 0.000000
-34.489407 18.140892 1.816642 0.000000
-36.170109 16.990484 3.610056 0.000000
-36.283230 18.471725 3.651964 0.000000
-39.735142 19.067604 9.451041 0.000000
-35.903088 17.182499 3.683632 0.000000
-36.209118 18.720083 3.735356 0.000000
-35.664852 17.374910 3.720627 0.000000
-36.076954 18.951635 3.777428 0.000000
-29.404732 34.421078 -1.639007 0.000000
-36.716103 17.896986 3.636844 0.000000
-35.783539 19.246283 3.637485 0.000000
-35.134682 17.851097 3.753382 0.000000
-34.835472 18.091032 3.971432 0.000000
-39.481834 18.881136 8.206821 0.000000
-33.181396 15.046158 0.238108 0.000000
-41.071651 16.654987 0.227532 0.000000
-39.266567 14.905107 0.177625 0.000000
-41.093113 16.882624 0.207702 0.000000
-38.510368 15.155411 0.203608 0.000000
-34.680550 18.223377 0.220044 0.000000
-36.720734 13.499321 4.259231 0.000000
-36.554031 13.576767 6.707729 0.000000
-36.259422 15.978916 9.081959 0.000000
-35.913673 13.935078 9.116205 0.000000
-34.309101 18.237602 1.978265 0.000000
-39.234005 17.664997 2.007636 0.000000
-38.371395 15.906994 4.414380 0.000000
-35.825756 12.925346 4.366578 0.000000
-33.733822 11.955082 6.702535 0.000000
-37.478313 14.161861 6.828094 0.000000
-36.227322 12.655079 6.798812 0.000000
-35.299397 17.609932 9.027486 0.000000
-38.443142 14.684055 -0.777735 0.000000
-34.072117 12.910969 1.608430 0.000000
-35.055698 16.665016 3.938395 0.000000
-41.108547 17.581181 4.057169 0.000000
-40.392437 11.208237 4.088864 0.000000
-33.375217 17.648254 6.170790 0.000000
-37.641171 12.889519 6.427555 0.000000
-36.938854 15.529152 8.719429 0.000000
-36.094173 13.830269 8.721865 0.000000
-36.384975 11.397781 8.814333 0.000000
-38.379265 15.668568 1.627441 0.000000
-43.034592 15.185318 1.633851 0.000000
-34.884071 13.439198 1.612936 0.000000
-35.997406 19.176651 3.905133 0.000000
-41.728409 18.115273 4.031796 0.000000
-37.661499 16.082333 3.961799 0.000000
-36.383514 12.467800 3.963646 0.000000
-41.169456 16.223267 6.434162 0.000000
-34.216255 13.844368 6.206746 0.000000
-42.161621 20.023293 8.793423 0.000000
-39.646851 19.229660 8.665174 0.000000
-35.345139 17.432182 8.463988 0.000000
-40.961250 16.330341 8.824412 0.000000
-37.402985 11.791824 8.755281 0.000000
-38.270836 14.433117 -0.605374 0.000000
-41.438782 14.711872 1.738311 0.000000
-39.173431 13.863358 1.728036 0.000000
-42.057800 18.714088 4.113625 0.000000
-39.256508 18.138752 4.055517 0.000000
-37.742737 16.887848 4.031079 0.000000
-39.852165 13.431286 4.102224 0.000000
-34.395599 12.502197 3.992548 0.000000
-40.451042 13.048225 6.509708 0.000000
-34.431633 12.464504 6.281421 0.000000
-43.741974 17.780613 6.559027 0.000000
-44.237007 15.290348 6.622498 0.000000
-43.701561 13.343349 6.635615 0.000000
-41.419708 16.880627 8.850759 0.000000
-40.075241 15.478695 8.811027 0.000000
-36.506340 15.466503 8.600268 0.000000
-36.236839 11.248768 8.716984 0.000000
-38.658581 15.020702 -0.813161 0.000000
-42.039616 15.153019 1.493828 0.000000
-35.176929 15.052216 1.492443 0.000000
-34.397625 13.417599 1.486517 0.000000
-36.098324 18.664825 3.722342 0.000000
-36.853130 13.970081 3.773543 0.000000
-36.174473 12.226700 3.775646 0.000000
-38.973263 16.952953 6.081631 0.000000
-41.531025 13.224724 6.248524 0.000000
-38.740253 12.752438 6.154234 0.000000
-35.550579 16.903278 8.186791 0.000000
-40.319958 16.146389 8.477998 0.000000
-36.638180 14.091137 8.335372 0.000000
-36.489185 12.000378 8.394665 0.000000
-36.418255 14.223728 10.605247 0.000000
-41.354351 13.316242 11.010612 0.000000
-35.065605 13.730415 1.570245 0.000000
-39.672401 12.900352 1.572988 0.000000
-41.732521 18.137203 3.902257 0.000000
-39.686378 12.880211 3.899807 0.000000
-36.629250 12.679089 3.841541 0.000000
-35.654984 11.142101 3.835385 0.000000
-43.292839 17.238255 6.287234 0.000000
-39.526482 12.971451 6.220918 0.000000
-41.045525 18.506504 8.471819 0.000000
-37.598053 12.012115 8.472425 0.000000
-37.075867 14.519634 10.635500 0.000000
-35.375141 35.289814 -1.627594 0.000000
-30.564159 32.317440 -1.534082 0.000000
-29.582470 31.095364 -1.529278 0.000000
-35.397915 18.526924 2.319445 0.000000
-46.729504 18.220509 2.414248 0.000000
-39.742290 17.954094 2.355088 0.000000
-47.275974 15.726883 2.414992 0.000000
-47.983425 19.690262 4.807569 0.000000
-41.587208 18.952187 4.637866 0.000000
-39.460613 18.106487 4.587822 0.000000
-37.554035 17.182438 4.545190 0.000000
-40.024220 13.499142 4.648700 0.000000
-33.593632 11.330109 4.501698 0.000000
-41.759930 16.728016 6.959731 0.000000
-40.887104 15.111004 6.953815 0.000000
-38.737400 14.308517 6.873670 0.000000
-47.842510 15.373547 7.268212 0.000000
-39.266346 18.192509 9.052641 0.000000
-37.106838 15.338875 9.007752 0.000000
-46.620190 18.236553 9.532229 0.000000
-40.075939 15.596149 9.188965 0.000000
-40.168533 16.531517 -0.040749 0.000000
-38.647255 15.380852 -0.035128 0.000000
-39.910126 18.755272 2.195226 0.000000
-34.324448 18.138813 2.162526 0.000000
-40.039436 16.602432 2.195463 0.000000
-48.854507 15.700676 2.246618 0.000000
-48.468491 20.244453 4.600394 0.000000
-42.450218 19.333908 4.459315 0.000000
-41.184822 17.992516 4.442422 0.000000
-37.495483 16.100517 4.373547 0.000000
-35.921272 12.925079 4.373373 0.000000
-40.221085 12.181442 4.485040 0.000000
-34.067307 12.086143 4.339804 0.000000
-49.574707 17.494938 4.655754 0.000000
-47.890244 11.759312 4.675585 0.000000
-33.319771 16.762356 6.376411 0.000000
-33.945099 12.164085 6.515531 0.000000
-40.780861 16.128662 6.709140 0.000000
-42.463165 12.911247 6.855105 0.000000
-49.596825 13.003681 7.159912 0.000000
-39.455482 19.000023 8.791250 0.000000
-38.426605 15.486801 8.847744 0.000000
-37.099411 14.239262 8.811519 0.000000
-46.521004 19.145611 9.230528 0.000000
-41.242172 15.835846 9.008422 0.000000
-50.301720 14.851727 9.605104 0.000000
-40.862114 16.061275 11.247410 0.000000
-36.776100 14.445206 10.998200 0.000000
-42.019569 13.176807 11.473513 0.000000
-48.086502 14.770077 -0.354841 0.000000
-44.955406 18.736717 2.007340 0.000000
-51.256615 17.374939 2.023484 0.000000
-40.050514 15.396297 2.004135 0.000000
-39.105812 13.891403 2.005350 0.000000
-50.940239 13.085236 2.031944 0.000000
-48.949783 12.009109 2.030049 0.000000
-38.480469 12.164314 2.007709 0.000000
-48.332237 18.970917 4.350855 0.000000
-41.905640 18.427872 4.222384 0.000000
-39.328545 17.927364 4.175510 0.000000
-41.003311 14.788975 4.253054 0.000000
-39.256920 13.792675 4.231441 0.000000
-36.643837 13.432266 4.183897 0.000000
-34.697083 12.678581 4.156100 0.000000
-33.454758 17.647400 6.134826 0.000000
-34.685623 12.688129 6.315172 0.000000
-48.847496 14.326569 6.820968 0.000000
-46.230560 13.685192 6.733431 0.000000
-43.458832 13.221149 6.636811 0.000000
-37.443176 12.882584 6.414207 0.000000
-42.231361 16.146145 8.774367 0.000000
-36.608894 15.554386 8.474099 0.000000
-40.030533 15.414303 8.674543 0.000000
-38.533142 12.132534 8.715632 0.000000
-36.321297 11.519005 8.616756 0.000000
-49.437645 18.373188 9.120458 0.000000
-46.816025 17.686729 8.988093 0.000000
-47.892403 14.893227 9.149172 0.000000
-34.194496 15.125526 10.485373 0.000000
-38.025307 14.615417 10.797181 0.000000
-41.915230 14.211403 11.110740 0.000000
-36.507179 11.387375 10.851860 0.000000
-47.407074 12.965767 11.590037 0.000000
-38.659866 15.030170 -1.236763 0.000000
-47.821487 15.689999 0.826592 0.000000
-41.396027 15.367931 0.903103 0.000000
-34.612427 15.737312 0.981094 0.000000
-43.943665 11.544403 0.888270 0.000000
-42.139999 17.018356 3.101033 0.000000
-35.534920 17.156677 3.054789 0.000000
-50.586090 16.291782 3.171688 0.000000
-49.801308 14.544773 3.192036 0.000000
-37.204803 13.974545 3.116817 0.000000
-34.928200 13.480484 3.110974 0.000000
-46.645203 12.037170 3.208849 0.000000
-33.598816 12.351120 3.122056 0.000000
-40.233147 20.225121 5.181650 0.000000
-39.936958 18.397312 5.222433 0.000000
-39.836433 16.415237 5.273649 0.000000
-48.914780 21.482750 5.379567 0.000000
-48.231354 19.766636 5.403273 0.000000
-41.411842 11.100361 5.461748 0.000000
-43.292915 18.440998 7.530843 0.000000
-40.198395 18.260715 7.400285 0.000000
-37.352776 15.999306 7.365233 0.000000
-41.214615 15.559818 7.549424 0.000000
-36.976181 14.183937 7.423022 0.000000
-36.809807 12.187344 7.499108 0.000000
-47.622261 18.023853 7.740885 0.000000
-39.478073 18.727310 9.504879 0.000000
-35.982513 16.933327 9.379851 0.000000
-36.074646 14.830772 9.496771 0.000000
-36.604561 12.360924 9.662357 0.000000
-46.665543 18.590923 9.968326 0.000000
-41.614326 15.329964 9.809297 0.000000
-51.317978 13.727051 10.498163 0.000000
-34.709320 18.568447 2.033187 0.000000
-39.255440 17.588902 2.046889 0.000000
-48.924232 15.820042 2.077132 0.000000
-37.776199 14.480354 2.054237 0.000000
-49.912666 13.028870 2.087102 0.000000
-37.681862 12.447178 2.061959 0.000000
-36.000092 19.673668 4.073916 0.000000
-41.344841 18.301670 4.206117 0.000000
-34.561600 12.619488 4.158990 0.000000
-37.546654 12.549931 4.217781 0.000000
-49.088455 15.724766 4.407632 0.000000
-42.177727 11.449703 4.327283 0.000000
-34.521980 12.655621 6.261763 0.000000
-41.138466 16.391567 6.406367 0.000000
-40.782753 14.542358 6.442647 0.000000
-37.194031 12.808270 6.355931 0.000000
-40.666878 12.496925 6.495594 0.000000
-49.330986 17.729500 6.701440 0.000000
-51.533791 14.280678 6.874476 0.000000
-50.539421 12.648907 6.875653 0.000000
-36.286911 15.522427 8.346535 0.000000
-40.851181 16.578617 8.563982 0.000000
-42.338959 13.513084 8.768868 0.000000
-49.266495 17.767075 9.016121 0.000000
-47.554878 14.487286 9.032185 0.000000
-33.948364 15.142551 10.304987 0.000000
-37.556038 14.652313 10.596706 0.000000
-36.271584 11.370590 10.683472 0.000000
-41.455391 14.104233 10.916365 0.000000
-47.237404 12.499397 11.435602 0.000000
-51.725555 18.479179 1.716948 0.000000
-50.630432 16.966183 1.698884 0.000000
-48.815079 15.893154 1.680893 0.000000
-43.106415 15.218521 1.646807 0.000000
-37.884766 14.579994 1.615450 0.000000
-47.935211 14.277763 1.663049 0.000000
-34.283607 13.063927 1.584863 0.000000
-38.661148 11.930557 1.597251 0.000000
-46.071899 11.101749 1.627301 0.000000
-50.838745 18.944431 4.017417 0.000000
-40.153511 19.108898 3.762634 0.000000
-41.892746 15.980442 3.813911 0.000000
-49.023804 15.741894 3.982277 0.000000
-40.716087 14.683674 3.791422 0.000000
-34.520576 12.860565 3.658277 0.000000
-41.208435 12.230137 3.812593 0.000000
-54.243858 14.856277 4.108916 0.000000
-42.596672 17.559078 5.988352 0.000000
-40.934151 16.577518 5.933638 0.000000
-49.163681 17.760517 6.264168 0.000000
-42.533264 13.433392 6.049366 0.000000
-36.264748 15.639236 7.831236 0.000000
-35.961174 11.724895 7.931688 0.000000
-40.735054 16.681957 8.067086 0.000000
-39.944809 15.153229 8.062447 0.000000
-50.324081 17.064987 8.641298 0.000000
-47.240631 14.632732 8.514351 0.000000
-39.906197 19.191223 10.054325 0.000000
-35.609940 18.052952 9.762183 0.000000
-35.613899 14.041786 9.930189 0.000000
-42.022720 15.820564 10.351336 0.000000
-37.437256 14.793358 10.037331 0.000000
-46.906746 19.012680 10.621092 0.000000
-50.760918 18.910751 10.937474 0.000000
-51.140568 18.734924 1.226142 0.000000
-42.497112 15.693027 1.097450 0.000000
-48.849430 15.854626 1.147007 0.000000
-37.992161 14.663555 1.042445 0.000000
-47.849468 14.336712 1.106806 0.000000
-44.131779 12.480667 1.039564 0.000000
-34.221851 15.369644 1.030442 0.000000
-49.972187 19.335934 3.486589 0.000000
-36.204762 17.860535 3.116590 0.000000
-48.933979 15.743500 3.421260 0.000000
-53.314907 15.278091 3.530146 0.000000
-36.172398 13.874157 3.079690 0.000000
-34.243801 13.269451 3.026871 0.000000
-39.291027 13.682453 3.155696 0.000000
-45.250225 13.816597 3.307425 0.000000
-48.389042 13.933743 3.388823 0.000000
-39.824497 19.326622 5.290381 0.000000
-46.101482 19.463348 5.569616 0.000000
-39.109684 13.754574 5.274203 0.000000
-42.942013 13.179001 5.441053 0.000000
-35.269619 12.427128 5.117075 0.000000
-48.455387 20.135376 5.675696 0.000000
-49.229717 15.502846 5.712381 0.000000
-40.629864 16.757744 7.447171 0.000000
-36.330547 13.644989 7.234240 0.000000
-47.532696 18.563015 7.857847 0.000000
-46.884518 14.772121 7.864202 0.000000
-41.695705 11.852104 7.587850 0.000000
-52.386944 13.507179 8.226531 0.000000
-35.073521 18.477142 9.078732 0.000000
-39.714176 19.287804 9.429674 0.000000
-36.850376 15.253971 9.310500 0.000000
-35.777782 13.998131 9.263971 0.000000
-46.622974 19.041870 10.001350 0.000000
-41.711819 15.984264 9.676211 0.000000
-35.695477 14.002934 11.332088 0.000000
-38.973957 15.039516 -1.645013 0.000000
-48.122860 15.133167 -1.764210 0.000000
-34.416004 18.231808 0.513928 0.000000
-41.357876 17.391857 0.521486 0.000000
-46.146122 16.323669 0.512372 0.000000
-34.483456 16.226761 0.455469 0.000000
-34.716625 17.952457 2.479878 0.000000
-40.482273 17.905895 2.609419 0.000000
-33.486691 12.884228 2.370941 0.000000
-49.186245 16.446278 2.784218 0.000000
-47.184811 15.588169 2.722732 0.000000
-37.256794 12.015926 2.439414 0.000000
-39.766125 12.237080 2.498302 0.000000
-45.948864 12.116596 2.634702 0.000000
-39.368084 18.580093 4.644985 0.000000
-41.634892 19.071732 4.741098 0.000000
-48.611347 20.846584 5.046350 0.000000
-35.379299 15.430035 4.470728 0.000000
-35.916950 12.980381 4.484647 0.000000
-34.242374 12.213470 4.417527 0.000000
-42.024235 12.648129 4.725966 0.000000
-48.844013 18.670738 5.040078 0.000000
-48.433559 16.837643 5.010433 0.000000
-45.056446 12.660187 4.848389 0.000000
-41.735172 16.936275 6.848751 0.000000
-40.673214 15.620228 6.795970 0.000000
-37.199070 14.008663 6.608976 0.000000
-34.044712 12.304192 6.448764 0.000000
-36.179089 12.710148 6.564198 0.000000
-42.022861 12.578171 6.900018 0.000000
-48.716961 14.461388 7.280397 0.000000
-52.607914 14.189453 7.515931 0.000000
-35.461002 17.223751 8.482192 0.000000
-39.370914 18.445026 8.756936 0.000000
-38.495800 17.059662 8.716811 0.000000
-36.810452 14.230381 8.650240 0.000000
-46.884693 17.650463 9.359533 0.000000
-49.635929 18.057232 9.571863 0.000000
-47.992886 14.852901 9.494750 0.000000
-36.655659 14.277981 10.706472 0.000000
-41.284618 12.966862 11.183273 0.000000
-47.453457 12.978321 11.767223 0.000000
-39.451920 14.993431 -0.705471 0.000000
-48.019814 15.347031 -0.695190 0.000000
-50.975250 17.626522 1.652146 0.000000
-33.994331 14.969296 1.276135 0.000000
-36.352943 15.169163 1.323237 0.000000
-38.461983 15.627430 1.373822 0.000000
-41.981865 15.153271 1.420719 0.000000
-47.532295 15.572838 1.530024 0.000000
-52.157738 14.755424 1.585766 0.000000
-42.507538 16.754547 3.587816 0.000000
-48.694962 18.915478 3.849254 0.000000
-40.868759 15.848240 3.513667 0.000000
-37.287582 14.372108 3.362516 0.000000
-35.619514 13.603622 3.291631 0.000000
-34.060806 12.783577 3.224278 0.000000
-47.379990 15.580280 3.739804 0.000000
-49.842415 16.118183 3.837878 0.000000
-40.484489 20.007366 5.610053 0.000000
-40.450165 16.054920 5.585459 0.000000
-43.797508 15.787701 5.762537 0.000000
-36.346306 12.941685 5.357114 0.000000
-40.315369 18.071068 7.648346 0.000000
-43.280762 18.086697 7.861721 0.000000
-37.598930 15.995949 7.470941 0.000000
-40.129776 16.192825 7.648258 0.000000
-37.205833 14.255962 7.458839 0.000000
-36.970680 12.358543 7.461081 0.000000
-50.214417 17.812424 8.368655 0.000000
-51.594887 14.824959 8.482083 0.000000
-35.981232 17.097462 9.347044 0.000000
-40.320549 19.944954 9.679535 0.000000
-39.434807 18.585361 9.624364 0.000000
-36.149139 14.972099 9.408435 0.000000
-40.259926 16.011806 9.748272 0.000000
-51.361320 14.877407 10.771203 0.000000
-36.698082 14.464172 11.521307 0.000000
-48.136444 15.172771 -1.882335 0.000000
-34.859970 18.251411 2.271326 0.000000
-39.991982 18.463020 2.415989 0.000000
-49.160866 16.418613 2.612897 0.000000
-37.438049 12.211559 2.183503 0.000000
-47.259636 15.556831 2.536827 0.000000
-39.277504 18.866539 4.418382 0.000000
-42.232834 18.820370 4.552111 0.000000
-37.546959 16.152847 4.303441 0.000000
-39.964104 16.393036 4.414476 0.000000
-48.730797 18.670574 4.849427 0.000000
-48.382713 16.819378 4.803716 0.000000
-37.206581 12.300934 4.240163 0.000000
-35.989754 11.173969 4.174463 0.000000
-39.388145 16.714260 6.435772 0.000000
-41.724785 17.071449 6.583295 0.000000
-43.897263 17.610573 6.722682 0.000000
-39.307350 12.656113 6.430455 0.000000
-41.614525 13.013374 6.572336 0.000000
-50.389122 17.542271 7.141268 0.000000
-52.143181 14.292824 7.240922 0.000000
-39.370033 18.617439 8.460299 0.000000
-38.134842 15.524891 8.397502 0.000000
-40.210464 16.025276 8.557171 0.000000
-37.139915 14.244099 8.336358 0.000000
-36.946602 12.317146 8.349854 0.000000
-35.789711 11.147045 8.279401 0.000000
-46.966682 17.534889 9.094214 0.000000
-49.449799 18.025730 9.297610 0.000000
-47.849152 14.860447 9.190186 0.000000
-36.649925 14.530533 10.327547 0.000000
-41.141747 15.254845 10.744704 0.000000
-40.909264 13.345318 10.770499 0.000000
-47.381760 12.929863 11.416499 0.000000
-32.774609 29.396759 -1.595290 0.000000
-48.265697 15.506264 -0.369637 0.000000
-34.611233 13.116718 1.536869 0.000000
-37.908009 14.587040 1.628195 0.000000
-39.731525 15.244946 1.675872 0.000000
-38.768604 11.800606 1.574669 0.000000
-51.456188 17.580059 1.945720 0.000000
-49.349270 14.691223 1.831810 0.000000
-35.010334 16.778313 3.584885 0.000000
-34.649784 13.008568 3.532888 0.000000
-41.597721 17.867161 3.828566 0.000000
-39.715450 15.179073 3.729024 0.000000
-48.632069 19.264118 4.103463 0.000000
-44.188923 13.951988 3.870735 0.000000
-50.098469 16.246857 4.113322 0.000000
-49.524845 14.487774 4.067981 0.000000
-43.514385 18.471951 5.988239 0.000000
-40.727673 16.393875 5.838051 0.000000
-42.240917 13.191391 5.920569 0.000000
-49.909595 20.430008 6.346531 0.000000
-44.801174 15.537872 6.054862 0.000000
-52.030315 14.902779 6.445862 0.000000
-36.227100 15.674606 7.597660 0.000000
-40.558094 18.442432 7.862840 0.000000
-40.422207 16.538532 7.877427 0.000000
-43.690090 18.273514 8.090031 0.000000
-35.746143 11.932438 7.628594 0.000000
-41.263577 13.850441 7.973979 0.000000
-46.727680 18.278042 8.311049 0.000000
-50.364269 18.010811 8.581128 0.000000
-35.619389 18.049736 9.476280 0.000000
-39.678944 18.984497 9.810430 0.000000
-37.030399 14.967224 9.686524 0.000000
-35.651623 14.021965 9.597110 0.000000
-41.824825 15.434628 10.091701 0.000000
-51.549335 15.043266 10.976650 0.000000
-48.230770 15.360703 -2.090265 0.000000
-29.497059 23.209194 -1.507408 0.000000
-34.914471 18.810421 2.024805 0.000000
-39.450687 17.321339 2.105737 0.000000
-37.822613 14.511131 1.966859 0.000000
-46.865795 18.147064 2.349577 0.000000
-37.678059 12.531738 1.898601 0.000000
-47.409870 15.694820 2.282293 0.000000
-49.066135 12.360310 2.218383 0.000000
-36.142040 19.693439 4.011694 0.000000
-34.944836 16.719238 3.898907 0.000000
-42.289188 19.146851 4.287704 0.000000
-41.196079 17.930649 4.210820 0.000000
-38.344715 16.037289 4.040813 0.000000
-48.219662 19.184811 4.570908 0.000000
-38.310535 11.889614 3.960962 0.000000
-52.210613 14.443321 4.656167 0.000000
-39.853466 16.798374 6.152874 0.000000
-42.066135 17.189266 6.297688 0.000000
-43.763920 18.006283 6.414550 0.000000
-41.649586 13.351154 6.244333 0.000000
-49.442532 18.277527 6.790789 0.000000
-51.688396 14.672138 6.902259 0.000000
-39.595776 18.870861 8.152121 0.000000
-38.477329 15.712017 8.080585 0.000000
-40.515369 16.188622 8.242184 0.000000
-35.842236 11.619064 7.909944 0.000000
-49.363010 18.212048 8.970549 0.000000
-48.984371 16.373299 8.941858 0.000000
-47.874065 15.016399 8.853212 0.000000
-41.099064 11.523453 8.323484 0.000000
-35.889843 17.624626 9.815792 0.000000
-36.814945 14.878979 9.964951 0.000000
-40.408550 16.156517 10.289680 0.000000
-42.574078 16.594212 10.497035 0.000000
-32.145363 29.753395 -1.572299 0.000000
-48.094917 14.829437 -0.523231 0.000000
-34.310814 15.059456 1.276725 0.000000
-38.435196 15.728931 1.422287 0.000000
-41.900116 15.070198 1.493063 0.000000
-44.147087 15.456882 1.574928 0.000000
-52.083473 18.341000 1.937180 0.000000
-49.128532 16.093067 1.748755 0.000000
-50.866051 17.030773 1.842008 0.000000
-50.485085 12.967800 1.650066 0.000000
-35.289619 20.060379 3.412685 0.000000
-37.810364 16.098724 3.409850 0.000000
-34.185570 12.960102 3.157111 0.000000
-35.744415 13.692783 3.246886 0.000000
-37.478935 14.310936 3.342458 0.000000
-42.431015 16.602646 3.637966 0.000000
-46.913208 15.397175 3.810084 0.000000
-51.998276 13.956787 4.004469 0.000000
-54.028549 14.771099 4.127542 0.000000
-40.473145 19.912197 5.636379 0.000000
-40.433113 15.937656 5.563446 0.000000
-41.951767 16.826862 5.675548 0.000000
-46.741714 19.513882 6.038607 0.000000
-36.371796 13.017391 5.265292 0.000000
-50.602959 21.057465 6.329233 0.000000
-40.747810 17.596989 7.637486 0.000000
-43.075851 17.896278 7.830116 0.000000
-37.224442 14.256313 7.345519 0.000000
-41.176201 15.224293 7.662770 0.000000
-36.855064 12.464008 7.315836 0.000000
-40.285217 13.836639 7.587428 0.000000
-50.341080 16.955650 8.429512 0.000000
-40.198929 19.851273 9.596207 0.000000
-35.792694 17.335419 9.184893 0.000000
-39.394264 18.483536 9.526531 0.000000
-36.158073 15.016396 9.248562 0.000000
-40.223129 15.832245 9.632935 0.000000
-46.756310 19.231026 10.265003 0.000000
-50.513893 18.789223 10.653700 0.000000
-36.673401 14.450455 11.315363 0.000000
-38.454754 14.565773 -1.328959 0.000000
-48.281017 15.364136 -1.332517 0.000000
-34.816944 17.535267 0.741542 0.000000
-34.283962 15.977386 0.681013 0.000000
-33.144642 14.937553 0.631594 0.000000
-42.054485 15.738346 0.769814 0.000000
-50.462315 17.975185 0.962387 0.000000
-47.725430 15.669853 0.841608 0.000000
-51.191044 15.340153 0.876220 0.000000
-34.799480 17.463737 2.648065 0.000000
-34.366833 13.746563 2.560744 0.000000
-44.355000 18.031136 2.947710 0.000000
-40.292042 14.961605 2.756465 0.000000
-41.950886 15.726227 2.822439 0.000000
-49.468899 18.548546 3.120610 0.000000
-39.005856 11.769569 2.652851 0.000000
-49.969051 11.714153 2.975974 0.000000
-39.380375 19.638977 4.790326 0.000000
-34.338146 15.756710 4.526401 0.000000
-37.459530 17.176189 4.678796 0.000000
-33.982815 11.879196 4.491464 0.000000
-42.831669 19.050282 4.951137 0.000000
-49.016293 20.796261 5.278371 0.000000
-39.143208 13.711967 4.731840 0.000000
-42.478252 15.218334 4.898357 0.000000
-37.004826 11.270447 4.621345 0.000000
-48.930386 18.815327 5.249057 0.000000
-52.544094 14.183128 5.374232 0.000000
-33.135899 16.722126 6.373266 0.000000
-35.519390 12.525532 6.557022 0.000000
-41.036152 16.259129 6.874314 0.000000
-41.062542 14.148087 6.887910 0.000000
-41.174480 11.903065 6.910279 0.000000
-47.759937 15.348637 7.317413 0.000000
-47.673756 13.251923 7.318505 0.000000
-50.651981 15.414921 7.510271 0.000000
-39.599834 19.292805 8.742132 0.000000
-36.681416 15.610954 8.576576 0.000000
-36.180492 13.967110 8.573752 0.000000
-41.194996 16.041039 8.931322 0.000000
-36.367908 11.665104 8.642779 0.000000
-46.784092 18.048069 9.365038 0.000000
-42.345387 13.006046 9.083242 0.000000
-48.226292 14.907284 9.533358 0.000000
