# .PCD v0.7 - Point Cloud Data file format
VERSION 0.7
FIELDS x y z intensity
SIZE 4 4 4 4
TYPE F F F F
COUNT 1 1 1 1
WIDTH 1177
HEIGHT 1
VIEWPOINT 0 0 0 1 0 0 0
POINTS 1177
DATA ascii
223.988980 269.339450 9.567741 0.000000
223.892170 269.955170 9.556918 0.000000
239.937680 261.655270 9.992954 0.000000
241.338560 262.835850 9.973803 0.000000
241.097350 263.561830 9.982272 0.000000
241.428920 264.478390 9.980496 0.000000
241.706790 267.084320 9.984078 0.000000
240.835370 267.584720 10.000184 0.000000
240.014300 268.083560 10.014821 0.000000
227.152240 262.513790 9.564802 0.000000
226.682240 262.882020 9.578997 0.000000
226.149480 263.209780 9.595245 0.000000
225.863430 263.646970 9.600916 0.000000
225.913040 264.851070 9.584739 0.000000
225.656160 265.312500 9.587303 0.000000
225.399600 265.774260 9.589249 0.000000
237.489870 274.704100 10.038771 0.000000
225.142730 266.236360 9.590595 0.000000
236.786390 275.186000 10.045630 0.000000
224.856980 266.680970 9.592565 0.000000
224.485440 267.068850 9.597654 0.000000
236.554660 275.977570 10.043778 0.000000
224.246440 267.543520 9.596403 0.000000
231.812650 273.571960 10.120416 0.000000
224.158940 268.128970 9.587775 0.000000
233.725330 275.848910 10.080032 0.000000
233.165830 276.361150 10.082519 0.000000
233.511610 277.585510 10.068003 0.000000
222.783800 269.753170 9.592437 0.000000
221.856160 269.660030 9.619830 0.000000
232.448270 277.698180 10.078525 0.000000
221.166460 269.741210 9.636029 0.000000
230.888920 277.354030 10.098115 0.000000
229.432540 277.035130 10.115852 0.000000
228.097930 276.765930 10.131348 0.000000
226.915680 276.584840 10.143938 0.000000
225.743680 276.365840 10.156384 0.000000
224.606630 276.133090 10.168224 0.000000
223.490220 275.873260 10.179779 0.000000
222.429410 275.624540 10.190329 0.000000
221.478390 275.452240 10.198647 0.000000
231.822460 273.577390 10.991956 0.000000
243.243840 282.871280 11.103571 0.000000
241.590770 282.807250 11.093938 0.000000
239.656480 282.459900 11.080945 0.000000
237.984500 282.250000 11.069811 0.000000
236.509740 282.142760 11.060012 0.000000
235.187350 282.114410 11.051190 0.000000
233.978470 282.142090 11.043020 0.000000
232.743270 282.102870 11.034124 0.000000
231.429370 281.941350 11.023967 0.000000
230.161160 281.773960 11.013834 0.000000
228.861040 281.521880 11.002939 0.000000
227.753220 281.423430 10.993666 0.000000
226.763530 281.414920 10.985285 0.000000
225.652210 281.228820 10.975254 0.000000
224.415180 280.843320 10.963520 0.000000
223.209200 280.436000 10.951779 0.000000
222.069000 280.052920 10.940434 0.000000
221.057300 279.784420 10.930193 0.000000
239.813110 284.958010 12.255159 0.000000
238.984360 285.467010 12.245282 0.000000
239.576340 284.758090 13.403263 0.000000
238.972340 285.458950 13.402117 0.000000
228.378050 285.656400 13.002745 0.000000
221.441680 279.265930 13.319651 0.000000
228.807970 284.939450 13.988769 0.000000
228.374450 285.661770 14.003858 0.000000
240.246000 284.111850 14.571087 0.000000
239.470760 284.669860 14.552988 0.000000
238.878200 285.378420 14.552905 0.000000
221.713750 277.613220 14.799415 0.000000
221.459410 278.284580 14.837415 0.000000
221.419690 279.256260 14.919144 0.000000
228.654740 284.769100 14.965316 0.000000
241.028720 284.756290 15.833178 0.000000
239.173610 284.418460 15.676457 0.000000
238.948270 285.442780 15.722780 0.000000
222.293730 278.323610 15.708406 0.000000
221.118120 278.873200 15.657877 0.000000
221.285400 280.154850 15.808542 0.000000
240.364410 285.434660 17.016567 0.000000
238.936190 285.434690 16.888863 0.000000
220.954160 277.666960 16.293526 0.000000
220.767530 278.426030 16.366808 0.000000
220.981020 279.754360 16.553057 0.000000
231.765660 273.526210 17.136595 0.000000
221.257640 279.073970 17.308733 0.000000
239.412600 285.857790 18.151014 0.000000
244.477330 264.155270 10.052116 0.000000
244.679930 265.064730 10.053617 0.000000
244.982480 267.785430 10.059349 0.000000
243.960300 268.281710 10.076617 0.000000
243.235280 268.871550 10.088837 0.000000
242.877410 269.603550 10.095032 0.000000
244.675770 271.313420 10.069022 0.000000
244.283680 272.072540 10.074465 0.000000
230.307340 261.729520 9.574450 0.000000
229.669830 262.087920 9.596186 0.000000
244.687640 273.226140 10.067574 0.000000
229.891040 262.765810 9.584603 0.000000
245.284910 274.514400 10.057132 0.000000
229.294660 263.123200 9.603594 0.000000
245.612640 275.701390 10.049904 0.000000
228.598890 263.421780 9.625885 0.000000
228.118520 263.798310 9.639397 0.000000
243.636640 275.623290 10.076072 0.000000
241.660800 275.474150 10.101814 0.000000
227.328250 265.809020 9.643662 0.000000
240.390810 275.683470 10.116606 0.000000
227.022840 266.256500 9.647424 0.000000
239.238330 275.927150 10.129177 0.000000
226.722780 266.705230 9.650381 0.000000
226.423070 267.152890 9.652729 0.000000
226.228260 267.666260 9.650174 0.000000
226.160800 268.268310 9.641648 0.000000
226.073350 268.868260 9.633128 0.000000
225.984850 269.478880 9.623810 0.000000
225.824070 270.048430 9.616720 0.000000
225.734190 270.681340 9.605718 0.000000
224.561770 270.469760 9.641565 0.000000
243.777270 261.499940 10.045970 0.000000
243.231860 262.168330 10.060454 0.000000
242.782560 262.850190 10.072790 0.000000
227.476440 264.087100 9.658671 0.000000
227.085970 264.483220 9.667692 0.000000
238.180730 276.198240 10.139871 0.000000
237.385940 276.618440 10.146084 0.000000
236.667650 277.075040 10.150620 0.000000
236.724030 278.089230 10.142402 0.000000
235.878140 278.441710 10.147834 0.000000
234.411680 278.281680 10.162951 0.000000
223.588460 270.374510 9.668938 0.000000
222.790660 270.391450 9.688589 0.000000
232.989520 278.101680 10.177261 0.000000
222.337490 270.684570 9.692375 0.000000
231.562900 277.862370 10.191619 0.000000
221.670300 270.775360 9.705820 0.000000
230.118620 277.549740 10.206321 0.000000
228.793660 277.285160 10.219058 0.000000
227.646120 277.132900 10.228733 0.000000
226.486690 276.923190 10.238669 0.000000
245.634640 283.451020 11.229896 0.000000
225.336300 276.674190 10.248549 0.000000
224.213240 276.404050 10.258076 0.000000
223.147400 276.146240 10.266684 0.000000
222.262420 276.044280 10.271839 0.000000
221.364150 275.891240 10.277348 0.000000
243.831330 283.332580 11.215923 0.000000
242.222960 283.296450 11.203474 0.000000
240.464780 283.083620 11.188664 0.000000
238.697510 282.795140 11.173099 0.000000
237.228610 282.689730 11.160421 0.000000
235.856640 282.614590 11.148359 0.000000
234.622380 282.614290 11.137452 0.000000
233.481490 282.658480 11.127219 0.000000
232.205960 282.531860 11.114914 0.000000
230.996150 282.422150 11.102983 0.000000
229.675780 282.149290 11.089267 0.000000
228.547210 282.028020 11.077532 0.000000
227.479860 281.930910 11.066197 0.000000
226.483120 281.874300 11.055407 0.000000
225.369340 281.638280 11.042806 0.000000
224.151670 281.222140 11.028556 0.000000
223.006560 280.838200 11.014914 0.000000
221.995940 280.576720 11.002699 0.000000
220.966690 280.240510 10.989975 0.000000
239.863560 284.937130 12.331854 0.000000
238.327450 286.004640 12.312618 0.000000
239.101620 285.481480 12.322581 0.000000
238.548480 283.820860 13.382873 0.000000
239.087250 285.473390 13.458799 0.000000
238.326280 286.009030 13.444836 0.000000
228.653790 285.634280 13.043428 0.000000
226.975570 286.022250 12.992097 0.000000
221.746410 279.234990 13.329422 0.000000
221.026790 279.307430 13.296220 0.000000
228.911070 284.740880 13.993408 0.000000
228.410060 285.351230 13.998186 0.000000
240.268130 284.094600 14.603065 0.000000
239.500980 284.635830 14.583054 0.000000
238.415160 284.884920 14.531551 0.000000
238.325090 286.013430 14.579741 0.000000
221.551700 278.992950 14.080610 0.000000
221.898320 277.486690 14.754974 0.000000
221.353970 277.765930 14.735260 0.000000
241.001220 284.700230 15.838082 0.000000
240.482740 285.475890 15.845672 0.000000
239.058430 285.457210 15.738048 0.000000
238.323910 286.017880 15.718445 0.000000
220.903980 281.325990 15.015839 0.000000
222.422590 278.131350 15.631104 0.000000
221.117800 278.450560 15.542067 0.000000
221.889920 280.509800 15.830502 0.000000
240.411960 285.419430 17.006140 0.000000
239.043960 285.449100 16.883291 0.000000
238.322690 286.022340 16.862053 0.000000
222.328280 278.026640 16.391392 0.000000
221.299060 278.697940 16.362190 0.000000
239.336260 285.711790 18.091328 0.000000
244.945220 266.931490 10.007661 0.000000
243.229190 270.608180 10.030204 0.000000
230.244430 261.850620 9.578431 0.000000
242.725800 271.264860 10.035613 0.000000
229.800110 262.838380 9.587156 0.000000
242.377500 271.990540 10.037767 0.000000
242.667690 273.042790 10.028250 0.000000
243.032670 274.164090 10.016649 0.000000
243.508510 275.380920 10.002262 0.000000
241.547700 275.227510 10.030208 0.000000
221.900940 261.081880 9.389283 0.000000
225.462520 270.239560 9.602555 0.000000
225.130000 270.660000 9.601083 0.000000
242.986980 261.481050 10.029037 0.000000
242.450810 262.122990 10.041546 0.000000
241.977510 262.768770 10.052363 0.000000
243.497590 263.978760 10.028754 0.000000
243.663680 264.838200 10.027641 0.000000
243.948940 267.432220 10.024432 0.000000
242.945080 267.901520 10.040735 0.000000
242.059430 268.389830 10.054470 0.000000
241.673740 269.067050 10.059170 0.000000
229.616730 262.196930 9.599375 0.000000
229.213820 263.182650 9.605358 0.000000
228.534930 263.471800 9.626880 0.000000
228.060350 263.832760 9.639651 0.000000
227.434160 264.111720 9.658216 0.000000
227.061890 264.497560 9.665885 0.000000
221.585110 261.376040 9.400308 0.000000
227.239690 265.742000 9.640853 0.000000
239.761870 275.107300 10.054921 0.000000
221.198730 261.629390 9.415514 0.000000
226.928830 266.164030 9.644115 0.000000
221.017620 261.978490 9.416712 0.000000
226.625460 266.587680 9.646510 0.000000
238.359380 275.161740 10.072604 0.000000
226.322780 267.009700 9.648320 0.000000
237.341840 275.418640 10.083055 0.000000
226.061940 267.456240 9.647737 0.000000
225.971570 268.014430 9.638981 0.000000
236.625430 275.849120 10.087607 0.000000
225.861860 268.569180 9.630294 0.000000
231.817290 273.392360 10.168871 0.000000
225.676180 269.079960 9.624260 0.000000
225.573820 269.657500 9.613637 0.000000
234.532070 276.183990 10.108096 0.000000
233.907320 276.620850 10.109841 0.000000
234.353290 277.885740 10.089981 0.000000
223.944340 270.388000 9.640172 0.000000
222.896420 270.182070 9.673242 0.000000
233.204590 277.907200 10.101048 0.000000
222.413960 270.425480 9.678717 0.000000
231.788210 277.663510 10.117577 0.000000
221.882080 270.614720 9.686405 0.000000
230.362210 277.354000 10.134549 0.000000
221.207790 270.658110 9.701279 0.000000
229.032810 277.071660 10.149783 0.000000
227.856600 276.876280 10.161988 0.000000
226.738980 276.689450 10.173126 0.000000
225.647920 276.483120 10.183907 0.000000
224.572280 276.246770 10.194612 0.000000
223.533040 276.002560 10.204776 0.000000
222.619090 275.851590 10.212191 0.000000
221.702210 275.658660 10.219940 0.000000
220.825850 275.473600 10.226949 0.000000
231.814450 273.392430 10.992530 0.000000
243.664640 282.838930 11.087122 0.000000
242.078800 282.797390 11.076392 0.000000
240.244580 282.504090 11.063271 0.000000
238.464110 282.181430 11.050165 0.000000
237.027040 282.075260 11.039420 0.000000
235.691530 282.003510 11.029145 0.000000
234.482510 281.996370 11.019564 0.000000
233.371840 282.038060 11.010470 0.000000
232.070760 281.857480 10.999578 0.000000
230.857240 281.712190 10.989126 0.000000
229.589490 281.462310 10.978006 0.000000
228.454740 281.301180 10.967721 0.000000
227.488080 281.280610 10.958544 0.000000
226.464310 281.158940 10.948720 0.000000
225.368840 280.910190 10.938170 0.000000
224.223100 280.549560 10.927096 0.000000
223.112520 280.177250 10.916175 0.000000
222.127010 279.914580 10.906076 0.000000
221.127490 279.584870 10.895782 0.000000
231.811650 273.392460 11.816306 0.000000
239.675610 285.482540 12.182986 0.000000
241.075360 285.487180 12.217003 0.000000
238.357510 285.501890 12.151300 0.000000
231.808790 273.392520 12.641005 0.000000
241.089660 285.505890 13.364815 0.000000
239.658080 285.474640 13.305433 0.000000
238.344790 285.498470 13.252803 0.000000
221.478910 279.092250 13.146793 0.000000
231.805940 273.392550 13.467402 0.000000
228.722930 284.957790 13.805957 0.000000
228.344570 285.695430 13.821924 0.000000
226.962720 285.162930 13.724833 0.000000
240.383300 283.756500 14.399334 0.000000
240.444670 284.969790 14.454365 0.000000
238.703430 284.649660 14.340497 0.000000
238.332030 285.495060 14.356174 0.000000
220.895980 277.380650 13.747317 0.000000
231.803090 273.392580 14.296305 0.000000
221.777730 277.578980 14.550748 0.000000
221.284880 277.892640 14.538032 0.000000
221.337010 278.929720 14.629436 0.000000
231.800220 273.392640 15.128519 0.000000
240.974810 284.242710 15.587936 0.000000
240.803960 285.278870 15.633589 0.000000
239.622910 285.458800 15.556294 0.000000
238.319260 285.491640 15.462488 0.000000
221.135130 276.792910 15.148703 0.000000
220.864610 277.364170 15.181154 0.000000
221.887510 279.677550 15.509890 0.000000
221.343610 279.969940 15.491301 0.000000
231.797320 273.392700 15.964828 0.000000
237.883420 285.105990 16.506954 0.000000
239.995180 283.452640 16.580551 0.000000
240.502120 285.031430 16.738403 0.000000
239.605260 285.450870 16.686893 0.000000
222.054140 277.945070 16.100983 0.000000
221.113740 278.658600 16.086525 0.000000
220.862870 279.318970 16.140587 0.000000
231.794740 273.392940 16.806185 0.000000
231.917860 272.679410 17.599350 0.000000
231.793370 273.394070 17.653610 0.000000
239.588200 285.443480 17.822479 0.000000
245.603100 267.343170 10.064973 0.000000
244.806460 269.635740 10.065939 0.000000
244.345840 270.319580 10.068279 0.000000
231.710680 262.571470 9.600304 0.000000
243.901980 271.004880 10.069761 0.000000
231.084950 262.931370 9.618498 0.000000
243.389590 271.653350 10.071833 0.000000
230.365830 263.238130 9.639999 0.000000
243.199220 272.451170 10.067814 0.000000
243.518260 273.515010 10.054263 0.000000
243.802550 274.590670 10.040424 0.000000
223.635930 261.100430 9.386652 0.000000
223.346710 261.424040 9.395045 0.000000
243.998210 275.647430 10.027234 0.000000
223.029570 261.729950 9.404748 0.000000
222.720400 262.033140 9.413471 0.000000
241.760390 275.329410 10.057126 0.000000
222.490170 262.368900 9.416542 0.000000
221.862350 263.859310 9.403254 0.000000
221.560330 264.149320 9.408310 0.000000
221.260910 264.436460 9.412724 0.000000
244.763760 261.394960 10.084822 0.000000
244.158680 262.042270 10.095505 0.000000
245.622560 263.188080 10.072183 0.000000
245.046630 263.849950 10.081219 0.000000
244.864440 264.610500 10.083300 0.000000
244.611420 267.843050 10.077822 0.000000
243.554960 268.289700 10.091257 0.000000
229.581120 261.300840 9.689701 0.000000
229.863100 263.611020 9.652477 0.000000
229.192110 263.900300 9.671327 0.000000
228.613240 264.211210 9.686117 0.000000
228.530490 265.309750 9.670120 0.000000
228.197020 265.722290 9.673260 0.000000
227.878430 266.138340 9.675263 0.000000
222.110090 262.626100 9.429019 0.000000
227.562270 266.552310 9.676642 0.000000
239.808980 275.097840 10.082105 0.000000
221.813390 262.918760 9.435551 0.000000
227.247420 266.963930 9.677445 0.000000
226.933790 267.373570 9.677666 0.000000
238.640470 275.280880 10.092769 0.000000
226.723110 267.845000 9.672790 0.000000
237.604930 275.512910 10.100801 0.000000
226.554490 268.346620 9.665367 0.000000
220.964050 264.720980 9.416501 0.000000
226.448880 268.896150 9.654343 0.000000
236.686420 275.792450 10.106418 0.000000
231.905040 273.346770 10.187791 0.000000
226.321730 269.439970 9.643480 0.000000
226.186230 269.986630 9.632174 0.000000
236.153200 277.219270 10.090927 0.000000
226.038990 270.533690 9.620570 0.000000
225.448850 270.744840 9.629614 0.000000
234.101200 276.603000 10.118683 0.000000
224.495940 270.647890 9.656442 0.000000
234.544370 277.843320 10.095127 0.000000
223.401540 270.396090 9.690928 0.000000
222.955990 270.660740 9.693011 0.000000
233.515930 277.944210 10.101668 0.000000
222.461530 270.873810 9.697345 0.000000
232.156050 277.734070 10.115485 0.000000
221.819460 270.938840 9.709363 0.000000
221.197300 271.002440 9.720451 0.000000
230.734100 277.415710 10.131116 0.000000
229.417300 277.131740 10.144905 0.000000
228.204740 276.889040 10.156778 0.000000
227.125660 276.723880 10.165916 0.000000
226.047610 276.515930 10.175426 0.000000
225.095890 276.392820 10.182166 0.000000
224.104810 276.189330 10.190297 0.000000
223.108870 275.937410 10.199043 0.000000
221.966370 275.471980 10.212477 0.000000
221.070560 275.240140 10.219670 0.000000
231.896300 273.346890 10.990116 0.000000
243.884510 282.834840 11.071161 0.000000
242.191560 282.697480 11.056867 0.000000
240.370480 282.396580 11.041532 0.000000
238.567320 282.037480 11.026199 0.000000
237.158360 281.934450 11.013379 0.000000
235.813960 281.834500 11.000853 0.000000
234.612090 281.811920 10.989120 0.000000
233.521150 281.849330 10.977957 0.000000
232.182240 281.610170 10.965163 0.000000
230.981700 281.453430 10.953160 0.000000
229.880720 281.351470 10.941688 0.000000
228.723940 281.146790 10.929857 0.000000
227.642990 280.977330 10.918431 0.000000
226.637650 280.849490 10.907389 0.000000
225.578220 280.616270 10.896074 0.000000
224.544530 280.367100 10.884924 0.000000
223.480410 280.031280 10.873708 0.000000
222.458940 279.698640 10.862780 0.000000
221.492950 279.389920 10.852182 0.000000
231.887850 273.347170 11.792329 0.000000
241.389050 285.491390 12.169540 0.000000
240.007260 285.487120 12.133304 0.000000
238.680330 285.483030 12.098504 0.000000
227.994220 285.819580 11.822163 0.000000
231.879390 273.347500 12.595217 0.000000
239.587890 283.994200 13.185080 0.000000
239.664810 285.203120 13.218287 0.000000
238.655980 285.475220 13.182152 0.000000
228.270510 285.000120 12.740743 0.000000
228.135890 286.022160 12.763648 0.000000
231.870940 273.347810 13.399542 0.000000
229.162750 284.938200 13.708098 0.000000
228.637070 285.472870 13.703371 0.000000
240.329180 283.496310 14.291268 0.000000
240.059230 284.401820 14.309821 0.000000
238.212330 283.954440 14.182535 0.000000
238.631640 285.467410 14.267072 0.000000
231.862430 273.348080 14.206076 0.000000
221.719450 278.806820 14.496162 0.000000
221.022030 278.834320 14.443683 0.000000
231.853910 273.348420 15.015612 0.000000
240.558930 284.833560 15.468719 0.000000
239.933120 285.463170 15.454529 0.000000
238.607250 285.459590 15.354309 0.000000
220.849730 276.763790 14.950842 0.000000
222.296810 277.689790 15.177218 0.000000
231.847050 273.349910 15.829190 0.000000
240.054440 283.296970 16.436268 0.000000
238.179020 285.088010 16.382801 0.000000
221.828610 278.035980 15.893823 0.000000
221.411710 278.432920 15.895111 0.000000
241.265240 285.439120 16.692142 0.000000
239.903000 285.450530 16.566254 0.000000
221.473660 280.522950 16.146990 0.000000
231.841740 273.352510 16.647785 0.000000
220.832530 278.628420 16.586752 0.000000
239.884050 285.447690 17.684183 0.000000
238.636960 285.514860 17.554367 0.000000
221.092000 279.996490 16.803398 0.000000
231.812970 273.338780 17.466751 0.000000
233.148800 261.105160 9.780621 0.000000
233.047320 261.630340 9.782792 0.000000
232.940950 262.155580 9.784524 0.000000
234.713580 263.274230 9.718158 0.000000
234.989880 263.967350 9.704647 0.000000
234.375700 264.363370 9.722565 0.000000
233.628800 264.693240 9.744778 0.000000
233.104630 265.088840 9.758408 0.000000
226.378540 261.092530 9.487993 0.000000
232.399690 265.396700 9.778169 0.000000
226.048510 261.420930 9.501303 0.000000
225.540990 261.675570 9.524677 0.000000
231.814090 265.736110 9.793115 0.000000
225.671160 262.166600 9.509403 0.000000
225.422580 262.512300 9.516163 0.000000
232.107420 267.066220 9.766837 0.000000
225.136290 262.837950 9.524656 0.000000
224.951280 263.204560 9.526427 0.000000
231.766370 267.512760 9.770862 0.000000
245.204100 276.998050 10.262065 0.000000
224.780240 263.577180 9.526728 0.000000
231.437210 267.961270 9.773868 0.000000
224.509220 263.900300 9.532617 0.000000
231.109340 268.407140 9.776251 0.000000
243.983340 277.248540 10.271876 0.000000
224.295990 264.249540 9.534351 0.000000
230.782730 268.850650 9.778011 0.000000
243.289440 277.783540 10.273884 0.000000
224.219190 265.142460 9.513662 0.000000
230.701570 269.435820 9.769547 0.000000
223.978680 265.481260 9.515130 0.000000
230.647740 270.047000 9.759189 0.000000
242.772160 278.417940 10.272837 0.000000
223.738860 265.818970 9.515970 0.000000
223.499560 266.155850 9.516182 0.000000
230.593440 270.669130 9.747993 0.000000
242.725390 279.359250 10.264319 0.000000
223.261170 266.492430 9.515734 0.000000
230.462340 271.252530 9.739044 0.000000
223.023930 266.829280 9.514599 0.000000
230.414930 271.902370 9.725793 0.000000
241.712710 279.658140 10.269370 0.000000
222.785640 267.165130 9.512916 0.000000
230.018250 272.317540 9.726233 0.000000
222.547390 267.501070 9.510601 0.000000
228.765810 272.097170 9.762577 0.000000
222.309020 267.837220 9.507656 0.000000
222.117130 268.210940 9.500712 0.000000
221.989960 268.641660 9.488257 0.000000
221.384870 268.673100 9.510370 0.000000
221.241210 269.091400 9.497816 0.000000
227.634980 271.919890 9.794262 0.000000
238.556810 279.334660 10.296050 0.000000
227.122880 272.189090 9.799245 0.000000
237.071750 279.153810 10.308079 0.000000
226.579800 272.422270 9.805294 0.000000
226.052170 272.656190 9.810384 0.000000
235.662660 278.975890 10.319024 0.000000
225.530470 272.883730 9.814936 0.000000
234.354600 278.826260 10.328459 0.000000
225.020450 273.110600 9.818679 0.000000
233.119230 278.687930 10.336813 0.000000
224.504200 273.320860 9.822466 0.000000
231.900180 278.516200 10.345039 0.000000
223.509370 273.050600 9.849695 0.000000
230.600620 278.222170 10.354911 0.000000
223.519150 273.755680 9.826967 0.000000
223.047130 273.979950 9.827776 0.000000
222.582320 274.203700 9.827916 0.000000
221.793660 274.054410 9.845363 0.000000
220.975630 273.836850 9.865080 0.000000
231.759480 273.561650 10.409800 0.000000
229.492540 278.053960 10.361624 0.000000
228.445800 277.900970 10.367411 0.000000
227.551610 277.860470 10.370456 0.000000
226.628980 277.756840 10.374174 0.000000
225.645360 277.550110 10.379352 0.000000
223.546050 276.851350 10.393709 0.000000
224.411010 277.017550 10.390241 0.000000
222.812670 276.806730 10.394454 0.000000
221.976330 276.604830 10.397799 0.000000
221.183170 276.420260 10.400450 0.000000
244.636430 283.833250 11.317225 0.000000
243.011290 283.711760 11.299546 0.000000
241.391780 283.533940 11.281544 0.000000
239.808810 283.323880 11.263602 0.000000
238.393390 283.194550 11.247289 0.000000
237.066410 283.089260 11.231701 0.000000
235.829240 283.015900 11.216877 0.000000
234.686970 282.986080 11.202893 0.000000
233.657590 283.025570 11.189971 0.000000
232.654970 283.057040 11.177114 0.000000
231.516590 282.911220 11.162457 0.000000
230.393510 282.736080 11.147774 0.000000
229.313870 282.563200 11.133408 0.000000
228.297060 282.418430 11.119591 0.000000
227.404690 282.382110 11.107018 0.000000
226.510700 282.310330 11.094261 0.000000
231.764330 273.569490 11.166212 0.000000
224.644900 281.954650 11.067482 0.000000
225.670350 282.273250 11.081948 0.000000
223.654770 281.633540 11.053328 0.000000
221.326170 280.307920 11.021315 0.000000
222.715700 281.335020 11.039656 0.000000
231.768770 273.577090 11.923282 0.000000
238.487550 285.460300 12.282669 0.000000
241.047300 285.468600 12.355058 0.000000
239.741760 285.464170 12.318134 0.000000
231.777040 273.587400 12.681993 0.000000
240.121810 284.689270 13.369459 0.000000
239.720760 285.456880 13.373476 0.000000
238.466660 285.453120 13.317576 0.000000
228.273910 285.700930 12.886149 0.000000
231.800920 273.608830 13.444457 0.000000
221.778850 279.059810 13.095554 0.000000
228.537090 286.064030 13.808733 0.000000
226.917710 285.082790 13.672042 0.000000
240.669330 282.985410 14.385773 0.000000
240.365920 283.810550 14.401371 0.000000
240.422670 284.956480 14.453447 0.000000
239.708590 285.457400 14.431211 0.000000
238.445740 285.445980 14.353960 0.000000
221.523740 278.736540 14.432312 0.000000
220.922560 278.820340 14.392252 0.000000
239.678710 285.442320 15.489733 0.000000
238.424770 285.438810 15.392823 0.000000
240.695830 285.200200 15.555057 0.000000
222.084720 277.697880 15.066448 0.000000
221.518650 277.831480 15.026598 0.000000
228.689030 285.138550 15.553842 0.000000
239.929980 283.469970 16.438549 0.000000
240.471560 285.019170 16.599787 0.000000
239.655880 285.433470 16.552429 0.000000
238.006230 285.067140 16.371391 0.000000
221.264080 278.406310 15.745219 0.000000
221.238220 280.315580 15.977824 0.000000
221.444230 278.677250 16.492214 0.000000
239.636340 285.427580 17.620214 0.000000
238.587740 285.612460 17.521070 0.000000
235.288300 263.211030 9.714635 0.000000
234.717330 263.619020 9.732296 0.000000
234.963150 264.284150 9.718636 0.000000
234.367710 264.668460 9.736064 0.000000
233.634460 264.985200 9.758252 0.000000
227.271440 261.278720 9.488633 0.000000
233.125210 265.368440 9.771467 0.000000
226.773470 261.551850 9.512617 0.000000
226.448500 261.871860 9.525626 0.000000
225.954040 262.121190 9.548545 0.000000
226.036500 262.583250 9.535467 0.000000
232.258830 267.333440 9.773689 0.000000
245.700900 276.448730 10.222335 0.000000
225.768720 262.909790 9.543373 0.000000
225.488310 263.226200 9.551554 0.000000
231.919770 267.764370 9.777569 0.000000
244.479980 276.699100 10.233758 0.000000
221.424410 261.114690 9.410680 0.000000
225.311610 263.584750 9.552692 0.000000
231.593170 268.197360 9.780411 0.000000
221.318790 261.769170 9.398223 0.000000
225.146530 263.948330 9.552496 0.000000
221.107620 262.026000 9.404833 0.000000
220.844420 262.253810 9.415546 0.000000
224.593690 265.469020 9.538368 0.000000
230.923610 269.658360 9.772809 0.000000
224.357680 265.797760 9.539658 0.000000
230.856020 270.244420 9.762454 0.000000
224.121660 266.124970 9.540385 0.000000
223.886260 266.451260 9.540501 0.000000
230.787770 270.840300 9.751291 0.000000
223.652070 266.777400 9.539953 0.000000
230.646930 271.399200 9.742382 0.000000
230.588820 272.022860 9.729050 0.000000
223.419110 267.103760 9.538731 0.000000
223.184950 267.428890 9.536997 0.000000
230.102050 272.354550 9.733742 0.000000
222.950870 267.754000 9.534650 0.000000
222.786670 268.132780 9.526568 0.000000
222.658130 268.544310 9.515043 0.000000
221.941220 268.997310 9.524567 0.000000
222.527570 268.961150 9.502762 0.000000
221.653000 269.276860 9.523310 0.000000
233.701930 261.102660 9.780991 0.000000
233.516620 261.596340 9.786196 0.000000
233.415160 262.111180 9.787680 0.000000
232.445140 265.668490 9.790791 0.000000
232.013030 266.056580 9.800135 0.000000
221.124540 261.333160 9.426179 0.000000
224.880020 264.261750 9.558191 0.000000
231.267990 268.627560 9.782648 0.000000
243.336550 276.956970 10.243657 0.000000
224.669620 264.600400 9.559751 0.000000
230.990690 269.081540 9.782377 0.000000
242.649380 277.458920 10.245842 0.000000
242.045470 278.000370 10.246189 0.000000
241.087170 278.298550 10.252013 0.000000
241.080470 279.222600 10.241245 0.000000
228.923000 272.166320 9.769143 0.000000
227.843140 272.007510 9.800631 0.000000
238.489490 279.235110 10.263010 0.000000
227.349170 272.271090 9.805473 0.000000
237.037510 279.052830 10.276786 0.000000
226.823550 272.498630 9.811511 0.000000
235.674680 278.885040 10.289142 0.000000
220.906280 269.136050 9.558028 0.000000
226.313670 272.727600 9.816561 0.000000
225.809370 272.950380 9.821097 0.000000
234.399350 278.736330 10.300071 0.000000
225.314480 273.170840 9.824930 0.000000
233.207890 278.609590 10.309600 0.000000
224.814440 273.376040 9.828791 0.000000
223.862140 273.127140 9.856044 0.000000
232.043300 278.460660 10.318810 0.000000
223.871380 273.811610 9.832865 0.000000
223.413880 274.030610 9.833765 0.000000
222.972930 274.259520 9.833472 0.000000
221.520000 274.030430 9.865551 0.000000
222.311110 274.232730 9.845533 0.000000
220.838090 273.923580 9.879812 0.000000
231.801280 273.568600 10.391569 0.000000
230.788450 278.183200 10.330125 0.000000
229.675900 277.987030 10.338873 0.000000
228.665950 277.845400 10.345741 0.000000
227.782650 277.791630 10.350071 0.000000
226.896210 277.701200 10.354645 0.000000
225.948640 277.509340 10.360894 0.000000
224.761290 277.006040 10.373377 0.000000
223.926420 276.851990 10.377808 0.000000
223.229080 276.828190 10.378993 0.000000
221.647960 276.459440 10.387088 0.000000
222.421740 276.640560 10.383304 0.000000
220.915570 276.298030 10.390085 0.000000
244.298490 283.532440 11.240518 0.000000
242.733340 283.422610 11.225457 0.000000
241.150090 283.240140 11.209944 0.000000
239.537640 282.972470 11.193907 0.000000
238.182590 282.859310 11.180015 0.000000
236.912260 282.769530 11.166682 0.000000
235.796260 282.773100 11.154551 0.000000
234.604390 282.665340 11.141535 0.000000
233.610410 282.705720 11.130119 0.000000
232.619230 282.715090 11.118546 0.000000
231.510670 282.566130 11.105783 0.000000
230.426790 282.398990 11.093113 0.000000
229.361540 282.207860 11.080500 0.000000
228.386610 282.076690 11.068557 0.000000
231.756530 273.541600 11.123852 0.000000
227.449110 281.950590 11.056831 0.000000
226.614230 281.914400 11.045844 0.000000
224.778700 281.522710 11.022350 0.000000
225.766950 281.830690 11.034664 0.000000
223.839770 281.233490 11.010412 0.000000
220.876010 279.834630 10.973939 0.000000
221.702620 280.116910 10.984905 0.000000
222.947880 280.964570 10.998827 0.000000
231.761110 273.549740 11.855875 0.000000
241.243560 285.479890 12.263788 0.000000
239.963010 285.475400 12.229033 0.000000
238.733110 285.471650 12.195656 0.000000
227.983870 285.866090 11.909365 0.000000
231.768720 273.560030 12.589402 0.000000
239.618130 284.104250 13.212751 0.000000
239.639300 285.200960 13.243259 0.000000
238.711850 285.464540 13.210238 0.000000
231.773640 273.568390 13.324862 0.000000
221.140090 278.391300 12.918968 0.000000
220.981080 279.084500 12.944656 0.000000
238.185610 283.927400 14.131929 0.000000
229.017910 284.985630 13.653136 0.000000
227.708950 285.536010 13.608809 0.000000
231.777980 273.576390 14.063001 0.000000
240.260240 283.596370 14.243650 0.000000
240.090590 284.518040 14.270919 0.000000
238.432430 285.220980 14.200850 0.000000
221.796520 278.457610 14.272972 0.000000
220.819530 278.877350 14.233505 0.000000
231.790970 273.590580 14.805824 0.000000
240.527760 284.902010 15.355528 0.000000
239.898620 285.453610 15.337986 0.000000
238.669170 285.450200 15.244373 0.000000
221.343110 277.837430 14.831243 0.000000
228.857760 284.821230 15.364250 0.000000
221.511120 279.943240 15.063561 0.000000
228.659300 285.691130 15.419260 0.000000
231.823900 273.618990 15.556666 0.000000
238.049070 284.894320 16.171450 0.000000
222.259960 278.236050 15.624792 0.000000
221.112200 278.420410 15.527596 0.000000
239.871700 283.295870 16.229519 0.000000
240.977780 285.297300 16.472075 0.000000
239.862300 285.433230 16.377419 0.000000
220.956820 280.102480 15.718638 0.000000
222.104200 278.041020 16.253067 0.000000
221.909470 278.667210 16.316280 0.000000
221.260860 278.655240 16.239418 0.000000
220.963500 279.151950 16.275528 0.000000
231.729050 273.561310 17.042263 0.000000
239.855360 285.438930 17.425785 0.000000
238.626220 285.435730 17.291676 0.000000
239.858310 285.453430 18.482616 0.000000
235.886730 263.542390 9.748533 0.000000
236.113950 264.191740 9.733956 0.000000
235.494220 264.578340 9.750966 0.000000
234.776120 264.913450 9.771336 0.000000
228.408290 261.375490 9.507262 0.000000
234.262470 265.302520 9.783436 0.000000
227.908040 261.657930 9.530514 0.000000
227.577320 261.981540 9.543005 0.000000
227.070630 262.236110 9.565868 0.000000
227.146290 262.689790 9.552289 0.000000
222.908400 261.133790 9.406006 0.000000
222.766510 261.427250 9.407746 0.000000
222.456670 261.651370 9.423450 0.000000
222.647220 262.081670 9.395099 0.000000
222.415850 262.336060 9.402822 0.000000
222.143170 262.566930 9.413744 0.000000
221.970610 262.841160 9.415295 0.000000
221.790420 263.110140 9.416975 0.000000
221.603850 263.374210 9.418690 0.000000
231.003710 271.427090 9.755659 0.000000
230.913420 272.010010 9.741879 0.000000
230.717530 272.529390 9.732059 0.000000
234.395920 261.489290 9.817989 0.000000
234.254100 261.988980 9.819590 0.000000
234.123540 262.491210 9.820177 0.000000
233.557650 265.604610 9.802570 0.000000
232.953310 265.926970 9.817461 0.000000
226.696440 262.948610 9.570745 0.000000
233.089200 267.124660 9.792430 0.000000
232.740100 267.545290 9.795568 0.000000
226.058980 263.541600 9.590070 0.000000
232.399660 267.964840 9.797855 0.000000
245.601780 276.222600 10.215953 0.000000
225.879140 263.890110 9.590201 0.000000
225.611470 264.196560 9.595432 0.000000
232.061330 268.380770 9.799551 0.000000
244.476260 276.505580 10.224179 0.000000
225.399540 264.526030 9.596561 0.000000
231.725050 268.793330 9.800658 0.000000
225.188170 264.854030 9.597112 0.000000
231.440950 269.230990 9.799051 0.000000
243.336820 276.746430 10.232491 0.000000
225.313340 265.360440 9.574699 0.000000
221.298390 263.570430 9.430857 0.000000
225.099400 265.691830 9.574081 0.000000
231.348970 269.778750 9.788644 0.000000
242.452740 277.106320 10.236103 0.000000
221.079320 263.809940 9.434647 0.000000
224.885710 266.022280 9.572878 0.000000
231.177610 270.286500 9.780896 0.000000
220.861820 264.047550 9.437819 0.000000
224.649540 266.338410 9.572658 0.000000
231.096160 270.855500 9.768462 0.000000
241.920990 277.664150 10.233015 0.000000
224.298250 266.811460 9.571035 0.000000
223.948260 267.283080 9.568217 0.000000
241.030110 277.981110 10.236160 0.000000
223.714600 267.596250 9.565609 0.000000
241.034270 278.880890 10.222030 0.000000
223.558580 267.965550 9.556679 0.000000
223.424670 268.355620 9.545315 0.000000
229.423050 272.252720 9.773059 0.000000
223.288970 268.749970 9.533235 0.000000
222.717100 268.795840 9.554199 0.000000
228.413850 272.139220 9.801419 0.000000
238.953460 279.221130 10.232648 0.000000
222.578640 269.187930 9.541138 0.000000
227.814560 272.308780 9.810449 0.000000
222.429230 269.577270 9.528038 0.000000
227.294190 272.526000 9.815524 0.000000
237.510190 279.037230 10.246185 0.000000
221.568820 269.330720 9.572434 0.000000
226.787250 272.742460 9.819754 0.000000
236.141540 278.856020 10.258623 0.000000
220.997880 269.316740 9.593914 0.000000
226.291200 272.956940 9.823252 0.000000
234.863710 278.695220 10.269577 0.000000
225.784190 273.150540 9.827153 0.000000
224.838410 272.921510 9.854556 0.000000
233.687620 278.570470 10.278734 0.000000
224.386200 273.130040 9.855732 0.000000
223.940520 273.336180 9.856342 0.000000
223.956450 274.013850 9.830097 0.000000
223.450010 274.154690 9.833242 0.000000
222.377810 274.329710 9.843166 0.000000
223.037520 274.387700 9.830653 0.000000
220.834090 273.856990 9.884674 0.000000
221.550160 274.044950 9.866979 0.000000
231.871830 273.349460 10.385769 0.000000
232.550050 278.433960 10.287417 0.000000
231.363420 278.208530 10.297664 0.000000
230.193630 277.949580 10.308064 0.000000
229.265080 277.874660 10.313129 0.000000
228.349270 277.777010 10.318205 0.000000
227.424590 277.634120 10.323889 0.000000
226.264940 277.199980 10.336394 0.000000
225.348750 276.979580 10.343031 0.000000
224.631900 276.948240 10.344482 0.000000
223.051330 276.621770 10.352804 0.000000
223.824920 276.782230 10.348907 0.000000
222.294980 276.448820 10.356655 0.000000
244.523510 283.301820 11.178972 0.000000
242.981160 283.194210 11.163478 0.000000
241.438220 283.028690 11.147934 0.000000
239.842220 282.760770 11.132026 0.000000
238.401720 282.559780 11.117171 0.000000
237.226440 282.533630 11.104027 0.000000
235.923230 282.349120 11.090063 0.000000
234.845960 282.324340 11.077487 0.000000
233.911410 282.399050 11.065711 0.000000
232.887180 282.353000 11.053382 0.000000
231.767290 282.169310 11.040558 0.000000
230.721120 282.018460 11.028183 0.000000
220.968150 276.253170 10.359581 0.000000
221.568340 276.280580 10.360051 0.000000
231.862150 273.350490 11.092441 0.000000
229.675370 281.825130 11.015884 0.000000
228.681790 281.647280 11.003919 0.000000
227.839190 281.607510 10.992665 0.000000
226.970790 281.503970 10.981345 0.000000
226.137150 281.409640 10.970211 0.000000
224.318180 280.906860 10.947825 0.000000
225.233870 281.188290 10.958952 0.000000
222.267870 279.874760 10.925951 0.000000
223.109420 280.157960 10.936352 0.000000
220.777180 279.479000 10.905941 0.000000
221.500920 279.661770 10.915847 0.000000
231.852490 273.351560 11.798965 0.000000
240.625030 285.520170 12.147141 0.000000
239.368650 285.484800 12.111822 0.000000
238.314160 285.593170 12.083358 0.000000
231.842820 273.352600 12.506030 0.000000
240.444820 285.378690 13.158795 0.000000
239.342410 285.477780 13.112354 0.000000
238.312990 285.609440 13.070192 0.000000
227.870760 285.873870 12.634353 0.000000
231.835880 273.355560 13.214544 0.000000
221.100010 278.194790 12.776635 0.000000
238.311830 285.625760 14.059546 0.000000
221.263960 279.383760 13.482922 0.000000
221.921510 279.444400 13.528836 0.000000
228.838070 284.953980 13.487977 0.000000
228.473130 285.582820 13.495343 0.000000
231.829740 273.359130 13.925196 0.000000
240.160340 285.145810 14.152842 0.000000
239.316130 285.470730 14.113934 0.000000
221.295900 278.529300 14.062155 0.000000
228.643300 285.834840 14.368679 0.000000
231.823560 273.362730 14.638625 0.000000
239.473390 284.560240 15.084507 0.000000
239.289860 285.463710 15.117531 0.000000
238.310640 285.642150 15.052382 0.000000
221.806640 277.542360 14.645470 0.000000
221.357010 277.757690 14.625484 0.000000
221.128740 278.299800 14.658762 0.000000
231.817350 273.366330 15.355503 0.000000
221.214250 276.736720 15.116560 0.000000
220.837650 277.027190 15.111054 0.000000
228.672650 284.786440 15.145516 0.000000
228.425510 285.567750 15.186621 0.000000
239.007100 285.223940 16.084602 0.000000
238.309940 285.659060 16.049749 0.000000
221.986190 279.606990 15.532128 0.000000
231.811100 273.369930 16.076591 0.000000
240.458710 285.439540 16.234665 0.000000
221.269790 281.478550 15.686407 0.000000
222.045850 277.913510 15.980915 0.000000
221.296770 278.594150 15.986007 0.000000
220.868760 278.858060 15.974026 0.000000
231.804840 273.373570 16.802576 0.000000
239.070300 284.238590 17.017492 0.000000
239.236920 285.449520 17.134605 0.000000
238.308290 285.675140 17.052370 0.000000
239.545320 285.746830 18.221865 0.000000
235.853450 263.582280 9.748243 0.000000
236.073330 264.206150 9.733954 0.000000
235.496060 264.590030 9.751152 0.000000
228.718350 261.159580 9.531572 0.000000
228.770970 261.593110 9.522247 0.000000
228.300830 261.875950 9.545191 0.000000
223.648410 261.483490 9.416571 0.000000
223.513790 261.774900 9.418427 0.000000
223.375180 262.063840 9.420055 0.000000
234.702790 261.162570 9.809022 0.000000
234.421600 261.616820 9.817418 0.000000
234.311980 262.106660 9.818454 0.000000
234.201350 262.596530 9.818955 0.000000
234.825910 264.926540 9.771703 0.000000
234.349240 265.312810 9.783975 0.000000
233.690200 265.618320 9.803334 0.000000
227.988880 262.195770 9.557717 0.000000
227.519270 262.454930 9.579828 0.000000
233.124330 265.941800 9.818520 0.000000
227.588010 262.893280 9.567058 0.000000
227.172680 263.156800 9.584795 0.000000
233.248290 267.093410 9.794909 0.000000
226.729900 263.398350 9.603974 0.000000
232.929290 267.510590 9.798169 0.000000
226.284580 264.037930 9.612381 0.000000
232.614780 267.925420 9.800740 0.000000
223.088270 262.635160 9.422433 0.000000
226.121260 264.380520 9.611875 0.000000
232.301940 268.337070 9.802736 0.000000
244.361540 276.092290 10.188074 0.000000
222.941480 262.918240 9.423049 0.000000
225.831850 264.662290 9.619280 0.000000
231.990780 268.745820 9.804160 0.000000
222.787480 263.197270 9.423741 0.000000
225.632460 264.983890 9.620155 0.000000
231.681170 269.152070 9.805011 0.000000
243.264430 276.337100 10.198718 0.000000
222.629850 263.473790 9.424190 0.000000
225.755420 265.473180 9.598379 0.000000
222.385190 263.882900 9.424475 0.000000
225.553590 265.798220 9.598116 0.000000
231.592250 269.680970 9.795434 0.000000
242.323040 276.640560 10.206104 0.000000
222.039600 264.233340 9.433227 0.000000
225.352110 266.122620 9.597276 0.000000
231.437040 270.178040 9.788118 0.000000
221.830960 264.475460 9.436361 0.000000
225.150890 266.446560 9.595857 0.000000
231.366490 270.732240 9.776194 0.000000
241.664150 277.091490 10.207518 0.000000
221.522520 264.837070 9.439635 0.000000
224.819260 266.913150 9.594742 0.000000
231.285000 271.289000 9.763946 0.000000
240.945100 277.490420 10.209826 0.000000
221.215700 265.195860 9.441749 0.000000
224.487950 267.378140 9.592515 0.000000
221.033830 265.448550 9.440178 0.000000
224.338380 267.736630 9.584955 0.000000
231.205890 271.857060 9.750736 0.000000
240.083830 277.778260 10.214853 0.000000
220.880710 265.721590 9.435073 0.000000
224.215500 268.117770 9.574648 0.000000
231.115220 272.427670 9.737192 0.000000
224.091080 268.503080 9.563649 0.000000
230.102420 272.347260 9.767868 0.000000
240.131910 278.671540 10.200042 0.000000
223.964940 268.892790 9.551947 0.000000
229.195540 272.307860 9.793816 0.000000
223.419310 268.953190 9.572724 0.000000
223.290190 269.341160 9.560057 0.000000
228.410400 272.329440 9.814047 0.000000
238.245380 279.053650 10.212250 0.000000
223.158720 269.733950 9.546676 0.000000
227.913880 272.554690 9.819717 0.000000
222.468410 269.637080 9.579174 0.000000
227.426670 272.776520 9.824708 0.000000
236.882510 278.877960 10.227957 0.000000
221.268070 269.531800 9.630945 0.000000
221.898150 269.623290 9.602214 0.000000
226.953170 272.999390 9.828778 0.000000
235.607090 278.719270 10.242057 0.000000
220.974520 269.747220 9.630552 0.000000
226.468290 273.202180 9.833270 0.000000
225.118190 273.212340 9.863411 0.000000
224.689940 273.425420 9.864670 0.000000
224.720470 274.100100 9.838442 0.000000
224.224350 274.242460 9.842745 0.000000
223.827820 274.481840 9.840801 0.000000
223.337540 274.609920 9.844523 0.000000
221.840840 274.199650 9.886710 0.000000
222.555850 274.382780 9.867338 0.000000
231.767590 273.548980 10.369931 0.000000
234.411700 278.577360 10.254662 0.000000
233.306060 278.466090 10.265466 0.000000
232.233980 278.342190 10.275798 0.000000
231.082980 278.103580 10.288578 0.000000
230.068180 277.946440 10.298303 0.000000
229.166210 277.859470 10.305394 0.000000
228.255070 277.728060 10.313096 0.000000
227.175980 277.381500 10.326101 0.000000
221.163450 274.030640 9.904398 0.000000
226.297680 277.203950 10.333889 0.000000
224.751500 276.980320 10.344377 0.000000
225.546450 277.132630 10.338270 0.000000
223.988220 276.831850 10.349922 0.000000
243.518360 282.990940 11.105080 0.000000
242.041400 282.872440 11.093579 0.000000
240.521710 282.664180 11.081859 0.000000
238.941380 282.345950 11.069896 0.000000
237.798230 282.338230 11.059792 0.000000
236.477540 282.131590 11.048952 0.000000
235.422490 282.116670 11.039150 0.000000
234.485260 282.176330 11.029736 0.000000
233.532260 282.189120 11.020216 0.000000
232.481410 282.068360 11.010375 0.000000
222.540340 276.535400 10.359749 0.000000
223.255580 276.688510 10.354904 0.000000
221.119690 276.142940 10.370646 0.000000
221.939410 276.504880 10.360921 0.000000
231.773130 273.559690 11.053150 0.000000
231.444690 281.920810 11.000620 0.000000
230.440020 281.765990 10.991014 0.000000
229.460270 281.597780 10.981544 0.000000
228.592640 281.519960 10.972378 0.000000
227.744980 281.432310 10.963289 0.000000
226.147450 281.281490 10.945394 0.000000
226.930820 281.353030 10.954300 0.000000
224.111590 280.380680 10.927874 0.000000
225.298680 281.089660 10.936528 0.000000
222.521190 279.914610 10.911247 0.000000
223.279650 280.113680 10.919497 0.000000
221.805450 279.744960 10.903094 0.000000
221.059330 279.490170 10.895174 0.000000
231.778270 273.570130 11.736931 0.000000
240.190340 285.451720 12.052947 0.000000
239.047470 285.474330 12.023940 0.000000
238.318790 285.852870 12.008544 0.000000
227.974460 285.854710 11.744268 0.000000
231.786210 273.582550 12.422097 0.000000
240.858250 284.995450 13.061207 0.000000
239.770230 285.091430 13.017716 0.000000
239.024340 285.467620 12.995303 0.000000
238.317660 285.867130 12.975363 0.000000
228.022600 285.945310 12.566605 0.000000
231.805450 273.603120 13.110252 0.000000
239.898250 283.176210 13.934892 0.000000
240.142940 285.437770 14.032991 0.000000
238.984700 285.445680 13.966158 0.000000
238.316560 285.881500 13.944530 0.000000
222.097790 279.346950 13.427830 0.000000
220.903150 279.315800 13.353361 0.000000
221.479020 279.308260 13.387529 0.000000
228.645550 284.618740 13.362528 0.000000
227.748110 285.579740 13.358393 0.000000
241.428180 285.499510 14.110441 0.000000
220.974620 277.650940 13.839983 0.000000
239.595150 282.936430 14.857967 0.000000
241.402620 285.491180 15.124897 0.000000
240.148510 285.456880 15.029071 0.000000
238.977980 285.454160 14.942038 0.000000
238.315460 285.895900 14.916990 0.000000
221.605330 277.764620 14.497662 0.000000
221.205260 278.021480 14.488606 0.000000
221.602230 277.777620 15.103891 0.000000
228.658080 284.675840 14.988945 0.000000
241.113100 284.210820 16.035027 0.000000
240.125760 285.450840 16.025578 0.000000
238.954130 285.446900 15.919204 0.000000
238.314330 285.910340 15.893692 0.000000
222.151610 277.731050 15.153923 0.000000
221.635990 279.618160 15.326054 0.000000
241.381900 285.487030 16.143023 0.000000
221.393600 278.346800 15.767772 0.000000
221.196590 278.939640 15.828259 0.000000
221.560750 280.487850 16.083651 0.000000
221.021510 280.585850 16.041027 0.000000
241.320160 285.447630 17.158035 0.000000
240.102040 285.443940 17.025867 0.000000
238.873020 285.386690 16.889675 0.000000
238.313140 285.924840 16.875553 0.000000
240.078160 285.436980 18.031086 0.000000
239.126790 285.636380 17.932995 0.000000
234.940860 261.605410 9.817888 0.000000
234.800520 262.079190 9.821035 0.000000
236.230740 263.471860 9.754578 0.000000
234.701600 262.561920 9.821911 0.000000
235.936750 263.931880 9.762190 0.000000
236.146790 264.537200 9.748148 0.000000
235.598680 264.914520 9.765279 0.000000
228.938310 261.160000 9.571992 0.000000
229.110200 261.607240 9.555807 0.000000
234.961620 265.246830 9.785751 0.000000
229.161330 262.030700 9.546664 0.000000
234.504810 265.625150 9.798196 0.000000
228.710850 262.309810 9.569294 0.000000
228.412220 262.624420 9.581663 0.000000
233.877780 265.927980 9.817509 0.000000
227.960830 262.880490 9.603559 0.000000
233.391450 266.268740 9.830446 0.000000
228.027360 263.308960 9.591040 0.000000
224.307450 261.316410 9.455738 0.000000
227.628370 263.569460 9.608606 0.000000
233.588490 267.426060 9.803953 0.000000
224.223220 261.782290 9.450284 0.000000
227.209320 263.811430 9.627166 0.000000
224.028320 262.210780 9.453442 0.000000
226.910390 264.092290 9.637354 0.000000
233.284470 267.838260 9.807331 0.000000
223.893920 262.493590 9.455187 0.000000
226.751830 264.428250 9.637629 0.000000
232.985200 268.248690 9.810003 0.000000
223.857120 262.816350 9.447486 0.000000
232.686170 268.655640 9.812166 0.000000
244.143980 276.054530 10.178326 0.000000
223.561140 263.199010 9.456677 0.000000
226.279100 265.024510 9.647230 0.000000
232.388580 269.060030 9.813766 0.000000
223.350860 263.616300 9.456926 0.000000
226.087020 265.339840 9.648252 0.000000
243.079270 276.292210 10.190441 0.000000
223.197970 263.887790 9.457509 0.000000
226.248020 265.839050 9.623952 0.000000
232.169950 269.504580 9.811230 0.000000
222.960770 264.289670 9.457995 0.000000
226.034580 266.148440 9.625180 0.000000
232.093410 270.030910 9.801490 0.000000
242.215940 276.616550 10.198053 0.000000
222.717060 264.686860 9.457972 0.000000
225.821810 266.456700 9.625843 0.000000
231.944720 270.522310 9.794395 0.000000
222.462940 264.896730 9.466183 0.000000
225.623400 266.772130 9.624941 0.000000
231.876270 271.068240 9.782773 0.000000
241.585050 277.060610 10.200314 0.000000
222.200320 265.277440 9.465900 0.000000
225.425830 267.087680 9.623425 0.000000
221.937740 265.657070 9.464491 0.000000
225.205600 267.611180 9.614301 0.000000
231.809750 271.624850 9.770235 0.000000
240.887070 277.449070 10.203725 0.000000
