# .PCD v0.7 - Point Cloud Data file format
VERSION 0.7
FIELDS x y z intensity
SIZE 4 4 4 4
TYPE F F F F
COUNT 1 1 1 1
WIDTH 1174
HEIGHT 1
VIEWPOINT 0 0 0 1 0 0 0
POINTS 1174
DATA ascii
223.653750 174.791730 6.811410 0.000000
221.745500 175.255290 6.804232 0.000000
223.224990 177.128680 6.851397 0.000000
221.225170 177.500080 6.842620 0.000000
245.209690 168.931030 6.906443 0.000000
233.883970 171.787580 6.847802 0.000000
241.314940 166.600200 8.603979 0.000000
241.388150 184.981780 9.037141 0.000000
238.855380 183.855180 10.768600 0.000000
242.191530 183.649800 10.922483 0.000000
240.047700 186.002960 10.904919 0.000000
245.511230 162.894810 12.367288 0.000000
244.235580 164.176770 12.303067 0.000000
244.706020 162.753450 14.144098 0.000000
244.466710 164.192520 14.160436 0.000000
237.609210 184.838210 14.395919 0.000000
242.896150 182.241900 14.727842 0.000000
241.972810 183.501630 14.709722 0.000000
240.590330 184.548580 14.642465 0.000000
240.001680 163.431730 15.458455 0.000000
241.106510 170.826580 15.865308 0.000000
240.330630 172.091050 15.831977 0.000000
243.724610 166.995030 16.017056 0.000000
243.344850 169.894380 16.084963 0.000000
237.067790 169.768070 17.076551 0.000000
243.881290 162.587400 17.729067 0.000000
242.771500 168.251140 17.791008 0.000000
240.782410 172.190660 17.704758 0.000000
233.122590 171.247760 6.795174 0.000000
230.923610 171.893840 6.786533 0.000000
226.897320 173.106690 6.772552 0.000000
225.120040 173.705870 6.768121 0.000000
223.139040 174.170460 6.760062 0.000000
221.284850 174.624240 6.753276 0.000000
222.704150 176.439010 6.798183 0.000000
220.758680 176.801930 6.789839 0.000000
244.153580 168.461260 6.851481 0.000000
237.924350 169.850650 6.815809 0.000000
241.370150 166.396360 8.541246 0.000000
241.420840 184.527510 8.962946 0.000000
242.500920 166.602940 10.352880 0.000000
240.900570 182.672180 10.740836 0.000000
240.868650 184.259920 10.795767 0.000000
237.986540 184.577320 10.669771 0.000000
244.274380 164.008290 12.194134 0.000000
241.886380 181.452590 12.604069 0.000000
243.135990 183.565490 12.780491 0.000000
243.514130 185.375920 12.886223 0.000000
244.765590 162.607440 14.014688 0.000000
244.370060 164.002330 14.014459 0.000000
238.206570 184.620900 14.308598 0.000000
242.087140 183.105100 14.569983 0.000000
241.061490 184.286410 14.541312 0.000000
240.237640 163.298230 15.327623 0.000000
240.376130 171.811080 15.670759 0.000000
245.149290 162.642380 15.886056 0.000000
244.790160 166.996640 15.986495 0.000000
243.214660 169.610920 15.903596 0.000000
240.632390 185.690730 16.463387 0.000000
237.303070 169.557720 16.921661 0.000000
242.476680 163.646360 17.390032 0.000000
241.159640 169.099490 17.428646 0.000000
244.175290 162.477480 17.587654 0.000000
240.805210 171.905080 17.515942 0.000000
245.417140 168.599010 17.992538 0.000000
231.743270 173.143520 6.893938 0.000000
229.636230 173.719540 6.882653 0.000000
227.650530 174.273990 6.872665 0.000000
225.784590 174.812990 6.864035 0.000000
223.939650 175.302520 6.855161 0.000000
225.407410 177.171200 6.903585 0.000000
223.342650 177.513990 6.890791 0.000000
221.522230 177.905880 6.881622 0.000000
245.273620 169.988070 6.983992 0.000000
236.485170 171.948260 6.922566 0.000000
234.161440 172.598820 6.909363 0.000000
241.083920 166.125370 10.315792 0.000000
240.819640 182.224880 10.771471 0.000000
238.174820 184.204820 10.711937 0.000000
244.320430 163.863750 12.223528 0.000000
243.997860 181.889210 12.801668 0.000000
244.654880 183.779480 12.928633 0.000000
244.046910 185.172850 12.947550 0.000000
239.803190 164.456100 13.590784 0.000000
244.815810 162.482360 14.023529 0.000000
244.381420 163.852860 14.018196 0.000000
245.418790 166.957000 14.211435 0.000000
240.559230 182.065320 14.387056 0.000000
240.035770 184.995410 14.496944 0.000000
241.451320 184.022710 14.570583 0.000000
240.111980 163.126560 15.284994 0.000000
245.173070 162.514190 15.870125 0.000000
242.113190 169.122160 15.738363 0.000000
241.361510 170.373170 15.702555 0.000000
240.822480 185.324430 16.447893 0.000000
238.333740 169.575650 17.017885 0.000000
243.793460 162.290310 17.488245 0.000000
242.579270 163.513380 17.358225 0.000000
242.739960 164.952480 17.433455 0.000000
241.227740 168.889600 17.386694 0.000000
240.889980 171.663350 17.474133 0.000000
229.976380 182.883760 7.440869 0.000000
227.996520 183.280230 7.419357 0.000000
225.947540 183.576770 7.395275 0.000000
223.823960 183.764650 7.368332 0.000000
222.030210 184.075330 7.349159 0.000000
241.310650 167.434480 7.354205 0.000000
242.901080 178.083690 7.552332 0.000000
240.292300 178.647460 7.520670 0.000000
237.945920 179.230100 7.494042 0.000000
235.596950 179.737260 7.466526 0.000000
234.715450 182.260890 7.500420 0.000000
237.679030 182.091890 7.542752 0.000000
231.958740 182.426770 7.461698 0.000000
240.925050 167.330380 9.042061 0.000000
240.969150 165.938060 10.710569 0.000000
240.553680 167.229580 10.716477 0.000000
242.384170 182.498750 11.279316 0.000000
241.293300 185.207990 11.316899 0.000000
245.636150 185.498210 11.567833 0.000000
240.404600 165.805270 12.359325 0.000000
244.635360 181.792480 13.256332 0.000000
244.261870 183.251220 13.290268 0.000000
242.359560 185.669590 13.255068 0.000000
245.321110 185.338440 13.463179 0.000000
239.911590 165.687120 13.996626 0.000000
243.200290 162.136760 14.233051 0.000000
240.485760 167.176800 14.104435 0.000000
242.222110 182.387760 14.934702 0.000000
240.403400 184.759370 14.887783 0.000000
240.381000 163.047560 15.653807 0.000000
241.290070 168.733510 15.973516 0.000000
240.808460 171.435130 16.030581 0.000000
240.271240 172.705260 16.023922 0.000000
245.099350 166.713560 16.367838 0.000000
243.280300 167.771700 16.181541 0.000000
236.521130 170.236310 17.100407 0.000000
244.513920 162.292360 17.934708 0.000000
243.288680 166.329180 17.903065 0.000000
241.543910 168.774310 17.754896 0.000000
244.439300 165.125380 18.024164 0.000000
226.023960 161.640900 6.046761 0.000000
223.543000 163.267320 6.059159 0.000000
222.538710 164.080900 6.065787 0.000000
241.201750 167.148190 7.807287 0.000000
241.515620 184.831300 8.120556 0.000000
242.181410 164.586090 9.480159 0.000000
239.315980 185.367220 9.852518 0.000000
243.507510 182.512360 9.947193 0.000000
244.117130 167.756230 11.373526 0.000000
241.922850 181.841170 11.655838 0.000000
245.333680 184.876390 11.977022 0.000000
243.936220 163.475650 12.994036 0.000000
244.401440 164.959440 13.072803 0.000000
242.717650 183.726070 13.604452 0.000000
242.988830 185.447750 13.705671 0.000000
239.422930 162.712250 14.213467 0.000000
242.766020 167.424530 14.726206 0.000000
242.504210 182.045990 15.332169 0.000000
242.012390 183.403400 15.353731 0.000000
240.993650 184.525300 15.311401 0.000000
240.544650 185.899700 15.343767 0.000000
242.034520 168.640150 16.416430 0.000000
241.097200 171.205200 16.406075 0.000000
243.611820 167.592760 16.579998 0.000000
244.227720 170.607270 16.783659 0.000000
240.598820 185.908050 17.175266 0.000000
237.292910 170.142910 17.511370 0.000000
243.048950 163.276670 18.089140 0.000000
240.881130 172.538390 18.175516 0.000000
244.781340 162.156680 18.317371 0.000000
242.348690 168.697510 18.204140 0.000000
225.555530 161.537670 6.021954 0.000000
222.972980 163.040920 6.021530 0.000000
221.849990 163.774630 6.021676 0.000000
232.426030 185.900620 7.739506 0.000000
241.223480 167.180190 7.719604 0.000000
241.040740 185.803160 7.927349 0.000000
243.873400 185.556090 7.987184 0.000000
235.475220 186.061720 7.808252 0.000000
238.198940 185.950090 7.866485 0.000000
243.613910 162.257350 9.403689 0.000000
241.894290 164.641360 9.352821 0.000000
238.064030 184.359740 9.536827 0.000000
241.216320 184.323610 9.668556 0.000000
243.515530 167.688610 11.156807 0.000000
242.323200 183.271900 11.465696 0.000000
240.601360 184.034450 11.382105 0.000000
244.112560 165.051670 12.847270 0.000000
245.090550 163.851210 12.910259 0.000000
243.285720 180.605710 13.223295 0.000000
244.052610 184.028670 13.417364 0.000000
242.938930 185.108550 13.369011 0.000000
239.346940 162.855550 13.972759 0.000000
243.266950 162.185070 14.392028 0.000000
244.760350 167.958790 14.699063 0.000000
241.142990 184.274170 14.958986 0.000000
244.510350 184.224880 15.301489 0.000000
240.798430 185.665650 14.994861 0.000000
240.365710 163.025050 15.711507 0.000000
241.444240 168.551240 16.025112 0.000000
243.355900 167.634340 16.243507 0.000000
240.673390 185.600110 16.762180 0.000000
236.784240 169.965940 17.061306 0.000000
244.261660 162.325840 17.925117 0.000000
242.749760 164.773900 17.766027 0.000000
241.696350 168.607150 17.746353 0.000000
240.777560 172.468920 17.780348 0.000000
224.042140 161.811330 5.977091 0.000000
221.748440 163.264530 5.978721 0.000000
223.747470 185.461030 7.485383 0.000000
226.236590 185.667830 7.539137 0.000000
228.752900 185.800400 7.592744 0.000000
231.183090 185.794240 7.642937 0.000000
238.006740 183.552670 7.755636 0.000000
240.829330 183.383030 7.814281 0.000000
243.617740 183.103360 7.871267 0.000000
234.036160 185.935460 7.704578 0.000000
239.978420 186.034410 7.831684 0.000000
242.028230 164.196410 9.255527 0.000000
244.274370 165.975070 11.055973 0.000000
240.396840 165.168730 12.382037 0.000000
245.382400 163.443270 12.785044 0.000000
244.306210 164.613330 12.713161 0.000000
242.610090 181.128460 13.050328 0.000000
242.256650 185.579070 13.198866 0.000000
239.482440 163.699550 13.847244 0.000000
243.486450 161.783800 14.244051 0.000000
244.691990 163.319500 14.409623 0.000000
242.707340 168.335890 14.324348 0.000000
240.381960 184.672850 14.750370 0.000000
240.166780 163.822450 15.524527 0.000000
242.246830 168.218080 15.935973 0.000000
241.174100 170.642910 15.887973 0.000000
241.292240 185.104610 16.635914 0.000000
237.359070 169.568420 16.931736 0.000000
243.089290 163.034550 17.556915 0.000000
242.752850 164.302720 17.544895 0.000000
241.138670 169.278960 17.487524 0.000000
240.817900 171.892730 17.558628 0.000000
243.846010 161.826030 17.638798 0.000000
244.499950 165.996980 17.869373 0.000000
245.483350 168.997990 18.132381 0.000000
227.287450 161.522250 6.067046 0.000000
225.630680 162.205110 6.069508 0.000000
223.440110 163.693360 6.078196 0.000000
222.483570 164.426730 6.082763 0.000000
241.986480 164.368770 9.319292 0.000000
243.072110 182.858400 9.784190 0.000000
239.035770 185.484070 9.689545 0.000000
238.318540 167.381070 10.746847 0.000000
242.644790 182.653460 11.496198 0.000000
245.624600 185.572660 11.787554 0.000000
245.201830 163.613240 12.789145 0.000000
244.765470 183.584530 13.453578 0.000000
244.915370 185.226560 13.540868 0.000000
239.556720 163.853520 13.852789 0.000000
241.163450 165.455570 14.079098 0.000000
243.309370 161.953020 14.212433 0.000000
242.132630 182.396500 14.919025 0.000000
240.261990 163.976810 15.514164 0.000000
243.226820 168.564680 16.076561 0.000000
241.180360 170.709670 15.904778 0.000000
237.391940 169.609740 16.922890 0.000000
241.416790 185.090610 16.751675 0.000000
243.850460 162.009340 17.585022 0.000000
242.834870 163.151520 17.468241 0.000000
242.721820 164.440460 17.499226 0.000000
241.084820 169.336060 17.465660 0.000000
240.795320 171.925170 17.556549 0.000000
244.590680 166.155140 17.854473 0.000000
245.622770 169.147090 18.143738 0.000000
225.220920 162.771120 6.089581 0.000000
221.311040 165.612240 6.110796 0.000000
228.325840 161.408490 6.082242 0.000000
226.686770 162.095890 6.085776 0.000000
223.312300 164.259060 6.101013 0.000000
222.407410 164.977290 6.106568 0.000000
241.568880 184.611650 8.067165 0.000000
242.150010 164.076390 9.295970 0.000000
241.257450 166.456860 9.302828 0.000000
243.423600 182.432300 9.790950 0.000000
241.182790 184.406830 9.754643 0.000000
244.636980 165.878230 11.085260 0.000000
242.810150 182.142320 11.471918 0.000000
240.706940 184.158340 11.419550 0.000000
244.743710 184.553680 11.683081 0.000000
242.757540 165.461980 12.555271 0.000000
244.380160 164.477660 12.670435 0.000000
242.894060 180.675840 13.132441 0.000000
242.832000 185.179050 13.339151 0.000000
239.381480 163.490340 13.732155 0.000000
244.671340 163.191990 14.305046 0.000000
245.277510 167.336380 14.506630 0.000000
243.011380 182.198790 14.943697 0.000000
241.951640 183.217790 14.892859 0.000000
241.145540 184.339900 14.876280 0.000000
240.026280 163.599720 15.358341 0.000000
243.584690 166.929260 15.952105 0.000000
242.040330 169.198500 15.847893 0.000000
240.648830 185.594270 16.627495 0.000000
241.171860 168.949980 17.337339 0.000000
243.731960 161.692570 17.418423 0.000000
242.882020 164.137020 17.379290 0.000000
241.527980 170.366230 17.464582 0.000000
240.939970 171.521150 17.439379 0.000000
226.384670 161.569780 6.039365 0.000000
224.972960 162.211810 6.041663 0.000000
223.974980 162.914520 6.045320 0.000000
222.179930 164.292300 6.052827 0.000000
241.240330 167.278440 7.646441 0.000000
242.974820 182.865230 9.611004 0.000000
241.292540 185.022900 9.600841 0.000000
240.959720 165.932740 10.661577 0.000000
240.609360 167.095440 10.666114 0.000000
241.556670 185.146760 11.295524 0.000000
245.442470 185.565400 11.546986 0.000000
244.271730 164.102940 12.428995 0.000000
242.687120 167.608950 12.386598 0.000000
245.302350 163.004900 12.492924 0.000000
241.839540 180.857300 12.805979 0.000000
240.643800 181.744630 12.748139 0.000000
244.572080 185.124690 13.222162 0.000000
239.801610 164.418320 13.544563 0.000000
239.999880 165.684590 13.607069 0.000000
244.613250 162.868680 14.026087 0.000000
244.325840 164.101270 14.029741 0.000000
237.909060 184.688600 14.285036 0.000000
240.396450 184.527010 14.521982 0.000000
242.807710 182.750200 14.663536 0.000000
244.741390 185.195430 14.994769 0.000000
240.032530 163.241550 15.041008 0.000000
244.921450 162.911420 15.673175 0.000000
243.145660 167.700520 15.613475 0.000000
244.527480 166.731950 15.755013 0.000000
236.814760 169.681590 16.365829 0.000000
241.180280 184.917530 16.314070 0.000000
240.353260 185.986300 16.290119 0.000000
243.318700 161.353680 16.994799 0.000000
243.213240 162.592860 17.020922 0.000000
242.864560 167.617360 17.172649 0.000000
240.739550 172.190570 17.088015 0.000000
230.127620 163.474880 6.265549 0.000000
231.698030 162.827410 6.276534 0.000000
234.457120 162.387850 6.296528 0.000000
236.792800 161.771710 6.313211 0.000000
227.000260 164.625750 6.243535 0.000000
228.542630 164.069110 6.254402 0.000000
224.272400 165.711030 6.224413 0.000000
221.911350 166.763820 6.207976 0.000000
223.206950 166.294950 6.217104 0.000000
242.166560 164.058200 9.348839 0.000000
241.220400 166.286880 9.326060 0.000000
241.746250 167.662490 9.368795 0.000000
242.947750 182.931500 9.679132 0.000000
241.281250 185.030120 9.646058 0.000000
243.105270 184.495510 9.718706 0.000000
237.355680 167.641560 10.569571 0.000000
244.549990 165.848100 11.047665 0.000000
240.480180 167.319670 10.783922 0.000000
243.642590 166.901780 11.000561 0.000000
243.014560 181.509340 11.296069 0.000000
242.032230 183.948260 11.304070 0.000000
243.791020 183.351230 11.401934 0.000000
240.468440 167.317990 12.269681 0.000000
245.023360 163.406160 12.609668 0.000000
244.299300 164.521730 12.563166 0.000000
243.343380 165.565920 12.495598 0.000000
244.547580 167.132420 12.641009 0.000000
240.953160 181.957790 12.783086 0.000000
237.377090 166.478560 13.387582 0.000000
244.264160 185.101180 13.193378 0.000000
244.948760 162.129710 14.144717 0.000000
244.514880 163.306080 14.119908 0.000000
245.286540 167.321040 14.309026 0.000000
237.920560 184.665920 14.224514 0.000000
242.854920 182.898990 14.648177 0.000000
240.329990 184.534150 14.466916 0.000000
240.276990 163.652770 15.118768 0.000000
244.340650 185.145360 14.917568 0.000000
242.623440 161.711260 15.387839 0.000000
241.947170 168.982270 15.522477 0.000000
245.223300 163.447300 15.788018 0.000000
243.492400 166.867860 15.655232 0.000000
243.005160 168.011180 15.628915 0.000000
241.122890 184.964780 16.231750 0.000000
240.306880 186.006440 16.198372 0.000000
243.758880 183.348830 16.461246 0.000000
243.121720 161.801540 16.998600 0.000000
243.077450 163.022520 17.027756 0.000000
242.322270 167.826980 17.082890 0.000000
241.481450 168.848570 16.995575 0.000000
240.959720 171.216840 17.025265 0.000000
236.150270 161.281810 6.269660 0.000000
233.266740 162.738560 6.273144 0.000000
234.933440 162.084000 6.273439 0.000000
231.965190 163.437640 6.274619 0.000000
230.960850 164.182310 6.277581 0.000000
230.083830 164.937930 6.280889 0.000000
226.020720 165.590240 6.266776 0.000000
221.605040 167.643110 6.260253 0.000000
223.791700 167.612960 6.272218 0.000000
229.196930 165.667680 6.283527 0.000000
241.193630 167.086670 7.811458 0.000000
238.987210 166.445720 9.151523 0.000000
239.843800 184.929080 9.647745 0.000000
241.209790 184.237590 9.690354 0.000000
237.816830 167.254490 10.505690 0.000000
240.994540 165.801910 10.680393 0.000000
239.027220 184.457350 11.164499 0.000000
240.780200 183.997340 11.259167 0.000000
242.292630 183.358090 11.332710 0.000000
240.559570 165.672960 12.090927 0.000000
239.082490 167.626740 12.026258 0.000000
245.066770 163.097750 12.414417 0.000000
244.219730 164.151260 12.370123 0.000000
241.155870 169.486820 12.276318 0.000000
245.713070 185.164900 13.326492 0.000000
242.781860 165.023060 13.762079 0.000000
240.392430 168.011900 13.616259 0.000000
245.147660 161.858460 13.915075 0.000000
244.557530 162.974530 13.886505 0.000000
244.264530 164.145900 13.894855 0.000000
243.199010 167.604860 13.908239 0.000000
245.468380 166.961580 14.133366 0.000000
240.020190 185.024200 14.448433 0.000000
241.133270 184.186100 14.512577 0.000000
240.688570 162.147520 14.867788 0.000000
236.681000 170.355150 14.720303 0.000000
243.729050 166.486040 15.452177 0.000000
242.901460 168.759690 15.448601 0.000000
240.737930 170.567350 15.256783 0.000000
244.894330 168.072690 15.677719 0.000000
240.723510 181.100310 15.877060 0.000000
239.102710 185.955900 16.015869 0.000000
240.740170 185.436070 16.176044 0.000000
240.266540 162.043690 16.248169 0.000000
237.202300 169.349300 16.153044 0.000000
241.658450 168.370670 16.773180 0.000000
240.785510 171.827610 16.841398 0.000000
244.842010 168.044040 17.241669 0.000000
243.772030 170.294050 17.201603 0.000000
236.738970 170.356750 17.569820 0.000000
242.435300 163.682720 18.163561 0.000000
243.864410 162.780240 18.371744 0.000000
242.850080 164.995640 18.305008 0.000000
243.560330 166.412730 18.507217 0.000000
243.002180 168.764570 18.547543 0.000000
245.489810 163.750270 6.656987 0.000000
235.586700 168.007030 6.664138 0.000000
244.471220 164.741580 6.669140 0.000000
228.667790 170.738560 6.654534 0.000000
234.653080 168.797040 6.670633 0.000000
243.585050 165.740770 6.681929 0.000000
242.303330 166.606160 6.688891 0.000000
241.039150 167.440460 6.694959 0.000000
239.766330 168.236570 6.699830 0.000000
222.447240 172.814640 6.631196 0.000000
220.801910 173.889740 6.630519 0.000000
224.083440 172.679060 6.644121 0.000000
225.500020 172.378400 6.652359 0.000000
222.404890 173.808150 6.644559 0.000000
241.469570 184.715190 8.566351 0.000000
243.061220 163.145490 9.538480 0.000000
242.409790 164.184130 9.536900 0.000000
241.167370 166.237270 9.537334 0.000000
240.835110 167.333100 9.554577 0.000000
244.702120 169.774750 9.820509 0.000000
240.396940 185.548370 10.142258 0.000000
243.535660 182.905990 10.197815 0.000000
242.094310 185.059510 10.204943 0.000000
237.805530 167.543290 10.786242 0.000000
236.603360 168.292910 10.730962 0.000000
240.516460 167.214280 10.963905 0.000000
244.560730 165.921840 11.201590 0.000000
244.059200 167.029010 11.206188 0.000000
239.171080 184.806030 11.616484 0.000000
240.617310 184.200960 11.683865 0.000000
242.763790 165.423840 12.527237 0.000000
238.686160 167.803620 12.256750 0.000000
241.917510 167.612520 12.542670 0.000000
241.195400 169.830200 12.576057 0.000000
245.075840 163.547360 12.664820 0.000000
244.489560 167.125320 12.756857 0.000000
243.053800 181.182070 13.310377 0.000000
242.832310 185.454670 13.529455 0.000000
244.884980 162.252840 14.103355 0.000000
244.486530 163.387180 14.106974 0.000000
240.448550 167.147990 13.826364 0.000000
239.419770 168.016270 13.754969 0.000000
245.231870 167.308930 14.372992 0.000000
242.251450 182.183430 14.897512 0.000000
241.534940 184.699190 14.990343 0.000000
240.188100 163.540880 15.043476 0.000000
241.254930 164.978030 15.261814 0.000000
245.306270 163.544220 15.736614 0.000000
243.532930 166.806230 15.666109 0.000000
243.116030 167.924770 15.672310 0.000000
242.360900 168.932620 15.629337 0.000000
240.718630 170.855740 15.527191 0.000000
240.303860 171.945420 15.541019 0.000000
240.624110 185.634570 16.576590 0.000000
243.004590 161.808750 16.821087 0.000000
241.338650 168.583570 16.956364 0.000000
243.122040 163.026080 16.903852 0.000000
242.447540 167.700350 17.071440 0.000000
240.770140 172.101090 17.109638 0.000000
236.562560 170.492450 17.761576 0.000000
243.467650 163.076400 18.468325 0.000000
242.966280 164.164490 18.444088 0.000000
242.900300 165.358020 18.507326 0.000000
242.330410 167.641170 18.558687 0.000000
244.907750 162.172520 18.674952 0.000000
243.608900 166.777220 18.726154 0.000000
242.259230 168.853580 18.631804 0.000000
241.416020 166.780780 6.826131 0.000000
229.618700 173.466840 6.872993 0.000000
237.701800 170.219860 6.874927 0.000000
233.149780 172.926270 6.893925 0.000000
243.737230 168.717680 6.889725 0.000000
228.181110 174.926910 6.888279 0.000000
242.552550 169.564090 6.899775 0.000000
229.859360 174.708620 6.899931 0.000000
221.150120 177.158200 6.858082 0.000000
225.271450 175.464200 6.870114 0.000000
222.530650 177.008960 6.870190 0.000000
226.619170 175.156910 6.877596 0.000000
224.006180 176.876750 6.883256 0.000000
225.533720 176.728760 6.896221 0.000000
241.337430 166.726970 8.241978 0.000000
242.782170 163.548420 9.620459 0.000000
241.981930 183.913570 10.357380 0.000000
240.003850 185.663560 10.335374 0.000000
242.499730 185.694090 10.454941 0.000000
236.454130 168.531420 10.821115 0.000000
241.788190 168.002550 11.172131 0.000000
244.165180 167.516590 11.318888 0.000000
241.646220 171.635310 11.323501 0.000000
238.991120 185.017560 11.803892 0.000000
237.736010 167.814940 12.239609 0.000000
244.750370 163.962400 12.697803 0.000000
244.027370 164.993820 12.678594 0.000000
244.382630 167.550190 12.833612 0.000000
238.158050 184.483320 13.247721 0.000000
242.304490 182.603090 13.483738 0.000000
244.693390 162.704280 14.119522 0.000000
244.481950 163.863100 14.153498 0.000000
241.106990 165.360790 13.848280 0.000000
244.605380 167.584990 14.365307 0.000000
241.656890 169.113490 14.120718 0.000000
240.560870 185.950940 15.142387 0.000000
239.999690 163.875230 15.040367 0.000000
239.572220 170.768780 15.422062 0.000000
244.878880 162.711040 15.636721 0.000000
244.730410 166.344640 15.824303 0.000000
243.266110 167.152250 15.676664 0.000000
242.228420 168.052610 15.594229 0.000000
241.986590 169.195370 15.635746 0.000000
241.408390 170.223070 15.627239 0.000000
240.472840 185.877140 16.730474 0.000000
240.379260 161.669680 16.369850 0.000000
236.806980 169.699400 16.361954 0.000000
244.853940 166.346100 17.365990 0.000000
244.503480 168.745120 17.475220 0.000000
239.589780 168.328400 18.122660 0.000000
244.375260 162.528180 18.555725 0.000000
242.939560 163.387620 18.354393 0.000000
243.394090 165.905270 18.610703 0.000000
241.095080 167.631650 18.332617 0.000000
243.484680 167.153750 18.718506 0.000000
241.456310 171.422930 18.703793 0.000000
241.341430 172.634740 18.788464 0.000000
241.195470 165.718350 6.659624 0.000000
235.006230 169.231190 6.714430 0.000000
240.444150 166.645250 6.679356 0.000000
230.384830 171.575360 6.741873 0.000000
236.778720 168.799510 6.713584 0.000000
239.613010 167.529210 6.697207 0.000000
245.296860 164.494750 6.647175 0.000000
244.745390 165.559660 6.672239 0.000000
229.327010 173.215160 6.771161 0.000000
238.936310 168.449660 6.716308 0.000000
221.304000 174.840550 6.749413 0.000000
222.569820 174.627730 6.754575 0.000000
223.936830 174.438350 6.760605 0.000000
225.348860 174.232500 6.766278 0.000000
221.804120 176.234440 6.780209 0.000000
226.615710 173.899440 6.767998 0.000000
227.930250 173.555240 6.769449 0.000000
241.270630 166.875580 8.088871 0.000000
243.218000 162.709090 9.425255 0.000000
242.465520 163.683940 9.426045 0.000000
238.167050 166.979540 9.350565 0.000000
243.079670 165.022960 9.504791 0.000000
243.178510 167.448120 9.601332 0.000000
241.934010 184.011700 10.217634 0.000000
239.815160 185.633610 10.193733 0.000000
241.242680 185.059110 10.231941 0.000000
241.071550 165.581500 10.824820 0.000000
236.266940 168.520290 10.636265 0.000000
237.252110 167.758740 10.666452 0.000000
243.495820 167.514710 11.074614 0.000000
238.798430 184.959640 11.645856 0.000000
237.430860 167.792330 12.016527 0.000000
245.108670 163.092150 12.460536 0.000000
240.978850 165.520550 12.210928 0.000000
244.305110 164.090790 12.436342 0.000000
240.046420 167.548610 12.233212 0.000000
240.664030 170.140350 12.426724 0.000000
242.776000 172.190430 12.724073 0.000000
243.461940 180.509160 13.274693 0.000000
238.444470 168.121700 13.489037 0.000000
245.137880 161.863830 13.875306 0.000000
244.570650 162.925510 13.867075 0.000000
244.292570 164.051150 13.896074 0.000000
242.748120 166.011700 13.834333 0.000000
244.165440 168.896740 14.157642 0.000000
243.267110 181.798420 14.927185 0.000000
237.437190 170.022630 14.866779 0.000000
240.458420 161.902790 14.733063 0.000000
239.265170 171.948140 15.241026 0.000000
244.113250 165.168790 15.410469 0.000000
243.162730 167.306610 15.420992 0.000000
242.907500 168.441590 15.462624 0.000000
241.282840 184.983890 16.561121 0.000000
240.401730 185.913420 16.540268 0.000000
240.054720 161.771160 16.047291 0.000000
240.293210 162.947250 16.159372 0.000000
241.387360 170.316130 16.855518 0.000000
240.870990 171.344670 16.860231 0.000000
244.949660 165.363860 17.034178 0.000000
244.901180 167.818970 17.197758 0.000000
237.552410 170.008850 17.647427 0.000000
242.631420 163.513660 18.006922 0.000000
243.866870 162.645170 18.163755 0.000000
243.275340 167.272640 18.400499 0.000000
241.098510 172.646240 18.485144 0.000000
244.685970 166.478500 18.584066 0.000000
220.923980 161.445240 5.779014 0.000000
222.733520 183.102600 7.332376 0.000000
224.005620 182.914340 7.342844 0.000000
231.985500 178.717000 7.317733 0.000000
225.257780 182.671650 7.351317 0.000000
226.531460 182.409480 7.359159 0.000000
233.842190 178.612410 7.333295 0.000000
227.794780 182.102680 7.365335 0.000000
228.844570 181.605090 7.363711 0.000000
230.090650 181.221370 7.366877 0.000000
231.269810 180.758790 7.366800 0.000000
235.705000 178.449390 7.346857 0.000000
233.016110 180.634920 7.381515 0.000000
238.808980 177.610310 7.352013 0.000000
222.880750 185.871780 7.403187 0.000000
224.021030 185.557890 7.409647 0.000000
240.352580 177.118010 7.351743 0.000000
242.227340 176.742660 7.357515 0.000000
241.328000 166.462740 8.410349 0.000000
241.188920 166.375890 9.784201 0.000000
241.798930 167.751630 9.878277 0.000000
240.888840 182.781890 10.568547 0.000000
237.016920 168.282840 10.980989 0.000000
238.667540 167.768050 11.067632 0.000000
240.430690 167.240980 11.162271 0.000000
244.663700 167.457530 11.470721 0.000000
241.567340 171.242520 11.461256 0.000000
240.085510 183.683780 12.101786 0.000000
244.903260 163.852080 12.752522 0.000000
238.883880 167.807140 12.437256 0.000000
242.721980 165.603160 12.653280 0.000000
244.128590 164.832150 12.737305 0.000000
240.491210 167.220810 12.546828 0.000000
245.158520 167.572810 12.992891 0.000000
240.095340 185.106810 13.740486 0.000000
240.458330 167.168490 13.927394 0.000000
237.493410 169.527830 13.764517 0.000000
244.472600 163.691650 14.152672 0.000000
245.030000 167.486560 14.460823 0.000000
244.037700 169.628460 14.496161 0.000000
240.212330 163.633300 15.031515 0.000000
242.282200 168.952640 15.699847 0.000000
240.895900 170.852890 15.667988 0.000000
240.347640 171.847230 15.677856 0.000000
244.931060 162.575590 15.596449 0.000000
245.316910 163.868320 15.735545 0.000000
243.099440 168.026950 15.737333 0.000000
245.040360 167.444850 15.952188 0.000000
237.429690 166.056020 16.167187 0.000000
240.738330 185.457340 16.973896 0.000000
237.258700 169.358310 16.425461 0.000000
241.307310 168.559720 16.972767 0.000000
240.748140 171.976260 17.189411 0.000000
236.991120 170.359600 17.843018 0.000000
243.171190 163.210040 18.282543 0.000000
242.958250 164.320050 18.334707 0.000000
242.860340 165.468320 18.413513 0.000000
242.213990 167.639450 18.489950 0.000000
244.400480 162.350830 18.434765 0.000000
243.522430 166.868470 18.651276 0.000000
242.092160 168.799560 18.574783 0.000000
224.215790 162.092330 5.982007 0.000000
225.221800 161.616990 5.962494 0.000000
223.217160 163.374400 6.019441 0.000000
224.203460 162.928990 6.001985 0.000000
222.401610 164.706570 6.054336 0.000000
223.305570 164.257740 6.038569 0.000000
222.466920 165.591930 6.072479 0.000000
241.306590 167.259230 7.344682 0.000000
242.942950 182.104600 7.813725 0.000000
239.919240 185.997590 7.876715 0.000000
240.949400 167.095690 8.697700 0.000000
239.688490 165.491240 9.920526 0.000000
241.975910 167.418490 10.133504 0.000000
238.679050 183.662510 10.758195 0.000000
238.009290 184.639890 10.774216 0.000000
242.676570 164.117290 11.404335 0.000000
236.414640 168.694690 11.184216 0.000000
237.660340 168.078170 11.241888 0.000000
239.005810 167.463730 11.307864 0.000000
241.964230 172.207020 11.791124 0.000000
238.278730 183.373000 12.199909 0.000000
243.364750 185.201540 12.671791 0.000000
238.025880 168.186100 12.597726 0.000000
240.337160 165.630170 12.659577 0.000000
244.501530 164.609050 12.999317 0.000000
239.806700 167.723790 12.737389 0.000000
243.496370 165.488310 12.954094 0.000000
242.933730 167.676620 13.032055 0.000000
241.172300 185.250950 14.080689 0.000000
243.248470 161.899340 14.120000 0.000000
237.180680 168.941930 13.884524 0.000000
243.057080 166.488650 14.392699 0.000000
242.579610 167.513530 14.406745 0.000000
240.708880 184.918980 15.569271 0.000000
240.119370 163.250440 15.180415 0.000000
245.248370 162.361950 15.834978 0.000000
243.146730 168.880770 16.016384 0.000000
241.236330 170.566100 15.891089 0.000000
240.623550 171.523220 15.887341 0.000000
240.267060 172.588750 15.929231 0.000000
245.039400 167.100620 16.140656 0.000000
243.083860 161.771160 16.901562 0.000000
243.195630 162.945300 17.006046 0.000000
238.680190 169.485960 16.828175 0.000000
241.062390 169.258470 17.180428 0.000000
241.802030 168.346910 17.217533 0.000000
240.862950 171.590300 17.359398 0.000000
245.243740 168.361620 17.762592 0.000000
239.502350 168.616820 18.270607 0.000000
242.374080 163.822340 18.357393 0.000000
243.607360 163.013520 18.516136 0.000000
242.933500 165.148790 18.571392 0.000000
240.751240 167.922410 18.427383 0.000000
244.920040 162.189300 18.691187 0.000000
243.721040 166.584350 18.839191 0.000000
241.408040 171.787730 18.920671 0.000000
221.391910 162.114350 5.836193 0.000000
222.282200 161.690980 5.818873 0.000000
241.296720 167.026380 7.071755 0.000000
227.744780 179.510070 7.243296 0.000000
228.969180 179.192030 7.251175 0.000000
230.185210 178.833950 7.257662 0.000000
225.100940 182.387440 7.272209 0.000000
226.340060 182.157320 7.283712 0.000000
227.544250 181.862920 7.292990 0.000000
228.647480 181.456330 7.298128 0.000000
236.814540 178.134510 7.317622 0.000000
238.247920 177.697980 7.322752 0.000000
239.794330 177.283400 7.329240 0.000000
244.587400 174.524810 7.308157 0.000000
221.483320 182.949450 7.234138 0.000000
222.584950 182.701080 7.244477 0.000000
223.827000 182.549380 7.258416 0.000000
241.179110 166.950090 8.419916 0.000000
241.985670 184.057070 10.592210 0.000000
236.575230 168.457630 10.884040 0.000000
240.962910 165.665130 11.051114 0.000000
241.458500 169.328090 11.273243 0.000000
243.762010 167.819820 11.358753 0.000000
238.070710 167.932710 12.268147 0.000000
240.987760 165.639500 12.400410 0.000000
245.057170 163.454830 12.656214 0.000000
244.399870 164.434880 12.648424 0.000000
240.000670 167.558170 12.421591 0.000000
243.867220 167.822750 12.791044 0.000000
240.167240 171.134950 12.654588 0.000000
241.142240 170.358920 12.694489 0.000000
238.982100 184.910050 13.491598 0.000000
237.473340 166.561520 13.420755 0.000000
239.461430 163.985670 13.477305 0.000000
244.493730 163.256230 14.006020 0.000000
244.433750 164.407620 14.069074 0.000000
243.264880 167.569610 14.137911 0.000000
245.507840 167.150340 14.363557 0.000000
240.559270 162.102450 14.816339 0.000000
241.917370 168.222960 15.431958 0.000000
244.441090 166.749180 15.660432 0.000000
239.411500 171.930890 15.395093 0.000000
240.487870 171.215000 15.476870 0.000000
240.047070 161.921420 16.060986 0.000000
240.466450 185.902100 16.800110 0.000000
239.112790 170.575960 16.619404 0.000000
241.357850 170.353210 16.939716 0.000000
243.556140 168.812180 17.143976 0.000000
244.830430 168.063110 17.278704 0.000000
243.527390 162.867580 18.094120 0.000000
242.944370 163.844920 18.068047 0.000000
242.812900 164.956940 18.136347 0.000000
243.271060 168.668690 18.542173 0.000000
241.198550 171.465680 18.449329 0.000000
241.184370 172.690370 18.569546 0.000000
237.408400 166.426380 6.614585 0.000000
234.066210 169.279690 6.671512 0.000000
238.943130 165.931090 6.606915 0.000000
245.128770 161.191250 6.499260 0.000000
235.522200 168.878940 6.667381 0.000000
236.873670 168.388290 6.660392 0.000000
240.622630 165.440950 6.599405 0.000000
242.246730 164.879880 6.589546 0.000000
238.448810 167.951870 6.655061 0.000000
243.642060 164.196110 6.575520 0.000000
245.118680 163.495910 6.560858 0.000000
221.448560 175.234740 6.736255 0.000000
222.510090 174.992400 6.738182 0.000000
224.615680 174.405330 6.738967 0.000000
230.258150 170.519790 6.684688 0.000000
227.763780 173.304170 6.733160 0.000000
231.530810 170.145110 6.681543 0.000000
228.823670 172.888280 6.729582 0.000000
232.825180 169.744130 6.677537 0.000000
241.325530 166.799420 7.977062 0.000000
238.015820 167.712080 9.213253 0.000000
243.815700 168.910400 9.515099 0.000000
243.433460 184.794590 10.179830 0.000000
239.017230 163.692150 10.370855 0.000000
236.463960 168.124050 10.421938 0.000000
237.405430 167.428330 10.447077 0.000000
238.898700 166.928740 10.517887 0.000000
240.682620 165.334120 11.882704 0.000000
240.235810 167.427540 11.961850 0.000000
238.761000 170.252700 12.003761 0.000000
244.732180 163.237300 12.118727 0.000000
243.992230 164.168700 12.103510 0.000000
240.313980 169.777590 12.104860 0.000000
241.281430 169.012150 12.141092 0.000000
238.129960 162.279460 12.757348 0.000000
238.892670 163.586940 12.917407 0.000000
244.849490 162.079850 13.468083 0.000000
241.024140 165.423130 13.257061 0.000000
244.256790 163.060130 13.460310 0.000000
239.364910 161.573650 14.133955 0.000000
242.839400 182.845810 14.693153 0.000000
239.400670 162.648830 14.208677 0.000000
237.132540 169.450350 14.416075 0.000000
239.101230 171.529850 14.823566 0.000000
242.661800 168.322300 15.018948 0.000000
240.364350 162.919780 15.673958 0.000000
241.129060 168.854280 16.252491 0.000000
240.967360 171.171260 16.428192 0.000000
240.643400 172.237110 16.476753 0.000000
243.407700 168.583310 16.562634 0.000000
237.742950 169.671040 17.166748 0.000000
243.807970 161.681500 17.502848 0.000000
243.429030 162.707550 17.515530 0.000000
242.756900 164.781130 17.566114 0.000000
243.263890 166.116330 17.763786 0.000000
241.276670 168.883510 17.675842 0.000000
240.822600 172.292300 17.929081 0.000000
237.323030 166.097030 6.599721 0.000000
238.503680 165.490110 6.577993 0.000000
233.541340 170.838380 6.756573 0.000000
234.567200 170.275040 6.738628 0.000000
239.631440 164.830870 6.554147 0.000000
235.601240 169.690460 6.719627 0.000000
240.724520 164.128830 6.528472 0.000000
241.693250 163.355990 6.500092 0.000000
242.667660 162.560330 6.470498 0.000000
243.510560 161.700740 6.438424 0.000000
236.652010 169.088170 6.699668 0.000000
237.761280 168.486080 6.679307 0.000000
238.932590 167.881990 6.658456 0.000000
221.305590 177.925810 6.947730 0.000000
222.112880 177.477800 6.937874 0.000000
222.949840 177.040920 6.928079 0.000000
224.672010 176.157650 6.907338 0.000000
225.504990 175.668520 6.895041 0.000000
228.014560 174.113560 6.853557 0.000000
228.866640 173.573260 6.838403 0.000000
241.370700 166.570980 7.946023 0.000000
241.847750 164.431980 9.194439 0.000000
241.277420 166.488400 9.274149 0.000000
242.375580 169.283000 9.458713 0.000000
243.868930 168.706950 9.488431 0.000000
236.742390 167.897290 10.423779 0.000000
240.654630 167.338170 10.623208 0.000000
243.713550 166.209150 10.741277 0.000000
238.633470 167.578030 11.813513 0.000000
240.513000 167.234570 11.940378 0.000000
238.930280 169.999020 12.005085 0.000000
244.120760 163.970250 12.019783 0.000000
242.707370 165.788650 12.021348 0.000000
240.482570 169.544360 12.095867 0.000000
238.340410 168.533540 13.161099 0.000000
244.325560 162.834320 13.348885 0.000000
240.481350 167.176060 13.270325 0.000000
245.294560 166.695500 13.721269 0.000000
241.048920 184.308170 14.781860 0.000000
239.787350 165.724700 14.408538 0.000000
241.195450 165.136280 14.532493 0.000000
237.969040 169.458420 14.510930 0.000000
239.510220 171.372590 14.866322 0.000000
241.572300 168.751080 14.879628 0.000000
242.726900 168.047560 14.959083 0.000000
240.128880 163.597980 15.594610 0.000000
238.851330 168.675520 15.878826 0.000000
241.412410 168.635910 16.234512 0.000000
241.136520 170.905030 16.416132 0.000000
240.721860 171.924260 16.460850 0.000000
240.450260 173.020220 16.535606 0.000000
243.356510 168.256330 16.473534 0.000000
244.395920 167.464170 16.548624 0.000000
236.745570 169.925380 17.021435 0.000000
243.687040 161.356810 17.311104 0.000000
242.657170 163.292270 17.310665 0.000000
243.778630 162.514980 17.427639 0.000000
242.737120 164.455640 17.431574 0.000000
241.538820 168.643040 17.649759 0.000000
242.846340 168.000090 17.795586 0.000000
244.860340 166.385070 17.965225 0.000000
241.237590 170.906190 17.842209 0.000000
228.216310 162.017350 6.113229 0.000000
228.930150 161.425550 6.082392 0.000000
222.213880 170.711410 6.460718 0.000000
222.770480 170.120420 6.439458 0.000000
223.329680 169.526550 6.417479 0.000000
223.891740 168.929290 6.394759 0.000000
225.612950 167.121830 6.322115 0.000000
226.273070 166.553560 6.297066 0.000000
226.914520 165.963500 6.270810 0.000000
227.561550 165.365220 6.243585 0.000000
228.189160 164.745700 6.215157 0.000000
228.777970 164.096730 6.185410 0.000000
241.293370 166.402010 8.792616 0.000000
240.616410 167.208760 10.142494 0.000000
241.868710 183.516370 11.287039 0.000000
237.705140 168.119110 11.337337 0.000000
238.742390 167.469070 11.360641 0.000000
238.054180 170.587430 11.546785 0.000000
242.571530 164.492660 11.412117 0.000000
241.902180 167.702420 11.596568 0.000000
241.868350 171.301730 11.861099 0.000000
245.700620 168.083020 11.888408 0.000000
238.104780 168.253160 12.668112 0.000000
243.791150 163.720230 12.814514 0.000000
241.859910 167.625790 12.951038 0.000000
242.711810 181.048870 14.195379 0.000000
240.021390 185.067470 14.349564 0.000000
242.641860 182.461230 14.320103 0.000000
243.233320 184.371580 14.547812 0.000000
243.272050 185.946550 14.699621 0.000000
239.678820 164.406830 13.792301 0.000000
237.184450 168.892000 13.928411 0.000000
239.932950 165.617170 13.927626 0.000000
240.403430 168.101650 14.204636 0.000000
244.665220 162.797730 14.212900 0.000000
239.079910 171.005860 14.334604 0.000000
241.716220 167.505800 14.294212 0.000000
244.932540 164.052430 14.348601 0.000000
243.002760 182.650940 15.922712 0.000000
240.860320 161.496810 14.983328 0.000000
240.121170 163.417880 15.062200 0.000000
241.252290 164.954070 15.357827 0.000000
245.424220 161.816500 15.624247 0.000000
243.450350 166.983000 15.843539 0.000000
241.110980 170.758480 15.922451 0.000000
242.633260 169.039180 15.941552 0.000000
243.222340 168.087280 15.922619 0.000000
240.567280 171.710940 15.953664 0.000000
236.760680 169.713680 16.561417 0.000000
238.560850 169.456850 16.797581 0.000000
238.254200 171.664280 17.010386 0.000000
241.473130 168.463010 17.120201 0.000000
244.892490 166.289810 17.405180 0.000000
244.798160 168.694820 17.646503 0.000000
243.104490 163.233600 18.206829 0.000000
239.455950 168.663160 18.199612 0.000000
242.882690 164.300260 18.283760 0.000000
242.838940 165.441010 18.402901 0.000000
244.160310 162.441480 18.308895 0.000000
242.350830 167.596410 18.566208 0.000000
243.528530 166.891070 18.687313 0.000000
242.625060 168.915390 18.769737 0.000000
241.394130 172.018050 18.945148 0.000000
227.852720 161.262220 6.006539 0.000000
221.207720 168.310560 6.275199 0.000000
221.775420 167.771130 6.257329 0.000000
222.964040 166.706880 6.219834 0.000000
223.504150 166.128390 6.199350 0.000000
223.950130 165.487210 6.177285 0.000000
224.397280 164.844640 6.154573 0.000000
224.845690 164.200160 6.131200 0.000000
225.304150 163.557890 6.107202 0.000000
225.942260 163.003010 6.083541 0.000000
226.427460 162.361360 6.058096 0.000000
227.125520 161.812960 6.032817 0.000000
241.292210 167.189150 7.387180 0.000000
241.593290 184.566440 8.088432 0.000000
241.041050 167.026660 8.704145 0.000000
237.633650 184.470890 9.501707 0.000000
241.209260 165.896270 9.973276 0.000000
236.876590 168.384080 11.176311 0.000000
238.160140 167.887420 11.228466 0.000000
237.979810 170.103580 11.374147 0.000000
240.890230 165.710400 11.264751 0.000000
238.389280 167.950100 12.542370 0.000000
239.964890 167.545560 12.649284 0.000000
243.437040 165.543980 12.803919 0.000000
244.300660 164.704650 12.818398 0.000000
245.027600 163.797380 12.816702 0.000000
242.884160 167.684340 12.919451 0.000000
237.754260 184.444440 13.923567 0.000000
243.146590 183.992110 14.319948 0.000000
239.505870 163.924470 13.613678 0.000000
244.784560 162.489930 14.083456 0.000000
244.460360 163.537290 14.131754 0.000000
243.598770 169.168270 14.515789 0.000000
245.248080 167.430770 14.544609 0.000000
240.726620 162.147460 14.906963 0.000000
239.710910 170.870540 15.615370 0.000000
241.821200 168.297780 15.625940 0.000000
243.607350 166.689410 15.702787 0.000000
240.294570 172.414140 15.849407 0.000000
241.272190 170.453840 15.770664 0.000000
243.187530 167.710430 15.745535 0.000000
240.060930 161.856930 16.090475 0.000000
237.082700 169.444170 16.442688 0.000000
241.814830 168.242360 17.009043 0.000000
241.309110 170.421200 17.172813 0.000000
236.839000 170.429350 17.842958 0.000000
239.567030 168.319120 18.038197 0.000000
242.289220 163.724810 17.984266 0.000000
243.393250 162.986980 18.098770 0.000000
242.805270 165.073780 18.219841 0.000000
244.448260 162.203510 18.202858 0.000000
241.290050 171.597550 18.726419 0.000000
236.207240 163.789660 6.394175 0.000000
237.036290 163.098950 6.365082 0.000000
237.992250 161.393330 6.295950 0.000000
237.602420 162.283940 6.331875 0.000000
220.821040 176.270230 6.772164 0.000000
221.434300 175.667420 6.760675 0.000000
222.054020 175.069490 6.748674 0.000000
223.987520 173.322460 6.710125 0.000000
226.868410 173.371550 6.715950 0.000000
228.634630 171.294070 6.658238 0.000000
229.301030 170.647430 6.638932 0.000000
230.008270 170.019270 6.619452 0.000000
230.647520 169.338440 6.597753 0.000000
231.448210 168.746890 6.577870 0.000000
232.068190 168.036010 6.553859 0.000000
232.618840 167.279570 6.527829 0.000000
233.172200 166.520030 6.500980 0.000000
233.728640 165.756880 6.473291 0.000000
234.431460 165.059050 6.446631 0.000000
235.340030 164.444270 6.421392 0.000000
241.207050 167.119690 7.824503 0.000000
241.764430 167.327650 9.188986 0.000000
236.435700 168.116910 10.294733 0.000000
237.276990 167.422230 10.296456 0.000000
238.491640 166.890990 10.329615 0.000000
241.000080 162.386930 10.186476 0.000000
240.959170 163.480260 10.252077 0.000000
241.052760 165.787380 10.401793 0.000000
243.617480 165.721370 10.540508 0.000000
238.598720 169.211030 11.794353 0.000000
238.548420 170.373310 11.877792 0.000000
240.809940 165.629960 11.697927 0.000000
243.378800 163.235020 11.723967 0.000000
240.830150 169.167830 11.957560 0.000000
242.771210 165.260120 13.182009 0.000000
243.953230 163.397140 13.149744 0.000000
244.527980 162.447880 13.132524 0.000000
243.028120 167.756850 13.408574 0.000000
243.064510 168.997970 13.514360 0.000000
241.063190 184.219960 14.688257 0.000000
236.795560 169.323040 14.240363 0.000000
238.615260 169.127090 14.427519 0.000000
239.209410 168.255910 14.412660 0.000000
238.877370 171.682740 14.704453 0.000000
242.864750 162.931660 14.359082 0.000000
243.292570 161.950490 14.326377 0.000000
242.717830 167.562160 14.751653 0.000000
243.136410 166.547550 14.708261 0.000000
240.142620 162.948970 15.343407 0.000000
240.967290 169.089480 16.069122 0.000000
239.686650 172.097790 16.220137 0.000000
240.852110 171.494310 16.308460 0.000000
242.257870 168.507520 16.182732 0.000000
243.302610 167.777830 16.250126 0.000000
244.784010 167.214390 16.395729 0.000000
236.446430 166.777070 16.494514 0.000000
237.459900 169.596070 16.978115 0.000000
243.190160 161.802170 17.026505 0.000000
243.127350 162.920070 17.128841 0.000000
241.454680 170.517580 17.696268 0.000000
242.063570 168.362960 17.543728 0.000000
240.757510 172.659810 17.844076 0.000000
245.556170 168.755080 18.131464 0.000000
239.832120 168.422520 18.573967 0.000000
242.527600 163.784100 18.502457 0.000000
241.064290 167.833790 18.717056 0.000000
243.606930 163.043460 18.615097 0.000000
243.039660 165.156460 18.750200 0.000000
244.865720 162.338420 18.767084 0.000000
220.781940 173.581880 6.634500 0.000000
223.103200 173.407090 6.629454 0.000000
224.394440 171.120850 6.562396 0.000000
224.734040 170.301990 6.537251 0.000000
227.531980 169.131590 6.491862 0.000000
227.983550 168.376400 6.465678 0.000000
228.389420 167.593730 6.438130 0.000000
228.761930 166.793850 6.409504 0.000000
229.140490 166.001720 6.380442 0.000000
229.427440 165.160640 6.349539 0.000000
231.773760 165.451840 6.345436 0.000000
232.072830 164.583450 6.312137 0.000000
232.383710 163.726430 6.278481 0.000000
232.845730 162.946230 6.245924 0.000000
233.383560 162.197850 6.213321 0.000000
233.895780 161.431580 6.179534 0.000000
241.285460 166.946380 7.672798 0.000000
241.866820 167.169300 9.043767 0.000000
238.955470 185.787690 10.007162 0.000000
243.175030 182.858640 9.976049 0.000000
243.459920 184.646800 10.086653 0.000000
236.569950 167.925490 10.177779 0.000000
238.672520 166.727620 10.205750 0.000000
239.277190 164.743320 10.105591 0.000000
240.853970 162.068450 10.012966 0.000000
239.640290 184.727890 11.493585 0.000000
242.611720 182.389800 11.475597 0.000000
238.487000 170.116520 11.748943 0.000000
240.472050 167.571660 11.692152 0.000000
240.871520 165.415150 11.557316 0.000000
242.903020 163.974200 11.596871 0.000000
243.277980 162.964830 11.550101 0.000000
242.593020 169.874910 12.019872 0.000000
242.368580 171.022780 12.092951 0.000000
242.507720 185.408340 13.270760 0.000000
238.146800 168.680530 12.921800 0.000000
241.271970 162.118550 12.651821 0.000000
241.032500 165.432560 12.903839 0.000000
243.556090 165.372680 13.131569 0.000000
243.069180 167.572740 13.272286 0.000000
243.123600 168.835530 13.385700 0.000000
244.655750 164.638600 13.172757 0.000000
241.060670 184.208020 14.627918 0.000000
236.957550 169.152130 14.155182 0.000000
239.476410 163.550340 13.894510 0.000000
238.922230 171.494840 14.604862 0.000000
241.666090 169.282180 14.683377 0.000000
242.032650 168.236910 14.622430 0.000000
242.738750 167.358220 14.616867 0.000000
244.940690 162.313160 14.404384 0.000000
240.051030 163.742810 15.290310 0.000000
239.754260 171.930890 16.130646 0.000000
241.076810 168.921710 15.967634 0.000000
240.879040 171.308400 16.204262 0.000000
242.358400 168.341690 16.072515 0.000000
243.291110 167.562030 16.112637 0.000000
245.327770 162.394040 15.866565 0.000000
245.750520 167.453170 16.426132 0.000000
236.555110 170.006620 16.823833 0.000000
237.894640 169.577940 16.967865 0.000000
240.292050 161.563200 16.414604 0.000000
