# .PCD v0.7 - Point Cloud Data file format
VERSION 0.7
FIELDS x y z intensity
SIZE 4 4 4 4
TYPE F F F F
COUNT 1 1 1 1
WIDTH 1194
HEIGHT 1
VIEWPOINT 0 0 0 1 0 0 0
POINTS 1194
DATA ascii
222.048430 209.861910 8.421804 0.000000
239.825940 210.944490 8.736889 0.000000
239.667140 210.701130 8.731422 0.000000
236.249820 210.623640 8.667349 0.000000
236.099580 210.430630 8.660336 0.000000
233.151020 210.276410 8.597198 0.000000
232.823870 210.008180 8.586039 0.000000
229.920640 210.125700 8.547104 0.000000
229.578140 209.987030 8.540565 0.000000
229.230990 209.860470 8.534149 0.000000
228.882630 209.736470 8.525967 0.000000
224.024430 209.333300 8.440439 0.000000
223.565510 209.412930 8.434302 0.000000
223.201450 209.493160 8.429958 0.000000
222.930910 209.563930 8.427371 0.000000
244.587160 210.932110 8.802503 0.000000
244.409270 210.614440 8.797460 0.000000
239.503710 210.460860 8.725992 0.000000
239.336230 210.223420 8.720533 0.000000
235.868210 210.144970 8.649597 0.000000
235.628830 209.865340 8.639018 0.000000
232.655840 209.879260 8.580573 0.000000
232.399080 209.691680 8.572403 0.000000
228.619160 209.649020 8.519509 0.000000
228.352780 209.569990 8.513273 0.000000
227.994420 209.474850 8.505045 0.000000
227.632390 209.393160 8.497127 0.000000
227.266800 209.328120 8.490120 0.000000
226.898450 209.280080 8.484064 0.000000
226.435840 209.239760 8.476914 0.000000
225.971860 209.219640 8.470262 0.000000
225.600300 209.219350 8.465280 0.000000
225.228700 209.226700 8.459464 0.000000
224.857130 209.243500 8.453158 0.000000
224.486190 209.274110 8.447200 0.000000
244.329670 210.246800 8.782851 0.000000
239.165280 209.988530 8.714977 0.000000
238.989960 209.756900 8.709449 0.000000
235.463880 209.683210 8.632102 0.000000
235.295490 209.503890 8.625194 0.000000
232.048870 209.451890 8.561642 0.000000
231.687580 209.228580 8.551735 0.000000
221.246020 208.321530 8.362534 0.000000
220.947880 208.449620 8.361189 0.000000
244.039280 209.988710 8.787143 0.000000
238.810850 209.528210 8.703881 0.000000
238.629300 209.301440 8.698091 0.000000
235.124280 209.326800 8.618180 0.000000
234.861190 209.066530 8.607598 0.000000
231.313030 209.028000 8.543739 0.000000
230.931470 208.841130 8.535928 0.000000
230.544110 208.666500 8.528015 0.000000
222.163040 207.994400 8.369005 0.000000
221.752150 208.130630 8.365875 0.000000
221.446640 208.240360 8.363448 0.000000
243.649540 209.376800 8.776632 0.000000
238.458620 209.065340 8.690195 0.000000
234.497340 208.732300 8.594000 0.000000
230.155690 208.493090 8.518051 0.000000
229.761960 208.330380 8.507712 0.000000
229.362080 208.181820 8.497569 0.000000
223.423100 207.681180 8.381464 0.000000
222.998730 207.767470 8.376451 0.000000
222.579030 207.874210 8.372697 0.000000
243.284330 208.965450 8.774520 0.000000
238.296810 208.820400 8.680371 0.000000
238.123410 208.584120 8.671533 0.000000
234.117420 208.415510 8.581274 0.000000
233.825730 208.185300 8.571630 0.000000
228.956540 208.047650 8.487632 0.000000
228.545790 207.928500 8.477982 0.000000
228.130400 207.824740 8.468658 0.000000
227.711060 207.735840 8.459553 0.000000
227.287840 207.666240 8.451394 0.000000
226.969070 207.620450 8.444909 0.000000
226.649140 207.579910 8.437863 0.000000
226.220630 207.538850 8.428716 0.000000
225.790340 207.515260 8.420177 0.000000
225.358980 207.508830 8.412193 0.000000
224.927190 207.517140 8.404357 0.000000
224.495910 207.544780 8.397459 0.000000
224.065410 207.586690 8.390648 0.000000
223.743790 207.630040 8.386117 0.000000
237.946590 208.349560 8.662518 0.000000
237.765610 208.117490 8.653442 0.000000
233.627040 208.036940 8.565328 0.000000
233.323840 207.820790 8.555829 0.000000
233.015730 207.610890 8.546253 0.000000
243.157300 208.401980 8.747673 0.000000
242.842640 208.176530 8.752059 0.000000
237.580020 207.888460 8.644379 0.000000
237.390660 207.661730 8.635203 0.000000
232.806170 207.476850 8.540083 0.000000
232.593140 207.348240 8.534217 0.000000
232.377170 207.224400 8.528544 0.000000
242.525440 207.737460 8.742054 0.000000
237.099980 207.325410 8.621079 0.000000
232.159010 207.104130 8.522871 0.000000
231.828320 206.929470 8.514130 0.000000
231.491550 206.766540 8.506061 0.000000
221.385440 205.870160 8.307063 0.000000
221.017650 205.981000 8.302345 0.000000
242.216420 207.292130 8.730068 0.000000
236.690340 206.896610 8.603559 0.000000
231.264180 206.663700 8.500811 0.000000
231.034900 206.565020 8.495618 0.000000
230.687710 206.424210 8.487786 0.000000
230.219100 206.250400 8.477528 0.000000
222.629580 205.577550 8.324724 0.000000
222.254040 205.653950 8.319175 0.000000
221.880130 205.739140 8.313772 0.000000
221.632600 205.803620 8.310558 0.000000
242.015300 206.990570 8.720754 0.000000
236.236480 206.516530 8.591069 0.000000
235.890820 206.237290 8.581156 0.000000
229.864040 206.129300 8.469787 0.000000
229.505000 206.019810 8.462333 0.000000
229.143770 205.916950 8.454710 0.000000
228.781080 205.816770 8.446053 0.000000
228.293490 205.695630 8.434419 0.000000
227.924680 205.615740 8.425856 0.000000
224.781270 205.356840 8.362205 0.000000
224.273380 205.378170 8.352688 0.000000
223.892520 205.404710 8.345620 0.000000
223.512420 205.444350 8.339014 0.000000
223.132900 205.492460 8.332478 0.000000
222.880770 205.531970 8.328440 0.000000
241.809540 206.691470 8.711310 0.000000
241.592120 206.400860 8.702536 0.000000
235.537730 205.966890 8.571112 0.000000
227.553130 205.546880 8.417460 0.000000
227.179430 205.488890 8.409488 0.000000
226.803730 205.442260 8.401714 0.000000
226.300600 205.395130 8.391593 0.000000
225.921910 205.370820 8.384152 0.000000
225.542270 205.357740 8.376879 0.000000
225.162030 205.352600 8.369592 0.000000
241.387450 206.098040 8.691666 0.000000
234.934690 205.534740 8.554363 0.000000
241.167070 205.807310 8.681927 0.000000
240.942760 205.518710 8.671989 0.000000
234.745160 205.276890 8.535243 0.000000
234.313840 205.126360 8.537263 0.000000
233.935210 204.889470 8.526551 0.000000
240.715060 205.231720 8.661785 0.000000
233.576290 204.612150 8.509187 0.000000
240.379670 204.790940 8.644281 0.000000
232.894930 204.303910 8.497803 0.000000
232.627700 204.169600 8.490794 0.000000
222.709700 203.183200 8.360439 0.000000
222.417860 203.233080 8.356499 0.000000
222.123950 203.274830 8.350927 0.000000
221.665940 203.275330 8.333255 0.000000
221.203870 203.280180 8.314801 0.000000
220.891450 203.281360 8.301302 0.000000
240.125730 204.256300 8.614580 0.000000
239.676590 204.203860 8.630678 0.000000
232.409120 203.917850 8.468283 0.000000
232.086990 203.911800 8.476492 0.000000
231.651250 203.796810 8.474095 0.000000
231.257350 203.562180 8.455536 0.000000
230.519870 203.412280 8.451752 0.000000
230.060840 203.394060 8.456728 0.000000
229.757780 203.382930 8.459368 0.000000
229.307190 203.367510 8.462295 0.000000
228.860460 203.351680 8.464014 0.000000
228.565000 203.340070 8.464262 0.000000
228.126450 203.308260 8.461737 0.000000
227.690220 203.269320 8.457212 0.000000
227.254650 203.230870 8.451355 0.000000
226.811450 203.310360 8.458910 0.000000
226.089750 203.192790 8.437725 0.000000
225.653170 203.044430 8.413775 0.000000
225.359050 203.021440 8.406423 0.000000
224.914540 202.962550 8.391190 0.000000
223.592120 203.087360 8.375670 0.000000
223.299940 203.129680 8.372492 0.000000
223.003880 203.148380 8.365730 0.000000
239.505170 203.842710 8.609291 0.000000
224.462140 202.851330 8.368196 0.000000
224.158580 202.802490 8.355194 0.000000
238.839260 203.495790 8.609093 0.000000
238.402590 203.462830 8.624002 0.000000
237.975370 203.431230 8.638098 0.000000
237.563320 203.392270 8.650438 0.000000
237.168060 203.341890 8.660638 0.000000
236.793930 203.271390 8.667806 0.000000
236.446840 203.168430 8.670673 0.000000
236.135560 203.014190 8.667303 0.000000
235.899320 202.735930 8.649984 0.000000
235.548600 202.649810 8.652874 0.000000
234.951190 202.301390 8.638082 0.000000
234.646910 202.136660 8.630912 0.000000
234.405150 201.841320 8.609541 0.000000
233.848570 201.803890 8.618886 0.000000
233.348620 201.656540 8.615576 0.000000
245.421660 202.542050 8.800888 0.000000
233.094390 201.364750 8.592696 0.000000
232.766830 201.249360 8.587509 0.000000
245.191620 202.133220 8.785310 0.000000
244.624160 202.037290 8.799201 0.000000
244.155780 201.861600 8.804484 0.000000
232.471830 201.043820 8.572568 0.000000
243.169530 201.593800 8.820181 0.000000
232.191700 199.629910 8.439222 0.000000
243.757570 200.307300 8.722083 0.000000
243.279220 200.147110 8.726544 0.000000
231.860840 199.443560 8.425009 0.000000
231.525250 199.263210 8.410869 0.000000
231.184080 199.092790 8.397193 0.000000
230.824780 198.984970 8.389290 0.000000
230.470920 198.849980 8.378077 0.000000
230.114270 198.718980 8.366705 0.000000
243.980740 198.625850 8.609205 0.000000
244.562930 197.160320 8.498335 0.000000
243.981000 197.064010 8.508219 0.000000
243.377990 197.011440 8.520954 0.000000
243.656680 195.795170 8.432930 0.000000
243.119200 195.646300 8.436391 0.000000
243.752010 186.834000 10.273610 0.000000
242.624730 186.155150 10.248639 0.000000
242.381820 187.942080 12.628172 0.000000
240.372310 187.811940 12.548596 0.000000
238.815570 186.702470 13.319454 0.000000
242.375890 187.889740 14.212787 0.000000
239.505770 186.622800 14.147904 0.000000
231.375180 197.934390 8.290210 0.000000
230.998290 197.799910 8.281498 0.000000
230.620240 197.666920 8.272331 0.000000
230.243360 197.525830 8.261755 0.000000
229.850520 197.444090 8.256472 0.000000
229.461980 197.345520 8.248903 0.000000
229.072920 197.247440 8.240771 0.000000
223.445430 195.713130 8.044714 0.000000
223.016510 195.572390 8.022503 0.000000
228.485840 195.921830 8.110746 0.000000
228.075320 195.814830 8.099881 0.000000
227.663300 195.707370 8.088321 0.000000
227.249540 195.599350 8.076053 0.000000
226.833760 195.490710 8.063065 0.000000
222.580250 195.411320 7.997463 0.000000
222.136750 195.245390 7.971131 0.000000
221.686980 195.088500 7.944904 0.000000
226.415680 195.381360 8.049342 0.000000
225.994420 195.280550 8.035795 0.000000
225.571000 195.170680 8.020667 0.000000
225.144450 195.060070 8.004778 0.000000
224.714800 194.922070 7.985442 0.000000
221.227910 194.915700 7.916201 0.000000
220.756680 194.715350 7.883770 0.000000
224.280440 194.771850 7.964154 0.000000
244.373490 195.684910 8.404915 0.000000
243.747710 195.593800 8.415943 0.000000
243.084690 195.569170 8.431588 0.000000
243.501740 194.117490 8.326770 0.000000
242.861600 194.052990 8.338001 0.000000
243.477660 192.193340 8.200298 0.000000
242.860280 192.065540 8.205498 0.000000
242.230760 191.971890 8.212598 0.000000
242.320110 190.731190 8.126091 0.000000
241.758290 190.512150 8.121909 0.000000
241.198810 190.295900 8.117197 0.000000
241.145890 189.160490 8.038631 0.000000
240.607210 188.877780 8.027530 0.000000
240.011570 188.708310 8.024659 0.000000
240.154020 187.013790 7.901277 0.000000
239.607380 186.685470 7.884902 0.000000
239.064880 186.341460 7.866614 0.000000
232.938900 210.995210 8.603606 0.000000
230.501980 210.979490 8.565918 0.000000
230.192030 210.773180 8.558575 0.000000
229.875920 210.576390 8.551354 0.000000
235.469480 210.864970 8.652243 0.000000
232.645050 210.685210 8.591490 0.000000
232.414730 210.462080 8.583042 0.000000
229.714950 210.482760 8.547790 0.000000
229.470350 210.347870 8.542452 0.000000
229.138670 210.178560 8.535576 0.000000
221.048480 209.548280 8.394232 0.000000
243.606290 211.070210 8.796969 0.000000
238.713880 210.705930 8.711463 0.000000
235.248520 210.566240 8.642633 0.000000
235.105100 210.362730 8.634708 0.000000
232.177080 210.246230 8.574730 0.000000
231.934050 210.035950 8.566448 0.000000
228.886690 210.058000 8.530290 0.000000
228.635130 209.935880 8.523274 0.000000
228.294660 209.783040 8.514023 0.000000
227.948260 209.642960 8.505034 0.000000
222.221540 209.206910 8.402893 0.000000
221.855800 209.295810 8.399625 0.000000
221.494260 209.399870 8.397072 0.000000
243.547900 210.691620 8.782013 0.000000
238.554340 210.457840 8.705921 0.000000
238.389980 210.212890 8.700415 0.000000
234.952790 210.166020 8.627641 0.000000
234.717290 209.875720 8.616962 0.000000
231.767700 209.900730 8.561169 0.000000
231.508030 209.711120 8.554693 0.000000
231.243770 209.527880 8.548286 0.000000
227.685260 209.545440 8.498344 0.000000
227.418620 209.457670 8.492117 0.000000
227.058400 209.355870 8.484836 0.000000
226.694370 209.268040 8.477924 0.000000
226.327220 209.193820 8.471296 0.000000
225.957490 209.133530 8.465002 0.000000
225.492860 209.074250 8.456808 0.000000
225.026610 209.024570 8.447056 0.000000
224.651840 209.000170 8.439449 0.000000
224.276110 208.990370 8.432279 0.000000
223.899990 208.994870 8.425491 0.000000
223.524150 209.014720 8.419295 0.000000
223.149090 209.047910 8.413320 0.000000
222.683550 209.117420 8.407852 0.000000
243.370100 210.367810 8.776948 0.000000
238.221440 209.970830 8.694877 0.000000
238.054240 209.727660 8.688590 0.000000
234.391170 209.497470 8.602710 0.000000
231.064730 209.409910 8.544042 0.000000
230.791470 209.240280 8.537884 0.000000
230.514880 209.076080 8.531574 0.000000
243.294270 209.991990 8.762127 0.000000
243.000760 209.729170 8.766476 0.000000
237.822800 209.346910 8.675363 0.000000
234.136400 209.222080 8.592264 0.000000
233.959410 209.045150 8.585797 0.000000
230.233600 208.919970 8.525300 0.000000
229.859210 208.709440 8.514620 0.000000
229.574360 208.558010 8.506358 0.000000
237.583300 208.969670 8.661864 0.000000
233.779190 208.871170 8.579321 0.000000
233.502840 208.615950 8.569531 0.000000
229.381790 208.461820 8.500940 0.000000
229.089340 208.324200 8.492849 0.000000
228.693730 208.152040 8.482141 0.000000
221.536300 207.544420 8.340719 0.000000
221.218310 207.627700 8.337576 0.000000
220.798260 207.752330 8.333831 0.000000
242.627400 209.094700 8.754231 0.000000
242.435590 208.780750 8.747763 0.000000
237.409880 208.727690 8.653858 0.000000
237.247600 208.474820 8.643604 0.000000
233.123550 208.286740 8.556574 0.000000
232.831760 208.047610 8.546804 0.000000
228.392070 208.034130 8.474613 0.000000
228.087420 207.923100 8.466831 0.000000
227.675810 207.789580 8.457008 0.000000
227.258820 207.672700 8.447679 0.000000
226.838550 207.565310 8.437635 0.000000
226.521160 207.491650 8.429805 0.000000
223.484700 207.261470 8.368669 0.000000
223.157070 207.283360 8.362963 0.000000
222.830060 207.314450 8.357630 0.000000
222.504380 207.358230 8.352967 0.000000
222.071870 207.428940 8.346889 0.000000
221.749890 207.495290 8.343147 0.000000
242.105900 208.553970 8.754117 0.000000
237.070650 208.233170 8.634728 0.000000
236.891110 207.992400 8.625529 0.000000
232.633350 207.892560 8.540287 0.000000
232.431590 207.741610 8.533886 0.000000
232.227130 207.593960 8.527473 0.000000
226.308560 207.445540 8.424312 0.000000
225.986940 207.390000 8.417172 0.000000
225.555620 207.329530 8.407966 0.000000
225.230580 207.294140 8.401252 0.000000
224.904310 207.269040 8.394780 0.000000
224.468150 207.249190 8.386453 0.000000
224.031170 207.244930 8.378367 0.000000
223.703280 207.251720 8.372498 0.000000
242.149660 208.088500 8.723511 0.000000
236.707020 207.754430 8.616302 0.000000
236.518590 207.519070 8.607016 0.000000
232.019850 207.449950 8.521088 0.000000
231.700260 207.246870 8.512439 0.000000
241.724090 207.708250 8.724595 0.000000
236.322020 207.290470 8.598271 0.000000
236.108540 207.078690 8.591535 0.000000
231.264020 206.992260 8.501539 0.000000
230.931090 206.811020 8.493442 0.000000
230.706160 206.695540 8.488097 0.000000
241.425110 207.243620 8.712005 0.000000
235.779940 206.769290 8.581553 0.000000
230.479510 206.583310 8.482672 0.000000
230.135180 206.423680 8.474700 0.000000
229.669880 206.224030 8.464132 0.000000
241.229100 206.930130 8.702436 0.000000
235.330730 206.368100 8.568045 0.000000
229.316350 206.084780 8.456321 0.000000
228.959810 205.952450 8.448088 0.000000
228.602340 205.820880 8.438820 0.000000
228.240360 205.700870 8.429802 0.000000
222.031690 205.167210 8.303065 0.000000
221.776150 205.204880 8.298948 0.000000
221.394670 205.273240 8.293344 0.000000
221.014180 205.348210 8.287529 0.000000
220.761960 205.405560 8.283965 0.000000
240.930100 206.460740 8.687285 0.000000
234.986240 206.075210 8.557668 0.000000
227.752880 205.553710 8.417724 0.000000
227.383410 205.455320 8.408956 0.000000
227.010330 205.369980 8.400611 0.000000
226.634950 205.293820 8.392420 0.000000
226.257100 205.228900 8.384384 0.000000
225.750460 205.157270 8.373857 0.000000
225.368770 205.113160 8.365870 0.000000
224.985630 205.078220 8.357721 0.000000
224.601360 205.052720 8.349747 0.000000
224.216060 205.038480 8.341910 0.000000
223.830180 205.033490 8.334219 0.000000
223.444090 205.043170 8.327162 0.000000
223.057910 205.059980 8.319946 0.000000
222.672240 205.090500 8.313238 0.000000
222.287720 205.133970 8.307236 0.000000
240.617520 205.999080 8.672256 0.000000
234.511980 205.702130 8.544237 0.000000
234.271610 205.519260 8.537190 0.000000
233.968150 205.429920 8.542204 0.000000
240.423740 205.676060 8.659662 0.000000
233.780940 205.165880 8.523108 0.000000
233.435910 204.861110 8.505760 0.000000
240.216580 205.362000 8.647818 0.000000
240.004490 205.049770 8.635784 0.000000
233.025470 204.660420 8.501097 0.000000
232.767400 204.500700 8.493795 0.000000
239.786700 204.740200 8.623651 0.000000
232.561330 204.240830 8.473029 0.000000
232.242310 204.194790 8.479269 0.000000
231.921770 204.160060 8.486230 0.000000
231.704440 203.910310 8.465230 0.000000
239.553680 204.442990 8.612593 0.000000
239.287510 204.178090 8.604942 0.000000
231.430590 203.777250 8.458523 0.000000
230.734630 203.468050 8.442120 0.000000
230.269880 203.409420 8.446421 0.000000
229.954680 203.395690 8.451572 0.000000
229.642440 203.382780 8.456184 0.000000
229.179930 203.363630 8.461872 0.000000
228.722630 203.344850 8.466381 0.000000
228.421920 203.328400 8.468107 0.000000
227.979740 203.279660 8.466598 0.000000
227.549060 203.182530 8.458056 0.000000
221.050380 202.911390 8.325264 0.000000
220.759800 202.986690 8.323529 0.000000
238.635100 203.781370 8.603557 0.000000
227.261060 203.120510 8.451947 0.000000
226.828860 203.022190 8.441013 0.000000
226.381130 203.040890 8.443164 0.000000
226.090260 202.997790 8.437100 0.000000
225.512420 202.825820 8.412835 0.000000
225.222670 202.684590 8.393100 0.000000
224.927990 202.559200 8.374683 0.000000
222.535580 202.714510 8.348110 0.000000
222.068970 202.616100 8.322950 0.000000
221.603090 202.575100 8.303627 0.000000
238.385210 203.499980 8.592189 0.000000
237.928670 203.464660 8.608507 0.000000
237.484070 203.429200 8.623755 0.000000
237.055270 203.387540 8.637312 0.000000
236.643080 203.336980 8.648939 0.000000
235.929460 203.113430 8.656229 0.000000
224.477620 202.489470 8.360294 0.000000
224.022660 202.358410 8.337177 0.000000
223.719060 202.368800 8.332954 0.000000
223.259280 202.330660 8.318794 0.000000
222.790890 202.225740 8.295118 0.000000
235.632160 202.923110 8.650307 0.000000
235.339570 202.725910 8.643095 0.000000
234.923740 202.389860 8.626963 0.000000
234.441770 202.164140 8.621459 0.000000
245.754820 202.873020 8.782645 0.000000
245.231450 202.688310 8.791821 0.000000
233.808070 201.851900 8.610882 0.000000
233.468660 201.741900 8.609539 0.000000
244.853320 202.393510 8.789225 0.000000
233.184140 201.522190 8.596317 0.000000
232.840700 201.424330 8.595102 0.000000
232.549350 201.212520 8.581685 0.000000
244.489870 202.090350 8.785111 0.000000
244.003520 201.902470 8.791191 0.000000
243.511950 201.730710 8.797838 0.000000
232.327360 199.860690 8.459475 0.000000
231.993440 199.687700 8.448842 0.000000
231.656680 199.518100 8.438002 0.000000
243.794330 200.143040 8.695702 0.000000
231.316330 199.354020 8.427169 0.000000
243.285320 199.979770 8.701797 0.000000
244.018710 198.481610 8.588815 0.000000
243.491870 198.314530 8.594097 0.000000
243.988720 196.968930 8.496302 0.000000
243.890750 186.826170 10.334229 0.000000
243.272600 186.563310 10.321934 0.000000
242.731720 186.164460 10.309029 0.000000
243.404100 186.299960 11.159612 0.000000
241.325010 187.349150 11.898910 0.000000
242.459610 187.901790 12.725464 0.000000
241.102540 186.335040 12.734556 0.000000
240.432020 186.121670 15.174954 0.000000
226.970200 197.022870 8.159063 0.000000
226.579380 196.928440 8.149116 0.000000
226.187380 196.833660 8.138521 0.000000
225.793980 196.738450 8.127261 0.000000
225.398900 196.642790 8.115330 0.000000
225.002260 196.542070 8.102257 0.000000
222.174530 196.563230 8.067421 0.000000
221.761830 196.412750 8.044061 0.000000
221.341350 196.240630 8.017706 0.000000
224.604310 196.424760 8.086854 0.000000
224.203700 196.295730 8.069607 0.000000
223.799290 196.165590 8.051578 0.000000
223.390750 196.034350 8.032761 0.000000
220.914440 196.075710 7.991322 0.000000
222.977770 195.902010 8.013136 0.000000
240.742860 194.151500 8.296852 0.000000
240.122510 194.106810 8.307392 0.000000
240.025700 192.226410 8.177257 0.000000
239.414180 192.155150 8.183863 0.000000
238.809980 192.088760 8.190041 0.000000
239.414980 189.831890 8.016474 0.000000
238.878590 189.577880 8.006607 0.000000
238.300000 189.409670 8.002994 0.000000
238.269560 188.111570 7.907474 0.000000
237.734620 187.813460 7.892267 0.000000
237.203810 187.501710 7.875292 0.000000
236.660480 187.213380 7.859518 0.000000
236.107060 186.945010 7.844656 0.000000
234.152270 210.922290 8.631234 0.000000
231.553590 210.965640 8.582021 0.000000
231.323460 210.747920 8.575384 0.000000
228.876770 210.842160 8.548185 0.000000
228.485610 210.602160 8.539154 0.000000
237.418670 210.937120 8.698010 0.000000
234.009320 210.722180 8.624230 0.000000
233.856700 210.529540 8.618239 0.000000
231.166600 210.606520 8.570991 0.000000
230.926120 210.400310 8.564486 0.000000
228.090770 210.367690 8.528026 0.000000
227.687070 210.147570 8.516172 0.000000
227.357030 209.984360 8.507106 0.000000
237.259700 210.692020 8.692586 0.000000
237.110030 210.440960 8.685444 0.000000
233.634580 210.233640 8.606841 0.000000
230.513550 210.071060 8.553718 0.000000
230.174210 209.819790 8.545229 0.000000
227.188550 209.909880 8.503079 0.000000
226.933090 209.804500 8.497179 0.000000
226.588170 209.674610 8.489536 0.000000
226.150450 209.530460 8.480267 0.000000
221.578170 209.125320 8.392996 0.000000
221.303470 209.171600 8.389926 0.000000
220.939070 209.243380 8.385914 0.000000
241.996980 210.701750 8.768314 0.000000
241.815600 210.384840 8.763049 0.000000
236.893010 210.058000 8.672559 0.000000
233.317260 209.855760 8.593235 0.000000
230.000990 209.699140 8.541003 0.000000
229.736890 209.524490 8.534737 0.000000
229.472560 209.350070 8.527383 0.000000
225.706770 209.405460 8.471422 0.000000
225.348160 209.319020 8.464322 0.000000
224.988250 209.236210 8.455658 0.000000
224.625460 209.164790 8.446917 0.000000
224.259810 209.106990 8.438508 0.000000
223.799550 209.054790 8.428502 0.000000
223.336910 209.023160 8.419093 0.000000
222.965710 209.015670 8.412298 0.000000
222.594450 209.025650 8.406560 0.000000
222.223800 209.050020 8.401305 0.000000
221.854280 209.088030 8.396399 0.000000
241.742420 210.013020 8.747391 0.000000
236.667540 209.678860 8.659483 0.000000
232.981740 209.493300 8.580456 0.000000
232.721820 209.228810 8.570895 0.000000
229.296170 209.233600 8.521709 0.000000
229.027440 209.064770 8.513191 0.000000
228.754060 208.903090 8.504884 0.000000
241.459060 209.750030 8.750402 0.000000
241.123610 209.521260 8.758032 0.000000
236.511050 209.429180 8.650719 0.000000
236.350250 209.181720 8.641883 0.000000
232.544420 209.056300 8.564499 0.000000
232.363940 208.886780 8.558096 0.000000
228.569320 208.799190 8.499315 0.000000
228.287890 208.650830 8.491201 0.000000
227.906770 208.463620 8.480419 0.000000
241.082370 209.128020 8.737511 0.000000
236.184840 208.936780 8.633024 0.000000
236.005020 208.702820 8.625536 0.000000
232.180570 208.720150 8.551662 0.000000
231.899090 208.477050 8.542113 0.000000
227.518260 208.291180 8.470004 0.000000
227.121110 208.139130 8.460893 0.000000
226.719090 207.999600 8.451679 0.000000
226.417210 207.894180 8.443222 0.000000
220.794020 207.501130 8.328608 0.000000
240.886000 208.822370 8.731037 0.000000
235.833650 208.460770 8.616206 0.000000
235.650560 208.227920 8.607907 0.000000
231.504840 208.176390 8.531527 0.000000
231.202410 207.959870 8.523676 0.000000
226.214360 207.827730 8.437485 0.000000
225.907100 207.736620 8.429216 0.000000
225.493330 207.627910 8.418465 0.000000
225.075160 207.534640 8.408041 0.000000
224.653170 207.457550 8.398060 0.000000
224.334630 207.409960 8.390858 0.000000
224.014330 207.374020 8.384175 0.000000
223.585680 207.339190 8.375537 0.000000
223.155690 207.319030 8.367057 0.000000
222.724840 207.314290 8.358853 0.000000
222.293810 207.326310 8.351162 0.000000
221.863490 207.357250 8.344365 0.000000
221.433880 207.399950 8.337247 0.000000
221.113420 207.446820 8.333013 0.000000
235.461760 207.999400 8.599805 0.000000
231.003710 207.810910 8.516936 0.000000
230.700260 207.594160 8.506831 0.000000
240.588440 208.149460 8.706991 0.000000
240.271480 207.923900 8.710934 0.000000
235.165310 207.667830 8.588387 0.000000
230.282640 207.324010 8.494559 0.000000
229.959840 207.136690 8.486392 0.000000
229.741560 207.017140 8.481028 0.000000
240.091450 207.607250 8.700596 0.000000
234.751020 207.243180 8.574081 0.000000
234.425950 206.939070 8.564162 0.000000
229.521090 206.901570 8.475720 0.000000
229.186490 206.735690 8.467773 0.000000
228.734160 206.527210 8.457232 0.000000
239.913090 207.287830 8.689426 0.000000
239.730000 206.969990 8.678070 0.000000
234.205280 206.740480 8.557424 0.000000
233.980740 206.546200 8.550759 0.000000
228.392040 206.376530 8.448773 0.000000
228.047790 206.229480 8.439450 0.000000
227.582490 206.047380 8.427237 0.000000
239.541550 206.654300 8.666596 0.000000
233.638090 206.261350 8.540602 0.000000
227.228940 205.921890 8.418316 0.000000
226.870880 205.808990 8.409840 0.000000
226.510280 205.703400 8.401300 0.000000
226.146270 205.608890 8.392960 0.000000
225.657100 205.496640 8.381950 0.000000
225.287520 205.423480 8.373867 0.000000
225.040100 205.378830 8.368312 0.000000
222.528610 205.171810 8.315841 0.000000
222.149030 205.182530 8.308984 0.000000
221.643220 205.212300 8.300178 0.000000
221.264280 205.245030 8.293650 0.000000
220.886280 205.289640 8.287425 0.000000
239.348510 206.340190 8.654922 0.000000
233.289030 205.984150 8.530420 0.000000
232.935590 205.711780 8.519537 0.000000
224.791960 205.336820 8.362568 0.000000
224.542790 205.300750 8.357110 0.000000
224.167600 205.254330 8.348887 0.000000
223.665210 205.207460 8.338177 0.000000
223.287080 205.183380 8.330307 0.000000
222.908040 205.172260 8.322872 0.000000
239.141010 206.036060 8.644156 0.000000
238.943470 205.721410 8.631557 0.000000
232.424480 205.405650 8.511021 0.000000
238.731870 205.416720 8.619839 0.000000
232.140700 205.019030 8.481943 0.000000
231.705020 204.873060 8.484005 0.000000
238.488650 205.139480 8.611164 0.000000
238.231770 204.874890 8.603545 0.000000
231.317670 204.649230 8.474422 0.000000
230.951580 204.383940 8.458001 0.000000
230.478130 204.330720 8.468093 0.000000
237.970050 204.615160 8.595962 0.000000
230.267400 204.079500 8.446072 0.000000
229.999880 203.945140 8.438637 0.000000
237.703830 204.360080 8.588386 0.000000
237.523700 204.011800 8.569017 0.000000
237.055500 203.979400 8.586982 0.000000
229.458440 203.687620 8.423522 0.000000
229.034560 203.538010 8.416159 0.000000
228.595380 203.433820 8.413359 0.000000
228.295260 203.391660 8.414126 0.000000
227.836900 203.369280 8.419175 0.000000
227.382260 203.352110 8.423659 0.000000
227.082210 203.341420 8.425948 0.000000
226.635990 203.327070 8.428427 0.000000
226.197560 203.291760 8.427158 0.000000
225.908630 203.257780 8.424273 0.000000
225.620570 203.221600 8.420555 0.000000
225.032000 203.260040 8.425162 0.000000
224.606460 203.168300 8.412178 0.000000
224.176590 203.104900 8.401588 0.000000
223.888400 203.073060 8.395075 0.000000
223.455030 203.009190 8.382177 0.000000
223.019100 202.945190 8.368116 0.000000
222.725100 202.840350 8.350189 0.000000
222.285250 202.859760 8.344233 0.000000
221.836980 202.767560 8.323069 0.000000
221.536190 202.724850 8.310495 0.000000
220.974180 203.008510 8.330527 0.000000
236.499760 203.503390 8.571651 0.000000
236.073390 203.450200 8.584478 0.000000
235.642720 203.415390 8.598456 0.000000
235.230560 203.369550 8.610241 0.000000
234.834780 203.313450 8.619997 0.000000
234.162400 203.057310 8.621189 0.000000
233.870910 202.867630 8.614061 0.000000
245.743670 203.594190 8.726266 0.000000
245.044370 203.507230 8.748408 0.000000
244.366580 203.426390 8.769522 0.000000
233.577260 202.681320 8.606772 0.000000
243.981600 203.136110 8.767699 0.000000
243.472700 202.952710 8.775837 0.000000
233.155290 202.370320 8.591373 0.000000
232.366100 201.997700 8.578957 0.000000
243.101380 202.665370 8.772629 0.000000
232.046840 201.858600 8.574044 0.000000
231.754100 201.665990 8.562958 0.000000
231.223070 201.573330 8.565837 0.000000
242.743930 202.370360 8.767967 0.000000
242.515930 201.961040 8.751663 0.000000
241.936190 201.877990 8.765980 0.000000
230.646800 200.686050 8.492051 0.000000
230.277510 200.655960 8.495328 0.000000
241.448040 201.087490 8.733509 0.000000
229.965760 200.476000 8.482603 0.000000
229.625790 200.372240 8.477179 0.000000
240.957000 200.942540 8.739654 0.000000
229.650120 199.130020 8.354805 0.000000
229.292330 199.014820 8.347361 0.000000
228.934110 198.900130 8.339396 0.000000
241.532150 199.654500 8.641407 0.000000
241.023100 199.512890 8.647244 0.000000
228.580760 198.765050 8.328786 0.000000
228.215880 198.671130 8.321792 0.000000
227.856320 198.552860 8.311752 0.000000
227.494900 198.437180 8.301405 0.000000
241.719060 197.983120 8.528999 0.000000
241.996290 196.869480 8.448824 0.000000
241.433350 196.746490 8.455678 0.000000
240.842680 196.673930 8.466012 0.000000
240.947040 195.686950 8.396997 0.000000
240.422960 195.523180 8.398363 0.000000
239.524750 194.046800 8.315765 0.000000
244.026690 186.939510 10.269149 0.000000
239.003340 186.477040 10.187822 0.000000
243.381610 186.695510 10.255932 0.000000
240.455460 187.731840 12.607710 0.000000
242.483220 188.059270 12.690804 0.000000
238.937380 186.467130 13.400423 0.000000
223.883260 196.715260 8.085439 0.000000
223.295940 196.506840 8.059194 0.000000
220.881870 196.544950 8.029814 0.000000
222.899640 196.357650 8.039772 0.000000
222.498830 196.206880 8.019520 0.000000
222.093170 196.054570 7.998423 0.000000
221.682370 195.900700 7.976465 0.000000
238.113630 193.125790 8.209580 0.000000
237.513530 193.075260 8.217405 0.000000
236.921300 193.029430 8.224813 0.000000
237.685780 190.527310 8.027998 0.000000
237.113220 190.376140 8.026060 0.000000
236.462860 190.389690 8.036911 0.000000
236.899700 188.171880 7.864371 0.000000
236.364690 187.881380 7.849431 0.000000
235.801740 187.650850 7.838689 0.000000
235.229740 187.443360 7.829112 0.000000
234.668880 187.210620 7.816785 0.000000
227.914720 211.050510 8.538684 0.000000
227.619630 210.835510 8.529430 0.000000
232.846800 210.822590 8.600748 0.000000
230.271060 210.992310 8.565689 0.000000
230.042710 210.775790 8.559105 0.000000
227.470150 210.730380 8.524412 0.000000
227.161540 210.534470 8.515640 0.000000
226.846970 210.348010 8.507024 0.000000
236.110530 210.839690 8.667716 0.000000
232.702670 210.623570 8.593746 0.000000
232.545240 210.435120 8.588391 0.000000
229.809490 210.564560 8.552512 0.000000
229.569890 210.360700 8.546038 0.000000
229.325780 210.162320 8.539551 0.000000
226.686980 210.259260 8.502735 0.000000
226.443340 210.132840 8.496574 0.000000
226.030170 209.936170 8.486382 0.000000
240.600330 210.647110 8.745475 0.000000
235.898850 210.455060 8.655566 0.000000
232.316240 210.145860 8.577952 0.000000
229.159730 210.034320 8.535320 0.000000
228.911530 209.841020 8.527601 0.000000
225.608810 209.757220 8.476506 0.000000
225.265730 209.628660 8.468908 0.000000
224.833220 209.476580 8.457849 0.000000
224.484300 209.361710 8.448100 0.000000
240.429960 210.326810 8.738984 0.000000
235.600660 209.950270 8.639339 0.000000
231.992950 209.774770 8.565158 0.000000
228.662450 209.648250 8.518897 0.000000
228.407420 209.462840 8.510262 0.000000
228.147490 209.283950 8.501787 0.000000
224.307850 209.309890 8.443393 0.000000
224.041290 209.237980 8.436340 0.000000
223.682590 209.153690 8.427309 0.000000
223.320570 209.082700 8.418585 0.000000
222.863800 209.016720 8.408756 0.000000
222.403950 208.974210 8.400120 0.000000
222.034710 208.956310 8.393643 0.000000
221.664930 208.952240 8.387552 0.000000
221.295140 208.961180 8.381687 0.000000
220.925580 208.980930 8.375626 0.000000
240.354200 209.958190 8.723270 0.000000
235.366210 209.577330 8.627028 0.000000
231.650090 209.421460 8.553584 0.000000
231.380040 209.169510 8.545920 0.000000
227.971410 209.168520 8.496130 0.000000
227.703200 209.001220 8.487642 0.000000
227.430040 208.841720 8.479496 0.000000
240.073730 209.695560 8.725843 0.000000
239.741850 209.466580 8.733005 0.000000
235.203770 209.332200 8.618806 0.000000
235.037080 209.089550 8.610536 0.000000
231.196180 209.005800 8.540826 0.000000
230.914840 208.766720 8.533193 0.000000
227.243930 208.742460 8.474614 0.000000
226.960720 208.601210 8.467553 0.000000
226.577730 208.423750 8.458210 0.000000
226.288680 208.293850 8.450373 0.000000
239.697970 209.076840 8.712431 0.000000
234.866970 208.848800 8.602104 0.000000
234.681490 208.620130 8.595220 0.000000
230.535400 208.453060 8.522034 0.000000
230.252470 208.215010 8.511799 0.000000
226.095990 208.206160 8.444211 0.000000
225.803040 208.082780 8.435297 0.000000
225.407150 207.929750 8.423556 0.000000
225.106350 207.824200 8.414951 0.000000
239.502700 208.772490 8.705645 0.000000
234.503590 208.384520 8.586646 0.000000
234.314150 208.158360 8.579123 0.000000
230.060750 208.059520 8.504814 0.000000
229.766200 207.834660 8.494658 0.000000
224.904020 207.758260 8.409230 0.000000
224.597630 207.667890 8.400984 0.000000
224.185040 207.560000 8.390254 0.000000
223.768130 207.467480 8.379871 0.000000
223.347310 207.392150 8.370122 0.000000
223.029630 207.346620 8.363235 0.000000
222.710460 207.310750 8.356546 0.000000
222.283360 207.275470 8.347836 0.000000
221.854860 207.255130 8.339348 0.000000
221.425550 207.251770 8.331432 0.000000
220.996050 207.263410 8.323756 0.000000
234.121570 207.934540 8.571455 0.000000
233.925130 207.713870 8.563759 0.000000
229.364140 207.546490 8.481236 0.000000
229.053380 207.343400 8.471923 0.000000
239.260800 208.067180 8.675550 0.000000
238.979920 207.817690 8.675620 0.000000
233.723590 207.497650 8.556239 0.000000
233.514660 207.288560 8.549280 0.000000
228.732270 207.156950 8.463882 0.000000
228.297210 206.920490 8.453199 0.000000
238.801090 207.499970 8.664805 0.000000
233.300480 207.084780 8.542584 0.000000
233.082430 206.885100 8.535947 0.000000
227.857800 206.691300 8.441403 0.000000
227.525050 206.524700 8.431978 0.000000
227.299870 206.420240 8.425966 0.000000
238.621350 207.181290 8.653422 0.000000
238.435520 206.865360 8.642011 0.000000
232.749690 206.591770 8.525797 0.000000
227.072590 206.320110 8.420057 0.000000
226.728300 206.177110 8.411160 0.000000
226.263310 206.000310 8.399512 0.000000
225.910800 205.876950 8.390749 0.000000
238.244370 206.551650 8.630486 0.000000
232.298840 206.208390 8.511552 0.000000
231.952840 205.929890 8.500794 0.000000
225.554140 205.765170 8.382302 0.000000
225.195010 205.660640 8.373795 0.000000
224.832990 205.564900 8.365166 0.000000
224.346740 205.448900 8.353482 0.000000
223.979190 205.372800 8.344898 0.000000
223.609150 205.307430 8.336458 0.000000
223.112840 205.235210 8.325482 0.000000
222.738590 205.194350 8.317764 0.000000
222.362960 205.164550 8.310229 0.000000
221.986470 205.143720 8.302855 0.000000
221.609190 205.133970 8.295663 0.000000
221.231550 205.133300 8.288652 0.000000
220.853590 205.141460 8.281489 0.000000
238.048710 206.239640 8.618766 0.000000
231.594510 205.667220 8.490891 0.000000
231.172130 205.499590 8.493001 0.000000
237.827470 205.947140 8.609238 0.000000
237.590960 205.667110 8.600847 0.000000
230.981830 205.251270 8.474794 0.000000
237.341340 205.398650 8.593421 0.000000
230.789020 204.999970 8.455811 0.000000
230.479400 204.937060 8.461868 0.000000
230.100300 204.704250 8.451019 0.000000
237.088290 205.133590 8.585859 0.000000
236.831180 204.872620 8.578251 0.000000
229.772080 204.373020 8.426058 0.000000
229.302870 204.311630 8.435326 0.000000
245.445830 205.151690 8.733445 0.000000
236.436310 204.490690 8.566895 0.000000
228.935150 204.047160 8.416783 0.000000
228.668640 203.913970 8.409320 0.000000
228.128800 203.659970 8.394321 0.000000
224.149370 203.294310 8.403425 0.000000
223.720670 203.258700 8.398752 0.000000
244.941350 204.899340 8.741270 0.000000
236.124950 204.018480 8.543433 0.000000
235.669160 203.975880 8.560008 0.000000
227.705660 203.514680 8.387308 0.000000
227.266770 203.416530 8.385134 0.000000
226.967800 203.375930 8.386036 0.000000
226.511730 203.354220 8.391128 0.000000
226.059310 203.338150 8.395720 0.000000
225.760540 203.328950 8.398182 0.000000
225.316590 203.315860 8.400800 0.000000
224.883150 203.267640 8.397889 0.000000
224.597550 203.222890 8.393625 0.000000
223.438960 203.200090 8.390553 0.000000
223.012740 203.133580 8.379823 0.000000
222.583330 203.095700 8.371567 0.000000
222.152920 203.055890 8.361681 0.000000
221.721020 202.999590 8.348598 0.000000
221.429930 202.898120 8.331039 0.000000
220.994140 202.912750 8.324604 0.000000
244.989170 204.296770 8.708201 0.000000
235.126270 203.491560 8.542953 0.000000
234.701370 203.439620 8.555785 0.000000
234.273330 203.404560 8.569617 0.000000
233.867510 203.353420 8.580673 0.000000
233.482790 203.285030 8.588911 0.000000
244.570370 203.996490 8.708994 0.000000
232.835020 202.997670 8.586236 0.000000
232.542020 202.811980 8.579321 0.000000
244.303510 203.596280 8.697956 0.000000
243.618730 203.502170 8.719078 0.000000
242.932980 203.430510 8.740929 0.000000
242.490750 203.189090 8.743672 0.000000
232.245970 202.631440 8.572434 0.000000
232.001280 202.364640 8.555598 0.000000
231.645020 202.285690 8.558742 0.000000
241.985090 203.008410 8.751661 0.000000
241.614470 202.726000 8.748412 0.000000
231.049960 201.928340 8.541693 0.000000
241.261170 202.433030 8.743416 0.000000
230.736510 201.779190 8.535547 0.000000
230.409320 201.659120 8.531957 0.000000
229.903750 201.517300 8.529496 0.000000
241.048950 202.015240 8.725626 0.000000
240.498580 201.909760 8.737533 0.000000
240.020460 201.749880 8.743223 0.000000
229.313340 200.671600 8.459056 0.000000
228.957790 200.609880 8.458991 0.000000
239.405960 201.107390 8.722112 0.000000
228.652800 200.414310 8.444442 0.000000
228.322390 200.284880 8.436245 0.000000
228.080520 199.269560 8.338082 0.000000
239.925770 199.889590 8.628592 0.000000
239.424590 199.750930 8.634250 0.000000
227.549940 199.104550 8.326894 0.000000
227.207030 198.951890 8.314294 0.000000
226.853550 198.833530 8.304666 0.000000
226.505170 198.687640 8.291652 0.000000
226.153440 198.546600 8.278575 0.000000
240.057310 198.307860 8.521780 0.000000
225.619170 197.236500 8.145352 0.000000
225.233540 197.145480 8.135673 0.000000
224.849080 197.037720 8.123671 0.000000
224.464320 196.915940 8.109617 0.000000
240.433490 197.091190 8.430830 0.000000
239.875210 196.973820 8.437819 0.000000
239.293820 196.901020 8.447839 0.000000
239.382870 195.947240 8.380389 0.000000
238.864760 195.788500 8.381797 0.000000
239.015410 194.675740 8.300715 0.000000
238.444820 194.580170 8.306549 0.000000
237.891160 194.473540 8.310636 0.000000
243.572400 186.802900 10.223442 0.000000
242.953490 186.497730 10.209361 0.000000
241.394320 187.657290 11.838169 0.000000
241.233140 186.648010 11.853576 0.000000
240.402270 188.019940 12.593579 0.000000
242.579240 188.200240 12.694633 0.000000
234.670720 192.384750 8.101192 0.000000
234.219710 192.095140 8.085850 0.000000
234.621770 190.031010 7.919595 0.000000
234.179290 189.630490 7.894244 0.000000
233.739460 189.208440 7.866513 0.000000
233.281810 188.809940 7.840194 0.000000
232.800480 188.452850 7.816756 0.000000
232.728610 186.998570 7.701056 0.000000
232.172680 186.755860 7.686106 0.000000
231.617030 186.508010 7.670046 0.000000
231.082140 186.188580 7.647356 0.000000
228.648380 210.888930 8.545917 0.000000
226.496350 211.067410 8.520416 0.000000
226.202120 210.860470 8.511579 0.000000
225.901610 210.662630 8.502926 0.000000
231.443880 210.928650 8.579625 0.000000
228.495860 210.750080 8.541573 0.000000
228.265010 210.544220 8.534451 0.000000
225.748410 210.568130 8.498654 0.000000
225.436610 210.388170 8.490211 0.000000
225.119290 210.217960 8.482000 0.000000
239.040660 211.042370 8.735835 0.000000
234.544600 210.708310 8.634271 0.000000
231.051860 210.467860 8.566996 0.000000
227.878920 210.201980 8.520042 0.000000
224.958240 210.137340 8.477919 0.000000
224.713730 210.022370 8.471926 0.000000
224.304490 209.832930 8.459650 0.000000
238.973650 210.681140 8.720116 0.000000
234.326020 210.333880 8.622227 0.000000
230.645170 210.020680 8.553800 0.000000
227.478490 209.875690 8.505789 0.000000
227.144150 209.632260 8.495384 0.000000
223.888490 209.656750 8.446899 0.000000
223.549470 209.529720 8.436953 0.000000
223.118410 209.389790 8.425076 0.000000
222.680250 209.272190 8.414390 0.000000
222.325410 209.194230 8.406419 0.000000
222.057430 209.144000 8.400657 0.000000
238.798160 210.369750 8.713674 0.000000
234.174160 210.087630 8.614200 0.000000
234.018040 209.843810 8.606139 0.000000
230.304260 209.678050 8.543566 0.000000
230.041170 209.428920 8.535962 0.000000
226.712650 209.347170 8.482920 0.000000
226.359620 209.131010 8.473029 0.000000
221.877980 209.114550 8.396860 0.000000
221.607600 209.077480 8.391434 0.000000
221.154940 209.030430 8.382454 0.000000
238.714970 210.011580 8.698081 0.000000
238.433440 209.756380 8.700580 0.000000
233.858090 209.602230 8.597998 0.000000
233.688310 209.367510 8.590602 0.000000
229.861760 209.267300 8.530971 0.000000
229.687640 209.099930 8.524363 0.000000
226.179630 209.028700 8.468256 0.000000
225.906720 208.880250 8.460922 0.000000
225.542950 208.680590 8.449011 0.000000
245.671630 210.096120 8.834423 0.000000
233.514560 209.135600 8.583180 0.000000
233.337710 208.905870 8.575616 0.000000
229.511670 208.934200 8.517526 0.000000
229.241790 208.691650 8.507299 0.000000
225.173250 208.490230 8.436643 0.000000
224.795940 208.313720 8.424610 0.000000
224.508610 208.189990 8.415773 0.000000
245.645720 209.603240 8.814870 0.000000
238.103790 209.125020 8.682029 0.000000
233.149580 208.685290 8.569099 0.000000
232.970750 208.456620 8.560659 0.000000
228.871960 208.378940 8.493791 0.000000
228.587840 208.151950 8.483642 0.000000
224.314990 208.111720 8.409906 0.000000
224.021350 208.001770 8.401319 0.000000
223.625110 207.866740 8.390062 0.000000
223.223510 207.746430 8.379158 0.000000
222.816390 207.644650 8.369249 0.000000
222.509020 207.575030 8.361576 0.000000
245.616990 209.105710 8.794710 0.000000
237.940830 208.807300 8.671695 0.000000
237.651470 208.568220 8.673502 0.000000
232.780930 208.237120 8.553245 0.000000
232.588200 208.020030 8.545693 0.000000
228.394680 208.005080 8.476926 0.000000
228.098500 207.793180 8.467197 0.000000
222.302960 207.532790 8.356433 0.000000
221.992070 207.477620 8.349004 0.000000
221.679630 207.430040 8.341758 0.000000
221.365520 207.392490 8.334820 0.000000
220.944930 207.357220 8.326229 0.000000
244.992460 208.858230 8.812498 0.000000
237.702160 208.111210 8.640215 0.000000
232.391820 207.806080 8.538117 0.000000
232.191360 207.595760 8.530596 0.000000
227.696810 207.519380 8.453880 0.000000
227.282120 207.265030 8.441588 0.000000
245.042720 208.324720 8.786034 0.000000
237.329070 207.713520 8.634824 0.000000
231.985890 207.390290 8.523303 0.000000
231.773350 207.192110 8.516600 0.000000
226.857960 207.026030 8.429582 0.000000
226.534470 206.856110 8.420694 0.000000
226.317140 206.745620 8.414477 0.000000
244.934690 207.855670 8.769161 0.000000
237.052760 207.250320 8.618268 0.000000
231.555450 206.999850 8.510251 0.000000
231.334670 206.810990 8.503859 0.000000
226.096410 206.641970 8.408788 0.000000
225.762940 206.491100 8.399860 0.000000
225.311750 206.304310 8.388341 0.000000
224.969330 206.173610 8.379763 0.000000
244.339810 207.622920 8.784672 0.000000
236.862790 206.943980 8.606999 0.000000
230.996830 206.535890 8.494372 0.000000
230.653840 206.267440 8.484747 0.000000
224.623410 206.051390 8.371096 0.000000
224.158020 205.899140 8.359313 0.000000
223.805940 205.793060 8.350313 0.000000
223.450040 205.699110 8.341750 0.000000
223.092190 205.611330 8.332993 0.000000
244.352570 207.093860 8.758492 0.000000
236.632200 206.668150 8.599619 0.000000
236.397320 206.396240 8.592206 0.000000
230.420930 206.094100 8.478408 0.000000
230.184940 205.925030 8.472128 0.000000
222.851580 205.561370 8.327694 0.000000
222.610050 205.515230 8.322405 0.000000
222.246020 205.454270 8.314577 0.000000
221.758150 205.386550 8.304290 0.000000
221.390580 205.346450 8.296756 0.000000
221.021680 205.316330 8.289299 0.000000
236.151990 206.133620 8.585493 0.000000
235.919800 205.860310 8.576735 0.000000
229.826420 205.678070 8.462534 0.000000
229.464580 205.435970 8.452519 0.000000
243.935840 206.252730 8.734537 0.000000
235.675800 205.597410 8.568837 0.000000
229.279210 205.184110 8.432545 0.000000
228.980350 205.114720 8.437380 0.000000
228.733900 204.960280 8.429856 0.000000
235.428500 205.337770 8.560809 0.000000
235.177280 205.082080 8.552738 0.000000
228.384480 204.688170 8.412030 0.000000
227.978120 204.522430 8.407505 0.000000
243.983570 205.681410 8.703121 0.000000
243.488250 205.426420 8.710507 0.000000
234.921480 204.831020 8.544712 0.000000
234.664900 204.580900 8.536250 0.000000
227.461620 204.251460 8.392702 0.000000
227.198760 204.124690 8.385641 0.000000
242.992420 205.183720 8.718028 0.000000
234.488660 204.243730 8.516387 0.000000
234.045850 204.198320 8.532233 0.000000
226.982680 203.885620 8.363236 0.000000
226.667390 203.881910 8.371292 0.000000
226.399600 203.764160 8.363774 0.000000
225.972350 203.655580 8.360265 0.000000
225.582550 203.440580 8.341794 0.000000
224.847060 203.354690 8.343270 0.000000
224.400940 203.340970 8.347378 0.000000
223.960080 203.328320 8.350174 0.000000
223.522890 203.316570 8.351948 0.000000
223.233470 203.309970 8.352539 0.000000
222.802760 203.296250 8.351841 0.000000
222.376720 203.262270 8.347464 0.000000
221.951420 203.231450 8.342125 0.000000
221.525700 203.211490 8.337089 0.000000
221.241910 203.203510 8.333693 0.000000
220.816380 203.200420 8.328651 0.000000
243.025240 204.606310 8.685295 0.000000
233.874240 203.852260 8.510325 0.000000
242.616940 204.314850 8.685531 0.000000
233.252410 203.481640 8.504164 0.000000
232.842740 203.428240 8.515750 0.000000
232.423550 203.399720 8.529360 0.000000
232.021530 203.360980 8.540876 0.000000
231.641750 203.302610 8.549283 0.000000
231.303510 203.192670 8.551010 0.000000
242.688750 203.691310 8.647607 0.000000
241.395160 203.482190 8.685265 0.000000
230.867400 202.926700 8.540855 0.000000
242.098570 203.535260 8.661558 0.000000
240.747250 203.408770 8.705156 0.000000
240.145630 203.318370 8.721810 0.000000
239.742770 203.078310 8.721696 0.000000
230.478900 202.581300 8.520737 0.000000
230.129620 202.503270 8.523699 0.000000
239.390700 202.800740 8.716968 0.000000
229.570180 202.106120 8.501143 0.000000
229.321060 201.841770 8.481937 0.000000
229.003250 201.709750 8.476769 0.000000
239.174350 202.403630 8.699581 0.000000
238.586700 202.350850 8.716035 0.000000
228.662690 201.628680 8.476594 0.000000
228.315670 201.568190 8.478065 0.000000
227.840380 201.378270 8.468461 0.000000
238.336870 201.987880 8.700939 0.000000
237.897670 201.812320 8.703620 0.000000
227.395870 201.114170 8.449827 0.000000
227.122960 200.862990 8.428747 0.000000
237.309190 201.175460 8.679594 0.000000
236.887330 200.997560 8.680096 0.000000
226.675310 200.003490 8.347312 0.000000
226.343050 199.872270 8.337659 0.000000
225.982190 199.838580 8.337791 0.000000
225.507430 199.542620 8.310955 0.000000
225.000760 199.348340 8.293804 0.000000
