# .PCD v0.7 - Point Cloud Data file format
VERSION 0.7
FIELDS x y z intensity
SIZE 4 4 4 4
TYPE F F F F
COUNT 1 1 1 1
WIDTH 1205
HEIGHT 1
VIEWPOINT 0 0 0 1 0 0 0
POINTS 1205
DATA ascii
225.208330 -2.151136 -0.438656 0.000000
237.062160 -2.403667 -0.258129 0.000000
224.992400 -1.603372 -0.413257 0.000000
224.808270 -1.071922 -0.390659 0.000000
236.683030 -1.643945 -0.231113 0.000000
224.625240 -0.550107 -0.368895 0.000000
236.338070 -0.904729 -0.206250 0.000000
224.444550 -0.037684 -0.348015 0.000000
236.132900 -0.193772 -0.187611 0.000000
224.168090 0.476924 -0.321973 0.000000
224.036870 0.966064 -0.305555 0.000000
236.038010 0.499085 -0.173919 0.000000
223.942570 1.915971 -0.284814 0.000000
235.920090 1.188142 -0.159930 0.000000
223.902330 2.386533 -0.275726 0.000000
223.856630 2.855117 -0.266874 0.000000
235.638670 2.551160 -0.131976 0.000000
223.802720 3.321768 -0.258089 0.000000
223.740660 3.786321 -0.249374 0.000000
235.874680 3.221259 -0.133169 0.000000
223.676910 4.248812 -0.241108 0.000000
223.857680 4.720481 -0.247893 0.000000
236.437700 3.902558 -0.147137 0.000000
236.942960 4.602158 -0.159249 0.000000
223.941560 5.193150 -0.249421 0.000000
224.025620 5.669799 -0.251468 0.000000
237.342850 5.315379 -0.167770 0.000000
224.109770 6.150716 -0.254035 0.000000
224.209270 6.637965 -0.258027 0.000000
223.530930 7.027380 -0.216752 0.000000
223.793520 7.536552 -0.231422 0.000000
226.827710 9.679773 -0.805172 0.000000
237.739750 9.302164 -0.786444 0.000000
228.294750 10.547432 -0.921387 0.000000
236.899870 9.854826 -0.737004 0.000000
222.547910 10.941780 -1.036156 0.000000
227.718540 10.941935 -0.880116 0.000000
235.901610 10.351779 -0.679720 0.000000
234.946910 10.825964 -0.625672 0.000000
230.588380 7.659664 -0.395038 0.000000
222.915010 -13.610924 -0.615664 0.000000
221.368230 -13.108866 -0.520460 0.000000
223.533450 -13.411667 -0.632983 0.000000
223.716060 -12.908432 -0.615395 0.000000
224.338100 -12.073669 -0.602538 0.000000
240.664860 -12.937370 -0.476860 0.000000
224.325870 -11.463915 -0.572336 0.000000
240.518370 -12.047844 -0.445077 0.000000
224.994490 -11.250608 -0.594252 0.000000
224.964610 -10.058661 -0.537849 0.000000
225.693660 -9.849033 -0.564661 0.000000
240.259780 -10.329138 -0.386185 0.000000
240.159290 -9.500725 -0.359442 0.000000
226.461430 -8.476887 -0.545171 0.000000
240.020950 -8.673674 -0.332071 0.000000
242.146550 -8.484606 -0.397448 0.000000
226.452470 -7.348639 -0.499694 0.000000
241.991440 -7.636819 -0.370129 0.000000
226.440730 -6.793743 -0.477827 0.000000
241.871250 -6.810336 -0.345119 0.000000
227.237490 -5.979100 -0.490143 0.000000
227.248520 -5.436858 -0.471721 0.000000
241.726760 -5.989545 -0.320022 0.000000
227.181960 -4.877300 -0.449128 0.000000
241.545150 -5.172575 -0.294345 0.000000
227.306000 -4.378292 -0.439444 0.000000
227.258770 -3.835772 -0.419635 0.000000
241.266770 -4.349847 -0.265824 0.000000
227.269060 -3.313443 -0.404183 0.000000
227.278000 -2.794805 -0.389350 0.000000
240.921860 -3.531039 -0.235696 0.000000
228.003780 -2.424472 -0.418940 0.000000
240.698210 -2.746919 -0.211051 0.000000
227.806080 -1.861874 -0.392601 0.000000
240.366610 -1.960588 -0.183210 0.000000
227.640060 -1.315012 -0.369032 0.000000
227.475510 -0.777287 -0.346359 0.000000
240.080150 -1.194447 -0.157896 0.000000
227.309230 -0.247865 -0.324370 0.000000
240.012280 -0.462070 -0.141353 0.000000
227.144930 0.273163 -0.303259 0.000000
226.949200 0.789395 -0.281052 0.000000
239.964540 0.263937 -0.126176 0.000000
226.883540 1.777178 -0.257639 0.000000
226.837630 2.268214 -0.246087 0.000000
239.875660 1.705241 -0.097886 0.000000
226.813890 2.756365 -0.236398 0.000000
240.002440 2.417454 -0.090658 0.000000
226.782470 3.243329 -0.226851 0.000000
226.741970 3.728970 -0.217365 0.000000
240.544940 3.130343 -0.098438 0.000000
226.884080 4.218409 -0.218732 0.000000
241.043870 3.861524 -0.104977 0.000000
227.125690 5.211224 -0.220554 0.000000
241.554230 4.610670 -0.112213 0.000000
227.357210 5.724311 -0.228389 0.000000
227.743130 6.262003 -0.245277 0.000000
228.189710 6.822001 -0.265972 0.000000
241.890990 6.795924 5.560381 0.000000
241.848910 6.779199 6.506629 0.000000
241.849320 6.765713 7.462015 0.000000
241.820390 6.749887 8.418439 0.000000
242.826570 8.212391 -0.852262 0.000000
241.132970 8.732872 -0.759239 0.000000
222.033810 9.710087 -0.728843 0.000000
240.112290 9.297842 -0.702751 0.000000
230.342590 10.515871 -0.853883 0.000000
231.047530 10.129112 -0.903109 0.000000
239.239840 9.855049 -0.654966 0.000000
224.468600 10.887398 -0.977815 0.000000
229.745380 10.909197 -0.813424 0.000000
238.194080 10.352702 -0.598891 0.000000
237.195040 10.826556 -0.546066 0.000000
226.646150 -13.722271 -0.581337 0.000000
227.403170 -13.561462 -0.606386 0.000000
227.429320 -12.931667 -0.577568 0.000000
228.346540 -12.196167 -0.584840 0.000000
228.303070 -11.543955 -0.553746 0.000000
229.064990 -10.090651 -0.527507 0.000000
229.879820 -9.251270 -0.533077 0.000000
229.857420 -8.642738 -0.508584 0.000000
221.167660 -7.673544 -0.564003 0.000000
229.804760 -7.450632 -0.462030 0.000000
221.620290 -6.543597 -0.534660 0.000000
229.775380 -6.866600 -0.439968 0.000000
230.657100 -6.594183 -0.475083 0.000000
222.075530 -5.862006 -0.532155 0.000000
230.642490 -6.013079 -0.455107 0.000000
222.000600 -5.392510 -0.504915 0.000000
230.531490 -5.410418 -0.430149 0.000000
230.636750 -4.877425 -0.419085 0.000000
222.553150 -4.311800 -0.495894 0.000000
222.507550 -3.871510 -0.474463 0.000000
230.550450 -4.296635 -0.397312 0.000000
222.615710 -3.486078 -0.466843 0.000000
230.529540 -3.739637 -0.380239 0.000000
223.052250 -2.776961 -0.471681 0.000000
231.314160 -2.808338 -0.396182 0.000000
223.044770 -2.358287 -0.456285 0.000000
231.088290 -2.213555 -0.369192 0.000000
230.887620 -1.634639 -0.344544 0.000000
231.484390 6.365491 -0.255831 0.000000
225.133090 8.365668 -0.456583 0.000000
221.216130 -13.458483 -0.343949 0.000000
221.167040 -6.768815 -0.515796 0.000000
222.079830 -4.566167 -0.473346 0.000000
222.551800 -3.050446 -0.445506 0.000000
230.517840 -3.190028 -0.364467 0.000000
245.565030 -3.284629 -0.171650 0.000000
222.880580 -1.906266 -0.428890 0.000000
222.848050 -1.492657 -0.413049 0.000000
245.096010 -2.426070 -0.140552 0.000000
222.810440 -1.082330 -0.397540 0.000000
222.619290 -0.647984 -0.370524 0.000000
230.689360 -1.066395 -0.320886 0.000000
244.835880 -1.611327 -0.117485 0.000000
222.517990 -0.237961 -0.351484 0.000000
230.493640 -0.508334 -0.298196 0.000000
230.299350 0.040230 -0.276384 0.000000
244.728900 -0.823463 -0.100357 0.000000
222.820140 0.499055 -0.355132 0.000000
222.716110 0.901488 -0.337855 0.000000
230.093890 0.580930 -0.254728 0.000000
222.661290 1.294056 -0.325096 0.000000
222.643590 1.680542 -0.315853 0.000000
229.990860 1.617353 -0.230550 0.000000
244.512940 0.733824 -0.068104 0.000000
222.621060 2.256888 -0.303528 0.000000
229.924420 2.131728 -0.218603 0.000000
244.502560 1.499967 -0.056173 0.000000
222.597980 2.830806 -0.292369 0.000000
222.581240 3.212202 -0.285624 0.000000
229.851610 2.643173 -0.206939 0.000000
245.093170 2.249396 -0.064321 0.000000
222.564610 3.592908 -0.279476 0.000000
229.782010 3.151614 -0.196074 0.000000
222.548030 3.973160 -0.273919 0.000000
229.735260 3.657705 -0.187052 0.000000
245.699190 3.018655 -0.073276 0.000000
222.531460 4.353207 -0.268944 0.000000
229.936540 4.169110 -0.191920 0.000000
222.163120 5.086723 -0.235569 0.000000
230.276600 4.694251 -0.204699 0.000000
222.228820 5.469649 -0.238532 0.000000
230.669360 5.235353 -0.220748 0.000000
222.376130 5.865575 -0.248168 0.000000
222.377760 6.248866 -0.247454 0.000000
231.071870 5.792133 -0.237781 0.000000
222.375630 6.633431 -0.247037 0.000000
222.503940 7.041943 -0.256970 0.000000
222.583710 7.448281 -0.263863 0.000000
241.917220 6.646946 0.089161 0.000000
241.930040 6.637178 0.990647 0.000000
241.882020 6.622603 1.891513 0.000000
241.857190 6.609875 2.791542 0.000000
241.844330 6.598081 3.692469 0.000000
241.835400 6.586577 4.595327 0.000000
241.837840 6.575928 5.501993 0.000000
241.844880 6.565585 6.413233 0.000000
241.868290 6.556451 7.332029 0.000000
244.425510 8.113354 -0.796614 0.000000
230.931120 9.110573 -0.718476 0.000000
242.834170 8.644305 -0.709200 0.000000
241.956100 9.229565 -0.659963 0.000000
226.699020 10.492951 -0.975163 0.000000
231.985410 10.405993 -0.801853 0.000000
232.724990 10.029232 -0.853769 0.000000
241.006730 9.775175 -0.607945 0.000000
222.070880 11.029849 -1.028244 0.000000
225.633290 11.062918 -0.887642 0.000000
226.235660 10.807676 -0.937950 0.000000
231.412480 10.803366 -0.763012 0.000000
240.058460 10.290981 -0.556860 0.000000
239.054700 10.765619 -0.503730 0.000000
229.210210 -13.672012 -0.599315 0.000000
229.230290 -13.037510 -0.569174 0.000000
230.084640 -11.636621 -0.541589 0.000000
220.800490 -10.700205 -0.600836 0.000000
230.846570 -10.793358 -0.539204 0.000000
221.313460 -10.078804 -0.589577 0.000000
221.675540 -9.838644 -0.595693 0.000000
230.884320 -10.200001 -0.515529 0.000000
230.832350 -9.574392 -0.486896 0.000000
222.080510 -9.135469 -0.576435 0.000000
222.086290 -8.665123 -0.548340 0.000000
231.650120 -8.737522 -0.492429 0.000000
222.937560 -7.760682 -0.550183 0.000000
231.644380 -8.144415 -0.469200 0.000000
231.631200 -7.556831 -0.446445 0.000000
223.332200 -6.602738 -0.513803 0.000000
231.618580 -6.977483 -0.424642 0.000000
223.496540 -6.235574 -0.506077 0.000000
232.462650 -6.690815 -0.456537 0.000000
232.456560 -6.111594 -0.436312 0.000000
223.806920 -5.493699 -0.490854 0.000000
223.949740 -5.117923 -0.483082 0.000000
232.360690 -5.512440 -0.411514 0.000000
232.465990 -4.978205 -0.399666 0.000000
224.381000 -4.417874 -0.481852 0.000000
232.391750 -4.399296 -0.377863 0.000000
224.341890 -3.978488 -0.460373 0.000000
224.456790 -3.593775 -0.452703 0.000000
232.379230 -3.842857 -0.360530 0.000000
224.909230 -2.885986 -0.457578 0.000000
232.362010 -3.290442 -0.343687 0.000000
224.891240 -2.462857 -0.440721 0.000000
233.105830 -2.896528 -0.371401 0.000000
232.908110 -2.306438 -0.345360 0.000000
232.735890 -1.731244 -0.321659 0.000000
233.083500 5.193861 -0.218521 0.000000
233.467000 5.760638 -0.233503 0.000000
233.783460 6.335848 -0.245465 0.000000
227.638750 7.980834 -0.473095 0.000000
222.174870 8.773967 -0.526954 0.000000
220.895890 -10.271305 -0.577697 0.000000
222.950450 -6.862417 -0.502043 0.000000
223.899400 -4.670540 -0.459237 0.000000
224.399580 -3.158646 -0.431339 0.000000
224.728650 -2.009700 -0.412908 0.000000
224.704390 -1.596345 -0.397164 0.000000
224.674090 -1.185787 -0.381674 0.000000
224.488630 -0.750692 -0.354598 0.000000
232.565320 -1.165594 -0.298895 0.000000
224.393110 -0.339718 -0.335485 0.000000
232.396580 -0.609056 -0.277049 0.000000
232.229710 -0.061117 -0.256100 0.000000
224.711500 0.399283 -0.339168 0.000000
224.613160 0.803350 -0.321812 0.000000
232.088960 0.476377 -0.237356 0.000000
224.581850 1.196070 -0.310333 0.000000
224.552610 1.586235 -0.299656 0.000000
232.014760 1.519257 -0.213303 0.000000
224.531430 2.166411 -0.286624 0.000000
231.962980 2.037591 -0.201438 0.000000
224.517030 2.743995 -0.275326 0.000000
224.506290 3.128103 -0.268505 0.000000
231.904680 2.553502 -0.189854 0.000000
224.495610 3.511730 -0.262281 0.000000
231.836400 3.067014 -0.178362 0.000000
224.484950 3.895113 -0.256649 0.000000
231.894670 3.579272 -0.174230 0.000000
224.497860 4.279565 -0.253362 0.000000
224.068710 4.637332 -0.217691 0.000000
232.342180 4.104431 -0.191286 0.000000
224.141740 5.021204 -0.220090 0.000000
232.708620 4.642070 -0.204456 0.000000
224.214890 5.408704 -0.223050 0.000000
224.379870 6.198069 -0.232038 0.000000
224.383040 6.587741 -0.231510 0.000000
224.629040 7.020566 -0.249564 0.000000
241.895690 6.423252 0.188223 0.000000
241.903840 6.412500 1.050735 0.000000
241.928270 6.403036 1.913443 0.000000
245.695160 7.984776 -0.754620 0.000000
244.124730 8.511484 -0.667548 0.000000
222.073390 9.931931 -0.784365 0.000000
227.051540 9.588390 -0.814433 0.000000
234.814060 9.482980 -0.858574 0.000000
243.260250 9.092052 -0.618270 0.000000
234.237780 9.913079 -0.817469 0.000000
228.336260 10.402904 -0.946091 0.000000
233.558670 10.301534 -0.769497 0.000000
242.517530 9.665949 -0.576239 0.000000
223.679780 10.925826 -0.993662 0.000000
227.222690 10.955453 -0.853057 0.000000
227.821230 10.700590 -0.903390 0.000000
233.017530 10.705356 -0.732472 0.000000
241.590440 10.182857 -0.525549 0.000000
231.973920 10.953873 -0.658752 0.000000
240.598820 10.657495 -0.472382 0.000000
221.851350 -11.835397 -0.639557 0.000000
231.524250 -12.215681 -0.555717 0.000000
221.845370 -11.306370 -0.601352 0.000000
231.528840 -11.595307 -0.526693 0.000000
222.234310 -11.105348 -0.608974 0.000000
222.470750 -10.779900 -0.599910 0.000000
231.528960 -10.984067 -0.498511 0.000000
222.924820 -10.116638 -0.581695 0.000000
232.294400 -10.763876 -0.524077 0.000000
223.265960 -9.863697 -0.585472 0.000000
232.296840 -9.561942 -0.471834 0.000000
233.115510 -9.329216 -0.501230 0.000000
233.110860 -8.732081 -0.476553 0.000000
224.093110 -8.015636 -0.522851 0.000000
224.525770 -7.796019 -0.538073 0.000000
233.104930 -8.143135 -0.452770 0.000000
224.570940 -7.364812 -0.516695 0.000000
233.092220 -7.559908 -0.429501 0.000000
233.079760 -6.984735 -0.407168 0.000000
225.094300 -6.282379 -0.493443 0.000000
233.886310 -6.689718 -0.436623 0.000000
225.473600 -6.009791 -0.505316 0.000000
233.887800 -6.117617 -0.416336 0.000000
225.410610 -5.545962 -0.478036 0.000000
225.557170 -5.173019 -0.470222 0.000000
233.802190 -5.526035 -0.391592 0.000000
233.912870 -4.997603 -0.379582 0.000000
225.993880 -4.477409 -0.468777 0.000000
225.959790 -4.040813 -0.447242 0.000000
233.847550 -4.425157 -0.357744 0.000000
221.377880 -3.184081 -0.490385 0.000000
226.078860 -3.658430 -0.439517 0.000000
226.537090 -2.954102 -0.444141 0.000000
234.536770 -2.929261 -0.348469 0.000000
226.497420 -2.526209 -0.425022 0.000000
234.365450 -2.348351 -0.323337 0.000000
234.869810 5.119660 -0.205867 0.000000
235.175780 5.682209 -0.216121 0.000000
237.215450 6.425981 -0.317511 0.000000
231.139370 8.242026 -0.585867 0.000000
221.024020 -12.177104 -0.620325 0.000000
221.306880 -11.895590 -0.614518 0.000000
224.544100 -6.904052 -0.489560 0.000000
225.511540 -4.728631 -0.446300 0.000000
220.756620 -3.961478 -0.478578 0.000000
221.006900 -3.723681 -0.486975 0.000000
221.126130 -3.429343 -0.481063 0.000000
233.842540 -3.874483 -0.340310 0.000000
221.346300 -2.833657 -0.469025 0.000000
226.026410 -3.225618 -0.418059 0.000000
221.449340 -2.533305 -0.463144 0.000000
221.408980 -2.188000 -0.442456 0.000000
221.579470 -1.909789 -0.445086 0.000000
221.599030 -1.587012 -0.432224 0.000000
226.340650 -2.075626 -0.397165 0.000000
221.612240 -1.265025 -0.419408 0.000000
226.321930 -1.664572 -0.381407 0.000000
234.203060 -1.778616 -0.299592 0.000000
221.496110 -0.914697 -0.393828 0.000000
226.296920 -1.256053 -0.365879 0.000000
226.117940 -0.823011 -0.338804 0.000000
234.042180 -1.218028 -0.276771 0.000000
221.612950 -0.147165 -0.375408 0.000000
226.027110 -0.413563 -0.319582 0.000000
233.882840 -0.666162 -0.254854 0.000000
221.591840 0.327404 -0.356802 0.000000
233.753970 -0.125761 -0.235421 0.000000
221.570340 0.641754 -0.344540 0.000000
226.352480 0.323184 -0.322992 0.000000
221.542100 1.108234 -0.327858 0.000000
226.274110 0.724477 -0.306706 0.000000
233.652690 0.405403 -0.218257 0.000000
221.445830 1.577052 -0.305704 0.000000
226.249510 1.116375 -0.295275 0.000000
221.444660 1.880522 -0.298047 0.000000
226.224960 1.506112 -0.284488 0.000000
233.602520 1.443063 -0.194334 0.000000
221.443660 2.334076 -0.287830 0.000000
226.200500 1.893937 -0.274339 0.000000
233.559040 1.959582 -0.182319 0.000000
221.442120 2.786512 -0.278733 0.000000
226.180830 2.664118 -0.258114 0.000000
226.187130 2.279637 -0.265656 0.000000
221.440380 3.087692 -0.273376 0.000000
226.174590 3.048052 -0.251174 0.000000
233.509140 2.473965 -0.170587 0.000000
221.438660 3.388730 -0.268596 0.000000
226.168400 3.431664 -0.244828 0.000000
233.449630 2.986239 -0.158963 0.000000
221.516130 3.843301 -0.270331 0.000000
226.162230 3.815185 -0.239069 0.000000
233.657320 3.498957 -0.162206 0.000000
221.471360 4.295227 -0.261356 0.000000
226.202450 4.200962 -0.237363 0.000000
221.490040 4.599855 -0.260827 0.000000
225.777370 4.559569 -0.201516 0.000000
234.110580 4.025814 -0.178962 0.000000
221.506710 5.058627 -0.260080 0.000000
225.854770 4.944429 -0.203781 0.000000
234.485780 4.565499 -0.191965 0.000000
221.647020 5.536980 -0.272384 0.000000
221.393390 5.809411 -0.247939 0.000000
226.095890 5.735671 -0.216363 0.000000
221.499240 6.135185 -0.258683 0.000000
226.164280 6.132937 -0.219616 0.000000
221.464750 6.753327 -0.258243 0.000000
226.307970 6.545800 -0.229018 0.000000
221.308550 7.033679 -0.245494 0.000000
226.616700 6.993711 -0.251212 0.000000
221.389300 7.527353 -0.258006 0.000000
241.917400 6.801811 5.242285 0.000000
241.859040 6.784375 6.072547 0.000000
241.870270 6.773499 6.914861 0.000000
241.829800 6.757664 7.754242 0.000000
234.817110 8.535091 -0.706067 0.000000
245.498170 8.397853 -0.627889 0.000000
236.412660 9.385384 -0.824216 0.000000
244.649220 8.973577 -0.578641 0.000000
229.945650 9.838504 -0.900523 0.000000
235.844070 9.814041 -0.783078 0.000000
225.565630 10.515285 -0.970893 0.000000
230.010310 10.311088 -0.913022 0.000000
235.172700 10.201291 -0.735100 0.000000
243.921920 9.543182 -0.536654 0.000000
222.135560 11.072039 -1.016766 0.000000
224.996200 11.069429 -0.925606 0.000000
225.379820 10.834589 -0.960090 0.000000
228.999310 10.894424 -0.829146 0.000000
229.498020 10.607798 -0.870127 0.000000
234.638240 10.603954 -0.697997 0.000000
243.037060 10.061266 -0.487416 0.000000
233.746430 10.891838 -0.635058 0.000000
242.182560 10.557987 -0.440622 0.000000
231.534850 -13.745183 -0.554967 0.000000
222.299100 -12.876740 -0.643785 0.000000
232.226200 -13.550189 -0.574621 0.000000
222.572630 -12.585478 -0.635261 0.000000
232.235310 -12.919301 -0.542695 0.000000
222.839870 -12.288545 -0.626587 0.000000
223.101680 -11.986970 -0.617886 0.000000
232.261260 -12.311301 -0.513288 0.000000
232.972660 -12.100813 -0.534886 0.000000
233.751400 -10.674720 -0.503334 0.000000
224.903720 -9.842289 -0.569954 0.000000
233.797000 -10.096648 -0.479336 0.000000
233.759080 -9.488636 -0.450661 0.000000
234.533260 -9.242821 -0.477248 0.000000
225.749690 -8.480434 -0.535905 0.000000
234.538830 -8.657180 -0.452861 0.000000
234.544010 -8.079544 -0.429405 0.000000
235.342290 -6.651101 -0.413548 0.000000
227.130340 -6.029179 -0.489456 0.000000
235.353970 -6.088243 -0.393457 0.000000
235.280880 -5.506162 -0.368990 0.000000
222.443770 -4.689525 -0.503335 0.000000
235.401490 -4.985912 -0.357183 0.000000
227.665820 -4.511009 -0.453008 0.000000
227.762510 -3.699421 -0.423986 0.000000
228.228870 -3.000366 -0.428695 0.000000
228.166870 -2.568193 -0.407288 0.000000
236.015010 -2.935937 -0.323854 0.000000
236.656720 5.056394 -0.189942 0.000000
236.949480 5.618393 -0.198907 0.000000
228.728910 6.985954 -0.256202 0.000000
242.014680 6.658859 -0.458205 0.000000
224.713930 8.025938 -0.388446 0.000000
222.050640 8.874788 -0.531842 0.000000
241.411970 11.047081 -0.398985 0.000000
220.810170 -13.028676 -0.582884 0.000000
221.324400 -13.012406 -0.606201 0.000000
221.876850 -13.017785 -0.633695 0.000000
223.465530 -11.252877 -0.583965 0.000000
223.853330 -11.055125 -0.591604 0.000000
232.999690 -10.895407 -0.478534 0.000000
224.920580 -9.373264 -0.540294 0.000000
225.235200 -9.103047 -0.542331 0.000000
225.326800 -8.691928 -0.522204 0.000000
225.749910 -8.020766 -0.508230 0.000000
226.229020 -7.375544 -0.501832 0.000000
220.923370 -6.919304 -0.534651 0.000000
234.541980 -7.506926 -0.406412 0.000000
221.238360 -6.560357 -0.532238 0.000000
226.199660 -6.916017 -0.474065 0.000000
226.583050 -6.661108 -0.485700 0.000000
234.540410 -6.941921 -0.384352 0.000000
221.441680 -6.129026 -0.516882 0.000000
226.658830 -6.257788 -0.469253 0.000000
221.840610 -5.811676 -0.527099 0.000000
222.136250 -5.247902 -0.513311 0.000000
227.070450 -5.568975 -0.462027 0.000000
222.187760 -4.918347 -0.495916 0.000000
227.221480 -5.199942 -0.454316 0.000000
227.182530 -4.760158 -0.430562 0.000000
222.467830 -4.178234 -0.473656 0.000000
222.720780 -3.770275 -0.471686 0.000000
227.638380 -4.078532 -0.431623 0.000000
235.346850 -4.421473 -0.335491 0.000000
222.840550 -3.477198 -0.465580 0.000000
235.352010 -3.878217 -0.318187 0.000000
223.065200 -2.885141 -0.453514 0.000000
227.716920 -3.270258 -0.402666 0.000000
223.170030 -2.586298 -0.447553 0.000000
223.118700 -2.238488 -0.425322 0.000000
223.298200 -1.800237 -0.421050 0.000000
228.017810 -2.121320 -0.379586 0.000000
235.867890 -2.364769 -0.299573 0.000000
223.327240 -1.320052 -0.401966 0.000000
228.004840 -1.713193 -0.363881 0.000000
235.723600 -1.802848 -0.276312 0.000000
223.218870 -0.972578 -0.376818 0.000000
227.986940 -1.307655 -0.348507 0.000000
227.817290 -0.877778 -0.321697 0.000000
235.575260 -1.248581 -0.253648 0.000000
223.343430 -0.208472 -0.358415 0.000000
227.733980 -0.470816 -0.302624 0.000000
235.428240 -0.702528 -0.231868 0.000000
223.329560 0.263914 -0.340036 0.000000
235.358760 -0.172755 -0.215207 0.000000
223.314740 0.576766 -0.328104 0.000000
228.069700 0.262583 -0.306124 0.000000
223.296690 1.041474 -0.311926 0.000000
228.016360 0.660179 -0.291341 0.000000
235.269580 0.354384 -0.198150 0.000000
223.201070 1.509867 -0.289292 0.000000
227.998140 1.051052 -0.279962 0.000000
223.204220 1.812829 -0.281724 0.000000
227.979950 1.439993 -0.269221 0.000000
235.262700 1.384217 -0.175509 0.000000
223.209490 2.265942 -0.271608 0.000000
227.961820 1.827249 -0.259112 0.000000
223.214170 2.718236 -0.262607 0.000000
227.931240 2.597556 -0.241177 0.000000
227.947630 2.212913 -0.249926 0.000000
235.230070 1.898423 -0.163520 0.000000
223.216770 3.019518 -0.257325 0.000000
227.931060 2.981199 -0.234259 0.000000
235.191010 2.410881 -0.151804 0.000000
223.219330 3.320810 -0.252619 0.000000
227.930910 3.364731 -0.227930 0.000000
235.172560 2.921391 -0.141814 0.000000
223.301280 3.776031 -0.254278 0.000000
227.930790 3.748389 -0.222186 0.000000
235.509540 3.434776 -0.151434 0.000000
223.264010 4.228949 -0.245497 0.000000
228.001130 4.135632 -0.222302 0.000000
223.273360 4.533339 -0.243721 0.000000
227.581760 4.495063 -0.186384 0.000000
235.975620 3.963667 -0.168324 0.000000
223.295100 4.993201 -0.242942 0.000000
227.665150 4.881146 -0.188663 0.000000
236.364620 4.505859 -0.181484 0.000000
223.445830 5.473657 -0.255726 0.000000
223.184340 5.745439 -0.230167 0.000000
228.096210 5.696118 -0.214470 0.000000
223.297700 6.073030 -0.241283 0.000000
228.252780 6.109380 -0.223793 0.000000
223.267730 6.693393 -0.240573 0.000000
228.406890 6.529668 -0.233496 0.000000
223.107710 6.973576 -0.227113 0.000000
223.227450 7.318082 -0.241258 0.000000
241.890230 6.634543 0.337839 0.000000
241.892060 6.622592 1.126261 0.000000
241.866700 6.608017 1.914045 0.000000
241.848330 6.594122 2.701380 0.000000
241.839170 6.581111 3.489595 0.000000
241.834550 6.568509 4.279689 0.000000
241.839170 6.556749 5.073205 0.000000
241.850130 6.545539 5.871132 0.000000
241.873600 6.535439 6.675647 0.000000
238.836790 8.890327 -0.872841 0.000000
222.384320 9.827356 -0.764781 0.000000
225.872590 9.562986 -0.781150 0.000000
237.830260 9.249641 -0.797763 0.000000
231.886020 9.832754 -0.916220 0.000000
237.269350 9.675800 -0.756615 0.000000
245.126040 9.378122 -0.507641 0.000000
220.790240 10.552871 -0.941357 0.000000
227.317120 10.467341 -0.968167 0.000000
230.948260 10.457542 -0.837233 0.000000
231.435460 10.157156 -0.878190 0.000000
236.607220 10.061195 -0.708721 0.000000
244.258560 9.891511 -0.458570 0.000000
223.559620 11.049778 -0.974103 0.000000
223.869870 10.853605 -1.003543 0.000000
226.551650 10.943886 -0.898064 0.000000
226.931820 10.709628 -0.932540 0.000000
230.470000 10.747200 -0.797753 0.000000
236.079820 10.461709 -0.671585 0.000000
229.993740 11.024194 -0.759038 0.000000
235.198090 10.748586 -0.608753 0.000000
234.314820 -12.015512 -0.517007 0.000000
235.060910 -10.593741 -0.483470 0.000000
235.865920 -9.193463 -0.459241 0.000000
235.874360 -8.615463 -0.434903 0.000000
227.725810 -7.832022 -0.511567 0.000000
236.703250 -6.642798 -0.397126 0.000000
228.678650 -6.071282 -0.477837 0.000000
229.201160 -4.556709 -0.439800 0.000000
229.768910 -3.056167 -0.415426 0.000000
238.136150 4.957541 -0.174953 0.000000
238.432160 5.516711 -0.183859 0.000000
230.243300 6.471268 -0.236515 0.000000
241.884510 6.395841 -0.359726 0.000000
231.609760 7.107242 -0.336677 0.000000
220.944960 8.888842 -0.536786 0.000000
228.418700 8.475258 -0.574351 0.000000
243.420120 10.383841 -0.411893 0.000000
242.707440 10.878382 -0.372577 0.000000
222.518360 -13.758271 -0.638467 0.000000
220.970600 -13.119597 -0.514519 0.000000
222.867490 -13.558063 -0.638477 0.000000
223.207440 -13.343730 -0.637496 0.000000
232.899550 -13.645345 -0.537874 0.000000
221.441670 -13.105927 -0.534523 0.000000
223.538830 -13.116771 -0.635681 0.000000
224.107670 -12.563609 -0.621266 0.000000
233.626530 -12.232327 -0.496601 0.000000
225.000030 -11.244532 -0.570394 0.000000
225.386140 -11.048769 -0.578114 0.000000
234.327820 -11.413976 -0.488131 0.000000
225.626310 -10.733579 -0.569539 0.000000
225.706300 -10.300433 -0.543949 0.000000
234.336410 -10.820970 -0.460073 0.000000
226.103440 -10.100739 -0.553843 0.000000
226.444090 -9.853593 -0.557729 0.000000
226.464190 -9.389384 -0.528253 0.000000
235.109820 -10.024503 -0.459639 0.000000
235.074390 -9.424682 -0.430996 0.000000
221.699200 -8.118695 -0.554122 0.000000
227.291890 -8.503405 -0.523938 0.000000
221.895630 -7.873495 -0.548089 0.000000
222.089040 -7.625769 -0.542217 0.000000
227.295680 -8.048189 -0.496432 0.000000
222.278550 -7.374911 -0.536390 0.000000
227.775130 -7.407824 -0.490093 0.000000
235.882600 -8.045342 -0.411498 0.000000
222.370180 -7.056768 -0.518106 0.000000
222.640410 -6.860526 -0.524178 0.000000
235.883320 -7.479914 -0.388520 0.000000
227.749710 -6.952462 -0.462477 0.000000
228.131420 -6.698944 -0.474066 0.000000
223.151170 -6.066804 -0.506091 0.000000
228.299100 -6.339395 -0.465974 0.000000
235.884700 -6.921987 -0.366480 0.000000
223.416990 -5.855224 -0.513056 0.000000
223.468980 -5.523218 -0.494107 0.000000
223.713730 -5.295324 -0.499354 0.000000
228.616730 -5.612278 -0.449968 0.000000
236.711550 -6.084408 -0.376629 0.000000
223.766880 -4.968139 -0.482040 0.000000
228.763760 -5.243774 -0.441805 0.000000
236.634800 -5.506769 -0.351684 0.000000
224.022290 -4.740578 -0.489438 0.000000
236.750060 -4.990622 -0.339426 0.000000
224.049440 -4.232863 -0.459894 0.000000
220.885730 -3.824763 -0.488428 0.000000
221.007610 -3.593691 -0.483556 0.000000
224.303070 -3.827319 -0.457947 0.000000
229.175320 -4.126957 -0.418326 0.000000
236.694000 -4.431407 -0.317405 0.000000
221.182750 -3.243004 -0.476323 0.000000
224.423800 -3.535995 -0.451872 0.000000
229.301350 -3.750619 -0.410729 0.000000
236.692210 -3.892084 -0.299481 0.000000
221.348850 -2.887799 -0.468983 0.000000
224.650650 -2.947359 -0.439863 0.000000
229.259830 -3.324744 -0.389512 0.000000
221.504550 -2.527761 -0.461672 0.000000
224.756680 -2.650176 -0.433930 0.000000
221.644420 -2.161331 -0.453388 0.000000
224.686690 -2.297734 -0.409455 0.000000
229.682910 -2.619859 -0.391756 0.000000
237.315830 -2.953275 -0.302809 0.000000
221.715450 -1.771400 -0.437409 0.000000
224.868580 -1.862497 -0.405313 0.000000
229.539180 -2.176702 -0.364197 0.000000
237.177760 -2.390051 -0.278765 0.000000
221.777270 -1.381463 -0.421585 0.000000
224.901660 -1.385599 -0.386424 0.000000
229.530610 -1.771893 -0.348637 0.000000
237.055020 -1.837788 -0.256454 0.000000
221.825420 -0.991161 -0.405669 0.000000
224.796710 -1.040311 -0.361390 0.000000
229.516710 -1.369412 -0.333365 0.000000
221.877030 -0.472392 -0.385059 0.000000
229.353030 -0.942775 -0.306719 0.000000
236.915680 -1.290511 -0.233994 0.000000
221.901810 -0.083627 -0.369472 0.000000
224.925610 -0.280350 -0.343070 0.000000
229.275470 -0.538806 -0.287839 0.000000
236.777470 -0.751081 -0.212398 0.000000
221.916700 0.303485 -0.354272 0.000000
224.915190 0.189618 -0.324759 0.000000
236.757890 -0.232236 -0.198276 0.000000
221.922000 0.689446 -0.339157 0.000000
224.902650 0.500979 -0.312863 0.000000
229.615020 0.190155 -0.291383 0.000000
221.922970 1.072642 -0.325093 0.000000
224.896090 0.962687 -0.297547 0.000000
229.582520 0.583566 -0.277973 0.000000
236.675280 0.289864 -0.181273 0.000000
221.951190 1.450332 -0.315623 0.000000
224.807070 1.429055 -0.275231 0.000000
229.567810 0.972620 -0.266615 0.000000
221.979920 1.827098 -0.307690 0.000000
224.800950 1.731934 -0.266538 0.000000
229.553090 1.359867 -0.255888 0.000000
236.698580 1.309291 -0.159747 0.000000
221.999710 2.204232 -0.299834 0.000000
224.806790 2.183594 -0.256186 0.000000
229.532850 1.937673 -0.241184 0.000000
236.671950 1.819484 -0.147779 0.000000
222.008850 2.581531 -0.292141 0.000000
224.814470 2.634394 -0.247181 0.000000
229.512020 2.513157 -0.227656 0.000000
222.006160 3.084402 -0.282025 0.000000
224.819090 2.934766 -0.241899 0.000000
229.497130 2.895668 -0.219362 0.000000
236.638930 2.328140 -0.136077 0.000000
221.993070 3.461109 -0.274558 0.000000
224.823730 3.235221 -0.237189 0.000000
229.500320 3.277742 -0.213034 0.000000
236.741040 2.834217 -0.132316 0.000000
221.968780 3.837017 -0.267199 0.000000
224.908330 3.689298 -0.238831 0.000000
229.507130 3.660155 -0.207559 0.000000
237.085820 3.346168 -0.142168 0.000000
221.935200 4.212010 -0.259888 0.000000
224.879780 4.141587 -0.230564 0.000000
229.596130 4.046912 -0.208850 0.000000
221.919430 4.588848 -0.256135 0.000000
224.901810 4.446363 -0.229806 0.000000
229.183070 4.405810 -0.172963 0.000000
237.553730 3.873701 -0.159015 0.000000
221.918550 5.096069 -0.255447 0.000000
224.926740 4.905946 -0.229013 0.000000
237.845140 4.410135 -0.166771 0.000000
221.907970 5.477874 -0.255198 0.000000
225.080200 5.386186 -0.241785 0.000000
229.579270 5.202617 -0.194746 0.000000
221.884930 5.860328 -0.254930 0.000000
224.821880 5.658163 -0.216213 0.000000
229.923130 5.630161 -0.217277 0.000000
221.853610 6.243373 -0.254857 0.000000
224.926410 6.295780 -0.226854 0.000000
230.085100 6.047200 -0.226756 0.000000
221.811330 6.626793 -0.254968 0.000000
225.044170 6.633811 -0.239402 0.000000
221.739170 7.137781 -0.255236 0.000000
224.841690 6.906772 -0.221561 0.000000
221.674910 7.521057 -0.255742 0.000000
225.052460 7.274775 -0.244351 0.000000
241.892560 6.384473 0.393157 0.000000
241.915420 6.374549 1.145204 0.000000
241.958660 6.366583 1.898168 0.000000
231.197570 8.652772 -0.653080 0.000000
221.399140 9.520497 -0.687052 0.000000
240.406010 8.771166 -0.841841 0.000000
228.268040 9.696348 -0.836132 0.000000
239.409380 9.128034 -0.767165 0.000000
225.406630 10.307104 -0.928813 0.000000
233.638380 9.741955 -0.895545 0.000000
238.854580 9.551264 -0.726223 0.000000
222.640840 10.499941 -0.930554 0.000000
228.634720 10.591957 -0.902788 0.000000
229.017560 10.350972 -0.938334 0.000000
232.563830 10.320999 -0.802728 0.000000
233.049190 10.023859 -0.843758 0.000000
238.198560 9.933910 -0.678516 0.000000
245.631990 9.736035 -0.423829 0.000000
222.817090 11.069872 -0.996013 0.000000
225.285510 10.931967 -0.943801 0.000000
225.592560 10.736160 -0.972980 0.000000
228.257280 10.825099 -0.868427 0.000000
232.046880 10.593796 -0.759189 0.000000
236.803420 10.616867 -0.579037 0.000000
237.676820 10.331759 -0.641556 0.000000
227.886340 11.051243 -0.835370 0.000000
231.583390 10.870702 -0.721464 0.000000
236.334150 10.994512 -0.547353 0.000000
235.275240 -13.449125 -0.539670 0.000000
235.990750 -12.011680 -0.498259 0.000000
236.746230 -10.603817 -0.465651 0.000000
237.541440 -9.207480 -0.440965 0.000000
229.537780 -7.905325 -0.500170 0.000000
230.493350 -6.145944 -0.466483 0.000000
231.015460 -4.631153 -0.428149 0.000000
231.521610 -3.113602 -0.398328 0.000000
232.135530 6.004647 -0.230243 0.000000
240.833240 5.489997 -0.203043 0.000000
232.281810 6.431151 -0.239019 0.000000
235.197420 7.333108 -0.454823 0.000000
221.703660 8.100001 -0.351927 0.000000
225.267870 8.317671 -0.461873 0.000000
223.434660 9.110232 -0.620300 0.000000
244.801510 10.221992 -0.377277 0.000000
243.998570 10.688494 -0.332991 0.000000
221.013460 -13.237312 -0.432002 0.000000
221.420850 -13.201712 -0.445296 0.000000
221.993580 -13.368347 -0.483675 0.000000
224.595570 -13.539181 -0.615770 0.000000
234.622650 -13.659378 -0.522234 0.000000
225.746080 -12.744183 -0.609596 0.000000
226.173020 -12.330296 -0.599936 0.000000
235.279790 -12.825401 -0.507305 0.000000
226.434020 -12.032070 -0.591333 0.000000
226.807710 -11.829740 -0.596709 0.000000
235.301680 -12.224866 -0.477522 0.000000
226.799480 -11.307066 -0.557709 0.000000
227.187390 -11.113130 -0.565710 0.000000
236.002760 -11.412768 -0.469315 0.000000
236.010410 -10.822392 -0.441189 0.000000
222.237640 -9.577666 -0.575719 0.000000
227.913130 -10.172114 -0.542360 0.000000
228.253660 -9.924989 -0.546262 0.000000
222.458100 -9.354768 -0.569785 0.000000
228.274870 -9.461636 -0.516795 0.000000
236.796750 -10.038137 -0.441927 0.000000
222.780700 -9.012455 -0.560790 0.000000
228.588410 -9.193423 -0.518850 0.000000
236.763760 -9.442132 -0.413411 0.000000
223.198170 -8.544159 -0.548829 0.000000
228.683070 -8.786801 -0.498863 0.000000
223.503190 -8.185529 -0.540119 0.000000
229.103000 -8.576129 -0.512515 0.000000
237.545330 -8.630457 -0.416297 0.000000
229.108030 -8.121674 -0.485019 0.000000
224.081220 -7.441606 -0.522227 0.000000
229.588120 -7.481700 -0.478699 0.000000
237.548660 -8.061322 -0.392546 0.000000
224.173260 -7.124041 -0.503963 0.000000
224.443250 -6.927900 -0.510042 0.000000
237.545230 -7.497316 -0.369274 0.000000
220.856720 -6.581268 -0.536297 0.000000
224.620000 -6.667856 -0.504258 0.000000
229.945590 -6.773403 -0.462690 0.000000
221.109940 -6.283609 -0.529234 0.000000
224.823330 -6.239482 -0.488842 0.000000
230.113860 -6.414121 -0.454603 0.000000
237.542100 -6.940807 -0.346919 0.000000
221.591340 -5.667234 -0.514906 0.000000
238.321490 -6.651596 -0.375315 0.000000
221.743130 -5.455113 -0.509869 0.000000
221.892210 -5.240975 -0.504980 0.000000
225.272630 -5.592297 -0.480024 0.000000
225.517290 -5.364576 -0.485279 0.000000
230.432850 -5.687518 -0.438609 0.000000
238.331480 -6.097513 -0.354926 0.000000
222.107510 -4.914044 -0.497512 0.000000
225.570980 -5.037892 -0.467976 0.000000
230.579770 -5.318927 -0.430376 0.000000
238.258620 -5.524726 -0.330191 0.000000
222.314580 -4.581708 -0.489942 0.000000
225.826310 -4.810479 -0.475380 0.000000
222.512740 -4.243816 -0.482495 0.000000
225.854480 -4.303530 -0.445851 0.000000
238.373210 -5.011982 -0.317915 0.000000
222.702330 -3.900939 -0.474950 0.000000
222.823850 -3.669620 -0.469992 0.000000
226.108400 -3.898373 -0.443913 0.000000
230.985260 -4.199954 -0.406179 0.000000
238.319630 -4.456975 -0.296012 0.000000
222.997530 -3.318161 -0.462496 0.000000
226.229510 -3.607363 -0.437846 0.000000
231.103910 -3.821379 -0.397886 0.000000
238.280330 -3.912199 -0.275799 0.000000
223.162510 -2.962442 -0.454951 0.000000
226.457140 -3.019311 -0.425847 0.000000
231.057620 -3.394318 -0.376152 0.000000
220.904530 -2.589167 -0.467422 0.000000
223.317730 -2.602214 -0.447523 0.000000
226.563600 -2.722408 -0.419919 0.000000
221.093990 -2.185629 -0.458460 0.000000
223.440870 -2.229588 -0.436908 0.000000
226.473530 -2.363833 -0.393155 0.000000
231.434280 -2.678112 -0.374463 0.000000
238.900800 -2.980980 -0.279114 0.000000
221.195980 -1.866037 -0.446686 0.000000
221.252350 -1.649341 -0.437832 0.000000
223.513340 -1.840655 -0.421072 0.000000
226.655180 -1.929287 -0.388959 0.000000
231.299770 -2.238311 -0.347562 0.000000
238.766750 -2.422645 -0.255251 0.000000
221.327960 -1.323025 -0.424467 0.000000
223.576130 -1.451478 -0.405319 0.000000
226.689700 -1.453515 -0.370143 0.000000
231.297040 -1.835765 -0.332414 0.000000
238.656920 -1.876572 -0.233636 0.000000
221.415160 -0.886714 -0.406722 0.000000
223.624860 -1.061762 -0.389415 0.000000
226.587110 -1.109274 -0.345266 0.000000
231.283620 -1.434244 -0.317104 0.000000
221.485980 -0.449454 -0.389062 0.000000
223.667860 -0.673427 -0.374108 0.000000
231.125200 -1.009428 -0.290764 0.000000
238.528120 -1.334652 -0.211715 0.000000
221.528750 -0.121234 -0.375860 0.000000
223.694730 -0.284744 -0.358384 0.000000
226.717680 -0.350681 -0.326998 0.000000
231.048950 -0.606429 -0.271892 0.000000
238.420120 -0.802743 -0.191770 0.000000
221.560930 0.206969 -0.362665 0.000000
223.718310 0.231168 -0.338044 0.000000
226.708340 0.118522 -0.308698 0.000000
238.424710 -0.289643 -0.178959 0.000000
221.592530 0.643525 -0.345499 0.000000
223.724300 0.616689 -0.322934 0.000000
226.696530 0.429407 -0.296807 0.000000
231.391970 0.120675 -0.275650 0.000000
221.610460 1.078627 -0.328813 0.000000
223.731320 0.998800 -0.309533 0.000000
226.705440 0.888731 -0.282955 0.000000
231.378490 0.511302 -0.263651 0.000000
238.345120 0.229576 -0.162036 0.000000
221.655360 1.507070 -0.318516 0.000000
223.757920 1.376486 -0.299780 0.000000
226.617750 1.354853 -0.260634 0.000000
231.364940 0.899934 -0.252288 0.000000
221.692580 1.935584 -0.309443 0.000000
223.772170 1.628066 -0.293640 0.000000
223.789750 1.879054 -0.288496 0.000000
226.612340 1.657630 -0.251935 0.000000
231.351380 1.286802 -0.241557 0.000000
238.388320 1.242775 -0.141472 0.000000
221.714740 2.364886 -0.300509 0.000000
223.805530 2.255982 -0.280649 0.000000
226.605590 2.109830 -0.240220 0.000000
231.332820 1.864127 -0.226839 0.000000
238.371690 1.750379 -0.129964 0.000000
221.721790 2.687066 -0.293885 0.000000
223.812810 2.632973 -0.272935 0.000000
226.609530 2.560374 -0.230741 0.000000
231.313660 2.439212 -0.213294 0.000000
221.719220 3.009144 -0.287332 0.000000
223.809460 3.009794 -0.265389 0.000000
226.614840 2.860426 -0.225456 0.000000
231.299640 2.821508 -0.204969 0.000000
238.340930 2.256987 -0.118286 0.000000
221.703190 3.438041 -0.278725 0.000000
223.797270 3.386263 -0.257934 0.000000
226.620130 3.160581 -0.220741 0.000000
231.285690 3.203215 -0.197243 0.000000
238.588650 2.760069 -0.122393 0.000000
221.671490 3.865780 -0.270205 0.000000
223.774140 3.762000 -0.250616 0.000000
226.705520 3.614254 -0.222373 0.000000
231.312010 3.585688 -0.193159 0.000000
238.917600 3.272476 -0.131329 0.000000
221.625670 4.291932 -0.261985 0.000000
223.742000 4.136897 -0.243375 0.000000
226.696580 4.067359 -0.215899 0.000000
231.529710 3.978152 -0.204101 0.000000
221.612850 4.722893 -0.260737 0.000000
223.738950 4.514933 -0.241041 0.000000
226.719270 4.372253 -0.215131 0.000000
231.172820 4.342661 -0.172228 0.000000
239.285260 3.797595 -0.142745 0.000000
221.591290 5.155596 -0.260571 0.000000
223.738130 5.022393 -0.240229 0.000000
226.745210 4.832063 -0.214325 0.000000
239.571140 4.332370 -0.150160 0.000000
221.563870 5.480170 -0.260312 0.000000
223.727160 5.404303 -0.239835 0.000000
226.899510 5.312568 -0.227094 0.000000
231.632110 5.151880 -0.198569 0.000000
239.861980 4.878260 -0.158284 0.000000
221.529950 5.805513 -0.260611 0.000000
223.703140 5.786728 -0.239349 0.000000
226.642210 5.584790 -0.201487 0.000000
231.972930 5.583323 -0.220812 0.000000
221.469440 6.238514 -0.260816 0.000000
223.670670 6.169665 -0.239036 0.000000
226.893100 6.250104 -0.226169 0.000000
221.393280 6.670642 -0.261191 0.000000
223.626860 6.552805 -0.238858 0.000000
227.062330 6.601500 -0.243657 0.000000
221.302170 7.101584 -0.261846 0.000000
223.560360 7.065609 -0.239667 0.000000
226.858640 6.877917 -0.225602 0.000000
221.223890 7.423553 -0.262432 0.000000
227.144730 7.267918 -0.255694 0.000000
241.888290 6.672206 2.609185 0.000000
241.856700 6.657025 3.322136 0.000000
241.832020 6.642622 4.035961 0.000000
241.821780 6.629827 4.752569 0.000000
241.811740 6.617010 5.471823 0.000000
241.812530 6.605353 6.196049 0.000000
241.815200 6.593834 6.925137 0.000000
225.797650 9.335713 -0.729833 0.000000
241.537610 8.593082 -0.832776 0.000000
229.587100 9.493857 -0.805637 0.000000
240.559980 8.944065 -0.757989 0.000000
226.887560 10.142960 -0.908620 0.000000
234.363480 9.840364 -0.828811 0.000000
234.938550 9.561282 -0.880217 0.000000
240.026020 9.362434 -0.717748 0.000000
224.528080 10.545810 -0.974309 0.000000
227.085660 10.573816 -0.954736 0.000000
230.061830 10.418249 -0.885939 0.000000
230.434370 10.178308 -0.920959 0.000000
233.905010 10.139201 -0.789595 0.000000
238.893110 10.136113 -0.634586 0.000000
239.392650 9.741349 -0.670711 0.000000
224.102200 11.072555 -0.952313 0.000000
224.482670 10.831889 -0.987993 0.000000
226.485370 10.957488 -0.897593 0.000000
226.783780 10.768335 -0.925669 0.000000
229.326100 10.873014 -0.818600 0.000000
229.690370 10.648900 -0.851572 0.000000
233.014040 10.707891 -0.715531 0.000000
233.455550 10.428312 -0.751878 0.000000
238.030490 10.415688 -0.571474 0.000000
232.550280 10.967121 -0.677491 0.000000
237.583040 10.791412 -0.540659 0.000000
242.058850 5.377147 -0.211347 0.000000
229.348220 7.319703 -0.319558 0.000000
241.861660 6.445527 -0.188403 0.000000
236.604060 7.211286 -0.458574 0.000000
221.685030 8.449903 -0.422883 0.000000
223.656270 8.140116 -0.396778 0.000000
227.489120 8.425883 -0.538013 0.000000
232.198140 8.400957 -0.604404 0.000000
222.820690 9.307144 -0.644124 0.000000
245.681850 9.982571 -0.373569 0.000000
244.905670 10.440589 -0.329513 0.000000
244.344990 10.927019 -0.297768 0.000000
225.475460 -13.895754 -0.608682 0.000000
221.106570 -13.403769 -0.381345 0.000000
225.785160 -13.662800 -0.604037 0.000000
226.082530 -13.414835 -0.598138 0.000000
226.403930 -13.191137 -0.596014 0.000000
235.729980 -13.363863 -0.500370 0.000000
226.720400 -12.959482 -0.593587 0.000000
227.038360 -12.726524 -0.591729 0.000000
236.372160 -13.161026 -0.518737 0.000000
227.880480 -11.910057 -0.574550 0.000000
236.376710 -12.551176 -0.487086 0.000000
221.368410 -11.462943 -0.605691 0.000000
228.244310 -11.706228 -0.579832 0.000000
236.398210 -11.964002 -0.457986 0.000000
222.309660 -10.909447 -0.601239 0.000000
228.245120 -11.197890 -0.542380 0.000000
237.057250 -11.747295 -0.478194 0.000000
222.663760 -10.606107 -0.591723 0.000000
222.965790 -10.478149 -0.597731 0.000000
228.745930 -10.850639 -0.546747 0.000000
237.069080 -11.162039 -0.449916 0.000000
223.115770 -10.179668 -0.577757 0.000000
223.422100 -10.051127 -0.585174 0.000000
228.945590 -10.269738 -0.517730 0.000000
223.573500 -9.759843 -0.567189 0.000000
229.330750 -10.068093 -0.527414 0.000000
237.076640 -10.585127 -0.422431 0.000000
237.774250 -10.360909 -0.445898 0.000000
223.793780 -9.540852 -0.561350 0.000000
224.430340 -8.860372 -0.543514 0.000000
229.682370 -9.363967 -0.502184 0.000000
237.815830 -9.804850 -0.422240 0.000000
224.634740 -8.626432 -0.537551 0.000000
229.986100 -9.096088 -0.504114 0.000000
237.779130 -9.220988 -0.394021 0.000000
220.891110 -8.135586 -0.561040 0.000000
221.079270 -7.959170 -0.555469 0.000000
224.834470 -8.388487 -0.531484 0.000000
225.030490 -8.147454 -0.525462 0.000000
230.078570 -8.694745 -0.484457 0.000000
230.484940 -8.482699 -0.497783 0.000000
238.498340 -8.974780 -0.419326 0.000000
221.275700 -7.791558 -0.552158 0.000000
221.462130 -7.613132 -0.547407 0.000000
225.221440 -7.902399 -0.519306 0.000000
230.490770 -8.035402 -0.470772 0.000000
238.502460 -8.412538 -0.395298 0.000000
221.646970 -7.432976 -0.542924 0.000000
225.408740 -7.654532 -0.513223 0.000000
225.591750 -7.403474 -0.507134 0.000000
230.894290 -7.811480 -0.484375 0.000000
222.178340 -6.869621 -0.528570 0.000000
225.678830 -7.086681 -0.488667 0.000000
230.943210 -7.394160 -0.463243 0.000000
238.505910 -7.857921 -0.372152 0.000000
222.431530 -6.576545 -0.521164 0.000000
226.027450 -6.760552 -0.491608 0.000000
238.503010 -7.308393 -0.349480 0.000000
222.679530 -6.278956 -0.514009 0.000000
222.838260 -6.075217 -0.508881 0.000000
231.279910 -6.689793 -0.446563 0.000000
238.500270 -6.766112 -0.327694 0.000000
222.995320 -5.870154 -0.504061 0.000000
223.148680 -5.662274 -0.499207 0.000000
226.567150 -5.995681 -0.479702 0.000000
231.438860 -6.333437 -0.438236 0.000000
231.793460 -6.061769 -0.448764 0.000000
239.243210 -6.478721 -0.355454 0.000000
220.860810 -5.115533 -0.510316 0.000000
223.370820 -5.344711 -0.491803 0.000000
226.747740 -5.562465 -0.464396 0.000000
231.738940 -5.613429 -0.421727 0.000000
239.253230 -5.939102 -0.335614 0.000000
221.070100 -4.858703 -0.504278 0.000000
223.586780 -5.022822 -0.484576 0.000000
227.012530 -5.174572 -0.461039 0.000000
231.875500 -5.248191 -0.413139 0.000000
221.339290 -4.508346 -0.496219 0.000000
223.790420 -4.692957 -0.476883 0.000000
227.287690 -4.787111 -0.459815 0.000000
239.184050 -5.381685 -0.311507 0.000000
221.532930 -4.239312 -0.490032 0.000000
221.657350 -4.056642 -0.485802 0.000000
223.988770 -4.359820 -0.469550 0.000000
224.116650 -4.135119 -0.464783 0.000000
227.309830 -4.453534 -0.440529 0.000000
232.266200 -4.559556 -0.408272 0.000000
239.293490 -4.881605 -0.299571 0.000000
221.837740 -3.778459 -0.479480 0.000000
224.297420 -3.791980 -0.457157 0.000000
227.441350 -4.002273 -0.424734 0.000000
232.235050 -4.136238 -0.386535 0.000000
239.242710 -4.341357 -0.278228 0.000000
222.011660 -3.496133 -0.473151 0.000000
222.122650 -3.304908 -0.468825 0.000000
224.470570 -3.444916 -0.449595 0.000000
227.679950 -3.597171 -0.422681 0.000000
232.340960 -3.761809 -0.377662 0.000000
222.283450 -3.014823 -0.462517 0.000000
224.634770 -3.093459 -0.442216 0.000000
227.901760 -3.015881 -0.410856 0.000000
232.294020 -3.342842 -0.356144 0.000000
239.158280 -3.799685 -0.255605 0.000000
222.437160 -2.720881 -0.456155 0.000000
222.534930 -2.522492 -0.451894 0.000000
224.791500 -2.738509 -0.434953 0.000000
224.884350 -2.497051 -0.429270 0.000000
227.981750 -2.714632 -0.402367 0.000000
232.699280 -3.054214 -0.374331 0.000000
220.929990 -2.077870 -0.455120 0.000000
222.662170 -2.216187 -0.443448 0.000000
224.939100 -2.241552 -0.418958 0.000000
227.889340 -2.360202 -0.375440 0.000000
232.621370 -2.630364 -0.351489 0.000000
239.748230 -2.891391 -0.258926 0.000000
221.061680 -1.714478 -0.440294 0.000000
222.780430 -1.787660 -0.425812 0.000000
225.008380 -1.856660 -0.403105 0.000000
228.052440 -2.087835 -0.377477 0.000000
232.495000 -2.201464 -0.325399 0.000000
239.620960 -2.349221 -0.235697 0.000000
221.177460 -1.346917 -0.425059 0.000000
222.880280 -1.356207 -0.407871 0.000000
225.070220 -1.472313 -0.387613 0.000000
228.089140 -1.618933 -0.358934 0.000000
232.490110 -1.807199 -0.310378 0.000000
221.279420 -0.976805 -0.409843 0.000000
222.964400 -0.923571 -0.390076 0.000000
225.119510 -1.087821 -0.372123 0.000000
228.000170 -1.124235 -0.328293 0.000000
232.480480 -1.415172 -0.295664 0.000000
239.516890 -1.818804 -0.214664 0.000000
221.386830 -0.511397 -0.390908 0.000000
223.016630 -0.598362 -0.376661 0.000000
225.160030 -0.703843 -0.356807 0.000000
232.335210 -1.001355 -0.270442 0.000000
239.399960 -1.293157 -0.193634 0.000000
221.472670 -0.043602 -0.371797 0.000000
223.061430 -0.273716 -0.363711 0.000000
225.187680 -0.320323 -0.341454 0.000000
228.128600 -0.377059 -0.310461 0.000000
232.267870 -0.608135 -0.252441 0.000000
239.339800 -0.781701 -0.176696 0.000000
221.526210 0.331183 -0.356763 0.000000
223.105940 0.159537 -0.346238 0.000000
225.207440 0.062013 -0.326379 0.000000
228.119600 0.085024 -0.292428 0.000000
221.565900 0.706156 -0.341789 0.000000
223.136200 0.591708 -0.329134 0.000000
225.215520 0.443028 -0.311413 0.000000
228.108310 0.391167 -0.280724 0.000000
232.617190 0.101967 -0.257715 0.000000
239.343890 -0.281872 -0.164189 0.000000
221.595570 1.080187 -0.327532 0.000000
223.158490 1.021530 -0.313313 0.000000
225.233290 0.945812 -0.294421 0.000000
228.121570 0.692153 -0.272190 0.000000
232.616030 0.483297 -0.246896 0.000000
239.267940 0.223720 -0.147661 0.000000
221.641540 1.449546 -0.318468 0.000000
223.197940 1.446141 -0.302443 0.000000
225.261640 1.318749 -0.285074 0.000000
228.093170 1.146432 -0.255664 0.000000
232.604800 0.864042 -0.235890 0.000000
221.681020 1.819152 -0.310610 0.000000
223.233080 1.870273 -0.293259 0.000000
225.279130 1.691797 -0.275835 0.000000
228.041340 1.599648 -0.237981 0.000000
232.593540 1.243133 -0.225501 0.000000
