# .PCD v0.7 - Point Cloud Data file format
VERSION 0.7
FIELDS x y z intensity
SIZE 4 4 4 4
TYPE F F F F
COUNT 1 1 1 1
WIDTH 1225
HEIGHT 1
VIEWPOINT 0 0 0 1 0 0 0
POINTS 1225
DATA ascii
243.088790 39.566822 0.678448 0.000000
245.684130 39.097160 0.743517 0.000000
241.596620 40.091686 0.652418 0.000000
242.021760 39.734673 0.645596 0.000000
224.850360 41.260719 0.629050 0.000000
241.171330 40.434204 0.657602 0.000000
224.284240 41.667442 0.616550 0.000000
240.613800 41.690914 0.719728 0.000000
241.148360 41.633675 0.740763 0.000000
223.700160 42.963337 0.637175 0.000000
224.324430 42.610062 0.655805 0.000000
240.120970 41.844650 0.706791 0.000000
223.662840 43.804974 0.667453 0.000000
239.576460 42.971985 0.757070 0.000000
240.086060 42.871300 0.775625 0.000000
222.956940 44.099964 0.641291 0.000000
239.083040 43.111954 0.741428 0.000000
239.147190 44.193489 0.817271 0.000000
222.356340 45.330589 0.654436 0.000000
223.080840 45.039005 0.682736 0.000000
238.208250 44.519493 0.788749 0.000000
238.681470 44.358875 0.803647 0.000000
222.347410 46.142731 0.683091 0.000000
237.627230 45.387978 0.813018 0.000000
238.115940 45.255302 0.831692 0.000000
221.453980 46.336609 0.641112 0.000000
236.425890 46.186806 0.794342 0.000000
236.925020 46.050674 0.815038 0.000000
237.443710 45.953030 0.838745 0.000000
221.461670 47.144249 0.669499 0.000000
221.453030 47.923183 0.695491 0.000000
236.288560 46.782867 0.823064 0.000000
235.678180 47.526981 0.831212 0.000000
234.979110 48.158852 0.824986 0.000000
235.505680 48.040443 0.851146 0.000000
245.269710 47.817978 0.885875 0.000000
245.664020 47.790405 0.903305 0.000000
234.786930 48.638714 0.840626 0.000000
244.939530 48.008766 0.886135 0.000000
234.032350 49.208794 0.824034 0.000000
234.623340 49.136757 0.858616 0.000000
244.133130 48.509701 0.887386 0.000000
242.985960 49.148155 0.876621 0.000000
243.352690 49.040722 0.889351 0.000000
243.746780 48.993263 0.908415 0.000000
220.867950 50.588745 0.748715 0.000000
233.587750 50.072792 0.842199 0.000000
233.879470 49.708969 0.841777 0.000000
242.753510 49.495529 0.892432 0.000000
233.279360 50.420784 0.840103 0.000000
242.461330 49.730198 0.894209 0.000000
232.842130 50.660400 0.822887 0.000000
241.582660 50.413296 0.894223 0.000000
241.874940 50.186890 0.894852 0.000000
232.810520 51.237900 0.850890 0.000000
241.117810 50.711914 0.886959 0.000000
232.004210 51.786423 0.822128 0.000000
232.403920 51.506161 0.836227 0.000000
240.453320 51.359688 0.892176 0.000000
240.834030 51.256420 0.911284 0.000000
240.182300 51.607574 0.891976 0.000000
231.978700 52.346115 0.848056 0.000000
240.015120 51.978550 0.908553 0.000000
231.577180 52.628262 0.832856 0.000000
239.397250 52.376644 0.892087 0.000000
231.052410 53.395119 0.830761 0.000000
231.521900 53.151867 0.853819 0.000000
238.897130 52.908943 0.892645 0.000000
239.144610 52.640644 0.892282 0.000000
245.278370 52.677227 0.942935 0.000000
245.578430 52.603058 0.955693 0.000000
238.417020 53.457062 0.893730 0.000000
238.654770 53.181305 0.893156 0.000000
244.779160 53.017735 0.943408 0.000000
245.083010 52.947079 0.957961 0.000000
230.549880 54.177128 0.828876 0.000000
238.183610 53.735878 0.894320 0.000000
244.602110 53.306969 0.960671 0.000000
237.725270 54.298393 0.894882 0.000000
237.963590 54.025852 0.896248 0.000000
244.022810 53.778893 0.964732 0.000000
230.071900 54.974876 0.827397 0.000000
230.535720 54.706173 0.851012 0.000000
237.477680 54.563152 0.891648 0.000000
243.605650 54.214386 0.975062 0.000000
230.015180 55.471779 0.843869 0.000000
236.985260 55.097618 0.884081 0.000000
237.229680 54.828426 0.887857 0.000000
242.871610 54.705708 0.961230 0.000000
243.228180 54.444717 0.966459 0.000000
229.475340 55.714317 0.812295 0.000000
236.745290 55.371338 0.880430 0.000000
242.289440 55.157970 0.952595 0.000000
242.520230 54.974159 0.956041 0.000000
229.330720 56.164795 0.819049 0.000000
236.518130 55.655548 0.878024 0.000000
241.837270 55.537849 0.946004 0.000000
242.061870 55.346024 0.949272 0.000000
229.326540 56.678406 0.838652 0.000000
236.205000 56.321854 0.890262 0.000000
241.288240 56.033100 0.937877 0.000000
241.615110 55.732891 0.942692 0.000000
228.806730 56.953300 0.808304 0.000000
235.883710 56.543907 0.873893 0.000000
240.762500 56.554337 0.930880 0.000000
240.966550 56.339600 0.932982 0.000000
245.288010 56.150265 0.989815 0.000000
245.601820 55.947193 0.994269 0.000000
228.646650 57.395283 0.811914 0.000000
235.681270 56.846626 0.872621 0.000000
240.549510 56.761627 0.926690 0.000000
244.572940 56.650810 0.979425 0.000000
244.876050 56.431309 0.983793 0.000000
228.573320 57.871479 0.823083 0.000000
235.290800 57.461960 0.870304 0.000000
235.616130 57.232609 0.888300 0.000000
240.246060 57.088028 0.922169 0.000000
243.982220 57.111702 0.970719 0.000000
244.275310 56.878151 0.975066 0.000000
227.925600 58.122086 0.780131 0.000000
239.851820 57.533909 0.916174 0.000000
243.506650 57.517712 0.963605 0.000000
243.789900 57.271484 0.967824 0.000000
227.822170 58.590805 0.787561 0.000000
234.744080 58.409832 0.867685 0.000000
234.920170 58.090202 0.868335 0.000000
239.481960 58.000656 0.912090 0.000000
243.137540 57.856339 0.958091 0.000000
227.772370 59.075706 0.799291 0.000000
234.667480 58.778606 0.878574 0.000000
239.137160 58.486549 0.909853 0.000000
242.695220 58.300308 0.952305 0.000000
242.867280 58.117882 0.954033 0.000000
227.157290 59.372002 0.758837 0.000000
234.409670 59.058971 0.866925 0.000000
238.888260 58.857929 0.908314 0.000000
242.260990 58.754555 0.944722 0.000000
242.516540 58.477203 0.948679 0.000000
245.435130 58.626095 1.017408 0.000000
245.684170 58.425297 1.020701 0.000000
226.974260 59.819031 0.757506 0.000000
233.914320 59.641602 0.844970 0.000000
234.226640 59.377125 0.863848 0.000000
238.648010 59.235317 0.906725 0.000000
241.929950 59.133926 0.939588 0.000000
244.876360 59.121361 1.011006 0.000000
245.111940 58.904648 1.013537 0.000000
226.790950 60.267548 0.755645 0.000000
233.769760 59.981056 0.845549 0.000000
238.185620 59.833389 0.892333 0.000000
241.614670 59.527256 0.935347 0.000000
244.647290 59.345055 1.008702 0.000000
226.617540 60.720615 0.754169 0.000000
237.743930 60.285439 0.868237 0.000000
237.962890 60.056610 0.880185 0.000000
241.177230 59.993942 0.919198 0.000000
241.344390 59.800697 0.924568 0.000000
244.100340 59.858719 0.995935 0.000000
244.345470 59.647480 1.004673 0.000000
232.961000 60.872093 0.800850 0.000000
233.230480 60.569489 0.816081 0.000000
237.525450 60.518219 0.855997 0.000000
240.857890 60.393917 0.909751 0.000000
241.016270 60.192513 0.914484 0.000000
243.625900 60.303539 0.979040 0.000000
243.861010 60.078129 0.987448 0.000000
237.199480 60.875771 0.837144 0.000000
240.551560 60.806458 0.900655 0.000000
240.703370 60.598804 0.905210 0.000000
243.245880 60.694950 0.965237 0.000000
243.470610 60.456654 0.973162 0.000000
245.604160 60.551003 1.034189 0.000000
243.023120 60.937065 0.956805 0.000000
245.165390 60.912788 1.015066 0.000000
245.392990 60.737705 1.027337 0.000000
220.940430 46.805923 1.474799 0.000000
220.941330 46.807968 2.318952 0.000000
220.944230 46.811310 3.162244 0.000000
220.914600 46.793446 4.006233 0.000000
220.916920 46.796410 4.850877 0.000000
220.853940 43.374157 5.836871 0.000000
221.442960 44.680817 5.752110 0.000000
221.626500 45.649593 5.703335 0.000000
221.746920 46.545891 5.661809 0.000000
221.102020 46.918480 5.682594 0.000000
242.330900 39.907444 0.633771 0.000000
242.816540 39.685501 0.638962 0.000000
226.366560 37.363899 0.515802 0.000000
225.748460 37.770004 0.504024 0.000000
225.860790 38.915520 0.558049 0.000000
225.294530 39.360394 0.549298 0.000000
225.358660 40.399555 0.595439 0.000000
244.906710 39.202705 0.689017 0.000000
245.468320 39.221531 0.711744 0.000000
224.758580 40.803261 0.582248 0.000000
243.386440 39.671951 0.662094 0.000000
243.977450 39.733337 0.690906 0.000000
244.559200 39.796757 0.718887 0.000000
224.934920 41.891998 0.634891 0.000000
224.355870 42.306274 0.622111 0.000000
241.414150 41.638985 0.714266 0.000000
241.917050 41.499680 0.727882 0.000000
242.470610 41.477436 0.751468 0.000000
224.308260 43.160126 0.653072 0.000000
223.565140 43.446728 0.625888 0.000000
240.321110 42.826340 0.743160 0.000000
240.848340 42.738338 0.763241 0.000000
241.370530 42.654137 0.782764 0.000000
222.814420 44.609383 0.630472 0.000000
223.592770 44.333702 0.660946 0.000000
239.326110 44.071812 0.775721 0.000000
239.818330 43.926579 0.791861 0.000000
240.301380 43.775383 0.806561 0.000000
222.056670 45.760643 0.632159 0.000000
222.990520 45.575157 0.675200 0.000000
239.336820 44.974792 0.835926 0.000000
238.835780 45.097847 0.816731 0.000000
222.056490 46.582115 0.661252 0.000000
237.572110 45.840050 0.793215 0.000000
238.104280 45.737392 0.817124 0.000000
238.644390 45.659897 0.842535 0.000000
222.038960 47.374229 0.687859 0.000000
237.407470 46.411903 0.819499 0.000000
221.087170 47.586861 0.643246 0.000000
236.772580 47.148605 0.827173 0.000000
221.084980 48.377769 0.669611 0.000000
236.048570 47.774925 0.820556 0.000000
236.590740 47.662319 0.847203 0.000000
221.072250 49.147057 0.694162 0.000000
235.873410 48.283325 0.839590 0.000000
235.712050 48.793434 0.859046 0.000000
245.592220 48.196495 0.890702 0.000000
235.158550 48.911613 0.830383 0.000000
245.268750 48.396782 0.891053 0.000000
221.238460 49.997398 0.730759 0.000000
234.975400 49.391327 0.845617 0.000000
244.258640 48.910652 0.878597 0.000000
244.633850 48.811855 0.892001 0.000000
245.036090 48.773254 0.911748 0.000000
234.664260 49.746330 0.844968 0.000000
243.720600 49.483246 0.895725 0.000000
244.019070 49.252274 0.894071 0.000000
233.887850 50.325989 0.824665 0.000000
234.341550 50.090904 0.842437 0.000000
243.135220 49.954971 0.898890 0.000000
242.504820 50.352512 0.890555 0.000000
242.850340 50.198540 0.900777 0.000000
233.429140 51.174232 0.838018 0.000000
233.850800 50.908333 0.853062 0.000000
242.293440 50.696182 0.904582 0.000000
233.012120 51.451023 0.823318 0.000000
241.731200 51.178246 0.904473 0.000000
242.119930 51.081299 0.924054 0.000000
232.981080 52.016251 0.849618 0.000000
241.453860 51.422321 0.904083 0.000000
232.563020 52.296516 0.833936 0.000000
240.824230 51.821785 0.889140 0.000000
232.500960 52.825253 0.855160 0.000000
240.518050 52.310482 0.903437 0.000000
232.013610 53.066799 0.831578 0.000000
239.884120 52.976311 0.903898 0.000000
240.133580 52.706383 0.903574 0.000000
239.639300 53.249969 0.904299 0.000000
231.484190 53.852409 0.829217 0.000000
239.170750 53.814613 0.906368 0.000000
239.398350 53.526573 0.904664 0.000000
230.979220 54.655430 0.827269 0.000000
231.463520 54.387779 0.851596 0.000000
238.932860 54.092587 0.905960 0.000000
245.340470 53.634441 0.977827 0.000000
238.566890 54.501934 0.902942 0.000000
244.663180 54.219250 0.982789 0.000000
245.061220 54.014385 0.994642 0.000000
230.370570 55.409485 0.813290 0.000000
230.915500 55.158947 0.843974 0.000000
238.187700 54.902023 0.897059 0.000000
244.189150 54.574001 0.977899 0.000000
230.265440 55.889580 0.824805 0.000000
237.817660 55.312614 0.891249 0.000000
243.480830 55.112801 0.967187 0.000000
243.831700 54.838516 0.972498 0.000000
243.022810 55.492058 0.960358 0.000000
229.732220 56.692528 0.815271 0.000000
230.275050 56.418858 0.846498 0.000000
237.006680 56.318596 0.880638 0.000000
237.339050 56.097755 0.897461 0.000000
242.464510 55.985405 0.951760 0.000000
242.685390 55.784946 0.955146 0.000000
236.796050 56.622238 0.879191 0.000000
242.037580 56.402710 0.946138 0.000000
242.244920 56.187988 0.948113 0.000000
229.561400 57.139156 0.818798 0.000000
236.726880 57.011837 0.895101 0.000000
241.610790 56.823517 0.938538 0.000000
241.818270 56.607414 0.941555 0.000000
245.703110 56.683952 0.993797 0.000000
228.803710 57.870537 0.785897 0.000000
229.480530 57.621555 0.830086 0.000000
236.389680 57.240513 0.876598 0.000000
241.203350 57.264431 0.932250 0.000000
241.404360 57.041336 0.935190 0.000000
245.305590 56.990841 0.987776 0.000000
245.503220 56.835770 0.990777 0.000000
228.688670 58.344780 0.793119 0.000000
236.000960 57.871498 0.874087 0.000000
240.808910 57.719055 0.926095 0.000000
241.004870 57.490341 0.929219 0.000000
244.822190 57.393074 0.980387 0.000000
245.110180 57.149033 0.984772 0.000000
235.813280 58.191628 0.872857 0.000000
240.615220 57.950363 0.922831 0.000000
244.446550 57.729134 0.974654 0.000000
227.907840 59.108036 0.756155 0.000000
228.634700 58.838078 0.805251 0.000000
235.730260 58.563774 0.883698 0.000000
240.337360 58.307892 0.918927 0.000000
243.816970 58.349434 0.965540 0.000000
244.083800 58.080006 0.969572 0.000000
227.814700 59.594551 0.763840 0.000000
235.282460 59.172348 0.869869 0.000000
235.454800 58.842537 0.870848 0.000000
239.995250 58.805302 0.916370 0.000000
243.563800 58.631870 0.962920 0.000000
235.000150 59.456223 0.855462 0.000000
239.749420 59.186096 0.914730 0.000000
243.242680 59.022694 0.960803 0.000000
227.616270 60.048805 0.761549 0.000000
234.859220 59.802979 0.857193 0.000000
239.591200 59.443825 0.913757 0.000000
242.939320 59.427658 0.959818 0.000000
227.431560 60.509121 0.759975 0.000000
234.299210 60.395248 0.827047 0.000000
238.951350 60.140114 0.883656 0.000000
239.176880 59.911030 0.895865 0.000000
242.610530 59.816895 0.951942 0.000000
245.680710 59.692181 1.042240 0.000000
227.239230 60.969624 0.757225 0.000000
234.020260 60.700596 0.811597 0.000000
238.571610 60.473190 0.858728 0.000000
242.099120 60.399029 0.933254 0.000000
242.349530 60.102505 0.942204 0.000000
245.039610 60.269783 1.019514 0.000000
245.276250 60.047504 1.027976 0.000000
233.580630 60.959621 0.777622 0.000000
238.330320 60.875069 0.852748 0.000000
241.786350 60.811729 0.923472 0.000000
244.656370 60.655979 1.005537 0.000000
244.883930 60.421406 1.013755 0.000000
244.284790 61.058537 0.991385 0.000000
244.431290 60.894989 0.996956 0.000000
221.298780 44.391830 5.891470 0.000000
221.856230 45.627251 5.813627 0.000000
222.383150 46.794785 5.741080 0.000000
221.820140 48.024254 5.729834 0.000000
221.084780 48.371254 5.760945 0.000000
227.313160 36.872360 0.496519 0.000000
226.672610 37.269600 0.484373 0.000000
226.772610 38.417496 0.538981 0.000000
226.184200 38.855568 0.529935 0.000000
226.215150 39.878597 0.574800 0.000000
225.591200 40.276241 0.561240 0.000000
244.453740 40.327217 0.705795 0.000000
244.942320 40.147346 0.712830 0.000000
245.486020 40.113506 0.732198 0.000000
225.754090 41.369003 0.614320 0.000000
243.962330 40.502819 0.697736 0.000000
225.232120 41.847012 0.607986 0.000000
225.300670 42.808746 0.649996 0.000000
242.861080 41.786118 0.740690 0.000000
243.379760 41.689034 0.757353 0.000000
243.940230 41.693657 0.782567 0.000000
224.534550 43.087166 0.622399 0.000000
241.733080 42.887016 0.764231 0.000000
242.265290 42.813477 0.784916 0.000000
242.805340 42.769234 0.807450 0.000000
224.549330 43.974648 0.657702 0.000000
223.738390 44.236858 0.626133 0.000000
240.634000 43.956989 0.781869 0.000000
241.165420 43.872990 0.803505 0.000000
241.690050 43.791977 0.824436 0.000000
223.826920 45.152046 0.665225 0.000000
223.065670 45.467171 0.637168 0.000000
240.668140 44.896469 0.846663 0.000000
240.161450 45.011757 0.827303 0.000000
223.090530 46.313202 0.669316 0.000000
238.878070 45.730255 0.803236 0.000000
239.416920 45.635040 0.827339 0.000000
239.963180 45.564850 0.852920 0.000000
221.985350 47.250771 0.643730 0.000000
223.057800 47.103233 0.695872 0.000000
238.694960 46.280621 0.827858 0.000000
238.014590 46.968964 0.831267 0.000000
221.967330 48.042847 0.670096 0.000000
237.824750 47.477558 0.851223 0.000000
237.272800 47.583557 0.824265 0.000000
221.956760 48.823811 0.695959 0.000000
237.089290 48.087440 0.843221 0.000000
236.355190 48.705547 0.833603 0.000000
236.919510 48.593391 0.862599 0.000000
221.011410 49.870312 0.678544 0.000000
222.107330 49.676044 0.732461 0.000000
235.875150 49.562279 0.851732 0.000000
236.189390 49.206135 0.851828 0.000000
245.573820 48.802490 0.884400 0.000000
235.550340 49.908920 0.849871 0.000000
245.025830 49.361443 0.900881 0.000000
245.328720 49.135986 0.899427 0.000000
221.255260 50.754524 0.720178 0.000000
235.096340 50.147629 0.832994 0.000000
244.432530 49.824791 0.903921 0.000000
235.053160 50.728737 0.861549 0.000000
243.792980 50.213593 0.895315 0.000000
244.142930 50.063557 0.905640 0.000000
221.341830 51.541752 0.749514 0.000000
234.195420 51.264576 0.831584 0.000000
234.622920 50.991745 0.846487 0.000000
243.577270 50.553764 0.909333 0.000000
243.029080 51.058960 0.913182 0.000000
243.401690 50.938705 0.929225 0.000000
221.533480 52.360104 0.785164 0.000000
233.728530 52.105743 0.842086 0.000000
234.157380 51.828819 0.857962 0.000000
242.762330 51.317898 0.915285 0.000000
242.159380 51.750511 0.905981 0.000000
233.159360 52.871841 0.839491 0.000000
233.658860 52.633713 0.863343 0.000000
241.846600 52.232059 0.920053 0.000000
241.201110 52.886921 0.920143 0.000000
241.455310 52.621269 0.919970 0.000000
232.609770 53.654541 0.836904 0.000000
240.951350 53.156471 0.920392 0.000000
240.472500 53.713371 0.922145 0.000000
240.705380 53.429150 0.920607 0.000000
232.083440 54.455490 0.834653 0.000000
232.581760 54.190609 0.859350 0.000000
240.229220 53.987679 0.921571 0.000000
232.012070 54.960163 0.851425 0.000000
239.738950 54.534027 0.918278 0.000000
239.994600 54.269432 0.921671 0.000000
231.451780 55.208176 0.820318 0.000000
239.481740 54.798779 0.914201 0.000000
245.532790 54.513897 0.995825 0.000000
231.337680 55.689438 0.831813 0.000000
238.979160 55.342319 0.906299 0.000000
239.228820 55.068512 0.910259 0.000000
244.817810 55.044147 0.985007 0.000000
245.172200 54.774128 0.990385 0.000000
231.367200 56.233677 0.856148 0.000000
244.354740 55.417957 0.978084 0.000000
230.869170 56.532486 0.830166 0.000000
238.431230 56.086384 0.904299 0.000000
243.789510 55.904915 0.969356 0.000000
244.013240 55.706940 0.972794 0.000000
230.691360 56.980255 0.833838 0.000000
238.019000 56.480980 0.890913 0.000000
243.356290 56.317226 0.963567 0.000000
243.566960 56.105099 0.965654 0.000000
230.602110 57.463470 0.845093 0.000000
237.598240 57.096275 0.887895 0.000000
237.943120 56.869228 0.906605 0.000000
242.922560 56.733231 0.955753 0.000000
243.133420 56.519367 0.958858 0.000000
229.906830 57.709656 0.800339 0.000000
242.507520 57.169575 0.949205 0.000000
242.713710 56.949795 0.952501 0.000000
229.782840 58.185253 0.807521 0.000000
237.196730 57.726257 0.885196 0.000000
242.205020 57.506687 0.944399 0.000000
229.720290 58.680340 0.819607 0.000000
237.003170 58.046486 0.883946 0.000000
241.812560 57.967770 0.938102 0.000000
228.972730 58.948399 0.769865 0.000000
236.631650 58.697601 0.881753 0.000000
236.914120 58.418861 0.894699 0.000000
241.526920 58.322380 0.933516 0.000000
245.427920 58.187790 1.008600 0.000000
245.597170 58.003628 1.009088 0.000000
228.875150 59.438736 0.777915 0.000000
236.452040 59.027500 0.880601 0.000000
241.159190 58.807785 0.927606 0.000000
241.341710 58.563675 0.930605 0.000000
245.000340 58.645420 1.003997 0.000000
245.250580 58.365009 1.005914 0.000000
228.691760 59.902542 0.777785 0.000000
236.161360 59.311275 0.865968 0.000000
240.909000 59.189724 0.925629 0.000000
244.678910 59.030243 1.002016 0.000000
228.488360 60.362705 0.775386 0.000000
244.298400 59.528778 1.000557 0.000000
244.447430 59.326889 1.000991 0.000000
235.480330 60.268120 0.841994 0.000000
235.918750 60.026962 0.874694 0.000000
240.211120 60.032738 0.900172 0.000000
240.440990 59.804222 0.912440 0.000000
243.954070 59.903358 0.989626 0.000000
244.130810 59.718361 0.996153 0.000000
228.276080 60.823406 0.771725 0.000000
234.732760 60.829075 0.790889 0.000000
235.187710 60.571774 0.825728 0.000000
239.859790 60.381069 0.880170 0.000000
243.607790 60.283649 0.976603 0.000000
243.779790 60.091824 0.983119 0.000000
239.648510 60.797344 0.879174 0.000000
243.273740 60.678757 0.964012 0.000000
243.439130 60.479336 0.970241 0.000000
239.476820 61.063839 0.873491 0.000000
243.029500 60.983711 0.954442 0.000000
245.639130 61.000969 1.018184 0.000000
221.781460 45.451477 5.927690 0.000000
222.310230 46.623753 5.856562 0.000000
221.896710 47.987064 5.836030 0.000000
221.131580 48.348038 5.870624 0.000000
221.222790 44.213387 6.003943 0.000000
228.618180 36.743286 0.497550 0.000000
227.779430 36.936623 0.467892 0.000000
227.866960 38.081013 0.522758 0.000000
227.266110 38.516151 0.513721 0.000000
227.279400 39.531906 0.558351 0.000000
226.628160 39.914360 0.543537 0.000000
226.780730 41.008202 0.597071 0.000000
226.242890 41.482895 0.590543 0.000000
245.548430 40.947086 0.745360 0.000000
226.329470 42.469505 0.635302 0.000000
225.712630 42.874313 0.620929 0.000000
244.396290 42.064819 0.775853 0.000000
244.910870 41.974976 0.792482 0.000000
245.466000 41.984497 0.817515 0.000000
224.908980 44.028442 0.625942 0.000000
225.733510 43.771431 0.657723 0.000000
243.252750 43.097588 0.795453 0.000000
243.795590 43.055050 0.818473 0.000000
244.331680 43.016617 0.840898 0.000000
224.934770 44.904541 0.661096 0.000000
242.107030 44.064171 0.805185 0.000000
242.660570 44.022743 0.830501 0.000000
243.198620 43.972984 0.853904 0.000000
224.155460 45.213875 0.632588 0.000000
224.335240 46.167572 0.677585 0.000000
241.562590 45.002953 0.840230 0.000000
242.070590 44.891983 0.859569 0.000000
240.271410 45.705032 0.816011 0.000000
240.811980 45.613781 0.840086 0.000000
241.359570 45.547264 0.865621 0.000000
223.287900 47.145496 0.657974 0.000000
224.371730 47.003777 0.710209 0.000000
240.083080 46.247314 0.840418 0.000000
239.373980 46.899944 0.840896 0.000000
223.256740 47.931259 0.684147 0.000000
239.158810 47.380238 0.858156 0.000000
238.602510 47.482506 0.831106 0.000000
223.232970 48.706482 0.709820 0.000000
238.411700 47.979836 0.849778 0.000000
237.667010 48.590157 0.840004 0.000000
238.236300 48.481422 0.869103 0.000000
222.221620 49.722885 0.689276 0.000000
223.337940 49.536243 0.743786 0.000000
237.509090 49.099667 0.859797 0.000000
237.190160 49.452789 0.859723 0.000000
222.451780 50.603630 0.730720 0.000000
236.860460 49.796516 0.857874 0.000000
236.401080 50.032135 0.840937 0.000000
222.524570 51.387878 0.759873 0.000000
236.351880 50.609913 0.869465 0.000000
245.134720 50.120491 0.901572 0.000000
245.486940 49.972973 0.911933 0.000000
235.499450 51.153076 0.841206 0.000000
235.923460 50.876022 0.855166 0.000000
244.915850 50.457146 0.915513 0.000000
222.701520 52.203369 0.795259 0.000000
244.361800 50.956646 0.919248 0.000000
244.736980 50.838638 0.935343 0.000000
221.518920 52.421135 0.736027 0.000000
235.030490 51.995651 0.852662 0.000000
235.455960 51.714813 0.867617 0.000000
244.091930 51.212868 0.921295 0.000000
243.309830 52.004112 0.927826 0.000000
243.484100 51.642227 0.912102 0.000000
221.675400 53.219517 0.768722 0.000000
234.449920 52.757149 0.850050 0.000000
234.955870 52.521706 0.873997 0.000000
243.058580 52.275295 0.930156 0.000000
242.570210 52.828110 0.935004 0.000000
242.811680 52.549629 0.932496 0.000000
221.753420 53.970989 0.795105 0.000000
233.886890 53.535000 0.847284 0.000000
242.333190 53.109592 0.937524 0.000000
221.676350 54.653080 0.810217 0.000000
233.852490 54.069275 0.869692 0.000000
241.860140 53.670120 0.940774 0.000000
242.095730 53.389431 0.939324 0.000000
233.346330 54.331783 0.844828 0.000000
241.614030 53.941032 0.940114 0.000000
221.481140 55.288361 0.816800 0.000000
233.268390 54.835094 0.861559 0.000000
241.124450 54.486298 0.937569 0.000000
241.381130 54.223400 0.940783 0.000000
232.699810 55.081112 0.830284 0.000000
240.864520 54.748108 0.933447 0.000000
232.579300 55.561615 0.841771 0.000000
240.356120 55.286018 0.925447 0.000000
240.608490 55.014790 0.929422 0.000000
232.602480 56.105366 0.866091 0.000000
245.739870 55.377174 0.997031 0.000000
232.096860 56.403366 0.840049 0.000000
239.800060 56.023418 0.923292 0.000000
245.171840 55.858955 0.988327 0.000000
245.396880 55.663155 0.991781 0.000000
231.961940 56.872082 0.848308 0.000000
239.382900 56.414474 0.909837 0.000000
244.735860 56.267105 0.982520 0.000000
244.947830 56.056919 0.984592 0.000000
231.910060 57.372200 0.863552 0.000000
238.920390 57.005283 0.902392 0.000000
239.288330 56.791290 0.923562 0.000000
244.299010 56.679115 0.974678 0.000000
244.511550 56.467304 0.977811 0.000000
231.206020 57.616013 0.818642 0.000000
243.880390 57.111534 0.968071 0.000000
244.088410 56.893696 0.971397 0.000000
231.075180 58.090256 0.825747 0.000000
238.502700 57.628220 0.898602 0.000000
243.474040 57.558334 0.961579 0.000000
243.675870 57.333309 0.964845 0.000000
231.005450 58.584122 0.837719 0.000000
238.304760 57.947350 0.897281 0.000000
243.178040 57.903160 0.956796 0.000000
230.247910 58.850315 0.787788 0.000000
237.924220 58.596653 0.894943 0.000000
238.211440 58.318848 0.907975 0.000000
242.888790 58.255089 0.952109 0.000000
230.142990 59.339973 0.795744 0.000000
237.740010 58.925850 0.893716 0.000000
242.516010 58.737213 0.946059 0.000000
242.701100 58.494705 0.949129 0.000000
229.974990 59.809891 0.797542 0.000000
237.444090 59.208824 0.878958 0.000000
242.156630 59.232399 0.940065 0.000000
242.334230 58.982964 0.942997 0.000000
229.764370 60.269501 0.795088 0.000000
237.232590 59.939499 0.892179 0.000000
241.983350 59.485497 0.937276 0.000000
229.544510 60.729797 0.791350 0.000000
236.789730 60.179886 0.859471 0.000000
241.789570 59.729443 0.930998 0.000000
245.627400 59.742523 1.039546 0.000000
228.631010 61.033035 0.727419 0.000000
236.028580 60.738285 0.807845 0.000000
236.492800 60.482994 0.843196 0.000000
241.277740 60.338448 0.909484 0.000000
245.190950 60.203609 1.023294 0.000000
245.450970 59.924210 1.033040 0.000000
241.062990 60.751301 0.908385 0.000000
244.853590 60.588291 1.010571 0.000000
244.518680 60.982510 0.996588 0.000000
222.256500 46.503876 5.958702 0.000000
221.940020 47.963928 5.932952 0.000000
221.143080 48.339790 5.970847 0.000000
221.166410 44.086853 6.102668 0.000000
221.725560 45.326897 6.028255 0.000000
229.153690 36.877289 0.483622 0.000000
230.005190 36.697899 0.514023 0.000000
228.454090 38.275635 0.513889 0.000000
229.258330 38.038322 0.540643 0.000000
227.642880 39.528961 0.530290 0.000000
228.464890 39.294800 0.559131 0.000000
227.775340 40.616035 0.583134 0.000000
227.229320 41.095127 0.576900 0.000000
227.304320 42.083347 0.621691 0.000000
226.673770 42.488655 0.607157 0.000000
226.836110 43.503773 0.656285 0.000000
226.064060 43.806267 0.629457 0.000000
244.738270 43.234146 0.827591 0.000000
245.277800 43.194168 0.850380 0.000000
226.027830 44.644310 0.660464 0.000000
225.233760 44.950798 0.631601 0.000000
243.582110 44.161484 0.835111 0.000000
244.111210 44.087288 0.856668 0.000000
244.625120 44.002533 0.876177 0.000000
225.404970 45.906025 0.676684 0.000000
242.941700 44.950325 0.855714 0.000000
243.460250 44.855698 0.876438 0.000000
241.639300 45.636208 0.830760 0.000000
242.181660 45.547318 0.854809 0.000000
242.718310 45.465752 0.878477 0.000000
225.545170 46.814400 0.717865 0.000000
224.588380 47.037476 0.675827 0.000000
241.447190 46.173679 0.855035 0.000000
240.731890 46.819370 0.855389 0.000000
224.548110 47.819458 0.701848 0.000000
239.924650 47.364185 0.841785 0.000000
240.504200 47.286015 0.871423 0.000000
224.515210 48.591274 0.727369 0.000000
239.716890 47.845512 0.858817 0.000000
238.962810 48.451118 0.848848 0.000000
239.536330 48.344063 0.878004 0.000000
223.450120 49.584114 0.704144 0.000000
224.579650 49.401260 0.758908 0.000000
238.814250 48.971672 0.870240 0.000000
238.493960 49.325562 0.870463 0.000000
223.671260 50.463348 0.745454 0.000000
237.696040 49.901447 0.851577 0.000000
238.159450 49.667107 0.868516 0.000000
223.733250 51.245640 0.774370 0.000000
237.643040 50.478157 0.880146 0.000000
236.781140 51.018570 0.851781 0.000000
237.208850 50.741997 0.865675 0.000000
223.900180 52.059906 0.809559 0.000000
245.412250 51.083542 0.929318 0.000000
245.684740 50.828575 0.927298 0.000000
222.701780 52.274666 0.749994 0.000000
236.303250 51.859451 0.863221 0.000000
236.733700 51.579674 0.878230 0.000000
244.798860 51.510521 0.920039 0.000000
245.238850 51.455490 0.947329 0.000000
244.621870 51.871445 0.935769 0.000000
222.836760 53.068020 0.781730 0.000000
235.725280 52.627464 0.861802 0.000000
236.224980 52.385410 0.884631 0.000000
244.367450 52.141354 0.938026 0.000000
222.788990 53.775173 0.800158 0.000000
243.873460 52.692787 0.942864 0.000000
244.116820 52.413998 0.940214 0.000000
235.165800 53.411980 0.860300 0.000000
243.633530 52.973663 0.945372 0.000000
222.755250 54.479671 0.818782 0.000000
235.128330 53.946495 0.882818 0.000000
243.180240 53.556442 0.952349 0.000000
243.397450 53.257030 0.947802 0.000000
234.620790 54.210438 0.858289 0.000000
242.958480 53.850075 0.955551 0.000000
221.290070 55.410412 0.762025 0.000000
222.579250 55.127258 0.827248 0.000000
234.537840 54.713161 0.874949 0.000000
242.629710 54.291649 0.959626 0.000000
233.963090 54.958286 0.843565 0.000000
242.248200 54.689964 0.955199 0.000000
221.049650 56.056778 0.765770 0.000000
233.837800 55.438725 0.855023 0.000000
241.863130 55.089508 0.949152 0.000000
220.808580 56.704388 0.768985 0.000000
233.856810 55.982819 0.879348 0.000000
233.344570 56.280331 0.853178 0.000000
241.174730 55.957436 0.944935 0.000000
233.204540 56.749363 0.861389 0.000000
240.754440 56.346310 0.931469 0.000000
233.153550 57.252384 0.877122 0.000000
240.287280 56.934288 0.923970 0.000000
240.657440 56.721565 0.945138 0.000000
245.678650 56.617783 0.995846 0.000000
232.513530 57.523453 0.838570 0.000000
245.256880 57.047085 0.989087 0.000000
245.465810 56.830208 0.992372 0.000000
232.399340 58.004974 0.847548 0.000000
239.835010 57.538879 0.916502 0.000000
244.848770 57.492172 0.982704 0.000000
245.051930 57.268311 0.985984 0.000000
232.324510 58.497925 0.859407 0.000000
239.620320 57.850266 0.913470 0.000000
244.562240 57.843216 0.979716 0.000000
231.560200 58.763004 0.809391 0.000000
239.233410 58.498878 0.911029 0.000000
239.524030 58.221436 0.924120 0.000000
244.289060 58.205067 0.977804 0.000000
231.450100 59.252140 0.817251 0.000000
239.046550 58.828167 0.909823 0.000000
244.033810 58.580013 0.977334 0.000000
231.297650 59.727684 0.820787 0.000000
238.746250 59.110588 0.894906 0.000000
243.698530 58.909851 0.963781 0.000000
231.081970 60.186810 0.818274 0.000000
238.566570 59.856178 0.912401 0.000000
243.485460 59.485996 0.978762 0.000000
230.856640 60.646721 0.814453 0.000000
238.120480 60.096161 0.879688 0.000000
243.254180 59.877861 0.977749 0.000000
229.934800 60.949215 0.750407 0.000000
237.352420 60.653896 0.827999 0.000000
237.820390 60.398949 0.863389 0.000000
242.603390 60.417545 0.936088 0.000000
242.908510 60.218517 0.959373 0.000000
237.237340 61.030296 0.831774 0.000000
242.523850 60.719971 0.944315 0.000000
221.697770 45.270256 6.132896 0.000000
222.230300 46.450562 6.064725 0.000000
221.941250 47.963993 6.038939 0.000000
221.110200 48.355698 6.080182 0.000000
232.990370 36.491344 0.502469 0.000000
233.881770 36.431671 0.538908 0.000000
232.153320 37.705544 0.524168 0.000000
232.991210 37.567272 0.555434 0.000000
231.416720 38.988808 0.551617 0.000000
232.194050 38.774632 0.577524 0.000000
230.561280 40.124916 0.564379 0.000000
231.380690 39.936050 0.594527 0.000000
230.307570 41.768814 0.627250 0.000000
231.083020 41.539711 0.654494 0.000000
229.430300 42.829979 0.631274 0.000000
230.455320 42.789932 0.680279 0.000000
228.510930 43.860954 0.629771 0.000000
229.613680 43.845139 0.684763 0.000000
227.602010 44.909050 0.627424 0.000000
228.625310 44.795506 0.675264 0.000000
245.727170 44.651749 0.864505 0.000000
227.719940 45.822090 0.671154 0.000000
245.024990 45.301086 0.874702 0.000000
245.533070 45.220108 0.895400 0.000000
227.812320 46.693306 0.711323 0.000000
244.229800 45.805626 0.867583 0.000000
244.774870 45.762794 0.894010 0.000000
226.945710 46.945000 0.675729 0.000000
243.499650 46.400085 0.868107 0.000000
243.312620 46.915604 0.892462 0.000000
227.059080 47.807644 0.715629 0.000000
242.801160 47.030243 0.870691 0.000000
242.015410 47.560352 0.859375 0.000000
242.569890 47.479118 0.886952 0.000000
227.127500 48.622665 0.750766 0.000000
241.781680 48.000504 0.873844 0.000000
240.991900 48.535881 0.859395 0.000000
241.559660 48.444611 0.888742 0.000000
226.050810 49.555573 0.727695 0.000000
227.149200 49.393311 0.781190 0.000000
240.823270 49.027779 0.879545 0.000000
240.496860 49.362549 0.879461 0.000000
226.183530 50.377266 0.765027 0.000000
239.700120 49.909264 0.860966 0.000000
240.159560 49.688053 0.877578 0.000000
226.083370 51.066914 0.784313 0.000000
239.195760 50.713860 0.874786 0.000000
239.627490 50.463200 0.888909 0.000000
238.767970 50.975525 0.861026 0.000000
225.003300 52.032703 0.758177 0.000000
226.058810 51.783459 0.808216 0.000000
238.701680 51.516335 0.887020 0.000000
238.276000 51.785252 0.872733 0.000000
224.963500 52.743530 0.780024 0.000000
237.200650 52.770538 0.850340 0.000000
237.713130 52.540905 0.874417 0.000000
224.884960 53.429741 0.798368 0.000000
245.728670 52.749115 0.964319 0.000000
237.182140 53.320152 0.877434 0.000000
245.379790 53.164959 0.969899 0.000000
224.876340 54.135803 0.820795 0.000000
237.188950 53.873692 0.905998 0.000000
245.049740 53.595688 0.977013 0.000000
224.694000 54.769951 0.830578 0.000000
236.676510 54.117088 0.881008 0.000000
244.823940 53.875450 0.979995 0.000000
223.480380 55.049706 0.770092 0.000000
235.950380 54.800591 0.860799 0.000000
236.569470 54.597057 0.896595 0.000000
244.367750 54.428867 0.983488 0.000000
223.264370 55.690170 0.777133 0.000000
235.795500 55.257187 0.870665 0.000000
243.844620 54.929703 0.975396 0.000000
244.104490 54.676876 0.979402 0.000000
243.241180 55.381504 0.954821 0.000000
243.588100 55.187233 0.971454 0.000000
223.022990 56.323231 0.781984 0.000000
235.263630 56.059788 0.867139 0.000000
235.791810 55.784489 0.894490 0.000000
243.194500 55.792282 0.978400 0.000000
242.836170 55.985428 0.959587 0.000000
222.780060 56.957577 0.786266 0.000000
235.102010 56.511246 0.874628 0.000000
242.592190 56.260426 0.955700 0.000000
222.528810 57.591850 0.789547 0.000000
234.389860 57.254330 0.851585 0.000000
235.028690 56.998619 0.889810 0.000000
241.789990 57.059486 0.932718 0.000000
242.115280 56.824066 0.948109 0.000000
234.286070 57.732700 0.862964 0.000000
241.652800 57.405216 0.940669 0.000000
222.278550 58.229237 0.792454 0.000000
241.425830 57.701599 0.936842 0.000000
222.035580 58.871544 0.795400 0.000000
233.560850 58.504646 0.836758 0.000000
234.241790 58.229836 0.879126 0.000000
241.300780 58.052063 0.945068 0.000000
240.775020 58.620026 0.926448 0.000000
240.987050 58.309200 0.929756 0.000000
233.435060 58.978817 0.844594 0.000000
240.470920 58.892456 0.911741 0.000000
245.592740 58.906429 1.018973 0.000000
233.301610 59.449711 0.851151 0.000000
240.399510 59.269375 0.924220 0.000000
245.618610 59.261971 1.047464 0.000000
233.098210 59.900402 0.850931 0.000000
239.908830 59.881821 0.906715 0.000000
245.276050 59.574757 1.031043 0.000000
231.900860 60.614754 0.779946 0.000000
232.816450 60.332890 0.843338 0.000000
239.606510 60.174034 0.890865 0.000000
244.787670 60.155655 1.014403 0.000000
239.142150 60.417755 0.856272 0.000000
244.485860 60.343597 0.991666 0.000000
231.575200 61.060776 0.768166 0.000000
239.117720 60.816410 0.871472 0.000000
244.112700 60.839008 0.978552 0.000000
244.397600 60.633434 0.999387 0.000000
220.936610 46.840591 1.318528 0.000000
220.940190 46.834602 2.285968 0.000000
220.937210 46.825165 3.252490 0.000000
220.933940 46.815578 4.219331 0.000000
220.930530 46.805893 5.187438 0.000000
221.864320 45.553833 6.132848 0.000000
222.358250 46.705193 6.072607 0.000000
222.553300 47.658951 6.036754 0.000000
233.265590 36.989067 0.525685 0.000000
234.197600 36.942440 0.565720 0.000000
232.501130 38.282043 0.551208 0.000000
233.288800 38.064583 0.577631 0.000000
231.604000 39.413628 0.560824 0.000000
232.468490 39.255119 0.594674 0.000000
231.861210 40.616280 0.627475 0.000000
231.156890 40.928703 0.607193 0.000000
230.718950 42.391426 0.649539 0.000000
231.668460 42.285900 0.692021 0.000000
229.805480 43.440865 0.648238 0.000000
230.914200 43.429634 0.703779 0.000000
228.796420 44.430481 0.637450 0.000000
229.955720 44.413513 0.696384 0.000000
228.861760 45.321220 0.676814 0.000000
245.598690 45.446594 0.884770 0.000000
227.849090 46.312721 0.662734 0.000000
228.998690 46.235661 0.720331 0.000000
244.810180 45.981720 0.877649 0.000000
228.012860 47.224960 0.706532 0.000000
244.077680 46.590717 0.876469 0.000000
244.595340 46.475319 0.898578 0.000000
243.287400 47.134884 0.865479 0.000000
243.843810 47.048798 0.892861 0.000000
228.183040 48.116135 0.749347 0.000000
243.058000 47.590874 0.880911 0.000000
242.840500 48.050217 0.896733 0.000000
228.308170 48.958176 0.787385 0.000000
242.269030 48.143169 0.867244 0.000000
227.163670 49.097282 0.730333 0.000000
242.081990 48.627319 0.885411 0.000000
241.443700 49.326942 0.887004 0.000000
241.777070 48.990700 0.888206 0.000000
227.239140 49.901810 0.763279 0.000000
240.975250 49.545616 0.869529 0.000000
240.927250 50.129940 0.900464 0.000000
227.137660 50.602112 0.782311 0.000000
240.487150 50.378345 0.885500 0.000000
227.118380 51.332691 0.806421 0.000000
240.048310 50.635918 0.870600 0.000000
226.054500 51.581490 0.755610 0.000000
240.045580 51.233376 0.903678 0.000000
239.607910 51.496204 0.888062 0.000000
226.019640 52.305305 0.777600 0.000000
239.570500 52.050446 0.915313 0.000000
225.943800 53.002777 0.795913 0.000000
238.542430 52.497902 0.866570 0.000000
239.055270 52.267040 0.890755 0.000000
238.526060 53.054554 0.893793 0.000000
225.941710 53.721657 0.818561 0.000000
238.024020 53.860069 0.897508 0.000000
238.535260 53.615108 0.922498 0.000000
225.868010 54.404488 0.835511 0.000000
224.651640 54.682243 0.774453 0.000000
237.345990 54.573242 0.881765 0.000000
237.964460 54.370716 0.917705 0.000000
224.439580 55.329891 0.781411 0.000000
237.172410 55.022507 0.889599 0.000000
245.250470 54.740025 0.996848 0.000000
245.510860 54.485966 1.000929 0.000000
244.645950 55.193127 0.976074 0.000000
244.993520 54.998772 0.992831 0.000000
224.227870 55.977562 0.787869 0.000000
236.596950 55.807770 0.881488 0.000000
237.143800 55.541245 0.910825 0.000000
244.599580 55.607445 0.999676 0.000000
224.013000 56.624706 0.793610 0.000000
236.436550 56.262886 0.888920 0.000000
244.118700 55.938560 0.978759 0.000000
223.766220 57.264038 0.796766 0.000000
235.706630 57.001556 0.863818 0.000000
236.364780 56.754505 0.904071 0.000000
243.356930 56.760166 0.961275 0.000000
223.520770 57.906235 0.799555 0.000000
235.601040 57.482662 0.874847 0.000000
243.057070 57.225380 0.961391 0.000000
242.830120 57.522602 0.957464 0.000000
223.281850 58.552849 0.802319 0.000000
234.855090 58.250164 0.846314 0.000000
235.557210 57.983681 0.890865 0.000000
242.391630 58.131832 0.950181 0.000000
242.705440 57.874794 0.965633 0.000000
234.779510 58.744164 0.858482 0.000000
242.177990 58.442543 0.946549 0.000000
241.853160 58.705547 0.929230 0.000000
221.557130 59.607735 0.727213 0.000000
234.701970 59.234509 0.869801 0.000000
241.764630 59.077118 0.939590 0.000000
220.854100 60.203308 0.699871 0.000000
234.567540 59.705708 0.875413 0.000000
241.348130 59.720169 0.930454 0.000000
233.343020 60.405834 0.801233 0.000000
234.251690 60.127415 0.864460 0.000000
241.086380 60.026192 0.919063 0.000000
240.662960 60.281036 0.888865 0.000000
233.021210 60.851334 0.789426 0.000000
240.642780 60.680214 0.904301 0.000000
240.431430 61.016273 0.897470 0.000000
245.525330 61.022449 1.018410 0.000000
234.011200 36.383030 0.527301 0.000000
234.987290 36.365814 0.570128 0.000000
233.073040 37.538807 0.538361 0.000000
233.898390 37.335869 0.566790 0.000000
232.148410 38.691849 0.547669 0.000000
233.039920 38.535603 0.582417 0.000000
231.404680 39.992775 0.569914 0.000000
232.251650 39.778114 0.601051 0.000000
231.148350 41.665245 0.629704 0.000000
231.927150 41.390450 0.656017 0.000000
230.404820 42.891426 0.644322 0.000000
231.551650 42.891785 0.701547 0.000000
229.374510 43.901833 0.633452 0.000000
230.573960 43.896217 0.694155 0.000000
229.533750 44.874420 0.680400 0.000000
228.354580 45.790428 0.654886 0.000000
229.544860 45.721443 0.714221 0.000000
228.534870 46.731155 0.700068 0.000000
245.057630 46.206665 0.877513 0.000000
245.614260 46.127441 0.903944 0.000000
244.230900 46.733383 0.863505 0.000000
228.721500 47.649609 0.744211 0.000000
243.998750 47.198883 0.879294 0.000000
243.778820 47.667839 0.895481 0.000000
228.872890 48.523308 0.784305 0.000000
243.194550 47.759552 0.865452 0.000000
227.662550 48.642792 0.723673 0.000000
243.009600 48.257553 0.884472 0.000000
242.699650 48.627525 0.887362 0.000000
227.747800 49.469528 0.757478 0.000000
241.909940 49.214912 0.871612 0.000000
242.380190 48.987534 0.888502 0.000000
227.642350 50.184471 0.776512 0.000000
241.454120 50.093903 0.892243 0.000000
241.903560 49.844635 0.907616 0.000000
227.629790 50.934647 0.801299 0.000000
241.009250 50.355259 0.877305 0.000000
226.533750 51.184776 0.749315 0.000000
241.010450 50.964272 0.910985 0.000000
240.564940 51.229485 0.895115 0.000000
226.505140 51.927696 0.771929 0.000000
240.005890 52.012096 0.897954 0.000000
240.530730 51.794209 0.922888 0.000000
226.435360 52.643692 0.790867 0.000000
239.483510 52.244583 0.873397 0.000000
226.438980 53.380486 0.814031 0.000000
239.470750 52.811558 0.901125 0.000000
239.484150 53.382446 0.930353 0.000000
226.421660 54.099480 0.834954 0.000000
238.963470 53.629326 0.904983 0.000000
225.200530 54.389431 0.774625 0.000000
238.927060 54.160507 0.927612 0.000000
224.988130 55.050903 0.781773 0.000000
238.316860 54.374275 0.893093 0.000000
238.142960 54.829933 0.901079 0.000000
224.776180 55.712280 0.788413 0.000000
238.117430 55.356659 0.922645 0.000000
245.746860 55.033005 0.989152 0.000000
237.544340 55.617001 0.891302 0.000000
245.338580 55.646847 0.993930 0.000000
245.701830 55.452641 1.013044 0.000000
224.568080 56.375038 0.794782 0.000000
237.354130 56.065414 0.896088 0.000000
245.091750 55.925377 0.989898 0.000000
224.340070 57.032848 0.799346 0.000000
237.284740 56.565319 0.911563 0.000000
236.614910 56.814579 0.870808 0.000000
244.281710 56.734482 0.966549 0.000000
244.610720 56.496964 0.982171 0.000000
224.094920 57.687992 0.802323 0.000000
236.510930 57.303516 0.882092 0.000000
244.143650 57.085529 0.974461 0.000000
236.470340 57.812836 0.898454 0.000000
243.916060 57.386436 0.970682 0.000000
223.856050 58.347385 0.805240 0.000000
235.752590 58.080700 0.853065 0.000000
243.474150 58.001850 0.963399 0.000000
243.790790 57.742310 0.978906 0.000000
235.677080 58.581875 0.865296 0.000000
243.258830 58.315662 0.959755 0.000000
222.111570 59.423347 0.730063 0.000000
235.599470 59.079262 0.876660 0.000000
242.929530 58.580502 0.942184 0.000000
242.841800 58.956333 0.952703 0.000000
221.525380 60.052780 0.710459 0.000000
235.530790 59.576595 0.888150 0.000000
242.495180 59.634129 0.951930 0.000000
220.844540 60.683247 0.684798 0.000000
234.279860 60.281139 0.812466 0.000000
235.211430 60.002979 0.877063 0.000000
242.252470 59.949478 0.942836 0.000000
233.954590 60.731842 0.800525 0.000000
241.815580 60.201504 0.911340 0.000000
241.586330 60.941753 0.920163 0.000000
241.798370 60.603836 0.927017 0.000000
220.929230 46.865135 1.316840 0.000000
220.925860 46.855961 2.334989 0.000000
220.922470 46.846786 3.352551 0.000000
220.919110 46.837627 4.370484 0.000000
220.915740 46.828449 5.389770 0.000000
235.248700 36.243694 0.549581 0.000000
236.269590 36.273788 0.596136 0.000000
234.189680 37.283493 0.550377 0.000000
235.120420 37.183655 0.587925 0.000000
233.200850 38.389984 0.555185 0.000000
234.107130 38.239349 0.590406 0.000000
233.301330 39.482681 0.608783 0.000000
232.439120 39.692276 0.577147 0.000000
232.809460 40.970093 0.650610 0.000000
232.009220 41.240120 0.623474 0.000000
231.626460 42.767052 0.668995 0.000000
232.608260 42.634705 0.711941 0.000000
230.576280 43.768513 0.657385 0.000000
231.792540 43.772453 0.718716 0.000000
230.756960 44.758949 0.706152 0.000000
229.408200 45.572426 0.668610 0.000000
230.758270 45.602081 0.739399 0.000000
229.580840 46.515095 0.713473 0.000000
245.411480 46.532730 0.871707 0.000000
229.766400 47.439537 0.757785 0.000000
245.162260 46.985115 0.885820 0.000000
244.346910 47.545734 0.871772 0.000000
244.938550 47.455917 0.902058 0.000000
228.639720 48.408669 0.733417 0.000000
229.916700 48.319107 0.798049 0.000000
244.158810 48.046471 0.890912 0.000000
243.843600 48.417130 0.893712 0.000000
228.787960 49.275589 0.772056 0.000000
243.517620 48.776840 0.894625 0.000000
243.057510 49.018707 0.879497 0.000000
228.670070 49.990528 0.790546 0.000000
243.048840 49.651783 0.915616 0.000000
242.632370 49.933048 0.904477 0.000000
227.352830 50.908924 0.749905 0.000000
228.647280 50.742191 0.814913 0.000000
242.221500 50.225159 0.893764 0.000000
242.220470 50.835518 0.927434 0.000000
227.320710 51.660793 0.772710 0.000000
241.773900 51.102798 0.911860 0.000000
241.738010 51.669273 0.939688 0.000000
227.246870 52.385468 0.791810 0.000000
240.678620 52.117069 0.889803 0.000000
241.207200 51.885826 0.914563 0.000000
227.247650 53.131454 0.815179 0.000000
240.663910 52.685890 0.917555 0.000000
240.675630 53.258820 0.946819 0.000000
226.022400 54.164921 0.777975 0.000000
227.226960 53.859398 0.836270 0.000000
240.148480 53.504780 0.921234 0.000000
240.109920 54.037846 0.943873 0.000000
225.818560 54.838833 0.786140 0.000000
239.513080 54.261696 0.911124 0.000000
239.336880 54.718845 0.919146 0.000000
225.599810 55.507446 0.792777 0.000000
239.309710 55.247490 0.940748 0.000000
225.384840 56.177559 0.799133 0.000000
238.639100 55.464359 0.900616 0.000000
238.534770 55.956154 0.913786 0.000000
225.161160 56.845932 0.804410 0.000000
238.433000 56.444977 0.926463 0.000000
237.732850 56.685112 0.883420 0.000000
245.527560 56.647385 0.984835 0.000000
224.927920 57.513306 0.808577 0.000000
237.625670 57.176830 0.894677 0.000000
245.387730 56.999054 0.992732 0.000000
224.681430 58.179802 0.811426 0.000000
237.582460 57.689217 0.911033 0.000000
245.171220 57.307518 0.990551 0.000000
236.853640 57.957047 0.865184 0.000000
245.079590 57.682068 1.003030 0.000000
236.775100 58.461414 0.877392 0.000000
244.700360 58.328533 1.002428 0.000000
222.896030 59.265110 0.735108 0.000000
236.694340 58.962002 0.888717 0.000000
244.265320 58.542988 0.972459 0.000000
222.374770 59.915760 0.720105 0.000000
236.622740 59.462692 0.900182 0.000000
244.258900 58.953331 0.992535 0.000000
236.353150 59.906788 0.893768 0.000000
243.941300 59.638191 0.995140 0.000000
244.334870 59.391472 1.021275 0.000000
221.722760 60.559120 0.696809 0.000000
235.390960 60.180168 0.827121 0.000000
243.693410 59.948967 0.985494 0.000000
235.051530 60.631241 0.814291 0.000000
243.228560 60.188633 0.950974 0.000000
243.208010 60.587975 0.966249 0.000000
220.972490 47.110489 1.317765 0.000000
220.777950 47.935547 1.330984 0.000000
220.974610 47.103149 2.358244 0.000000
220.976060 47.095493 3.397886 0.000000
220.975950 47.087101 4.437741 0.000000
220.975860 47.078705 5.478846 0.000000
237.591340 36.737713 0.595763 0.000000
238.565870 36.753426 0.639677 0.000000
236.385330 37.572197 0.581400 0.000000
237.299010 37.483494 0.618644 0.000000
236.188840 38.402275 0.611553 0.000000
235.325960 38.570900 0.579313 0.000000
235.391360 39.624245 0.630957 0.000000
234.553880 39.833534 0.600686 0.000000
234.888090 41.077770 0.672710 0.000000
234.092270 41.330856 0.645322 0.000000
233.782350 42.892502 0.698025 0.000000
234.629710 42.677261 0.730669 0.000000
233.110370 44.131218 0.716711 0.000000
234.232860 44.103081 0.772135 0.000000
233.197360 45.038834 0.758705 0.000000
231.865340 45.809570 0.721247 0.000000
233.169970 45.844986 0.790165 0.000000
231.854400 46.622826 0.752793 0.000000
231.923800 47.466942 0.789229 0.000000
230.788090 48.395523 0.764035 0.000000
232.039730 48.317905 0.827863 0.000000
245.492720 48.333916 0.902454 0.000000
230.909240 49.239346 0.801641 0.000000
244.701480 48.919033 0.887867 0.000000
245.162840 48.685249 0.903174 0.000000
