# .PCD v0.7 - Point Cloud Data file format
VERSION 0.7
FIELDS x y z intensity
SIZE 4 4 4 4
TYPE F F F F
COUNT 1 1 1 1
WIDTH 1225
HEIGHT 1
VIEWPOINT 0 0 0 1 0 0 0
POINTS 1225
DATA ascii
242.914690 80.962631 1.203215 0.000000
243.144070 81.065735 1.209689 0.000000
243.374920 81.165016 1.216111 0.000000
233.482700 81.992218 1.093461 0.000000
238.499330 81.647072 1.122891 0.000000
238.746640 81.823875 1.130821 0.000000
243.607060 81.260765 1.222433 0.000000
243.958100 81.396278 1.231858 0.000000
244.430560 81.563477 1.244307 0.000000
233.480210 82.491295 1.069484 0.000000
239.123400 82.079811 1.142750 0.000000
244.787960 81.678558 1.253566 0.000000
245.268370 81.817291 1.265719 0.000000
245.631380 81.909798 1.274740 0.000000
239.631610 82.410187 1.158056 0.000000
233.584140 83.168510 1.044715 0.000000
240.015150 82.652878 1.168684 0.000000
240.404720 82.884956 1.179200 0.000000
233.962360 83.599556 1.053335 0.000000
240.798370 83.109489 1.189491 0.000000
241.116880 83.157646 1.208227 0.000000
234.241850 83.860352 1.061848 0.000000
241.334240 83.387817 1.203672 0.000000
241.604250 83.522339 1.210442 0.000000
234.524810 84.117088 1.070264 0.000000
234.820280 84.359634 1.079827 0.000000
242.153430 83.771431 1.224610 0.000000
242.384190 83.993843 1.219321 0.000000
242.709340 84.003441 1.238424 0.000000
235.253600 84.733246 1.091714 0.000000
242.989750 84.112839 1.245214 0.000000
243.272800 84.214958 1.252249 0.000000
243.679640 84.415558 1.256280 0.000000
235.702710 85.087708 1.104690 0.000000
244.419720 84.574013 1.280027 0.000000
244.711170 84.646217 1.287428 0.000000
236.161190 85.429123 1.117643 0.000000
244.968770 84.843361 1.280772 0.000000
245.296200 84.777992 1.301813 0.000000
245.750490 84.800606 1.319029 0.000000
236.628250 85.758133 1.130773 0.000000
242.821000 85.370148 1.527263 0.000000
243.177000 85.334595 1.547020 0.000000
237.357410 86.037880 1.163121 0.000000
221.954380 76.490364 1.430539 0.000000
227.512410 76.520081 1.243099 0.000000
228.596950 76.525131 1.328335 0.000000
229.592300 76.529877 1.406130 0.000000
230.510120 76.534096 1.477452 0.000000
231.359150 76.538078 1.543028 0.000000
232.147400 76.541801 1.603526 0.000000
232.881590 76.545303 1.659502 0.000000
233.508320 76.948189 1.298031 0.000000
233.505750 77.308846 1.690511 0.000000
233.503880 77.684662 1.681758 0.000000
233.501940 78.068527 1.672440 0.000000
233.499940 78.460960 1.662534 0.000000
233.497880 78.862480 1.652011 0.000000
233.495770 79.273651 1.640847 0.000000
233.493640 79.695068 1.629013 0.000000
233.491460 80.127419 1.616472 0.000000
233.489140 80.571442 1.603184 0.000000
233.486860 81.027763 1.589125 0.000000
233.484440 81.497368 1.574234 0.000000
233.481960 81.981018 1.558477 0.000000
233.479460 82.479675 1.541805 0.000000
233.476870 82.994400 1.524158 0.000000
233.474140 83.526344 1.505476 0.000000
233.471310 84.076691 1.485695 0.000000
233.468410 84.646751 1.464747 0.000000
233.465420 85.237961 1.442557 0.000000
233.462300 85.851936 1.419032 0.000000
242.789110 85.430389 1.928306 0.000000
243.168470 85.334518 1.948614 0.000000
223.560180 76.498062 1.525679 0.000000
225.002790 76.505417 1.610803 0.000000
226.310090 76.511238 1.687619 0.000000
227.498080 76.516815 1.757111 0.000000
228.583100 76.522171 1.820278 0.000000
229.579270 76.527031 1.877986 0.000000
230.497800 76.531372 1.930921 0.000000
231.347470 76.535454 1.979621 0.000000
232.136320 76.539268 2.024579 0.000000
232.871060 76.542854 2.066205 0.000000
233.507680 76.940544 1.698731 0.000000
233.505110 77.301003 2.093745 0.000000
233.503230 77.676590 2.089196 0.000000
233.502080 78.059723 2.084347 0.000000
233.499270 78.452393 2.079036 0.000000
233.497190 78.853638 2.073396 0.000000
233.495070 79.264542 2.067361 0.000000
233.492940 79.685654 2.060916 0.000000
233.490720 80.117699 2.054037 0.000000
233.488430 80.561378 2.046702 0.000000
233.486150 81.017357 2.038894 0.000000
233.483720 81.486588 2.030579 0.000000
233.481230 81.969856 2.021734 0.000000
233.478710 82.468102 2.012331 0.000000
233.476120 82.982399 2.002336 0.000000
233.473370 83.513878 1.991708 0.000000
233.470540 84.063744 1.980412 0.000000
233.467620 84.633270 1.968408 0.000000
233.464630 85.223923 1.955647 0.000000
233.461490 85.837296 1.942078 0.000000
242.760070 85.483154 2.331532 0.000000
221.934620 76.486572 2.058188 0.000000
223.541960 76.494469 2.119927 0.000000
224.985900 76.502014 2.175218 0.000000
226.294360 76.507996 2.225155 0.000000
227.483370 76.513733 2.270378 0.000000
228.569290 76.519211 2.311531 0.000000
229.566270 76.524200 2.349169 0.000000
230.485500 76.528641 2.383735 0.000000
231.335830 76.532829 2.415576 0.000000
232.125240 76.536751 2.445009 0.000000
232.860530 76.540413 2.472300 0.000000
233.507020 76.932945 2.097965 0.000000
233.504460 77.293190 2.495888 0.000000
233.502580 77.668533 2.495528 0.000000
233.500610 78.051926 2.495033 0.000000
233.498610 78.443840 2.494401 0.000000
233.496520 78.844833 2.493626 0.000000
233.494400 79.255432 2.492703 0.000000
233.492260 79.676254 2.491628 0.000000
233.490050 80.107986 2.490391 0.000000
233.487730 80.551338 2.488985 0.000000
233.485430 81.006981 2.487406 0.000000
233.483000 81.475845 2.485641 0.000000
233.480500 81.958733 2.483682 0.000000
233.477970 82.456573 2.481522 0.000000
233.475360 82.970413 2.479147 0.000000
233.472610 83.501450 2.476544 0.000000
233.469770 84.050819 2.473701 0.000000
233.466840 84.619827 2.470604 0.000000
233.463820 85.209930 2.467237 0.000000
233.460690 85.822693 2.463582 0.000000
242.761110 85.457771 2.738204 0.000000
243.169400 85.308548 2.350353 0.000000
223.523760 76.490883 2.713957 0.000000
224.968990 76.498611 2.739408 0.000000
226.278630 76.504761 2.762463 0.000000
227.468640 76.510643 2.783415 0.000000
228.555480 76.516258 2.802553 0.000000
229.553250 76.521362 2.820122 0.000000
230.473220 76.525917 2.836319 0.000000
231.324190 76.530205 2.851303 0.000000
232.114200 76.534210 2.865213 0.000000
232.850020 76.537964 2.878169 0.000000
233.506060 76.921562 2.694851 0.000000
233.503810 77.285400 2.897320 0.000000
233.501920 77.660507 2.901137 0.000000
233.499940 78.043655 2.905036 0.000000
233.497940 78.435303 2.909021 0.000000
233.495850 78.836021 2.913098 0.000000
233.493710 79.246353 2.917273 0.000000
233.491560 79.666885 2.921552 0.000000
233.489350 80.098297 2.925942 0.000000
233.487030 80.541321 2.930449 0.000000
243.859710 80.040146 3.107404 0.000000
233.484730 80.996613 2.935083 0.000000
233.482270 81.465126 2.939849 0.000000
233.479770 81.947624 2.944758 0.000000
233.477220 82.445053 2.949820 0.000000
233.474610 82.958481 2.955045 0.000000
233.471850 83.489044 2.960443 0.000000
233.468990 84.037926 2.966028 0.000000
233.466050 84.606430 2.971812 0.000000
233.463030 85.195969 2.977811 0.000000
243.188100 85.222595 2.949851 0.000000
233.459880 85.808136 2.984040 0.000000
242.767360 85.418976 3.143445 0.000000
243.457310 85.416290 2.955743 0.000000
233.505110 76.910194 3.290725 0.000000
242.926060 84.985947 3.536472 0.000000
243.209780 85.128799 3.543658 0.000000
243.447490 85.408142 3.554702 0.000000
224.952120 76.495201 3.303926 0.000000
226.262890 76.501518 3.300067 0.000000
227.453930 76.507553 3.296723 0.000000
228.541670 76.513306 3.293823 0.000000
229.540250 76.518524 3.291302 0.000000
230.460940 76.523193 3.289114 0.000000
231.312530 76.527580 3.287224 0.000000
232.103120 76.531693 3.285598 0.000000
232.839490 76.535515 3.284208 0.000000
233.504460 76.902634 3.687931 0.000000
233.503170 77.277603 3.298433 0.000000
233.501270 77.652481 3.306422 0.000000
233.499300 78.035378 3.314707 0.000000
233.497270 78.426781 3.323301 0.000000
233.495180 78.827232 3.332222 0.000000
233.493040 79.237282 3.341486 0.000000
233.490880 79.657516 3.351112 0.000000
233.488650 80.088623 3.361119 0.000000
233.486330 80.531319 3.371529 0.000000
233.484010 80.986267 3.382363 0.000000
233.481550 81.454407 3.393650 0.000000
233.479030 81.936523 3.405414 0.000000
233.476490 82.433548 3.417685 0.000000
233.473860 82.946533 3.430494 0.000000
233.471080 83.476654 3.443878 0.000000
233.468200 84.025055 3.457874 0.000000
233.465260 84.593033 3.472523 0.000000
233.462220 85.182022 3.487868 0.000000
242.959900 84.876541 3.926070 0.000000
233.459080 85.793610 3.503960 0.000000
223.487270 76.483704 3.903664 0.000000
224.935180 76.491791 3.869302 0.000000
226.247150 76.498268 3.838475 0.000000
227.438810 76.504601 3.810798 0.000000
228.527850 76.510330 3.785803 0.000000
229.527220 76.515686 3.763155 0.000000
230.448620 76.520462 3.742547 0.000000
231.300870 76.524956 3.723752 0.000000
232.092040 76.529160 3.706562 0.000000
232.828960 76.533066 3.690798 0.000000
233.503830 76.895050 4.085581 0.000000
233.502520 77.269814 3.699606 0.000000
233.500610 77.644455 3.711762 0.000000
233.498640 78.027107 3.724430 0.000000
233.496610 78.418259 3.737631 0.000000
233.494490 78.818436 3.751393 0.000000
233.492360 79.228203 3.765742 0.000000
233.490200 79.648132 3.780709 0.000000
233.487960 80.078934 3.796328 0.000000
233.485630 80.521309 3.812637 0.000000
233.483290 80.975922 3.829668 0.000000
243.922880 80.403030 4.291055 0.000000
244.193080 80.671387 4.310787 0.000000
233.480830 81.443695 3.847469 0.000000
233.478300 81.925430 3.866083 0.000000
233.475740 82.422050 3.885555 0.000000
233.473110 82.934601 3.905942 0.000000
233.470320 83.464264 3.927305 0.000000
233.467440 84.012177 3.949704 0.000000
233.464460 84.579636 3.973207 0.000000
241.037670 84.508957 3.908213 0.000000
233.461430 85.168076 3.997889 0.000000
243.000320 84.750412 4.310244 0.000000
233.458250 85.779076 4.023834 0.000000
242.354740 85.531090 3.958479 0.000000
243.275450 85.878998 3.978285 0.000000
221.875320 76.475189 3.942312 0.000000
227.424030 76.501495 4.326122 0.000000
228.513990 76.507355 4.278971 0.000000
229.514160 76.512833 4.236137 0.000000
230.436290 76.517723 4.197055 0.000000
231.289180 76.522324 4.161309 0.000000
232.080960 76.526604 4.128509 0.000000
232.818390 76.530609 4.098334 0.000000
233.503170 76.887459 4.484058 0.000000
233.501880 77.262001 4.101222 0.000000
233.499950 77.636421 4.117550 0.000000
233.497970 78.018829 4.134602 0.000000
233.495940 78.409721 4.152410 0.000000
233.493840 78.809631 4.171014 0.000000
233.491680 79.219124 4.190450 0.000000
233.489520 79.638756 4.210759 0.000000
233.487270 80.069244 4.231992 0.000000
233.484890 80.511307 4.254201 0.000000
233.482590 80.965546 4.277427 0.000000
243.808940 80.641518 4.617337 0.000000
233.480100 81.432961 4.301744 0.000000
242.832110 80.968925 4.682179 0.000000
243.965360 80.884735 4.640136 0.000000
233.477580 81.914314 4.327207 0.000000
244.088290 81.224815 4.675010 0.000000
244.621440 81.225166 4.355445 0.000000
233.475010 82.410530 4.353882 0.000000
244.747530 81.604164 4.389100 0.000000
233.472350 82.922661 4.381848 0.000000
233.469560 83.451859 4.411189 0.000000
233.466660 83.999283 4.441990 0.000000
233.463680 84.566238 4.474348 0.000000
233.460620 85.154129 4.508365 0.000000
243.050020 84.600639 4.687496 0.000000
233.457430 85.764542 4.544161 0.000000
242.349040 85.523102 4.369576 0.000000
244.095260 85.394775 4.749759 0.000000
221.855500 76.471382 4.572756 0.000000
223.468990 76.480103 4.500477 0.000000
224.918230 76.488373 4.436086 0.000000
226.231370 76.495010 4.378206 0.000000
228.500080 76.504379 4.773803 0.000000
229.501070 76.509972 4.710706 0.000000
230.423900 76.514984 4.653081 0.000000
231.277470 76.519676 4.600318 0.000000
232.069840 76.524055 4.551852 0.000000
232.807800 76.528145 4.507210 0.000000
233.502530 76.879837 4.883726 0.000000
233.501240 77.254181 4.503671 0.000000
233.499310 77.628365 4.524173 0.000000
233.498110 78.010040 4.545542 0.000000
233.495270 78.401169 4.568036 0.000000
233.493150 78.800812 4.591488 0.000000
233.491000 79.210014 4.616016 0.000000
233.488820 79.629356 4.641675 0.000000
233.486570 80.059540 4.668528 0.000000
233.484220 80.501251 4.696640 0.000000
233.481870 80.955170 4.726071 0.000000
242.131480 80.656189 4.994721 0.000000
233.479390 81.422226 4.756912 0.000000
242.209750 81.034676 5.038224 0.000000
233.477250 81.902824 4.789186 0.000000
243.038160 81.414803 4.724188 0.000000
243.675610 81.543060 5.044312 0.000000
233.474260 82.398987 4.823115 0.000000
233.471590 82.910690 4.858666 0.000000
233.468800 83.439423 4.895992 0.000000
233.465880 83.986366 4.935205 0.000000
240.502350 84.792236 4.753029 0.000000
243.059050 84.555771 5.072032 0.000000
238.519260 85.464539 4.863144 0.000000
239.111630 85.177071 4.822001 0.000000
244.123660 85.276642 5.134605 0.000000
223.451520 76.476196 5.099298 0.000000
224.902110 76.484634 5.004753 0.000000
226.215500 76.491745 4.919787 0.000000
227.409210 76.498375 4.843197 0.000000
229.487920 76.507103 5.187304 0.000000
230.411470 76.512222 5.111050 0.000000
231.265690 76.517021 5.041190 0.000000
232.058670 76.521484 4.976981 0.000000
232.797160 76.525665 4.917807 0.000000
233.501890 76.872185 5.285004 0.000000
233.500560 77.246338 4.907322 0.000000
233.498660 77.620293 4.932007 0.000000
233.496660 78.002197 4.957847 0.000000
233.494610 78.392578 4.984891 0.000000
233.492480 78.791962 5.013202 0.000000
233.490310 79.200897 5.042834 0.000000
233.488130 79.619934 5.073852 0.000000
233.485870 80.049805 5.106337 0.000000
233.483510 80.491188 5.140367 0.000000
233.481160 80.944763 5.176013 0.000000
233.478650 81.411438 5.213389 0.000000
233.476100 81.892014 5.252576 0.000000
242.481900 81.634369 5.101943 0.000000
233.473510 82.387428 5.293688 0.000000
233.470840 82.898682 5.336837 0.000000
233.462910 84.552795 4.976423 0.000000
233.459820 85.140129 5.019783 0.000000
243.058400 84.535828 5.460116 0.000000
239.465650 85.243011 5.254789 0.000000
239.952270 85.081696 5.219975 0.000000
240.367710 85.025047 5.199447 0.000000
244.156460 85.144478 5.514079 0.000000
233.456590 85.749992 5.065443 0.000000
238.902360 85.504936 5.303700 0.000000
244.411450 85.381950 5.541378 0.000000
238.195450 85.960831 5.379084 0.000000
221.835600 76.467545 5.205415 0.000000
226.199570 76.488472 5.463722 0.000000
227.394330 76.495239 5.362505 0.000000
228.486680 76.501160 5.270703 0.000000
230.398970 76.509453 5.571442 0.000000
231.253860 76.514351 5.484386 0.000000
232.047450 76.518913 5.404346 0.000000
232.786880 76.522964 5.330502 0.000000
233.482740 76.695229 5.676321 0.000000
233.499920 77.238472 5.312592 0.000000
233.497990 77.612183 5.341475 0.000000
233.495990 77.993851 5.371729 0.000000
233.493940 78.383965 5.403409 0.000000
233.491810 78.783081 5.436591 0.000000
233.489620 79.191719 5.471344 0.000000
233.487440 79.610466 5.507738 0.000000
233.485170 80.040024 5.545872 0.000000
233.482790 80.481094 5.585840 0.000000
233.477940 81.400620 5.671650 0.000000
233.475370 81.880806 5.717728 0.000000
233.468030 83.426956 5.382163 0.000000
233.465120 83.973412 5.429801 0.000000
233.462100 84.539330 5.479899 0.000000
233.459010 85.126114 5.532618 0.000000
242.741710 84.476845 5.856058 0.000000
243.034180 84.576294 5.859870 0.000000
241.066060 85.103607 5.604754 0.000000
233.455730 85.735413 5.588158 0.000000
242.290880 85.599144 5.625027 0.000000
244.448760 85.226074 5.916739 0.000000
238.592250 85.998093 5.830153 0.000000
223.433090 76.472565 5.700806 0.000000
224.885010 76.481186 5.575958 0.000000
228.472630 76.498146 5.770299 0.000000
229.474670 76.504219 5.666437 0.000000
232.046630 76.511261 5.832688 0.000000
232.775420 76.520821 5.745892 0.000000
233.499270 77.230553 5.719852 0.000000
233.495320 77.985451 5.787633 0.000000
233.493260 78.375320 5.823973 0.000000
233.472760 82.375801 5.766083 0.000000
233.470090 82.886620 5.816854 0.000000
241.254900 84.702003 5.957514 0.000000
240.681820 85.108818 6.047160 0.000000
241.156430 85.666153 6.106123 0.000000
241.866070 85.730743 6.083685 0.000000
222.363360 61.458920 0.662459 0.000000
223.202800 61.144756 0.721692 0.000000
229.519820 61.532684 0.746544 0.000000
229.625920 61.159206 0.743466 0.000000
234.178220 61.164799 0.795788 0.000000
222.436140 61.994987 0.681403 0.000000
229.455410 61.917854 0.753621 0.000000
237.356750 61.207458 0.832819 0.000000
239.900100 61.253342 0.883694 0.000000
240.040190 61.077454 0.887794 0.000000
241.994890 61.192333 0.926271 0.000000
222.644450 62.551018 0.711155 0.000000
233.796770 61.859329 0.785413 0.000000
237.214070 61.721134 0.848606 0.000000
239.762420 61.431740 0.879579 0.000000
241.606800 61.632519 0.915693 0.000000
241.797550 61.409271 0.920697 0.000000
222.661940 63.062080 0.723904 0.000000
229.254940 62.665649 0.758020 0.000000
229.596410 62.356739 0.782609 0.000000
233.861110 62.215279 0.809826 0.000000
237.101290 62.099556 0.857554 0.000000
239.582120 61.971649 0.899374 0.000000
241.496700 61.911060 0.928370 0.000000
229.384960 63.093216 0.784354 0.000000
233.845900 62.702110 0.829666 0.000000
237.019990 62.626690 0.878396 0.000000
239.448520 62.401894 0.914046 0.000000
241.227020 62.540115 0.948622 0.000000
241.337430 62.269058 0.939783 0.000000
222.838530 63.594795 0.749429 0.000000
229.372310 63.482296 0.794437 0.000000
233.712780 63.146893 0.832231 0.000000
236.925960 63.004478 0.886909 0.000000
239.277370 62.930290 0.927725 0.000000
239.348390 62.721035 0.923288 0.000000
241.123860 62.812435 0.957328 0.000000
222.955410 64.109901 0.769185 0.000000
233.532580 63.419170 0.821027 0.000000
236.843320 63.383526 0.895606 0.000000
239.177460 63.245415 0.934331 0.000000
240.979260 63.168655 0.965103 0.000000
229.143770 64.217209 0.790880 0.000000
233.634020 63.924046 0.852240 0.000000
236.769840 63.763348 0.904459 0.000000
239.057880 63.668396 0.943537 0.000000
240.843770 63.526669 0.972267 0.000000
222.449950 65.041992 0.744990 0.000000
229.241550 64.620949 0.810909 0.000000
236.737180 64.151917 0.918089 0.000000
238.976900 64.101532 0.957255 0.000000
240.705340 63.983826 0.984091 0.000000
229.380490 65.024857 0.834596 0.000000
233.587200 64.698494 0.872546 0.000000
236.692210 64.533867 0.928476 0.000000
238.913770 64.535683 0.971598 0.000000
240.608110 64.452057 1.000782 0.000000
222.602860 65.554474 0.765935 0.000000
229.399690 65.407089 0.844872 0.000000
233.569240 65.159988 0.884009 0.000000
236.651020 64.913666 0.937857 0.000000
238.857540 64.855865 0.979144 0.000000
240.528370 64.821510 1.010702 0.000000
222.733580 66.058449 0.784368 0.000000
229.421830 65.787292 0.854835 0.000000
233.644040 65.631775 0.906155 0.000000
236.568740 65.539841 0.948543 0.000000
236.616360 65.292747 0.946999 0.000000
238.811130 65.176636 0.986891 0.000000
240.453670 65.189705 1.019157 0.000000
222.863650 66.556564 0.802097 0.000000
229.542720 66.174049 0.874570 0.000000
233.374530 65.902550 0.879102 0.000000
236.525210 65.787727 0.950131 0.000000
238.728180 65.597832 0.991489 0.000000
240.368610 65.553543 1.023113 0.000000
222.992920 67.049187 0.819129 0.000000
229.589710 66.550133 0.885889 0.000000
233.492870 66.374825 0.904382 0.000000
236.474730 66.161774 0.953597 0.000000
238.629560 66.124786 0.994921 0.000000
238.665740 65.913383 0.993438 0.000000
240.231600 66.192314 1.026900 0.000000
240.285860 65.917595 1.025212 0.000000
233.488140 66.829987 0.912687 0.000000
236.442930 66.664108 0.961612 0.000000
238.582280 66.443024 0.997210 0.000000
240.185810 66.468613 1.028826 0.000000
223.190340 67.537933 0.841137 0.000000
229.257610 67.279556 0.862234 0.000000
233.490160 67.132797 0.918091 0.000000
236.433120 67.041084 0.968255 0.000000
238.542180 66.869957 1.002302 0.000000
240.135730 66.838646 1.031630 0.000000
229.306340 67.656105 0.872026 0.000000
233.498310 67.435181 0.923680 0.000000
236.434190 67.417511 0.975053 0.000000
238.529690 67.298546 1.009824 0.000000
240.105530 67.210747 1.036012 0.000000
238.529630 67.619659 1.015601 0.000000
240.098850 67.583939 1.042648 0.000000
240.102080 67.863510 1.047772 0.000000
238.747150 70.165161 1.051723 0.000000
240.306610 69.987129 1.078174 0.000000
236.663190 70.656059 1.012648 0.000000
238.796050 70.481071 1.054056 0.000000
240.374690 70.352013 1.082030 0.000000
233.668700 71.051796 0.954656 0.000000
236.709240 71.029800 1.013678 0.000000
238.863340 70.903015 1.055585 0.000000
240.454990 70.714607 1.085965 0.000000
240.516860 70.986633 1.087792 0.000000
229.840390 71.719406 0.941255 0.000000
233.696700 71.354851 0.955196 0.000000
233.731540 71.657516 0.956011 0.000000
236.767200 71.402573 1.015012 0.000000
238.946010 71.323067 1.057422 0.000000
240.584340 71.257774 1.089261 0.000000
224.897190 72.580360 1.006649 0.000000
229.824980 72.099930 0.937504 0.000000
236.833100 71.774712 1.016355 0.000000
239.043720 71.740730 1.059512 0.000000
240.684840 71.617043 1.091351 0.000000
230.058980 72.430710 0.959037 0.000000
230.933930 72.608124 1.046648 0.000000
233.934160 72.233002 0.972711 0.000000
236.911880 72.144951 1.018145 0.000000
239.156620 72.155388 1.061884 0.000000
240.798710 71.972923 1.093747 0.000000
224.898100 73.046860 1.005910 0.000000
231.098020 72.933098 1.059999 0.000000
233.906980 72.711754 0.960867 0.000000
237.059370 72.626587 1.024992 0.000000
239.250400 72.464317 1.063781 0.000000
240.925420 72.325043 1.096373 0.000000
224.837660 73.529472 0.999654 0.000000
231.099870 73.298515 1.055918 0.000000
233.962520 73.172974 0.958290 0.000000
237.194350 72.979942 1.032373 0.000000
239.357330 72.653023 1.072172 0.000000
239.430660 72.854935 1.074004 0.000000
241.124620 72.747925 1.104612 0.000000
225.554230 73.839081 1.056040 0.000000
231.145870 73.654663 1.055869 0.000000
234.166030 73.429047 0.977104 0.000000
237.310200 73.340317 1.035373 0.000000
239.548220 73.155243 1.076916 0.000000
241.328220 73.169113 1.110370 0.000000
225.461700 74.327049 1.046134 0.000000
234.137770 73.760666 0.965573 0.000000
234.285570 74.033218 0.976101 0.000000
237.479860 73.816338 1.039721 0.000000
239.717560 73.550964 1.081099 0.000000
241.501770 73.501236 1.114475 0.000000
225.327870 74.833549 1.032297 0.000000
231.463520 74.299850 1.077772 0.000000
234.275570 74.364601 0.965592 0.000000
237.617900 74.169884 1.043161 0.000000
239.900090 73.941467 1.085308 0.000000
241.736220 73.907372 1.119900 0.000000
225.128020 75.368347 1.012478 0.000000
231.470180 74.671776 1.071911 0.000000
234.559170 74.747231 0.987446 0.000000
237.766770 74.519569 1.046789 0.000000
240.151430 74.418816 1.091388 0.000000
241.987110 74.304253 1.125454 0.000000
231.361740 75.089806 1.053241 0.000000
231.656080 75.362549 1.076642 0.000000
237.979800 74.980011 1.051922 0.000000
240.419750 74.887924 1.097175 0.000000
242.199280 74.614937 1.129662 0.000000
242.365170 74.843597 1.132852 0.000000
225.018880 75.887871 0.999452 0.000000
231.638500 75.754478 1.066356 0.000000
234.823930 75.467087 0.994048 0.000000
238.150220 75.320740 1.055967 0.000000
240.648360 75.255875 1.101661 0.000000
242.538970 75.066574 1.136378 0.000000
224.695680 76.486137 0.968247 0.000000
226.096420 76.510460 1.078061 0.000000
231.810360 76.072258 1.075684 0.000000
234.942400 75.921417 0.990646 0.000000
238.269450 75.545288 1.058760 0.000000
238.389220 75.770042 1.061028 0.000000
240.891600 75.614975 1.106595 0.000000
242.716720 75.286789 1.139629 0.000000
242.900440 75.502502 1.142791 0.000000
227.412920 76.516411 1.180954 0.000000
231.740430 76.496269 1.058457 0.000000
232.500600 76.542641 1.130294 0.000000
233.295120 76.546242 1.206031 0.000000
235.092970 76.365471 0.990139 0.000000
238.577150 76.103188 1.064558 0.000000
241.080150 75.880684 1.109991 0.000000
241.210310 76.054878 1.112338 0.000000
243.091370 75.712036 1.146520 0.000000
243.288020 75.916595 1.150172 0.000000
235.320530 76.593094 1.006234 0.000000
238.847000 76.536255 1.070441 0.000000
241.413940 76.309898 1.116375 0.000000
243.493120 76.112679 1.154824 0.000000
243.697860 76.309944 1.157824 0.000000
233.509410 77.199516 1.206983 0.000000
235.635300 77.122025 1.017731 0.000000
239.073040 76.844955 1.077382 0.000000
239.230910 77.045296 1.082477 0.000000
241.777880 76.713890 1.125351 0.000000
243.911680 76.497284 1.162083 0.000000
244.136170 76.671677 1.167882 0.000000
233.507460 77.589966 1.194481 0.000000
235.892640 77.323952 1.036523 0.000000
239.474080 77.340500 1.090088 0.000000
242.167160 77.093636 1.136489 0.000000
244.365570 76.839447 1.173984 0.000000
244.598970 77.001411 1.179877 0.000000
244.836520 77.157158 1.185926 0.000000
233.505430 77.988144 1.181198 0.000000
235.966460 77.640465 1.029167 0.000000
236.140410 77.894066 1.035185 0.000000
239.809220 77.724564 1.100273 0.000000
242.412980 77.308098 1.144277 0.000000
242.656330 77.524994 1.150054 0.000000
245.078060 77.306419 1.191862 0.000000
245.406250 77.494873 1.199981 0.000000
233.503420 78.394478 1.167112 0.000000
236.405350 78.083801 1.053643 0.000000
236.498690 78.393570 1.046969 0.000000
240.157640 78.096313 1.110593 0.000000
243.080960 77.863701 1.161418 0.000000
245.743470 77.666237 1.209154 0.000000
233.501360 78.809509 1.152181 0.000000
236.685180 78.637794 1.053049 0.000000
240.427050 78.367111 1.118419 0.000000
240.610950 78.543182 1.123697 0.000000
243.519680 78.183449 1.173050 0.000000
243.788600 78.367027 1.179833 0.000000
233.499250 79.233803 1.136369 0.000000
236.875670 78.878777 1.059138 0.000000
237.069380 79.117043 1.065127 0.000000
240.797730 78.716087 1.128967 0.000000
240.992200 78.880371 1.135215 0.000000
243.974870 78.478661 1.185556 0.000000
244.257920 78.639122 1.194174 0.000000
244.542510 78.795898 1.202225 0.000000
233.497040 79.667946 1.119630 0.000000
237.268040 79.351143 1.071274 0.000000
241.180130 79.051758 1.139568 0.000000
241.375500 79.214584 1.144867 0.000000
244.735210 78.894516 1.207820 0.000000
245.027110 79.035942 1.216120 0.000000
233.494800 80.112511 1.101930 0.000000
237.573720 79.695335 1.080515 0.000000
241.574370 79.373047 1.150329 0.000000
241.885880 79.593239 1.160280 0.000000
245.620860 79.294617 1.232876 0.000000
237.994920 80.141365 1.093026 0.000000
242.309130 79.873878 1.173590 0.000000
242.632030 80.074783 1.183552 0.000000
233.492540 80.568161 1.083224 0.000000
238.431240 80.572113 1.105638 0.000000
242.849990 80.203697 1.190157 0.000000
243.180540 80.389786 1.199948 0.000000
233.490200 81.035652 1.063452 0.000000
239.021010 81.061668 1.125643 0.000000
243.627780 80.624359 1.213013 0.000000
243.967360 80.790833 1.222686 0.000000
233.501800 81.504784 1.044239 0.000000
239.256640 81.256371 1.132644 0.000000
239.501910 81.439148 1.140779 0.000000
244.195920 80.896591 1.229087 0.000000
244.658220 81.094933 1.241964 0.000000
233.936490 82.136368 1.052611 0.000000
239.749220 81.618416 1.148766 0.000000
239.999210 81.793312 1.156725 0.000000
244.891270 81.188599 1.248274 0.000000
245.125610 81.278435 1.254519 0.000000
245.598400 81.445091 1.267009 0.000000
240.379810 82.046234 1.168691 0.000000
233.953510 82.628578 1.031066 0.000000
234.330380 82.811440 1.053229 0.000000
240.893520 82.371391 1.184161 0.000000
234.600400 83.086365 1.061642 0.000000
241.280870 82.610062 1.194889 0.000000
241.673750 82.838364 1.205438 0.000000
234.874970 83.356392 1.070075 0.000000
235.154940 83.620522 1.078646 0.000000
242.071060 83.058014 1.215877 0.000000
242.391310 83.103828 1.234530 0.000000
235.439250 83.879562 1.087233 0.000000
242.610230 83.331749 1.229965 0.000000
242.882000 83.463402 1.236744 0.000000
235.727070 84.134270 1.095733 0.000000
236.027820 84.374046 1.105435 0.000000
243.434450 83.706535 1.250922 0.000000
243.666580 83.926094 1.245648 0.000000
243.993210 83.932365 1.264734 0.000000
236.317060 84.625809 1.113030 0.000000
244.559100 84.137436 1.278549 0.000000
244.969010 84.328629 1.283079 0.000000
245.460860 84.278633 1.313255 0.000000
236.619600 84.861740 1.121906 0.000000
236.924590 85.093857 1.130591 0.000000
245.713120 84.471436 1.307549 0.000000
237.389210 85.431473 1.143569 0.000000
243.066190 85.255966 1.504319 0.000000
233.464870 85.908737 1.373263 0.000000
237.862750 85.755638 1.156799 0.000000
243.333680 85.466805 1.503278 0.000000
221.191010 76.483879 1.364379 0.000000
223.004260 76.492477 1.469960 0.000000
228.609680 76.522003 1.274012 0.000000
229.704120 76.526833 1.358664 0.000000
230.707470 76.531792 1.435828 0.000000
231.633190 76.536003 1.506610 0.000000
232.489560 76.539955 1.571686 0.000000
233.510670 76.808861 1.643630 0.000000
233.508730 77.191849 1.635792 0.000000
233.506770 77.582077 1.627415 0.000000
233.504730 77.980034 1.618470 0.000000
233.502720 78.386124 1.608947 0.000000
233.500640 78.800911 1.598812 0.000000
233.498500 79.224953 1.588039 0.000000
233.496290 79.658813 1.576599 0.000000
233.494060 80.103096 1.564466 0.000000
233.491790 80.558441 1.551607 0.000000
233.489460 81.025612 1.537981 0.000000
233.486980 81.505379 1.523546 0.000000
233.484560 81.998451 1.508276 0.000000
233.481960 82.505867 1.492105 0.000000
233.479340 83.028450 1.474997 0.000000
233.476650 83.567261 1.456895 0.000000
233.473890 84.123405 1.437740 0.000000
233.470990 84.698166 1.417463 0.000000
233.467970 85.292801 1.395995 0.000000
243.057910 85.255295 1.917287 0.000000
243.316700 85.486618 1.916742 0.000000
224.625370 76.499687 1.563990 0.000000
226.080430 76.506989 1.648040 0.000000
227.398040 76.513107 1.723820 0.000000
228.595780 76.518852 1.792390 0.000000
229.691060 76.523819 1.854794 0.000000
230.695160 76.528908 1.911709 0.000000
231.621580 76.533226 1.963946 0.000000
232.478550 76.537292 2.011999 0.000000
233.509990 76.801422 2.067002 0.000000
233.508040 77.184204 2.063065 0.000000
233.506070 77.574219 2.058792 0.000000
233.504030 77.971947 2.054168 0.000000
233.502030 78.377800 2.049187 0.000000
233.499940 78.792343 2.043826 0.000000
233.497800 79.216125 2.038072 0.000000
233.495570 79.649719 2.031907 0.000000
233.493320 80.093712 2.025315 0.000000
233.491040 80.548767 2.018277 0.000000
233.488690 81.015625 2.010768 0.000000
233.486240 81.495049 2.002765 0.000000
233.483800 81.987770 1.994248 0.000000
233.481190 82.494812 1.985180 0.000000
233.478550 83.017014 1.975539 0.000000
233.475850 83.555397 1.965291 0.000000
233.473080 84.111107 1.954401 0.000000
233.470150 84.685417 1.942824 0.000000
233.467130 85.279556 1.930523 0.000000
243.058030 85.235786 2.330088 0.000000
233.464020 85.894958 1.917452 0.000000
243.327270 85.441711 2.333028 0.000000
221.170580 76.479805 2.035315 0.000000
222.985530 76.488632 2.102978 0.000000
224.608080 76.496048 2.163283 0.000000
226.064450 76.503532 2.217241 0.000000
227.383160 76.509811 2.265932 0.000000
228.581860 76.515701 2.310035 0.000000
229.678010 76.520813 2.350213 0.000000
230.682880 76.526024 2.386902 0.000000
231.609970 76.530457 2.420611 0.000000
232.467560 76.534622 2.451659 0.000000
233.509310 76.794014 2.489263 0.000000
233.507350 77.176590 2.489213 0.000000
233.505390 77.566383 2.489033 0.000000
233.503340 77.963890 2.488714 0.000000
233.501310 78.369507 2.488259 0.000000
233.499220 78.783806 2.487657 0.000000
233.497070 79.207314 2.486905 0.000000
233.494840 79.640640 2.485997 0.000000
233.492580 80.084358 2.484927 0.000000
233.490300 80.539108 2.483691 0.000000
233.487930 81.005646 2.482278 0.000000
233.485470 81.484749 2.480681 0.000000
233.483020 81.977127 2.478895 0.000000
233.480410 82.483788 2.476904 0.000000
233.477750 83.005608 2.474703 0.000000
233.475050 83.543587 2.472281 0.000000
233.472260 84.098854 2.469625 0.000000
233.469330 84.672699 2.466718 0.000000
233.466290 85.266350 2.463549 0.000000
243.077560 85.172928 2.742287 0.000000
233.463170 85.881241 2.460102 0.000000
243.359480 85.346169 2.747635 0.000000
224.590820 76.492424 2.762340 0.000000
226.048450 76.500092 2.786200 0.000000
227.368300 76.506523 2.807800 0.000000
228.567960 76.512566 2.827435 0.000000
229.664960 76.517807 2.845387 0.000000
230.670590 76.523148 2.861848 0.000000
231.598370 76.527695 2.877032 0.000000
232.456570 76.531952 2.891078 0.000000
233.508620 76.786621 2.910813 0.000000
233.506670 77.168983 2.914642 0.000000
233.504700 77.558563 2.918542 0.000000
233.502640 77.955841 2.922519 0.000000
233.500610 78.361221 2.926578 0.000000
233.498500 78.775276 2.930723 0.000000
233.496350 79.198532 2.934961 0.000000
233.494130 79.631584 2.939296 0.000000
233.491850 80.075020 2.943735 0.000000
233.489560 80.529480 2.948286 0.000000
243.862880 79.895088 3.111134 0.000000
243.859770 80.391876 3.116098 0.000000
233.487200 80.995697 2.952953 0.000000
233.484700 81.474472 2.957746 0.000000
243.854980 80.924072 3.121392 0.000000
233.482250 81.966484 2.962673 0.000000
233.479630 82.472794 2.967741 0.000000
233.476960 82.994217 2.972961 0.000000
233.474260 83.531784 2.978343 0.000000
233.471450 84.086624 2.983899 0.000000
233.468510 84.660004 2.989639 0.000000
233.465450 85.253166 2.995577 0.000000
243.096770 85.110962 3.151286 0.000000
233.462310 85.867531 3.001727 0.000000
243.316310 85.427536 3.158064 0.000000
224.573550 76.488792 3.361746 0.000000
226.032440 76.496635 3.355475 0.000000
227.353410 76.503235 3.349953 0.000000
228.554080 76.509422 3.345094 0.000000
229.651920 76.514801 3.340798 0.000000
230.658330 76.520256 3.337014 0.000000
231.586780 76.524918 3.333655 0.000000
232.445560 76.529297 3.330684 0.000000
233.507950 76.779228 3.332064 0.000000
233.505980 77.161392 3.339764 0.000000
233.504010 77.550751 3.347740 0.000000
233.501950 77.947792 3.356006 0.000000
233.499910 78.352943 3.364574 0.000000
233.497800 78.766754 3.373459 0.000000
233.495650 79.189758 3.382678 0.000000
233.493390 79.622536 3.392249 0.000000
233.491120 80.065689 3.402188 0.000000
233.488830 80.519836 3.412516 0.000000
233.486450 80.985748 3.423255 0.000000
233.483950 81.464188 3.434427 0.000000
233.481490 81.955864 3.446055 0.000000
233.478850 82.461807 3.458171 0.000000
233.476180 82.982841 3.470799 0.000000
233.473450 83.519997 3.483973 0.000000
233.470640 84.074402 3.497726 0.000000
233.467680 84.647324 3.512097 0.000000
233.464610 85.239990 3.527126 0.000000
243.140050 84.995392 3.556092 0.000000
233.461460 85.853836 3.542856 0.000000
242.532320 85.527977 3.567644 0.000000
243.154250 85.787003 3.580023 0.000000
226.016400 76.493187 3.925600 0.000000
227.338490 76.499954 3.892901 0.000000
228.540160 76.506271 3.863500 0.000000
229.638870 76.511780 3.836913 0.000000
230.646030 76.517372 3.812846 0.000000
231.575150 76.522148 3.790911 0.000000
232.434560 76.526634 3.770892 0.000000
233.507280 76.771820 3.753411 0.000000
233.505310 77.153786 3.764982 0.000000
233.503310 77.542931 3.777032 0.000000
233.501250 77.939758 3.789584 0.000000
233.499210 78.344666 3.802657 0.000000
233.497100 78.758224 3.816280 0.000000
233.494930 79.180977 3.830478 0.000000
233.492680 79.613472 3.845281 0.000000
233.490390 80.056351 3.860718 0.000000
233.488080 80.510208 3.876820 0.000000
233.485690 80.975807 3.893625 0.000000
233.483200 81.453911 3.911172 0.000000
244.713090 80.851135 4.062126 0.000000
233.480710 81.945244 3.929498 0.000000
244.823500 81.207962 4.085788 0.000000
233.478070 82.450821 3.948656 0.000000
244.914220 81.635681 4.114903 0.000000
245.315350 82.028084 4.139353 0.000000
233.475400 82.971458 3.968687 0.000000
233.472640 83.508209 3.989645 0.000000
233.469830 84.062180 4.011589 0.000000
233.466860 84.634636 4.034585 0.000000
233.463780 85.226822 4.058697 0.000000
241.124710 84.585739 3.948961 0.000000
243.156080 84.940781 3.959035 0.000000
233.460600 85.840141 4.083999 0.000000
242.531890 85.509987 3.988550 0.000000
243.689710 85.343330 3.978833 0.000000
221.109190 76.467590 4.049413 0.000000
222.929280 76.477119 4.003106 0.000000
224.555340 76.485451 3.962096 0.000000
228.526170 76.503128 4.383157 0.000000
229.625200 76.508987 4.334246 0.000000
230.633700 76.514473 4.289803 0.000000
231.563510 76.519363 4.249241 0.000000
232.423510 76.523964 4.212129 0.000000
233.506590 76.764420 4.175261 0.000000
233.504610 77.146179 4.190704 0.000000
233.502620 77.535103 4.206829 0.000000
233.500550 77.931702 4.223670 0.000000
233.498500 78.336380 4.241251 0.000000
233.496380 78.749695 4.259614 0.000000
233.494220 79.172173 4.278792 0.000000
233.491960 79.604416 4.298830 0.000000
233.489670 80.046989 4.319765 0.000000
233.487350 80.500557 4.341642 0.000000
243.844600 80.370491 4.350868 0.000000
233.484950 80.965843 4.364516 0.000000
244.013600 80.576553 4.364458 0.000000
244.202060 80.752525 4.375314 0.000000
233.482420 81.443626 4.388442 0.000000
243.867220 80.836571 4.710640 0.000000
233.479950 81.934608 4.413466 0.000000
244.529220 81.227936 4.410220 0.000000
244.682770 81.506386 4.432100 0.000000
233.477290 82.439812 4.439668 0.000000
244.735930 82.035980 4.478927 0.000000
233.474590 82.960075 4.467104 0.000000
233.471850 83.496414 4.495849 0.000000
233.469010 84.049950 4.525986 0.000000
233.466030 84.621948 4.557607 0.000000
233.462940 85.213638 4.590803 0.000000
243.689360 85.323730 4.386272 0.000000
222.910480 76.473259 4.638867 0.000000
224.537990 76.481804 4.563931 0.000000
226.000320 76.489731 4.497130 0.000000
227.323530 76.496651 4.437171 0.000000
229.612060 76.505966 4.833226 0.000000
230.621320 76.511566 4.768351 0.000000
231.551820 76.516571 4.709090 0.000000
232.412430 76.521286 4.654820 0.000000
233.505910 76.757004 4.598020 0.000000
233.503940 77.138542 4.617339 0.000000
233.501940 77.527260 4.637546 0.000000
233.499850 77.923637 4.658681 0.000000
233.497790 78.328079 4.680777 0.000000
233.495670 78.741135 4.703884 0.000000
233.493500 79.163361 4.728051 0.000000
233.491230 79.595337 4.753329 0.000000
233.488920 80.037636 4.779770 0.000000
233.486600 80.490898 4.807431 0.000000
233.484190 80.955872 4.836382 0.000000
242.545910 80.545654 4.732450 0.000000
233.481670 81.433311 4.866692 0.000000
242.825420 81.090042 4.776750 0.000000
243.986530 81.158302 4.741015 0.000000
233.479170 81.923950 4.898424 0.000000
242.961580 81.384956 4.802161 0.000000
233.476500 82.428795 4.931679 0.000000
243.100740 81.687828 4.828806 0.000000
244.125950 82.069580 4.835435 0.000000
233.473790 82.948669 4.966529 0.000000
239.087600 85.181770 4.899086 0.000000
233.459750 85.826447 4.625677 0.000000
244.036190 85.308525 4.789029 0.000000
221.088710 76.463486 4.723355 0.000000
225.984210 76.486252 5.070615 0.000000
227.308520 76.493355 4.983293 0.000000
228.512130 76.499969 4.904567 0.000000
230.609310 76.508476 5.248890 0.000000
231.540070 76.513786 5.170889 0.000000
232.401310 76.518593 5.099379 0.000000
233.505230 76.749557 5.022075 0.000000
233.503230 77.130898 5.045283 0.000000
233.501250 77.519386 5.069578 0.000000
233.499150 77.915543 5.095019 0.000000
233.497100 78.319740 5.121637 0.000000
233.495760 78.732071 5.149408 0.000000
233.492770 79.154526 5.178667 0.000000
233.490490 79.586227 5.209200 0.000000
233.488170 80.028244 5.241160 0.000000
233.485860 80.481209 5.274615 0.000000
233.483430 80.945862 5.309656 0.000000
242.022030 80.840706 5.128097 0.000000
233.480930 81.422974 5.346364 0.000000
242.086790 81.234390 5.171581 0.000000
242.135470 81.672768 5.221974 0.000000
233.471020 83.484596 5.003070 0.000000
233.468200 84.037697 5.041408 0.000000
233.465210 84.609222 5.081663 0.000000
243.022580 84.393730 5.523066 0.000000
233.462080 85.200439 5.123954 0.000000
239.929860 85.184593 5.319066 0.000000
233.458880 85.812729 5.168410 0.000000
238.713790 85.715752 5.426090 0.000000
244.071410 85.196579 5.183804 0.000000
224.520580 76.478142 5.167846 0.000000
227.293430 76.490044 5.531775 0.000000
228.498050 76.496803 5.428217 0.000000
229.598830 76.502937 5.334341 0.000000
231.528260 76.510971 5.635122 0.000000
232.390120 76.515884 5.546275 0.000000
233.347030 76.631424 5.456268 0.000000
233.500550 77.511490 5.503376 0.000000
233.498460 77.907410 5.533134 0.000000
233.496380 78.311386 5.564294 0.000000
233.494230 78.723953 5.596932 0.000000
233.492050 79.145660 5.631111 0.000000
233.489780 79.577080 5.666913 0.000000
233.485110 80.471474 5.743682 0.000000
233.478390 81.913269 5.384821 0.000000
233.475720 82.417740 5.425141 0.000000
233.472990 82.937225 5.467421 0.000000
233.470210 83.472748 5.511774 0.000000
233.467360 84.025421 5.558332 0.000000
233.464360 84.596474 5.607237 0.000000
241.285810 84.245438 5.581996 0.000000
233.461230 85.187210 5.658641 0.000000
244.086810 85.135803 5.582846 0.000000
233.458020 85.798965 5.712698 0.000000
241.048540 85.338730 5.729784 0.000000
244.360410 85.318840 5.599044 0.000000
239.940610 85.831589 5.846030 0.000000
241.188230 85.809372 5.782424 0.000000
224.503100 76.474472 5.774404 0.000000
225.968000 76.482773 5.646596 0.000000
230.596410 76.505722 5.732059 0.000000
233.482670 80.935829 5.784832 0.000000
233.480120 81.412613 5.827962 0.000000
240.852400 83.691505 5.948292 0.000000
241.023610 84.031479 5.985280 0.000000
241.126720 84.502090 6.045993 0.000000
241.543400 85.130905 6.112534 0.000000
244.067430 85.164322 5.996605 0.000000
244.418910 85.138245 5.979263 0.000000
223.466280 61.372627 0.674414 0.000000
230.695790 61.258194 0.755901 0.000000
235.328720 61.081387 0.807917 0.000000
223.474850 61.896614 0.687929 0.000000
230.536700 61.820099 0.760044 0.000000
238.587830 61.161037 0.856879 0.000000
241.124880 61.207218 0.907429 0.000000
223.691360 62.457062 0.718446 0.000000
230.677780 62.261124 0.789115 0.000000
234.982940 61.791119 0.802617 0.000000
238.396800 61.650463 0.864542 0.000000
240.987470 61.385025 0.903328 0.000000
242.978610 61.455460 0.948552 0.000000
223.708560 62.970734 0.731256 0.000000
230.334030 62.571571 0.764409 0.000000
235.064620 62.153210 0.829402 0.000000
238.282210 62.028442 0.873247 0.000000
240.766390 61.900894 0.914960 0.000000
242.683230 61.840614 0.943862 0.000000
230.464450 63.001339 0.790857 0.000000
235.049010 62.639626 0.849204 0.000000
238.222550 62.564651 0.897668 0.000000
240.632340 62.331337 0.929622 0.000000
242.412900 62.469921 0.964104 0.000000
242.523590 62.198746 0.955270 0.000000
223.885510 63.506145 0.756873 0.000000
230.454610 63.393124 0.801328 0.000000
234.915530 63.084038 0.851751 0.000000
238.128460 62.942162 0.906191 0.000000
240.479280 62.868355 0.946826 0.000000
240.542140 62.655460 0.940823 0.000000
242.311310 62.743351 0.973213 0.000000
224.001170 64.023712 0.776591 0.000000
234.735080 63.356094 0.840549 0.000000
238.045580 63.320866 0.914868 0.000000
240.379210 63.183170 0.953417 0.000000
242.180190 63.106625 0.984009 0.000000
230.226490 64.132172 0.797997 0.000000
234.842390 63.862068 0.872535 0.000000
237.971390 63.700222 0.923627 0.000000
240.259400 63.605740 0.962594 0.000000
242.044750 63.464363 0.991196 0.000000
223.490220 64.960480 0.752155 0.000000
230.324300 64.537903 0.818088 0.000000
237.937410 64.088158 0.937060 0.000000
240.172560 64.036606 0.975259 0.000000
241.902950 63.919815 1.002322 0.000000
230.463610 64.943840 0.841861 0.000000
234.802140 64.637199 0.893723 0.000000
237.904910 64.473106 0.949401 0.000000
240.117630 64.473061 0.991104 0.000000
241.803850 64.387161 1.018645 0.000000
223.644330 65.475777 0.773254 0.000000
230.483230 65.328094 0.852245 0.000000
234.788530 65.098816 0.905759 0.000000
237.863370 64.852310 0.958735 0.000000
240.067900 64.794769 0.999827 0.000000
241.735760 64.760208 1.030978 0.000000
223.775380 65.982437 0.791763 0.000000
230.495270 65.709175 0.861200 0.000000
234.855040 65.568787 0.926838 0.000000
237.789600 65.479149 0.970727 0.000000
237.831830 65.231491 0.968358 0.000000
240.021610 65.115112 1.007598 0.000000
241.662110 65.128197 1.039645 0.000000
223.905730 66.483246 0.809565 0.000000
230.612120 66.097710 0.880557 0.000000
234.572630 65.837669 0.898178 0.000000
237.745910 65.726524 0.972296 0.000000
239.945710 65.537140 1.013439 0.000000
241.583470 65.493042 1.044890 0.000000
224.035340 66.978531 0.826668 0.000000
230.659090 66.475983 0.891925 0.000000
234.690410 66.309776 0.923393 0.000000
237.690890 66.099297 0.975084 0.000000
239.864990 65.957512 1.016098 0.000000
241.446270 66.130440 1.048632 0.000000
241.500630 65.856300 1.046962 0.000000
234.685120 66.764801 0.931649 0.000000
237.640990 66.599052 0.980398 0.000000
239.799070 66.380539 1.019038 0.000000
241.400380 66.406158 1.050535 0.000000
224.215090 67.469589 0.847260 0.000000
230.324130 67.209679 0.868121 0.000000
234.686750 67.067535 0.937020 0.000000
237.630800 66.975883 0.987003 0.000000
239.748380 66.805695 1.022315 0.000000
241.350140 66.775452 1.053310 0.000000
230.372830 67.588455 0.877953 0.000000
234.694530 67.369865 0.942578 0.000000
237.631480 67.352203 0.993762 0.000000
239.727400 67.233276 1.028392 0.000000
241.312700 67.146294 1.056289 0.000000
239.727130 67.554276 1.034147 0.000000
241.296490 67.518570 1.061088 0.000000
241.299500 67.798035 1.066183 0.000000
239.948100 70.098434 1.070970 0.000000
241.507320 69.920349 1.097314 0.000000
237.883210 70.585785 1.034873 0.000000
240.001940 70.413116 1.074160 0.000000
241.575180 70.285049 1.101138 0.000000
234.892520 70.981155 0.977196 0.000000
237.928990 70.958878 1.035888 0.000000
240.061020 70.727058 1.077101 0.000000
240.098800 70.937134 1.078009 0.000000
241.655560 70.647377 1.105107 0.000000
241.723880 70.917366 1.108217 0.000000
230.872120 71.682602 0.943824 0.000000
234.937180 71.434891 0.978075 0.000000
237.986650 71.331017 1.037205 0.000000
240.162280 71.251404 1.079374 0.000000
241.797560 71.186172 1.110939 0.000000
230.856170 72.066162 0.940022 0.000000
238.052280 71.702515 1.038533 0.000000
240.259660 71.668320 1.081444 0.000000
241.898220 71.544647 1.113099 0.000000
225.858570 72.555939 1.007853 0.000000
230.966640 72.426079 0.948725 0.000000
231.914490 72.591942 1.043745 0.000000
235.156880 72.160461 0.995168 0.000000
238.103160 71.949135 1.039698 0.000000
238.158290 72.195137 1.040907 0.000000
240.372180 72.082253 1.083792 0.000000
242.011730 71.899895 1.115470 0.000000
225.999760 72.999504 1.018505 0.000000
235.180470 72.623878 0.989834 0.000000
238.275150 72.553909 1.046715 0.000000
240.465700 72.390648 1.085670 0.000000
240.585740 72.573624 1.096418 0.000000
242.104900 72.164024 1.117390 0.000000
242.171390 72.338715 1.118765 0.000000
225.994780 73.472061 1.016776 0.000000
232.117360 73.280388 1.056790 0.000000
235.301030 73.063438 0.995619 0.000000
238.404600 72.908592 1.053274 0.000000
240.639130 72.783310 1.094705 0.000000
242.329510 72.677048 1.124750 0.000000
226.715240 73.781448 1.073396 0.000000
232.146240 73.644753 1.054924 0.000000
235.502730 73.317329 1.014251 0.000000
238.520070 73.268623 1.056237 0.000000
240.756380 73.083313 1.097587 0.000000
242.534670 73.096848 1.130871 0.000000
226.635530 74.266838 1.064568 0.000000
232.505220 73.910995 1.087025 0.000000
235.493550 73.800766 1.001032 0.000000
238.689220 73.744217 1.060535 0.000000
240.925310 73.478630 1.101726 0.000000
242.707470 73.428841 1.134851 0.000000
226.502300 74.773552 1.050825 0.000000
232.414750 74.313286 1.071548 0.000000
235.490190 74.291321 0.987155 0.000000
238.826900 74.097458 1.063938 0.000000
241.108020 73.868439 1.106001 0.000000
242.941680 73.834412 1.140275 0.000000
226.319080 75.303986 1.032414 0.000000
232.426880 74.688057 1.066198 0.000000
235.767620 74.675880 1.008206 0.000000
238.975370 74.446861 1.067527 0.000000
241.358250 74.345657 1.111914 0.000000
243.191100 74.231651 1.145545 0.000000
232.484270 75.242455 1.061095 0.000000
239.187900 74.906929 1.072608 0.000000
241.623700 74.815903 1.117186 0.000000
243.402070 74.542717 1.149514 0.000000
243.567150 74.771652 1.152541 0.000000
226.231460 75.817001 1.021189 0.000000
232.624880 75.772972 1.063553 0.000000
236.032910 75.394737 1.014905 0.000000
239.357680 75.247559 1.076567 0.000000
241.851150 75.184158 1.121472 0.000000
243.740170 74.994965 1.155903 0.000000
243.918260 75.214546 1.159257 0.000000
225.879150 76.424362 0.987683 0.000000
232.677110 76.145729 1.059975 0.000000
236.151150 75.848709 1.011499 0.000000
239.473330 75.473946 1.078788 0.000000
239.592680 75.698723 1.080998 0.000000
242.094040 75.543060 1.126360 0.000000
244.101750 75.430115 1.162389 0.000000
227.096540 76.511848 1.082258 0.000000
228.423390 76.517822 1.185780 0.000000
232.687230 76.540939 1.051219 0.000000
236.298900 76.293785 1.010635 0.000000
239.780300 76.031731 1.084488 0.000000
242.282350 75.808624 1.129724 0.000000
242.412340 75.982719 1.132047 0.000000
244.291430 75.640533 1.165825 0.000000
244.488830 75.843987 1.169694 0.000000
236.520460 76.524460 1.025907 0.000000
240.047710 76.466110 1.089969 0.000000
242.615710 76.237602 1.136049 0.000000
244.693760 76.039886 1.174326 0.000000
244.898250 76.237053 1.177290 0.000000
