# .PCD v0.7 - Point Cloud Data file format
VERSION 0.7
FIELDS x y z intensity
SIZE 4 4 4 4
TYPE F F F F
COUNT 1 1 1 1
WIDTH 1199
HEIGHT 1
VIEWPOINT 0 0 0 1 0 0 0
POINTS 1199
DATA ascii
242.749210 105.628430 12.564653 0.000000
244.955140 106.034070 12.418804 0.000000
245.684970 103.989300 13.962276 0.000000
243.397830 106.861940 14.426321 0.000000
242.871150 105.461020 16.191357 0.000000
233.389620 89.801216 1.180331 0.000000
233.373260 91.388039 1.199499 0.000000
233.350710 96.247307 1.255681 0.000000
232.995210 98.037857 1.262332 0.000000
233.116290 99.675545 1.284225 0.000000
243.714690 95.428497 3.348586 0.000000
233.348370 96.201004 3.194244 0.000000
230.772660 98.825356 3.200937 0.000000
233.353790 94.517670 5.089436 0.000000
230.750490 98.784172 5.210850 0.000000
245.622190 105.233400 7.110190 0.000000
245.421940 106.976610 7.183871 0.000000
241.812040 108.970340 9.232872 0.000000
245.429350 99.002243 10.323246 0.000000
244.017110 104.374210 10.717485 0.000000
242.341640 106.916150 10.971318 0.000000
244.049680 102.706860 12.412079 0.000000
242.218260 105.260030 12.735395 0.000000
242.875670 106.575620 12.774797 0.000000
243.015620 108.185430 12.879215 0.000000
245.738460 103.383040 14.096861 0.000000
245.698900 106.619960 14.364662 0.000000
241.617980 107.205400 14.815880 0.000000
244.388060 102.442780 15.961876 0.000000
244.740910 103.851910 16.044128 0.000000
243.795460 105.976240 16.350304 0.000000
233.406100 88.737785 1.135492 0.000000
233.386150 90.343155 1.153782 0.000000
233.351140 95.254555 1.207101 0.000000
233.351750 96.925499 1.224493 0.000000
234.631240 98.135727 1.283261 0.000000
233.344410 95.211746 3.175150 0.000000
230.769270 99.541763 3.210061 0.000000
233.342710 95.167267 5.142017 0.000000
233.342900 96.836754 5.183217 0.000000
245.557690 104.647900 7.142617 0.000000
245.717650 107.870050 7.262899 0.000000
245.438220 104.663450 8.955680 0.000000
245.128810 98.465118 10.446445 0.000000
241.500180 101.657790 10.848345 0.000000
245.247540 104.715820 10.784946 0.000000
240.577880 105.427470 11.115000 0.000000
243.883240 102.116790 12.548847 0.000000
242.930790 104.207220 12.764649 0.000000
242.335300 106.182300 12.946334 0.000000
244.432630 101.763430 16.130688 0.000000
244.897060 103.135220 16.190815 0.000000
233.343120 95.843117 1.190752 0.000000
232.223270 97.946487 1.170193 0.000000
233.400300 89.197289 1.123955 0.000000
233.349910 94.156693 1.174433 0.000000
238.662140 97.271233 1.395849 0.000000
230.752470 98.424835 3.201326 0.000000
230.760890 100.197480 3.230881 0.000000
233.351900 94.070244 5.164179 0.000000
233.335170 95.758270 5.203721 0.000000
230.758390 100.151550 5.321840 0.000000
244.617340 102.734990 7.159654 0.000000
245.515320 107.254550 7.303551 0.000000
244.470920 102.760730 9.006725 0.000000
245.359070 105.611040 9.099352 0.000000
243.259550 105.007010 9.161270 0.000000
244.894530 97.774261 10.565973 0.000000
244.611600 102.649370 10.839163 0.000000
243.459080 101.519270 12.714336 0.000000
244.136780 102.831040 12.740304 0.000000
244.711720 105.855620 12.891329 0.000000
242.473110 108.762800 13.270966 0.000000
245.572850 102.103390 14.408311 0.000000
244.602720 102.519910 16.406391 0.000000
243.303250 106.492370 16.904427 0.000000
233.370830 93.075798 1.086834 0.000000
233.358580 94.778236 1.100494 0.000000
233.352260 96.498085 1.113893 0.000000
234.790710 86.126755 1.074775 0.000000
233.345340 96.459702 3.160729 0.000000
233.380070 91.315788 5.098347 0.000000
233.362820 93.000099 5.133414 0.000000
241.891660 104.949600 7.304853 0.000000
245.737030 108.159970 7.325644 0.000000
245.545750 104.817150 9.087876 0.000000
243.908510 100.600680 10.853106 0.000000
242.190610 101.307240 12.919230 0.000000
244.358020 105.324830 12.983448 0.000000
245.426330 101.464420 14.519620 0.000000
245.519070 103.049350 14.621792 0.000000
243.281340 100.792370 14.698181 0.000000
244.614780 105.153980 14.867518 0.000000
244.533630 98.611710 16.288515 0.000000
243.670820 100.582570 16.545185 0.000000
244.243710 101.961260 16.580467 0.000000
244.565370 103.461430 16.660583 0.000000
244.340760 106.955410 16.980106 0.000000
233.407810 86.827133 1.099041 0.000000
233.376620 91.873787 1.139208 0.000000
233.359100 93.590492 1.151373 0.000000
233.346340 95.324265 1.163200 0.000000
233.339690 97.075790 1.174728 0.000000
232.428710 99.170868 1.156526 0.000000
233.402970 86.794601 3.121912 0.000000
233.375150 88.465530 3.144077 0.000000
243.724700 93.540283 3.357096 0.000000
233.339720 95.289215 3.235687 0.000000
230.749100 99.730240 3.259456 0.000000
233.350650 93.520210 5.272518 0.000000
233.337920 97.000542 5.342553 0.000000
244.618350 102.774890 7.297517 0.000000
242.614650 105.418200 7.433394 0.000000
242.846360 100.183320 9.181467 0.000000
244.475420 102.802310 9.210465 0.000000
243.254290 105.072780 9.359646 0.000000
240.948500 104.373190 11.433348 0.000000
241.601780 107.598630 11.556402 0.000000
241.454440 100.685580 13.183084 0.000000
242.558500 103.599680 13.254823 0.000000
244.577670 106.073690 13.234121 0.000000
243.839320 101.306500 14.939178 0.000000
245.335430 102.296340 14.846951 0.000000
245.351000 103.954900 14.960283 0.000000
243.856670 101.261030 16.871843 0.000000
244.383180 102.691290 16.914425 0.000000
233.397740 90.631363 1.132538 0.000000
233.376190 92.362198 1.143967 0.000000
233.358280 94.109680 1.154999 0.000000
233.345210 95.874557 1.165671 0.000000
232.369400 97.984177 1.144902 0.000000
243.757810 89.426971 3.333033 0.000000
233.360050 94.074089 3.253128 0.000000
233.338590 95.840874 3.275315 0.000000
230.756840 98.490288 3.274497 0.000000
243.186160 89.556053 5.191154 0.000000
233.356350 94.040169 5.349990 0.000000
233.346470 95.802605 5.383792 0.000000
242.405530 102.830440 7.441854 0.000000
240.918780 105.248490 7.555095 0.000000
245.361770 99.855011 9.170832 0.000000
244.007860 102.095410 9.320437 0.000000
245.509510 104.813100 9.359759 0.000000
244.971880 108.540890 11.531519 0.000000
244.062530 101.999240 13.213898 0.000000
244.571370 103.468510 13.254229 0.000000
243.939640 105.487590 13.427853 0.000000
245.170720 101.481410 15.023336 0.000000
245.405980 103.051500 15.102560 0.000000
244.048890 105.397380 15.406883 0.000000
239.829180 102.040250 15.634233 0.000000
244.165950 101.881420 17.126719 0.000000
235.202480 90.080147 1.103094 0.000000
235.244200 91.785027 1.113126 0.000000
235.247530 93.516060 1.121329 0.000000
235.254670 95.263580 1.129099 0.000000
235.338650 97.004501 1.138836 0.000000
233.364410 94.036636 3.190465 0.000000
233.345400 95.827461 3.209221 0.000000
230.747800 98.491714 3.202660 0.000000
243.029790 88.028244 5.148886 0.000000
233.343080 95.796501 5.351024 0.000000
242.505250 102.989460 7.427113 0.000000
244.079040 102.280290 9.340837 0.000000
242.119480 106.688260 9.597252 0.000000
241.676360 108.733670 9.697496 0.000000
242.419020 101.224710 11.385849 0.000000
244.664920 103.678450 13.334412 0.000000
244.008640 105.728940 13.506716 0.000000
243.599520 100.678150 15.257652 0.000000
245.129330 101.732600 15.157616 0.000000
245.392240 103.318430 15.230516 0.000000
243.652860 102.332240 17.369753 0.000000
233.388120 89.935699 1.079173 0.000000
233.385620 91.706772 1.092653 0.000000
233.353060 93.502838 1.104631 0.000000
233.375350 95.301300 1.117847 0.000000
233.350860 97.133003 1.129028 0.000000
233.253430 97.126495 3.311963 0.000000
233.364210 93.463440 3.265678 0.000000
233.369670 95.266037 3.289249 0.000000
233.340030 97.061028 5.495509 0.000000
242.189000 102.766360 7.595174 0.000000
243.384370 90.537048 9.162204 0.000000
245.062590 99.825546 9.397222 0.000000
245.482270 104.811070 9.571543 0.000000
242.999150 104.118980 11.709707 0.000000
245.126620 104.936110 11.608252 0.000000
244.797270 108.688540 11.821400 0.000000
245.694030 101.188650 13.366966 0.000000
244.649230 103.357340 13.580213 0.000000
241.614840 106.509460 14.025720 0.000000
244.856860 101.500870 15.463808 0.000000
245.151280 103.099440 15.536004 0.000000
243.407810 100.373320 15.550165 0.000000
244.180400 101.745210 17.585480 0.000000
235.219570 88.914154 1.106083 0.000000
234.817210 90.773750 1.107747 0.000000
234.592070 92.615593 1.114719 0.000000
234.260930 94.513916 1.117829 0.000000
233.368590 96.617760 1.102574 0.000000
243.759900 90.079018 3.365357 0.000000
243.750490 93.355019 3.409612 0.000000
233.342130 96.547768 5.526753 0.000000
242.997470 102.106380 7.629177 0.000000
242.245760 104.215970 7.713625 0.000000
245.671170 89.459442 9.119785 0.000000
243.623350 100.063520 9.581585 0.000000
243.514660 101.856410 9.654562 0.000000
243.869020 105.275840 9.772695 0.000000
241.910580 108.020310 9.975649 0.000000
244.022520 98.154572 11.504568 0.000000
242.767110 103.912310 11.854459 0.000000
245.026580 104.716100 11.742830 0.000000
244.397830 108.651260 11.984308 0.000000
240.843150 108.479320 12.208198 0.000000
245.435120 100.997090 13.549767 0.000000
244.161090 106.879520 13.999534 0.000000
244.617800 101.290890 15.679135 0.000000
245.074810 102.846570 15.729962 0.000000
242.864010 105.603810 16.150208 0.000000
237.836620 88.624527 1.159321 0.000000
237.505520 90.445503 1.164113 0.000000
237.160310 92.298164 1.168046 0.000000
236.727250 94.206299 1.168759 0.000000
236.387270 96.120239 1.172065 0.000000
243.751500 88.821625 3.346754 0.000000
243.762050 90.459846 3.370030 0.000000
243.731220 92.125443 3.393135 0.000000
243.752590 93.792938 3.416970 0.000000
233.399660 89.595116 5.421523 0.000000
245.414150 105.267320 7.731019 0.000000
243.765440 102.335530 9.759706 0.000000
241.555150 108.862950 10.127041 0.000000
243.585600 98.833954 11.693420 0.000000
241.622130 101.349110 11.940992 0.000000
243.559110 106.015910 12.034548 0.000000
243.704130 107.808920 12.115945 0.000000
241.669510 106.819780 14.370692 0.000000
244.364900 107.455150 14.177102 0.000000
245.208440 99.881714 15.718215 0.000000
244.488420 101.918820 15.924563 0.000000
244.958340 103.502440 15.976791 0.000000
243.665830 105.882260 16.274734 0.000000
233.383090 88.635345 1.097400 0.000000
233.399900 90.465004 1.125879 0.000000
233.377900 92.319443 1.152699 0.000000
233.359410 94.190422 1.179196 0.000000
233.345760 96.078773 1.205423 0.000000
231.840550 98.456795 1.186313 0.000000
243.762820 86.292542 3.421766 0.000000
243.757840 89.592003 3.488126 0.000000
233.394330 90.414024 3.364040 0.000000
233.360660 94.136124 3.438520 0.000000
233.350650 96.022530 3.476363 0.000000
242.371030 98.506912 7.850630 0.000000
245.644810 90.599640 9.480656 0.000000
241.013280 98.931534 10.039028 0.000000
242.558990 100.174710 10.017582 0.000000
243.241520 101.717350 10.052255 0.000000
245.269070 106.342120 10.168636 0.000000
242.832400 105.561570 10.245073 0.000000
243.153820 98.127403 11.993690 0.000000
242.166410 100.266820 12.168375 0.000000
242.928070 105.464240 12.391451 0.000000
242.535540 87.990112 13.630503 0.000000
245.394620 100.770160 14.047540 0.000000
245.673610 102.430860 14.124362 0.000000
245.315020 104.380290 14.278101 0.000000
244.842010 99.171112 16.083307 0.000000
244.086460 101.226380 16.303961 0.000000
244.758540 102.751820 16.336754 0.000000
242.022430 105.741030 16.844788 0.000000
240.463350 89.282867 1.311241 0.000000
233.395230 89.109680 1.065185 0.000000
238.959900 91.412064 1.286565 0.000000
237.561800 93.584106 1.265389 0.000000
235.945920 95.890274 1.237712 0.000000
243.774110 88.450623 3.451524 0.000000
243.761380 91.830994 3.511994 0.000000
243.744020 93.548668 3.542576 0.000000
233.387160 90.874268 5.626751 0.000000
233.341580 96.556824 5.760888 0.000000
245.632870 87.924286 7.455946 0.000000
243.124820 98.921143 7.860813 0.000000
244.955690 89.699348 9.548120 0.000000
245.603870 99.757637 9.893612 0.000000
241.637700 99.394188 10.071049 0.000000
242.130650 106.654470 10.351221 0.000000
243.294890 98.765923 12.085575 0.000000
242.697450 102.616440 12.313022 0.000000
244.268110 103.830760 12.267632 0.000000
243.193240 106.145310 12.460286 0.000000
245.580660 101.445300 14.158899 0.000000
245.654850 103.213380 14.256181 0.000000
240.511460 101.541080 14.615936 0.000000
243.522340 100.381480 16.426352 0.000000
244.245380 101.915070 16.446424 0.000000
244.613800 103.589080 16.518406 0.000000
238.685120 86.751228 1.189687 0.000000
237.103360 88.868568 1.160578 0.000000
235.549290 91.050995 1.132502 0.000000
233.362590 93.467773 1.084795 0.000000
233.376890 95.378967 1.105777 0.000000
232.841670 97.469223 1.109291 0.000000
243.777920 87.368774 3.429496 0.000000
243.743320 90.772911 3.484552 0.000000
243.755750 92.490028 3.512708 0.000000
243.739040 94.231781 3.540891 0.000000
233.353740 93.379585 5.702134 0.000000
233.367510 95.289566 5.743815 0.000000
233.348880 97.226921 5.787073 0.000000
245.509690 90.202408 9.607665 0.000000
242.058590 100.009270 10.125813 0.000000
242.659150 101.635280 10.159143 0.000000
241.998840 99.984772 12.308075 0.000000
243.646180 101.180370 14.411413 0.000000
245.626130 102.250740 14.293386 0.000000
245.432480 104.152890 14.418957 0.000000
244.659710 98.968552 16.336868 0.000000
243.803010 101.077060 16.560284 0.000000
244.544040 102.624180 16.576235 0.000000
243.629410 106.730290 16.947906 0.000000
233.390520 89.590637 1.229037 0.000000
233.380190 91.491714 1.252467 0.000000
233.369840 93.408409 1.275380 0.000000
233.358980 95.342186 1.297770 0.000000
231.460020 97.832222 1.265293 0.000000
233.388990 89.545868 3.543123 0.000000
233.380250 91.445953 3.575662 0.000000
233.365780 93.362999 3.608430 0.000000
233.355410 95.296051 3.641517 0.000000
233.344890 97.247520 3.674919 0.000000
242.920090 87.459679 7.815562 0.000000
244.025510 87.187645 9.854273 0.000000
245.203980 106.375490 10.499859 0.000000
242.402100 105.573680 12.843594 0.000000
243.790950 101.246070 14.720076 0.000000
244.444630 102.848640 14.748764 0.000000
241.319120 107.908840 15.325394 0.000000
243.832490 101.184860 16.905611 0.000000
244.234010 102.881530 16.967350 0.000000
242.870610 107.209090 17.405447 0.000000
233.389860 89.347031 1.098326 0.000000
237.080170 90.450272 1.228025 0.000000
235.429140 92.705360 1.193231 0.000000
233.351960 95.146561 1.145436 0.000000
233.340550 97.113503 1.160010 0.000000
233.358120 93.161438 3.487000 0.000000
233.347260 95.109741 3.512597 0.000000
233.368960 91.229614 3.461619 0.000000
233.336270 97.075981 3.538430 0.000000
242.971100 87.316353 7.766859 0.000000
245.541500 98.921608 10.110107 0.000000
242.700440 105.524140 10.487789 0.000000
245.205760 106.433140 10.397638 0.000000
245.462190 100.720840 12.335769 0.000000
244.114380 103.050990 12.531607 0.000000
242.460770 105.578000 12.760370 0.000000
243.797410 101.266100 14.683427 0.000000
244.468050 102.881930 14.703352 0.000000
241.259860 107.970980 15.264833 0.000000
243.835510 101.214880 16.892166 0.000000
244.575010 102.804070 16.901001 0.000000
243.080340 107.184640 17.335400 0.000000
233.347380 96.940918 1.382428 0.000000
233.390000 89.117691 1.304822 0.000000
233.379470 91.050140 1.325075 0.000000
233.368930 92.997208 1.344758 0.000000
233.358230 94.960342 1.363875 0.000000
233.343000 96.900246 3.782721 0.000000
233.375180 91.010948 3.694919 0.000000
233.364610 92.957535 3.723941 0.000000
233.353900 94.920181 3.753201 0.000000
243.463410 99.601501 8.328957 0.000000
244.829130 88.490227 10.111794 0.000000
245.108760 99.032501 10.432174 0.000000
245.175510 106.465370 10.705733 0.000000
245.426090 100.715090 12.658686 0.000000
242.680660 103.549610 12.984415 0.000000
244.769880 104.678890 12.883863 0.000000
243.806580 101.226370 15.028410 0.000000
245.254000 102.582150 14.961960 0.000000
243.787480 101.192280 17.267653 0.000000
244.168150 102.931760 17.325977 0.000000
233.373580 93.021950 1.145210 0.000000
233.379880 94.996170 1.146842 0.000000
233.364590 96.992447 1.147101 0.000000
233.394100 89.111023 1.140793 0.000000
233.383450 91.059448 1.143345 0.000000
233.378910 91.042572 3.536004 0.000000
233.388850 89.094635 3.525099 0.000000
233.368100 93.004913 3.546982 0.000000
233.357320 94.982864 3.558049 0.000000
233.346310 96.977966 3.569211 0.000000
233.354310 96.956680 5.990801 0.000000
239.650600 87.900101 8.064361 0.000000
242.125120 98.379105 8.147192 0.000000
243.782560 99.739464 8.117704 0.000000
242.819730 103.845260 8.229126 0.000000
245.572360 104.752690 8.159225 0.000000
245.538330 99.167747 10.233675 0.000000
245.366520 104.809680 10.395086 0.000000
242.425260 105.887590 12.882954 0.000000
243.928890 101.504260 14.866735 0.000000
244.549710 103.174030 14.876928 0.000000
243.929020 101.484800 17.123171 0.000000
242.314670 103.943460 17.428915 0.000000
243.167630 107.521720 17.516481 0.000000
233.396300 89.575089 1.612880 0.000000
233.385440 91.539566 1.599183 0.000000
233.375290 93.518211 1.584668 0.000000
244.964600 87.442947 4.055138 0.000000
233.381350 91.545517 4.011916 0.000000
233.370710 93.524231 4.006570 0.000000
233.360170 95.518646 4.001183 0.000000
244.820500 98.217430 6.231074 0.000000
242.404070 98.936066 8.539527 0.000000
243.682220 100.428890 8.504721 0.000000
241.155400 103.164430 8.632119 0.000000
245.390910 105.533400 8.497647 0.000000
244.910430 98.199074 10.643370 0.000000
244.930540 100.039990 10.672428 0.000000
244.112550 102.184490 13.016626 0.000000
241.891600 106.847470 13.317047 0.000000
245.141820 101.844530 15.167849 0.000000
245.372920 103.647590 15.203880 0.000000
243.479420 100.505030 15.294710 0.000000
243.522770 102.389610 17.639420 0.000000
233.370790 93.084778 3.174953 0.000000
233.376100 95.084473 3.163631 0.000000
243.772110 87.304581 3.310231 0.000000
233.381770 91.096466 3.186371 0.000000
242.866760 89.272995 5.508375 0.000000
233.366470 93.094490 5.612804 0.000000
233.355960 95.097488 5.610941 0.000000
242.916240 87.471962 7.722068 0.000000
245.452270 90.555450 9.819012 0.000000
245.653790 99.543716 9.903968 0.000000
241.044220 99.020447 10.141489 0.000000
242.453830 104.382190 10.142003 0.000000
244.207490 89.038857 12.073660 0.000000
243.750140 102.025410 12.317567 0.000000
244.251020 103.770730 12.319273 0.000000
241.328770 98.945793 12.435344 0.000000
243.483250 107.950170 12.475618 0.000000
245.458310 101.477870 14.427572 0.000000
245.634770 103.301050 14.463693 0.000000
244.218170 101.885280 16.841282 0.000000
242.602780 104.347200 17.115227 0.000000
244.703860 107.491960 16.999268 0.000000
233.389620 87.950882 3.011871 0.000000
233.379620 89.933640 2.994054 0.000000
233.368620 91.929138 2.976113 0.000000
233.357670 93.938591 2.958047 0.000000
233.356080 95.961212 2.939968 0.000000
242.914400 88.272644 5.349512 0.000000
243.027310 90.071594 5.339412 0.000000
233.352910 93.955826 5.421429 0.000000
233.341690 95.980316 5.413010 0.000000
245.547060 87.824524 7.502140 0.000000
243.388120 86.403976 7.573676 0.000000
244.584670 102.729160 7.556761 0.000000
242.933730 105.221600 7.619058 0.000000
244.700640 87.988983 9.728527 0.000000
242.044430 99.684914 9.936749 0.000000
242.797670 101.385110 9.914173 0.000000
242.652040 103.369000 9.942973 0.000000
242.971440 105.220580 9.948567 0.000000
241.820190 107.618330 10.037880 0.000000
244.841290 87.979546 11.922634 0.000000
242.939850 86.507004 12.057496 0.000000
241.964940 99.721077 12.262085 0.000000
241.919620 103.619420 12.330067 0.000000
242.864960 105.269230 12.293125 0.000000
245.119050 100.700820 14.316118 0.000000
245.575440 102.443770 14.315245 0.000000
244.615510 98.987175 16.603039 0.000000
243.807420 101.114820 16.756294 0.000000
244.815730 102.702960 16.689537 0.000000
233.396450 88.005615 2.725711 0.000000
233.386020 90.004395 2.700846 0.000000
233.375430 92.015518 2.675826 0.000000
233.364750 94.040306 2.650636 0.000000
233.354130 96.080124 2.625260 0.000000
243.116960 88.368011 5.101364 0.000000
233.366610 92.041687 5.151799 0.000000
233.360350 94.065216 5.135380 0.000000
233.349700 96.104637 5.119629 0.000000
245.620480 87.962852 7.281986 0.000000
244.193700 90.020256 7.315017 0.000000
243.732220 101.336130 7.305570 0.000000
244.707400 102.958620 7.278526 0.000000
245.304260 89.832321 9.497665 0.000000
242.149020 101.830830 9.695131 0.000000
245.380190 104.685620 9.557282 0.000000
243.898860 88.302620 11.815285 0.000000
242.273190 99.873184 12.011995 0.000000
242.422200 103.726360 12.050493 0.000000
243.347730 105.392460 12.010594 0.000000
243.754550 101.388060 14.245029 0.000000
245.628070 102.721000 14.100397 0.000000
244.676480 99.236664 16.417917 0.000000
243.954620 101.347560 16.550777 0.000000
244.771800 103.013700 16.502958 0.000000
233.388920 89.176254 2.758875 0.000000
233.378280 91.197433 2.733586 0.000000
233.367630 93.231445 2.708137 0.000000
233.356840 95.279709 2.682509 0.000000
242.928100 87.692909 5.173726 0.000000
243.245000 89.484795 5.155062 0.000000
233.363130 93.257301 5.209946 0.000000
233.352370 95.305168 5.193451 0.000000
239.926120 88.192352 7.538592 0.000000
242.532500 103.007280 7.421767 0.000000
245.511810 107.941740 7.343039 0.000000
241.814270 107.243330 7.446863 0.000000
244.372380 87.511292 9.654482 0.000000
245.544270 90.936264 9.590004 0.000000
241.236180 86.142166 9.821741 0.000000
241.584630 89.824570 9.795460 0.000000
241.781080 99.325424 9.801798 0.000000
243.755940 102.653270 9.721071 0.000000
243.957110 104.547050 9.724752 0.000000
245.229710 106.086270 9.674631 0.000000
243.451420 87.681175 11.974979 0.000000
244.312180 89.365929 11.914976 0.000000
241.758580 99.352829 12.165341 0.000000
242.863590 104.922320 12.155563 0.000000
245.673130 102.106250 14.221588 0.000000
245.575470 104.059540 14.270412 0.000000
240.738040 101.623210 14.667635 0.000000
244.370180 102.525440 16.692789 0.000000
243.301440 100.907410 16.773727 0.000000
233.362120 93.935684 2.756095 0.000000
233.351140 96.005096 2.731626 0.000000
242.998140 88.333626 5.239334 0.000000
243.406740 90.128326 5.220947 0.000000
233.357120 93.960320 5.283254 0.000000
233.346120 96.029343 5.268053 0.000000
245.678300 87.929138 7.458458 0.000000
243.649170 101.523480 7.489302 0.000000
244.705110 88.106415 9.752676 0.000000
241.145570 86.785515 9.942194 0.000000
242.368240 99.944473 9.896568 0.000000
244.885480 88.099854 12.009535 0.000000
242.051540 100.049840 12.294859 0.000000
244.099550 103.386090 12.189304 0.000000
243.281220 105.627640 12.280115 0.000000
243.557280 107.545290 12.291361 0.000000
244.217710 109.336140 12.276361 0.000000
244.590880 103.254070 14.507294 0.000000
243.955900 101.512730 16.899471 0.000000
244.430480 103.322280 16.891922 0.000000
244.672970 102.906060 7.550606 0.000000
242.684420 105.521610 7.616797 0.000000
242.765580 101.497270 9.998741 0.000000
242.940310 105.453920 10.025724 0.000000
244.066480 103.116760 12.330240 0.000000
244.922610 104.834630 12.297059 0.000000
242.521120 101.581120 12.418190 0.000000
243.284330 107.386800 12.457272 0.000000
244.207230 101.121420 14.666664 0.000000
244.523530 102.993820 14.676205 0.000000
244.115750 107.131970 17.237322 0.000000
244.773530 88.072479 8.135274 0.000000
245.328030 87.037018 10.658568 0.000000
243.001300 86.954010 10.727479 0.000000
244.326220 88.834137 13.449781 0.000000
245.600390 86.630562 10.154821 0.000000
242.960220 87.187462 10.277494 0.000000
244.623310 88.438057 12.899014 0.000000
243.673390 89.604637 5.052258 0.000000
243.204800 86.182747 4.972241 0.000000
244.494380 102.504300 8.203208 0.000000
244.483430 88.050003 10.115105 0.000000
242.620820 87.203888 10.119249 0.000000
244.390430 88.208687 12.697386 0.000000
245.526540 105.715710 14.129941 0.000000
244.521270 102.392430 16.741241 0.000000
245.345090 103.457850 2.567438 0.000000
245.320270 103.486730 5.384946 0.000000
244.346890 100.221550 8.071663 0.000000
244.071620 106.257160 8.353918 0.000000
241.028230 87.994133 10.145151 0.000000
245.044050 98.704727 10.724205 0.000000
243.790120 101.360150 13.738543 0.000000
244.840470 99.088562 16.269762 0.000000
233.404750 89.903961 2.194800 0.000000
243.629760 88.537186 4.717366 0.000000
233.399690 89.896133 4.842633 0.000000
245.222020 89.817123 9.787911 0.000000
240.958970 89.223984 9.873196 0.000000
245.397870 104.684450 10.723140 0.000000
241.867130 101.600720 13.419907 0.000000
241.540560 102.271300 16.316813 0.000000
233.387790 91.051300 1.941140 0.000000
238.176680 111.017890 1.976584 0.000000
241.710940 108.883860 1.979683 0.000000
233.345370 87.084236 1.935646 0.000000
233.365300 95.360725 4.672051 0.000000
233.382930 91.048286 4.584572 0.000000
233.340000 87.082359 4.505453 0.000000
244.475220 102.524730 7.491123 0.000000
242.089940 102.438670 7.526025 0.000000
245.727600 89.693260 9.441067 0.000000
243.165370 90.361282 9.550806 0.000000
241.708370 88.783752 9.497602 0.000000
244.505280 102.441410 10.249676 0.000000
242.752580 100.977060 10.203957 0.000000
244.679990 107.754860 10.573130 0.000000
244.639400 87.405746 11.803059 0.000000
242.290130 101.973060 13.057449 0.000000
241.309430 98.901886 12.844610 0.000000
245.366390 106.090320 13.290762 0.000000
244.934720 101.429380 15.680182 0.000000
230.683440 104.552580 2.522350 0.000000
233.312910 95.087242 2.462210 0.000000
233.382750 90.682343 2.429453 0.000000
233.399410 86.624298 2.399078 0.000000
233.308840 95.054375 5.156376 0.000000
243.553310 88.874588 4.928966 0.000000
233.378170 90.652115 5.039431 0.000000
233.395020 86.595253 4.932746 0.000000
230.677690 104.519120 5.425266 0.000000
240.358440 86.432648 7.340244 0.000000
243.324780 98.976631 7.881244 0.000000
245.165370 90.009399 9.918467 0.000000
241.091060 89.263588 9.970091 0.000000
242.365100 101.064910 10.725162 0.000000
242.394680 106.519770 11.092955 0.000000
244.199200 102.267210 13.513951 0.000000
241.927460 101.991510 13.560314 0.000000
244.506350 101.504730 16.178854 0.000000
241.689120 102.474590 16.395889 0.000000
230.705780 102.211040 2.758676 0.000000
233.333470 92.870636 2.675473 0.000000
233.401140 88.579926 2.630825 0.000000
244.996370 103.048740 5.565319 0.000000
242.545010 103.250490 5.578331 0.000000
233.329860 92.823013 5.301424 0.000000
233.396970 88.535767 5.174814 0.000000
244.017040 99.757812 8.129892 0.000000
244.796020 88.076424 9.960523 0.000000
242.238160 88.886307 10.075232 0.000000
241.344880 86.323090 9.919469 0.000000
241.578290 99.931335 10.861284 0.000000
240.672010 107.479750 11.412550 0.000000
244.774720 88.066917 12.396264 0.000000
245.729710 101.058960 13.546178 0.000000
242.206410 103.843230 13.899521 0.000000
243.657550 100.404050 16.249208 0.000000
244.902860 103.012040 16.494616 0.000000
230.758270 104.734590 2.909116 0.000000
233.319520 95.131783 2.811023 0.000000
233.345960 90.751549 2.759136 0.000000
233.412430 86.568436 2.709841 0.000000
243.208660 88.964249 5.227978 0.000000
233.390780 90.612434 5.316228 0.000000
233.408110 86.519768 5.189935 0.000000
230.723600 109.902610 5.928708 0.000000
243.149720 98.875168 8.172894 0.000000
244.055790 87.046921 9.941669 0.000000
240.595500 89.751747 10.210485 0.000000
243.749970 108.842740 11.521237 0.000000
244.101750 101.949410 13.711482 0.000000
244.999370 99.686066 16.133074 0.000000
244.596590 106.510910 16.923157 0.000000
241.510010 102.475000 16.574188 0.000000
230.744110 107.537180 2.975527 0.000000
230.758450 102.461350 2.914228 0.000000
233.327070 92.960304 2.815120 0.000000
233.400910 88.604202 2.762892 0.000000
244.867050 102.951740 5.679185 0.000000
242.320210 103.534030 5.702943 0.000000
230.754150 102.402720 5.701336 0.000000
233.323030 92.907120 5.392738 0.000000
233.397020 88.553574 5.256429 0.000000
243.325350 86.129868 7.492903 0.000000
243.879790 99.648338 8.190891 0.000000
242.868800 87.038071 9.924075 0.000000
241.227910 86.078651 9.892391 0.000000
241.494260 99.835808 10.873009 0.000000
245.583400 100.887700 13.516118 0.000000
240.432460 107.921850 14.308699 0.000000
243.564300 100.204290 16.161631 0.000000
244.843960 102.711620 16.403299 0.000000
230.662540 110.533950 2.990655 0.000000
230.744900 105.077900 2.925897 0.000000
233.365830 95.065315 2.822485 0.000000
233.329790 90.746674 2.770595 0.000000
233.401490 86.506256 2.720314 0.000000
243.175260 88.368805 5.173731 0.000000
245.711960 103.384260 5.651826 0.000000
233.361660 95.010895 5.415550 0.000000
233.325710 90.695007 5.280672 0.000000
233.397570 86.457092 5.148553 0.000000
243.005980 98.724083 8.088434 0.000000
243.421810 87.699501 9.872404 0.000000
242.246060 100.509180 10.820907 0.000000
245.110090 98.933792 10.654416 0.000000
245.233640 104.525960 11.062283 0.000000
241.859090 86.537903 12.184262 0.000000
244.003460 101.702240 13.525961 0.000000
241.797290 101.532520 13.567861 0.000000
244.469670 106.515340 13.966216 0.000000
244.295100 100.879700 16.083191 0.000000
241.622800 101.885330 16.289419 0.000000
244.558980 106.194390 16.683189 0.000000
230.764770 106.777600 2.417070 0.000000
233.403200 91.879768 2.324043 0.000000
233.331990 96.531769 2.357561 0.000000
233.420170 87.633186 2.293160 0.000000
243.623200 88.407578 4.703545 0.000000
233.328350 96.489052 4.956056 0.000000
233.398990 91.840866 4.831413 0.000000
233.416120 87.596352 4.718520 0.000000
230.760070 106.731550 5.241084 0.000000
243.694530 104.261850 7.807884 0.000000
242.118420 102.444400 7.735694 0.000000
245.233370 89.318398 9.432241 0.000000
244.089510 87.233978 9.313560 0.000000
241.563770 88.311966 9.438173 0.000000
242.716340 100.863180 10.265401 0.000000
243.037230 105.962630 10.609335 0.000000
244.272290 86.763893 11.598346 0.000000
245.271040 106.068750 13.287213 0.000000
241.809270 87.675735 14.120534 0.000000
244.817140 101.067700 15.467746 0.000000
241.962070 102.663520 15.737479 0.000000
239.982390 101.911730 15.724781 0.000000
230.738920 107.657980 2.391028 0.000000
233.368160 97.023369 2.329066 0.000000
233.329410 92.508987 2.294517 0.000000
233.397920 88.091560 2.261471 0.000000
243.689910 88.394066 4.658466 0.000000
233.364440 96.973206 4.913253 0.000000
233.325970 92.461464 4.790799 0.000000
233.393950 88.048126 4.671485 0.000000
230.734180 107.603280 5.209474 0.000000
244.497150 102.529820 7.658137 0.000000
242.262790 102.550650 7.676996 0.000000
245.348830 89.126968 9.331750 0.000000
241.643370 88.323227 9.344613 0.000000
241.722500 103.903470 10.407193 0.000000
244.477910 102.511660 10.268112 0.000000
244.299940 86.772247 11.487410 0.000000
241.407260 98.915459 12.638536 0.000000
245.447630 106.045370 13.184640 0.000000
242.549000 101.658930 12.855063 0.000000
242.163060 108.865120 13.510457 0.000000
244.139070 87.097870 13.835446 0.000000
241.985410 87.436722 13.949965 0.000000
244.949280 101.060450 15.341343 0.000000
240.167530 101.945470 15.590405 0.000000
230.804230 110.312130 2.341917 0.000000
245.177760 103.385440 2.398845 0.000000
230.763090 104.961370 2.303510 0.000000
233.384220 94.484131 2.248278 0.000000
233.352860 90.084885 2.216719 0.000000
230.758680 104.907500 5.045733 0.000000
233.380250 94.436043 4.759461 0.000000
233.349640 90.038467 4.642153 0.000000
243.379640 86.125542 6.778034 0.000000
242.654910 104.124200 7.645079 0.000000
242.897740 87.215820 9.124017 0.000000
243.505620 101.688660 10.101708 0.000000
243.668930 107.592390 10.506844 0.000000
244.315230 88.528770 11.499895 0.000000
243.539250 101.523840 12.674454 0.000000
244.440510 105.249660 12.989477 0.000000
243.739760 100.896010 15.194167 0.000000
241.327970 101.489230 15.333076 0.000000
243.690440 100.961150 17.797831 0.000000
230.812610 107.564830 2.387593 0.000000
233.373950 96.718872 2.323188 0.000000
233.392910 92.017227 2.287130 0.000000
233.362400 87.742340 2.253989 0.000000
233.359190 87.695694 4.610753 0.000000
230.808460 107.505950 5.159130 0.000000
233.369810 96.667389 4.856163 0.000000
233.388930 91.968964 4.727221 0.000000
244.914280 89.006821 6.915680 0.000000
244.004350 86.366837 6.795530 0.000000
241.040250 105.163480 7.731742 0.000000
241.379290 87.941071 9.191173 0.000000
243.036650 105.776980 10.396478 0.000000
240.240430 101.246990 10.123180 0.000000
241.726840 87.056381 11.406835 0.000000
239.968080 86.548065 11.409731 0.000000
244.109130 102.550490 12.738816 0.000000
240.120190 101.492770 12.731858 0.000000
245.153320 106.010560 13.032224 0.000000
243.561250 87.295578 13.661753 0.000000
239.997160 101.745210 15.363701 0.000000
230.789890 110.290630 2.455264 0.000000
244.791290 103.313960 2.504689 0.000000
230.817050 104.662750 2.409620 0.000000
233.380190 93.969032 2.341952 0.000000
233.398900 89.411560 2.304965 0.000000
243.674850 88.904976 4.646629 0.000000
233.395020 89.363136 4.670244 0.000000
244.826020 103.124320 5.055961 0.000000
230.812930 104.603810 5.100479 0.000000
233.376170 93.917351 4.797263 0.000000
230.785930 110.226490 5.259047 0.000000
241.953020 88.264519 6.899992 0.000000
242.418990 103.783020 7.658908 0.000000
245.504500 89.044456 9.174428 0.000000
243.414580 107.356180 10.488894 0.000000
241.724500 105.743370 10.397241 0.000000
242.119580 87.725006 11.406336 0.000000
244.371080 86.882286 11.276325 0.000000
241.839260 99.147682 12.441007 0.000000
242.024630 104.782390 12.948593 0.000000
244.340360 86.899979 13.523571 0.000000
242.254760 87.325928 13.637614 0.000000
240.805790 86.134674 13.556273 0.000000
245.186160 101.679150 15.149225 0.000000
243.457670 100.500520 15.063223 0.000000
240.725690 102.161830 15.326689 0.000000
243.011200 101.731390 17.789053 0.000000
230.788700 107.316090 2.447863 0.000000
233.416380 95.949257 2.374394 0.000000
233.381470 91.305046 2.336373 0.000000
233.400180 86.887123 2.300579 0.000000
233.377330 91.257423 4.716683 0.000000
233.396260 86.842331 4.593606 0.000000
230.784610 107.256840 5.170475 0.000000
233.412260 95.897972 4.846684 0.000000
243.409530 86.215073 6.758704 0.000000
243.068020 87.053688 9.024052 0.000000
240.210020 89.427597 9.235777 0.000000
239.880600 101.124840 10.053408 0.000000
244.437770 88.413780 11.343488 0.000000
238.965760 87.614021 11.406080 0.000000
242.872800 87.445580 13.539205 0.000000
230.740880 110.247360 2.420043 0.000000
230.817840 104.356830 2.381658 0.000000
233.442960 93.153854 2.319737 0.000000
233.408110 88.657463 2.290018 0.000000
233.438710 93.123489 4.714349 0.000000
233.404270 88.628304 4.595517 0.000000
230.736400 110.209460 5.181292 0.000000
230.814210 104.319980 5.023330 0.000000
244.565830 102.497850 7.439422 0.000000
242.408950 102.667540 7.465936 0.000000
241.096850 89.049004 9.084337 0.000000
243.774640 86.922020 8.890673 0.000000
239.852680 87.314659 8.990994 0.000000
244.526600 102.574130 9.956347 0.000000
240.773900 101.164870 9.917399 0.000000
243.867830 86.621536 11.060862 0.000000
239.762560 87.500191 11.247642 0.000000
241.549610 98.837128 12.207130 0.000000
242.498180 102.285910 12.494680 0.000000
242.965000 107.691740 12.972038 0.000000
245.035130 100.783000 14.794346 0.000000
242.066380 103.525100 17.762524 0.000000
245.177320 103.401680 2.502451 0.000000
230.754610 107.237720 2.504333 0.000000
233.431150 95.318062 2.433437 0.000000
233.454480 90.466843 2.402937 0.000000
233.420620 86.110512 2.375464 0.000000
233.449570 90.455261 4.722685 0.000000
233.416610 86.097687 4.608800 0.000000
230.749820 107.222540 5.184331 0.000000
233.427110 95.303596 4.850572 0.000000
242.298980 87.735504 6.788049 0.000000
240.352130 105.304280 7.649602 0.000000
238.608860 87.494621 9.052185 0.000000
244.452700 86.802895 11.053810 0.000000
242.402850 87.400055 11.162939 0.000000
242.606120 104.890430 12.722173 0.000000
244.419690 86.876312 13.244040 0.000000
243.755570 101.049580 14.833846 0.000000
241.542160 101.507760 14.953242 0.000000
243.802080 100.866940 17.305595 0.000000
230.744630 110.186110 2.416599 0.000000
230.768950 104.254780 2.389445 0.000000
233.443410 92.502052 2.334100 0.000000
233.466030 87.804543 2.312593 0.000000
233.439470 92.504051 4.674016 0.000000
233.461060 87.808571 4.558184 0.000000
230.724440 110.231130 5.138044 0.000000
230.764210 104.258560 4.988899 0.000000
244.641250 88.161713 6.642597 0.000000
243.454380 86.267670 6.572304 0.000000
244.945590 99.845619 7.180711 0.000000
242.916080 99.903961 7.209418 0.000000
243.237660 86.899818 8.761183 0.000000
240.524520 101.012930 9.761860 0.000000
244.492920 88.613045 11.039596 0.000000
241.669460 86.172226 10.907212 0.000000
244.665970 108.460880 12.794422 0.000000
243.219270 105.952660 12.605293 0.000000
243.237200 86.888824 13.095264 0.000000
244.238310 102.334340 14.749656 0.000000
244.354290 101.917080 17.193691 0.000000
230.760180 106.800000 2.383243 0.000000
233.389050 94.535393 2.327467 0.000000
233.455380 89.497520 2.305103 0.000000
233.384770 94.538849 4.687223 0.000000
233.451580 89.499474 4.562514 0.000000
244.571060 103.814710 4.838299 0.000000
230.755340 106.804890 5.013287 0.000000
243.708940 99.570923 7.129627 0.000000
245.657750 107.698730 7.486219 0.000000
239.927600 105.496540 7.452585 0.000000
241.283330 88.866745 8.859328 0.000000
240.091830 87.015587 8.762939 0.000000
243.547290 87.519394 10.875783 0.000000
242.092390 86.477837 10.825254 0.000000
240.354810 86.277061 10.858857 0.000000
242.479110 103.918170 12.350584 0.000000
243.535610 107.728700 12.664359 0.000000
243.798750 86.728188 12.943803 0.000000
245.333440 100.896260 14.449608 0.000000
243.541290 100.140830 16.860413 0.000000
243.586520 107.523090 17.829807 0.000000
230.826520 109.398820 2.347036 0.000000
245.404880 103.474080 2.315723 0.000000
233.389630 96.623131 2.294349 0.000000
233.410450 91.431068 2.273462 0.000000
233.474230 86.572525 2.253893 0.000000
233.385530 96.627625 4.675861 0.000000
243.980470 87.841385 4.379057 0.000000
233.406520 91.434662 4.549182 0.000000
240.701580 86.924820 4.379820 0.000000
233.470790 86.574623 4.430912 0.000000
230.820970 109.407390 5.009593 0.000000
245.395280 103.508570 4.763174 0.000000
242.426090 87.115959 6.494663 0.000000
244.584320 98.895531 7.008564 0.000000
242.698940 98.643333 7.019547 0.000000
239.925200 89.201027 8.812727 0.000000
244.050380 87.594330 10.754515 0.000000
242.430210 87.092781 10.753455 0.000000
242.699980 106.042200 12.415670 0.000000
241.796390 101.827340 14.520888 0.000000
244.645250 98.644524 16.472532 0.000000
230.833590 105.956060 2.409907 0.000000
233.398280 93.380600 2.348653 0.000000
233.418490 88.376610 2.324449 0.000000
233.394240 93.381210 4.643704 0.000000
233.414610 88.376656 4.517544 0.000000
230.828380 105.959320 4.981885 0.000000
243.086940 86.625488 6.491400 0.000000
243.154600 99.480927 7.093173 0.000000
243.980260 104.038560 7.299119 0.000000
244.422970 88.030281 8.656054 0.000000
240.638750 88.787262 8.779402 0.000000
242.998470 86.901413 10.712894 0.000000
244.398590 88.107742 10.785572 0.000000
243.258350 106.967430 12.498974 0.000000
244.326430 102.593700 14.525237 0.000000
244.361370 102.440850 16.957811 0.000000
242.213910 103.012290 17.103540 0.000000
240.644070 101.395260 16.944849 0.000000
230.712980 109.213620 2.743544 0.000000
244.915100 103.328490 2.706835 0.000000
233.451230 95.378151 2.635980 0.000000
233.413180 90.248344 2.595367 0.000000
233.446530 95.368423 4.952127 0.000000
233.409210 90.237282 4.806712 0.000000
230.708790 109.199810 5.364365 0.000000
244.952090 103.138530 5.114345 0.000000
239.958130 87.132767 8.886253 0.000000
237.972980 87.752785 8.969150 0.000000
241.413300 101.396010 9.871764 0.000000
245.118320 87.303268 10.893570 0.000000
240.151950 86.506241 10.938444 0.000000
242.604750 104.546480 12.545720 0.000000
245.390810 101.094450 14.559398 0.000000
243.639880 100.266490 16.899738 0.000000
245.488770 103.710190 2.867697 0.000000
230.737810 105.424960 2.851291 0.000000
233.470210 91.844803 2.725523 0.000000
233.433520 86.922226 2.677633 0.000000
245.532650 103.450170 5.262306 0.000000
233.465680 91.821922 4.949130 0.000000
233.429500 86.899643 4.800721 0.000000
230.733610 105.396160 5.374216 0.000000
245.204150 104.978540 7.744960 0.000000
244.069310 86.363480 8.829913 0.000000
238.563550 87.495369 9.000948 0.000000
240.651960 86.384712 8.884650 0.000000
245.527910 87.234200 10.939459 0.000000
244.005280 86.568764 10.905930 0.000000
238.586490 87.388565 11.103512 0.000000
244.986690 105.921840 12.726482 0.000000
242.971540 105.934720 12.760638 0.000000
243.958400 86.708763 12.992031 0.000000
245.587480 102.990210 14.850937 0.000000
244.003540 101.289480 17.082323 0.000000
230.722780 107.954740 3.027809 0.000000
233.387620 93.760185 2.872361 0.000000
233.501850 88.136993 2.806536 0.000000
233.384380 93.713516 5.115330 0.000000
233.498200 88.095390 4.932979 0.000000
230.718900 107.900760 5.583004 0.000000
242.252300 88.154579 6.991879 0.000000
243.987880 104.161280 7.851982 0.000000
240.121030 89.543251 9.202541 0.000000
242.160830 88.440865 9.093735 0.000000
239.000290 87.406456 9.058315 0.000000
244.299410 86.642387 10.976067 0.000000
238.981740 87.412086 11.148903 0.000000
243.129520 108.107240 13.080389 0.000000
245.585490 105.872890 12.831145 0.000000
242.019100 103.998250 12.695902 0.000000
244.252990 86.769371 13.043616 0.000000
244.374130 101.992970 17.243576 0.000000
242.154600 103.248840 17.472387 0.000000
230.787480 110.694470 3.063868 0.000000
244.798250 103.553720 3.046378 0.000000
233.360610 95.870361 2.899412 0.000000
233.407710 90.093201 2.830702 0.000000
244.884350 103.013200 5.399284 0.000000
233.357100 95.820023 5.167421 0.000000
233.404510 90.046471 4.978756 0.000000
230.782780 110.637500 5.657335 0.000000
243.033200 86.750755 6.881284 0.000000
242.633120 104.482200 7.850386 0.000000
240.702060 89.184448 9.119658 0.000000
239.489610 87.343918 8.996309 0.000000
244.636380 86.855293 10.930134 0.000000
242.935700 87.019112 10.972025 0.000000
239.464450 87.372841 11.066944 0.000000
244.398150 105.204670 15.161283 0.000000
243.337460 100.780220 17.007006 0.000000
245.436400 103.611190 2.994832 0.000000
230.779420 106.671620 2.962902 0.000000
233.356090 92.109367 2.809201 0.000000
233.401900 86.577171 2.746564 0.000000
245.429640 103.561490 5.348218 0.000000
233.352600 92.064789 4.981283 0.000000
233.398700 86.535690 4.803768 0.000000
230.774900 106.620640 5.455004 0.000000
241.232440 88.972649 9.002350 0.000000
241.927640 101.759650 9.958794 0.000000
240.162930 101.113950 9.926661 0.000000
244.953770 87.218109 10.852755 0.000000
243.264140 87.410217 10.895160 0.000000
240.207520 86.340828 10.841899 0.000000
244.978520 105.902310 12.672429 0.000000
243.019130 105.897220 12.693638 0.000000
243.397110 86.762390 12.856205 0.000000
245.645190 101.960530 14.625773 0.000000
243.910390 101.067850 16.890343 0.000000
230.774540 109.641950 2.930135 0.000000
233.415910 93.855026 2.771751 0.000000
233.380980 88.227203 2.710626 0.000000
233.411960 93.809746 4.961434 0.000000
233.377610 88.184387 4.783316 0.000000
230.769820 109.588360 5.466492 0.000000
244.019100 104.180920 7.652743 0.000000
243.799650 86.721535 8.706503 0.000000
245.124980 88.245193 8.810348 0.000000
240.421720 87.165062 8.772566 0.000000
238.714710 87.330193 8.804315 0.000000
245.328930 87.105141 10.722775 0.000000
243.619290 87.516457 10.783672 0.000000
245.685150 105.547170 12.510769 0.000000
243.436550 107.366220 12.708710 0.000000
243.777770 86.691536 12.707874 0.000000
244.822750 99.178520 16.456316 0.000000
242.244400 103.080560 17.053127 0.000000
244.755680 103.563260 2.712940 0.000000
233.413280 95.920853 2.565953 0.000000
233.437710 89.701469 2.509515 0.000000
244.799910 103.153340 5.027554 0.000000
233.409410 95.860947 4.780579 0.000000
233.434140 89.647110 4.593855 0.000000
242.442380 87.159859 6.517691 0.000000
240.452100 88.678421 8.633633 0.000000
245.714110 86.668777 10.427458 0.000000
243.975830 87.410339 10.513386 0.000000
241.183410 101.806820 16.576710 0.000000
242.768170 103.453840 16.778854 0.000000
244.158230 106.659650 17.205002 0.000000
245.326680 103.412810 2.490879 0.000000
230.782390 108.017710 2.404379 0.000000
233.426960 91.413033 2.307314 0.000000
244.257250 87.803276 4.345087 0.000000
245.292160 103.509910 4.801308 0.000000
233.423340 91.349709 4.409479 0.000000
230.778020 107.939950 4.870919 0.000000
241.396970 104.227680 7.144236 0.000000
242.283480 98.981956 9.111504 0.000000
244.266420 87.426491 10.255622 0.000000
242.777980 86.834030 10.211405 0.000000
241.199460 86.722733 10.215142 0.000000
245.078780 104.595540 11.859803 0.000000
242.853840 86.339363 12.133951 0.000000
241.165100 86.794601 12.208497 0.000000
244.254260 87.279915 14.220411 0.000000
241.026820 87.360611 14.284547 0.000000
243.783050 100.501330 16.040442 0.000000
244.797350 106.319020 16.829710 0.000000
233.435970 93.283943 2.178493 0.000000
233.459900 86.951782 2.144637 0.000000
244.652280 87.270607 4.174670 0.000000
241.630520 86.494041 4.143038 0.000000
233.456250 86.902802 4.135538 0.000000
233.432110 93.228638 4.302663 0.000000
243.187580 86.510231 6.086641 0.000000
242.081940 103.754520 6.922297 0.000000
241.861720 105.052820 9.332508 0.000000
243.055980 87.085625 10.030250 0.000000
244.768050 86.219604 9.939048 0.000000
245.512770 105.886530 11.747082 0.000000
244.556230 87.480492 12.028107 0.000000
241.218320 88.308525 12.159894 0.000000
243.170230 86.333931 11.912390 0.000000
241.377590 87.390411 14.045788 0.000000
244.164790 101.639750 15.936460 0.000000
245.494050 105.729230 16.480289 0.000000
241.817860 104.965420 16.415379 0.000000
233.351360 95.663681 2.028596 0.000000
233.438290 88.570656 2.004613 0.000000
244.941510 87.183441 4.002643 0.000000
233.347750 95.615509 4.187224 0.000000
233.434600 88.529793 4.012960 0.000000
245.009430 86.593124 5.907511 0.000000
243.453570 86.618446 5.908696 0.000000
233.431550 88.486511 6.021569 0.000000
241.636230 98.243660 8.637592 0.000000
243.251110 87.751694 9.875379 0.000000
241.299590 89.887665 10.082529 0.000000
244.635760 102.394300 11.188041 0.000000
241.620880 87.954735 11.884060 0.000000
243.448500 86.395828 11.689296 0.000000
243.285660 87.356606 13.766745 0.000000
241.761350 87.066505 13.750859 0.000000
242.459990 104.712120 16.099150 0.000000
238.526350 110.476720 1.997967 0.000000
240.644350 109.384460 2.008106 0.000000
230.748930 109.515640 1.948889 0.000000
245.126360 103.352690 2.020694 0.000000
233.369190 90.591805 1.919555 0.000000
242.713820 108.295880 2.017961 0.000000
245.111850 103.355950 4.287493 0.000000
233.365690 90.551262 3.953887 0.000000
230.744930 109.462500 4.397973 0.000000
245.592440 98.473633 6.333740 0.000000
233.361910 90.511932 5.988604 0.000000
242.100810 98.409492 8.501730 0.000000
245.013630 88.512527 9.784677 0.000000
243.576870 87.536911 9.704935 0.000000
244.642880 107.550780 11.487376 0.000000
243.721600 86.391655 11.523613 0.000000
243.475040 101.292040 13.180173 0.000000
243.563310 100.434730 15.324175 0.000000
243.354750 102.058370 17.831707 0.000000
233.272340 110.848140 1.877436 0.000000
237.519380 109.034410 1.900618 0.000000
239.596310 107.992060 1.911709 0.000000
243.612180 105.917600 1.933059 0.000000
231.682130 108.863310 1.864529 0.000000
245.645940 103.783740 1.942153 0.000000
233.424160 92.410675 1.849117 0.000000
235.373140 110.202650 1.889302 0.000000
241.626800 106.952560 1.922519 0.000000
233.420330 92.368591 3.905542 0.000000
233.416490 92.326523 5.962184 0.000000
243.803150 88.260666 7.702589 0.000000
243.705460 104.562810 8.790815 0.000000
245.171880 89.941971 9.787771 0.000000
243.883820 87.479362 9.574037 0.000000
240.784240 98.860237 10.595167 0.000000
239.188830 87.640015 11.567743 0.000000
243.967830 101.690200 13.074478 0.000000
243.926390 86.916931 13.370694 0.000000
243.983810 101.253410 17.525831 0.000000
241.938610 103.465790 17.889639 0.000000
236.061660 110.078220 1.903343 0.000000
238.148240 109.041680 1.915007 0.000000
242.183980 106.977940 1.937464 0.000000
244.127180 106.060960 1.948410 0.000000
232.202320 109.738720 1.877876 0.000000
233.415770 94.408424 1.859248 0.000000
233.446030 86.721291 1.846180 0.000000
244.221370 86.614876 3.795299 0.000000
233.442630 86.678391 3.765158 0.000000
233.412000 94.358368 3.942127 0.000000
233.439130 86.635788 5.684200 0.000000
233.394420 94.374641 6.027896 0.000000
245.612410 87.727348 7.637587 0.000000
244.152560 86.924774 9.480987 0.000000
245.417950 89.901459 9.743530 0.000000
241.172040 99.209290 10.579885 0.000000
244.159770 86.728920 11.364397 0.000000
242.566860 87.372299 11.444281 0.000000
239.461720 87.564293 11.491293 0.000000
244.137330 86.825539 13.287453 0.000000
237.108060 107.347860 1.825706 0.000000
235.083400 108.228730 1.809370 0.000000
239.092510 106.466330 1.841695 0.000000
