# .PCD v0.7 - Point Cloud Data file format
VERSION 0.7
FIELDS x y z intensity
SIZE 4 4 4 4
TYPE F F F F
COUNT 1 1 1 1
WIDTH 1184
HEIGHT 1
VIEWPOINT 0 0 0 1 0 0 0
POINTS 1184
DATA ascii
252.776660 210.814990 8.935686 0.000000
247.985060 208.006010 8.823607 0.000000
248.202480 208.254760 8.829266 0.000000
248.464080 208.574310 8.836334 0.000000
248.661360 208.839340 8.842512 0.000000
250.645540 209.808880 8.889318 0.000000
250.803880 210.146790 8.896007 0.000000
248.803680 209.042190 8.847191 0.000000
248.941010 209.248440 8.851740 0.000000
249.158510 209.599560 8.859330 0.000000
250.992680 210.573940 8.903545 0.000000
251.135120 210.920170 8.908814 0.000000
249.402130 210.031420 8.868184 0.000000
249.589310 210.400090 8.875553 0.000000
249.694370 210.625000 8.879966 0.000000
249.824890 210.929370 8.885769 0.000000
263.077760 186.803680 8.476735 0.000000
263.051610 187.799480 8.533633 0.000000
263.089290 188.679310 8.581791 0.000000
263.238040 189.401020 8.617562 0.000000
263.338320 190.152540 8.655928 0.000000
263.469910 190.846850 8.689807 0.000000
263.599610 191.522690 8.722309 0.000000
263.727600 192.181240 8.753509 0.000000
263.177980 194.874830 8.911713 0.000000
263.308170 195.440030 8.936329 0.000000
263.415620 196.011780 8.961639 0.000000
263.523410 196.570850 8.985916 0.000000
263.620820 197.126360 9.009987 0.000000
263.704410 197.680770 9.034102 0.000000
263.998410 198.075380 9.042753 0.000000
269.024720 202.295700 9.037602 0.000000
263.721070 198.859410 9.089851 0.000000
264.016300 199.240140 9.097061 0.000000
264.329070 199.611360 9.102824 0.000000
268.125850 202.116180 9.066049 0.000000
269.291900 202.761990 9.045331 0.000000
264.605100 200.007570 9.110713 0.000000
264.938350 200.371640 9.114661 0.000000
267.112880 202.019210 9.101952 0.000000
254.408920 194.249450 8.598830 0.000000
265.472320 201.729570 9.153582 0.000000
266.158390 201.927490 9.135396 0.000000
254.603000 194.710370 8.627148 0.000000
254.787020 195.169200 8.655201 0.000000
267.518950 204.023830 9.165629 0.000000
268.010440 204.372270 9.158966 0.000000
268.728330 204.654270 9.140208 0.000000
255.200150 195.983720 8.700359 0.000000
255.380080 196.407560 8.724533 0.000000
268.529690 205.259800 9.170539 0.000000
269.149480 205.597520 9.157072 0.000000
255.544600 196.838010 8.749359 0.000000
255.706410 197.259540 8.773192 0.000000
269.635500 206.531920 9.169363 0.000000
255.865660 197.672640 8.796074 0.000000
268.953800 206.190640 9.186056 0.000000
255.986880 198.116490 8.822357 0.000000
270.093840 207.488830 9.181995 0.000000
270.020290 208.038820 9.202827 0.000000
270.634700 208.445420 9.189542 0.000000
268.287900 207.408630 9.255412 0.000000
255.724110 199.477480 8.929472 0.000000
255.858050 199.857440 8.949416 0.000000
256.012210 200.210280 8.966145 0.000000
256.063570 200.650270 8.993228 0.000000
258.283840 202.123600 8.974062 0.000000
256.291500 201.157380 9.015562 0.000000
257.232790 201.993130 9.021323 0.000000
257.712340 202.083690 9.001874 0.000000
258.349180 202.526470 8.994734 0.000000
258.751040 202.701780 8.983297 0.000000
259.114200 202.911360 8.975553 0.000000
259.437130 203.589400 8.995949 0.000000
260.060760 203.667940 8.964965 0.000000
260.397340 203.920520 8.959393 0.000000
260.743190 204.175260 8.952967 0.000000
260.976840 204.492710 8.955902 0.000000
268.967220 209.785540 9.301379 0.000000
256.768160 201.905330 9.039763 0.000000
258.922850 203.464970 9.017790 0.000000
260.842440 204.986100 8.989011 0.000000
261.110780 205.285680 8.988112 0.000000
268.964970 210.783130 9.330255 0.000000
261.494570 205.961260 8.997865 0.000000
261.887120 206.432250 8.995947 0.000000
248.762360 198.214940 8.703092 0.000000
261.829380 207.072920 9.028395 0.000000
262.231960 207.346190 9.015458 0.000000
248.909590 198.618130 8.738250 0.000000
249.529360 199.083470 8.759451 0.000000
262.727660 208.015260 9.012697 0.000000
249.724200 199.654940 8.807343 0.000000
249.848600 200.021450 8.837480 0.000000
262.740910 208.421310 9.028271 0.000000
250.034850 200.540880 8.878865 0.000000
252.002730 202.006300 8.909657 0.000000
252.564800 202.255230 8.898067 0.000000
252.889940 202.550780 8.903312 0.000000
253.303380 202.764910 8.895327 0.000000
254.605180 203.617490 8.877379 0.000000
255.026120 203.678190 8.852993 0.000000
255.349870 204.015170 8.855427 0.000000
262.809690 208.809890 9.039201 0.000000
262.866790 209.200160 9.050484 0.000000
250.214310 201.042620 8.917993 0.000000
251.508510 201.919970 8.930181 0.000000
253.534480 203.152540 8.912135 0.000000
254.182710 203.571180 8.902515 0.000000
255.512560 204.464430 8.876604 0.000000
255.657000 204.736660 8.885537 0.000000
262.907010 209.592880 9.062483 0.000000
250.325410 201.372410 8.943475 0.000000
250.709410 201.788850 8.962137 0.000000
251.024610 201.839690 8.949795 0.000000
255.933150 205.285550 8.903244 0.000000
256.152160 205.511340 8.902051 0.000000
262.925050 209.988450 9.075552 0.000000
256.190610 205.841000 8.920923 0.000000
256.306180 206.124270 8.930430 0.000000
256.470860 206.551090 8.944549 0.000000
256.625700 206.980220 8.958652 0.000000
262.486510 210.657320 9.126749 0.000000
256.724120 207.266970 8.967857 0.000000
256.815920 207.555480 8.977232 0.000000
248.351270 202.446270 8.832075 0.000000
248.561220 202.572170 8.834392 0.000000
248.872620 202.767230 8.837851 0.000000
249.282490 203.036560 8.842276 0.000000
249.897350 203.446500 8.846037 0.000000
250.295560 203.549790 8.829171 0.000000
250.599610 203.583620 8.810840 0.000000
251.785870 204.547230 8.816509 0.000000
251.941830 204.749400 8.823145 0.000000
252.094150 204.953930 8.829819 0.000000
257.061100 208.105510 8.988120 0.000000
247.090160 201.965840 8.841684 0.000000
247.586880 202.060760 8.828316 0.000000
247.924590 202.206760 8.827849 0.000000
248.138820 202.324800 8.829946 0.000000
252.242810 205.160710 8.836517 0.000000
252.450760 205.481090 8.847810 0.000000
252.648330 205.807310 8.859552 0.000000
257.196870 208.536190 8.999920 0.000000
257.446290 208.929340 8.999508 0.000000
245.896160 201.709630 8.862509 0.000000
246.240330 201.808110 8.860795 0.000000
246.593770 201.892200 8.855768 0.000000
252.775710 206.026520 8.867268 0.000000
252.898700 206.247760 8.875067 0.000000
253.019320 206.469570 8.882647 0.000000
257.580750 209.204440 9.001905 0.000000
257.713230 209.481810 9.004113 0.000000
253.135100 206.693600 8.890370 0.000000
253.302140 207.031860 8.901790 0.000000
257.842350 209.761920 9.006267 0.000000
258.028080 210.187700 9.009489 0.000000
253.512620 207.487080 8.916902 0.000000
253.679030 207.822370 8.925757 0.000000
258.207520 210.618640 9.012529 0.000000
258.315400 210.910860 9.015136 0.000000
246.242630 203.449050 8.793001 0.000000
253.798750 208.041290 8.929835 0.000000
253.973860 208.372620 8.935646 0.000000
254.142960 208.707570 8.941344 0.000000
246.034010 203.395950 8.797126 0.000000
254.303070 209.047500 8.947077 0.000000
254.457610 209.390640 8.952620 0.000000
254.555910 209.621860 8.956310 0.000000
254.697110 209.971920 8.961719 0.000000
254.873900 210.444290 8.968834 0.000000
255.048830 210.920200 8.974402 0.000000
264.634400 201.096630 9.158183 0.000000
258.434660 198.486540 9.251442 0.000000
266.553100 209.718800 9.402552 0.000000
266.357090 210.663390 9.438904 0.000000
258.065060 198.257260 9.764298 0.000000
258.292480 198.604000 9.773685 0.000000
268.302950 207.390870 9.870258 0.000000
268.968630 209.268450 9.907318 0.000000
268.966580 209.771640 9.920574 0.000000
266.189270 210.675130 10.003017 0.000000
248.563890 187.378630 10.028417 0.000000
259.253330 199.388460 10.302424 0.000000
256.010680 199.156630 10.296206 0.000000
268.237340 207.393680 10.485635 0.000000
266.494320 209.703830 10.537179 0.000000
265.935360 210.699600 10.559455 0.000000
264.710140 210.454280 10.553550 0.000000
258.060240 198.250140 10.276399 0.000000
258.218440 198.659700 10.285680 0.000000
255.710660 198.930950 10.291027 0.000000
266.569890 211.061940 10.567818 0.000000
258.563720 198.333800 10.797216 0.000000
259.153930 198.920810 10.811850 0.000000
259.586730 199.103730 10.820806 0.000000
259.979800 199.327820 10.829598 0.000000
257.708740 198.569790 10.785087 0.000000
269.897220 207.491090 11.136807 0.000000
268.053130 206.921420 11.087469 0.000000
268.069700 207.422580 11.096329 0.000000
268.966980 209.240690 11.148275 0.000000
266.531340 208.756910 11.086560 0.000000
268.961880 210.741820 11.176991 0.000000
267.563420 209.974030 11.131467 0.000000
267.956300 210.391530 11.148079 0.000000
260.173160 198.611190 11.368183 0.000000
257.723630 197.402540 11.296560 0.000000
259.627410 198.506910 11.350279 0.000000
257.158690 197.392900 11.279282 0.000000
258.657200 198.236830 11.319858 0.000000
258.431210 198.990890 11.307493 0.000000
257.608950 198.652450 11.283009 0.000000
267.073520 209.572480 11.692508 0.000000
265.124850 209.051940 11.601180 0.000000
266.105290 210.200840 11.660044 0.000000
266.905520 210.532320 11.700081 0.000000
266.990840 210.982190 11.711272 0.000000
248.909440 187.899460 11.244792 0.000000
258.757020 198.133880 11.849465 0.000000
256.658260 197.321400 11.770415 0.000000
257.783910 197.912510 11.807732 0.000000
259.599610 199.069200 11.872550 0.000000
256.277340 197.142730 11.758182 0.000000
257.497990 198.745820 11.775127 0.000000
258.670440 199.307850 11.820877 0.000000
270.004730 206.913820 11.783340 0.000000
257.522370 199.779240 11.754046 0.000000
267.928800 206.941680 11.695387 0.000000
258.353940 201.076280 11.771865 0.000000
258.465610 201.467240 11.771226 0.000000
248.792570 186.520800 11.901093 0.000000
269.591090 205.931370 12.407219 0.000000
269.809140 206.949130 12.426413 0.000000
258.889590 201.144010 12.286304 0.000000
268.764980 207.730960 12.365033 0.000000
266.938170 207.200260 12.245070 0.000000
269.100040 208.679610 12.394734 0.000000
267.986690 208.411730 12.320513 0.000000
268.962280 210.216430 12.403288 0.000000
267.175990 209.540590 12.279100 0.000000
268.960600 210.714140 12.409969 0.000000
266.106140 210.188110 12.217045 0.000000
258.748470 198.129650 12.375882 0.000000
257.575500 197.528780 12.324327 0.000000
257.839290 197.846570 12.328357 0.000000
258.443600 198.956770 12.326375 0.000000
267.802430 208.927150 12.913553 0.000000
266.692690 208.682620 12.817041 0.000000
266.095610 210.177250 12.774721 0.000000
264.894780 209.946320 12.669059 0.000000
266.119690 210.622530 12.780890 0.000000
266.698580 210.994250 12.835213 0.000000
249.227400 186.809370 12.526393 0.000000
248.155000 186.952270 12.491909 0.000000
259.470950 196.857740 13.028328 0.000000
270.409180 205.115160 13.132143 0.000000
257.874570 197.800200 12.851713 0.000000
268.911160 205.046740 13.007221 0.000000
258.438810 198.949310 12.837654 0.000000
257.589050 199.176090 12.756683 0.000000
258.293150 199.605680 12.793427 0.000000
256.065220 199.560900 13.080536 0.000000
267.853550 207.933990 12.914058 0.000000
265.574070 207.549990 13.281284 0.000000
265.602420 208.002060 13.281840 0.000000
264.902620 209.499980 13.204304 0.000000
249.468890 187.686290 13.093128 0.000000
247.497220 187.554790 13.045052 0.000000
268.691830 205.105150 13.631368 0.000000
256.547940 197.987300 13.236879 0.000000
258.753360 199.202300 13.366497 0.000000
255.843440 198.172740 13.159698 0.000000
255.461120 198.027400 13.136706 0.000000
267.145940 206.622710 13.454090 0.000000
267.263000 208.543780 13.457880 0.000000
266.035710 208.354370 13.326787 0.000000
267.578220 209.440080 13.492800 0.000000
267.372160 209.952450 13.472501 0.000000
267.205050 210.448940 13.457240 0.000000
266.625790 210.990840 13.398377 0.000000
250.903550 186.565700 13.234642 0.000000
260.793550 196.860240 13.718519 0.000000
258.876590 197.407240 13.495483 0.000000
268.710750 204.558500 13.640297 0.000000
256.118070 197.862640 13.703136 0.000000
255.631620 197.824130 13.656319 0.000000
258.199620 200.172560 13.745143 0.000000
255.674770 199.422500 13.517870 0.000000
266.509520 206.310580 13.981619 0.000000
265.878690 208.379070 13.876072 0.000000
266.752230 209.579070 13.983662 0.000000
267.503330 210.391310 14.082505 0.000000
266.429410 211.003660 13.944975 0.000000
260.184270 196.780460 14.240804 0.000000
259.783110 197.738920 14.118196 0.000000
260.293980 197.877320 14.166987 0.000000
268.111240 203.677960 14.236324 0.000000
268.929260 204.466600 14.319300 0.000000
269.548250 204.804720 14.389868 0.000000
257.396150 197.084270 13.907510 0.000000
258.029080 197.624770 13.929253 0.000000
259.974520 199.259170 14.025558 0.000000
259.631290 200.053990 13.926843 0.000000
269.125950 207.080810 14.303570 0.000000
268.482570 209.754010 14.208658 0.000000
266.528660 210.977710 14.531142 0.000000
264.423710 209.997060 14.211278 0.000000
259.978520 196.351410 14.252663 0.000000
266.937500 206.162320 14.642823 0.000000
267.553960 207.472320 14.708933 0.000000
267.541110 207.967450 14.700001 0.000000
266.953950 208.585240 14.604601 0.000000
267.162510 209.016170 14.632229 0.000000
267.940400 209.830640 14.746202 0.000000
268.527530 210.224910 14.835277 0.000000
250.149870 187.162480 14.425970 0.000000
269.899840 206.325930 15.077758 0.000000
252.493390 187.070270 8.234055 0.000000
267.489230 186.772490 8.581715 0.000000
267.071530 188.212780 8.662144 0.000000
253.309920 187.876850 8.278200 0.000000
254.195760 189.656950 8.391218 0.000000
251.867310 187.230510 8.259058 0.000000
252.625690 188.166960 8.315632 0.000000
253.389390 188.990940 8.361093 0.000000
254.317460 190.527820 8.452980 0.000000
255.110730 191.122620 8.474712 0.000000
255.276870 191.811740 8.520125 0.000000
256.051910 192.380580 8.537173 0.000000
256.238460 192.970610 8.573155 0.000000
253.539520 189.871990 8.424042 0.000000
254.452100 191.320690 8.508031 0.000000
255.435440 192.478550 8.563591 0.000000
256.336060 193.667890 8.619133 0.000000
256.392580 194.392000 8.667856 0.000000
257.057370 195.011090 8.686812 0.000000
257.120360 195.661060 8.728639 0.000000
256.440830 195.094090 8.714818 0.000000
257.103640 196.383130 8.777828 0.000000
255.763850 203.669980 8.886707 0.000000
256.340420 204.041550 8.875498 0.000000
256.577510 204.477040 8.889597 0.000000
256.807890 204.913350 8.903210 0.000000
256.958680 205.203750 8.911783 0.000000
257.102970 205.496800 8.920485 0.000000
257.246700 205.788600 8.928651 0.000000
247.236150 194.360700 8.413956 0.000000
248.083130 195.479480 8.507093 0.000000
248.583300 196.264620 8.571783 0.000000
248.897230 196.449220 8.581135 0.000000
249.363460 197.183320 8.638474 0.000000
249.796920 197.906200 8.693623 0.000000
245.877300 193.308350 8.330248 0.000000
246.218540 193.610280 8.355984 0.000000
246.547260 193.931610 8.383287 0.000000
246.866290 194.257060 8.410574 0.000000
247.571670 195.254260 8.496423 0.000000
248.232740 196.179310 8.572634 0.000000
249.025160 197.088300 8.639648 0.000000
249.454740 197.836780 8.698438 0.000000
249.820540 198.634780 8.761995 0.000000
250.152590 198.708950 8.756958 0.000000
259.343140 210.994780 9.028842 0.000000
250.209490 199.306440 8.810750 0.000000
252.139370 204.244420 8.808448 0.000000
252.406200 204.743800 8.836231 0.000000
252.572300 204.955900 8.843395 0.000000
252.728130 205.176220 8.851584 0.000000
251.240660 203.632640 8.810171 0.000000
251.702260 203.921050 8.807774 0.000000
251.883730 204.123170 8.814922 0.000000
252.235990 204.534330 8.829109 0.000000
252.878660 205.399610 8.859949 0.000000
253.025440 205.624530 8.868239 0.000000
253.198530 205.996770 8.886485 0.000000
253.357240 206.374910 8.905405 0.000000
253.551880 206.718570 8.917193 0.000000
253.879180 207.125920 8.921333 0.000000
254.052730 207.480260 8.933296 0.000000
254.170260 207.713580 8.940226 0.000000
250.621350 203.560880 8.842874 0.000000
250.928710 203.595110 8.826756 0.000000
254.302030 207.937380 8.944669 0.000000
254.431060 208.162660 8.948972 0.000000
254.619610 208.503280 8.955084 0.000000
254.801360 208.847550 8.961089 0.000000
254.971410 209.197740 8.967349 0.000000
255.189220 209.668850 8.975164 0.000000
249.664340 203.103210 8.851943 0.000000
250.103930 203.382260 8.856056 0.000000
250.337770 203.503390 8.854577 0.000000
255.341710 210.027050 8.981137 0.000000
255.493290 210.386090 8.986004 0.000000
255.749760 210.709930 8.977494 0.000000
248.769580 202.572850 8.841621 0.000000
248.996990 202.699010 8.844041 0.000000
249.331650 202.899410 8.848250 0.000000
248.193660 202.271480 8.835271 0.000000
248.541400 202.448170 8.838905 0.000000
247.713780 202.071230 8.833544 0.000000
246.790330 201.942500 8.855071 0.000000
247.186720 201.987460 8.845328 0.000000
248.977020 204.795470 8.782318 0.000000
249.323120 205.097200 8.794011 0.000000
249.575210 205.330380 8.802870 0.000000
249.819820 205.569950 8.811772 0.000000
250.136110 205.897250 8.823628 0.000000
250.439910 206.234070 8.835548 0.000000
250.660110 206.492100 8.844467 0.000000
250.867310 206.760180 8.854364 0.000000
251.127880 207.128110 8.868420 0.000000
251.375170 207.502590 8.882371 0.000000
251.563000 207.778920 8.890867 0.000000
251.753050 208.051970 8.897543 0.000000
251.996550 208.422040 8.906336 0.000000
252.228210 208.798930 8.914964 0.000000
252.450060 209.181030 8.923072 0.000000
252.666060 209.566060 8.930039 0.000000
252.820430 209.858950 8.935180 0.000000
252.919420 210.056260 8.938537 0.000000
247.778440 203.887410 8.744060 0.000000
247.970730 204.018230 8.749762 0.000000
248.252590 204.222790 8.758740 0.000000
248.619840 204.504320 8.770632 0.000000
253.015780 210.254850 8.941784 0.000000
253.152890 210.556290 8.946757 0.000000
253.326080 210.962550 8.953132 0.000000
247.267010 203.615550 8.736537 0.000000
247.584870 203.757160 8.737980 0.000000
246.663190 203.553960 8.759192 0.000000
246.904590 203.573720 8.749895 0.000000
246.071320 203.506680 8.779814 0.000000
246.424300 203.535140 8.767971 0.000000
248.445010 206.778730 8.815193 0.000000
248.658080 206.981030 8.822729 0.000000
248.933550 207.258220 8.832860 0.000000
249.199650 207.542690 8.842781 0.000000
249.463750 207.826930 8.850793 0.000000
249.718200 208.118910 8.858709 0.000000
249.961850 208.419240 8.866747 0.000000
250.195570 208.726560 8.874655 0.000000
250.472790 209.120610 8.884380 0.000000
250.734920 209.523970 8.893915 0.000000
250.932420 209.853700 8.901376 0.000000
251.119930 210.188750 8.908566 0.000000
251.301830 210.526600 8.914684 0.000000
247.216690 205.788830 8.775186 0.000000
247.458080 205.962620 8.782584 0.000000
247.772260 206.202970 8.792555 0.000000
248.077160 206.453080 8.802574 0.000000
248.300000 206.646410 8.810087 0.000000
251.473300 210.869810 8.920606 0.000000
246.290560 205.200960 8.747850 0.000000
246.718770 205.458830 8.760222 0.000000
247.053130 205.675840 8.770166 0.000000
245.938460 205.008100 8.738133 0.000000
248.173110 208.377350 8.835108 0.000000
248.414890 208.619400 8.841286 0.000000
248.702270 208.935390 8.849634 0.000000
248.976560 209.262070 8.858028 0.000000
249.185760 209.531100 8.864637 0.000000
249.434170 209.876500 8.872760 0.000000
249.667980 210.231410 8.881011 0.000000
249.885410 210.596010 8.889231 0.000000
250.049730 210.892870 8.895701 0.000000
246.926420 207.326170 8.802576 0.000000
247.265300 207.592730 8.813153 0.000000
247.533170 207.807890 8.819769 0.000000
247.858780 208.086700 8.827461 0.000000
250.127780 211.043400 8.898897 0.000000
245.842610 206.605500 8.770474 0.000000
246.215010 206.831470 8.781088 0.000000
246.577070 207.071030 8.791746 0.000000
266.505400 190.626530 8.791952 0.000000
266.473940 191.513440 8.834100 0.000000
266.441890 192.370350 8.874412 0.000000
266.305510 193.292690 8.920301 0.000000
266.379820 193.998600 8.949735 0.000000
266.291020 194.822830 8.988918 0.000000
266.190980 195.629270 9.027235 0.000000
270.598390 202.039020 9.126555 0.000000
266.094060 196.407350 9.063801 0.000000
266.046480 197.123930 9.095763 0.000000
266.939030 198.458650 9.121614 0.000000
267.340760 198.835160 9.123178 0.000000
267.724090 199.228580 9.125626 0.000000
268.033540 199.671160 9.132111 0.000000
268.593960 200.593490 9.147296 0.000000
269.024720 200.975710 9.146019 0.000000
269.362730 201.413040 9.149649 0.000000
269.702030 201.853740 9.152938 0.000000
266.444400 198.152340 9.125578 0.000000
270.497250 203.888990 9.191963 0.000000
268.288970 207.409130 9.384071 0.000000
268.972290 209.755100 9.420050 0.000000
268.972750 210.748370 9.444101 0.000000
257.223210 196.911790 8.808347 0.000000
262.475340 203.993450 8.966016 0.000000
262.713840 204.339580 8.969285 0.000000
257.214840 197.570070 8.851984 0.000000
257.989780 198.567050 8.883917 0.000000
261.997470 203.787030 8.981991 0.000000
257.237880 198.167340 8.889892 0.000000
257.928830 199.212080 8.926985 0.000000
260.011780 202.178480 9.002615 0.000000
260.324740 202.445630 9.001213 0.000000
260.666960 202.938290 9.009595 0.000000
261.384610 203.674320 9.009343 0.000000
262.387910 204.974870 9.016664 0.000000
262.655210 205.298660 9.016358 0.000000
262.936800 205.619580 9.014652 0.000000
262.959930 206.060030 9.032322 0.000000
257.228150 198.777730 8.929522 0.000000
257.902980 199.798950 8.964436 0.000000
259.456790 202.097730 9.025868 0.000000
260.824490 203.547850 9.032734 0.000000
262.966610 206.501420 9.050503 0.000000
257.876770 200.365840 9.000222 0.000000
258.924010 202.017170 9.047584 0.000000
262.979770 206.933960 9.067480 0.000000
262.987850 207.362840 9.084139 0.000000
257.850370 200.913850 9.034424 0.000000
258.422550 201.927860 9.066835 0.000000
263.034000 207.772430 9.097358 0.000000
263.065190 208.183620 9.111060 0.000000
257.767790 201.492770 9.072617 0.000000
263.097260 208.590670 9.124104 0.000000
263.251500 208.956970 9.127943 0.000000
263.576230 209.275920 9.119458 0.000000
263.294370 209.765230 9.152831 0.000000
263.626860 210.087280 9.143074 0.000000
263.868100 210.439130 9.139358 0.000000
255.328570 203.618960 8.910741 0.000000
254.065860 202.859650 8.930011 0.000000
254.332430 203.252000 8.944684 0.000000
254.545330 203.477570 8.948954 0.000000
254.935640 203.543760 8.929834 0.000000
257.212430 206.553910 8.977823 0.000000
257.438110 206.789760 8.975192 0.000000
257.589750 207.246550 8.990068 0.000000
257.735290 207.702410 9.004385 0.000000
257.871830 207.985490 9.009160 0.000000
258.157930 208.202270 8.998499 0.000000
252.921690 202.042850 8.928247 0.000000
253.490570 202.334170 8.921071 0.000000
253.720660 202.544170 8.925015 0.000000
258.308380 208.825620 9.018049 0.000000
258.452360 209.108230 9.020298 0.000000
258.717440 209.348100 9.010485 0.000000
258.892880 209.961360 9.023706 0.000000
252.577670 201.976790 8.940917 0.000000
258.613460 209.720890 9.035600 0.000000
259.032680 210.251400 9.024682 0.000000
250.543720 200.015430 8.863112 0.000000
250.930950 200.580780 8.898192 0.000000
252.063430 201.894180 8.960283 0.000000
250.203450 199.981310 8.873674 0.000000
250.554700 200.606630 8.916682 0.000000
250.950420 201.118000 8.945567 0.000000
251.260560 201.725480 8.985042 0.000000
251.559710 201.816710 8.978636 0.000000
246.280610 201.853960 8.862198 0.000000
246.531750 201.906070 8.859941 0.000000
246.033200 201.794040 8.862912 0.000000
258.058620 198.486040 9.396546 0.000000
266.526180 209.817470 9.519041 0.000000
266.378630 210.757350 9.548408 0.000000
268.305450 207.393860 9.994277 0.000000
268.971470 209.745180 10.032276 0.000000
268.971770 210.243560 10.042356 0.000000
257.992650 198.544630 9.918685 0.000000
266.507570 209.812530 10.079241 0.000000
268.218600 207.410260 10.604936 0.000000
259.078400 199.217010 10.449242 0.000000
257.897370 198.633680 10.436669 0.000000
258.295440 198.816710 10.440691 0.000000
248.676270 186.927960 10.224997 0.000000
265.725160 210.427190 10.645826 0.000000
266.170500 210.779820 10.652673 0.000000
248.064880 187.286530 10.228972 0.000000
256.316310 199.162750 10.440631 0.000000
264.622160 210.239780 10.639757 0.000000
256.023280 198.912410 10.435836 0.000000
269.757690 207.463700 11.250648 0.000000
268.042880 206.945390 11.205139 0.000000
268.055110 207.450210 11.210123 0.000000
259.056210 196.776120 10.971036 0.000000
260.309420 199.245160 10.995925 0.000000
268.966550 210.719640 11.267219 0.000000
259.838070 199.085800 10.986680 0.000000
259.028900 198.672940 10.971099 0.000000
259.419950 198.888290 10.978564 0.000000
268.146670 210.384740 11.243347 0.000000
267.431240 210.053940 11.222237 0.000000
257.085570 197.679180 10.936432 0.000000
257.817050 198.707370 10.949027 0.000000
248.194470 186.705600 10.866595 0.000000
248.479400 187.702420 10.863512 0.000000
264.522160 210.254430 11.154333 0.000000
258.851720 198.239870 11.502399 0.000000
257.890320 198.018620 11.474007 0.000000
259.415590 199.457170 11.504538 0.000000
267.057070 209.657200 11.780775 0.000000
258.544160 199.132250 11.478808 0.000000
266.330140 209.368360 11.746243 0.000000
266.988310 210.601760 11.784038 0.000000
257.728180 198.790010 11.456487 0.000000
265.392940 209.159100 11.702971 0.000000
258.019810 200.187060 11.445769 0.000000
264.470790 210.677750 11.669804 0.000000
270.214230 206.776930 11.909777 0.000000
267.938110 206.969360 11.809147 0.000000
249.703350 187.051410 11.524832 0.000000
250.188720 187.234120 11.527450 0.000000
258.393310 199.268710 11.984367 0.000000
256.537840 197.021030 11.970105 0.000000
258.568020 200.743470 11.951355 0.000000
258.564790 201.260940 11.937362 0.000000
258.673580 201.672300 11.932536 0.000000
265.114010 210.531460 12.225486 0.000000
246.640470 186.570600 11.499058 0.000000
256.343900 199.671660 11.872088 0.000000
256.534820 200.019620 11.870205 0.000000
256.432280 200.656110 11.845551 0.000000
270.063660 206.812260 12.555930 0.000000
268.709630 206.707090 12.467911 0.000000
268.809020 207.716000 12.471058 0.000000
268.968960 210.204030 12.482995 0.000000
268.964940 210.700000 12.484651 0.000000
266.783600 208.775020 12.335682 0.000000
267.129210 209.630950 12.358608 0.000000
266.094390 209.418290 12.289642 0.000000
257.049320 198.903660 12.429199 0.000000
247.997650 187.525590 12.118001 0.000000
255.230640 198.012310 12.366016 0.000000
259.622040 197.446840 12.661160 0.000000
267.833370 207.987500 13.006584 0.000000
267.895080 208.465300 13.008345 0.000000
260.035340 198.877780 12.625025 0.000000
257.730380 198.768520 12.478502 0.000000
264.558870 209.795200 12.708337 0.000000
269.094570 204.389270 13.160259 0.000000
268.962680 204.996220 13.139300 0.000000
270.164980 206.770110 13.219671 0.000000
268.961640 205.542560 13.131119 0.000000
268.975860 209.191180 13.099246 0.000000
268.967350 209.695570 13.096922 0.000000
268.966220 210.194490 13.096009 0.000000
268.964110 210.690120 13.095760 0.000000
250.421840 186.435730 12.884794 0.000000
258.840580 197.604660 13.152302 0.000000
249.737320 186.898990 12.834442 0.000000
265.654240 207.686650 13.379698 0.000000
265.823520 208.097530 13.390809 0.000000
265.898680 208.537140 13.392188 0.000000
257.364720 197.947920 13.016045 0.000000
249.143460 187.107910 12.804655 0.000000
256.383880 198.449800 12.909043 0.000000
255.928790 198.378270 12.880272 0.000000
264.309300 209.425170 13.208072 0.000000
268.598480 206.196810 13.721868 0.000000
260.125950 197.569610 13.257471 0.000000
259.684690 197.373380 13.233763 0.000000
267.745640 209.468020 13.582417 0.000000
267.160400 209.131380 13.521742 0.000000
259.405850 199.984330 13.580801 0.000000
267.376010 210.027590 13.537439 0.000000
250.044980 187.657590 13.432673 0.000000
267.222660 210.527590 13.517536 0.000000
258.246520 199.937960 13.467630 0.000000
255.544970 196.927190 13.469346 0.000000
255.806050 197.898190 13.405931 0.000000
256.258180 197.974430 13.438457 0.000000
255.350480 197.839140 13.372536 0.000000
256.094760 198.774290 13.356719 0.000000
255.902210 199.569490 13.273667 0.000000
268.716980 204.531710 13.771904 0.000000
260.205440 196.839660 13.892486 0.000000
261.069210 197.922240 13.896359 0.000000
266.701840 206.350130 14.110380 0.000000
251.419940 186.783080 13.560032 0.000000
266.252140 206.023010 14.063602 0.000000
267.250920 207.153690 14.158504 0.000000
265.973880 208.506010 13.963474 0.000000
266.732090 209.695080 14.041826 0.000000
267.513310 210.460750 14.135761 0.000000
257.631100 201.023700 13.808746 0.000000
255.711780 199.207610 13.767117 0.000000
268.979740 204.413700 14.457411 0.000000
267.958860 204.288390 14.334776 0.000000
269.235410 208.598330 14.385665 0.000000
259.023100 196.747730 14.358926 0.000000
261.267210 199.524920 14.369979 0.000000
260.698580 199.424820 14.309165 0.000000
268.718540 209.728760 14.302279 0.000000
260.139310 199.333650 14.249911 0.000000
258.116460 197.088870 14.229026 0.000000
257.337830 196.671520 14.190201 0.000000
259.087370 199.140320 14.143669 0.000000
264.975770 206.974210 14.429094 0.000000
266.154720 208.907200 14.546534 0.000000
267.794590 206.454940 14.864265 0.000000
252.219120 186.118410 14.340828 0.000000
266.278500 204.482500 14.723030 0.000000
266.504760 204.899870 14.736561 0.000000
267.656620 207.512100 14.810091 0.000000
267.659610 208.007600 14.796701 0.000000
268.045900 209.863720 14.815638 0.000000
268.598570 210.236650 14.894985 0.000000
267.145050 209.115810 14.692106 0.000000
269.002900 204.393040 15.120420 0.000000
270.035640 206.229370 15.204983 0.000000
249.952420 187.929730 14.683846 0.000000
248.011700 187.392840 14.672591 0.000000
254.711150 186.573840 8.223297 0.000000
255.934020 189.207410 8.384813 0.000000
254.901720 187.545960 8.289640 0.000000
255.085050 188.467500 8.351850 0.000000
255.483490 188.895660 8.373381 0.000000
253.936900 186.945650 8.265401 0.000000
246.945050 194.554440 8.432104 0.000000
246.660480 193.988820 8.380691 0.000000
245.941130 193.391330 8.330110 0.000000
246.225950 194.082230 8.395042 0.000000
270.544560 187.240100 8.679970 0.000000
269.384580 187.418330 8.715920 0.000000
269.726930 189.061260 8.779007 0.000000
269.152130 190.561040 8.857615 0.000000
268.753420 191.829680 8.921402 0.000000
262.836700 203.740040 9.010391 0.000000
262.982970 204.157780 9.022363 0.000000
262.995030 204.648320 9.043932 0.000000
261.799990 202.348950 8.993124 0.000000
261.816310 202.863130 9.018073 0.000000
256.733860 191.058180 8.493380 0.000000
257.859100 193.963700 8.655989 0.000000
256.282840 190.798190 8.487410 0.000000
257.106780 192.414170 8.575504 0.000000
257.464390 193.675480 8.649357 0.000000
257.738400 194.951480 8.724540 0.000000
255.818920 190.561780 8.482821 0.000000
256.594540 192.286800 8.581497 0.000000
257.009090 193.478330 8.650095 0.000000
257.600190 195.912280 8.791369 0.000000
257.966030 196.188720 8.796555 0.000000
258.283480 197.230850 8.850916 0.000000
258.327060 197.859150 8.888191 0.000000
258.845730 198.591750 8.912901 0.000000
257.872470 197.025570 8.852861 0.000000
258.289700 198.553240 8.932035 0.000000
259.664950 210.009610 9.015875 0.000000
259.875270 210.469470 9.019119 0.000000
260.047360 210.943970 9.024873 0.000000
259.061310 208.810790 9.005860 0.000000
259.211640 209.109500 9.009127 0.000000
259.362270 209.408740 9.011885 0.000000
259.513370 209.708720 9.014135 0.000000
256.886540 204.623060 8.910772 0.000000
257.308780 205.156480 8.919129 0.000000
257.341220 205.551680 8.942295 0.000000
257.477050 205.866880 8.953149 0.000000
257.494600 206.257900 8.976005 0.000000
257.958980 206.945190 8.985098 0.000000
258.076020 207.452620 9.005744 0.000000
258.194490 207.763260 9.014463 0.000000
258.267030 208.096160 9.027142 0.000000
258.400540 208.394990 9.033155 0.000000
256.330900 203.752640 8.884776 0.000000
256.719760 204.319690 8.900595 0.000000
256.922180 205.024870 8.935201 0.000000
255.934800 203.651720 8.900931 0.000000
255.489930 203.608020 8.923513 0.000000
254.819230 203.340240 8.941485 0.000000
255.094820 203.529560 8.940206 0.000000
254.194470 202.807830 8.934460 0.000000
254.569730 203.126210 8.938973 0.000000
253.568830 202.279160 8.924764 0.000000
253.820940 202.488330 8.928766 0.000000
252.759140 201.995250 8.940527 0.000000
255.192030 209.252000 8.966548 0.000000
255.331450 209.636930 8.978810 0.000000
255.507460 210.000170 8.985084 0.000000
255.687100 210.361680 8.989890 0.000000
255.871250 210.722020 8.992918 0.000000
254.068850 207.229140 8.915635 0.000000
254.106110 207.541840 8.937145 0.000000
254.245000 207.775090 8.943639 0.000000
254.539290 208.227890 8.952663 0.000000
254.749190 208.573850 8.959400 0.000000
254.952790 208.923230 8.965893 0.000000
253.103810 205.887730 8.877774 0.000000
253.338730 206.046360 8.874248 0.000000
253.411030 206.352420 8.895083 0.000000
253.701800 206.823500 8.912085 0.000000
253.839450 207.062560 8.920695 0.000000
252.556700 205.059680 8.841703 0.000000
252.778840 205.431370 8.860390 0.000000
252.943540 205.658450 8.869089 0.000000
249.258100 197.375780 8.656539 0.000000
249.435900 197.900020 8.700866 0.000000
249.620350 198.372150 8.739603 0.000000
249.810350 198.801450 8.773677 0.000000
249.990330 199.226440 8.807128 0.000000
250.144450 199.679440 8.843433 0.000000
250.288240 200.126740 8.879054 0.000000
250.547760 200.671890 8.918660 0.000000
251.667180 204.159420 8.813858 0.000000
251.961640 204.464580 8.824921 0.000000
248.540040 196.074750 8.550396 0.000000
248.740220 196.654400 8.601096 0.000000
249.003750 197.015200 8.628998 0.000000
251.259990 203.764010 8.799162 0.000000
251.465710 203.959880 8.806467 0.000000
247.618640 195.114820 8.475973 0.000000
247.860110 195.685490 8.526736 0.000000
248.098630 196.209440 8.572470 0.000000
250.686630 203.601840 8.815577 0.000000
252.906220 210.137940 8.940129 0.000000
253.071790 210.436950 8.945469 0.000000
253.230870 210.739350 8.950731 0.000000
253.381870 211.045700 8.955869 0.000000
247.184690 195.227200 8.493992 0.000000
250.371660 203.572860 8.829916 0.000000
251.979640 208.698300 8.910305 0.000000
252.238390 209.075790 8.919376 0.000000
252.428540 209.360790 8.925430 0.000000
252.613190 209.648990 8.931010 0.000000
252.792070 209.940580 8.936434 0.000000
249.923860 203.508910 8.846907 0.000000
251.206470 207.699690 8.884255 0.000000
251.425550 207.966570 8.891588 0.000000
251.708620 208.328480 8.901045 0.000000
249.414120 203.299300 8.850185 0.000000
250.475140 206.792340 8.849194 0.000000
250.701860 207.060620 8.860001 0.000000
250.922330 207.332500 8.870654 0.000000
251.062230 207.518920 8.878204 0.000000
248.936400 203.040850 8.844580 0.000000
249.812260 206.128710 8.824779 0.000000
250.066270 206.373200 8.833956 0.000000
250.314500 206.622250 8.843023 0.000000
248.327580 202.740780 8.837582 0.000000
249.371750 205.736820 8.809705 0.000000
249.638790 205.969310 8.818673 0.000000
250.762760 210.032910 8.901220 0.000000
250.926970 210.279980 8.907017 0.000000
251.141420 210.611710 8.913745 0.000000
251.346130 210.949170 8.920104 0.000000
247.708390 202.462890 8.830446 0.000000
248.629100 205.146820 8.785717 0.000000
249.006150 205.435940 8.797699 0.000000
249.981190 209.007480 8.874825 0.000000
250.233660 209.314700 8.883059 0.000000
250.475430 209.629520 8.891200 0.000000
250.650240 209.870000 8.897194 0.000000
247.331040 202.309770 8.826364 0.000000
248.240660 204.870360 8.773848 0.000000
249.303360 208.276440 8.854178 0.000000
249.650440 208.635040 8.864386 0.000000
246.819110 202.128950 8.821986 0.000000
247.077330 202.213090 8.823640 0.000000
247.533230 204.422100 8.754003 0.000000
247.841770 204.606120 8.761951 0.000000
248.709660 207.740050 8.839146 0.000000
249.012540 208.001890 8.846347 0.000000
246.421800 202.035310 8.822535 0.000000
247.013400 204.117130 8.738320 0.000000
247.328990 204.293720 8.747144 0.000000
248.013780 207.160450 8.817659 0.000000
248.325850 207.416060 8.827900 0.000000
249.095180 210.078770 8.870284 0.000000
249.369420 210.418620 8.878712 0.000000
249.629170 210.768890 8.887186 0.000000
249.776960 210.984470 8.892387 0.000000
245.876630 201.973680 8.829351 0.000000
246.584550 203.893720 8.726685 0.000000
247.608760 206.856980 8.804952 0.000000
247.853590 207.037050 8.812584 0.000000
248.503890 209.433120 8.852900 0.000000
248.806500 209.750050 8.861528 0.000000
246.257060 203.735530 8.718083 0.000000
247.188640 206.571670 8.792529 0.000000
247.857410 208.838200 8.835498 0.000000
248.187500 209.128690 8.844012 0.000000
246.490430 206.148900 8.772648 0.000000
246.754960 206.304640 8.780542 0.000000
247.228260 208.355480 8.821164 0.000000
247.512340 208.564560 8.827457 0.000000
245.945180 205.863330 8.757902 0.000000
246.219830 206.002850 8.765212 0.000000
246.713320 208.012950 8.809885 0.000000
247.010060 208.205250 8.816333 0.000000
246.255770 207.742950 8.800189 0.000000
246.486500 207.874970 8.805067 0.000000
246.019850 207.620330 8.796196 0.000000
269.457890 192.919040 8.947630 0.000000
269.243800 193.926760 8.994245 0.000000
269.120940 194.825410 9.033484 0.000000
268.346310 193.051960 8.982976 0.000000
270.042970 198.598920 9.148760 0.000000
270.412990 199.061780 9.153734 0.000000
268.949950 195.732240 9.073932 0.000000
268.561460 196.770860 9.125274 0.000000
268.915740 198.642640 9.184804 0.000000
268.216090 197.738530 9.172197 0.000000
268.205630 207.304470 9.485783 0.000000
268.966490 209.643890 9.517443 0.000000
268.967930 210.150220 9.529015 0.000000
268.961980 210.654020 9.540424 0.000000
263.012450 205.126690 9.064196 0.000000
262.166690 203.653720 9.039491 0.000000
263.066590 205.577480 9.080874 0.000000
263.151000 206.006710 9.094572 0.000000
263.397670 206.816350 9.114402 0.000000
263.540280 207.209340 9.122097 0.000000
263.684540 207.600650 9.129160 0.000000
263.828400 207.991420 9.135751 0.000000
263.966490 208.383990 9.142246 0.000000
264.123200 208.769560 9.146987 0.000000
264.278380 209.156310 9.151378 0.000000
264.427490 209.545840 9.155726 0.000000
264.583560 210.367550 9.172394 0.000000
264.609830 210.789870 9.183315 0.000000
261.731720 203.432770 9.050122 0.000000
260.697910 202.106860 9.032041 0.000000
261.081880 202.344090 9.026587 0.000000
260.104830 202.043850 9.055736 0.000000
258.601380 199.466160 8.974626 0.000000
258.927220 200.323620 9.011435 0.000000
259.563510 201.957200 9.075359 0.000000
258.357180 200.301360 9.033544 0.000000
258.743230 201.058880 9.061139 0.000000
259.043460 201.868930 9.093486 0.000000
258.508670 201.809430 9.113382 0.000000
252.223680 201.911900 8.958069 0.000000
251.872090 201.861820 8.969330 0.000000
251.184560 201.767360 8.990220 0.000000
251.525240 201.814540 8.980141 0.000000
250.789430 201.213930 8.957654 0.000000
266.524690 209.816540 9.609837 0.000000
258.318210 198.511830 9.469726 0.000000
268.227810 207.287700 10.100645 0.000000
268.969180 209.634660 10.133522 0.000000
268.965760 210.644850 10.151174 0.000000
266.498600 209.815990 10.174050 0.000000
265.996030 210.864410 10.200310 0.000000
258.171140 198.663060 10.015448 0.000000
268.157290 207.304060 10.715964 0.000000
267.433040 210.507080 10.750907 0.000000
266.525450 209.800630 10.736822 0.000000
266.689000 210.223590 10.742986 0.000000
259.343440 199.298130 10.565142 0.000000
259.024690 199.003490 10.559626 0.000000
258.023440 198.173000 10.543460 0.000000
258.434020 198.364300 10.548259 0.000000
256.634740 199.141110 10.547031 0.000000
256.269100 198.950330 10.542508 0.000000
255.941190 198.716570 10.537683 0.000000
268.020720 206.821870 11.324082 0.000000
268.967620 209.618030 11.365181 0.000000
268.959470 210.629650 11.372140 0.000000
268.354550 210.274520 11.353085 0.000000
266.330470 208.431980 11.287152 0.000000
265.659450 209.123140 11.272998 0.000000
260.747220 199.173810 11.138553 0.000000
260.201020 199.069090 11.126878 0.000000
264.340970 210.406770 11.245250 0.000000
259.753940 198.882100 11.117762 0.000000
259.335510 198.675080 11.109493 0.000000
257.250980 197.741090 11.070434 0.000000
248.559560 187.636200 11.011153 0.000000
266.684720 206.815720 11.877185 0.000000
267.067990 209.632230 11.890435 0.000000
266.188140 208.946460 11.848556 0.000000
266.282040 209.387390 11.852753 0.000000
266.987640 210.599900 11.887713 0.000000
265.057950 208.854970 11.795036 0.000000
259.296230 199.325120 11.648341 0.000000
258.316800 199.102400 11.616839 0.000000
257.528810 198.715620 11.596714 0.000000
258.084590 199.947310 11.592176 0.000000
256.412510 197.414230 11.587172 0.000000
269.916960 206.655760 12.029072 0.000000
268.962250 209.610920 11.981575 0.000000
267.845250 206.879300 11.931150 0.000000
263.885680 209.674760 12.248938 0.000000
258.682400 199.324660 12.159046 0.000000
258.744200 201.003860 12.106188 0.000000
258.794100 201.502900 12.093068 0.000000
256.737550 198.347950 12.098142 0.000000
256.882630 199.441830 12.063911 0.000000
250.368390 187.012410 11.714595 0.000000
249.880830 186.744230 11.713856 0.000000
249.335270 186.685200 11.706275 0.000000
246.669850 186.219730 11.680700 0.000000
267.812130 206.882930 12.541524 0.000000
268.047910 207.833270 12.548154 0.000000
268.959630 210.110170 12.597338 0.000000
268.957790 210.613390 12.595858 0.000000
267.152440 209.600390 12.474131 0.000000
266.084320 207.046420 12.423713 0.000000
266.048740 209.449620 12.398948 0.000000
265.844700 210.422180 12.379535 0.000000
258.815030 197.914410 12.215758 0.000000
258.431580 198.970600 12.158568 0.000000
257.642210 197.922710 12.157697 0.000000
267.180790 208.612720 13.070754 0.000000
265.627010 208.646330 12.931776 0.000000
264.715060 209.843150 12.833136 0.000000
258.945250 197.760560 12.791426 0.000000
258.969540 199.020130 12.728306 0.000000
258.971440 199.627270 12.698208 0.000000
258.429140 198.963200 12.695249 0.000000
256.524410 196.521870 12.711370 0.000000
256.754490 196.943180 12.700471 0.000000
256.942690 198.738330 12.611563 0.000000
257.165130 199.110120 12.605557 0.000000
256.461670 198.675260 12.585213 0.000000
249.256030 186.972080 12.368769 0.000000
269.331450 204.025910 13.348472 0.000000
269.117580 204.700870 13.314203 0.000000
269.077240 205.285370 13.297750 0.000000
268.960570 209.594250 13.219118 0.000000
267.514340 206.986850 13.127154 0.000000
268.562900 209.194500 13.187410 0.000000
268.355320 210.249590 13.158124 0.000000
264.466980 208.585880 13.363930 0.000000
264.575350 209.439210 13.356342 0.000000
257.675600 197.179050 13.299591 0.000000
258.229640 199.769880 13.163570 0.000000
257.568760 199.265790 13.143959 0.000000
256.981540 199.309660 13.094548 0.000000
255.841250 197.442460 13.145927 0.000000
256.227390 198.303450 13.109454 0.000000
255.786580 198.205290 13.084522 0.000000
256.235900 199.563420 13.018827 0.000000
250.957180 186.898280 13.098866 0.000000
268.546390 206.046360 13.873566 0.000000
267.487880 209.973820 13.670523 0.000000
265.461580 205.801270 13.551981 0.000000
265.838960 206.134840 13.581066 0.000000
266.125180 207.504790 13.571943 0.000000
267.296840 210.500600 13.641405 0.000000
265.930450 208.535260 13.525301 0.000000
259.932370 197.354660 13.463983 0.000000
256.548310 197.885700 13.695618 0.000000
256.786040 199.522980 13.571629 0.000000
256.019230 197.888730 13.649498 0.000000
255.560320 197.815060 13.617434 0.000000
269.025120 205.297590 13.946774 0.000000
266.258300 205.941310 14.226820 0.000000
267.429990 209.497510 14.264956 0.000000
266.407320 208.364960 14.160315 0.000000
265.868350 207.593860 14.115005 0.000000
265.587890 208.174940 14.059383 0.000000
259.837310 196.756240 14.094956 0.000000
260.072240 198.515430 13.972257 0.000000
258.932770 199.037770 13.817405 0.000000
257.751860 197.074660 13.875269 0.000000
257.536070 201.563250 13.964548 0.000000
251.758590 186.190080 13.883696 0.000000
251.038450 186.615070 13.816224 0.000000
268.492830 204.392930 14.573126 0.000000
269.489290 207.855450 14.579061 0.000000
269.002990 209.565810 14.472797 0.000000
268.695280 210.149520 14.419986 0.000000
258.054140 196.693070 14.512707 0.000000
257.369290 196.100300 14.507574 0.000000
257.535460 196.621190 14.467339 0.000000
269.291290 209.994610 15.136636 0.000000
266.826080 206.202590 14.896415 0.000000
267.952390 209.341350 14.946646 0.000000
268.232640 209.760640 14.978204 0.000000
267.153350 209.084430 14.831579 0.000000
261.191530 199.323970 14.605962 0.000000
260.315610 198.263320 14.601132 0.000000
260.777100 199.085130 14.577987 0.000000
258.950810 196.332570 14.644543 0.000000
259.109560 196.860000 14.606524 0.000000
249.669430 187.425930 14.362680 0.000000
269.328490 203.406140 15.405014 0.000000
269.495030 203.919940 15.401857 0.000000
269.600190 204.458330 15.389902 0.000000
270.125950 206.532840 15.375679 0.000000
269.544250 207.288640 15.258641 0.000000
269.251100 207.922710 15.191313 0.000000
250.163360 187.604250 15.037617 0.000000
257.901640 189.553800 8.427026 0.000000
257.773530 190.866590 8.515694 0.000000
257.281650 189.494290 8.438194 0.000000
256.802760 187.950240 8.346468 0.000000
256.324580 186.215260 8.239241 0.000000
256.608120 189.553300 8.457807 0.000000
255.672960 186.179320 8.249318 0.000000
256.165770 187.918500 8.357895 0.000000
255.035780 186.130340 8.257538 0.000000
248.015490 195.273620 8.485432 0.000000
247.620860 195.164380 8.481392 0.000000
247.223720 195.064850 8.477665 0.000000
246.826200 194.966860 8.473465 0.000000
246.638090 193.899250 8.375090 0.000000
246.226940 193.777970 8.367569 0.000000
245.813770 193.660190 8.359743 0.000000
270.671840 193.442930 9.046204 0.000000
264.258730 206.770870 9.110971 0.000000
264.289830 207.243000 9.126720 0.000000
264.316990 207.710370 9.141999 0.000000
264.415220 208.141630 9.151825 0.000000
264.690700 208.965840 9.164552 0.000000
264.648010 209.441820 9.181802 0.000000
264.683530 209.883700 9.193317 0.000000
264.382050 208.622650 9.169724 0.000000
263.618930 205.611430 9.098064 0.000000
263.677920 206.078870 9.113739 0.000000
263.675630 206.570800 9.132929 0.000000
263.025880 203.896610 9.054111 0.000000
263.061770 204.400850 9.074470 0.000000
263.169010 204.853040 9.088677 0.000000
262.526920 203.153730 9.043663 0.000000
262.652500 203.608180 9.058632 0.000000
262.211240 202.272480 9.016402 0.000000
262.084200 202.921450 9.052916 0.000000
261.676360 202.115420 9.032326 0.000000
261.044710 202.050840 9.056482 0.000000
260.447300 201.978240 9.078269 0.000000
259.601810 199.144300 8.961026 0.000000
259.834930 199.552470 8.974751 0.000000
259.315090 198.109180 8.913071 0.000000
259.318120 198.783330 8.951308 0.000000
259.573430 201.025880 9.064680 0.000000
258.519200 193.619570 8.670061 0.000000
258.460720 194.573840 8.730929 0.000000
258.858150 195.692660 8.786586 0.000000
258.809300 196.529210 8.838270 0.000000
258.789980 197.294100 8.884161 0.000000
259.260620 200.729310 9.061137 0.000000
260.043370 210.364650 9.017364 0.000000
260.027220 210.744000 9.033917 0.000000
258.076510 192.410400 8.606668 0.000000
258.035000 193.413570 8.671284 0.000000
258.378690 195.512680 8.790992 0.000000
258.340760 198.518590 8.971214 0.000000
259.503720 209.651720 9.025695 0.000000
259.600830 210.172210 9.041504 0.000000
257.644870 192.102340 8.598756 0.000000
258.868070 208.621960 9.021984 0.000000
259.055880 208.911420 9.023058 0.000000
258.396150 207.705600 9.006902 0.000000
258.478060 208.054780 9.019846 0.000000
258.506930 208.429020 9.037168 0.000000
257.804350 206.443830 8.974768 0.000000
258.055180 207.107650 8.996684 0.000000
258.171750 207.440290 9.007469 0.000000
257.380250 205.455920 8.941409 0.000000
257.618800 205.716140 8.942823 0.000000
257.669370 206.113400 8.963715 0.000000
257.064670 204.804640 8.918961 0.000000
257.089360 205.239140 8.945360 0.000000
256.625850 203.763820 8.875022 0.000000
256.585600 204.283160 8.912412 0.000000
256.197970 203.674870 8.892661 0.000000
255.747740 203.620290 8.913364 0.000000
255.306550 203.570420 8.933377 0.000000
254.948680 203.445720 8.943111 0.000000
255.359310 210.005510 8.982358 0.000000
255.643100 210.326870 8.977077 0.000000
255.687970 210.617170 8.990197 0.000000
254.416730 203.010510 8.938023 0.000000
254.679870 203.230790 8.941168 0.000000
254.959560 209.272900 8.969203 0.000000
255.164540 209.636700 8.975844 0.000000
253.884720 202.577910 8.931036 0.000000
254.144760 202.801120 8.935600 0.000000
254.448380 208.441390 8.953211 0.000000
254.673610 208.794300 8.960075 0.000000
253.619670 202.360580 8.926633 0.000000
253.971740 207.750890 8.938971 0.000000
254.214450 208.093370 8.946071 0.000000
253.001980 202.043990 8.929436 0.000000
253.528580 207.021850 8.914338 0.000000
253.749010 207.389340 8.927516 0.000000
252.631410 201.978320 8.940089 0.000000
253.053710 206.301270 8.887874 0.000000
