# .PCD v0.7 - Point Cloud Data file format
VERSION 0.7
FIELDS x y z intensity
SIZE 4 4 4 4
TYPE F F F F
COUNT 1 1 1 1
WIDTH 1166
HEIGHT 1
VIEWPOINT 0 0 0 1 0 0 0
POINTS 1166
DATA ascii
251.365230 288.793580 15.681849 0.000000
250.965910 288.792450 15.649948 0.000000
250.571930 288.791320 15.619471 0.000000
250.182890 288.790160 15.590352 0.000000
249.798550 288.789030 15.562572 0.000000
252.582960 288.762540 15.779825 0.000000
252.181350 288.795870 15.750093 0.000000
258.850680 288.817750 15.877803 0.000000
261.213130 288.824130 16.133379 0.000000
260.595890 288.822480 16.065020 0.000000
259.997190 288.820920 15.999759 0.000000
259.415770 288.819340 15.937401 0.000000
261.850190 288.825840 16.205030 0.000000
255.769130 286.702820 15.793355 0.000000
254.434720 286.699070 15.648471 0.000000
258.090270 289.274900 16.415424 0.000000
263.820650 289.463960 16.500916 0.000000
262.784300 289.114780 16.343246 0.000000
261.401460 290.512660 16.975075 0.000000
263.484650 291.368590 17.346218 0.000000
262.372890 290.886350 17.144125 0.000000
267.148560 292.815610 18.003229 0.000000
266.689700 294.051670 18.098766 0.000000
266.839720 293.343690 18.028551 0.000000
262.316010 287.285980 11.419158 0.000000
266.008330 286.410160 11.391209 0.000000
261.002810 287.353580 11.429482 0.000000
257.091190 286.382290 11.472977 0.000000
256.471340 286.274320 11.478157 0.000000
255.958720 286.273470 11.480469 0.000000
254.866030 286.125550 11.487361 0.000000
254.365160 286.079990 11.489644 0.000000
261.583470 287.259060 11.426099 0.000000
258.783110 286.382170 11.462458 0.000000
258.133270 286.308690 11.468133 0.000000
257.597050 286.336760 11.470961 0.000000
259.320770 286.317350 11.459614 0.000000
262.684510 286.332060 11.429299 0.000000
262.247920 286.583130 11.430099 0.000000
251.539310 288.815250 11.912476 0.000000
251.066300 288.721250 11.906442 0.000000
250.663740 288.763340 11.900515 0.000000
268.800450 292.347110 12.067185 0.000000
252.422820 288.818240 11.924207 0.000000
251.977170 288.816710 11.918365 0.000000
250.063480 288.321350 11.894290 0.000000
249.560290 288.063020 11.888304 0.000000
269.284240 291.936070 12.070296 0.000000
252.581360 288.279820 11.928813 0.000000
269.755490 291.510100 12.073081 0.000000
259.199830 288.841670 11.997012 0.000000
258.594210 288.839540 11.991557 0.000000
258.006010 288.837520 11.986087 0.000000
252.584060 287.495940 11.932458 0.000000
248.224820 286.495180 11.877121 0.000000
247.841660 286.394710 11.871638 0.000000
247.456850 286.264130 11.866193 0.000000
270.257930 291.104610 12.075833 0.000000
261.133420 288.848420 12.013316 0.000000
260.468080 288.846040 12.007888 0.000000
259.824100 288.843870 12.002456 0.000000
270.639070 290.600340 12.077529 0.000000
262.533720 288.853270 12.024162 0.000000
261.821410 288.850770 12.018739 0.000000
252.991760 286.714940 11.940711 0.000000
264.038730 288.858580 12.035021 0.000000
263.272190 288.855830 12.029589 0.000000
254.819720 286.721220 11.960769 0.000000
254.346300 286.719600 11.955793 0.000000
253.884290 286.717990 11.950793 0.000000
253.433010 286.716460 11.945766 0.000000
255.305210 286.722960 11.965722 0.000000
247.871540 288.799560 12.316038 0.000000
247.489760 288.798280 12.307202 0.000000
247.111800 288.797060 12.298453 0.000000
248.647580 288.802190 12.334001 0.000000
260.458440 288.841950 12.607371 0.000000
247.083850 286.143710 11.860754 0.000000
262.524050 288.848910 12.655182 0.000000
254.811130 286.717930 12.446252 0.000000
253.424450 286.713230 12.414156 0.000000
245.814830 288.792660 12.268435 0.000000
246.737270 288.795750 12.289785 0.000000
246.365980 288.794560 12.281193 0.000000
249.442380 288.804840 12.352396 0.000000
249.042480 288.803500 12.343141 0.000000
248.257400 288.800870 12.324969 0.000000
251.529830 288.811860 12.400712 0.000000
251.099300 288.810420 12.390747 0.000000
250.675740 288.808960 12.380943 0.000000
250.258650 288.807620 12.371290 0.000000
249.847640 288.806210 12.361776 0.000000
252.413330 288.814820 12.421161 0.000000
251.967670 288.813320 12.410846 0.000000
252.580630 288.292020 12.417474 0.000000
259.190190 288.837680 12.578017 0.000000
258.584560 288.835630 12.564000 0.000000
257.996400 288.833650 12.550385 0.000000
252.583360 287.507020 12.406197 0.000000
261.123750 288.844240 12.622772 0.000000
259.814450 288.839810 12.592466 0.000000
261.811740 288.846530 12.638696 0.000000
252.983220 286.711760 12.403944 0.000000
264.029050 288.854030 12.690018 0.000000
263.262510 288.851410 12.672275 0.000000
254.337740 286.716280 12.435295 0.000000
253.875730 286.714750 12.424602 0.000000
255.296630 286.719570 12.457490 0.000000
245.805150 288.789580 12.716672 0.000000
247.861970 288.796390 12.775238 0.000000
247.480190 288.795140 12.764051 0.000000
247.102190 288.793910 12.753114 0.000000
246.727650 288.792660 12.742413 0.000000
246.356340 288.791410 12.731942 0.000000
249.432880 288.801610 12.822707 0.000000
249.032940 288.800290 12.810408 0.000000
248.638030 288.798980 12.798407 0.000000
248.247740 288.797360 12.786674 0.000000
251.520320 288.808500 12.889131 0.000000
251.089810 288.807070 12.875135 0.000000
250.666230 288.805660 12.861512 0.000000
250.249150 288.804320 12.848245 0.000000
249.838130 288.802920 12.835313 0.000000
252.403810 288.811370 12.918304 0.000000
251.958160 288.809940 12.903513 0.000000
252.579900 288.304260 12.907098 0.000000
259.180540 288.833680 13.159281 0.000000
258.574950 288.831700 13.136692 0.000000
257.986970 288.830050 13.114944 0.000000
252.582640 287.518160 12.880841 0.000000
261.114070 288.840030 13.232510 0.000000
260.448730 288.837800 13.207127 0.000000
259.804810 288.835750 13.182743 0.000000
262.514370 288.844600 13.286506 0.000000
261.802060 288.842250 13.258944 0.000000
252.974690 286.708590 12.867361 0.000000
264.019380 288.849550 13.345342 0.000000
263.252810 288.846980 13.315275 0.000000
254.802550 286.714570 12.931938 0.000000
254.329150 286.713010 12.914993 0.000000
253.867170 286.711490 12.898602 0.000000
253.415890 286.710020 12.882734 0.000000
255.288040 286.716190 12.949466 0.000000
245.795440 288.786500 13.165484 0.000000
247.852400 288.793210 13.235034 0.000000
247.470580 288.791990 13.221491 0.000000
247.092580 288.790770 13.208361 0.000000
246.718020 288.789520 13.195623 0.000000
246.346690 288.788300 13.183272 0.000000
249.423340 288.798340 13.293629 0.000000
249.023390 288.797060 13.278284 0.000000
248.628490 288.795780 13.263414 0.000000
248.238270 288.794530 13.249005 0.000000
251.510800 288.805150 13.378193 0.000000
251.080290 288.803740 13.360163 0.000000
250.656690 288.802370 13.342711 0.000000
250.239620 288.801030 13.325824 0.000000
249.828600 288.799680 13.309468 0.000000
252.394290 288.807980 13.416106 0.000000
251.948650 288.806550 13.396832 0.000000
252.579150 288.316530 13.398151 0.000000
259.171540 288.830410 13.741417 0.000000
258.565310 288.827760 13.710175 0.000000
257.977140 288.825900 13.680245 0.000000
252.581910 287.529300 13.356843 0.000000
259.795100 288.831730 13.773843 0.000000
252.966140 286.705380 13.331399 0.000000
254.793960 286.711240 13.418283 0.000000
254.320590 286.709690 13.395340 0.000000
253.858610 286.708190 13.373240 0.000000
253.407360 286.706790 13.351942 0.000000
255.279450 286.712800 13.442111 0.000000
245.785720 288.783420 13.615309 0.000000
247.842790 288.790070 13.695868 0.000000
247.460970 288.788850 13.679964 0.000000
247.082950 288.787630 13.664635 0.000000
246.708360 288.786380 13.649856 0.000000
246.337010 288.785220 13.635622 0.000000
249.819060 288.796420 13.784699 0.000000
249.413770 288.795100 13.765619 0.000000
249.013840 288.793820 13.747220 0.000000
248.618910 288.792570 13.729477 0.000000
248.228700 288.791320 13.712370 0.000000
251.501250 288.801790 13.868372 0.000000
251.070760 288.800420 13.846292 0.000000
250.647160 288.799040 13.825006 0.000000
250.230090 288.797760 13.804490 0.000000
252.384770 288.804530 13.915048 0.000000
251.939120 288.803130 13.891277 0.000000
252.578400 288.328860 13.891115 0.000000
252.581210 287.540500 13.834669 0.000000
261.104400 288.835820 13.843108 0.000000
260.439060 288.833680 13.807724 0.000000
262.504640 288.840210 13.918728 0.000000
261.792360 288.837980 13.880072 0.000000
252.957570 286.702180 13.796506 0.000000
264.009670 288.845060 14.001610 0.000000
263.243100 288.842560 13.959196 0.000000
255.270830 286.709410 13.935905 0.000000
254.785370 286.707860 13.905756 0.000000
254.311980 286.706390 13.876801 0.000000
253.850020 286.704930 13.848978 0.000000
253.398790 286.703580 13.822235 0.000000
245.775990 288.780270 14.066580 0.000000
247.833160 288.786870 14.158188 0.000000
247.451320 288.785680 14.139914 0.000000
247.073290 288.784450 14.122376 0.000000
246.698670 288.783260 14.105553 0.000000
246.327290 288.782070 14.089423 0.000000
249.809480 288.793120 14.261469 0.000000
249.404190 288.791840 14.239135 0.000000
249.004240 288.790620 14.217671 0.000000
248.609300 288.789370 14.197042 0.000000
248.219090 288.788150 14.177226 0.000000
251.491700 288.798400 14.360140 0.000000
251.061190 288.797060 14.334000 0.000000
250.637600 288.795720 14.308864 0.000000
250.220490 288.794430 14.284700 0.000000
252.375180 288.801120 14.415611 0.000000
251.929530 288.799740 14.387329 0.000000
252.577650 288.341220 14.386477 0.000000
259.161220 288.825680 14.324787 0.000000
258.555630 288.823790 14.285004 0.000000
257.967470 288.821960 14.246885 0.000000
252.580470 287.551760 14.314790 0.000000
261.094670 288.831630 14.455154 0.000000
260.429380 288.829530 14.409740 0.000000
259.785430 288.827640 14.366336 0.000000
262.495880 288.836790 14.552584 0.000000
261.782650 288.833710 14.502678 0.000000
252.948940 286.698940 14.263130 0.000000
263.999970 288.840520 14.659459 0.000000
263.233400 288.838130 14.604665 0.000000
255.262160 286.705990 14.431320 0.000000
254.776720 286.704500 14.394833 0.000000
254.303360 286.703060 14.359840 0.000000
253.841400 286.701660 14.326272 0.000000
253.390180 286.700380 14.294067 0.000000
245.766190 288.777160 14.519714 0.000000
247.823490 288.783690 14.622424 0.000000
247.441670 288.782470 14.601768 0.000000
247.063570 288.781340 14.582018 0.000000
246.688930 288.780120 14.563132 0.000000
246.317550 288.778930 14.545107 0.000000
249.799870 288.789830 14.740218 0.000000
249.394580 288.788570 14.714619 0.000000
248.994610 288.787350 14.690075 0.000000
248.599670 288.786130 14.666548 0.000000
248.209430 288.784910 14.644011 0.000000
250.210890 288.791110 14.766912 0.000000
259.151520 288.821620 14.910157 0.000000
258.545930 288.819790 14.861732 0.000000
252.579030 287.561770 14.797461 0.000000
259.775700 288.823550 14.960796 0.000000
252.761400 286.757540 14.724100 0.000000
253.705000 286.506100 14.774478 0.000000
253.381580 286.697170 14.767884 0.000000
245.756360 288.774020 14.975195 0.000000
247.813780 288.780490 15.089065 0.000000
247.431920 288.779300 15.066015 0.000000
247.053830 288.778140 15.044033 0.000000
246.679170 288.776950 15.023081 0.000000
246.307750 288.775760 15.003143 0.000000
248.199720 288.781680 15.113214 0.000000
251.482090 288.794980 14.853957 0.000000
251.051570 288.793670 14.823736 0.000000
250.627990 288.792360 14.794733 0.000000
252.365570 288.797640 14.918263 0.000000
251.919830 288.796080 14.885420 0.000000
252.576900 288.353700 14.884706 0.000000
261.084960 288.827390 15.069242 0.000000
260.419650 288.825380 15.013761 0.000000
262.485200 288.831540 15.188322 0.000000
261.772890 288.829410 15.127365 0.000000
252.756710 286.761110 15.195476 0.000000
263.990200 288.836000 15.319525 0.000000
263.223630 288.833680 15.252300 0.000000
254.768040 286.701110 14.885964 0.000000
254.293870 286.698520 14.844711 0.000000
246.669340 288.773770 15.485826 0.000000
246.297880 288.772580 15.463961 0.000000
249.790190 288.786500 15.221452 0.000000
249.384900 288.785280 15.192567 0.000000
248.984920 288.784090 15.164927 0.000000
248.589980 288.782870 15.138486 0.000000
251.472430 288.791560 15.350345 0.000000
251.041930 288.790310 15.316019 0.000000
250.618330 288.789030 15.283131 0.000000
250.201220 288.787810 15.251629 0.000000
252.355900 288.794160 15.423532 0.000000
251.910260 288.792850 15.386161 0.000000
252.575520 288.365110 15.386142 0.000000
259.141750 288.817600 15.498008 0.000000
258.536190 288.815830 15.440901 0.000000
252.579040 287.574460 15.283804 0.000000
261.075130 288.823150 15.685946 0.000000
260.409850 288.821200 15.620350 0.000000
262.475400 288.827120 15.826897 0.000000
261.763090 288.825100 15.754719 0.000000
253.372910 286.693940 15.244180 0.000000
254.759310 286.697720 15.379671 0.000000
254.285980 286.696380 15.332520 0.000000
253.824050 286.695040 15.287378 0.000000
252.578830 286.129090 15.558983 0.000000
255.813890 286.149320 15.422617 0.000000
247.804000 288.777250 15.558542 0.000000
247.422120 288.776060 15.533083 0.000000
247.044010 288.774930 15.508859 0.000000
249.780470 288.783200 15.705620 0.000000
249.375170 288.781980 15.673429 0.000000
248.975190 288.780820 15.642672 0.000000
248.580230 288.779600 15.613298 0.000000
248.189960 288.778440 15.585272 0.000000
251.462710 288.788150 15.849761 0.000000
251.032210 288.786870 15.811304 0.000000
250.608600 288.785610 15.774498 0.000000
250.191500 288.784420 15.739296 0.000000
252.346180 288.790650 15.931890 0.000000
251.900560 288.789400 15.889931 0.000000
259.131960 288.813540 16.088959 0.000000
251.990770 287.304440 15.673760 0.000000
259.756130 288.815340 16.157917 0.000000
252.154050 286.837770 15.620120 0.000000
252.581050 286.840150 15.663527 0.000000
263.980410 288.831420 15.982422 0.000000
263.213840 288.829220 15.902712 0.000000
254.750550 286.694310 15.876412 0.000000
254.277210 286.692990 15.823120 0.000000
253.815280 286.691710 15.772138 0.000000
255.192960 286.637730 15.919146 0.000000
262.480740 289.557800 16.549763 0.000000
261.435000 289.206790 16.390894 0.000000
260.476680 288.900330 16.248085 0.000000
263.607570 289.939880 16.722599 0.000000
262.065830 291.423310 17.393314 0.000000
269.893100 295.142820 18.018873 0.000000
263.271210 291.944920 17.613644 0.000000
265.994540 293.998720 18.226055 0.000000
266.060730 293.191740 18.133558 0.000000
267.072750 293.336120 18.285791 0.000000
261.443210 287.070130 11.375640 0.000000
261.626160 286.576230 11.378703 0.000000
268.304840 292.289520 12.039466 0.000000
268.763240 291.832090 12.039437 0.000000
269.307800 291.440550 12.039731 0.000000
269.728300 290.945620 12.038924 0.000000
270.136200 290.439970 12.037783 0.000000
270.542660 289.932160 12.036380 0.000000
257.786960 286.164250 11.427784 0.000000
257.179990 286.159150 11.433843 0.000000
256.573520 286.132870 11.439862 0.000000
258.961360 286.074680 11.416385 0.000000
258.366120 286.121000 11.422319 0.000000
251.362700 288.808560 11.927836 0.000000
250.894650 288.791690 11.923091 0.000000
250.438480 288.780490 11.918304 0.000000
249.473820 288.589900 11.908010 0.000000
252.310010 288.811860 11.937014 0.000000
251.831630 288.810210 11.932458 0.000000
249.807450 288.384800 11.912151 0.000000
248.883700 288.208190 11.901992 0.000000
252.580140 288.456820 11.939812 0.000000
258.393010 288.833040 11.982954 0.000000
252.582820 287.691860 11.940358 0.000000
247.755340 286.471190 11.892481 0.000000
246.922840 286.205140 11.882784 0.000000
246.535170 286.110320 11.878009 0.000000
260.410680 288.840060 11.994164 0.000000
259.715880 288.837620 11.990492 0.000000
259.043730 288.835240 11.986754 0.000000
262.648740 288.847930 12.004780 0.000000
261.875240 288.845150 12.001308 0.000000
261.129880 288.842560 11.997770 0.000000
252.881900 286.708590 11.943239 0.000000
263.452390 288.850740 12.008179 0.000000
254.878510 286.715610 11.958115 0.000000
254.359530 286.713810 11.954479 0.000000
253.854290 286.712040 11.950788 0.000000
253.362010 286.710300 11.947042 0.000000
255.412200 286.717440 11.961694 0.000000
247.476070 288.792020 12.357865 0.000000
246.287320 288.787990 12.333512 0.000000
245.899660 288.786650 12.325571 0.000000
249.562900 288.799070 12.400616 0.000000
249.133290 288.797580 12.391813 0.000000
248.710170 288.796200 12.383147 0.000000
247.881960 288.793370 12.366179 0.000000
251.355350 288.805110 12.437335 0.000000
250.895200 288.803530 12.427908 0.000000
250.443410 288.802060 12.418653 0.000000
249.999150 288.799840 12.409539 0.000000
252.302760 288.808350 12.456743 0.000000
251.824370 288.806700 12.446943 0.000000
252.579360 288.463620 12.456245 0.000000
258.386660 288.829010 12.581378 0.000000
252.582080 287.697850 12.442646 0.000000
260.404690 288.835820 12.622719 0.000000
259.709750 288.833470 12.608482 0.000000
259.037480 288.831120 12.594709 0.000000
262.643190 288.843480 12.668577 0.000000
261.869540 288.840790 12.652728 0.000000
261.124020 288.838230 12.637455 0.000000
252.875660 286.705320 12.430943 0.000000
263.447050 288.846190 12.685046 0.000000
254.872540 286.712130 12.471852 0.000000
254.353490 286.710390 12.461219 0.000000
253.848140 286.708680 12.450867 0.000000
253.355820 286.706940 12.440780 0.000000
247.075240 288.790650 12.349654 0.000000
246.679120 288.789310 12.341539 0.000000
248.293180 288.794770 12.374604 0.000000
255.406310 286.713900 12.482787 0.000000
247.468220 288.788820 12.832855 0.000000
247.067340 288.787450 12.821769 0.000000
246.671170 288.786130 12.810957 0.000000
246.279330 288.784790 12.800404 0.000000
245.891590 288.783510 12.790105 0.000000
249.555330 288.795780 12.892817 0.000000
249.125630 288.794280 12.880173 0.000000
248.702500 288.792910 12.867871 0.000000
248.285450 288.791470 12.855891 0.000000
247.874160 288.790130 12.844225 0.000000
251.347990 288.801670 12.947117 0.000000
250.887770 288.800110 12.932945 0.000000
250.435940 288.798680 12.919186 0.000000
249.992580 288.798520 12.905885 0.000000
252.295550 288.804840 12.976770 0.000000
251.817060 288.803220 12.961718 0.000000
252.578600 288.470400 12.973503 0.000000
258.381290 288.826080 13.180266 0.000000
252.581340 287.703860 12.945713 0.000000
260.398680 288.831540 13.251705 0.000000
259.703580 288.829320 13.226891 0.000000
259.031220 288.827030 13.203068 0.000000
262.637660 288.838990 13.332858 0.000000
261.863830 288.836400 13.304609 0.000000
261.118160 288.833920 13.277586 0.000000
252.869380 286.702030 12.918938 0.000000
263.441680 288.841640 13.362411 0.000000
254.866560 286.708620 12.985910 0.000000
254.347410 286.706940 12.968271 0.000000
253.842040 286.705260 12.951250 0.000000
253.349620 286.703610 12.934816 0.000000
255.400420 286.710390 13.004210 0.000000
247.460370 288.785580 13.308538 0.000000
247.059430 288.784240 13.294573 0.000000
246.663210 288.782960 13.281058 0.000000
246.271320 288.781620 13.267975 0.000000
249.547730 288.792420 13.385750 0.000000
249.118000 288.790990 13.369253 0.000000
248.694790 288.789610 13.353311 0.000000
248.277710 288.788240 13.337888 0.000000
247.866360 288.786900 13.322970 0.000000
251.340640 288.798220 13.457664 0.000000
250.880360 288.796690 13.438738 0.000000
250.428450 288.795290 13.420464 0.000000
249.984410 288.793850 13.402811 0.000000
252.288280 288.801300 13.497582 0.000000
251.809750 288.799770 13.477269 0.000000
252.577820 288.477200 13.492074 0.000000
258.373900 288.820920 13.779966 0.000000
252.580600 287.709900 13.450037 0.000000
252.863130 286.698700 13.407682 0.000000
254.860600 286.705170 13.500778 0.000000
254.341340 286.703550 13.476114 0.000000
253.835890 286.701900 13.452411 0.000000
253.343410 286.700290 13.429615 0.000000
255.394520 286.706850 13.526456 0.000000
245.875400 288.777220 13.721647 0.000000
247.452480 288.782350 13.785377 0.000000
247.051500 288.781040 13.768523 0.000000
246.655210 288.779750 13.752299 0.000000
246.263280 288.778470 13.736677 0.000000
249.540130 288.789090 13.879887 0.000000
249.110320 288.787660 13.859529 0.000000
248.687090 288.786320 13.839935 0.000000
248.269910 288.784940 13.821054 0.000000
247.858540 288.783630 13.802879 0.000000
251.333220 288.794770 13.969469 0.000000
250.872920 288.793300 13.945778 0.000000
250.420970 288.791870 13.922975 0.000000
249.976870 288.790470 13.901024 0.000000
252.281040 288.797790 14.019686 0.000000
251.802430 288.796260 13.994093 0.000000
252.577040 288.484010 14.012464 0.000000
252.579860 287.715970 13.956110 0.000000
260.392670 288.827330 13.881716 0.000000
259.697480 288.825100 13.846298 0.000000
259.024960 288.822910 13.812405 0.000000
262.632110 288.834530 13.998244 0.000000
261.858120 288.831970 13.957569 0.000000
261.112300 288.829620 13.918770 0.000000
252.856860 286.695400 13.897654 0.000000
263.436340 288.837070 14.040916 0.000000
254.854580 286.701660 14.016947 0.000000
254.335270 286.700070 13.985241 0.000000
253.829740 286.698490 13.954832 0.000000
253.337190 286.696930 13.925656 0.000000
255.388600 286.703340 14.050031 0.000000
245.867290 288.774050 14.189555 0.000000
247.444600 288.779110 14.263834 0.000000
247.043530 288.777800 14.244080 0.000000
246.647200 288.776550 14.225135 0.000000
246.255200 288.775270 14.206964 0.000000
249.532500 288.785710 14.375710 0.000000
249.102650 288.784330 14.351476 0.000000
248.679350 288.783020 14.328212 0.000000
248.262130 288.781710 14.305868 0.000000
247.850690 288.780360 14.284420 0.000000
249.969280 288.787080 14.400936 0.000000
259.018680 288.818790 14.423309 0.000000
258.367490 288.816860 14.381274 0.000000
260.386630 288.823090 14.513363 0.000000
259.691280 288.820920 14.467306 0.000000
262.626590 288.830020 14.665385 0.000000
261.852390 288.827580 14.612243 0.000000
261.106380 288.825290 14.561624 0.000000
252.850560 286.692080 14.389320 0.000000
253.330090 286.692350 14.423250 0.000000
245.859130 288.770840 14.659477 0.000000
247.436660 288.775850 14.744354 0.000000
247.035550 288.774570 14.721686 0.000000
246.639160 288.773350 14.700006 0.000000
246.247100 288.772060 14.679276 0.000000
251.325840 288.791260 14.483032 0.000000
250.865450 288.789860 14.454551 0.000000
250.413450 288.788480 14.427204 0.000000
252.273740 288.794250 14.543585 0.000000
251.795070 288.792790 14.512693 0.000000
252.576260 288.490840 14.535182 0.000000
252.579150 287.722110 14.464430 0.000000
263.430970 288.832490 14.721220 0.000000
254.848540 286.698180 14.534922 0.000000
254.329120 286.696560 14.496135 0.000000
253.823580 286.695070 14.459003 0.000000
255.374450 286.689820 14.573962 0.000000
249.524840 288.782350 14.873680 0.000000
249.094920 288.780980 14.845550 0.000000
248.671570 288.779690 14.818603 0.000000
248.254300 288.778380 14.792774 0.000000
247.842800 288.777100 14.768036 0.000000
251.319000 288.788940 14.999002 0.000000
250.857960 288.786410 14.965536 0.000000
250.405900 288.785030 14.933620 0.000000
249.961690 288.783690 14.903020 0.000000
252.266420 288.790680 15.069771 0.000000
251.787700 288.789220 15.033552 0.000000
252.575470 288.497770 15.060724 0.000000
259.012360 288.814640 15.036373 0.000000
252.588360 287.743960 14.978000 0.000000
260.380580 288.818760 15.147255 0.000000
259.682770 288.814270 15.090130 0.000000
252.581010 286.999420 14.895473 0.000000
262.621220 288.825710 15.334959 0.000000
261.846620 288.823150 15.269258 0.000000
261.100490 288.820920 15.206774 0.000000
252.844210 286.688750 14.883145 0.000000
263.425570 288.827880 15.403979 0.000000
254.844970 286.697780 15.055731 0.000000
254.323040 286.693180 15.009302 0.000000
253.324680 286.690190 14.923374 0.000000
245.850940 288.767640 15.131910 0.000000
247.428680 288.772550 15.227446 0.000000
247.027510 288.771300 15.201845 0.000000
246.631060 288.770110 15.177416 0.000000
246.238950 288.768860 15.154112 0.000000
249.517120 288.778960 15.374325 0.000000
249.087160 288.777650 15.342278 0.000000
248.663740 288.776370 15.311622 0.000000
248.246430 288.775050 15.282286 0.000000
247.834870 288.773800 15.254244 0.000000
251.310910 288.784300 15.517405 0.000000
250.850420 288.782930 15.479274 0.000000
250.398300 288.781590 15.442760 0.000000
249.954030 288.780270 15.407799 0.000000
252.259060 288.787140 15.598799 0.000000
251.780290 288.785710 15.557222 0.000000
252.574690 288.504700 15.589659 0.000000
252.577700 287.734500 15.489804 0.000000
252.580280 287.004850 15.396097 0.000000
252.837840 286.685420 15.379652 0.000000
254.836430 286.691100 15.578292 0.000000
254.316880 286.689700 15.525255 0.000000
253.811140 286.688200 15.474541 0.000000
253.318390 286.686800 15.426044 0.000000
245.842670 288.764400 15.607285 0.000000
247.826900 288.770510 15.743496 0.000000
247.420650 288.769290 15.713558 0.000000
247.019440 288.768070 15.685008 0.000000
246.622920 288.766850 15.657810 0.000000
246.230740 288.765620 15.631910 0.000000
269.818360 293.582790 16.316523 0.000000
249.509370 288.775540 15.878107 0.000000
249.079360 288.774230 15.842113 0.000000
248.655880 288.773010 15.807726 0.000000
248.238510 288.771730 15.774868 0.000000
250.842830 288.779420 15.996237 0.000000
250.390660 288.778110 15.955099 0.000000
249.946330 288.776820 15.915750 0.000000
252.069930 287.685270 15.947767 0.000000
252.207280 287.157750 15.883190 0.000000
262.615360 288.820950 16.007490 0.000000
261.840850 288.818700 15.929238 0.000000
261.094540 288.816560 15.854823 0.000000
252.393390 286.727840 15.839205 0.000000
263.420140 288.823240 16.089834 0.000000
254.310900 286.686430 16.044548 0.000000
252.589320 286.328280 15.801755 0.000000
251.303380 288.780790 16.039244 0.000000
252.251630 288.783510 16.131155 0.000000
251.772810 288.782170 16.084190 0.000000
261.309170 289.769650 16.638241 0.000000
259.279750 289.112760 16.337437 0.000000
258.354830 288.812100 16.201853 0.000000
255.364650 286.689030 16.167803 0.000000
263.643430 290.533690 16.990414 0.000000
262.417660 290.120970 16.803581 0.000000
269.645260 295.275050 18.205456 0.000000
266.030640 293.680730 18.424404 0.000000
266.182710 295.687840 18.701401 0.000000
267.584140 296.171970 18.943026 0.000000
270.531950 296.089900 19.320786 0.000000
261.547850 286.392850 11.313941 0.000000
268.214630 291.763920 12.000654 0.000000
268.654630 291.265690 11.998323 0.000000
269.139800 290.799500 11.996009 0.000000
269.557220 290.279660 11.993001 0.000000
269.963040 289.750310 11.989661 0.000000
250.747480 288.808470 11.917101 0.000000
249.674100 288.589750 11.908239 0.000000
252.261670 288.814270 11.928170 0.000000
251.746030 288.812560 11.924565 0.000000
251.239110 288.806610 11.920854 0.000000
250.021410 288.372100 11.911007 0.000000
252.582950 288.511690 11.929856 0.000000
252.585560 287.760440 11.928577 0.000000
248.177190 286.566310 11.894616 0.000000
247.725810 286.477050 11.890551 0.000000
259.645080 288.839780 11.964475 0.000000
258.921200 288.837280 11.961985 0.000000
246.800860 286.178220 11.881802 0.000000
246.379490 286.081240 11.877615 0.000000
261.981380 288.848540 11.971260 0.000000
261.172850 288.845120 11.969115 0.000000
260.394960 288.842380 11.966852 0.000000
252.588010 287.045260 11.927202 0.000000
263.695860 288.853880 11.975150 0.000000
262.820830 288.850800 11.973269 0.000000
254.473070 286.716740 11.936319 0.000000
253.917970 286.714810 11.933629 0.000000
253.378540 286.712950 11.930858 0.000000
252.853790 286.711180 11.928003 0.000000
255.044890 286.718780 11.938925 0.000000
246.682420 288.791960 12.368065 0.000000
247.533710 288.794800 12.384087 0.000000
250.741910 288.805570 12.444472 0.000000
249.783490 288.802310 12.426433 0.000000
252.256030 288.810550 12.472970 0.000000
252.584870 287.763120 12.458524 0.000000
261.169590 288.840580 12.640744 0.000000
262.818150 288.846070 12.671773 0.000000
247.105030 288.793400 12.376019 0.000000
246.265580 288.790560 12.360218 0.000000
245.854050 288.789180 12.352474 0.000000
248.860530 288.799260 12.409061 0.000000
248.411040 288.797760 12.400601 0.000000
247.968900 288.796300 12.392280 0.000000
250.258010 288.803890 12.435365 0.000000
249.317830 288.800750 12.417668 0.000000
251.740300 288.808870 12.463264 0.000000
251.235790 288.807190 12.453769 0.000000
252.582230 288.514950 12.473271 0.000000
259.641330 288.835390 12.611979 0.000000
258.917210 288.832950 12.598350 0.000000
261.978390 288.843930 12.655981 0.000000
260.391450 288.837890 12.626098 0.000000
252.587310 287.047420 12.444485 0.000000
263.693540 288.849060 12.688251 0.000000
254.468830 286.713070 12.473195 0.000000
253.913590 286.711180 12.462744 0.000000
253.374040 286.709410 12.452588 0.000000
252.849170 286.707670 12.442709 0.000000
255.040800 286.715060 12.483962 0.000000
247.098360 288.790040 12.868398 0.000000
246.675690 288.788640 12.857008 0.000000
246.258740 288.787260 12.845922 0.000000
245.847150 288.785890 12.835126 0.000000
248.854200 288.795780 12.917254 0.000000
248.404630 288.794340 12.904515 0.000000
247.962400 288.792880 12.892136 0.000000
247.527130 288.791380 12.880100 0.000000
250.735950 288.801970 12.972188 0.000000
250.251950 288.800350 12.957819 0.000000
249.777340 288.798770 12.943887 0.000000
249.311580 288.797210 12.930370 0.000000
252.250400 288.806850 13.018140 0.000000
251.734530 288.805210 13.002324 0.000000
251.229920 288.803560 12.987015 0.000000
252.581510 288.518250 13.017427 0.000000
252.585010 287.767060 12.989248 0.000000
259.637540 288.830960 13.260004 0.000000
258.913240 288.828640 13.235218 0.000000
261.975220 288.839080 13.341271 0.000000
261.166290 288.836000 13.312935 0.000000
260.387910 288.833400 13.285883 0.000000
263.691160 288.844210 13.401983 0.000000
262.815460 288.841340 13.370885 0.000000
254.464580 286.709410 13.010469 0.000000
253.909190 286.707610 12.992246 0.000000
253.369510 286.705840 12.974696 0.000000
252.844530 286.704160 12.957783 0.000000
255.626560 286.713170 13.049101 0.000000
255.036710 286.711330 13.029408 0.000000
247.091690 288.786680 13.361544 0.000000
246.668950 288.785280 13.346712 0.000000
246.251920 288.783910 13.332379 0.000000
245.840240 288.782590 13.318526 0.000000
249.305180 288.793430 13.443859 0.000000
248.847870 288.792300 13.426249 0.000000
248.398210 288.790890 13.409221 0.000000
247.955920 288.789460 13.392776 0.000000
247.520550 288.788020 13.376887 0.000000
250.729980 288.798340 13.500746 0.000000
250.245880 288.796780 13.481107 0.000000
249.771190 288.795230 13.462162 0.000000
252.244720 288.803160 13.564195 0.000000
251.728760 288.801540 13.542255 0.000000
251.224080 288.799900 13.521117 0.000000
252.580780 288.521550 13.562842 0.000000
252.583470 287.768550 13.521037 0.000000
254.460330 286.705750 13.548648 0.000000
253.904800 286.704010 13.522633 0.000000
253.364990 286.702300 13.497673 0.000000
252.839870 286.700650 13.473709 0.000000
255.622600 286.709410 13.604090 0.000000
255.032590 286.707610 13.575782 0.000000
247.513930 288.784640 13.874929 0.000000
247.085020 288.783290 13.855933 0.000000
246.662170 288.781920 13.837646 0.000000
246.245070 288.780580 13.820058 0.000000
245.833300 288.779300 13.803137 0.000000
249.299070 288.790250 13.958708 0.000000
248.841520 288.788850 13.936537 0.000000
248.391780 288.787410 13.915206 0.000000
247.949400 288.786010 13.894682 0.000000
250.724000 288.794740 14.030663 0.000000
250.239810 288.793210 14.005733 0.000000
249.765010 288.791690 13.981760 0.000000
252.582760 287.771270 14.054623 0.000000
259.633790 288.826570 13.909163 0.000000
258.909240 288.824280 13.873192 0.000000
261.971710 288.833980 14.027751 0.000000
261.163020 288.831450 13.986322 0.000000
260.384400 288.828920 13.946832 0.000000
252.585270 287.053990 14.002340 0.000000
263.688810 288.839360 14.117025 0.000000
262.812770 288.836550 14.071262 0.000000
253.900410 286.700380 14.054423 0.000000
253.360440 286.698730 14.022028 0.000000
252.835220 286.697140 13.990990 0.000000
247.507310 288.781220 14.374712 0.000000
247.078310 288.779910 14.352045 0.000000
246.655380 288.778560 14.330294 0.000000
246.238200 288.777250 14.309433 0.000000
245.826350 288.775970 14.289433 0.000000
252.239060 288.799410 14.111664 0.000000
251.723010 288.797880 14.083582 0.000000
251.218190 288.796260 14.056595 0.000000
252.580060 288.524840 14.110045 0.000000
259.629910 288.822050 14.560073 0.000000
258.905240 288.819950 14.512889 0.000000
260.380830 288.824400 14.609586 0.000000
254.456070 286.702090 14.088257 0.000000
255.028470 286.703860 14.123610 0.000000
249.292800 288.786710 14.475336 0.000000
248.835160 288.785340 14.448614 0.000000
248.385310 288.783970 14.422963 0.000000
247.942860 288.782590 14.398343 0.000000
250.717990 288.791110 14.562449 0.000000
250.233700 288.789610 14.532207 0.000000
249.758820 288.788150 14.503187 0.000000
252.233350 288.795680 14.661076 0.000000
251.717240 288.794220 14.626831 0.000000
251.212280 288.792600 14.593966 0.000000
252.579350 288.528170 14.659572 0.000000
252.582050 287.774020 14.590456 0.000000
261.968690 288.829320 14.716161 0.000000
261.159760 288.826870 14.661558 0.000000
252.584590 287.056180 14.525302 0.000000
263.686430 288.834530 14.834064 0.000000
262.809450 288.831300 14.773512 0.000000
254.451780 286.698390 14.629816 0.000000
253.895980 286.696750 14.588131 0.000000
253.355900 286.695130 14.548267 0.000000
252.830490 286.693540 14.510115 0.000000
255.024340 286.700130 14.673427 0.000000
247.500660 288.777770 14.876699 0.000000
247.071560 288.776520 14.850345 0.000000
246.648560 288.775180 14.825109 0.000000
246.231310 288.773900 14.800963 0.000000
245.819380 288.772640 14.777870 0.000000
249.286480 288.783170 14.994258 0.000000
248.828750 288.781830 14.962959 0.000000
248.378830 288.780460 14.932966 0.000000
247.936280 288.779140 14.904228 0.000000
251.206330 288.788940 15.133734 0.000000
250.711980 288.787450 15.096603 0.000000
250.227570 288.786010 15.061024 0.000000
249.752610 288.784580 15.026930 0.000000
252.227650 288.791930 15.212948 0.000000
251.711460 288.790560 15.172511 0.000000
252.578630 288.531490 15.211941 0.000000
252.581330 287.776730 15.129041 0.000000
259.626220 288.817720 15.213404 0.000000
252.583880 287.058350 15.050931 0.000000
261.965700 288.824620 15.407135 0.000000
261.156430 288.822240 15.339298 0.000000
260.382840 288.825260 15.275674 0.000000
254.447460 286.694700 15.173832 0.000000
253.353820 286.694700 15.077437 0.000000
252.774610 286.622310 15.019972 0.000000
255.020200 286.696380 15.225746 0.000000
270.675080 288.597720 15.321662 0.000000
247.493970 288.774380 15.381426 0.000000
247.064790 288.773130 15.351362 0.000000
246.641680 288.771790 15.322617 0.000000
246.224350 288.770510 15.295164 0.000000
245.812350 288.769290 15.268955 0.000000
249.280140 288.779600 15.516018 0.000000
248.821900 288.777440 15.479963 0.000000
248.372300 288.777010 15.445754 0.000000
247.929660 288.775670 15.412875 0.000000
250.705900 288.783810 15.633691 0.000000
250.221420 288.782380 15.592741 0.000000
249.746350 288.780980 15.553539 0.000000
252.253860 286.609010 15.490828 0.000000
263.684050 288.829650 15.553802 0.000000
262.807340 288.827030 15.478540 0.000000
252.821120 286.686460 15.555969 0.000000
247.487210 288.770870 15.889352 0.000000
247.057970 288.769650 15.855555 0.000000
246.634800 288.768370 15.823282 0.000000
246.217380 288.767150 15.792500 0.000000
245.805280 288.765930 15.763158 0.000000
248.815830 288.774750 16.000565 0.000000
248.365740 288.773500 15.961806 0.000000
247.923000 288.772190 15.924755 0.000000
251.200380 288.785250 15.676470 0.000000
252.221920 288.788150 15.767862 0.000000
251.705640 288.786870 15.721199 0.000000
270.536100 292.706330 16.440403 0.000000
252.577900 288.534850 15.767740 0.000000
252.590320 287.793300 15.673639 0.000000
259.622410 288.813260 15.869728 0.000000
261.962680 288.819920 16.101322 0.000000
261.153140 288.817630 16.020180 0.000000
260.373720 288.815400 15.943066 0.000000
262.805790 288.823240 16.186993 0.000000
254.443150 286.690980 15.720884 0.000000
253.887070 286.689420 15.663364 0.000000
255.606690 286.694150 15.844300 0.000000
270.657500 293.712550 16.525654 0.000000
249.273740 288.776030 16.041103 0.000000
252.574160 289.333920 16.445309 0.000000
251.907910 289.115300 16.344467 0.000000
251.262500 288.894530 16.246590 0.000000
250.703030 288.785710 16.175379 0.000000
250.215240 288.778750 16.127855 0.000000
252.911740 289.032680 16.435843 0.000000
252.304290 287.390010 16.129669 0.000000
252.568660 287.043880 16.108124 0.000000
263.902070 289.008700 16.316227 0.000000
254.438780 286.687230 16.271481 0.000000
253.167270 286.461330 16.091940 0.000000
252.806550 286.669920 16.080767 0.000000
253.621400 286.364440 16.130697 0.000000
270.645260 291.899110 17.278196 0.000000
263.510830 291.003630 17.218178 0.000000
266.670260 293.034730 17.807041 0.000000
267.130190 292.559880 17.810463 0.000000
267.839630 290.883120 11.942993 0.000000
269.018520 290.909240 11.946202 0.000000
269.505160 290.405360 11.945187 0.000000
269.956090 289.872740 11.943697 0.000000
270.409450 289.338590 11.941939 0.000000
252.327130 288.715700 11.867000 0.000000
251.634220 288.519350 11.861935 0.000000
251.030210 288.420960 11.857298 0.000000
252.592760 288.307680 11.869123 0.000000
252.595200 287.569760 11.869350 0.000000
248.782320 286.463470 11.841110 0.000000
248.254000 286.338620 11.836661 0.000000
247.742190 286.216060 11.832211 0.000000
258.973820 288.837920 11.905718 0.000000
249.275150 286.508450 11.845222 0.000000
260.571010 288.843260 11.912469 0.000000
259.757450 288.840520 11.909134 0.000000
252.597490 286.864010 11.869401 0.000000
261.416600 288.846010 11.915718 0.000000
254.212300 286.716920 11.879043 0.000000
253.615650 286.714940 11.875625 0.000000
253.036760 286.712980 11.872143 0.000000
263.214480 288.852020 11.921956 0.000000
262.296810 288.848910 11.918882 0.000000
255.464260 286.721370 11.885684 0.000000
254.827970 286.718960 11.882396 0.000000
264.172390 288.855130 11.924934 0.000000
246.853130 288.794530 12.329832 0.000000
246.404450 288.793090 12.320779 0.000000
245.962630 288.791720 12.311863 0.000000
248.245360 288.799040 12.357928 0.000000
247.773130 288.797520 12.348399 0.000000
247.309220 288.796020 12.339037 0.000000
249.717250 288.803710 12.387630 0.000000
249.216860 288.802120 12.377533 0.000000
248.726410 288.800570 12.367636 0.000000
251.284820 288.808750 12.419264 0.000000
250.750560 288.807010 12.408483 0.000000
250.228270 288.805330 12.397942 0.000000
251.831770 288.810520 12.430302 0.000000
252.591980 288.312260 12.437090 0.000000
252.594470 287.573700 12.424525 0.000000
258.967470 288.833440 12.574298 0.000000
259.751250 288.835910 12.590115 0.000000
252.596790 286.867430 12.412509 0.000000
254.206160 286.713130 12.442262 0.000000
263.208980 288.847050 12.659892 0.000000
262.291140 288.844060 12.641369 0.000000
255.458310 286.717470 12.467536 0.000000
254.821910 286.715090 12.454688 0.000000
252.392240 288.812260 12.441610 0.000000
260.564970 288.838590 12.606537 0.000000
261.410710 288.841250 12.623603 0.000000
253.609450 286.711210 12.430221 0.000000
253.030470 286.709290 12.418536 0.000000
264.167110 288.850070 12.679226 0.000000
246.845280 288.791050 12.842645 0.000000
246.396500 288.789670 12.829530 0.000000
245.954650 288.788300 12.816771 0.000000
248.237640 288.795470 12.884304 0.000000
247.765370 288.794010 12.870015 0.000000
247.301390 288.792510 12.856134 0.000000
249.709690 288.800020 12.929831 0.000000
249.209230 288.798520 12.914191 0.000000
248.718730 288.796970 12.899022 0.000000
251.277400 288.804990 12.979858 0.000000
250.743100 288.803280 12.962639 0.000000
250.220760 288.801640 12.945972 0.000000
252.384960 288.808380 13.016074 0.000000
251.824420 288.806670 12.997660 0.000000
252.591220 288.316800 13.005837 0.000000
252.593690 287.577640 12.980446 0.000000
258.961090 288.828920 13.243317 0.000000
260.558870 288.833890 13.301075 0.000000
259.745030 288.831300 13.271549 0.000000
252.596050 286.870850 12.956333 0.000000
262.285400 288.839170 13.364366 0.000000
261.404820 288.836460 13.331976 0.000000
254.200010 286.709320 13.005827 0.000000
253.603210 286.707460 12.985151 0.000000
253.024190 286.705600 12.965255 0.000000
263.203460 288.842070 13.398360 0.000000
255.452380 286.713530 13.049758 0.000000
254.815860 286.711240 13.027337 0.000000
264.161870 288.844970 13.434074 0.000000
246.837740 288.788360 13.356256 0.000000
246.388580 288.786220 13.339015 0.000000
245.946660 288.784850 13.322403 0.000000
248.229890 288.791900 13.411448 0.000000
247.757570 288.790470 13.392391 0.000000
247.293560 288.789000 13.373983 0.000000
249.702100 288.796390 13.472834 0.000000
249.201610 288.794890 13.451638 0.000000
248.711040 288.793370 13.431186 0.000000
251.269990 288.801180 13.541290 0.000000
250.735640 288.799530 13.517620 0.000000
250.213230 288.797940 13.494814 0.000000
252.377690 288.804530 13.591404 0.000000
251.817080 288.802890 13.565870 0.000000
252.590440 288.321350 13.575906 0.000000
252.592940 287.581630 13.537643 0.000000
252.595310 286.874270 13.501387 0.000000
254.193860 286.705510 13.570268 0.000000
253.596980 286.703700 13.540939 0.000000
253.017870 286.701900 13.512814 0.000000
255.446120 286.709290 13.632865 0.000000
254.809800 286.707370 13.600882 0.000000
246.829470 288.784120 13.870993 0.000000
246.380620 288.782780 13.849728 0.000000
245.938660 288.781430 13.829252 0.000000
248.222140 288.788330 13.939871 0.000000
247.749760 288.786900 13.916031 0.000000
247.285710 288.785490 13.893082 0.000000
248.703320 288.789760 13.964643 0.000000
258.954740 288.824400 13.913405 0.000000
260.552830 288.829220 13.996742 0.000000
259.738800 288.826720 13.954082 0.000000
262.279690 288.834290 14.088554 0.000000
261.398900 288.831700 14.041509 0.000000
263.197970 288.837070 14.138057 0.000000
264.156590 288.839870 14.190191 0.000000
249.694500 288.792660 14.017160 0.000000
249.193950 288.791260 13.990396 0.000000
251.262570 288.797390 14.104104 0.000000
250.728130 288.795780 14.073962 0.000000
250.205670 288.794220 14.045000 0.000000
252.370380 288.800630 14.168157 0.000000
251.809720 288.799010 14.135482 0.000000
252.589660 288.325960 14.147850 0.000000
252.592180 287.585630 14.096655 0.000000
252.594570 286.877720 14.048201 0.000000
254.187710 286.701690 14.136135 0.000000
253.590740 286.699950 14.098125 0.000000
253.011570 286.698240 14.061748 0.000000
255.440160 286.705350 14.217478 0.000000
254.803730 286.703490 14.175879 0.000000
246.821530 288.780610 14.387522 0.000000
246.372650 288.779300 14.362164 0.000000
245.930630 288.778020 14.337809 0.000000
248.214340 288.784730 14.470085 0.000000
247.741910 288.783360 14.441442 0.000000
247.277820 288.781980 14.413935 0.000000
249.686860 288.789030 14.563341 0.000000
249.186290 288.787660 14.530991 0.000000
248.695590 288.786130 14.499910 0.000000
251.255100 288.793580 14.668842 0.000000
250.720610 288.791990 14.632206 0.000000
250.198100 288.790500 14.597061 0.000000
252.363050 288.796720 14.746893 0.000000
251.802280 288.795100 14.707038 0.000000
252.588870 288.330540 14.722227 0.000000
252.591430 287.589630 14.658031 0.000000
258.948360 288.819890 14.585213 0.000000
260.546750 288.824520 14.694213 0.000000
259.732570 288.822140 14.638377 0.000000
252.593830 286.881160 14.597311 0.000000
262.273960 288.829410 14.814640 0.000000
261.393010 288.826900 14.752890 0.000000
254.181520 286.697880 14.703972 0.000000
253.584490 286.696200 14.657248 0.000000
253.005200 286.694490 14.612581 0.000000
263.192440 288.832090 14.879703 0.000000
255.434160 286.701390 14.804138 0.000000
254.797640 286.699620 14.752890 0.000000
264.151250 288.834780 14.948310 0.000000
246.813570 288.777100 14.906273 0.000000
246.364610 288.775820 14.876798 0.000000
245.922580 288.774540 14.848549 0.000000
248.206530 288.781160 15.002585 0.000000
247.734040 288.779790 14.969115 0.000000
247.269900 288.778440 14.937032 0.000000
249.679200 288.785310 15.111883 0.000000
249.178600 288.784060 15.073925 0.000000
248.687820 288.782500 15.037490 0.000000
250.713040 288.788240 15.192870 0.000000
250.190490 288.786740 15.151514 0.000000
252.590670 287.593660 15.222299 0.000000
252.593080 286.884640 15.149235 0.000000
253.578190 286.692380 15.218830 0.000000
252.998840 286.690800 15.165834 0.000000
270.603390 288.622100 15.413246 0.000000
246.805540 288.773590 15.427790 0.000000
246.356570 288.772310 15.394173 0.000000
245.914470 288.771060 15.362006 0.000000
248.198670 288.777530 15.537931 0.000000
247.726140 288.776180 15.499610 0.000000
247.261950 288.774870 15.462917 0.000000
251.247020 288.788910 15.235897 0.000000
252.355680 288.792850 15.328151 0.000000
251.794910 288.791320 15.281101 0.000000
252.588090 288.335210 15.299583 0.000000
262.268220 288.824490 15.543328 0.000000
261.387080 288.822110 15.466810 0.000000
254.175320 286.694030 15.274311 0.000000
263.186890 288.827060 15.624016 0.000000
254.791530 286.695710 15.332445 0.000000
264.145970 288.829650 15.709168 0.000000
246.348450 288.768800 15.914776 0.000000
245.906310 288.767580 15.878663 0.000000
249.671110 288.780910 15.663249 0.000000
249.170880 288.780430 15.619770 0.000000
248.680020 288.778870 15.577947 0.000000
251.240050 288.785920 15.806279 0.000000
250.705460 288.784420 15.756548 0.000000
250.182830 288.782990 15.708945 0.000000
252.348280 288.788910 15.912546 0.000000
251.787410 288.787410 15.858245 0.000000
252.587300 288.339840 15.880535 0.000000
252.123700 286.995300 15.669696 0.000000
260.534580 288.815120 16.097248 0.000000
252.351760 286.588260 15.643774 0.000000
261.381130 288.817290 16.183937 0.000000
254.169050 286.690160 15.847756 0.000000
252.992450 286.687040 15.722090 0.000000
254.785370 286.691770 15.915163 0.000000
246.797490 288.770050 15.952560 0.000000
248.190730 288.773900 16.076622 0.000000
247.718190 288.772610 16.033417 0.000000
247.253920 288.771300 15.992086 0.000000
250.368990 289.093020 16.336166 0.000000
249.724460 288.880130 16.239670 0.000000
248.672150 288.775210 16.121782 0.000000
252.435610 287.403380 16.316587 0.000000
252.703600 287.031280 16.296135 0.000000
264.087920 289.561860 16.531183 0.000000
262.481320 289.004670 16.314369 0.000000
252.985980 286.683260 16.281864 0.000000
253.169650 289.937470 16.756498 0.000000
252.502110 289.825870 16.667440 0.000000
251.755220 289.565490 16.549637 0.000000
251.045590 289.322170 16.439526 0.000000
253.257630 289.244110 16.668051 0.000000
254.654360 286.552800 16.468334 0.000000
270.593140 292.049680 17.437708 0.000000
267.087040 292.899290 18.014610 0.000000
269.195100 295.663670 18.553904 0.000000
267.145050 298.939640 19.650198 0.000000
268.283540 295.849880 19.413166 0.000000
268.789370 291.844540 12.001916 0.000000
269.331020 291.340240 11.999247 0.000000
269.833070 290.802400 11.995941 0.000000
270.288360 290.228880 11.991963 0.000000
270.745850 289.654300 11.987703 0.000000
252.067050 288.819340 11.913538 0.000000
251.471510 288.817230 11.909408 0.000000
250.854830 288.763980 11.904786 0.000000
250.133910 288.533450 11.898698 0.000000
252.583070 288.700410 11.916537 0.000000
252.585820 287.943050 11.913722 0.000000
248.272510 286.531950 11.878845 0.000000
247.649090 286.309270 11.873214 0.000000
247.115050 286.198360 11.868433 0.000000
252.588330 287.216860 11.910845 0.000000
259.119870 288.844360 11.950718 0.000000
260.851840 288.850400 11.957170 0.000000
259.968750 288.847290 11.953989 0.000000
253.386310 286.719790 11.913145 0.000000
252.764040 286.716610 11.909738 0.000000
262.731780 288.857060 11.963246 0.000000
261.771910 288.853730 11.960258 0.000000
254.690370 286.723540 11.919723 0.000000
254.027050 286.721100 11.916464 0.000000
263.734800 288.860600 11.966132 0.000000
255.376820 286.725950 11.922908 0.000000
252.061520 288.815370 12.511765 0.000000
252.582230 288.702120 12.519838 0.000000
259.116580 288.839690 12.653461 0.000000
260.849210 288.845550 12.688256 0.000000
259.965730 288.842530 12.670514 0.000000
252.759670 286.712830 12.482133 0.000000
246.212740 288.795380 12.394301 0.000000
247.674760 288.800350 12.423664 0.000000
247.178270 288.798650 12.413692 0.000000
246.691120 288.797000 12.403910 0.000000
249.226330 288.805660 12.454825 0.000000
248.698150 288.803830 12.444217 0.000000
248.181180 288.802060 12.433834 0.000000
250.885330 288.811340 12.488144 0.000000
250.319150 288.809420 12.476773 0.000000
249.766430 288.807530 12.465672 0.000000
251.465820 288.813290 12.499802 0.000000
252.585020 287.944240 12.504176 0.000000
252.587550 287.217560 12.489157 0.000000
253.382140 286.715940 12.494656 0.000000
262.729950 288.851960 12.726028 0.000000
261.769650 288.848720 12.706744 0.000000
