# .PCD v0.7 - Point Cloud Data file format
VERSION 0.7
FIELDS x y z intensity
SIZE 4 4 4 4
TYPE F F F F
COUNT 1 1 1 1
WIDTH 1184
HEIGHT 1
VIEWPOINT 0 0 0 1 0 0 0
POINTS 1184
DATA ascii
267.204350 156.440720 6.961897 0.000000
267.370000 156.804490 6.975736 0.000000
268.026790 156.997990 7.039373 0.000000
268.170350 157.356960 7.049854 0.000000
268.491850 157.647340 7.078091 0.000000
268.619900 158.008270 7.085846 0.000000
269.300350 158.338120 7.146989 0.000000
269.954040 158.653750 7.204625 0.000000
260.056300 159.157140 6.894482 0.000000
270.211060 159.138580 7.219748 0.000000
260.469850 159.575990 6.926154 0.000000
260.872800 159.989180 6.956406 0.000000
261.289310 160.388280 6.987172 0.000000
261.685520 160.786240 7.015775 0.000000
262.652530 160.934560 7.089353 0.000000
258.857030 136.322220 7.001123 0.000000
261.590910 144.430160 7.419486 0.000000
258.985140 136.371580 7.729017 0.000000
259.082890 136.407390 8.448768 0.000000
261.598510 144.412960 8.638644 0.000000
265.196040 136.545100 9.145283 0.000000
256.900880 136.743550 9.174691 0.000000
264.551610 136.738530 9.148634 0.000000
259.624630 137.252900 9.169625 0.000000
263.955990 136.975710 9.152391 0.000000
257.161830 137.492420 9.181543 0.000000
256.957520 138.051160 9.188440 0.000000
264.558960 137.818570 9.157903 0.000000
261.375030 140.217830 9.194323 0.000000
261.094970 140.662120 9.200673 0.000000
261.602290 144.404390 9.247016 0.000000
264.973050 136.414920 9.744293 0.000000
249.436740 138.343930 9.224745 0.000000
246.350430 139.044660 9.248222 0.000000
264.030400 136.453230 9.764859 0.000000
270.623780 137.357390 10.106679 0.000000
260.280460 138.692760 9.853140 0.000000
260.608460 139.384950 9.847303 0.000000
260.704590 139.976180 9.847216 0.000000
260.068210 140.316120 9.864668 0.000000
260.440920 140.986620 9.858836 0.000000
261.606050 144.395800 9.855354 0.000000
262.078490 136.585270 10.462770 0.000000
247.850980 137.870790 10.160211 0.000000
246.425540 138.257000 10.199383 0.000000
260.287930 139.258650 10.522024 0.000000
249.216550 139.756200 10.138506 0.000000
260.275880 139.818360 10.520620 0.000000
259.946350 140.267240 10.534586 0.000000
247.762500 140.904240 10.186387 0.000000
269.968510 136.418960 10.657147 0.000000
258.124270 137.225070 10.629086 0.000000
260.233250 138.666230 10.527179 0.000000
269.856570 139.562120 11.053150 0.000000
257.995270 140.220000 10.624439 0.000000
257.990480 140.807010 10.624525 0.000000
260.202550 136.271820 11.241302 0.000000
270.277010 136.139770 11.157187 0.000000
270.339020 136.676820 11.128437 0.000000
248.673720 138.855000 11.057714 0.000000
260.159330 139.769150 11.193527 0.000000
249.465870 140.535890 11.024624 0.000000
260.001400 140.276550 11.199236 0.000000
259.359410 140.633530 11.239323 0.000000
259.262050 136.455890 11.297267 0.000000
259.429960 137.145200 11.275193 0.000000
264.650600 137.308090 11.544420 0.000000
258.716400 137.458330 11.316297 0.000000
258.738130 138.077300 11.306403 0.000000
258.828550 138.712520 11.292688 0.000000
263.535220 138.899540 11.592051 0.000000
260.272520 136.902710 11.915835 0.000000
258.882780 138.124830 12.004456 0.000000
259.747590 137.871400 11.936298 0.000000
269.890260 137.792010 12.110047 0.000000
259.197910 138.839870 11.963060 0.000000
259.035340 139.368150 11.967490 0.000000
259.126770 139.979390 11.949465 0.000000
248.205150 137.948060 12.007765 0.000000
246.897130 138.358200 12.094315 0.000000
248.215120 139.476230 12.000493 0.000000
255.325680 139.371950 12.292034 0.000000
247.504330 140.061330 12.047974 0.000000
247.702740 140.863560 12.033813 0.000000
259.183560 138.825810 12.663746 0.000000
260.488530 138.740690 12.527121 0.000000
259.477870 139.513760 12.614507 0.000000
259.267940 140.016830 12.625363 0.000000
259.242000 140.578630 12.616203 0.000000
248.137180 137.915360 12.945810 0.000000
247.127380 138.407470 13.030161 0.000000
246.876880 139.122920 13.046011 0.000000
247.685150 140.090150 12.966331 0.000000
259.160680 138.215560 13.390901 0.000000
259.170070 138.812000 13.368449 0.000000
258.609250 139.790130 13.409407 0.000000
258.267430 140.266130 13.440447 0.000000
246.446820 138.208180 14.063879 0.000000
248.154590 137.894490 14.822342 0.000000
252.704470 154.987080 6.258771 0.000000
253.039000 155.600330 6.291751 0.000000
260.669310 140.764570 6.560614 0.000000
259.116910 141.457280 6.464919 0.000000
260.314670 141.220660 6.550307 0.000000
260.078670 142.275010 6.570352 0.000000
260.003970 144.450850 6.636893 0.000000
259.453370 144.902240 6.606532 0.000000
255.687900 145.524660 6.321685 0.000000
257.321470 145.145980 6.442461 0.000000
266.632810 145.214450 6.666437 0.000000
266.538420 145.620610 6.671347 0.000000
255.848180 146.149380 6.351530 0.000000
266.697390 146.067920 6.702826 0.000000
266.858920 146.507520 6.733681 0.000000
256.121340 146.776210 6.389852 0.000000
267.162510 146.956880 6.778738 0.000000
256.635380 147.408680 6.447097 0.000000
267.292050 147.375240 6.804419 0.000000
257.134430 148.020810 6.501971 0.000000
266.952180 148.151670 6.790743 0.000000
267.084960 148.563310 6.814726 0.000000
266.576350 153.062850 6.833590 0.000000
266.141330 153.549990 6.792470 0.000000
265.530400 154.085970 6.733053 0.000000
265.100770 154.611500 6.691370 0.000000
264.554930 155.180280 6.637352 0.000000
255.316210 155.864650 6.476627 0.000000
264.902740 155.566530 6.672765 0.000000
266.180600 155.712230 6.801271 0.000000
257.271420 156.113020 6.634884 0.000000
267.135190 155.900820 6.896576 0.000000
267.889890 156.114900 6.971163 0.000000
257.688870 156.619870 6.671504 0.000000
258.097500 157.117860 6.706707 0.000000
258.461730 157.616530 6.737734 0.000000
258.997620 158.060910 6.781490 0.000000
259.326750 158.549710 6.808421 0.000000
259.702480 159.017670 6.838341 0.000000
264.085270 137.082670 6.661170 0.000000
264.202390 137.694760 6.699237 0.000000
264.100520 138.194950 6.715034 0.000000
263.174620 138.339480 6.651690 0.000000
262.973300 138.808140 6.657371 0.000000
262.865720 139.313290 6.671228 0.000000
261.838900 139.479230 6.599383 0.000000
261.683810 139.980380 6.608235 0.000000
261.477750 140.464200 6.611827 0.000000
269.794530 141.583150 6.819581 0.000000
270.433070 141.440510 6.873508 0.000000
270.621000 142.310460 6.937393 0.000000
260.379760 142.898570 6.616019 0.000000
270.165710 142.530980 6.904133 0.000000
260.291320 143.423280 6.626760 0.000000
270.261290 142.954930 6.934264 0.000000
270.294860 143.350200 6.956359 0.000000
261.681640 144.236600 6.764222 0.000000
269.676730 143.926790 6.921182 0.000000
270.286130 143.726850 6.972850 0.000000
269.561340 144.278870 6.924846 0.000000
268.908110 144.887370 6.884141 0.000000
269.268680 144.587270 6.908361 0.000000
267.948640 145.069690 6.794322 0.000000
268.210660 156.437060 7.001403 0.000000
268.374050 156.802470 7.015157 0.000000
269.034820 156.995250 7.078708 0.000000
269.176030 157.355990 7.089117 0.000000
269.497590 157.647230 7.117280 0.000000
269.623260 158.010120 7.124967 0.000000
270.145170 158.205700 7.172579 0.000000
270.468050 158.474350 7.199420 0.000000
261.042510 159.165050 6.942894 0.000000
261.465820 159.581760 6.975289 0.000000
261.867190 159.996570 7.005382 0.000000
262.249270 160.409940 7.033394 0.000000
262.518920 160.860720 7.052040 0.000000
263.495030 161.009230 7.125490 0.000000
258.842250 136.482590 6.982902 0.000000
261.676850 144.225270 7.396902 0.000000
258.940250 136.514880 7.728867 0.000000
259.035030 136.545870 8.468844 0.000000
261.667360 144.202640 8.658582 0.000000
256.679870 136.885360 9.219029 0.000000
263.805300 136.915080 9.186586 0.000000
257.017520 137.673480 9.226625 0.000000
259.956790 137.546300 9.210616 0.000000
261.362950 137.531860 9.203806 0.000000
264.526580 137.816470 9.192558 0.000000
261.259030 140.354600 9.237577 0.000000
260.942840 140.809460 9.245132 0.000000
267.420620 137.176480 9.739302 0.000000
245.872670 138.649930 9.300319 0.000000
248.317250 138.489260 9.284134 0.000000
261.479000 136.979600 9.879740 0.000000
264.992650 137.490840 9.795534 0.000000
260.399480 138.905170 9.912575 0.000000
258.136540 139.320180 9.973157 0.000000
260.572630 139.547760 9.911214 0.000000
260.133540 140.549590 9.928554 0.000000
247.438400 140.596300 10.269887 0.000000
270.419040 136.479200 10.711687 0.000000
257.940860 137.352980 10.720021 0.000000
260.302670 138.860050 10.606233 0.000000
260.270970 139.433170 10.606243 0.000000
260.246730 140.002930 10.606539 0.000000
257.993500 140.485790 10.712917 0.000000
259.463810 140.332350 10.643210 0.000000
258.034970 141.099230 10.712052 0.000000
270.688780 141.094730 11.052801 0.000000
270.085690 136.248060 11.265918 0.000000
270.133360 136.780400 11.240442 0.000000
260.092500 139.942310 11.303144 0.000000
259.955540 140.474330 11.308704 0.000000
259.490260 140.909940 11.338065 0.000000
259.482450 141.481690 11.336259 0.000000
259.325810 142.010650 11.345702 0.000000
259.298070 136.620650 11.393660 0.000000
258.962430 137.112410 11.408585 0.000000
269.909700 137.123150 11.767197 0.000000
258.704860 137.639140 11.418812 0.000000
264.851870 137.399750 11.640200 0.000000
269.759340 137.515380 11.762300 0.000000
246.484190 138.773590 11.259179 0.000000
258.748570 138.278590 11.408665 0.000000
269.306120 138.205990 11.774681 0.000000
258.963530 138.968030 11.387460 0.000000
263.515720 138.962190 11.713482 0.000000
246.958620 139.688640 11.239976 0.000000
269.553220 139.707660 11.687430 0.000000
259.927250 138.103710 12.040709 0.000000
263.085390 138.235380 11.766706 0.000000
259.306270 139.077330 12.077171 0.000000
258.994510 138.359050 12.116883 0.000000
255.575590 139.106230 12.406882 0.000000
247.476260 139.794820 12.171865 0.000000
255.111020 139.624910 12.442242 0.000000
258.601070 139.441310 12.133718 0.000000
261.041470 138.527010 12.620576 0.000000
259.076930 138.987170 12.820733 0.000000
259.316710 139.666640 12.779275 0.000000
259.274140 140.242460 12.772224 0.000000
259.147250 140.788990 12.776315 0.000000
247.852390 138.304840 13.107815 0.000000
247.767970 139.848180 13.104267 0.000000
259.071990 138.367450 13.566677 0.000000
247.215940 138.928480 13.160233 0.000000
258.939330 138.928850 13.565763 0.000000
258.504460 139.388350 13.608705 0.000000
258.669560 140.044110 13.569345 0.000000
246.595090 137.947360 14.216162 0.000000
254.159710 154.915630 6.306438 0.000000
254.044740 155.592250 6.303985 0.000000
261.861300 140.797010 6.588142 0.000000
261.542600 141.260560 6.580971 0.000000
260.350460 141.495270 6.495983 0.000000
261.419190 142.336090 6.610740 0.000000
260.688930 144.919190 6.637279 0.000000
256.867580 145.528060 6.347635 0.000000
258.538850 145.157070 6.471620 0.000000
267.787660 145.221980 6.692937 0.000000
267.822510 145.648970 6.711745 0.000000
257.025880 146.150090 6.377288 0.000000
267.979280 146.091510 6.742866 0.000000
268.113250 146.522870 6.770662 0.000000
257.480290 146.790530 6.430632 0.000000
257.988830 147.416950 6.487320 0.000000
268.351930 146.960370 6.808738 0.000000
258.482640 148.023250 6.541663 0.000000
268.140620 148.147220 6.820498 0.000000
267.850520 153.015270 6.871816 0.000000
267.418640 153.497800 6.831019 0.000000
266.772060 154.035890 6.768025 0.000000
266.343900 154.557560 6.726519 0.000000
265.800720 155.122150 6.672803 0.000000
256.513180 155.823440 6.503879 0.000000
265.812410 155.582110 6.674359 0.000000
267.389500 155.655620 6.833012 0.000000
258.466950 156.069090 6.661984 0.000000
268.239500 155.868970 6.917774 0.000000
269.029480 156.071690 6.995932 0.000000
258.881870 156.573650 6.698416 0.000000
259.288020 157.069380 6.733439 0.000000
259.649900 157.565860 6.764298 0.000000
260.194060 158.005260 6.808710 0.000000
260.565830 158.478960 6.838989 0.000000
261.004640 158.923890 6.873852 0.000000
265.630950 136.760150 6.697085 0.000000
264.579650 138.480730 6.700055 0.000000
265.427890 138.308980 6.756262 0.000000
264.467040 138.977870 6.713790 0.000000
263.157500 139.566800 6.638881 0.000000
264.341060 139.466770 6.725566 0.000000
262.985110 140.056440 6.645950 0.000000
262.670560 140.499770 6.639514 0.000000
261.673280 142.943150 6.652140 0.000000
261.563870 143.458710 6.660941 0.000000
261.447570 143.972870 6.668542 0.000000
261.274290 144.477460 6.670681 0.000000
270.104340 144.908490 6.915295 0.000000
270.501710 144.620450 6.943681 0.000000
269.144960 145.088040 6.825403 0.000000
268.480010 147.375920 6.834204 0.000000
268.271880 148.556140 6.844278 0.000000
269.398410 156.377260 7.031056 0.000000
269.560240 156.740360 7.044695 0.000000
270.286620 157.110990 7.112992 0.000000
270.675720 157.579570 7.146117 0.000000
262.405910 159.046310 6.983172 0.000000
262.824310 159.458420 7.015213 0.000000
263.115780 159.906890 7.036761 0.000000
263.394410 160.355730 7.056724 0.000000
263.662480 160.805040 7.075281 0.000000
264.635470 160.952730 7.148492 0.000000
258.756440 136.650480 6.940324 0.000000
258.858830 136.681960 7.707616 0.000000
258.740570 136.623780 8.463638 0.000000
259.496490 136.284620 8.468644 0.000000
256.925930 136.564270 9.232964 0.000000
265.205900 136.513090 9.194804 0.000000
261.097320 136.959300 9.217339 0.000000
257.322780 137.389860 9.240761 0.000000
264.461790 137.844800 9.211449 0.000000
261.014160 139.335160 9.245496 0.000000
261.335630 140.024290 9.252465 0.000000
261.101900 140.523120 9.260181 0.000000
248.922350 138.358180 9.298797 0.000000
268.925600 138.414030 9.740704 0.000000
269.654360 138.312230 9.723822 0.000000
248.709110 139.089720 9.310284 0.000000
246.571880 139.372700 9.326776 0.000000
258.136350 138.964600 10.011984 0.000000
260.439090 139.125430 9.953110 0.000000
270.545590 139.239260 10.205846 0.000000
259.925080 140.149460 9.972618 0.000000
260.487180 140.903920 9.963086 0.000000
249.043760 139.159290 10.254849 0.000000
249.352780 140.007520 10.254351 0.000000
270.033110 136.541560 10.805172 0.000000
259.143490 138.037250 10.723667 0.000000
259.315730 138.724550 10.714003 0.000000
259.613160 139.438710 10.699133 0.000000
257.966030 140.161610 10.777040 0.000000
257.985930 140.789250 10.777276 0.000000
259.338230 136.827100 11.469269 0.000000
260.354460 136.613330 11.405981 0.000000
259.509000 137.533340 11.449076 0.000000
258.702580 137.864700 11.498866 0.000000
247.106540 138.654660 11.292758 0.000000
258.746370 138.515840 11.489539 0.000000
247.304050 139.512470 11.286745 0.000000
258.521480 139.069240 11.500054 0.000000
260.015810 140.156450 11.391091 0.000000
259.484310 141.184970 11.422638 0.000000
259.415220 141.755430 11.425963 0.000000
269.509670 136.201170 11.964117 0.000000
269.590210 137.768170 11.881962 0.000000
263.088130 138.348140 11.866066 0.000000
255.518140 139.438840 11.702314 0.000000
263.586980 139.105960 11.807313 0.000000
258.738710 139.129840 12.231597 0.000000
248.539730 139.786790 12.184149 0.000000
259.232940 139.903240 12.177201 0.000000
247.609800 140.363980 12.249366 0.000000
258.487850 140.290630 12.239218 0.000000
260.508450 139.702060 12.775322 0.000000
259.329470 139.922330 12.900298 0.000000
259.146030 140.471070 12.910643 0.000000
256.598600 136.382600 13.280733 0.000000
248.130330 138.083850 13.192165 0.000000
247.143330 138.632840 13.276935 0.000000
259.767940 138.225970 13.628796 0.000000
260.022740 138.929410 13.573330 0.000000
247.214200 139.459880 13.265329 0.000000
258.977870 139.186900 13.701616 0.000000
257.841430 136.184920 13.948094 0.000000
246.952820 137.747860 14.308696 0.000000
247.421310 137.860140 15.256411 0.000000
254.620880 154.968670 6.315157 0.000000
254.886020 155.595670 6.342451 0.000000
262.728000 140.719310 6.618257 0.000000
261.031310 141.373730 6.511692 0.000000
262.258000 141.142430 6.598193 0.000000
261.760930 142.136230 6.596057 0.000000
262.220580 142.803910 6.655363 0.000000
262.274960 143.363450 6.678609 0.000000
262.169130 143.885560 6.687420 0.000000
261.995450 144.395740 6.689891 0.000000
261.522800 144.861070 6.666752 0.000000
257.339230 145.431780 6.351422 0.000000
259.394530 145.105410 6.505340 0.000000
268.844910 145.201110 6.734055 0.000000
268.709530 145.597520 6.734623 0.000000
257.506040 146.064700 6.381873 0.000000
268.871430 146.043550 6.766210 0.000000
268.963840 146.471620 6.789556 0.000000
258.018040 146.720060 6.439697 0.000000
269.203460 146.912520 6.827573 0.000000
258.549900 147.356930 6.497953 0.000000
269.335510 147.331760 6.853410 0.000000
259.065860 147.972790 6.553755 0.000000
268.989290 148.108840 6.839536 0.000000
269.124600 148.521270 6.863675 0.000000
268.760410 153.007420 6.897948 0.000000
268.285860 153.498840 6.853373 0.000000
267.623110 154.042660 6.789485 0.000000
267.184970 154.569490 6.747461 0.000000
266.628420 155.140370 6.693009 0.000000
257.208860 155.856120 6.528421 0.000000
266.838440 155.558400 6.714330 0.000000
268.326600 155.654390 6.862408 0.000000
259.131740 156.114110 6.682074 0.000000
269.185790 155.867190 6.947161 0.000000
269.983060 156.069560 7.025182 0.000000
259.560520 156.622480 6.719171 0.000000
259.979950 157.121700 6.754814 0.000000
260.381810 157.614610 6.788388 0.000000
261.024930 158.033260 6.839852 0.000000
261.427610 158.501970 6.872116 0.000000
261.879580 158.946200 6.907520 0.000000
266.005000 136.396060 6.673277 0.000000
265.608980 136.772370 6.662805 0.000000
266.316650 137.672880 6.758036 0.000000
265.301060 138.321170 6.712725 0.000000
265.381230 138.902980 6.744818 0.000000
264.042790 139.486130 6.668895 0.000000
265.258910 139.395750 6.757174 0.000000
263.858400 139.974580 6.675186 0.000000
263.611420 140.443100 6.675282 0.000000
270.133760 145.053070 6.857655 0.000000
270.351260 156.376940 7.059828 0.000000
270.516570 156.740460 7.073628 0.000000
263.317570 159.059940 7.018152 0.000000
263.609890 159.517750 7.040035 0.000000
263.883360 159.977650 7.059868 0.000000
264.170380 160.428570 7.080158 0.000000
264.446260 160.879940 7.099009 0.000000
265.443910 161.022420 7.173048 0.000000
258.841920 136.238110 6.922793 0.000000
261.672210 144.326810 7.339864 0.000000
258.979460 136.283250 7.713988 0.000000
259.117740 136.328800 8.497429 0.000000
250.009660 138.358990 8.406689 0.000000
256.357120 138.037510 8.491299 0.000000
259.234410 136.365660 9.273865 0.000000
265.148830 136.514130 9.242300 0.000000
264.397250 136.739650 9.248599 0.000000
259.501500 137.132600 9.281088 0.000000
260.462860 138.757030 9.294696 0.000000
261.199100 139.613130 9.300775 0.000000
261.154210 140.192830 9.308560 0.000000
260.932040 140.716490 9.316985 0.000000
260.057010 141.065750 9.327612 0.000000
256.709110 136.757060 9.293672 0.000000
246.290180 139.036530 9.392975 0.000000
263.592960 136.353180 9.936023 0.000000
265.007320 136.436390 9.900685 0.000000
260.243230 138.670010 10.030748 0.000000
258.005040 139.208880 10.094739 0.000000
260.530400 139.383070 10.026969 0.000000
270.602330 139.178960 10.285425 0.000000
260.090000 140.461350 10.046226 0.000000
268.706210 136.146960 10.402287 0.000000
248.600940 138.757580 10.351925 0.000000
269.572880 136.644490 10.928976 0.000000
270.297450 136.552630 10.887188 0.000000
259.228610 138.306150 10.816210 0.000000
260.262880 139.284390 10.765472 0.000000
260.172000 139.867540 10.769657 0.000000
258.059660 140.500560 10.873147 0.000000
260.171570 140.473830 10.770150 0.000000
258.022000 141.125090 10.876854 0.000000
263.646090 139.274810 11.267988 0.000000
260.478880 136.841670 11.509936 0.000000
259.417940 137.068100 11.578032 0.000000
258.728970 138.121000 11.613567 0.000000
269.085140 137.916950 11.498564 0.000000
258.744350 138.773990 11.607028 0.000000
247.224690 139.222380 11.401669 0.000000
260.128390 139.842970 11.504166 0.000000
259.886410 140.379710 11.518007 0.000000
259.385890 141.458340 11.549504 0.000000
263.656680 139.269200 11.932453 0.000000
254.954160 139.643950 11.865379 0.000000
248.276500 139.453060 12.336016 0.000000
259.244900 139.557890 12.321995 0.000000
258.027770 140.467670 12.422516 0.000000
259.275300 140.190480 12.311790 0.000000
260.812160 139.432660 12.908691 0.000000
258.550570 139.330870 13.161516 0.000000
259.220860 140.163010 13.071671 0.000000
247.905580 138.534230 13.364100 0.000000
260.181490 138.594440 13.745514 0.000000
258.576540 139.327160 13.935972 0.000000
259.760380 139.074770 13.786544 0.000000
247.064010 137.466080 14.478536 0.000000
246.925700 139.102750 14.473576 0.000000
245.920200 136.270020 15.691214 0.000000
254.425170 155.121370 6.298217 0.000000
255.621570 155.623210 6.396039 0.000000
265.544560 136.228990 6.616815 0.000000
262.705840 140.963330 6.611559 0.000000
263.474670 140.621220 6.656516 0.000000
261.419860 141.189480 6.522422 0.000000
261.100980 141.700640 6.516614 0.000000
262.510800 142.619600 6.656591 0.000000
262.573520 143.194090 6.680892 0.000000
262.552610 143.745790 6.697381 0.000000
262.369480 144.265620 6.699720 0.000000
259.998870 145.031170 6.539050 0.000000
262.037480 144.764890 6.689292 0.000000
257.407530 145.298750 6.345264 0.000000
269.937290 145.198750 6.793762 0.000000
269.373470 145.517820 6.749468 0.000000
257.584590 145.949390 6.376714 0.000000
269.541630 145.971040 6.781642 0.000000
258.077090 146.619340 6.432538 0.000000
269.608370 146.401540 6.802361 0.000000
269.858310 146.850190 6.841237 0.000000
258.645780 147.275450 6.493254 0.000000
269.996060 147.276290 6.867627 0.000000
270.132630 147.695910 6.893086 0.000000
259.196780 147.909120 6.551348 0.000000
269.636470 148.064850 6.853306 0.000000
269.777710 148.483960 6.877975 0.000000
269.414340 153.039380 6.914029 0.000000
268.906740 153.542480 6.867052 0.000000
268.213100 154.098880 6.801290 0.000000
267.753360 154.637600 6.757915 0.000000
267.170010 155.222340 6.701793 0.000000
267.702850 155.574550 6.754405 0.000000
269.030610 155.713030 6.884244 0.000000
257.592930 155.949980 6.551494 0.000000
259.447850 156.232190 6.696854 0.000000
270.112460 155.871930 6.989368 0.000000
259.898350 156.748570 6.734958 0.000000
260.350010 157.252700 6.772395 0.000000
260.828190 157.738460 6.811100 0.000000
261.407200 158.184740 6.856689 0.000000
261.930820 158.630690 6.897407 0.000000
262.404390 159.078000 6.933685 0.000000
263.789280 159.218150 7.037902 0.000000
264.088130 159.684220 7.059773 0.000000
264.373960 160.150100 7.080058 0.000000
258.831360 136.499860 6.946046 0.000000
266.489720 137.263490 6.734349 0.000000
265.791530 138.082240 6.721685 0.000000
266.786530 137.958650 6.788447 0.000000
264.611970 139.307630 6.688406 0.000000
265.889710 139.231950 6.779842 0.000000
264.417940 139.801420 6.694509 0.000000
264.213530 140.292600 6.699124 0.000000
264.674010 160.606460 7.100814 0.000000
264.962100 161.063190 7.120077 0.000000
261.607510 144.118270 7.337784 0.000000
258.930050 136.526170 7.753669 0.000000
259.040530 136.557140 8.555659 0.000000
256.669560 137.792050 8.549822 0.000000
261.566350 144.086750 8.734882 0.000000
264.973300 136.516720 9.307986 0.000000
265.534730 136.188340 9.300721 0.000000
259.816280 137.508760 9.357769 0.000000
264.791660 137.618100 9.321016 0.000000
260.816830 139.138400 9.370009 0.000000
261.111080 139.849530 9.376818 0.000000
261.022000 140.431840 9.385303 0.000000
257.437130 137.337590 9.374477 0.000000
247.098130 138.123760 9.470514 0.000000
246.069640 138.733510 9.488102 0.000000
246.866320 139.766920 9.496493 0.000000
264.918300 136.481660 9.987557 0.000000
260.465940 139.011840 10.120878 0.000000
260.633730 139.690640 10.120318 0.000000
259.788820 140.062770 10.147591 0.000000
268.934600 136.229220 10.487009 0.000000
270.715000 139.196980 10.375042 0.000000
257.388240 140.038790 10.217936 0.000000
269.823390 136.718050 11.025001 0.000000
270.529140 136.591050 10.983337 0.000000
258.762760 137.773730 10.957222 0.000000
248.387310 138.432250 10.470494 0.000000
247.388730 139.024630 10.505707 0.000000
260.269170 138.935640 10.881189 0.000000
260.230260 139.554240 10.882946 0.000000
258.032100 140.200500 10.994324 0.000000
260.122560 140.147580 10.888816 0.000000
269.595950 139.647990 10.984344 0.000000
247.786580 140.772110 10.511892 0.000000
258.224980 140.902740 10.986648 0.000000
258.672360 137.065220 10.963395 0.000000
263.588810 138.861950 11.406405 0.000000
269.674740 136.086880 11.644321 0.000000
260.781710 137.185560 11.619313 0.000000
269.487580 137.582400 11.610772 0.000000
258.999630 137.844130 11.736053 0.000000
258.762600 138.428620 11.747787 0.000000
247.297500 138.986210 11.536102 0.000000
258.776430 139.092350 11.742212 0.000000
246.656280 139.686780 11.572631 0.000000
260.039340 140.111450 11.646864 0.000000
259.792080 140.666030 11.662322 0.000000
259.302000 141.786670 11.695645 0.000000
248.680980 140.107390 12.466351 0.000000
259.235990 139.865680 12.479943 0.000000
259.289920 140.517120 12.468480 0.000000
258.651250 139.682950 13.327234 0.000000
260.966800 139.747300 13.063828 0.000000
258.431090 140.270580 13.342981 0.000000
258.028780 136.093670 13.477636 0.000000
248.156250 138.324040 13.523428 0.000000
247.707630 139.048360 13.560915 0.000000
260.056060 138.176880 13.975173 0.000000
259.261780 139.205890 14.051958 0.000000
254.393830 155.242260 6.286742 0.000000
256.413360 155.634170 6.444421 0.000000
265.123290 139.663670 6.718616 0.000000
264.910740 140.158620 6.723109 0.000000
264.356900 140.550380 6.697736 0.000000
261.922420 141.021480 6.534774 0.000000
263.316500 140.816880 6.630882 0.000000
261.590210 141.539150 6.528697 0.000000
262.948060 142.456680 6.662736 0.000000
263.014280 143.042940 6.687644 0.000000
263.073270 143.621120 6.711098 0.000000
262.873600 144.147280 6.712680 0.000000
260.613430 144.946750 6.564897 0.000000
262.585600 144.663020 6.706606 0.000000
257.929380 145.209370 6.367669 0.000000
257.784790 145.834880 6.373643 0.000000
270.039340 145.430970 6.757438 0.000000
270.281130 145.902630 6.797218 0.000000
258.280300 146.519990 6.429421 0.000000
270.340880 146.337450 6.817325 0.000000
270.599330 146.792600 6.856905 0.000000
258.884520 147.193440 6.492505 0.000000
270.741670 147.224460 6.883744 0.000000
259.469150 147.843060 6.552802 0.000000
270.369050 148.022110 6.868966 0.000000
270.515050 148.446790 6.894068 0.000000
270.146060 153.059770 6.931323 0.000000
269.619350 153.571010 6.883300 0.000000
268.998110 154.120130 6.825602 0.000000
268.421390 154.685730 6.771642 0.000000
267.813350 155.282000 6.714037 0.000000
268.606350 155.581650 6.791031 0.000000
258.136750 156.009320 6.578659 0.000000
269.878230 155.736880 6.913566 0.000000
259.874540 156.323610 6.712749 0.000000
260.354030 156.844970 6.752456 0.000000
260.908630 157.336120 6.796953 0.000000
261.403690 157.826540 6.836289 0.000000
262.012210 158.273570 6.883280 0.000000
262.558200 158.721270 6.924942 0.000000
263.050990 159.170490 6.961998 0.000000
264.346310 159.347490 7.057624 0.000000
264.656860 159.818770 7.079947 0.000000
264.953610 160.289810 7.100637 0.000000
265.265080 160.750760 7.121809 0.000000
266.602570 136.808030 6.698486 0.000000
266.434840 137.891680 6.736918 0.000000
267.471710 137.778900 6.805714 0.000000
266.350190 138.425320 6.754797 0.000000
256.378970 138.055740 8.604606 0.000000
264.717040 136.505710 9.371410 0.000000
265.450290 136.228560 9.362184 0.000000
263.421630 136.563390 9.383399 0.000000
264.201930 137.510710 9.387037 0.000000
260.868160 139.428670 9.441710 0.000000
260.946290 140.083850 9.449694 0.000000
260.843630 140.680730 9.458880 0.000000
260.148590 141.126020 9.472026 0.000000
258.421390 137.986340 9.446430 0.000000
245.873600 138.414180 9.575460 0.000000
246.457050 139.424670 9.584550 0.000000
260.522090 139.309370 10.211489 0.000000
260.415340 140.552000 10.224020 0.000000
269.155270 136.314190 10.570223 0.000000
258.759800 139.436810 10.266319 0.000000
257.969940 140.562380 10.299947 0.000000
259.415800 138.287260 11.037333 0.000000
248.850340 139.093430 10.570832 0.000000
260.986360 139.440730 10.956607 0.000000
260.123750 139.820100 11.001372 0.000000
260.072810 140.446230 11.005210 0.000000
270.464720 141.452300 11.020309 0.000000
258.721410 137.370610 11.073887 0.000000
258.177120 140.601170 11.104548 0.000000
260.825290 136.099640 11.760910 0.000000
269.551150 137.593320 11.740320 0.000000
269.365840 138.033800 11.744279 0.000000
247.461210 138.750110 11.658808 0.000000
247.317920 139.574370 11.670677 0.000000
258.952030 138.121830 11.872349 0.000000
258.951900 138.797710 11.867682 0.000000
258.914730 139.455570 11.866782 0.000000
257.896700 139.841050 11.939498 0.000000
260.511720 138.622960 12.534209 0.000000
269.972350 141.254010 12.751625 0.000000
247.776960 137.950200 12.686494 0.000000
247.280990 138.689930 12.722281 0.000000
248.306870 139.770740 12.646769 0.000000
258.473750 139.984680 12.708918 0.000000
248.421860 140.626920 12.639864 0.000000
258.626370 140.687960 12.688794 0.000000
261.124300 140.073850 13.217228 0.000000
259.133700 138.828030 13.468071 0.000000
247.532990 137.852840 14.821987 0.000000
247.720020 137.882580 15.861904 0.000000
258.040100 154.985780 6.425603 0.000000
258.480530 155.596940 6.465341 0.000000
268.536380 136.131840 6.679203 0.000000
265.074490 141.287690 6.647662 0.000000
266.663640 141.159760 6.761269 0.000000
264.540800 141.734100 6.623922 0.000000
266.214900 142.707350 6.783797 0.000000
266.322110 143.279660 6.811341 0.000000
266.214690 143.802060 6.820407 0.000000
265.930940 144.293330 6.814510 0.000000
265.523930 144.771800 6.798242 0.000000
260.441410 145.235090 6.424048 0.000000
263.413600 145.020630 6.644839 0.000000
260.915070 145.917770 6.478869 0.000000
261.522280 146.593220 6.543007 0.000000
262.109500 147.243960 6.604289 0.000000
262.677610 147.871580 6.662854 0.000000
270.638980 155.077450 6.809590 0.000000
270.523220 155.571880 6.798829 0.000000
260.777340 155.870290 6.642377 0.000000
263.084320 156.062820 6.818790 0.000000
263.631500 156.548420 6.863423 0.000000
264.162660 157.022110 6.906107 0.000000
264.635860 157.495380 6.943774 0.000000
265.150390 157.945100 6.983795 0.000000
265.404910 158.455340 7.003924 0.000000
265.720670 158.943050 7.027932 0.000000
258.485720 136.616710 6.852228 0.000000
269.424500 137.141100 6.790303 0.000000
270.202820 138.054120 6.888469 0.000000
269.322140 138.219280 6.833157 0.000000
269.400450 138.801440 6.864939 0.000000
268.604250 139.585370 6.841165 0.000000
269.614530 139.424940 6.907768 0.000000
268.554600 140.110890 6.859458 0.000000
267.177490 140.756230 6.783871 0.000000
267.189850 159.051100 7.136488 0.000000
267.580690 159.479160 7.164794 0.000000
267.950470 159.906280 7.190953 0.000000
268.337710 160.319170 7.217822 0.000000
268.705290 160.731900 7.242672 0.000000
270.005070 160.742720 7.336104 0.000000
261.617650 144.135360 7.249183 0.000000
258.700680 136.677440 7.733114 0.000000
259.600310 136.256200 8.601022 0.000000
249.626910 137.945370 8.521655 0.000000
256.925050 137.565250 8.596556 0.000000
265.173980 136.408550 9.402591 0.000000
264.236790 136.662230 9.413743 0.000000
264.911590 137.568190 9.418189 0.000000
260.898250 140.110640 9.488903 0.000000
260.786560 140.740070 9.498900 0.000000
259.372010 136.159270 9.451933 0.000000
261.266050 137.540700 9.451405 0.000000
258.423100 138.012850 9.484350 0.000000
246.110630 138.884050 9.617890 0.000000
246.730770 139.916850 9.627389 0.000000
260.825990 139.425960 9.480177 0.000000
260.156370 141.246730 9.512504 0.000000
268.682830 136.736910 10.702480 0.000000
260.307070 139.262390 10.298057 0.000000
259.629820 139.753630 10.322754 0.000000
257.981840 140.724350 10.382644 0.000000
260.533570 140.662830 10.302629 0.000000
262.797550 136.726780 10.990773 0.000000
247.516920 139.167980 10.694523 0.000000
270.042080 136.805850 11.274529 0.000000
269.239200 137.557680 11.315855 0.000000
258.707460 138.072880 11.195375 0.000000
260.253690 139.233540 11.116832 0.000000
260.096280 139.866490 11.126249 0.000000
260.011870 140.517460 11.132664 0.000000
259.673830 141.106170 11.152846 0.000000
259.942930 136.329420 11.980215 0.000000
259.940830 138.440810 11.962871 0.000000
247.810700 139.212690 11.767130 0.000000
247.689940 140.068210 11.779025 0.000000
257.578400 139.887700 12.129444 0.000000
269.067350 140.199140 12.558298 0.000000
247.667140 138.274510 12.860993 0.000000
258.531400 139.413390 12.917811 0.000000
247.675230 140.046420 12.862649 0.000000
259.183990 140.280060 12.849195 0.000000
259.078120 140.938140 12.855216 0.000000
263.172520 136.836360 13.305201 0.000000
246.705520 138.954900 12.932516 0.000000
258.510500 139.393390 13.781092 0.000000
261.365600 154.765840 6.546331 0.000000
260.510380 155.557310 6.489192 0.000000
246.919450 137.715820 6.185109 0.000000
267.903960 141.479800 6.739039 0.000000
263.392000 145.320330 6.521228 0.000000
266.050320 145.078480 6.717328 0.000000
263.999760 146.000240 6.586270 0.000000
264.587340 146.654660 6.648400 0.000000
265.154600 147.285100 6.707684 0.000000
265.442930 147.879300 6.744007 0.000000
263.348420 155.734910 6.706580 0.000000
265.652190 155.917590 6.882731 0.000000
266.646670 156.297970 6.960508 0.000000
267.078950 156.775650 6.995794 0.000000
267.449100 157.257450 7.025788 0.000000
268.031680 157.673690 7.070818 0.000000
268.375490 158.141650 7.097537 0.000000
268.769040 158.587050 7.127297 0.000000
258.325470 136.613460 6.759920 0.000000
270.081790 141.003020 6.882913 0.000000
269.091920 142.341810 6.859201 0.000000
269.314790 142.931030 6.896664 0.000000
269.389680 143.476100 6.920872 0.000000
269.179660 143.958850 6.920899 0.000000
261.589170 144.432370 7.168278 0.000000
268.839750 144.422550 6.909884 0.000000
268.180240 144.844270 6.872692 0.000000
270.067050 158.730300 7.223241 0.000000
270.444150 159.145870 7.250577 0.000000
259.569890 136.241300 8.598636 0.000000
249.790160 138.345890 8.529504 0.000000
264.349670 136.547360 9.449871 0.000000
259.372860 136.158860 9.490830 0.000000
248.154770 137.945510 9.623782 0.000000
261.262880 137.532060 9.490599 0.000000
259.901030 137.821010 9.507301 0.000000
246.381040 139.422200 9.663883 0.000000
260.880580 139.533400 9.521189 0.000000
260.856260 140.222270 9.531199 0.000000
260.171600 141.447970 9.556074 0.000000
260.280980 139.356870 10.381292 0.000000
270.729310 139.541200 10.704353 0.000000
259.658420 139.905820 10.405303 0.000000
257.936610 140.214400 10.461773 0.000000
258.007230 140.966740 10.467198 0.000000
269.358830 136.693420 10.786274 0.000000
269.853580 137.504000 10.756865 0.000000
249.121220 139.942960 10.735457 0.000000
249.859210 140.961090 10.723997 0.000000
258.697140 137.420410 11.317909 0.000000
269.139530 137.782380 11.476802 0.000000
260.263120 139.337750 11.239935 0.000000
260.048160 139.989700 11.253178 0.000000
259.369630 140.534740 11.291018 0.000000
259.499850 141.273570 11.288133 0.000000
259.325130 141.942080 11.301703 0.000000
262.742550 137.977800 11.927614 0.000000
258.433720 140.300230 12.232862 0.000000
270.177060 140.938710 12.662448 0.000000
260.791870 139.452970 12.911954 0.000000
247.228620 138.603650 13.060856 0.000000
247.618710 139.606980 13.033945 0.000000
258.565160 139.584660 13.121367 0.000000
258.515900 140.304240 13.121664 0.000000
258.438780 141.013630 13.126019 0.000000
256.219730 136.623150 13.370939 0.000000
247.561570 137.709790 15.324846 0.000000
247.732120 138.653580 16.440804 0.000000
247.389210 136.712270 16.517776 0.000000
262.926670 154.675800 6.595397 0.000000
261.645360 155.524960 6.506550 0.000000
246.898100 136.497890 6.098377 0.000000
248.247620 137.777590 6.209575 0.000000
264.911710 145.368520 6.568034 0.000000
267.333560 145.101720 6.745285 0.000000
265.509610 146.038350 6.632160 0.000000
266.087740 146.683060 6.693420 0.000000
266.490600 147.293240 6.739688 0.000000
266.776580 147.881620 6.775796 0.000000
264.595490 155.680240 6.732232 0.000000
266.854950 155.866900 6.905045 0.000000
267.984380 156.215130 6.992848 0.000000
268.412230 156.687900 7.027851 0.000000
268.791470 157.161540 7.058570 0.000000
269.355220 157.576660 7.102251 0.000000
269.695560 158.039810 7.128776 0.000000
258.813660 136.428700 6.731326 0.000000
270.625520 142.456510 6.908567 0.000000
270.590270 144.020870 6.959485 0.000000
261.676390 144.286870 7.120598 0.000000
270.254390 144.478200 6.948660 0.000000
269.486720 144.875630 6.902587 0.000000
270.085110 158.480640 7.158305 0.000000
258.942320 136.455690 7.665026 0.000000
259.082060 136.486430 8.591637 0.000000
249.788330 138.097080 8.518740 0.000000
259.135530 136.489040 9.511805 0.000000
263.695710 136.594920 9.470618 0.000000
259.455660 137.357060 9.520294 0.000000
258.417180 137.811650 9.536487 0.000000
263.908140 137.366580 9.478345 0.000000
246.287400 139.192310 9.677361 0.000000
247.329710 140.334060 9.684893 0.000000
260.210140 141.223940 9.568461 0.000000
270.707060 139.154720 10.099821 0.000000
262.010470 136.694520 10.346282 0.000000
260.346160 139.809220 10.420179 0.000000
259.161990 140.249770 10.461275 0.000000
257.985110 140.729450 10.503079 0.000000
269.282500 136.809780 10.843204 0.000000
247.196040 139.350740 10.827238 0.000000
249.623380 140.724460 10.766777 0.000000
263.611630 139.287340 11.124337 0.000000
260.155670 139.746170 11.305152 0.000000
270.287750 139.547700 11.452789 0.000000
259.937320 140.415790 11.319572 0.000000
270.660340 140.231340 11.420652 0.000000
259.516660 141.043870 11.345209 0.000000
259.419530 141.745830 11.355041 0.000000
269.496890 137.498600 11.530910 0.000000
269.114140 137.949370 11.552130 0.000000
259.286040 140.247820 12.250422 0.000000
270.163480 141.154400 12.781658 0.000000
260.871400 139.897400 13.002144 0.000000
259.585570 138.089610 13.139048 0.000000
247.056640 138.334630 13.153923 0.000000
247.039260 139.278720 13.157363 0.000000
259.131200 140.195910 13.165720 0.000000
247.876220 137.532120 15.413408 0.000000
245.978390 139.026440 15.624351 0.000000
248.349910 138.554060 16.502407 0.000000
247.977110 136.590710 16.583427 0.000000
245.820370 140.738270 6.079824 0.000000
245.830950 144.659550 6.180269 0.000000
264.489840 155.331560 6.599416 0.000000
248.167910 138.244350 6.137153 0.000000
252.087300 138.185260 6.346887 0.000000
247.769850 139.129140 6.141137 0.000000
247.422120 140.030640 6.147602 0.000000
247.373170 142.899840 6.221253 0.000000
247.118100 143.822810 6.230450 0.000000
269.809780 145.143490 6.812674 0.000000
267.781620 145.448100 6.666571 0.000000
268.362580 146.098890 6.728989 0.000000
268.726320 146.707790 6.772982 0.000000
269.010830 147.296480 6.809727 0.000000
269.290710 147.873540 6.845184 0.000000
265.764860 154.500660 6.687871 0.000000
266.766970 155.588330 6.774960 0.000000
269.039790 155.767730 6.948801 0.000000
270.469390 156.047210 7.058890 0.000000
258.762540 136.564560 6.653211 0.000000
258.874270 136.582930 7.625442 0.000000
258.980870 136.599840 8.591047 0.000000
256.848630 137.615690 8.587283 0.000000
263.446290 136.507490 9.508743 0.000000
259.009700 136.592830 9.551712 0.000000
259.607090 137.565220 9.559380 0.000000
263.807250 137.356950 9.516454 0.000000
258.447850 138.031600 9.577229 0.000000
247.540890 139.987630 9.716166 0.000000
260.779270 140.158100 9.585516 0.000000
260.054470 140.740430 9.601636 0.000000
260.198730 141.514910 9.612289 0.000000
262.202450 136.816470 10.417220 0.000000
260.262790 140.021560 10.503342 0.000000
257.904510 140.260730 10.579620 0.000000
248.937450 139.275220 10.850510 0.000000
249.295410 140.280980 10.851243 0.000000
263.625920 139.404450 11.241105 0.000000
260.052190 139.956280 11.429935 0.000000
259.848390 140.663680 11.444687 0.000000
259.402070 141.324890 11.472782 0.000000
259.276920 136.643660 11.460564 0.000000
269.312650 137.884060 11.690844 0.000000
247.648910 139.964260 12.085735 0.000000
258.591220 136.415500 12.469347 0.000000
247.402440 138.929500 13.289003 0.000000
258.691620 139.604230 13.409438 0.000000
257.832120 136.164000 13.519927 0.000000
270.254210 136.329930 13.863063 0.000000
246.855870 140.739460 6.102941 0.000000
245.880660 141.587310 6.072526 0.000000
247.049700 144.674220 6.213464 0.000000
265.736970 155.284300 6.633007 0.000000
245.840150 159.404210 6.414272 0.000000
246.733180 160.246460 6.472722 0.000000
247.600800 161.068500 6.528811 0.000000
251.933110 136.985210 6.268485 0.000000
249.249970 138.257220 6.162658 0.000000
253.203160 138.206790 6.373456 0.000000
248.755050 139.121550 6.160886 0.000000
248.300080 140.004260 6.161067 0.000000
248.378910 142.895660 6.242081 0.000000
248.247440 143.831670 6.258344 0.000000
269.033750 145.470470 6.701658 0.000000
269.561280 146.110990 6.759526 0.000000
269.854130 146.710020 6.797710 0.000000
270.142150 147.296630 6.834560 0.000000
270.425420 147.871490 6.870112 0.000000
267.009000 154.457960 6.721004 0.000000
267.709660 155.589720 6.785324 0.000000
270.129300 155.741320 6.969423 0.000000
258.809690 136.265550 6.611165 0.000000
258.957820 136.294710 7.606538 0.000000
259.147280 136.336730 8.594400 0.000000
249.762770 138.325740 8.530438 0.000000
256.380920 138.064800 8.598357 0.000000
259.344180 137.193210 9.584235 0.000000
258.458130 137.757400 9.601019 0.000000
259.927920 140.491150 9.626639 0.000000
260.264830 141.323940 9.636137 0.000000
246.419010 139.603530 9.752645 0.000000
270.545650 139.217120 10.225911 0.000000
246.809770 140.665390 9.765896 0.000000
260.281280 139.013210 10.541523 0.000000
259.358000 140.351810 10.584043 0.000000
258.004610 140.861560 10.632650 0.000000
249.054350 140.053540 10.908090 0.000000
263.639800 139.129380 11.308008 0.000000
269.339360 138.161190 11.772284 0.000000
258.748600 138.609830 11.562178 0.000000
259.854890 140.442230 11.513163 0.000000
259.414670 141.122770 11.541155 0.000000
263.230650 138.273030 12.213036 0.000000
259.284730 140.302310 12.501307 0.000000
259.604340 138.001970 13.445963 0.000000
247.481670 138.742550 13.377737 0.000000
249.050050 140.732470 6.159997 0.000000
248.209790 141.594310 6.135578 0.000000
247.278460 157.408810 6.369231 0.000000
248.279940 158.263470 6.433380 0.000000
249.236660 159.095580 6.494102 0.000000
258.791690 136.482190 6.566134 0.000000
254.260990 137.038220 6.341607 0.000000
255.261260 138.190320 6.427566 0.000000
250.842480 139.104050 6.215069 0.000000
250.467030 139.997850 6.218049 0.000000
250.615480 143.829680 6.318459 0.000000
249.756450 144.694120 6.290880 0.000000
270.086180 154.254260 6.818746 0.000000
268.904630 155.045010 6.735729 0.000000
269.567410 155.558460 6.789612 0.000000
250.086270 159.919880 6.548217 0.000000
250.927120 160.721830 6.600912 0.000000
261.666990 144.260730 6.929232 0.000000
258.915890 136.502940 7.599484 0.000000
259.054960 136.528080 8.625922 0.000000
256.855190 137.657650 8.622030 0.000000
261.075040 137.098180 9.633191 0.000000
263.706360 137.094540 9.606988 0.000000
260.815000 137.835330 9.644665 0.000000
260.200960 140.893600 9.690556 0.000000
246.310790 139.196590 9.812606 0.000000
246.619170 140.281850 9.824815 0.000000
268.883210 136.633410 10.367922 0.000000
259.560390 140.751720 10.683847 0.000000
258.024540 136.199200 10.697631 0.000000
268.660740 137.921620 11.191897 0.000000
263.546140 138.547670 11.456345 0.000000
246.932740 139.287830 11.072696 0.000000
258.984920 138.979310 11.696898 0.000000
259.725950 140.768910 11.664932 0.000000
259.284970 141.489000 11.692665 0.000000
260.847230 138.604160 12.572634 0.000000
263.835110 138.612520 12.352690 0.000000
259.180660 140.645250 12.694011 0.000000
251.443530 140.769580 6.222278 0.000000
250.821520 141.652590 6.206673 0.000000
248.155140 145.349410 6.130246 0.000000
248.944780 146.403520 6.191557 0.000000
256.844120 137.173970 6.432235 0.000000
253.598750 138.281680 6.283953 0.000000
257.479370 138.227720 6.492265 0.000000
253.241760 139.162380 6.284890 0.000000
252.996800 140.069410 6.291786 0.000000
253.542800 142.969850 6.381836 0.000000
253.572830 143.898480 6.401365 0.000000
252.674440 144.739610 6.367644 0.000000
251.568650 157.018940 6.468068 0.000000
253.388320 157.702120 6.572781 0.000000
254.899350 158.379180 6.659906 0.000000
256.177760 159.052220 6.733656 0.000000
257.396030 159.697660 6.803303 0.000000
258.558720 160.317890 6.869153 0.000000
259.768520 160.890660 6.936686 0.000000
263.211210 160.831850 7.121334 0.000000
259.808410 136.171280 8.659167 0.000000
256.506930 137.975660 8.647244 0.000000
261.229980 137.411060 9.701189 0.000000
259.511630 137.809220 9.721381 0.000000
260.418820 138.877210 9.722123 0.000000
260.060520 140.465090 9.740942 0.000000
246.838460 138.923460 9.858466 0.000000
269.141910 137.452040 10.468831 0.000000
257.871550 140.020650 10.825529 0.000000
263.041380 137.880130 11.624314 0.000000
258.895230 139.356770 11.839289 0.000000
259.027530 137.651260 12.891039 0.000000
261.553040 136.988140 6.582567 0.000000
261.646550 137.871960 6.607910 0.000000
258.118650 138.808870 6.434206 0.000000
261.640140 138.721420 6.626368 0.000000
257.388280 140.476200 6.427603 0.000000
255.795680 141.123720 6.351553 0.000000
258.038820 142.370650 6.499355 0.000000
258.483120 143.308380 6.540685 0.000000
258.362270 144.165890 6.548416 0.000000
256.820530 144.897030 6.473958 0.000000
252.873760 145.506300 6.262250 0.000000
253.603000 146.506770 6.317755 0.000000
257.051450 156.463410 6.611836 0.000000
258.390170 157.157040 6.690193 0.000000
259.782840 157.798200 6.770620 0.000000
261.268490 158.376570 6.855287 0.000000
262.795620 158.898060 6.941417 0.000000
263.864620 159.474670 7.001796 0.000000
264.772920 160.058120 7.052741 0.000000
268.179930 159.950530 7.239291 0.000000
269.314120 160.369250 7.301319 0.000000
270.301090 160.797060 7.354791 0.000000
258.915190 136.265590 7.525973 0.000000
259.131930 136.314970 8.631802 0.000000
256.873290 137.589370 8.618728 0.000000
261.086490 136.835300 9.715158 0.000000
261.929750 137.916430 9.714680 0.000000
260.295040 140.965090 9.751230 0.000000
269.471680 137.655460 10.520967 0.000000
260.120090 140.064850 10.803464 0.000000
270.696080 140.113770 11.318037 0.000000
259.318660 139.886370 12.983529 0.000000
265.196040 137.476530 6.704400 0.000000
261.486330 139.139420 6.534179 0.000000
261.237490 139.964450 6.536670 0.000000
258.875460 141.325870 6.429907 0.000000
261.326320 142.578280 6.589590 0.000000
261.808070 143.494350 6.632120 0.000000
261.692750 144.325990 6.638987 0.000000
259.615230 144.983990 6.531790 0.000000
255.915040 145.596570 6.331586 0.000000
256.942170 146.591310 6.403413 0.000000
260.271420 156.271970 6.681769 0.000000
262.043400 156.872060 6.784128 0.000000
263.873840 157.403180 6.888837 0.000000
265.170170 138.296230 6.721058 0.000000
265.641780 139.225310 6.767016 0.000000
265.085210 157.992890 6.958461 0.000000
265.963200 158.614530 7.008947 0.000000
267.218930 159.123320 7.079656 0.000000
268.591550 159.563170 7.156193 0.000000
258.637540 136.647640 7.470443 0.000000
256.367460 138.023500 8.601017 0.000000
260.687710 137.145490 9.745333 0.000000
261.309690 138.192050 9.746382 0.000000
260.123140 139.708740 10.864267 0.000000
263.735720 138.740980 11.781864 0.000000
259.231480 138.600850 13.137830 0.000000
263.581050 136.978260 14.934420 0.000000
255.588930 145.442180 6.314602 0.000000
264.715790 136.860150 6.648905 0.000000
265.827910 138.006900 6.734737 0.000000
261.901310 138.841020 6.541174 0.000000
266.462980 138.994230 6.790731 0.000000
261.607450 139.682040 6.542593 0.000000
261.001530 140.472170 6.525384 0.000000
259.167790 141.082750 6.437244 0.000000
261.138670 142.292480 6.566956 0.000000
262.074490 143.299420 6.635826 0.000000
261.858550 144.147140 6.638281 0.000000
260.314760 144.881710 6.565449 0.000000
256.441350 146.463970 6.376325 0.000000
260.486330 156.483830 6.699612 0.000000
262.437470 157.082980 6.809326 0.000000
264.423310 157.611010 6.919916 0.000000
265.456700 158.256970 6.978582 0.000000
266.582730 158.851490 7.041469 0.000000
268.022340 159.338840 7.120408 0.000000
269.496030 159.771150 7.200481 0.000000
258.901310 136.261220 7.504090 0.000000
259.139370 136.310350 8.686217 0.000000
256.757630 137.719010 8.675860 0.000000
249.684880 138.437590 8.604135 0.000000
260.036830 140.267580 9.878792 0.000000
260.225620 139.368270 11.005427 0.000000
260.019710 140.253390 11.015291 0.000000
263.560550 139.145510 11.966631 0.000000
259.371340 136.337080 12.194874 0.000000
270.502380 136.804780 15.376255 0.000000
248.855510 145.902620 6.148119 0.000000
254.556090 137.897290 6.281955 0.000000
254.682140 138.976910 6.311735 0.000000
