# .PCD v0.7 - Point Cloud Data file format
VERSION 0.7
FIELDS x y z intensity
SIZE 4 4 4 4
TYPE F F F F
COUNT 1 1 1 1
WIDTH 1187
HEIGHT 1
VIEWPOINT 0 0 0 1 0 0 0
POINTS 1187
DATA ascii
264.074620 -38.953392 8.391546 0.000000
268.531100 -50.603519 -0.893741 0.000000
268.453340 -49.606544 -0.859658 0.000000
269.346560 -47.950611 -0.759466 0.000000
269.288240 -47.008858 -0.727838 0.000000
269.430570 -45.956413 -0.683940 0.000000
267.489930 -41.663536 5.255182 0.000000
267.305510 -40.882439 5.246550 0.000000
266.905210 -40.209320 5.257206 0.000000
265.075320 -40.172970 5.386871 0.000000
265.048430 -39.312672 6.381954 0.000000
263.479190 -39.091705 7.568756 0.000000
264.283290 -39.647644 7.499340 0.000000
265.302980 -40.087135 7.402821 0.000000
264.471190 -40.467896 8.556853 0.000000
266.673950 -50.547569 -0.908430 0.000000
268.732120 -48.122803 -0.736249 0.000000
268.699950 -47.154297 -0.705222 0.000000
268.361080 -46.393616 -0.695238 0.000000
267.027070 -40.720367 5.404460 0.000000
267.381010 -42.323776 5.423816 0.000000
267.289950 -41.477493 5.406124 0.000000
264.345670 -39.209473 5.564072 0.000000
266.611660 -40.032379 5.416880 0.000000
264.963750 -40.762897 7.652429 0.000000
265.236450 -39.751984 7.579304 0.000000
263.501370 -39.564247 8.847076 0.000000
268.633910 -50.479042 -0.923780 0.000000
269.565770 -48.824997 -0.823498 0.000000
269.516050 -47.860943 -0.791761 0.000000
269.490690 -46.901405 -0.759732 0.000000
269.703640 -45.821995 -0.713497 0.000000
267.360660 -42.493958 5.446988 0.000000
264.939510 -39.923038 5.563534 0.000000
264.341250 -39.248360 5.594653 0.000000
267.068760 -40.834915 5.427422 0.000000
266.674040 -40.118908 5.440187 0.000000
265.168460 -39.851624 7.658940 0.000000
264.602660 -39.169903 7.700149 0.000000
263.499790 -39.588867 8.939201 0.000000
269.628970 -50.143250 -0.896260 0.000000
269.599430 -49.138527 -0.861475 0.000000
269.563260 -48.158718 -0.828522 0.000000
269.518070 -47.203583 -0.797480 0.000000
270.748960 -44.634125 -0.655238 0.000000
267.308110 -41.828598 5.516427 0.000000
264.806580 -40.100643 5.666335 0.000000
267.118590 -41.008633 5.512554 0.000000
266.709900 -40.279503 5.527989 0.000000
264.749330 -41.066711 7.878920 0.000000
265.030790 -40.038109 7.810889 0.000000
264.596920 -39.284096 7.837017 0.000000
263.453700 -39.697132 9.103115 0.000000
268.399720 -51.300068 -0.958826 0.000000
268.907710 -49.930038 -0.888162 0.000000
268.852080 -48.935860 -0.855588 0.000000
269.710630 -47.446716 -0.767034 0.000000
269.623840 -46.525284 -0.739641 0.000000
269.817750 -45.473167 -0.696206 0.000000
267.904880 -41.809288 4.571533 0.000000
267.744200 -40.083778 4.561388 0.000000
267.417600 -39.320305 4.572538 0.000000
267.270110 -42.081696 5.676636 0.000000
264.829040 -40.242058 5.829293 0.000000
267.092590 -41.239708 5.673466 0.000000
266.540370 -40.542130 5.702835 0.000000
264.152040 -39.542667 5.870863 0.000000
264.722230 -39.365349 6.926226 0.000000
264.599670 -41.287132 8.106982 0.000000
264.795140 -40.278130 8.051720 0.000000
266.611880 -39.649952 8.892024 0.000000
267.802310 -50.709206 -0.899570 0.000000
267.284120 -49.942543 -0.895887 0.000000
268.937470 -48.007790 -0.762904 0.000000
268.868770 -47.051620 -0.735381 0.000000
268.767610 -46.126129 -0.710887 0.000000
269.865840 -44.648186 -0.618139 0.000000
267.857600 -40.966072 4.703493 0.000000
267.280090 -39.371807 4.720822 0.000000
267.878720 -41.867371 4.712808 0.000000
266.872960 -41.340599 5.852484 0.000000
264.622380 -40.260681 6.010489 0.000000
265.105740 -39.171204 5.955723 0.000000
264.400050 -39.402355 7.145053 0.000000
264.615600 -40.286003 8.279171 0.000000
264.442810 -41.296577 8.331054 0.000000
263.361940 -39.737480 8.415482 0.000000
267.028290 -40.401939 9.084600 0.000000
268.770510 -52.215454 -1.082066 0.000000
269.877380 -50.503426 -0.973444 0.000000
270.182130 -49.306038 -0.918858 0.000000
270.139710 -48.325729 -0.887827 0.000000
267.886900 -41.744667 4.638415 0.000000
267.868650 -40.834114 4.631275 0.000000
267.670930 -39.991821 4.635663 0.000000
267.260800 -39.216808 4.653407 0.000000
267.225590 -41.996101 5.782435 0.000000
264.610780 -40.036224 5.953596 0.000000
266.924260 -41.169823 5.791933 0.000000
265.155210 -38.932274 5.898321 0.000000
264.028020 -39.267143 7.146987 0.000000
264.530030 -41.045780 8.294745 0.000000
263.496400 -39.432114 8.377134 0.000000
264.612610 -40.060699 8.258787 0.000000
266.921390 -40.281929 9.103472 0.000000
263.446230 -39.459465 9.566037 0.000000
254.555160 -62.043198 -2.185471 0.000000
269.993620 -51.740295 -1.117928 0.000000
267.898220 -41.857536 4.616307 0.000000
267.723450 -40.065308 4.612829 0.000000
267.320710 -39.269081 4.630429 0.000000
264.399600 -42.073372 5.990583 0.000000
267.234010 -42.096622 5.778747 0.000000
264.625120 -40.050522 5.948241 0.000000
265.134800 -38.954391 5.898111 0.000000
263.993680 -39.271500 7.166882 0.000000
264.492490 -41.085327 8.333401 0.000000
263.509770 -39.413551 8.411098 0.000000
264.593780 -40.084332 8.297212 0.000000
266.884550 -40.367630 9.168426 0.000000
263.439060 -39.445385 9.622936 0.000000
267.867130 -40.727306 4.499717 0.000000
267.272640 -39.038506 4.528946 0.000000
267.259000 -41.870773 5.675534 0.000000
264.393190 -39.804028 5.870228 0.000000
266.984740 -41.005196 5.687540 0.000000
264.609340 -40.757866 8.251841 0.000000
264.540990 -39.797977 8.242715 0.000000
266.731960 -40.179344 9.149802 0.000000
263.607670 -39.071075 9.557182 0.000000
267.880550 -40.745792 4.471578 0.000000
267.273990 -41.891563 5.660937 0.000000
267.003170 -41.008904 5.676697 0.000000
264.596890 -40.720699 8.283316 0.000000
264.486760 -39.757812 8.284397 0.000000
266.176820 -40.328949 9.283028 0.000000
263.640560 -38.984943 9.611614 0.000000
250.968440 -52.912781 -1.117710 0.000000
256.268460 -49.694263 -0.848826 0.000000
256.384640 -48.427273 -0.809989 0.000000
267.294980 -41.916920 5.621426 0.000000
267.048770 -41.011024 5.637011 0.000000
264.626100 -40.671497 8.281003 0.000000
266.113980 -40.332932 9.317412 0.000000
255.777360 -48.553303 -0.734505 0.000000
267.199130 -39.092674 4.626774 0.000000
267.191830 -42.050980 5.817654 0.000000
263.980500 -39.770386 6.054457 0.000000
266.833250 -41.150608 5.842727 0.000000
264.480290 -40.732189 8.542018 0.000000
267.827820 -40.952702 4.742202 0.000000
267.589810 -40.018261 4.757514 0.000000
266.843260 -39.176563 4.800841 0.000000
264.414000 -39.664284 7.488657 0.000000
267.812290 -41.971603 4.859165 0.000000
267.767330 -40.974567 4.860563 0.000000
266.346710 -39.219330 4.938120 0.000000
267.478490 -40.028305 4.876164 0.000000
265.090790 -39.443722 6.292098 0.000000
263.441530 -39.749275 9.078249 0.000000
267.743290 -41.936588 4.999985 0.000000
267.624970 -40.936344 5.004463 0.000000
265.251310 -39.262459 5.134077 0.000000
267.155060 -39.997398 5.029375 0.000000
265.004460 -39.311352 6.459457 0.000000
265.007320 -40.381145 7.782381 0.000000
264.619260 -39.381172 7.813927 0.000000
263.498410 -39.561897 9.280802 0.000000
267.609890 -41.913441 5.156318 0.000000
265.379120 -40.173130 5.288048 0.000000
267.416750 -40.905403 5.169625 0.000000
264.892670 -39.168762 5.320415 0.000000
264.828610 -39.194210 6.664282 0.000000
264.852080 -40.285896 8.008414 0.000000
263.477200 -39.390671 8.145278 0.000000
266.659300 -40.030304 9.139648 0.000000
263.495970 -39.405674 9.523977 0.000000
267.494480 -41.775806 5.270206 0.000000
266.518770 -39.792980 5.340320 0.000000
264.287960 -38.980999 5.477235 0.000000
264.031680 -39.031670 6.874019 0.000000
264.544560 -41.199516 8.203922 0.000000
264.633210 -40.082951 8.196369 0.000000
264.047820 -39.051506 8.259308 0.000000
263.540710 -39.131351 9.714909 0.000000
267.419220 -41.579281 5.310275 0.000000
265.070830 -39.699135 5.464902 0.000000
267.021820 -40.556133 5.342835 0.000000
264.560820 -40.926369 8.286096 0.000000
264.503140 -39.812405 8.297793 0.000000
266.342320 -40.716293 9.477500 0.000000
253.967090 -45.738449 -0.668041 0.000000
267.433410 -41.408699 5.268665 0.000000
264.967960 -39.466309 5.428798 0.000000
266.915920 -40.376049 5.308628 0.000000
264.901920 -39.497540 6.845322 0.000000
264.611450 -40.686962 8.283625 0.000000
263.395170 -39.667885 8.412456 0.000000
261.441560 -44.303581 -0.651406 0.000000
267.542330 -41.254395 5.137709 0.000000
267.019260 -40.197655 5.176180 0.000000
268.909390 -38.935493 5.090630 0.000000
264.792880 -39.284134 6.744896 0.000000
263.488370 -39.411491 8.315078 0.000000
265.116240 -43.470505 -0.557840 0.000000
267.547390 -42.102688 5.173879 0.000000
267.408480 -40.988590 5.191865 0.000000
261.504120 -39.105671 5.523124 0.000000
263.757260 -40.152977 5.392312 0.000000
263.968720 -38.975952 6.877328 0.000000
264.441560 -41.321907 8.300153 0.000000
264.591190 -40.132130 8.294007 0.000000
264.045440 -38.994453 8.356612 0.000000
263.533230 -39.050167 9.908248 0.000000
267.482330 -41.810863 5.277150 0.000000
265.189820 -39.664013 5.423190 0.000000
264.451810 -40.953274 8.451185 0.000000
263.281280 -39.831223 8.574538 0.000000
267.298980 -41.490124 5.390179 0.000000
264.329590 -39.290241 5.577528 0.000000
266.795200 -40.354012 5.431306 0.000000
263.127780 -39.369549 7.192887 0.000000
264.442810 -40.550007 8.608863 0.000000
263.524230 -39.377441 8.711536 0.000000
267.331480 -42.293690 5.509833 0.000000
264.906040 -40.029305 5.672016 0.000000
267.140500 -41.117836 5.535399 0.000000
267.272830 -41.883766 5.627646 0.000000
264.211490 -39.555695 5.829576 0.000000
266.664490 -40.704216 5.677587 0.000000
263.942630 -39.590393 7.429516 0.000000
264.258000 -41.543938 5.870942 0.000000
264.830600 -40.250439 5.858924 0.000000
265.110780 -38.981026 5.864016 0.000000
264.546230 -39.014053 7.491882 0.000000
263.649810 -39.051125 9.182553 0.000000
264.033690 -39.696178 5.994834 0.000000
265.256410 -39.711323 7.535239 0.000000
264.141390 -41.723389 6.045866 0.000000
264.535740 -40.399498 6.044708 0.000000
265.041080 -39.090664 6.038692 0.000000
264.348540 -39.113140 7.730194 0.000000
263.605680 -39.135864 9.462594 0.000000
265.011410 -39.792770 7.777597 0.000000
264.967620 -39.076248 6.197199 0.000000
264.937530 -40.449173 7.866202 0.000000
264.191860 -39.084919 7.947812 0.000000
266.027560 -40.484406 9.454475 0.000000
264.832430 -40.317860 8.011676 0.000000
264.261840 -38.928215 8.080305 0.000000
261.862700 -39.380672 4.703634 0.000000
264.701200 -40.931877 8.073034 0.000000
263.454650 -39.496174 8.195038 0.000000
261.751590 -40.028667 4.741621 0.000000
267.870180 -40.922577 4.625241 0.000000
267.418060 -39.520500 4.665088 0.000000
264.531920 -40.858139 8.337974 0.000000
267.864620 -41.592049 4.725261 0.000000
267.629460 -40.182060 4.757380 0.000000
267.713930 -40.770477 4.863111 0.000000
264.964570 -39.152390 4.987098 0.000000
264.401610 -40.644997 8.688424 0.000000
267.639470 -41.511307 5.066458 0.000000
266.891850 -40.016682 5.113210 0.000000
263.355770 -39.809349 9.052981 0.000000
267.483700 -42.215992 5.227394 0.000000
267.217320 -40.734379 5.253253 0.000000
267.453190 -42.087685 5.317513 0.000000
266.992370 -40.566605 5.352177 0.000000
267.325470 -42.330906 5.502310 0.000000
266.992550 -40.796967 5.528959 0.000000
265.042210 -39.082417 5.625012 0.000000
264.410160 -39.028603 7.602573 0.000000
267.398440 -42.439228 5.389906 0.000000
264.204410 -39.040359 5.552507 0.000000
267.058840 -40.884670 5.419679 0.000000
264.830810 -39.751835 5.547510 0.000000
267.290370 -41.566689 5.430461 0.000000
265.282750 -39.816357 7.505668 0.000000
267.181850 -41.600502 5.676930 0.000000
264.259030 -39.692165 5.815187 0.000000
264.940030 -39.780209 7.793911 0.000000
265.111850 -40.041008 7.700127 0.000000
269.178310 -63.584351 -2.560522 0.000000
268.418090 -60.221088 -2.158962 0.000000
270.504390 -55.272644 -1.612646 0.000000
269.922120 -56.907322 -1.810849 0.000000
249.218570 -43.649055 -0.441216 0.000000
250.057020 -40.347000 -0.351153 0.000000
246.964020 -39.901817 -0.532850 0.000000
269.841610 -55.574718 -1.625591 0.000000
270.247190 -62.472828 -2.409282 0.000000
268.425870 -56.989101 -1.708122 0.000000
267.866610 -58.887802 -2.024838 0.000000
266.207670 -58.920872 -1.895615 0.000000
246.540220 -59.522552 -1.852916 0.000000
265.148740 -39.073639 5.048275 0.000000
263.677250 -38.943218 9.175711 0.000000
267.525300 -40.238449 4.896655 0.000000
266.720520 -39.379559 4.895493 0.000000
267.729550 -41.019676 4.832637 0.000000
263.386140 -39.024612 7.005461 0.000000
263.630220 -39.082981 8.986569 0.000000
267.162900 -40.158279 4.998772 0.000000
267.702640 -41.713009 4.950469 0.000000
267.606350 -40.804024 4.908401 0.000000
265.223720 -39.084801 5.021654 0.000000
264.793000 -39.071861 6.952140 0.000000
263.643980 -38.988754 8.963760 0.000000
267.377470 -39.966721 4.829030 0.000000
267.801090 -41.458694 4.790180 0.000000
263.448060 -39.702103 8.808030 0.000000
267.701230 -40.708687 4.778993 0.000000
265.240020 -39.072632 4.888040 0.000000
263.432800 -38.953320 6.846451 0.000000
263.681640 -38.997696 8.725973 0.000000
266.476070 -39.533028 4.989852 0.000000
267.643920 -41.029202 4.929604 0.000000
264.773220 -39.438606 6.893697 0.000000
263.540990 -39.375668 8.838680 0.000000
267.730190 -40.835693 4.778650 0.000000
264.769350 -39.288410 6.718390 0.000000
263.562560 -39.240002 8.633766 0.000000
264.429020 -40.743729 8.542210 0.000000
267.558590 -40.010498 4.721764 0.000000
267.849790 -41.396286 4.693340 0.000000
264.331120 -41.358669 8.417362 0.000000
263.281400 -39.881931 8.521643 0.000000
265.073850 -39.107784 4.753001 0.000000
261.482600 -40.429420 4.860748 0.000000
264.431880 -39.103535 6.548657 0.000000
263.872620 -39.102970 8.370305 0.000000
264.550630 -40.542496 8.295861 0.000000
263.432530 -39.107506 10.210567 0.000000
267.109950 -39.360760 4.739883 0.000000
267.763920 -40.715714 4.701245 0.000000
264.830720 -39.315586 6.562955 0.000000
263.616120 -39.300495 8.404627 0.000000
264.542240 -40.718346 8.313649 0.000000
263.328640 -39.311066 10.210798 0.000000
267.223020 -39.325195 4.660419 0.000000
267.786130 -40.651749 4.626622 0.000000
264.933530 -39.301807 6.455767 0.000000
263.749080 -39.298458 8.267308 0.000000
263.357420 -39.309139 10.056027 0.000000
267.621060 -39.834068 4.568196 0.000000
267.894590 -41.129532 4.546174 0.000000
264.636170 -39.867504 8.068088 0.000000
264.594270 -41.220104 8.059121 0.000000
267.882200 -41.713043 4.602886 0.000000
267.158510 -39.160263 4.650648 0.000000
261.352970 -40.563034 4.854271 0.000000
264.739440 -39.180355 6.409028 0.000000
263.984010 -39.197289 8.143050 0.000000
264.737000 -40.526634 8.071334 0.000000
263.456240 -39.213970 9.892751 0.000000
267.526400 -39.942841 4.709892 0.000000
267.846680 -41.194191 4.689856 0.000000
264.624080 -40.036827 8.121216 0.000000
267.250980 -39.258205 4.613130 0.000000
267.880860 -41.721741 4.571748 0.000000
261.214750 -40.769573 4.831037 0.000000
264.989040 -39.330891 6.313319 0.000000
263.890500 -39.373978 8.021925 0.000000
264.822940 -40.641617 7.938134 0.000000
263.414490 -39.401100 9.720142 0.000000
267.554020 -39.644482 4.533375 0.000000
267.873840 -40.851559 4.512907 0.000000
264.950130 -39.786480 7.818012 0.000000
264.755550 -41.070271 7.827832 0.000000
267.903660 -41.226883 4.467187 0.000000
265.057500 -38.944939 4.589540 0.000000
261.590450 -40.408302 4.710170 0.000000
264.801150 -38.970226 6.170483 0.000000
264.384770 -39.002674 7.779783 0.000000
265.065980 -40.223789 7.718563 0.000000
263.643800 -39.049690 9.446515 0.000000
267.390170 -39.182858 4.435198 0.000000
261.227810 -40.860233 4.655473 0.000000
265.099790 -39.336052 6.061919 0.000000
263.967040 -39.419174 7.699465 0.000000
263.478360 -39.463161 9.326078 0.000000
269.204900 -39.370533 4.280582 0.000000
264.009520 -39.791348 6.012808 0.000000
265.248690 -39.706272 7.460741 0.000000
266.177920 -41.477913 4.343667 0.000000
266.955050 -39.055618 5.776082 0.000000
266.927220 -41.396988 5.777500 0.000000
263.481450 -39.358074 7.513874 0.000000
263.571260 -39.359924 9.045413 0.000000
267.413090 -39.170742 4.426429 0.000000
265.955990 -41.656235 4.489986 0.000000
266.882930 -41.533688 5.893610 0.000000
264.628600 -40.640732 6.024112 0.000000
263.324460 -39.581181 7.613875 0.000000
265.923250 -42.277294 4.297559 0.000000
266.897830 -40.988842 5.675271 0.000000
264.777040 -40.110107 5.796907 0.000000
267.253660 -42.075031 5.658686 0.000000
263.451970 -39.086128 7.360869 0.000000
263.622380 -39.075966 8.836458 0.000000
267.108800 -41.303787 5.621211 0.000000
264.115510 -39.439678 5.798857 0.000000
264.101200 -39.453789 7.251214 0.000000
263.496770 -39.540527 8.770440 0.000000
266.663210 -40.523026 5.627778 0.000000
267.177030 -41.544811 5.597611 0.000000
264.306880 -39.747772 5.769813 0.000000
264.389770 -40.909859 8.624177 0.000000
266.926670 -40.682533 5.474475 0.000000
264.892700 -39.917305 5.592674 0.000000
267.262050 -41.710976 5.457455 0.000000
263.958620 -38.955296 8.467331 0.000000
264.408870 -41.149292 8.438157 0.000000
263.546390 -39.025497 9.937988 0.000000
267.052030 -40.850105 5.407448 0.000000
267.362300 -41.862484 5.394024 0.000000
264.309940 -39.148335 5.562808 0.000000
264.796080 -39.081741 6.901730 0.000000
263.707210 -39.264572 8.386634 0.000000
264.576110 -40.235458 8.307383 0.000000
264.365420 -41.391800 8.341950 0.000000
266.412630 -41.003624 9.480277 0.000000
263.433010 -39.318607 9.824092 0.000000
266.689300 -40.040848 5.265996 0.000000
267.328670 -40.969414 5.232328 0.000000
267.495360 -41.991493 5.226958 0.000000
264.789180 -39.318348 5.373100 0.000000
264.788020 -39.330482 6.719587 0.000000
264.728730 -40.445145 8.087316 0.000000
263.415470 -39.584724 8.210562 0.000000
265.914670 -40.226086 9.302414 0.000000
266.884700 -40.154610 5.173995 0.000000
264.957430 -39.489201 5.282507 0.000000
267.421510 -41.078560 5.145988 0.000000
267.571810 -42.087543 5.141222 0.000000
264.609440 -39.583927 7.965681 0.000000
264.818300 -40.620663 7.955369 0.000000
266.807070 -40.209915 9.047593 0.000000
267.060120 -40.242603 5.124623 0.000000
267.504940 -41.164181 5.100581 0.000000
264.829740 -39.692863 5.252459 0.000000
267.633180 -42.163116 5.095897 0.000000
264.829800 -40.790123 7.875960 0.000000
266.420380 -39.512589 5.096303 0.000000
267.238490 -40.332745 5.049503 0.000000
267.610690 -41.251106 5.029434 0.000000
265.020970 -39.871387 7.742596 0.000000
264.393310 -38.963722 7.797916 0.000000
264.804570 -40.975803 7.775765 0.000000
265.451600 -39.788952 8.979734 0.000000
263.630920 -39.144760 9.193419 0.000000
270.552550 -49.986816 -1.070337 0.000000
266.846220 -40.028179 5.108542 0.000000
267.443210 -40.871155 5.078718 0.000000
265.196840 -39.426537 5.201714 0.000000
265.019620 -39.482140 6.470264 0.000000
264.978910 -40.539726 7.752705 0.000000
269.372440 -49.046383 -0.943014 0.000000
269.360990 -50.133018 -0.970869 0.000000
268.450260 -51.700886 -1.051928 0.000000
270.463810 -46.468632 -0.831345 0.000000
270.389190 -47.526237 -0.859886 0.000000
267.339480 -40.610973 5.093926 0.000000
267.584350 -41.529945 5.091493 0.000000
265.083620 -39.222248 5.208968 0.000000
265.383240 -40.158325 5.201368 0.000000
264.904300 -39.273663 6.457980 0.000000
264.646850 -39.344948 7.727776 0.000000
265.065550 -40.256493 7.705402 0.000000
269.158630 -51.917351 -1.179663 0.000000
266.861020 -54.364128 -1.358950 0.000000
266.894500 -39.422363 4.882693 0.000000
267.542140 -40.204483 4.855016 0.000000
267.770690 -41.106636 4.852518 0.000000
264.879460 -38.994213 6.205777 0.000000
264.685000 -39.053295 7.445983 0.000000
265.326840 -39.880650 7.400346 0.000000
263.532320 -39.365936 8.820867 0.000000
253.813860 -62.012516 -2.140921 0.000000
269.117160 -51.775768 -1.127966 0.000000
270.118930 -50.119663 -1.030133 0.000000
266.866670 -39.449356 4.868766 0.000000
267.563630 -40.191269 4.836279 0.000000
267.787320 -41.078217 4.832599 0.000000
267.828920 -42.033508 4.840770 0.000000
264.954470 -39.045540 6.166463 0.000000
263.524480 -39.472351 8.748413 0.000000
269.752230 -52.144997 -1.175051 0.000000
267.079590 -39.240814 4.724645 0.000000
267.597690 -40.011238 4.701366 0.000000
267.817780 -40.879959 4.696273 0.000000
267.857480 -41.820385 4.702694 0.000000
267.198390 -39.215424 5.841404 0.000000
263.780120 -39.328003 7.304324 0.000000
264.426450 -40.132957 8.453119 0.000000
264.406800 -41.137489 8.483211 0.000000
266.081570 -40.579346 9.441332 0.000000
263.373260 -39.478981 9.782389 0.000000
268.118960 -54.030228 -1.358383 0.000000
269.825290 -51.768425 -1.196657 0.000000
267.186250 -39.072845 4.579445 0.000000
267.647580 -39.837795 4.560801 0.000000
267.842500 -40.697418 4.558170 0.000000
266.903750 -41.065918 5.732497 0.000000
264.585880 -39.970963 5.886584 0.000000
267.230560 -41.896065 5.723535 0.000000
263.789920 -39.282597 8.294615 0.000000
264.618040 -39.985413 8.217440 0.000000
264.541560 -40.994034 8.256243 0.000000
266.790560 -40.194611 9.103146 0.000000
263.470400 -39.398674 9.530239 0.000000
270.440950 -50.995796 -1.118807 0.000000
268.896790 -53.167782 -1.270623 0.000000
269.614690 -39.781757 4.381450 0.000000
266.925660 -40.868652 5.631979 0.000000
267.223360 -41.691799 5.626694 0.000000
264.634310 -39.836319 5.781246 0.000000
264.650730 -39.854012 8.067000 0.000000
263.540920 -39.277088 8.177805 0.000000
264.710940 -40.798889 8.090447 0.000000
266.839050 -39.999878 8.928065 0.000000
263.587040 -39.273624 9.342104 0.000000
270.470430 -48.472351 -0.933606 0.000000
270.564880 -49.452641 -0.965540 0.000000
269.966280 -50.933540 -1.047218 0.000000
268.053890 -53.417675 -1.224696 0.000000
267.901310 -41.157490 4.486653 0.000000
266.832550 -40.700157 5.616380 0.000000
267.169620 -41.490410 5.609016 0.000000
267.298860 -42.377106 5.620160 0.000000
264.440000 -39.771709 5.774179 0.000000
264.948820 -39.589413 6.845678 0.000000
264.649840 -39.714314 8.001660 0.000000
264.791870 -40.613556 8.016669 0.000000
263.633940 -39.148827 9.247824 0.000000
269.564580 -47.593849 -0.841535 0.000000
269.638460 -48.578968 -0.872914 0.000000
269.605160 -49.659142 -0.912983 0.000000
268.992520 -51.184052 -0.994687 0.000000
267.896640 -40.851009 4.483328 0.000000
267.888580 -41.774338 4.499262 0.000000
266.680540 -40.490913 5.602779 0.000000
267.114350 -41.220673 5.589372 0.000000
264.881810 -40.331100 5.730702 0.000000
267.290010 -42.071793 5.598996 0.000000
264.824400 -39.423843 6.808257 0.000000
264.898350 -40.342163 7.933300 0.000000
266.688840 -39.597466 8.766298 0.000000
263.691740 -38.945992 9.142928 0.000000
269.716190 -46.059975 -0.743126 0.000000
269.532440 -47.182556 -0.790203 0.000000
269.492100 -48.238647 -0.829358 0.000000
269.473020 -49.306732 -0.868679 0.000000
265.041780 -39.102058 5.617991 0.000000
266.582000 -40.253075 5.533849 0.000000
267.043030 -40.951111 5.519190 0.000000
264.773010 -40.144844 5.662396 0.000000
267.265560 -41.765297 5.526029 0.000000
264.704620 -39.252228 6.720540 0.000000
264.625890 -39.293808 7.810186 0.000000
265.013180 -40.055454 7.797495 0.000000
264.729160 -41.125763 7.875785 0.000000
269.332240 -46.769623 -0.746159 0.000000
269.292240 -47.822830 -0.784379 0.000000
268.149170 -49.728504 -0.900841 0.000000
268.174530 -50.819778 -0.938897 0.000000
266.921480 -40.595024 5.437950 0.000000
267.226200 -41.351067 5.439859 0.000000
267.344060 -42.213112 5.459307 0.000000
264.153380 -41.032356 5.645900 0.000000
265.082280 -39.670597 7.646265 0.000000
264.948670 -40.659821 7.707333 0.000000
266.254030 -39.134815 8.522599 0.000000
268.452090 -48.983723 -0.846201 0.000000
268.403560 -50.119713 -0.889382 0.000000
267.357210 -41.777351 5.362717 0.000000
263.621520 -39.117058 8.719442 0.000000
265.309810 -49.796074 -0.889856 0.000000
267.000580 -40.615540 5.365650 0.000000
266.567200 -39.961075 5.373299 0.000000
267.276120 -41.361904 5.373306 0.000000
267.378660 -42.221405 5.398080 0.000000
264.503110 -39.248398 5.495886 0.000000
266.915220 -40.278793 5.315250 0.000000
267.415410 -41.783752 5.338310 0.000000
263.517640 -39.479904 8.614910 0.000000
264.457000 -40.814354 8.582268 0.000000
267.004120 -40.533096 5.326541 0.000000
264.642820 -39.272255 5.446008 0.000000
267.264070 -41.268890 5.337769 0.000000
267.419280 -42.085629 5.360554 0.000000
264.471250 -40.299767 8.503755 0.000000
264.330470 -41.317902 8.594269 0.000000
264.858730 -39.508957 5.501490 0.000000
267.061340 -40.773079 5.388600 0.000000
267.297670 -41.521584 5.402102 0.000000
267.366940 -42.405842 5.434191 0.000000
263.492610 -39.461975 8.588762 0.000000
264.501460 -40.679245 8.543366 0.000000
266.892700 -40.593117 5.495832 0.000000
267.159550 -41.311527 5.510539 0.000000
267.316190 -42.127056 5.538852 0.000000
264.902190 -39.277264 6.527930 0.000000
263.543330 -39.264290 8.608433 0.000000
264.428250 -40.520111 8.592634 0.000000
264.742860 -39.330231 5.449747 0.000000
267.362460 -41.939724 5.393290 0.000000
266.827270 -39.609955 6.212871 0.000000
264.569670 -40.383347 8.365172 0.000000
264.241910 -41.570972 8.507649 0.000000
266.608370 -39.830395 5.226990 0.000000
267.297390 -41.096718 5.245160 0.000000
267.484740 -41.882401 5.273807 0.000000
265.024720 -39.262798 5.306764 0.000000
264.023320 -39.116608 8.152988 0.000000
267.372830 -41.218704 5.260463 0.000000
267.471770 -42.098053 5.304371 0.000000
266.836670 -40.082237 5.224835 0.000000
267.405150 -41.443443 5.272127 0.000000
267.452550 -42.395981 5.328060 0.000000
266.748230 -40.575554 5.625933 0.000000
267.088470 -41.196648 5.647834 0.000000
267.258120 -42.036221 5.698044 0.000000
263.502140 -39.090172 7.492701 0.000000
265.063720 -39.345345 6.365208 0.000000
264.747590 -39.691624 7.267126 0.000000
263.446040 -39.116924 7.340419 0.000000
246.670470 -39.002777 -0.920070 0.000000
248.194640 -39.615417 -0.839001 0.000000
247.119540 -43.538551 -0.832160 0.000000
247.356370 -42.012295 -0.790210 0.000000
254.880980 -45.120090 -0.624750 0.000000
264.652220 -39.369968 7.038145 0.000000
251.469010 -45.669891 -0.734585 0.000000
247.307980 -45.030029 -0.864998 0.000000
247.773160 -48.481453 -0.981065 0.000000
261.640750 -38.927521 4.729479 0.000000
265.119810 -39.373672 6.171033 0.000000
263.664000 -40.206669 6.285788 0.000000
264.815980 -39.445236 6.919643 0.000000
254.002410 -47.266006 -0.713816 0.000000
264.451140 -39.513397 3.025118 0.000000
264.062710 -38.935463 3.773912 0.000000
264.585110 -39.248112 3.777534 0.000000
261.908080 -38.971237 4.616724 0.000000
264.676150 -39.061234 5.287632 0.000000
264.895290 -39.983002 5.361071 0.000000
265.153840 -39.453186 6.071173 0.000000
253.813830 -47.937222 -0.722145 0.000000
266.274750 -39.221680 1.512354 0.000000
264.401700 -39.010098 3.762185 0.000000
263.516660 -39.443832 3.803029 0.000000
263.737640 -38.990429 4.537756 0.000000
264.983640 -39.172409 5.270215 0.000000
264.263030 -39.293369 5.309023 0.000000
263.483890 -39.500210 5.359102 0.000000
266.905120 -39.189667 5.948706 0.000000
267.026490 -39.677864 0.852563 0.000000
266.253330 -40.083042 1.590426 0.000000
265.440770 -40.535545 1.583817 0.000000
265.076050 -39.763355 2.347131 0.000000
264.000950 -39.181114 3.859345 0.000000
263.105260 -39.696373 3.906471 0.000000
264.646090 -39.195782 5.360075 0.000000
265.150510 -39.556763 5.376217 0.000000
267.192440 -41.115395 5.462605 0.000000
266.847470 -39.248173 0.901134 0.000000
265.571660 -39.354149 0.888036 0.000000
266.161380 -39.471478 1.635534 0.000000
265.217380 -40.431641 2.399902 0.000000
264.240230 -39.514832 3.152816 0.000000
266.322910 -38.953873 3.842649 0.000000
263.346070 -40.139565 3.968287 0.000000
265.064910 -38.999138 4.616020 0.000000
263.845670 -40.590027 5.562686 0.000000
267.312900 -42.206448 5.614444 0.000000
266.785160 -39.467216 6.108034 0.000000
265.263000 -39.458366 -0.547670 0.000000
262.727570 -39.383610 -0.593266 0.000000
261.572140 -38.964108 -0.592489 0.000000
266.637080 -38.945427 0.979859 0.000000
265.958220 -39.210556 1.712350 0.000000
264.695590 -39.271618 1.712811 0.000000
266.234440 -40.535976 1.706123 0.000000
263.169980 -40.008858 4.044579 0.000000
267.847410 -41.905918 4.867034 0.000000
265.997860 -39.090092 5.424533 0.000000
264.680790 -39.343723 5.491154 0.000000
264.672150 -39.381466 7.027760 0.000000
265.495910 -39.698708 -0.561731 0.000000
262.982390 -39.621578 -0.598519 0.000000
265.107240 -41.370129 2.503186 0.000000
266.873260 -39.020828 3.930581 0.000000
262.904110 -39.902412 4.048987 0.000000
260.597140 -38.983227 4.047274 0.000000
263.717010 -39.338215 4.764268 0.000000
264.889590 -39.663086 5.529477 0.000000
264.395870 -39.163147 5.492793 0.000000
265.127320 -41.306328 5.690618 0.000000
265.019290 -39.156944 6.233300 0.000000
263.806150 -39.046520 7.030197 0.000000
265.226470 -39.709152 -0.561962 0.000000
262.157900 -39.346333 -0.583665 0.000000
261.570370 -39.158447 -0.581916 0.000000
263.982970 -39.694511 4.037486 0.000000
262.635410 -39.967411 4.076157 0.000000
261.624600 -39.014404 4.810479 0.000000
265.959780 -39.124737 5.480731 0.000000
266.397160 -40.156433 5.579563 0.000000
264.679200 -39.392570 5.536430 0.000000
266.930300 -40.757637 5.633043 0.000000
263.169920 -39.427284 -0.610951 0.000000
264.352230 -39.830040 3.245798 0.000000
266.918700 -39.098377 3.952209 0.000000
266.311100 -39.127403 3.958742 0.000000
263.071170 -39.908150 4.041974 0.000000
260.748470 -38.965862 4.024533 0.000000
265.103490 -39.072094 4.724812 0.000000
266.327610 -39.006760 5.459153 0.000000
266.762790 -40.532352 5.611944 0.000000
264.973540 -39.874859 5.570514 0.000000
264.231200 -40.513317 5.650197 0.000000
263.575380 -39.659512 3.920976 0.000000
266.645540 -40.193562 5.500945 0.000000
266.031620 -40.057774 5.492357 0.000000
264.861270 -39.396816 5.438831 0.000000
266.674900 -39.798450 6.242346 0.000000
264.915440 -38.973213 6.162854 0.000000
267.764220 -39.299465 -0.010313 0.000000
267.139250 -39.672386 0.746392 0.000000
267.760770 -39.314751 1.528549 0.000000
267.759030 -39.322025 2.297622 0.000000
265.228060 -40.202812 2.304776 0.000000
267.757320 -39.330009 3.067441 0.000000
264.067170 -39.180782 3.063247 0.000000
263.353910 -39.898319 3.879028 0.000000
262.750030 -39.672920 3.870567 0.000000
264.679780 -39.214500 5.384159 0.000000
266.494170 -40.033161 5.456701 0.000000
267.100560 -41.000252 5.552409 0.000000
265.191100 -40.634655 5.521733 0.000000
264.666380 -39.337048 6.964929 0.000000
253.323960 -48.786026 -0.775683 0.000000
265.706090 -39.013218 3.771886 0.000000
263.847320 -39.028671 3.770144 0.000000
267.576600 -39.698055 4.608957 0.000000
263.185210 -39.434383 4.580823 0.000000
266.313570 -39.756699 5.401010 0.000000
265.066990 -39.383106 5.361869 0.000000
263.808590 -39.473263 5.372746 0.000000
266.936710 -39.485867 6.169997 0.000000
265.072140 -39.171726 6.127126 0.000000
264.442200 -39.268166 6.932514 0.000000
253.524460 -48.830318 -0.788942 0.000000
252.624330 -49.003704 -0.812687 0.000000
262.430790 -39.398060 -0.162363 0.000000
264.322880 -39.276283 3.013611 0.000000
269.341160 -38.946159 3.825972 0.000000
270.043550 -39.444988 3.861652 0.000000
264.326050 -38.964218 3.786784 0.000000
263.685820 -39.345730 3.805382 0.000000
263.046140 -39.467033 3.810774 0.000000
264.941470 -39.379612 5.401736 0.000000
263.667880 -39.625774 5.422557 0.000000
266.220830 -39.900688 5.460589 0.000000
264.939330 -39.005547 6.156856 0.000000
262.361330 -39.223419 -0.147102 0.000000
264.261020 -39.306980 3.054330 0.000000
270.149080 -39.808548 3.943865 0.000000
265.536710 -39.339348 3.864492 0.000000
263.617800 -39.586163 3.866317 0.000000
266.222320 -40.151154 5.561011 0.000000
264.894740 -39.528500 5.486951 0.000000
266.841950 -39.764095 6.351985 0.000000
269.388120 -39.032482 3.956418 0.000000
270.229130 -39.869053 4.015896 0.000000
264.183470 -39.196735 3.900154 0.000000
263.556030 -39.778248 3.927289 0.000000
265.451350 -38.934338 4.703878 0.000000
267.522430 -39.880482 4.805574 0.000000
266.991640 -41.072819 5.747065 0.000000
263.581540 -40.889702 5.684905 0.000000
264.273930 -41.260056 5.727700 0.000000
264.802000 -38.975384 6.321275 0.000000
266.862340 -40.022472 6.481849 0.000000
264.174290 -39.508751 3.194780 0.000000
269.490600 -39.185356 4.093566 0.000000
266.807710 -39.319538 4.049781 0.000000
262.863680 -39.858616 4.027087 0.000000
266.818540 -39.434479 4.890924 0.000000
266.088900 -38.996540 4.842850 0.000000
263.502470 -39.538509 4.844654 0.000000
266.144780 -39.457222 5.715400 0.000000
264.869380 -40.016731 5.745934 0.000000
266.973750 -40.536495 6.706945 0.000000
264.148320 -39.576767 7.368886 0.000000
263.471220 -39.344318 7.322979 0.000000
264.935420 -39.876286 1.626880 0.000000
264.220580 -39.740082 3.309356 0.000000
266.967320 -39.797626 4.208126 0.000000
266.283390 -39.848507 4.197421 0.000000
265.599030 -39.881390 4.186454 0.000000
262.886470 -40.060284 4.153521 0.000000
266.162050 -39.189186 4.999001 0.000000
266.989930 -39.960060 5.079551 0.000000
263.524230 -39.706493 4.987204 0.000000
266.824220 -39.129498 5.856160 0.000000
264.124880 -39.125065 5.788370 0.000000
265.135220 -40.512836 1.689895 0.000000
263.535860 -39.272305 3.375814 0.000000
266.536440 -40.465763 4.349008 0.000000
266.305210 -39.389610 5.143386 0.000000
265.636540 -39.545151 5.139583 0.000000
264.290370 -39.821026 5.132078 0.000000
263.595120 -39.807400 5.117153 0.000000
261.495360 -39.347610 5.044257 0.000000
266.974120 -39.270176 6.017241 0.000000
263.550930 -39.533268 5.952320 0.000000
264.306150 -39.969280 6.014616 0.000000
263.577970 -39.834736 7.726716 0.000000
267.867860 -39.014858 0.905823 0.000000
267.868290 -39.038891 1.780160 0.000000
267.849730 -38.995705 2.654046 0.000000
263.715520 -39.688946 3.489744 0.000000
266.002260 -40.380917 4.446551 0.000000
264.979160 -39.001575 5.206023 0.000000
264.293880 -39.075279 5.196034 0.000000
265.835300 -39.671803 5.282332 0.000000
263.611790 -39.155819 5.187726 0.000000
263.148220 -40.645878 5.301738 0.000000
264.972350 -38.998184 6.072424 0.000000
263.722350 -39.833824 6.125914 0.000000
266.606450 -39.897293 6.215259 0.000000
263.567080 -38.965115 6.895698 0.000000
246.420840 -38.989811 -0.936428 0.000000
263.900790 -40.023571 3.576820 0.000000
265.606230 -41.015358 4.567336 0.000000
263.754060 -39.373550 5.310723 0.000000
266.053990 -39.844410 5.409746 0.000000
263.673710 -39.042126 7.041822 0.000000
247.109910 -39.053673 -0.906931 0.000000
246.332580 -39.371094 -0.942154 0.000000
267.758510 -39.382198 1.850710 0.000000
266.956150 -39.321472 3.669017 0.000000
263.221710 -39.306110 3.602546 0.000000
267.766880 -39.461086 4.612877 0.000000
264.660890 -39.230728 5.421385 0.000000
266.427610 -40.135277 5.548939 0.000000
264.010680 -39.586349 5.432982 0.000000
263.922880 -39.274952 7.210436 0.000000
263.226010 -39.428467 7.204557 0.000000
246.344970 -39.210461 -0.952026 0.000000
267.179570 -38.998436 2.771740 0.000000
265.626010 -39.017593 3.666574 0.000000
263.410740 -39.217670 3.633264 0.000000
267.216740 -39.138641 4.634807 0.000000
268.016600 -39.154964 4.659084 0.000000
266.387910 -39.025028 5.529920 0.000000
265.767610 -39.501068 5.547662 0.000000
263.666320 -40.238632 5.543359 0.000000
267.769530 -39.340179 0.943722 0.000000
267.691040 -39.187244 2.850978 0.000000
264.430300 -38.982506 2.794820 0.000000
266.832030 -39.114380 4.726757 0.000000
264.555630 -39.453922 5.618435 0.000000
248.291960 -39.144920 -0.828506 0.000000
247.563370 -39.338116 -0.850300 0.000000
246.806410 -39.779812 -0.889122 0.000000
246.052670 -40.009296 -0.915238 0.000000
267.825900 -39.110973 1.069171 0.000000
267.822660 -39.123028 2.041247 0.000000
267.819490 -39.135220 3.013990 0.000000
269.549930 -39.172081 4.036939 0.000000
266.961520 -39.114861 3.964381 0.000000
265.481540 -39.563293 3.945897 0.000000
263.099330 -39.679031 3.894762 0.000000
266.093410 -39.035511 4.898295 0.000000
264.461730 -39.005875 4.843793 0.000000
263.167300 -39.923985 4.863594 0.000000
266.949370 -39.126396 5.904374 0.000000
267.400510 -39.006611 -0.544568 0.000000
265.898680 -39.490349 -0.537532 0.000000
263.549620 -39.896267 -0.516454 0.000000
262.005220 -40.156658 -0.506692 0.000000
260.417760 -40.204166 -0.489210 0.000000
259.549710 -39.896729 -0.464143 0.000000
261.500670 -41.179768 -0.551488 0.000000
258.059510 -40.157219 -0.463781 0.000000
259.207090 -41.728565 -0.554469 0.000000
255.925480 -41.119743 -0.500036 0.000000
256.975830 -42.622028 -0.583815 0.000000
253.851180 -43.191967 -0.602426 0.000000
254.745620 -43.915924 -0.642177 0.000000
253.110290 -43.804356 -0.634136 0.000000
252.345780 -44.354729 -0.663489 0.000000
251.563350 -44.891937 -0.693091 0.000000
257.187810 -39.646206 -0.430826 0.000000
254.923930 -39.552818 -0.413988 0.000000
267.654660 -39.571110 3.416693 0.000000
263.219240 -38.974945 4.286626 0.000000
266.096130 -39.980450 4.401893 0.000000
264.848020 -38.970085 5.287001 0.000000
266.005980 -39.762794 5.380240 0.000000
264.844330 -38.963116 6.255885 0.000000
266.896210 -39.832050 6.417533 0.000000
264.218750 -39.495190 7.262771 0.000000
263.344760 -39.345505 7.207793 0.000000
268.244380 -43.802422 -0.535852 0.000000
267.862730 -39.047703 -0.337837 0.000000
261.922850 -39.070076 -0.217286 0.000000
267.865510 -39.043884 0.669546 0.000000
267.847840 -38.989265 2.680775 0.000000
269.047520 -39.550819 3.726156 0.000000
267.140200 -39.364433 3.690959 0.000000
263.559360 -39.035599 3.629244 0.000000
268.009950 -39.298313 4.716175 0.000000
264.485660 -41.397682 5.790268 0.000000
246.908650 -39.163586 -0.852001 0.000000
246.189150 -40.731167 -0.953705 0.000000
270.477050 -39.593853 3.969406 0.000000
265.639830 -39.265694 3.882010 0.000000
263.003970 -39.189121 3.842439 0.000000
263.087460 -39.382019 4.840038 0.000000
266.609530 -39.400696 4.921769 0.000000
266.609740 -39.386631 5.943474 0.000000
266.055330 -40.121536 5.986319 0.000000
264.842770 -39.414211 6.898296 0.000000
263.348300 -39.985374 7.913438 0.000000
246.962890 -39.131931 -0.919831 0.000000
246.255780 -39.619083 -0.950943 0.000000
267.840180 -39.139454 -0.323409 0.000000
265.899050 -38.975769 0.751884 0.000000
267.842860 -39.110592 1.755218 0.000000
267.832640 -39.075489 2.792718 0.000000
263.502500 -39.537437 3.792357 0.000000
267.121770 -39.473118 4.878582 0.000000
268.304990 -39.886536 4.933061 0.000000
264.146420 -38.973244 6.791224 0.000000
252.345000 -46.002739 -0.732929 0.000000
251.665950 -47.146950 -0.784234 0.000000
250.943420 -48.240326 -0.833672 0.000000
260.576480 -39.113113 -0.528060 0.000000
262.504330 -39.552826 -0.592363 0.000000
261.530030 -39.334755 -0.559599 0.000000
258.134000 -39.273804 -0.485734 0.000000
254.928830 -39.276993 -0.432641 0.000000
259.963350 -39.698463 -0.541820 0.000000
259.081850 -39.600365 -0.519310 0.000000
256.647280 -39.696960 -0.479474 0.000000
255.797810 -39.547043 -0.458658 0.000000
254.214000 -39.531441 -0.435078 0.000000
257.634610 -40.213524 -0.520955 0.000000
254.397570 -43.516045 -0.631861 0.000000
253.654680 -43.975357 -0.645750 0.000000
253.017940 -45.002548 -0.689704 0.000000
267.847530 -39.089348 1.391236 0.000000
268.099580 -39.496040 3.515826 0.000000
262.511110 -39.536209 3.442882 0.000000
267.835540 -39.039474 4.551347 0.000000
265.944920 -40.875565 4.602370 0.000000
266.042020 -39.259209 5.560615 0.000000
267.176060 -41.329857 6.847304 0.000000
247.866240 -45.952137 -0.878099 0.000000
252.323460 -39.238853 -0.546265 0.000000
251.978240 -41.079403 -0.639811 0.000000
251.340150 -41.832317 -0.674352 0.000000
250.699200 -42.680538 -0.714822 0.000000
250.025940 -43.488232 -0.753845 0.000000
249.339370 -44.363029 -0.797312 0.000000
248.612990 -45.144527 -0.836555 0.000000
267.875700 -39.023785 1.295956 0.000000
262.138610 -38.951488 2.330435 0.000000
267.902770 -39.063778 3.437470 0.000000
265.879430 -40.712597 4.533759 0.000000
265.984040 -39.165855 5.516415 0.000000
263.498470 -39.846386 5.470477 0.000000
267.048520 -41.007690 6.789020 0.000000
251.086200 -39.218521 -0.647035 0.000000
250.403780 -39.609470 -0.664650 0.000000
249.717560 -40.020134 -0.684206 0.000000
249.235470 -41.513302 -0.765904 0.000000
248.530440 -42.032520 -0.793231 0.000000
247.836410 -42.704800 -0.830093 0.000000
247.117740 -43.341301 -0.865831 0.000000
246.385510 -44.017891 -0.904770 0.000000
267.666690 -38.935207 3.422247 0.000000
267.740170 -39.054741 4.515985 0.000000
263.498900 -40.344772 5.509052 0.000000
265.853490 -39.303040 5.539748 0.000000
265.066470 -39.652710 5.528606 0.000000
264.151030 -39.783859 7.639956 0.000000
245.906220 -52.752720 -1.282735 0.000000
248.630190 -46.278515 -0.929941 0.000000
247.854250 -46.901302 -0.962740 0.000000
247.077510 -47.626751 -1.002086 0.000000
246.274320 -48.313118 -1.040352 0.000000
252.661380 -38.960941 -0.564128 0.000000
251.945740 -39.237690 -0.572259 0.000000
251.546520 -40.632011 -0.642099 0.000000
250.871290 -41.156464 -0.665268 0.000000
250.206330 -41.770782 -0.694145 0.000000
249.516100 -42.342922 -0.721579 0.000000
248.821080 -42.960655 -0.752347 0.000000
268.516630 -39.309135 3.606067 0.000000
265.891050 -40.190556 5.787717 0.000000
264.241300 -39.170231 7.801079 0.000000
263.749080 -40.029331 7.858820 0.000000
246.020220 -56.357052 -1.494804 0.000000
247.488270 -47.413197 -1.014093 0.000000
246.702820 -48.112671 -1.050035 0.000000
246.177600 -50.603107 -1.183735 0.000000
252.165280 -39.060394 -0.607044 0.000000
251.493470 -39.497726 -0.622206 0.000000
250.793270 -39.866753 -0.634439 0.000000
250.445740 -41.495098 -0.716243 0.000000
249.774960 -42.106285 -0.743164 0.000000
249.100340 -42.762856 -0.773374 0.000000
248.399310 -43.378296 -0.802191 0.000000
247.687700 -44.018681 -0.833228 0.000000
268.354460 -39.348072 3.597495 0.000000
267.116490 -39.166931 4.685899 0.000000
267.049040 -39.073677 5.800799 0.000000
266.303310 -39.566525 5.797934 0.000000
265.994870 -40.736446 5.860515 0.000000
264.142700 -41.175144 5.807527 0.000000
264.896420 -39.044197 7.901306 0.000000
263.487120 -40.089367 7.914647 0.000000
246.246380 -52.192993 -1.279083 0.000000
246.737610 -45.047066 -0.894327 0.000000
246.537780 -48.538391 -1.081785 0.000000
251.291750 -39.878586 -0.644406 0.000000
250.603490 -40.320694 -0.661556 0.000000
249.874660 -40.654358 -0.673678 0.000000
249.662380 -42.814873 -0.785489 0.000000
248.954210 -43.385864 -0.812026 0.000000
248.239850 -43.985657 -0.841015 0.000000
247.490480 -44.496628 -0.866135 0.000000
267.138520 -39.210960 3.653140 0.000000
268.293880 -39.241737 4.838619 0.000000
263.777470 -39.056541 5.759583 0.000000
264.871550 -39.134109 8.056592 0.000000
263.538670 -40.351990 8.085733 0.000000
250.132060 -39.505951 -0.716005 0.000000
249.440730 -39.922165 -0.732280 0.000000
248.721150 -40.267426 -0.745427 0.000000
248.298520 -41.670208 -0.818587 0.000000
247.565520 -42.074326 -0.836666 0.000000
246.832350 -42.507072 -0.857238 0.000000
246.105350 -43.004841 -0.882337 0.000000
268.768950 -39.618141 3.643029 0.000000
268.235020 -38.939323 4.776810 0.000000
263.771060 -38.971779 5.721258 0.000000
266.030790 -40.666927 5.938848 0.000000
264.935820 -39.114048 8.056549 0.000000
263.583620 -40.336380 8.079616 0.000000
248.966900 -38.933067 -0.792357 0.000000
248.280000 -39.333908 -0.808764 0.000000
247.565800 -39.665440 -0.821976 0.000000
247.137950 -41.015526 -0.895267 0.000000
246.411250 -41.403358 -0.913381 0.000000
262.906890 -39.073437 3.406500 0.000000
267.848050 -39.639854 3.543167 0.000000
267.911320 -39.731934 4.735993 0.000000
265.911440 -40.219028 5.853787 0.000000
262.419310 -39.331047 3.160942 0.000000
267.792210 -40.208393 3.296873 0.000000
264.125430 -40.163265 5.565079 0.000000
263.419830 -40.791466 5.566937 0.000000
264.505460 -39.117775 6.692562 0.000000
265.447690 -40.398258 9.262661 0.000000
250.700040 -48.679073 -0.925280 0.000000
250.759540 -51.712730 -1.064491 0.000000
253.364990 -39.151184 -0.533263 0.000000
252.662350 -39.628963 -0.543928 0.000000
251.963500 -40.123222 -0.556009 0.000000
252.198650 -42.643711 -0.670541 0.000000
251.591630 -43.467102 -0.699704 0.000000
250.954850 -44.265545 -0.728078 0.000000
250.299120 -45.062458 -0.756859 0.000000
266.668300 -39.473930 4.093780 0.000000
265.568450 -39.666386 4.062714 0.000000
263.840120 -39.033089 5.166692 0.000000
264.386170 -39.765320 7.635940 0.000000
250.600600 -39.056641 -0.669538 0.000000
249.889980 -39.508701 -0.683032 0.000000
249.602770 -40.880505 -0.746320 0.000000
248.852110 -41.303699 -0.759273 0.000000
248.144730 -41.836788 -0.778681 0.000000
247.428940 -42.369068 -0.798631 0.000000
247.631240 -45.326859 -0.947072 0.000000
246.916890 -46.044216 -0.977580 0.000000
246.193180 -46.780746 -1.009686 0.000000
259.778990 -39.035683 3.797077 0.000000
263.436680 -39.202019 5.131610 0.000000
263.089810 -40.321716 5.162283 0.000000
248.945020 -39.183617 -0.764868 0.000000
248.213170 -39.605595 -0.779831 0.000000
247.900760 -40.934357 -0.845409 0.000000
247.130580 -41.324566 -0.859728 0.000000
246.404280 -41.822388 -0.880593 0.000000
265.802760 -39.366837 4.052481 0.000000
263.106080 -40.891384 5.237551 0.000000
249.033520 -39.056133 -0.806204 0.000000
248.290540 -39.488873 -0.820056 0.000000
247.547200 -39.923542 -0.834657 0.000000
246.801100 -40.356640 -0.849808 0.000000
246.482670 -41.714653 -0.916611 0.000000
267.757350 -40.216064 2.860275 0.000000
265.693700 -39.597191 4.105344 0.000000
259.887940 -39.006466 3.867444 0.000000
264.623170 -39.988216 5.363443 0.000000
263.201750 -39.920033 5.284773 0.000000
247.597700 -39.722191 -0.889523 0.000000
246.839630 -40.161968 -0.903820 0.000000
246.081240 -40.603645 -0.918878 0.000000
267.892610 -38.978573 0.165200 0.000000
267.982480 -40.664169 2.880789 0.000000
263.912200 -39.587402 5.383630 0.000000
263.220550 -40.376354 5.374524 0.000000
249.016450 -39.859329 -0.803391 0.000000
248.232760 -40.320560 -0.814820 0.000000
247.449280 -40.781590 -0.826936 0.000000
247.166760 -42.149380 -0.887678 0.000000
246.372770 -42.631729 -0.902073 0.000000
260.383940 -39.078060 4.142474 0.000000
263.508060 -40.974243 5.664621 0.000000
249.358030 -43.212784 -0.824640 0.000000
248.640900 -43.925472 -0.845016 0.000000
247.883470 -44.585110 -0.863409 0.000000
248.354420 -47.482258 -0.992021 0.000000
247.596240 -48.265892 -1.017217 0.000000
247.199580 -49.787544 -1.078852 0.000000
247.175870 -52.170647 -1.182421 0.000000
250.205490 -39.285343 -0.676123 0.000000
249.959560 -40.590412 -0.725262 0.000000
249.151370 -41.087643 -0.734018 0.000000
263.024810 -39.080967 4.468484 0.000000
267.903470 -39.151981 4.671966 0.000000
250.899720 -50.681316 -1.004091 0.000000
251.901660 -39.161205 -0.608126 0.000000
251.117750 -39.732323 -0.613185 0.000000
251.005710 -41.231579 -0.663469 0.000000
250.325290 -41.985527 -0.678267 0.000000
250.961750 -44.715260 -0.786585 0.000000
250.215450 -45.474201 -0.802005 0.000000
250.991880 -48.697052 -0.932024 0.000000
264.286130 -40.420799 1.915791 0.000000
262.297850 -40.036770 3.277598 0.000000
263.230620 -39.416904 4.673928 0.000000
251.492780 -39.273746 -0.599229 0.000000
251.235180 -40.554008 -0.635768 0.000000
250.460140 -41.193817 -0.642265 0.000000
251.131270 -43.836678 -0.742644 0.000000
250.404080 -44.627407 -0.756613 0.000000
251.147430 -47.623783 -0.871819 0.000000
250.404010 -48.505737 -0.890281 0.000000
268.603390 -39.583420 5.018675 0.000000
263.105160 -39.375248 4.790392 0.000000
252.896130 -46.308212 -0.744287 0.000000
252.200680 -47.260185 -0.760016 0.000000
252.897320 -39.484230 -0.547666 0.000000
252.123600 -40.165211 -0.550697 0.000000
252.704860 -42.513813 -0.629506 0.000000
252.022480 -43.375507 -0.641144 0.000000
265.486630 -39.519226 2.126645 0.000000
261.113280 -40.252914 2.097005 0.000000
268.991000 -39.297012 3.692723 0.000000
266.353700 -40.272358 3.647033 0.000000
267.080990 -40.906902 6.746578 0.000000
249.675280 -47.216045 -0.912091 0.000000
248.945950 -48.136642 -0.930363 0.000000
250.226230 -39.241112 -0.665567 0.000000
249.987750 -40.552055 -0.701678 0.000000
249.177280 -41.194618 -0.706060 0.000000
249.635160 -43.483559 -0.788548 0.000000
248.924330 -44.321751 -0.802746 0.000000
262.425110 -40.761196 3.467795 0.000000
264.354190 -39.291649 4.986986 0.000000
263.086760 -39.768410 4.949944 0.000000
249.994690 -46.217972 -0.856664 0.000000
249.234410 -47.094616 -0.872071 0.000000
250.634980 -40.118855 -0.678625 0.000000
249.756210 -40.719612 -0.679880 0.000000
250.026700 -42.702785 -0.746170 0.000000
249.284550 -43.512959 -0.758086 0.000000
267.369690 -39.961979 2.124967 0.000000
