# .PCD v0.7 - Point Cloud Data file format
VERSION 0.7
FIELDS x y z intensity
SIZE 4 4 4 4
TYPE F F F F
COUNT 1 1 1 1
WIDTH 1212
HEIGHT 1
VIEWPOINT 0 0 0 1 0 0 0
POINTS 1212
DATA ascii
267.659240 97.844566 5.017242 0.000000
260.102780 97.809242 5.031093 0.000000
246.234850 87.561012 6.328772 0.000000
248.843720 101.346300 9.989920 0.000000
247.588900 106.620030 10.398365 0.000000
249.543110 106.971730 10.308809 0.000000
249.059770 108.823370 12.159350 0.000000
250.605500 104.676730 13.344951 0.000000
246.865110 105.384890 13.767030 0.000000
249.425660 108.530270 13.804757 0.000000
252.810330 92.382362 1.973386 0.000000
252.802920 93.674057 1.986531 0.000000
252.795440 94.985916 1.999426 0.000000
252.805710 96.310684 2.012632 0.000000
259.932220 97.813850 2.279956 0.000000
262.094480 97.823906 2.356099 0.000000
264.133820 97.833595 2.427516 0.000000
267.888920 97.851318 2.557882 0.000000
269.622860 97.859779 2.617529 0.000000
252.780090 97.675430 2.024467 0.000000
255.187850 97.791283 2.111528 0.000000
257.619450 97.811455 2.198142 0.000000
252.810730 93.631897 3.473764 0.000000
252.802090 94.943298 3.498471 0.000000
252.802150 96.271965 3.523648 0.000000
252.777560 97.635376 3.549081 0.000000
259.877320 97.805893 3.667968 0.000000
262.042050 97.816391 3.703430 0.000000
264.084010 97.826309 3.736882 0.000000
267.843690 97.844421 3.798471 0.000000
255.125980 97.783020 3.590134 0.000000
257.576720 97.794891 3.630282 0.000000
269.579680 97.853058 3.826914 0.000000
261.989590 97.808868 5.052319 0.000000
264.034150 97.819000 5.047718 0.000000
265.967010 97.828598 5.043759 0.000000
267.798460 97.837494 5.040380 0.000000
269.536470 97.846329 5.037554 0.000000
255.064010 97.774742 5.070613 0.000000
257.518250 97.786873 5.063695 0.000000
259.821990 97.798134 5.057620 0.000000
246.041280 108.823730 7.196933 0.000000
248.022250 107.558040 8.827732 0.000000
246.268950 102.226970 10.330832 0.000000
247.448810 106.250440 10.507268 0.000000
248.863740 106.992830 10.471926 0.000000
247.246780 106.319810 12.260126 0.000000
248.703430 108.653160 12.326065 0.000000
246.325710 106.810780 14.136249 0.000000
250.187640 104.495810 15.239958 0.000000
252.809310 93.169998 1.935923 0.000000
252.801820 94.498535 1.948873 0.000000
252.794300 95.847794 1.961559 0.000000
252.786510 97.219208 1.973974 0.000000
259.473210 97.815979 2.217861 0.000000
261.768040 97.826744 2.299053 0.000000
263.928130 97.836617 2.375066 0.000000
265.965450 97.846130 2.446361 0.000000
267.891570 97.855164 2.513377 0.000000
269.716800 97.863525 2.576503 0.000000
254.416980 97.792358 2.037573 0.000000
257.028350 97.804588 2.130911 0.000000
252.806820 93.132645 3.453990 0.000000
252.809840 94.455833 3.478541 0.000000
252.791760 95.808929 3.503302 0.000000
252.783920 97.179550 3.528554 0.000000
261.713840 97.819046 3.685674 0.000000
263.876740 97.829147 3.721048 0.000000
265.916560 97.838882 3.754414 0.000000
267.845030 97.848122 3.785959 0.000000
269.672420 97.856659 3.815846 0.000000
254.352630 97.783844 3.565265 0.000000
256.967710 97.796364 3.608041 0.000000
259.415950 97.808022 3.648086 0.000000
261.659760 97.811226 5.073891 0.000000
263.825260 97.821663 5.068539 0.000000
265.867680 97.831612 5.063892 0.000000
267.798460 97.841049 5.059889 0.000000
269.628020 97.849777 5.056468 0.000000
254.288190 97.775322 5.094898 0.000000
256.907010 97.788132 5.086986 0.000000
259.358640 97.800049 5.080013 0.000000
245.905520 108.358230 7.229309 0.000000
245.982150 100.303750 8.634579 0.000000
247.813390 107.183000 8.898336 0.000000
249.282200 100.147250 10.146443 0.000000
249.397220 106.201130 10.505217 0.000000
247.755170 97.855835 13.468884 0.000000
247.130360 107.435100 14.293850 0.000000
249.747070 104.289150 15.489599 0.000000
247.319470 107.273590 16.058781 0.000000
252.812160 92.613190 1.889809 0.000000
252.804720 93.958755 1.902089 0.000000
252.797120 95.324371 1.914071 0.000000
252.789460 96.711266 1.925759 0.000000
261.311520 97.830101 2.236674 0.000000
263.604800 97.840683 2.317031 0.000000
265.763430 97.850372 2.392259 0.000000
267.799320 97.859718 2.462811 0.000000
269.724060 97.868576 2.529125 0.000000
253.463170 97.793854 1.958775 0.000000
256.258510 97.806908 2.058221 0.000000
258.868230 97.818916 2.150612 0.000000
252.809620 92.577240 3.439101 0.000000
252.802150 93.922119 3.462570 0.000000
252.794510 95.286987 3.486386 0.000000
261.257450 97.822113 3.665697 0.000000
263.553590 97.832947 3.702473 0.000000
265.714810 97.842865 3.737084 0.000000
267.753080 97.852432 3.769730 0.000000
269.680020 97.861511 3.800593 0.000000
256.197810 97.798363 3.584661 0.000000
258.811000 97.810654 3.626515 0.000000
252.786820 96.673126 3.510575 0.000000
253.398590 97.784996 3.539824 0.000000
263.502320 97.825188 5.089390 0.000000
265.666170 97.835335 5.083300 0.000000
267.706790 97.845123 5.077961 0.000000
269.635930 97.854393 5.073303 0.000000
253.333980 97.776093 5.122791 0.000000
256.137050 97.789795 5.112889 0.000000
258.753720 97.802383 5.104090 0.000000
261.189640 97.821564 5.096540 0.000000
246.340870 105.815230 8.973631 0.000000
247.286470 106.932960 8.989774 0.000000
248.170470 108.076010 9.011351 0.000000
249.745790 99.367271 10.201468 0.000000
249.949570 103.809270 10.443792 0.000000
248.250760 106.339740 10.698603 0.000000
249.387800 107.310840 10.690302 0.000000
247.646640 98.814819 12.024491 0.000000
246.344640 105.718310 12.590931 0.000000
247.577360 106.672760 12.560199 0.000000
249.137180 104.158650 14.009795 0.000000
246.636890 107.155380 14.501824 0.000000
249.029890 104.170580 15.785159 0.000000
246.440190 107.217360 16.373386 0.000000
252.796340 94.687737 1.879709 0.000000
252.780060 97.510910 1.901331 0.000000
269.571290 93.124916 2.460164 0.000000
259.762790 93.038277 2.114309 0.000000
252.804200 93.307648 1.868408 0.000000
263.046480 97.828117 2.263124 0.000000
265.338530 97.838852 2.342432 0.000000
267.495270 97.849091 2.416648 0.000000
269.529690 97.858765 2.486258 0.000000
255.203310 97.790627 1.988848 0.000000
257.996860 97.804123 2.087005 0.000000
252.778350 97.473175 3.526858 0.000000
269.569400 93.094940 3.714389 0.000000
252.801760 93.272491 3.457493 0.000000
252.793900 94.651871 3.480268 0.000000
262.996220 97.819748 3.690954 0.000000
265.290920 97.830727 3.726697 0.000000
267.450040 97.841209 3.760330 0.000000
269.486630 97.851120 3.792055 0.000000
255.143420 97.781349 3.568624 0.000000
257.940490 97.795174 3.612199 0.000000
269.552190 93.072960 4.968034 0.000000
259.762910 92.970657 5.006469 0.000000
262.945920 97.811371 5.120195 0.000000
265.242860 97.822830 5.112294 0.000000
267.404790 97.833336 5.105261 0.000000
269.443540 97.843460 5.099032 0.000000
255.083530 97.772049 5.150126 0.000000
257.884120 97.786209 5.139003 0.000000
252.775910 97.435822 5.151284 0.000000
245.876820 108.761140 7.352345 0.000000
247.154250 99.922272 8.763065 0.000000
247.881100 107.579120 9.087666 0.000000
250.398620 107.739150 10.776122 0.000000
246.871140 104.778630 10.816120 0.000000
248.579280 107.137970 10.849293 0.000000
247.329680 98.230911 12.186034 0.000000
245.986370 103.557820 12.634157 0.000000
247.403690 106.044770 14.523763 0.000000
247.179350 107.835240 14.690347 0.000000
249.965550 104.613450 15.936267 0.000000
247.317870 107.709780 16.534119 0.000000
252.819350 92.662468 1.785527 0.000000
252.811900 94.058022 1.794815 0.000000
252.804380 95.473312 1.803734 0.000000
252.808240 96.904602 1.812659 0.000000
254.010960 97.807854 1.860362 0.000000
259.800690 97.833359 2.063574 0.000000
262.404850 97.845284 2.154304 0.000000
264.844480 97.855560 2.238865 0.000000
269.288180 97.874962 2.391662 0.000000
257.010410 97.820831 1.965878 0.000000
252.816680 92.630302 3.404028 0.000000
252.809200 94.025192 3.424428 0.000000
252.801620 95.439804 3.445118 0.000000
252.805310 96.870453 3.466216 0.000000
262.357030 97.836792 3.627409 0.000000
264.799160 97.847343 3.665143 0.000000
269.247220 97.867218 3.733881 0.000000
253.953830 97.798386 3.497538 0.000000
256.956700 97.811737 3.543941 0.000000
259.750090 97.824554 3.587114 0.000000
262.309940 97.827843 5.101751 0.000000
264.753780 97.839111 5.092597 0.000000
267.047790 97.849533 5.084422 0.000000
269.206240 97.859482 5.077142 0.000000
256.903020 97.802589 5.123442 0.000000
259.699430 97.815758 5.111994 0.000000
252.798450 93.995560 5.053118 0.000000
252.798900 95.406296 5.085452 0.000000
252.791090 96.841248 5.118884 0.000000
253.896700 97.788918 5.136260 0.000000
245.767120 104.748440 7.205729 0.000000
246.007870 99.726013 8.851067 0.000000
246.970090 100.880540 8.856203 0.000000
246.356720 102.772790 8.963608 0.000000
247.522670 107.144820 9.108417 0.000000
246.432160 106.040830 9.104349 0.000000
247.716550 108.739690 9.174604 0.000000
249.442350 99.713470 10.451779 0.000000
250.402590 103.929910 10.615473 0.000000
248.686130 106.469700 10.863496 0.000000
249.694580 107.575910 10.865292 0.000000
246.252690 97.978348 12.380855 0.000000
247.939380 100.359990 12.377069 0.000000
246.160920 102.784700 12.674257 0.000000
246.405760 105.969240 12.857051 0.000000
249.537220 104.298600 14.302908 0.000000
246.823790 107.394230 14.813500 0.000000
246.676570 107.430020 16.740547 0.000000
252.807170 93.307266 1.823691 0.000000
252.791440 96.184433 1.838860 0.000000
252.783910 97.654434 1.845853 0.000000
255.704030 97.804779 1.945503 0.000000
264.089360 97.843391 2.227162 0.000000
266.526520 97.854012 2.308154 0.000000
268.813600 97.864258 2.383739 0.000000
258.699370 97.818695 2.046596 0.000000
252.804180 93.277336 3.480334 0.000000
252.788450 96.153229 3.518932 0.000000
252.780320 97.622826 3.538655 0.000000
264.046600 97.835136 3.698844 0.000000
266.485990 97.846024 3.733054 0.000000
268.775150 97.856514 3.765161 0.000000
255.653030 97.795609 3.581102 0.000000
258.652470 97.809341 3.623171 0.000000
259.808260 93.200150 5.090699 0.000000
261.398130 97.813629 5.185552 0.000000
264.003850 97.826866 5.171631 0.000000
266.445470 97.838020 5.158991 0.000000
268.736600 97.848763 5.147559 0.000000
258.604490 97.800476 5.200982 0.000000
252.817250 93.241394 5.135820 0.000000
252.793370 94.674667 5.166580 0.000000
252.777310 97.590981 5.230508 0.000000
255.602010 97.786400 5.218065 0.000000
246.921330 100.076320 8.988569 0.000000
248.353100 104.267440 9.096708 0.000000
246.739870 106.768920 9.276745 0.000000
247.528440 108.066860 9.299761 0.000000
246.667660 110.254960 11.381524 0.000000
245.944120 103.710770 12.973170 0.000000
246.346470 105.152760 14.942087 0.000000
247.362000 106.326160 14.923507 0.000000
247.166260 108.142320 15.080583 0.000000
252.813930 92.512108 1.809440 0.000000
252.805820 93.953873 1.816687 0.000000
252.797760 95.414993 1.823517 0.000000
252.789550 96.896790 1.829919 0.000000
254.166560 97.794472 1.879705 0.000000
257.393250 97.809402 1.987194 0.000000
260.385560 97.823479 2.086397 0.000000
263.171940 97.835693 2.178305 0.000000
265.770080 97.848511 2.263559 0.000000
268.204770 97.859276 2.343014 0.000000
270.489530 97.869667 2.417156 0.000000
252.811000 92.483719 3.492955 0.000000
252.803910 93.924515 3.511187 0.000000
252.794770 95.385437 3.529647 0.000000
252.786560 96.866623 3.548378 0.000000
260.340940 97.814735 3.661439 0.000000
263.129850 97.827255 3.698885 0.000000
265.730260 97.840355 3.733819 0.000000
268.166990 97.851379 3.766538 0.000000
270.453670 97.862015 3.797246 0.000000
254.116030 97.785034 3.577835 0.000000
257.345890 97.800316 3.621212 0.000000
269.563960 93.367851 5.080867 0.000000
263.087740 97.818802 5.220542 0.000000
265.690400 97.832184 5.205084 0.000000
268.129210 97.843475 5.191005 0.000000
270.417790 97.854340 5.178221 0.000000
252.810420 92.454506 5.175543 0.000000
252.791790 95.355904 5.234862 0.000000
252.783540 96.836464 5.265909 0.000000
254.065490 97.775574 5.277304 0.000000
257.298460 97.791214 5.256470 0.000000
250.504390 102.460480 7.217191 0.000000
246.468120 102.675800 9.229086 0.000000
246.495480 106.048630 9.366262 0.000000
247.154050 107.441960 9.395973 0.000000
250.305890 104.109330 10.954584 0.000000
249.542270 107.859020 11.203247 0.000000
248.309560 98.564095 12.651865 0.000000
245.855000 106.292770 13.314205 0.000000
247.360930 107.257870 13.247999 0.000000
252.816710 92.662689 1.718920 0.000000
252.808530 94.130615 1.723371 0.000000
252.816150 95.611763 1.727871 0.000000
252.781780 97.130219 1.730524 0.000000
254.636180 97.857330 1.794283 0.000000
258.063900 97.818962 1.908654 0.000000
261.124150 97.833267 2.010364 0.000000
263.970760 97.845779 2.104506 0.000000
266.624080 97.858116 2.191802 0.000000
269.105320 97.869926 2.273000 0.000000
252.813630 92.637459 3.436509 0.000000
252.805540 94.104805 3.451977 0.000000
252.797070 95.591621 3.467648 0.000000
252.779390 97.102936 3.483455 0.000000
263.934750 97.837074 3.640889 0.000000
266.589900 97.849716 3.676640 0.000000
269.072810 97.861809 3.710075 0.000000
254.594420 97.847092 3.515702 0.000000
258.023650 97.809586 3.561304 0.000000
261.086120 97.824242 3.602540 0.000000
259.789670 92.839325 5.108093 0.000000
263.898770 97.828346 5.178035 0.000000
266.556460 97.840927 5.162179 0.000000
269.040310 97.853653 5.147818 0.000000
261.048100 97.815201 5.195535 0.000000
252.804320 92.614426 5.153273 0.000000
252.802440 94.079025 5.179660 0.000000
252.785640 97.072144 5.235279 0.000000
254.549530 97.838196 5.238068 0.000000
257.983370 97.800201 5.214835 0.000000
248.162290 102.200640 7.254772 0.000000
250.598660 102.720630 7.205945 0.000000
246.833020 99.451065 9.109562 0.000000
247.072620 102.659970 9.215597 0.000000
247.176540 107.769380 9.410859 0.000000
250.317720 104.440090 11.011832 0.000000
249.214450 106.686210 11.195562 0.000000
246.586610 109.830320 11.525223 0.000000
248.172060 98.842918 12.768194 0.000000
245.923360 101.424350 13.101788 0.000000
246.432660 106.320170 13.334806 0.000000
250.002210 104.530260 14.825024 0.000000
252.815800 92.356354 1.760618 0.000000
252.807400 93.844872 1.769022 0.000000
252.793490 95.354599 1.776821 0.000000
252.790450 96.880554 1.784535 0.000000
257.747500 97.810837 1.954219 0.000000
260.831510 97.875893 2.056683 0.000000
263.902590 97.839668 2.157829 0.000000
266.661040 97.852539 2.248386 0.000000
269.237640 97.864319 2.332526 0.000000
252.812640 92.326782 3.508320 0.000000
252.804230 93.814735 3.527605 0.000000
252.787570 95.324890 3.547071 0.000000
252.787230 96.849190 3.566938 0.000000
257.696660 97.801338 3.644341 0.000000
260.784850 97.866219 3.686069 0.000000
263.857670 97.830887 3.726286 0.000000
266.618650 97.844070 3.763008 0.000000
269.197510 97.856140 3.797305 0.000000
263.812710 97.822083 5.295928 0.000000
266.576230 97.835571 5.278735 0.000000
269.157380 97.847939 5.263118 0.000000
252.801090 93.784599 5.285273 0.000000
252.785770 95.293617 5.316457 0.000000
252.784030 96.817833 5.348399 0.000000
254.076430 97.820930 5.360775 0.000000
257.645750 97.791847 5.335837 0.000000
260.734590 97.858192 5.316735 0.000000
248.238880 101.893650 7.406181 0.000000
250.282650 102.639190 7.374981 0.000000
246.516240 106.085190 9.576190 0.000000
249.071990 106.579180 9.480586 0.000000
247.098800 105.766320 11.520170 0.000000
246.346890 109.723630 11.776388 0.000000
246.770510 86.472038 12.570992 0.000000
247.801180 98.665680 13.043912 0.000000
248.802250 104.909500 13.313723 0.000000
247.348720 107.367150 13.588247 0.000000
249.347690 108.110370 13.467134 0.000000
249.955080 104.318340 15.108658 0.000000
247.821330 107.090580 15.529714 0.000000
252.755830 92.080421 1.732334 0.000000
252.808670 93.569534 1.743859 0.000000
252.800080 95.097763 1.753002 0.000000
252.785580 96.648407 1.761533 0.000000
253.821870 97.790405 1.802569 0.000000
257.326480 97.850815 1.920063 0.000000
260.756590 97.822487 2.034105 0.000000
263.735930 97.885773 2.133089 0.000000
266.705440 97.850082 2.230840 0.000000
269.377500 97.862511 2.318527 0.000000
266.659880 97.841492 3.775217 0.000000
252.691830 92.069611 3.511169 0.000000
252.805270 93.538177 3.532574 0.000000
252.796660 95.065796 3.553154 0.000000
252.779420 96.616882 3.573937 0.000000
253.762820 97.780365 3.602784 0.000000
257.272710 97.840584 3.650302 0.000000
260.705050 97.813232 3.695601 0.000000
263.688630 97.876312 3.736154 0.000000
269.334470 97.854218 3.810977 0.000000
266.614290 97.832886 5.320824 0.000000
269.291470 97.845909 5.304576 0.000000
252.801860 93.506844 5.320362 0.000000
252.793240 95.033852 5.352366 0.000000
252.784670 96.580925 5.385342 0.000000
253.703740 97.770317 5.404669 0.000000
257.213620 97.832611 5.382102 0.000000
260.653470 97.803970 5.358521 0.000000
263.637660 97.868546 5.340548 0.000000
250.147130 102.494170 7.449400 0.000000
246.257340 102.457760 9.548683 0.000000
248.897840 106.480940 9.591500 0.000000
246.280000 109.559140 11.910368 0.000000
247.787830 98.376991 13.200144 0.000000
248.971790 108.137330 13.669064 0.000000
245.894990 102.535430 13.595399 0.000000
247.277830 107.195920 13.753003 0.000000
249.652560 104.263950 15.337408 0.000000
247.446690 107.072160 15.768020 0.000000
259.793980 93.042015 1.949337 0.000000
252.810090 94.067207 1.718735 0.000000
252.792390 97.203842 1.738732 0.000000
255.233400 97.800758 1.824693 0.000000
262.176180 97.832718 2.057608 0.000000
265.159090 97.895996 2.157217 0.000000
269.595460 93.192520 2.280999 0.000000
268.132050 97.860207 2.255530 0.000000
259.788640 93.012054 3.621847 0.000000
269.593810 93.163872 3.756004 0.000000
252.806720 94.034058 3.542277 0.000000
252.789380 97.169243 3.586317 0.000000
255.171080 97.790878 3.627162 0.000000
262.121800 97.823631 3.721206 0.000000
265.109130 97.886688 3.762317 0.000000
268.084010 97.851791 3.801877 0.000000
269.591370 93.135582 5.230170 0.000000
268.035980 97.843338 5.349561 0.000000
270.716710 97.856308 5.333722 0.000000
252.811940 92.463402 5.332300 0.000000
259.786770 92.980835 5.293520 0.000000
252.803380 94.000916 5.364855 0.000000
252.785980 97.134827 5.432900 0.000000
255.108720 97.780960 5.431440 0.000000
262.067380 97.814537 5.386350 0.000000
265.055420 97.879143 5.368863 0.000000
248.508700 98.758766 7.446242 0.000000
248.975630 100.249280 7.478750 0.000000
246.143520 103.159210 7.644862 0.000000
245.830230 89.792198 9.217419 0.000000
246.521640 99.491158 9.519838 0.000000
249.653630 106.817090 9.670908 0.000000
247.065030 102.724080 9.620053 0.000000
249.455080 108.668940 11.787582 0.000000
247.364230 99.087784 13.435795 0.000000
245.774000 101.436580 13.704479 0.000000
245.795320 103.186220 13.801370 0.000000
252.801730 94.975197 1.858864 0.000000
252.793060 96.565887 1.878752 0.000000
253.595410 97.858627 1.921941 0.000000
257.595280 97.818192 2.056728 0.000000
261.139740 97.834290 2.176270 0.000000
267.449680 97.862343 2.387621 0.000000
270.214480 97.903946 2.479852 0.000000
252.798680 94.929924 3.718279 0.000000
252.789980 96.519882 3.750171 0.000000
264.339720 97.839417 3.933470 0.000000
267.379700 97.853424 3.975005 0.000000
270.205960 97.866951 4.013630 0.000000
257.509190 97.807838 3.840142 0.000000
261.059230 97.824654 3.888656 0.000000
253.503340 97.847321 3.786577 0.000000
269.563050 92.789764 5.403813 0.000000
267.309630 97.844490 5.564743 0.000000
252.806820 93.314407 5.533868 0.000000
257.151310 93.349358 5.504090 0.000000
257.988220 94.537849 5.531050 0.000000
258.782350 95.729256 5.558918 0.000000
264.177030 97.869904 5.584974 0.000000
260.979190 97.814735 5.603770 0.000000
246.398990 88.819199 7.418509 0.000000
248.816160 99.587883 7.712598 0.000000
250.244780 102.412090 7.778255 0.000000
248.350860 101.488160 7.794390 0.000000
249.285250 101.052290 9.737148 0.000000
248.540420 106.653920 10.033487 0.000000
250.494690 100.504490 11.615562 0.000000
246.628570 105.672010 12.157334 0.000000
248.376010 108.502250 12.206330 0.000000
247.593340 98.205826 13.700571 0.000000
246.770550 105.553020 14.227895 0.000000
246.923860 107.308640 14.331167 0.000000
249.356020 104.332540 15.958479 0.000000
246.687160 107.364350 16.470123 0.000000
252.813600 92.481148 1.773344 0.000000
252.804780 94.059631 1.790783 0.000000
252.784990 95.660706 1.807527 0.000000
266.234130 97.853775 2.279362 0.000000
262.873290 97.882225 2.168142 0.000000
259.440980 97.823273 2.053215 0.000000
252.787110 97.274086 1.824567 0.000000
255.600860 97.806091 1.924530 0.000000
252.810460 92.440887 3.642467 0.000000
252.801640 94.018707 3.670654 0.000000
252.780210 95.619659 3.699089 0.000000
266.167180 97.844971 3.915843 0.000000
262.803770 97.871994 3.871899 0.000000
259.364720 97.813255 3.825417 0.000000
252.783970 97.231766 3.728057 0.000000
255.518430 97.795624 3.774293 0.000000
269.550960 93.582634 5.417821 0.000000
269.159480 97.837036 5.534373 0.000000
259.789730 93.114548 5.475946 0.000000
252.807400 92.400604 5.510620 0.000000
253.126920 93.868820 5.544376 0.000000
266.101070 97.835709 5.554493 0.000000
254.337650 96.611847 5.604507 0.000000
262.728760 97.864075 5.578005 0.000000
255.409580 97.795410 5.627244 0.000000
248.195330 98.844872 7.717089 0.000000
248.840350 100.317590 7.748627 0.000000
246.281590 103.103650 7.913808 0.000000
246.012020 105.032670 7.988437 0.000000
249.897610 99.858871 9.691580 0.000000
250.181880 104.798950 16.004122 0.000000
247.540300 107.826060 16.506538 0.000000
252.813870 93.195663 1.741163 0.000000
268.195310 97.877518 2.293640 0.000000
252.806470 94.798264 1.756342 0.000000
264.955870 97.863388 2.187121 0.000000
253.461360 97.813202 1.805659 0.000000
269.577940 93.129807 3.855693 0.000000
252.803130 94.760094 3.666238 0.000000
264.892760 97.853729 3.872374 0.000000
252.794530 96.381348 3.692560 0.000000
252.811740 93.157745 3.640223 0.000000
268.136470 97.868233 3.914386 0.000000
253.381900 97.802200 3.723291 0.000000
269.575620 93.097610 5.408186 0.000000
256.048250 92.111496 5.489530 0.000000
256.461610 93.511360 5.518433 0.000000
256.751710 94.956100 5.549897 0.000000
268.077580 97.858955 5.536964 0.000000
264.829590 97.844078 5.559609 0.000000
256.961640 96.438080 5.583414 0.000000
245.886220 88.482224 7.511548 0.000000
248.828610 99.402786 7.742431 0.000000
248.498410 106.603290 10.084779 0.000000
247.664090 99.746109 11.903896 0.000000
248.315510 108.490210 12.299078 0.000000
249.361010 104.323170 14.083096 0.000000
246.762620 107.289990 14.489410 0.000000
246.545590 107.339650 16.676672 0.000000
252.812290 93.349678 1.897742 0.000000
252.802800 94.969406 1.914706 0.000000
258.292300 97.839066 2.116623 0.000000
252.793950 96.607628 1.931293 0.000000
254.176480 97.762146 1.986430 0.000000
269.133580 97.831467 4.078288 0.000000
252.808110 93.311493 3.821228 0.000000
265.743380 97.852875 4.041395 0.000000
262.153320 97.836754 4.001661 0.000000
252.800840 94.929962 3.848946 0.000000
258.242650 97.818665 3.958370 0.000000
252.790510 96.568069 3.876968 0.000000
254.095930 97.750542 3.911625 0.000000
266.393010 93.270546 5.611708 0.000000
261.288570 92.156586 5.634033 0.000000
266.561280 94.611145 5.643324 0.000000
256.702480 92.092545 5.677631 0.000000
261.448910 93.571373 5.666504 0.000000
266.719180 95.967934 5.675944 0.000000
266.865970 97.342972 5.709633 0.000000
246.513210 88.364105 7.725812 0.000000
248.500960 106.823320 10.357056 0.000000
246.490280 105.787800 12.568602 0.000000
246.867900 107.448040 14.800674 0.000000
262.693390 97.845856 2.101661 0.000000
252.793980 95.002792 1.770091 0.000000
258.671750 97.827194 1.974576 0.000000
252.784680 96.656380 1.780543 0.000000
254.425870 97.748260 1.839492 0.000000
269.741210 97.859100 3.955809 0.000000
262.665190 97.825714 3.876252 0.000000
266.351100 97.843140 3.917694 0.000000
252.790130 94.971298 3.728159 0.000000
258.640930 97.806427 3.831002 0.000000
252.780790 96.624344 3.749876 0.000000
254.364440 97.736565 3.782265 0.000000
263.265350 94.575447 5.578235 0.000000
258.042850 93.296310 5.602320 0.000000
269.694730 97.849747 5.588680 0.000000
263.193510 96.084610 5.610025 0.000000
257.973450 94.867508 5.634251 0.000000
266.384520 97.799118 5.617124 0.000000
263.097720 97.625351 5.643227 0.000000
246.423340 88.299240 7.679781 0.000000
248.479130 99.735756 7.904085 0.000000
249.576480 102.877120 7.960665 0.000000
250.024380 99.158264 9.890410 0.000000
246.275960 102.288740 10.190574 0.000000
245.954760 108.024310 10.422331 0.000000
246.561950 98.547829 12.166884 0.000000
246.609600 105.818100 12.481007 0.000000
248.145230 107.041220 12.432161 0.000000
246.934480 107.523130 14.730931 0.000000
252.808140 93.386803 1.940422 0.000000
252.811770 95.032875 1.955017 0.000000
252.772060 96.710358 1.967971 0.000000
270.384890 97.871468 4.141854 0.000000
267.002750 97.816925 4.109574 0.000000
252.804580 93.353111 3.910710 0.000000
263.212190 97.801880 4.074085 0.000000
252.795500 95.002594 3.935301 0.000000
258.969790 97.819107 4.034875 0.000000
252.786360 96.669952 3.960160 0.000000
254.409210 97.797874 3.992130 0.000000
270.015320 92.426414 5.662716 0.000000
266.860350 92.094902 5.691454 0.000000
270.073210 93.770767 5.691915 0.000000
262.101900 92.144089 5.747335 0.000000
270.039220 95.165207 5.723758 0.000000
247.039150 86.381210 7.869223 0.000000
246.203550 88.237495 7.940988 0.000000
247.953120 99.931213 8.194185 0.000000
249.826480 99.253860 10.190556 0.000000
246.314970 102.280240 10.486109 0.000000
248.627440 106.938490 10.547548 0.000000
246.361420 105.949080 12.828569 0.000000
246.949050 107.561680 15.078306 0.000000
252.828000 96.939896 1.727631 0.000000
259.802220 93.191452 1.937619 0.000000
252.810870 93.602425 1.728988 0.000000
269.491330 93.041687 3.866518 0.000000
259.798710 93.177246 3.781601 0.000000
268.001680 97.859604 3.880539 0.000000
264.151670 97.841682 3.846404 0.000000
252.807100 93.587334 3.722109 0.000000
260.049620 97.779800 3.809792 0.000000
252.788830 96.935272 3.740841 0.000000
269.476810 93.032433 5.507524 0.000000
262.337860 92.409813 5.585382 0.000000
258.303710 92.046692 5.630096 0.000000
261.645360 94.125618 5.614344 0.000000
265.275360 95.912766 5.593782 0.000000
264.596310 97.659454 5.624599 0.000000
248.538440 100.020530 7.967688 0.000000
249.475570 105.122370 8.042538 0.000000
249.783140 99.586227 10.017532 0.000000
247.454280 102.185930 10.211370 0.000000
249.581600 106.911930 10.237730 0.000000
248.065290 100.141930 12.267618 0.000000
246.822940 106.126370 12.571644 0.000000
247.118530 105.989900 14.760138 0.000000
247.100830 107.896970 14.850761 0.000000
269.749630 97.875305 4.096013 0.000000
265.935120 97.857872 4.085455 0.000000
252.818510 92.506760 4.063367 0.000000
261.868290 97.797569 4.074312 0.000000
252.809630 94.172287 4.058868 0.000000
252.800740 95.854309 4.054325 0.000000
257.255890 97.779114 4.061539 0.000000
252.791720 97.554131 4.049733 0.000000
269.922090 92.166420 5.754718 0.000000
250.133120 101.953080 8.272490 0.000000
247.528350 106.621250 8.430529 0.000000
249.971150 103.827000 10.444481 0.000000
246.262990 103.325230 10.652683 0.000000
248.310410 106.317130 10.593192 0.000000
250.313080 107.384560 10.500351 0.000000
248.289280 98.986519 12.603033 0.000000
245.943210 103.442090 12.902668 0.000000
249.482450 104.016600 14.805248 0.000000
247.595440 106.605450 15.087383 0.000000
267.714810 89.973770 1.836990 0.000000
257.047910 86.518555 1.541452 0.000000
267.740690 91.375122 1.821678 0.000000
257.839900 87.907623 1.552283 0.000000
267.753050 92.793739 1.805229 0.000000
258.594790 89.287720 1.561470 0.000000
258.991060 90.741417 1.558145 0.000000
252.808790 93.953857 3.361376 0.000000
252.817660 92.278870 3.370991 0.000000
265.811830 97.863525 3.467153 0.000000
261.590580 97.802406 3.425942 0.000000
252.799900 95.644859 3.351670 0.000000
256.788480 97.783485 3.378774 0.000000
252.790950 97.353149 3.341866 0.000000
269.793880 97.871872 5.209189 0.000000
265.849240 97.853722 5.250969 0.000000
261.635680 97.791245 5.296084 0.000000
256.838680 97.772163 5.348127 0.000000
252.813660 92.286407 5.391322 0.000000
252.804780 93.961151 5.391004 0.000000
252.795870 95.651871 5.391303 0.000000
252.786880 97.359894 5.392230 0.000000
246.120030 88.652542 7.618701 0.000000
248.223750 98.755081 7.599029 0.000000
248.924350 100.339070 7.588454 0.000000
248.544130 104.134370 7.632578 0.000000
246.140780 103.111850 7.698806 0.000000
249.829220 100.051490 9.691196 0.000000
246.677520 104.816140 9.929658 0.000000
248.620010 105.980210 9.849544 0.000000
247.185150 108.451950 9.968013 0.000000
247.776400 98.903015 11.957389 0.000000
247.196230 104.632690 12.125641 0.000000
249.189910 109.556880 12.112322 0.000000
246.356780 106.854890 14.508883 0.000000
270.245970 86.105026 1.794548 0.000000
268.578430 97.858170 3.312674 0.000000
269.570400 93.175018 3.365468 0.000000
264.339360 97.838242 3.265958 0.000000
252.803960 93.160576 3.180119 0.000000
259.786250 97.773323 3.216168 0.000000
252.797180 94.856705 3.164898 0.000000
252.785280 96.570465 3.149462 0.000000
269.542300 93.193008 5.059190 0.000000
259.727600 93.014496 5.157031 0.000000
268.628300 97.848610 5.058628 0.000000
264.395630 97.828293 5.098904 0.000000
259.854160 97.761581 5.142778 0.000000
252.800020 93.174194 5.226191 0.000000
252.781340 96.583496 5.215160 0.000000
249.287160 108.694490 11.912325 0.000000
247.066010 105.732120 14.265152 0.000000
247.238080 107.588010 14.303865 0.000000
249.890870 104.714630 16.182774 0.000000
247.078580 107.659950 16.607117 0.000000
269.682530 97.887604 3.078639 0.000000
260.745730 97.809601 2.962571 0.000000
252.801150 95.111664 2.891911 0.000000
252.810150 93.399368 2.913213 0.000000
252.792450 96.839951 2.870416 0.000000
255.324370 97.824463 2.891392 0.000000
269.747130 97.877899 4.821042 0.000000
260.830840 97.798264 4.889024 0.000000
252.806530 93.419220 4.980936 0.000000
252.782680 95.135078 4.969074 0.000000
252.788770 96.859123 4.957550 0.000000
255.419460 97.813187 4.930873 0.000000
250.449550 102.951910 7.115620 0.000000
245.840790 108.410460 7.257401 0.000000
246.267940 102.479260 9.495869 0.000000
246.560840 106.208620 9.513647 0.000000
247.269730 107.887600 9.496523 0.000000
250.270170 104.897080 11.521777 0.000000
246.477070 110.178160 11.879953 0.000000
245.766890 106.528460 14.174131 0.000000
250.395750 104.886060 15.932085 0.000000
252.811580 92.857376 2.959072 0.000000
259.326480 97.839241 2.979589 0.000000
253.852650 97.762436 2.911212 0.000000
269.022640 97.847145 3.102303 0.000000
252.802610 94.578560 2.937537 0.000000
252.793430 96.315170 2.915808 0.000000
269.094180 97.836884 4.876499 0.000000
264.423400 97.862625 4.913851 0.000000
259.416500 97.828674 4.954833 0.000000
252.807830 92.878105 5.044164 0.000000
252.814120 94.595146 5.031478 0.000000
252.789580 96.335236 5.019526 0.000000
253.962430 97.749413 5.000360 0.000000
250.620680 102.362590 7.187089 0.000000
246.366820 99.965744 9.573662 0.000000
250.542180 100.596050 11.552988 0.000000
249.432980 108.467740 11.756630 0.000000
246.847410 105.566200 14.188093 0.000000
247.154340 107.398150 14.204369 0.000000
249.713620 104.595950 16.150740 0.000000
246.903580 107.507770 16.554689 0.000000
267.034420 97.822327 3.124203 0.000000
252.805980 93.585953 2.999159 0.000000
252.796720 95.328659 2.978553 0.000000
256.206020 97.877319 2.990482 0.000000
252.787350 97.086967 2.957763 0.000000
267.113160 97.810921 4.959680 0.000000
261.918670 97.868607 5.003617 0.000000
252.801880 93.605721 5.109781 0.000000
252.792590 95.348099 5.098273 0.000000
256.306640 97.865364 5.052053 0.000000
252.783160 97.106110 5.087313 0.000000
248.172450 102.099470 7.356020 0.000000
245.877470 104.744630 7.427005 0.000000
250.050230 99.700226 9.504787 0.000000
248.898350 101.894800 9.578063 0.000000
248.219420 105.916850 9.646284 0.000000
246.109250 86.104477 11.916367 0.000000
249.262540 109.438210 11.927406 0.000000
250.381230 105.220830 16.276247 0.000000
252.806790 93.310822 3.024973 0.000000
252.797470 95.071274 3.007639 0.000000
266.452360 97.912704 3.150723 0.000000
261.367550 97.872070 3.087490 0.000000
255.578410 97.853165 3.015231 0.000000
266.521030 97.901649 5.024291 0.000000
261.446620 97.860291 5.066698 0.000000
252.802700 93.326599 5.160298 0.000000
252.786130 95.088478 5.151987 0.000000
252.783940 96.862198 5.144149 0.000000
255.670290 97.840500 5.115520 0.000000
249.043880 101.607990 9.683348 0.000000
246.760150 106.196140 9.843767 0.000000
247.322860 98.339165 12.030717 0.000000
252.789310 95.604385 3.206491 0.000000
268.435420 97.856293 3.356486 0.000000
263.218840 97.885246 3.300120 0.000000
252.779600 97.402176 3.191733 0.000000
257.717900 97.813438 3.241516 0.000000
269.539950 92.972023 5.209135 0.000000
268.493070 97.846420 5.209996 0.000000
252.813000 92.066559 5.387195 0.000000
252.879330 93.816353 5.380392 0.000000
252.784850 95.617416 5.375768 0.000000
257.818940 97.795349 5.318170 0.000000
248.097200 98.666733 7.701974 0.000000
248.835390 100.356290 7.684583 0.000000
246.122730 103.081830 7.780261 0.000000
248.539610 104.279850 7.711392 0.000000
249.694150 100.124040 9.920703 0.000000
246.691450 104.885980 10.128225 0.000000
248.965740 106.096510 10.026373 0.000000
246.373720 108.998690 10.197987 0.000000
247.836330 100.663460 12.334475 0.000000
247.408280 106.638890 12.472609 0.000000
249.391510 104.037900 14.586729 0.000000
247.605260 106.582180 14.819813 0.000000
252.801800 93.053162 3.398504 0.000000
252.792050 94.845322 3.388071 0.000000
252.782290 96.652611 3.377550 0.000000
266.674930 97.854568 3.502549 0.000000
261.295200 97.830231 3.451600 0.000000
255.363220 97.769852 3.395614 0.000000
266.726290 97.844002 5.413505 0.000000
254.289000 92.738098 5.559102 0.000000
253.056030 94.790848 5.571675 0.000000
252.772510 96.662476 5.573903 0.000000
261.354370 97.819054 5.474706 0.000000
255.434190 97.757324 5.542789 0.000000
248.482760 99.660896 7.927824 0.000000
249.794720 99.310173 10.161474 0.000000
249.822680 106.997350 10.265102 0.000000
269.518100 93.092155 3.753921 0.000000
252.801210 93.750748 3.634561 0.000000
252.791720 95.570175 3.622410 0.000000
263.954830 97.822571 3.684234 0.000000
269.107450 97.876236 3.719319 0.000000
257.951050 97.825768 3.642916 0.000000
266.536130 92.292320 5.648855 0.000000
269.569490 93.087914 5.604390 0.000000
264.475490 96.031700 5.673752 0.000000
269.230990 97.845856 5.606104 0.000000
264.023380 97.811523 5.678978 0.000000
260.484950 92.064598 5.736300 0.000000
250.270970 103.829010 10.514977 0.000000
252.804600 92.635284 2.713371 0.000000
252.784380 96.314163 2.699640 0.000000
266.451050 97.851631 2.925300 0.000000
254.018230 97.851173 2.714924 0.000000
266.476440 97.841187 4.895501 0.000000
252.800030 92.636543 4.944746 0.000000
252.796660 94.466438 4.946528 0.000000
252.779860 96.314186 4.949071 0.000000
260.745940 97.814026 4.918548 0.000000
254.059490 97.838577 4.946256 0.000000
267.758120 97.867844 3.983093 0.000000
262.013150 97.847626 3.941260 0.000000
255.354260 97.867798 3.893625 0.000000
269.435060 97.936913 3.466434 0.000000
264.143830 97.813850 3.391226 0.000000
269.407500 97.926308 5.423425 0.000000
258.711730 97.527359 5.493409 0.000000
265.983460 96.749741 5.569652 0.000000
268.145080 97.822273 5.573835 0.000000
262.960880 97.884521 5.536096 0.000000
269.201570 97.834618 5.507839 0.000000
263.979860 97.868744 5.383282 0.000000
270.215390 97.819931 5.372387 0.000000
268.613160 97.654892 5.754011 0.000000
269.531860 92.902962 3.166335 0.000000
270.046510 97.717834 3.235162 0.000000
269.873840 91.962448 5.870787 0.000000
266.571010 97.708061 3.158669 0.000000
268.812440 92.003456 5.799755 0.000000
266.479000 91.981750 5.798963 0.000000
270.112120 91.958916 5.728590 0.000000
263.122440 91.963348 5.725942 0.000000
269.150180 91.963120 5.684593 0.000000
262.199800 91.967834 5.689104 0.000000
268.322450 97.686096 5.674718 0.000000
261.171630 97.670212 5.679957 0.000000
267.302610 97.681854 5.611323 0.000000
262.604490 97.644073 5.613011 0.000000
260.190580 97.665649 5.616436 0.000000
261.575900 97.668091 2.630260 0.000000
259.176450 97.688789 2.611521 0.000000
263.931120 97.674347 2.648902 0.000000
256.753540 97.680733 2.592328 0.000000
259.153840 97.664345 5.387738 0.000000
269.829410 97.708405 2.646115 0.000000
267.568210 97.716888 2.627204 0.000000
262.981600 97.682312 2.588373 0.000000
260.639530 97.676666 2.568653 0.000000
258.253450 97.697876 2.548810 0.000000
252.891430 93.572205 2.466093 0.000000
262.957280 97.661255 5.310772 0.000000
255.822660 97.660645 5.309823 0.000000
252.886930 93.509186 5.191781 0.000000
268.765320 97.705154 2.624046 0.000000
261.955930 97.677658 2.577270 0.000000
259.627040 97.671509 2.561300 0.000000
257.254390 97.692017 2.545255 0.000000
254.858550 97.684158 2.528813 0.000000
264.227390 97.685379 5.283594 0.000000
259.599790 97.670082 5.287323 0.000000
269.973240 97.718201 2.610879 0.000000
267.772280 97.690666 2.596336 0.000000
265.535610 97.698326 2.581848 0.000000
263.277280 97.691147 2.567098 0.000000
260.998810 97.662750 2.552043 0.000000
258.682160 97.656448 2.536921 0.000000
252.745500 95.002220 2.476627 0.000000
256.307220 97.647202 5.252457 0.000000
252.740840 94.951988 5.184777 0.000000
247.238680 86.828110 12.819186 0.000000
264.461000 97.700104 2.691793 0.000000
262.215790 97.693161 2.681773 0.000000
257.647400 97.658997 2.661214 0.000000
255.300990 97.679276 2.650974 0.000000
252.931640 97.671509 2.640395 0.000000
268.872740 97.719482 2.711532 0.000000
264.448360 97.680374 5.336385 0.000000
259.930020 97.665375 5.349250 0.000000
252.922350 97.641968 5.375447 0.000000
252.759720 92.773987 5.238230 0.000000
245.824370 87.828110 7.752286 0.000000
254.284910 97.665665 3.025211 0.000000
252.806780 95.665924 3.005291 0.000000
263.405060 97.617065 5.653194 0.000000
261.153840 97.666290 5.670797 0.000000
256.613560 97.628265 5.704555 0.000000
253.501460 94.061859 5.623503 0.000000
246.590090 89.088547 8.146966 0.000000
267.541530 97.732430 2.556747 0.000000
269.679080 97.736580 2.553302 0.000000
265.388700 97.707588 2.560106 0.000000
263.206450 97.703117 2.563621 0.000000
261.007570 97.674072 2.567032 0.000000
258.767670 97.685555 2.570726 0.000000
256.505620 97.677986 2.574354 0.000000
254.212880 97.670448 2.578032 0.000000
252.760730 95.635887 2.569549 0.000000
265.395480 97.685509 5.151841 0.000000
261.015170 97.650597 5.188072 0.000000
254.230190 97.624535 5.251029 0.000000
252.755980 95.642769 5.215468 0.000000
246.713010 88.904427 7.685101 0.000000
248.734850 104.970180 8.364299 0.000000
248.906200 104.568080 11.210369 0.000000
247.625700 87.126038 12.662954 0.000000
249.105670 104.100720 14.039598 0.000000
269.119020 97.715851 2.519319 0.000000
264.861660 97.702179 2.517719 0.000000
262.699800 97.695221 2.516906 0.000000
260.513550 97.688126 2.516084 0.000000
258.300600 97.682343 2.515259 0.000000
256.061680 97.670990 2.514394 0.000000
253.790220 97.666229 2.513555 0.000000
252.768650 94.642708 2.496307 0.000000
264.857210 97.699409 5.091201 0.000000
260.515410 97.665573 5.118053 0.000000
253.792510 97.643402 5.166486 0.000000
252.762890 94.639557 5.097385 0.000000
246.441350 88.715492 7.548348 0.000000
248.438100 99.217918 7.984228 0.000000
248.399080 104.895920 8.243995 0.000000
248.675020 98.668777 10.681420 0.000000
249.772660 107.549650 11.239318 0.000000
248.473590 104.702190 11.083076 0.000000
247.425400 86.753983 12.454717 0.000000
247.310990 107.419940 14.214586 0.000000
269.883640 97.717575 2.566687 0.000000
265.690430 97.703773 2.560573 0.000000
263.557460 97.715080 2.557577 0.000000
261.413150 97.689796 2.554336 0.000000
259.238920 97.682625 2.551165 0.000000
257.038570 97.675354 2.547957 0.000000
254.810380 97.667976 2.544707 0.000000
252.808940 97.026695 2.537805 0.000000
252.698040 91.927650 2.505642 0.000000
265.688350 97.682198 5.105778 0.000000
259.236330 97.663139 5.138447 0.000000
252.804230 97.012543 5.161095 0.000000
252.696290 91.907417 5.026901 0.000000
246.330510 106.839810 8.344744 0.000000
250.019300 103.833270 10.941568 0.000000
245.872710 102.169200 13.735306 0.000000
249.694750 104.578670 16.650358 0.000000
257.413640 97.679947 2.258716 0.000000
270.088870 97.721497 2.277457 0.000000
265.947080 97.707870 2.271333 0.000000
263.847350 97.700928 2.268228 0.000000
261.726290 97.694016 2.265092 0.000000
259.582240 97.687057 2.261923 0.000000
255.217440 97.675903 2.255481 0.000000
252.995240 97.665421 2.252184 0.000000
252.836060 92.556488 2.233087 0.000000
268.022030 97.710709 4.784918 0.000000
265.946690 97.686493 4.792857 0.000000
259.575740 97.685959 4.823744 0.000000
252.996280 97.643341 4.861759 0.000000
252.831530 92.549332 4.740847 0.000000
247.891370 104.560470 7.855555 0.000000
248.160810 98.297302 7.576166 0.000000
249.673920 106.112660 10.714834 0.000000
246.955890 86.297379 11.971351 0.000000
248.292100 97.954987 12.893509 0.000000
248.989200 107.844790 13.708631 0.000000
247.574520 105.291020 13.535663 0.000000
250.218480 104.676420 16.203964 0.000000
247.222960 100.414060 15.876446 0.000000
246.776610 107.212340 16.606359 0.000000
261.992980 97.683464 1.998899 0.000000
259.872340 97.688835 1.995296 0.000000
264.783390 95.198608 2.000253 0.000000
257.732150 97.681602 1.991643 0.000000
255.568560 97.669685 1.987944 0.000000
253.374860 97.667030 1.984206 0.000000
268.694150 87.974068 1.997035 0.000000
252.877470 93.304901 1.977397 0.000000
266.160340 97.688255 4.507084 0.000000
255.571110 97.646729 4.556105 0.000000
253.377500 97.644814 4.568771 0.000000
252.872300 93.303841 4.477565 0.000000
245.875670 104.897510 7.568072 0.000000
249.910740 106.838220 10.398726 0.000000
247.654040 106.456350 10.424236 0.000000
248.397140 104.563580 13.070328 0.000000
248.178570 99.320183 15.330969 0.000000
247.407410 107.047110 16.156179 0.000000
261.486080 97.686028 2.598172 0.000000
252.868040 92.196732 2.521365 0.000000
269.687930 97.699440 2.632179 0.000000
267.661190 97.706772 2.623855 0.000000
265.621120 97.699936 2.615371 0.000000
263.563230 97.693108 2.606812 0.000000
259.387880 97.679062 2.589446 0.000000
257.260310 97.692963 2.580755 0.000000
252.951750 97.656967 2.562674 0.000000
261.476500 97.664421 5.106568 0.000000
257.250430 97.672134 5.116589 0.000000
252.942200 97.634872 5.128650 0.000000
252.864290 92.161819 4.976131 0.000000
247.956820 104.759810 8.098788 0.000000
248.122390 98.536110 7.797545 0.000000
249.382140 107.202840 10.999158 0.000000
246.204820 103.183140 10.785426 0.000000
246.898830 86.290543 12.032576 0.000000
248.187530 98.283951 13.044165 0.000000
247.629990 105.500890 13.701048 0.000000
249.048290 108.056180 13.891457 0.000000
247.334010 100.324680 15.942814 0.000000
250.237430 104.777850 16.328238 0.000000
246.905330 107.314640 16.722628 0.000000
270.296750 97.716209 2.934814 0.000000
266.282750 97.703255 2.912037 0.000000
264.251920 97.696709 2.900514 0.000000
262.203340 97.690178 2.888891 0.000000
258.050930 97.663139 2.865185 0.000000
255.935530 97.669968 2.853325 0.000000
253.800230 97.663033 2.841209 0.000000
252.819110 94.451775 2.801973 0.000000
268.282290 97.689056 5.377266 0.000000
262.188170 97.668282 5.373776 0.000000
253.784120 97.641571 5.379851 0.000000
252.814970 94.399025 5.280865 0.000000
246.604130 88.831642 7.547404 0.000000
248.846210 105.098900 8.351936 0.000000
248.613630 99.672783 8.075571 0.000000
251.250850 104.760130 11.026105 0.000000
249.182500 104.116790 11.013726 0.000000
247.485230 86.765236 12.195144 0.000000
248.852040 104.941800 13.822584 0.000000
246.477080 105.031820 13.891057 0.000000
248.489520 99.794014 16.007862 0.000000
266.949550 97.703186 3.051964 0.000000
264.944700 97.696518 3.039342 0.000000
262.922210 97.695183 3.026674 0.000000
258.832490 97.656502 3.000630 0.000000
256.748140 97.668724 2.987736 0.000000
254.646710 97.662788 2.974519 0.000000
252.812010 96.822914 2.953061 0.000000
247.544070 105.242760 5.740018 0.000000
266.935270 97.669601 5.493707 0.000000
262.906070 97.668831 5.488591 0.000000
245.904240 103.457500 5.684759 0.000000
256.734440 97.632835 5.485306 0.000000
254.628250 97.641296 5.486399 0.000000
252.807680 96.760590 5.459090 0.000000
250.243970 103.947780 11.055137 0.000000
246.525300 86.146179 12.183252 0.000000
246.897830 106.756320 14.089919 0.000000
245.883380 103.284360 13.789361 0.000000
267.609380 97.704422 3.083353 0.000000
265.628750 97.697937 3.071092 0.000000
263.633390 97.691315 3.058740 0.000000
261.620480 97.689941 3.046342 0.000000
257.544340 97.671295 3.021046 0.000000
255.475340 97.664543 3.008239 0.000000
253.384120 97.657738 2.995294 0.000000
252.810260 93.230904 2.938227 0.000000
246.227570 105.439560 5.757928 0.000000
265.614590 97.665001 5.501316 0.000000
263.616240 97.670906 5.498826 0.000000
259.574980 97.657509 5.495194 0.000000
255.457150 97.643791 5.494522 0.000000
253.365690 97.636795 5.495322 0.000000
252.820530 93.129791 5.348103 0.000000
246.342300 88.621407 7.586796 0.000000
248.274510 99.812622 8.157106 0.000000
248.636340 105.040970 8.432242 0.000000
251.060350 104.469960 11.050276 0.000000
248.653900 98.710419 10.660998 0.000000
248.779340 104.551670 11.090328 0.000000
247.205520 86.489052 12.130817 0.000000
248.607860 104.962230 13.827324 0.000000
245.814730 106.322610 14.021282 0.000000
248.171910 99.866272 15.968461 0.000000
247.551150 107.901750 16.914198 0.000000
268.208250 97.707382 3.071742 0.000000
266.250550 97.700813 3.059434 0.000000
264.279420 97.694206 3.047042 0.000000
262.293610 97.687424 3.034557 0.000000
258.272190 97.673904 3.009275 0.000000
256.233700 97.666901 2.996457 0.000000
254.174590 97.660019 2.983512 0.000000
252.868800 95.299133 2.947111 0.000000
268.192630 97.681976 5.474102 0.000000
247.348680 105.132390 5.706822 0.000000
266.234310 97.677933 5.469692 0.000000
264.265290 97.660751 5.465555 0.000000
260.272950 97.665222 5.460709 0.000000
256.215940 97.645683 5.457984 0.000000
254.156570 97.638702 5.457828 0.000000
252.865050 95.235313 5.379621 0.000000
246.717860 106.858060 8.483959 0.000000
249.579790 105.118930 8.368936 0.000000
249.984410 103.810820 10.936473 0.000000
248.647630 107.775650 13.991113 0.000000
246.768550 106.550500 13.915936 0.000000
249.732670 104.408680 16.322409 0.000000
247.679440 103.867020 16.319136 0.000000
262.583890 97.696587 2.539771 0.000000
259.823610 92.954948 2.488784 0.000000
268.439270 97.715294 2.574679 0.000000
266.500180 97.709038 2.563118 0.000000
264.548830 97.702766 2.551485 0.000000
256.592190 97.683479 2.504094 0.000000
254.560730 97.670952 2.491939 0.000000
252.757900 96.863953 2.475345 0.000000
268.425630 97.694786 4.960355 0.000000
262.570920 97.672890 4.949162 0.000000
260.593810 97.655251 4.946562 0.000000
256.580290 97.656425 4.944571 0.000000
254.547090 97.649902 4.944480 0.000000
252.754550 96.810547 4.921569 0.000000
248.310930 103.890700 7.750271 0.000000
246.342800 103.162090 7.731030 0.000000
249.789490 106.116190 10.516507 0.000000
246.346120 103.089320 10.356980 0.000000
247.567670 106.052780 10.543712 0.000000
246.530840 86.128563 11.478923 0.000000
247.480260 88.685211 11.679813 0.000000
248.025210 104.614530 13.094381 0.000000
250.264560 104.466210 15.683736 0.000000
247.381010 100.034420 15.273264 0.000000
247.248930 106.872020 16.035908 0.000000
268.309660 97.713478 2.583767 0.000000
266.386600 97.707108 2.569989 0.000000
264.452150 97.700729 2.556130 0.000000
262.505000 97.694328 2.542180 0.000000
256.574370 97.674873 2.499691 0.000000
254.561260 97.674477 2.485315 0.000000
252.804630 96.756859 2.465808 0.000000
259.744050 92.879318 2.485915 0.000000
270.206150 97.699219 4.962359 0.000000
268.293150 97.692947 4.954519 0.000000
260.528080 97.664047 4.929910 0.000000
256.557740 97.653885 4.921890 0.000000
254.546390 97.647148 4.918894 0.000000
252.800570 96.694481 4.889909 0.000000
245.879430 104.929360 7.765237 0.000000
249.713780 106.766430 10.495182 0.000000
247.592440 106.427470 10.497521 0.000000
247.436070 106.834300 13.215856 0.000000
247.625640 99.579453 15.099236 0.000000
250.350860 104.492450 15.577662 0.000000
248.362110 103.873770 15.558702 0.000000
265.029970 97.703682 2.505136 0.000000
263.104100 97.697441 2.490855 0.000000
259.213290 97.684944 2.462005 0.000000
257.245640 97.678604 2.447414 0.000000
269.502840 92.922272 2.504152 0.000000
253.258930 97.665680 2.417852 0.000000
252.834840 92.355766 2.376905 0.000000
266.944460 97.709915 2.519333 0.000000
255.261320 97.672142 2.432700 0.000000
270.727660 97.701996 4.896719 0.000000
