# .PCD v0.7 - Point Cloud Data file format
VERSION 0.7
FIELDS x y z intensity
SIZE 4 4 4 4
TYPE F F F F
COUNT 1 1 1 1
WIDTH 1191
HEIGHT 1
VIEWPOINT 0 0 0 1 0 0 0
POINTS 1191
DATA ascii
276.904080 138.204930 14.350332 0.000000
276.851040 136.868620 14.435252 0.000000
273.303650 140.790340 14.719169 0.000000
272.344210 139.800630 14.894327 0.000000
272.979800 138.636690 14.859995 0.000000
273.231080 137.328260 14.892345 0.000000
276.365720 156.298400 7.196452 0.000000
284.018250 155.963390 7.238270 0.000000
275.302370 155.897130 7.119739 0.000000
272.892820 155.617170 6.944788 0.000000
282.454930 155.816990 7.092833 0.000000
294.494780 155.616610 7.347339 0.000000
291.941650 155.578050 7.295927 0.000000
289.070650 155.666500 7.309411 0.000000
288.053280 155.550890 7.194443 0.000000
282.463350 155.378070 7.095947 0.000000
293.995270 155.407090 7.277434 0.000000
291.595460 155.384660 7.253650 0.000000
291.538330 155.115860 7.251618 0.000000
287.989560 155.221220 7.191249 0.000000
282.629360 154.920590 7.113309 0.000000
271.085600 154.564870 6.811043 0.000000
294.011200 154.919820 7.295312 0.000000
291.601440 154.822330 7.265816 0.000000
288.081050 154.865080 7.205606 0.000000
282.809480 154.469420 7.131325 0.000000
272.115110 153.871220 6.883406 0.000000
294.053340 154.553420 7.311920 0.000000
291.655180 154.397460 7.280000 0.000000
288.217620 154.340100 7.225697 0.000000
283.227260 154.002850 7.171170 0.000000
294.107360 154.191890 7.328739 0.000000
291.815830 153.962890 7.307749 0.000000
288.290470 153.835020 7.237000 0.000000
283.518740 153.562710 7.198430 0.000000
272.928040 153.224980 6.939488 0.000000
288.548220 153.480970 7.268114 0.000000
283.445470 152.746630 7.188984 0.000000
273.705080 152.609130 6.992439 0.000000
283.716670 152.328950 7.212510 0.000000
274.333920 152.022640 7.034099 0.000000
283.840420 151.922810 7.221473 0.000000
283.837490 151.520340 7.217815 0.000000
283.834530 151.117660 7.213537 0.000000
274.343780 150.885970 7.024580 0.000000
274.270840 150.314100 7.013118 0.000000
283.833710 150.714630 7.208840 0.000000
283.831450 150.310910 7.203383 0.000000
274.206090 149.739350 7.001570 0.000000
283.829190 149.906270 7.197297 0.000000
274.155150 149.162170 6.990345 0.000000
283.826900 149.500460 7.190574 0.000000
283.824680 149.093230 7.183216 0.000000
273.965300 148.568600 6.968119 0.000000
283.802830 148.681790 7.173303 0.000000
273.625850 147.949740 6.933971 0.000000
288.942320 147.733600 7.227711 0.000000
284.141600 147.913860 7.188794 0.000000
273.195890 147.304810 6.892162 0.000000
284.016970 147.481780 7.166910 0.000000
289.073060 147.104690 7.221271 0.000000
283.786530 147.021290 7.133807 0.000000
272.754270 146.640210 6.848496 0.000000
289.062380 146.768630 7.207707 0.000000
283.736510 146.589040 7.117644 0.000000
272.300660 145.954730 6.802893 0.000000
292.539640 146.483440 7.246861 0.000000
289.211880 146.138840 7.199665 0.000000
288.956910 146.401120 7.181615 0.000000
283.690950 146.152740 7.101152 0.000000
295.062590 146.187360 7.265169 0.000000
292.590790 146.074480 7.231113 0.000000
289.065340 145.749310 7.166819 0.000000
283.483950 145.669830 7.067718 0.000000
271.777560 145.236650 6.750943 0.000000
295.186040 145.739330 7.249200 0.000000
292.654940 145.664600 7.215463 0.000000
289.080050 145.406750 7.153356 0.000000
284.729710 145.156460 7.165889 0.000000
283.557800 145.252550 7.061554 0.000000
275.755550 144.833760 7.027820 0.000000
274.052580 145.058730 6.910753 0.000000
295.291050 145.405470 7.237654 0.000000
293.175140 145.165040 7.250797 0.000000
292.737610 145.257950 7.201154 0.000000
289.458160 145.195430 7.185473 0.000000
276.121670 144.348770 7.042717 0.000000
276.398800 143.849750 7.050306 0.000000
276.773380 142.814330 7.049904 0.000000
274.873110 141.645130 6.884139 0.000000
275.352510 141.187160 6.904500 0.000000
286.255650 141.433460 7.150927 0.000000
276.705690 141.048110 6.994448 0.000000
286.458220 141.085370 7.151495 0.000000
277.374630 140.700640 7.029980 0.000000
286.738920 140.780270 7.160206 0.000000
278.226780 140.443890 7.080367 0.000000
287.176700 140.109700 7.162318 0.000000
278.326170 139.315840 7.049292 0.000000
287.590730 139.427190 7.159380 0.000000
295.135990 137.460890 7.178497 0.000000
288.851100 136.855530 7.104077 0.000000
294.825260 136.555100 7.069847 0.000000
283.269870 161.032070 7.647095 0.000000
281.241910 160.814070 7.510609 0.000000
295.479190 160.955510 7.792155 0.000000
280.692170 160.497890 7.476515 0.000000
295.098110 160.600280 7.777421 0.000000
290.577450 160.208760 7.749252 0.000000
280.579560 160.027370 7.474216 0.000000
294.781160 160.192320 7.769840 0.000000
290.310120 159.983400 7.733480 0.000000
280.366210 159.588230 7.463962 0.000000
294.559140 159.874540 7.765083 0.000000
294.415220 159.659770 7.761809 0.000000
289.919160 159.629940 7.710163 0.000000
280.144500 159.148590 7.452572 0.000000
294.278840 159.440160 7.759038 0.000000
289.522520 159.268590 7.685580 0.000000
289.205140 159.042510 7.663482 0.000000
279.741850 158.752730 7.427445 0.000000
278.687650 158.504490 7.354358 0.000000
293.900390 159.060790 7.738429 0.000000
293.543330 158.807570 7.712647 0.000000
288.542450 158.577610 7.615593 0.000000
293.180480 158.547070 7.685566 0.000000
292.938020 158.366580 7.667052 0.000000
288.205780 158.334470 7.590633 0.000000
287.726650 158.130720 7.551512 0.000000
278.286160 158.075390 7.328421 0.000000
295.555630 158.252980 7.654938 0.000000
295.275050 158.015760 7.633977 0.000000
292.688720 158.183840 7.647379 0.000000
292.444890 157.992950 7.628076 0.000000
287.519200 157.826310 7.538374 0.000000
277.903200 157.631870 7.303305 0.000000
295.088750 157.852650 7.619658 0.000000
294.902620 157.685940 7.605016 0.000000
292.070040 157.699190 7.597337 0.000000
287.165530 157.561750 7.510683 0.000000
286.916020 157.258500 7.492602 0.000000
277.355710 157.209050 7.265703 0.000000
294.716460 157.515700 7.590011 0.000000
294.437040 157.253140 7.566740 0.000000
291.690700 157.395290 7.565372 0.000000
291.442110 157.183060 7.544108 0.000000
286.155580 157.083020 7.425147 0.000000
276.940800 156.747440 7.237171 0.000000
294.065370 156.890230 7.534570 0.000000
291.287380 156.933120 7.533752 0.000000
290.930600 156.745070 7.498712 0.000000
285.835750 156.775740 7.399525 0.000000
285.362880 156.494260 7.358845 0.000000
293.678990 156.517210 7.498679 0.000000
290.302090 156.314150 7.437803 0.000000
285.033390 156.168980 7.331362 0.000000
295.614290 156.262150 7.489699 0.000000
293.380890 156.229600 7.469556 0.000000
290.087010 156.059600 7.418525 0.000000
289.547730 155.878650 7.360452 0.000000
295.116580 155.876430 7.432232 0.000000
294.861080 155.732450 7.399161 0.000000
292.856750 155.867020 7.411148 0.000000
292.491330 155.703960 7.366722 0.000000
294.190310 153.717670 7.350698 0.000000
291.895940 153.683490 7.321596 0.000000
294.261140 153.367800 7.366935 0.000000
292.180760 153.124420 7.364698 0.000000
291.979460 153.407780 7.335276 0.000000
288.696170 153.146090 7.285773 0.000000
294.341640 153.023760 7.383158 0.000000
292.157680 152.867370 7.362310 0.000000
288.845490 152.817180 7.302978 0.000000
294.492100 152.461760 7.409975 0.000000
294.428770 152.684600 7.399222 0.000000
292.301330 152.472200 7.382316 0.000000
289.264980 152.173570 7.349750 0.000000
288.999880 152.494020 7.320181 0.000000
294.558110 152.241520 7.420575 0.000000
289.303410 151.865230 7.352260 0.000000
294.567960 151.702580 7.419437 0.000000
292.409790 151.706240 7.393686 0.000000
294.540830 151.271180 7.410311 0.000000
292.371920 151.199130 7.383018 0.000000
289.305910 151.251040 7.346827 0.000000
289.308410 150.943760 7.343373 0.000000
294.530730 150.946460 7.403663 0.000000
292.355440 150.817140 7.375198 0.000000
289.287450 150.634750 7.336561 0.000000
294.528990 150.729480 7.399244 0.000000
294.531560 150.512250 7.394937 0.000000
292.349910 150.433840 7.367421 0.000000
289.266360 150.324340 7.329125 0.000000
294.543790 150.186160 7.388654 0.000000
292.353700 150.049770 7.359744 0.000000
289.245210 150.012370 7.321067 0.000000
294.581510 149.642290 7.378222 0.000000
294.563390 149.859850 7.382379 0.000000
292.368930 149.665010 7.352171 0.000000
289.176150 149.535960 7.303273 0.000000
294.616330 149.316130 7.372037 0.000000
292.392300 149.279800 7.344533 0.000000
289.139070 149.058780 7.287995 0.000000
294.676640 148.882160 7.364074 0.000000
292.430910 148.895190 7.337526 0.000000
289.156830 148.744170 7.282021 0.000000
294.718260 148.554060 7.355948 0.000000
292.452240 148.505130 7.326794 0.000000
289.139560 148.421940 7.271196 0.000000
294.738920 148.217510 7.342661 0.000000
292.447880 148.104950 7.310695 0.000000
289.015500 148.075590 7.246766 0.000000
294.780790 147.767400 7.325118 0.000000
292.453430 147.702620 7.294663 0.000000
294.839510 147.316070 7.307717 0.000000
292.471620 147.297990 7.278721 0.000000
294.894130 146.977140 7.294752 0.000000
292.498630 146.891340 7.262655 0.000000
294.960140 146.638440 7.282001 0.000000
290.025970 145.068880 7.241850 0.000000
285.209530 144.883970 7.200416 0.000000
293.790010 144.886280 7.309287 0.000000
293.559780 145.059770 7.292328 0.000000
290.363490 144.865750 7.268666 0.000000
285.611050 144.599330 7.226782 0.000000
279.492490 144.130780 7.276677 0.000000
294.208770 144.530620 7.335639 0.000000
290.826290 144.390150 7.293921 0.000000
285.617610 144.186570 7.212133 0.000000
294.500550 144.113130 7.339572 0.000000
294.353180 144.320600 7.337625 0.000000
291.004760 143.963970 7.289391 0.000000
294.824310 143.719330 7.346847 0.000000
294.657810 143.912660 7.342671 0.000000
291.213870 143.550610 7.287653 0.000000
286.104280 143.531430 7.230119 0.000000
295.068850 143.428340 7.351258 0.000000
291.438140 143.321300 7.297334 0.000000
286.205230 143.151440 7.223415 0.000000
295.388240 143.038590 7.354289 0.000000
291.766200 142.802550 7.298765 0.000000
291.478640 142.992050 7.281259 0.000000
286.084010 142.673430 7.192349 0.000000
295.626860 142.746840 7.355062 0.000000
292.097870 142.287770 7.298472 0.000000
286.717990 142.098050 7.221916 0.000000
286.451420 142.405350 7.212709 0.000000
292.214900 141.998490 7.290420 0.000000
291.979250 141.465210 7.230027 0.000000
292.387300 141.176740 7.248911 0.000000
293.124080 140.762850 7.287952 0.000000
292.798680 140.900250 7.267790 0.000000
287.368650 140.675810 7.207883 0.000000
279.765260 140.496250 7.187233 0.000000
293.832000 140.559710 7.337358 0.000000
293.474980 140.654020 7.312096 0.000000
294.035520 140.138140 7.321586 0.000000
287.545040 139.866900 7.179753 0.000000
279.724700 139.353260 7.144935 0.000000
280.388060 139.091570 7.179897 0.000000
287.893460 139.148680 7.168274 0.000000
294.437770 139.043990 7.264375 0.000000
288.530180 138.626360 7.188738 0.000000
288.127440 138.827320 7.168585 0.000000
281.378940 138.451350 7.221383 0.000000
294.759830 138.479030 7.241433 0.000000
294.489810 138.649400 7.234281 0.000000
288.966310 138.459170 7.212922 0.000000
294.779420 138.029560 7.202601 0.000000
288.984380 137.983520 7.185244 0.000000
295.032230 137.834900 7.204966 0.000000
289.091550 137.566250 7.167432 0.000000
291.360170 160.865010 7.792651 0.000000
291.105770 160.647400 7.779178 0.000000
290.846130 160.428150 7.764836 0.000000
279.479800 144.123260 7.898268 0.000000
279.670750 141.005750 7.837928 0.000000
279.580780 140.416750 7.818976 0.000000
279.814610 138.816150 7.788046 0.000000
277.603520 138.387990 7.672365 0.000000
279.879610 137.671420 7.759054 0.000000
280.199250 136.632550 7.743261 0.000000
282.557100 136.229290 7.836806 0.000000
272.952420 137.681430 8.234987 0.000000
279.467190 144.115750 8.519041 0.000000
278.794560 140.658830 8.446672 0.000000
278.567170 138.821470 8.409087 0.000000
279.324680 137.985660 8.414722 0.000000
281.285580 137.241780 8.453267 0.000000
279.002410 140.171260 9.102563 0.000000
278.453830 139.360280 9.091533 0.000000
273.501830 136.519730 9.030235 0.000000
279.453800 144.108050 9.139567 0.000000
279.910740 141.092650 9.117227 0.000000
281.483310 139.602160 9.116255 0.000000
280.027920 138.331590 9.094518 0.000000
279.041170 136.608250 9.072417 0.000000
279.439060 144.099960 9.760511 0.000000
278.356380 141.050130 9.769341 0.000000
278.427980 140.507690 9.768007 0.000000
273.540590 140.566440 9.831817 0.000000
277.742100 139.647920 9.776418 0.000000
281.623110 139.665500 9.728000 0.000000
274.396760 137.600130 9.818532 0.000000
279.505130 137.467940 9.756110 0.000000
275.024170 137.206510 9.810828 0.000000
280.046910 137.149150 9.750248 0.000000
280.273990 136.665990 9.748577 0.000000
271.609920 141.276080 9.859007 0.000000
271.639950 140.613020 9.857148 0.000000
270.952330 139.004210 9.863586 0.000000
279.424290 144.091860 10.382504 0.000000
272.924620 140.356640 10.620943 0.000000
279.705750 140.454220 10.393437 0.000000
278.044740 140.353640 10.449059 0.000000
273.880770 140.031620 10.590432 0.000000
278.558410 139.398390 10.439905 0.000000
273.963930 139.411180 10.591563 0.000000
277.572510 138.359440 10.481377 0.000000
277.873630 137.880770 10.476418 0.000000
280.704250 137.501800 10.391630 0.000000
279.219790 137.316790 10.439985 0.000000
278.645420 137.638520 10.454439 0.000000
280.916560 137.025390 10.391088 0.000000
279.409450 144.083720 11.006148 0.000000
279.555910 140.942790 11.036361 0.000000
278.685180 140.029570 11.097292 0.000000
279.114620 139.056090 11.091706 0.000000
280.111690 137.178220 11.079330 0.000000
273.623410 139.279950 11.379715 0.000000
279.297150 138.553860 11.091792 0.000000
277.046480 138.739820 11.205793 0.000000
276.537450 136.587810 11.273248 0.000000
279.394560 144.075560 11.632051 0.000000
271.390110 142.533750 11.466744 0.000000
271.413210 141.207870 11.477212 0.000000
271.187470 139.773160 11.505504 0.000000
278.393860 139.319920 11.805148 0.000000
279.835210 138.806340 11.715336 0.000000
278.335110 138.698580 11.826107 0.000000
280.113100 137.773970 11.726978 0.000000
279.379640 144.067380 12.260794 0.000000
274.252750 141.418520 12.067810 0.000000
274.286990 140.801240 12.076540 0.000000
274.763790 140.334110 12.049912 0.000000
272.866030 138.313290 12.235590 0.000000
273.897890 138.049800 12.165955 0.000000
271.320980 142.510650 12.275617 0.000000
278.332400 139.289660 12.494608 0.000000
278.749690 138.883380 12.470535 0.000000
271.777710 138.587890 12.310110 0.000000
279.364590 144.059140 12.893048 0.000000
273.577090 141.836200 12.875854 0.000000
274.680790 141.548340 12.775265 0.000000
273.879730 140.660870 12.874956 0.000000
274.070710 140.085070 12.872113 0.000000
274.408480 139.563540 12.854864 0.000000
275.829500 139.472380 12.723028 0.000000
274.706050 138.379240 12.863958 0.000000
276.834560 137.376110 12.702835 0.000000
279.349090 144.050740 13.529461 0.000000
275.896060 140.113690 13.427514 0.000000
277.273130 139.435350 13.295971 0.000000
274.750520 141.565630 13.512016 0.000000
272.367490 141.474170 13.796747 0.000000
274.730040 140.939870 13.534384 0.000000
273.476840 139.870850 13.717340 0.000000
278.310730 139.860170 13.846268 0.000000
273.465880 137.175900 13.825003 0.000000
275.366420 139.911940 14.243153 0.000000
276.868410 138.647370 14.101875 0.000000
272.639980 138.215470 13.876004 0.000000
277.270360 138.203860 14.072240 0.000000
277.852360 137.853030 14.015176 0.000000
273.295040 136.400920 13.878942 0.000000
272.719670 140.922360 14.566631 0.000000
272.942020 140.338590 14.558378 0.000000
273.005620 139.699770 14.575966 0.000000
272.940520 138.328980 14.646626 0.000000
275.408110 157.295550 7.225136 0.000000
274.999240 156.819720 7.196337 0.000000
274.547640 156.338940 7.163853 0.000000
282.450680 156.400250 7.209087 0.000000
273.582370 155.913850 7.093847 0.000000
281.614010 156.136380 7.132999 0.000000
271.116360 155.631670 6.915323 0.000000
281.036500 155.801070 7.080781 0.000000
295.053590 155.627670 7.362279 0.000000
293.172520 155.600780 7.330941 0.000000
292.686490 155.507420 7.259211 0.000000
290.533050 155.578570 7.271151 0.000000
287.630830 155.666580 7.286983 0.000000
286.601960 155.549350 7.170947 0.000000
280.944270 155.373780 7.073588 0.000000
294.582370 155.368680 7.293012 0.000000
292.676570 155.264300 7.265506 0.000000
290.201930 155.235170 7.233602 0.000000
286.632720 155.026440 7.179690 0.000000
281.125640 154.908800 7.091436 0.000000
294.532440 154.956910 7.302112 0.000000
292.717440 154.889660 7.282649 0.000000
290.219420 154.806610 7.243627 0.000000
286.934020 154.467360 7.218558 0.000000
281.309480 154.452010 7.108849 0.000000
294.542630 154.638750 7.315828 0.000000
292.766170 154.519500 7.299655 0.000000
290.274900 154.376850 7.257267 0.000000
286.730040 154.160860 7.196500 0.000000
281.684170 153.984590 7.143546 0.000000
294.573240 154.217800 7.334962 0.000000
292.825040 154.154980 7.316570 0.000000
290.446040 153.936110 7.285606 0.000000
286.906460 153.804230 7.218018 0.000000
281.944340 153.541170 7.166862 0.000000
271.056490 153.204250 6.898277 0.000000
290.532290 153.653060 7.299743 0.000000
287.143710 153.449160 7.245953 0.000000
282.247530 153.105300 7.193624 0.000000
287.301090 153.110090 7.263985 0.000000
281.893430 152.711380 7.157903 0.000000
272.052640 152.570600 6.965450 0.000000
287.459530 152.777400 7.281533 0.000000
282.198700 152.286770 7.183663 0.000000
272.655700 151.976680 7.003754 0.000000
282.327610 151.875230 7.192226 0.000000
282.333890 151.467590 7.188601 0.000000
282.340150 151.060070 7.184354 0.000000
272.648560 150.823380 6.990602 0.000000
282.347600 150.652470 7.179592 0.000000
272.596590 150.243970 6.979484 0.000000
282.358090 150.244720 7.174496 0.000000
272.554080 149.662460 6.968368 0.000000
282.368590 149.836490 7.168769 0.000000
272.526280 149.079380 6.957629 0.000000
282.379090 149.427540 7.162406 0.000000
282.389680 149.017610 7.155407 0.000000
272.311650 148.476200 6.932381 0.000000
282.379390 148.603740 7.145741 0.000000
271.894990 147.840970 6.891312 0.000000
287.724330 148.009140 7.226650 0.000000
282.750520 147.833600 7.162566 0.000000
271.447690 147.184690 6.846975 0.000000
287.657560 147.667140 7.207692 0.000000
282.623080 147.397840 7.139537 0.000000
287.818360 147.043290 7.203568 0.000000
282.377260 146.931030 7.104034 0.000000
270.987980 146.507980 6.800665 0.000000
291.269170 146.835240 7.245710 0.000000
287.815610 146.708660 7.190308 0.000000
282.334990 146.496900 7.087717 0.000000
291.317900 146.429690 7.230243 0.000000
287.717040 146.342580 7.164374 0.000000
282.300080 146.059710 7.071352 0.000000
293.869810 146.146190 7.251874 0.000000
291.377080 146.023590 7.214885 0.000000
287.978820 146.081880 7.182635 0.000000
287.839360 145.694350 7.149967 0.000000
282.077850 145.569670 7.035441 0.000000
293.996340 145.700610 7.235614 0.000000
291.449250 145.617130 7.199651 0.000000
287.861050 145.354020 7.136708 0.000000
283.611630 145.133470 7.161030 0.000000
281.995420 145.105820 7.012568 0.000000
274.550140 144.784380 7.017180 0.000000
272.803890 145.000660 6.897998 0.000000
294.280180 145.204360 7.234961 0.000000
291.584870 145.234660 7.192812 0.000000
288.345430 145.181960 7.181830 0.000000
274.870540 144.288640 7.027458 0.000000
275.124240 143.782900 7.032120 0.000000
275.316500 143.264600 7.031477 0.000000
275.407260 142.718250 7.022288 0.000000
273.574860 141.567600 6.860357 0.000000
274.166320 141.145170 6.888492 0.000000
285.110200 141.416050 7.135954 0.000000
275.517060 141.005660 6.977401 0.000000
285.319270 141.072800 7.136551 0.000000
276.221860 140.671940 7.014881 0.000000
276.718110 140.276990 7.035399 0.000000
293.729100 136.102130 7.003976 0.000000
280.568390 161.066880 7.561467 0.000000
280.336000 160.652660 7.550505 0.000000
294.307160 160.870420 7.809511 0.000000
289.917600 160.949200 7.782338 0.000000
279.760960 160.351090 7.514129 0.000000
293.933110 160.512300 7.795073 0.000000
289.342350 160.535230 7.748056 0.000000
289.124110 160.282940 7.737421 0.000000
279.392000 159.967540 7.492321 0.000000
293.567110 160.141170 7.780154 0.000000
289.032990 159.963840 7.739050 0.000000
288.702270 159.762210 7.716373 0.000000
279.004270 159.581010 7.468685 0.000000
293.191100 159.769610 7.762311 0.000000
288.443510 159.519420 7.700506 0.000000
278.626190 159.182330 7.445266 0.000000
292.915560 159.481260 7.748805 0.000000
292.489040 159.122240 7.721829 0.000000
288.180570 159.273390 7.683856 0.000000
287.867580 159.042850 7.661949 0.000000
278.239690 158.776580 7.420744 0.000000
277.195190 158.520710 7.348360 0.000000
295.537020 159.162310 7.741789 0.000000
295.257450 158.954320 7.723771 0.000000
292.243130 158.954910 7.703716 0.000000
291.995180 158.783310 7.685055 0.000000
287.205930 158.572600 7.613651 0.000000
276.794340 158.086360 7.321831 0.000000
294.978030 158.740100 7.705152 0.000000
294.698640 158.518070 7.685736 0.000000
291.623540 158.514770 7.656510 0.000000
291.247990 158.237010 7.626854 0.000000
286.827700 158.341890 7.584413 0.000000
286.229550 158.175140 7.533752 0.000000
276.012940 157.719830 7.267414 0.000000
294.326930 158.210800 7.658869 0.000000
294.047940 157.972210 7.637834 0.000000
290.871060 157.945590 7.596209 0.000000
285.973240 157.880810 7.515532 0.000000
285.528900 157.637050 7.478943 0.000000
293.859770 157.809780 7.623016 0.000000
293.663730 157.647750 7.606668 0.000000
290.364010 157.539260 7.553634 0.000000
285.253330 157.333100 7.458012 0.000000
284.428100 157.166230 7.384508 0.000000
295.563900 157.495150 7.587803 0.000000
295.327120 157.276030 7.568661 0.000000
293.466550 157.482250 7.589810 0.000000
293.170010 157.226200 7.563692 0.000000
289.980320 157.220730 7.520367 0.000000
284.108060 156.849490 7.358511 0.000000
295.169890 157.126100 7.555490 0.000000
294.935790 156.894840 7.535262 0.000000
292.774350 156.870880 7.527585 0.000000
289.644680 156.870330 7.491850 0.000000
283.690400 156.546200 7.322790 0.000000
294.703980 156.656970 7.514619 0.000000
294.550510 156.494190 7.500491 0.000000
292.378570 156.498310 7.489902 0.000000
288.819490 156.338670 7.410849 0.000000
294.397610 156.328310 7.486032 0.000000
294.031920 156.010390 7.445771 0.000000
292.081820 156.207700 7.460629 0.000000
291.519010 155.853500 7.396370 0.000000
288.644350 156.068650 7.395955 0.000000
288.092190 155.886640 7.336327 0.000000
295.547580 155.850540 7.434670 0.000000
295.334200 155.729260 7.405061 0.000000
293.677670 155.787800 7.401178 0.000000
291.108310 155.700880 7.345463 0.000000
294.617070 153.803190 7.353818 0.000000
292.915500 153.677020 7.338817 0.000000
294.674900 153.395030 7.372618 0.000000
292.991820 153.324710 7.355249 0.000000
290.830870 153.087230 7.343562 0.000000
290.621860 153.373960 7.313698 0.000000
294.745850 152.993800 7.391285 0.000000
293.077790 152.978580 7.371651 0.000000
290.812710 152.827360 7.341363 0.000000
294.849820 152.502500 7.414032 0.000000
294.806760 152.697450 7.405144 0.000000
293.203280 152.525680 7.393242 0.000000
290.966370 152.428190 7.361913 0.000000
287.898320 152.127090 7.329080 0.000000
287.622220 152.450790 7.298990 0.000000
294.898250 152.309250 7.423305 0.000000
293.329620 151.975510 7.412089 0.000000
287.914120 151.816350 7.328311 0.000000
294.936430 151.836850 7.428692 0.000000
293.305180 151.651980 7.405410 0.000000
291.090000 151.655780 7.373803 0.000000
294.915440 151.461330 7.420999 0.000000
293.288060 151.327500 7.398746 0.000000
291.069460 151.273190 7.366432 0.000000
287.929380 151.196290 7.323101 0.000000
294.907320 151.084580 7.413343 0.000000
294.910000 150.801530 7.407749 0.000000
293.280520 151.002060 7.392155 0.000000
291.055570 150.889240 7.358496 0.000000
287.941650 150.731370 7.317663 0.000000
294.920560 150.518200 7.402134 0.000000
293.283200 150.567260 7.383458 0.000000
291.053010 150.375980 7.348142 0.000000
287.941560 150.264970 7.309569 0.000000
294.945800 150.140440 7.394748 0.000000
293.302120 150.132020 7.375020 0.000000
291.063050 149.990370 7.340548 0.000000
287.926570 149.951630 7.301600 0.000000
294.985260 149.763240 7.387633 0.000000
293.337430 149.696950 7.366866 0.000000
291.084810 149.604480 7.333086 0.000000
287.866360 149.473530 7.283898 0.000000
295.039150 149.387220 7.380844 0.000000
293.387600 149.262440 7.358752 0.000000
291.116210 149.218660 7.325768 0.000000
287.838780 148.995150 7.268772 0.000000
295.106080 149.012630 7.374126 0.000000
293.453920 148.829250 7.350898 0.000000
291.178680 148.705540 7.316704 0.000000
287.862490 148.679950 7.262849 0.000000
295.180080 148.638200 7.366336 0.000000
293.493590 148.500410 7.341771 0.000000
291.188810 148.443360 7.308199 0.000000
287.841950 148.355700 7.250967 0.000000
295.235990 148.255660 7.352505 0.000000
293.518890 148.164890 7.328592 0.000000
291.197240 148.044980 7.293128 0.000000
295.301300 147.871800 7.337875 0.000000
293.566960 147.716520 7.311208 0.000000
291.209780 147.643520 7.277285 0.000000
295.404690 147.393190 7.319962 0.000000
293.631900 147.267410 7.293982 0.000000
291.234830 147.240140 7.261525 0.000000
295.529330 146.916580 7.302340 0.000000
293.691130 146.930450 7.281157 0.000000
295.646580 146.537890 7.288589 0.000000
293.761690 146.594010 7.268558 0.000000
292.046880 145.154540 7.246031 0.000000
288.861360 145.037020 7.231126 0.000000
284.053190 144.850770 7.190973 0.000000
295.013820 144.988360 7.318143 0.000000
294.633640 145.146580 7.279653 0.000000
292.520780 144.952100 7.291500 0.000000
289.209350 144.839140 7.258808 0.000000
284.326900 144.524720 7.203509 0.000000
295.632110 144.485570 7.353708 0.000000
295.296230 144.779820 7.337331 0.000000
293.203830 144.307050 7.327879 0.000000
293.057040 144.514280 7.325867 0.000000
289.658970 144.359950 7.281322 0.000000
284.406400 144.136250 7.195556 0.000000
293.353420 144.102430 7.329852 0.000000
289.840240 143.936570 7.276341 0.000000
293.666630 143.704880 7.334660 0.000000
293.506040 143.900600 7.331828 0.000000
290.049320 143.524800 7.273798 0.000000
284.925080 143.493670 7.215423 0.000000
293.913360 143.417530 7.338960 0.000000
290.277890 143.298890 7.283596 0.000000
285.050840 143.124570 7.210594 0.000000
294.490200 142.756350 7.345134 0.000000
294.239260 143.035740 7.342536 0.000000
290.568970 142.760860 7.278838 0.000000
290.304050 142.962780 7.264946 0.000000
285.320400 142.391490 7.200960 0.000000
284.937930 142.651400 7.179594 0.000000
290.914920 142.255890 7.279499 0.000000
285.597410 142.090880 7.210675 0.000000
294.896670 142.117890 7.328392 0.000000
294.787050 142.354250 7.339589 0.000000
291.081880 142.000210 7.278129 0.000000
294.750060 141.644200 7.266272 0.000000
290.823970 141.453830 7.213677 0.000000
295.422820 141.222380 7.291938 0.000000
295.086430 141.430180 7.279377 0.000000
291.371640 141.076420 7.238551 0.000000
291.096100 141.261460 7.225977 0.000000
295.647920 141.088780 7.300121 0.000000
291.973330 140.761140 7.270899 0.000000
291.650210 140.898590 7.251366 0.000000
286.181400 140.639280 7.186436 0.000000
285.605290 140.772200 7.145226 0.000000
278.245910 140.318820 7.140610 0.000000
292.843960 140.307630 7.313628 0.000000
292.324950 140.654650 7.294934 0.000000
285.987430 140.072650 7.139654 0.000000
278.799350 139.993730 7.166239 0.000000
292.973270 140.021090 7.301095 0.000000
286.363890 139.835330 7.157431 0.000000
293.041930 139.672470 7.277405 0.000000
286.564940 139.494930 7.154466 0.000000
279.229280 139.065980 7.160070 0.000000
278.164090 139.144440 7.092178 0.000000
293.280790 139.266880 7.262562 0.000000
287.119870 138.916890 7.165011 0.000000
286.884000 139.231800 7.164892 0.000000
279.359830 138.560120 7.148887 0.000000
293.426760 138.755780 7.229402 0.000000
287.956760 138.557950 7.208676 0.000000
287.521970 138.720730 7.184837 0.000000
280.181820 138.408170 7.196658 0.000000
288.064480 138.156430 7.191649 0.000000
281.126100 137.789250 7.231994 0.000000
280.716460 138.127170 7.219844 0.000000
293.999910 137.994600 7.205632 0.000000
288.269560 137.824940 7.185950 0.000000
294.149780 137.684010 7.187954 0.000000
288.411380 137.439440 7.171362 0.000000
294.353970 137.433380 7.179551 0.000000
279.652650 140.893390 7.872797 0.000000
279.465850 140.277240 7.847022 0.000000
279.796450 138.772280 7.818972 0.000000
277.438230 138.810500 7.710404 0.000000
279.865330 137.662960 7.788183 0.000000
280.177890 136.658770 7.770206 0.000000
278.719210 140.504030 8.455178 0.000000
278.461270 138.692180 8.413178 0.000000
279.377530 137.982710 8.423221 0.000000
273.059810 137.500720 8.244502 0.000000
281.273130 137.297240 8.458386 0.000000
279.817470 140.952030 9.103931 0.000000
278.987550 140.060910 9.088740 0.000000
281.540250 139.629350 9.102200 0.000000
278.529750 139.295910 9.077494 0.000000
272.678590 138.677630 9.029787 0.000000
279.075160 137.821520 9.065876 0.000000
279.063050 136.614430 9.053133 0.000000
273.579470 136.368730 9.011923 0.000000
271.322020 142.139570 9.833953 0.000000
271.510860 141.547060 9.828651 0.000000
278.425840 140.925800 9.732390 0.000000
271.624080 140.931320 9.824537 0.000000
279.578920 140.849000 9.716992 0.000000
271.598420 140.266510 9.822380 0.000000
279.226040 140.159480 9.720224 0.000000
281.752440 139.730640 9.687459 0.000000
277.711300 138.326450 9.736961 0.000000
279.598820 137.505950 9.713026 0.000000
274.535490 137.478040 9.776333 0.000000
280.101620 137.195630 9.706985 0.000000
280.290800 136.712740 9.704930 0.000000
271.138460 138.758260 9.823729 0.000000
273.898070 141.638630 10.522985 0.000000
274.098570 140.477460 10.519925 0.000000
279.698880 140.359650 10.332320 0.000000
278.105740 140.236400 10.385950 0.000000
273.850620 139.761900 10.531488 0.000000
277.060060 138.619020 10.431564 0.000000
278.467410 138.094250 10.390316 0.000000
277.642850 138.289080 10.415206 0.000000
280.707580 137.533170 10.325252 0.000000
279.284910 137.331760 10.371723 0.000000
278.676730 137.605870 10.388171 0.000000
281.058560 137.159480 10.318661 0.000000
278.252750 140.292160 11.029171 0.000000
278.802950 139.966740 11.004735 0.000000
279.121700 138.987430 11.004211 0.000000
279.368230 138.537380 10.999586 0.000000
271.379730 142.782960 11.383448 0.000000
271.205540 142.094120 11.397638 0.000000
271.149750 141.427430 11.405744 0.000000
273.922820 140.409610 11.262203 0.000000
277.268100 138.708530 11.106053 0.000000
279.075070 136.608170 11.053442 0.000000
276.242680 136.338030 11.202289 0.000000
279.514400 141.338490 11.562598 0.000000
277.777100 140.090770 11.718888 0.000000
270.855160 140.006000 11.435046 0.000000
278.176570 139.690400 11.698963 0.000000
278.943020 139.464740 11.648739 0.000000
278.752110 138.807020 11.679852 0.000000
278.843870 138.272160 11.688107 0.000000
278.515590 137.513090 11.733459 0.000000
271.287810 142.110150 12.174717 0.000000
274.158140 141.708300 11.959900 0.000000
271.308690 141.467730 12.181770 0.000000
274.200500 141.115200 11.966401 0.000000
274.184230 140.495990 11.978683 0.000000
274.773900 140.094390 11.942114 0.000000
274.745120 141.291020 12.638942 0.000000
278.243290 139.141910 12.370206 0.000000
279.333440 138.511080 12.293147 0.000000
278.762420 138.807250 12.334262 0.000000
280.062680 137.156890 12.282931 0.000000
277.335630 136.262700 12.562800 0.000000
271.462280 142.790760 12.929920 0.000000
273.491240 142.105800 12.742901 0.000000
271.227330 142.086730 12.965548 0.000000
273.679570 141.551800 12.736334 0.000000
273.900880 140.390030 12.742885 0.000000
273.930360 139.774090 12.756552 0.000000
278.893280 139.432680 12.949508 0.000000
277.785550 139.510890 13.071512 0.000000
274.344330 139.302220 12.730637 0.000000
275.151790 139.000950 12.663504 0.000000
274.738370 141.878810 13.342175 0.000000
274.677090 141.262450 13.367875 0.000000
274.750790 140.684420 13.377800 0.000000
276.641510 139.611250 13.197931 0.000000
274.858950 139.498780 13.407179 0.000000
272.210540 142.352070 13.630659 0.000000
272.346740 141.761280 13.629499 0.000000
278.324220 139.739720 13.662539 0.000000
272.504610 139.236220 13.689358 0.000000
277.903470 137.790190 13.824034 0.000000
275.199800 137.106670 13.468388 0.000000
274.952970 141.348710 14.051774 0.000000
273.929900 140.388340 14.231098 0.000000
275.247890 139.029620 14.111409 0.000000
273.299290 141.419770 14.279375 0.000000
273.800020 139.713620 14.277197 0.000000
272.676270 138.634660 14.478492 0.000000
273.541990 136.993150 14.443028 0.000000
274.284730 158.302150 7.249441 0.000000
273.919680 157.828800 7.224357 0.000000
282.315340 157.731610 7.313719 0.000000
281.759000 157.464900 7.265856 0.000000
273.339200 157.386670 7.183358 0.000000
281.606540 157.082990 7.255394 0.000000
272.932250 156.897710 7.154054 0.000000
281.327420 156.727490 7.232472 0.000000
272.480590 156.404250 7.120925 0.000000
280.993380 156.376400 7.203834 0.000000
271.618560 155.952870 7.057923 0.000000
280.538510 156.038990 7.163326 0.000000
286.453250 155.909300 7.304189 0.000000
286.030460 155.675430 7.259228 0.000000
280.078060 155.688870 7.121706 0.000000
278.876040 155.437960 7.010270 0.000000
293.605710 155.615050 7.341758 0.000000
293.230190 155.537320 7.280832 0.000000
291.684140 155.595920 7.307078 0.000000
291.188170 155.503110 7.233868 0.000000
289.557650 155.708740 7.317286 0.000000
288.971280 155.585880 7.241550 0.000000
288.705410 155.365520 7.210213 0.000000
284.993900 155.380370 7.144158 0.000000
279.219850 154.938200 7.042415 0.000000
293.095490 155.257160 7.269929 0.000000
291.184880 155.255330 7.240923 0.000000
288.648010 155.090790 7.207324 0.000000
285.106540 154.837400 7.161205 0.000000
293.106200 154.824220 7.288996 0.000000
291.223450 154.877270 7.257160 0.000000
288.700810 154.793380 7.219062 0.000000
285.368620 154.453060 7.193277 0.000000
279.562470 154.452900 7.073781 0.000000
293.125520 154.502500 7.303601 0.000000
291.301450 154.377660 7.280741 0.000000
288.739410 154.362000 7.229676 0.000000
285.166690 154.142550 7.171041 0.000000
279.934480 153.978590 7.107259 0.000000
293.153230 154.184800 7.318011 0.000000
291.368710 154.009370 7.298102 0.000000
288.904910 153.917110 7.256467 0.000000
285.352390 153.780980 7.192959 0.000000
280.255980 153.523030 7.135415 0.000000
293.187840 153.870380 7.332318 0.000000
291.475860 153.527210 7.321604 0.000000
291.421260 153.766820 7.310017 0.000000
289.092530 153.346710 7.285208 0.000000
288.997500 153.629760 7.270991 0.000000
285.593810 153.421780 7.220672 0.000000
280.536680 153.082570 7.159171 0.000000
285.728120 153.081040 7.235392 0.000000
280.133030 152.684810 7.118250 0.000000
285.887330 152.744340 7.252387 0.000000
280.448430 152.252640 7.144052 0.000000
286.058350 152.413390 7.270163 0.000000
280.579410 151.834060 7.151985 0.000000
280.595670 151.419560 7.148528 0.000000
280.611910 151.005540 7.144442 0.000000
280.628170 150.591720 7.139729 0.000000
280.645110 150.177930 7.134447 0.000000
280.662050 149.763890 7.128526 0.000000
280.679020 149.349300 7.121962 0.000000
280.696010 148.933990 7.114755 0.000000
280.673000 148.512480 7.103030 0.000000
286.349370 148.282880 7.222793 0.000000
286.236330 147.934810 7.198415 0.000000
281.068390 147.733610 7.120449 0.000000
286.174710 147.591550 7.179454 0.000000
280.938350 147.291550 7.096324 0.000000
289.825590 147.036590 7.231499 0.000000
286.348390 146.966190 7.175613 0.000000
280.691100 146.818600 7.059829 0.000000
289.854060 146.766510 7.221021 0.000000
286.364620 146.634630 7.164053 0.000000
280.643830 146.377380 7.042122 0.000000
289.908940 146.361430 7.205685 0.000000
286.278140 146.270340 7.138977 0.000000
280.601560 145.932280 7.024108 0.000000
292.507630 146.093220 7.232541 0.000000
289.974240 145.956100 7.190464 0.000000
286.547270 146.010220 7.157535 0.000000
280.378510 145.435810 6.987172 0.000000
294.615750 145.650730 7.240407 0.000000
294.534730 145.833530 7.246400 0.000000
292.638640 145.649550 7.216290 0.000000
290.052640 145.550810 7.175389 0.000000
286.427700 145.453550 7.118404 0.000000
280.996030 145.157610 7.033865 0.000000
272.998990 144.697650 6.990328 0.000000
271.193210 144.906230 6.867834 0.000000
294.700070 145.468930 7.234421 0.000000
292.994780 145.193700 7.228437 0.000000
290.288270 145.212220 7.183452 0.000000
287.079560 145.167110 7.176068 0.000000
281.350340 144.821240 7.053885 0.000000
281.476990 144.422740 7.050334 0.000000
273.333470 144.201550 7.000617 0.000000
281.527830 143.999190 7.038343 0.000000
273.559390 143.685270 7.002068 0.000000
281.621980 143.587690 7.030078 0.000000
273.694640 143.147380 6.995909 0.000000
272.062260 141.475250 6.831008 0.000000
272.710050 141.068310 6.862572 0.000000
283.753140 141.368390 7.113631 0.000000
274.076200 140.931730 6.951836 0.000000
283.968510 141.028340 7.114257 0.000000
274.834990 140.616130 6.992771 0.000000
275.176850 140.160050 6.999751 0.000000
274.971650 139.484700 6.961146 0.000000
275.207000 138.982590 6.957987 0.000000
276.671780 138.451160 7.034328 0.000000
279.297030 160.991500 7.580584 0.000000
278.967250 160.613650 7.562009 0.000000
292.878480 160.885130 7.805833 0.000000
287.594600 160.704530 7.717177 0.000000
287.311370 160.477420 7.700033 0.000000
278.065160 160.422320 7.501923 0.000000
295.651860 160.756970 7.775745 0.000000
295.400670 160.540590 7.768793 0.000000
292.458890 160.556920 7.785075 0.000000
292.136960 160.308780 7.767699 0.000000
287.219210 160.148610 7.701345 0.000000
277.706540 160.028870 7.480420 0.000000
295.175630 160.297500 7.765593 0.000000
295.034360 160.127580 7.764297 0.000000
291.814820 160.052580 7.749464 0.000000
286.720120 160.017960 7.662263 0.000000
277.331670 159.632200 7.457260 0.000000
294.888240 159.962540 7.761614 0.000000
294.680630 159.705200 7.758530 0.000000
291.390840 159.696150 7.724730 0.000000
286.757600 159.625660 7.675263 0.000000
286.106450 159.542860 7.620888 0.000000
276.966000 159.224030 7.434252 0.000000
276.432160 158.851120 7.398749 0.000000
274.689790 158.756700 7.276774 0.000000
294.495330 159.430390 7.758095 0.000000
291.102260 159.402800 7.709037 0.000000
290.648830 159.039490 7.678081 0.000000
286.025940 159.200320 7.621461 0.000000
285.793880 158.920150 7.606922 0.000000
285.092860 158.812790 7.547121 0.000000
294.174130 159.121960 7.743485 0.000000
293.893070 158.914520 7.725042 0.000000
290.270540 158.774490 7.649206 0.000000
284.702420 158.571460 7.516765 0.000000
283.825990 158.483830 7.439928 0.000000
295.485630 158.515150 7.680165 0.000000
293.503200 158.637480 7.697029 0.000000
293.207550 158.422850 7.674763 0.000000
289.889710 158.499570 7.619389 0.000000
289.633000 158.310000 7.598724 0.000000
283.498780 158.191790 7.414922 0.000000
282.450070 158.107730 7.321395 0.000000
295.242830 158.329420 7.664000 0.000000
295.001040 158.137050 7.647168 0.000000
293.010830 158.274570 7.659564 0.000000
292.714630 158.045230 7.635947 0.000000
289.377040 158.114210 7.577806 0.000000
289.117030 157.914220 7.556047 0.000000
294.680480 157.871150 7.623900 0.000000
294.442410 157.664090 7.605966 0.000000
292.319270 157.726730 7.603279 0.000000
292.022890 157.477870 7.577924 0.000000
288.732240 157.599910 7.523290 0.000000
294.203610 157.451100 7.586980 0.000000
293.966980 157.231610 7.567624 0.000000
291.824920 157.306750 7.560482 0.000000
291.626650 157.131620 7.542621 0.000000
288.263490 157.145660 7.483522 0.000000
295.507170 157.116170 7.556463 0.000000
295.300170 156.922240 7.539421 0.000000
293.804870 157.084050 7.553440 0.000000
293.557040 156.859100 7.530590 0.000000
291.428920 156.952060 7.524453 0.000000
291.229830 156.768770 7.505690 0.000000
287.823940 156.818910 7.442263 0.000000
295.095790 156.721560 7.521909 0.000000
294.893220 156.515700 7.503933 0.000000
293.228520 156.547700 7.499153 0.000000
291.032500 156.580430 7.486772 0.000000
290.834560 156.387940 7.467349 0.000000
287.105650 156.230680 7.372878 0.000000
294.693820 156.302860 7.485529 0.000000
294.478300 156.093060 7.463113 0.000000
292.982640 156.305850 7.474654 0.000000
292.818850 156.140150 7.457784 0.000000
290.348540 156.018190 7.414487 0.000000
289.963040 155.866580 7.367431 0.000000
294.000730 155.776870 7.400779 0.000000
292.368800 155.842380 7.402443 0.000000
292.080990 155.705900 7.363873 0.000000
293.215670 153.662980 7.341845 0.000000
293.264250 153.355380 7.356082 0.000000
291.564790 153.173220 7.338824 0.000000
289.309330 153.055950 7.315578 0.000000
293.339900 152.951390 7.374933 0.000000
291.661990 152.824550 7.356121 0.000000
289.295290 152.792760 7.313519 0.000000
293.427670 152.555070 7.393530 0.000000
291.767030 152.483000 7.373155 0.000000
289.511380 152.255430 7.341271 0.000000
289.401610 152.522020 7.327448 0.000000
286.323580 152.086170 7.298299 0.000000
293.500400 152.262820 7.407239 0.000000
291.893710 151.929020 7.391066 0.000000
286.336700 151.771560 7.296651 0.000000
293.527680 151.788620 7.409820 0.000000
291.872770 151.603290 7.384404 0.000000
289.570680 151.608020 7.343525 0.000000
293.510190 151.411160 7.402137 0.000000
291.858700 151.276760 7.377669 0.000000
289.573940 151.221560 7.338763 0.000000
286.363010 151.143890 7.291580 0.000000
293.507230 150.938000 7.392571 0.000000
291.854610 150.949490 7.371060 0.000000
289.575070 150.834630 7.332218 0.000000
286.382970 150.673750 7.286162 0.000000
293.524540 150.464340 7.383301 0.000000
291.863590 150.512650 7.362594 0.000000
289.579560 150.317470 7.321900 0.000000
286.403590 150.203490 7.279617 0.000000
293.553800 150.085590 7.375978 0.000000
291.887790 150.075670 7.354220 0.000000
289.595000 149.929260 7.314332 0.000000
286.417390 149.889570 7.274450 0.000000
293.610630 149.613480 7.367320 0.000000
293.585140 149.802090 7.370744 0.000000
291.928620 149.639280 7.346161 0.000000
289.622340 149.541090 7.306919 0.000000
286.409670 149.572740 7.266125 0.000000
286.323730 149.244340 7.247877 0.000000
293.655400 149.331270 7.362229 0.000000
291.985720 149.204070 7.338368 0.000000
289.659760 149.153310 7.299699 0.000000
286.347020 148.927430 7.241920 0.000000
293.726200 148.956500 7.355537 0.000000
292.038640 148.878750 7.332691 0.000000
289.725560 148.637130 7.290094 0.000000
286.366180 148.609010 7.234841 0.000000
293.800990 148.581250 7.347189 0.000000
292.088900 148.551640 7.325039 0.000000
289.734100 148.372790 7.280844 0.000000
293.857700 148.198030 7.332791 0.000000
292.128270 148.105220 7.308026 0.000000
289.755580 147.974910 7.266890 0.000000
293.927120 147.814710 7.318251 0.000000
292.182800 147.657560 7.290908 0.000000
289.782710 147.574970 7.252393 0.000000
294.011540 147.432480 7.303991 0.000000
292.254360 147.209690 7.273994 0.000000
289.801850 147.306110 7.241959 0.000000
294.165470 146.862200 7.283000 0.000000
294.083980 147.146730 7.293430 0.000000
292.318820 146.874050 7.261460 0.000000
294.286770 146.485140 7.269385 0.000000
292.393830 146.538960 7.249025 0.000000
294.422790 146.111220 7.256051 0.000000
295.001770 145.192780 7.250707 0.000000
293.345340 145.135600 7.272450 0.000000
290.760770 145.138060 7.238080 0.000000
287.521480 144.994810 7.215430 0.000000
295.601070 145.025710 7.321453 0.000000
295.276580 145.145630 7.287024 0.000000
293.979550 144.754710 7.324028 0.000000
293.692080 144.958770 7.304182 0.000000
291.192260 144.916230 7.276348 0.000000
287.883420 144.802830 7.244464 0.000000
279.387420 144.239850 7.425693 0.000000
294.308200 144.457150 7.338480 0.000000
291.866270 144.267680 7.310003 0.000000
291.716130 144.472660 7.307811 0.000000
288.307430 144.313110 7.262651 0.000000
294.741940 143.979580 7.344811 0.000000
294.520870 144.214320 7.341249 0.000000
292.098330 143.966550 7.313443 0.000000
288.494020 143.892380 7.257600 0.000000
295.055390 143.685420 7.351867 0.000000
294.897610 143.830990 7.348323 0.000000
292.337070 143.671920 7.317058 0.000000
288.693910 143.476120 7.253042 0.000000
283.554870 143.440830 7.195296 0.000000
295.523350 143.250370 7.358579 0.000000
295.290160 143.467700 7.355867 0.000000
292.821350 143.094590 7.322052 0.000000
292.570250 143.376080 7.318474 0.000000
288.923520 143.250670 7.262504 0.000000
283.635680 143.052920 7.184998 0.000000
293.167050 142.731660 7.327069 0.000000
292.993710 142.912140 7.324700 0.000000
289.207610 142.708560 7.255733 0.000000
288.954250 142.917210 7.243915 0.000000
283.960080 142.342180 7.179835 0.000000
283.549650 142.590260 7.156080 0.000000
293.341430 142.553090 7.329160 0.000000
289.580140 142.220060 7.259209 0.000000
284.265320 142.054760 7.192008 0.000000
293.637390 142.152250 7.321696 0.000000
289.762760 141.975200 7.259663 0.000000
293.396610 141.595980 7.240676 0.000000
289.480590 141.413410 7.190888 0.000000
294.118070 141.223480 7.275434 0.000000
293.781070 141.428150 7.262967 0.000000
290.036560 141.042570 7.216202 0.000000
289.755400 141.223190 7.203177 0.000000
294.796390 140.840580 7.299531 0.000000
294.573120 140.968140 7.292343 0.000000
294.343480 141.091930 7.283557 0.000000
290.989380 140.621800 7.271522 0.000000
290.655240 140.741670 7.250504 0.000000
290.319370 140.868470 7.229294 0.000000
284.754180 140.551760 7.154343 0.000000
284.257020 140.729140 7.122594 0.000000
295.429810 140.627010 7.333694 0.000000
295.044070 140.744230 7.311896 0.000000
284.654720 140.038990 7.117489 0.000000
278.428070 139.832960 7.205478 0.000000
291.511260 140.077560 7.272821 0.000000
285.042110 139.808760 7.136009 0.000000
291.653750 139.592410 7.243361 0.000000
285.679870 139.284290 7.156395 0.000000
285.360200 139.543350 7.146251 0.000000
279.210050 139.112560 7.227948 0.000000
291.901490 139.194050 7.229134 0.000000
286.000180 139.030900 7.166339 0.000000
286.755860 138.624360 7.199726 0.000000
286.321440 138.783400 7.176126 0.000000
292.627080 138.398040 7.215450 0.000000
292.375090 138.578640 7.212149 0.000000
286.915740 138.266920 7.188825 0.000000
280.965180 137.873310 7.287121 0.000000
280.467190 138.135620 7.267276 0.000000
292.816100 138.145810 7.206412 0.000000
287.072240 137.902800 7.176648 0.000000
278.644170 137.694720 7.131141 0.000000
293.029170 137.672550 7.177095 0.000000
287.361540 137.642960 7.180826 0.000000
293.326970 137.291400 7.161974 0.000000
282.550350 136.102940 7.300289 0.000000
279.859280 138.892120 7.864617 0.000000
279.711940 137.705440 7.818847 0.000000
273.206630 137.462040 7.514287 0.000000
280.039860 137.326070 7.820550 0.000000
280.152250 136.819000 7.807950 0.000000
279.383910 144.232990 7.994657 0.000000
279.607910 140.877750 7.914465 0.000000
279.380460 144.226150 8.562527 0.000000
278.682830 140.472320 8.469850 0.000000
279.708980 138.809010 8.461027 0.000000
278.611910 138.804960 8.432317 0.000000
279.250920 138.011540 8.431288 0.000000
281.322970 137.528080 8.473073 0.000000
273.114930 137.413600 8.257520 0.000000
278.612120 137.080980 8.393686 0.000000
279.376950 144.219300 9.129834 0.000000
279.817350 140.957380 9.092973 0.000000
279.009310 140.079380 9.076917 0.000000
278.553800 139.326260 9.064717 0.000000
278.135860 137.988590 9.045639 0.000000
279.307340 137.467120 9.047035 0.000000
279.028720 136.722840 9.036115 0.000000
273.623660 136.324200 8.995472 0.000000
278.985320 136.096860 9.028194 0.000000
272.741420 138.546170 9.016727 0.000000
280.011290 138.417160 9.063280 0.000000
279.373470 144.212480 9.697135 0.000000
271.571470 141.291530 9.791276 0.000000
278.450260 140.892320 9.693652 0.000000
271.621950 140.677220 9.787190 0.000000
279.576660 140.847780 9.678303 0.000000
279.212950 140.166200 9.680864 0.000000
272.805510 139.204380 9.763714 0.000000
277.318940 138.151930 9.699950 0.000000
277.553920 137.681290 9.695839 0.000000
280.073850 137.330700 9.663792 0.000000
279.529210 137.586820 9.670827 0.000000
274.593660 137.440140 9.733503 0.000000
280.267880 136.874450 9.660992 0.000000
279.367950 144.205030 10.265034 0.000000
281.091220 137.372180 10.245608 0.000000
281.295230 136.939300 10.244103 0.000000
273.740690 141.964360 10.463910 0.000000
273.672090 141.352260 10.467052 0.000000
273.909850 140.238370 10.461401 0.000000
278.837650 139.990330 10.296144 0.000000
273.834260 139.600710 10.466134 0.000000
277.068570 138.609410 10.363009 0.000000
278.585540 138.210490 10.316612 0.000000
277.614720 138.292970 10.347353 0.000000
278.972050 137.844600 10.307272 0.000000
279.170780 137.379530 10.305130 0.000000
280.001890 137.283370 10.280103 0.000000
279.360530 144.197020 10.834209 0.000000
279.531220 140.817090 10.859083 0.000000
278.862120 139.995800 10.906506 0.000000
279.144290 138.494830 10.916393 0.000000
280.417180 136.955600 10.882881 0.000000
