# .PCD v0.7 - Point Cloud Data file format
VERSION 0.7
FIELDS x y z intensity
SIZE 4 4 4 4
TYPE F F F F
COUNT 1 1 1 1
WIDTH 1185
HEIGHT 1
VIEWPOINT 0 0 0 1 0 0 0
POINTS 1185
DATA ascii
293.769350 -40.821621 2.601271 0.000000
294.155460 -40.980125 2.600040 0.000000
294.538640 -41.139595 2.599190 0.000000
294.921110 -41.296707 2.598598 0.000000
295.301300 -41.454788 2.598374 0.000000
295.680760 -41.611595 2.598435 0.000000
275.869510 -40.665024 3.004446 0.000000
276.164280 -39.726646 2.983882 0.000000
293.008210 -39.045944 3.062026 0.000000
293.382390 -39.198135 3.057618 0.000000
293.753660 -39.349136 3.053689 0.000000
294.122340 -39.499084 3.050234 0.000000
294.488710 -39.648083 3.047246 0.000000
294.852910 -39.796227 3.044719 0.000000
295.215240 -39.943596 3.042647 0.000000
295.575960 -40.090324 3.041026 0.000000
275.561800 -41.644646 3.026407 0.000000
293.081020 -38.943516 3.548246 0.000000
293.450990 -39.097763 3.542164 0.000000
295.633240 -39.982742 3.517049 0.000000
273.735350 -40.491192 3.893877 0.000000
274.242030 -39.423630 3.845110 0.000000
272.263490 -61.784081 -2.385032 0.000000
272.967900 -59.595966 -2.215847 0.000000
273.560460 -57.635738 -2.067258 0.000000
274.182070 -55.737988 -1.921855 0.000000
274.707090 -54.025993 -1.793514 0.000000
276.149320 -51.503216 -1.569110 0.000000
290.956150 -41.626873 -1.355935 0.000000
290.669310 -41.254822 -1.342439 0.000000
290.565430 -40.677227 -1.295781 0.000000
288.850950 -39.206322 -1.304907 0.000000
288.484160 -38.929977 -1.312966 0.000000
276.318700 -50.303482 -1.491594 0.000000
276.659910 -48.993061 -1.399056 0.000000
277.635960 -47.182030 -1.243473 0.000000
277.773710 -46.163795 -1.180297 0.000000
278.003020 -45.105469 -1.110397 0.000000
290.300930 -39.005245 -1.162811 0.000000
292.567140 -40.306068 -1.104230 0.000000
292.967710 -40.477406 -1.091159 0.000000
293.372070 -40.637344 -1.077486 0.000000
293.768160 -40.802597 -1.065749 0.000000
294.162840 -40.964180 -1.054539 0.000000
294.554290 -41.125214 -1.044294 0.000000
295.715610 -41.600388 -1.018357 0.000000
279.074310 -41.119576 -0.841877 0.000000
278.934690 -40.483166 -0.819530 0.000000
279.109310 -39.652267 -0.768838 0.000000
279.031010 -39.004509 -0.743460 0.000000
275.703430 -41.093208 -0.231450 0.000000
275.999940 -40.151077 -0.185588 0.000000
276.284060 -39.245987 -0.142042 0.000000
292.563510 -40.311848 -0.037435 0.000000
292.967960 -40.477798 -0.028572 0.000000
293.368740 -40.642254 -0.020270 0.000000
293.766140 -40.805347 -0.012518 0.000000
294.160430 -40.967133 -0.005301 0.000000
294.551910 -41.127777 0.001390 0.000000
294.940860 -41.287354 0.007565 0.000000
295.712100 -41.603783 0.018398 0.000000
275.705410 -41.097221 0.587422 0.000000
276.001800 -40.155266 0.616967 0.000000
292.562770 -40.313358 0.493253 0.000000
292.967160 -40.479240 0.499617 0.000000
293.367830 -40.643658 0.505601 0.000000
293.765140 -40.806694 0.511217 0.000000
294.159330 -40.968452 0.516471 0.000000
294.550750 -41.129036 0.521373 0.000000
294.939610 -41.288574 0.525928 0.000000
295.326140 -41.447186 0.530141 0.000000
295.710630 -41.604927 0.534020 0.000000
276.286380 -39.249985 0.645116 0.000000
292.562070 -40.314838 1.022677 0.000000
292.966340 -40.480690 1.026547 0.000000
293.366910 -40.645050 1.030221 0.000000
293.764160 -40.808041 1.033705 0.000000
294.158260 -40.969765 1.037003 0.000000
294.549560 -41.130310 1.040120 0.000000
294.938320 -41.289810 1.043060 0.000000
295.324340 -41.449120 1.045794 0.000000
295.708190 -41.607838 1.048347 0.000000
275.707370 -41.101234 1.405058 0.000000
276.003630 -40.159451 1.418320 0.000000
276.288120 -39.254330 1.431064 0.000000
292.561340 -40.316338 1.551334 0.000000
292.965520 -40.482132 1.552715 0.000000
293.366000 -40.646461 1.554083 0.000000
293.763150 -40.809402 1.555440 0.000000
294.157140 -40.971130 1.556785 0.000000
294.547730 -41.132584 1.558105 0.000000
294.935820 -41.293037 1.559417 0.000000
295.321620 -41.452579 1.560720 0.000000
295.705440 -41.611267 1.562017 0.000000
276.289890 -39.258667 2.216608 0.000000
292.560640 -40.317818 2.079742 0.000000
292.964720 -40.483570 2.078636 0.000000
293.364930 -40.648125 2.077703 0.000000
293.761290 -40.812008 2.076944 0.000000
294.154570 -40.974628 2.076348 0.000000
294.545100 -41.136089 2.075914 0.000000
294.933170 -41.296516 2.075640 0.000000
295.318940 -41.456024 2.075525 0.000000
295.702700 -41.614685 2.075566 0.000000
275.709350 -41.105240 2.222256 0.000000
276.005490 -40.163631 2.219253 0.000000
292.559480 -40.319847 2.608417 0.000000
292.962770 -40.486530 2.604861 0.000000
293.362400 -40.651749 2.601657 0.000000
293.758730 -40.815590 2.598796 0.000000
294.151980 -40.978180 2.596275 0.000000
294.542480 -41.139603 2.594087 0.000000
294.930480 -41.300003 2.592227 0.000000
295.316310 -41.459297 2.590685 0.000000
295.699950 -41.618103 2.589477 0.000000
276.291600 -39.263008 3.002487 0.000000
293.037630 -39.056015 3.071900 0.000000
293.422640 -39.212612 3.065593 0.000000
293.803830 -39.367699 3.059803 0.000000
294.181520 -39.521374 3.054518 0.000000
294.556030 -39.673759 3.049726 0.000000
294.927550 -39.824917 3.045420 0.000000
295.296390 -39.974983 3.041590 0.000000
295.662780 -40.124069 3.038230 0.000000
275.711300 -41.109253 3.039786 0.000000
276.007320 -40.167816 3.020519 0.000000
293.876460 -39.271393 3.548374 0.000000
294.255580 -39.419334 3.540485 0.000000
272.927550 -40.421703 3.977819 0.000000
274.250850 -38.934319 3.883006 0.000000
271.197300 -61.141800 -2.319570 0.000000
273.456270 -56.266502 -1.923911 0.000000
274.017330 -54.549568 -1.798482 0.000000
275.545930 -52.022270 -1.576499 0.000000
275.804020 -50.749863 -1.493858 0.000000
290.299320 -41.030228 -1.337356 0.000000
290.553070 -41.440353 -1.353404 0.000000
288.654570 -39.389923 -1.338195 0.000000
290.284850 -39.743713 -1.225462 0.000000
289.741150 -39.025894 -1.211515 0.000000
295.240080 -39.161545 -1.261744 0.000000
295.576480 -39.351372 -1.254434 0.000000
276.168730 -49.434036 -1.403771 0.000000
277.264160 -47.567837 -1.244007 0.000000
277.389470 -46.562965 -1.185485 0.000000
277.639680 -45.494164 -1.117211 0.000000
278.578800 -43.152901 -0.946822 0.000000
292.698730 -40.365974 -1.083212 0.000000
293.112850 -40.535812 -1.066926 0.000000
293.522520 -40.703812 -1.051624 0.000000
290.454220 -38.965446 -1.144040 0.000000
294.329680 -41.034897 -1.023887 0.000000
294.727780 -41.198204 -1.011406 0.000000
295.514560 -41.520882 -0.989110 0.000000
278.689120 -42.296471 -0.899569 0.000000
278.933170 -41.375832 -0.841834 0.000000
278.771180 -40.742897 -0.823171 0.000000
279.001740 -39.878071 -0.770229 0.000000
278.870360 -39.252415 -0.751366 0.000000
293.930300 -40.867332 -0.505132 0.000000
294.329160 -41.035583 -0.494614 0.000000
294.726720 -41.199516 -0.484471 0.000000
295.121490 -41.361431 -0.474961 0.000000
275.710450 -41.115196 -0.196926 0.000000
276.003050 -40.184750 -0.154392 0.000000
276.285190 -39.288280 -0.113890 0.000000
292.282710 -40.192574 -0.015727 0.000000
292.697300 -40.369011 -0.005328 0.000000
293.111270 -40.538765 0.004950 0.000000
293.520780 -40.706692 0.014632 0.000000
293.926120 -40.872940 0.023733 0.000000
294.327640 -41.037636 0.032268 0.000000
294.725590 -41.200844 0.040251 0.000000
295.120330 -41.362713 0.047695 0.000000
295.512080 -41.523376 0.054608 0.000000
275.712620 -41.118473 0.637038 0.000000
276.005100 -40.188198 0.663861 0.000000
276.286590 -39.292175 0.689446 0.000000
292.280760 -40.195614 0.523266 0.000000
292.696590 -40.370529 0.530728 0.000000
293.110470 -40.540237 0.538019 0.000000
293.519900 -40.708118 0.544910 0.000000
293.925170 -40.874329 0.551408 0.000000
294.326630 -41.038979 0.557526 0.000000
294.724520 -41.202148 0.563272 0.000000
295.119170 -41.363983 0.568655 0.000000
295.510860 -41.524609 0.573683 0.000000
292.280670 -40.196579 1.061198 0.000000
292.695890 -40.372025 1.065553 0.000000
293.109710 -40.541702 1.069865 0.000000
293.519040 -40.709534 1.073971 0.000000
293.924260 -40.875706 1.077874 0.000000
294.325620 -41.040318 1.081580 0.000000
294.723420 -41.203465 1.085095 0.000000
295.117740 -41.365646 1.088408 0.000000
295.508730 -41.527222 1.091514 0.000000
275.714780 -41.121750 1.469781 0.000000
276.007140 -40.191635 1.480924 0.000000
276.288510 -39.295769 1.491656 0.000000
292.279750 -40.198429 1.598349 0.000000
292.695160 -40.373543 1.599648 0.000000
293.108920 -40.543167 1.600988 0.000000
293.518190 -40.710968 1.602313 0.000000
293.923310 -40.877102 1.603625 0.000000
294.324160 -41.042282 1.604915 0.000000
294.721220 -41.206367 1.606189 0.000000
295.115080 -41.369133 1.607452 0.000000
295.506010 -41.530685 1.608706 0.000000
292.279330 -40.199764 2.135302 0.000000
292.694460 -40.375034 2.133537 0.000000
293.108120 -40.544624 2.131906 0.000000
293.516660 -40.713223 2.130465 0.000000
293.920990 -40.880295 2.129199 0.000000
294.321530 -41.045822 2.128105 0.000000
294.718540 -41.209881 2.127179 0.000000
295.112400 -41.372620 2.126418 0.000000
295.503330 -41.534149 2.125821 0.000000
275.716950 -41.125015 2.302118 0.000000
276.009190 -40.195072 2.297597 0.000000
276.290470 -39.299355 2.293489 0.000000
292.541260 -39.904755 2.660036 0.000000
292.968810 -40.054718 2.654356 0.000000
293.512180 -40.719193 2.659107 0.000000
293.921170 -40.880203 2.655036 0.000000
294.319340 -41.048744 2.651683 0.000000
294.725650 -41.199741 2.648051 0.000000
295.184230 -41.267784 2.641647 0.000000
295.576350 -41.423309 2.639018 0.000000
293.403140 -40.187523 2.648451 0.000000
292.824250 -38.972000 3.142657 0.000000
293.223940 -39.134468 3.134345 0.000000
293.618680 -39.295021 3.126598 0.000000
294.008940 -39.453667 3.119394 0.000000
294.394930 -39.610596 3.112724 0.000000
294.776980 -39.765945 3.106575 0.000000
295.155360 -39.919827 3.100936 0.000000
295.530360 -40.072319 3.095796 0.000000
275.719120 -41.128292 3.134831 0.000000
276.011260 -40.198513 3.114645 0.000000
276.292420 -39.302948 3.095699 0.000000
272.924960 -39.553970 4.075652 0.000000
273.060610 -59.541634 -2.245906 0.000000
273.690160 -57.651016 -2.102529 0.000000
274.223270 -55.936325 -1.975526 0.000000
275.727140 -53.412285 -1.749921 0.000000
276.161350 -51.958519 -1.644990 0.000000
276.342650 -50.778069 -1.570356 0.000000
291.233120 -40.528961 -1.308070 0.000000
277.702880 -47.749336 -1.329997 0.000000
278.620480 -45.300854 -1.149428 0.000000
278.800630 -44.344383 -1.090708 0.000000
279.004760 -43.401077 -1.031931 0.000000
291.334590 -39.809067 -1.236284 0.000000
293.093410 -40.522827 -1.150925 0.000000
293.516850 -40.696541 -1.132596 0.000000
293.935060 -40.868210 -1.115319 0.000000
291.130710 -39.393677 -1.218499 0.000000
294.348510 -41.037823 -1.099043 0.000000
294.756870 -41.206306 -1.083865 0.000000
295.162140 -41.371674 -1.069427 0.000000
290.936920 -38.975441 -1.200424 0.000000
279.619750 -40.739517 -0.867931 0.000000
279.443420 -40.127106 -0.851578 0.000000
279.286530 -39.510056 -0.834473 0.000000
275.551640 -41.610710 -0.306813 0.000000
275.846710 -40.672134 -0.262661 0.000000
276.132050 -39.766289 -0.220528 0.000000
292.664460 -40.350609 -0.074397 0.000000
293.093200 -40.526531 -0.062292 0.000000
293.516450 -40.700157 -0.050833 0.000000
293.934450 -40.871712 -0.040007 0.000000
294.347690 -41.041229 -0.029785 0.000000
294.756440 -41.208900 -0.020158 0.000000
295.160950 -41.374893 -0.011113 0.000000
275.553340 -41.615952 0.552730 0.000000
275.848330 -40.677505 0.581335 0.000000
276.133180 -39.771996 0.608689 0.000000
292.664460 -40.352509 0.470557 0.000000
293.093110 -40.528374 0.479038 0.000000
293.516240 -40.701946 0.487086 0.000000
293.934140 -40.873459 0.494705 0.000000
294.347470 -41.042725 0.501933 0.000000
294.755920 -41.210552 0.508731 0.000000
295.160370 -41.376495 0.515152 0.000000
295.560970 -41.540855 0.521194 0.000000
292.664460 -40.354408 1.014208 0.000000
293.093020 -40.530228 1.019077 0.000000
293.516020 -40.703735 1.023722 0.000000
293.933870 -40.875187 1.028146 0.000000
294.346890 -41.044609 1.032359 0.000000
294.755430 -41.212189 1.036365 0.000000
295.159580 -41.378357 1.040158 0.000000
295.559360 -41.543663 1.043723 0.000000
275.555050 -41.621193 1.411026 0.000000
275.849910 -40.682877 1.424114 0.000000
276.134670 -39.777481 1.436744 0.000000
292.664460 -40.356300 1.557070 0.000000
293.092900 -40.532063 1.558334 0.000000
293.515840 -40.705528 1.559583 0.000000
293.933560 -40.876915 1.560816 0.000000
294.346100 -41.046783 1.562026 0.000000
294.753750 -41.215302 1.563215 0.000000
295.157290 -41.382145 1.564391 0.000000
295.557040 -41.547417 1.565556 0.000000
292.664490 -40.358192 2.099673 0.000000
293.092800 -40.533894 2.097336 0.000000
293.515010 -40.707993 2.095200 0.000000
293.931820 -40.880314 2.093255 0.000000
294.343900 -41.050632 2.091493 0.000000
294.751530 -41.219101 2.089911 0.000000
295.155030 -41.385910 2.088505 0.000000
295.554720 -41.551147 2.087270 0.000000
275.556760 -41.626431 2.268915 0.000000
275.851530 -40.688236 2.266500 0.000000
276.136200 -39.782959 2.264419 0.000000
292.665100 -40.359428 2.642500 0.000000
293.091000 -40.537586 2.636665 0.000000
293.514770 -40.709808 2.631082 0.000000
293.946900 -40.864166 2.625271 0.000000
294.368320 -41.022408 2.620090 0.000000
294.780430 -41.184052 2.615495 0.000000
295.184810 -41.348198 2.611427 0.000000
295.582030 -41.515106 2.607877 0.000000
292.843080 -38.975243 3.130714 0.000000
293.258670 -39.144302 3.120449 0.000000
293.668330 -39.310898 3.110797 0.000000
294.072360 -39.475227 3.101740 0.000000
294.471160 -39.637398 3.093262 0.000000
294.864990 -39.797630 3.085349 0.000000
295.254300 -39.955948 3.077980 0.000000
295.639280 -40.112579 3.071149 0.000000
275.558470 -41.631672 3.127203 0.000000
275.853150 -40.693604 3.109286 0.000000
276.137700 -39.788445 3.092493 0.000000
272.173340 -40.207485 4.131434 0.000000
275.162600 -55.586033 -1.940374 0.000000
275.606480 -54.068451 -1.830485 0.000000
277.073700 -50.739220 -1.564337 0.000000
277.297150 -49.586052 -1.489755 0.000000
291.730290 -40.505093 -1.316060 0.000000
291.531890 -40.072304 -1.296768 0.000000
278.398440 -46.914333 -1.285317 0.000000
278.479610 -45.990322 -1.233625 0.000000
278.696040 -44.999435 -1.171153 0.000000
279.419950 -43.706192 -1.063391 0.000000
279.531430 -42.854286 -1.015720 0.000000
292.593410 -40.318657 -1.224158 0.000000
293.038540 -40.503029 -1.201950 0.000000
293.479520 -40.682205 -1.180479 0.000000
293.912960 -40.859989 -1.160353 0.000000
294.340520 -41.035389 -1.141330 0.000000
294.762540 -41.208481 -1.123363 0.000000
295.179380 -41.379517 -1.106441 0.000000
295.591430 -41.548523 -1.090514 0.000000
291.478970 -38.943607 -1.207647 0.000000
270.939090 -45.443542 -0.673529 0.000000
279.932650 -41.848728 -0.943355 0.000000
279.747070 -41.220924 -0.926374 0.000000
279.777340 -39.767471 -0.859942 0.000000
275.685460 -41.187866 -0.316223 0.000000
275.974000 -40.270550 -0.273575 0.000000
276.253570 -39.383160 -0.232807 0.000000
292.595030 -40.323135 -0.107419 0.000000
293.041230 -40.506111 -0.093606 0.000000
293.480680 -40.686401 -0.080506 0.000000
293.913910 -40.864082 -0.068085 0.000000
294.341220 -41.039360 -0.056327 0.000000
294.763030 -41.212353 -0.045208 0.000000
295.179660 -41.383270 -0.034715 0.000000
295.591520 -41.552162 -0.024822 0.000000
275.686680 -41.194618 0.553253 0.000000
275.975010 -40.277443 0.581216 0.000000
276.253780 -39.390457 0.608001 0.000000
292.595860 -40.325352 0.447855 0.000000
293.041930 -40.508263 0.457385 0.000000
293.481260 -40.688492 0.466435 0.000000
293.914370 -40.866104 0.475029 0.000000
294.341580 -41.041325 0.483177 0.000000
294.763280 -41.214264 0.490896 0.000000
295.179780 -41.385128 0.498193 0.000000
295.591520 -41.553978 0.505087 0.000000
292.596680 -40.327553 1.001780 0.000000
293.042630 -40.510414 1.007040 0.000000
293.481840 -40.690578 1.012053 0.000000
293.914830 -40.868134 1.016831 0.000000
294.341920 -41.043297 1.021379 0.000000
294.763520 -41.216164 1.025708 0.000000
295.179720 -41.387241 1.029807 0.000000
295.590550 -41.557030 1.033666 0.000000
275.687900 -41.201363 1.421520 0.000000
275.976140 -40.284264 1.434831 0.000000
276.254820 -39.397358 1.447704 0.000000
292.597500 -40.329765 1.554881 0.000000
293.043330 -40.512554 1.555879 0.000000
293.482420 -40.692665 1.556862 0.000000
293.915280 -40.870155 1.557832 0.000000
294.341890 -41.045692 1.558779 0.000000
294.762480 -41.219505 1.559705 0.000000
295.177980 -41.391258 1.560619 0.000000
295.588780 -41.561005 1.561523 0.000000
292.598330 -40.331970 2.107696 0.000000
293.044040 -40.514702 2.104438 0.000000
293.482420 -40.695343 2.101402 0.000000
293.914250 -40.873764 2.098577 0.000000
294.340270 -41.049789 2.095955 0.000000
294.760830 -41.223557 2.093528 0.000000
295.176270 -41.395252 2.091293 0.000000
295.587010 -41.564953 2.089243 0.000000
275.689120 -41.208096 2.289426 0.000000
275.977260 -40.291073 2.288097 0.000000
276.255920 -39.404236 2.287069 0.000000
292.599460 -40.333900 2.660733 0.000000
293.041350 -40.520157 2.653373 0.000000
292.473050 -39.851166 2.655448 0.000000
293.532870 -40.646996 2.644072 0.000000
293.914150 -40.876358 2.639613 0.000000
294.338650 -41.053894 2.633493 0.000000
294.763460 -41.222786 2.627521 0.000000
295.192570 -41.378326 2.621509 0.000000
295.610380 -41.538639 2.616159 0.000000
292.819370 -38.966652 3.161877 0.000000
293.253660 -39.143219 3.149379 0.000000
293.680820 -39.316841 3.137561 0.000000
294.101200 -39.487713 3.126402 0.000000
294.514740 -39.656517 3.115916 0.000000
294.923250 -39.821960 3.105979 0.000000
295.325710 -39.985607 3.096673 0.000000
295.722960 -40.147102 3.087946 0.000000
275.690310 -41.214844 3.157788 0.000000
275.978390 -40.297897 3.141817 0.000000
276.256960 -39.411133 3.126886 0.000000
272.178860 -39.716972 4.186305 0.000000
276.224610 -53.066811 -1.727942 0.000000
276.597810 -51.734932 -1.635052 0.000000
276.672490 -50.679558 -1.574831 0.000000
277.685000 -48.965672 -1.426905 0.000000
291.856110 -40.262009 -1.317555 0.000000
292.527070 -40.297852 -1.260396 0.000000
292.993740 -40.490387 -1.235416 0.000000
291.965850 -39.587837 -1.252608 0.000000
291.788760 -39.154175 -1.234192 0.000000
277.828220 -47.945587 -1.366307 0.000000
278.024440 -46.919182 -1.303111 0.000000
278.942630 -44.625465 -1.135833 0.000000
279.578670 -43.432625 -1.040442 0.000000
279.603790 -42.643833 -1.002295 0.000000
279.580080 -41.899227 -0.969963 0.000000
284.743620 -39.634277 -1.246540 0.000000
293.454160 -40.678040 -1.211426 0.000000
293.906160 -40.863361 -1.188816 0.000000
294.351040 -41.045738 -1.167396 0.000000
294.789180 -41.225441 -1.147141 0.000000
295.221130 -41.402523 -1.127991 0.000000
279.975590 -40.221573 -0.871325 0.000000
279.821930 -39.589336 -0.854353 0.000000
275.518890 -41.724312 -0.321396 0.000000
275.811130 -40.794151 -0.278742 0.000000
276.094420 -39.893410 -0.237952 0.000000
276.369450 -39.020103 -0.198907 0.000000
292.531490 -40.303474 -0.119013 0.000000
292.998750 -40.495064 -0.103963 0.000000
293.457980 -40.683372 -0.089681 0.000000
293.909730 -40.868538 -0.076134 0.000000
294.354370 -41.050785 -0.063300 0.000000
294.792270 -41.230358 -0.051162 0.000000
295.223940 -41.407326 -0.039688 0.000000
275.519590 -41.733017 0.574835 0.000000
275.811770 -40.802856 0.602878 0.000000
276.094670 -39.902267 0.629766 0.000000
276.368900 -39.029266 0.655571 0.000000
292.533690 -40.306255 0.448508 0.000000
293.000790 -40.497784 0.458551 0.000000
293.459900 -40.686012 0.468084 0.000000
293.911500 -40.871120 0.477127 0.000000
294.356020 -41.053291 0.485696 0.000000
294.793790 -41.232800 0.493799 0.000000
295.225370 -41.409698 0.501462 0.000000
295.651060 -41.584213 0.508693 0.000000
292.535860 -40.309052 1.014647 0.000000
293.002840 -40.500496 1.019700 0.000000
293.461790 -40.688648 1.024498 0.000000
293.913270 -40.873688 1.029050 0.000000
294.357640 -41.055801 1.033365 0.000000
294.795320 -41.235241 1.037446 0.000000
295.226380 -41.412483 1.041288 0.000000
295.651060 -41.587936 1.044886 0.000000
275.520290 -41.741722 1.469930 0.000000
275.812440 -40.811546 1.483386 0.000000
276.095250 -39.910965 1.496414 0.000000
276.369450 -39.037945 1.509043 0.000000
292.538020 -40.311836 1.579941 0.000000
293.004880 -40.503201 1.580013 0.000000
293.463710 -40.691292 1.580084 0.000000
293.915070 -40.876247 1.580155 0.000000
294.358730 -41.058830 1.580215 0.000000
294.795320 -41.239204 1.580265 0.000000
295.225770 -41.416977 1.580315 0.000000
295.650390 -41.592384 1.580364 0.000000
292.540220 -40.314613 2.144940 0.000000
293.006930 -40.505905 2.140037 0.000000
293.464870 -40.694588 2.135396 0.000000
293.915070 -40.880463 2.131002 0.000000
294.358220 -41.063446 2.126844 0.000000
294.794740 -41.243752 2.122913 0.000000
295.225130 -41.421471 2.119202 0.000000
295.649720 -41.596813 2.115704 0.000000
275.521000 -41.750412 2.364764 0.000000
275.813080 -40.820232 2.363641 0.000000
276.095830 -39.919640 2.362817 0.000000
276.370000 -39.046623 2.362278 0.000000
294.091370 -40.718323 2.674690 0.000000
294.543640 -40.886349 2.665820 0.000000
294.990450 -41.049690 2.657339 0.000000
292.761350 -39.553764 2.692423 0.000000
293.144130 -39.806335 2.685492 0.000000
293.623170 -39.968227 2.674806 0.000000
294.090850 -40.128536 2.664737 0.000000
295.435790 -41.204575 2.649067 0.000000
293.705750 -39.333702 3.195255 0.000000
294.145940 -39.512550 3.181187 0.000000
294.578490 -39.688324 3.167841 0.000000
295.003940 -39.861156 3.155186 0.000000
295.422640 -40.031250 3.143200 0.000000
275.521730 -41.759113 3.260179 0.000000
275.813720 -40.828938 3.244471 0.000000
276.096440 -39.928337 3.229791 0.000000
276.370540 -39.055309 3.216078 0.000000
292.804110 -38.963219 3.225434 0.000000
293.257480 -39.151588 3.210074 0.000000
277.189970 -48.774315 -1.407199 0.000000
277.544530 -47.627350 -1.331415 0.000000
292.235960 -40.222855 -1.291098 0.000000
292.774630 -40.390812 -1.255400 0.000000
293.258360 -40.589203 -1.227956 0.000000
293.732940 -40.783890 -1.201896 0.000000
294.198970 -40.975067 -1.177159 0.000000
278.204930 -46.326000 -1.231135 0.000000
278.454530 -45.324589 -1.170102 0.000000
279.148800 -44.093895 -1.072696 0.000000
279.270170 -43.232292 -1.027329 0.000000
279.329560 -42.424759 -0.988901 0.000000
279.618840 -41.516121 -0.932722 0.000000
279.836730 -40.668808 -0.884305 0.000000
279.685700 -40.017090 -0.867770 0.000000
279.926820 -39.194534 -0.820372 0.000000
294.657010 -41.162918 -1.153693 0.000000
295.107510 -41.347649 -1.131452 0.000000
295.550810 -41.529518 -1.110408 0.000000
275.728490 -41.090099 -0.255657 0.000000
276.013820 -40.182301 -0.216664 0.000000
276.291440 -39.300991 -0.179315 0.000000
292.290010 -40.191681 -0.113714 0.000000
292.779240 -40.396820 -0.096945 0.000000
293.262700 -40.595070 -0.080663 0.000000
293.737030 -40.789619 -0.065206 0.000000
294.202820 -40.980675 -0.050539 0.000000
294.660640 -41.168385 -0.036627 0.000000
295.110900 -41.352978 -0.023446 0.000000
295.553990 -41.534737 -0.010980 0.000000
275.729400 -41.098450 0.647886 0.000000
276.014650 -40.190651 0.673182 0.000000
276.291530 -39.309605 0.697467 0.000000
292.293640 -40.193836 0.468177 0.000000
292.781520 -40.399807 0.479137 0.000000
293.264830 -40.597992 0.489871 0.000000
293.739070 -40.792461 0.500060 0.000000
294.662450 -41.171104 0.518885 0.000000
295.112580 -41.355640 0.527563 0.000000
295.555570 -41.537327 0.535767 0.000000
292.295230 -40.197510 1.048552 0.000000
292.783810 -40.402794 1.053864 0.000000
293.267000 -40.600906 1.059068 0.000000
293.741090 -40.795303 1.064001 0.000000
294.206670 -40.986221 1.068675 0.000000
294.664250 -41.173809 1.073103 0.000000
295.113950 -41.358570 1.077276 0.000000
295.555820 -41.541214 1.081181 0.000000
275.730260 -41.106812 1.550338 0.000000
276.015440 -40.198990 1.561958 0.000000
276.292330 -39.317917 1.573236 0.000000
292.297550 -40.200653 1.628157 0.000000
292.786070 -40.405769 1.627780 0.000000
293.269130 -40.603813 1.627463 0.000000
293.743100 -40.798149 1.627151 0.000000
294.208130 -40.989353 1.626839 0.000000
294.664520 -41.177887 1.626523 0.000000
295.113430 -41.363308 1.626212 0.000000
295.555240 -41.545906 1.625905 0.000000
292.300110 -40.203583 2.207508 0.000000
292.788360 -40.408745 2.201445 0.000000
293.270750 -40.607162 2.195620 0.000000
293.743440 -40.802429 2.190085 0.000000
294.207640 -40.994225 2.184819 0.000000
294.664000 -41.182690 2.179811 0.000000
295.112850 -41.368057 2.175052 0.000000
295.554660 -41.550591 2.170535 0.000000
275.731140 -41.115158 2.452580 0.000000
276.016300 -40.207310 2.450531 0.000000
276.293090 -39.326233 2.448809 0.000000
293.075230 -39.065590 2.746617 0.000000
293.549590 -39.258350 2.734765 0.000000
294.014130 -39.447208 2.723488 0.000000
295.612180 -40.325809 2.691372 0.000000
294.459200 -39.640842 2.713202 0.000000
294.860870 -39.861031 2.704961 0.000000
295.360200 -39.987965 2.692630 0.000000
294.915860 -39.818787 3.233270 0.000000
295.354550 -39.997101 3.218846 0.000000
275.732030 -41.123512 3.355462 0.000000
276.017150 -40.215645 3.339737 0.000000
276.293880 -39.334545 3.325007 0.000000
293.074770 -39.070637 3.298838 0.000000
293.549070 -39.263332 3.281196 0.000000
294.469060 -39.637188 3.248448 0.000000
278.444980 -49.081734 -1.504461 0.000000
278.659120 -48.036964 -1.440232 0.000000
285.366880 -40.917896 -1.422770 0.000000
285.623470 -40.122028 -1.357990 0.000000
285.587310 -39.497826 -1.327873 0.000000
293.453430 -40.668324 -1.344096 0.000000
293.206880 -40.275734 -1.336863 0.000000
293.944850 -40.872269 -1.314311 0.000000
294.428470 -41.070717 -1.285692 0.000000
294.902830 -41.265434 -1.258485 0.000000
293.034330 -39.832870 -1.319584 0.000000
293.195920 -39.170601 -1.254390 0.000000
278.797030 -47.070286 -1.385334 0.000000
279.412600 -45.843689 -1.289255 0.000000
279.640320 -44.886452 -1.230857 0.000000
280.289550 -43.723724 -1.137225 0.000000
280.347690 -42.918213 -1.098038 0.000000
280.385380 -42.139801 -1.062123 0.000000
280.679440 -41.252075 -1.005680 0.000000
280.742680 -39.783100 -0.942105 0.000000
295.367400 -41.457550 -1.232808 0.000000
270.988890 -46.910019 -0.802819 0.000000
271.401580 -45.760284 -0.746946 0.000000
271.634700 -44.727455 -0.703657 0.000000
272.581360 -43.403458 -0.619041 0.000000
281.069850 -38.942753 -0.887637 0.000000
275.664790 -41.231117 -0.410043 0.000000
275.951810 -40.320152 -0.369764 0.000000
276.230870 -39.434830 -0.331160 0.000000
292.438230 -40.257935 -0.216771 0.000000
292.952760 -40.468994 -0.196670 0.000000
293.456210 -40.675556 -0.177535 0.000000
293.949280 -40.877842 -0.159316 0.000000
294.432590 -41.076134 -0.141979 0.000000
294.906650 -41.270653 -0.125487 0.000000
295.372130 -41.461594 -0.109801 0.000000
275.665890 -41.239986 0.514318 0.000000
275.952180 -40.329323 0.541180 0.000000
276.230440 -39.444305 0.567014 0.000000
292.440920 -40.260979 0.376095 0.000000
292.955290 -40.471931 0.389680 0.000000
293.458560 -40.678402 0.402618 0.000000
293.951480 -40.880608 0.414941 0.000000
294.434600 -41.078815 0.426673 0.000000
294.908570 -41.273254 0.437839 0.000000
295.373870 -41.464119 0.448465 0.000000
292.443660 -40.264000 0.967487 0.000000
292.957820 -40.474876 0.974575 0.000000
293.460910 -40.681263 0.981333 0.000000
293.953670 -40.883369 0.987778 0.000000
294.436650 -41.081490 0.993923 0.000000
294.910430 -41.275860 0.999779 0.000000
295.374970 -41.467209 1.005331 0.000000
276.231110 -39.453339 1.464083 0.000000
275.666690 -41.248970 1.437448 0.000000
275.952880 -40.338341 1.450956 0.000000
292.446350 -40.267040 1.557960 0.000000
292.960360 -40.477814 1.558566 0.000000
293.463290 -40.684097 1.559158 0.000000
293.955870 -40.886135 1.559738 0.000000
294.437960 -41.084766 1.560294 0.000000
294.910400 -41.280071 1.560831 0.000000
295.374330 -41.471790 1.561359 0.000000
292.449040 -40.270065 2.148092 0.000000
292.962890 -40.480740 2.142223 0.000000
293.464780 -40.687572 2.136666 0.000000
293.955930 -40.890530 2.131401 0.000000
294.437440 -41.089497 2.126413 0.000000
294.909790 -41.284729 2.121691 0.000000
295.373690 -41.476379 2.117222 0.000000
275.667480 -41.257942 2.360268 0.000000
275.953640 -40.347336 2.360430 0.000000
276.231780 -39.462364 2.360860 0.000000
293.624420 -40.006363 2.700936 0.000000
294.125270 -40.196037 2.689046 0.000000
295.540590 -41.335762 2.666705 0.000000
293.151460 -39.234100 2.705431 0.000000
294.593410 -40.398499 2.678600 0.000000
295.108890 -40.551777 2.666476 0.000000
295.650630 -40.669189 2.653439 0.000000
293.709110 -39.395462 2.690847 0.000000
295.651340 -40.117928 3.178387 0.000000
275.668240 -41.266941 3.283646 0.000000
275.954350 -40.356354 3.270458 0.000000
276.232450 -39.471401 3.258187 0.000000
292.778110 -38.942841 3.282415 0.000000
293.774050 -39.354774 3.244444 0.000000
294.258450 -39.551651 3.226645 0.000000
294.732360 -39.744328 3.209730 0.000000
295.196470 -39.932999 3.193654 0.000000
279.181240 -48.192360 -1.518390 0.000000
286.520050 -41.563766 -1.472826 0.000000
286.691500 -40.812805 -1.417253 0.000000
286.578250 -39.590038 -1.362790 0.000000
287.008300 -40.007988 -1.347225 0.000000
294.257420 -40.998260 -1.389730 0.000000
293.804810 -40.183762 -1.372500 0.000000
293.972720 -40.630695 -1.389403 0.000000
295.247770 -41.404602 -1.326808 0.000000
295.728030 -41.601692 -1.297592 0.000000
293.974000 -39.523811 -1.307272 0.000000
280.001160 -45.985535 -1.362761 0.000000
280.181580 -45.063042 -1.309379 0.000000
280.823180 -43.920609 -1.216769 0.000000
280.900420 -43.107155 -1.176597 0.000000
281.344670 -41.395927 -1.075667 0.000000
281.555270 -40.577816 -1.028657 0.000000
281.383880 -39.940533 -1.015545 0.000000
270.836670 -50.222412 -1.026877 0.000000
271.244290 -48.992859 -0.966501 0.000000
271.209290 -48.024212 -0.936176 0.000000
272.180450 -46.583488 -0.843735 0.000000
272.701050 -45.409424 -0.781828 0.000000
273.103940 -44.324371 -0.728959 0.000000
274.018520 -43.054123 -0.646458 0.000000
275.557740 -41.583549 -0.528369 0.000000
275.847500 -40.663059 -0.487692 0.000000
276.129760 -39.767475 -0.448661 0.000000
293.227600 -40.579803 -0.261151 0.000000
293.750240 -40.794167 -0.239329 0.000000
294.261510 -41.003555 -0.218500 0.000000
294.761170 -41.208908 -0.198704 0.000000
295.250820 -41.409794 -0.179808 0.000000
295.730770 -41.606712 -0.161802 0.000000
292.695130 -40.363346 0.318672 0.000000
275.558650 -41.592316 0.419185 0.000000
275.847900 -40.672062 0.446603 0.000000
276.129330 -39.776810 0.472998 0.000000
293.229830 -40.582745 0.334402 0.000000
293.752290 -40.797012 0.349419 0.000000
294.263060 -41.006538 0.363744 0.000000
294.762880 -41.211555 0.377413 0.000000
295.252380 -41.412361 0.390451 0.000000
295.732150 -41.609200 0.402887 0.000000
292.697570 -40.366386 0.919846 0.000000
293.232060 -40.585682 0.928452 0.000000
293.754330 -40.799858 0.936685 0.000000
294.264890 -41.009289 0.944556 0.000000
294.764560 -41.214214 0.952084 0.000000
295.253690 -41.415077 0.959275 0.000000
295.732060 -41.612850 0.966101 0.000000
275.559540 -41.601089 1.365420 0.000000
275.848720 -40.680908 1.379629 0.000000
276.130100 -39.785709 1.393453 0.000000
292.699980 -40.369427 1.520059 0.000000
293.234280 -40.588619 1.521558 0.000000
293.756350 -40.802692 1.523023 0.000000
294.266600 -41.012146 1.524452 0.000000
294.764710 -41.218002 1.525829 0.000000
295.252590 -41.419670 1.527177 0.000000
295.730900 -41.617378 1.528499 0.000000
292.702390 -40.372467 2.119901 0.000000
293.236360 -40.591633 2.114301 0.000000
293.756810 -40.806625 2.109020 0.000000
294.265660 -41.016899 2.104033 0.000000
294.763700 -41.222687 2.099328 0.000000
295.251530 -41.424267 2.094891 0.000000
295.729740 -41.621899 2.090713 0.000000
275.560460 -41.609840 2.311260 0.000000
275.849550 -40.689728 2.312272 0.000000
276.130860 -39.794605 2.313535 0.000000
294.181950 -40.514286 2.679957 0.000000
293.164920 -39.524162 2.697777 0.000000
293.702700 -39.729858 2.684467 0.000000
294.700740 -40.706024 2.668072 0.000000
295.187900 -40.908096 2.657526 0.000000
295.693180 -41.084190 2.646492 0.000000
294.330050 -39.861076 2.668144 0.000000
275.561340 -41.618614 3.257596 0.000000
275.850370 -40.698570 3.245408 0.000000
276.131620 -39.803505 3.234110 0.000000
276.405490 -38.931976 3.223661 0.000000
293.046420 -39.057987 3.275946 0.000000
293.575590 -39.273003 3.255204 0.000000
294.090730 -39.483128 3.235545 0.000000
294.594760 -39.687340 3.216789 0.000000
295.086550 -39.887188 3.199006 0.000000
295.567230 -40.082596 3.182123 0.000000
280.855130 -46.522301 -1.529817 0.000000
281.406160 -45.399479 -1.438337 0.000000
281.566350 -44.520309 -1.385901 0.000000
282.096620 -43.477989 -1.301246 0.000000
282.116790 -42.715408 -1.265418 0.000000
282.156190 -41.957359 -1.229225 0.000000
289.980900 -41.351242 -1.342600 0.000000
290.135190 -40.052082 -1.253478 0.000000
290.299740 -40.562973 -1.268427 0.000000
290.344120 -39.358597 -1.196033 0.000000
292.717990 -40.366920 -1.047112 0.000000
293.279690 -40.598244 -1.013304 0.000000
271.029720 -52.094227 -1.308511 0.000000
272.875060 -50.043755 -1.141765 0.000000
273.351350 -48.808796 -1.072884 0.000000
273.591060 -47.730583 -1.022021 0.000000
273.685360 -46.748787 -0.982466 0.000000
275.255770 -45.113400 -0.846946 0.000000
275.667850 -44.062233 -0.790320 0.000000
275.989070 -43.078888 -0.741174 0.000000
276.579130 -42.014866 -0.676292 0.000000
276.327760 -41.300606 -0.666295 0.000000
276.842990 -40.315365 -0.608924 0.000000
276.668610 -39.590935 -0.595789 0.000000
292.721410 -40.371181 -0.429231 0.000000
293.283600 -40.601875 -0.403325 0.000000
293.832580 -40.826149 -0.378527 0.000000
294.366390 -41.046135 -0.355052 0.000000
294.892760 -41.257515 -0.332151 0.000000
295.398960 -41.469807 -0.311134 0.000000
292.725620 -40.374958 0.186440 0.000000
293.287540 -40.605499 0.204383 0.000000
275.552400 -41.602615 0.250014 0.000000
275.841830 -40.682068 0.280885 0.000000
276.123780 -39.785366 0.310672 0.000000
293.835210 -40.830261 0.221506 0.000000
294.369720 -41.049507 0.237860 0.000000
294.891660 -41.263626 0.253471 0.000000
295.401820 -41.472900 0.268381 0.000000
292.729770 -40.378738 0.800399 0.000000
293.291410 -40.609123 0.810409 0.000000
293.838840 -40.833740 0.819981 0.000000
294.373080 -41.052841 0.829147 0.000000
294.894740 -41.266853 0.837916 0.000000
295.404570 -41.476070 0.846310 0.000000
275.552370 -41.614601 1.213920 0.000000
275.841710 -40.694118 1.231963 0.000000
276.123600 -39.797462 1.249539 0.000000
292.733950 -40.382500 1.413230 0.000000
293.295290 -40.612743 1.415327 0.000000
293.842440 -40.837219 1.417369 0.000000
294.376370 -41.056206 1.419363 0.000000
294.896360 -41.271065 1.421279 0.000000
295.404630 -41.481148 1.423151 0.000000
292.738160 -40.386257 2.025531 0.000000
293.299190 -40.616348 2.019728 0.000000
293.844570 -40.841610 2.014260 0.000000
294.376800 -41.061485 2.009104 0.000000
294.896510 -41.276283 2.004246 0.000000
295.404630 -41.486252 1.999672 0.000000
275.552310 -41.626575 2.177368 0.000000
275.841580 -40.706150 2.182596 0.000000
276.123410 -39.809555 2.187972 0.000000
276.398220 -38.935425 2.193497 0.000000
293.845060 -40.847076 2.611336 0.000000
294.377110 -41.066822 2.599063 0.000000
294.896700 -41.281498 2.587435 0.000000
295.404660 -41.491341 2.576415 0.000000
292.766420 -40.375786 2.637139 0.000000
293.300020 -40.621841 2.624274 0.000000
275.552280 -41.638550 3.141264 0.000000
275.841490 -40.718193 3.133676 0.000000
276.123260 -39.821651 3.126854 0.000000
276.397980 -38.947575 3.120767 0.000000
293.109310 -39.082233 3.213013 0.000000
293.666960 -39.308960 3.190409 0.000000
294.209660 -39.529480 3.168935 0.000000
294.737950 -39.744263 3.148551 0.000000
295.252810 -39.953636 3.129197 0.000000
295.755280 -40.157841 3.110814 0.000000
282.675780 -43.613541 -1.398946 0.000000
282.684970 -42.857841 -1.362517 0.000000
291.142030 -40.750965 -1.333534 0.000000
292.852480 -40.427601 -1.162270 0.000000
293.442380 -40.669647 -1.125440 0.000000
294.016450 -40.905060 -1.090339 0.000000
291.664980 -39.329739 -1.203168 0.000000
274.737210 -47.403557 -1.087991 0.000000
275.967620 -45.924065 -0.969096 0.000000
295.128450 -41.352455 -1.023974 0.000000
276.263980 -44.915665 -0.916238 0.000000
276.582120 -43.923748 -0.863480 0.000000
277.304350 -42.798336 -0.785611 0.000000
277.247500 -42.003777 -0.760548 0.000000
277.599030 -41.073410 -0.710016 0.000000
277.526520 -40.308033 -0.687932 0.000000
277.795780 -39.441658 -0.645032 0.000000
292.266140 -40.176579 -0.559661 0.000000
292.859280 -40.432426 -0.531517 0.000000
293.448790 -40.674278 -0.503485 0.000000
294.022490 -40.909485 -0.476755 0.000000
294.580960 -41.138599 -0.451291 0.000000
295.125270 -41.361916 -0.427017 0.000000
292.272710 -40.181938 0.077420 0.000000
292.866090 -40.437225 0.096743 0.000000
293.455170 -40.678879 0.116022 0.000000
294.028470 -40.913910 0.134419 0.000000
294.586580 -41.142830 0.151958 0.000000
275.490170 -41.833279 0.140492 0.000000
275.781860 -40.905285 0.174578 0.000000
276.066310 -40.000488 0.207521 0.000000
276.343900 -39.117512 0.239380 0.000000
295.130550 -41.365990 0.168688 0.000000
295.661380 -41.583652 0.184662 0.000000
292.279660 -40.187050 0.712635 0.000000
292.872830 -40.442024 0.723118 0.000000
293.461550 -40.683468 0.733681 0.000000
294.034420 -40.918320 0.743778 0.000000
294.592190 -41.147049 0.753424 0.000000
295.135800 -41.370041 0.762642 0.000000
295.665860 -41.587830 0.771441 0.000000
275.488890 -41.849136 1.125530 0.000000
275.780550 -40.921146 1.146996 0.000000
276.064940 -40.016354 1.167927 0.000000
276.342470 -39.133385 1.188352 0.000000
292.286990 -40.191978 1.346548 0.000000
292.879610 -40.446800 1.348204 0.000000
293.468170 -40.687897 1.350083 0.000000
294.040370 -40.922710 1.351901 0.000000
294.597500 -41.151436 1.353670 0.000000
295.139100 -41.375313 1.355360 0.000000
295.667760 -41.593719 1.357011 0.000000
292.294770 -40.196640 1.979758 0.000000
292.886350 -40.451569 1.972612 0.000000
293.474430 -40.692516 1.965812 0.000000
294.044490 -40.928181 1.959387 0.000000
294.599850 -41.157623 1.953312 0.000000
295.141240 -41.381340 1.947569 0.000000
295.669650 -41.599590 1.942143 0.000000
275.487610 -41.864971 2.110125 0.000000
275.779240 -40.936996 2.118982 0.000000
276.063570 -40.032215 2.127911 0.000000
276.341060 -39.149246 2.136913 0.000000
294.602200 -41.163818 2.553058 0.000000
295.143340 -41.387383 2.539889 0.000000
295.671510 -41.605473 2.527389 0.000000
292.301760 -40.201714 2.612857 0.000000
292.891360 -40.457291 2.596977 0.000000
293.477330 -40.699039 2.581560 0.000000
294.047090 -40.934547 2.566938 0.000000
275.486330 -41.880821 3.095201 0.000000
275.777890 -40.952854 3.091450 0.000000
276.062190 -40.048080 3.088377 0.000000
276.339630 -39.165115 3.085956 0.000000
293.280700 -39.156319 3.190029 0.000000
293.867100 -39.394646 3.164802 0.000000
294.436370 -39.625965 3.140846 0.000000
294.989530 -39.850792 3.118097 0.000000
295.527770 -40.069447 3.096480 0.000000
293.001400 -40.487686 -1.280574 0.000000
293.621730 -40.742191 -1.239188 0.000000
292.696290 -40.066486 -1.283892 0.000000
294.224000 -40.989212 -1.199762 0.000000
294.809200 -41.229294 -1.162207 0.000000
295.378630 -41.462784 -1.126393 0.000000
292.588290 -39.552246 -1.264359 0.000000
292.682220 -38.955025 -1.222099 0.000000
276.477360 -46.887043 -1.117374 0.000000
276.765290 -45.869049 -1.063158 0.000000
277.075260 -44.867271 -1.008997 0.000000
277.862120 -43.703506 -0.923832 0.000000
278.115050 -42.781689 -0.876884 0.000000
278.526920 -41.824566 -0.820638 0.000000
278.450440 -41.056076 -0.798182 0.000000
278.601720 -39.447666 -0.735874 0.000000
293.009000 -40.492828 -0.636133 0.000000
293.628810 -40.747108 -0.604407 0.000000
294.230620 -40.993904 -0.574168 0.000000
295.384430 -41.467075 -0.517852 0.000000
292.377870 -40.236061 -0.017532 0.000000
293.016540 -40.497959 0.005675 0.000000
293.635860 -40.752007 0.027794 0.000000
294.237210 -40.998585 0.048894 0.000000
294.821560 -41.238251 0.069022 0.000000
295.390170 -41.471352 0.088245 0.000000
275.700230 -41.148838 0.045275 0.000000
275.987730 -40.234085 0.079625 0.000000
276.268550 -39.340549 0.112880 0.000000
292.385930 -40.241402 0.632338 0.000000
293.024050 -40.503067 0.645480 0.000000
293.642910 -40.756878 0.658032 0.000000
294.243800 -41.003246 0.670033 0.000000
294.827700 -41.242706 0.681506 0.000000
295.395900 -41.475613 0.692491 0.000000
275.698880 -41.165459 1.040581 0.000000
275.986330 -40.250744 1.063091 0.000000
276.267060 -39.357262 1.085078 0.000000
292.393920 -40.246746 1.280774 0.000000
293.031560 -40.508156 1.283887 0.000000
293.649930 -40.761749 1.286905 0.000000
294.250370 -41.007896 1.289836 0.000000
294.833130 -41.247543 1.292666 0.000000
295.399140 -41.481323 1.295394 0.000000
292.401950 -40.252068 1.928414 0.000000
293.039060 -40.513252 1.921521 0.000000
293.656590 -40.766800 1.915028 0.000000
294.254610 -41.013794 1.908912 0.000000
294.835850 -41.253922 1.903154 0.000000
295.401580 -41.487514 1.897734 0.000000
275.697540 -41.182053 2.035354 0.000000
275.984920 -40.267395 2.046037 0.000000
276.265620 -39.373959 2.056768 0.000000
292.409880 -40.257435 2.575867 0.000000
293.044430 -40.519394 2.559036 0.000000
293.659910 -40.773582 2.543094 0.000000
294.257600 -41.020378 2.527989 0.000000
294.838560 -41.260296 2.513680 0.000000
295.403990 -41.493702 2.500119 0.000000
275.696200 -41.198669 3.030528 0.000000
275.983520 -40.284054 3.029386 0.000000
276.264160 -39.390663 3.028863 0.000000
292.810420 -38.964233 3.196873 0.000000
293.449680 -39.224049 3.168699 0.000000
294.068390 -39.475357 3.141983 0.000000
294.667600 -39.718819 3.116657 0.000000
295.248690 -39.954964 3.092636 0.000000
272.083560 -39.687206 4.210323 0.000000
271.709140 -40.671623 4.225586 0.000000
292.690250 -40.252811 -1.316290 0.000000
293.246030 -40.581890 -1.283555 0.000000
293.899870 -40.850140 -1.239253 0.000000
294.533140 -41.110008 -1.197118 0.000000
295.147250 -41.362072 -1.157026 0.000000
295.746400 -41.605137 -1.118491 0.000000
292.930540 -39.581585 -1.257884 0.000000
275.920010 -46.618172 -1.089282 0.000000
276.869570 -45.341434 -0.993684 0.000000
277.949980 -43.226059 -0.862779 0.000000
278.071960 -42.355412 -0.826744 0.000000
278.352690 -41.449318 -0.781695 0.000000
278.239840 -40.678806 -0.762660 0.000000
278.516270 -39.804966 -0.720065 0.000000
278.509190 -39.021969 -0.696129 0.000000
293.254670 -40.587524 -0.624977 0.000000
293.907990 -40.855511 -0.591256 0.000000
294.540740 -41.115154 -0.559178 0.000000
295.154390 -41.366997 -0.528644 0.000000
295.750580 -41.611229 -0.499520 0.000000
292.588810 -40.316345 0.006580 0.000000
293.263240 -40.593124 0.030939 0.000000
293.916020 -40.860886 0.054129 0.000000
294.548310 -41.120293 0.076205 0.000000
295.161500 -41.371906 0.097232 0.000000
275.587520 -41.476746 0.093455 0.000000
275.879360 -40.548592 0.126881 0.000000
276.164610 -39.641186 0.159254 0.000000
292.597930 -40.322193 0.671505 0.000000
293.271820 -40.598709 0.684831 0.000000
293.924070 -40.866219 0.697538 0.000000
294.555880 -41.125393 0.709653 0.000000
295.168610 -41.376797 0.721210 0.000000
275.586120 -41.493855 1.115008 0.000000
275.878110 -40.565666 1.136734 0.000000
276.163150 -39.658329 1.157968 0.000000
292.607030 -40.328026 1.334989 0.000000
293.280360 -40.604290 1.337318 0.000000
293.932100 -40.871552 1.339576 0.000000
294.563290 -41.130562 1.341759 0.000000
295.173460 -41.382835 1.343832 0.000000
292.616120 -40.333858 1.997680 0.000000
293.288880 -40.609856 1.989040 0.000000
293.938290 -40.877747 1.980878 0.000000
294.567020 -41.137558 1.973165 0.000000
295.176850 -41.389629 1.965871 0.000000
275.584780 -41.510948 2.136096 0.000000
275.876710 -40.582779 2.146125 0.000000
276.161680 -39.675453 2.156236 0.000000
292.719360 -40.298767 2.657622 0.000000
293.293700 -40.617111 2.640711 0.000000
293.942290 -40.884975 2.622192 0.000000
294.572540 -41.143654 2.604583 0.000000
295.180240 -41.396427 2.587981 0.000000
276.160190 -39.692604 3.154998 0.000000
293.034700 -39.050274 3.296776 0.000000
293.713680 -39.325500 3.264691 0.000000
294.367370 -39.591866 3.234376 0.000000
294.999850 -39.849018 3.205601 0.000000
295.611970 -40.097755 3.178298 0.000000
275.583400 -41.528049 3.157676 0.000000
275.875090 -40.599953 3.156013 0.000000
283.457730 -43.240685 -1.428372 0.000000
283.463100 -42.481853 -1.398549 0.000000
292.707670 -40.370655 -1.334853 0.000000
293.440000 -40.658501 -1.281670 0.000000
292.800720 -39.754311 -1.296824 0.000000
294.131680 -40.942322 -1.232828 0.000000
275.873470 -46.077229 -1.013655 0.000000
276.788790 -44.847614 -0.927803 0.000000
277.162930 -43.845177 -0.877694 0.000000
277.858180 -42.766541 -0.809168 0.000000
277.795620 -41.947315 -0.788588 0.000000
292.713810 -40.376598 -0.648155 0.000000
293.456510 -40.659740 -0.606611 0.000000
278.109130 -41.030529 -0.746036 0.000000
278.035250 -40.233120 -0.727888 0.000000
278.341610 -39.349506 -0.687837 0.000000
292.738560 -40.375210 0.037140 0.000000
293.454040 -40.668789 0.064168 0.000000
294.144780 -40.952164 0.089864 0.000000
294.812290 -41.226131 0.114294 0.000000
295.458310 -41.491184 0.137557 0.000000
275.499210 -41.764912 0.144979 0.000000
275.795170 -40.823570 0.175100 0.000000
276.084840 -39.902470 0.204263 0.000000
276.368470 -39.000439 0.232512 0.000000
292.746030 -40.380569 0.718930 0.000000
293.461000 -40.673908 0.733839 0.000000
294.151310 -40.957054 0.748035 0.000000
294.818360 -41.230812 0.761552 0.000000
295.464020 -41.495659 0.774446 0.000000
275.498840 -41.779068 1.192434 0.000000
275.794770 -40.837784 1.211001 0.000000
276.084350 -39.916744 1.229169 0.000000
276.367920 -39.014778 1.246960 0.000000
292.753480 -40.385921 1.399369 0.000000
294.157810 -40.961941 1.404926 0.000000
294.822940 -41.236176 1.407534 0.000000
295.465910 -41.501938 1.410045 0.000000
293.467990 -40.679024 1.402196 0.000000
292.760930 -40.391273 2.079125 0.000000
293.474150 -40.684444 2.069898 0.000000
294.161010 -40.968246 2.061200 0.000000
294.824920 -41.242702 2.052988 0.000000
295.467650 -41.508278 2.045232 0.000000
275.498470 -41.793217 2.239409 0.000000
275.794310 -40.851997 2.246431 0.000000
276.083860 -39.931015 2.253614 0.000000
276.367370 -39.029106 2.260958 0.000000
293.175140 -39.100197 2.747973 0.000000
294.638920 -40.210224 2.703094 0.000000
293.898410 -39.394341 2.725592 0.000000
294.497310 -39.715919 2.707334 0.000000
295.502690 -40.392895 2.677723 0.000000
293.231660 -39.088528 3.407458 0.000000
294.016140 -39.358353 3.369156 0.000000
294.611300 -39.678799 3.341374 0.000000
295.268250 -39.957176 3.310747 0.000000
275.498110 -41.807369 3.286887 0.000000
275.793880 -40.866215 3.282367 0.000000
276.083370 -39.945297 3.278564 0.000000
276.366820 -39.043438 3.275460 0.000000
283.895420 -41.264858 -1.339942 0.000000
293.541380 -40.702175 -1.309451 0.000000
293.021240 -40.302944 -1.340847 0.000000
294.276520 -41.003948 -1.254738 0.000000
294.994720 -41.291027 -1.201757 0.000000
293.197970 -39.658295 -1.297833 0.000000
293.384740 -39.024109 -1.255140 0.000000
276.225160 -45.334110 -0.952118 0.000000
277.076750 -44.163506 -0.877119 0.000000
277.401980 -43.190720 -0.835399 0.000000
277.888340 -42.194675 -0.785261 0.000000
277.835110 -41.364159 -0.768236 0.000000
278.177520 -40.444649 -0.728784 0.000000
278.129060 -39.630989 -0.713134 0.000000
292.788640 -40.391228 -0.661220 0.000000
293.548860 -40.705334 -0.617231 0.000000
295.689760 -41.572243 -0.496310 0.000000
292.787870 -40.397682 0.041122 0.000000
293.550510 -40.710663 0.071955 0.000000
294.284910 -41.012039 0.101237 0.000000
294.993070 -41.302605 0.129070 0.000000
295.676760 -41.583073 0.155547 0.000000
275.725830 -41.041618 0.190367 0.000000
276.019710 -40.107395 0.216095 0.000000
276.307650 -39.191784 0.240988 0.000000
292.792820 -40.402122 0.742033 0.000000
293.555050 -40.714878 0.759524 0.000000
294.289060 -41.016068 0.776163 0.000000
294.996890 -41.306442 0.792007 0.000000
295.680760 -41.586533 0.807127 0.000000
275.726780 -41.052040 1.251654 0.000000
276.020420 -40.117996 1.266542 0.000000
276.308260 -39.202503 1.281136 0.000000
292.797760 -40.406548 1.441693 0.000000
293.559570 -40.719097 1.445876 0.000000
294.293210 -41.020096 1.449904 0.000000
294.998110 -41.311356 1.453749 0.000000
295.679990 -41.592026 1.457482 0.000000
292.802670 -40.410965 2.140785 0.000000
293.562470 -40.723923 2.131695 0.000000
294.292940 -41.025848 2.123155 0.000000
294.997530 -41.317001 2.115120 0.000000
