# .PCD v0.7 - Point Cloud Data file format
VERSION 0.7
FIELDS x y z intensity
SIZE 4 4 4 4
TYPE F F F F
COUNT 1 1 1 1
WIDTH 1181
HEIGHT 1
VIEWPOINT 0 0 0 1 0 0 0
POINTS 1181
DATA ascii
271.770230 135.704990 16.365332 0.000000
271.186710 133.426440 16.421272 0.000000
273.771760 135.919620 21.037605 0.000000
272.845610 135.473790 9.617885 0.000000
272.875120 135.304460 14.198086 0.000000
270.911830 135.948520 11.727847 0.000000
273.124270 136.009410 14.085017 0.000000
271.320280 135.261380 16.318802 0.000000
271.777980 135.699400 16.322876 0.000000
271.197080 133.435580 16.362068 0.000000
273.730930 133.162000 18.892248 0.000000
273.819240 135.947400 21.113018 0.000000
273.967560 134.027010 18.406704 0.000000
271.960140 134.624650 15.798429 0.000000
271.867550 135.848140 15.706195 0.000000
270.976010 133.973330 15.695215 0.000000
272.819580 136.012040 13.247995 0.000000
273.365260 134.911220 9.442339 0.000000
272.827580 135.261290 14.367197 0.000000
270.862180 135.964360 11.838758 0.000000
270.999850 134.920210 16.600712 0.000000
272.780790 135.856090 19.224907 0.000000
272.017700 135.105900 9.419698 0.000000
271.561830 135.421570 12.006032 0.000000
272.302860 134.631940 14.636358 0.000000
272.530060 135.734770 9.594606 0.000000
271.970000 133.403470 9.527287 0.000000
272.932010 135.157900 14.861338 0.000000
272.074460 134.256090 14.842976 0.000000
271.214600 132.160770 14.809761 0.000000
272.431210 133.599980 15.208961 0.000000
271.624270 136.006390 15.288397 0.000000
271.231600 135.786990 16.469576 0.000000
272.386720 136.009810 16.920906 0.000000
273.824070 135.942690 20.273409 0.000000
273.826630 136.046050 21.094879 0.000000
270.807010 133.503390 18.348223 0.000000
272.766390 134.981080 20.606009 0.000000
272.749020 135.062610 20.297619 0.000000
272.579220 135.370740 20.077801 0.000000
272.570800 135.505230 19.861654 0.000000
272.554720 135.663410 19.705303 0.000000
272.578980 135.807890 19.587477 0.000000
271.417690 135.629330 17.180307 0.000000
272.367490 135.419330 21.009125 0.000000
271.657620 134.608230 8.355658 0.000000
273.959320 133.951140 21.115458 0.000000
273.714170 133.096950 19.142252 0.000000
273.222020 135.974460 20.763132 0.000000
273.748570 136.064120 20.834896 0.000000
281.539090 135.108440 7.178323 0.000000
274.622560 134.739270 20.757795 0.000000
272.550350 135.354610 20.190668 0.000000
272.523220 135.605320 20.054041 0.000000
271.840090 134.923900 8.732070 0.000000
272.549770 135.807510 19.941036 0.000000
272.205870 135.316480 8.832192 0.000000
274.242950 134.653060 18.450119 0.000000
274.409940 134.894000 18.326580 0.000000
271.711030 134.961560 8.778852 0.000000
272.200100 135.332930 8.857575 0.000000
272.282320 135.556990 9.048134 0.000000
272.535430 133.493770 9.006711 0.000000
272.019040 135.117580 8.878872 0.000000
272.123780 133.173400 8.817045 0.000000
272.240880 135.374130 8.833850 0.000000
271.856380 134.967000 8.841759 0.000000
271.852080 135.951860 16.762669 0.000000
271.879460 135.019740 8.832128 0.000000
274.338620 135.756590 8.921367 0.000000
272.154080 135.268420 8.845698 0.000000
270.863560 134.450780 17.654823 0.000000
270.826660 135.909070 10.034826 0.000000
273.878110 136.036210 16.685081 0.000000
271.736480 134.970060 8.834442 0.000000
274.001740 133.153170 14.044283 0.000000
272.064450 134.757400 16.289246 0.000000
271.873900 135.834010 16.225819 0.000000
272.084840 135.177900 8.867873 0.000000
274.221590 134.433110 16.539993 0.000000
272.139680 136.056790 16.154655 0.000000
272.277370 135.442210 8.894128 0.000000
271.939760 134.516370 11.254227 0.000000
271.554050 134.562640 15.999375 0.000000
272.057100 135.162520 8.907469 0.000000
271.772740 134.259220 11.186350 0.000000
271.241210 135.303250 16.859924 0.000000
274.465610 133.051650 9.003612 0.000000
277.378020 134.096940 9.106028 0.000000
271.644590 134.012620 11.122200 0.000000
272.234560 135.402390 8.955622 0.000000
270.986630 133.106170 11.031917 0.000000
272.427430 134.317830 16.619312 0.000000
272.258640 133.343830 8.960956 0.000000
272.083740 135.182860 8.959907 0.000000
271.512850 133.602400 11.002815 0.000000
271.709900 133.507920 12.061905 0.000000
273.646550 135.485760 12.210278 0.000000
272.025390 135.967150 16.222841 0.000000
275.738160 134.534180 9.081996 0.000000
271.827850 135.071590 8.947646 0.000000
270.847290 132.871050 10.888788 0.000000
273.493350 132.634580 11.090835 0.000000
271.994450 134.104610 11.967030 0.000000
272.288420 135.510350 8.951443 0.000000
271.599880 134.952770 8.925236 0.000000
272.623540 132.770770 12.945197 0.000000
273.038360 135.966690 14.893198 0.000000
277.174410 135.406190 15.576855 0.000000
272.003910 134.671770 8.107530 0.000000
277.281220 134.276690 9.233890 0.000000
272.213560 135.371150 9.049000 0.000000
273.376400 135.627560 14.861412 0.000000
276.737210 135.244720 15.421130 0.000000
272.013060 134.680150 8.090888 0.000000
277.337040 134.108890 9.173662 0.000000
272.206630 135.356090 8.994239 0.000000
272.666600 135.826600 15.377794 0.000000
281.533810 135.918370 7.136315 0.000000
271.585110 134.934270 8.877982 0.000000
272.239500 135.387590 8.901816 0.000000
272.532530 133.717130 9.781400 0.000000
277.595730 135.546620 11.010567 0.000000
271.685330 132.522020 12.372770 0.000000
272.992220 135.721890 14.182384 0.000000
270.812470 135.897800 14.680990 0.000000
273.040370 135.685820 15.085340 0.000000
281.537260 135.678990 7.049624 0.000000
271.763670 134.960600 8.762748 0.000000
272.259430 133.971100 9.607346 0.000000
273.542540 135.593900 9.663714 0.000000
270.805940 132.460540 11.192881 0.000000
272.108670 131.705110 12.189674 0.000000
271.699400 132.705980 12.107912 0.000000
271.049260 135.927950 12.728676 0.000000
273.054440 135.716980 14.706021 0.000000
272.022370 133.546950 9.549283 0.000000
273.422360 135.718870 9.608839 0.000000
273.682890 133.387920 10.467693 0.000000
271.746580 133.645140 11.929381 0.000000
272.851230 135.198300 13.622475 0.000000
273.064330 135.790500 14.444857 0.000000
272.081150 135.132080 8.755407 0.000000
271.925930 134.515120 9.503653 0.000000
272.684200 134.802840 9.540015 0.000000
272.419680 135.620120 9.523537 0.000000
273.200650 135.917010 9.561458 0.000000
271.973210 132.303630 11.874031 0.000000
273.098180 135.871640 14.211219 0.000000
272.337070 133.146800 8.742517 0.000000
271.629330 134.920390 8.732390 0.000000
272.169860 135.278590 8.751071 0.000000
272.144500 133.936310 9.478586 0.000000
270.883790 132.594510 11.622066 0.000000
273.466400 135.860060 11.774967 0.000000
273.114500 135.987460 13.979337 0.000000
272.332490 133.716630 14.001768 0.000000
281.518370 135.094190 7.281265 0.000000
271.937440 135.008680 8.741084 0.000000
271.721160 134.475630 9.424207 0.000000
272.601930 134.600460 9.467120 0.000000
272.194400 135.481250 9.443467 0.000000
273.467900 135.419140 9.506996 0.000000
271.991550 134.659850 8.072353 0.000000
272.293000 133.140270 8.738908 0.000000
272.106140 135.198300 8.747517 0.000000
274.526030 135.698200 8.825193 0.000000
271.579590 134.903990 8.729322 0.000000
272.032710 133.956440 9.414263 0.000000
272.158110 134.518570 9.417652 0.000000
276.086430 134.835740 9.610861 0.000000
272.367610 135.643770 9.423009 0.000000
273.151430 135.810850 9.461230 0.000000
271.941470 131.920840 12.246953 0.000000
271.671140 133.471440 12.126561 0.000000
273.141630 134.457860 12.960945 0.000000
274.259520 135.725970 13.766632 0.000000
271.936890 135.004970 8.737997 0.000000
271.913790 133.753600 9.380625 0.000000
271.833340 134.440990 9.372932 0.000000
276.149810 134.945400 9.582542 0.000000
271.714480 135.134750 9.363537 0.000000
272.203310 135.421840 9.386025 0.000000
272.954220 135.559130 9.422253 0.000000
271.256200 133.534380 11.289588 0.000000
271.498020 132.678700 12.020411 0.000000
271.681270 133.199520 12.011375 0.000000
271.148560 136.011750 12.414127 0.000000
281.519170 135.658650 7.510880 0.000000
272.003970 134.737270 8.156450 0.000000
272.383510 133.188050 8.773877 0.000000
271.679690 134.949800 8.763531 0.000000
272.128230 135.231230 8.779756 0.000000
272.004970 134.087100 9.392876 0.000000
272.184510 134.572340 9.398886 0.000000
272.768220 134.774550 9.426806 0.000000
276.708280 134.791810 9.625010 0.000000
272.362730 135.645750 9.401891 0.000000
273.291140 135.634800 9.448564 0.000000
273.505620 132.266010 10.832785 0.000000
271.658080 133.664950 11.261009 0.000000
271.787540 134.191010 11.250120 0.000000
271.574580 133.072050 11.919728 0.000000
271.966250 132.092770 12.026525 0.000000
275.237640 134.925800 13.640675 0.000000
281.521910 134.340450 6.892879 0.000000
271.927980 134.690370 8.272259 0.000000
272.177190 133.244090 8.861394 0.000000
271.557310 134.954250 8.850316 0.000000
272.060090 135.159060 8.869680 0.000000
274.770390 135.654050 8.970089 0.000000
272.893770 132.631650 9.517839 0.000000
272.090520 133.918090 9.466108 0.000000
272.152830 134.477870 9.465551 0.000000
272.314360 135.534150 9.467367 0.000000
272.937410 135.674420 9.500034 0.000000
274.943600 135.525380 9.609395 0.000000
271.072200 133.453490 11.203216 0.000000
271.746060 134.129200 11.239828 0.000000
270.777860 132.435880 11.225724 0.000000
271.660220 133.582700 11.257446 0.000000
272.061220 131.917070 12.022160 0.000000
271.530610 133.037890 11.885710 0.000000
271.652440 135.913880 12.305904 0.000000
270.929810 135.863830 12.778643 0.000000
281.531190 135.886250 7.691212 0.000000
272.000850 134.791550 8.252075 0.000000
272.388890 133.232380 8.816609 0.000000
272.131010 135.242720 8.820592 0.000000
274.643950 135.679380 8.906735 0.000000
271.741460 134.986110 8.806059 0.000000
271.753170 134.374400 9.366239 0.000000
272.190220 134.597950 9.386332 0.000000
272.679990 134.788300 9.409494 0.000000
275.840330 134.840740 9.569657 0.000000
272.338500 135.627550 9.386240 0.000000
270.866550 132.655150 11.069620 0.000000
271.530640 133.272280 11.684109 0.000000
271.687160 132.463730 12.358950 0.000000
271.874180 135.896480 12.111001 0.000000
272.023710 133.881700 9.412957 0.000000
275.893220 134.820180 9.610599 0.000000
273.240170 135.706560 9.462044 0.000000
272.459350 135.789370 9.419847 0.000000
273.608310 132.977100 10.680672 0.000000
271.493160 133.721650 11.020458 0.000000
272.512080 135.688630 11.020444 0.000000
273.689330 135.851640 11.136135 0.000000
271.715150 132.850890 11.657078 0.000000
271.852420 132.028140 12.317138 0.000000
271.969970 134.767000 8.316214 0.000000
272.172610 135.130160 8.327516 0.000000
272.278930 133.222840 8.819599 0.000000
271.739140 134.981700 8.811846 0.000000
272.096280 135.185880 8.824894 0.000000
271.749240 134.375920 9.313936 0.000000
272.771150 134.503780 9.362311 0.000000
271.622410 135.080860 9.300813 0.000000
273.273250 135.168460 9.380827 0.000000
275.408510 135.014110 9.488350 0.000000
272.268130 135.552570 9.327860 0.000000
272.579990 135.785480 9.838663 0.000000
272.295410 136.010850 10.798588 0.000000
271.678680 133.768520 11.386339 0.000000
273.454320 136.030270 11.426506 0.000000
271.520750 135.619770 12.219697 0.000000
271.765200 135.920730 12.224504 0.000000
274.410310 135.172900 12.689529 0.000000
276.649480 133.872630 13.150795 0.000000
281.525970 136.040660 7.283705 0.000000
272.054530 134.942340 8.345392 0.000000
272.248540 135.290420 8.356453 0.000000
272.463620 133.237690 8.822939 0.000000
271.551730 134.927170 8.802410 0.000000
271.954770 135.034820 8.816183 0.000000
272.195740 135.328580 8.825681 0.000000
272.835630 134.611600 9.333380 0.000000
271.809330 135.179090 9.278710 0.000000
273.254430 135.304060 9.346237 0.000000
272.344180 135.698430 9.298614 0.000000
272.470860 135.546260 9.777422 0.000000
272.602170 135.949110 9.775276 0.000000
272.488190 135.471020 11.207972 0.000000
270.861390 132.562030 11.271399 0.000000
271.107060 133.553990 11.213523 0.000000
273.664120 135.371800 11.344325 0.000000
275.393800 135.925110 12.548313 0.000000
272.043790 134.984050 8.428337 0.000000
272.236330 135.313250 8.438115 0.000000
272.345180 133.330440 8.881736 0.000000
271.592290 134.971590 8.859950 0.000000
272.198460 135.341710 8.880174 0.000000
272.065890 134.320070 9.332692 0.000000
272.779600 134.601930 9.360983 0.000000
271.846470 135.199360 9.308811 0.000000
273.272950 135.162980 9.375369 0.000000
272.357570 135.684970 9.324899 0.000000
276.837250 134.248700 10.087226 0.000000
272.469390 135.533170 9.776327 0.000000
272.599730 135.924180 9.771849 0.000000
270.901790 132.624880 11.219617 0.000000
272.437530 135.517240 11.115284 0.000000
273.648190 135.773960 11.221758 0.000000
273.044070 135.902570 11.147198 0.000000
281.446900 135.380750 7.388456 0.000000
272.099850 135.033510 8.355732 0.000000
272.450160 133.191060 8.776528 0.000000
271.925420 133.347700 8.761632 0.000000
271.729340 134.961690 8.765935 0.000000
271.629850 135.091710 9.179083 0.000000
271.949070 135.212510 9.191195 0.000000
273.025570 134.869900 9.241302 0.000000
272.197300 135.438740 9.199179 0.000000
273.124270 135.317120 9.240593 0.000000
272.453740 135.631470 9.624549 0.000000
272.840300 135.671840 9.645208 0.000000
272.597900 135.972520 10.036370 0.000000
272.108670 135.482350 10.861651 0.000000
272.222050 135.889540 10.838676 0.000000
272.502440 136.060390 10.851641 0.000000
272.956600 136.011150 10.899872 0.000000
270.949830 132.709290 11.461173 0.000000
270.938810 136.023540 11.504152 0.000000
272.238070 134.654370 11.821808 0.000000
281.532560 134.348450 6.848507 0.000000
281.522860 135.467710 7.451359 0.000000
271.954650 134.761230 8.341347 0.000000
271.512050 134.876980 8.733356 0.000000
271.951810 135.067490 8.747950 0.000000
272.072850 133.092860 8.736296 0.000000
271.724790 135.123250 9.136721 0.000000
272.232360 135.504000 9.153209 0.000000
271.962160 134.012050 9.158978 0.000000
272.686160 134.098690 9.187325 0.000000
272.274690 135.411580 9.552208 0.000000
273.072910 135.367750 9.189547 0.000000
272.467190 135.699630 9.553900 0.000000
272.887630 135.629710 9.578413 0.000000
272.010500 134.586870 9.563273 0.000000
272.598110 135.469270 9.967419 0.000000
272.307530 135.265380 11.168742 0.000000
273.638670 135.566730 11.692425 0.000000
271.422000 134.814040 8.693902 0.000000
272.053830 134.928650 8.330034 0.000000
272.234770 135.255360 8.343498 0.000000
271.706540 134.922990 8.703571 0.000000
272.947200 135.159070 9.131721 0.000000
272.182430 135.321150 8.910493 0.000000
272.315520 135.709290 9.101227 0.000000
272.224180 133.741790 9.116386 0.000000
272.553650 133.809490 9.128658 0.000000
271.859470 134.523220 9.485296 0.000000
272.153930 135.338700 9.475677 0.000000
272.359680 135.597690 9.478435 0.000000
275.914670 135.295070 9.254563 0.000000
272.432500 135.429700 9.866103 0.000000
270.875760 135.972750 10.103873 0.000000
271.928380 134.996140 11.014404 0.000000
272.123600 135.291790 10.999353 0.000000
273.466830 135.960600 11.441540 0.000000
272.014280 134.822650 8.299937 0.000000
272.157440 135.238140 8.680342 0.000000
271.992980 133.909550 9.047473 0.000000
271.670010 134.873120 8.660874 0.000000
271.914370 135.041020 8.852298 0.000000
272.853670 135.056990 9.071802 0.000000
272.132350 135.269760 9.042460 0.000000
272.301420 135.621840 9.046355 0.000000
275.064210 135.393300 9.158240 0.000000
275.451320 135.352420 9.174517 0.000000
275.805180 135.379820 9.189137 0.000000
274.550990 135.701400 8.758768 0.000000
271.790890 134.452070 9.412698 0.000000
277.385160 134.182250 9.262264 0.000000
271.840300 135.190400 9.394109 0.000000
272.900240 134.916980 9.450911 0.000000
272.107700 135.300430 9.403266 0.000000
272.310300 135.568920 9.405253 0.000000
273.054600 136.001010 9.429178 0.000000
272.101900 135.282390 9.766473 0.000000
272.367070 135.398040 9.775392 0.000000
277.016660 135.847050 9.641826 0.000000
270.821040 135.934910 10.008879 0.000000
273.010250 135.984570 10.861900 0.000000
273.822910 134.937270 11.435625 0.000000
271.673710 134.851440 8.615462 0.000000
271.999730 134.783520 8.264840 0.000000
271.943510 134.943940 8.625178 0.000000
272.192750 135.147260 8.282949 0.000000
271.716520 133.426910 8.594482 0.000000
271.907070 133.880460 8.985412 0.000000
271.890320 135.094060 8.978173 0.000000
272.156310 135.229800 8.636173 0.000000
272.134280 135.263120 8.986186 0.000000
275.514250 135.377430 9.116675 0.000000
272.313450 135.630390 8.990872 0.000000
274.735260 135.624970 9.084309 0.000000
271.761020 134.407620 9.343527 0.000000
272.424070 134.220150 9.376422 0.000000
271.851380 135.192520 9.326427 0.000000
272.866700 134.786700 9.380940 0.000000
272.308690 135.606380 9.335141 0.000000
272.227540 135.355960 9.687814 0.000000
272.819550 135.774980 9.698320 0.000000
273.752380 133.948720 10.614040 0.000000
273.579860 133.455290 11.048213 0.000000
272.976780 136.008130 11.073410 0.000000
273.503910 132.661670 11.129204 0.000000
271.229250 133.800110 11.236971 0.000000
281.533200 133.744580 6.603181 0.000000
271.658810 134.832860 8.601168 0.000000
271.971340 134.736360 8.257676 0.000000
272.148740 135.223370 8.623264 0.000000
271.784300 133.983900 8.958019 0.000000
271.905400 135.000690 8.783780 0.000000
272.129670 135.259200 8.964316 0.000000
275.302430 135.367940 9.084530 0.000000
275.755710 135.405840 9.102661 0.000000
274.277800 135.697070 9.042909 0.000000
274.585170 135.657780 9.055071 0.000000
274.937290 135.516890 9.069474 0.000000
272.229710 134.691360 9.324359 0.000000
271.725250 135.128540 9.292940 0.000000
277.343600 135.164370 9.551090 0.000000
272.313110 135.645550 9.302956 0.000000
277.200380 136.047590 9.524527 0.000000
271.843660 135.178470 9.638537 0.000000
272.100490 135.286040 9.644695 0.000000
272.533290 135.823820 9.639000 0.000000
272.832950 135.715450 9.658247 0.000000
270.898800 136.056730 9.877897 0.000000
272.566310 135.630580 9.986291 0.000000
273.494140 132.912890 11.023633 0.000000
273.586120 133.796980 10.931934 0.000000
272.500890 135.757630 10.983232 0.000000
272.714360 135.997700 10.965951 0.000000
272.996190 135.956910 10.991293 0.000000
290.963320 135.314210 6.982638 0.000000
271.966400 134.735780 8.250335 0.000000
271.669770 134.840760 8.589010 0.000000
271.923950 135.011280 8.769209 0.000000
272.159480 135.306260 8.946791 0.000000
272.175020 135.267010 8.612495 0.000000
275.475460 135.399960 9.067343 0.000000
274.395660 135.692150 9.025259 0.000000
274.839840 135.598630 9.042313 0.000000
271.628940 135.090550 9.267654 0.000000
271.888400 135.216860 9.273538 0.000000
272.711610 135.053770 9.649848 0.000000
275.317570 134.884980 9.778377 0.000000
272.378420 135.525510 9.613870 0.000000
272.384160 135.388260 9.954870 0.000000
270.781800 135.966580 9.853130 0.000000
272.595310 135.792140 9.936079 0.000000
291.711430 135.715900 7.023273 0.000000
274.316860 135.901750 6.738055 0.000000
271.964780 134.724790 8.253001 0.000000
272.228640 135.205540 8.279298 0.000000
271.681980 134.842760 8.590428 0.000000
271.948790 135.018920 8.768767 0.000000
272.211400 135.331380 8.778840 0.000000
275.132230 135.447020 9.035467 0.000000
275.417110 135.405030 9.045228 0.000000
274.276430 135.708740 9.006182 0.000000
274.547300 135.674330 9.015144 0.000000
274.823730 135.626650 9.024445 0.000000
272.504210 134.184630 9.313637 0.000000
271.666290 135.105410 9.264607 0.000000
276.056300 135.065170 9.416644 0.000000
276.195680 134.506010 9.797550 0.000000
276.525300 134.402650 9.817660 0.000000
276.831820 134.396910 9.832545 0.000000
272.187230 135.333440 9.604225 0.000000
274.886960 135.196580 9.707939 0.000000
272.440220 135.622700 9.598043 0.000000
271.914430 135.141540 9.940793 0.000000
272.178280 135.295490 9.937878 0.000000
272.440340 135.357600 9.941763 0.000000
272.166690 135.396420 10.261317 0.000000
272.145480 136.042770 10.519038 0.000000
271.885100 134.993650 10.973724 0.000000
272.146610 135.434600 10.921602 0.000000
272.391330 135.921130 10.863425 0.000000
291.940670 135.460570 7.001579 0.000000
292.190190 135.794460 7.014347 0.000000
273.895690 135.536500 6.696563 0.000000
273.627200 135.877520 6.742073 0.000000
274.908600 135.823640 6.753967 0.000000
277.227230 136.052110 6.786497 0.000000
271.969850 134.722460 8.254827 0.000000
272.118900 132.924960 8.570514 0.000000
271.699160 134.848860 8.593811 0.000000
271.983370 134.977870 8.602907 0.000000
275.154480 135.452640 9.016174 0.000000
274.346440 135.704560 8.993831 0.000000
274.739590 135.647170 9.004320 0.000000
275.728240 135.138410 9.370362 0.000000
272.280730 135.614410 9.267407 0.000000
271.931920 134.641590 9.630848 0.000000
276.092960 134.577480 9.747364 0.000000
276.685640 134.484340 9.773584 0.000000
276.921300 134.722350 9.771590 0.000000
272.256410 135.362960 9.602497 0.000000
276.440060 134.213150 10.138298 0.000000
271.969330 135.172700 9.940415 0.000000
272.246460 135.327700 9.934473 0.000000
272.008880 135.807680 10.540742 0.000000
271.942230 135.123990 10.956902 0.000000
271.214480 135.691970 10.874735 0.000000
272.258730 135.836210 10.864210 0.000000
271.543820 133.873690 11.122381 0.000000
293.217190 135.630130 7.022017 0.000000
271.554780 134.817140 8.611646 0.000000
271.852110 134.920100 8.619891 0.000000
275.599090 135.430630 9.036991 0.000000
274.429080 135.693540 9.008822 0.000000
274.813080 135.639880 9.017659 0.000000
275.075160 135.494200 9.024425 0.000000
274.056000 136.018600 8.998919 0.000000
271.891330 135.222990 9.294785 0.000000
275.342040 135.224960 9.362288 0.000000
275.611050 135.163020 9.370681 0.000000
276.203000 134.545200 9.749908 0.000000
276.761260 134.550540 9.766578 0.000000
275.631160 134.779330 9.722404 0.000000
275.917110 134.634020 9.737383 0.000000
274.286680 135.651460 9.647109 0.000000
276.224820 134.264040 10.118247 0.000000
276.656560 134.223180 10.135300 0.000000
271.855260 135.089840 9.974314 0.000000
271.571590 135.108830 10.653040 0.000000
271.158170 135.747010 10.914591 0.000000
294.974030 135.449100 7.019700 0.000000
271.709470 134.877440 8.621636 0.000000
275.559970 135.421630 9.038843 0.000000
274.415950 135.694700 9.013427 0.000000
274.920840 135.573180 9.024410 0.000000
274.066500 135.998920 9.004765 0.000000
275.024870 135.223830 9.357382 0.000000
275.287690 135.225630 9.362648 0.000000
275.549320 135.168960 9.369713 0.000000
276.080470 134.582840 9.740616 0.000000
275.537050 134.820530 9.716743 0.000000
276.890660 134.748920 9.752697 0.000000
276.572330 135.595400 9.702444 0.000000
274.051610 135.979780 9.633060 0.000000
275.799620 134.508040 10.083103 0.000000
276.359340 134.233410 10.116088 0.000000
273.834050 134.399890 11.115244 0.000000
271.990910 135.036610 11.039087 0.000000
289.489690 135.444020 6.955799 0.000000
273.361940 135.652620 6.696815 0.000000
272.299620 132.997040 8.618696 0.000000
272.128270 133.533980 9.002349 0.000000
275.136080 135.434720 9.046632 0.000000
275.393920 135.401410 9.052266 0.000000
275.657560 135.424330 9.057721 0.000000
274.275670 135.767700 9.027038 0.000000
274.894650 135.574570 9.040684 0.000000
274.972350 135.259980 9.374070 0.000000
275.360410 135.181270 9.383282 0.000000
275.619660 135.123720 9.389847 0.000000
276.149570 135.127990 9.400351 0.000000
276.103880 134.561460 9.758388 0.000000
276.646330 134.433000 9.776053 0.000000
272.531400 134.914290 9.698033 0.000000
275.449430 134.851300 9.731980 0.000000
275.836790 134.645450 9.749102 0.000000
275.814150 134.470370 10.103321 0.000000
275.557220 134.660680 10.085506 0.000000
273.413480 135.116730 11.062015 0.000000
273.226780 135.465850 11.017801 0.000000
271.443390 135.981260 10.654613 0.000000
274.194150 135.673390 6.710959 0.000000
292.078460 135.556030 7.003962 0.000000
292.435670 135.678600 6.997906 0.000000
271.762210 133.396960 8.622316 0.000000
271.956730 133.878390 9.018100 0.000000
275.439180 135.401570 9.070851 0.000000
275.711980 135.419510 9.076318 0.000000
274.258580 135.800990 8.881216 0.000000
274.690950 135.657930 9.053949 0.000000
274.930600 135.538350 9.059564 0.000000
272.442840 134.284770 9.395796 0.000000
274.616640 135.420590 9.387929 0.000000
274.982880 135.239150 9.398314 0.000000
275.504300 135.116440 9.409837 0.000000
276.185210 135.124920 9.421041 0.000000
275.063810 135.038090 9.744844 0.000000
275.438020 134.846920 9.758482 0.000000
272.728150 135.810230 11.063915 0.000000
273.249880 135.642680 10.725802 0.000000
273.086940 135.977420 11.030520 0.000000
273.174770 135.464570 11.094467 0.000000
293.976470 135.443280 7.000598 0.000000
294.319640 135.579990 6.995373 0.000000
294.357570 136.035960 7.035135 0.000000
274.175990 135.866440 8.727501 0.000000
274.680630 135.664030 8.736059 0.000000
275.433070 135.366650 9.088448 0.000000
274.260860 135.736250 9.069468 0.000000
274.660520 135.629700 9.075547 0.000000
274.900330 135.496630 9.079851 0.000000
274.561980 135.409330 9.421548 0.000000
274.800050 135.260970 9.426967 0.000000
275.319210 135.067670 9.435785 0.000000
274.325870 135.558350 9.416330 0.000000
272.680110 135.471570 11.238462 0.000000
287.877260 135.249890 6.917041 0.000000
288.523500 135.470380 6.931282 0.000000
295.719540 135.479060 7.009896 0.000000
272.222840 132.951920 8.598812 0.000000
275.208500 135.390210 9.056999 0.000000
274.040920 135.933240 9.042032 0.000000
274.008510 135.887480 9.401182 0.000000
276.798400 134.399190 9.806359 0.000000
291.872250 135.602220 6.971473 0.000000
292.129670 136.010350 7.014559 0.000000
292.470520 135.967390 6.994771 0.000000
282.604220 135.018010 7.229590 0.000000
273.498050 135.565030 6.697625 0.000000
274.129700 135.909500 8.710561 0.000000
271.606020 134.854800 8.642559 0.000000
274.653020 135.598720 9.098360 0.000000
274.205170 135.760310 9.093739 0.000000
276.381960 134.341890 9.891974 0.000000
272.811800 134.194460 11.676985 0.000000
274.268460 135.643970 6.713500 0.000000
291.734470 135.259110 6.953298 0.000000
292.218410 135.529680 6.973824 0.000000
292.536900 135.500370 6.958257 0.000000
292.686100 135.825530 6.995801 0.000000
292.901820 136.004940 7.010737 0.000000
282.611390 134.916930 7.186109 0.000000
271.836180 133.241740 8.641771 0.000000
277.449890 135.471330 9.140356 0.000000
275.785890 134.507720 9.932075 0.000000
274.972560 135.016400 9.926906 0.000000
292.226010 135.248280 6.957934 0.000000
292.837040 135.550830 6.981026 0.000000
293.196350 135.743010 6.994842 0.000000
293.487550 135.760380 6.986229 0.000000
293.654790 136.036670 7.016839 0.000000
275.955570 135.369720 9.127795 0.000000
276.786220 135.460750 9.514248 0.000000
273.958590 135.998700 9.120692 0.000000
275.555450 134.838470 9.536412 0.000000
277.130830 134.281280 9.936609 0.000000
275.731140 134.525940 9.954040 0.000000
273.913790 135.956990 11.616648 0.000000
293.192320 135.479570 6.985029 0.000000
293.580380 135.589040 6.988644 0.000000
293.924650 135.806640 7.007599 0.000000
294.290680 135.969830 7.016690 0.000000
282.586580 135.896070 7.195479 0.000000
277.443600 135.394580 9.126403 0.000000
278.919800 135.962600 9.132857 0.000000
276.622410 134.262620 9.961748 0.000000
275.876920 134.394590 9.973928 0.000000
294.022220 135.385210 6.984711 0.000000
294.493560 135.647280 7.008311 0.000000
272.049930 136.048400 6.741796 0.000000
294.225040 135.606920 7.010686 0.000000
294.723540 135.786930 7.020587 0.000000
295.059690 136.009080 7.039866 0.000000
282.590850 135.368480 7.429691 0.000000
276.026490 135.364620 9.129964 0.000000
277.435970 135.497880 9.133391 0.000000
276.982450 135.953830 9.532759 0.000000
272.488950 133.238010 12.194229 0.000000
282.580600 134.425280 6.915936 0.000000
282.578700 135.083340 6.993424 0.000000
272.904420 135.873500 6.735383 0.000000
282.574580 135.693220 7.064555 0.000000
295.022830 135.476910 7.002688 0.000000
295.258450 135.603710 7.014098 0.000000
295.490170 135.736800 7.025919 0.000000
295.718230 135.875140 7.037999 0.000000
275.622960 135.321030 9.145726 0.000000
279.603550 135.899640 9.530356 0.000000
274.891850 135.105320 9.604650 0.000000
276.751430 135.980440 9.566032 0.000000
271.717860 133.781880 11.801589 0.000000
273.656370 135.624440 6.707168 0.000000
287.107270 135.331920 6.898169 0.000000
287.504610 135.301510 6.913128 0.000000
278.151550 135.368930 8.737959 0.000000
275.633420 135.316450 9.159239 0.000000
279.579650 135.528140 9.560937 0.000000
279.594270 136.043110 9.553451 0.000000
275.199890 134.907710 9.631592 0.000000
272.598690 134.185940 11.800373 0.000000
271.691220 133.988510 11.890844 0.000000
288.001340 135.286910 6.905983 0.000000
272.170290 132.945250 8.618199 0.000000
277.368840 135.454710 9.189309 0.000000
276.540990 134.648440 9.659700 0.000000
274.795290 135.151660 9.686309 0.000000
276.307740 135.949580 9.650799 0.000000
273.780580 133.161610 10.803179 0.000000
274.702330 133.429790 11.794523 0.000000
274.507970 133.813520 11.783874 0.000000
271.699710 133.703930 12.032857 0.000000
274.454220 135.866680 12.151146 0.000000
282.578490 134.038180 6.729332 0.000000
288.365880 135.410280 6.912669 0.000000
288.775390 135.395870 6.932206 0.000000
271.901730 133.077580 8.650289 0.000000
274.496340 135.632160 8.733076 0.000000
275.304840 135.235050 9.236275 0.000000
275.765140 134.569730 9.733171 0.000000
274.985500 134.970440 9.745887 0.000000
274.649170 135.224370 9.751143 0.000000
274.397370 133.922240 11.914053 0.000000
275.181180 132.901090 12.460115 0.000000
274.796910 133.700960 12.432266 0.000000
289.368070 135.287800 6.913838 0.000000
282.569460 134.824800 7.181726 0.000000
289.782900 135.280560 6.934081 0.000000
288.907930 135.575710 6.930071 0.000000
282.572360 135.854390 7.670035 0.000000
272.113280 133.018550 8.682344 0.000000
271.751530 133.351640 8.684814 0.000000
278.155430 135.738340 8.803404 0.000000
274.853000 135.082640 9.809826 0.000000
274.468990 135.324770 9.817400 0.000000
279.440860 135.429780 9.706023 0.000000
271.290070 134.171830 11.716398 0.000000
274.191590 134.001750 12.059765 0.000000
275.872920 135.828060 12.300922 0.000000
274.704220 135.466580 12.457772 0.000000
291.398160 135.240510 6.933368 0.000000
282.571010 135.016750 7.083071 0.000000
291.812650 135.231960 6.953458 0.000000
290.951570 135.563960 6.955431 0.000000
271.917110 133.218280 8.680328 0.000000
277.207000 135.293150 9.300016 0.000000
277.165040 135.776550 9.303483 0.000000
274.751040 135.125290 9.879633 0.000000
274.367520 135.414080 9.887934 0.000000
274.523860 133.821150 11.654208 0.000000
274.376920 134.289200 11.644990 0.000000
274.380920 135.930660 12.145144 0.000000
275.779420 135.790360 12.560551 0.000000
276.282290 135.619960 12.514231 0.000000
275.104160 133.076220 12.829176 0.000000
274.640990 133.893360 12.820963 0.000000
293.386870 135.200360 6.953074 0.000000
282.564000 135.027220 6.960965 0.000000
287.054870 135.346310 6.904483 0.000000
282.561250 135.528270 7.000390 0.000000
292.601350 135.740920 6.986284 0.000000
292.940220 135.524320 6.975212 0.000000
292.358580 135.839250 6.985284 0.000000
282.562010 135.524580 7.463447 0.000000
271.886020 133.122830 8.676476 0.000000
275.145200 135.161800 9.346739 0.000000
274.537810 135.349040 9.352699 0.000000
277.169070 135.388000 9.334397 0.000000
277.057070 135.843460 9.338633 0.000000
273.820430 136.051820 9.364271 0.000000
276.339660 134.256200 9.914164 0.000000
274.576840 133.600420 11.833944 0.000000
274.344360 134.041840 11.834441 0.000000
271.728520 133.617000 12.063402 0.000000
275.607420 135.958070 12.239365 0.000000
275.183720 132.806660 12.448400 0.000000
275.056240 133.323390 12.431201 0.000000
274.763490 133.719700 12.437751 0.000000
275.242950 132.842790 13.069725 0.000000
275.102780 133.348890 13.050327 0.000000
274.851680 133.772130 13.050613 0.000000
274.355680 134.033770 13.091305 0.000000
275.072480 135.626310 12.907528 0.000000
276.047270 135.685150 12.787562 0.000000
288.061190 135.319120 6.907056 0.000000
293.611540 135.713910 6.989025 0.000000
293.962130 135.529240 6.983174 0.000000
293.282500 135.942700 7.000962 0.000000
279.173400 136.049030 8.809792 0.000000
274.576230 135.323520 9.364236 0.000000
277.033290 135.694460 9.349271 0.000000
279.743500 135.928010 9.332437 0.000000
273.488800 134.666440 11.314953 0.000000
274.378270 134.590940 11.896459 0.000000
271.694890 133.614200 12.153593 0.000000
274.354950 133.979630 11.921253 0.000000
275.189700 132.685880 12.554209 0.000000
275.098970 133.242080 12.532536 0.000000
274.499600 134.062420 12.549132 0.000000
274.723720 135.367750 12.463764 0.000000
275.247070 135.664180 13.009995 0.000000
276.127560 135.634120 12.905373 0.000000
275.317020 132.767910 13.184063 0.000000
274.470670 133.428530 13.238308 0.000000
275.193730 133.298580 13.162510 0.000000
282.548460 133.978680 6.681959 0.000000
289.938720 135.264740 6.923418 0.000000
289.777310 135.569820 6.942976 0.000000
294.813630 136.060410 7.018628 0.000000
295.059300 135.971420 7.022307 0.000000
282.553590 135.052610 7.281616 0.000000
282.553770 136.070470 7.342375 0.000000
274.113830 135.758940 8.745344 0.000000
271.785920 133.251660 8.668792 0.000000
275.106110 135.092740 9.391880 0.000000
274.033630 135.708440 9.406386 0.000000
275.832980 134.311690 10.022846 0.000000
279.099240 134.656650 10.518530 0.000000
274.690890 133.603450 11.402876 0.000000
274.543210 134.139100 11.399185 0.000000
272.613100 133.673480 11.534740 0.000000
272.709840 134.369710 11.513203 0.000000
274.782040 134.269030 12.048468 0.000000
274.012210 134.445620 12.106909 0.000000
275.301210 135.740480 12.600475 0.000000
274.727420 136.017900 12.649419 0.000000
276.718750 135.949910 12.444061 0.000000
275.060060 133.183500 12.742706 0.000000
274.759370 133.627010 12.751257 0.000000
274.428590 133.417480 13.484686 0.000000
275.255400 133.297810 13.393211 0.000000
275.002690 134.379470 13.359348 0.000000
274.456820 135.278000 13.377202 0.000000
275.408140 135.207980 13.263527 0.000000
282.581790 133.730330 6.599893 0.000000
290.882140 135.183090 6.921509 0.000000
290.719970 135.489640 6.941182 0.000000
290.568360 135.801330 6.961636 0.000000
274.091000 135.837520 8.749558 0.000000
273.906890 132.553860 8.681917 0.000000
271.747440 133.352260 8.674007 0.000000
274.015870 135.790770 9.429652 0.000000
276.966160 135.563280 9.402956 0.000000
279.713380 136.051130 9.385861 0.000000
278.857150 134.959690 10.580324 0.000000
274.680420 133.628770 11.480337 0.000000
272.408420 133.664060 11.627882 0.000000
276.297270 135.738250 11.969198 0.000000
274.693730 134.258960 12.153317 0.000000
275.133060 135.703140 12.737887 0.000000
276.146120 135.648090 12.633410 0.000000
275.085850 133.210360 12.852492 0.000000
274.811610 133.686220 12.858120 0.000000
275.035980 134.431240 13.487562 0.000000
274.809330 134.921400 13.489338 0.000000
274.461550 132.822710 13.649334 0.000000
274.435300 133.457550 13.615540 0.000000
292.072630 135.514130 6.949425 0.000000
282.568420 135.021970 7.158201 0.000000
271.929110 133.096050 8.705621 0.000000
270.935490 133.308930 8.698539 0.000000
273.912750 136.051210 8.780282 0.000000
274.743230 135.168440 9.484530 0.000000
279.641910 135.948580 9.449589 0.000000
271.731200 133.660050 11.855194 0.000000
274.549190 133.748950 11.664981 0.000000
274.361050 134.306730 11.664851 0.000000
272.719510 134.817380 11.765116 0.000000
274.622920 135.703720 12.331211 0.000000
275.044800 133.350420 12.370111 0.000000
274.744510 133.844850 12.378569 0.000000
275.275940 132.808170 13.102840 0.000000
275.119780 133.383730 13.091858 0.000000
274.735930 133.831420 13.111724 0.000000
274.931340 134.582050 13.058795 0.000000
275.172970 135.335360 13.002157 0.000000
274.544190 133.053040 13.914383 0.000000
274.318700 133.598570 13.911907 0.000000
274.388790 134.939970 13.833119 0.000000
275.194270 134.708470 13.743201 0.000000
293.107420 135.536060 6.955486 0.000000
292.860110 135.994380 6.977445 0.000000
282.566220 135.990100 7.739634 0.000000
271.756130 133.498290 8.757070 0.000000
278.910610 135.689640 8.869531 0.000000
273.982970 135.871810 9.571889 0.000000
276.774350 135.847290 9.547916 0.000000
279.596770 136.036030 9.525586 0.000000
274.336460 134.006410 11.860757 0.000000
276.291170 135.595110 12.408522 0.000000
275.118770 133.031590 12.599198 0.000000
274.820040 133.560680 12.605401 0.000000
274.406980 134.034470 12.624562 0.000000
275.486720 135.857250 12.471096 0.000000
274.413820 132.647400 13.459697 0.000000
274.456390 133.367370 13.421541 0.000000
275.392430 135.165760 13.243122 0.000000
271.001980 135.271270 13.717816 0.000000
274.517730 133.392360 14.194328 0.000000
274.141940 134.570370 14.178850 0.000000
275.174320 134.398860 14.056625 0.000000
288.555910 135.501310 6.915221 0.000000
294.653410 135.426070 6.964043 0.000000
294.428990 135.914280 6.988761 0.000000
279.066280 136.028610 8.876800 0.000000
276.618500 135.530720 9.582746 0.000000
279.480990 135.614040 9.562085 0.000000
274.855960 133.333370 11.186394 0.000000
274.366850 133.802920 12.007013 0.000000
274.101100 134.386520 12.010433 0.000000
276.515010 135.465650 12.572172 0.000000
275.670440 135.751070 12.637099 0.000000
274.797330 136.049840 12.705282 0.000000
274.554230 133.886220 12.795998 0.000000
275.219910 134.879070 13.488983 0.000000
274.318240 135.166640 13.574523 0.000000
274.528590 132.435670 13.672457 0.000000
274.269560 133.031220 13.671583 0.000000
274.288670 133.756470 13.636868 0.000000
271.010960 135.239060 13.933165 0.000000
274.351900 133.781340 14.445001 0.000000
273.803280 134.237470 14.490911 0.000000
290.304020 135.425660 6.930532 0.000000
272.196230 134.269100 8.764699 0.000000
274.081120 135.749980 8.805473 0.000000
278.922820 135.740050 8.868109 0.000000
273.962370 132.769740 8.771035 0.000000
279.494020 135.991930 9.595408 0.000000
272.868800 132.252850 9.633675 0.000000
274.054690 135.734800 9.633827 0.000000
274.613620 133.798430 11.293802 0.000000
276.649930 136.060560 11.940722 0.000000
272.350160 132.779950 12.306987 0.000000
274.412990 134.432740 12.128925 0.000000
275.071350 133.268810 12.948787 0.000000
274.683870 133.821140 12.963230 0.000000
274.842560 134.611720 12.923478 0.000000
275.029570 135.396680 12.882681 0.000000
274.491000 132.992250 13.861245 0.000000
274.283870 133.637420 13.855118 0.000000
274.745970 134.565860 13.766839 0.000000
274.214900 135.060300 13.804852 0.000000
274.560760 133.757100 14.668926 0.000000
273.000060 133.814580 14.865420 0.000000
272.148500 134.213960 14.955933 0.000000
282.543640 134.070590 6.788120 0.000000
291.745700 135.163130 6.924736 0.000000
291.648280 135.610810 6.944815 0.000000
274.043000 135.776780 8.848955 0.000000
272.552760 133.659000 11.544657 0.000000
272.711940 134.501740 11.526423 0.000000
274.211300 134.326490 12.330547 0.000000
276.663180 136.021240 12.124641 0.000000
275.324460 132.532760 13.167904 0.000000
274.976650 134.631350 13.131765 0.000000
275.306880 135.491030 13.077499 0.000000
271.175690 135.480270 13.455303 0.000000
272.889470 133.776050 14.258942 0.000000
277.448120 135.624590 14.495831 0.000000
276.444090 135.918180 14.614723 0.000000
282.547520 135.077870 6.830643 0.000000
292.261990 135.287090 6.910853 0.000000
282.546260 135.714080 7.589260 0.000000
276.065120 134.315090 9.857269 0.000000
278.756620 135.400620 10.635876 0.000000
274.533780 133.672650 11.691497 0.000000
271.016360 133.927170 11.879658 0.000000
274.628600 135.998580 12.556162 0.000000
275.087550 133.110670 12.573299 0.000000
274.672390 133.719180 12.591818 0.000000
274.403750 132.808170 13.554196 0.000000
271.236240 135.620910 13.787064 0.000000
274.481570 133.621410 14.443720 0.000000
273.251590 135.498900 14.525420 0.000000
274.887660 132.995530 15.342027 0.000000
275.036070 133.837650 15.283774 0.000000
294.190370 135.359630 6.940238 0.000000
282.551270 135.549910 7.523031 0.000000
275.970640 134.286530 9.905541 0.000000
278.556460 135.276060 10.724325 0.000000
274.464690 133.679080 11.813075 0.000000
274.390200 134.455660 11.811192 0.000000
275.054380 133.092450 12.726683 0.000000
274.666690 133.745040 12.744864 0.000000
273.953860 134.282670 12.790634 0.000000
274.460600 132.837740 13.733862 0.000000
274.310090 133.594240 13.729363 0.000000
274.597230 133.693250 14.651928 0.000000
272.866270 133.856510 14.849578 0.000000
277.000850 135.368620 15.213007 0.000000
274.701170 132.911130 15.627539 0.000000
274.862300 133.783800 15.569412 0.000000
295.675050 135.737300 7.006289 0.000000
273.707280 133.601460 9.085879 0.000000
274.431820 135.511510 9.120116 0.000000
278.104370 135.199400 10.016533 0.000000
278.019470 135.154010 10.912112 0.000000
274.299990 133.771880 12.034664 0.000000
274.121700 134.539730 12.041265 0.000000
275.090480 133.222240 12.964838 0.000000
274.568510 133.855010 12.997353 0.000000
274.916750 134.801060 12.957792 0.000000
275.152770 135.686650 12.929090 0.000000
274.590180 133.012390 13.995750 0.000000
274.209410 133.707050 14.018678 0.000000
274.263310 134.557650 13.996359 0.000000
277.517150 135.678070 14.559196 0.000000
275.446530 133.329590 14.876074 0.000000
273.525210 133.438780 15.104228 0.000000
278.330440 135.947710 15.350924 0.000000
277.328190 134.826830 15.532357 0.000000
274.873600 133.091060 15.943688 0.000000
287.748380 135.519150 6.915752 0.000000
282.542720 135.315640 7.401426 0.000000
274.534820 135.529530 9.028737 0.000000
277.330660 134.824940 9.967162 0.000000
278.096310 135.082180 10.879392 0.000000
272.281680 132.991130 12.142853 0.000000
274.061650 134.482510 12.036039 0.000000
275.119320 133.141530 12.981478 0.000000
274.912750 134.752910 12.979916 0.000000
275.172060 135.665100 12.951510 0.000000
274.649810 133.819580 13.010015 0.000000
271.282320 135.316040 13.261762 0.000000
274.228150 133.651810 14.063747 0.000000
274.239620 134.508450 14.047686 0.000000
273.465450 131.610180 14.179555 0.000000
274.783750 134.675540 14.995472 0.000000
273.595340 133.407990 15.169094 0.000000
278.469790 135.907990 15.447021 0.000000
277.380160 134.747440 15.637465 0.000000
274.932590 133.020320 16.039310 0.000000
273.753050 132.959700 8.936885 0.000000
273.726560 133.841430 8.955653 0.000000
274.033080 135.687090 8.996472 0.000000
277.028140 134.137220 9.952915 0.000000
278.153780 135.353560 9.951689 0.000000
278.084080 135.310530 10.899303 0.000000
274.019230 133.880360 12.082208 0.000000
273.933440 134.727420 12.087621 0.000000
273.579860 135.485180 12.109428 0.000000
275.043850 133.350020 13.051470 0.000000
275.508240 134.377170 13.007069 0.000000
275.027130 135.065540 13.040458 0.000000
271.199280 135.638120 13.341751 0.000000
274.600460 133.166440 14.129370 0.000000
274.907710 134.147870 14.084008 0.000000
274.092440 134.737900 14.157167 0.000000
271.038300 135.569210 14.454789 0.000000
277.636510 135.883480 14.752546 0.000000
273.911070 132.891800 15.264403 0.000000
274.994200 134.157410 15.106105 0.000000
277.409090 134.979660 15.778062 0.000000
278.263670 136.070800 15.627083 0.000000
278.858090 136.019330 9.146846 0.000000
273.484990 133.160480 9.087217 0.000000
274.638000 135.404300 9.123302 0.000000
273.920780 133.311280 10.178042 0.000000
274.664090 133.578870 11.237768 0.000000
272.396640 133.673430 11.322636 0.000000
276.679260 136.056520 12.173312 0.000000
274.778840 133.608510 12.303074 0.000000
274.173950 134.297760 12.332373 0.000000
274.368530 133.438860 13.410326 0.000000
274.362150 135.254960 13.383149 0.000000
271.175320 136.069370 13.627410 0.000000
277.051030 135.292220 15.207172 0.000000
274.596650 132.574910 15.588266 0.000000
274.869020 133.600920 15.521610 0.000000
277.917450 134.746830 16.132721 0.000000
278.516690 135.807500 16.007126 0.000000
276.306300 133.245620 16.420113 0.000000
288.963410 135.503130 6.901534 0.000000
273.677430 133.653950 9.113214 0.000000
274.040500 135.647830 9.111071 0.000000
273.284730 133.509990 10.223088 0.000000
274.584720 134.017290 11.287067 0.000000
275.061310 136.019850 12.296782 0.000000
275.022950 133.267840 12.369833 0.000000
274.367800 133.010070 13.510838 0.000000
274.193330 133.880950 13.492935 0.000000
271.127410 135.635530 13.660037 0.000000
273.255920 133.527950 14.695318 0.000000
273.099490 135.356660 14.636133 0.000000
277.241760 135.065990 15.294952 0.000000
274.779600 133.191330 15.668490 0.000000
278.654480 135.615070 16.112844 0.000000
276.521910 132.996190 16.554951 0.000000
276.290250 133.809040 16.535414 0.000000
282.530550 134.322830 6.883584 0.000000
279.396670 135.489040 9.658526 0.000000
273.827150 136.016860 9.636087 0.000000
278.633060 135.188550 10.664082 0.000000
275.165070 132.839840 12.971291 0.000000
274.819980 133.642680 12.958122 0.000000
275.050840 135.594480 12.867239 0.000000
271.376530 135.203260 13.099037 0.000000
274.342830 133.463500 14.103705 0.000000
273.221190 135.874740 14.079119 0.000000
274.909880 132.765790 15.203805 0.000000
275.133000 133.808650 15.120895 0.000000
277.600430 134.845930 15.859941 0.000000
275.048490 132.844450 16.297161 0.000000
276.455410 133.472500 17.171835 0.000000
276.871950 135.459560 16.965305 0.000000
275.752810 134.101040 17.221914 0.000000
274.587400 135.494250 8.785330 0.000000
273.927220 134.393450 12.129134 0.000000
275.075990 134.898670 13.150285 0.000000
271.214630 135.324810 13.347722 0.000000
274.328160 133.673320 14.379083 0.000000
272.499760 133.886580 14.505651 0.000000
277.234380 134.950200 15.123215 0.000000
274.132050 135.534960 15.383178 0.000000
277.641140 135.158430 16.114807 0.000000
276.570890 135.648680 17.270967 0.000000
275.662570 134.352510 17.514961 0.000000
273.920470 135.527470 17.650867 0.000000
292.018890 135.214680 6.913153 0.000000
273.853330 132.884660 8.814105 0.000000
276.563260 134.168110 9.913301 0.000000
273.965550 135.876650 9.848960 0.000000
274.525360 134.274980 12.109236 0.000000
275.842250 133.944630 13.162204 0.000000
275.011470 134.523830 13.174736 0.000000
274.561400 135.281340 13.156639 0.000000
274.568820 133.399380 14.382790 0.000000
273.864070 134.060460 14.391689 0.000000
274.923130 133.598160 15.456071 0.000000
277.779790 134.934910 16.129189 0.000000
276.712280 135.407300 17.286057 0.000000
275.888370 134.111070 17.521288 0.000000
274.057560 135.220080 17.668711 0.000000
271.672910 135.233470 17.998173 0.000000
275.726200 135.174150 9.213627 0.000000
274.314450 135.499740 9.197886 0.000000
274.574040 133.716060 11.425194 0.000000
272.307220 133.668300 11.495371 0.000000
276.337250 135.487270 12.381145 0.000000
275.083440 135.867900 12.431662 0.000000
275.084500 132.996510 12.533535 0.000000
274.625030 133.753830 12.528754 0.000000
274.604610 134.724870 13.595881 0.000000
274.463650 132.706280 13.697251 0.000000
274.296230 133.613590 13.667139 0.000000
270.860530 135.093170 13.846590 0.000000
273.557070 133.281420 14.872571 0.000000
272.787510 133.925750 14.907316 0.000000
277.264860 135.031080 15.497208 0.000000
274.820430 132.909560 15.902643 0.000000
276.936160 135.807170 16.543074 0.000000
276.209010 133.603120 16.799694 0.000000
275.747440 134.334550 16.804731 0.000000
282.541170 134.690930 7.072695 0.000000
279.331850 135.821590 9.790574 0.000000
274.115360 134.567500 11.988100 0.000000
272.400050 132.855390 12.136368 0.000000
275.673520 134.339950 13.024129 0.000000
275.010410 134.987700 13.016656 0.000000
275.423070 132.325550 13.169003 0.000000
275.807920 132.556730 14.223661 0.000000
274.030430 134.624070 14.196323 0.000000
274.203280 133.741330 14.248201 0.000000
277.181490 135.088810 14.979958 0.000000
278.568020 135.736860 15.814018 0.000000
276.923920 135.064770 17.118937 0.000000
276.507170 135.789280 17.102364 0.000000
276.049410 133.755360 17.367054 0.000000
273.921450 135.663530 17.460102 0.000000
282.546260 135.461980 7.415297 0.000000
274.376220 135.527100 9.118815 0.000000
272.045750 133.723680 11.395093 0.000000
275.279940 135.946470 12.294136 0.000000
275.109190 133.109090 12.424518 0.000000
273.824250 134.459290 12.423710 0.000000
275.026400 134.963900 13.420688 0.000000
274.392850 132.822220 13.574065 0.000000
271.040860 135.351700 13.667274 0.000000
273.000000 135.138530 14.663851 0.000000
272.559110 134.011050 14.767648 0.000000
274.695400 133.009960 15.750713 0.000000
276.293880 133.735570 16.603252 0.000000
276.584080 132.943280 16.631601 0.000000
272.636170 134.097230 17.038584 0.000000
282.526490 135.798710 7.640812 0.000000
273.983670 132.177950 8.337876 0.000000
273.879090 135.911120 9.429242 0.000000
273.333740 132.882970 9.444106 0.000000
273.308900 132.880860 10.564281 0.000000
274.347110 134.246440 11.617744 0.000000
