# .PCD v0.7 - Point Cloud Data file format
VERSION 0.7
FIELDS x y z intensity
SIZE 4 4 4 4
TYPE F F F F
COUNT 1 1 1 1
WIDTH 1166
HEIGHT 1
VIEWPOINT 0 0 0 1 0 0 0
POINTS 1166
DATA ascii
308.911220 258.876190 11.183019 0.000000
309.130920 258.879820 11.187709 0.000000
309.686220 258.784120 11.180297 0.000000
316.621640 259.058470 11.350218 0.000000
296.399170 259.065060 10.949594 0.000000
300.604610 259.220730 11.010461 0.000000
300.799160 259.044590 11.008487 0.000000
305.438840 259.371730 11.116352 0.000000
305.752720 259.267060 11.119341 0.000000
306.177640 259.148250 11.124903 0.000000
306.500340 259.074580 11.130185 0.000000
316.834140 259.197420 11.355440 0.000000
296.199430 259.512270 10.965670 0.000000
300.117430 259.651430 11.011545 0.000000
300.413820 259.399990 11.012536 0.000000
304.521000 259.742460 11.109208 0.000000
304.923950 259.566380 11.111788 0.000000
305.231200 259.445340 11.114248 0.000000
299.747860 260.015530 11.013912 0.000000
303.742860 260.146880 11.106770 0.000000
304.127140 259.936460 11.107586 0.000000
295.807860 260.381070 10.992811 0.000000
299.415620 260.417510 11.021749 0.000000
303.097320 260.556610 11.108007 0.000000
303.370000 260.375520 11.107184 0.000000
310.634120 260.672450 11.235996 0.000000
310.927700 260.654510 11.229899 0.000000
311.222260 260.648010 11.224646 0.000000
299.011540 260.920070 11.029497 0.000000
299.175050 260.722750 11.027446 0.000000
302.576930 260.951260 11.112419 0.000000
302.830630 260.744540 11.108878 0.000000
306.990110 261.019960 11.217021 0.000000
307.354520 260.946810 11.222007 0.000000
307.721920 260.889190 11.227615 0.000000
308.091830 260.850800 11.234481 0.000000
308.463230 260.833310 11.242866 0.000000
308.927550 260.834840 11.254223 0.000000
309.391300 260.845250 11.263843 0.000000
309.767640 260.784270 11.256426 0.000000
310.149930 260.724210 11.246906 0.000000
310.439820 260.688350 11.239967 0.000000
312.092070 260.757970 11.223665 0.000000
312.477630 260.829500 11.223360 0.000000
312.861820 260.915370 11.223160 0.000000
313.176300 260.919310 11.210143 0.000000
296.941160 237.384380 11.232592 0.000000
297.607090 237.386410 11.254605 0.000000
298.265200 237.388500 11.275890 0.000000
298.916050 237.390530 11.296465 0.000000
300.197880 237.394550 11.335583 0.000000
300.830140 237.397740 11.354233 0.000000
317.741580 237.687130 11.677930 0.000000
316.622800 259.040010 11.830736 0.000000
316.814940 259.211490 11.839210 0.000000
300.211460 247.948880 11.818622 0.000000
302.463990 247.885380 11.888277 0.000000
316.624510 259.020720 12.309567 0.000000
316.819730 259.188050 12.316408 0.000000
296.251130 237.376740 12.004420 0.000000
296.925600 237.378890 12.022114 0.000000
297.591640 237.380950 12.039346 0.000000
301.975800 247.772160 12.408037 0.000000
302.781220 247.442840 12.419541 0.000000
302.487300 248.003450 12.426455 0.000000
303.322170 247.841930 12.442559 0.000000
303.805240 248.062640 12.459537 0.000000
301.780360 248.586620 12.423403 0.000000
304.286320 248.329740 12.477484 0.000000
297.574890 237.371540 12.823393 0.000000
301.609440 246.568070 12.935610 0.000000
301.214480 246.821930 12.929249 0.000000
302.721950 247.250820 12.959128 0.000000
303.590090 247.134980 12.974880 0.000000
304.053740 247.233030 12.983934 0.000000
304.470090 247.111850 12.991226 0.000000
302.501040 248.086470 12.958348 0.000000
303.453830 248.428830 12.977519 0.000000
300.988010 248.881970 12.933272 0.000000
300.686160 249.268110 12.929181 0.000000
311.863190 261.062590 13.420644 0.000000
296.893590 237.365450 13.599994 0.000000
298.870850 237.375320 13.623413 0.000000
317.718020 237.603880 13.963641 0.000000
303.267670 245.728260 13.538394 0.000000
303.113190 247.051710 13.513433 0.000000
301.547030 247.905700 13.478782 0.000000
302.468960 248.004580 13.488610 0.000000
302.892060 247.944140 13.495152 0.000000
300.353880 248.404560 13.456686 0.000000
301.447600 248.964900 13.459861 0.000000
304.577910 245.265320 14.145452 0.000000
304.333980 246.485660 14.095173 0.000000
301.632260 246.711490 14.063622 0.000000
300.458250 247.441180 14.030173 0.000000
300.970580 247.570420 14.027638 0.000000
301.395390 247.455920 14.034132 0.000000
302.432370 247.906650 14.023568 0.000000
300.816130 249.662160 13.949316 0.000000
303.351140 249.748260 13.960066 0.000000
300.509280 249.990620 13.936319 0.000000
296.100890 260.852540 13.983030 0.000000
309.436610 260.715150 14.079198 0.000000
317.716250 237.552280 14.729350 0.000000
300.647640 249.236510 14.483383 0.000000
301.870270 245.923680 14.674740 0.000000
302.849060 246.038450 14.670122 0.000000
303.349300 246.185970 14.663255 0.000000
305.125370 245.857570 14.695026 0.000000
303.859190 246.424670 14.651481 0.000000
304.791050 246.590210 14.647736 0.000000
300.746860 246.933040 14.616094 0.000000
300.519130 247.639470 14.575776 0.000000
299.873810 248.405010 14.534633 0.000000
303.047300 250.176940 14.908972 0.000000
302.420900 246.242940 15.227956 0.000000
303.955170 246.940960 15.169688 0.000000
304.402740 246.959720 15.169032 0.000000
304.825710 246.854130 15.179167 0.000000
303.264920 247.799680 15.100004 0.000000
300.618870 249.183690 15.008039 0.000000
300.340210 249.607090 14.978715 0.000000
295.991970 260.390660 15.129194 0.000000
295.874600 260.679020 15.115629 0.000000
302.689610 247.311920 15.689798 0.000000
302.279630 247.461300 15.678576 0.000000
301.038570 247.857620 15.655264 0.000000
304.154970 247.960170 15.614479 0.000000
304.627080 248.208080 15.587780 0.000000
305.024290 248.083470 15.600567 0.000000
295.833920 259.859620 15.574252 0.000000
303.200070 245.609910 15.860589 0.000000
300.258450 246.961650 15.757613 0.000000
299.862880 247.197710 15.741720 0.000000
300.575560 249.116620 16.066000 0.000000
302.428530 246.349790 16.363544 0.000000
302.207950 247.239780 16.257448 0.000000
304.459840 247.368350 16.216738 0.000000
304.870270 247.232800 16.232027 0.000000
300.434780 247.483760 16.264929 0.000000
300.877290 247.407580 16.263397 0.000000
301.314030 247.351990 16.822315 0.000000
301.732120 247.211380 16.831419 0.000000
302.142640 247.041820 16.846045 0.000000
300.215120 249.359130 16.575338 0.000000
300.599210 249.203510 16.583042 0.000000
302.816890 246.074340 16.972786 0.000000
300.570950 246.529280 16.960745 0.000000
317.832700 236.530610 10.220169 0.000000
317.087370 237.056380 10.263188 0.000000
316.402590 237.384610 10.288508 0.000000
312.083740 238.755580 10.363617 0.000000
310.921910 239.390690 10.399337 0.000000
319.543700 246.169560 10.430740 0.000000
319.769870 246.878400 10.499183 0.000000
320.233340 246.965120 10.498714 0.000000
320.689330 247.077440 10.500111 0.000000
295.954710 237.380430 10.474325 0.000000
296.647280 237.382600 10.506001 0.000000
308.699620 239.817930 10.388522 0.000000
309.250950 239.749820 10.395798 0.000000
309.804170 239.681340 10.402241 0.000000
307.601230 239.953410 10.371480 0.000000
308.149810 239.885770 10.380417 0.000000
304.919040 240.620740 10.344740 0.000000
305.453610 240.504710 10.353220 0.000000
306.009090 240.539790 10.374687 0.000000
306.551790 240.494090 10.387878 0.000000
307.099430 240.506870 10.405489 0.000000
303.849400 240.838170 10.323997 0.000000
304.397160 240.800740 10.341413 0.000000
302.919620 241.642180 10.355753 0.000000
299.810120 242.465530 10.282463 0.000000
300.305210 242.252750 10.289306 0.000000
299.299710 242.633530 10.270325 0.000000
314.527560 247.471250 10.610975 0.000000
314.030180 247.857100 10.651686 0.000000
314.826870 248.130170 10.681951 0.000000
315.244320 248.167790 10.685237 0.000000
315.649720 248.263410 10.693974 0.000000
315.958560 248.729370 10.741860 0.000000
317.636350 248.879990 10.740689 0.000000
317.045170 249.368360 10.799234 0.000000
316.161800 249.524810 10.824636 0.000000
316.556300 249.592440 10.828135 0.000000
314.819370 253.765670 10.878228 0.000000
319.701020 254.460340 10.820946 0.000000
320.218690 254.920230 10.849446 0.000000
320.431180 255.216520 10.872195 0.000000
320.638150 255.512590 10.894419 0.000000
319.528440 258.924220 10.973220 0.000000
319.787140 259.259580 10.995213 0.000000
297.330380 237.384840 10.536523 0.000000
298.004550 237.387050 10.565922 0.000000
298.668950 237.385060 10.593920 0.000000
299.692540 246.404790 10.599178 0.000000
300.222320 246.459000 10.632085 0.000000
298.672180 247.565960 10.634562 0.000000
299.137420 247.472730 10.654123 0.000000
299.676300 247.559040 10.691543 0.000000
297.935670 248.153430 10.636483 0.000000
298.544370 248.347780 10.688659 0.000000
297.179630 248.680470 10.629688 0.000000
297.774660 248.819960 10.678152 0.000000
297.040470 249.346120 10.671291 0.000000
296.535550 249.379100 10.640402 0.000000
310.452120 249.842960 10.830070 0.000000
311.022580 249.755000 10.830568 0.000000
311.406310 249.696670 10.830026 0.000000
311.790470 249.668640 10.832078 0.000000
296.360050 249.946370 10.670817 0.000000
308.024050 250.178860 10.805662 0.000000
308.398100 250.175090 10.816670 0.000000
308.767330 250.104550 10.819513 0.000000
309.138520 250.041080 10.822473 0.000000
309.511540 249.982740 10.825323 0.000000
309.886230 249.924150 10.827471 0.000000
306.547180 250.392970 10.776860 0.000000
306.923190 250.386600 10.790504 0.000000
307.305240 250.440230 10.810174 0.000000
307.663600 250.314210 10.808748 0.000000
296.251920 250.591200 10.710882 0.000000
305.526310 250.958400 10.795042 0.000000
306.059140 250.820760 10.803231 0.000000
305.174160 251.062450 10.790104 0.000000
304.242070 251.786160 10.820877 0.000000
304.556580 251.578840 10.815096 0.000000
304.921360 251.551250 10.830173 0.000000
303.352720 252.495700 10.846210 0.000000
303.644840 252.260930 10.838389 0.000000
302.393070 252.931950 10.833103 0.000000
302.740260 252.858290 10.847149 0.000000
303.100860 252.826460 10.865620 0.000000
301.812680 253.347780 10.837440 0.000000
302.159060 253.273070 10.852661 0.000000
301.197810 253.672330 10.827693 0.000000
301.568050 253.642990 10.850365 0.000000
314.008700 253.725710 10.881564 0.000000
314.310420 253.827190 10.891995 0.000000
300.987950 254.021760 10.847046 0.000000
315.215210 254.115260 10.916826 0.000000
315.551030 254.101350 10.909195 0.000000
300.422970 254.417630 10.843853 0.000000
300.797030 254.390560 10.868991 0.000000
313.563630 254.313920 10.960249 0.000000
315.782650 254.408920 10.943182 0.000000
300.264860 254.823990 10.870538 0.000000
309.354060 255.050230 11.013267 0.000000
309.636930 254.880630 10.998145 0.000000
309.926210 254.826400 10.997726 0.000000
310.363040 254.776630 10.999992 0.000000
310.802060 254.739670 11.002647 0.000000
311.243710 254.712330 11.004931 0.000000
312.860870 254.802640 11.025722 0.000000
313.179900 254.701600 11.012001 0.000000
315.976200 254.800670 10.987762 0.000000
299.805880 255.359210 10.884752 0.000000
308.213350 255.165680 10.992727 0.000000
308.500760 255.163350 11.002409 0.000000
308.792240 255.226290 11.020142 0.000000
309.074770 255.186940 11.023487 0.000000
316.161410 255.184390 11.030826 0.000000
318.147920 255.276150 10.979240 0.000000
318.388980 255.496510 10.995766 0.000000
306.839940 255.590840 10.991029 0.000000
307.272580 255.602110 11.012121 0.000000
307.694000 255.570540 11.025859 0.000000
307.976960 255.571320 11.037086 0.000000
316.788270 255.646030 11.069828 0.000000
317.334780 255.534640 11.038984 0.000000
317.660770 255.561570 11.030910 0.000000
299.562070 255.892730 10.913931 0.000000
306.067350 255.992660 11.003592 0.000000
306.350340 255.976820 11.016523 0.000000
306.636020 255.981580 11.031598 0.000000
298.990780 256.499420 10.920316 0.000000
299.180940 256.205870 10.910460 0.000000
305.184360 256.432800 11.008200 0.000000
305.587650 256.339320 11.020722 0.000000
298.515500 256.946290 10.917572 0.000000
298.747040 256.715820 10.918106 0.000000
304.073180 256.994110 11.003798 0.000000
304.442900 256.812320 11.007247 0.000000
304.818080 256.640560 11.011046 0.000000
303.592320 257.257810 11.000355 0.000000
303.830570 257.122010 11.001751 0.000000
313.427800 257.491300 11.050243 0.000000
313.963350 257.439300 11.033092 0.000000
314.492830 257.451020 11.022790 0.000000
298.112000 257.471590 10.925512 0.000000
302.896910 257.692690 10.997185 0.000000
303.124690 257.541900 10.997860 0.000000
311.147800 257.777040 11.101086 0.000000
312.363860 257.765290 11.101969 0.000000
312.725740 257.813540 11.106880 0.000000
313.126310 257.688570 11.083963 0.000000
313.680850 257.515290 11.049715 0.000000
314.857880 257.572480 11.030541 0.000000
315.214750 257.716460 11.040432 0.000000
315.448640 257.821720 11.047583 0.000000
297.965090 257.790830 10.938344 0.000000
302.475590 258.049440 11.003239 0.000000
302.725950 257.946690 11.012630 0.000000
309.953220 258.238490 11.153591 0.000000
310.302370 258.122010 11.142648 0.000000
310.776670 257.982090 11.128494 0.000000
315.814790 258.261540 11.096285 0.000000
302.069310 258.416870 11.009335 0.000000
302.271790 258.233950 11.006627 0.000000
309.268520 258.392760 11.159321 0.000000
309.611150 258.366910 11.164980 0.000000
315.962460 258.542240 11.129632 0.000000
301.677950 258.794130 11.015419 0.000000
301.870210 258.601900 11.011969 0.000000
316.103610 258.820980 11.162317 0.000000
316.237000 259.100370 11.194783 0.000000
316.436860 259.238620 11.203989 0.000000
316.744140 259.428530 11.213746 0.000000
319.949770 259.490080 11.010466 0.000000
317.266170 259.726010 11.223907 0.000000
317.590760 259.888640 11.225181 0.000000
318.486570 259.672360 11.139017 0.000000
320.091310 259.741210 11.029059 0.000000
310.959080 260.149960 11.209438 0.000000
311.974370 260.082550 11.197083 0.000000
312.281620 260.087400 11.194658 0.000000
312.691250 260.112640 11.192596 0.000000
313.117830 260.095060 11.180342 0.000000
313.574430 260.009550 11.153234 0.000000
313.922270 259.958710 11.133386 0.000000
314.462620 260.029630 11.124237 0.000000
314.861760 260.183560 11.131438 0.000000
317.976840 259.965330 11.210204 0.000000
320.291810 260.120730 11.056777 0.000000
315.247440 260.368770 11.141731 0.000000
315.617860 260.582790 11.154821 0.000000
320.483580 260.499480 11.083694 0.000000
320.604580 260.752620 11.101341 0.000000
315.933780 260.891080 11.183325 0.000000
320.715520 261.010930 11.119725 0.000000
296.628330 237.376920 11.307313 0.000000
302.535610 247.607040 11.392920 0.000000
297.824340 258.109470 10.951096 0.000000
297.604680 258.337520 10.948386 0.000000
308.151400 258.645450 11.156664 0.000000
308.375430 258.613340 11.161263 0.000000
308.711670 258.564880 11.166908 0.000000
309.048890 258.520420 11.171988 0.000000
297.285830 258.910580 10.962127 0.000000
297.543060 258.726260 10.973148 0.000000
301.485140 258.982180 11.017749 0.000000
306.720700 258.977660 11.131850 0.000000
307.155430 258.854060 11.138681 0.000000
307.595550 258.750090 11.146329 0.000000
307.928250 258.683110 11.152336 0.000000
297.188540 259.249850 10.978326 0.000000
301.204500 259.270720 11.021551 0.000000
305.772640 259.340820 11.122224 0.000000
305.977660 259.245640 11.122925 0.000000
306.292850 259.121980 11.126102 0.000000
316.725490 259.200230 11.494431 0.000000
297.014400 259.510680 10.980262 0.000000
300.844670 259.665370 11.027079 0.000000
305.171540 259.649200 11.120636 0.000000
305.570070 259.440430 11.121733 0.000000
296.762450 259.905640 10.983207 0.000000
300.400120 260.151760 11.030499 0.000000
300.582120 259.964020 11.030746 0.000000
304.406010 260.115390 11.121317 0.000000
304.687410 259.932400 11.120554 0.000000
310.558410 260.233760 11.220114 0.000000
310.757970 260.189510 11.214655 0.000000
296.521420 260.305480 10.986454 0.000000
300.049590 260.538420 11.030772 0.000000
300.221920 260.342560 11.030362 0.000000
303.952970 260.439880 11.123547 0.000000
304.221980 260.241670 11.121943 0.000000
308.737670 260.645600 11.242094 0.000000
309.116090 260.604100 11.249722 0.000000
309.494540 260.545620 11.252020 0.000000
309.874540 260.419100 11.240000 0.000000
310.262660 260.307220 11.228390 0.000000
299.743290 260.965390 11.037462 0.000000
299.885070 260.741120 11.032104 0.000000
303.353300 260.932430 11.129126 0.000000
303.605440 260.716370 11.126427 0.000000
307.259000 260.991760 11.221314 0.000000
307.620940 260.876190 11.224556 0.000000
307.988460 260.778110 11.228806 0.000000
308.361480 260.703400 11.235068 0.000000
297.986020 237.381440 11.356741 0.000000
299.309390 237.383090 11.402903 0.000000
316.741150 259.281310 11.964481 0.000000
295.916290 237.368990 12.087114 0.000000
302.101500 247.719800 11.930530 0.000000
300.307710 247.953250 11.875061 0.000000
303.173650 248.264480 11.989893 0.000000
301.725010 249.211230 11.978848 0.000000
316.709660 259.193630 12.416865 0.000000
299.291380 237.377760 12.183270 0.000000
299.943510 237.383210 12.201218 0.000000
296.609380 237.371260 12.107358 0.000000
298.632510 237.374240 12.164940 0.000000
301.258300 246.678960 12.432442 0.000000
303.482270 247.836400 12.517997 0.000000
303.992430 248.100300 12.537188 0.000000
304.462160 248.252760 12.552773 0.000000
301.585480 248.866740 12.487032 0.000000
300.571530 237.384740 12.990330 0.000000
304.599090 246.995060 13.076560 0.000000
303.797730 247.390290 13.059840 0.000000
300.754090 249.086700 12.996371 0.000000
296.590450 237.365620 12.906890 0.000000
298.615510 237.372450 12.949333 0.000000
301.204900 246.562060 13.005342 0.000000
302.866580 247.302760 13.040308 0.000000
304.180150 247.123930 13.067804 0.000000
301.319520 248.184980 13.008052 0.000000
302.693330 248.215770 13.036850 0.000000
298.596100 237.363400 13.733922 0.000000
301.129240 237.138600 13.775955 0.000000
296.574460 237.367420 13.706573 0.000000
302.739620 245.244570 13.631276 0.000000
300.957180 247.247590 13.564731 0.000000
302.828400 247.212860 13.591687 0.000000
301.636320 247.812330 13.562419 0.000000
302.614530 248.001560 13.572261 0.000000
300.375610 248.200840 13.538022 0.000000
304.283140 245.679280 14.223410 0.000000
303.887880 246.006670 14.205147 0.000000
301.260650 248.088380 14.097030 0.000000
301.728450 248.103970 14.099208 0.000000
303.014920 247.879100 14.118093 0.000000
300.884000 248.320620 14.085611 0.000000
300.869810 249.418520 14.041316 0.000000
302.366330 248.677730 14.605864 0.000000
303.264830 248.756260 14.602081 0.000000
300.725430 249.097520 14.583477 0.000000
300.443850 249.508770 14.560062 0.000000
301.618010 244.927220 14.838371 0.000000
305.196620 245.613940 14.812866 0.000000
303.417480 246.059600 14.772407 0.000000
304.383300 246.182240 14.770064 0.000000
304.798920 245.958980 14.787374 0.000000
301.116240 246.414460 14.746148 0.000000
300.797000 246.883830 14.717805 0.000000
300.386290 247.090850 14.706224 0.000000
304.338650 249.640440 15.044872 0.000000
301.868710 245.757450 15.378540 0.000000
302.446080 246.047210 15.351685 0.000000
302.867890 245.837460 15.367943 0.000000
300.726500 246.728230 15.307041 0.000000
304.071170 246.862930 15.280131 0.000000
304.521210 246.852050 15.281626 0.000000
304.946870 246.737370 15.292589 0.000000
300.401030 249.435870 15.091811 0.000000
296.063600 260.001560 15.274962 0.000000
295.989470 260.344360 15.252704 0.000000
295.859280 260.637510 15.239804 0.000000
304.986240 246.984970 15.821920 0.000000
302.365020 247.358220 15.799447 0.000000
302.043880 247.786710 15.759062 0.000000
303.790800 247.581830 15.762766 0.000000
304.308560 247.889800 15.727236 0.000000
304.734130 247.853730 15.729506 0.000000
300.690890 249.067960 15.651445 0.000000
302.401520 245.938960 15.947346 0.000000
300.217830 246.726620 15.898081 0.000000
300.976410 247.424510 15.813027 0.000000
300.332430 249.329800 16.167025 0.000000
300.832340 247.073700 16.427658 0.000000
301.510590 247.621490 16.343721 0.000000
301.920500 247.455410 16.355370 0.000000
302.382810 247.450900 16.346813 0.000000
300.647550 247.840070 16.338530 0.000000
300.617650 248.919250 16.207962 0.000000
302.228450 247.003360 16.976543 0.000000
301.370150 247.261610 16.962854 0.000000
301.774230 247.057590 16.980705 0.000000
303.294190 247.487410 16.880987 0.000000
300.319520 249.325940 16.705013 0.000000
317.333770 237.905850 10.303970 0.000000
314.321810 238.131810 10.298082 0.000000
315.526490 237.941210 10.294304 0.000000
313.692960 238.658720 10.336532 0.000000
314.870120 238.479190 10.335192 0.000000
316.049410 238.431200 10.341969 0.000000
313.088840 239.112880 10.367990 0.000000
319.603000 246.098720 10.419359 0.000000
319.842990 246.816450 10.491140 0.000000
320.292820 246.917180 10.494145 0.000000
320.516750 247.594250 10.560205 0.000000
296.282290 237.394700 10.417625 0.000000
308.665590 240.448150 10.391867 0.000000
309.205900 240.384400 10.400725 0.000000
306.527920 240.834300 10.360456 0.000000
307.631810 240.975740 10.408477 0.000000
308.174470 241.024200 10.429002 0.000000
304.397310 241.208440 10.314970 0.000000
304.926390 241.095180 10.325726 0.000000
305.472530 241.073350 10.344280 0.000000
302.365050 241.963440 10.293333 0.000000
302.937870 242.020070 10.323904 0.000000
303.443700 241.844990 10.330807 0.000000
303.996800 241.861830 10.355467 0.000000
302.653900 244.680390 10.538231 0.000000
314.168760 248.205860 10.669983 0.000000
314.599330 248.098450 10.660551 0.000000
315.024540 248.058270 10.657688 0.000000
315.436860 248.107380 10.663776 0.000000
313.667660 248.970470 10.750517 0.000000
318.246460 248.827900 10.725295 0.000000
316.036160 249.226790 10.784924 0.000000
316.824070 249.357010 10.795196 0.000000
317.650670 249.375200 10.790112 0.000000
313.203090 249.654690 10.821733 0.000000
316.352390 249.610730 10.825233 0.000000
317.143920 249.693760 10.828885 0.000000
319.571930 253.727070 10.771782 0.000000
319.901000 253.836440 10.772729 0.000000
320.070890 254.253590 10.815620 0.000000
320.306520 254.529110 10.838367 0.000000
320.614620 255.003910 10.880056 0.000000
319.431000 258.148100 10.945260 0.000000
301.004580 237.396900 10.621955 0.000000
302.448000 245.614560 10.607555 0.000000
302.230290 246.428890 10.665446 0.000000
302.238460 247.780750 10.779092 0.000000
300.461300 248.135410 10.711817 0.000000
300.069550 248.354100 10.706860 0.000000
299.461090 249.123030 10.731848 0.000000
300.029600 249.278850 10.778651 0.000000
297.789920 249.759990 10.674530 0.000000
298.645200 249.466930 10.707773 0.000000
299.207490 249.578600 10.752050 0.000000
298.363980 249.859710 10.719988 0.000000
312.407810 250.108180 10.862250 0.000000
312.785490 250.072480 10.863253 0.000000
297.606450 250.300370 10.703138 0.000000
308.719880 250.584810 10.828148 0.000000
309.076600 250.459120 10.825761 0.000000
309.447050 250.470260 10.838223 0.000000
309.812190 250.415940 10.842581 0.000000
297.497830 250.931460 10.742989 0.000000
307.633640 250.761380 10.808442 0.000000
307.998050 250.720200 10.817740 0.000000
308.367250 250.719120 10.830920 0.000000
297.008000 250.977450 10.712226 0.000000
306.237460 251.223510 10.799256 0.000000
306.612760 251.237900 10.817865 0.000000
306.961430 251.136610 10.822044 0.000000
307.343170 251.210100 10.845974 0.000000
296.811280 251.449980 10.732859 0.000000
305.593440 251.623150 10.811207 0.000000
305.970830 251.647250 10.832339 0.000000
296.175020 252.031460 10.728288 0.000000
296.705750 252.030140 10.767200 0.000000
304.916900 251.868940 10.802284 0.000000
305.281590 251.837220 10.818176 0.000000
295.999150 252.498150 10.748052 0.000000
304.404420 252.574370 10.848198 0.000000
304.688050 252.318120 10.837271 0.000000
303.240570 253.407530 10.863486 0.000000
303.477970 253.080930 10.845145 0.000000
303.835750 253.041530 10.863212 0.000000
302.667880 253.804790 10.865771 0.000000
302.897060 253.482740 10.848675 0.000000
314.045040 253.886080 10.898283 0.000000
314.386750 253.752960 10.880115 0.000000
314.699130 253.795720 10.884342 0.000000
315.035680 253.733900 10.874069 0.000000
315.441830 254.070450 10.913774 0.000000
301.925930 254.587460 10.891055 0.000000
302.105620 254.205180 10.866461 0.000000
313.486390 254.496120 10.978069 0.000000
315.833010 254.413380 10.953032 0.000000
301.620480 254.728740 10.882226 0.000000
311.824190 254.853180 11.011082 0.000000
312.259920 254.866640 11.018587 0.000000
312.695500 254.890290 11.026104 0.000000
312.989110 254.883010 11.027198 0.000000
316.040920 254.796890 10.998892 0.000000
316.573610 255.117000 11.029522 0.000000
301.392790 255.004360 10.891590 0.000000
309.405880 255.379870 11.021328 0.000000
309.819270 255.234940 11.015752 0.000000
310.240020 255.106780 11.011000 0.000000
316.239960 255.172700 11.043217 0.000000
316.815980 255.333510 11.051430 0.000000
317.164460 255.256180 11.033303 0.000000
317.416560 255.440170 11.049522 0.000000
317.856750 255.166120 11.003126 0.000000
300.893590 255.463150 10.896189 0.000000
301.250310 255.411450 10.919451 0.000000
308.753910 255.802900 11.052946 0.000000
300.687960 256.047670 10.933949 0.000000
307.929440 255.910400 11.031057 0.000000
308.221530 255.966460 11.051804 0.000000
308.486480 255.881240 11.052189 0.000000
309.045560 255.902050 11.077435 0.000000
300.369570 256.441530 10.943581 0.000000
306.404360 256.597900 11.037829 0.000000
306.687130 256.594540 11.054171 0.000000
307.191890 256.382050 11.055140 0.000000
307.447420 256.280270 11.055431 0.000000
307.727810 256.285710 11.070274 0.000000
299.911530 256.903870 10.945624 0.000000
300.142910 256.677370 10.945534 0.000000
305.814330 256.967440 11.047162 0.000000
306.187960 256.810270 11.051453 0.000000
299.441470 257.341770 10.941992 0.000000
305.083980 257.315610 11.039917 0.000000
305.445530 257.134580 11.043200 0.000000
313.974980 257.342290 11.029882 0.000000
314.243260 257.296570 11.019918 0.000000
314.624180 257.341030 11.021034 0.000000
314.992830 257.438630 11.028997 0.000000
299.212830 257.566530 10.940336 0.000000
304.266020 257.780700 11.034218 0.000000
304.585110 257.517460 11.027403 0.000000
311.928380 257.881990 11.111946 0.000000
312.296390 257.768370 11.097698 0.000000
312.658170 257.777830 11.101179 0.000000
313.034580 257.699860 11.089581 0.000000
313.430940 257.538090 11.063761 0.000000
313.678710 257.555080 11.064891 0.000000
315.476500 257.595120 11.041225 0.000000
315.687710 257.763610 11.060470 0.000000
304.040280 257.925720 11.033265 0.000000
310.287260 258.258390 11.136472 0.000000
310.519130 258.272580 11.145365 0.000000
311.688450 257.923650 11.115362 0.000000
315.855190 258.044770 11.096869 0.000000
303.491390 258.307980 11.031723 0.000000
310.070860 258.462070 11.161243 0.000000
316.089170 258.470980 11.151325 0.000000
319.791080 258.594880 10.980852 0.000000
316.345180 258.806610 11.190577 0.000000
316.996090 259.109040 11.206314 0.000000
318.523710 258.873410 11.095284 0.000000
320.152620 259.019260 11.010545 0.000000
316.678040 259.228700 11.237231 0.000000
317.336850 259.230350 11.207041 0.000000
317.744780 259.484010 11.220871 0.000000
320.413640 259.341310 11.032187 0.000000
313.458160 259.871310 11.154660 0.000000
313.797240 259.785190 11.133972 0.000000
314.350860 259.747920 11.115106 0.000000
314.664180 259.813140 11.117206 0.000000
314.969060 259.908230 11.123339 0.000000
320.642940 259.693210 11.058029 0.000000
311.590420 260.135500 11.202888 0.000000
311.891390 260.096590 11.199145 0.000000
312.194430 260.065460 11.195575 0.000000
312.499730 260.044280 11.192234 0.000000
312.911010 260.019810 11.186374 0.000000
313.235870 259.934390 11.168529 0.000000
315.170070 259.978270 11.127754 0.000000
315.468600 260.091610 11.134569 0.000000
315.746640 260.254150 11.149111 0.000000
316.040190 260.630520 11.195947 0.000000
316.258540 260.893010 11.226200 0.000000
316.517360 261.063690 11.238234 0.000000
319.063080 260.911500 11.028028 0.000000
296.258300 237.377110 11.229896 0.000000
302.202060 247.713130 11.328964 0.000000
298.946900 257.986450 10.950748 0.000000
298.652650 258.367890 10.954084 0.000000
303.173400 258.551480 11.031704 0.000000
309.743010 258.612270 11.172999 0.000000
298.343660 258.949160 10.970247 0.000000
298.591610 258.756380 10.979399 0.000000
302.766390 258.895540 11.033175 0.000000
302.965790 258.718200 11.031771 0.000000
308.336760 259.039220 11.174626 0.000000
308.662410 258.966520 11.180465 0.000000
308.989200 258.897980 11.185795 0.000000
309.421660 258.771270 11.185136 0.000000
298.261290 259.301510 10.989407 0.000000
302.497440 259.199950 11.041181 0.000000
307.380800 259.331570 11.161180 0.000000
307.801240 259.187870 11.166274 0.000000
308.121310 259.094300 11.171029 0.000000
316.691650 259.185000 11.530954 0.000000
298.104030 259.576350 10.994487 0.000000
302.163450 259.626530 11.054493 0.000000
306.269840 259.831480 11.153568 0.000000
306.564090 259.676670 11.154027 0.000000
306.968080 259.494690 11.157096 0.000000
297.862700 259.977570 10.999547 0.000000
301.775510 259.971830 11.051323 0.000000
305.795500 260.115600 11.154696 0.000000
306.077820 259.941830 11.153833 0.000000
297.631740 260.382510 11.004781 0.000000
301.443360 260.376770 11.057770 0.000000
305.158510 260.547270 11.157394 0.000000
305.427610 260.357700 11.156086 0.000000
309.861270 260.661320 11.250055 0.000000
310.138060 260.549470 11.240821 0.000000
310.514500 260.409640 11.228454 0.000000
297.413480 260.791410 11.010180 0.000000
301.044280 260.889070 11.064934 0.000000
301.204190 260.686310 11.062782 0.000000
304.640620 260.948550 11.160881 0.000000
304.895630 260.743190 11.158697 0.000000
308.772740 261.011290 11.257198 0.000000
309.046330 260.947940 11.261603 0.000000
309.411530 260.859310 11.264854 0.000000
309.680330 260.744020 11.257010 0.000000
316.636570 259.291230 11.841911 0.000000
296.244230 237.382350 12.042181 0.000000
300.457670 248.177110 11.838594 0.000000
316.681460 259.172420 12.274828 0.000000
316.900390 259.268160 12.130670 0.000000
298.319950 237.379230 12.102169 0.000000
301.347560 246.807770 12.394676 0.000000
301.658750 248.769810 12.446272 0.000000
300.300350 237.376160 12.937806 0.000000
296.220760 237.365810 12.853147 0.000000
298.301730 237.373410 12.896335 0.000000
304.314060 247.176790 13.035478 0.000000
301.708130 247.752530 12.982256 0.000000
301.399810 248.170790 12.976473 0.000000
304.704770 246.930210 13.043222 0.000000
303.907230 247.352750 13.027296 0.000000
302.720280 247.945070 13.003539 0.000000
303.311950 248.340330 13.016396 0.000000
300.828950 249.040860 12.965907 0.000000
312.507140 260.395540 13.468801 0.000000
312.156280 260.944580 13.449536 0.000000
300.935120 237.375370 13.727205 0.000000
303.046510 246.120590 13.587884 0.000000
301.008940 247.255170 13.539222 0.000000
302.885100 247.098910 13.566759 0.000000
300.639220 247.552090 13.529179 0.000000
300.415590 248.158600 13.515326 0.000000
301.780000 247.963120 13.535630 0.000000
300.083160 248.500150 13.505242 0.000000
302.353390 248.236820 13.537867 0.000000
302.841740 248.318560 13.542795 0.000000
309.068050 260.838840 13.863400 0.000000
304.333710 245.587920 14.201289 0.000000
303.963410 245.997530 14.181123 0.000000
301.378140 246.973850 14.124331 0.000000
302.893190 247.156860 14.125881 0.000000
301.320950 248.034350 14.082717 0.000000
300.957340 248.308180 14.070777 0.000000
302.409970 248.416960 14.072895 0.000000
300.890080 249.221970 14.035480 0.000000
300.685060 249.782620 14.013655 0.000000
303.284390 249.595520 14.031359 0.000000
301.669490 245.083210 14.813032 0.000000
304.880830 245.915160 14.768650 0.000000
304.037050 246.303860 14.740910 0.000000
300.854100 246.938230 14.704503 0.000000
300.432190 247.130140 14.695266 0.000000
301.384060 247.018190 14.697742 0.000000
303.908170 247.468350 14.668926 0.000000
300.298580 247.951900 14.648080 0.000000
300.510680 249.440230 14.560423 0.000000
308.512050 261.028050 14.796856 0.000000
302.491700 246.031510 15.343784 0.000000
302.172550 246.530870 15.305702 0.000000
304.187900 246.885700 15.265359 0.000000
300.433500 247.159930 15.275141 0.000000
303.899630 247.477160 15.217480 0.000000
300.459010 249.354800 15.103329 0.000000
301.733950 249.080460 15.105915 0.000000
300.193120 249.778980 15.075302 0.000000
302.999570 250.043620 15.014631 0.000000
304.215820 247.026400 15.812285 0.000000
302.110110 247.707150 15.770012 0.000000
304.009920 247.883990 15.725260 0.000000
300.737060 248.958620 15.674338 0.000000
296.018830 259.976040 15.369632 0.000000
295.941620 260.328740 15.348774 0.000000
296.413540 261.070860 15.650197 0.000000
302.664340 246.579380 15.875946 0.000000
301.010960 247.371120 15.825049 0.000000
300.759830 247.933000 15.774813 0.000000
300.661250 248.817320 16.240711 0.000000
300.400420 249.277860 16.195593 0.000000
319.960570 236.172520 10.039791 0.000000
320.607150 236.185420 10.041030 0.000000
318.726010 239.046310 10.298987 0.000000
315.225130 239.276020 10.296157 0.000000
316.303010 239.738950 10.349522 0.000000
295.851200 237.397490 10.258797 0.000000
297.287930 237.396730 10.326295 0.000000
315.714870 239.958300 10.364365 0.000000
316.825530 240.022160 10.379541 0.000000
317.341000 240.304810 10.408613 0.000000
317.927190 240.172960 10.399249 0.000000
311.856350 241.442430 10.443498 0.000000
312.381650 241.367940 10.446983 0.000000
312.910030 241.284150 10.448860 0.000000
310.294460 241.677460 10.429610 0.000000
310.813480 241.609510 10.435965 0.000000
311.333680 241.526230 10.440127 0.000000
305.578000 241.993290 10.307697 0.000000
306.102290 241.925050 10.321422 0.000000
306.659360 242.042420 10.352470 0.000000
305.558590 244.186480 10.505661 0.000000
305.146300 244.551740 10.521729 0.000000
304.734380 244.885310 10.534214 0.000000
319.676730 247.533750 10.508005 0.000000
320.131960 247.556030 10.504045 0.000000
320.368650 248.204100 10.570821 0.000000
314.255550 249.265670 10.715834 0.000000
314.663670 249.130460 10.703791 0.000000
315.046450 249.231810 10.717813 0.000000
315.426760 249.337740 10.731596 0.000000
315.787230 249.550740 10.756729 0.000000
316.126950 249.845890 10.790393 0.000000
317.704380 249.883710 10.788444 0.000000
318.605350 249.589110 10.747246 0.000000
319.454040 253.782970 10.764149 0.000000
319.698060 254.059940 10.791448 0.000000
319.952060 254.302080 10.813271 0.000000
320.199490 254.548650 10.835117 0.000000
320.508420 254.663650 10.837618 0.000000
320.676510 255.050230 10.878272 0.000000
317.762390 237.721650 10.926127 0.000000
304.334630 245.234050 10.547850 0.000000
303.878420 246.890350 10.673915 0.000000
304.300630 246.723360 10.678912 0.000000
303.071080 247.317380 10.671831 0.000000
303.464390 247.078030 10.670443 0.000000
302.627690 248.605290 10.760592 0.000000
302.970700 248.295440 10.751841 0.000000
301.551270 249.361650 10.765449 0.000000
301.970760 249.250200 10.779850 0.000000
302.434480 249.247340 10.805317 0.000000
300.911350 249.986850 10.780079 0.000000
301.346860 249.912250 10.799810 0.000000
317.223750 250.212620 10.828363 0.000000
300.705810 250.496310 10.809652 0.000000
316.401860 250.416660 10.854486 0.000000
316.777440 250.457430 10.857948 0.000000
299.396180 250.751860 10.747066 0.000000
313.003750 251.046800 10.904795 0.000000
299.077390 251.042080 10.749047 0.000000
310.873660 251.274520 10.886770 0.000000
311.225650 251.228870 10.890520 0.000000
311.579100 251.200870 10.895658 0.000000
311.933290 251.181430 10.901114 0.000000
312.465820 251.154970 10.908278 0.000000
298.474430 251.659640 10.756325 0.000000
298.940280 251.602720 10.783945 0.000000
308.773440 251.555760 10.851236 0.000000
298.272160 252.100080 10.776092 0.000000
307.429720 252.001820 10.845541 0.000000
307.792720 252.023540 10.864122 0.000000
308.128200 251.926120 10.867450 0.000000
308.496980 252.004820 10.891357 0.000000
306.106990 252.458180 10.831217 0.000000
306.488710 252.521320 10.857973 0.000000
306.809270 252.384490 10.858868 0.000000
307.186220 252.460910 10.885530 0.000000
297.610530 252.603900 10.766646 0.000000
298.112340 252.583770 10.801535 0.000000
305.710690 252.912950 10.859445 0.000000
297.264220 253.167040 10.782646 0.000000
296.828160 253.607650 10.781663 0.000000
304.851470 253.535540 10.876680 0.000000
304.109620 253.945220 10.873395 0.000000
304.447020 253.877240 10.887962 0.000000
314.400360 254.116740 10.882406 0.000000
296.335170 254.285400 10.791331 0.000000
303.547700 254.327330 10.875578 0.000000
303.880340 254.247220 10.889842 0.000000
314.060700 254.387990 10.918030 0.000000
314.824550 254.372410 10.917377 0.000000
315.282170 254.391270 10.918864 0.000000
315.710050 254.564250 10.939514 0.000000
295.852540 254.957060 10.798899 0.000000
296.118530 254.649250 10.799332 0.000000
303.404270 254.778240 10.912046 0.000000
313.401180 255.083190 11.008144 0.000000
313.723690 254.741650 10.964201 0.000000
302.627500 255.403850 10.918682 0.000000
302.871890 255.173540 10.913831 0.000000
311.687900 255.438080 11.028815 0.000000
311.967770 255.359470 11.024229 0.000000
312.390660 255.340580 11.029689 0.000000
312.814000 255.341710 11.036604 0.000000
316.139190 255.330640 11.037701 0.000000
317.652160 255.404510 11.020743 0.000000
318.441160 255.427780 11.003481 0.000000
302.472530 255.775620 10.943779 0.000000
310.860630 255.647170 11.035353 0.000000
311.273190 255.560580 11.035154 0.000000
316.764680 255.779660 11.087927 0.000000
317.105040 255.653350 11.064991 0.000000
302.056400 256.019260 10.934986 0.000000
309.200960 256.551060 11.095871 0.000000
309.574400 256.364840 11.086963 0.000000
313.304020 257.831270 11.076841 0.000000
313.679020 257.714720 11.060083 0.000000
313.937900 257.606410 11.043221 0.000000
314.448580 257.520200 11.028120 0.000000
314.807680 257.618710 11.040752 0.000000
315.302190 257.668820 11.042521 0.000000
315.652530 257.797270 11.056607 0.000000
311.991330 258.260930 11.127354 0.000000
312.339750 258.181790 11.121330 0.000000
312.810390 258.087830 11.113153 0.000000
319.537540 258.102810 10.955727 0.000000
311.194060 258.438600 11.134972 0.000000
311.647740 258.349400 11.133416 0.000000
316.087340 258.477260 11.151323 0.000000
318.751920 258.738370 11.086964 0.000000
319.931820 258.483550 10.985937 0.000000
316.470000 258.826050 11.193604 0.000000
317.167080 258.976100 11.192245 0.000000
317.483030 259.133510 11.202945 0.000000
318.138120 258.856570 11.133858 0.000000
318.439700 258.800690 11.111465 0.000000
320.217530 258.774750 11.008183 0.000000
320.493160 259.071260 11.030006 0.000000
316.687740 259.242520 11.249197 0.000000
317.692720 259.240660 11.209598 0.000000
313.956090 259.829590 11.128740 0.000000
314.383510 259.791780 11.117334 0.000000
314.797520 259.848330 11.120402 0.000000
315.103450 259.915250 11.125531 0.000000
312.997220 260.174410 11.192022 0.000000
313.205020 260.088230 11.177336 0.000000
313.522670 259.971040 11.156268 0.000000
315.603790 260.062930 11.137253 0.000000
315.863100 260.273280 11.164963 0.000000
316.092040 260.546690 11.203065 0.000000
319.211580 260.564540 11.020845 0.000000
316.331050 260.772370 11.231344 0.000000
316.793400 260.970000 11.242076 0.000000
319.510160 260.930510 11.052723 0.000000
302.265140 247.750380 11.232384 0.000000
301.768830 256.456120 10.954000 0.000000
301.337550 256.944520 10.964182 0.000000
301.546780 256.693540 10.958220 0.000000
308.456150 256.857700 11.100957 0.000000
308.834290 256.738770 11.104063 0.000000
301.132750 257.196870 10.970047 0.000000
307.230740 257.338560 11.094137 0.000000
307.561100 257.082060 11.080924 0.000000
307.835750 257.081240 11.096846 0.000000
300.829280 257.571870 10.977640 0.000000
306.160460 257.824130 11.084103 0.000000
306.394990 257.710330 11.086420 0.000000
306.751530 257.548830 11.090197 0.000000
300.402860 258.034850 10.980475 0.000000
305.562320 258.079900 11.071135 0.000000
305.929440 257.944790 11.082307 0.000000
300.092830 258.388090 10.982539 0.000000
304.815250 258.611970 11.075454 0.000000
305.252040 258.331850 11.077646 0.000000
299.725590 258.900050 10.990978 0.000000
304.498780 258.837680 11.074987 0.000000
310.020540 259.039950 11.185843 0.000000
299.474270 259.085210 10.981836 0.000000
304.097690 259.166600 11.077538 0.000000
309.217040 259.470370 11.212546 0.000000
309.517970 259.326390 11.206264 0.000000
309.817050 259.152680 11.194075 0.000000
316.698760 259.196500 11.534266 0.000000
299.302520 259.558900 11.003199 0.000000
303.536990 259.704380 11.085848 0.000000
303.812070 259.431060 11.081426 0.000000
308.191530 259.802950 11.199695 0.000000
308.494960 259.691070 11.202880 0.000000
308.905240 259.557590 11.207957 0.000000
299.066380 259.962370 11.011313 0.000000
303.184690 260.080080 11.092466 0.000000
307.307430 260.196440 11.192633 0.000000
307.695220 260.010960 11.195213 0.000000
307.991420 259.882630 11.197726 0.000000
312.498470 260.255800 11.201837 0.000000
312.795960 260.215030 11.197879 0.000000
298.838990 260.366360 11.018902 0.000000
302.770170 260.568480 11.102208 0.000000
306.750580 260.520690 11.193203 0.000000
307.024570 260.351040 11.192171 0.000000
311.241520 260.525850 11.221333 0.000000
311.526430 260.451260 11.216658 0.000000
311.911220 260.363370 11.210674 0.000000
312.203250 260.304200 11.205998 0.000000
298.607480 260.761870 11.024263 0.000000
302.475920 260.990170 11.114550 0.000000
302.617680 260.774870 11.107630 0.000000
306.133670 260.945040 11.196918 0.000000
306.393770 260.757690 11.194973 0.000000
310.156770 260.990970 11.258805 0.000000
310.331630 260.905150 11.252254 0.000000
300.024440 237.397190 11.238771 0.000000
317.750890 237.698030 11.674488 0.000000
316.646480 259.318540 11.839069 0.000000
316.737180 259.215120 12.259439 0.000000
301.136020 236.769870 12.042652 0.000000
303.710270 247.859450 12.399519 0.000000
297.939850 237.378310 12.777215 0.000000
298.634670 237.384370 12.790998 0.000000
299.992070 237.385640 12.817866 0.000000
300.716890 246.580060 12.880687 0.000000
303.778720 246.714660 12.941990 0.000000
304.771420 246.856320 12.962381 0.000000
301.749420 247.756990 12.907326 0.000000
303.452670 248.445820 12.944664 0.000000
301.155120 248.608670 12.900055 0.000000
300.897000 249.082460 12.897445 0.000000
300.643520 237.385390 13.615534 0.000000
303.153410 246.343870 13.509770 0.000000
304.248600 246.721540 13.518032 0.000000
301.038330 247.307660 13.470790 0.000000
302.932890 247.082520 13.495802 0.000000
301.810150 247.919270 13.470245 0.000000
302.810300 248.011080 13.480315 0.000000
300.465150 248.235750 13.451447 0.000000
302.433840 248.252690 13.472330 0.000000
301.372990 249.085110 13.448547 0.000000
303.318360 246.838070 14.075272 0.000000
300.607480 247.502410 14.043661 0.000000
301.737460 247.774890 14.036173 0.000000
301.368320 248.052610 14.025814 0.000000
300.714900 249.714000 13.968958 0.000000
296.188840 260.985050 13.697828 0.000000
304.960240 245.974170 14.696661 0.000000
304.645750 246.536930 14.663645 0.000000
300.308470 246.898040 14.659741 0.000000
300.137020 247.618150 14.622675 0.000000
299.993710 248.349290 14.585287 0.000000
304.741420 246.893130 15.205667 0.000000
300.730260 247.800930 15.182861 0.000000
301.562100 248.519180 15.115469 0.000000
300.498050 249.333800 15.075487 0.000000
300.235140 249.761950 15.050293 0.000000
304.669710 248.178530 15.643089 0.000000
300.764250 248.911240 15.655727 0.000000
295.938810 260.006770 15.457711 0.000000
295.827240 260.348270 15.443583 0.000000
301.030490 247.378950 15.791676 0.000000
300.548980 246.350270 16.511280 0.000000
300.446720 249.289670 16.739044 0.000000
302.267270 246.791110 16.995497 0.000000
301.873810 247.050050 16.974842 0.000000
315.246800 236.778690 10.216297 0.000000
315.858640 236.744490 10.220621 0.000000
316.444640 237.004710 10.249678 0.000000
314.615750 237.296250 10.253468 0.000000
318.255860 237.157760 10.276571 0.000000
317.571140 237.709370 10.320815 0.000000
313.996370 238.081620 10.313551 0.000000
313.408140 238.548100 10.345044 0.000000
312.835720 238.921650 10.367716 0.000000
311.720610 239.466920 10.393182 0.000000
312.273710 239.196620 10.380997 0.000000
319.392550 245.392230 10.401889 0.000000
319.844820 245.515180 10.411270 0.000000
320.114720 246.290910 10.491266 0.000000
298.983760 237.400600 10.547171 0.000000
307.406740 240.688230 10.379831 0.000000
307.970400 240.743380 10.403405 0.000000
308.516270 240.713550 10.418156 0.000000
309.079680 240.831700 10.445564 0.000000
302.099430 242.034970 10.274381 0.000000
302.675690 242.017810 10.300642 0.000000
303.229860 241.953630 10.321099 0.000000
303.800200 241.954470 10.346926 0.000000
302.726930 245.136630 10.561778 0.000000
302.531860 245.960460 10.619477 0.000000
314.561250 247.909820 10.668963 0.000000
314.136780 248.162610 10.691596 0.000000
314.970980 247.961350 10.678928 0.000000
315.379210 248.021670 10.689060 0.000000
318.270600 248.264820 10.718349 0.000000
316.957150 248.560120 10.754051 0.000000
317.406400 248.366490 10.732579 0.000000
317.748470 248.742740 10.772415 0.000000
313.711520 248.783340 10.754046 0.000000
316.098240 248.858700 10.785027 0.000000
316.484560 248.970180 10.798325 0.000000
313.308650 249.373640 10.812716 0.000000
319.514620 252.395080 10.698593 0.000000
319.762600 252.746920 10.736561 0.000000
320.048220 252.974060 10.757174 0.000000
315.507140 253.347140 10.868768 0.000000
320.281010 253.323910 10.793709 0.000000
320.586270 253.477920 10.803122 0.000000
318.632140 254.012540 10.922432 0.000000
319.271700 256.650670 10.876335 0.000000
319.448180 256.947390 10.911206 0.000000
319.663360 257.142820 10.929282 0.000000
319.875850 257.336760 10.946531 0.000000
320.084750 257.531340 10.963306 0.000000
300.360530 237.405000 10.605454 0.000000
301.035220 237.407210 10.632935 0.000000
302.553010 247.222900 10.723480 0.000000
302.290040 247.761610 10.752936 0.000000
300.923800 248.094410 10.702240 0.000000
301.515010 248.248750 10.748631 0.000000
300.476410 249.176320 10.759695 0.000000
300.920470 249.055830 10.777250 0.000000
299.716860 249.650890 10.748422 0.000000
300.282870 249.730940 10.790280 0.000000
312.926030 249.891780 10.863023 0.000000
299.387120 249.966310 10.750858 0.000000
309.547730 250.191880 10.802618 0.000000
309.922670 250.149080 10.811163 0.000000
310.306150 250.175380 10.826836 0.000000
310.671330 250.062470 10.825940 0.000000
311.039460 249.954320 10.824940 0.000000
311.797450 249.971250 10.847045 0.000000
312.173520 249.952210 10.853911 0.000000
312.549590 249.929670 10.859673 0.000000
298.493800 250.240110 10.711746 0.000000
299.116060 250.364930 10.762662 0.000000
309.271820 250.777690 10.856126 0.000000
297.608030 251.305390 10.726559 0.000000
298.133480 251.268630 10.761166 0.000000
306.762940 251.365080 10.807157 0.000000
307.166410 251.430340 10.834295 0.000000
306.485170 251.697780 10.827702 0.000000
297.504730 251.890230 10.760012 0.000000
305.903140 252.224320 10.850752 0.000000
306.152950 251.852040 10.825956 0.000000
297.253940 252.274120 10.768124 0.000000
305.181920 252.360210 10.822693 0.000000
305.529820 252.256580 10.832655 0.000000
296.665310 252.922180 10.767731 0.000000
296.956540 252.596040 10.767884 0.000000
304.653900 252.947140 10.849590 0.000000
304.980710 252.805910 10.855810 0.000000
296.456270 253.335490 10.778969 0.000000
304.272460 253.384980 10.868570 0.000000
314.224030 253.391920 10.867643 0.000000
314.702850 253.370670 10.868740 0.000000
296.168090 253.656980 10.777421 0.000000
303.872800 253.760090 10.878756 0.000000
313.892000 253.719010 10.907228 0.000000
315.754640 253.847350 10.934385 0.000000
303.270170 254.113300 10.870665 0.000000
313.570310 254.101960 10.953628 0.000000
316.027500 254.102190 10.967075 0.000000
316.939180 254.256840 10.980810 0.000000
317.569950 254.281540 10.976032 0.000000
317.951720 254.068970 10.942722 0.000000
303.082340 254.482350 10.892342 0.000000
313.262450 254.470610 10.997634 0.000000
316.281340 254.419540 11.007303 0.000000
316.590210 254.423220 11.005620 0.000000
317.191830 254.523640 11.012369 0.000000
302.505680 254.860990 10.884604 0.000000
302.908750 254.859860 10.915218 0.000000
311.218350 254.876710 11.000374 0.000000
311.513850 254.898990 11.012733 0.000000
311.800350 254.826110 11.011581 0.000000
312.237030 254.788860 11.018242 0.000000
312.674710 254.761920 11.024945 0.000000
302.352480 255.254360 10.909210 0.000000
310.252410 255.285220 11.018175 0.000000
310.668610 255.153270 11.017336 0.000000
310.966860 255.209120 11.035543 0.000000
302.149900 255.560620 10.921234 0.000000
301.860290 256.023530 10.939451 0.000000
301.548770 256.441960 10.950594 0.000000
308.243990 256.526280 11.077801 0.000000
308.639560 256.412110 11.086033 0.000000
