# .PCD v0.7 - Point Cloud Data file format
VERSION 0.7
FIELDS x y z intensity
SIZE 4 4 4 4
TYPE F F F F
COUNT 1 1 1 1
WIDTH 1166
HEIGHT 1
VIEWPOINT 0 0 0 1 0 0 0
POINTS 1166
DATA ascii
311.485200 264.856960 12.919958 0.000000
311.705410 264.755310 13.072163 0.000000
313.018040 264.822450 13.246334 0.000000
313.245480 265.052090 13.250653 0.000000
313.722440 264.796510 13.259040 0.000000
309.474210 265.387570 13.027766 0.000000
309.628050 265.151340 13.027499 0.000000
310.214810 265.358670 12.899834 0.000000
312.275360 265.402740 13.099054 0.000000
313.354100 265.148130 13.252704 0.000000
313.791660 265.251530 13.123514 0.000000
309.414890 265.752810 12.960178 0.000000
309.718690 265.798650 12.898168 0.000000
310.089230 265.505490 12.901099 0.000000
312.461880 265.625760 13.043734 0.000000
312.927400 265.733670 13.119461 0.000000
313.337250 265.609070 13.123957 0.000000
313.805110 265.591800 13.131135 0.000000
309.392550 265.933990 12.889882 0.000000
316.669860 278.703490 13.237185 0.000000
316.560090 278.792820 13.058698 0.000000
311.115510 261.891850 13.423440 0.000000
312.161440 262.013280 13.228293 0.000000
310.781590 262.663540 13.602874 0.000000
310.806000 262.743960 13.402022 0.000000
311.471800 262.870760 13.408316 0.000000
311.712770 262.931980 13.505472 0.000000
310.540250 263.394350 13.385633 0.000000
312.110350 263.387120 13.496698 0.000000
312.577300 263.456630 13.589342 0.000000
312.863310 263.504730 13.417045 0.000000
313.282290 263.507260 13.424561 0.000000
313.566860 263.427640 13.431636 0.000000
311.279450 263.745610 13.474617 0.000000
312.165040 263.511320 13.229724 0.000000
312.599060 263.735750 13.410030 0.000000
312.933500 263.723080 13.583791 0.000000
313.204650 263.815490 13.584736 0.000000
310.361570 264.262660 13.535604 0.000000
312.613340 263.940090 13.238216 0.000000
313.007260 263.955470 13.410167 0.000000
313.268590 264.021610 13.413578 0.000000
313.706270 264.269230 13.416835 0.000000
296.356720 264.244660 13.342488 0.000000
310.313110 264.507350 13.525740 0.000000
310.394930 264.528080 13.361835 0.000000
313.512420 264.375210 13.254860 0.000000
314.069210 264.427220 13.343596 0.000000
310.240970 264.755400 13.435988 0.000000
313.298280 265.033870 13.391677 0.000000
313.768220 265.071690 13.472181 0.000000
314.161160 264.995360 13.555485 0.000000
309.843140 265.306610 13.494715 0.000000
313.350250 265.120670 13.531763 0.000000
309.684360 265.521270 13.487116 0.000000
316.655700 278.687530 13.587430 0.000000
316.543270 278.773800 13.498415 0.000000
311.179050 261.318760 13.662417 0.000000
296.497190 261.553890 13.366779 0.000000
309.574010 261.653720 13.866508 0.000000
310.380130 261.830020 13.854300 0.000000
311.042570 261.553960 13.651223 0.000000
309.746030 262.126620 13.619352 0.000000
310.487880 262.203060 13.619886 0.000000
296.305730 262.409850 13.358448 0.000000
296.665560 262.230770 13.359812 0.000000
310.762660 262.604520 13.806401 0.000000
312.368130 262.692260 14.006359 0.000000
311.733220 262.862730 13.891107 0.000000
312.502900 262.945950 13.892111 0.000000
314.528290 262.740970 14.049397 0.000000
310.450740 263.463900 13.845839 0.000000
312.257570 263.111330 13.783971 0.000000
312.637330 263.326320 13.775139 0.000000
312.956360 263.257750 13.875018 0.000000
313.277310 263.268250 13.970823 0.000000
313.635440 263.307430 13.975351 0.000000
314.267520 263.446200 13.980800 0.000000
311.348510 263.764070 13.822070 0.000000
313.204650 263.580780 13.768271 0.000000
314.141240 263.861600 13.771873 0.000000
314.476380 263.901430 13.778946 0.000000
309.802890 264.008540 13.903064 0.000000
314.741820 263.950500 13.784048 0.000000
309.794460 264.332980 13.877594 0.000000
310.098660 264.679080 13.681604 0.000000
312.630650 264.448790 14.013563 0.000000
313.734860 264.551640 13.870458 0.000000
309.815190 264.841670 13.837454 0.000000
310.011960 264.952300 13.666319 0.000000
313.460480 265.103610 13.675143 0.000000
313.751920 264.998110 13.761071 0.000000
309.302370 265.371430 13.968041 0.000000
309.767940 265.236080 13.731321 0.000000
313.879000 265.335780 13.807006 0.000000
308.975740 265.777440 13.945279 0.000000
309.341770 265.608400 13.794326 0.000000
309.576930 265.522860 13.715429 0.000000
308.657290 265.968990 13.943867 0.000000
308.769440 265.912170 13.943180 0.000000
316.641600 278.671570 13.937155 0.000000
316.526490 278.754850 13.937016 0.000000
296.172420 261.162020 13.803594 0.000000
310.081910 261.470000 14.336900 0.000000
295.998200 261.460600 13.800529 0.000000
308.857790 261.854190 14.321505 0.000000
313.227570 261.757840 14.315362 0.000000
309.382970 262.182340 14.276094 0.000000
312.654330 262.274900 14.249621 0.000000
314.655240 261.949770 14.334614 0.000000
309.606510 262.279720 14.261494 0.000000
310.642000 262.493350 14.223514 0.000000
310.745420 262.552150 14.012606 0.000000
313.766850 262.449770 14.454023 0.000000
314.245640 262.481350 14.263467 0.000000
314.425110 262.352660 14.283286 0.000000
296.408420 262.841980 13.764316 0.000000
311.835720 262.816160 14.281757 0.000000
312.905980 262.783780 14.198110 0.000000
313.435700 262.827730 14.299940 0.000000
313.668520 262.784550 14.213966 0.000000
310.206150 263.454620 14.224290 0.000000
310.530270 263.485080 14.121548 0.000000
310.399510 263.561520 14.207964 0.000000
311.299380 263.878330 14.072086 0.000000
311.643400 263.875340 14.242652 0.000000
309.615080 264.126950 14.256600 0.000000
311.377660 263.927550 14.238513 0.000000
311.581150 264.087160 14.300056 0.000000
312.383420 264.176760 14.285385 0.000000
295.923650 264.412380 13.747214 0.000000
309.577880 264.521030 14.039052 0.000000
312.556790 264.338710 14.264071 0.000000
312.779050 264.406520 14.256787 0.000000
313.302280 264.470060 14.335373 0.000000
309.267610 264.939940 14.177282 0.000000
309.537930 264.738620 14.019303 0.000000
308.902920 265.349270 14.234375 0.000000
309.172150 265.164490 14.156774 0.000000
308.654510 265.766570 14.121278 0.000000
308.806030 265.652800 14.124003 0.000000
316.509640 278.735810 14.376913 0.000000
316.627440 278.655610 14.287689 0.000000
308.575130 261.217740 14.640219 0.000000
308.858800 261.389190 14.610152 0.000000
313.316680 261.367160 14.584099 0.000000
309.108150 261.499510 14.589004 0.000000
312.883910 261.816990 14.517269 0.000000
313.138640 261.538910 14.558029 0.000000
314.626340 261.828460 14.673096 0.000000
311.977540 262.066500 14.476105 0.000000
314.282900 262.134120 14.721875 0.000000
314.439640 262.228270 14.504868 0.000000
310.624300 262.448610 14.540368 0.000000
312.045870 262.682920 14.593930 0.000000
313.832820 262.570190 14.639910 0.000000
314.163570 262.452330 14.567620 0.000000
311.824280 262.773900 14.580486 0.000000
313.280030 262.777980 14.593300 0.000000
310.222660 263.515010 14.499823 0.000000
310.409880 263.606960 14.480540 0.000000
309.411770 264.202270 14.437207 0.000000
297.039340 264.214360 14.496727 0.000000
309.101620 264.520840 14.411057 0.000000
309.260040 264.371090 14.422287 0.000000
316.502870 278.728180 14.553866 0.000000
316.616790 278.643550 14.551832 0.000000
308.944310 261.097560 14.891640 0.000000
296.682740 262.251980 14.594162 0.000000
296.695860 262.632320 14.577640 0.000000
296.337340 261.280400 15.519756 0.000000
295.958620 261.851260 15.518276 0.000000
296.084870 263.426420 15.411700 0.000000
296.747740 264.765960 15.665264 0.000000
295.789580 261.359310 16.010698 0.000000
296.090880 261.134310 15.994048 0.000000
296.042080 261.902340 15.940489 0.000000
297.305240 267.264560 11.026601 0.000000
297.332090 276.457820 11.058893 0.000000
297.337620 276.791720 11.051167 0.000000
300.739840 276.755310 11.113428 0.000000
303.230680 276.935700 11.152177 0.000000
297.189880 277.177400 11.023321 0.000000
300.800840 277.160740 11.104969 0.000000
303.288540 277.160130 11.147556 0.000000
300.250060 261.144930 11.053512 0.000000
304.699980 261.327030 11.180393 0.000000
304.854950 261.122160 11.176756 0.000000
308.242830 261.388790 11.261604 0.000000
308.493710 261.186740 11.259135 0.000000
311.003690 261.431300 11.260854 0.000000
311.328030 261.210880 11.248224 0.000000
304.484830 261.647250 11.187805 0.000000
307.842220 261.744720 11.267332 0.000000
307.999880 261.599820 11.264904 0.000000
310.770450 261.610720 11.272038 0.000000
299.739230 262.128750 11.064146 0.000000
299.977510 261.908140 11.075531 0.000000
304.154270 262.030330 11.186774 0.000000
307.460390 262.116820 11.273405 0.000000
307.687810 261.892490 11.269899 0.000000
310.113040 262.182130 11.306627 0.000000
299.613830 262.419430 11.068601 0.000000
303.819610 262.409670 11.182608 0.000000
307.024480 262.580200 11.280658 0.000000
307.239380 262.346500 11.277146 0.000000
309.774110 262.516170 11.325949 0.000000
299.599460 262.771390 11.088150 0.000000
303.452850 262.924770 11.183781 0.000000
303.591400 262.712770 11.182307 0.000000
306.539830 262.987180 11.270361 0.000000
306.784790 262.785710 11.276768 0.000000
309.375520 262.906740 11.343850 0.000000
299.278380 263.128540 11.073598 0.000000
303.253050 263.247190 11.186162 0.000000
306.216030 263.261690 11.260937 0.000000
308.959560 263.254610 11.348291 0.000000
311.037020 263.238830 11.564867 0.000000
299.169460 263.597500 11.087562 0.000000
303.001710 263.685000 11.189867 0.000000
305.754270 263.702550 11.248754 0.000000
305.981930 263.478210 11.254725 0.000000
308.270050 263.829530 11.344504 0.000000
308.557250 263.613860 11.351026 0.000000
302.823700 264.018310 11.192877 0.000000
305.470920 264.020420 11.243492 0.000000
307.847230 264.166900 11.333236 0.000000
308.055080 263.993680 11.338338 0.000000
298.931030 264.340520 11.099236 0.000000
302.627990 264.340120 11.191367 0.000000
305.047910 264.633360 11.244355 0.000000
305.224330 264.367460 11.243826 0.000000
307.388400 264.479740 11.308598 0.000000
307.692990 264.267880 11.325040 0.000000
299.005770 264.872440 11.133597 0.000000
302.259120 264.855260 11.179185 0.000000
302.404600 264.647130 11.184110 0.000000
304.880310 264.904600 11.245191 0.000000
306.941860 264.819400 11.284189 0.000000
299.154240 265.257290 11.168463 0.000000
301.989900 265.285950 11.171371 0.000000
304.668090 265.272460 11.246557 0.000000
306.585660 265.242130 11.277993 0.000000
299.035310 265.531860 11.166902 0.000000
301.920100 265.807710 11.193282 0.000000
301.952850 265.547300 11.182362 0.000000
304.466430 265.645570 11.247614 0.000000
306.286160 265.707490 11.280387 0.000000
306.382630 265.550350 11.279474 0.000000
298.979890 265.987400 11.179591 0.000000
301.890810 266.066740 11.204012 0.000000
304.243130 266.007390 11.242281 0.000000
306.102840 266.026890 11.282398 0.000000
301.857420 266.453950 11.220317 0.000000
304.023440 266.373470 11.235525 0.000000
305.847140 266.515440 11.285719 0.000000
305.929230 266.351140 11.284578 0.000000
298.891110 266.735630 11.198067 0.000000
303.879180 266.659030 11.232940 0.000000
305.746980 266.773040 11.291162 0.000000
297.970370 267.106660 11.101249 0.000000
298.737730 266.999020 11.189162 0.000000
300.587310 267.237820 11.081987 0.000000
301.086850 267.118470 11.146442 0.000000
301.677830 267.045900 11.225119 0.000000
302.886540 267.211940 11.111266 0.000000
303.317470 267.131840 11.174838 0.000000
303.808070 267.089320 11.249464 0.000000
304.595700 267.293180 11.131268 0.000000
304.998720 267.145510 11.191573 0.000000
305.391170 267.113370 11.257711 0.000000
297.298220 267.589870 11.035448 0.000000
300.546260 267.636410 11.092468 0.000000
302.824220 267.547760 11.119628 0.000000
304.498840 267.678100 11.140350 0.000000
297.424290 267.939910 11.060431 0.000000
300.514100 268.034090 11.102951 0.000000
302.757690 267.996730 11.131475 0.000000
304.419460 268.065730 11.150318 0.000000
297.234740 268.384700 11.048787 0.000000
300.493870 268.430600 11.113581 0.000000
302.696320 268.557430 11.146471 0.000000
302.717770 268.333310 11.140457 0.000000
304.354370 268.454220 11.160515 0.000000
297.332340 268.879910 11.071998 0.000000
300.484500 268.826230 11.124527 0.000000
302.672330 268.893160 11.155619 0.000000
304.291600 268.940030 11.173371 0.000000
304.313840 268.745700 11.168185 0.000000
297.359010 269.199400 11.081764 0.000000
300.536290 269.227260 11.142888 0.000000
302.655330 269.228000 11.164685 0.000000
304.265110 269.231350 11.181239 0.000000
297.393740 269.517360 11.091887 0.000000
300.495910 269.611540 11.146397 0.000000
302.648650 269.561830 11.173938 0.000000
304.258880 269.622190 11.195254 0.000000
297.434630 269.833500 11.102136 0.000000
300.519740 270.001130 11.157793 0.000000
302.655790 270.005370 11.186915 0.000000
304.279050 270.012390 11.211838 0.000000
302.693390 270.338470 11.200554 0.000000
302.714230 270.558010 11.208109 0.000000
304.312350 270.398770 11.228424 0.000000
304.311190 270.683290 11.234331 0.000000
302.708440 272.941960 11.212874 0.000000
304.321930 272.852910 11.238984 0.000000
300.563540 273.186950 11.178721 0.000000
302.743710 273.266330 11.214014 0.000000
304.374940 273.227720 11.241663 0.000000
297.563780 273.529540 11.133469 0.000000
300.606080 273.567350 11.180395 0.000000
302.811770 273.695980 11.217112 0.000000
304.440550 273.600490 11.244425 0.000000
297.540470 274.155490 11.124866 0.000000
300.638210 273.950100 11.179365 0.000000
302.844600 274.022310 11.214883 0.000000
304.505100 273.974180 11.244617 0.000000
297.334140 274.504210 11.095573 0.000000
300.608280 274.346950 11.167725 0.000000
302.854280 274.355960 11.207182 0.000000
304.538510 274.357700 11.236350 0.000000
297.556340 274.782320 11.118656 0.000000
300.603610 274.743320 11.158515 0.000000
302.880830 274.802550 11.197127 0.000000
304.599520 274.838260 11.226072 0.000000
297.383090 275.135380 11.092121 0.000000
300.608490 275.142700 11.149103 0.000000
302.923830 275.250700 11.187313 0.000000
304.681700 275.318700 11.216207 0.000000
297.352970 275.465150 11.082660 0.000000
300.623080 275.543850 11.139817 0.000000
302.983580 275.699710 11.177765 0.000000
304.764280 275.702240 11.208595 0.000000
297.339260 275.794590 11.074572 0.000000
297.478880 276.087430 11.085011 0.000000
300.640660 275.811950 11.133904 0.000000
300.662110 276.080990 11.127901 0.000000
303.039150 276.036620 11.170810 0.000000
304.859470 276.085300 11.200851 0.000000
300.689060 276.350430 11.122036 0.000000
303.105130 276.373410 11.163998 0.000000
304.967250 276.467590 11.192952 0.000000
303.178250 276.710420 11.157068 0.000000
305.089720 276.847690 11.185311 0.000000
297.943880 277.269560 11.109331 0.000000
301.221440 277.276000 11.156875 0.000000
301.560030 277.413940 11.196066 0.000000
303.559810 277.279420 11.181296 0.000000
303.929440 277.339780 11.233062 0.000000
305.353210 277.265470 11.195570 0.000000
305.657530 277.309570 11.241903 0.000000
305.871950 277.401460 11.268731 0.000000
298.368740 277.453370 11.153408 0.000000
301.944950 277.520870 11.242354 0.000000
304.137760 277.476200 11.255005 0.000000
304.712800 277.763550 11.319032 0.000000
306.068540 277.499660 11.291518 0.000000
306.440370 277.696440 11.331615 0.000000
299.262730 277.924990 11.241001 0.000000
302.515440 277.936190 11.295955 0.000000
302.792600 278.206090 11.316858 0.000000
304.949580 277.988370 11.336203 0.000000
305.224950 278.181370 11.359961 0.000000
306.851040 278.080260 11.356261 0.000000
299.606140 278.263120 11.267755 0.000000
299.832060 278.483730 11.284679 0.000000
302.981380 278.379610 11.330935 0.000000
303.172850 278.548340 11.345076 0.000000
305.562230 278.449310 11.384707 0.000000
307.241910 278.470090 11.372069 0.000000
300.058200 278.699830 11.301250 0.000000
300.284880 278.911290 11.317520 0.000000
303.365390 278.713170 11.359042 0.000000
303.655240 278.953280 11.379478 0.000000
305.790220 278.662780 11.397369 0.000000
306.020290 278.870760 11.409418 0.000000
307.420960 278.804170 11.359801 0.000000
307.619750 278.996430 11.364804 0.000000
300.698300 279.343290 11.343563 0.000000
303.994510 279.296510 11.397519 0.000000
306.384460 279.227970 11.423237 0.000000
307.985380 279.278690 11.379625 0.000000
308.582240 279.418490 11.438957 0.000000
300.746520 279.644470 11.334362 0.000000
304.296170 279.660740 11.407340 0.000000
306.794190 279.677760 11.429880 0.000000
308.816070 279.553530 11.449924 0.000000
309.213590 279.760380 11.468874 0.000000
320.394320 279.862670 11.657902 0.000000
320.663450 279.645020 11.666320 0.000000
295.982300 279.839660 11.253832 0.000000
300.889500 279.893950 11.337439 0.000000
301.121520 280.088840 11.352322 0.000000
304.505520 279.946170 11.410437 0.000000
304.631100 280.148470 11.409221 0.000000
307.147980 280.041780 11.434413 0.000000
309.602810 279.970920 11.483174 0.000000
309.992680 280.173740 11.495036 0.000000
319.683440 280.361970 11.637679 0.000000
319.975340 280.172420 11.645195 0.000000
295.933530 280.261690 11.236413 0.000000
301.170780 280.396550 11.341252 0.000000
304.760770 280.348720 11.408095 0.000000
307.327150 280.299260 11.427375 0.000000
307.588010 280.625460 11.420396 0.000000
310.388060 280.362240 11.506424 0.000000
310.709320 280.499850 11.515489 0.000000
319.301360 280.570560 11.630445 0.000000
319.532440 280.448700 11.634592 0.000000
296.169560 280.964970 11.235295 0.000000
301.480560 280.882320 11.346783 0.000000
304.960910 280.808440 11.392710 0.000000
305.172640 280.937710 11.404975 0.000000
307.774930 280.720730 11.430078 0.000000
308.055910 280.858120 11.444201 0.000000
308.338230 280.988860 11.458158 0.000000
310.900120 280.712010 11.499682 0.000000
311.215270 280.870910 11.500957 0.000000
311.643190 280.984830 11.515951 0.000000
311.986080 281.065580 11.527136 0.000000
318.112580 281.130710 11.601564 0.000000
318.370480 281.069730 11.600574 0.000000
318.714260 280.982300 11.598435 0.000000
319.115660 280.797880 11.606163 0.000000
296.515230 281.200620 11.258698 0.000000
301.735900 281.053860 11.363194 0.000000
301.988460 281.222780 11.378931 0.000000
302.239560 281.388310 11.394174 0.000000
305.388520 281.059750 11.417757 0.000000
305.598720 281.184170 11.429175 0.000000
305.919220 281.359280 11.446795 0.000000
308.524540 281.075620 11.466586 0.000000
308.812230 281.188690 11.481052 0.000000
309.189510 281.340910 11.497749 0.000000
309.472530 281.449130 11.509686 0.000000
312.415100 281.154690 11.539923 0.000000
312.843020 281.238040 11.550461 0.000000
313.186250 281.294710 11.558108 0.000000
313.616330 281.352330 11.566820 0.000000
314.047300 281.396970 11.574653 0.000000
314.392670 281.422240 11.580221 0.000000
314.824920 281.440890 11.586308 0.000000
315.257630 281.446350 11.591547 0.000000
315.604000 281.440340 11.595030 0.000000
315.950440 281.425350 11.597918 0.000000
316.383450 281.393550 11.600637 0.000000
316.816350 281.349000 11.602408 0.000000
317.681030 281.217190 11.602873 0.000000
317.939790 281.166320 11.602360 0.000000
320.513920 281.526790 11.659605 0.000000
296.852230 281.433170 11.280864 0.000000
297.188050 281.658940 11.302619 0.000000
302.491670 281.548650 11.409302 0.000000
303.067350 281.794860 11.449738 0.000000
306.346800 281.581970 11.469507 0.000000
306.784240 281.779720 11.493420 0.000000
309.661740 281.517360 11.517481 0.000000
309.946140 281.613920 11.528910 0.000000
310.325500 281.734680 11.543457 0.000000
310.710330 281.833130 11.559316 0.000000
311.109620 281.882260 11.580877 0.000000
319.284480 281.922700 11.670900 0.000000
319.669130 281.824550 11.666275 0.000000
320.046420 281.700530 11.663403 0.000000
320.327300 281.598480 11.661236 0.000000
297.658450 281.797880 11.339170 0.000000
298.196040 281.881810 11.383307 0.000000
298.708710 281.964510 11.424775 0.000000
303.574740 281.892790 11.491649 0.000000
304.066380 281.985660 11.531383 0.000000
304.356200 282.072140 11.551939 0.000000
304.616240 282.181760 11.567612 0.000000
307.154850 281.863920 11.520350 0.000000
307.528560 281.928190 11.548251 0.000000
308.015050 282.008420 11.583221 0.000000
308.478240 282.099300 11.613029 0.000000
308.798190 282.199100 11.628469 0.000000
309.010500 282.262480 11.638362 0.000000
311.505520 281.920650 11.601619 0.000000
311.992740 281.961910 11.625001 0.000000
312.472560 281.999760 11.645472 0.000000
312.851100 282.029790 11.659247 0.000000
313.226870 282.055850 11.671459 0.000000
313.600340 282.078640 11.682048 0.000000
313.971770 282.101590 11.690553 0.000000
314.342440 282.119870 11.697724 0.000000
314.712770 282.132810 11.703693 0.000000
315.175750 282.140750 11.709476 0.000000
315.639310 282.140230 11.713617 0.000000
316.011050 282.132900 11.715641 0.000000
316.383880 282.120210 11.716462 0.000000
316.759220 282.108250 11.715160 0.000000
317.042390 282.097530 11.713171 0.000000
317.903630 282.051090 11.702003 0.000000
318.391240 282.015320 11.692465 0.000000
318.886260 281.973110 11.680588 0.000000
299.509030 282.235900 11.482124 0.000000
299.881500 282.374970 11.507516 0.000000
300.247440 282.509250 11.532072 0.000000
304.877530 282.284760 11.583381 0.000000
305.137300 282.383970 11.598802 0.000000
305.394740 282.480470 11.613734 0.000000
309.222110 282.323580 11.647959 0.000000
309.538270 282.410460 11.661798 0.000000
320.035710 282.650700 11.807199 0.000000
320.450560 282.531590 11.803224 0.000000
310.976590 263.305940 11.879203 0.000000
311.270510 263.179290 11.986388 0.000000
316.575530 278.884520 12.020959 0.000000
316.816990 278.768100 12.034370 0.000000
305.650670 282.573490 11.628312 0.000000
309.959720 282.514800 11.679906 0.000000
310.378780 282.609740 11.696977 0.000000
310.691530 282.675750 11.709074 0.000000
319.724090 282.731900 11.809912 0.000000
300.784820 282.700810 11.567436 0.000000
301.311830 282.882540 11.601459 0.000000
301.649780 283.003170 11.622439 0.000000
306.030730 282.707240 11.649348 0.000000
306.407680 282.834690 11.669673 0.000000
306.780730 282.954860 11.689088 0.000000
310.897090 282.722870 11.715950 0.000000
311.207430 282.781680 11.726827 0.000000
311.620540 282.850650 11.740831 0.000000
312.032170 282.910580 11.753951 0.000000
312.440310 282.970830 11.764975 0.000000
312.844300 283.040280 11.772801 0.000000
313.147770 283.086940 11.778189 0.000000
318.063420 283.053680 11.818800 0.000000
318.373840 283.004910 11.818049 0.000000
318.788300 282.931700 11.816437 0.000000
319.203640 282.848820 11.814036 0.000000
319.515720 282.780640 11.811726 0.000000
301.973510 283.128080 11.641598 0.000000
302.293430 283.248930 11.660200 0.000000
302.609860 283.365720 11.678288 0.000000
307.150790 283.069370 11.707803 0.000000
307.513400 283.183170 11.724848 0.000000
307.992220 283.327330 11.746350 0.000000
308.350040 283.426820 11.762000 0.000000
313.350310 283.115260 11.781509 0.000000
313.654450 283.154970 11.785907 0.000000
314.061000 283.198820 11.791372 0.000000
314.468570 283.234800 11.795979 0.000000
314.775150 283.250240 11.799734 0.000000
315.082120 283.256290 11.803510 0.000000
315.491730 283.256650 11.807948 0.000000
315.901760 283.248170 11.811633 0.000000
316.312260 283.230440 11.814600 0.000000
316.723300 283.203700 11.816809 0.000000
317.134890 283.167850 11.818270 0.000000
295.908810 283.746430 11.605459 0.000000
302.925350 283.476100 11.696198 0.000000
303.231630 283.588500 11.712844 0.000000
303.538300 283.693760 11.729476 0.000000
303.841460 283.795780 11.745593 0.000000
308.571260 283.519290 11.768300 0.000000
308.799410 283.596530 11.775986 0.000000
309.153560 283.681980 11.790169 0.000000
309.620480 283.793150 11.807515 0.000000
309.969150 283.869870 11.819949 0.000000
296.300260 283.962860 11.625571 0.000000
296.693050 284.169620 11.645623 0.000000
304.141630 283.894440 11.761249 0.000000
304.439150 283.989440 11.776497 0.000000
304.734100 284.080960 11.791340 0.000000
305.026180 284.169530 11.805737 0.000000
310.318850 283.933780 11.832551 0.000000
310.781370 284.014590 11.848115 0.000000
311.237610 284.098300 11.861320 0.000000
311.579070 284.154850 11.870713 0.000000
311.922090 284.195950 11.880630 0.000000
312.376460 284.249940 11.892370 0.000000
312.712920 284.302860 11.898661 0.000000
319.235630 284.311370 11.935996 0.000000
319.586550 284.248290 11.934571 0.000000
319.937840 284.176970 11.932824 0.000000
320.405850 284.068790 11.930264 0.000000
297.238340 284.258480 11.679275 0.000000
297.693300 284.397310 11.704818 0.000000
298.138090 284.531460 11.729419 0.000000
305.316440 284.254030 11.819838 0.000000
305.603880 284.335910 11.833491 0.000000
305.889160 284.414490 11.846794 0.000000
306.312500 284.526610 11.865993 0.000000
306.731410 284.633300 11.884450 0.000000
312.937320 284.335820 11.902519 0.000000
313.161830 284.366910 11.906139 0.000000
313.498990 284.409240 11.911160 0.000000
313.949340 284.459050 11.917120 0.000000
314.400820 284.500730 11.922216 0.000000
314.740360 284.526210 11.925577 0.000000
315.080840 284.546630 11.928395 0.000000
315.536250 284.567170 11.931419 0.000000
315.993620 284.578550 11.933678 0.000000
316.338010 284.582060 11.934813 0.000000
316.683840 284.580140 11.935423 0.000000
317.146940 284.569460 11.935609 0.000000
317.493440 284.542480 11.936605 0.000000
318.420170 284.437130 11.937650 0.000000
318.769010 284.386570 11.937258 0.000000
298.573790 284.660770 11.753166 0.000000
299.003510 284.783200 11.776350 0.000000
299.418760 284.906400 11.798163 0.000000
307.145320 284.733030 11.902044 0.000000
307.549960 284.837190 11.917969 0.000000
307.944580 284.946750 11.931926 0.000000
308.340000 285.045500 11.945890 0.000000
299.840880 285.012540 11.820641 0.000000
300.247620 285.121090 11.841660 0.000000
300.653840 285.219300 11.862649 0.000000
301.057250 285.309110 11.883407 0.000000
301.447390 285.401280 11.902877 0.000000
308.710780 285.185610 11.954535 0.000000
309.213290 285.347110 11.967009 0.000000
309.605380 285.424380 11.979394 0.000000
309.865690 285.472170 11.987350 0.000000
301.819270 285.502230 11.920512 0.000000
302.361150 285.652440 11.945320 0.000000
302.879880 285.811860 11.967645 0.000000
310.125610 285.516330 11.995173 0.000000
310.384460 285.558750 12.002692 0.000000
310.770900 285.618620 12.013396 0.000000
311.154970 285.677340 12.023315 0.000000
311.537020 285.733180 12.032406 0.000000
311.918090 285.785220 12.040992 0.000000
312.298070 285.833400 12.048873 0.000000
312.675380 285.890350 12.055193 0.000000
320.470120 285.941990 12.086563 0.000000
320.737060 285.886600 12.085974 0.000000
303.217990 285.916810 11.981653 0.000000
303.552120 286.019230 11.995184 0.000000
312.926760 285.927950 12.058911 0.000000
313.178590 285.962100 12.062536 0.000000
313.556920 286.008700 12.067588 0.000000
313.935850 286.052090 12.072140 0.000000
319.936250 286.039640 12.087516 0.000000
320.203430 285.993740 12.087015 0.000000
311.404140 263.090300 12.188033 0.000000
310.844450 263.320280 12.280283 0.000000
311.283020 263.212160 12.295117 0.000000
312.549710 264.408480 12.390678 0.000000
313.876100 265.072750 12.228080 0.000000
316.566380 278.859770 12.358863 0.000000
316.809660 278.754270 12.368246 0.000000
311.083250 262.782470 12.559939 0.000000
311.385560 263.062960 12.792273 0.000000
311.543240 263.017610 12.593447 0.000000
310.622920 263.343050 12.779960 0.000000
310.907590 263.362670 12.591015 0.000000
311.412450 263.119750 12.595046 0.000000
311.251010 263.522130 12.516906 0.000000
307.957210 264.031190 12.477349 0.000000
308.447170 264.043210 12.724965 0.000000
312.175480 264.186100 12.694464 0.000000
312.360110 264.287320 12.707978 0.000000
312.532680 264.370700 12.636456 0.000000
313.113860 264.487240 12.746808 0.000000
313.871580 265.077450 12.664745 0.000000
310.203770 265.624510 12.691394 0.000000
316.733430 278.733730 12.780365 0.000000
316.555270 278.830230 12.773964 0.000000
313.497830 261.082030 13.212920 0.000000
311.436190 261.832730 13.189384 0.000000
295.930080 262.399380 12.986253 0.000000
296.127080 262.895570 12.991422 0.000000
310.641910 263.383880 13.085582 0.000000
310.790860 263.320130 13.087570 0.000000
313.277440 263.487120 13.222357 0.000000
296.736540 263.556340 13.002918 0.000000
311.286990 263.606450 12.909158 0.000000
311.774260 263.581180 12.827580 0.000000
312.264560 263.630370 13.209634 0.000000
312.452940 263.732940 13.212664 0.000000
296.485260 263.829710 13.000984 0.000000
312.289150 264.102450 12.866540 0.000000
312.575440 264.089900 13.046333 0.000000
312.886290 264.403840 12.896880 0.000000
313.500240 264.482600 13.073136 0.000000
313.881350 264.486110 13.235518 0.000000
309.734830 265.059720 13.000637 0.000000
310.256620 264.907810 13.011138 0.000000
310.468990 264.715030 13.013533 0.000000
312.236210 265.028660 13.216446 0.000000
313.142490 265.051210 13.228604 0.000000
313.866210 265.077270 13.095315 0.000000
309.502960 265.455350 13.002786 0.000000
309.679810 265.220310 13.002643 0.000000
310.152710 265.237550 12.930563 0.000000
312.109190 265.336060 13.216339 0.000000
312.548770 265.310270 13.222047 0.000000
313.373350 265.233180 13.232607 0.000000
313.581760 265.368290 13.236072 0.000000
309.343960 265.702700 13.003452 0.000000
309.840030 265.821590 12.851085 0.000000
310.090270 265.595090 12.853005 0.000000
312.568730 265.651610 13.084933 0.000000
312.912600 265.778260 13.095498 0.000000
313.340360 265.712100 13.102439 0.000000
313.766140 265.607360 13.173512 0.000000
309.227420 266.031950 12.920612 0.000000
309.696230 265.964110 12.850122 0.000000
312.868530 265.951970 12.968250 0.000000
316.679350 278.711640 13.184965 0.000000
316.544430 278.801570 13.182128 0.000000
311.478180 262.882320 13.399331 0.000000
311.689940 262.974580 13.399021 0.000000
310.554530 263.399600 13.388319 0.000000
312.135930 263.388850 13.489725 0.000000
312.507050 263.441930 13.581624 0.000000
310.153840 263.827580 13.580760 0.000000
311.353490 263.758670 13.479558 0.000000
312.613370 263.654660 13.484720 0.000000
312.913640 263.798460 13.482381 0.000000
313.158360 263.614930 13.398803 0.000000
312.957890 263.953030 13.391831 0.000000
310.296880 264.464720 13.559272 0.000000
310.369750 264.570500 13.372193 0.000000
313.856900 264.351930 13.393064 0.000000
314.055080 264.396610 13.394310 0.000000
310.191190 264.823490 13.459209 0.000000
313.773320 265.073700 13.452518 0.000000
314.138580 265.000090 13.529016 0.000000
309.792910 265.358250 13.539407 0.000000
310.009800 265.174710 13.364521 0.000000
309.705840 265.473180 13.537549 0.000000
312.218480 265.828920 13.497908 0.000000
313.849880 265.586730 13.372852 0.000000
312.281980 266.193420 13.616490 0.000000
316.715700 278.698940 13.587583 0.000000
316.534270 278.775940 13.586740 0.000000
296.486240 261.440160 13.449753 0.000000
309.682950 261.634580 13.902143 0.000000
310.971590 261.666900 13.647924 0.000000
310.168670 262.136840 13.635900 0.000000
295.785740 262.331150 13.449824 0.000000
296.408170 262.225040 13.446357 0.000000
314.813870 262.594020 14.019003 0.000000
311.743680 262.899930 13.703170 0.000000
312.231230 263.090850 13.788818 0.000000
312.523040 262.989290 13.890208 0.000000
314.631620 262.824400 13.903342 0.000000
310.567690 263.426390 13.590021 0.000000
312.989720 263.261540 13.961729 0.000000
313.296480 263.271420 13.958971 0.000000
313.776030 263.482180 13.940646 0.000000
309.924990 263.773320 13.787993 0.000000
310.509030 263.490110 13.790112 0.000000
311.317230 263.778140 13.855435 0.000000
311.516050 263.764770 13.945691 0.000000
314.152190 263.656490 13.927028 0.000000
311.425380 263.919740 13.936357 0.000000
314.389040 263.947170 13.737574 0.000000
309.685880 264.398710 13.959076 0.000000
309.979550 264.407260 13.755732 0.000000
309.762050 264.928990 13.831528 0.000000
309.999080 264.811920 13.735962 0.000000
313.682070 265.069520 13.668023 0.000000
314.117770 265.002260 13.672818 0.000000
309.458980 265.415830 13.905540 0.000000
309.645360 265.244110 13.818048 0.000000
313.396640 265.113560 13.665858 0.000000
309.061250 265.834080 13.900709 0.000000
309.348790 265.663450 13.807640 0.000000
309.584900 265.551360 13.714336 0.000000
308.858460 265.942660 13.905179 0.000000
312.260440 266.375490 13.735584 0.000000
316.708830 278.686000 13.909250 0.000000
316.526310 278.756230 13.909430 0.000000
296.074830 261.217860 13.924746 0.000000
295.951720 261.578520 13.922322 0.000000
313.100920 261.964870 14.279500 0.000000
314.634490 262.131650 14.261998 0.000000
311.847170 262.479400 14.036901 0.000000
311.959350 262.295380 14.263454 0.000000
312.733950 262.579680 14.221255 0.000000
313.705930 262.570950 14.413907 0.000000
314.147030 262.610990 14.309008 0.000000
314.409760 262.426330 14.229760 0.000000
295.946140 262.814000 13.905186 0.000000
296.522030 262.682650 13.891803 0.000000
311.761690 262.847230 14.111790 0.000000
311.946690 262.766050 14.217465 0.000000
312.956910 262.816620 14.194367 0.000000
313.204860 262.863530 14.284322 0.000000
313.765930 262.943240 14.175323 0.000000
314.048550 262.767180 14.193142 0.000000
310.303040 263.461240 14.000632 0.000000
310.465520 263.501130 14.094666 0.000000
311.385590 263.844970 14.317788 0.000000
311.613400 263.806520 14.219883 0.000000
311.327120 263.976500 14.212594 0.000000
311.618010 263.996610 14.290659 0.000000
312.613100 264.252140 14.396094 0.000000
309.384090 264.397860 14.171389 0.000000
312.595060 264.399870 14.208750 0.000000
312.873870 264.416440 14.281856 0.000000
313.484620 264.481570 14.338932 0.000000
308.888000 265.028110 14.349294 0.000000
309.345980 264.841460 14.138376 0.000000
308.909120 265.326020 14.226312 0.000000
309.130550 265.281520 14.117779 0.000000
308.841740 265.627620 14.111396 0.000000
311.642120 266.067720 14.131916 0.000000
311.728850 266.502380 14.142559 0.000000
311.865330 266.885190 14.085845 0.000000
316.512300 278.721590 14.476103 0.000000
316.700230 278.669770 14.313221 0.000000
316.518310 278.736450 14.232660 0.000000
309.492890 261.299990 14.690863 0.000000
308.822240 261.751800 14.422009 0.000000
309.818760 261.690550 14.385784 0.000000
312.811400 261.856630 14.512648 0.000000
314.614380 261.811890 14.725962 0.000000
314.785370 261.764070 14.517489 0.000000
308.791500 262.074580 14.645720 0.000000
309.188540 261.962130 14.387200 0.000000
312.557890 261.912930 14.510257 0.000000
314.305790 262.198790 14.667360 0.000000
314.501430 262.030460 14.588310 0.000000
313.380460 262.548130 14.419384 0.000000
313.863950 262.582790 14.611841 0.000000
314.089480 262.471980 14.627158 0.000000
311.782840 262.799770 14.527544 0.000000
313.264710 262.787350 14.589127 0.000000
313.565000 262.699580 14.597510 0.000000
310.472960 263.437680 14.406565 0.000000
308.936980 263.561370 14.707767 0.000000
310.189760 263.598690 14.610648 0.000000
310.380980 263.602140 14.495800 0.000000
311.353910 263.783110 14.516600 0.000000
311.685550 263.795720 14.498153 0.000000
309.191100 264.160520 14.617641 0.000000
309.561830 264.107300 14.389329 0.000000
311.224550 264.023740 14.491799 0.000000
311.667180 264.108400 14.456765 0.000000
312.401400 264.055970 14.431387 0.000000
308.867000 264.536220 14.603216 0.000000
309.336240 264.340150 14.381308 0.000000
308.577910 264.703830 14.611126 0.000000
312.413150 261.367890 14.812710 0.000000
296.635530 264.266080 14.735702 0.000000
296.266600 264.496640 15.195663 0.000000
296.250610 263.346860 15.690727 0.000000
296.172610 261.274840 15.807704 0.000000
295.816590 261.511600 15.830914 0.000000
295.929930 261.990200 15.793055 0.000000
297.534910 263.905120 15.950326 0.000000
296.171260 261.696900 16.256107 0.000000
296.521360 261.464970 16.228794 0.000000
306.525630 267.197480 11.147867 0.000000
299.525090 277.057130 11.064548 0.000000
297.015080 261.136470 11.022061 0.000000
302.488950 261.186130 11.120934 0.000000
306.653530 261.366580 11.224298 0.000000
306.800780 261.155000 11.219897 0.000000
310.117650 261.131930 11.264251 0.000000
312.213200 261.489230 11.253496 0.000000
312.529020 261.239500 11.240264 0.000000
296.795470 261.466550 11.015705 0.000000
302.069790 261.654970 11.107276 0.000000
302.340000 261.461430 11.123418 0.000000
306.452640 261.698460 11.233283 0.000000
309.583160 261.865840 11.302645 0.000000
311.752870 261.862790 11.269620 0.000000
311.978210 261.669740 11.260693 0.000000
296.814700 261.912410 11.035793 0.000000
306.182070 262.130830 11.242102 0.000000
309.386900 262.130520 11.313712 0.000000
311.393680 262.197330 11.284986 0.000000
311.606510 261.994480 11.275630 0.000000
296.894930 262.378020 11.061796 0.000000
301.778410 262.391360 11.120947 0.000000
305.761140 262.595430 11.233728 0.000000
305.931920 262.411250 11.237963 0.000000
309.032780 262.527470 11.321075 0.000000
309.172610 262.367830 11.318272 0.000000
311.055420 262.548100 11.301546 0.000000
311.185850 262.402500 11.294050 0.000000
296.658260 262.695770 11.051555 0.000000
301.705170 262.884400 11.141550 0.000000
305.443850 262.984410 11.228135 0.000000
305.595090 262.784060 11.229851 0.000000
308.641240 263.027500 11.331872 0.000000
308.830720 262.772430 11.325700 0.000000
296.588230 263.085910 11.059265 0.000000
301.342990 263.213530 11.119577 0.000000
305.225890 263.291440 11.226009 0.000000
308.451290 263.278200 11.336093 0.000000
310.462800 263.311890 11.342353 0.000000
310.995360 263.266780 11.400779 0.000000
296.395690 263.424680 11.052818 0.000000
301.246580 263.683930 11.133698 0.000000
304.956850 263.715060 11.225007 0.000000
308.110230 263.669400 11.334335 0.000000
310.195070 263.703550 11.362539 0.000000
296.546570 263.893830 11.083324 0.000000
304.784970 264.050960 11.227913 0.000000
307.750180 264.044250 11.325130 0.000000
309.845640 264.252690 11.388285 0.000000
309.995610 264.021060 11.378562 0.000000
296.568300 264.305910 11.098862 0.000000
300.892270 264.534910 11.134977 0.000000
301.076780 264.281980 11.144218 0.000000
304.562840 264.500060 11.230658 0.000000
304.672820 264.275240 11.229416 0.000000
307.279240 264.472600 11.301941 0.000000
307.524260 264.263730 11.316057 0.000000
309.464660 264.628630 11.381401 0.000000
309.660370 264.445470 11.386738 0.000000
296.719670 264.755550 11.127615 0.000000
301.008030 264.914830 11.165639 0.000000
304.406130 264.840520 11.232664 0.000000
306.889040 264.843350 11.280219 0.000000
309.031250 264.964900 11.357104 0.000000
309.246520 264.793850 11.369250 0.000000
296.529330 265.087040 11.118818 0.000000
301.133820 265.289180 11.196637 0.000000
304.210850 265.299440 11.235542 0.000000
306.602330 265.287960 11.276490 0.000000
308.542790 265.389920 11.328701 0.000000
308.819730 265.143100 11.344957 0.000000
296.672060 265.520080 11.145092 0.000000
300.964140 265.543640 11.187449 0.000000
304.044490 265.633240 11.232987 0.000000
306.415860 265.668950 11.279232 0.000000
308.205900 265.713900 11.308395 0.000000
308.339080 265.581970 11.316480 0.000000
296.715940 265.916350 11.160038 0.000000
300.912230 265.999970 11.199372 0.000000
303.812190 266.075130 11.225883 0.000000
303.926090 265.852870 11.229346 0.000000
306.203030 266.153140 11.283174 0.000000
306.285490 265.958530 11.281581 0.000000
308.017030 266.029970 11.308128 0.000000
301.036930 266.506440 11.232982 0.000000
303.649570 266.413270 11.220922 0.000000
306.086150 266.447240 11.285634 0.000000
307.808560 266.440340 11.310968 0.000000
296.026520 266.892490 11.114600 0.000000
296.330470 266.579620 11.138001 0.000000
305.991610 266.750150 11.291006 0.000000
307.662350 266.777710 11.314888 0.000000
299.388310 267.312350 11.060263 0.000000
299.890290 267.115390 11.115287 0.000000
300.782620 267.042420 11.220620 0.000000
302.551820 267.259030 11.105812 0.000000
303.004970 267.125920 11.164124 0.000000
303.611880 267.058720 11.246226 0.000000
304.790710 267.213810 11.128406 0.000000
305.233700 267.137940 11.194904 0.000000
305.731990 267.098450 11.271673 0.000000
306.463960 267.386050 11.149830 0.000000
306.918580 267.152470 11.214344 0.000000
307.313020 267.121310 11.281494 0.000000
299.389160 267.636510 11.069215 0.000000
302.520780 267.659120 11.116713 0.000000
304.732180 267.551390 11.136539 0.000000
306.399870 267.678310 11.157292 0.000000
299.520780 267.984650 11.094111 0.000000
302.498080 268.057680 11.127540 0.000000
304.673100 268.003110 11.148511 0.000000
306.326110 268.068660 11.167365 0.000000
299.263370 268.253810 11.068968 0.000000
302.485960 268.454220 11.138308 0.000000
304.620970 268.566440 11.163643 0.000000
304.638730 268.341370 11.157578 0.000000
306.266660 268.459440 11.177658 0.000000
299.428560 268.600740 11.096746 0.000000
299.453030 268.918910 11.106048 0.000000
302.485350 268.849610 11.149502 0.000000
304.602480 268.903290 11.172860 0.000000
306.240970 268.854890 11.192018 0.000000
299.483550 269.235350 11.115467 0.000000
302.494900 269.242370 11.160610 0.000000
304.592160 269.239230 11.182212 0.000000
306.239530 269.250550 11.208513 0.000000
299.517550 269.549710 11.124689 0.000000
302.511690 269.632750 11.171526 0.000000
304.607670 269.465240 11.191435 0.000000
304.630190 269.690460 11.201216 0.000000
306.251950 269.642880 11.225109 0.000000
299.558320 269.862300 11.134136 0.000000
302.543790 270.020750 11.183157 0.000000
304.671540 270.025360 11.215908 0.000000
306.276730 270.031310 11.241553 0.000000
304.731840 270.466130 11.234299 0.000000
306.316350 270.415710 11.258362 0.000000
306.316280 270.698210 11.263728 0.000000
304.781520 272.933690 11.244194 0.000000
306.370120 272.846100 11.271236 0.000000
302.678710 273.174190 11.209492 0.000000
304.827270 273.252560 11.246411 0.000000
306.427580 273.215790 11.273993 0.000000
299.741210 273.510190 11.162997 0.000000
302.729130 273.548400 11.211500 0.000000
304.901610 273.675420 11.249720 0.000000
306.497410 273.583130 11.276838 0.000000
299.763030 273.967010 11.160484 0.000000
302.777340 274.051270 11.209416 0.000000
304.948490 274.104400 11.245984 0.000000
306.567840 273.950560 11.277492 0.000000
306.596710 274.232820 11.271812 0.000000
299.550510 274.464750 11.127406 0.000000
302.771030 274.438510 11.200057 0.000000
304.966710 274.431880 11.238764 0.000000
306.630520 274.516240 11.265554 0.000000
302.777860 274.827640 11.191088 0.000000
304.982390 274.651180 11.233728 0.000000
305.001310 274.871000 11.228618 0.000000
306.688350 274.893800 11.257639 0.000000
299.652800 275.074490 11.129337 0.000000
302.793270 275.218510 11.182122 0.000000
305.041840 275.200010 11.221790 0.000000
306.758880 275.271330 11.249704 0.000000
299.639250 275.554020 11.117704 0.000000
302.820860 275.610870 11.173368 0.000000
305.107300 275.639590 11.212534 0.000000
306.840760 275.649050 11.241457 0.000000
299.778900 275.999600 11.124242 0.000000
302.856170 276.004790 11.164471 0.000000
305.185060 276.080540 11.202820 0.000000
306.937130 276.025300 11.233529 0.000000
299.644990 276.359410 11.098825 0.000000
302.906340 276.398800 11.156163 0.000000
305.278350 276.521390 11.193192 0.000000
307.047760 276.399690 11.225869 0.000000
299.658200 276.683620 11.091456 0.000000
302.963870 276.794130 11.147629 0.000000
305.358370 276.851530 11.186078 0.000000
307.206910 276.863920 11.216700 0.000000
299.959050 277.248930 11.110146 0.000000
300.526090 277.380430 11.172869 0.000000
303.106480 277.159420 11.150653 0.000000
303.699680 277.329350 11.223300 0.000000
305.486300 277.161990 11.186097 0.000000
305.935940 277.305850 11.245029 0.000000
306.180480 277.420720 11.273874 0.000000
307.632870 277.286960 11.252015 0.000000
307.991460 277.396180 11.300735 0.000000
295.836000 277.417210 11.097326 0.000000
296.453060 277.633850 11.153623 0.000000
301.024540 277.519350 11.226664 0.000000
303.982850 277.478360 11.253938 0.000000
304.542630 277.756900 11.313646 0.000000
306.434330 277.523830 11.304368 0.000000
306.821560 277.783480 11.341814 0.000000
308.392520 277.572270 11.348388 0.000000
308.812560 277.829010 11.388273 0.000000
296.998110 277.853880 11.202169 0.000000
301.573640 277.936130 11.275043 0.000000
301.795100 278.157650 11.291714 0.000000
304.817110 278.023320 11.334365 0.000000
307.105190 278.095210 11.357631 0.000000
308.943210 277.955440 11.394939 0.000000
309.146240 278.136990 11.405784 0.000000
297.158480 278.186340 11.209742 0.000000
297.535950 278.439970 11.239939 0.000000
302.015990 278.375030 11.307938 0.000000
302.241850 278.585750 11.324463 0.000000
305.239200 278.335600 11.370047 0.000000
305.536010 278.571290 11.392804 0.000000
307.347530 278.432010 11.363605 0.000000
307.415770 278.639370 11.354856 0.000000
309.506130 278.414000 11.427159 0.000000
309.783290 278.639890 11.440009 0.000000
297.734250 278.750670 11.250661 0.000000
298.189060 278.957120 11.288544 0.000000
302.473750 278.789030 11.341462 0.000000
302.706970 278.987030 11.358308 0.000000
305.707000 278.740690 11.403017 0.000000
305.879000 278.907230 11.413018 0.000000
307.601930 278.890290 11.357583 0.000000
310.005520 278.791140 11.452233 0.000000
310.311550 278.976870 11.470035 0.000000
298.344330 279.274930 11.293823 0.000000
306.048920 279.073000 11.422280 0.000000
306.257630 279.351650 11.427248 0.000000
307.909730 279.175810 11.371981 0.000000
310.538570 279.114530 11.481915 0.000000
310.754670 279.261930 11.489769 0.000000
310.970310 279.408290 11.496624 0.000000
303.099790 279.572270 11.372396 0.000000
306.470700 279.626710 11.431948 0.000000
306.615330 279.807890 11.434845 0.000000
308.353030 279.472260 11.400526 0.000000
308.740080 279.524720 11.444143 0.000000
309.076450 279.753720 11.461336 0.000000
311.188540 279.549560 11.503167 0.000000
311.561980 279.767580 11.515011 0.000000
298.572330 279.946010 11.293782 0.000000
303.446010 280.017330 11.386012 0.000000
306.836240 280.076390 11.438851 0.000000
309.332400 279.916960 11.474261 0.000000
309.574550 280.091550 11.482949 0.000000
309.818940 280.261510 11.491362 0.000000
311.946140 279.964050 11.528076 0.000000
312.336030 280.144320 11.540624 0.000000
312.641020 280.298800 11.546307 0.000000
298.566470 280.340820 11.279651 0.000000
303.648800 280.384800 11.386896 0.000000
307.054320 280.347660 11.441238 0.000000
309.983700 280.371250 11.496877 0.000000
310.149900 280.478120 11.502366 0.000000
312.793550 280.375950 11.548287 0.000000
313.100310 280.527980 11.551002 0.000000
298.589660 280.728000 11.267964 0.000000
298.935270 280.952820 11.291623 0.000000
303.883300 280.904630 11.380579 0.000000
307.247190 280.804660 11.423285 0.000000
307.570590 280.978820 11.442893 0.000000
310.374450 280.841220 11.482183 0.000000
310.651730 280.964540 11.495211 0.000000
310.929630 281.082280 11.507927 0.000000
313.527470 280.851530 11.533340 0.000000
313.943020 280.975650 11.543313 0.000000
314.280580 281.054780 11.552479 0.000000
314.534330 281.108830 11.558949 0.000000
319.675050 281.144470 11.618904 0.000000
319.931950 281.091460 11.618725 0.000000
320.356810 280.984770 11.618896 0.000000
299.278930 281.170620 11.314825 0.000000
299.618770 281.382660 11.337361 0.000000
304.256410 281.151120 11.403604 0.000000
304.631320 281.387300 11.426399 0.000000
307.989070 281.212770 11.465736 0.000000
308.303990 281.379490 11.482464 0.000000
311.208070 281.193480 11.520205 0.000000
311.579960 281.333160 11.535990 0.000000
311.952670 281.462280 11.551140 0.000000
314.788700 281.157170 11.565085 0.000000
315.128570 281.214290 11.572771 0.000000
315.469270 281.262510 11.579906 0.000000
315.896120 281.310240 11.587923 0.000000
316.323850 281.345060 11.595121 0.000000
317.181490 281.373200 11.606634 0.000000
317.525180 281.369200 11.610199 0.000000
317.869080 281.356380 11.613173 0.000000
318.299130 281.327610 11.616014 0.000000
318.729280 281.286010 11.617966 0.000000
319.073330 281.242280 11.618834 0.000000
319.417240 281.189540 11.619102 0.000000
299.951870 281.590940 11.358908 0.000000
300.353550 281.749630 11.388173 0.000000
304.881440 281.538670 11.441307 0.000000
305.415740 281.797820 11.475862 0.000000
308.513310 281.487300 11.493170 0.000000
308.726560 281.587370 11.504494 0.000000
309.040280 281.738860 11.519700 0.000000
309.379580 281.849950 11.540407 0.000000
312.325200 281.582890 11.565325 0.000000
312.695470 281.700320 11.577691 0.000000
313.068210 281.804140 11.590057 0.000000
313.450040 281.873200 11.605905 0.000000
313.740170 281.904720 11.619645 0.000000
300.854250 281.834290 11.428951 0.000000
301.344700 281.910000 11.468710 0.000000
305.907040 281.891880 11.516142 0.000000
306.385380 281.979400 11.554647 0.000000
306.682190 282.047820 11.576851 0.000000
306.948060 282.140900 11.593874 0.000000
309.626340 281.889070 11.559039 0.000000
309.989350 281.944550 11.585664 0.000000
310.345860 281.996730 11.611053 0.000000
310.694030 282.046140 11.634791 0.000000
