# .PCD v0.7 - Point Cloud Data file format
VERSION 0.7
FIELDS x y z intensity
SIZE 4 4 4 4
TYPE F F F F
COUNT 1 1 1 1
WIDTH 1180
HEIGHT 1
VIEWPOINT 0 0 0 1 0 0 0
POINTS 1180
DATA ascii
302.845490 -23.138832 -0.133440 0.000000
304.637240 -23.872900 -0.103230 0.000000
307.207370 -24.781603 -0.070342 0.000000
310.989320 -26.127552 -0.033097 0.000000
317.791900 -28.667362 -0.034341 0.000000
301.525510 -22.376112 -0.140602 0.000000
302.983490 -22.838398 -0.113927 0.000000
304.775510 -23.515924 -0.081113 0.000000
307.328610 -24.509596 -0.057553 0.000000
311.223820 -25.633793 -0.014701 0.000000
317.917630 -28.183332 -0.013659 0.000000
301.700440 -22.033581 -0.118135 0.000000
303.113340 -22.536886 -0.094805 0.000000
304.935580 -23.178087 -0.064450 0.000000
307.357540 -24.184824 -0.033384 0.000000
311.259920 -25.243059 0.008852 0.000000
318.080870 -27.721264 0.003487 0.000000
301.899170 -21.599516 -0.090059 0.000000
303.274540 -22.132948 -0.069625 0.000000
305.138550 -22.725437 -0.042864 0.000000
307.662780 -23.686069 -0.019504 0.000000
311.359890 -24.890053 0.025131 0.000000
318.262080 -27.269455 0.018664 0.000000
302.079410 -21.161379 -0.062343 0.000000
303.421940 -21.727314 -0.044903 0.000000
305.280120 -22.382753 -0.026702 0.000000
307.821960 -23.275162 -0.001840 0.000000
302.208190 -20.807804 -0.040336 0.000000
303.568540 -21.327158 -0.022922 0.000000
305.412600 -22.038048 -0.010820 0.000000
307.993590 -22.872608 0.013007 0.000000
312.056760 -24.418514 0.007581 0.000000
318.442870 -26.818352 0.033269 0.000000
302.324280 -20.452408 -0.018589 0.000000
303.721280 -20.934622 -0.004708 0.000000
305.593140 -21.583311 0.007655 0.000000
308.136380 -22.617895 0.018686 0.000000
312.234770 -24.096146 0.014973 0.000000
318.548710 -26.336658 0.052558 0.000000
302.446960 -20.104368 -0.000849 0.000000
303.905000 -20.558365 0.005798 0.000000
305.765840 -21.260143 0.014625 0.000000
308.309750 -22.217058 0.031027 0.000000
312.413390 -23.772755 0.021822 0.000000
302.614500 -19.778158 0.005785 0.000000
304.095640 -20.183966 0.012992 0.000000
305.878940 -21.042938 0.018887 0.000000
305.989720 -20.824047 0.022967 0.000000
308.462490 -21.807333 0.044709 0.000000
312.592770 -23.448147 0.028128 0.000000
318.995610 -25.471046 0.072932 0.000000
302.810610 -19.362509 0.013535 0.000000
304.273930 -19.802420 0.020149 0.000000
306.148100 -20.491152 0.029166 0.000000
308.652530 -21.411856 0.052681 0.000000
312.773040 -23.122110 0.033890 0.000000
312.948000 -22.792181 0.039680 0.000000
319.232670 -25.040073 0.081513 0.000000
302.989750 -18.938074 0.021369 0.000000
304.399750 -19.511984 0.025489 0.000000
306.301850 -20.155014 0.034987 0.000000
308.842930 -21.014389 0.059628 0.000000
313.129000 -22.462284 0.044476 0.000000
303.119320 -18.592096 0.027653 0.000000
304.517460 -19.217466 0.030814 0.000000
306.447050 -19.813934 0.040701 0.000000
308.971500 -20.748243 0.063434 0.000000
313.284610 -22.121944 0.051077 0.000000
319.554720 -24.634787 0.084023 0.000000
303.236910 -18.241062 0.033940 0.000000
304.663510 -18.819693 0.037855 0.000000
306.584840 -19.468912 0.046385 0.000000
309.210050 -20.358574 0.063194 0.000000
313.456730 -21.784859 0.055749 0.000000
319.872100 -24.221567 0.086576 0.000000
303.342290 -17.885403 0.040212 0.000000
304.796630 -18.416225 0.044778 0.000000
306.712650 -19.119036 0.052096 0.000000
309.434300 -19.959927 0.063673 0.000000
313.642760 -21.449146 0.058772 0.000000
320.184270 -23.800350 0.089192 0.000000
303.434880 -17.525452 0.046536 0.000000
304.918640 -18.007881 0.051252 0.000000
306.878750 -18.648354 0.058553 0.000000
309.551270 -19.682476 0.066940 0.000000
313.830080 -21.110575 0.061265 0.000000
303.518490 -17.162224 0.052214 0.000000
305.044310 -17.597118 0.055062 0.000000
307.017880 -18.295362 0.060259 0.000000
309.717530 -19.260828 0.071852 0.000000
320.599790 -23.401472 0.084917 0.000000
303.674530 -16.521530 0.055357 0.000000
303.611480 -16.797724 0.054131 0.000000
305.170560 -17.182316 0.056693 0.000000
307.148960 -17.936895 0.061758 0.000000
309.875790 -18.834173 0.076629 0.000000
313.744630 -20.320545 0.103707 0.000000
303.730870 -16.242634 0.056351 0.000000
305.255920 -16.867113 0.057981 0.000000
307.273320 -17.574108 0.063095 0.000000
310.109100 -18.568766 0.065856 0.000000
313.930450 -19.979153 0.104727 0.000000
303.793760 -15.867277 0.057881 0.000000
305.335270 -16.548344 0.058816 0.000000
307.376590 -17.204792 0.065783 0.000000
309.951420 -18.238281 0.095191 0.000000
314.195740 -19.648548 0.098786 0.000000
303.842740 -15.488260 0.059484 0.000000
305.425320 -16.118292 0.060416 0.000000
307.464230 -16.831215 0.069346 0.000000
310.197510 -17.815197 0.088145 0.000000
314.325040 -19.287989 0.103688 0.000000
303.878170 -15.106123 0.061061 0.000000
305.500550 -15.683071 0.061946 0.000000
307.565860 -16.327465 0.073990 0.000000
307.517760 -16.580114 0.071609 0.000000
310.318270 -17.370327 0.093006 0.000000
314.498230 -18.931654 0.104547 0.000000
303.903320 -14.624889 0.063013 0.000000
303.896120 -14.817838 0.062226 0.000000
305.561040 -15.243147 0.063353 0.000000
307.630520 -15.945759 0.077371 0.000000
314.835110 -18.592848 0.091816 0.000000
303.906250 -14.237433 0.064517 0.000000
305.613220 -14.687718 0.065313 0.000000
305.596410 -14.910577 0.064415 0.000000
307.691470 -15.561380 0.080099 0.000000
310.509220 -16.618448 0.099380 0.000000
315.131560 -18.239267 0.082096 0.000000
305.632390 -14.463444 0.065303 0.000000
307.794490 -15.171700 0.076410 0.000000
310.778990 -16.165825 0.086372 0.000000
305.676510 -14.122203 0.061960 0.000000
307.893650 -14.776862 0.072106 0.000000
310.724520 -15.854304 0.100224 0.000000
315.195500 -17.463135 0.103385 0.000000
307.981050 -14.375938 0.067822 0.000000
310.786590 -15.388468 0.105642 0.000000
315.358580 -17.083284 0.102898 0.000000
310.967160 -14.913519 0.098425 0.000000
315.707000 -16.706848 0.087590 0.000000
311.164860 -14.586517 0.085435 0.000000
315.445070 -16.302315 0.119042 0.000000
311.106380 -14.271968 0.096747 0.000000
297.019260 -25.068090 0.084478 0.000000
301.015380 -23.625114 0.376846 0.000000
299.829040 -24.052958 0.531660 0.000000
301.003780 -23.627176 0.752923 0.000000
297.003140 -25.082474 1.103562 0.000000
297.849330 -24.775928 1.228811 0.000000
298.107820 -24.682592 1.232078 0.000000
298.455780 -24.556271 1.236055 0.000000
298.719880 -24.460398 1.238723 0.000000
298.987670 -24.363171 1.241077 0.000000
309.643160 -28.113089 1.273112 0.000000
299.350400 -24.231476 1.243791 0.000000
307.816930 -27.163589 1.320917 0.000000
299.909550 -24.028606 1.246881 0.000000
300.996060 -23.632956 1.125495 0.000000
300.988370 -23.638718 1.496590 0.000000
297.640840 -38.699562 -1.145268 0.000000
298.403720 -38.444740 -1.116599 0.000000
297.964360 -38.216816 -1.083172 0.000000
298.727750 -38.049294 -1.067551 0.000000
299.018950 -37.557652 -1.006253 0.000000
299.495760 -37.905178 -1.058054 0.000000
300.012760 -37.569321 -1.022368 0.000000
300.540100 -37.304916 -0.997636 0.000000
301.265590 -37.045502 -0.979849 0.000000
301.620730 -36.895947 -0.969341 0.000000
301.990260 -36.787392 -0.965160 0.000000
302.376280 -36.718094 -0.967140 0.000000
302.767270 -36.653870 -0.970642 0.000000
303.563140 -36.532734 -0.981225 0.000000
303.721410 -35.955986 -0.915514 0.000000
304.225460 -36.109177 -0.952768 0.000000
304.448060 -35.693748 -0.910690 0.000000
310.505520 -38.113655 -0.876053 0.000000
296.192020 -32.908455 -0.746707 0.000000
296.448180 -32.594551 -0.699186 0.000000
296.719180 -32.447037 -0.678197 0.000000
304.669310 -35.295341 -0.871362 0.000000
310.779850 -37.688560 -0.847425 0.000000
297.266570 -32.241592 -0.652096 0.000000
304.841430 -34.827438 -0.822378 0.000000
310.968080 -37.164665 -0.806666 0.000000
297.504390 -31.976181 -0.614560 0.000000
297.764040 -31.843914 -0.598421 0.000000
298.024050 -31.724258 -0.584866 0.000000
298.273740 -31.572578 -0.566875 0.000000
304.917790 -34.219109 -0.753245 0.000000
310.719240 -36.125965 -0.700085 0.000000
298.517150 -31.409201 -0.547613 0.000000
305.054750 -33.742298 -0.703092 0.000000
310.985780 -35.743217 -0.677166 0.000000
298.753230 -31.232685 -0.526830 0.000000
305.212100 -33.319332 -0.660898 0.000000
299.210750 -30.869106 -0.485178 0.000000
305.331240 -32.855923 -0.612855 0.000000
310.727600 -34.772850 -0.577771 0.000000
296.142730 -29.330936 -0.489657 0.000000
299.437930 -30.698910 -0.466977 0.000000
299.826350 -30.585503 -0.463537 0.000000
305.472260 -32.444206 -0.572529 0.000000
311.024810 -34.455917 -0.563552 0.000000
296.691350 -29.104012 -0.456963 0.000000
300.187040 -30.396479 -0.449208 0.000000
305.650090 -32.099731 -0.542427 0.000000
320.307070 -37.669605 -0.579260 0.000000
297.223420 -28.850208 -0.422885 0.000000
300.647340 -30.108885 -0.426382 0.000000
310.758330 -33.545895 -0.470472 0.000000
300.840150 -29.891373 -0.403655 0.000000
301.065950 -29.748936 -0.393786 0.000000
305.751770 -31.662788 -0.498516 0.000000
305.946080 -31.363346 -0.475672 0.000000
311.039030 -33.235523 -0.457334 0.000000
319.364170 -36.164738 -0.443583 0.000000
305.807770 -30.652294 -0.389319 0.000000
310.862060 -32.476074 -0.383074 0.000000
306.003300 -30.381721 -0.370995 0.000000
318.748320 -34.985275 -0.342747 0.000000
317.280610 -17.206467 0.076810 0.000000
309.395390 -13.929470 0.072023 0.000000
317.568970 -16.407421 0.075931 0.000000
318.203890 -15.996892 0.037419 0.000000
318.819790 -15.136728 0.009242 0.000000
318.969910 -15.560816 -0.011130 0.000000
319.550140 -14.664305 -0.037130 0.000000
319.389950 -14.234555 -0.017208 0.000000
297.635280 -28.628624 -0.394942 0.000000
297.934020 -28.444904 -0.372185 0.000000
301.280820 -29.587524 -0.381312 0.000000
301.490420 -29.419724 -0.368284 0.000000
296.033720 -27.125608 -0.348842 0.000000
298.409880 -28.109253 -0.331678 0.000000
298.685270 -27.899364 -0.307215 0.000000
301.694490 -29.245520 -0.354682 0.000000
296.310490 -27.020121 -0.332879 0.000000
296.582000 -26.905319 -0.316455 0.000000
298.863680 -27.754986 -0.290726 0.000000
302.085910 -28.879887 -0.325998 0.000000
296.849300 -26.784027 -0.299833 0.000000
297.110810 -26.653931 -0.282787 0.000000
299.377080 -27.307594 -0.241362 0.000000
302.361790 -28.588230 -0.302740 0.000000
306.138820 -30.045433 -0.342638 0.000000
310.742890 -31.532162 -0.297074 0.000000
297.367130 -26.515854 -0.265182 0.000000
297.695620 -26.308115 -0.238750 0.000000
299.618990 -27.072254 -0.216022 0.000000
302.624910 -28.285753 -0.278444 0.000000
306.013060 -29.422575 -0.268454 0.000000
318.167420 -33.884193 -0.248963 0.000000
297.855830 -26.200432 -0.225494 0.000000
298.013180 -26.089859 -0.212125 0.000000
299.932340 -26.758768 -0.183666 0.000000
302.806700 -27.882135 -0.237044 0.000000
306.184360 -29.152493 -0.250545 0.000000
310.665860 -30.677307 -0.221961 0.000000
318.681460 -33.614239 -0.253531 0.000000
298.167630 -25.976650 -0.198684 0.000000
300.228610 -26.433880 -0.150700 0.000000
302.963200 -27.462151 -0.192994 0.000000
306.342990 -28.873287 -0.231470 0.000000
310.955260 -30.422615 -0.217035 0.000000
297.099700 -25.041925 0.030493 0.000000
298.684540 -25.560341 -0.151082 0.000000
300.441220 -26.185841 -0.126057 0.000000
300.578400 -26.019253 -0.109864 0.000000
303.058500 -27.182812 -0.163861 0.000000
306.270600 -28.363621 -0.174286 0.000000
310.765660 -29.770155 -0.154032 0.000000
318.191680 -32.641632 -0.172789 0.000000
297.940160 -24.735300 0.047076 0.000000
298.984160 -25.350128 -0.132320 0.000000
299.210450 -25.200516 -0.121213 0.000000
300.711120 -25.850142 -0.093513 0.000000
303.191100 -26.768742 -0.121182 0.000000
306.400450 -28.073071 -0.153336 0.000000
299.501460 -24.987350 -0.105385 0.000000
300.902190 -25.593277 -0.068994 0.000000
303.234590 -26.270317 -0.062519 0.000000
306.330470 -27.598228 -0.100991 0.000000
306.472020 -27.335125 -0.084705 0.000000
310.580290 -29.146145 -0.094108 0.000000
317.304600 -31.445438 -0.061961 0.000000
299.849180 -24.701670 -0.083707 0.000000
301.144990 -25.247913 -0.036748 0.000000
303.417080 -25.949299 -0.037579 0.000000
306.365390 -26.855911 -0.030514 0.000000
318.154630 -31.416727 -0.097395 0.000000
300.122070 -24.471525 -0.068210 0.000000
301.537540 -24.789055 -0.003413 0.000000
303.759800 -25.467445 -0.007957 0.000000
310.645600 -28.290543 -0.031685 0.000000
318.217530 -30.875717 -0.068376 0.000000
300.544400 -24.294331 -0.077834 0.000000
300.974670 -24.251274 -0.113380 0.000000
301.784480 -24.623404 -0.001999 0.000000
301.973360 -24.537647 -0.007405 0.000000
304.012240 -25.387760 -0.019781 0.000000
304.267030 -25.304157 -0.031890 0.000000
306.939120 -26.415335 -0.030212 0.000000
310.757290 -27.934052 -0.011397 0.000000
311.717830 -28.166613 -0.086675 0.000000
318.331600 -30.374275 -0.044510 0.000000
301.494720 -24.007113 -0.129185 0.000000
302.174070 -24.461090 -0.015714 0.000000
302.699680 -24.417507 -0.060621 0.000000
303.073580 -24.488564 -0.107112 0.000000
303.364870 -24.468975 -0.134070 0.000000
304.520170 -25.213013 -0.043548 0.000000
304.930820 -25.089352 -0.066300 0.000000
307.454800 -26.275017 -0.055759 0.000000
308.002870 -26.320528 -0.101601 0.000000
311.768830 -27.757780 -0.059934 0.000000
318.438750 -29.875191 -0.021021 0.000000
301.953060 -23.808287 -0.149573 0.000000
303.604550 -24.394440 -0.149278 0.000000
303.795260 -24.272209 -0.153952 0.000000
305.629820 -25.022717 -0.122782 0.000000
308.139800 -26.052753 -0.088469 0.000000
312.311100 -27.450684 -0.071845 0.000000
319.235840 -29.757885 -0.051192 0.000000
302.467070 -23.510006 -0.166003 0.000000
303.949400 -23.976976 -0.134268 0.000000
305.806610 -24.685163 -0.104143 0.000000
308.176270 -25.717819 -0.062186 0.000000
308.399960 -25.513508 -0.062513 0.000000
312.407900 -26.861589 -0.036972 0.000000
302.662930 -23.174192 -0.142783 0.000000
304.095950 -23.679770 -0.114687 0.000000
305.985600 -24.353378 -0.087737 0.000000
308.522280 -25.241556 -0.049564 0.000000
312.564330 -26.528648 -0.024466 0.000000
319.338170 -29.252510 -0.028252 0.000000
302.846920 -22.834995 -0.119978 0.000000
304.233310 -23.380608 -0.095305 0.000000
306.155850 -24.018276 -0.071306 0.000000
308.648190 -24.973602 -0.037803 0.000000
312.715790 -26.194109 -0.012087 0.000000
319.467100 -28.766064 -0.008153 0.000000
303.017400 -22.491541 -0.097211 0.000000
304.406860 -22.981237 -0.070240 0.000000
306.316590 -23.680250 -0.055081 0.000000
309.023070 -24.511082 -0.032048 0.000000
312.746770 -25.797848 0.011702 0.000000
319.651790 -28.310242 0.007108 0.000000
303.175990 -22.145508 -0.074871 0.000000
304.592190 -22.595730 -0.050367 0.000000
306.516480 -23.224985 -0.033463 0.000000
309.038390 -24.183571 -0.008033 0.000000
312.842740 -25.440125 0.028140 0.000000
319.826020 -27.850840 0.022496 0.000000
303.356480 -21.709457 -0.047469 0.000000
304.770570 -22.210106 -0.031928 0.000000
306.656310 -22.880850 -0.017388 0.000000
309.216860 -23.782059 0.006802 0.000000
303.492920 -21.360903 -0.026759 0.000000
303.566710 -21.191519 -0.018692 0.000000
304.934880 -21.820105 -0.013600 0.000000
306.785610 -22.534105 -0.001397 0.000000
309.402190 -23.385027 0.019593 0.000000
313.584900 -24.984138 0.006067 0.000000
319.999690 -27.392437 0.037298 0.000000
303.671940 -20.935890 -0.006772 0.000000
305.093230 -21.430079 0.003214 0.000000
306.981990 -22.086271 0.014291 0.000000
309.551760 -23.132454 0.024232 0.000000
313.760190 -24.657148 0.013554 0.000000
320.095860 -26.902733 0.056901 0.000000
303.830570 -20.605255 0.003504 0.000000
305.286220 -21.057653 0.011757 0.000000
307.158870 -21.764156 0.020356 0.000000
309.721680 -22.728542 0.036630 0.000000
313.936040 -24.329262 0.020492 0.000000
303.998290 -20.278309 0.009804 0.000000
305.474490 -20.681570 0.018971 0.000000
307.328460 -21.437044 0.026195 0.000000
309.870730 -22.315847 0.050368 0.000000
314.099240 -23.995035 0.028105 0.000000
320.476010 -26.004658 0.081172 0.000000
304.155030 -19.945190 0.016075 0.000000
305.607940 -20.395115 0.024351 0.000000
307.490970 -21.105576 0.032013 0.000000
309.996460 -22.051254 0.055714 0.000000
314.250310 -23.655190 0.036320 0.000000
304.334590 -19.520401 0.023850 0.000000
305.733460 -20.104454 0.029701 0.000000
307.644680 -20.768904 0.037771 0.000000
310.123900 -21.786362 0.060361 0.000000
310.255000 -21.521524 0.064113 0.000000
314.474430 -23.142818 0.047824 0.000000
320.750980 -25.584850 0.086837 0.000000
304.497130 -19.087708 0.031609 0.000000
305.892330 -19.712313 0.036421 0.000000
307.837010 -20.313183 0.045450 0.000000
310.386660 -21.255419 0.067322 0.000000
314.705960 -22.630661 0.057648 0.000000
304.613490 -18.735828 0.037737 0.000000
306.039060 -19.314264 0.042932 0.000000
307.971980 -19.966619 0.051150 0.000000
310.628450 -20.865194 0.066372 0.000000
314.886990 -22.295107 0.061215 0.000000
304.718200 -18.379517 0.043747 0.000000
306.172030 -18.910315 0.049433 0.000000
308.096920 -19.615356 0.056874 0.000000
310.854340 -20.465414 0.066303 0.000000
315.069210 -21.957081 0.064245 0.000000
304.812290 -18.019363 0.049419 0.000000
306.293640 -18.501421 0.055520 0.000000
308.269590 -19.145281 0.061985 0.000000
310.968780 -20.186298 0.069577 0.000000
315.252690 -21.616310 0.066741 0.000000
304.902370 -17.656500 0.053597 0.000000
306.425080 -18.091164 0.058017 0.000000
308.398990 -18.789738 0.064560 0.000000
311.130980 -19.762302 0.074506 0.000000
305.017150 -17.199121 0.055302 0.000000
306.548220 -17.675346 0.059654 0.000000
308.508790 -18.427488 0.068336 0.000000
311.285000 -19.333473 0.079298 0.000000
315.156430 -20.821688 0.109239 0.000000
305.114170 -16.735075 0.056830 0.000000
306.631130 -17.359518 0.060944 0.000000
308.611790 -18.061916 0.071919 0.000000
311.511960 -19.066174 0.068927 0.000000
315.386960 -20.488537 0.106198 0.000000
305.176210 -16.358995 0.058079 0.000000
306.707550 -17.040232 0.061843 0.000000
308.703280 -17.692024 0.075605 0.000000
311.350220 -18.734365 0.098301 0.000000
315.720460 -20.168922 0.094355 0.000000
305.224210 -15.979321 0.059417 0.000000
306.792850 -16.609711 0.063629 0.000000
308.787260 -17.319099 0.079148 0.000000
311.582120 -18.308617 0.092257 0.000000
315.896550 -19.813322 0.095141 0.000000
305.259400 -15.596544 0.060589 0.000000
306.851840 -16.174356 0.066969 0.000000
308.861180 -16.942541 0.082569 0.000000
311.690520 -17.861942 0.097874 0.000000
316.081300 -19.454988 0.094801 0.000000
305.284180 -15.114543 0.062042 0.000000
305.277100 -15.307796 0.061463 0.000000
306.893490 -15.735502 0.070517 0.000000
308.945010 -16.435942 0.087095 0.000000
316.418460 -19.112310 0.081818 0.000000
305.287630 -14.823737 0.062914 0.000000
306.926850 -15.182851 0.074458 0.000000
306.915040 -15.404537 0.073126 0.000000
309.021610 -16.052681 0.087461 0.000000
311.885990 -17.109903 0.102937 0.000000
316.711940 -18.754475 0.072080 0.000000
305.282070 -14.336106 0.063255 0.000000
306.975340 -14.844895 0.070960 0.000000
309.124150 -15.663881 0.083357 0.000000
312.151700 -16.656782 0.089833 0.000000
316.404630 -18.329504 0.109497 0.000000
307.016850 -14.503944 0.067289 0.000000
309.219240 -15.270149 0.079063 0.000000
312.074130 -16.344881 0.105588 0.000000
316.762020 -17.969578 0.093791 0.000000
307.049160 -14.159468 0.063432 0.000000
309.292570 -14.871498 0.075964 0.000000
312.101320 -15.880112 0.113857 0.000000
316.919710 -17.585819 0.093398 0.000000
309.345210 -14.470116 0.074180 0.000000
312.256010 -15.407397 0.108591 0.000000
309.372410 -14.200567 0.073149 0.000000
312.441860 -15.082407 0.096358 0.000000
316.985410 -16.797348 0.110417 0.000000
312.350920 -14.771887 0.110406 0.000000
312.503330 -14.440422 0.100347 0.000000
320.537170 -37.884388 0.143442 0.000000
297.094730 -25.044670 0.343947 0.000000
297.973720 -24.726044 0.360740 0.000000
297.088710 -25.050142 0.757019 0.000000
298.005400 -24.717392 0.774600 0.000000
297.082790 -25.055555 1.166149 0.000000
297.998900 -24.722759 1.184017 0.000000
298.152340 -24.667446 1.186433 0.000000
311.976040 -29.322735 1.258761 0.000000
299.082180 -24.330471 1.301484 0.000000
310.044070 -28.318497 1.307964 0.000000
299.399080 -24.214233 1.304945 0.000000
299.641140 -24.127506 1.307111 0.000000
299.885410 -24.038794 1.309113 0.000000
300.133640 -23.948666 1.310823 0.000000
300.729060 -23.732430 1.313779 0.000000
301.181060 -23.715240 1.306812 0.000000
308.458500 -27.495359 1.348186 0.000000
303.518590 -38.890312 -1.139023 0.000000
303.915040 -38.773460 -1.134511 0.000000
304.275150 -38.561592 -1.117890 0.000000
304.573670 -38.206799 -1.082459 0.000000
305.233090 -37.687958 -1.039497 0.000000
305.499880 -37.308983 -1.002398 0.000000
305.914520 -37.244598 -1.009633 0.000000
306.056270 -36.646133 -0.942878 0.000000
306.239690 -36.158562 -0.891817 0.000000
312.761290 -38.184231 -0.836293 0.000000
296.094060 -33.902679 -0.802084 0.000000
296.396850 -33.916592 -0.802027 0.000000
296.686430 -33.695496 -0.766406 0.000000
296.992650 -33.779808 -0.778604 0.000000
297.272250 -33.546181 -0.742457 0.000000
297.575840 -33.588482 -0.749550 0.000000
297.834350 -33.266392 -0.701105 0.000000
298.108370 -33.116318 -0.679848 0.000000
298.665250 -32.925827 -0.656222 0.000000
298.926790 -32.759270 -0.634327 0.000000
306.412840 -35.677132 -0.841815 0.000000
299.211400 -32.714947 -0.632024 0.000000
299.494420 -32.661434 -0.628964 0.000000
299.775210 -32.597252 -0.624912 0.000000
306.497710 -35.068794 -0.773804 0.000000
312.453800 -37.055592 -0.720403 0.000000
300.053220 -32.522209 -0.619831 0.000000
300.328800 -32.438606 -0.614071 0.000000
306.637730 -34.582710 -0.723273 0.000000
300.601500 -32.346195 -0.607587 0.000000
300.871000 -32.244995 -0.600370 0.000000
312.721100 -36.658031 -0.696588 0.000000
296.125000 -30.267265 -0.544763 0.000000
296.597440 -30.188269 -0.528949 0.000000
301.137540 -32.136532 -0.592652 0.000000
301.458890 -32.176044 -0.609144 0.000000
306.796690 -34.148636 -0.680360 0.000000
297.060760 -30.053795 -0.505894 0.000000
301.657710 -31.890274 -0.574465 0.000000
301.911070 -31.753819 -0.564176 0.000000
306.918520 -33.676262 -0.631973 0.000000
312.440310 -35.647213 -0.593890 0.000000
297.514160 -29.891521 -0.480437 0.000000
302.403690 -31.457138 -0.541586 0.000000
307.060820 -33.253822 -0.590972 0.000000
298.173490 -29.607441 -0.439618 0.000000
302.635680 -31.282974 -0.526970 0.000000
302.875820 -31.129768 -0.516350 0.000000
307.237150 -32.895256 -0.559592 0.000000
298.594300 -29.377750 -0.408174 0.000000
303.054600 -30.860920 -0.487198 0.000000
307.343110 -32.452751 -0.515813 0.000000
312.451840 -34.373356 -0.483140 0.000000
296.050930 -28.020634 -0.404199 0.000000
296.347290 -27.968533 -0.392677 0.000000
303.326290 -30.774670 -0.488792 0.000000
303.491730 -30.496914 -0.459024 0.000000
312.734250 -34.052681 -0.469503 0.000000
303.711850 -30.322973 -0.447094 0.000000
307.417390 -31.443741 -0.409067 0.000000
312.540770 -33.265503 -0.393095 0.000000
303.784970 -29.911909 -0.395328 0.000000
307.609010 -31.157444 -0.389102 0.000000
303.919770 -29.617901 -0.363549 0.000000
307.683380 -30.739254 -0.348792 0.000000
312.251950 -32.421017 -0.307654 0.000000
304.048250 -29.325531 -0.332239 0.000000
312.555110 -32.156929 -0.301731 0.000000
320.282750 -34.918064 -0.277732 0.000000
318.426180 -19.270279 0.061092 0.000000
318.473750 -18.472588 0.082410 0.000000
318.635350 -18.082821 0.081459 0.000000
308.424680 -14.060081 0.066365 0.000000
313.926060 -15.550631 0.095127 0.000000
318.759220 -17.283352 0.093380 0.000000
318.998290 -17.697212 0.064531 0.000000
314.032990 -14.899762 0.094008 0.000000
319.551700 -16.888025 0.042873 0.000000
320.103150 -16.467115 0.010633 0.000000
314.554870 -14.182675 0.050816 0.000000
320.703950 -16.025623 -0.025549 0.000000
320.540560 -15.595522 -0.004646 0.000000
299.001680 -29.133003 -0.376278 0.000000
296.639470 -27.893658 -0.378151 0.000000
297.023620 -27.780834 -0.358210 0.000000
299.298520 -28.940613 -0.352124 0.000000
299.586520 -28.740049 -0.327802 0.000000
297.492490 -27.614079 -0.331695 0.000000
299.867000 -28.532513 -0.303227 0.000000
300.068420 -28.441858 -0.296240 0.000000
297.947570 -27.414398 -0.301749 0.000000
300.315160 -28.172331 -0.262250 0.000000
298.212770 -27.281158 -0.282813 0.000000
298.471590 -27.139467 -0.263519 0.000000
300.773320 -27.867706 -0.234473 0.000000
304.169860 -29.033836 -0.301208 0.000000
298.725130 -26.991535 -0.244012 0.000000
298.971560 -26.834969 -0.224028 0.000000
300.953610 -27.745186 -0.224149 0.000000
301.138980 -27.635401 -0.216746 0.000000
304.284880 -28.743269 -0.270518 0.000000
307.639040 -30.201118 -0.289299 0.000000
299.212950 -26.674520 -0.204246 0.000000
299.382750 -26.597507 -0.197923 0.000000
301.403440 -27.447689 -0.202315 0.000000
301.659700 -27.249390 -0.186854 0.000000
304.393220 -28.453636 -0.240113 0.000000
307.963260 -29.625490 -0.249824 0.000000
312.311040 -31.406200 -0.227594 0.000000
299.668550 -26.317234 -0.160491 0.000000
301.906560 -27.040792 -0.170604 0.000000
304.589940 -27.877441 -0.180118 0.000000
307.889040 -29.104673 -0.192069 0.000000
312.602540 -31.144554 -0.222453 0.000000
320.275270 -33.614025 -0.198064 0.000000
300.038510 -26.029354 -0.129295 0.000000
302.214420 -26.737488 -0.145491 0.000000
304.680020 -27.593025 -0.150881 0.000000
308.019620 -28.805828 -0.170665 0.000000
312.398470 -30.471775 -0.157941 0.000000
300.385250 -25.717003 -0.095687 0.000000
302.396000 -26.444839 -0.114594 0.000000
304.763890 -27.310070 -0.121947 0.000000
307.941620 -28.314682 -0.116800 0.000000
312.250850 -29.870056 -0.102741 0.000000
320.167240 -32.916496 -0.151988 0.000000
300.713200 -25.391212 -0.061572 0.000000
302.554230 -26.133774 -0.080565 0.000000
304.761080 -26.937733 -0.076169 0.000000
308.083470 -28.043663 -0.100052 0.000000
320.086300 -32.255951 -0.109845 0.000000
300.960540 -25.121426 -0.034072 0.000000
302.796110 -25.615273 -0.024673 0.000000
304.977200 -26.468952 -0.036574 0.000000
307.968140 -27.548872 -0.044408 0.000000
312.251430 -28.949368 -0.032695 0.000000
301.151090 -24.934532 -0.017886 0.000000
301.360660 -24.779640 -0.010118 0.000000
302.960420 -25.344292 -0.000256 0.000000
305.175900 -26.166912 -0.017143 0.000000
308.297790 -27.077076 -0.023651 0.000000
313.081570 -29.099190 -0.092928 0.000000
301.580780 -24.639677 -0.006871 0.000000
301.878420 -24.455736 -0.005339 0.000000
303.454500 -25.148211 -0.017533 0.000000
305.488430 -25.977177 -0.021110 0.000000
305.745730 -25.892014 -0.033277 0.000000
308.596710 -26.949463 -0.033893 0.000000
309.180940 -27.033926 -0.085140 0.000000
313.294620 -28.792294 -0.083309 0.000000
319.909030 -30.976986 -0.029045 0.000000
302.137630 -24.357271 -0.015570 0.000000
302.497800 -24.366150 -0.054154 0.000000
302.920200 -24.421200 -0.107844 0.000000
303.876890 -25.004803 -0.037860 0.000000
304.300450 -24.842422 -0.058155 0.000000
304.731900 -24.955185 -0.116130 0.000000
305.965550 -25.767614 -0.038403 0.000000
306.649110 -25.708271 -0.092436 0.000000
309.363250 -26.798748 -0.078074 0.000000
313.340480 -28.374565 -0.056121 0.000000
313.841520 -28.255054 -0.078636 0.000000
320.020630 -30.475405 -0.006217 0.000000
303.262630 -24.372814 -0.138251 0.000000
303.631680 -24.201040 -0.155155 0.000000
304.998600 -24.904200 -0.137098 0.000000
305.113160 -24.715988 -0.125723 0.000000
306.984860 -25.497608 -0.100870 0.000000
309.514160 -26.540909 -0.067184 0.000000
313.930760 -27.868320 -0.057455 0.000000
303.784610 -23.952148 -0.137688 0.000000
305.265200 -24.420874 -0.106162 0.000000
307.170350 -25.166756 -0.084104 0.000000
309.563140 -26.214203 -0.043001 0.000000
309.814120 -26.027210 -0.047132 0.000000
313.976200 -27.460903 -0.032670 0.000000
303.977570 -23.616455 -0.114511 0.000000
305.425990 -24.136387 -0.089981 0.000000
307.346370 -24.832745 -0.067567 0.000000
309.956240 -25.766516 -0.037011 0.000000
314.129970 -27.121578 -0.019939 0.000000
304.158630 -23.277500 -0.091753 0.000000
305.587520 -23.855797 -0.075782 0.000000
307.514070 -24.495846 -0.051086 0.000000
310.114010 -25.344374 -0.015939 0.000000
314.279390 -26.781235 -0.007427 0.000000
304.327060 -22.935114 -0.069255 0.000000
305.791660 -23.477270 -0.057001 0.000000
307.672580 -24.156446 -0.034894 0.000000
314.304720 -26.377457 0.016719 0.000000
304.501890 -22.602415 -0.051126 0.000000
305.981870 -23.093559 -0.038331 0.000000
307.870970 -23.700420 -0.013576 0.000000
310.479980 -24.705585 0.002936 0.000000
304.712830 -22.186802 -0.030817 0.000000
306.158200 -22.705273 -0.019817 0.000000
308.025300 -23.364283 -0.000093 0.000000
310.655580 -24.299847 0.017872 0.000000
314.585330 -25.698551 0.040018 0.000000
304.905730 -21.764666 -0.010583 0.000000
306.320340 -22.312754 -0.001423 0.000000
308.176420 -23.028210 0.012304 0.000000
310.863860 -23.911131 0.027635 0.000000
315.164340 -25.560549 0.009085 0.000000
305.051060 -21.425098 0.004435 0.000000
306.489070 -21.926487 0.013284 0.000000
308.349910 -22.703701 0.020257 0.000000
308.469850 -22.488880 0.024225 0.000000
311.016140 -23.657579 0.031832 0.000000
315.312380 -25.217056 0.019042 0.000000
305.221100 -21.098885 0.012213 0.000000
306.688450 -21.555353 0.020478 0.000000
308.586550 -22.271879 0.028149 0.000000
311.190980 -23.252426 0.043417 0.000000
315.460360 -24.873613 0.028428 0.000000
305.387510 -20.769995 0.018524 0.000000
306.877690 -21.177805 0.027265 0.000000
308.754520 -21.941956 0.034011 0.000000
311.344360 -22.838041 0.056395 0.000000
315.608400 -24.530029 0.037245 0.000000
305.542760 -20.435024 0.024804 0.000000
307.055110 -20.793486 0.033880 0.000000
308.966610 -21.495029 0.041756 0.000000
311.536500 -22.438519 0.063528 0.000000
315.829650 -24.013409 0.049451 0.000000
305.720550 -20.008141 0.032535 0.000000
307.180080 -20.500980 0.038820 0.000000
309.116210 -21.154613 0.047561 0.000000
311.729030 -22.036968 0.069623 0.000000
316.050900 -23.495274 0.060596 0.000000
305.883360 -19.574139 0.039840 0.000000
307.296720 -20.204414 0.043748 0.000000
309.256680 -20.809406 0.053288 0.000000
311.859040 -21.768082 0.072847 0.000000
316.222780 -23.156174 0.065201 0.000000
306.000400 -19.221331 0.045508 0.000000
307.441100 -19.803963 0.050268 0.000000
309.392880 -20.461393 0.058535 0.000000
312.100040 -21.374325 0.071744 0.000000
316.419070 -22.822094 0.067232 0.000000
306.105350 -18.863979 0.051113 0.000000
307.571560 -19.397758 0.056776 0.000000
309.521510 -20.109253 0.063470 0.000000
312.325900 -20.971317 0.071409 0.000000
316.654050 -22.495424 0.065533 0.000000
306.197880 -18.502451 0.056679 0.000000
307.697080 -18.988012 0.061880 0.000000
309.686190 -19.635061 0.069186 0.000000
312.433930 -20.688536 0.075152 0.000000
316.891750 -22.164442 0.063258 0.000000
306.295680 -18.139633 0.059159 0.000000
307.831020 -18.576523 0.063599 0.000000
309.801330 -19.275190 0.073233 0.000000
312.535030 -20.402838 0.079116 0.000000
306.407440 -17.680346 0.060885 0.000000
307.946170 -18.158003 0.065983 0.000000
309.905520 -18.910841 0.077338 0.000000
312.679960 -19.970343 0.084734 0.000000
316.831270 -21.367420 0.102183 0.000000
306.517820 -17.120800 0.062741 0.000000
306.486020 -17.308546 0.061903 0.000000
308.013820 -17.839577 0.069157 0.000000
310.002440 -18.543377 0.081282 0.000000
312.947940 -19.555622 0.076616 0.000000
317.068210 -21.029757 0.098509 0.000000
306.561130 -16.837448 0.063607 0.000000
308.075440 -17.518614 0.071827 0.000000
310.087160 -18.171885 0.085395 0.000000
312.781040 -19.221657 0.106094 0.000000
317.402890 -20.704449 0.086508 0.000000
306.606320 -16.456825 0.064948 0.000000
308.142850 -17.087061 0.075656 0.000000
310.163850 -17.797642 0.089402 0.000000
313.009490 -18.793497 0.100011 0.000000
317.585820 -20.344118 0.086574 0.000000
306.632510 -16.073648 0.067126 0.000000
308.195220 -16.651905 0.079388 0.000000
310.229890 -17.420162 0.093337 0.000000
313.113530 -18.344505 0.105597 0.000000
317.769470 -19.979662 0.086143 0.000000
306.640620 -15.592482 0.070686 0.000000
306.640110 -15.785223 0.069282 0.000000
308.233150 -16.213623 0.082904 0.000000
310.302950 -16.912924 0.098547 0.000000
318.119570 -19.632740 0.072021 0.000000
306.631620 -15.206002 0.073167 0.000000
308.267210 -15.771825 0.084678 0.000000
310.365720 -16.529716 0.100101 0.000000
313.320530 -17.590147 0.108712 0.000000
306.634890 -14.716451 0.070938 0.000000
308.329320 -15.322632 0.080199 0.000000
310.436000 -16.142433 0.099375 0.000000
313.590150 -17.135031 0.094789 0.000000
306.636140 -14.319523 0.066562 0.000000
308.367680 -14.982126 0.076540 0.000000
310.501680 -15.751560 0.098085 0.000000
313.510560 -16.821682 0.110353 0.000000
308.396820 -14.638286 0.072696 0.000000
310.572630 -15.224308 0.096259 0.000000
310.540250 -15.488665 0.097091 0.000000
313.505490 -16.199451 0.124498 0.000000
313.587250 -16.509897 0.109985 0.000000
308.416960 -14.292206 0.068908 0.000000
310.602390 -14.958243 0.095160 0.000000
313.719970 -15.878769 0.109636 0.000000
310.636930 -14.556342 0.093532 0.000000
310.663270 -14.151567 0.091677 0.000000
313.831090 -15.238188 0.109169 0.000000
297.061710 -25.047192 0.278537 0.000000
298.730710 -24.440756 0.241055 0.000000
299.005100 -24.342236 0.338570 0.000000
302.958920 -24.618629 0.341848 0.000000
301.008330 -23.614922 0.314046 0.000000
297.056700 -25.052061 0.658991 0.000000
298.999330 -24.347332 0.713154 0.000000
302.942350 -24.613153 0.702069 0.000000
301.001340 -23.620558 0.705936 0.000000
295.797240 -25.512615 1.081481 0.000000
296.101530 -25.402248 1.094094 0.000000
296.325620 -25.320986 1.102945 0.000000
296.618770 -25.214661 1.113836 0.000000
297.087010 -25.044073 1.036215 0.000000
297.612920 -24.854042 1.145667 0.000000
297.890530 -24.752838 1.153139 0.000000
314.404210 -30.591423 1.252902 0.000000
312.305540 -29.488758 1.304684 0.000000
298.993650 -24.352509 1.083476 0.000000
310.625920 -28.616459 1.345635 0.000000
300.401460 -23.843540 1.188963 0.000000
301.651120 -23.953197 1.353307 0.000000
302.039030 -24.154612 1.335608 0.000000
302.461670 -24.374033 1.316190 0.000000
302.925810 -24.611750 1.176892 0.000000
300.994450 -23.626154 1.093363 0.000000
297.048070 -25.060436 1.315349 0.000000
298.989350 -24.356113 1.359394 0.000000
300.470580 -23.818844 1.378218 0.000000
301.301450 -23.777418 1.368815 0.000000
302.905580 -24.602036 1.530830 0.000000
300.989320 -23.630327 1.381985 0.000000
305.567930 -38.832008 -1.074586 0.000000
305.925420 -38.630409 -1.060281 0.000000
306.303740 -38.481087 -1.053851 0.000000
306.961240 -37.970985 -1.014141 0.000000
307.350800 -37.848370 -1.013683 0.000000
307.436250 -37.137817 -0.931793 0.000000
307.615840 -36.643600 -0.880209 0.000000
314.313260 -38.880302 -0.853323 0.000000
295.927730 -34.862206 -0.880338 0.000000
296.389340 -35.001667 -0.893744 0.000000
296.859830 -34.793304 -0.854856 0.000000
297.469090 -34.470108 -0.798834 0.000000
297.773130 -34.481525 -0.798548 0.000000
298.063840 -34.262131 -0.763487 0.000000
298.375850 -34.402302 -0.784384 0.000000
298.660340 -34.197498 -0.752972 0.000000
298.977260 -34.331196 -0.774263 0.000000
299.561430 -34.146523 -0.749457 0.000000
299.835020 -33.960045 -0.723570 0.000000
300.192020 -34.248718 -0.771621 0.000000
300.471040 -34.094322 -0.752069 0.000000
300.921940 -34.029831 -0.749935 0.000000
301.366880 -33.934952 -0.744507 0.000000
301.947720 -33.760361 -0.732350 0.000000
307.785190 -36.155987 -0.829729 0.000000
302.515960 -33.548828 -0.717165 0.000000
307.865780 -35.541477 -0.761261 0.000000
313.966400 -37.697826 -0.731447 0.000000
296.045100 -31.017811 -0.598251 0.000000
296.413420 -30.946154 -0.578121 0.000000
302.795040 -33.430763 -0.708653 0.000000
303.132230 -33.469547 -0.725726 0.000000
314.235630 -37.296951 -0.707821 0.000000
296.655640 -30.934879 -0.572070 0.000000
296.897250 -30.916512 -0.565427 0.000000
297.498540 -30.861589 -0.550189 0.000000
303.338780 -33.162857 -0.688585 0.000000
297.967830 -30.695667 -0.519386 0.000000
303.603940 -33.016407 -0.677533 0.000000
303.801610 -32.718189 -0.642665 0.000000
308.157320 -34.611477 -0.667108 0.000000
298.429320 -30.539967 -0.492950 0.000000
308.275210 -34.134445 -0.618381 0.000000
313.893130 -36.212162 -0.596279 0.000000
298.878600 -30.350807 -0.463117 0.000000
299.208130 -30.198103 -0.440350 0.000000
304.257050 -32.294353 -0.602161 0.000000
308.413790 -33.707939 -0.577094 0.000000
314.198550 -35.887489 -0.582440 0.000000
296.005920 -28.697567 -0.452479 0.000000
299.530000 -30.035690 -0.417341 0.000000
304.443360 -32.010773 -0.570922 0.000000
304.615780 -31.713463 -0.537767 0.000000
308.586610 -33.345821 -0.545469 0.000000
296.312230 -28.681355 -0.441662 0.000000
296.616940 -28.650663 -0.429567 0.000000
296.919770 -28.610723 -0.416910 0.000000
300.102840 -29.960293 -0.416477 0.000000
304.779820 -31.414219 -0.504587 0.000000
308.688870 -32.899910 -0.501470 0.000000
313.852450 -34.878643 -0.478711 0.000000
297.418980 -28.536934 -0.397749 0.000000
297.714230 -28.456789 -0.380866 0.000000
300.274630 -29.704378 -0.376942 0.000000
300.846770 -29.635418 -0.382727 0.000000
304.937130 -31.116264 -0.471892 0.000000
308.875400 -32.580711 -0.476658 0.000000
314.139160 -34.561413 -0.465937 0.000000
301.274480 -29.474335 -0.371058 0.000000
305.157650 -30.937807 -0.459607 0.000000
313.924560 -33.753281 -0.387129 0.000000
301.589450 -29.339672 -0.361289 0.000000
301.791750 -29.231960 -0.352277 0.000000
308.755770 -31.885181 -0.394414 0.000000
308.944000 -31.596325 -0.374271 0.000000
305.415890 -30.054491 -0.356021 0.000000
309.015260 -31.176373 -0.333915 0.000000
313.627530 -32.901669 -0.301099 0.000000
313.926300 -32.633373 -0.294926 0.000000
319.777280 -19.739996 0.058078 0.000000
319.876680 -18.946634 0.074750 0.000000
320.040010 -18.556044 0.073350 0.000000
320.300260 -17.758352 0.074213 0.000000
320.448730 -18.171255 0.052484 0.000000
315.471560 -15.366610 0.081333 0.000000
315.551760 -15.032217 0.077086 0.000000
315.971280 -14.648859 0.039572 0.000000
316.007200 -14.306588 0.038459 0.000000
316.026860 -13.964016 0.038286 0.000000
298.005070 -28.369524 -0.364104 0.000000
298.291990 -28.272778 -0.346664 0.000000
298.480530 -28.203190 -0.334815 0.000000
298.759030 -28.091448 -0.316742 0.000000
299.032990 -27.972031 -0.298281 0.000000
299.300930 -27.843678 -0.279430 0.000000
302.295650 -28.967892 -0.333276 0.000000
299.564180 -27.709602 -0.260526 0.000000
299.736390 -27.616306 -0.247852 0.000000
302.581730 -28.778843 -0.317753 0.000000
302.774930 -28.661163 -0.309703 0.000000
305.571930 -29.568058 -0.301488 0.000000
300.071990 -27.417049 -0.221507 0.000000
300.235870 -27.313602 -0.208324 0.000000
302.995570 -28.358664 -0.274662 0.000000
305.724400 -29.328270 -0.280079 0.000000
309.050050 -30.493790 -0.264716 0.000000
300.476140 -27.152819 -0.188393 0.000000
303.271330 -27.948675 -0.227742 0.000000
305.831420 -29.033546 -0.249191 0.000000
309.285610 -30.057869 -0.234769 0.000000
313.676730 -31.878670 -0.220561 0.000000
301.019840 -26.773462 -0.145218 0.000000
305.978550 -28.593884 -0.203447 0.000000
309.227720 -29.555870 -0.180296 0.000000
313.963650 -31.613203 -0.215184 0.000000
301.492860 -26.494984 -0.122687 0.000000
303.645260 -27.324404 -0.157671 0.000000
306.113710 -28.158472 -0.158573 0.000000
309.362000 -29.261822 -0.159886 0.000000
313.754970 -30.937588 -0.150546 0.000000
301.948210 -26.194328 -0.099834 0.000000
303.868800 -26.904335 -0.111378 0.000000
306.196380 -27.871494 -0.129297 0.000000
309.305080 -28.792046 -0.109851 0.000000
313.603300 -30.333616 -0.095278 0.000000
302.157560 -26.017014 -0.084322 0.000000
304.024200 -26.588713 -0.077043 0.000000
306.265780 -27.396889 -0.077042 0.000000
309.450900 -28.524887 -0.094011 0.000000
302.480410 -25.528639 -0.026002 0.000000
304.167210 -26.272547 -0.043012 0.000000
306.405000 -27.018368 -0.042822 0.000000
309.358430 -28.050768 -0.042230 0.000000
313.659150 -29.455341 -0.032278 0.000000
302.708130 -25.243931 0.002120 0.000000
304.446930 -25.820415 -0.003042 0.000000
306.545620 -26.822147 -0.031156 0.000000
309.727200 -27.609779 -0.027664 0.000000
314.468990 -29.588787 -0.090396 0.000000
302.959140 -25.146790 -0.004795 0.000000
303.316930 -25.035398 -0.021320 0.000000
304.760500 -25.720469 -0.017640 0.000000
305.076930 -25.614403 -0.032754 0.000000
307.019810 -26.453360 -0.028561 0.000000
310.147130 -27.576187 -0.055662 0.000000
310.659240 -27.599686 -0.096260 0.000000
314.646300 -29.256828 -0.077110 0.000000
303.853300 -24.842716 -0.045821 0.000000
304.358610 -24.852516 -0.101726 0.000000
305.366240 -25.469990 -0.041524 0.000000
307.360810 -26.277512 -0.038443 0.000000
307.915830 -26.269791 -0.086855 0.000000
310.709260 -27.263760 -0.070473 0.000000
314.690090 -28.838362 -0.050050 0.000000
315.181300 -28.712637 -0.071841 0.000000
304.766300 -24.730860 -0.129848 0.000000
306.242130 -25.281487 -0.106041 0.000000
308.185760 -26.009789 -0.083850 0.000000
310.864350 -27.009438 -0.060464 0.000000
315.268010 -28.325167 -0.050757 0.000000
305.007750 -24.438873 -0.115769 0.000000
305.105870 -24.273575 -0.104326 0.000000
306.517640 -24.952831 -0.094836 0.000000
308.369290 -25.681000 -0.067160 0.000000
310.907780 -26.679483 -0.035821 0.000000
311.160310 -26.493931 -0.040452 0.000000
315.312130 -27.917870 -0.026197 0.000000
305.254580 -24.030054 -0.089127 0.000000
306.686280 -24.676247 -0.080450 0.000000
308.602910 -25.239555 -0.045450 0.000000
311.300140 -26.232279 -0.030320 0.000000
315.462370 -27.577278 -0.013459 0.000000
305.458560 -23.713917 -0.072650 0.000000
306.899510 -24.302540 -0.061331 0.000000
308.781980 -24.914337 -0.031534 0.000000
311.436130 -25.969200 -0.020325 0.000000
315.607820 -27.235592 -0.000904 0.000000
305.650820 -23.392246 -0.056255 0.000000
307.099460 -23.923861 -0.042433 0.000000
308.960330 -24.590775 -0.019122 0.000000
311.469330 -25.646597 0.002288 0.000000
315.632390 -26.832424 0.022965 0.000000
305.830870 -23.065182 -0.039867 0.000000
307.286160 -23.540730 -0.023792 0.000000
309.183170 -24.152483 -0.002318 0.000000
311.812810 -25.167351 0.009860 0.000000
315.757930 -26.485985 0.036011 0.000000
306.038570 -22.649654 -0.019552 0.000000
307.459630 -23.153578 -0.005426 0.000000
309.340420 -23.819757 0.010246 0.000000
311.999730 -24.768278 0.022964 0.000000
306.228270 -22.227854 0.000675 0.000000
307.627500 -22.766838 0.011321 0.000000
309.499660 -23.489288 0.021001 0.000000
312.228030 -24.389853 0.029881 0.000000
316.450200 -25.998484 0.018218 0.000000
306.337590 -21.974369 0.011799 0.000000
306.427920 -21.814768 0.014952 0.000000
307.825710 -22.397312 0.020401 0.000000
309.740510 -23.062555 0.029305 0.000000
312.379820 -24.136024 0.033887 0.000000
316.594180 -25.654871 0.028154 0.000000
306.557530 -21.571854 0.019770 0.000000
307.977020 -22.120754 0.025413 0.000000
308.073850 -21.933908 0.028733 0.000000
309.914150 -22.737776 0.035246 0.000000
312.549990 -23.728882 0.045649 0.000000
316.738070 -25.311420 0.037519 0.000000
306.722560 -21.243345 0.025913 0.000000
308.212520 -21.649860 0.033759 0.000000
310.079250 -22.407707 0.041113 0.000000
312.698060 -23.312498 0.058867 0.000000
316.881960 -24.967941 0.046315 0.000000
306.914700 -20.824799 0.033151 0.000000
308.386900 -21.265436 0.040405 0.000000
310.292910 -21.962742 0.048116 0.000000
312.885960 -22.911640 0.066095 0.000000
317.097080 -24.451757 0.058475 0.000000
307.089940 -20.397867 0.040392 0.000000
308.509640 -20.972973 0.045363 0.000000
310.444980 -21.624130 0.053202 0.000000
313.074130 -22.508924 0.072283 0.000000
317.336430 -23.942421 0.067415 0.000000
307.216490 -20.050207 0.046135 0.000000
308.624050 -20.676575 0.050303 0.000000
310.587890 -21.280514 0.058235 0.000000
313.189270 -22.235638 0.076883 0.000000
317.550510 -23.618036 0.067941 0.000000
307.331150 -19.697731 0.051831 0.000000
308.765500 -20.276508 0.056828 0.000000
310.722930 -20.932966 0.063270 0.000000
313.407230 -21.836071 0.077860 0.000000
317.772710 -23.292171 0.067381 0.000000
307.433720 -19.340864 0.057459 0.000000
308.893770 -19.871048 0.063220 0.000000
310.850220 -20.581278 0.068013 0.000000
313.622190 -21.431606 0.078237 0.000000
317.997160 -22.962601 0.066252 0.000000
307.528560 -18.980740 0.062246 0.000000
309.016270 -19.462048 0.068335 0.000000
311.012510 -20.107655 0.073555 0.000000
313.726040 -21.148975 0.082117 0.000000
318.223970 -22.629009 0.064555 0.000000
307.629390 -18.619289 0.063836 0.000000
309.127440 -19.048321 0.072988 0.000000
311.124540 -19.748037 0.077636 0.000000
313.872160 -20.720425 0.087930 0.000000
307.736880 -18.160604 0.065825 0.000000
309.248660 -18.524668 0.078445 0.000000
309.201840 -18.734905 0.076453 0.000000
311.225650 -19.384109 0.081772 0.000000
314.009890 -20.287777 0.093585 0.000000
318.206420 -21.842777 0.099323 0.000000
307.817350 -17.695366 0.069147 0.000000
309.310910 -18.206991 0.081505 0.000000
311.318570 -19.017082 0.085861 0.000000
314.227170 -20.018509 0.083669 0.000000
318.432980 -21.502579 0.096181 0.000000
307.862730 -17.319302 0.072351 0.000000
309.368800 -17.887445 0.084091 0.000000
311.396150 -18.645927 0.090500 0.000000
314.059270 -19.686020 0.113022 0.000000
318.755650 -21.174694 0.084803 0.000000
307.894070 -16.940786 0.075611 0.000000
309.414180 -17.565283 0.087099 0.000000
311.485410 -18.146994 0.096596 0.000000
314.286250 -19.259630 0.106608 0.000000
318.953250 -20.816828 0.083341 0.000000
307.913730 -16.560263 0.078513 0.000000
309.464020 -17.133028 0.090769 0.000000
311.541020 -17.769995 0.101172 0.000000
314.419740 -18.815548 0.108783 0.000000
319.147060 -20.453606 0.081769 0.000000
307.918240 -16.082445 0.082056 0.000000
309.505740 -16.588722 0.095174 0.000000
309.491700 -16.806974 0.093488 0.000000
311.595490 -17.390671 0.104491 0.000000
319.481660 -20.104031 0.068511 0.000000
307.912870 -15.601760 0.083819 0.000000
309.545200 -16.258213 0.093952 0.000000
311.657260 -17.009108 0.105818 0.000000
314.650330 -18.064447 0.108852 0.000000
307.926360 -15.112188 0.078747 0.000000
307.923070 -15.308710 0.080915 0.000000
309.606050 -15.811780 0.089261 0.000000
311.707640 -16.624199 0.107126 0.000000
314.936980 -17.610262 0.092786 0.000000
307.923800 -14.816215 0.075521 0.000000
309.637760 -15.361959 0.086350 0.000000
311.749630 -16.236837 0.108310 0.000000
314.855130 -17.297136 0.108376 0.000000
307.908750 -14.419694 0.071067 0.000000
309.647400 -15.022844 0.084684 0.000000
311.780910 -15.846640 0.109345 0.000000
314.844670 -16.675430 0.122599 0.000000
314.928590 -16.985498 0.108063 0.000000
307.887660 -14.121396 0.067777 0.000000
309.647090 -14.681816 0.082909 0.000000
311.855650 -15.317521 0.104876 0.000000
315.054900 -16.355000 0.107827 0.000000
309.633700 -14.224891 0.080338 0.000000
311.811370 -14.928830 0.111968 0.000000
315.256620 -16.027258 0.093415 0.000000
311.822630 -14.529600 0.110985 0.000000
311.832150 -14.126945 0.109004 0.000000
295.760040 -25.530289 0.358158 0.000000
297.086700 -25.048195 0.383588 0.000000
299.020870 -24.346228 0.408071 0.000000
299.634370 -24.122925 0.424043 0.000000
300.497620 -23.810375 0.429175 0.000000
301.001740 -23.627277 0.423243 0.000000
295.758390 -25.531525 0.547862 0.000000
297.082730 -25.052467 0.736948 0.000000
298.010930 -24.716969 0.872445 0.000000
298.646940 -24.483051 0.562721 0.000000
299.036870 -24.343243 0.743365 0.000000
299.262300 -24.261702 0.749938 0.000000
299.877720 -24.037628 0.595035 0.000000
300.119420 -23.950569 0.847374 0.000000
300.996280 -23.632002 0.763721 0.000000
295.909150 -25.481571 1.118195 0.000000
296.215970 -25.370316 1.133685 0.000000
296.511050 -25.263306 1.147825 0.000000
296.798740 -25.158974 1.161076 0.000000
297.044190 -25.069263 1.084808 0.000000
297.282470 -24.982857 1.181795 0.000000
297.550290 -24.886398 1.192331 0.000000
297.877440 -24.767744 1.204379 0.000000
314.615480 -30.687977 1.278524 0.000000
298.134670 -24.674435 1.213243 0.000000
298.387700 -24.582647 1.221257 0.000000
312.854400 -29.779600 1.321452 0.000000
298.638240 -24.491753 1.228691 0.000000
298.979800 -24.367168 1.155512 0.000000
299.439060 -24.201195 1.248082 0.000000
299.745150 -24.090130 1.253944 0.000000
299.929050 -24.023390 1.256943 0.000000
300.298550 -23.889204 1.262003 0.000000
304.207580 -25.291924 1.291818 0.000000
300.484530 -23.821413 1.264081 0.000000
300.609500 -23.776436 1.265230 0.000000
302.615140 -24.460043 1.364744 0.000000
302.964540 -24.641422 1.348998 0.000000
303.342290 -24.837524 1.331842 0.000000
303.752320 -25.050421 1.313079 0.000000
300.989500 -23.637840 1.184303 0.000000
297.075930 -25.059853 1.346564 0.000000
