# .PCD v0.7 - Point Cloud Data file format
VERSION 0.7
FIELDS x y z intensity
SIZE 4 4 4 4
TYPE F F F F
COUNT 1 1 1 1
WIDTH 107
HEIGHT 1
VIEWPOINT 0 0 0 1 0 0 0
POINTS 107
DATA ascii
338.441590 -90.338165 -1.420574 0.000000
341.525510 -89.472832 -1.384698 0.000000
343.929200 -91.531433 -1.358062 0.000000
341.221040 -90.200699 -1.300130 0.000000
344.486880 -89.557228 -1.275654 0.000000
345.339110 -93.179001 -1.238221 0.000000
338.679110 -90.249901 -1.428282 0.000000
341.050050 -91.029427 -1.319996 0.000000
342.240510 -91.181229 -1.330611 0.000000
342.799590 -89.278038 -1.232717 0.000000
344.017940 -89.522858 -1.249947 0.000000
338.720210 -90.055756 -1.430289 0.000000
340.650760 -89.212265 -1.294251 0.000000
341.696040 -89.558891 -1.309407 0.000000
340.019320 -90.749619 -1.366988 0.000000
341.030150 -90.923935 -1.370995 0.000000
341.073580 -90.357208 -1.324572 0.000000
342.778750 -88.989975 -1.232552 0.000000
342.138700 -90.069611 -1.291608 0.000000
343.120640 -90.299591 -1.300621 0.000000
342.507320 -91.906601 -1.367366 0.000000
343.650730 -92.431404 -1.343002 0.000000
344.383150 -90.709206 -1.234631 0.000000
345.340060 -90.859627 -1.239356 0.000000
344.814670 -92.994171 -1.321225 0.000000
345.543520 -91.262589 -1.212885 0.000000
339.697940 -88.956512 -1.345470 0.000000
340.444000 -89.135193 -1.342633 0.000000
341.179080 -89.360687 -1.344242 0.000000
338.911190 -89.141113 -1.340196 0.000000
341.864040 -89.969162 -1.335115 0.000000
343.640200 -88.932129 -1.228170 0.000000
344.371310 -89.061676 -1.225373 0.000000
344.095890 -91.222961 -1.219666 0.000000
344.832820 -91.470261 -1.225661 0.000000
345.573610 -91.716820 -1.232432 0.000000
342.772770 -90.585320 -1.263912 0.000000
343.486600 -90.846573 -1.267403 0.000000
339.883790 -90.926758 -1.348135 0.000000
340.612430 -91.175407 -1.345932 0.000000
341.340760 -91.424286 -1.344634 0.000000
342.062840 -91.694458 -1.345857 0.000000
342.788150 -91.959129 -1.347498 0.000000
345.365480 -91.097824 -1.232060 0.000000
343.723330 -92.420822 -1.261044 0.000000
344.399600 -92.758675 -1.267004 0.000000
345.082730 -93.087273 -1.273007 0.000000
341.644070 -90.899101 -1.283868 0.000000
342.273930 -91.281036 -1.289813 0.000000
342.929600 -91.609383 -1.292047 0.000000
345.172270 -89.845215 -1.222380 0.000000
345.158330 -90.354416 -1.232475 0.000000
344.690280 -89.191856 -1.233704 0.000000
345.370300 -89.555130 -1.203815 0.000000
343.877230 -90.846375 -1.300002 0.000000
344.598880 -91.224335 -1.268312 0.000000
345.305450 -91.592934 -1.237979 0.000000
343.138610 -88.939720 -1.268540 0.000000
343.777980 -89.381226 -1.242924 0.000000
344.580320 -89.724808 -1.202687 0.000000
343.344850 -92.270241 -1.340493 0.000000
344.091920 -92.664215 -1.307618 0.000000
344.827240 -93.046326 -1.275808 0.000000
345.550900 -93.417305 -1.245065 0.000000
342.647130 -90.256683 -1.305705 0.000000
343.314360 -90.712280 -1.278340 0.000000
344.146270 -91.068245 -1.236593 0.000000
343.384340 -89.159737 -1.212769 0.000000
345.173100 -92.378006 -1.281694 0.000000
344.555360 -90.396011 -1.246079 0.000000
345.239260 -90.819344 -1.214714 0.000000
345.284790 -89.326683 -1.154826 0.000000
345.006230 -89.075714 -1.197570 0.000000
345.114260 -89.719231 -1.171988 0.000000
341.612240 -88.963303 -1.282256 0.000000
342.887760 -90.149414 -1.264682 0.000000
343.683530 -89.487984 -1.289756 0.000000
340.190000 -89.568871 -1.326603 0.000000
339.329100 -89.149750 -1.370292 0.000000
341.036930 -89.972565 -1.284193 0.000000
335.471890 -89.092926 -1.450800 0.000000
337.309690 -89.806152 -1.407271 0.000000
342.660190 -90.250435 -1.252263 0.000000
345.038790 -92.760429 -1.240244 0.000000
344.282990 -92.496635 -1.270231 0.000000
343.546600 -92.198792 -1.298058 0.000000
342.763700 -91.919884 -1.330447 0.000000
342.018590 -91.593201 -1.358909 0.000000
345.246550 -92.695236 -1.284496 0.000000
345.042570 -90.543457 -1.252691 0.000000
345.516570 -89.250191 -1.149327 0.000000
344.895750 -88.952095 -1.170562 0.000000
345.280210 -89.187103 -1.152389 0.000000
344.700070 -91.180771 -1.251999 0.000000
343.573030 -91.080795 -1.241718 0.000000
343.277890 -89.305122 -1.260079 0.000000
342.153660 -89.121910 -1.244289 0.000000
341.506440 -91.114365 -1.346464 0.000000
340.398960 -91.067207 -1.339561 0.000000
342.673650 -90.821701 -1.311159 0.000000
341.499880 -90.600296 -1.294784 0.000000
343.791410 -90.025131 -1.259598 0.000000
342.634310 -89.964890 -1.250145 0.000000
340.461490 -89.607544 -1.345459 0.000000
339.312010 -89.502396 -1.336746 0.000000
337.181270 -89.326683 -1.450534 0.000000
336.041780 -89.203117 -1.442355 0.000000
