# .PCD v0.7 - Point Cloud Data file format
VERSION 0.7
FIELDS x y z intensity
SIZE 4 4 4 4
TYPE F F F F
COUNT 1 1 1 1
WIDTH 1166
HEIGHT 1
VIEWPOINT 0 0 0 1 0 0 0
POINTS 1166
DATA ascii
341.932400 279.514070 12.097135 0.000000
344.087100 282.280980 12.238354 0.000000
336.368230 283.864200 12.209120 0.000000
336.763700 285.998080 12.399403 0.000000
339.377530 277.380460 11.766584 0.000000
343.726320 262.259400 11.752283 0.000000
337.782710 262.681150 11.667404 0.000000
340.470670 262.649840 11.713661 0.000000
337.360110 264.250460 11.662239 0.000000
339.172940 264.785000 11.771546 0.000000
343.336790 270.534670 11.907875 0.000000
343.396210 273.925540 11.930319 0.000000
337.994900 277.832950 11.913387 0.000000
339.951200 277.716740 11.930744 0.000000
342.077970 277.838620 11.974924 0.000000
345.241850 277.776000 12.011609 0.000000
321.103150 280.915800 11.631851 0.000000
323.934510 280.887020 11.693582 0.000000
334.698640 281.009220 11.872544 0.000000
337.325990 280.990840 11.922259 0.000000
340.134580 280.937130 11.977246 0.000000
344.323760 264.587310 11.862845 0.000000
341.446350 265.180150 11.843770 0.000000
344.887540 266.496000 11.919229 0.000000
342.064510 266.703370 11.885278 0.000000
338.479950 266.794340 11.819257 0.000000
340.102910 266.828430 11.847315 0.000000
336.047820 279.171020 11.996879 0.000000
337.887660 279.214140 12.042987 0.000000
340.301760 279.251130 12.075988 0.000000
343.360110 279.399810 12.119014 0.000000
340.800960 282.244260 12.165565 0.000000
345.120300 282.277950 12.268353 0.000000
338.381380 283.482910 12.224751 0.000000
336.477260 284.282170 12.248714 0.000000
320.968480 277.222020 11.441925 0.000000
345.538390 262.498050 11.795062 0.000000
339.443050 262.660680 11.698987 0.000000
342.156800 262.611300 11.742952 0.000000
340.615140 264.418550 11.789616 0.000000
341.361970 267.214630 11.711447 0.000000
345.006870 270.525970 11.935879 0.000000
345.037290 273.917240 11.959045 0.000000
341.019900 277.369690 11.791031 0.000000
341.600190 277.709930 11.953953 0.000000
343.735080 277.835630 11.997955 0.000000
322.309450 277.780090 11.618752 0.000000
321.861510 279.103240 11.696823 0.000000
341.687930 280.845370 12.012215 0.000000
323.031130 280.927920 11.674722 0.000000
325.987520 280.937960 11.740882 0.000000
336.155330 281.036010 11.899238 0.000000
340.150970 282.032140 12.037274 0.000000
342.992250 264.687190 11.849973 0.000000
339.984890 266.665890 11.858633 0.000000
343.789830 266.666140 11.908171 0.000000
341.780210 266.808500 11.874758 0.000000
337.515500 279.216950 12.028804 0.000000
339.536990 279.207700 12.064014 0.000000
341.981600 279.266200 12.093860 0.000000
345.048190 279.414730 12.138303 0.000000
342.405400 282.194640 12.190991 0.000000
322.844180 282.203700 11.821045 0.000000
338.317050 282.288970 12.133389 0.000000
337.185460 283.012970 12.120918 0.000000
336.643550 284.631160 12.283823 0.000000
322.643250 277.220180 11.468731 0.000000
341.081670 262.671880 11.727870 0.000000
343.802950 262.620390 11.772715 0.000000
340.400210 264.489780 11.782017 0.000000
344.585240 264.454590 11.864647 0.000000
343.000060 267.235870 11.739363 0.000000
342.634550 277.392550 11.817330 0.000000
323.992370 277.765170 11.648262 0.000000
343.222500 277.737430 11.978907 0.000000
345.366520 277.867890 12.022615 0.000000
322.229340 277.933110 11.623571 0.000000
321.053800 279.193820 11.679212 0.000000
323.729370 279.198550 11.739284 0.000000
324.913150 280.983670 11.716510 0.000000
327.651120 280.891850 11.771438 0.000000
337.928710 280.952940 11.925298 0.000000
343.161590 281.066530 12.033311 0.000000
342.380710 264.851140 11.848321 0.000000
341.644960 266.672850 11.881775 0.000000
343.428620 266.824830 11.901756 0.000000
345.631470 266.863890 11.926769 0.000000
339.103180 279.202240 12.059632 0.000000
341.172700 279.247410 12.084772 0.000000
343.638210 279.318270 12.113373 0.000000
324.506840 282.179810 11.843536 0.000000
339.911530 282.274570 12.159952 0.000000
341.513310 282.120450 12.072021 0.000000
343.716310 282.293000 12.229300 0.000000
338.051210 283.003450 12.177486 0.000000
336.807430 284.922360 12.311153 0.000000
335.208650 285.590550 12.264854 0.000000
344.531950 277.331850 11.838073 0.000000
324.575380 277.274170 11.502696 0.000000
330.151280 261.223790 11.439299 0.000000
340.633790 262.686490 11.720053 0.000000
343.064300 262.594570 11.759934 0.000000
344.050450 264.297300 11.859930 0.000000
342.264370 264.508970 11.824709 0.000000
321.039760 264.969330 11.331291 0.000000
343.722560 266.832210 11.902192 0.000000
345.490690 266.854950 11.924019 0.000000
322.534880 270.726380 11.555945 0.000000
321.734560 277.749050 11.604779 0.000000
323.924010 277.640470 11.635474 0.000000
325.922910 277.770360 11.686456 0.000000
343.103880 277.796510 11.985594 0.000000
344.798980 277.967410 12.023211 0.000000
323.987550 280.954190 11.695922 0.000000
327.075740 280.978550 11.765552 0.000000
339.514100 280.911990 11.964478 0.000000
342.172150 280.972930 12.011584 0.000000
325.409060 281.923770 11.774631 0.000000
343.402400 282.087190 12.098795 0.000000
323.209500 279.127840 11.726802 0.000000
325.743530 279.127690 11.783668 0.000000
340.922360 279.188570 12.080348 0.000000
343.048740 279.225250 12.107378 0.000000
345.609440 279.291470 12.137501 0.000000
341.536530 282.303160 12.192661 0.000000
345.666290 282.255620 12.260966 0.000000
322.949650 282.235350 11.823559 0.000000
337.089690 282.502900 12.078975 0.000000
338.398990 283.351930 12.205311 0.000000
337.177220 283.798950 12.174621 0.000000
336.733400 285.101010 12.325784 0.000000
338.516240 285.262850 12.298542 0.000000
335.335660 285.584080 12.270773 0.000000
330.652310 261.824620 11.466907 0.000000
344.944980 262.559720 11.792133 0.000000
343.936980 264.389800 11.854648 0.000000
345.433040 266.751250 11.933103 0.000000
322.358220 270.609010 11.550303 0.000000
324.305760 270.760470 11.589371 0.000000
322.345400 273.725280 11.564167 0.000000
326.293610 277.180390 11.532036 0.000000
323.523560 277.638610 11.625072 0.000000
325.823490 277.680910 11.676346 0.000000
327.584050 277.689120 11.708768 0.000000
328.890560 280.958470 11.793279 0.000000
331.396760 280.932680 11.823207 0.000000
341.047580 280.940520 11.992834 0.000000
343.937900 280.943570 12.037104 0.000000
344.956880 282.135770 12.135638 0.000000
322.235350 279.161770 11.717359 0.000000
325.197170 279.111330 11.769491 0.000000
344.848880 279.211880 12.128645 0.000000
327.747380 279.248350 11.827858 0.000000
327.306610 281.871640 11.804204 0.000000
328.775600 282.203340 11.922014 0.000000
324.939790 282.186000 11.849962 0.000000
338.783450 282.390840 12.114659 0.000000
343.071560 282.332860 12.226066 0.000000
337.067320 282.646060 12.087924 0.000000
338.213840 283.564700 12.225811 0.000000
336.533940 283.696440 12.199211 0.000000
336.829860 285.113190 12.329203 0.000000
338.558260 285.421810 12.312351 0.000000
335.164250 285.476930 12.257454 0.000000
332.002690 261.504060 11.478320 0.000000
330.350100 262.326900 11.419687 0.000000
323.580260 264.732510 11.353531 0.000000
327.634250 277.288820 11.554337 0.000000
345.304200 264.297490 11.867522 0.000000
323.328000 270.569920 11.567140 0.000000
325.426510 270.734040 11.609417 0.000000
323.427060 273.795930 11.589427 0.000000
321.541410 277.668240 11.593548 0.000000
324.821930 277.750310 11.663475 0.000000
327.004180 277.643370 11.690491 0.000000
328.983490 277.783630 11.734066 0.000000
327.391780 280.979250 11.771226 0.000000
330.176790 280.933470 11.808435 0.000000
341.955200 280.950470 12.008668 0.000000
344.693660 281.009860 12.054583 0.000000
323.790920 281.133240 11.698138 0.000000
329.048220 279.190190 11.853319 0.000000
331.134400 279.173650 11.893859 0.000000
326.565090 279.223240 11.804451 0.000000
323.375700 279.373960 11.741144 0.000000
328.780240 281.933620 11.837224 0.000000
326.089940 282.170900 11.869640 0.000000
344.466550 282.155640 12.215052 0.000000
321.529450 282.279940 11.816638 0.000000
338.751830 282.393460 12.118050 0.000000
337.058110 282.521910 12.080727 0.000000
338.250580 283.462980 12.222815 0.000000
336.719540 284.909970 12.310545 0.000000
338.348330 285.073880 12.320244 0.000000
335.270200 285.182460 12.241185 0.000000
330.088410 262.931790 11.328766 0.000000
330.215360 261.402830 11.444475 0.000000
331.596040 262.705410 11.499969 0.000000
325.105960 263.836580 11.365362 0.000000
321.505800 264.810060 11.361975 0.000000
329.076140 277.327970 11.582427 0.000000
321.167140 268.398800 11.448920 0.000000
321.527440 270.329900 11.531031 0.000000
324.594820 270.569950 11.592955 0.000000
326.756470 270.739140 11.636493 0.000000
324.894530 273.563420 11.642102 0.000000
321.552550 273.695800 11.545160 0.000000
327.074190 273.701570 11.685619 0.000000
323.002470 277.692500 11.639312 0.000000
328.439420 277.686650 11.718956 0.000000
326.240660 277.797240 11.695052 0.000000
328.690490 280.837680 11.794323 0.000000
331.647340 280.964690 11.830397 0.000000
334.223790 280.905240 11.858856 0.000000
325.256590 281.160980 11.733446 0.000000
330.531250 279.206390 11.883813 0.000000
332.629180 279.175840 11.923457 0.000000
328.016420 279.261350 11.834541 0.000000
324.797240 279.423650 11.774528 0.000000
343.212460 280.908570 12.031948 0.000000
330.272160 281.938780 11.865279 0.000000
327.567290 282.192140 11.899941 0.000000
322.931430 282.349850 11.847581 0.000000
338.733610 282.368960 12.117691 0.000000
344.761110 282.283720 12.260059 0.000000
338.297330 283.381230 12.218712 0.000000
337.025120 283.575810 12.157178 0.000000
336.829830 284.732790 12.298485 0.000000
338.427860 285.063960 12.305157 0.000000
320.880190 285.121860 12.041768 0.000000
331.812740 261.565670 11.488187 0.000000
333.688600 261.831970 11.460522 0.000000
323.544590 262.131230 11.275825 0.000000
330.644900 262.379090 11.439437 0.000000
332.442660 263.533570 11.539944 0.000000
326.720640 263.926940 11.386697 0.000000
331.180020 264.044430 11.417530 0.000000
323.249050 264.924840 11.386697 0.000000
326.339480 266.140930 11.471087 0.000000
323.308590 268.217650 11.512106 0.000000
323.410580 270.367070 11.567652 0.000000
326.348540 270.597050 11.626586 0.000000
328.396240 270.757350 11.662001 0.000000
323.568660 273.636410 11.596401 0.000000
326.672330 273.771510 11.674759 0.000000
328.811920 277.273440 11.574265 0.000000
330.665590 277.259770 11.606421 0.000000
327.896450 277.708650 11.715700 0.000000
324.935060 277.831510 11.672718 0.000000
333.347690 280.996550 11.853842 0.000000
335.891690 280.900670 11.886202 0.000000
329.683930 279.123570 11.863007 0.000000
332.262660 279.230870 11.915778 0.000000
334.309810 279.183230 11.954992 0.000000
326.691410 279.192290 11.819813 0.000000
322.161930 279.673610 11.717432 0.000000
344.683870 280.935880 12.054555 0.000000
330.420560 280.921940 11.811684 0.000000
332.048400 281.929870 11.894718 0.000000
324.678380 282.164760 11.860541 0.000000
329.437840 282.181000 11.930505 0.000000
339.500920 284.070500 12.139283 0.000000
338.335240 283.235230 12.205251 0.000000
337.038670 283.299620 12.135950 0.000000
336.693270 284.459110 12.270822 0.000000
322.681210 284.874210 12.046680 0.000000
338.487610 284.980380 12.289676 0.000000
334.056460 261.122500 11.536311 0.000000
325.079040 262.210570 11.296076 0.000000
334.553040 262.809080 11.545872 0.000000
331.923740 263.203340 11.518927 0.000000
328.222230 263.987430 11.407685 0.000000
332.439330 264.975160 11.506496 0.000000
324.800870 264.992800 11.408605 0.000000
335.859100 262.595980 11.675219 0.000000
327.879180 266.203890 11.497475 0.000000
324.685490 268.538510 11.519029 0.000000
325.048980 270.402890 11.600704 0.000000
327.902770 270.626070 11.654794 0.000000
329.895570 270.781980 11.685722 0.000000
325.300020 273.621150 11.641975 0.000000
328.229280 273.771550 11.704305 0.000000
330.320890 277.254520 11.602340 0.000000
332.150480 277.247310 11.633724 0.000000
329.365360 277.708950 11.734471 0.000000
326.507660 277.794310 11.701155 0.000000
334.785800 281.004210 11.874886 0.000000
328.165920 279.187010 11.837541 0.000000
333.753300 279.193300 11.946721 0.000000
335.948670 279.209630 12.000384 0.000000
331.348270 279.255400 11.899086 0.000000
323.913090 279.552890 11.759911 0.000000
331.868290 280.924350 11.830849 0.000000
337.680450 280.995120 11.929540 0.000000
329.910160 281.972140 11.866144 0.000000
333.504150 281.916960 11.918055 0.000000
326.457430 282.344820 11.894855 0.000000
337.027160 282.937380 12.114092 0.000000
339.425930 283.902040 12.134592 0.000000
338.345000 283.004490 12.190163 0.000000
336.250120 284.124390 12.223484 0.000000
338.331090 284.595550 12.291919 0.000000
324.211400 284.819180 12.064612 0.000000
326.293550 262.119660 11.294304 0.000000
331.166630 262.088840 11.477579 0.000000
335.882840 263.054960 11.592203 0.000000
331.817230 264.701350 11.471073 0.000000
326.100370 264.965700 11.421968 0.000000
334.712920 262.034670 11.585569 0.000000
332.998630 263.834200 11.561449 0.000000
329.249850 266.204250 11.519675 0.000000
334.519410 266.143590 11.763554 0.000000
325.996520 268.532810 11.536855 0.000000
322.076350 269.323670 11.531941 0.000000
326.408170 270.409550 11.625885 0.000000
329.229340 270.629820 11.673378 0.000000
331.237300 270.786620 11.704766 0.000000
326.726140 273.626620 11.677615 0.000000
329.531950 273.794130 11.721160 0.000000
322.094700 274.157620 11.560041 0.000000
329.713010 277.366000 11.639849 0.000000
331.653440 277.292660 11.622869 0.000000
333.497130 277.282710 11.654665 0.000000
327.830750 277.831480 11.725438 0.000000
335.970460 280.948550 11.891407 0.000000
329.598540 279.174870 11.876872 0.000000
335.163240 279.186920 11.982071 0.000000
337.314730 279.253170 12.023098 0.000000
332.688480 279.302550 11.922419 0.000000
325.247440 279.588410 11.789134 0.000000
329.842350 280.986570 11.809740 0.000000
339.080690 280.989990 11.963578 0.000000
338.932070 281.773410 12.073923 0.000000
327.535860 282.171170 11.911072 0.000000
332.282200 282.189330 11.983602 0.000000
336.370210 282.199770 12.064947 0.000000
339.518680 283.720670 12.125040 0.000000
338.315640 282.662260 12.172094 0.000000
336.706970 283.868710 12.219960 0.000000
338.326080 284.348850 12.277774 0.000000
325.483640 284.919460 12.092082 0.000000
334.993410 285.828370 12.282338 0.000000
336.871950 285.825350 12.390932 0.000000
327.509280 262.037290 11.288596 0.000000
332.077300 263.090360 11.522227 0.000000
334.712460 263.240810 11.565105 0.000000
336.074370 262.690460 11.679239 0.000000
338.223970 262.714390 11.681960 0.000000
336.723140 264.714320 11.754552 0.000000
336.309170 265.779270 11.814208 0.000000
334.361330 265.909670 11.768795 0.000000
334.703550 266.771300 11.639221 0.000000
327.352780 268.532100 11.558095 0.000000
323.494720 269.330630 11.561050 0.000000
327.780610 270.410740 11.650972 0.000000
330.573580 270.628690 11.694396 0.000000
332.583250 270.785550 11.725624 0.000000
328.067780 273.629550 11.701853 0.000000
330.839230 273.802890 11.739672 0.000000
323.566190 274.145840 11.599283 0.000000
331.062500 277.372190 11.667981 0.000000
332.981600 277.309940 11.646417 0.000000
334.830110 277.300290 11.677963 0.000000
336.206120 277.765900 11.865565 0.000000
334.338470 280.870820 11.869951 0.000000
337.325260 280.959630 11.922363 0.000000
340.091890 280.901460 11.977272 0.000000
330.935850 279.189300 11.905329 0.000000
333.891600 279.136930 11.945751 0.000000
336.492860 279.218050 12.006176 0.000000
338.687100 279.241730 12.057158 0.000000
326.606630 279.590700 11.821537 0.000000
332.302980 281.925960 11.902474 0.000000
335.987580 281.892490 11.961139 0.000000
328.868590 282.191930 11.942592 0.000000
340.149660 282.112180 12.050502 0.000000
338.409300 282.345760 12.142655 0.000000
339.581050 283.419220 12.113539 0.000000
336.606810 283.451600 12.183278 0.000000
338.278080 283.991910 12.258990 0.000000
326.759550 284.984770 12.121825 0.000000
336.535030 285.524540 12.352257 0.000000
334.513610 261.967250 11.573646 0.000000
337.111760 262.736330 11.662313 0.000000
333.016540 264.424070 11.589189 0.000000
336.407380 264.675350 11.778366 0.000000
328.791840 266.339230 11.516418 0.000000
335.251340 266.407500 11.757961 0.000000
336.764400 266.752500 11.782918 0.000000
328.652890 268.546300 11.573400 0.000000
324.845950 269.351070 11.582227 0.000000
329.064480 270.425170 11.665518 0.000000
331.862150 270.643830 11.709432 0.000000
333.875580 270.801210 11.741064 0.000000
329.320500 273.653290 11.714620 0.000000
332.095550 273.828580 11.752014 0.000000
324.976290 274.150880 11.629724 0.000000
332.351620 277.399200 11.687439 0.000000
334.647550 277.402860 11.720243 0.000000
336.119870 277.331050 11.696518 0.000000
337.553250 277.758910 11.897457 0.000000
335.576110 280.954680 11.881731 0.000000
338.627260 280.990450 11.945876 0.000000
341.389100 280.950100 11.997642 0.000000
332.204040 279.230500 11.923521 0.000000
335.235630 279.132510 11.975804 0.000000
337.849910 279.194640 12.040946 0.000000
339.826450 279.206820 12.067018 0.000000
327.829350 279.646360 11.835798 0.000000
333.595760 281.959170 11.925728 0.000000
339.532870 282.259830 12.164765 0.000000
344.961550 282.255740 12.256384 0.000000
330.129760 282.242460 11.962623 0.000000
338.366060 283.690340 12.227063 0.000000
327.971370 285.075230 12.140052 0.000000
336.728360 285.198910 12.332261 0.000000
338.259890 285.952360 12.377812 0.000000
331.860470 261.564180 11.485771 0.000000
337.401980 277.349790 11.720423 0.000000
338.419560 262.753600 11.686705 0.000000
337.221920 264.593170 11.723789 0.000000
334.630890 266.001800 11.761277 0.000000
336.468480 266.608610 11.783659 0.000000
330.122190 267.009060 11.571393 0.000000
337.145420 267.146150 11.678759 0.000000
326.097600 269.354550 11.604921 0.000000
330.303380 270.429320 11.684848 0.000000
333.115970 270.649110 11.729011 0.000000
335.193700 270.811430 11.770248 0.000000
330.539790 273.671360 11.732588 0.000000
333.325200 273.847960 11.769053 0.000000
326.328460 274.153660 11.664623 0.000000
333.615720 277.422790 11.710537 0.000000
336.833740 277.669070 11.867417 0.000000
338.841980 277.775390 11.922437 0.000000
336.865630 280.972350 11.908928 0.000000
339.956760 280.961270 11.981848 0.000000
342.506620 280.920410 12.013313 0.000000
336.513980 279.155910 12.000669 0.000000
339.103670 279.245570 12.058746 0.000000
333.462520 279.261630 11.947185 0.000000
329.032040 279.697480 11.855786 0.000000
336.207760 282.262760 12.066524 0.000000
340.563290 282.291600 12.167507 0.000000
331.388150 282.278590 11.988692 0.000000
339.200710 284.432980 12.158692 0.000000
338.271850 283.075380 12.194984 0.000000
336.560460 284.753690 12.288591 0.000000
329.179750 285.151700 12.163978 0.000000
338.152440 285.536410 12.349278 0.000000
332.611050 262.762300 11.526855 0.000000
338.670070 277.355010 11.747214 0.000000
336.845000 262.799410 11.662262 0.000000
339.674470 262.751400 11.703595 0.000000
340.634430 264.527710 11.789970 0.000000
336.496550 264.678250 11.771816 0.000000
338.314090 265.504910 11.803178 0.000000
331.325960 266.346280 11.560912 0.000000
335.599300 266.411380 11.766320 0.000000
339.600250 266.504430 11.849226 0.000000
337.609770 266.789460 11.798428 0.000000
338.360660 267.131230 11.689679 0.000000
331.116850 268.544220 11.610737 0.000000
327.287260 269.353580 11.622051 0.000000
331.514280 270.432560 11.702572 0.000000
334.339510 270.653320 11.746873 0.000000
336.494870 270.821660 11.800154 0.000000
331.731600 273.687130 11.749352 0.000000
334.531680 273.864070 11.785789 0.000000
327.612790 274.158750 11.693834 0.000000
338.097810 277.676540 11.893608 0.000000
332.544680 277.752750 11.777261 0.000000
335.869350 277.813660 11.855681 0.000000
340.090700 277.793910 11.944687 0.000000
338.117580 280.990690 11.934336 0.000000
341.002870 280.911220 11.990441 0.000000
343.759280 280.950380 12.035170 0.000000
329.925600 279.104890 11.863948 0.000000
340.184540 279.157320 12.070176 0.000000
334.727510 279.268620 11.975016 0.000000
337.963380 279.310850 12.040725 0.000000
335.823180 281.885740 11.955431 0.000000
340.019840 282.103330 12.043777 0.000000
341.823270 282.305790 12.193842 0.000000
332.616730 282.309600 12.014098 0.000000
338.334170 282.519930 12.158834 0.000000
339.439150 284.065730 12.137419 0.000000
336.636660 284.307920 12.255350 0.000000
338.275210 285.139400 12.327188 0.000000
330.360780 285.220790 12.187636 0.000000
341.062840 262.615420 11.727239 0.000000
338.038210 262.788880 11.677589 0.000000
339.868040 264.461640 11.772348 0.000000
341.902830 264.579470 11.822145 0.000000
337.299260 264.733890 11.740772 0.000000
336.733220 266.652920 11.787860 0.000000
338.862060 266.815800 11.824583 0.000000
340.603060 266.808720 11.859644 0.000000
332.374450 268.566800 11.636499 0.000000
328.495150 269.369570 11.642092 0.000000
332.723050 270.448210 11.721909 0.000000
335.652860 270.676240 11.781195 0.000000
337.733310 270.838170 11.823297 0.000000
332.933530 273.707640 11.767640 0.000000
335.810120 273.873230 11.814625 0.000000
328.817810 274.180080 11.713339 0.000000
339.908420 277.366420 11.770015 0.000000
339.335940 277.688320 11.916206 0.000000
333.748540 277.780180 11.795368 0.000000
337.213750 277.775600 11.895147 0.000000
341.313600 277.815160 11.963900 0.000000
339.438050 280.927920 11.971990 0.000000
342.232300 280.929720 12.010752 0.000000
344.989620 280.968630 12.055202 0.000000
331.181370 279.113220 11.888401 0.000000
336.068330 279.225620 12.011517 0.000000
339.051060 279.150600 12.055986 0.000000
341.396880 279.189760 12.087107 0.000000
341.259220 282.110380 12.066300 0.000000
343.062680 282.310000 12.216466 0.000000
333.868070 282.314390 12.037878 0.000000
336.674800 283.785100 12.210910 0.000000
338.358860 284.681730 12.293400 0.000000
331.580960 285.248500 12.208098 0.000000
342.250550 262.611720 11.750630 0.000000
339.196840 262.765870 11.697515 0.000000
343.214810 264.439000 11.845165 0.000000
340.995480 264.683110 11.809805 0.000000
338.512080 264.749940 11.770870 0.000000
335.522610 265.713810 11.795540 0.000000
337.881070 266.641240 11.807425 0.000000
340.219730 266.668550 11.864889 0.000000
341.778990 266.805300 11.880658 0.000000
333.519010 268.564510 11.658968 0.000000
329.545990 269.359860 11.657552 0.000000
333.822880 270.448330 11.738508 0.000000
336.847470 270.684300 11.808483 0.000000
338.880460 270.842930 11.841448 0.000000
334.026730 273.727570 11.783148 0.000000
336.948700 273.890590 11.833263 0.000000
329.848110 274.206450 11.726358 0.000000
341.104950 277.375980 11.795195 0.000000
335.032010 277.755710 11.834537 0.000000
338.387970 277.795260 11.917932 0.000000
340.520870 277.704380 11.939421 0.000000
340.587040 280.979460 11.988277 0.000000
343.415220 280.956150 12.031281 0.000000
332.326720 279.141170 11.911695 0.000000
340.199250 279.193360 12.073133 0.000000
342.552190 279.236390 12.102612 0.000000
337.186830 279.276920 12.027519 0.000000
342.459110 282.115690 12.091281 0.000000
344.264220 282.311890 12.241188 0.000000
335.031830 282.344150 12.061436 0.000000
340.261350 282.313480 12.174518 0.000000
338.384580 284.157780 12.258747 0.000000
332.694850 285.317110 12.228532 0.000000
339.360020 285.875550 12.234580 0.000000
342.069240 277.274230 11.799664 0.000000
343.364380 262.554960 11.768208 0.000000
340.277620 262.701540 11.717222 0.000000
344.340670 264.400020 11.862920 0.000000
342.123720 264.657620 11.834173 0.000000
339.590000 264.703030 11.792251 0.000000
336.480440 265.636470 11.808366 0.000000
338.999180 266.626890 11.836868 0.000000
341.160860 266.798370 11.872509 0.000000
342.899960 266.783940 11.901314 0.000000
334.479920 268.533200 11.676396 0.000000
330.336610 269.324620 11.668278 0.000000
334.893620 270.448460 11.769361 0.000000
337.873290 270.680940 11.825737 0.000000
339.938110 270.842100 11.857650 0.000000
334.988560 273.760500 11.799602 0.000000
337.950010 273.925200 11.846216 0.000000
330.631680 274.259830 11.735593 0.000000
339.232480 277.687770 11.914686 0.000000
336.217500 277.760160 11.876530 0.000000
341.644010 277.742550 11.961973 0.000000
343.469330 277.762760 11.989943 0.000000
341.711980 281.032900 12.010582 0.000000
341.262880 279.279240 12.086686 0.000000
343.515530 279.168820 12.110914 0.000000
338.326390 279.304930 12.059758 0.000000
343.368410 282.077120 12.097780 0.000000
341.105710 282.276000 12.178520 0.000000
345.428830 282.338380 12.264176 0.000000
339.272460 285.367310 12.205164 0.000000
338.337130 283.594180 12.225592 0.000000
337.462070 262.502080 11.656271 0.000000
330.605160 265.951780 11.542640 0.000000
343.192110 277.278140 11.819832 0.000000
344.403750 262.472380 11.781569 0.000000
341.294680 262.625030 11.733486 0.000000
345.375790 264.323240 11.871071 0.000000
343.259950 264.406340 11.843670 0.000000
340.617220 264.654050 11.810398 0.000000
337.244840 265.499630 11.795673 0.000000
340.070740 266.611970 11.861549 0.000000
342.218440 266.774750 11.891484 0.000000
343.949250 266.750760 11.915186 0.000000
331.229770 269.300690 11.680602 0.000000
335.997220 270.450680 11.798689 0.000000
338.901400 270.678440 11.841286 0.000000
336.039640 273.772090 11.818989 0.000000
338.984710 273.942870 11.859421 0.000000
331.580320 274.281590 11.748600 0.000000
340.347050 277.694950 11.934846 0.000000
337.418640 277.733370 11.909964 0.000000
342.757570 277.751710 11.980088 0.000000
344.586030 277.771030 12.007292 0.000000
342.845730 281.024780 12.029101 0.000000
342.358950 279.300750 12.100628 0.000000
344.630830 279.178380 12.126557 0.000000
339.398960 279.334960 12.073277 0.000000
344.519900 282.043850 12.118230 0.000000
342.256810 282.250000 12.198535 0.000000
338.315060 282.867400 12.181787 0.000000
339.239590 284.657170 12.169103 0.000000
338.648500 262.547120 11.679338 0.000000
345.515140 262.467960 11.797226 0.000000
342.420410 262.635160 11.750299 0.000000
344.396580 264.425540 11.862217 0.000000
341.836550 264.717560 11.840357 0.000000
338.503020 265.561680 11.824290 0.000000
341.214660 266.629820 11.875968 0.000000
343.350310 266.788760 11.905519 0.000000
345.074220 266.762020 11.929188 0.000000
332.519200 269.327730 11.699745 0.000000
337.177190 270.464570 11.809792 0.000000
340.088930 270.442140 11.852324 0.000000
342.203670 270.859950 11.895988 0.000000
337.301510 273.765840 11.836566 0.000000
340.197080 273.939790 11.874754 0.000000
332.913760 274.266050 11.766684 0.000000
344.538090 277.392670 11.850714 0.000000
338.584990 277.727050 11.912411 0.000000
341.796840 277.823730 11.971737 0.000000
343.933290 277.732880 11.990672 0.000000
344.072080 280.943510 12.045403 0.000000
340.682620 279.257750 12.091697 0.000000
343.578740 279.244870 12.115821 0.000000
343.763490 282.253600 12.230196 0.000000
339.644010 262.488830 11.692911 0.000000
343.455080 262.585510 11.767118 0.000000
345.416110 264.366550 11.871002 0.000000
342.917850 264.710300 11.862295 0.000000
339.568540 265.554140 11.842905 0.000000
342.115110 266.825010 11.879587 0.000000
344.414950 266.777280 11.920330 0.000000
333.671570 269.344120 11.720585 0.000000
341.142270 269.684200 11.844950 0.000000
338.304260 270.477200 11.827272 0.000000
343.335970 270.872440 11.915349 0.000000
338.457150 273.772830 11.851603 0.000000
341.390660 273.939330 11.896679 0.000000
334.112980 274.268550 11.783370 0.000000
345.684630 277.385680 11.862461 0.000000
345.092650 277.718960 12.003299 0.000000
342.986940 277.799290 11.987253 0.000000
340.094510 277.899510 11.955980 0.000000
341.903200 279.212220 12.106939 0.000000
344.765050 279.207400 12.129478 0.000000
337.419220 279.320070 12.022055 0.000000
344.622340 282.151150 12.210345 0.000000
340.256770 282.305730 12.169329 0.000000
338.376160 285.448120 12.336358 0.000000
341.609070 261.792420 11.703822 0.000000
345.201840 262.339600 11.786348 0.000000
344.460450 264.332340 11.860272 0.000000
341.050350 264.997070 11.828869 0.000000
343.675260 266.708190 11.910155 0.000000
345.706760 266.852510 11.929028 0.000000
336.566560 266.174220 11.802097 0.000000
340.736820 266.772770 11.870869 0.000000
339.463290 269.218750 11.789145 0.000000
342.451930 269.699100 11.855408 0.000000
344.597050 270.043880 11.907882 0.000000
335.703120 272.661500 11.816103 0.000000
339.895390 273.699130 11.881188 0.000000
344.122130 277.777400 12.000406 0.000000
341.262570 277.838170 11.966578 0.000000
338.480710 278.897670 12.027302 0.000000
342.939150 279.217680 12.107078 0.000000
341.327670 282.247710 12.179358 0.000000
338.101440 284.410830 12.286147 0.000000
337.036560 261.605260 11.595125 0.000000
345.518160 264.415410 11.872975 0.000000
344.608090 266.745000 11.920847 0.000000
341.778440 266.129580 11.872796 0.000000
343.349090 270.478970 11.905687 0.000000
340.532010 270.681370 11.876049 0.000000
328.374080 268.886080 11.621189 0.000000
343.261200 273.950130 11.926775 0.000000
340.402920 273.650300 11.887836 0.000000
335.928410 274.339840 11.806478 0.000000
344.377930 277.737150 11.994400 0.000000
328.803590 273.455540 11.703218 0.000000
341.597320 277.913790 11.973328 0.000000
343.148590 281.045200 12.029387 0.000000
343.050600 279.167300 12.101148 0.000000
345.735110 285.913420 12.370751 0.000000
342.634890 261.486910 11.706751 0.000000
336.505460 266.225830 11.799580 0.000000
340.088990 275.241910 11.840945 0.000000
327.507870 273.311550 11.709908 0.000000
344.941530 266.794490 11.925189 0.000000
341.724950 266.613010 11.894901 0.000000
343.673920 270.478030 11.912714 0.000000
340.388580 270.482060 11.858298 0.000000
340.392910 273.011600 11.885583 0.000000
344.670410 277.766750 12.004427 0.000000
335.705050 273.714940 11.827456 0.000000
341.572850 277.815520 11.966330 0.000000
343.244230 281.011350 12.030993 0.000000
343.162660 279.147980 12.103385 0.000000
345.344910 285.856290 12.330892 0.000000
342.001280 261.708620 11.709398 0.000000
345.213130 266.800960 11.930145 0.000000
341.990910 265.780550 11.886875 0.000000
344.023100 269.233980 11.868384 0.000000
335.919920 270.723510 11.785813 0.000000
340.908140 270.526090 11.868292 0.000000
344.260960 274.054840 11.943673 0.000000
341.129640 274.012940 11.887917 0.000000
342.609040 277.756070 11.972919 0.000000
336.516540 273.951480 11.822819 0.000000
345.623810 277.832370 12.022387 0.000000
344.215240 279.048950 12.105485 0.000000
340.500270 279.229680 12.083625 0.000000
345.287290 284.138550 12.262056 0.000000
345.197510 264.868710 11.887505 0.000000
344.726100 266.720090 11.925514 0.000000
340.666050 266.340790 11.875617 0.000000
343.758390 270.677190 11.921864 0.000000
343.856230 274.038270 11.939407 0.000000
340.066860 270.597410 11.868146 0.000000
340.425200 274.369630 11.879406 0.000000
335.149410 274.057950 11.808443 0.000000
345.238620 277.818240 12.017796 0.000000
342.372010 278.005650 11.995366 0.000000
344.132350 279.374050 12.129712 0.000000
344.976930 284.159210 12.258245 0.000000
342.746310 262.118650 11.741377 0.000000
341.482300 266.199250 11.885267 0.000000
339.119350 271.000460 11.848139 0.000000
338.762850 274.204410 11.868064 0.000000
343.692780 270.824620 11.935676 0.000000
342.740910 274.398500 11.921362 0.000000
343.942050 278.514430 12.062325 0.000000
341.227970 279.167300 12.102868 0.000000
344.997100 284.407620 12.275635 0.000000
344.154570 277.803960 12.000506 0.000000
343.620880 271.974950 11.937897 0.000000
341.430270 275.007870 11.876737 0.000000
345.447480 264.336400 11.877935 0.000000
344.651180 270.603330 11.947073 0.000000
343.577300 266.662900 11.920769 0.000000
339.667210 270.737820 11.865595 0.000000
338.389340 284.583130 12.280060 0.000000
338.218570 272.929170 11.858342 0.000000
331.801120 269.260470 11.688354 0.000000
329.095670 273.825870 11.709957 0.000000
345.699160 277.839480 12.023064 0.000000
342.139430 284.495570 12.222253 0.000000
338.551510 283.055050 12.161744 0.000000
343.370730 272.760470 11.934466 0.000000
341.643070 274.350340 11.898094 0.000000
338.673830 271.965090 11.855424 0.000000
345.659520 266.786530 11.933415 0.000000
329.851170 270.421940 11.678151 0.000000
342.257900 261.153690 11.683168 0.000000
336.637300 266.556880 11.794517 0.000000
342.265590 285.458440 12.277613 0.000000
345.358890 272.720520 11.970930 0.000000
345.294400 267.156560 11.816376 0.000000
344.203250 273.925810 11.942730 0.000000
342.047730 271.552460 11.903250 0.000000
339.137820 274.718380 11.845160 0.000000
338.351290 283.038060 12.184938 0.000000
343.279570 270.052700 11.896831 0.000000
335.311310 271.377750 11.790332 0.000000
331.302610 284.025700 12.112432 0.000000
344.364350 262.304020 11.780684 0.000000
325.825260 262.924530 11.342192 0.000000
322.231840 270.542540 11.551723 0.000000
344.872800 279.810060 12.112453 0.000000
341.933070 285.143620 12.253658 0.000000
344.694270 273.881410 11.964601 0.000000
344.265500 268.682950 11.844933 0.000000
343.309330 270.457000 11.913164 0.000000
342.423030 279.465820 12.091434 0.000000
341.221310 272.653290 11.893756 0.000000
338.432130 283.065580 12.198062 0.000000
338.620480 279.279910 12.049959 0.000000
344.155300 262.346440 11.778593 0.000000
342.165500 265.073850 11.859242 0.000000
332.188350 285.338560 12.225304 0.000000
345.016360 279.308990 12.129189 0.000000
342.205750 279.101810 12.084776 0.000000
342.869540 270.766450 11.917948 0.000000
338.218600 284.443450 12.296048 0.000000
341.080630 265.502620 11.859776 0.000000
344.379090 279.018190 12.121054 0.000000
344.748050 273.167390 11.966633 0.000000
340.840970 279.003880 12.066005 0.000000
334.757420 279.318540 11.951113 0.000000
341.368800 270.828120 11.899235 0.000000
328.214780 273.447240 11.725333 0.000000
344.021850 278.295470 12.054659 0.000000
343.316620 279.757480 12.094253 0.000000
339.452030 279.719570 12.043066 0.000000
332.637210 284.029790 12.117460 0.000000
345.479250 267.077640 11.887016 0.000000
344.539890 272.957180 11.960279 0.000000
325.051640 272.806120 11.653086 0.000000
343.857480 278.355620 12.046703 0.000000
343.132230 279.860660 12.091969 0.000000
339.569640 279.399810 12.063183 0.000000
338.533420 283.323030 12.186549 0.000000
332.090480 284.141970 12.120506 0.000000
322.475860 272.911990 11.596027 0.000000
344.647060 267.053830 11.880303 0.000000
343.940120 284.427120 12.252479 0.000000
343.151000 279.518920 12.102020 0.000000
337.272980 283.535920 12.181288 0.000000
343.508270 267.086880 11.856558 0.000000
343.812650 285.930180 12.338303 0.000000
340.468020 284.480220 12.166856 0.000000
341.070280 275.658840 11.855116 0.000000
336.989650 283.493650 12.171515 0.000000
328.646550 284.820980 12.119915 0.000000
345.386140 278.133540 12.058736 0.000000
344.356290 279.502810 12.120550 0.000000
339.847660 279.211300 12.091400 0.000000
340.984250 284.313200 12.196207 0.000000
341.321010 275.752110 11.852587 0.000000
338.781710 279.925140 12.045154 0.000000
345.715420 279.016360 12.134581 0.000000
341.466770 284.723330 12.227309 0.000000
340.737400 279.377810 12.093511 0.000000
340.415250 285.496220 12.246843 0.000000
344.639560 285.051180 12.300348 0.000000
339.778690 278.998320 12.055004 0.000000
344.134920 282.342070 12.239443 0.000000
344.229920 275.605830 11.906256 0.000000
340.118930 279.275420 12.069036 0.000000
341.229030 284.301480 12.173496 0.000000
340.026090 285.959260 12.237509 0.000000
338.248960 280.159120 12.017445 0.000000
345.342860 282.318730 12.255514 0.000000
341.337250 279.079560 12.085827 0.000000
339.794740 285.847170 12.233274 0.000000
344.246430 276.101930 11.895385 0.000000
343.048740 282.603330 12.121870 0.000000
340.691440 279.070220 12.074018 0.000000
343.738980 284.624390 12.238827 0.000000
343.919220 279.750950 12.120715 0.000000
344.246370 280.339360 12.104768 0.000000
338.831910 285.564210 12.216589 0.000000
344.666990 282.419980 12.147541 0.000000
336.656040 273.986480 11.865193 0.000000
328.245450 274.903350 11.662142 0.000000
336.362270 273.102970 11.842070 0.000000
344.608640 270.821440 11.970819 0.000000
338.982210 270.431430 11.864557 0.000000
337.525970 266.782650 11.820974 0.000000
343.951870 264.791780 11.905902 0.000000
341.105650 282.339020 12.167107 0.000000
342.723020 273.938020 11.932119 0.000000
343.495640 274.150300 11.939789 0.000000
342.031590 279.343690 12.103754 0.000000
343.926880 282.333800 12.237965 0.000000
343.102940 266.593750 11.930231 0.000000
342.703830 282.333250 12.212687 0.000000
340.999150 275.291140 11.854282 0.000000
335.533970 273.958500 11.812669 0.000000
335.867830 274.306340 11.801062 0.000000
332.090730 275.287870 11.742822 0.000000
337.694790 274.687740 11.811961 0.000000
342.454560 274.744600 11.897703 0.000000
333.236510 275.226840 11.757048 0.000000
338.626130 274.619930 11.824915 0.000000
343.219300 274.675050 11.911765 0.000000
336.394780 275.354190 11.802071 0.000000
337.868040 274.458130 11.855812 0.000000
342.115020 285.182830 12.269883 0.000000
342.150270 282.965880 12.144533 0.000000
338.075530 273.298980 11.869192 0.000000
343.061950 272.791410 11.910002 0.000000
338.179570 272.100190 11.865036 0.000000
343.152190 271.743770 11.909515 0.000000
338.485050 280.394530 12.011028 0.000000
342.322020 280.317170 12.079749 0.000000
338.337250 271.024960 11.859108 0.000000
343.266750 270.750640 11.902775 0.000000
334.255800 279.867100 11.947509 0.000000
338.770230 279.698360 12.053602 0.000000
342.500180 279.550020 12.108748 0.000000
343.330140 268.840210 11.815229 0.000000
339.332950 279.612790 12.064350 0.000000
342.886320 279.462340 12.116652 0.000000
345.165560 285.465790 12.339259 0.000000
338.457520 270.360260 11.841235 0.000000
340.861540 285.564420 12.223124 0.000000
337.521360 280.442200 11.985313 0.000000
341.358220 280.171170 12.068527 0.000000
344.610350 280.011960 12.119601 0.000000
341.723450 272.598750 11.917799 0.000000
334.658630 280.469820 11.921300 0.000000
338.551420 280.180050 12.021303 0.000000
342.191130 279.940950 12.086018 0.000000
342.689030 284.864410 12.251270 0.000000
345.287720 279.865330 12.130252 0.000000
342.670260 272.847900 11.931190 0.000000
335.219390 280.110110 11.949713 0.000000
339.000120 279.882510 12.044239 0.000000
340.788730 284.271550 12.182483 0.000000
342.511350 279.645750 12.097469 0.000000
342.909790 283.996220 12.203526 0.000000
345.502930 279.612950 12.138299 0.000000
342.978730 272.780090 11.932710 0.000000
340.758790 282.410340 12.078123 0.000000
342.315950 276.368470 11.844438 0.000000
345.564390 276.419220 11.899398 0.000000
343.107880 271.287540 11.928733 0.000000
334.907410 276.306060 11.723618 0.000000
335.094020 284.183990 12.163670 0.000000
340.680210 285.492800 12.242600 0.000000
343.006290 285.008390 12.262383 0.000000
340.179080 282.346920 12.164758 0.000000
342.582460 275.692350 11.870249 0.000000
343.298430 270.216370 11.906719 0.000000
341.916780 284.129180 12.172482 0.000000
344.508150 283.613070 12.188065 0.000000
334.404420 276.357540 11.717815 0.000000
335.700010 283.884770 12.187451 0.000000
337.264800 275.883090 11.778523 0.000000
340.034060 275.580110 11.836984 0.000000
343.604190 275.365230 11.905127 0.000000
344.403630 269.774140 11.910022 0.000000
339.954680 283.275850 12.099201 0.000000
342.224180 282.451690 12.082277 0.000000
335.113430 275.290070 11.767279 0.000000
337.944700 274.876160 11.823637 0.000000
338.127810 285.889040 12.372688 0.000000
340.681000 274.632780 11.877943 0.000000
344.202730 274.509950 11.942610 0.000000
344.944640 267.522310 11.804748 0.000000
339.097720 282.491060 12.100334 0.000000
338.817020 285.668610 12.214056 0.000000
337.376340 273.975890 11.851439 0.000000
340.970250 273.516940 11.900689 0.000000
336.160710 266.866550 11.723605 0.000000
344.468020 273.437440 11.959713 0.000000
339.738830 267.003970 11.806725 0.000000
331.512050 280.534360 11.873856 0.000000
333.999690 285.893400 12.259584 0.000000
336.783200 278.567170 11.955525 0.000000
336.356020 283.992890 12.223875 0.000000
338.796330 284.734070 12.183852 0.000000
342.859710 276.109380 11.866743 0.000000
338.053070 273.118160 11.855962 0.000000
341.595250 272.756530 11.908955 0.000000
345.020540 272.730320 11.966969 0.000000
341.666960 266.855160 11.883610 0.000000
345.360470 266.883670 11.929888 0.000000
334.921050 284.383120 12.165014 0.000000
336.966460 277.857940 11.897342 0.000000
336.353580 283.290280 12.154788 0.000000
337.437160 280.867610 11.909307 0.000000
338.762050 284.277590 12.169270 0.000000
341.173710 282.467290 12.078449 0.000000
331.488890 274.528990 11.735109 0.000000
335.400940 279.342990 11.989279 0.000000
338.293950 285.887050 12.363012 0.000000
344.745240 275.632110 11.912827 0.000000
338.727660 272.862430 11.858982 0.000000
341.254550 272.478180 11.892727 0.000000
343.757570 272.381620 11.942432 0.000000
340.049680 266.800600 11.841658 0.000000
344.197540 266.852080 11.919506 0.000000
327.019740 285.034090 12.127676 0.000000
333.890990 276.192870 11.711634 0.000000
331.408390 279.316620 11.910111 0.000000
333.159150 284.493870 12.173642 0.000000
334.117400 282.854920 12.076277 0.000000
337.036530 284.748050 12.234034 0.000000
338.422670 283.599180 12.212844 0.000000
338.706450 285.491460 12.219222 0.000000
340.591610 279.275420 12.073623 0.000000
339.943390 282.277680 12.146116 0.000000
339.952880 271.048190 11.870933 0.000000
342.548680 270.892300 11.910122 0.000000
345.073580 270.978550 11.958780 0.000000
337.702790 282.282870 12.091400 0.000000
338.672210 284.427190 12.185627 0.000000
340.580230 282.436710 12.070748 0.000000
334.549590 275.068730 11.759002 0.000000
337.872830 279.123540 12.029105 0.000000
336.548740 284.694340 12.293039 0.000000
339.260590 277.907100 11.944925 0.000000
342.577940 282.173430 12.196856 0.000000
343.093260 273.831450 11.933618 0.000000
327.216490 285.751800 12.182270 0.000000
333.500180 275.879210 11.714568 0.000000
336.760710 285.659060 12.368749 0.000000
338.230470 282.540280 12.153063 0.000000
338.685580 284.590420 12.187111 0.000000
340.092010 282.585360 12.062300 0.000000
341.612060 282.285740 12.178449 0.000000
342.423710 280.878570 12.005283 0.000000
343.233090 282.423950 12.114168 0.000000
337.477170 274.782680 11.817721 0.000000
338.709530 278.929870 12.036566 0.000000
345.211700 282.189240 12.244293 0.000000
336.300540 270.979860 11.808133 0.000000
345.100070 273.678470 11.967580 0.000000
328.184050 283.746800 12.039658 0.000000
331.295470 279.195430 11.909014 0.000000
335.971160 274.915340 11.792057 0.000000
334.050480 282.249660 12.029812 0.000000
338.194150 278.604710 12.000123 0.000000
338.064540 282.587430 12.156740 0.000000
340.817720 282.347500 12.163159 0.000000
341.411100 280.829130 11.989155 0.000000
342.005310 282.605800 12.098163 0.000000
343.297880 282.341520 12.215364 0.000000
342.171480 279.229280 12.092045 0.000000
344.096130 277.846920 12.000950 0.000000
338.398070 269.744810 11.807390 0.000000
342.564450 280.888760 12.008192 0.000000
326.109280 272.703610 11.669825 0.000000
336.521240 273.616420 11.834703 0.000000
335.166690 279.534550 11.961658 0.000000
336.435520 277.734380 11.876633 0.000000
336.855650 282.737760 12.115784 0.000000
336.832820 285.167910 12.341676 0.000000
340.290740 279.249910 12.070531 0.000000
341.341830 277.812680 11.957458 0.000000
339.976070 282.261020 12.150127 0.000000
342.166660 282.343200 12.199535 0.000000
337.248230 267.134700 11.668390 0.000000
341.017270 272.055690 11.887177 0.000000
337.488280 280.712370 11.947440 0.000000
327.823390 272.607970 11.700629 0.000000
335.447780 274.248170 11.805963 0.000000
333.183500 285.333010 12.235085 0.000000
336.676510 278.190310 11.931573 0.000000
340.282650 279.230160 12.069798 0.000000
341.284880 277.835600 11.967770 0.000000
340.355770 280.758300 11.992979 0.000000
340.938720 282.838010 12.094360 0.000000
342.458890 280.801540 12.008551 0.000000
342.115140 282.203580 12.184582 0.000000
345.375850 277.761230 12.018402 0.000000
337.620540 273.412380 11.849472 0.000000
343.413150 279.214810 12.107505 0.000000
338.307460 267.232390 11.662048 0.000000
333.188450 284.267640 12.156928 0.000000
337.461610 280.675420 11.948726 0.000000
331.623200 275.780790 11.693979 0.000000
336.202360 279.095760 11.997242 0.000000
339.810330 279.361790 12.059190 0.000000
340.695430 278.210330 11.995232 0.000000
342.039490 280.867680 11.997781 0.000000
321.763820 263.241360 11.309373 0.000000
328.944460 272.058930 11.703231 0.000000
336.550080 273.837130 11.834055 0.000000
338.567750 272.968540 11.855909 0.000000
342.867770 279.234860 12.100217 0.000000
344.320370 277.827390 12.008230 0.000000
339.305050 267.145200 11.662544 0.000000
333.355040 275.417820 11.730680 0.000000
334.793790 283.364440 12.120411 0.000000
334.733860 285.759090 12.257074 0.000000
338.284390 282.678890 12.165554 0.000000
337.991060 284.597560 12.265761 0.000000
340.471530 280.766200 11.996031 0.000000
343.361240 277.888430 11.992560 0.000000
342.094600 280.884890 12.000244 0.000000
327.649260 273.771090 11.688761 0.000000
330.697050 271.835390 11.724049 0.000000
337.573210 273.244050 11.843933 0.000000
339.398350 272.276730 11.863371 0.000000
336.918150 279.112490 12.010667 0.000000
340.402590 278.921080 12.057728 0.000000
342.518800 279.293880 12.096739 0.000000
344.526920 279.248200 12.122233 0.000000
345.686740 277.916200 12.026327 0.000000
323.413670 263.917600 11.361385 0.000000
336.464720 268.420780 11.734985 0.000000
338.544340 267.131470 11.704191 0.000000
341.700840 267.061950 11.831332 0.000000
342.458620 271.095060 11.907969 0.000000
326.488130 273.538300 11.667047 0.000000
334.028050 274.467040 11.774473 0.000000
334.807740 282.854680 12.073385 0.000000
336.537450 278.951390 11.992720 0.000000
339.979830 277.886840 11.948350 0.000000
339.643620 279.359920 12.060855 0.000000
338.361480 282.535550 12.153853 0.000000
342.027340 279.296390 12.093140 0.000000
342.540410 277.904940 11.985786 0.000000
341.954250 280.814060 12.000559 0.000000
344.635560 277.846100 12.008950 0.000000
330.744930 270.487180 11.711303 0.000000
337.884430 272.033870 11.844717 0.000000
341.144130 270.214140 11.864628 0.000000
343.840820 279.281920 12.115607 0.000000
327.054780 273.798190 11.679783 0.000000
332.910430 275.225190 11.714704 0.000000
332.045750 285.508390 12.224784 0.000000
336.880310 279.095890 11.998276 0.000000
340.114230 277.729460 11.938772 0.000000
342.419130 277.879180 11.981625 0.000000
342.216770 280.818630 12.002031 0.000000
344.249940 277.854060 12.004142 0.000000
331.907500 269.563080 11.697092 0.000000
335.564150 273.698300 11.822847 0.000000
338.942080 271.146730 11.853152 0.000000
340.584780 273.732480 11.890661 0.000000
344.123600 267.254210 11.744497 0.000000
336.842100 285.076630 12.319356 0.000000
340.030580 279.251920 12.069839 0.000000
342.194850 279.137210 12.088682 0.000000
343.803310 279.242710 12.115181 0.000000
343.222930 264.777530 11.864489 0.000000
332.701170 285.944310 12.272994 0.000000
337.863100 275.660250 11.797275 0.000000
337.269590 279.133480 12.013249 0.000000
336.866640 283.734710 12.218987 0.000000
339.094760 280.521450 11.997444 0.000000
340.234340 277.725650 11.933064 0.000000
337.061800 285.769530 12.309184 0.000000
341.053620 280.762330 12.006971 0.000000
342.508240 277.851780 11.981553 0.000000
342.555300 280.946960 12.014911 0.000000
344.202240 277.758940 11.992473 0.000000
328.286990 273.119570 11.691619 0.000000
330.914730 270.788330 11.696447 0.000000
334.663970 274.301030 11.772909 0.000000
340.317350 279.243440 12.074694 0.000000
342.337830 279.296080 12.097446 0.000000
343.951290 279.184780 12.114429 0.000000
340.289610 270.401460 11.864310 0.000000
342.915100 268.256650 11.797738 0.000000
344.446690 267.241420 11.761944 0.000000
339.907260 266.658750 11.873772 0.000000
342.605070 265.523590 11.888029 0.000000
344.529570 264.701230 11.880317 0.000000
331.240170 279.584690 11.889977 0.000000
331.720700 285.540470 12.227085 0.000000
336.717680 279.590970 12.001808 0.000000
336.364170 282.987980 12.143090 0.000000
337.079320 286.014190 12.323485 0.000000
340.311340 279.126250 12.065749 0.000000
342.471470 279.194580 12.097040 0.000000
344.058990 279.245420 12.118705 0.000000
343.683320 282.310910 12.228878 0.000000
322.013950 261.369020 11.211185 0.000000
330.611300 270.273350 11.684711 0.000000
338.390870 271.315640 11.847829 0.000000
339.982790 273.898830 11.879654 0.000000
341.426610 268.906130 11.807822 0.000000
344.289340 267.172360 11.771877 0.000000
