# .PCD v0.7 - Point Cloud Data file format
VERSION 0.7
FIELDS x y z intensity
SIZE 4 4 4 4
TYPE F F F F
COUNT 1 1 1 1
WIDTH 1178
HEIGHT 1
VIEWPOINT 0 0 0 1 0 0 0
POINTS 1178
DATA ascii
366.421970 161.952010 12.230723 0.000000
360.751130 161.937180 12.376210 0.000000
364.868350 163.331380 13.600681 0.000000
364.151370 162.400020 13.623030 0.000000
363.927090 161.361240 13.622175 0.000000
365.573330 162.114790 14.854843 0.000000
365.480010 164.265730 14.898472 0.000000
363.958650 163.525150 14.988591 0.000000
359.724370 162.117110 15.256419 0.000000
360.487790 161.976640 16.616997 0.000000
364.253110 161.294780 17.600674 0.000000
361.284610 162.959920 17.971594 0.000000
368.724760 170.409410 8.634634 0.000000
367.781400 169.675670 8.608716 0.000000
366.808900 168.927670 8.581532 0.000000
365.804750 168.164320 8.552992 0.000000
364.766420 167.384260 8.523005 0.000000
363.691130 166.586090 8.491470 0.000000
362.662690 165.746200 8.461456 0.000000
361.585210 164.889530 8.429432 0.000000
359.750790 163.020710 8.376329 0.000000
365.729610 162.869350 8.587165 0.000000
361.538090 161.559810 8.447197 0.000000
361.525270 161.560650 9.802949 0.000000
362.550570 163.554860 11.156209 0.000000
366.743260 161.627560 11.118381 0.000000
367.241300 164.576160 12.372562 0.000000
365.642360 163.927700 12.412560 0.000000
368.176510 162.332640 12.326370 0.000000
365.670590 161.838990 12.395318 0.000000
366.596590 163.700940 13.641817 0.000000
364.409330 162.087830 13.731625 0.000000
362.554200 163.549790 13.842552 0.000000
365.617920 162.883450 14.958679 0.000000
364.447390 164.203950 15.065998 0.000000
363.827910 162.201570 15.076084 0.000000
359.380800 161.941910 15.392992 0.000000
362.963840 163.456700 16.500927 0.000000
362.753230 162.413210 16.498816 0.000000
363.951630 161.115220 16.361849 0.000000
359.816470 161.860170 18.172668 0.000000
350.276980 168.567250 8.316084 0.000000
348.946290 167.563420 8.281403 0.000000
346.291690 165.439770 8.211489 0.000000
370.116330 175.813170 8.854336 0.000000
369.202730 175.139250 8.834728 0.000000
368.253480 174.460770 8.813730 0.000000
367.275120 173.772450 8.791582 0.000000
359.327210 173.413270 8.555740 0.000000
366.124180 173.131040 8.763414 0.000000
357.709110 172.753740 8.512386 0.000000
364.760100 172.541660 8.727949 0.000000
354.336980 171.332410 8.421046 0.000000
352.871890 170.481380 8.382572 0.000000
351.545870 169.550200 8.348502 0.000000
365.709930 162.596390 8.833765 0.000000
361.230560 161.382020 8.700725 0.000000
365.993190 162.534030 10.081647 0.000000
361.333190 161.362980 10.037516 0.000000
366.380980 162.449010 11.315071 0.000000
366.846980 164.358120 12.546402 0.000000
365.270360 163.719310 12.592035 0.000000
365.195830 161.681230 12.578466 0.000000
366.891630 164.345460 13.775419 0.000000
365.887660 163.572970 13.818507 0.000000
364.312930 162.895680 13.894824 0.000000
365.158660 161.687910 13.834473 0.000000
363.822750 164.057430 15.233917 0.000000
363.410520 163.090410 15.247725 0.000000
364.149020 161.887770 15.172054 0.000000
360.882020 161.442410 15.413952 0.000000
362.566710 163.272420 16.639565 0.000000
361.530820 161.324750 16.701752 0.000000
359.722200 161.650820 18.269978 0.000000
349.202000 169.831470 8.354319 0.000000
347.915590 168.832240 8.322507 0.000000
346.758850 167.766590 8.294570 0.000000
369.879580 177.524930 8.889887 0.000000
368.982790 176.864650 8.872102 0.000000
368.012300 176.221420 8.851640 0.000000
367.057590 175.548170 8.831575 0.000000
366.074680 174.865540 8.810410 0.000000
364.888370 174.246830 8.782291 0.000000
356.468480 173.991410 8.537645 0.000000
363.614690 173.631930 8.751187 0.000000
354.788150 173.321530 8.493807 0.000000
362.192780 173.039200 8.715123 0.000000
353.149290 172.587750 8.451288 0.000000
351.880130 171.690810 8.420670 0.000000
350.568050 170.771940 8.388464 0.000000
365.710600 162.307650 10.121448 0.000000
362.728330 164.008330 11.380523 0.000000
366.281130 162.183300 11.330995 0.000000
361.634400 162.124450 11.387965 0.000000
366.012700 164.237340 12.562366 0.000000
366.285430 163.170880 12.543772 0.000000
365.056520 162.448240 12.579051 0.000000
363.512850 161.750850 12.625854 0.000000
365.370300 163.385270 13.808085 0.000000
365.083860 162.441680 13.811540 0.000000
363.914030 161.670730 13.866820 0.000000
364.481020 164.623750 15.134405 0.000000
364.911710 163.492260 15.079887 0.000000
365.512760 162.348050 15.013692 0.000000
363.878480 161.677370 15.127823 0.000000
362.305600 163.042770 16.573711 0.000000
361.498630 161.088870 16.614195 0.000000
364.800720 161.493320 17.544836 0.000000
359.622070 161.427440 18.165503 0.000000
347.605590 168.577910 8.298856 0.000000
346.479190 167.522710 8.271126 0.000000
369.892520 177.942060 8.879223 0.000000
369.000400 177.306920 8.861146 0.000000
368.116330 176.648590 8.843197 0.000000
367.167180 176.003430 8.822828 0.000000
366.233460 175.329180 8.802849 0.000000
365.231380 174.664400 8.780371 0.000000
363.950100 174.095150 8.748263 0.000000
355.698120 173.797580 8.504320 0.000000
362.698550 173.477810 8.717123 0.000000
361.302670 172.881930 8.681066 0.000000
352.652770 172.322910 8.424982 0.000000
351.428990 171.426570 8.395017 0.000000
350.141050 170.516050 8.362740 0.000000
348.804990 169.583100 8.328684 0.000000
361.101320 161.967040 8.757532 0.000000
366.788020 161.786480 10.100095 0.000000
365.803530 162.974330 11.280327 0.000000
360.726010 163.100540 11.339941 0.000000
367.170040 164.575650 12.442587 0.000000
365.853180 163.943630 12.479396 0.000000
366.878850 162.720430 12.434868 0.000000
360.735530 163.097630 12.640372 0.000000
363.180240 161.552200 12.547937 0.000000
366.769560 163.709960 13.624408 0.000000
364.578460 163.260510 13.736412 0.000000
364.487550 162.283140 13.728640 0.000000
367.037170 164.609070 14.803072 0.000000
365.628630 163.012530 14.876863 0.000000
365.605100 162.040010 14.861303 0.000000
365.423280 164.050290 14.912373 0.000000
359.758450 162.230790 15.308609 0.000000
364.659580 161.256610 16.137691 0.000000
364.490480 161.289610 17.381382 0.000000
361.466130 162.935870 17.783329 0.000000
368.605650 177.968540 8.872776 0.000000
367.709140 177.334230 8.854582 0.000000
366.826810 176.673460 8.836726 0.000000
365.879820 176.025760 8.816469 0.000000
364.948240 175.349090 8.796596 0.000000
363.765530 174.764300 8.768000 0.000000
362.484070 174.190060 8.735990 0.000000
361.232390 173.567780 8.704944 0.000000
359.836910 172.966800 8.669007 0.000000
352.776550 173.134450 8.455517 0.000000
351.577090 172.265060 8.426553 0.000000
350.363710 171.368330 8.396929 0.000000
349.085170 170.458080 8.364963 0.000000
347.803860 169.513370 8.332693 0.000000
346.727970 168.480960 8.306850 0.000000
361.481080 161.638400 8.804103 0.000000
365.705720 162.701310 8.928186 0.000000
365.980470 162.635640 10.097645 0.000000
361.520510 161.629900 10.056444 0.000000
365.965090 163.595760 11.261599 0.000000
366.329620 162.552440 11.253364 0.000000
366.557310 161.560030 11.247266 0.000000
366.696960 164.360990 12.411173 0.000000
366.032500 163.577410 12.425243 0.000000
364.743410 162.924590 12.461715 0.000000
365.626590 161.761120 12.422928 0.000000
365.925350 163.603360 13.597648 0.000000
364.612880 162.954250 13.659424 0.000000
364.448360 162.015840 13.656084 0.000000
366.861660 164.313260 14.713766 0.000000
365.685730 162.700840 14.769714 0.000000
364.862640 161.925140 14.818147 0.000000
364.473850 163.970370 14.885704 0.000000
359.740390 161.980900 15.208626 0.000000
364.898680 162.884920 16.026264 0.000000
361.526250 161.625380 16.327217 0.000000
363.997530 161.133740 17.285938 0.000000
361.198150 162.718090 17.659885 0.000000
366.817080 178.216400 8.841002 0.000000
365.913300 177.574780 8.822323 0.000000
365.023770 176.906510 8.803980 0.000000
364.069240 176.251370 8.783212 0.000000
362.964230 175.645290 8.757117 0.000000
361.720280 175.073380 8.726177 0.000000
360.423130 174.490110 8.693376 0.000000
352.266270 174.095200 8.452107 0.000000
359.140930 173.864460 8.661024 0.000000
357.706670 173.262330 8.623487 0.000000
351.068540 173.248410 8.422985 0.000000
349.896970 172.361680 8.394526 0.000000
348.686220 171.456600 8.364551 0.000000
347.501310 170.511690 8.335197 0.000000
346.332860 169.530650 8.306128 0.000000
361.282840 161.392550 8.819013 0.000000
370.067870 177.470760 8.943153 0.000000
365.645780 162.382110 10.087996 0.000000
361.388520 161.370500 10.047620 0.000000
364.414490 163.632390 11.245804 0.000000
366.280820 162.231430 11.218678 0.000000
366.682590 161.224230 11.210281 0.000000
367.428680 164.703900 12.331101 0.000000
366.066800 164.151550 12.369113 0.000000
368.372220 162.627270 12.278971 0.000000
364.085240 161.785980 12.411891 0.000000
367.078490 164.803830 13.467516 0.000000
365.074550 163.461790 13.553028 0.000000
364.911680 162.550490 13.548617 0.000000
364.420140 161.712190 13.564041 0.000000
367.083220 164.800480 14.593881 0.000000
365.756930 164.232250 14.679718 0.000000
365.616910 162.383350 14.652472 0.000000
364.262450 161.745160 14.743177 0.000000
361.414180 164.388030 15.007909 0.000000
359.787990 161.683980 15.081589 0.000000
364.361600 163.639250 15.953074 0.000000
362.757290 163.053910 16.093399 0.000000
361.270840 161.388600 16.201073 0.000000
363.123960 162.966280 17.265545 0.000000
360.591860 162.537890 17.553722 0.000000
369.224610 180.710220 9.003735 0.000000
368.418180 180.083420 8.987358 0.000000
364.274320 180.268650 8.868751 0.000000
363.363460 179.598660 8.848686 0.000000
367.621280 179.436680 8.971071 0.000000
362.467590 178.902180 8.828882 0.000000
361.546810 178.200490 8.808008 0.000000
360.480100 177.551790 8.782085 0.000000
359.251950 176.953740 8.750668 0.000000
357.957550 176.352910 8.716917 0.000000
356.693120 175.703720 8.683968 0.000000
355.318760 175.065610 8.647265 0.000000
349.094480 174.962170 8.461794 0.000000
347.989810 174.045260 8.433447 0.000000
346.948210 173.080290 8.406776 0.000000
345.843810 172.109860 8.377752 0.000000
369.957700 181.373200 9.017348 0.000000
365.693450 162.187260 10.133296 0.000000
367.011170 163.667790 10.148952 0.000000
365.846500 163.059950 11.248302 0.000000
367.175600 164.518040 12.337268 0.000000
366.031190 163.926070 12.366113 0.000000
368.087550 162.482760 12.279902 0.000000
364.404510 162.482860 12.400786 0.000000
364.053530 161.627040 12.402305 0.000000
366.920750 164.587330 13.446763 0.000000
364.869840 163.299180 13.531773 0.000000
362.377720 161.988250 13.644317 0.000000
365.745030 163.993940 14.622046 0.000000
365.808560 163.054570 14.594322 0.000000
365.820220 162.137990 14.572393 0.000000
364.527530 161.514050 14.656830 0.000000
364.085570 163.488910 15.894610 0.000000
362.597050 162.895510 16.021790 0.000000
361.447720 161.202700 16.090618 0.000000
362.916720 162.814740 17.175774 0.000000
360.486110 161.390090 17.421894 0.000000
364.380370 179.947010 8.868750 0.000000
363.463070 179.309460 8.849196 0.000000
362.574770 178.636920 8.830424 0.000000
361.644740 177.968230 8.810033 0.000000
360.545560 177.364560 8.783773 0.000000
359.322570 176.792890 8.753245 0.000000
358.032200 176.219330 8.720365 0.000000
356.771030 175.597380 8.688331 0.000000
350.386840 175.786330 8.497902 0.000000
355.401090 174.986660 8.652587 0.000000
349.296810 174.919590 8.471472 0.000000
348.175540 174.037510 8.443753 0.000000
347.109500 173.108810 8.417528 0.000000
345.991970 172.170430 8.389341 0.000000
369.957980 180.987210 9.012714 0.000000
369.220860 180.353740 8.999638 0.000000
368.411560 179.755690 8.983810 0.000000
367.613800 179.135850 8.968183 0.000000
361.234920 161.392700 8.906070 0.000000
365.704560 162.238740 10.126197 0.000000
361.334050 161.368880 10.084070 0.000000
365.808230 163.105610 11.215908 0.000000
366.771610 161.105440 11.192520 0.000000
367.195770 164.502440 12.277004 0.000000
366.082700 163.928500 12.305649 0.000000
368.309540 162.447160 12.214682 0.000000
364.444920 162.538190 12.342710 0.000000
363.973720 161.731290 12.349540 0.000000
366.951480 164.571590 13.360669 0.000000
365.066770 163.292330 13.437955 0.000000
363.721800 162.710480 13.500809 0.000000
366.991820 164.555530 14.434767 0.000000
365.803040 163.999180 14.509298 0.000000
365.853820 163.082690 14.483710 0.000000
365.901610 162.177000 14.459923 0.000000
364.940980 161.507200 14.518670 0.000000
359.831730 161.665660 14.910032 0.000000
365.225830 162.337740 15.619329 0.000000
364.199190 163.511780 15.751030 0.000000
361.763670 161.263520 15.929469 0.000000
362.976780 163.827590 17.043951 0.000000
363.148410 162.838880 16.990978 0.000000
362.283140 162.097340 17.070705 0.000000
361.330440 161.349550 17.162760 0.000000
363.144780 163.779740 18.190937 0.000000
360.220120 163.546360 18.590155 0.000000
363.224610 179.910060 8.853067 0.000000
362.304810 179.276490 8.833525 0.000000
361.415340 178.607010 8.814823 0.000000
360.388730 177.991410 8.791276 0.000000
359.200380 177.432850 8.762134 0.000000
357.952850 176.871340 8.730903 0.000000
356.653870 176.299620 8.697857 0.000000
355.401640 175.671520 8.666248 0.000000
349.368040 175.717960 8.487120 0.000000
348.274410 174.857560 8.460710 0.000000
347.223080 173.955340 8.435402 0.000000
346.150450 173.035100 8.409111 0.000000
370.384670 182.088260 9.026236 0.000000
369.621220 181.500270 9.012734 0.000000
368.792080 180.945970 8.996686 0.000000
368.049800 180.318390 8.983526 0.000000
367.239840 179.723070 8.967770 0.000000
366.442810 179.104980 8.952265 0.000000
365.744050 162.822660 9.062277 0.000000
366.875120 161.670260 10.133624 0.000000
365.734160 162.821910 10.123552 0.000000
366.628420 164.322250 11.184255 0.000000
366.044860 163.612850 11.186164 0.000000
364.707820 163.087590 11.198283 0.000000
365.655610 161.964200 11.180484 0.000000
366.841830 164.254620 12.228290 0.000000
365.344820 163.805880 12.271080 0.000000
368.104710 162.194080 12.161522 0.000000
363.917630 161.484860 12.291587 0.000000
367.271000 164.992160 13.268799 0.000000
366.718200 164.287990 13.284058 0.000000
367.544740 161.498080 13.189894 0.000000
364.008910 163.263850 13.410430 0.000000
366.700410 164.289630 14.339365 0.000000
365.819610 163.665500 14.389338 0.000000
365.917450 162.760540 14.360686 0.000000
365.558750 161.978330 14.370411 0.000000
364.626530 161.319270 14.427341 0.000000
365.295560 162.920030 15.490526 0.000000
362.458470 162.729390 15.759337 0.000000
362.857090 163.554890 16.883459 0.000000
362.918640 162.614070 16.845249 0.000000
361.480770 161.084440 16.970901 0.000000
362.892180 163.542110 18.024088 0.000000
364.272370 161.389740 17.751303 0.000000
360.508850 163.196610 18.343412 0.000000
359.474760 161.495680 18.430134 0.000000
361.666930 180.123050 8.835058 0.000000
360.743960 179.483350 8.815489 0.000000
359.829710 178.819610 8.796020 0.000000
358.601040 178.301800 8.765753 0.000000
357.387700 177.743230 8.735910 0.000000
356.126860 177.175200 8.704378 0.000000
354.828120 176.590390 8.671478 0.000000
347.937650 175.813400 8.474320 0.000000
352.414950 175.236800 8.611353 0.000000
346.936160 174.913940 8.450925 0.000000
345.896880 174.005020 8.426008 0.000000
369.651180 182.891660 9.022797 0.000000
368.879090 182.313960 9.009285 0.000000
368.109040 181.723020 8.995636 0.000000
367.273650 181.165410 8.979458 0.000000
366.527400 180.532840 8.966237 0.000000
365.716920 179.930280 8.950544 0.000000
364.917360 179.306380 8.935027 0.000000
365.714900 162.523620 9.092133 0.000000
361.280180 161.826250 8.959343 0.000000
365.544710 162.564910 10.125075 0.000000
361.481510 161.777710 10.086180 0.000000
366.367710 164.047880 11.163336 0.000000
366.426150 162.330630 11.151258 0.000000
366.879300 161.382280 11.140175 0.000000
368.617000 162.557920 12.101010 0.000000
367.350770 164.594820 12.169054 0.000000
360.747740 161.936390 12.352810 0.000000
367.053340 164.685790 13.201255 0.000000
366.459750 161.478270 13.173904 0.000000
363.274690 164.053740 13.390424 0.000000
363.721920 163.032270 13.348080 0.000000
365.649290 164.251950 14.317670 0.000000
365.423830 163.447100 14.314266 0.000000
365.788940 162.487630 14.264215 0.000000
365.099880 161.805970 14.301020 0.000000
358.617580 162.408860 14.804173 0.000000
366.501650 162.297730 15.230702 0.000000
364.682590 163.651410 15.445450 0.000000
364.511510 161.080490 15.391129 0.000000
359.501590 163.164250 15.931187 0.000000
364.107570 161.168230 16.507015 0.000000
362.566500 163.324130 16.758106 0.000000
362.527620 163.330690 17.888508 0.000000
364.366760 185.964080 9.043563 0.000000
363.456730 185.380980 9.029517 0.000000
367.271030 184.932890 9.123147 0.000000
362.550050 184.779080 9.015389 0.000000
361.560210 184.218430 8.998428 0.000000
360.676850 183.566010 8.984650 0.000000
354.748840 183.461790 8.841668 0.000000
359.704220 182.955410 8.967872 0.000000
353.615260 182.812190 8.820126 0.000000
358.740020 182.319600 8.951169 0.000000
352.436950 182.160800 8.797057 0.000000
351.061160 181.584630 8.767908 0.000000
349.706150 180.960910 8.739272 0.000000
348.309840 180.321010 8.709280 0.000000
345.890200 178.764560 8.659750 0.000000
368.078160 185.511050 9.134136 0.000000
361.469060 161.510190 9.175156 0.000000
367.108490 164.279020 10.301384 0.000000
366.777590 163.553860 10.298694 0.000000
367.391720 161.756550 10.300392 0.000000
365.443910 161.436140 10.288693 0.000000
361.612820 161.475220 10.266386 0.000000
366.018280 163.778870 11.301187 0.000000
362.170560 163.123610 11.355015 0.000000
365.864410 162.985760 11.297853 0.000000
366.630310 161.144500 11.274029 0.000000
366.927800 164.330930 12.283681 0.000000
368.345490 162.285890 12.204865 0.000000
365.786960 163.845430 12.317823 0.000000
364.410340 162.533430 12.350776 0.000000
361.992800 162.272160 12.435911 0.000000
367.343840 165.024080 13.268802 0.000000
365.617070 164.746110 13.360236 0.000000
367.164490 163.429530 13.245511 0.000000
365.038360 163.212420 13.362693 0.000000
368.787410 161.383120 13.114155 0.000000
366.822170 164.358830 14.282619 0.000000
365.951170 163.790500 14.335010 0.000000
365.980870 162.944930 14.311172 0.000000
365.906340 162.135930 14.297627 0.000000
365.213870 161.482220 14.337588 0.000000
365.284480 163.137760 15.397446 0.000000
365.404720 162.264790 15.359477 0.000000
363.107570 163.746120 16.714418 0.000000
362.227230 163.094700 16.797903 0.000000
361.441860 161.498200 16.842293 0.000000
359.808320 161.863140 18.201754 0.000000
363.974000 182.764220 8.961911 0.000000
363.102360 182.196300 8.945219 0.000000
362.327240 181.547450 8.931645 0.000000
357.205440 181.190770 8.795915 0.000000
361.486510 180.928940 8.915602 0.000000
356.116850 180.606430 8.771584 0.000000
360.652620 180.290910 8.899577 0.000000
354.862120 180.087070 8.741619 0.000000
353.518620 179.580760 8.708646 0.000000
352.349430 178.949450 8.681275 0.000000
350.048860 177.580990 8.627244 0.000000
348.987490 176.814640 8.602786 0.000000
347.973720 176.003250 8.579604 0.000000
370.298340 184.854720 9.099015 0.000000
369.581510 184.284390 9.088503 0.000000
365.570830 183.964340 8.989579 0.000000
368.862340 183.708270 9.077663 0.000000
368.147370 183.120480 9.066735 0.000000
364.771120 183.371380 8.975809 0.000000
365.708800 162.663990 9.181535 0.000000
366.032410 162.569380 10.160766 0.000000
366.448030 164.059680 11.135630 0.000000
366.349120 162.476760 11.125046 0.000000
365.662320 161.861940 11.129252 0.000000
367.400730 164.551710 12.081826 0.000000
366.479030 164.045930 12.104478 0.000000
365.518100 163.525540 12.128797 0.000000
365.004060 162.851550 12.136837 0.000000
365.661560 161.858760 12.102369 0.000000
363.896120 161.488860 12.157211 0.000000
368.584930 162.601560 12.932283 0.000000
368.389530 161.139540 12.915243 0.000000
365.733730 165.112050 13.138258 0.000000
365.443820 164.372500 13.137753 0.000000
366.166110 162.521220 13.061703 0.000000
365.773860 164.263230 14.107211 0.000000
365.325200 163.575900 14.122167 0.000000
365.936950 162.582110 14.050735 0.000000
364.557400 162.141650 14.144426 0.000000
362.504910 161.821320 14.293163 0.000000
364.403200 164.696520 15.245895 0.000000
366.385280 163.254200 15.007669 0.000000
365.476590 162.707900 15.077863 0.000000
364.837800 161.249340 15.097641 0.000000
360.102170 163.306550 15.616205 0.000000
361.775790 161.130840 15.393924 0.000000
364.195430 163.906980 16.267605 0.000000
362.965270 163.409710 16.393349 0.000000
361.294740 161.235860 16.519005 0.000000
364.640260 161.290830 17.130650 0.000000
361.543460 162.921070 17.628489 0.000000
361.091160 161.278270 17.630287 0.000000
359.315280 178.001850 8.750089 0.000000
358.330810 177.440250 8.724873 0.000000
356.213350 176.321590 8.668636 0.000000
355.145020 175.726880 8.639960 0.000000
354.042970 175.120620 8.609928 0.000000
353.076020 174.426440 8.584521 0.000000
352.068510 173.726330 8.557467 0.000000
348.327360 174.091280 8.434184 0.000000
347.445130 173.239140 8.411445 0.000000
346.549010 172.372530 8.387925 0.000000
370.196260 181.451660 9.037653 0.000000
367.366940 181.508580 8.954675 0.000000
369.574070 180.869430 9.027063 0.000000
366.676510 180.922500 8.941482 0.000000
365.988830 180.325730 8.928161 0.000000
365.251980 179.754150 8.912742 0.000000
364.597350 179.115920 8.900207 0.000000
363.906740 178.492900 8.886074 0.000000
360.305540 178.536610 8.775379 0.000000
363.225770 177.853910 8.872064 0.000000
361.327330 161.807740 8.930608 0.000000
366.709660 162.005780 10.029878 0.000000
361.511140 161.758700 9.967009 0.000000
366.902590 164.269130 10.966437 0.000000
366.227080 163.702620 10.967838 0.000000
365.830570 163.035100 10.966311 0.000000
363.790220 162.823560 10.982969 0.000000
367.274930 164.138200 11.885847 0.000000
366.760890 163.527450 11.891986 0.000000
365.856660 163.022830 11.911739 0.000000
363.969020 161.955960 11.954575 0.000000
364.023860 161.137080 11.943271 0.000000
359.515320 164.022220 12.114362 0.000000
367.344640 161.814850 12.759782 0.000000
365.869080 164.609590 12.891536 0.000000
364.649870 164.197050 12.943825 0.000000
364.743160 163.352720 12.921844 0.000000
363.553990 162.060810 12.958214 0.000000
360.721250 161.939120 13.101881 0.000000
367.661100 163.997940 13.706643 0.000000
365.952970 163.776230 13.821609 0.000000
364.479770 163.427220 13.917471 0.000000
364.998440 162.470600 13.855808 0.000000
365.133850 161.641920 13.826122 0.000000
366.816530 164.279050 14.715387 0.000000
365.780270 163.032460 14.768067 0.000000
365.808620 162.238560 14.740327 0.000000
365.452000 163.931430 14.828489 0.000000
364.392270 161.832460 14.860685 0.000000
360.618840 161.096100 15.196416 0.000000
365.203120 162.404460 15.768527 0.000000
361.551330 161.724120 16.165504 0.000000
363.005280 163.855440 17.101887 0.000000
363.274350 162.941970 17.025234 0.000000
361.456880 162.593840 17.258425 0.000000
356.673000 176.464110 8.669427 0.000000
355.669400 175.881840 8.642219 0.000000
354.645320 175.284820 8.614102 0.000000
353.612790 174.666170 8.585514 0.000000
352.712130 173.963680 8.561528 0.000000
348.231450 173.564390 8.416593 0.000000
351.815310 173.239060 8.537452 0.000000
347.395020 172.721570 8.394559 0.000000
346.532200 171.870210 8.371287 0.000000
370.507810 182.167390 9.032216 0.000000
369.902500 181.595280 9.022100 0.000000
369.296910 181.019550 9.011707 0.000000
366.549840 181.042650 8.929288 0.000000
368.690950 180.439710 9.001041 0.000000
365.881230 180.457150 8.916161 0.000000
365.220790 179.857740 8.903117 0.000000
364.508120 179.286650 8.887812 0.000000
363.889980 178.641510 8.875924 0.000000
363.228730 178.017550 8.862129 0.000000
359.613340 178.105210 8.747570 0.000000
358.649720 177.572300 8.722275 0.000000
362.572300 177.381680 8.848274 0.000000
365.711430 162.659270 9.068728 0.000000
361.413390 161.445540 8.928522 0.000000
365.986450 162.572160 9.988849 0.000000
361.490360 161.422530 9.929776 0.000000
366.664610 163.874330 10.903439 0.000000
367.807740 162.749980 10.885571 0.000000
366.267940 162.483150 10.895844 0.000000
365.662990 161.902710 10.896576 0.000000
365.934880 163.343280 11.821341 0.000000
366.105130 162.527540 11.805017 0.000000
365.609830 161.913390 11.811258 0.000000
366.963100 164.525470 12.714526 0.000000
365.616390 164.219210 12.773577 0.000000
366.189060 162.497890 12.709039 0.000000
366.423130 161.680510 12.681498 0.000000
365.019410 163.630600 12.790359 0.000000
366.832280 163.802840 13.608851 0.000000
364.992800 163.634220 13.733146 0.000000
364.609800 162.966950 13.742221 0.000000
365.718350 161.874280 13.635586 0.000000
365.805660 164.145070 14.621626 0.000000
365.355960 161.971740 14.590127 0.000000
362.485570 164.428730 14.933937 0.000000
360.177890 162.569640 15.087933 0.000000
359.812990 161.810000 15.100710 0.000000
359.072080 164.622120 15.253196 0.000000
365.195560 162.782040 15.569216 0.000000
362.526640 162.761640 15.871042 0.000000
362.796080 163.496050 16.867344 0.000000
361.294860 162.267760 17.017672 0.000000
361.379240 161.419940 16.973288 0.000000
355.711910 177.331970 8.665772 0.000000
354.682680 176.775910 8.637912 0.000000
353.690430 176.175750 8.611258 0.000000
352.784060 175.510310 8.587559 0.000000
351.852110 174.836350 8.562719 0.000000
351.027650 174.093630 8.541541 0.000000
350.210330 173.330630 8.520364 0.000000
346.702580 173.622560 8.402651 0.000000
345.856450 172.781600 8.380268 0.000000
368.863740 182.372390 9.011865 0.000000
370.678440 181.830410 9.071657 0.000000
368.252230 181.799190 9.001575 0.000000
367.640410 181.222230 8.991009 0.000000
364.865300 181.254650 8.907919 0.000000
367.029720 180.639820 8.980225 0.000000
364.194370 180.664030 8.894782 0.000000
363.530180 180.060650 8.881666 0.000000
362.812560 179.486340 8.866249 0.000000
362.180910 178.843610 8.853904 0.000000
361.515050 178.215880 8.839998 0.000000
360.765780 177.630650 8.822706 0.000000
366.775940 161.922780 10.002680 0.000000
366.884860 164.068210 10.878206 0.000000
366.232150 163.553380 10.879008 0.000000
365.813540 162.947170 10.877479 0.000000
364.722260 162.535140 10.883139 0.000000
365.913970 161.447170 10.865444 0.000000
365.785340 164.457000 11.787486 0.000000
365.087040 163.936280 11.799248 0.000000
362.274660 164.072420 11.881975 0.000000
366.353060 162.041050 11.735310 0.000000
365.540890 161.547930 11.752380 0.000000
366.573820 164.169490 12.640894 0.000000
365.362300 163.838070 12.692827 0.000000
365.804900 162.940570 12.651479 0.000000
364.222600 162.675930 12.724839 0.000000
363.960820 161.987920 12.724551 0.000000
367.033260 164.741470 13.509438 0.000000
365.587890 163.756740 13.579720 0.000000
363.810270 162.794980 13.678329 0.000000
364.492190 161.834170 13.605184 0.000000
367.085420 164.716480 14.383947 0.000000
366.532990 164.173890 14.412445 0.000000
365.804600 163.678450 14.459960 0.000000
365.918880 162.158050 14.397058 0.000000
364.278750 161.889740 14.539892 0.000000
362.450870 164.000870 14.777073 0.000000
359.876430 161.463940 14.937204 0.000000
365.471130 162.287780 15.341717 0.000000
358.241330 162.720150 15.124990 0.000000
359.384400 163.259740 16.069283 0.000000
363.151000 163.767430 16.625637 0.000000
362.430420 163.194210 16.695446 0.000000
364.038700 161.191590 16.392277 0.000000
354.667910 177.556320 8.656652 0.000000
353.695310 176.979460 8.632214 0.000000
352.767030 176.356860 8.609268 0.000000
351.853330 175.706050 8.586687 0.000000
350.928070 175.040070 8.563504 0.000000
350.116150 174.302090 8.544223 0.000000
349.324220 173.538910 8.525421 0.000000
348.473390 172.783510 8.504266 0.000000
369.903470 163.409930 8.497710 0.000000
369.672150 162.833500 8.494295 0.000000
369.440580 162.256420 8.490405 0.000000
369.213130 161.676940 8.486294 0.000000
368.984010 161.096660 8.481630 0.000000
370.369870 182.307980 9.062659 0.000000
369.765560 181.784610 9.053638 0.000000
367.372560 181.759510 8.986164 0.000000
369.193880 181.227840 9.045725 0.000000
366.749570 181.202850 8.976171 0.000000
366.126250 180.641170 8.965922 0.000000
363.333980 180.669820 8.883636 0.000000
365.507350 180.070300 8.955614 0.000000
362.651610 180.090940 8.870914 0.000000
361.972050 179.501110 8.858085 0.000000
361.238650 178.938610 8.842962 0.000000
360.602630 178.300420 8.831375 0.000000
355.681340 178.086560 8.682488 0.000000
358.876070 177.275250 8.790346 0.000000
365.750640 162.806320 9.143423 0.000000
365.777950 162.793980 10.000808 0.000000
366.765990 163.886690 10.856236 0.000000
365.680760 162.104230 10.853067 0.000000
366.163150 161.254550 10.843539 0.000000
365.720090 164.265590 11.735871 0.000000
365.186860 163.716020 11.743263 0.000000
361.863530 163.275180 11.834776 0.000000
366.466250 162.562230 11.689812 0.000000
364.778960 161.651060 11.727995 0.000000
366.949130 164.531080 12.550875 0.000000
365.955960 164.175450 12.591501 0.000000
368.035400 162.726410 12.456593 0.000000
365.065340 163.016560 12.610951 0.000000
362.017520 162.444720 12.753727 0.000000
360.599300 162.055480 12.819106 0.000000
367.302490 165.112150 13.393372 0.000000
366.909670 164.542330 13.402181 0.000000
365.531130 163.589490 13.469962 0.000000
367.596370 161.505710 13.266813 0.000000
359.444460 164.848920 13.935395 0.000000
366.985380 164.509120 14.245971 0.000000
365.610350 164.294070 14.361785 0.000000
365.604640 163.560380 14.335365 0.000000
365.967800 162.714890 14.272609 0.000000
365.661680 162.097260 14.280370 0.000000
365.259000 161.503420 14.299123 0.000000
366.349790 163.299010 15.115786 0.000000
365.506070 162.862180 15.192337 0.000000
365.399780 162.174480 15.177012 0.000000
360.160160 162.167530 14.793942 0.000000
359.534520 163.150590 15.881392 0.000000
360.850310 161.192720 15.663250 0.000000
364.517000 163.929020 16.253548 0.000000
363.803010 161.179600 16.225437 0.000000
363.148070 163.628190 16.421532 0.000000
362.350620 163.107790 16.504452 0.000000
362.548710 162.278380 16.441261 0.000000
352.171200 178.758360 8.641377 0.000000
351.278320 178.113430 8.619482 0.000000
350.399230 177.442580 8.597866 0.000000
349.476500 176.775390 8.574465 0.000000
348.701020 176.017120 8.556074 0.000000
347.919860 175.247210 8.537205 0.000000
347.171690 174.448010 8.519214 0.000000
346.436710 173.629520 8.501391 0.000000
370.089360 165.750750 8.550108 0.000000
369.784300 165.217880 8.543451 0.000000
369.474240 164.685100 8.536066 0.000000
369.310460 164.088610 8.536847 0.000000
369.116330 163.507100 8.535345 0.000000
367.650850 163.406220 8.459430 0.000000
367.448520 162.804570 8.456831 0.000000
367.246770 162.203160 8.453774 0.000000
367.050050 161.600190 8.450523 0.000000
370.363160 183.744420 9.115704 0.000000
369.267670 183.726650 9.086206 0.000000
368.077150 183.765780 9.053005 0.000000
367.521970 183.156510 9.045960 0.000000
366.909550 182.600860 9.036283 0.000000
364.405910 182.576970 8.965619 0.000000
366.330690 182.011920 9.027676 0.000000
363.776180 181.985570 8.954954 0.000000
363.146270 181.389560 8.944014 0.000000
360.225650 181.417110 8.858054 0.000000
362.524600 180.781890 8.933125 0.000000
359.535060 180.803010 8.844540 0.000000
358.846160 180.179080 8.830841 0.000000
357.162750 179.100080 8.791393 0.000000
356.241030 178.584520 8.768466 0.000000
355.352230 178.028580 8.746593 0.000000
365.720860 162.713780 9.195030 0.000000
361.121280 161.940220 9.047504 0.000000
366.008670 162.612030 10.026283 0.000000
367.728180 162.690950 10.833116 0.000000
367.024350 164.322490 10.854053 0.000000
366.647980 163.769500 10.851990 0.000000
366.200710 162.542680 10.844932 0.000000
365.707000 162.014500 10.844833 0.000000
366.205540 161.178470 10.833789 0.000000
366.060850 164.699430 11.701525 0.000000
365.596620 164.160390 11.705530 0.000000
365.189270 163.591980 11.707911 0.000000
361.870760 163.229370 11.799624 0.000000
364.830810 161.585010 11.688129 0.000000
368.041350 162.570110 12.388640 0.000000
366.919160 164.353940 12.487852 0.000000
365.926300 164.031190 12.528449 0.000000
364.814270 163.000810 12.559422 0.000000
362.022130 162.419390 12.687714 0.000000
360.628570 162.060030 12.751539 0.000000
366.419830 161.779210 12.452021 0.000000
367.217960 164.930180 13.305995 0.000000
365.586090 163.440670 13.370207 0.000000
363.922550 163.296480 13.483223 0.000000
364.428470 162.407290 13.421723 0.000000
364.680690 161.621190 13.382238 0.000000
366.873750 164.361600 14.132716 0.000000
365.707340 164.103410 14.227126 0.000000
365.125000 163.600050 14.260202 0.000000
365.998870 162.592360 14.142713 0.000000
365.617800 162.025150 14.157559 0.000000
364.391570 161.703110 14.260123 0.000000
364.989410 163.643370 15.133705 0.000000
365.550350 162.738710 15.030398 0.000000
365.433650 162.079100 15.015567 0.000000
364.081730 161.791140 15.157555 0.000000
358.295200 161.088100 14.812239 0.000000
364.377900 164.598010 15.246511 0.000000
364.929140 162.943020 15.969379 0.000000
359.954130 162.234700 15.646086 0.000000
364.510220 163.808940 16.070116 0.000000
362.349950 163.052800 16.320433 0.000000
362.611660 162.224960 16.246387 0.000000
360.720060 162.016100 16.493620 0.000000
365.673610 163.609190 8.436714 0.000000
365.291530 162.376450 8.430332 0.000000
365.117950 161.755620 8.427383 0.000000
364.933470 161.138890 8.423319 0.000000
353.254640 179.543240 8.752123 0.000000
349.385560 179.528560 8.633403 0.000000
352.416230 178.919970 8.731365 0.000000
348.427280 178.887940 8.608325 0.000000
347.664460 178.123900 8.589801 0.000000
346.957210 177.319380 8.572893 0.000000
346.259340 176.499910 8.555977 0.000000
370.258940 167.652570 8.611835 0.000000
370.033940 167.088870 8.610634 0.000000
369.704010 166.583040 8.602684 0.000000
369.426610 166.048550 8.597419 0.000000
368.133000 166.002030 8.531989 0.000000
367.836520 165.453640 8.525034 0.000000
367.505490 164.918810 8.515620 0.000000
367.318880 164.320340 8.514130 0.000000
367.140960 163.720610 8.512636 0.000000
365.770140 162.889570 8.450198 0.000000
368.889220 184.981540 9.146096 0.000000
367.764830 184.988980 9.115895 0.000000
366.624210 184.974300 9.085216 0.000000
365.389800 185.013580 9.051010 0.000000
364.835720 184.360060 9.043427 0.000000
364.225890 183.760270 9.033344 0.000000
361.631380 183.734920 8.960344 0.000000
363.654660 183.124180 9.024430 0.000000
361.011810 183.094410 8.949443 0.000000
360.389710 182.452930 8.938139 0.000000
359.771700 181.804520 8.926686 0.000000
355.987120 181.167390 8.820832 0.000000
355.032590 180.674550 8.796556 0.000000
354.151030 180.113360 8.774709 0.000000
361.445280 161.442250 9.113510 0.000000
365.749450 162.884690 10.049373 0.000000
366.824580 161.847260 10.058665 0.000000
361.542080 161.409210 9.994144 0.000000
366.757050 163.853870 10.850780 0.000000
360.705930 163.904720 10.903132 0.000000
364.241880 162.016710 10.852745 0.000000
366.499690 162.604920 11.621235 0.000000
365.560490 161.591840 11.631293 0.000000
365.706270 164.264010 11.675365 0.000000
364.836400 163.898770 11.693406 0.000000
364.392430 162.655520 11.683886 0.000000
364.745180 161.172650 11.648750 0.000000
361.950990 161.283000 11.734282 0.000000
366.957820 164.438080 12.431563 0.000000
366.584140 163.909560 12.434932 0.000000
368.305540 162.587250 12.314541 0.000000
364.993650 163.135670 12.492964 0.000000
364.366240 162.658190 12.512426 0.000000
365.239110 161.688160 12.445411 0.000000
363.279240 161.604520 12.542817 0.000000
367.323240 164.958010 13.216530 0.000000
366.915190 164.449200 13.225252 0.000000
366.486850 163.265150 13.212742 0.000000
368.602720 161.225690 12.996861 0.000000
364.962400 163.140520 13.315507 0.000000
361.628510 162.828280 13.542150 0.000000
366.952670 164.426940 14.014868 0.000000
366.087740 162.733550 14.020231 0.000000
366.004940 162.094410 14.002697 0.000000
365.790830 164.210630 14.109100 0.000000
365.487610 163.634400 14.111727 0.000000
365.129060 161.711460 14.068968 0.000000
366.990230 164.404650 14.806056 0.000000
365.427370 164.347780 14.974769 0.000000
364.445560 164.019330 15.066783 0.000000
365.692990 162.867860 14.871596 0.000000
365.243320 162.344640 14.897755 0.000000
364.350800 161.952350 14.981243 0.000000
359.784970 162.627930 15.528969 0.000000
360.938600 161.541980 15.353626 0.000000
365.142060 163.057590 15.769501 0.000000
365.192470 162.355640 15.725016 0.000000
360.689480 163.106490 16.367481 0.000000
361.772250 161.303330 16.135429 0.000000
363.762300 163.765050 8.405458 0.000000
363.584960 163.134370 8.402348 0.000000
363.408870 162.504930 8.398794 0.000000
363.239200 161.874730 8.395092 0.000000
363.061800 161.247910 8.390451 0.000000
354.673340 183.383330 8.828031 0.000000
353.995790 182.688200 8.813290 0.000000
353.237700 182.042570 8.795389 0.000000
352.375790 181.455310 8.773558 0.000000
351.600250 180.796430 8.754487 0.000000
350.757260 180.166930 8.732781 0.000000
346.880710 180.107770 8.613061 0.000000
349.925350 179.515140 8.711185 0.000000
346.112340 179.339550 8.593358 0.000000
370.268800 169.551970 8.652317 0.000000
370.013950 169.004790 8.650212 0.000000
369.761510 168.459410 8.647736 0.000000
369.506590 167.918430 8.644604 0.000000
368.340790 167.898590 8.586683 0.000000
368.127110 167.318240 8.585360 0.000000
367.805270 166.798170 8.577145 0.000000
367.538940 166.248490 8.571743 0.000000
366.229430 166.200490 8.505102 0.000000
365.944240 165.637510 8.497972 0.000000
365.623500 165.089170 8.488321 0.000000
365.405790 164.495000 8.484143 0.000000
365.244810 163.879360 8.482716 0.000000
366.461580 186.025760 9.137807 0.000000
365.301790 186.034350 9.106352 0.000000
364.130680 186.014480 9.074573 0.000000
362.857060 186.056370 9.038997 0.000000
362.311400 185.358520 9.030907 0.000000
361.702270 184.723280 9.020073 0.000000
361.134090 184.050770 9.010428 0.000000
358.410890 184.023500 8.932363 0.000000
361.290530 161.770660 9.146273 0.000000
366.616330 162.037140 10.066823 0.000000
361.476990 161.707520 10.002502 0.000000
366.793730 163.892470 10.834534 0.000000
366.055110 163.534760 10.835721 0.000000
365.816990 162.967930 10.830363 0.000000
365.175690 162.544050 10.830373 0.000000
364.413150 162.144030 10.831926 0.000000
361.108250 161.097820 10.848585 0.000000
366.920260 163.832120 11.586323 0.000000
366.339080 162.122020 11.567410 0.000000
365.591550 161.739750 11.581736 0.000000
364.998230 161.287060 11.590693 0.000000
362.737000 164.119430 11.711129 0.000000
360.839600 161.883090 11.724095 0.000000
360.888060 161.152190 11.710124 0.000000
367.061100 164.419980 12.352379 0.000000
366.090970 164.169820 12.391300 0.000000
368.455080 162.569020 12.229123 0.000000
367.860230 162.184780 12.247215 0.000000
364.342410 162.153400 12.420553 0.000000
365.333250 161.173840 12.346063 0.000000
367.336670 164.949950 13.114199 0.000000
366.925450 164.471390 13.122487 0.000000
365.509950 164.403780 13.216370 0.000000
368.487300 162.549220 12.941157 0.000000
364.475770 162.101260 13.205894 0.000000
364.255620 163.532530 13.270571 0.000000
363.853580 162.992870 13.279721 0.000000
359.162570 161.619510 13.570302 0.000000
367.696320 164.126980 13.802374 0.000000
366.482300 163.991360 13.903220 0.000000
365.707210 163.642030 13.956173 0.000000
365.892490 162.259740 13.879215 0.000000
366.959290 164.440780 14.649630 0.000000
365.689730 164.313020 14.780442 0.000000
359.601260 163.733290 14.513075 0.000000
365.801210 162.936740 14.694530 0.000000
365.891140 162.252990 14.650140 0.000000
364.861630 161.957020 14.751251 0.000000
364.160640 161.524750 14.810440 0.000000
364.768250 164.005540 14.864679 0.000000
365.203160 163.153590 15.568384 0.000000
365.484560 162.390240 15.486982 0.000000
360.645110 161.190830 15.196309 0.000000
361.247250 163.163760 16.093479 0.000000
360.601380 162.644440 16.152493 0.000000
360.981200 161.089780 16.024971 0.000000
363.825440 165.251080 8.474405 0.000000
361.739690 163.281390 8.384792 0.000000
361.571440 162.640730 8.381163 0.000000
361.409940 161.999600 8.377396 0.000000
361.237210 161.363310 8.372488 0.000000
352.292820 184.093950 8.825023 0.000000
351.611970 183.375180 8.809866 0.000000
350.933530 182.649050 8.794457 0.000000
350.116090 182.009340 8.773974 0.000000
349.338130 181.330780 8.754536 0.000000
348.491390 180.682790 8.732463 0.000000
347.673890 180.001970 8.711077 0.000000
370.036590 170.904340 8.693531 0.000000
369.794280 170.345790 8.693128 0.000000
369.548980 169.794750 8.691986 0.000000
368.485320 169.793400 8.640943 0.000000
368.233580 169.234890 8.638715 0.000000
367.984440 168.678410 8.636119 0.000000
367.732540 168.126830 8.632846 0.000000
366.547450 168.109270 8.574302 0.000000
366.338070 167.517750 8.572843 0.000000
366.018220 166.988080 8.564445 0.000000
365.755710 166.428130 8.558907 0.000000
364.424840 166.382080 8.491540 0.000000
364.143340 165.808930 8.484248 0.000000
363.580870 164.660060 8.468261 0.000000
363.417080 164.037050 8.466188 0.000000
365.665370 162.507490 8.599327 0.000000
359.493230 185.448670 9.020870 0.000000
358.918760 184.756420 9.010724 0.000000
356.124270 184.738980 8.931441 0.000000
355.507660 184.034620 8.919148 0.000000
354.891970 183.327710 8.906544 0.000000
361.159580 161.378620 9.194583 0.000000
365.691620 162.489820 9.341056 0.000000
365.479640 162.561890 10.078152 0.000000
361.280300 161.334670 10.020967 0.000000
366.822200 163.913650 10.829962 0.000000
365.807400 163.063960 10.826117 0.000000
368.257570 162.685040 10.800244 0.000000
365.310060 162.617920 10.824145 0.000000
364.488920 162.275850 10.826603 0.000000
366.022520 164.254990 11.588659 0.000000
365.854680 163.037290 11.565641 0.000000
366.318450 162.230870 11.534708 0.000000
365.619660 161.865190 11.547366 0.000000
364.400210 161.655120 11.578928 0.000000
361.921200 161.127750 11.642527 0.000000
367.108150 164.406140 12.289886 0.000000
364.760070 162.808880 12.354212 0.000000
368.568270 162.540630 12.159309 0.000000
367.973390 162.190660 12.177613 0.000000
365.668790 161.840150 12.281409 0.000000
363.223240 161.384090 12.391964 0.000000
368.611240 162.515260 12.839432 0.000000
362.032930 162.444080 12.479958 0.000000
367.333040 164.933790 13.027355 0.000000
366.903530 164.491380 13.037170 0.000000
365.568150 164.436520 13.125611 0.000000
364.597780 163.518590 13.156013 0.000000
364.847350 162.124830 13.087210 0.000000
363.114500 163.418880 13.255655 0.000000
359.435490 163.309310 13.511169 0.000000
367.245000 161.860210 13.617184 0.000000
366.954470 164.459660 13.768275 0.000000
366.811310 163.885640 13.751738 0.000000
365.963930 163.608090 13.813368 0.000000
364.320470 162.304400 13.902391 0.000000
366.909700 164.471630 14.513006 0.000000
365.881530 162.994740 14.539991 0.000000
365.687380 162.436980 14.531707 0.000000
365.259890 161.962660 14.555099 0.000000
364.730710 161.513520 14.592518 0.000000
362.608280 164.993730 15.011063 0.000000
366.321500 163.443150 15.263445 0.000000
360.022580 162.373960 15.165531 0.000000
359.702420 161.756590 15.174341 0.000000
365.391300 163.180240 15.368076 0.000000
365.678680 162.432360 15.284328 0.000000
364.257320 162.310900 15.465471 0.000000
360.969120 162.768110 15.929836 0.000000
361.804350 161.123540 15.730887 0.000000
362.634030 166.555860 8.483535 0.000000
362.352810 165.974350 8.476194 0.000000
362.031830 165.409760 8.466138 0.000000
361.790920 164.809170 8.460091 0.000000
360.051300 164.082640 8.376733 0.000000
359.885160 163.430180 8.373551 0.000000
359.714290 162.781590 8.369581 0.000000
359.360200 161.492690 8.359401 0.000000
349.998440 184.740710 8.826020 0.000000
349.306640 184.006000 8.810638 0.000000
348.617280 183.263950 8.794988 0.000000
347.865480 182.557340 8.776923 0.000000
347.188540 181.793010 8.760998 0.000000
346.380040 181.103290 8.740398 0.000000
370.656980 172.288990 8.769761 0.000000
370.440370 171.711730 8.772530 0.000000
369.525510 171.702010 8.731420 0.000000
369.285950 171.139950 8.731940 0.000000
368.306300 171.135300 8.686871 0.000000
368.064360 170.567810 8.686479 0.000000
367.819240 170.008180 8.685335 0.000000
366.735350 170.011900 8.633856 0.000000
366.485720 169.443450 8.631731 0.000000
366.236940 168.878400 8.629126 0.000000
365.985230 168.318540 8.625826 0.000000
364.779360 168.304690 8.566882 0.000000
364.571560 167.703980 8.565423 0.000000
364.250490 167.166820 8.556955 0.000000
363.988490 166.598600 8.551388 0.000000
365.734800 162.547680 8.686459 0.000000
361.529020 161.502900 8.474337 0.000000
356.799870 185.376970 9.013394 0.000000
353.938140 185.371670 8.933757 0.000000
353.311160 184.653020 8.921234 0.000000
352.683410 183.933070 8.908337 0.000000
365.751310 162.533280 9.398206 0.000000
361.471250 161.513240 9.262663 0.000000
367.115720 163.772130 10.131569 0.000000
365.524900 162.615190 10.106011 0.000000
361.566890 161.474820 10.053873 0.000000
366.818150 163.900300 10.828943 0.000000
364.694180 162.936400 10.833019 0.000000
368.230290 162.672120 10.797701 0.000000
364.604740 162.342680 10.825252 0.000000
366.331450 161.106400 10.791921 0.000000
366.063230 164.237700 11.559068 0.000000
365.901860 163.061460 11.535378 0.000000
365.172210 162.739010 11.549232 0.000000
361.678280 162.756150 11.652976 0.000000
365.510220 161.994400 11.522663 0.000000
367.506290 164.790370 12.228895 0.000000
367.086430 164.375600 12.234164 0.000000
366.047300 163.609990 12.258404 0.000000
364.840730 162.862170 12.294005 0.000000
366.753140 162.699300 12.194401 0.000000
368.566410 162.502580 12.754924 0.000000
366.393400 161.647430 12.872701 0.000000
366.135590 161.154160 12.872874 0.000000
367.291530 164.889240 12.945868 0.000000
366.815400 164.496870 12.960192 0.000000
365.621860 164.422590 13.037986 0.000000
364.731660 163.531850 13.062195 0.000000
363.352330 163.442600 13.154847 0.000000
364.557430 161.101790 12.983613 0.000000
366.928380 163.816910 13.625489 0.000000
365.937440 163.641370 13.704289 0.000000
365.727870 161.889570 13.639425 0.000000
365.852450 161.247390 13.599622 0.000000
364.829010 163.483020 13.795507 0.000000
364.584200 162.947300 13.791960 0.000000
366.907470 164.435790 14.372235 0.000000
365.806150 163.690250 14.445755 0.000000
365.950200 163.009110 14.390288 0.000000
365.770720 162.470500 14.379905 0.000000
365.571690 161.940380 14.373465 0.000000
365.144840 161.491180 14.398084 0.000000
365.453950 164.481980 14.531847 0.000000
365.452360 163.207520 15.190696 0.000000
365.458070 162.585910 15.149861 0.000000
360.403690 162.480620 14.982956 0.000000
364.842130 162.205890 15.207693 0.000000
364.157320 164.399900 15.439062 0.000000
362.182800 162.534610 15.581160 0.000000
359.546080 161.362430 15.873007 0.000000
362.640900 168.693800 8.526563 0.000000
360.419920 166.918520 8.441221 0.000000
360.179750 166.301560 8.436562 0.000000
359.887510 165.708850 8.428494 0.000000
359.437440 164.466280 8.418287 0.000000
357.381620 164.536350 8.311952 0.000000
357.278960 163.836730 8.312576 0.000000
357.134550 162.432850 8.315449 0.000000
357.008760 161.755020 8.313133 0.000000
356.823430 161.096530 8.307054 0.000000
347.491270 185.527740 8.798994 0.000000
350.939670 185.391340 8.896310 0.000000
350.291080 184.661010 8.883314 0.000000
346.767210 184.787430 8.783183 0.000000
346.116390 183.989820 8.769417 0.000000
370.015260 173.131530 8.781109 0.000000
369.752930 172.585620 8.782229 0.000000
368.880680 172.571180 8.744553 0.000000
368.631410 172.010740 8.745672 0.000000
367.625610 172.062870 8.699772 0.000000
366.290740 171.556260 8.649546 0.000000
367.390810 171.483950 8.701018 0.000000
366.085750 170.946640 8.651833 0.000000
364.650790 170.433150 8.594328 0.000000
365.875890 170.348420 8.653210 0.000000
364.437040 169.825470 8.594752 0.000000
364.227480 169.221250 8.594843 0.000000
364.012850 168.625690 8.594072 0.000000
362.483060 168.049650 8.528332 0.000000
362.188780 167.483730 8.521803 0.000000
361.969300 166.880330 8.518992 0.000000
365.733890 162.553150 8.759165 0.000000
361.606170 161.646960 8.554310 0.000000
354.579500 186.065120 8.990822 0.000000
365.785000 162.524340 9.443122 0.000000
361.337370 161.729920 9.305689 0.000000
365.525790 162.624910 10.121198 0.000000
367.066040 163.711090 10.144738 0.000000
361.494290 161.669270 10.071944 0.000000
366.773010 163.843830 10.814548 0.000000
365.705570 163.137500 10.813293 0.000000
364.705510 162.959060 10.819998 0.000000
365.688510 161.962800 10.795899 0.000000
366.317260 161.147550 10.778057 0.000000
361.135130 161.137050 10.829513 0.000000
366.060550 164.177340 11.515978 0.000000
360.510470 163.323520 11.659564 0.000000
365.884030 163.051820 11.493258 0.000000
