# .PCD v0.7 - Point Cloud Data file format
VERSION 0.7
FIELDS x y z intensity
SIZE 4 4 4 4
TYPE F F F F
COUNT 1 1 1 1
WIDTH 1166
HEIGHT 1
VIEWPOINT 0 0 0 1 0 0 0
POINTS 1166
DATA ascii
358.071410 245.772710 11.079460 0.000000
357.249420 247.300090 11.183673 0.000000
358.331790 247.403180 11.154065 0.000000
359.402070 247.549330 11.126168 0.000000
358.685210 248.910660 11.216177 0.000000
357.506130 250.510440 11.332437 0.000000
358.622920 250.628740 11.299185 0.000000
357.635800 252.021290 11.397539 0.000000
359.149840 251.937550 11.339472 0.000000
358.118260 253.288760 11.436013 0.000000
357.244450 254.496920 11.519827 0.000000
358.704040 254.490680 11.464802 0.000000
355.213560 256.894230 11.695082 0.000000
354.590790 257.831510 11.756138 0.000000
355.282170 258.161500 11.741882 0.000000
354.771240 259.008120 11.793753 0.000000
354.112240 259.883150 11.851892 0.000000
354.848850 260.202000 11.833467 0.000000
354.258760 261.011720 11.885235 0.000000
351.848110 236.875030 10.617743 0.000000
354.047120 238.936860 10.706182 0.000000
353.032140 238.990050 10.733498 0.000000
354.217800 239.874080 10.762653 0.000000
354.361150 240.810760 10.818916 0.000000
355.403960 240.770050 10.789179 0.000000
355.372100 241.859450 10.857976 0.000000
355.296880 242.952350 10.927341 0.000000
355.618320 243.629620 10.959323 0.000000
355.994810 244.245450 10.985193 0.000000
355.234620 245.859860 11.103413 0.000000
355.700350 246.352620 11.117746 0.000000
356.442200 246.619450 11.109633 0.000000
355.884490 247.937380 11.202054 0.000000
356.769530 248.093520 11.181522 0.000000
356.144900 249.392590 11.273577 0.000000
356.948550 249.618680 11.258098 0.000000
357.894130 249.769420 11.232923 0.000000
356.942350 251.204470 11.341317 0.000000
356.023010 252.553220 11.443375 0.000000
357.181950 252.567580 11.401284 0.000000
356.492860 253.709780 11.483081 0.000000
357.764680 253.695940 11.433944 0.000000
356.745940 254.969510 11.533186 0.000000
354.660890 256.738950 11.696330 0.000000
355.259090 257.066990 11.687303 0.000000
345.809480 258.085820 11.572721 0.000000
354.754640 257.935820 11.745792 0.000000
354.263340 258.766910 11.801478 0.000000
345.850070 259.045260 11.631458 0.000000
354.901030 259.077060 11.788172 0.000000
346.035550 259.409030 11.643564 0.000000
354.501310 259.834260 11.835747 0.000000
346.075930 260.319700 11.695580 0.000000
345.820710 260.006930 11.691707 0.000000
345.972990 260.829380 11.730908 0.000000
353.926060 260.635860 11.891852 0.000000
354.559140 260.954860 11.877265 0.000000
352.667420 238.149260 10.671775 0.000000
352.732390 239.256840 10.744909 0.000000
353.663730 239.229100 10.719690 0.000000
353.751400 240.256880 10.785288 0.000000
354.687160 240.252980 10.759890 0.000000
354.802490 241.207730 10.818335 0.000000
354.618230 242.456160 10.903263 0.000000
355.561650 242.464310 10.876004 0.000000
355.430210 243.597320 10.950508 0.000000
355.359620 244.626570 11.015945 0.000000
355.639920 245.285960 11.046984 0.000000
355.968780 245.889070 11.072302 0.000000
355.476560 247.210330 11.166656 0.000000
356.150420 247.479320 11.159235 0.000000
356.807070 247.777820 11.153367 0.000000
357.092290 249.205250 11.222881 0.000000
356.308040 249.008940 11.240534 0.000000
356.167080 250.687330 11.338020 0.000000
356.929530 250.896900 11.320464 0.000000
357.672760 251.140750 11.304750 0.000000
357.038300 252.315660 11.390335 0.000000
356.365660 253.466190 11.475477 0.000000
357.280300 253.596190 11.445074 0.000000
356.761840 254.598600 11.515256 0.000000
357.850950 254.653790 11.472699 0.000000
345.776640 255.236470 11.432655 0.000000
346.002930 255.600430 11.448208 0.000000
346.121860 256.052640 11.474959 0.000000
346.233400 256.501740 11.501230 0.000000
346.336940 256.948270 11.527103 0.000000
355.211730 256.768490 11.682817 0.000000
346.592010 257.270110 11.535613 0.000000
346.334320 257.971010 11.597175 0.000000
355.301790 257.934300 11.731833 0.000000
346.595670 258.275570 11.602931 0.000000
354.776550 257.605710 11.739754 0.000000
346.664730 258.713560 11.627630 0.000000
354.854520 258.738920 11.786613 0.000000
346.528630 259.279140 11.671637 0.000000
346.776730 259.582790 11.676278 0.000000
354.417790 259.509980 11.838883 0.000000
354.979430 259.819950 11.826768 0.000000
346.946410 259.936280 11.688011 0.000000
369.154270 260.133060 12.112932 0.000000
346.784000 260.483460 11.730626 0.000000
354.597750 260.535160 11.873077 0.000000
346.998840 260.800780 11.736303 0.000000
352.204350 236.112350 10.588841 0.000000
352.321810 237.265260 10.666276 0.000000
353.200410 237.256670 10.645493 0.000000
354.056950 237.309220 10.628579 0.000000
354.132840 238.442370 10.703136 0.000000
354.186740 239.554530 10.776018 0.000000
355.089970 239.552430 10.751778 0.000000
355.170010 240.578840 10.816666 0.000000
356.076260 240.598970 10.792173 0.000000
356.060820 241.690090 10.862347 0.000000
355.862370 242.938060 10.947134 0.000000
356.760560 242.977980 10.921749 0.000000
356.620030 244.103300 10.995522 0.000000
356.540770 245.124370 11.060167 0.000000
357.047490 245.552730 11.068885 0.000000
357.640110 245.905900 11.069459 0.000000
357.147860 247.227250 11.163721 0.000000
357.792940 247.520970 11.157494 0.000000
358.420320 247.842860 11.152774 0.000000
358.668820 249.295390 11.223647 0.000000
357.920990 249.072630 11.239848 0.000000
357.724790 250.788800 11.340607 0.000000
358.595460 250.918400 11.313201 0.000000
359.523960 251.035060 11.282110 0.000000
345.944640 251.056580 11.179119 0.000000
345.991240 251.720250 11.231909 0.000000
358.886290 252.216690 11.368392 0.000000
346.178710 252.193390 11.262480 0.000000
346.355770 252.665710 11.292749 0.000000
346.437770 253.229430 11.333869 0.000000
358.223820 253.365170 11.453314 0.000000
346.583680 253.707640 11.364666 0.000000
359.097600 253.524930 11.424542 0.000000
346.750610 254.152250 11.391209 0.000000
346.973360 254.532350 11.409481 0.000000
358.580840 254.529850 11.494925 0.000000
359.621280 254.616200 11.454165 0.000000
347.035830 255.059050 11.446022 0.000000
347.153870 255.519960 11.474242 0.000000
347.369690 255.884080 11.489738 0.000000
347.480710 256.333860 11.516237 0.000000
347.579800 256.784120 11.542772 0.000000
356.762510 256.852050 11.682253 0.000000
347.673370 257.229370 11.568634 0.000000
347.916870 257.550810 11.577132 0.000000
355.857360 257.931060 11.771023 0.000000
347.662630 258.239840 11.637645 0.000000
347.911440 258.544310 11.643490 0.000000
356.349060 258.263520 11.763716 0.000000
347.974120 258.977630 11.667853 0.000000
355.915470 259.048220 11.817192 0.000000
347.839050 259.533450 11.711018 0.000000
355.491910 259.800380 11.868241 0.000000
348.074980 259.836030 11.715721 0.000000
356.018860 260.113100 11.856740 0.000000
348.234800 260.186680 11.727366 0.000000
368.975890 260.668430 12.145879 0.000000
348.121340 260.696080 11.764627 0.000000
355.611480 260.826020 11.904285 0.000000
348.326050 261.011510 11.770270 0.000000
356.125030 236.705930 10.641440 0.000000
354.353030 236.671770 10.679879 0.000000
355.249050 236.659290 10.658853 0.000000
356.193600 237.870640 10.717379 0.000000
356.242890 239.009080 10.791221 0.000000
357.168700 238.997310 10.766175 0.000000
357.241580 240.051730 10.832257 0.000000
358.169130 240.064880 10.807125 0.000000
358.306180 241.002110 10.862284 0.000000
358.092350 242.290440 10.948923 0.000000
359.065830 242.272920 10.918083 0.000000
359.180790 243.162450 10.968516 0.000000
359.346620 243.974950 11.011887 0.000000
359.909120 244.389500 11.017828 0.000000
360.379880 244.893910 11.031322 0.000000
359.987340 246.161910 11.117758 0.000000
360.480380 246.621930 11.126375 0.000000
360.956970 247.099010 11.135768 0.000000
346.242310 248.055660 11.022160 0.000000
360.562230 248.271560 11.214613 0.000000
361.140870 248.651960 11.213427 0.000000
346.377960 248.733250 11.076574 0.000000
360.691130 249.802760 11.291660 0.000000
361.283480 250.165860 11.287548 0.000000
361.849730 250.558320 11.285238 0.000000
346.436160 249.493240 11.140038 0.000000
346.965450 249.558140 11.126497 0.000000
347.052610 250.234560 11.180349 0.000000
347.154970 250.863020 11.228888 0.000000
347.700810 250.910320 11.211110 0.000000
347.743260 251.584000 11.264361 0.000000
361.451230 251.599210 11.353569 0.000000
347.929470 252.063110 11.295162 0.000000
348.107390 252.538820 11.325361 0.000000
361.024660 252.620480 11.421338 0.000000
361.562070 253.014140 11.418086 0.000000
348.198490 253.096770 11.365194 0.000000
348.347960 253.575610 11.395555 0.000000
348.513730 254.025680 11.422279 0.000000
361.233030 253.928130 11.475208 0.000000
348.736330 254.410020 11.440670 0.000000
361.866330 254.267970 11.463968 0.000000
348.795440 254.943950 11.477509 0.000000
348.911470 255.410450 11.505914 0.000000
360.855710 255.515200 11.564215 0.000000
349.126590 255.778670 11.521542 0.000000
349.235140 256.233980 11.548243 0.000000
349.332550 256.688840 11.574868 0.000000
359.780300 256.737790 11.665503 0.000000
349.421810 257.140660 11.601090 0.000000
360.120420 257.195740 11.670300 0.000000
349.663600 257.466280 11.609814 0.000000
349.516660 258.324130 11.674547 0.000000
349.701050 258.914830 11.701927 0.000000
358.005000 258.828280 11.834137 0.000000
349.560460 259.476470 11.745258 0.000000
357.560700 259.599460 11.886101 0.000000
349.875820 259.957430 11.755753 0.000000
358.097530 259.916630 11.874311 0.000000
349.829440 260.652400 11.799644 0.000000
357.695340 260.636440 11.921117 0.000000
350.033720 260.969510 11.805244 0.000000
357.170290 236.256610 10.677082 0.000000
358.062380 236.296420 10.659204 0.000000
356.259740 236.274480 10.698391 0.000000
358.127930 237.480850 10.735895 0.000000
358.170650 238.642680 10.810814 0.000000
359.111360 238.626210 10.785494 0.000000
359.178340 239.701690 10.852524 0.000000
360.120060 239.711440 10.827188 0.000000
360.253230 240.666230 10.883091 0.000000
360.316130 241.665270 10.942944 0.000000
361.273040 241.687650 10.915478 0.000000
361.354490 242.632290 10.969818 0.000000
361.479310 243.504210 11.017637 0.000000
361.897370 244.072910 11.037329 0.000000
362.358150 244.598270 11.052293 0.000000
345.902250 245.481640 10.889298 0.000000
361.949070 245.892010 11.139873 0.000000
346.052760 246.296360 10.959687 0.000000
346.623570 246.290710 10.944056 0.000000
362.446840 246.358290 11.148635 0.000000
362.928920 246.840990 11.158087 0.000000
346.763240 247.065320 11.009577 0.000000
347.302340 247.121490 10.998848 0.000000
347.390440 247.927320 11.067136 0.000000
347.922970 247.995130 11.056129 0.000000
362.523930 248.031720 11.237460 0.000000
363.112460 248.413970 11.236049 0.000000
348.056210 248.679690 11.110905 0.000000
362.657650 249.578020 11.314324 0.000000
363.257390 249.944950 11.310186 0.000000
363.830350 250.341890 11.307871 0.000000
363.416200 251.402160 11.377028 0.000000
348.111240 249.447170 11.174717 0.000000
348.643710 249.510380 11.161118 0.000000
348.728000 250.193330 11.215280 0.000000
348.827790 250.827550 11.264084 0.000000
349.376860 250.873060 11.246248 0.000000
349.416320 251.552580 11.299734 0.000000
349.610440 252.024510 11.329442 0.000000
349.796810 252.492940 11.358514 0.000000
362.974030 252.441790 11.445560 0.000000
363.516690 252.840120 11.442332 0.000000
349.885860 253.055650 11.398535 0.000000
350.033840 253.538380 11.429057 0.000000
363.171660 253.771360 11.500270 0.000000
350.198390 253.991910 11.455923 0.000000
363.811920 254.114590 11.488982 0.000000
350.420380 254.378970 11.474428 0.000000
350.477170 254.917100 11.511415 0.000000
350.591250 255.387240 11.539970 0.000000
362.876800 255.328120 11.583345 0.000000
350.805730 255.757810 11.555686 0.000000
350.912140 256.216640 11.582540 0.000000
361.682710 256.621310 11.691702 0.000000
351.007970 256.674380 11.609230 0.000000
351.094760 257.129580 11.635603 0.000000
361.888890 257.152160 11.705387 0.000000
351.336240 257.456880 11.644379 0.000000
360.957000 258.223510 11.791452 0.000000
351.057340 258.168240 11.706536 0.000000
351.304410 258.477290 11.712582 0.000000
345.852480 258.871830 11.625648 0.000000
351.357360 258.920500 11.737584 0.000000
346.091770 259.083040 11.629118 0.000000
360.079130 259.220340 11.871416 0.000000
346.120700 259.487920 11.662756 0.000000
351.207820 259.488860 11.781470 0.000000
351.443480 259.794010 11.786142 0.000000
360.350310 259.671690 11.877049 0.000000
346.296630 259.957760 11.691284 0.000000
351.600490 260.148770 11.797860 0.000000
346.475800 260.414490 11.717285 0.000000
359.644260 260.530180 11.942537 0.000000
346.621830 260.691710 11.729715 0.000000
351.572300 260.829160 11.838812 0.000000
363.089110 236.923830 10.806116 0.000000
364.165770 236.872620 10.777176 0.000000
364.293400 237.931880 10.838364 0.000000
364.393040 238.985110 10.898993 0.000000
365.495760 238.946370 10.867452 0.000000
365.645420 239.915680 10.920000 0.000000
365.841400 240.810870 10.966071 0.000000
366.326080 241.408890 10.986007 0.000000
366.846410 241.971440 11.002018 0.000000
367.445400 244.454770 11.118109 0.000000
346.189060 241.912660 10.707957 0.000000
346.374390 242.920520 10.798426 0.000000
346.985410 242.876970 10.784655 0.000000
366.323970 243.455900 11.099825 0.000000
347.797730 243.716160 10.846272 0.000000
348.378110 243.763000 10.838785 0.000000
347.152530 243.828610 10.868584 0.000000
366.893550 243.945390 11.108576 0.000000
348.529750 244.647770 10.914505 0.000000
349.159060 244.602710 10.896112 0.000000
349.253200 245.525380 10.974874 0.000000
349.843140 245.556370 10.962498 0.000000
366.930080 245.816770 11.206537 0.000000
367.602600 246.213060 11.204492 0.000000
349.924740 246.433150 11.035975 0.000000
350.511510 246.473100 11.022861 0.000000
350.645570 247.213240 11.081589 0.000000
367.057950 247.522000 11.289500 0.000000
367.768590 247.884140 11.282776 0.000000
350.690890 248.048860 11.150251 0.000000
351.279600 248.084520 11.134376 0.000000
368.452150 248.280430 11.277874 0.000000
351.366490 248.815220 11.191467 0.000000
367.976350 249.457700 11.351508 0.000000
351.470490 249.493010 11.242903 0.000000
352.080020 249.510030 11.222524 0.000000
352.178440 250.165830 11.270894 0.000000
367.419740 250.643140 11.427677 0.000000
352.321410 250.745800 11.310877 0.000000
368.038450 251.063580 11.423883 0.000000
367.600590 252.118420 11.488030 0.000000
368.337340 252.472600 11.475210 0.000000
367.824860 253.523130 11.540505 0.000000
367.388240 254.496730 11.598776 0.000000
367.691740 255.069000 11.610057 0.000000
352.517820 251.247250 11.341953 0.000000
352.603970 251.856050 11.384933 0.000000
352.757140 252.374660 11.417622 0.000000
352.929570 252.860180 11.446319 0.000000
353.108490 253.328350 11.472754 0.000000
353.267300 253.805970 11.500071 0.000000
353.424530 254.274890 11.526143 0.000000
346.039310 254.819110 11.410852 0.000000
353.676210 254.651120 11.540634 0.000000
346.260070 255.122920 11.431698 0.000000
353.683260 255.233060 11.580267 0.000000
346.474580 255.428240 11.452299 0.000000
353.844600 255.671250 11.601979 0.000000
346.604950 255.836120 11.486371 0.000000
346.799100 256.150360 11.507484 0.000000
353.923160 256.168270 11.631043 0.000000
346.981900 256.471500 11.529181 0.000000
354.208980 256.495670 11.637869 0.000000
365.912200 256.634800 11.745186 0.000000
347.176180 256.772220 11.547670 0.000000
347.511230 257.164280 11.566210 0.000000
353.850650 257.300080 11.707815 0.000000
347.756470 257.647160 11.596819 0.000000
354.052280 257.672910 11.720595 0.000000
354.293550 258.016390 11.728808 0.000000
364.472750 257.958370 11.856114 0.000000
348.047450 258.304840 11.638588 0.000000
348.302250 258.520970 11.642040 0.000000
364.776640 258.453610 11.862234 0.000000
348.326600 258.949400 11.677370 0.000000
353.994630 258.716950 11.787223 0.000000
348.450200 259.277620 11.697321 0.000000
354.362240 259.209660 11.795671 0.000000
363.874020 259.451420 11.937091 0.000000
348.567050 259.605870 11.717084 0.000000
348.598270 259.998930 11.747141 0.000000
354.173580 260.032960 11.853084 0.000000
354.433560 260.344420 11.855260 0.000000
362.869690 260.443660 12.015419 0.000000
363.373350 260.824100 12.006989 0.000000
348.916380 260.559880 11.770250 0.000000
349.057680 260.850460 11.782898 0.000000
354.133580 260.962280 11.905929 0.000000
369.555480 236.292500 10.829505 0.000000
368.301060 236.401750 10.865011 0.000000
369.700010 237.358410 10.886776 0.000000
369.899290 238.338440 10.936884 0.000000
370.473690 238.936550 10.955235 0.000000
346.083620 239.698120 10.622989 0.000000
347.021510 240.551940 10.696354 0.000000
347.658840 240.492970 10.685519 0.000000
348.305630 240.436580 10.673946 0.000000
346.393370 240.613010 10.706432 0.000000
370.615260 241.024600 11.064460 0.000000
348.553710 241.365800 10.755697 0.000000
349.215820 241.279240 10.739434 0.000000
350.085660 242.140010 10.803561 0.000000
350.715820 242.156040 10.794323 0.000000
349.384000 242.301960 10.828899 0.000000
350.868100 243.107560 10.875109 0.000000
351.526000 243.074010 10.859271 0.000000
351.596410 244.100330 10.946457 0.000000
352.239500 244.098010 10.931917 0.000000
352.314030 245.043060 11.010353 0.000000
352.954320 245.052630 10.995202 0.000000
353.036440 245.924580 11.065628 0.000000
353.123660 246.747210 11.131010 0.000000
353.816530 246.685060 11.106034 0.000000
353.904140 247.465520 11.166342 0.000000
354.016690 248.180660 11.219847 0.000000
354.880250 247.925810 11.171773 0.000000
355.132690 248.451080 11.204179 0.000000
355.438020 248.901440 11.228178 0.000000
355.721830 249.368500 11.253415 0.000000
355.944820 249.893460 11.284447 0.000000
356.168980 250.405180 11.313663 0.000000
356.430330 250.868410 11.337101 0.000000
356.692260 251.323910 11.359182 0.000000
345.899570 251.813050 11.241672 0.000000
346.300780 251.881030 11.237640 0.000000
346.473240 252.377750 11.285412 0.000000
357.172520 252.256380 11.404349 0.000000
357.503050 252.632970 11.415704 0.000000
357.833280 253.009690 11.426321 0.000000
358.192350 253.363010 11.433307 0.000000
358.546510 253.722550 11.440165 0.000000
358.985320 254.019560 11.438251 0.000000
358.126100 255.282730 11.558786 0.000000
369.833830 256.224580 11.789419 0.000000
370.082370 256.824010 11.801750 0.000000
346.643460 252.853470 11.330296 0.000000
347.081270 252.853960 11.315768 0.000000
347.277830 253.261440 11.351173 0.000000
347.428830 253.724400 11.393219 0.000000
348.023560 254.169280 11.415052 0.000000
348.254580 254.482850 11.436723 0.000000
348.478850 254.798460 11.458174 0.000000
348.612430 255.225040 11.493754 0.000000
348.815920 255.549610 11.515612 0.000000
349.006710 255.882540 11.538175 0.000000
358.107090 255.885850 11.596672 0.000000
349.209870 256.193850 11.557419 0.000000
349.474030 256.430880 11.566040 0.000000
358.221220 256.382170 11.620735 0.000000
349.647890 256.766050 11.587613 0.000000
349.950840 257.213440 11.611393 0.000000
350.111210 257.791990 11.653251 0.000000
350.380250 258.012700 11.656799 0.000000
356.815430 257.875030 11.780245 0.000000
357.062840 258.233920 11.788034 0.000000
368.407780 258.219330 11.916359 0.000000
350.396120 258.466800 11.694251 0.000000
357.311160 258.592900 11.795119 0.000000
345.766170 258.935520 11.626308 0.000000
350.521420 258.810610 11.715325 0.000000
345.940730 259.165440 11.642028 0.000000
350.641660 259.152620 11.735909 0.000000
356.985440 259.290500 11.850852 0.000000
366.825710 259.500210 12.022649 0.000000
346.109990 259.397950 11.657723 0.000000
350.669250 259.564910 11.767265 0.000000
357.268490 259.618740 11.853076 0.000000
346.430360 259.872340 11.689381 0.000000
346.582280 260.112950 11.705173 0.000000
367.242280 259.961790 12.021480 0.000000
346.733280 260.350710 11.720095 0.000000
350.873660 260.243870 11.807109 0.000000
351.076320 260.500890 11.813208 0.000000
357.081790 260.442570 11.906084 0.000000
346.979640 260.681000 11.737080 0.000000
351.217100 260.802430 11.826139 0.000000
366.396000 260.878910 12.085052 0.000000
347.225400 261.008210 11.752550 0.000000
368.911070 236.209640 10.842694 0.000000
368.935150 237.405620 10.908686 0.000000
370.057650 237.401790 10.876665 0.000000
370.136900 238.496770 10.933668 0.000000
347.861270 238.936570 10.617535 0.000000
345.970090 239.069900 10.644362 0.000000
346.608550 238.968570 10.631076 0.000000
347.203310 239.046950 10.633612 0.000000
370.267300 239.506120 10.983627 0.000000
348.154790 239.944630 10.705391 0.000000
348.778900 239.932430 10.696733 0.000000
349.410340 239.922650 10.687298 0.000000
350.049290 239.915730 10.677107 0.000000
370.747680 240.154270 11.002902 0.000000
350.295290 240.876330 10.757761 0.000000
350.939760 240.854100 10.744328 0.000000
351.102540 241.909060 10.832949 0.000000
351.782960 241.809630 10.810341 0.000000
352.390930 241.885070 10.803436 0.000000
370.670990 242.354320 11.118229 0.000000
352.438140 243.050140 10.901355 0.000000
353.050900 243.102540 10.890631 0.000000
353.088750 244.185930 10.980168 0.000000
353.731230 244.181980 10.962250 0.000000
353.775880 245.173250 11.042278 0.000000
354.421510 245.170140 11.022661 0.000000
354.474790 246.081910 11.094305 0.000000
354.534790 246.939030 11.160542 0.000000
355.194890 246.916340 11.136438 0.000000
355.391360 247.542470 11.178266 0.000000
355.615020 248.111080 11.213877 0.000000
356.448390 247.897160 11.166383 0.000000
356.666050 248.466250 11.200650 0.000000
356.932980 248.961590 11.226686 0.000000
357.150850 249.501660 11.257200 0.000000
357.327970 250.072690 11.290865 0.000000
357.507510 250.625890 11.322373 0.000000
345.837370 250.596970 11.188628 0.000000
346.257540 250.616390 11.180378 0.000000
346.671630 250.662370 11.174397 0.000000
346.870330 251.189330 11.225235 0.000000
347.256320 251.293030 11.224714 0.000000
358.054320 251.507980 11.359034 0.000000
347.448390 251.789990 11.271055 0.000000
347.835300 251.886980 11.268301 0.000000
358.295750 251.970920 11.379178 0.000000
347.991060 252.414890 11.317606 0.000000
358.534610 252.429400 11.398380 0.000000
358.815550 252.844470 11.411925 0.000000
359.093510 253.259170 11.424839 0.000000
359.394780 253.652100 11.434437 0.000000
359.693510 254.046230 11.443487 0.000000
360.050350 254.395390 11.445990 0.000000
348.151340 252.907320 11.362354 0.000000
348.575230 252.929860 11.348381 0.000000
348.757970 253.357570 11.384225 0.000000
348.892940 253.842640 11.427064 0.000000
349.323520 253.861300 11.410280 0.000000
349.449490 254.335460 11.451010 0.000000
349.661710 254.669920 11.473510 0.000000
349.867550 255.004290 11.495605 0.000000
349.984500 255.445770 11.531527 0.000000
350.340820 256.135250 11.577009 0.000000
358.795070 255.938400 11.605181 0.000000
350.524480 256.461120 11.596715 0.000000
358.721220 256.557680 11.645386 0.000000
369.338810 256.496120 11.785810 0.000000
350.766600 256.714360 11.605993 0.000000
350.921360 257.061220 11.627851 0.000000
358.766510 257.077450 11.672609 0.000000
345.891270 257.483460 11.550658 0.000000
346.093840 257.702820 11.566536 0.000000
351.068300 257.408540 11.649540 0.000000
351.318300 257.643830 11.654806 0.000000
346.290560 257.926120 11.582538 0.000000
346.482700 258.151030 11.598323 0.000000
351.327390 258.115690 11.694097 0.000000
367.624150 257.952580 11.910154 0.000000
346.668790 258.379790 11.614247 0.000000
351.572450 258.348570 11.698161 0.000000
357.518100 258.441310 11.818974 0.000000
367.756990 258.524170 11.923627 0.000000
346.936100 258.729370 11.638279 0.000000
351.574710 258.804260 11.735243 0.000000
357.723570 258.806400 11.827223 0.000000
347.191890 259.084380 11.662346 0.000000
347.354770 259.324310 11.678385 0.000000
351.682220 259.152770 11.756237 0.000000
357.928470 259.170960 11.834839 0.000000
347.512570 259.565700 11.694291 0.000000
347.736820 259.724980 11.696174 0.000000
351.782260 259.500790 11.777050 0.000000
357.612300 259.841280 11.888268 0.000000
366.651000 259.604430 12.007492 0.000000
347.808140 260.057740 11.726576 0.000000
351.796260 259.912780 11.807993 0.000000
357.850100 260.174130 11.891047 0.000000
347.950290 260.303100 11.742108 0.000000
348.107360 260.528530 11.753868 0.000000
352.076720 260.510710 11.833510 0.000000
348.265470 260.750180 11.764547 0.000000
348.412810 260.980040 11.776258 0.000000
365.648470 260.590180 12.083122 0.000000
352.206120 260.812990 11.846355 0.000000
357.477970 260.839360 11.946297 0.000000
366.097380 260.985600 12.075071 0.000000
370.407100 236.209430 10.866221 0.000000
347.271330 237.320940 10.553486 0.000000
370.396420 237.444120 10.933143 0.000000
345.978850 237.482880 10.574160 0.000000
346.618710 237.412960 10.565324 0.000000
347.666320 238.254840 10.634972 0.000000
348.291380 238.257310 10.629982 0.000000
348.917270 238.277360 10.625634 0.000000
349.553560 238.282680 10.618935 0.000000
349.839510 239.352390 10.709925 0.000000
350.468080 239.361040 10.701774 0.000000
351.103300 239.372130 10.692824 0.000000
351.745300 239.386180 10.683100 0.000000
351.981020 240.398680 10.766197 0.000000
352.626280 240.397890 10.753302 0.000000
352.817170 241.413450 10.835738 0.000000
353.473450 241.387180 10.818640 0.000000
354.080320 241.483760 10.812150 0.000000
354.108460 242.703490 10.912914 0.000000
354.757600 242.703900 10.895575 0.000000
354.775850 243.838960 10.987864 0.000000
355.418520 243.849030 10.969764 0.000000
355.442050 244.888520 11.052441 0.000000
356.079470 244.909650 11.033689 0.000000
356.189510 245.746520 11.095808 0.000000
356.326600 246.505020 11.150048 0.000000
357.099550 246.340730 11.109691 0.000000
357.282470 247.006590 11.153519 0.000000
358.325740 247.417050 11.143522 0.000000
357.492550 247.612730 11.190988 0.000000
358.529450 248.020630 11.179420 0.000000
358.782350 248.548550 11.206961 0.000000
345.760530 248.925090 11.084723 0.000000
346.152530 249.060210 11.092643 0.000000
346.602810 249.020600 11.079515 0.000000
359.024570 249.076170 11.234125 0.000000
346.799290 249.713710 11.150740 0.000000
347.215550 249.762880 11.146423 0.000000
359.217040 249.645810 11.265626 0.000000
359.460750 250.146850 11.289254 0.000000
347.394230 250.422390 11.212868 0.000000
347.812810 250.455050 11.205175 0.000000
348.224370 250.515140 11.199829 0.000000
359.767610 250.574080 11.304121 0.000000
360.119230 250.953000 11.312828 0.000000
348.416140 251.065030 11.251934 0.000000
348.798400 251.182850 11.252028 0.000000
348.982850 251.700740 11.299509 0.000000
360.207090 251.581130 11.350015 0.000000
349.366670 251.808120 11.296961 0.000000
360.364960 252.127760 11.377648 0.000000
349.522280 252.340500 11.345457 0.000000
360.554840 252.634380 11.400329 0.000000
360.797640 253.086930 11.416115 0.000000
360.932800 253.623230 11.441957 0.000000
361.056760 254.157850 11.467533 0.000000
361.373720 254.534230 11.472464 0.000000
349.676700 252.847200 11.390661 0.000000
350.095460 252.881320 11.377142 0.000000
350.270480 253.324390 11.413692 0.000000
350.397580 253.823810 11.457130 0.000000
350.821590 253.853670 11.440813 0.000000
350.939210 254.341060 11.482097 0.000000
351.143400 254.687260 11.505064 0.000000
351.341090 255.032700 11.527582 0.000000
351.449770 255.484660 11.563869 0.000000
360.496770 255.793810 11.594069 0.000000
351.789060 256.193450 11.610058 0.000000
346.184080 256.315400 11.496307 0.000000
346.598660 256.480380 11.499048 0.000000
351.964110 256.528050 11.630061 0.000000
360.439580 256.407200 11.632048 0.000000
346.750180 256.831090 11.535141 0.000000
352.197600 256.789340 11.639595 0.000000
360.449220 256.957670 11.661995 0.000000
369.687010 257.055110 11.842549 0.000000
346.966340 257.045620 11.550942 0.000000
352.343170 257.144290 11.661757 0.000000
347.382900 257.484100 11.582446 0.000000
347.581240 257.711060 11.598639 0.000000
352.601530 257.620030 11.686426 0.000000
347.773530 257.941680 11.614934 0.000000
347.961150 258.173650 11.630995 0.000000
359.583100 258.074340 11.772865 0.000000
348.142490 258.409120 11.647177 0.000000
352.723080 258.218110 11.728520 0.000000
352.958250 258.457490 11.732823 0.000000
359.659790 258.535800 11.792737 0.000000
368.061710 258.447080 11.961673 0.000000
348.317780 258.647640 11.663423 0.000000
348.487090 258.888760 11.679689 0.000000
352.953490 258.916560 11.769820 0.000000
368.153440 259.014740 11.975599 0.000000
348.650630 259.132110 11.695932 0.000000
348.808380 259.377500 11.712147 0.000000
353.052950 259.268980 11.790816 0.000000
359.577030 259.087430 11.826149 0.000000
348.960820 259.624150 11.728226 0.000000
353.150480 259.615810 11.810884 0.000000
349.212520 259.957120 11.745544 0.000000
353.154570 260.032680 11.842119 0.000000
358.880680 259.985410 11.913539 0.000000
345.768860 260.223210 11.695812 0.000000
346.031160 260.460570 11.711026 0.000000
349.384060 260.373410 11.776106 0.000000
359.100950 260.323270 11.916555 0.000000
346.293980 260.691890 11.724148 0.000000
346.463230 260.852110 11.733288 0.000000
349.618350 260.708890 11.792177 0.000000
346.627900 261.016540 11.742705 0.000000
367.137300 260.035610 12.053848 0.000000
353.415340 260.638730 11.867990 0.000000
353.522160 260.953800 11.882590 0.000000
358.711880 260.992490 11.972629 0.000000
366.299320 260.936550 12.119614 0.000000
349.837190 261.054440 11.809221 0.000000
348.940550 236.474810 10.539011 0.000000
346.308870 236.883610 10.578190 0.000000
346.955780 236.775270 10.569269 0.000000
347.605830 236.690720 10.561563 0.000000
348.265870 236.595550 10.551935 0.000000
349.318180 237.535520 10.632268 0.000000
349.964450 237.510540 10.626144 0.000000
350.611720 237.506290 10.620911 0.000000
351.271510 237.484220 10.613048 0.000000
351.564790 238.577640 10.706047 0.000000
352.217710 238.560670 10.696815 0.000000
352.878420 238.546170 10.686762 0.000000
353.546420 238.536610 10.676088 0.000000
353.787410 239.577710 10.761474 0.000000
354.459720 239.553970 10.747641 0.000000
354.683320 240.536350 10.826468 0.000000
355.392460 240.438860 10.803848 0.000000
356.035920 240.503450 10.795239 0.000000
356.170930 241.559480 10.879330 0.000000
356.864560 241.525510 10.859586 0.000000
356.875210 242.721280 10.956342 0.000000
357.562530 242.699970 10.935986 0.000000
357.579770 243.794040 11.022600 0.000000
358.369350 243.618740 10.985301 0.000000
358.571750 244.364670 11.037200 0.000000
359.617100 244.869280 11.041490 0.000000
358.774690 245.078510 11.085720 0.000000
359.811000 245.573360 11.087829 0.000000
360.025180 246.225250 11.128670 0.000000
360.766660 246.193910 11.098755 0.000000
360.946290 246.869450 11.140900 0.000000
361.165740 247.476670 11.175706 0.000000
345.786380 247.762830 11.023129 0.000000
346.216920 247.803040 11.024155 0.000000
346.659180 247.806640 11.020186 0.000000
361.373840 248.079910 11.209836 0.000000
346.898160 248.552950 11.099808 0.000000
361.604220 248.642680 11.239367 0.000000
347.323730 248.592790 11.098413 0.000000
347.725920 248.715910 11.105687 0.000000
348.188870 248.658780 11.091498 0.000000
348.390010 249.358370 11.163363 0.000000
361.835940 249.190950 11.267006 0.000000
348.818850 249.393040 11.158156 0.000000
362.069520 249.725450 11.292796 0.000000
349.000850 250.062790 11.225623 0.000000
349.432220 250.082440 11.217182 0.000000
349.857730 250.128430 11.210896 0.000000
362.304660 250.247860 11.316893 0.000000
350.053800 250.686580 11.263850 0.000000
350.448820 250.794770 11.263373 0.000000
362.469360 250.827450 11.347162 0.000000
350.643250 251.309400 11.310308 0.000000
362.633970 251.393950 11.375782 0.000000
351.043210 251.402510 11.306589 0.000000
351.202450 251.944900 11.356006 0.000000
362.832860 251.918010 11.399256 0.000000
351.360320 252.461490 11.402119 0.000000
351.795350 252.483520 11.387723 0.000000
363.089420 252.383790 11.415468 0.000000
351.975340 252.933870 11.424918 0.000000
363.229400 252.940690 11.442301 0.000000
363.356410 253.496900 11.468967 0.000000
363.692500 253.882140 11.473917 0.000000
363.185790 254.891420 11.558678 0.000000
362.976810 255.645540 11.612247 0.000000
352.104830 253.444520 11.469340 0.000000
352.546260 253.462540 11.452092 0.000000
352.666050 253.961240 11.494327 0.000000
352.878140 254.310300 11.517459 0.000000
353.022130 254.741790 11.550803 0.000000
346.354680 255.098880 11.433300 0.000000
346.619170 255.268660 11.447583 0.000000
353.199190 255.115340 11.576470 0.000000
346.837890 255.547910 11.476519 0.000000
347.132390 255.628810 11.477140 0.000000
353.572170 255.809010 11.619901 0.000000
347.381410 255.817120 11.492167 0.000000
347.625120 256.010800 11.507360 0.000000
353.765200 256.136110 11.638473 0.000000
348.015470 256.240690 11.520285 0.000000
354.024600 256.381870 11.645600 0.000000
362.867860 256.305300 11.654392 0.000000
348.431880 256.733610 11.562426 0.000000
354.186340 256.733370 11.666664 0.000000
349.018830 257.194180 11.589556 0.000000
354.337860 257.088010 11.687905 0.000000
354.606870 257.315770 11.690912 0.000000
362.103670 257.378720 11.754558 0.000000
349.268680 257.624390 11.626968 0.000000
354.606320 257.809080 11.731416 0.000000
362.161620 257.878360 11.777380 0.000000
349.558720 257.973570 11.651496 0.000000
354.869540 258.036100 11.733378 0.000000
349.743650 258.211400 11.668013 0.000000
349.922580 258.452120 11.684546 0.000000
354.861390 258.512820 11.771692 0.000000
362.081480 258.453550 11.811310 0.000000
350.095980 258.694890 11.700987 0.000000
350.263790 258.939700 11.717352 0.000000
354.970490 258.870790 11.792506 0.000000
345.988310 259.018010 11.635512 0.000000
346.286190 259.234860 11.652994 0.000000
350.425480 259.187040 11.733734 0.000000
355.072200 259.227940 11.813095 0.000000
361.437470 259.345430 11.893180 0.000000
370.552640 259.231140 12.038546 0.000000
346.575810 259.460940 11.670918 0.000000
346.763700 259.616700 11.682993 0.000000
350.581420 259.436280 11.750060 0.000000
355.073640 259.660610 11.845446 0.000000
361.485200 259.806180 11.912640 0.000000
346.947970 259.775270 11.695025 0.000000
347.215270 260.021790 11.713537 0.000000
350.874240 259.941830 11.782833 0.000000
355.144650 260.025880 11.867439 0.000000
347.563020 260.353060 11.736993 0.000000
351.083770 260.318790 11.806162 0.000000
355.238650 260.365970 11.885386 0.000000
360.927800 260.587710 11.982759 0.000000
369.035280 260.439120 12.140773 0.000000
347.914580 260.666630 11.755302 0.000000
348.171420 260.906490 11.768562 0.000000
351.313080 260.666810 11.823886 0.000000
351.458340 260.902340 11.835792 0.000000
355.270050 260.746550 11.909994 0.000000
361.122250 260.944460 11.987274 0.000000
355.406310 261.043950 11.920706 0.000000
348.428190 236.553740 10.572096 0.000000
349.084960 236.457700 10.564025 0.000000
349.752110 236.351140 10.554045 0.000000
350.417080 236.290620 10.547256 0.000000
346.492580 236.910350 10.596938 0.000000
347.128390 236.803280 10.590637 0.000000
347.775150 236.673000 10.581327 0.000000
352.074490 237.406310 10.638728 0.000000
352.740570 237.371490 10.630381 0.000000
350.770260 237.459630 10.650928 0.000000
351.421810 237.421970 10.644325 0.000000
353.038060 238.459780 10.723415 0.000000
353.696900 238.433530 10.713996 0.000000
354.363590 238.410690 10.703840 0.000000
355.038700 238.390820 10.692886 0.000000
355.285280 239.426450 10.778178 0.000000
355.968110 239.386520 10.763494 0.000000
356.196230 240.367450 10.842549 0.000000
356.915650 240.256710 10.819351 0.000000
357.568880 240.310330 10.810319 0.000000
357.747010 241.292650 10.887709 0.000000
358.456540 241.241090 10.866875 0.000000
358.470000 242.443940 10.964385 0.000000
359.237030 242.299260 10.932734 0.000000
360.224550 242.966430 10.958035 0.000000
359.432100 243.120010 10.992899 0.000000
360.449310 243.703780 11.008953 0.000000
360.574950 244.554810 11.070855 0.000000
361.295650 244.535480 11.045955 0.000000
361.464480 245.286010 11.096994 0.000000
361.654820 245.979740 11.142151 0.000000
362.413270 245.936330 11.111511 0.000000
362.598270 246.614960 11.154005 0.000000
362.826260 247.221600 11.188791 0.000000
346.033870 247.065350 10.971934 0.000000
346.480260 247.051480 10.969776 0.000000
363.044220 247.823100 11.222747 0.000000
346.770720 247.814560 11.054588 0.000000
347.200320 247.844250 11.055729 0.000000
347.625120 247.903200 11.059352 0.000000
348.067870 247.899140 11.054998 0.000000
363.281710 248.387620 11.252463 0.000000
348.307980 248.636230 11.133990 0.000000
348.734380 248.669050 11.132271 0.000000
349.137820 248.784790 11.139170 0.000000
349.602480 248.719620 11.124557 0.000000
363.520450 248.937770 11.280291 0.000000
363.771000 249.464370 11.305169 0.000000
349.805210 249.412310 11.195997 0.000000
350.235840 249.440230 11.190491 0.000000
350.419340 250.104680 11.257680 0.000000
350.853610 250.116180 11.248770 0.000000
351.281460 250.155960 11.242229 0.000000
364.013700 249.988830 11.329416 0.000000
364.185150 250.571470 11.359873 0.000000
351.483580 250.700410 11.293900 0.000000
351.885740 250.793790 11.292119 0.000000
352.085360 251.298920 11.338225 0.000000
352.489040 251.386060 11.334218 0.000000
364.355590 251.141970 11.388764 0.000000
364.561100 251.669430 11.412455 0.000000
352.650760 251.925260 11.383501 0.000000
364.825560 252.137630 11.428798 0.000000
352.810910 252.439240 11.429539 0.000000
353.282650 252.400730 11.408216 0.000000
364.969790 252.700210 11.456027 0.000000
353.503330 252.788770 11.437967 0.000000
354.207890 253.128110 11.441953 0.000000
365.102050 253.261250 11.482962 0.000000
354.360020 253.592830 11.479756 0.000000
365.448850 253.647190 11.487837 0.000000
354.658200 253.835590 11.489247 0.000000
365.070370 254.570690 11.560643 0.000000
364.934970 255.284560 11.607970 0.000000
364.823640 255.959700 11.651101 0.000000
353.660830 253.261730 11.477815 0.000000
345.833280 253.999020 11.350008 0.000000
354.890410 254.165850 11.509258 0.000000
346.221890 254.403230 11.398834 0.000000
346.700130 254.426220 11.394392 0.000000
355.158940 254.441650 11.521763 0.000000
347.070340 254.821550 11.439100 0.000000
355.448820 254.687580 11.529753 0.000000
347.908420 255.219970 11.470595 0.000000
355.577330 255.128080 11.562778 0.000000
348.260890 255.578770 11.506390 0.000000
348.556850 255.655560 11.506776 0.000000
355.691650 255.571350 11.596067 0.000000
348.806980 255.840820 11.521681 0.000000
349.052120 256.031220 11.536712 0.000000
355.836980 255.965870 11.622702 0.000000
349.444760 256.256200 11.549397 0.000000
355.997960 256.333070 11.645404 0.000000
349.864170 256.743590 11.591276 0.000000
356.131500 256.720950 11.670720 0.000000
350.455630 257.197300 11.618087 0.000000
356.309230 257.054570 11.688231 0.000000
363.796080 257.220610 11.775178 0.000000
350.707860 257.624480 11.655380 0.000000
356.218690 257.645630 11.742238 0.000000
363.860440 257.722750 11.797935 0.000000
351.000610 257.970550 11.679775 0.000000
356.479520 257.881070 11.745352 0.000000
346.242190 258.362030 11.606233 0.000000
346.570370 258.536590 11.622174 0.000000
351.187870 258.205660 11.696096 0.000000
351.367610 258.446110 11.712789 0.000000
356.472260 258.362920 11.784104 0.000000
363.777620 258.306090 11.832463 0.000000
346.785460 258.657990 11.632805 0.000000
346.996190 258.786710 11.644033 0.000000
351.542210 258.688170 11.729315 0.000000
351.710880 258.932680 11.745817 0.000000
356.584900 258.723510 11.805085 0.000000
347.508360 259.125640 11.672285 0.000000
347.805420 259.341030 11.689626 0.000000
351.873500 259.179690 11.762327 0.000000
356.689580 259.083800 11.825903 0.000000
363.116330 259.214540 11.915639 0.000000
347.997650 259.491580 11.701613 0.000000
348.186310 259.645230 11.713582 0.000000
352.030180 259.428860 11.778811 0.000000
356.692200 259.521120 11.858606 0.000000
363.167330 259.679290 11.935247 0.000000
348.371460 259.801820 11.725518 0.000000
348.640110 260.045500 11.743891 0.000000
352.324710 259.934170 11.811855 0.000000
352.463840 260.188480 11.828161 0.000000
356.765750 259.889800 11.880829 0.000000
356.863190 260.232670 11.898906 0.000000
348.990300 260.372380 11.767031 0.000000
352.607510 260.433260 11.842549 0.000000
356.907960 260.608800 11.922378 0.000000
362.565580 260.490630 12.008944 0.000000
345.793000 260.729250 11.715557 0.000000
346.162080 260.902680 11.729001 0.000000
349.343960 260.682710 11.785199 0.000000
349.602290 260.920530 11.798409 0.000000
352.766050 260.659090 11.853330 0.000000
352.908230 260.898530 11.866052 0.000000
357.048190 260.908910 11.933196 0.000000
362.766510 260.848720 12.013412 0.000000
346.340580 261.001710 11.737040 0.000000
346.087950 236.289370 10.523962 0.000000
346.721800 236.181460 10.520102 0.000000
348.502530 236.906920 10.598946 0.000000
349.146640 236.782150 10.589810 0.000000
349.786710 236.722600 10.585705 0.000000
350.422330 236.715300 10.585428 0.000000
351.065580 236.695370 10.583046 0.000000
351.718510 236.658980 10.578193 0.000000
347.869170 237.009120 10.605112 0.000000
352.714660 237.773160 10.674116 0.000000
353.359380 237.762360 10.668758 0.000000
354.016020 237.736080 10.660981 0.000000
352.070890 237.805920 10.680502 0.000000
354.313110 238.805450 10.752941 0.000000
354.963440 238.784450 10.743820 0.000000
355.622410 238.763870 10.733702 0.000000
356.290190 238.744900 10.722667 0.000000
356.539120 239.758120 10.806564 0.000000
357.213200 239.722840 10.792151 0.000000
358.152590 240.580960 10.847351 0.000000
358.797730 240.637040 10.838490 0.000000
357.442810 240.685580 10.870179 0.000000
358.912690 241.727020 10.926851 0.000000
359.644040 241.617660 10.900423 0.000000
359.831450 242.499150 10.967996 0.000000
360.549840 242.434710 10.943769 0.000000
360.718480 243.293640 11.008204 0.000000
361.416810 243.280940 10.986905 0.000000
361.642880 244.004840 11.037121 0.000000
361.771760 244.840380 11.098220 0.000000
362.482120 244.825330 11.073711 0.000000
362.653230 245.562560 11.124085 0.000000
362.845280 246.244430 11.168671 0.000000
363.593200 246.205020 11.138405 0.000000
363.783630 246.867920 11.179911 0.000000
346.090390 247.215960 10.992056 0.000000
346.515500 247.285350 11.001673 0.000000
347.378200 247.343310 11.009246 0.000000
364.014160 247.463030 11.214075 0.000000
346.932070 247.408140 11.016532 0.000000
347.811280 247.374630 11.012060 0.000000
348.093080 248.152630 11.098986 0.000000
364.233220 248.055160 11.247629 0.000000
348.516200 248.184040 11.100214 0.000000
348.934660 248.244050 11.103888 0.000000
349.370480 248.242570 11.099722 0.000000
364.471310 248.611190 11.277002 0.000000
349.608920 248.963640 11.177341 0.000000
350.028810 248.997960 11.175738 0.000000
350.426120 249.113460 11.182630 0.000000
350.883240 249.052150 11.168353 0.000000
364.709900 249.154070 11.304601 0.000000
351.083130 249.735170 11.239166 0.000000
351.506840 249.764830 11.233850 0.000000
364.951870 249.682100 11.330202 0.000000
365.195160 250.198760 11.354150 0.000000
351.691530 250.410370 11.299345 0.000000
352.121800 250.416810 11.289834 0.000000
352.546390 250.450130 11.282560 0.000000
352.751250 250.975480 11.332422 0.000000
365.368160 250.772920 11.384288 0.000000
353.153960 251.055760 11.329165 0.000000
365.540680 251.334820 11.412835 0.000000
353.388120 251.480930 11.366161 0.000000
353.855900 251.437910 11.346574 0.000000
365.746280 251.855710 11.436368 0.000000
354.051300 251.913510 11.388506 0.000000
354.242030 252.374360 11.428345 0.000000
354.767360 252.247920 11.395999 0.000000
366.009980 252.318280 11.452601 0.000000
354.991240 252.636930 11.425895 0.000000
355.728850 252.938130 11.424737 0.000000
366.156770 252.872670 11.479513 0.000000
355.152220 253.110530 11.465917 0.000000
355.937290 253.328460 11.453156 0.000000
366.291750 253.425720 11.506144 0.000000
356.255070 253.553680 11.460136 0.000000
366.636840 253.807240 11.510967 0.000000
356.492280 253.887510 11.480379 0.000000
356.765930 254.166810 11.493041 0.000000
357.061040 254.416090 11.501133 0.000000
357.333920 254.691650 11.512013 0.000000
366.178560 254.784320 11.591825 0.000000
365.979000 255.536410 11.645271 0.000000
346.081180 254.137620 11.387035 0.000000
346.555730 254.134950 11.384405 0.000000
346.853910 254.234990 11.395566 0.000000
347.184200 254.185390 11.385588 0.000000
347.410610 254.582900 11.435993 0.000000
347.727780 254.585890 11.431785 0.000000
348.042110 254.608990 11.429585 0.000000
348.409120 254.998520 11.473719 0.000000
349.107360 255.310760 11.497877 0.000000
357.487180 255.104830 11.540798 0.000000
349.370270 255.474960 11.511809 0.000000
349.587950 255.747630 11.540325 0.000000
357.640560 255.506620 11.567840 0.000000
350.004360 255.916150 11.548157 0.000000
357.809600 255.881100 11.590901 0.000000
365.879430 256.194520 11.687302 0.000000
350.489320 256.293610 11.578066 0.000000
350.912020 256.445530 11.580149 0.000000
358.043980 256.446780 11.625501 0.000000
351.065700 256.794620 11.616486 0.000000
351.286190 257.003780 11.632139 0.000000
351.761750 257.347930 11.650873 0.000000
364.843810 257.452420 11.812869 0.000000
351.914280 257.655640 11.679581 0.000000
357.770390 257.494110 11.729109 0.000000
358.143680 257.628450 11.717130 0.000000
345.982940 257.895600 11.581831 0.000000
346.463960 257.995570 11.590383 0.000000
346.810490 258.129060 11.604490 0.000000
352.110930 257.882600 11.695851 0.000000
352.302800 258.111300 11.711920 0.000000
364.899660 257.951480 11.836246 0.000000
347.038090 258.225190 11.614193 0.000000
347.594820 258.488070 11.639269 0.000000
352.488430 258.343900 11.728130 0.000000
352.667450 258.580510 11.744521 0.000000
357.901730 258.333770 11.788830 0.000000
364.818940 258.525020 11.870558 0.000000
348.026490 258.721680 11.660411 0.000000
348.342100 258.908910 11.676729 0.000000
352.841250 258.819030 11.760796 0.000000
348.849820 259.244600 11.704732 0.000000
353.092560 259.178860 11.784721 0.000000
358.014280 259.146330 11.844950 0.000000
364.181820 259.411070 11.952053 0.000000
349.239650 259.532350 11.727854 0.000000
349.522060 259.758940 11.745653 0.000000
353.339260 259.534880 11.807248 0.000000
358.016540 259.581970 11.877840 0.000000
364.236450 259.866210 11.971258 0.000000
349.705690 259.913880 11.757479 0.000000
349.884700 260.073520 11.769588 0.000000
353.646850 260.018680 11.837358 0.000000
358.091860 259.947390 11.899912 0.000000
345.920070 260.348970 11.703930 0.000000
346.308200 260.474580 11.716295 0.000000
350.059660 260.236540 11.781776 0.000000
350.326080 260.468260 11.796807 0.000000
353.791110 260.264680 11.852561 0.000000
353.919560 260.523070 11.869542 0.000000
358.190670 260.287350 11.917872 0.000000
363.696140 260.636960 12.040133 0.000000
346.785250 260.650510 11.731661 0.000000
347.251310 260.850950 11.748039 0.000000
350.679380 260.772460 11.814252 0.000000
354.044250 260.780400 11.886072 0.000000
358.303650 260.812290 11.947103 0.000000
363.896300 260.989590 12.044556 0.000000
347.615750 261.026760 11.761243 0.000000
350.935490 261.008910 11.827500 0.000000
354.177370 261.024750 11.900068 0.000000
347.429050 236.551030 10.537353 0.000000
348.058040 236.445500 10.533508 0.000000
346.186950 236.760500 10.542242 0.000000
346.805480 236.656070 10.540265 0.000000
349.189640 237.322140 10.623688 0.000000
349.805450 237.299740 10.624709 0.000000
350.427430 237.264500 10.623633 0.000000
351.054660 237.227290 10.621458 0.000000
351.680760 237.222030 10.621304 0.000000
352.314580 237.202840 10.618922 0.000000
352.957920 237.167470 10.614094 0.000000
355.225400 238.218730 10.695572 0.000000
353.309750 238.280270 10.714374 0.000000
353.943450 238.251940 10.708358 0.000000
354.578190 238.244260 10.703284 0.000000
355.525050 239.252620 10.785341 0.000000
356.167600 239.229000 10.775994 0.000000
356.818050 239.207790 10.765849 0.000000
357.476650 239.189510 10.754927 0.000000
357.728450 240.174130 10.837240 0.000000
358.393520 240.139720 10.822964 0.000000
359.322170 240.983600 10.877895 0.000000
359.963380 241.030080 10.868298 0.000000
358.618530 241.093520 10.901221 0.000000
360.146480 241.972950 10.943760 0.000000
360.833590 241.934740 10.924171 0.000000
361.003450 242.834300 10.994527 0.000000
361.691350 242.808410 10.974152 0.000000
361.865510 243.643860 11.037341 0.000000
362.554990 243.631700 11.016269 0.000000
362.785000 244.336490 11.065523 0.000000
362.920470 245.150180 11.125492 0.000000
363.622380 245.135640 11.101222 0.000000
363.798710 245.854610 11.150711 0.000000
364.740360 246.474620 11.163805 0.000000
363.998570 246.515980 11.194100 0.000000
364.935420 247.122440 11.204642 0.000000
346.133300 247.627080 11.029133 0.000000
346.554140 247.650630 11.035900 0.000000
