# .PCD v0.7 - Point Cloud Data file format
VERSION 0.7
FIELDS x y z intensity
SIZE 4 4 4 4
TYPE F F F F
COUNT 1 1 1 1
WIDTH 1225
HEIGHT 1
VIEWPOINT 0 0 0 1 0 0 0
POINTS 1225
DATA ascii
369.381770 60.740219 4.802309 0.000000
366.960390 60.727379 4.772134 0.000000
366.119600 40.030334 5.759636 0.000000
366.112270 41.304134 5.722875 0.000000
366.105740 42.502346 5.688533 0.000000
366.109680 43.616882 5.657049 0.000000
366.113890 44.671272 5.627491 0.000000
366.117800 45.671631 5.599655 0.000000
345.905090 42.914001 5.315770 0.000000
346.412840 42.923210 5.321023 0.000000
366.118010 46.627430 5.573178 0.000000
366.114750 47.541897 5.547961 0.000000
366.111820 48.413372 5.524129 0.000000
366.108370 49.246346 5.501524 0.000000
366.103360 50.045097 5.479991 0.000000
366.098510 50.810097 5.459550 0.000000
366.093900 51.543808 5.440125 0.000000
366.089480 52.248547 5.421644 0.000000
346.022280 49.170055 5.119819 0.000000
366.085240 52.926407 5.404041 0.000000
366.081090 53.579380 5.387251 0.000000
366.077030 54.209160 5.371223 0.000000
366.071410 54.818893 5.355821 0.000000
366.066010 55.408207 5.341097 0.000000
366.060790 55.978474 5.327008 0.000000
366.055790 56.530945 5.313516 0.000000
366.050870 57.066807 5.300581 0.000000
366.046110 57.587082 5.288173 0.000000
366.041470 58.092720 5.276265 0.000000
366.036960 58.584625 5.264826 0.000000
366.032620 59.063644 5.253835 0.000000
366.028350 59.530586 5.243263 0.000000
366.024200 59.986156 5.233090 0.000000
370.307560 60.742065 5.351964 0.000000
366.020110 60.431038 5.223296 0.000000
367.725430 60.728756 5.270215 0.000000
368.531620 60.732941 5.295585 0.000000
369.390350 60.737381 5.322766 0.000000
366.966610 60.724785 5.246483 0.000000
366.137850 37.220623 5.841545 0.000000
366.126980 38.674465 5.799004 0.000000
366.090180 51.545425 6.029880 0.000000
366.085820 52.250267 5.999845 0.000000
346.015320 49.167263 5.617231 0.000000
366.081670 52.928238 5.971302 0.000000
366.077550 53.581299 5.944142 0.000000
366.073730 54.210968 5.918295 0.000000
366.069950 54.819115 5.893654 0.000000
366.065000 55.408203 5.870051 0.000000
366.059810 55.978645 5.847497 0.000000
366.054810 56.531281 5.825959 0.000000
366.049930 57.067295 5.805373 0.000000
366.045170 57.587715 5.785690 0.000000
366.040530 58.093506 5.766859 0.000000
366.036040 58.585529 5.748836 0.000000
366.031740 59.064674 5.731578 0.000000
366.027470 59.531738 5.715039 0.000000
366.023320 59.987427 5.699188 0.000000
370.317110 60.739128 5.891508 0.000000
366.019260 60.432411 5.683991 0.000000
367.732390 60.726078 5.759972 0.000000
368.539370 60.730190 5.800730 0.000000
369.398960 60.734535 5.844464 0.000000
366.972870 60.722195 5.721901 0.000000
366.119810 40.019989 6.557004 0.000000
366.112400 41.294907 6.495938 0.000000
366.105740 42.494278 6.438959 0.000000
366.109830 43.609352 6.386788 0.000000
366.114040 44.664490 6.337866 0.000000
366.116940 45.666981 6.291766 0.000000
345.896210 42.908775 5.949708 0.000000
346.404390 42.921036 5.953792 0.000000
366.113740 46.628105 6.247760 0.000000
366.110600 47.542755 6.206279 0.000000
366.107790 48.414421 6.167145 0.000000
366.104400 49.247574 6.130097 0.000000
366.099460 50.046471 6.094880 0.000000
366.094700 50.811607 6.061517 0.000000
346.008300 49.164467 6.115933 0.000000
366.062930 55.409187 6.400236 0.000000
366.058840 55.978809 6.369307 0.000000
366.053830 56.531616 6.339697 0.000000
366.048950 57.067795 6.311438 0.000000
366.044220 57.588360 6.284455 0.000000
366.039610 58.094276 6.258682 0.000000
366.035130 58.586441 6.234053 0.000000
366.030820 59.065697 6.210510 0.000000
366.026550 59.532898 6.187986 0.000000
366.022400 59.988693 6.166441 0.000000
366.018340 60.433784 6.145822 0.000000
367.739380 60.723404 6.251327 0.000000
368.547090 60.727425 6.307545 0.000000
369.407590 60.731689 6.367911 0.000000
366.979190 60.719582 6.198856 0.000000
366.136290 37.211304 6.693094 0.000000
366.127470 38.662468 6.622520 0.000000
345.887600 42.906952 6.585108 0.000000
346.395720 42.915680 6.588376 0.000000
366.106450 47.543640 6.866159 0.000000
366.103730 48.415462 6.811681 0.000000
366.100400 49.248810 6.760147 0.000000
366.095580 50.047829 6.711211 0.000000
366.090880 50.813107 6.664889 0.000000
366.086430 51.547050 6.621006 0.000000
346.001280 49.161644 6.616410 0.000000
366.082150 52.251995 6.579387 0.000000
366.078030 52.930069 6.539873 0.000000
366.074010 53.583221 6.502316 0.000000
366.071320 54.211941 6.466734 0.000000
366.066530 54.821205 6.432616 0.000000
366.043240 57.588997 6.784954 0.000000
366.038670 58.095055 6.752209 0.000000
366.034180 58.587360 6.720945 0.000000
366.031160 59.065826 6.691255 0.000000
366.025630 59.534065 6.662560 0.000000
366.021510 59.989967 6.635297 0.000000
370.326720 60.736191 6.432888 0.000000
366.018740 60.434357 6.609392 0.000000
367.746400 60.720703 6.744763 0.000000
366.985470 60.716969 6.677807 0.000000
366.120030 40.009617 7.356812 0.000000
366.112610 41.285553 7.271346 0.000000
366.105930 42.485859 7.191645 0.000000
366.109990 43.601795 7.118688 0.000000
366.114200 44.657639 7.050326 0.000000
366.112580 45.667435 6.985309 0.000000
366.109500 46.628788 6.923952 0.000000
366.082670 51.548668 7.214076 0.000000
366.078490 52.253738 7.160829 0.000000
366.074430 52.931908 7.110304 0.000000
366.070470 53.585155 7.062312 0.000000
366.066770 54.215004 7.016717 0.000000
366.063080 54.823307 6.973331 0.000000
366.058470 55.412338 6.931887 0.000000
366.056150 55.980476 6.892711 0.000000
366.052860 56.531952 6.855229 0.000000
366.047970 57.068291 6.819263 0.000000
366.029050 59.067722 7.173790 0.000000
366.024720 59.535225 7.139206 0.000000
366.020600 59.991245 7.106199 0.000000
370.336400 60.733227 6.976636 0.000000
366.016540 60.436562 7.074666 0.000000
366.991820 60.714333 7.159213 0.000000
368.554930 60.724651 6.816528 0.000000
369.416290 60.728821 6.893621 0.000000
366.136050 37.199444 7.547372 0.000000
366.127690 38.650940 7.448564 0.000000
366.108180 45.667904 7.681179 0.000000
345.878630 42.900970 7.223092 0.000000
346.387300 42.914894 7.224851 0.000000
366.105220 46.629459 7.602407 0.000000
366.102290 47.544518 7.528241 0.000000
366.099640 48.416512 7.458363 0.000000
366.096410 49.250031 7.392288 0.000000
366.091860 50.048992 7.329607 0.000000
366.087040 50.814621 7.270249 0.000000
345.994200 49.158836 7.119127 0.000000
366.066890 53.587093 7.624652 0.000000
366.063290 54.217033 7.569121 0.000000
366.059660 54.825417 7.516302 0.000000
366.056150 55.413540 7.466053 0.000000
366.052830 55.982727 7.418221 0.000000
366.049590 56.534260 7.372659 0.000000
366.046420 57.069286 7.329228 0.000000
366.042300 57.589653 7.287651 0.000000
366.037720 58.095840 7.247901 0.000000
366.033260 58.588280 7.209972 0.000000
370.346070 60.730251 7.523262 0.000000
366.015690 60.437958 7.542607 0.000000
367.753450 60.717999 7.240743 0.000000
368.562740 60.721863 7.328157 0.000000
369.424990 60.725945 7.422087 0.000000
366.120240 39.999203 8.159840 0.000000
366.112790 41.276161 8.049846 0.000000
366.106660 42.476471 7.947418 0.000000
366.110140 43.594212 7.853458 0.000000
366.111390 44.655308 7.765006 0.000000
347.415280 43.697060 7.778266 0.000000
347.906860 43.708282 7.781959 0.000000
345.932130 43.643005 7.775204 0.000000
346.429470 43.680847 7.772936 0.000000
346.922850 43.687832 7.775268 0.000000
366.092410 49.251274 8.027105 0.000000
366.087740 50.050594 7.950559 0.000000
366.083190 50.816116 7.878166 0.000000
366.078920 51.550293 7.809644 0.000000
346.389130 49.188953 7.620206 0.000000
346.786770 49.191051 7.621056 0.000000
347.183440 49.193180 7.622809 0.000000
347.579380 49.195274 7.625473 0.000000
347.974300 49.159805 7.634358 0.000000
366.074770 52.255489 7.744712 0.000000
345.990230 49.186798 7.620275 0.000000
366.070800 52.933754 7.683128 0.000000
366.052760 55.415733 8.002847 0.000000
366.049470 55.984997 7.946462 0.000000
366.046300 56.536583 7.892774 0.000000
366.043150 57.071674 7.841612 0.000000
366.040100 57.591286 7.792847 0.000000
366.036740 58.096630 7.746283 0.000000
366.032320 58.589195 7.701651 0.000000
366.028170 59.068741 7.659096 0.000000
366.023800 59.536385 7.618431 0.000000
366.019680 59.992531 7.579640 0.000000
369.433780 60.723045 7.953880 0.000000
366.998500 60.711506 7.643632 0.000000
367.760500 60.715271 7.739798 0.000000
368.570620 60.719055 7.842979 0.000000
366.136080 37.186977 8.405171 0.000000
366.127930 38.639366 8.277966 0.000000
366.106840 44.655567 8.482504 0.000000
366.103790 45.668373 8.380032 0.000000
366.100920 46.630157 8.283759 0.000000
366.098080 47.545395 8.193144 0.000000
366.095550 48.417564 8.107789 0.000000
366.075100 51.551952 8.408332 0.000000
366.071040 52.257244 8.331654 0.000000
366.067170 52.935619 8.258945 0.000000
366.063320 53.589050 8.189929 0.000000
366.059780 54.219059 8.124408 0.000000
366.056180 54.827530 8.062101 0.000000
366.039890 57.074074 8.357118 0.000000
366.036900 57.593735 8.300955 0.000000
366.033940 58.098869 8.247417 0.000000
366.031100 58.590340 8.196373 0.000000
366.027280 59.069771 8.147468 0.000000
366.022890 59.537567 8.100672 0.000000
366.018770 59.993828 8.056061 0.000000
370.355870 60.727253 8.073358 0.000000
366.014770 60.439346 8.013493 0.000000
367.004610 60.709023 8.131373 0.000000
367.768160 60.712242 8.242500 0.000000
368.578580 60.716228 8.361486 0.000000
366.112980 41.266724 8.832174 0.000000
366.106260 42.468937 8.706656 0.000000
366.109950 43.587143 8.591710 0.000000
366.093870 47.546288 8.861567 0.000000
366.091430 48.418633 8.760649 0.000000
347.022640 46.051174 8.642049 0.000000
347.472600 46.019104 8.650284 0.000000
346.579100 46.173851 8.620220 0.000000
366.088930 49.251793 8.665407 0.000000
366.083770 50.051987 8.574807 0.000000
366.079320 50.817665 8.489271 0.000000
366.059720 53.591003 8.758667 0.000000
366.056210 54.221127 8.683084 0.000000
366.052700 54.829666 8.611233 0.000000
366.049350 55.417931 8.542919 0.000000
366.046110 55.987267 8.477926 0.000000
366.042970 56.538921 8.416056 0.000000
369.442570 60.720135 8.489496 0.000000
370.365690 60.724251 8.627434 0.000000
366.135620 37.175426 9.267130 0.000000
366.128110 38.627769 9.111501 0.000000
366.120420 39.988792 8.966835 0.000000
366.102290 44.655777 9.203833 0.000000
366.099330 45.668858 9.082600 0.000000
366.096620 46.630840 8.968729 0.000000
346.106960 45.918114 8.661447 0.000000
366.079800 50.053383 9.202906 0.000000
366.075440 50.819160 9.104147 0.000000
366.071290 51.553596 9.010702 0.000000
366.067320 52.258995 8.922201 0.000000
366.063510 52.937481 8.838297 0.000000
366.113160 41.257317 9.619146 0.000000
366.106410 42.460403 9.470501 0.000000
366.105040 43.587460 9.332989 0.000000
366.092250 46.631531 9.657950 0.000000
366.089660 47.547176 9.534132 0.000000
366.086790 48.420353 9.417409 0.000000
366.084290 49.253746 9.307379 0.000000
366.134030 37.165981 10.133896 0.000000
366.126590 38.619350 9.949522 0.000000
366.119260 39.980682 9.778265 0.000000
366.100620 43.586990 10.079039 0.000000
366.098510 44.654877 9.929888 0.000000
366.094880 45.669342 9.789537 0.000000
366.111660 41.250614 10.410972 0.000000
366.105560 42.453522 10.239225 0.000000
366.125030 38.610893 10.793182 0.000000
366.118290 39.972214 10.595226 0.000000
366.132450 37.156437 11.006536 0.000000
366.144990 37.629192 2.402617 0.000000
366.133970 39.105465 2.477209 0.000000
353.960210 43.262794 2.191914 0.000000
354.476440 43.243080 2.188353 0.000000
349.437230 43.229660 2.172878 0.000000
349.935790 43.242737 2.178774 0.000000
350.434230 43.255833 2.183909 0.000000
350.932890 43.268917 2.188284 0.000000
351.432100 43.281937 2.191896 0.000000
351.931760 43.298412 2.195021 0.000000
352.432740 43.312340 2.197186 0.000000
352.938110 43.302475 2.196720 0.000000
353.447540 43.282631 2.194703 0.000000
356.402980 43.880890 2.222914 0.000000
356.930180 43.857529 2.215133 0.000000
357.436680 43.925583 2.213801 0.000000
357.994140 43.837807 2.199188 0.000000
358.541900 43.807423 2.188269 0.000000
355.373020 43.888275 2.232909 0.000000
355.881160 43.904480 2.229888 0.000000
358.855770 44.469910 2.232333 0.000000
359.422640 44.391846 2.215968 0.000000
359.923190 44.510773 2.214670 0.000000
360.501400 44.445747 2.197480 0.000000
345.969540 43.562347 2.144273 0.000000
346.477420 43.650028 2.161545 0.000000
346.969640 43.608925 2.167599 0.000000
347.462160 43.572830 2.173303 0.000000
347.961610 43.676102 2.189391 0.000000
348.453770 43.689312 2.197488 0.000000
360.828160 44.992279 2.229620 0.000000
361.410710 44.937630 2.211519 0.000000
361.936190 45.027920 2.204442 0.000000
362.500730 45.050076 2.190708 0.000000
363.256350 45.842537 2.223860 0.000000
363.672360 46.151764 2.232091 0.000000
364.278080 46.130135 2.210938 0.000000
364.861420 46.167313 2.193701 0.000000
365.210020 46.595161 2.209802 0.000000
365.842130 46.578178 2.185672 0.000000
366.027340 47.241634 2.221551 0.000000
366.128630 47.997192 2.265767 0.000000
366.131840 48.853836 2.319491 0.000000
366.126400 49.682072 2.371037 0.000000
347.461360 49.417473 2.140563 0.000000
347.856630 49.452217 2.151595 0.000000
348.251770 49.528320 2.166058 0.000000
348.640590 49.508301 2.169951 0.000000
349.029750 49.492908 2.173572 0.000000
349.419250 49.484726 2.177185 0.000000
349.806700 49.588497 2.191371 0.000000
350.193820 49.614395 2.196927 0.000000
350.580540 49.640289 2.201741 0.000000
350.967100 49.666203 2.205816 0.000000
351.547120 49.706364 2.210578 0.000000
352.127990 49.746353 2.213842 0.000000
352.516170 49.773094 2.215036 0.000000
352.905360 49.799973 2.215496 0.000000
353.307980 49.759266 2.208375 0.000000
353.689790 49.843616 2.213134 0.000000
354.068450 49.941048 2.218478 0.000000
354.444610 50.046616 2.223911 0.000000
354.852940 50.023029 2.215435 0.000000
355.258940 50.024109 2.208664 0.000000
345.899630 49.574123 2.119159 0.000000
346.307560 49.659588 2.138581 0.000000
346.697540 49.635017 2.145759 0.000000
355.544620 50.452339 2.244921 0.000000
355.973940 50.377697 2.228856 0.000000
356.355070 50.471733 2.229340 0.000000
356.775910 50.454849 2.217522 0.000000
357.489070 50.797630 2.230710 0.000000
358.314760 50.866959 2.211973 0.000000
357.862820 50.922417 2.231308 0.000000
358.604340 51.192295 2.232320 0.000000
358.971620 51.337898 2.232794 0.000000
359.696530 51.653999 2.234086 0.000000
360.140110 51.663223 2.217149 0.000000
360.416050 51.986908 2.234070 0.000000
360.825900 52.070148 2.223525 0.000000
361.086180 52.409496 2.240970 0.000000
361.521180 52.461090 2.225055 0.000000
361.755040 52.832180 2.244915 0.000000
362.466220 53.196274 2.238866 0.000000
362.723750 53.517120 2.251111 0.000000
362.934170 53.893951 2.269626 0.000000
363.436520 53.889763 2.241128 0.000000
348.759160 53.193954 2.132847 0.000000
349.408480 53.318352 2.156429 0.000000
349.730930 53.331444 2.161022 0.000000
350.052920 53.351257 2.165700 0.000000
350.374360 53.375214 2.170146 0.000000
350.695040 53.407108 2.174827 0.000000
351.174620 53.463989 2.181482 0.000000
351.653960 53.519726 2.186519 0.000000
351.972930 53.561371 2.189445 0.000000
353.264430 53.672279 2.186813 0.000000
363.646480 54.261650 2.257770 0.000000
363.942660 54.523045 2.260160 0.000000
346.831760 53.467140 2.124336 0.000000
347.138340 53.309032 2.113445 0.000000
347.633510 53.368080 2.132828 0.000000
348.116550 53.326641 2.138103 0.000000
349.085690 53.310883 2.151785 0.000000
352.291440 53.606907 2.192111 0.000000
352.767360 53.687199 2.196110 0.000000
353.869260 53.921101 2.205040 0.000000
354.336430 54.043518 2.208721 0.000000
354.835360 54.064919 2.198168 0.000000
355.117550 54.244064 2.210930 0.000000
364.234500 54.788933 2.262394 0.000000
346.353490 53.545021 2.119199 0.000000
355.587220 54.368004 2.210279 0.000000
356.016480 54.601490 2.222172 0.000000
356.364260 54.601547 2.209040 0.000000
364.437560 55.152393 2.276552 0.000000
364.715790 55.428940 2.278911 0.000000
357.093080 54.955872 2.218575 0.000000
357.512050 55.204071 2.226987 0.000000
364.976930 55.722527 2.282840 0.000000
357.787380 55.374611 2.232353 0.000000
358.209750 55.610298 2.236270 0.000000
365.255130 55.997757 2.283612 0.000000
365.181610 56.610764 2.330437 0.000000
365.622280 56.724442 2.307729 0.000000
359.379850 56.466755 2.259554 0.000000
366.036380 56.873360 2.288458 0.000000
359.911680 56.822323 2.261795 0.000000
366.054690 57.373974 2.319239 0.000000
345.979000 38.811665 2.497835 0.000000
346.550990 38.706097 2.501449 0.000000
347.131770 38.701923 2.510336 0.000000
366.122740 40.484741 2.546207 0.000000
366.113460 41.773201 2.609953 0.000000
366.109530 42.974056 2.668602 0.000000
366.113800 44.091301 2.722349 0.000000
366.117740 45.146614 2.772490 0.000000
366.121640 46.145180 2.819320 0.000000
366.118900 50.475540 2.419793 0.000000
346.228330 49.122643 2.586896 0.000000
366.111480 51.234253 2.465717 0.000000
366.104830 51.959969 2.508933 0.000000
366.098330 52.655907 2.549703 0.000000
366.091950 53.324284 2.588201 0.000000
366.085880 53.966904 2.624562 0.000000
366.080050 54.585587 2.658928 0.000000
366.074430 55.182037 2.691431 0.000000
366.068970 55.757828 2.722193 0.000000
358.715520 56.329109 2.284704 0.000000
359.037110 56.410866 2.274454 0.000000
359.540740 56.799034 2.283209 0.000000
349.131530 56.491535 2.204067 0.000000
349.398900 56.483856 2.206065 0.000000
349.669190 56.354973 2.189729 0.000000
350.201600 56.492805 2.212420 0.000000
350.468660 56.510986 2.215312 0.000000
350.868100 56.550678 2.220015 0.000000
351.266050 56.602707 2.225076 0.000000
351.813510 56.568176 2.214042 0.000000
360.017520 57.219452 2.294000 0.000000
366.050020 57.879539 2.351253 0.000000
348.327760 56.485451 2.189494 0.000000
348.599030 56.547607 2.203875 0.000000
348.864440 56.503223 2.201936 0.000000
352.174770 56.833885 2.246346 0.000000
352.571990 56.882244 2.245517 0.000000
352.964480 56.961227 2.247356 0.000000
360.340030 57.829468 2.330797 0.000000
360.657620 57.930920 2.317718 0.000000
366.045290 58.370487 2.381640 0.000000
347.189000 57.023441 2.236517 0.000000
347.706330 56.965115 2.243819 0.000000
353.631380 57.519424 2.305991 0.000000
354.004300 57.634819 2.308919 0.000000
354.371250 57.768242 2.312810 0.000000
360.907930 58.118649 2.316877 0.000000
361.134490 58.334450 2.319668 0.000000
366.040800 58.847507 2.410454 0.000000
346.073150 57.407959 2.248091 0.000000
346.337490 57.413177 2.260362 0.000000
346.824310 57.215401 2.251412 0.000000
354.957610 58.052525 2.325534 0.000000
355.225190 58.086266 2.317078 0.000000
361.356260 58.554871 2.322525 0.000000
361.572450 58.780495 2.325563 0.000000
345.864260 57.638908 2.271114 0.000000
355.539760 58.337875 2.334075 0.000000
355.978300 58.617405 2.346046 0.000000
361.930730 59.083778 2.322913 0.000000
356.362700 58.986763 2.370019 0.000000
356.718380 59.136448 2.365906 0.000000
362.181980 59.491096 2.336450 0.000000
366.032100 59.763397 2.463727 0.000000
356.883090 59.358257 2.382281 0.000000
357.099120 59.491699 2.383543 0.000000
357.312810 59.628906 2.384753 0.000000
362.557920 59.987514 2.344580 0.000000
366.027920 60.203796 2.488328 0.000000
369.437320 60.751244 2.739383 0.000000
370.284580 60.756210 2.683484 0.000000
357.522490 59.772121 2.386297 0.000000
357.859560 59.954807 2.381728 0.000000
362.737180 60.241390 2.348792 0.000000
362.879240 60.524906 2.357899 0.000000
366.023900 60.633385 2.511652 0.000000
366.509830 60.736618 2.477840 0.000000
367.178830 60.740582 2.423410 0.000000
367.886050 60.744736 2.365153 0.000000
347.887150 59.578461 2.351136 0.000000
348.206240 59.526787 2.351816 0.000000
348.634610 59.477768 2.353921 0.000000
349.065060 59.445927 2.356298 0.000000
349.496730 59.439339 2.360280 0.000000
349.928220 59.453209 2.365045 0.000000
350.252080 59.464340 2.367083 0.000000
350.576230 59.479092 2.368065 0.000000
351.007170 59.519096 2.370566 0.000000
351.435760 59.580044 2.373922 0.000000
351.861270 59.660145 2.377842 0.000000
352.281490 59.764023 2.383140 0.000000
352.697050 59.884151 2.388572 0.000000
353.102780 60.034149 2.396532 0.000000
358.254270 60.278065 2.386970 0.000000
358.500310 60.579155 2.400008 0.000000
346.955810 59.848701 2.359948 0.000000
347.358310 59.673698 2.348094 0.000000
347.674710 59.611725 2.349613 0.000000
353.488340 60.236336 2.411032 0.000000
353.862090 60.456959 2.426377 0.000000
358.677760 60.760765 2.404513 0.000000
346.276610 60.195717 2.382364 0.000000
346.571140 60.073727 2.378229 0.000000
354.223850 60.693329 2.442203 0.000000
354.600190 60.888401 2.448224 0.000000
354.883850 61.030315 2.450361 0.000000
345.794310 60.409515 2.388005 0.000000
346.083160 60.282223 2.385262 0.000000
366.143370 37.621033 3.235302 0.000000
366.131900 39.099194 3.281011 0.000000
366.125240 47.092407 2.863149 0.000000
366.128660 47.992584 2.904219 0.000000
366.128660 48.854065 2.943043 0.000000
366.123540 49.682205 2.979952 0.000000
366.117710 50.473763 3.014713 0.000000
366.110570 51.232403 3.047546 0.000000
366.103670 51.958717 3.078464 0.000000
366.097200 52.654888 3.107586 0.000000
366.090850 53.323486 3.135061 0.000000
366.084780 53.966293 3.160988 0.000000
366.063720 56.314308 2.751317 0.000000
366.058590 56.852730 2.778898 0.000000
366.053680 57.374287 2.805027 0.000000
366.049010 57.879997 2.829779 0.000000
366.044310 58.371029 2.853248 0.000000
366.039830 58.848160 2.875487 0.000000
366.035460 59.312302 2.896566 0.000000
366.031160 59.764244 2.916545 0.000000
366.027010 60.204742 2.935476 0.000000
366.514400 60.734211 2.926789 0.000000
367.183930 60.738102 2.884699 0.000000
367.891690 60.742184 2.839631 0.000000
368.641200 60.746658 2.791317 0.000000
345.940800 38.519176 3.212626 0.000000
346.527310 38.523388 3.221467 0.000000
347.111420 38.519775 3.229552 0.000000
366.121220 40.478287 3.323183 0.000000
366.112270 41.766937 3.362122 0.000000
366.109560 42.966465 3.397868 0.000000
366.113830 44.084431 3.430678 0.000000
366.117770 45.140400 3.461252 0.000000
366.121670 46.139572 3.489771 0.000000
366.125270 47.087330 3.516426 0.000000
366.128110 47.988834 3.541401 0.000000
366.124630 48.855484 3.565119 0.000000
366.119570 49.683735 3.587443 0.000000
346.221980 49.119892 3.089036 0.000000
366.078950 54.585152 3.185468 0.000000
366.073390 55.181770 3.208597 0.000000
366.067930 55.757721 3.230465 0.000000
366.062680 56.314346 3.251143 0.000000
366.057620 56.852917 3.270703 0.000000
366.052700 57.374573 3.289208 0.000000
366.047970 57.880444 3.306717 0.000000
366.043370 58.371567 3.323290 0.000000
366.039000 58.848709 3.338964 0.000000
366.034520 59.313049 3.353811 0.000000
366.030240 59.765095 3.367851 0.000000
366.026090 60.205673 3.381129 0.000000
369.444210 60.748554 3.241811 0.000000
370.292270 60.753441 3.202158 0.000000
366.518980 60.731796 3.374517 0.000000
367.189030 60.735634 3.344749 0.000000
367.897340 60.739647 3.312849 0.000000
368.647430 60.744041 3.278626 0.000000
366.141750 37.612885 4.067128 0.000000
366.130550 39.091526 4.083896 0.000000
366.114230 50.474899 3.608415 0.000000
346.215670 49.117123 3.590040 0.000000
366.109130 51.231209 3.628109 0.000000
366.102510 51.957474 3.646705 0.000000
366.096070 52.653858 3.664197 0.000000
366.089750 53.322670 3.680669 0.000000
366.083680 53.965672 3.696178 0.000000
366.077910 54.584728 3.710791 0.000000
366.072330 55.181496 3.724563 0.000000
366.066890 55.757607 3.737551 0.000000
366.061680 56.314381 3.749800 0.000000
366.056580 56.853088 3.761353 0.000000
366.051700 57.374886 3.772250 0.000000
366.047000 57.880875 3.782526 0.000000
366.042390 58.372105 3.792218 0.000000
366.037930 58.849453 3.801356 0.000000
366.033570 59.313793 3.809967 0.000000
366.029300 59.765934 3.818079 0.000000
366.025180 60.206604 3.825714 0.000000
369.451140 60.745865 3.743417 0.000000
370.299930 60.750671 3.720005 0.000000
366.523530 60.729389 3.821454 0.000000
367.194060 60.733158 3.803999 0.000000
367.902950 60.737103 3.785259 0.000000
368.653660 60.741432 3.765119 0.000000
345.895390 38.156891 3.938095 0.000000
346.487370 38.149506 3.945566 0.000000
347.078190 38.146358 3.952855 0.000000
366.119870 40.471573 4.099309 0.000000
366.112370 41.758457 4.113455 0.000000
366.109560 42.958885 4.126429 0.000000
366.113860 44.077576 4.138305 0.000000
366.117800 45.134205 4.149311 0.000000
366.121670 46.133972 4.159522 0.000000
366.125310 47.082253 4.169009 0.000000
366.124020 47.990128 4.177903 0.000000
366.120640 48.856892 4.186210 0.000000
366.115660 49.685257 4.193967 0.000000
366.110410 50.476501 4.201197 0.000000
346.209350 49.114388 4.090394 0.000000
366.105380 51.232906 4.207933 0.000000
366.100490 51.957245 4.214211 0.000000
366.094940 52.652843 4.220072 0.000000
366.088620 53.321869 4.225548 0.000000
366.082610 53.965057 4.230649 0.000000
366.076810 54.584290 4.235400 0.000000
366.071290 55.181236 4.239824 0.000000
366.065890 55.757496 4.243940 0.000000
366.060640 56.314423 4.247767 0.000000
366.055570 56.853256 4.251320 0.000000
366.050720 57.375191 4.254614 0.000000
366.046020 57.881313 4.257665 0.000000
366.041440 58.372627 4.260483 0.000000
366.036990 58.850094 4.263082 0.000000
366.032650 59.314537 4.265471 0.000000
366.028380 59.766781 4.267660 0.000000
366.024260 60.207539 4.269659 0.000000
369.458040 60.743179 4.244682 0.000000
370.307590 60.747902 4.237519 0.000000
366.528110 60.726982 4.268026 0.000000
367.199130 60.730694 4.262889 0.000000
367.908570 60.734573 4.257315 0.000000
368.659880 60.738827 4.251264 0.000000
366.140140 37.604733 4.898877 0.000000
347.022640 37.442848 4.694495 0.000000
366.128780 39.084705 4.886691 0.000000
345.827550 37.577660 4.680537 0.000000
346.419070 37.442558 4.688003 0.000000
366.119900 40.462196 4.875368 0.000000
366.112430 41.749985 4.864791 0.000000
366.109590 42.951302 4.854969 0.000000
366.113890 44.070702 4.845891 0.000000
366.117800 45.128002 4.837315 0.000000
366.121700 46.128361 4.829204 0.000000
366.123290 47.080223 4.821462 0.000000
366.119900 47.991440 4.813998 0.000000
366.116610 48.858311 4.806897 0.000000
366.111720 49.686771 4.800092 0.000000
366.106570 50.478119 4.793586 0.000000
346.203030 49.111626 4.590565 0.000000
366.101620 51.234589 4.787367 0.000000
366.096800 51.959000 4.781411 0.000000
366.092380 52.653465 4.775703 0.000000
366.087520 53.321053 4.770209 0.000000
366.081510 53.964443 4.764900 0.000000
366.075740 54.583851 4.759790 0.000000
366.070220 55.180969 4.754863 0.000000
366.064820 55.757385 4.750107 0.000000
366.059630 56.314461 4.745510 0.000000
366.054570 56.853439 4.741063 0.000000
366.049740 57.375488 4.736755 0.000000
366.045040 57.881733 4.732578 0.000000
366.040470 58.373173 4.728524 0.000000
366.036040 58.850731 4.724584 0.000000
366.031680 59.315277 4.720750 0.000000
366.027470 59.767616 4.717018 0.000000
366.023350 60.208466 4.713380 0.000000
369.464970 60.740490 4.746075 0.000000
370.315280 60.745125 4.755187 0.000000
366.532650 60.724579 4.714653 0.000000
367.204190 60.728226 4.721849 0.000000
367.914180 60.732033 4.729458 0.000000
368.666110 60.736217 4.737514 0.000000
366.120000 40.452805 5.652212 0.000000
366.113160 41.740280 5.616911 0.000000
366.109620 42.943703 5.584198 0.000000
366.113890 44.063858 5.554128 0.000000
345.854400 42.908207 5.273084 0.000000
346.367130 42.924393 5.276883 0.000000
366.117830 45.121807 5.525934 0.000000
366.121730 46.122757 5.499467 0.000000
366.119050 47.081402 5.474174 0.000000
366.115780 47.992744 5.450306 0.000000
366.112610 48.859715 5.427787 0.000000
366.107790 49.688297 5.406409 0.000000
366.102690 50.479717 5.386159 0.000000
345.800350 49.165112 5.086358 0.000000
346.204770 49.167343 5.089363 0.000000
366.097840 51.236279 5.366977 0.000000
366.093140 51.960762 5.348780 0.000000
366.088780 52.655293 5.331508 0.000000
366.084410 53.322445 5.315080 0.000000
366.080260 53.963989 5.299446 0.000000
366.074680 54.583427 5.284469 0.000000
366.069150 55.180710 5.270183 0.000000
366.063810 55.757278 5.256545 0.000000
366.058590 56.314499 5.243515 0.000000
366.053560 56.853607 5.231060 0.000000
366.048740 57.375793 5.219142 0.000000
366.044070 57.882149 5.207732 0.000000
366.039490 58.373711 5.196796 0.000000
366.035100 58.851379 5.186311 0.000000
366.030760 59.316032 5.176249 0.000000
366.026520 59.768452 5.166590 0.000000
366.022430 60.209404 5.157311 0.000000
369.471860 60.737801 5.248086 0.000000
370.322940 60.742355 5.273511 0.000000
366.537230 60.722172 5.161772 0.000000
367.209260 60.725754 5.181327 0.000000
367.919800 60.729496 5.202148 0.000000
368.672330 60.733612 5.224346 0.000000
366.138520 37.596577 5.731358 0.000000
366.128780 39.074390 5.690282 0.000000
366.098850 50.481323 5.979474 0.000000
345.793910 49.162346 5.587650 0.000000
346.198430 49.164566 5.589327 0.000000
366.094120 51.237957 5.947310 0.000000
366.089450 51.962505 5.916853 0.000000
366.085140 52.657104 5.888000 0.000000
366.080870 53.324310 5.860612 0.000000
366.076810 53.965912 5.834601 0.000000
366.072910 54.583706 5.809877 0.000000
366.068120 55.180439 5.786269 0.000000
366.062770 55.757172 5.763731 0.000000
366.057590 56.314522 5.742254 0.000000
366.052550 56.853779 5.721773 0.000000
366.047730 57.376099 5.702230 0.000000
366.043090 57.882565 5.683572 0.000000
366.038540 58.374241 5.665744 0.000000
366.034240 58.851933 5.648708 0.000000
366.029820 59.316776 5.632399 0.000000
366.025600 59.769299 5.616799 0.000000
366.021510 60.210335 5.601868 0.000000
368.678590 60.730988 5.712219 0.000000
369.478790 60.735100 5.751188 0.000000
370.330630 60.739571 5.792985 0.000000
366.541780 60.719769 5.609802 0.000000
367.214320 60.723289 5.641757 0.000000
367.925420 60.726948 5.675834 0.000000
366.120060 40.443375 6.430574 0.000000
366.113190 41.731812 6.370459 0.000000
366.109620 42.936111 6.314804 0.000000
366.113920 44.056976 6.263682 0.000000
345.846500 42.904587 5.909726 0.000000
346.359410 42.920792 5.911937 0.000000
366.117860 45.115585 6.215817 0.000000
366.118130 46.122658 6.170574 0.000000
366.114840 47.082596 6.127725 0.000000
366.111660 47.994041 6.087425 0.000000
366.108580 48.861130 6.049465 0.000000
366.103850 49.689827 6.013490 0.000000
345.787450 49.159580 6.090206 0.000000
346.192110 49.161819 6.090549 0.000000
366.069490 54.585686 6.336350 0.000000
366.065830 55.181416 6.303484 0.000000
366.061710 55.757065 6.272157 0.000000
366.056550 56.314571 6.242205 0.000000
366.051570 56.853954 6.213677 0.000000
366.046750 57.376396 6.186488 0.000000
366.042140 57.882973 6.160563 0.000000
366.037570 58.374771 6.135817 0.000000
366.033170 58.852669 6.112197 0.000000
366.028870 59.317528 6.089638 0.000000
366.024660 59.770142 6.068083 0.000000
366.020600 60.211273 6.047483 0.000000
368.684880 60.728363 6.201609 0.000000
369.485750 60.732399 6.255873 0.000000
370.338350 60.736778 6.314114 0.000000
366.546390 60.717346 6.059181 0.000000
367.219420 60.720798 6.103587 0.000000
367.931060 60.724403 6.150974 0.000000
366.136930 37.588387 6.565360 0.000000
366.128630 39.064358 6.495447 0.000000
345.838590 42.900970 6.547975 0.000000
346.351650 42.917183 6.548593 0.000000
366.110600 47.083794 6.782745 0.000000
366.107540 47.995365 6.725973 0.000000
366.104550 48.862545 6.672531 0.000000
366.099910 49.691360 6.621921 0.000000
366.095000 50.482941 6.574104 0.000000
366.090300 51.239670 6.528924 0.000000
366.085750 51.964268 6.486177 0.000000
366.081540 52.658932 6.445715 0.000000
366.077330 53.326195 6.407340 0.000000
366.073330 53.967842 6.370928 0.000000
366.055450 56.314678 6.743846 0.000000
366.050540 56.854126 6.707248 0.000000
366.045750 57.376713 6.672380 0.000000
366.041170 57.883377 6.639163 0.000000
366.036590 58.375324 6.607473 0.000000
366.032230 58.853313 6.577252 0.000000
366.027920 59.318268 6.548411 0.000000
366.023710 59.770992 6.520876 0.000000
366.019650 60.212204 6.494588 0.000000
368.691160 60.725723 6.692990 0.000000
366.550990 60.714924 6.510347 0.000000
367.225370 60.717789 6.567366 0.000000
367.936740 60.721848 6.628032 0.000000
366.120120 40.433937 7.211212 0.000000
366.112580 41.724499 7.126079 0.000000
366.109650 42.928463 7.047498 0.000000
366.113950 44.050079 6.975245 0.000000
366.117100 45.110596 6.907520 0.000000
366.113800 46.123703 6.843151 0.000000
366.091130 50.484570 7.170625 0.000000
345.780940 49.156799 6.594514 0.000000
346.185760 49.159042 6.593518 0.000000
366.086550 51.241341 7.112387 0.000000
366.082030 51.966034 7.057304 0.000000
366.077880 52.660767 7.005191 0.000000
366.073760 53.328087 6.955792 0.000000
366.069820 53.969772 6.908945 0.000000
366.066040 54.587669 6.864478 0.000000
366.062440 55.183441 6.822236 0.000000
366.058900 55.758663 6.782066 0.000000
366.040250 57.883759 7.119827 0.000000
366.035610 58.375862 7.081153 0.000000
366.031250 58.853962 7.044300 0.000000
366.026980 59.319031 7.009144 0.000000
366.022800 59.771843 6.975604 0.000000
366.018740 60.213146 6.943598 0.000000
369.492740 60.729679 6.762633 0.000000
370.346100 60.733978 6.837404 0.000000
366.555600 60.712490 6.963722 0.000000
367.229640 60.715805 7.033231 0.000000
367.942410 60.719269 7.107459 0.000000
366.136930 37.576881 7.401978 0.000000
366.128690 39.053864 7.303011 0.000000
345.830630 42.897316 7.188453 0.000000
346.346340 42.937363 7.185208 0.000000
366.112610 45.111504 7.601065 0.000000
366.109440 46.124763 7.517894 0.000000
366.106350 47.084976 7.439870 0.000000
366.103390 47.996677 7.366567 0.000000
366.100520 48.863968 7.297588 0.000000
366.095950 49.692886 7.232291 0.000000
345.774410 49.154011 7.101042 0.000000
366.074250 52.662601 7.566954 0.000000
366.070190 53.329979 7.506481 0.000000
366.066310 53.971729 7.449150 0.000000
366.062620 54.589661 7.394754 0.000000
366.059080 55.185474 7.343097 0.000000
366.055570 55.760742 7.293990 0.000000
366.052190 56.316780 7.247288 0.000000
366.048920 56.854862 7.202846 0.000000
366.044740 57.377003 7.160367 0.000000
366.030300 58.854614 7.513831 0.000000
366.026030 59.319782 7.472328 0.000000
366.021850 59.772690 7.432745 0.000000
366.017820 60.214100 7.394989 0.000000
368.697480 60.723076 7.186829 0.000000
369.499760 60.726948 7.271945 0.000000
370.353910 60.731163 7.363352 0.000000
366.560240 60.710033 7.419791 0.000000
367.234830 60.713284 7.501980 0.000000
366.120180 40.424446 7.994886 0.000000
366.112670 41.715927 7.884692 0.000000
366.109650 42.920822 7.782990 0.000000
366.113980 44.043137 7.689511 0.000000
347.895660 43.598557 7.752107 0.000000
345.907410 43.592743 7.749781 0.000000
346.407440 43.598953 7.748385 0.000000
346.904210 43.591133 7.749583 0.000000
347.400510 43.593884 7.750487 0.000000
366.099240 47.998001 8.009802 0.000000
366.096470 48.865395 7.925220 0.000000
366.091980 49.694427 7.845169 0.000000
347.777680 49.193077 7.596865 0.000000
366.087250 50.486198 7.769592 0.000000
345.772710 49.182049 7.606016 0.000000
346.579740 49.186508 7.599578 0.000000
346.980500 49.188721 7.597754 0.000000
347.379730 49.190910 7.596850 0.000000
366.082730 51.243057 7.698237 0.000000
366.078310 51.967808 7.630768 0.000000
366.059140 54.591679 7.927732 0.000000
366.055660 55.187531 7.866610 0.000000
366.052220 55.762833 7.808519 0.000000
366.048890 56.318916 7.753289 0.000000
366.045650 56.857025 7.700746 0.000000
366.042570 57.378315 7.650737 0.000000
366.039310 57.884155 7.603055 0.000000
366.034670 58.376408 7.557358 0.000000
366.020900 59.773552 7.892722 0.000000
366.016850 60.215061 7.849176 0.000000
368.703860 60.720409 7.683651 0.000000
369.506810 60.724216 7.784347 0.000000
370.361720 60.728333 7.892516 0.000000
366.564940 60.707561 7.878984 0.000000
367.948180 60.716667 7.589766 0.000000
366.136990 37.565174 8.241917 0.000000
366.128270 39.044308 8.113630 0.000000
366.111510 44.040268 8.406561 0.000000
366.108120 45.112404 8.297491 0.000000
366.105070 46.125835 8.195431 0.000000
347.959660 44.987923 8.185018 0.000000
366.102110 47.086178 8.099712 0.000000
366.083310 50.487835 8.371635 0.000000
366.078920 51.244774 8.287089 0.000000
366.074580 51.969589 8.207169 0.000000
366.070590 52.664433 8.131594 0.000000
366.066590 53.331879 8.059984 0.000000
366.062770 53.973690 7.992113 0.000000
366.048860 55.764931 8.326134 0.000000
366.045590 56.321045 8.262322 0.000000
366.042420 56.859200 8.201625 0.000000
366.039370 57.380535 8.143868 0.000000
366.036590 57.885986 8.088921 0.000000
366.033540 58.377052 8.036499 0.000000
366.029300 58.855278 7.986280 0.000000
366.025090 59.320538 7.938390 0.000000
368.710240 60.717724 8.183922 0.000000
369.513920 60.721436 8.300335 0.000000
367.240020 60.710747 7.973950 0.000000
367.954070 60.714001 8.075425 0.000000
366.120240 40.414921 8.782329 0.000000
366.112730 41.707344 8.646927 0.000000
366.109710 42.913109 8.521976 0.000000
366.097810 47.087372 8.762966 0.000000
346.211270 46.209820 8.590825 0.000000
346.667970 46.242607 8.582684 0.000000
347.105870 46.090439 8.605709 0.000000
347.578800 46.388885 8.556992 0.000000
366.095060 47.999321 8.656358 0.000000
345.769710 46.307487 8.579039 0.000000
366.092380 48.866833 8.556084 0.000000
366.087980 49.695976 8.461199 0.000000
366.066890 52.666306 8.699623 0.000000
366.062990 53.333801 8.616814 0.000000
366.059230 53.975651 8.538340 0.000000
366.055660 54.593685 8.463912 0.000000
366.052250 55.189579 8.393263 0.000000
370.369630 60.725471 8.425400 0.000000
366.136780 37.554005 9.085878 0.000000
366.128360 39.033741 8.928265 0.000000
366.106870 44.041019 9.126913 0.000000
366.103580 45.113342 8.997524 0.000000
366.100680 46.126896 8.876478 0.000000
366.088290 48.868252 9.190771 0.000000
366.083950 49.697533 9.080954 0.000000
366.079410 50.489456 8.977316 0.000000
366.075070 51.246490 8.879496 0.000000
366.070800 51.971382 8.787041 0.000000
366.119810 40.406258 9.574230 0.000000
366.112760 41.698700 9.413600 0.000000
366.110080 42.904755 9.265339 0.000000
366.096220 46.127987 9.561661 0.000000
366.093510 47.088585 9.430245 0.000000
366.090880 48.000637 9.306835 0.000000
366.135100 37.545795 9.934324 0.000000
366.127290 39.025307 9.747339 0.000000
366.105500 42.904915 10.012054 0.000000
366.102200 44.041759 9.851660 0.000000
366.099060 45.114258 9.701826 0.000000
366.118500 40.399204 10.371120 0.000000
366.111820 41.691818 10.185081 0.000000
366.133420 37.537464 10.788400 0.000000
366.125670 39.017883 10.571664 0.000000
366.139560 37.635960 2.324993 0.000000
351.710940 43.875828 2.170939 0.000000
352.200100 43.886436 2.174027 0.000000
352.690160 43.895351 2.176233 0.000000
353.181340 43.904243 2.177694 0.000000
353.673950 43.913170 2.178409 0.000000
354.168270 43.922203 2.178383 0.000000
354.664610 43.931435 2.177616 0.000000
349.756040 43.843483 2.151957 0.000000
350.245000 43.851555 2.157823 0.000000
350.733580 43.859665 2.162942 0.000000
351.222140 43.867767 2.167314 0.000000
355.575130 44.420059 2.212079 0.000000
356.070650 44.430862 2.209199 0.000000
356.587370 44.362503 2.199075 0.000000
357.075410 44.437565 2.199887 0.000000
357.564180 44.515797 2.200191 0.000000
358.089690 44.470322 2.189523 0.000000
358.607760 44.471985 2.181900 0.000000
345.859860 44.175674 2.110763 0.000000
346.358580 44.205242 2.124523 0.000000
346.860080 44.284950 2.141653 0.000000
347.343080 44.240574 2.147609 0.000000
347.826320 44.201813 2.153286 0.000000
348.318420 44.285835 2.168365 0.000000
348.802000 44.293518 2.176352 0.000000
358.980440 44.944027 2.212472 0.000000
359.518490 44.893181 2.198923 0.000000
359.993620 45.040310 2.201039 0.000000
360.550020 44.975182 2.184520 0.000000
362.388430 45.776009 2.199783 0.000000
361.307400 45.762230 2.226558 0.000000
361.822600 45.817490 2.217793 0.000000
362.832000 46.009811 2.204595 0.000000
363.325160 46.143959 2.199956 0.000000
363.689090 46.531158 2.216708 0.000000
364.285640 46.482113 2.194195 0.000000
364.851010 46.510807 2.177438 0.000000
365.023470 47.216873 2.220734 0.000000
365.617950 47.207016 2.198740 0.000000
365.890050 47.718826 2.223523 0.000000
366.127840 48.264130 2.251108 0.000000
366.126590 49.134125 2.309009 0.000000
347.967160 49.934372 2.136073 0.000000
355.210080 50.450554 2.213551 0.000000
355.605650 50.445343 2.206863 0.000000
346.464110 50.266354 2.132234 0.000000
346.843380 50.213585 2.137481 0.000000
347.222930 50.164894 2.142423 0.000000
356.686980 50.854309 2.226839 0.000000
357.096100 50.831852 2.215232 0.000000
357.801360 51.146843 2.227951 0.000000
358.169190 51.259682 2.228448 0.000000
358.753170 51.352814 2.219431 0.000000
359.263180 51.635017 2.229363 0.000000
359.985810 51.911213 2.228979 0.000000
360.416990 51.914436 2.212507 0.000000
360.665830 52.278091 2.235682 0.000000
361.082280 52.321686 2.222023 0.000000
361.348050 52.639977 2.238889 0.000000
361.772770 52.681641 2.223214 0.000000
362.014400 53.030785 2.242438 0.000000
362.666230 53.445641 2.245836 0.000000
362.983090 53.666645 2.248048 0.000000
363.202730 54.022572 2.266016 0.000000
363.691410 54.009155 2.237939 0.000000
349.332980 53.627110 2.139229 0.000000
363.911070 54.360146 2.254022 0.000000
364.210020 54.604500 2.256201 0.000000
347.743070 53.748856 2.118389 0.000000
355.319460 54.294968 2.193900 0.000000
364.505190 54.853157 2.258207 0.000000
345.870970 54.145432 2.101429 0.000000
364.858950 55.327446 2.273066 0.000000
365.266820 55.733833 2.277874 0.000000
365.549470 55.992538 2.278496 0.000000
366.127620 39.173306 2.407438 0.000000
346.735290 38.719429 2.419156 0.000000
347.318540 38.709797 2.427954 0.000000
346.149510 38.723873 2.409342 0.000000
366.116640 40.601158 2.483312 0.000000
366.106450 41.931629 2.553335 0.000000
366.105100 43.160263 2.617180 0.000000
366.109560 44.303070 2.675809 0.000000
366.113650 45.378983 2.730394 0.000000
366.118960 49.970345 2.364202 0.000000
346.253450 49.124413 2.518373 0.000000
366.111480 50.766541 2.416059 0.000000
348.364040 50.049805 2.156104 0.000000
348.744930 50.019119 2.160006 0.000000
349.126250 49.995071 2.163873 0.000000
349.507810 49.974838 2.167408 0.000000
349.889770 49.962215 2.171006 0.000000
350.272220 50.056862 2.185002 0.000000
350.652340 50.076630 2.190484 0.000000
351.031950 50.096420 2.195236 0.000000
351.600950 50.126347 2.200936 0.000000
352.168670 50.172634 2.206874 0.000000
352.545870 50.216236 2.211182 0.000000
352.922880 50.259808 2.214762 0.000000
353.299900 50.303383 2.217618 0.000000
353.690640 50.260132 2.210759 0.000000
354.063390 50.342316 2.216147 0.000000
354.433960 50.432381 2.221633 0.000000
347.619570 50.253239 2.161121 0.000000
354.806060 50.511829 2.225294 0.000000
355.897000 50.848526 2.242224 0.000000
356.312650 50.771667 2.226538 0.000000
366.104400 51.525658 2.464816 0.000000
366.097500 52.250824 2.510728 0.000000
366.091090 52.944366 2.553974 0.000000
366.084810 53.609047 2.594786 0.000000
366.078830 54.246834 2.633317 0.000000
349.655880 53.734055 2.157775 0.000000
350.130580 53.739311 2.164492 0.000000
350.604580 53.756641 2.171269 0.000000
350.920200 53.769035 2.174922 0.000000
351.393250 53.791710 2.179463 0.000000
351.865690 53.824196 2.183785 0.000000
352.180210 53.852150 2.186489 0.000000
352.493960 53.887337 2.189376 0.000000
352.963620 53.948273 2.193281 0.000000
353.762150 53.973698 2.186774 0.000000
347.288640 53.932507 2.127433 0.000000
348.073240 53.815376 2.135675 0.000000
348.547580 53.775990 2.142237 0.000000
353.431640 54.020985 2.197217 0.000000
354.514860 54.239853 2.205964 0.000000
354.980100 54.333118 2.207037 0.000000
355.756100 54.499207 2.206228 0.000000
366.073120 54.859692 2.669724 0.000000
346.202510 54.162846 2.117078 0.000000
346.532810 54.189850 2.133120 0.000000
346.820590 54.019104 2.122555 0.000000
356.219240 54.614319 2.205632 0.000000
356.489720 54.801052 2.218584 0.000000
356.816560 54.830902 2.210323 0.000000
357.386690 55.113876 2.220892 0.000000
357.666960 55.263351 2.226206 0.000000
357.943600 55.418739 2.231628 0.000000
358.217530 55.577728 2.236859 0.000000
358.487370 55.742928 2.242261 0.000000
358.786320 55.850952 2.239108 0.000000
359.204160 56.391212 2.275828 0.000000
365.469940 56.616875 2.329140 0.000000
365.887570 56.732788 2.308920 0.000000
359.523440 56.462547 2.265403 0.000000
359.822080 56.573936 2.259749 0.000000
366.053040 57.096256 2.322818 0.000000
359.977970 56.911026 2.285838 0.000000
360.342410 56.923798 2.264355 0.000000
366.048220 57.608315 2.358236 0.000000
350.302430 57.013897 2.248185 0.000000
350.828640 56.759636 2.214491 0.000000
351.222810 56.789509 2.219924 0.000000
351.616610 56.819958 2.224026 0.000000
352.010470 56.850933 2.226440 0.000000
352.404910 56.882095 2.227462 0.000000
360.465300 57.296204 2.294761 0.000000
349.149290 57.197914 2.256630 0.000000
349.532290 57.153175 2.257861 0.000000
349.917210 57.130508 2.260664 0.000000
352.846410 57.423183 2.300451 0.000000
353.111510 57.397129 2.291926 0.000000
353.477170 57.527798 2.303040 0.000000
353.849980 57.618790 2.306884 0.000000
360.682830 57.784805 2.329619 0.000000
361.150540 57.925571 2.311108 0.000000
366.043700 58.104004 2.391817 0.000000
347.532560 57.604729 2.266399 0.000000
348.017670 57.428623 2.258648 0.000000
348.266570 57.367348 2.257874 0.000000
348.649480 57.346924 2.266123 0.000000
354.101200 57.669235 2.306991 0.000000
354.352480 57.721371 2.306651 0.000000
354.728060 57.806190 2.305750 0.000000
355.068820 58.001484 2.320316 0.000000
361.634860 58.304585 2.312533 0.000000
361.861330 58.512875 2.315147 0.000000
366.039120 58.584644 2.423707 0.000000
347.095790 57.963688 2.299889 0.000000
347.313290 57.790798 2.284397 0.000000
355.533390 58.216114 2.330417 0.000000
355.873440 58.392654 2.338638 0.000000
356.206120 58.582062 2.347613 0.000000
362.191590 58.834717 2.319264 0.000000
366.034760 59.050976 2.453968 0.000000
346.405490 58.264847 2.309360 0.000000
346.632810 58.159283 2.305993 0.000000
346.863160 58.059643 2.302956 0.000000
356.423030 58.715900 2.353968 0.000000
356.845460 58.999344 2.367383 0.000000
362.656980 59.235775 2.317859 0.000000
366.030490 59.503971 2.482701 0.000000
345.832610 58.495892 2.309897 0.000000
346.181270 58.375946 2.313013 0.000000
357.058990 59.132973 2.371874 0.000000
357.391140 59.309929 2.373469 0.000000
357.719300 59.494381 2.374943 0.000000
363.017360 59.742401 2.331613 0.000000
357.935000 59.622765 2.375923 0.000000
358.251710 59.826347 2.377912 0.000000
363.304780 60.100761 2.336865 0.000000
366.022310 60.373177 2.535893 0.000000
349.784940 59.754883 2.375522 0.000000
350.207430 59.725544 2.376814 0.000000
350.631560 59.692307 2.374857 0.000000
351.056980 59.689434 2.375469 0.000000
351.376010 59.700844 2.376604 0.000000
351.694550 59.725002 2.378268 0.000000
352.117770 59.773460 2.381072 0.000000
352.538390 59.841316 2.384567 0.000000
352.955020 59.930191 2.389053 0.000000
358.562130 60.039345 2.380180 0.000000
358.862340 60.266350 2.383252 0.000000
363.481780 60.351242 2.341671 0.000000
363.707790 60.558800 2.337925 0.000000
366.099270 60.733715 2.550760 0.000000
366.691560 60.737202 2.503344 0.000000
367.315460 60.740307 2.452690 0.000000
367.971370 60.744652 2.398804 0.000000
368.664670 60.748814 2.341108 0.000000
348.121120 60.029736 2.371784 0.000000
348.531520 59.934757 2.371987 0.000000
348.945860 59.854382 2.372201 0.000000
349.364070 59.794807 2.373459 0.000000
353.358030 60.072529 2.400197 0.000000
353.749360 60.245682 2.414214 0.000000
354.037020 60.385422 2.424947 0.000000
347.018920 60.371151 2.372588 0.000000
347.313110 60.258446 2.370671 0.000000
347.714110 60.134369 2.370758 0.000000
354.225310 60.484482 2.432348 0.000000
354.516780 60.602505 2.436817 0.000000
354.911100 60.743965 2.437798 0.000000
355.298680 60.903572 2.439446 0.000000
346.574460 60.685413 2.395746 0.000000
346.840880 60.502213 2.383216 0.000000
346.026730 60.978954 2.403977 0.000000
346.299560 60.832962 2.400702 0.000000
366.138090 37.626923 3.148880 0.000000
346.196350 43.125938 2.670638 0.000000
366.117680 46.393829 2.781280 0.000000
366.121400 47.353661 2.828828 0.000000
366.124910 48.263283 2.873323 0.000000
366.122770 49.134850 2.915549 0.000000
366.117100 49.968555 2.955503 0.000000
366.110410 50.763939 2.993130 0.000000
366.103330 51.523354 3.028565 0.000000
366.096500 52.248749 3.061912 0.000000
366.090120 52.942520 3.093310 0.000000
366.067600 55.449425 2.704153 0.000000
366.062260 56.017708 2.736737 0.000000
366.057130 56.565987 2.767590 0.000000
366.052150 57.095596 2.796820 0.000000
366.047360 57.607773 2.824521 0.000000
366.042790 58.103622 2.850781 0.000000
366.038270 58.584339 2.875698 0.000000
366.033910 59.050777 2.899334 0.000000
