# .PCD v0.7 - Point Cloud Data file format
VERSION 0.7
FIELDS x y z intensity
SIZE 4 4 4 4
TYPE F F F F
COUNT 1 1 1 1
WIDTH 1181
HEIGHT 1
VIEWPOINT 0 0 0 1 0 0 0
POINTS 1181
DATA ascii
390.703740 -93.405792 -0.217985 0.000000
391.343020 -91.976379 -0.173979 0.000000
391.636930 -90.255089 -0.119961 0.000000
377.291170 -106.568910 -0.556553 0.000000
378.331020 -105.447330 -0.516577 0.000000
393.408260 -95.546249 -0.203002 0.000000
394.048740 -94.067200 -0.158059 0.000000
394.724790 -92.646927 -0.115648 0.000000
395.586430 -91.412094 -0.080204 0.000000
376.719510 -107.228380 -0.586116 0.000000
377.739140 -106.094820 -0.545245 0.000000
378.748750 -104.972080 -0.505319 0.000000
379.727780 -92.466736 -0.076822 0.000000
393.395690 -95.063454 -0.193598 0.000000
394.004460 -93.595314 -0.148738 0.000000
394.676540 -92.212128 -0.107351 0.000000
395.586400 -91.059494 -0.074645 0.000000
383.324280 -102.916580 -0.456087 0.000000
392.480100 -95.747101 -0.234013 0.000000
392.956050 -94.171539 -0.184334 0.000000
393.699950 -92.886826 -0.145588 0.000000
394.140470 -91.340652 -0.097826 0.000000
395.083010 -90.271782 -0.067864 0.000000
386.333160 -91.540123 4.916071 0.000000
392.403530 -100.262940 9.100145 0.000000
382.013090 -102.587810 -0.484335 0.000000
391.629300 -94.355530 -0.230228 0.000000
392.146510 -92.892044 -0.184222 0.000000
392.769100 -91.559998 -0.143527 0.000000
392.961360 -89.856041 -0.089237 0.000000
381.156680 -102.803750 -0.485376 0.000000
391.832950 -94.053589 -0.219176 0.000000
392.335880 -92.610199 -0.174002 0.000000
392.878360 -91.235657 -0.131807 0.000000
393.069610 -89.565826 -0.078693 0.000000
382.317200 -103.480240 -0.466626 0.000000
392.548220 -96.268692 -0.251205 0.000000
393.109680 -94.848511 -0.206901 0.000000
393.618190 -93.406586 -0.162165 0.000000
394.269620 -92.131241 -0.124079 0.000000
394.797240 -90.761765 -0.082833 0.000000
393.540590 -99.625565 6.896563 0.000000
380.901890 -105.253740 -0.488018 0.000000
393.736020 -96.980927 -0.242351 0.000000
394.278690 -95.541229 -0.197794 0.000000
394.827180 -94.138847 -0.155008 0.000000
395.362610 -92.752518 -0.113197 0.000000
394.804230 -99.611542 -0.291720 0.000000
394.865780 -97.614899 -0.226805 0.000000
395.331970 -96.099548 -0.179933 0.000000
381.008000 -108.236710 -0.514092 0.000000
395.609770 -99.915482 -0.270224 0.000000
391.641660 -99.145737 6.491959 0.000000
390.340640 -99.709450 8.108975 0.000000
377.453550 -89.014175 9.346352 0.000000
386.339260 -91.540863 4.465138 0.000000
393.055690 -101.475140 8.307632 0.000000
389.310240 -98.980377 7.931378 0.000000
384.703950 -93.291077 8.786229 0.000000
390.376070 -102.491680 9.878781 0.000000
388.462400 -93.391823 3.046663 0.000000
386.579250 -93.010460 4.438434 0.000000
392.817570 -98.475388 4.776220 0.000000
378.465480 -89.654953 5.346729 0.000000
386.805480 -95.167427 5.966529 0.000000
386.072510 -91.718155 4.340202 0.000000
387.178410 -94.938400 7.351318 0.000000
377.381500 -90.778229 9.038937 0.000000
389.156280 -99.430298 9.283817 0.000000
391.308750 -100.128930 9.501718 0.000000
385.020080 -110.470980 -0.419503 0.000000
387.769350 -93.052338 4.357914 0.000000
393.094880 -101.542370 7.957841 0.000000
388.907380 -100.302340 9.177544 0.000000
384.448910 -96.260376 9.979552 0.000000
389.139650 -100.658290 10.789418 0.000000
376.982640 -89.484848 -0.836872 0.000000
387.121700 -93.249542 4.277746 0.000000
388.453000 -93.138306 4.324693 0.000000
378.800480 -90.681717 5.151485 0.000000
382.773500 -89.505173 6.546000 0.000000
383.244350 -95.480637 9.645183 0.000000
389.048580 -101.680160 10.711918 0.000000
378.007750 -90.064346 -0.800189 0.000000
388.368740 -111.038250 -0.342220 0.000000
378.264560 -92.275909 0.297576 0.000000
387.466890 -92.996613 4.258180 0.000000
386.836520 -93.965652 5.608092 0.000000
387.330440 -94.634933 7.031508 0.000000
388.522220 -102.166190 10.592751 0.000000
389.080350 -100.869910 10.518624 0.000000
371.118100 -91.047676 -0.579066 0.000000
371.635960 -90.121696 -0.540088 0.000000
372.499730 -89.920593 -0.541888 0.000000
379.482510 -91.164314 -0.711895 0.000000
388.507390 -93.387436 3.018659 0.000000
386.614470 -92.721336 4.276232 0.000000
388.212650 -93.046112 4.337172 0.000000
378.428960 -89.651932 5.083254 0.000000
387.041840 -95.039841 5.695376 0.000000
380.283390 -89.144257 6.299225 0.000000
386.776120 -94.710541 7.011316 0.000000
393.367250 -101.429170 7.802118 0.000000
392.221130 -99.985481 9.160157 0.000000
389.019200 -101.703410 10.574147 0.000000
373.847350 -93.173637 -0.611877 0.000000
390.963040 -97.554085 1.699178 0.000000
385.943660 -92.814293 4.244946 0.000000
386.295900 -91.622070 4.223910 0.000000
393.191650 -98.545944 4.624984 0.000000
378.669950 -90.729134 5.113760 0.000000
386.780850 -93.942505 5.600421 0.000000
387.288880 -94.634766 6.975118 0.000000
389.369660 -99.307800 8.821115 0.000000
389.113100 -100.947130 10.406079 0.000000
388.550380 -102.185550 10.486174 0.000000
371.552830 -94.181831 -0.584493 0.000000
372.028350 -93.052490 -0.536485 0.000000
374.591250 -94.378342 -0.635448 0.000000
372.507200 -92.001755 -0.492944 0.000000
382.115880 -89.318153 -0.541669 0.000000
374.782140 -89.019669 0.649637 0.000000
388.448000 -94.643448 1.698161 0.000000
388.767180 -93.387268 2.994391 0.000000
387.257630 -94.819992 4.272856 0.000000
386.187990 -91.727806 4.156586 0.000000
387.907410 -92.321358 4.225588 0.000000
386.593720 -93.938278 5.497895 0.000000
393.321010 -101.056990 6.107832 0.000000
387.011320 -94.520798 6.830260 0.000000
393.547730 -101.372530 7.626295 0.000000
389.328520 -99.562874 8.689164 0.000000
391.297940 -100.345980 8.887138 0.000000
389.858090 -100.326640 10.226923 0.000000
389.136380 -103.355930 10.475346 0.000000
372.534330 -95.612732 -0.527899 0.000000
373.816280 -96.327698 -0.579024 0.000000
374.985350 -96.692383 -0.613306 0.000000
380.599180 -93.412415 -0.570612 0.000000
382.875180 -93.530319 1.750145 0.000000
388.653320 -94.874268 1.756494 0.000000
388.780730 -93.386826 3.023025 0.000000
386.222930 -91.689606 4.158623 0.000000
388.440190 -96.342323 4.360552 0.000000
388.171840 -92.622314 4.242540 0.000000
383.979830 -91.834534 5.271932 0.000000
381.148930 -89.327682 5.037648 0.000000
386.700530 -93.972916 5.485020 0.000000
393.339600 -101.088130 6.097580 0.000000
387.043210 -94.452171 6.782921 0.000000
393.518250 -101.335780 7.583659 0.000000
377.859040 -88.961273 8.054325 0.000000
385.643800 -94.217461 7.936271 0.000000
391.341370 -100.346080 8.826786 0.000000
389.542510 -101.732220 10.261157 0.000000
372.238160 -96.462601 -0.567444 0.000000
372.764590 -95.382347 -0.522060 0.000000
374.226560 -96.599800 -0.597798 0.000000
380.820250 -93.564438 -0.560198 0.000000
382.993320 -93.609436 1.724677 0.000000
392.403690 -98.164825 1.732632 0.000000
388.539460 -94.817612 1.739679 0.000000
388.664790 -93.358002 2.980488 0.000000
386.100010 -93.179306 4.128672 0.000000
387.019650 -92.815506 4.146060 0.000000
388.234710 -92.818237 4.183408 0.000000
381.240630 -89.359993 4.944040 0.000000
386.302730 -95.161072 5.425901 0.000000
386.671140 -93.987740 5.386836 0.000000
393.147830 -101.034270 5.988428 0.000000
390.009700 -98.640823 7.090880 0.000000
378.068630 -89.065353 7.900013 0.000000
385.771850 -94.427994 7.809911 0.000000
391.289670 -100.436740 8.677257 0.000000
377.410100 -89.574936 8.952022 0.000000
388.547060 -102.344310 10.063573 0.000000
389.152590 -99.320572 9.800810 0.000000
389.996830 -102.515880 10.192088 0.000000
389.263580 -103.478580 11.680699 0.000000
371.936580 -98.968185 -0.652223 0.000000
372.499270 -97.841194 -0.603101 0.000000
373.024960 -96.702393 -0.553710 0.000000
376.328030 -97.648788 -0.638864 0.000000
375.004730 -88.943123 0.751723 0.000000
379.472290 -92.097626 0.641705 0.000000
390.997800 -97.548965 1.723060 0.000000
387.905150 -93.428581 2.934590 0.000000
386.340060 -92.907410 4.068747 0.000000
387.475340 -92.869232 4.102088 0.000000
388.013060 -96.952591 4.232917 0.000000
393.116520 -98.610428 4.433822 0.000000
380.726960 -89.366669 4.839328 0.000000
386.337280 -94.554871 5.313446 0.000000
387.042270 -93.898422 5.312976 0.000000
386.429990 -91.485367 5.176713 0.000000
384.498470 -93.539612 6.350099 0.000000
392.250310 -101.150310 7.262607 0.000000
393.473240 -99.106857 7.203941 0.000000
379.673680 -89.279236 7.878904 0.000000
388.602810 -99.701683 8.298315 0.000000
389.684810 -99.415985 8.346127 0.000000
390.627990 -98.914490 8.368847 0.000000
378.899380 -89.586349 8.890317 0.000000
373.076230 -101.427920 -0.624624 0.000000
373.648380 -100.222610 -0.576589 0.000000
391.074520 -101.457120 0.409931 0.000000
382.280980 -93.274818 1.779581 0.000000
390.977510 -97.689850 1.777619 0.000000
387.867490 -93.476151 2.958667 0.000000
386.324860 -92.926437 4.069084 0.000000
387.441620 -92.906021 4.099214 0.000000
387.935730 -96.896500 4.237553 0.000000
392.993900 -98.656769 4.431637 0.000000
380.710420 -89.181030 4.807770 0.000000
386.526520 -94.844315 5.314472 0.000000
390.257050 -98.475426 5.641174 0.000000
393.397400 -101.003570 5.891308 0.000000
384.510930 -93.502182 6.303336 0.000000
385.073060 -92.726700 6.278869 0.000000
390.213230 -98.422836 6.930294 0.000000
383.239440 -93.188370 7.335626 0.000000
393.371700 -99.170044 7.149785 0.000000
379.762150 -89.189644 7.779541 0.000000
389.703090 -99.508965 8.288459 0.000000
377.832820 -89.004364 8.613842 0.000000
385.021730 -94.295029 8.706145 0.000000
371.941890 -103.687450 -0.663211 0.000000
372.566990 -102.465700 -0.613606 0.000000
373.186130 -101.337940 -0.568966 0.000000
374.963040 -100.843970 -0.568616 0.000000
376.493590 -99.709854 -0.538878 0.000000
385.849730 -91.061340 -0.352870 0.000000
385.708400 -89.441498 -0.285784 0.000000
388.520290 -94.770340 1.784614 0.000000
392.166110 -98.069275 1.777073 0.000000
387.636470 -93.554787 2.928591 0.000000
388.649600 -93.385605 2.941118 0.000000
379.854400 -89.416405 3.736041 0.000000
384.790040 -91.070335 3.915123 0.000000
387.062470 -92.767654 4.029752 0.000000
387.706790 -96.942024 4.179214 0.000000
392.698820 -98.796471 4.372101 0.000000
381.744510 -89.486115 4.782229 0.000000
386.195620 -94.696266 5.213730 0.000000
386.779690 -93.935486 5.198293 0.000000
386.106930 -91.452057 5.049184 0.000000
384.899260 -92.770210 6.165545 0.000000
390.491270 -99.275711 6.893838 0.000000
380.542180 -89.071136 6.676631 0.000000
393.114200 -99.367523 7.038765 0.000000
382.761600 -94.314697 8.386333 0.000000
378.177000 -89.626144 8.538320 0.000000
389.628420 -99.832962 8.177105 0.000000
384.875820 -94.359879 8.541614 0.000000
389.204350 -99.208740 9.375105 0.000000
388.940460 -100.668770 10.819871 0.000000
388.978820 -100.448120 -0.813133 0.000000
371.182340 -102.699260 -0.687664 0.000000
371.828950 -101.615880 -0.638462 0.000000
372.457580 -100.578190 -0.592071 0.000000
374.960300 -99.693214 -0.571317 0.000000
375.764980 -99.321304 -0.561725 0.000000
384.732910 -90.773026 -0.307636 0.000000
385.864170 -90.938354 -0.337942 0.000000
385.793640 -89.442276 -0.272767 0.000000
388.559910 -94.727829 1.739845 0.000000
392.331630 -98.262405 1.731507 0.000000
387.682650 -93.519333 2.859255 0.000000
388.639130 -93.311783 2.873845 0.000000
384.941890 -91.133476 3.825488 0.000000
387.094060 -92.712952 3.934385 0.000000
393.103880 -104.910640 4.460535 0.000000
392.714420 -98.811653 4.275622 0.000000
380.278900 -89.780830 4.614521 0.000000
380.838560 -89.228745 4.609133 0.000000
386.201450 -91.481430 4.935260 0.000000
385.805790 -95.578789 5.111308 0.000000
386.217100 -94.566727 5.079789 0.000000
390.193630 -98.759727 5.441266 0.000000
384.958950 -94.270859 6.115484 0.000000
385.053310 -92.830704 6.025454 0.000000
385.059690 -96.105659 6.243150 0.000000
380.660710 -88.967941 6.497001 0.000000
390.633420 -99.414841 6.753807 0.000000
386.519070 -95.053551 7.386774 0.000000
392.221590 -101.736190 8.320337 0.000000
384.994080 -94.358047 8.341630 0.000000
393.453550 -101.646620 8.396295 0.000000
389.257140 -99.195007 9.165762 0.000000
389.098750 -100.801280 10.606888 0.000000
390.932680 -101.738270 10.883453 0.000000
389.284880 -103.033890 10.897535 0.000000
371.629880 -101.622940 -0.665355 0.000000
374.660370 -99.600922 -0.581882 0.000000
375.472260 -99.312805 -0.574114 0.000000
384.975680 -90.597488 -0.286390 0.000000
386.090330 -90.776993 -0.315811 0.000000
386.055730 -89.365540 -0.252349 0.000000
381.810420 -93.163635 1.675397 0.000000
394.004550 -100.091960 1.684422 0.000000
387.187900 -93.856033 2.788445 0.000000
387.860080 -93.301117 2.796099 0.000000
379.589080 -89.293900 3.527816 0.000000
385.302250 -92.609268 3.785580 0.000000
386.833770 -93.362198 3.852514 0.000000
387.256010 -92.476532 3.842164 0.000000
389.791530 -101.174120 4.153815 0.000000
381.216670 -89.165634 4.502745 0.000000
386.503300 -91.443436 4.829656 0.000000
386.309840 -94.145370 4.942155 0.000000
390.358950 -98.493362 5.311046 0.000000
381.508850 -89.658600 5.485212 0.000000
384.574620 -93.056442 5.866518 0.000000
387.081600 -95.327728 6.146777 0.000000
386.032140 -95.357971 7.202618 0.000000
386.782750 -94.897751 7.214042 0.000000
385.362610 -95.970306 8.329821 0.000000
392.455320 -101.579790 8.140389 0.000000
385.609560 -98.124901 8.570962 0.000000
383.142580 -95.654968 9.228926 0.000000
389.268280 -100.448050 9.084222 0.000000
390.393310 -100.362240 9.163173 0.000000
384.834690 -95.131485 9.307147 0.000000
389.271580 -100.476530 10.343678 0.000000
371.609070 -103.784030 -0.685621 0.000000
374.651180 -101.468960 -0.591063 0.000000
375.256900 -100.516880 -0.549294 0.000000
390.167690 -98.244614 -0.665442 0.000000
386.731540 -91.758385 -0.311409 0.000000
386.754970 -90.414200 -0.253655 0.000000
386.998810 -89.421234 -0.216354 0.000000
392.479890 -98.246521 1.700551 0.000000
387.158540 -93.876556 2.772346 0.000000
387.786680 -93.294823 2.777146 0.000000
388.772550 -93.207520 2.793290 0.000000
384.412140 -91.250244 3.680814 0.000000
387.240170 -92.536346 3.799291 0.000000
389.923520 -101.457380 4.129938 0.000000
380.008000 -89.812103 4.424626 0.000000
392.882720 -98.829926 4.141886 0.000000
386.317020 -94.172203 4.877596 0.000000
386.456760 -91.441925 4.757039 0.000000
390.321350 -98.555824 5.245636 0.000000
384.671600 -93.161705 5.787843 0.000000
387.142820 -95.448807 6.066076 0.000000
392.713870 -102.090810 6.792446 0.000000
386.725460 -94.827515 7.086348 0.000000
387.956970 -95.112808 7.190520 0.000000
384.603490 -94.652542 7.997371 0.000000
379.676760 -89.277550 7.986718 0.000000
393.817470 -101.901370 8.139657 0.000000
384.669890 -93.205605 8.890461 0.000000
389.227870 -100.427450 8.938992 0.000000
390.364500 -100.404400 9.022665 0.000000
391.440060 -100.254000 9.090886 0.000000
376.909970 -88.990738 -0.806386 0.000000
391.149110 -100.995360 -0.764598 0.000000
373.681580 -102.275630 -0.598615 0.000000
374.350710 -101.486820 -0.563279 0.000000
374.965450 -100.590420 -0.522780 0.000000
376.116730 -101.387650 -0.572204 0.000000
390.231510 -97.931778 -0.609736 0.000000
387.932250 -93.103531 -0.349941 0.000000
387.091280 -90.568031 -0.221366 0.000000
387.511470 -89.832016 -0.198205 0.000000
387.897130 -89.070862 -0.173808 0.000000
379.264560 -89.199265 1.702979 0.000000
391.012570 -97.483978 1.692620 0.000000
385.262270 -90.703598 2.675933 0.000000
387.975070 -93.212776 2.747208 0.000000
382.875430 -91.202751 3.577029 0.000000
384.758420 -91.343399 3.634621 0.000000
386.850310 -93.047485 3.743460 0.000000
387.372890 -92.378372 3.740881 0.000000
390.447300 -101.782180 4.092443 0.000000
394.513950 -100.735920 4.184594 0.000000
385.993900 -94.753181 4.806465 0.000000
385.633090 -92.691574 4.695824 0.000000
385.892760 -91.659187 4.659210 0.000000
386.634920 -91.351395 4.676843 0.000000
377.888030 -91.175240 5.221366 0.000000
380.895940 -89.328758 5.232412 0.000000
386.423030 -95.450127 5.917314 0.000000
387.245270 -95.164948 5.941968 0.000000
382.306850 -88.946709 6.173845 0.000000
392.999510 -102.104520 6.696724 0.000000
393.553530 -101.149200 6.666765 0.000000
386.904910 -94.663437 6.947476 0.000000
384.879430 -94.569305 7.845800 0.000000
385.660190 -94.276566 7.873718 0.000000
392.558500 -101.477410 7.882639 0.000000
394.196440 -102.078460 8.042314 0.000000
382.800110 -94.215782 8.670582 0.000000
388.887700 -101.195400 10.041903 0.000000
372.420750 -100.507710 -0.629737 0.000000
390.107330 -98.433884 -0.659229 0.000000
387.841370 -93.581467 -0.384747 0.000000
373.054870 -99.735527 -0.587142 0.000000
373.715730 -99.133926 -0.554712 0.000000
374.355350 -98.510132 -0.521608 0.000000
386.908510 -90.898224 -0.238267 0.000000
387.236690 -90.064209 -0.202813 0.000000
387.716310 -89.452858 -0.181218 0.000000
390.928650 -101.414400 0.373095 0.000000
378.376530 -89.191010 1.607494 0.000000
379.123540 -89.197021 1.614731 0.000000
385.761230 -92.004349 2.599640 0.000000
387.643800 -93.379929 2.647359 0.000000
395.136660 -102.441250 2.853837 0.000000
384.578520 -91.605827 3.509205 0.000000
387.128270 -92.661804 3.619984 0.000000
393.541900 -100.251780 4.012171 0.000000
385.765410 -94.988510 4.642733 0.000000
386.128570 -94.054146 4.619799 0.000000
387.117770 -94.098320 4.666790 0.000000
386.323330 -91.523560 4.525052 0.000000
380.724580 -89.426567 5.043083 0.000000
393.446350 -98.543823 5.145771 0.000000
383.876740 -91.949524 5.370246 0.000000
386.705380 -94.984818 5.713275 0.000000
387.048220 -94.022461 5.675636 0.000000
385.876220 -95.228882 6.708425 0.000000
382.037110 -89.011398 6.825465 0.000000
386.264040 -92.870407 6.549766 0.000000
389.595980 -99.536606 7.302470 0.000000
393.069240 -101.360740 7.688847 0.000000
382.469940 -95.800125 8.553186 0.000000
389.537720 -99.478851 8.448370 0.000000
391.270750 -100.443570 8.683307 0.000000
389.227750 -99.026764 9.527943 0.000000
388.907070 -102.027610 9.851038 0.000000
388.875120 -100.174220 9.629427 0.000000
388.227480 -95.406235 -0.489200 0.000000
371.012700 -99.066711 -0.610484 0.000000
371.660310 -98.469864 -0.573381 0.000000
372.608950 -99.180496 -0.613404 0.000000
373.219730 -98.469925 -0.570828 0.000000
387.686710 -93.180740 -0.365287 0.000000
386.936950 -90.791824 -0.230709 0.000000
387.344670 -90.098892 -0.200491 0.000000
387.830050 -89.524582 -0.178043 0.000000
391.094540 -101.445400 0.327476 0.000000
388.605740 -93.185516 1.603403 0.000000
385.827580 -91.894211 2.523599 0.000000
388.229860 -94.068237 2.585112 0.000000
389.055300 -93.847153 2.604970 0.000000
382.020290 -94.282082 3.376842 0.000000
387.411990 -92.913536 3.533936 0.000000
388.217440 -92.707352 3.559749 0.000000
387.032410 -96.777084 4.636537 0.000000
386.524170 -94.439056 4.521416 0.000000
386.556920 -93.059875 4.469915 0.000000
387.479400 -93.044373 4.514173 0.000000
387.122250 -93.947678 5.520724 0.000000
386.200530 -95.456345 5.552752 0.000000
386.833590 -94.959824 5.561050 0.000000
385.838130 -94.900436 6.495121 0.000000
382.377260 -89.275879 6.677668 0.000000
389.566280 -99.290581 7.091187 0.000000
390.110900 -98.503433 7.070938 0.000000
392.951480 -101.083540 7.470470 0.000000
389.206940 -98.764809 8.137845 0.000000
386.457400 -94.474403 8.510018 0.000000
389.113650 -100.334820 9.425824 0.000000
388.616910 -101.264880 9.487692 0.000000
390.366210 -98.962013 -0.654583 0.000000
370.934840 -101.146300 -0.613554 0.000000
371.876890 -101.887190 -0.655685 0.000000
372.526580 -101.131750 -0.613271 0.000000
373.828520 -99.884583 -0.545171 0.000000
374.827300 -100.626210 -0.589815 0.000000
388.350860 -94.455109 -0.395408 0.000000
387.810210 -92.328117 -0.280268 0.000000
387.560000 -90.718140 -0.196329 0.000000
388.119380 -90.255936 -0.183731 0.000000
388.518830 -89.592529 -0.158951 0.000000
388.912750 -88.937500 -0.135021 0.000000
390.890110 -101.455390 0.353707 0.000000
378.005520 -89.094101 1.562773 0.000000
387.231350 -91.556107 1.603615 0.000000
377.260310 -88.960480 2.317779 0.000000
385.746310 -91.989304 2.492040 0.000000
386.299040 -91.512924 2.501255 0.000000
391.669040 -97.869743 2.636967 0.000000
387.338750 -93.067184 3.474865 0.000000
388.048770 -92.762436 3.491634 0.000000
386.248870 -95.671112 4.482127 0.000000
386.286250 -94.258484 4.424724 0.000000
386.410800 -93.054085 4.380582 0.000000
387.300630 -93.035660 4.419457 0.000000
380.917300 -89.357895 4.800155 0.000000
381.748630 -89.511581 4.852492 0.000000
393.263430 -100.188360 4.975906 0.000000
393.198520 -98.546051 4.908468 0.000000
386.160550 -95.552063 5.455234 0.000000
386.704350 -94.949524 5.448266 0.000000
386.965940 -93.928970 5.401938 0.000000
382.675540 -92.535599 5.976883 0.000000
384.654140 -94.540222 6.262882 0.000000
380.659240 -88.941063 6.361788 0.000000
384.477780 -92.793137 6.111616 0.000000
393.631960 -102.394860 6.277400 0.000000
380.225010 -89.471268 6.384556 0.000000
382.187010 -89.023079 6.483572 0.000000
389.976040 -98.566673 6.931310 0.000000
386.718410 -95.025024 7.421653 0.000000
385.451420 -95.969452 8.412886 0.000000
388.134220 -102.394810 9.407451 0.000000
388.973050 -100.296880 9.229747 0.000000
389.304990 -99.175964 9.128330 0.000000
371.344330 -101.317410 -0.634555 0.000000
374.268980 -100.418480 -0.581245 0.000000
388.713010 -95.218094 -0.414487 0.000000
388.235230 -93.176544 -0.301663 0.000000
387.777340 -91.278091 -0.197083 0.000000
388.361390 -90.867653 -0.185955 0.000000
388.791500 -90.258865 -0.162735 0.000000
389.231200 -89.673813 -0.141415 0.000000
389.652070 -89.075974 -0.119657 0.000000
390.785100 -101.511240 0.342134 0.000000
386.247830 -90.386597 1.587987 0.000000
391.976200 -97.119553 1.536105 0.000000
385.357240 -97.285706 2.446079 0.000000
386.212740 -91.587173 2.446697 0.000000
391.583680 -98.052826 2.578304 0.000000
387.245150 -93.149124 3.391972 0.000000
387.744080 -92.580704 3.397361 0.000000
375.881770 -89.960213 3.724595 0.000000
376.568910 -90.080505 3.752906 0.000000
394.014430 -99.994568 3.762312 0.000000
384.597690 -93.042175 4.190621 0.000000
385.130550 -92.558533 4.194322 0.000000
386.301330 -93.069710 4.266658 0.000000
386.226680 -91.659805 4.208217 0.000000
388.031460 -93.019508 4.344137 0.000000
379.355650 -88.987038 4.562528 0.000000
385.738220 -92.225464 5.095997 0.000000
386.082890 -91.471603 5.072592 0.000000
392.909880 -98.499939 4.781854 0.000000
375.618160 -89.328270 5.149125 0.000000
384.668030 -94.614655 5.178151 0.000000
380.944760 -89.402969 5.451371 0.000000
385.971860 -95.369110 5.293145 0.000000
386.236660 -94.365082 5.248480 0.000000
384.573880 -94.480042 6.084887 0.000000
384.573640 -93.057648 5.972900 0.000000
385.220580 -92.757919 5.992558 0.000000
390.672090 -99.895058 6.911056 0.000000
386.552370 -94.931351 7.204932 0.000000
387.403110 -94.860275 7.266111 0.000000
382.525510 -97.001831 8.073996 0.000000
384.657840 -94.685715 7.969016 0.000000
392.841090 -101.610500 8.346431 0.000000
388.928380 -100.417360 9.011588 0.000000
389.280610 -99.360229 8.920970 0.000000
370.776550 -89.105560 -0.593174 0.000000
377.078030 -90.498535 -0.749361 0.000000
390.760190 -101.398830 -0.732203 0.000000
390.467560 -97.843834 -0.535436 0.000000
371.712590 -100.801090 -0.626217 0.000000
373.006010 -99.769287 -0.558618 0.000000
388.948580 -94.239838 -0.322676 0.000000
388.549800 -92.412796 -0.220011 0.000000
388.975650 -91.784882 -0.192669 0.000000
389.477780 -91.269127 -0.172848 0.000000
389.938630 -90.707672 -0.150579 0.000000
390.383510 -90.135162 -0.128035 0.000000
390.825160 -89.567200 -0.106211 0.000000
391.263950 -89.003372 -0.085087 0.000000
384.710510 -97.430435 0.494189 0.000000
386.168980 -90.309456 1.583930 0.000000
391.571230 -96.660477 1.537114 0.000000
378.928590 -89.026863 2.244091 0.000000
386.202330 -91.581268 2.414634 0.000000
388.730680 -94.024704 2.477219 0.000000
388.118560 -91.907570 2.461802 0.000000
377.188810 -89.408203 2.925703 0.000000
387.230100 -93.148636 3.334496 0.000000
387.700200 -92.573120 3.341178 0.000000
378.901000 -89.031776 3.695311 0.000000
393.975040 -100.066620 3.710065 0.000000
385.142300 -92.522789 4.107251 0.000000
386.271150 -93.010910 4.178869 0.000000
386.995450 -92.829529 4.206983 0.000000
387.867400 -92.845474 4.250335 0.000000
387.044650 -97.060699 4.368909 0.000000
380.898590 -89.090256 4.531398 0.000000
392.073150 -97.462502 4.625876 0.000000
386.071660 -91.477386 4.965694 0.000000
380.935760 -89.188072 5.293456 0.000000
385.971310 -95.291656 5.174362 0.000000
386.220280 -94.298630 5.132055 0.000000
386.826780 -93.907928 5.145782 0.000000
386.814030 -93.921310 6.055884 0.000000
389.180730 -99.125931 6.612455 0.000000
386.506650 -94.830856 7.029746 0.000000
387.315190 -94.736191 7.087540 0.000000
383.103490 -93.215500 7.470822 0.000000
392.740300 -101.548490 8.173725 0.000000
388.996150 -100.502330 8.836002 0.000000
389.302370 -99.401138 8.738995 0.000000
390.907990 -100.378000 9.000090 0.000000
391.096860 -99.120071 8.878918 0.000000
391.558870 -100.796600 -0.659196 0.000000
391.002780 -98.449699 -0.524478 0.000000
373.021240 -100.668900 -0.584193 0.000000
375.197330 -100.447310 -0.562883 0.000000
370.862460 -89.375397 -0.557917 0.000000
389.734990 -95.219772 -0.334069 0.000000
389.345790 -93.405327 -0.231440 0.000000
389.679960 -92.653702 -0.195586 0.000000
390.199890 -92.163582 -0.176664 0.000000
391.200260 -91.146561 -0.137952 0.000000
391.653410 -90.589615 -0.116188 0.000000
392.103940 -90.036316 -0.095108 0.000000
392.552220 -89.486267 -0.074692 0.000000
393.060670 -89.003799 -0.059221 0.000000
382.686220 -97.801132 1.400451 0.000000
379.366120 -92.081314 1.462071 0.000000
386.701970 -90.929848 1.577819 0.000000
392.047210 -97.211594 1.532080 0.000000
385.778990 -91.951706 2.375327 0.000000
386.275760 -91.503716 2.387710 0.000000
388.843660 -94.040970 2.451843 0.000000
388.158420 -91.856781 2.435358 0.000000
377.005400 -89.543953 2.864120 0.000000
387.282810 -93.040260 3.279219 0.000000
387.735110 -92.478065 3.286192 0.000000
394.396210 -100.543530 3.680322 0.000000
383.643620 -92.284225 3.945917 0.000000
386.351290 -94.199173 4.144578 0.000000
386.322420 -92.860001 4.093502 0.000000
387.078060 -92.766487 4.127046 0.000000
387.239170 -97.060593 4.294191 0.000000
393.049100 -100.169270 4.690178 0.000000
392.955840 -98.582382 4.629579 0.000000
384.076510 -94.454613 4.909588 0.000000
386.011990 -95.033997 5.052131 0.000000
386.313420 -94.172386 5.021097 0.000000
386.206820 -91.493919 4.866729 0.000000
380.651700 -89.441338 5.158896 0.000000
376.295170 -89.377502 5.592764 0.000000
383.694820 -92.440689 5.591571 0.000000
390.164860 -98.871628 5.512350 0.000000
387.050630 -95.400513 6.047249 0.000000
387.045590 -94.052139 5.946808 0.000000
377.917690 -89.033279 6.361329 0.000000
380.443150 -89.106506 6.571912 0.000000
386.193360 -92.757736 6.648282 0.000000
390.147830 -102.034230 6.762501 0.000000
386.043580 -95.159081 6.860527 0.000000
386.484680 -94.519318 6.836183 0.000000
392.556820 -99.537506 6.752432 0.000000
392.735410 -101.355450 7.993579 0.000000
389.454530 -99.372498 8.560192 0.000000
389.216740 -100.549800 8.671244 0.000000
391.101990 -100.451840 8.837437 0.000000
391.864900 -100.784660 -0.625168 0.000000
371.563020 -100.575420 -0.611337 0.000000
372.199830 -100.130300 -0.577143 0.000000
391.333470 -98.515244 -0.491516 0.000000
390.867430 -96.471870 -0.371860 0.000000
389.970340 -93.950607 -0.221826 0.000000
390.387210 -93.321381 -0.191164 0.000000
390.927580 -92.864471 -0.171900 0.000000
392.006930 -91.952835 -0.135092 0.000000
392.523710 -91.471245 -0.115820 0.000000
393.002530 -90.948784 -0.094408 0.000000
393.479890 -90.428238 -0.073615 0.000000
394.052340 -90.008942 -0.060013 0.000000
394.789060 -89.749123 -0.057645 0.000000
395.581940 -89.527206 -0.058623 0.000000
379.020050 -91.718277 1.434556 0.000000
387.927090 -92.345345 1.560606 0.000000
385.962250 -91.805222 2.342747 0.000000
388.329410 -94.177078 2.402832 0.000000
387.801480 -92.201149 2.392911 0.000000
377.025420 -89.850021 2.791266 0.000000
387.051970 -93.526192 3.215677 0.000000
387.413970 -92.852234 3.219251 0.000000
382.721310 -91.309494 3.770759 0.000000
384.736570 -91.120102 3.862263 0.000000
393.717350 -100.721250 3.595675 0.000000
394.635590 -100.548340 3.630621 0.000000
376.450710 -89.932045 4.122975 0.000000
386.816130 -97.228821 4.183267 0.000000
387.525420 -96.994446 4.209419 0.000000
386.933170 -93.380035 4.052509 0.000000
387.118230 -92.448112 4.030164 0.000000
392.243190 -98.649994 4.508428 0.000000
393.163300 -98.555923 4.554635 0.000000
379.679690 -90.566017 5.036322 0.000000
386.443600 -93.905708 4.895931 0.000000
386.425510 -91.450653 4.764750 0.000000
388.731930 -99.058907 5.315157 0.000000
383.823120 -92.090294 5.427047 0.000000
390.274260 -98.596848 5.385709 0.000000
386.198850 -94.854935 5.800172 0.000000
387.185270 -95.140930 5.892721 0.000000
378.240360 -90.155327 6.318473 0.000000
385.174470 -94.490585 6.553648 0.000000
385.057710 -92.978928 6.403508 0.000000
391.550480 -99.142975 6.506473 0.000000
392.437840 -101.998500 6.776291 0.000000
389.707760 -99.255043 7.371151 0.000000
392.171780 -101.633330 7.798867 0.000000
393.076020 -101.469310 7.863859 0.000000
389.182500 -99.953918 8.398535 0.000000
389.350830 -98.723633 8.278407 0.000000
392.669890 -101.835530 -0.627487 0.000000
370.897830 -101.903250 -0.632860 0.000000
371.683900 -102.535490 -0.664768 0.000000
372.337490 -102.033430 -0.627050 0.000000
377.257510 -101.260790 -0.547605 0.000000
379.878050 -100.117120 -0.471382 0.000000
392.092500 -99.486458 -0.490505 0.000000
391.520290 -97.283272 -0.362329 0.000000
390.866970 -95.095169 -0.234752 0.000000
391.147890 -94.274750 -0.192891 0.000000
391.672970 -93.795174 -0.172913 0.000000
392.719150 -92.839737 -0.134728 0.000000
393.242370 -92.364975 -0.116603 0.000000
393.762910 -91.888100 -0.098869 0.000000
394.226260 -91.350067 -0.077672 0.000000
394.770570 -90.900055 -0.062753 0.000000
385.091060 -93.715263 0.698468 0.000000
378.870910 -92.020462 1.442283 0.000000
393.918910 -99.386597 1.523065 0.000000
388.488530 -93.011795 1.566734 0.000000
386.052060 -91.720734 2.332676 0.000000
388.440400 -94.166283 2.393732 0.000000
387.842100 -92.117569 2.380646 0.000000
381.600920 -89.970612 2.913570 0.000000
387.109680 -93.393646 3.179676 0.000000
387.457890 -92.735558 3.182146 0.000000
385.144560 -92.693886 3.879058 0.000000
393.771450 -100.674930 3.562785 0.000000
376.310420 -89.963806 4.044118 0.000000
378.172420 -89.046494 4.072987 0.000000
386.983920 -97.167831 4.132792 0.000000
386.995640 -93.251854 3.990926 0.000000
387.199710 -92.383919 3.970839 0.000000
385.943700 -91.652496 4.659251 0.000000
392.442930 -98.805489 4.464797 0.000000
386.525050 -91.408661 4.682883 0.000000
393.235660 -98.561562 4.498472 0.000000
385.875550 -95.270889 4.854500 0.000000
381.229100 -89.364319 4.936914 0.000000
382.301970 -90.192070 5.072245 0.000000
386.174900 -94.459824 4.826910 0.000000
386.695340 -94.041870 4.835369 0.000000
383.933870 -91.911034 5.314520 0.000000
381.100220 -89.152115 5.594285 0.000000
386.509490 -95.059921 5.731220 0.000000
387.363920 -95.159332 5.800027 0.000000
377.906010 -89.881866 6.113087 0.000000
384.708400 -94.618881 6.399332 0.000000
385.287930 -94.319061 6.416893 0.000000
392.391600 -101.715810 6.647535 0.000000
382.238770 -89.007477 6.365093 0.000000
386.019620 -93.021362 6.356113 0.000000
387.192500 -94.957809 7.498848 0.000000
392.246580 -101.534970 7.666997 0.000000
393.136080 -101.385580 7.731186 0.000000
389.380550 -99.976074 8.267218 0.000000
393.969850 -103.251710 -0.601244 0.000000
382.917050 -89.217789 -0.408665 0.000000
393.547210 -101.122210 -0.481315 0.000000
371.232180 -104.148790 -0.661649 0.000000
371.899410 -103.557420 -0.618061 0.000000
376.765260 -102.370850 -0.507898 0.000000
377.389340 -101.937610 -0.478705 0.000000
380.426540 -102.145310 -0.482462 0.000000
392.898100 -98.792023 -0.348957 0.000000
392.322300 -96.697418 -0.230615 0.000000
392.610080 -95.861282 -0.189331 0.000000
393.133790 -95.353722 -0.168681 0.000000
394.164700 -94.330826 -0.128428 0.000000
394.668240 -93.810760 -0.108527 0.000000
395.164250 -93.285576 -0.088811 0.000000
395.706630 -92.812813 -0.072955 0.000000
390.896550 -101.471450 0.511259 0.000000
378.820400 -92.036659 1.489011 0.000000
386.161350 -90.279831 1.630645 0.000000
390.169890 -94.980804 1.605606 0.000000
385.818420 -91.950394 2.347743 0.000000
386.257350 -91.521942 2.359334 0.000000
387.223720 -91.881981 2.385490 0.000000
387.983250 -91.895889 2.406256 0.000000
381.362490 -89.859085 2.896226 0.000000
387.236020 -93.059418 3.175943 0.000000
390.897920 -100.108290 3.448691 0.000000
388.298100 -93.505280 3.225626 0.000000
393.709350 -100.102260 3.558526 0.000000
382.697720 -91.270554 3.679234 0.000000
384.695500 -93.713715 3.868139 0.000000
386.206150 -92.634705 3.899693 0.000000
387.069610 -92.835495 3.950523 0.000000
387.374050 -92.166962 3.941688 0.000000
378.149230 -89.058174 4.015689 0.000000
389.601960 -100.981760 4.383001 0.000000
386.224550 -91.564224 4.614562 0.000000
392.723450 -98.732536 4.456221 0.000000
385.623470 -95.425964 4.798088 0.000000
381.054960 -89.348999 4.839601 0.000000
381.726620 -89.504456 4.895929 0.000000
385.979980 -94.739426 4.778992 0.000000
386.443390 -94.259293 4.779051 0.000000
387.299130 -94.419624 4.840074 0.000000
380.999790 -89.271637 5.487625 0.000000
386.283260 -95.302155 5.656276 0.000000
386.837430 -94.951897 5.668723 0.000000
387.008910 -93.988441 5.608669 0.000000
384.846860 -92.840637 6.135125 0.000000
391.234130 -99.332108 6.317189 0.000000
385.178530 -94.694473 6.340226 0.000000
393.310000 -101.056110 6.599962 0.000000
389.923130 -98.705391 7.110641 0.000000
389.592990 -99.592377 7.166370 0.000000
386.789030 -94.942795 7.328280 0.000000
387.579590 -94.975342 7.407411 0.000000
392.747590 -101.711780 7.631912 0.000000
393.480770 -101.351530 7.663221 0.000000
389.036130 -100.168790 8.135108 0.000000
395.465360 -106.066160 -0.724770 0.000000
383.118100 -90.694153 -0.465087 0.000000
394.607570 -103.180360 -0.554561 0.000000
371.472350 -103.079330 -0.657104 0.000000
372.880920 -103.209720 -0.644083 0.000000
376.185910 -101.998390 -0.524736 0.000000
379.623900 -101.558540 -0.466477 0.000000
371.542390 -91.418419 -0.518575 0.000000
383.342930 -89.997627 -0.413251 0.000000
394.199220 -101.124530 -0.434803 0.000000
383.635310 -89.449394 -0.374482 0.000000
393.539580 -98.832596 -0.300841 0.000000
393.366000 -97.328156 -0.214935 0.000000
393.936160 -96.866432 -0.193044 0.000000
394.998780 -95.851295 -0.145271 0.000000
395.544860 -95.365669 -0.123547 0.000000
390.760860 -101.609560 0.516679 0.000000
393.785580 -99.268982 1.588768 0.000000
382.837280 -89.213478 1.587889 0.000000
388.649540 -93.141663 1.617991 0.000000
385.367100 -89.313560 1.634821 0.000000
386.163240 -91.604515 2.327381 0.000000
387.180820 -92.093376 2.357870 0.000000
387.879030 -92.056854 2.380025 0.000000
381.426210 -89.915367 2.830560 0.000000
387.517270 -93.774590 3.145438 0.000000
388.094060 -93.515434 3.166278 0.000000
376.546450 -91.473892 3.324560 0.000000
393.751950 -100.667960 3.522710 0.000000
386.723420 -93.712952 3.883198 0.000000
387.042020 -93.065422 3.878036 0.000000
387.293820 -92.340286 3.867263 0.000000
385.524750 -95.424385 4.675716 0.000000
380.514890 -89.308960 4.658013 0.000000
385.904660 -94.812317 4.665202 0.000000
381.062190 -89.295937 4.693843 0.000000
381.724580 -89.488106 4.754267 0.000000
386.354800 -94.344078 4.667955 0.000000
393.451540 -100.277340 4.476781 0.000000
386.117830 -91.645409 4.507898 0.000000
393.207820 -98.594025 4.407861 0.000000
389.631840 -98.529236 5.104899 0.000000
386.228120 -95.432289 5.523680 0.000000
386.710850 -94.995705 5.527206 0.000000
392.843510 -100.813720 5.438592 0.000000
386.839140 -93.985298 5.463312 0.000000
386.672550 -91.471214 5.270880 0.000000
383.752170 -94.781303 6.068516 0.000000
384.802800 -92.934875 5.977924 0.000000
391.073880 -99.520630 6.188616 0.000000
384.701230 -95.344597 6.991703 0.000000
389.557070 -99.914871 7.031404 0.000000
386.077700 -95.253738 7.108910 0.000000
389.683590 -98.710052 6.931817 0.000000
385.725770 -95.935806 7.153308 0.000000
392.152830 -101.277810 7.384372 0.000000
392.982060 -101.124370 7.446113 0.000000
389.042050 -99.082214 7.823682 0.000000
389.675230 -98.744720 7.848652 0.000000
390.739650 -105.293560 -0.595683 0.000000
395.688900 -107.152240 -0.718178 0.000000
382.880220 -92.689125 -0.533798 0.000000
395.375700 -103.521910 -0.510400 0.000000
372.490420 -104.181530 -0.639977 0.000000
373.137970 -103.642990 -0.596192 0.000000
379.248080 -102.561440 -0.461013 0.000000
388.785160 -104.961320 -0.574223 0.000000
383.395940 -91.309967 -0.430868 0.000000
383.638030 -90.645340 -0.382096 0.000000
394.946140 -101.460620 -0.392091 0.000000
384.264500 -90.684532 -0.393461 0.000000
384.509640 -90.060661 -0.349091 0.000000
394.543490 -99.552444 -0.283118 0.000000
384.692990 -89.364334 -0.298863 0.000000
394.634920 -98.409515 -0.220572 0.000000
395.602080 -97.243439 -0.164652 0.000000
385.253360 -93.662315 0.827227 0.000000
391.288420 -96.271500 1.617997 0.000000
395.481110 -108.636980 1.448626 0.000000
386.056300 -91.703758 2.313542 0.000000
386.475460 -91.318245 2.326855 0.000000
387.364650 -91.644524 2.353525 0.000000
388.159240 -91.787056 2.377843 0.000000
387.098790 -93.431198 3.088797 0.000000
387.861150 -93.516357 3.122224 0.000000
388.537600 -93.441963 3.149813 0.000000
394.098360 -100.419170 3.502455 0.000000
375.847350 -89.974648 3.771549 0.000000
384.304990 -97.371124 3.846423 0.000000
384.889160 -94.388321 3.758555 0.000000
385.033810 -91.149559 3.645418 0.000000
386.884520 -93.120644 3.813853 0.000000
387.228180 -92.564079 3.812559 0.000000
381.713470 -91.753769 4.166045 0.000000
383.892850 -92.522049 4.335850 0.000000
392.896240 -98.721970 4.337114 0.000000
386.442170 -96.043793 4.689756 0.000000
380.554690 -89.256966 4.556260 0.000000
381.052950 -89.192169 4.583666 0.000000
386.177610 -94.302101 4.575432 0.000000
392.895110 -100.036700 4.381990 0.000000
386.737150 -92.918221 4.534502 0.000000
387.541380 -93.090630 4.596326 0.000000
378.571930 -89.445862 5.042815 0.000000
389.774690 -99.210098 5.073621 0.000000
383.221410 -92.458603 4.984321 0.000000
386.479130 -91.462631 5.147220 0.000000
378.156590 -91.145836 5.193085 0.000000
378.563390 -90.819344 5.184267 0.000000
386.165410 -95.578140 5.429007 0.000000
380.644170 -89.490112 5.191227 0.000000
386.486110 -94.886696 5.399903 0.000000
381.730830 -89.510445 5.275519 0.000000
386.676940 -94.005470 5.348249 0.000000
383.659760 -92.152939 5.683800 0.000000
384.748050 -93.011429 5.854126 0.000000
381.794530 -96.345200 5.963996 0.000000
385.663640 -93.474594 5.973916 0.000000
392.211270 -101.875210 6.344828 0.000000
384.112240 -93.062012 6.526850 0.000000
390.711760 -100.893100 7.097351 0.000000
391.375920 -100.561460 7.124343 0.000000
386.371310 -94.766251 6.931667 0.000000
387.024750 -94.675743 6.984205 0.000000
388.074580 -95.215790 7.147692 0.000000
392.521210 -100.980710 7.264331 0.000000
392.881230 -101.594250 8.333927 0.000000
385.132900 -94.919052 -0.623541 0.000000
380.108060 -89.001259 -0.680941 0.000000
385.261690 -91.636002 -0.378372 0.000000
379.160130 -105.147140 -0.501480 0.000000
371.494050 -94.665329 -0.590103 0.000000
388.940730 -105.926410 -0.527221 0.000000
384.626130 -91.590820 -0.364903 0.000000
385.491060 -90.979530 -0.333586 0.000000
395.428500 -100.244860 -0.250857 0.000000
385.653810 -90.245552 -0.282523 0.000000
385.917480 -89.701805 -0.247835 0.000000
386.066310 -89.007050 -0.200548 0.000000
390.888120 -101.487500 0.632537 0.000000
385.928680 -91.830803 2.315789 0.000000
386.329350 -91.447021 2.326423 0.000000
387.268770 -91.905762 2.353103 0.000000
387.951050 -91.924660 2.372403 0.000000
387.085300 -93.801437 3.079316 0.000000
384.944700 -91.236023 2.945524 0.000000
387.270540 -92.994675 3.070581 0.000000
388.252690 -93.462318 3.118568 0.000000
382.577820 -91.194534 3.491242 0.000000
393.763890 -100.637790 3.476602 0.000000
384.936800 -91.252487 3.604221 0.000000
384.234340 -97.459610 3.826681 0.000000
386.743100 -93.259506 3.771784 0.000000
387.094970 -92.742599 3.769627 0.000000
387.467930 -92.274757 3.771061 0.000000
381.713590 -91.772751 4.116123 0.000000
382.014860 -91.213257 4.097105 0.000000
392.551090 -98.863129 4.282249 0.000000
393.232510 -98.602951 4.309013 0.000000
385.216090 -95.339005 4.523768 0.000000
385.692780 -94.977509 4.528923 0.000000
387.262420 -96.615784 4.717060 0.000000
388.003690 -96.650261 4.762921 0.000000
380.527560 -89.108498 4.464938 0.000000
381.026340 -89.099457 4.494817 0.000000
386.548220 -92.964035 4.461229 0.000000
387.263120 -93.045609 4.510058 0.000000
387.978150 -93.098610 4.558147 0.000000
378.651120 -90.718040 5.092605 0.000000
380.665040 -89.453461 5.088968 0.000000
381.728090 -89.526382 5.172459 0.000000
385.536380 -92.363930 5.055704 0.000000
386.268520 -91.467728 5.040173 0.000000
386.011260 -95.619720 5.343709 0.000000
386.197780 -94.709778 5.284711 0.000000
390.080750 -98.942352 5.887279 0.000000
383.697050 -92.391754 5.607065 0.000000
384.748960 -93.251144 5.773133 0.000000
386.532380 -95.356529 6.120471 0.000000
383.780760 -93.829643 6.465372 0.000000
384.302150 -93.630814 6.485523 0.000000
385.168670 -94.086273 6.615071 0.000000
386.711820 -94.492477 6.802309 0.000000
386.423000 -92.849518 6.585866 0.000000
383.148250 -96.634682 6.758904 0.000000
383.851990 -96.757721 6.828443 0.000000
389.612520 -99.546288 6.776351 0.000000
392.199490 -101.107070 7.142012 0.000000
386.233430 -94.845787 6.799641 0.000000
394.809970 -106.951290 7.917604 0.000000
392.466740 -101.581830 8.161984 0.000000
393.379550 -101.622140 8.256498 0.000000
385.935910 -94.382072 -0.541643 0.000000
378.397340 -105.207570 -0.512807 0.000000
370.774900 -94.862549 -0.604982 0.000000
388.367100 -105.451780 -0.482022 0.000000
385.305450 -92.079880 -0.356864 0.000000
385.521790 -91.408508 -0.308955 0.000000
386.146360 -91.449707 -0.321717 0.000000
386.370240 -90.825310 -0.278656 0.000000
386.529540 -90.127762 -0.229635 0.000000
386.819980 -89.656029 -0.200237 0.000000
387.164790 -89.276039 -0.179164 0.000000
379.458100 -91.111618 0.356616 0.000000
385.005100 -93.868507 0.883356 0.000000
385.658570 -91.774918 2.271094 0.000000
386.160400 -91.599548 2.285516 0.000000
387.117430 -92.150146 2.313213 0.000000
387.418730 -91.622223 2.322283 0.000000
388.148830 -91.751350 2.343890 0.000000
384.909180 -91.526291 2.888925 0.000000
387.458010 -93.807205 3.032860 0.000000
387.861240 -93.381287 3.041307 0.000000
388.549590 -93.407326 3.070051 0.000000
376.351100 -90.306366 3.123386 0.000000
393.971980 -100.477910 3.420868 0.000000
376.457860 -88.957039 3.586817 0.000000
383.733400 -93.883659 3.566869 0.000000
386.056300 -92.534950 3.624865 0.000000
386.860380 -92.838341 3.677173 0.000000
387.276610 -92.471169 3.685110 0.000000
381.685240 -91.822502 4.008260 0.000000
380.517820 -89.073135 4.331204 0.000000
392.756870 -99.974541 4.248377 0.000000
386.356900 -93.094414 4.348581 0.000000
392.822330 -98.800323 4.209743 0.000000
386.152470 -91.681770 4.255932 0.000000
387.635990 -93.084549 4.428068 0.000000
385.033260 -95.377930 4.404653 0.000000
387.094670 -96.843750 4.609364 0.000000
385.528630 -95.092209 4.415653 0.000000
386.471190 -94.439011 4.432663 0.000000
386.045870 -94.888176 5.154505 0.000000
381.112090 -89.369614 4.958337 0.000000
381.671510 -89.516296 5.013405 0.000000
386.319370 -94.198601 5.120141 0.000000
386.743380 -93.805923 5.120341 0.000000
386.032810 -91.512512 4.895028 0.000000
393.448670 -98.529900 5.106022 0.000000
376.557740 -89.511581 5.238098 0.000000
385.815340 -95.700584 5.202493 0.000000
383.881930 -91.894722 5.416132 0.000000
378.374660 -91.150742 5.556305 0.000000
386.763640 -95.047058 5.951625 0.000000
386.767790 -93.884201 5.840536 0.000000
384.849090 -92.681015 6.240998 0.000000
384.627690 -94.654770 6.455287 0.000000
390.685460 -99.385193 6.691316 0.000000
386.321410 -94.275673 6.560362 0.000000
386.257170 -93.023148 6.410101 0.000000
389.964810 -102.394290 6.920507 0.000000
391.401210 -100.635090 7.767787 0.000000
392.734500 -101.456150 7.990485 0.000000
393.876130 -101.887640 8.152623 0.000000
381.390560 -89.160408 -0.545329 0.000000
387.121890 -94.138870 -0.459774 0.000000
381.759160 -88.935852 -0.530196 0.000000
377.526670 -106.773770 -0.548545 0.000000
371.319920 -95.532562 -0.574469 0.000000
386.513640 -92.011429 -0.290853 0.000000
387.460570 -92.578705 -0.349022 0.000000
387.291500 -91.321678 -0.253395 0.000000
387.433990 -90.610825 -0.204158 0.000000
387.928190 -90.446167 -0.202040 0.000000
388.218260 -89.985298 -0.174992 0.000000
388.538730 -89.577988 -0.152988 0.000000
389.676790 -89.414162 -0.167801 0.000000
389.986270 -88.992317 -0.146250 0.000000
391.179720 -101.432430 0.675687 0.000000
375.461730 -89.902016 0.977180 0.000000
385.087250 -93.821175 0.919742 0.000000
383.055600 -90.762756 1.020138 0.000000
381.714690 -88.954590 1.612672 0.000000
388.842860 -94.944092 1.623919 0.000000
382.849330 -94.013634 2.186322 0.000000
377.785160 -89.137207 2.052881 0.000000
385.684230 -91.703003 2.256238 0.000000
386.181370 -91.560867 2.269737 0.000000
387.141020 -92.172318 2.296922 0.000000
387.414640 -91.629791 2.304257 0.000000
388.105410 -91.743347 2.323947 0.000000
394.525760 -100.242680 2.510600 0.000000
384.893010 -91.318954 2.845820 0.000000
387.451350 -93.770203 2.992453 0.000000
387.926210 -93.497238 3.005596 0.000000
388.502010 -93.383629 3.026219 0.000000
382.600280 -94.876564 3.505462 0.000000
381.575560 -90.967926 3.295646 0.000000
385.772220 -92.988998 3.566683 0.000000
393.842740 -100.532460 3.375711 0.000000
386.056610 -92.429291 3.558246 0.000000
386.877110 -92.815163 3.613623 0.000000
387.270630 -92.445557 3.619159 0.000000
395.230350 -108.797820 3.590941 0.000000
385.417240 -97.282150 3.726061 0.000000
381.402040 -91.823242 3.917097 0.000000
379.972290 -89.296661 3.687661 0.000000
386.365600 -93.013870 4.258396 0.000000
391.353790 -97.944283 4.035874 0.000000
392.743590 -98.890564 4.143485 0.000000
384.640260 -90.906929 4.033279 0.000000
394.559570 -100.367720 4.293866 0.000000
386.199710 -91.680458 4.171067 0.000000
387.602360 -93.024124 4.334074 0.000000
387.176970 -96.901047 4.535376 0.000000
385.894840 -95.636154 4.387437 0.000000
386.097630 -91.534233 4.789731 0.000000
387.934110 -101.300470 4.843578 0.000000
380.172520 -89.910606 4.828466 0.000000
385.843230 -95.567802 5.089198 0.000000
386.093810 -94.825386 5.046453 0.000000
380.528440 -89.633850 4.821902 0.000000
380.879940 -89.358124 4.816143 0.000000
386.305080 -94.049812 4.999502 0.000000
381.295620 -89.243683 4.832380 0.000000
381.925080 -89.601868 4.912917 0.000000
393.252170 -98.478943 4.999247 0.000000
377.806700 -91.150795 5.391108 0.000000
378.275910 -91.200562 5.423789 0.000000
383.746800 -92.456039 5.333405 0.000000
383.968440 -91.779434 5.281723 0.000000
387.981410 -101.446140 5.700670 0.000000
386.287780 -95.239571 5.802168 0.000000
386.821170 -95.049744 5.825029 0.000000
386.830440 -93.912476 5.714971 0.000000
391.636380 -102.501700 6.028682 0.000000
384.706730 -94.540787 6.298071 0.000000
385.133700 -94.192284 6.291686 0.000000
392.480710 -101.131400 5.984265 0.000000
393.243380 -101.024950 6.032898 0.000000
385.008420 -92.773186 6.111501 0.000000
383.285770 -96.817108 6.469042 0.000000
384.909120 -96.308693 6.529641 0.000000
391.477630 -100.843280 6.763306 0.000000
389.150790 -99.451950 7.266364 0.000000
389.740300 -99.178741 7.287856 0.000000
391.309910 -100.594590 7.597476 0.000000
392.575780 -101.370390 7.806759 0.000000
393.504180 -101.521130 7.914393 0.000000
395.753110 -107.146000 -0.482239 0.000000
381.596010 -90.640198 -0.597556 0.000000
388.499270 -97.050171 -0.621426 0.000000
381.847600 -90.108566 -0.548944 0.000000
382.057980 -89.516556 -0.494338 0.000000
387.908110 -94.802734 -0.443625 0.000000
382.418820 -89.294968 -0.479447 0.000000
375.299620 -97.239067 -0.599791 0.000000
390.395480 -106.975390 -0.453687 0.000000
392.693390 -108.201390 -0.528689 0.000000
387.816310 -93.562225 -0.349622 0.000000
388.296630 -93.334534 -0.340959 0.000000
388.240780 -92.257812 -0.260906 0.000000
388.328950 -91.459244 -0.204445 0.000000
389.068330 -90.766273 -0.169753 0.000000
389.381840 -90.349907 -0.147092 0.000000
389.693420 -89.939590 -0.125383 0.000000
390.547120 -90.221420 -0.165164 0.000000
