# .PCD v0.7 - Point Cloud Data file format
VERSION 0.7
FIELDS x y z intensity
SIZE 4 4 4 4
TYPE F F F F
COUNT 1 1 1 1
WIDTH 1182
HEIGHT 1
VIEWPOINT 0 0 0 1 0 0 0
POINTS 1182
DATA ascii
381.658940 -59.128296 -0.159558 0.000000
386.020510 -62.588131 -0.102624 0.000000
386.433720 -62.674973 -0.092435 0.000000
377.321620 -55.123009 -0.147017 0.000000
382.159330 -58.980728 -0.161865 0.000000
386.843050 -62.772728 -0.082170 0.000000
387.247190 -62.883598 -0.071851 0.000000
387.647060 -63.002808 -0.061736 0.000000
387.894620 -63.194527 -0.041938 0.000000
377.777250 -55.119843 -0.132331 0.000000
382.646000 -58.721336 -0.176890 0.000000
388.169950 -63.189487 -0.047043 0.000000
388.421510 -63.321629 -0.035770 0.000000
388.802030 -63.474361 -0.025639 0.000000
389.150600 -63.751888 -0.001045 0.000000
378.091670 -54.683388 -0.154958 0.000000
383.005130 -58.772751 -0.164769 0.000000
378.487880 -54.484573 -0.158013 0.000000
383.688810 -58.616554 -0.168999 0.000000
378.949490 -54.512341 -0.142823 0.000000
384.035710 -58.574455 -0.168432 0.000000
384.387820 -58.610672 -0.160609 0.000000
384.741460 -58.729378 -0.145150 0.000000
379.274350 -54.029659 -0.170613 0.000000
385.262970 -58.933228 -0.120760 0.000000
385.774540 -59.153458 -0.096092 0.000000
386.108800 -59.302223 -0.080339 0.000000
370.792050 -47.444191 -0.192472 0.000000
371.578740 -47.723167 -0.153189 0.000000
379.752720 -54.131832 -0.150676 0.000000
386.437990 -59.455032 -0.064827 0.000000
386.762270 -59.609344 -0.049798 0.000000
387.082860 -59.750977 -0.036667 0.000000
380.414980 -54.091492 -0.138232 0.000000
387.728270 -59.893425 -0.026422 0.000000
388.049260 -59.963333 -0.022358 0.000000
388.351100 -60.154198 -0.006668 0.000000
372.112820 -47.470154 -0.149587 0.000000
381.082860 -54.105507 -0.122820 0.000000
388.834050 -60.213703 -0.007279 0.000000
389.276340 -60.484005 0.012334 0.000000
389.564540 -60.668682 0.025145 0.000000
372.587460 -47.071396 -0.155949 0.000000
381.525600 -54.125660 -0.112646 0.000000
381.971530 -54.189232 -0.099709 0.000000
382.436250 -54.431297 -0.073233 0.000000
373.330380 -47.338146 -0.120659 0.000000
382.892030 -54.687901 -0.046414 0.000000
383.339390 -54.968327 -0.018492 0.000000
383.775120 -55.244225 0.008298 0.000000
384.199710 -55.514252 0.033881 0.000000
373.896090 -47.181152 -0.113173 0.000000
374.700560 -47.706200 -0.063972 0.000000
375.397340 -47.992283 -0.030906 0.000000
376.077180 -48.281792 0.001275 0.000000
376.803960 -48.789558 0.045674 0.000000
370.879730 -62.454681 0.025910 0.000000
371.134830 -62.168999 0.025867 0.000000
371.303990 -61.779892 0.014019 0.000000
371.510010 -61.425415 0.005837 0.000000
372.041080 -61.472801 0.040155 0.000000
372.216090 -61.075859 0.026447 0.000000
376.103390 -63.899349 0.032452 0.000000
372.503910 -60.819511 0.027168 0.000000
372.671810 -60.392487 0.010045 0.000000
376.606230 -63.253670 0.009179 0.000000
376.734770 -62.851814 -0.017813 0.000000
373.191310 -59.768681 -0.001494 0.000000
377.015050 -62.709408 -0.014130 0.000000
373.409270 -59.379738 -0.015300 0.000000
377.173100 -62.331959 -0.038507 0.000000
392.572140 -63.241734 0.178733 0.000000
392.793210 -63.459564 0.189133 0.000000
393.117740 -63.784760 0.203787 0.000000
389.849240 -60.850487 0.037131 0.000000
390.915740 -61.685463 0.091202 0.000000
391.165100 -61.911629 0.105377 0.000000
391.410060 -62.136078 0.118936 0.000000
391.650420 -62.359947 0.132009 0.000000
392.002930 -62.692596 0.150452 0.000000
392.347560 -63.022755 0.167814 0.000000
384.613890 -55.781055 0.058497 0.000000
385.018010 -56.044224 0.082140 0.000000
385.412570 -56.297363 0.104332 0.000000
385.798220 -56.544998 0.125454 0.000000
386.175450 -56.789322 0.145702 0.000000
386.544650 -57.030838 0.165131 0.000000
386.906740 -57.259853 0.183004 0.000000
387.262210 -57.481705 0.199753 0.000000
387.611110 -57.701675 0.215809 0.000000
387.953670 -57.919930 0.231199 0.000000
388.291140 -58.129646 0.245400 0.000000
388.623540 -58.334648 0.258720 0.000000
388.950620 -58.539078 0.271499 0.000000
389.272770 -58.741966 0.283668 0.000000
389.589940 -58.944687 0.295347 0.000000
377.497860 -49.269058 0.087173 0.000000
390.056520 -59.247032 0.311791 0.000000
391.458040 -59.968475 0.340142 0.000000
391.766330 -60.117912 0.344241 0.000000
392.019070 -60.419254 0.360382 0.000000
395.386110 -62.881107 0.419389 0.000000
395.740480 -63.221943 0.426263 0.000000
378.113160 -49.533714 0.114672 0.000000
378.735290 -49.888626 0.146649 0.000000
379.338070 -50.234936 0.177185 0.000000
379.922700 -50.574173 0.206419 0.000000
380.492950 -50.921593 0.235287 0.000000
392.424900 -60.292309 0.340675 0.000000
392.676240 -60.581520 0.354931 0.000000
392.981510 -60.724739 0.356586 0.000000
393.271120 -60.902531 0.360674 0.000000
393.542390 -61.116539 0.367395 0.000000
393.922490 -61.479298 0.380270 0.000000
394.296810 -61.837082 0.391982 0.000000
394.542790 -62.072716 0.399051 0.000000
394.786590 -62.305828 0.405530 0.000000
395.028050 -62.537254 0.411490 0.000000
381.045750 -51.258575 0.262730 0.000000
381.578890 -51.563797 0.287550 0.000000
382.093750 -51.831478 0.309468 0.000000
382.594700 -52.079174 0.329548 0.000000
383.083400 -52.309669 0.347985 0.000000
383.561580 -52.528954 0.365151 0.000000
384.030910 -52.749603 0.381790 0.000000
384.494320 -53.035202 0.401541 0.000000
384.948460 -53.374794 0.423778 0.000000
385.390590 -53.746849 0.447279 0.000000
371.282780 -42.139481 0.405509 0.000000
372.197880 -42.640450 0.439783 0.000000
387.136380 -53.532928 0.439638 0.000000
387.546050 -53.895576 0.460034 0.000000
386.281560 -52.806824 0.397272 0.000000
386.715390 -53.159882 0.418151 0.000000
373.364040 -41.911198 0.438197 0.000000
374.306490 -42.662567 0.479562 0.000000
388.834690 -54.018288 0.463654 0.000000
389.223270 -54.336601 0.479627 0.000000
372.366580 -41.109844 0.393688 0.000000
390.280400 -50.627045 0.265955 0.000000
390.897190 -50.012383 0.227340 0.000000
391.342990 -50.359753 0.242962 0.000000
391.780180 -50.705307 0.257985 0.000000
392.434750 -50.112553 0.218531 0.000000
395.126920 -51.662701 0.263778 0.000000
395.508730 -52.061901 0.277921 0.000000
394.339970 -50.850960 0.233474 0.000000
394.738010 -51.257469 0.248872 0.000000
385.819550 -54.128075 0.470742 0.000000
387.945160 -54.248466 0.479394 0.000000
388.333470 -54.599556 0.498186 0.000000
378.727260 -62.524445 -0.053638 0.000000
378.889650 -62.101532 -0.083180 0.000000
375.237580 -58.839806 -0.068866 0.000000
379.117740 -61.806015 -0.098369 0.000000
379.405580 -61.642525 -0.099108 0.000000
382.355040 -63.802689 -0.120299 0.000000
375.394990 -58.272087 -0.099386 0.000000
375.795260 -58.151421 -0.088368 0.000000
379.550320 -61.098267 -0.142507 0.000000
382.867030 -63.559700 -0.128848 0.000000
383.136320 -63.486462 -0.127854 0.000000
379.852840 -60.944759 -0.142894 0.000000
380.149780 -60.770416 -0.146124 0.000000
383.407320 -63.419025 -0.126749 0.000000
383.679780 -63.356998 -0.125589 0.000000
375.926790 -57.481369 -0.128368 0.000000
376.372890 -57.445961 -0.110603 0.000000
380.451290 -60.602348 -0.149213 0.000000
383.955050 -63.309822 -0.123201 0.000000
384.228760 -63.249943 -0.123029 0.000000
380.756990 -60.440025 -0.152234 0.000000
384.504970 -63.204800 -0.121654 0.000000
384.782170 -63.165192 -0.120226 0.000000
376.598750 -56.925217 -0.137216 0.000000
381.065730 -60.279942 -0.155571 0.000000
381.407650 -60.235802 -0.147199 0.000000
385.060610 -63.135498 -0.118214 0.000000
377.035680 -56.871365 -0.122433 0.000000
381.702060 -60.004997 -0.159165 0.000000
385.622620 -63.164711 -0.105242 0.000000
385.902340 -63.188400 -0.098630 0.000000
386.181000 -63.217358 -0.092027 0.000000
377.279110 -56.345612 -0.149943 0.000000
382.025600 -59.878048 -0.160742 0.000000
386.458500 -63.251862 -0.085396 0.000000
386.872100 -63.314034 -0.075468 0.000000
377.689760 -56.220493 -0.142627 0.000000
382.517120 -59.699974 -0.163026 0.000000
387.282780 -63.387520 -0.065438 0.000000
387.689210 -63.476254 -0.055133 0.000000
388.088170 -63.610184 -0.040565 0.000000
388.333980 -63.837730 -0.014800 0.000000
378.138490 -56.203892 -0.126641 0.000000
382.993010 -59.410248 -0.178015 0.000000
388.605560 -63.837700 -0.017405 0.000000
378.432620 -55.748711 -0.149028 0.000000
383.350950 -59.439919 -0.165897 0.000000
370.889130 -49.752739 -0.167957 0.000000
378.812930 -55.523258 -0.152125 0.000000
383.848630 -59.224648 -0.175650 0.000000
379.262660 -55.515606 -0.137410 0.000000
384.722870 -59.173931 -0.163520 0.000000
371.196720 -49.076412 -0.189209 0.000000
379.537900 -54.908215 -0.173657 0.000000
385.258150 -59.363365 -0.136301 0.000000
385.783360 -59.557392 -0.110087 0.000000
386.126980 -59.693813 -0.092854 0.000000
371.921170 -49.223713 -0.155175 0.000000
379.996950 -54.925533 -0.158110 0.000000
386.465700 -59.829842 -0.076356 0.000000
386.799590 -59.970284 -0.060094 0.000000
387.455960 -60.207325 -0.033925 0.000000
387.776000 -60.364635 -0.017937 0.000000
372.247410 -48.548016 -0.177043 0.000000
380.648740 -54.835312 -0.145955 0.000000
388.111240 -60.301399 -0.024556 0.000000
388.437230 -60.354256 -0.020234 0.000000
388.747040 -60.530888 -0.004189 0.000000
381.310490 -54.805870 -0.130255 0.000000
389.084320 -60.482483 -0.011224 0.000000
389.984280 -61.011871 0.031484 0.000000
390.274960 -61.192089 0.044964 0.000000
372.708280 -48.135895 -0.181644 0.000000
373.444000 -48.359192 -0.145423 0.000000
381.750890 -54.800171 -0.119630 0.000000
382.189390 -54.799217 -0.109353 0.000000
382.629850 -54.827900 -0.097413 0.000000
383.094090 -55.053612 -0.070468 0.000000
383.554570 -55.332214 -0.040166 0.000000
384.002900 -55.605572 -0.011129 0.000000
373.918610 -47.977119 -0.149379 0.000000
384.439730 -55.874870 0.016770 0.000000
384.865600 -56.139397 0.043509 0.000000
374.641630 -48.230118 -0.113392 0.000000
375.248570 -48.212166 -0.095708 0.000000
375.952760 -48.499676 -0.059822 0.000000
376.711760 -49.014458 -0.011052 0.000000
377.435850 -49.500732 0.034600 0.000000
378.072750 -49.766289 0.065545 0.000000
371.722930 -63.836399 0.027107 0.000000
371.955660 -63.543015 0.027049 0.000000
372.104860 -63.153297 0.015531 0.000000
372.289060 -62.793900 0.007449 0.000000
372.793430 -62.810310 0.040935 0.000000
372.948670 -62.411442 0.027584 0.000000
373.214540 -62.142982 0.028250 0.000000
373.389830 -61.750698 0.015390 0.000000
373.959110 -61.241890 0.017814 0.000000
374.154020 -60.849403 0.004362 0.000000
377.797850 -63.482845 -0.022424 0.000000
378.049040 -63.290932 -0.024044 0.000000
374.219120 -60.241661 -0.030619 0.000000
374.625700 -60.152786 -0.014101 0.000000
378.191040 -62.878998 -0.051914 0.000000
378.456150 -62.697220 -0.053039 0.000000
374.780360 -59.651112 -0.038544 0.000000
375.139310 -59.481167 -0.031058 0.000000
393.259220 -63.856361 0.219558 0.000000
390.550020 -61.421677 0.062881 0.000000
390.951510 -61.764305 0.088573 0.000000
391.343260 -62.102203 0.112805 0.000000
391.597840 -62.325844 0.128160 0.000000
391.847900 -62.547752 0.142875 0.000000
392.093260 -62.769135 0.157082 0.000000
392.453090 -63.097786 0.177155 0.000000
392.804630 -63.424477 0.196156 0.000000
393.033750 -63.640984 0.208125 0.000000
385.281070 -56.400318 0.069211 0.000000
385.686310 -56.648750 0.093210 0.000000
386.082400 -56.894077 0.116269 0.000000
386.469730 -57.135921 0.138384 0.000000
386.848940 -57.363873 0.158769 0.000000
387.220700 -57.584961 0.177994 0.000000
387.585330 -57.804359 0.196479 0.000000
387.943210 -58.020874 0.214152 0.000000
388.294800 -58.233421 0.230942 0.000000
388.641080 -58.436325 0.246425 0.000000
388.981720 -58.638443 0.261301 0.000000
389.316830 -58.840027 0.275603 0.000000
390.291840 -59.438637 0.314942 0.000000
390.609590 -59.626488 0.326146 0.000000
390.925990 -59.802086 0.335901 0.000000
391.256290 -59.908489 0.339727 0.000000
391.640720 -59.811836 0.327005 0.000000
392.072020 -60.196850 0.348738 0.000000
392.500310 -60.551014 0.367179 0.000000
393.145810 -60.771790 0.369906 0.000000
393.423650 -60.999207 0.379983 0.000000
393.687900 -61.249596 0.391519 0.000000
393.948490 -61.496838 0.402409 0.000000
394.332610 -61.861755 0.417485 0.000000
394.719480 -62.202950 0.429809 0.000000
394.959720 -62.455444 0.439622 0.000000
395.200290 -62.698795 0.448301 0.000000
395.443120 -62.930855 0.455646 0.000000
378.718290 -50.122761 0.100970 0.000000
379.343540 -50.471283 0.134868 0.000000
379.949220 -50.810673 0.167221 0.000000
380.542760 -51.171352 0.199881 0.000000
381.116150 -51.514999 0.230609 0.000000
381.669680 -51.834854 0.259069 0.000000
382.207520 -52.146992 0.286253 0.000000
382.721650 -52.387306 0.308496 0.000000
383.223660 -52.616505 0.329380 0.000000
383.713750 -52.828033 0.348563 0.000000
384.194580 -53.038025 0.366998 0.000000
384.668550 -53.275787 0.386367 0.000000
385.135280 -53.556690 0.407541 0.000000
385.594850 -53.944611 0.434112 0.000000
386.040470 -54.339005 0.460403 0.000000
371.009890 -42.604702 0.347817 0.000000
371.775700 -42.655769 0.368138 0.000000
372.698270 -43.150944 0.405498 0.000000
373.672850 -43.871277 0.450612 0.000000
386.476260 -53.105659 0.394920 0.000000
386.925380 -53.358650 0.412302 0.000000
387.361080 -53.743187 0.436450 0.000000
387.784420 -54.118500 0.459507 0.000000
388.196410 -54.480518 0.481273 0.000000
389.093080 -54.208031 0.467877 0.000000
373.976590 -42.736401 0.421431 0.000000
374.802520 -43.111385 0.451264 0.000000
375.300230 -42.476543 0.441239 0.000000
390.028900 -50.257256 0.248560 0.000000
390.498600 -50.559082 0.264902 0.000000
392.052860 -50.482033 0.255843 0.000000
392.698300 -49.903831 0.220782 0.000000
393.158630 -50.226418 0.235370 0.000000
393.589540 -50.635754 0.254283 0.000000
394.688200 -50.527061 0.238295 0.000000
395.118530 -50.894630 0.253197 0.000000
395.534240 -51.281570 0.268705 0.000000
394.247590 -50.166412 0.223276 0.000000
388.596890 -54.841801 0.502468 0.000000
378.439540 -63.673706 -0.028544 0.000000
378.697940 -63.479073 -0.029228 0.000000
378.833560 -63.040096 -0.058464 0.000000
375.007200 -60.008408 -0.037339 0.000000
379.042850 -62.725708 -0.073432 0.000000
375.126980 -59.421913 -0.067402 0.000000
379.318970 -62.538612 -0.074309 0.000000
375.514100 -59.266834 -0.056797 0.000000
379.430760 -61.978874 -0.117169 0.000000
379.711120 -61.773827 -0.120662 0.000000
375.601780 -58.577061 -0.096325 0.000000
379.949650 -61.458096 -0.136734 0.000000
383.665620 -63.854183 -0.120832 0.000000
383.940830 -63.785912 -0.118623 0.000000
375.997680 -58.424084 -0.086407 0.000000
380.212980 -61.187187 -0.148238 0.000000
380.512480 -60.999275 -0.151223 0.000000
384.213590 -63.703423 -0.118805 0.000000
384.490330 -63.637527 -0.117569 0.000000
376.106410 -57.712822 -0.127555 0.000000
380.816100 -60.815475 -0.154309 0.000000
384.768100 -63.574699 -0.116591 0.000000
385.047790 -63.520805 -0.115162 0.000000
376.531220 -57.601532 -0.114808 0.000000
381.156770 -60.736969 -0.146827 0.000000
385.618650 -63.505787 -0.103005 0.000000
385.903870 -63.510582 -0.096452 0.000000
381.440280 -60.475819 -0.159188 0.000000
386.188480 -63.521255 -0.089862 0.000000
386.472320 -63.537792 -0.083236 0.000000
376.741550 -57.038715 -0.142664 0.000000
381.922970 -60.248760 -0.161542 0.000000
386.755220 -63.559143 -0.076698 0.000000
387.037140 -63.586464 -0.070107 0.000000
387.457640 -63.640690 -0.059953 0.000000
377.147800 -56.878723 -0.135337 0.000000
377.590030 -56.805023 -0.121262 0.000000
382.412870 -60.033165 -0.163902 0.000000
387.874390 -63.737289 -0.046055 0.000000
388.148410 -63.826523 -0.034696 0.000000
383.080990 -59.778557 -0.165917 0.000000
377.853820 -56.300880 -0.144794 0.000000
383.391450 -59.516079 -0.181488 0.000000
378.224240 -56.037788 -0.148035 0.000000
378.679990 -55.997025 -0.133144 0.000000
383.757200 -59.525749 -0.170226 0.000000
384.101010 -59.414276 -0.171817 0.000000
384.449650 -59.322834 -0.172050 0.000000
378.918490 -55.340176 -0.170296 0.000000
385.183070 -59.437523 -0.145102 0.000000
385.550510 -59.561146 -0.126233 0.000000
385.912720 -59.687920 -0.107828 0.000000
370.766020 -49.893631 -0.151206 0.000000
379.373470 -55.286034 -0.157730 0.000000
386.269840 -59.818363 -0.089812 0.000000
386.621890 -59.952728 -0.072152 0.000000
386.968810 -60.088737 -0.055053 0.000000
387.310760 -60.217915 -0.039320 0.000000
387.647670 -60.380463 -0.021033 0.000000
371.046690 -49.156036 -0.173550 0.000000
379.769040 -55.048962 -0.160917 0.000000
388.155910 -60.311771 -0.025248 0.000000
380.195890 -54.906631 -0.156969 0.000000
389.316740 -60.585670 0.001653 0.000000
389.631560 -60.770981 0.018265 0.000000
390.095060 -61.039215 0.041024 0.000000
390.540160 -61.359016 0.067625 0.000000
390.825200 -61.594284 0.086763 0.000000
371.318820 -48.361931 -0.199495 0.000000
380.641360 -54.831051 -0.148313 0.000000
381.120700 -54.896729 -0.129091 0.000000
372.058320 -48.476669 -0.166463 0.000000
381.549930 -54.774368 -0.125679 0.000000
382.005190 -54.770020 -0.113608 0.000000
382.456670 -54.762947 -0.102516 0.000000
382.936980 -54.934250 -0.078251 0.000000
383.427800 -55.227104 -0.045429 0.000000
372.526460 -48.046669 -0.169564 0.000000
373.254730 -48.182587 -0.137339 0.000000
383.904910 -55.514420 -0.013978 0.000000
384.369080 -55.796974 0.016204 0.000000
384.820920 -56.075024 0.045176 0.000000
385.260800 -56.346161 0.072791 0.000000
385.689090 -56.606812 0.098813 0.000000
373.692630 -47.674458 -0.146598 0.000000
374.259030 -47.455692 -0.138293 0.000000
375.132420 -48.034397 -0.081935 0.000000
375.962400 -48.581238 -0.029188 0.000000
376.678130 -48.882919 0.007302 0.000000
377.408510 -49.287910 0.048711 0.000000
378.110600 -49.673370 0.087698 0.000000
378.789060 -50.049362 0.124933 0.000000
388.894040 -48.980209 0.226767 0.000000
390.531430 -48.781921 0.221318 0.000000
391.038570 -49.102161 0.238681 0.000000
391.536800 -49.421501 0.255379 0.000000
392.168090 -48.835243 0.223634 0.000000
392.674350 -49.102760 0.236362 0.000000
393.147460 -49.509705 0.255871 0.000000
395.224460 -50.036201 0.269591 0.000000
393.812990 -48.951096 0.223611 0.000000
394.291630 -49.315384 0.239635 0.000000
394.762660 -49.674500 0.254820 0.000000
372.730740 -63.503674 0.025646 0.000000
372.971890 -63.201344 0.025528 0.000000
373.115260 -62.778988 0.011966 0.000000
373.748840 -62.337753 0.027510 0.000000
374.019710 -62.058388 0.028221 0.000000
374.089020 -61.498619 -0.000071 0.000000
374.487700 -61.383331 0.016681 0.000000
378.188020 -63.877106 -0.027316 0.000000
374.608060 -60.864643 -0.007368 0.000000
374.950810 -60.664505 -0.000127 0.000000
392.419890 -62.964218 0.186748 0.000000
392.668210 -63.186790 0.201166 0.000000
392.912290 -63.407249 0.214923 0.000000
393.151430 -63.628128 0.228280 0.000000
391.104430 -61.827011 0.105118 0.000000
391.377960 -62.058090 0.122791 0.000000
391.645940 -62.287750 0.139818 0.000000
391.909090 -62.514168 0.156031 0.000000
392.166810 -62.740341 0.171740 0.000000
386.106960 -56.861588 0.123629 0.000000
386.515050 -57.113365 0.147485 0.000000
386.913510 -57.348656 0.169391 0.000000
387.303500 -57.577457 0.190132 0.000000
387.685550 -57.802895 0.209965 0.000000
388.059970 -58.027611 0.229110 0.000000
388.427640 -58.239220 0.246658 0.000000
389.492460 -58.860668 0.294782 0.000000
389.835420 -59.065948 0.309561 0.000000
390.173710 -59.263687 0.323235 0.000000
390.493070 -59.548359 0.342902 0.000000
391.030610 -59.573288 0.341178 0.000000
391.901210 -59.764919 0.347036 0.000000
392.827000 -60.416496 0.381678 0.000000
393.110870 -60.684303 0.396175 0.000000
393.389800 -60.947659 0.409910 0.000000
393.663970 -61.207043 0.422928 0.000000
393.934020 -61.461937 0.435193 0.000000
392.231290 -59.914955 0.353965 0.000000
392.537930 -60.143974 0.366393 0.000000
395.239230 -60.976646 0.370593 0.000000
395.512630 -61.233955 0.380833 0.000000
379.444670 -50.414162 0.160383 0.000000
380.079130 -50.769615 0.194219 0.000000
380.702240 -51.153214 0.228632 0.000000
381.299410 -51.501209 0.260026 0.000000
394.962340 -60.715828 0.359665 0.000000
381.872130 -51.809196 0.288236 0.000000
382.403960 -51.969090 0.307315 0.000000
382.957060 -52.317665 0.336119 0.000000
383.476350 -52.535133 0.356864 0.000000
383.985630 -52.753563 0.376937 0.000000
384.995700 -53.422188 0.427586 0.000000
385.487920 -53.856525 0.457237 0.000000
384.491940 -53.036446 0.399825 0.000000
385.875950 -52.663666 0.398553 0.000000
386.356020 -52.873337 0.415048 0.000000
386.831630 -53.265701 0.440693 0.000000
387.293270 -53.672501 0.466449 0.000000
387.740910 -54.066605 0.490893 0.000000
388.177950 -54.372837 0.510068 0.000000
371.214510 -41.886135 0.390115 0.000000
372.365170 -42.814407 0.444852 0.000000
374.611690 -42.938705 0.501186 0.000000
372.480590 -41.184193 0.401370 0.000000
373.578280 -42.088844 0.453076 0.000000
395.679530 -50.392258 0.283521 0.000000
371.711700 -48.208015 -0.211843 0.000000
375.375610 -62.179169 0.007215 0.000000
379.759160 -63.874611 -0.065281 0.000000
375.549710 -61.384735 -0.026122 0.000000
379.951080 -63.526855 -0.081413 0.000000
375.904820 -61.178734 -0.016775 0.000000
380.153720 -63.183594 -0.097171 0.000000
380.412570 -62.937717 -0.102270 0.000000
376.098110 -60.344482 -0.053726 0.000000
380.582520 -62.494320 -0.129490 0.000000
380.859830 -62.261761 -0.133753 0.000000
376.317900 -59.494110 -0.091398 0.000000
381.076140 -61.878204 -0.154729 0.000000
376.618650 -59.156586 -0.095343 0.000000
381.374110 -61.670197 -0.157153 0.000000
376.974790 -58.908173 -0.091637 0.000000
381.680730 -61.476723 -0.158572 0.000000
381.991730 -61.288147 -0.160035 0.000000
382.263400 -60.979309 -0.174527 0.000000
377.116270 -58.256378 -0.124309 0.000000
382.630710 -60.938736 -0.161796 0.000000
377.438020 -57.916565 -0.129303 0.000000
383.287260 -60.616943 -0.163098 0.000000
377.871730 -57.791885 -0.116048 0.000000
383.624850 -60.478081 -0.162439 0.000000
378.028080 -57.084675 -0.153470 0.000000
383.965850 -60.346497 -0.161686 0.000000
384.336820 -60.335716 -0.149593 0.000000
378.468810 -56.961136 -0.141178 0.000000
384.686460 -60.238834 -0.146766 0.000000
385.044740 -60.181648 -0.140720 0.000000
378.830050 -56.658268 -0.144699 0.000000
385.407810 -60.153824 -0.132521 0.000000
385.761020 -60.073433 -0.130143 0.000000
379.198610 -56.360870 -0.148237 0.000000
386.142970 -60.186409 -0.109784 0.000000
386.519350 -60.301567 -0.090047 0.000000
387.615230 -60.644577 -0.035847 0.000000
379.575130 -56.070877 -0.151648 0.000000
387.963750 -60.640862 -0.030482 0.000000
388.488460 -60.716576 -0.016105 0.000000
391.436580 -62.113281 0.127186 0.000000
391.875060 -62.466400 0.157457 0.000000
380.003570 -55.908360 -0.145209 0.000000
389.006410 -60.538048 -0.027026 0.000000
389.353120 -60.715630 -0.007298 0.000000
389.694120 -60.883095 0.010774 0.000000
390.356660 -61.266823 0.049441 0.000000
390.674440 -61.512459 0.072813 0.000000
390.984890 -61.754700 0.095231 0.000000
380.789310 -55.364807 -0.151809 0.000000
381.248900 -55.284966 -0.140740 0.000000
371.311340 -50.065475 -0.150756 0.000000
381.743350 -55.332245 -0.120491 0.000000
382.174500 -55.171459 -0.117336 0.000000
382.632660 -55.111366 -0.107066 0.000000
383.121640 -55.190586 -0.086887 0.000000
383.653440 -55.498589 -0.050203 0.000000
384.169490 -55.801331 -0.015006 0.000000
384.670590 -56.099110 0.018777 0.000000
385.157100 -56.390442 0.051081 0.000000
385.629000 -56.669647 0.081535 0.000000
386.087550 -56.939243 0.110372 0.000000
387.391510 -57.686104 0.187305 0.000000
371.495420 -49.133434 -0.181743 0.000000
372.495060 -48.330181 -0.175526 0.000000
373.250890 -48.433388 -0.141825 0.000000
373.682460 -47.883442 -0.149550 0.000000
374.393550 -47.927902 -0.121533 0.000000
375.139830 -48.083652 -0.088025 0.000000
375.996150 -48.548939 -0.037492 0.000000
376.857670 -49.100342 0.016423 0.000000
377.572200 -49.336304 0.050415 0.000000
378.363530 -49.842026 0.098622 0.000000
379.094300 -50.246212 0.139595 0.000000
379.796020 -50.628822 0.178058 0.000000
380.481960 -51.028908 0.216267 0.000000
388.943120 -48.096363 0.227713 0.000000
389.506500 -48.320721 0.243988 0.000000
390.062260 -48.546227 0.259614 0.000000
390.657560 -47.794064 0.225913 0.000000
391.760890 -48.333466 0.258316 0.000000
391.216770 -48.010929 0.239835 0.000000
394.536770 -48.810692 0.284632 0.000000
392.407070 -47.544468 0.221074 0.000000
392.956790 -47.824097 0.236126 0.000000
393.492460 -48.151840 0.252890 0.000000
394.018520 -48.484116 0.269222 0.000000
395.246000 -48.085968 0.247339 0.000000
374.464480 -63.868790 0.037589 0.000000
374.645970 -63.483719 0.030045 0.000000
375.052550 -63.364857 0.050371 0.000000
375.158140 -62.872849 0.031149 0.000000
392.708740 -63.158024 0.212749 0.000000
392.975190 -63.384506 0.229751 0.000000
393.236270 -63.609234 0.246086 0.000000
392.158810 -62.699577 0.176674 0.000000
392.436580 -62.930229 0.195111 0.000000
388.210210 -58.152058 0.232412 0.000000
388.606050 -58.368118 0.252672 0.000000
388.994050 -58.581631 0.272071 0.000000
389.374570 -58.794304 0.290755 0.000000
389.747890 -59.005226 0.308673 0.000000
390.478120 -59.362080 0.338016 0.000000
393.206420 -60.752335 0.430265 0.000000
387.805450 -57.921127 0.210372 0.000000
391.039370 -59.337639 0.337521 0.000000
391.582610 -59.481709 0.347949 0.000000
391.942200 -59.584473 0.354630 0.000000
392.270170 -59.880127 0.374569 0.000000
392.589080 -60.178947 0.394212 0.000000
392.900670 -60.471272 0.412887 0.000000
395.184390 -60.912857 0.416257 0.000000
395.615780 -61.318436 0.436134 0.000000
394.136440 -59.918888 0.362675 0.000000
394.440090 -60.221115 0.379899 0.000000
394.742920 -60.498627 0.394864 0.000000
382.974490 -52.402004 0.345546 0.000000
385.172670 -53.562866 0.448447 0.000000
381.143490 -51.415749 0.252562 0.000000
381.777710 -51.772552 0.286095 0.000000
382.373350 -52.041847 0.313848 0.000000
383.510250 -52.519417 0.363354 0.000000
384.086610 -52.904190 0.394548 0.000000
384.614780 -53.097412 0.414775 0.000000
385.519260 -52.516102 0.402869 0.000000
387.072200 -53.459373 0.474356 0.000000
387.519470 -52.974876 0.456181 0.000000
388.016170 -53.340523 0.480617 0.000000
388.498720 -53.672020 0.502633 0.000000
371.893160 -42.405739 0.458482 0.000000
374.358460 -42.703701 0.530211 0.000000
373.220460 -41.793961 0.478448 0.000000
372.011260 -40.831051 0.422965 0.000000
376.511870 -63.108093 -0.001407 0.000000
376.871150 -62.919590 0.007599 0.000000
376.894870 -62.272106 -0.030069 0.000000
377.237790 -62.050468 -0.025187 0.000000
377.279690 -61.382439 -0.064378 0.000000
382.125400 -63.734814 -0.110659 0.000000
377.581820 -61.081978 -0.067783 0.000000
382.334010 -63.379696 -0.131707 0.000000
382.627010 -63.194420 -0.134133 0.000000
377.927980 -60.846321 -0.065504 0.000000
382.934140 -63.038067 -0.133945 0.000000
383.563690 -62.757637 -0.131921 0.000000
378.020630 -60.186775 -0.103503 0.000000
383.827270 -62.473824 -0.147272 0.000000
378.247440 -59.723835 -0.122972 0.000000
384.359190 -62.420616 -0.131573 0.000000
370.909240 -55.931740 -0.038365 0.000000
378.655550 -59.567993 -0.114491 0.000000
384.846980 -62.244186 -0.130399 0.000000
385.219450 -62.289177 -0.113473 0.000000
378.822570 -58.962280 -0.147453 0.000000
385.738770 -62.242386 -0.101562 0.000000
370.802550 -54.859543 -0.087821 0.000000
379.251920 -58.837463 -0.137281 0.000000
386.921660 -62.065269 -0.086574 0.000000
379.606780 -58.566158 -0.140886 0.000000
387.266570 -62.063408 -0.078875 0.000000
387.590180 -61.939201 -0.084235 0.000000
387.974670 -62.232594 -0.048118 0.000000
388.309050 -62.214241 -0.044175 0.000000
379.967440 -58.299988 -0.144570 0.000000
388.647830 -62.245186 -0.035941 0.000000
389.156520 -62.352867 -0.018803 0.000000
389.989140 -62.582718 0.011650 0.000000
390.638890 -62.857174 0.042030 0.000000
380.334380 -58.040367 -0.148222 0.000000
389.648800 -62.294762 -0.019524 0.000000
390.314180 -62.581429 0.013399 0.000000
390.959290 -62.838245 0.040778 0.000000
371.292480 -53.552361 -0.123590 0.000000
380.749330 -57.886116 -0.143352 0.000000
381.084990 -57.537086 -0.155804 0.000000
371.422000 -52.690620 -0.156218 0.000000
381.908570 -57.196861 -0.151922 0.000000
372.162690 -52.730461 -0.125489 0.000000
382.293700 -56.946465 -0.157660 0.000000
382.745390 -56.888798 -0.148009 0.000000
372.303590 -51.837509 -0.160425 0.000000
383.195980 -56.837570 -0.138600 0.000000
383.660370 -56.845131 -0.125156 0.000000
384.153590 -56.978859 -0.102279 0.000000
386.540710 -57.941689 0.022412 0.000000
386.997440 -58.192833 0.049448 0.000000
387.442260 -58.439308 0.075311 0.000000
384.604310 -56.978760 -0.091104 0.000000
386.071470 -57.685982 -0.005826 0.000000
372.480350 -50.958038 -0.194089 0.000000
373.229280 -51.024982 -0.163890 0.000000
373.922210 -51.021885 -0.139651 0.000000
374.050870 -49.980400 -0.184680 0.000000
374.823390 -50.138741 -0.151448 0.000000
375.223510 -49.571297 -0.166109 0.000000
375.943150 -49.662643 -0.139227 0.000000
376.648010 -49.753960 -0.113494 0.000000
378.213680 -50.425842 -0.035104 0.000000
379.002350 -50.865921 0.008512 0.000000
379.758090 -51.286163 0.049597 0.000000
380.470950 -51.651733 0.086148 0.000000
377.349120 -49.869434 -0.087358 0.000000
376.127990 -63.896973 0.021983 0.000000
376.504640 -63.736252 0.034816 0.000000
391.268520 -63.158531 0.072578 0.000000
391.720090 -63.509808 0.106281 0.000000
392.167420 -63.718491 0.124687 0.000000
392.471190 -63.757553 0.126244 0.000000
392.365480 -61.457832 0.335937 0.000000
392.685000 -61.725060 0.354739 0.000000
393.357700 -61.848572 0.359001 0.000000
393.987700 -62.202068 0.379167 0.000000
395.235570 -62.758858 0.402112 0.000000
395.509610 -63.017368 0.416173 0.000000
390.269620 -60.020206 0.225016 0.000000
390.639100 -60.229858 0.242580 0.000000
391.001100 -60.451313 0.260477 0.000000
391.353000 -60.745632 0.283438 0.000000
391.695340 -61.034615 0.305444 0.000000
393.042850 -61.615250 0.343816 0.000000
393.690280 -61.928608 0.361784 0.000000
394.667790 -62.240578 0.372722 0.000000
394.956090 -62.495262 0.387265 0.000000
387.876070 -58.683487 0.100220 0.000000
388.298950 -58.922073 0.123948 0.000000
388.711790 -59.158249 0.146772 0.000000
389.114070 -59.378876 0.167700 0.000000
389.507450 -59.594772 0.187600 0.000000
389.892520 -59.808620 0.206704 0.000000
387.996550 -56.048756 0.454072 0.000000
383.778660 -53.670441 0.263912 0.000000
385.450960 -54.496902 0.337031 0.000000
386.006350 -54.914848 0.367976 0.000000
386.524230 -55.208809 0.391107 0.000000
386.988980 -55.216679 0.397397 0.000000
387.501100 -55.632637 0.426079 0.000000
381.219240 -52.191891 0.131984 0.000000
381.893890 -52.579758 0.167557 0.000000
382.543610 -52.952408 0.201182 0.000000
383.171230 -53.315025 0.233228 0.000000
389.755920 -55.885323 0.458232 0.000000
390.205230 -56.312672 0.483973 0.000000
388.812960 -55.065620 0.406912 0.000000
389.292790 -55.490707 0.433724 0.000000
388.324130 -54.721268 0.383969 0.000000
390.640290 -54.908718 0.407748 0.000000
375.371490 -45.215916 0.477559 0.000000
372.187440 -43.349659 0.355309 0.000000
373.147580 -43.671089 0.385579 0.000000
374.258480 -44.391380 0.430263 0.000000
391.151700 -51.977486 0.246631 0.000000
391.655910 -52.150204 0.256802 0.000000
370.968840 -42.574940 0.305580 0.000000
377.589140 -45.329613 0.523018 0.000000
376.559810 -44.505066 0.478901 0.000000
392.208010 -51.314445 0.210610 0.000000
392.720150 -51.475945 0.218984 0.000000
394.198730 -52.226204 0.255358 0.000000
375.509700 -43.735161 0.435549 0.000000
393.225250 -51.667816 0.228451 0.000000
393.727290 -51.839622 0.236230 0.000000
395.702970 -52.492287 0.259738 0.000000
394.774290 -51.792469 0.228345 0.000000
395.251160 -52.093983 0.241603 0.000000
379.052550 -62.443371 -0.079357 0.000000
379.240140 -61.990387 -0.097436 0.000000
384.787290 -63.915314 -0.111431 0.000000
379.542940 -61.706280 -0.098834 0.000000
385.242980 -63.710129 -0.108510 0.000000
385.756130 -63.669746 -0.088823 0.000000
379.549010 -60.913887 -0.150140 0.000000
379.918210 -60.713741 -0.143712 0.000000
386.400330 -63.517052 -0.075956 0.000000
386.724880 -63.453583 -0.069143 0.000000
380.234950 -60.417793 -0.147032 0.000000
387.186740 -63.265823 -0.070008 0.000000
380.558230 -60.126190 -0.150372 0.000000
387.678560 -63.194725 -0.059805 0.000000
387.981810 -63.033028 -0.065758 0.000000
388.372070 -63.319595 -0.025916 0.000000
373.525850 -57.028458 -0.071400 0.000000
380.887790 -59.838757 -0.153761 0.000000
388.677090 -63.173946 -0.031502 0.000000
388.996860 -63.104897 -0.029782 0.000000
389.368130 -63.418388 0.010312 0.000000
389.679410 -63.319912 0.007682 0.000000
373.968110 -56.727657 -0.063217 0.000000
381.268650 -59.649704 -0.148575 0.000000
389.994570 -63.238857 0.006247 0.000000
381.574770 -59.296581 -0.158905 0.000000
381.936460 -59.053917 -0.159640 0.000000
373.875060 -55.650894 -0.114847 0.000000
382.293490 -58.793076 -0.162517 0.000000
382.700230 -58.648064 -0.155694 0.000000
373.970310 -54.798607 -0.148422 0.000000
383.034760 -58.312176 -0.166191 0.000000
374.551300 -54.663971 -0.128315 0.000000
375.135560 -54.547932 -0.107857 0.000000
383.631440 -58.043926 -0.162465 0.000000
384.746150 -57.973465 -0.127316 0.000000
385.299680 -58.355629 -0.080357 0.000000
385.727140 -58.324448 -0.068975 0.000000
386.192380 -58.461288 -0.044465 0.000000
386.669490 -58.690296 -0.013297 0.000000
387.069400 -58.599098 -0.009161 0.000000
387.530670 -58.834976 0.020838 0.000000
387.980130 -59.067467 0.049661 0.000000
375.209690 -53.582733 -0.149431 0.000000
375.780150 -53.435997 -0.132276 0.000000
375.887700 -52.450668 -0.174685 0.000000
376.415650 -52.208893 -0.165112 0.000000
377.019960 -52.122154 -0.145677 0.000000
377.353610 -51.485535 -0.164231 0.000000
377.978000 -51.448502 -0.142914 0.000000
380.846250 -52.502167 0.009523 0.000000
378.583190 -51.387291 -0.124166 0.000000
379.295870 -51.601463 -0.088400 0.000000
380.047970 -51.960007 -0.044593 0.000000
370.793400 -63.113689 0.017311 0.000000
370.913510 -62.561531 0.005492 0.000000
371.608150 -62.539536 0.044526 0.000000
371.696440 -61.947159 0.028360 0.000000
371.853330 -61.406891 0.017362 0.000000
372.514740 -61.383053 0.052782 0.000000
378.468290 -63.678886 -0.037759 0.000000
372.649660 -60.808777 0.038184 0.000000
378.703220 -63.336685 -0.044323 0.000000
378.987880 -63.058014 -0.044590 0.000000
372.677340 -60.096107 0.011934 0.000000
373.141110 -59.865177 0.027065 0.000000
373.113530 -59.046616 -0.007428 0.000000
373.054350 -58.152176 -0.047212 0.000000
373.541930 -57.926273 -0.032419 0.000000
390.336980 -63.477432 0.036447 0.000000
390.652400 -63.431732 0.037305 0.000000
390.981020 -63.659927 0.065022 0.000000
391.293270 -63.599754 0.063182 0.000000
391.610600 -63.870846 0.093825 0.000000
392.281890 -61.646561 0.317541 0.000000
392.624910 -61.788940 0.330793 0.000000
392.957400 -62.032990 0.351351 0.000000
395.545720 -63.013145 0.421849 0.000000
391.213470 -60.839668 0.244723 0.000000
391.579220 -61.125809 0.270968 0.000000
391.934910 -61.406742 0.296159 0.000000
393.638950 -62.100327 0.358330 0.000000
393.978520 -62.143311 0.361753 0.000000
394.486180 -62.219955 0.366786 0.000000
394.960540 -62.492119 0.385902 0.000000
395.254090 -62.767044 0.405224 0.000000
388.418400 -59.296661 0.077355 0.000000
388.845980 -59.522820 0.103976 0.000000
389.262450 -59.737946 0.128921 0.000000
389.668700 -59.942463 0.152265 0.000000
390.066250 -60.144516 0.174682 0.000000
390.455570 -60.345200 0.196285 0.000000
390.837430 -60.554432 0.217873 0.000000
386.518800 -55.941265 0.349309 0.000000
385.950410 -55.495293 0.311990 0.000000
386.972020 -55.875443 0.355642 0.000000
387.467500 -56.063980 0.376266 0.000000
387.927120 -56.077827 0.386057 0.000000
388.431180 -56.447044 0.415752 0.000000
388.925750 -56.865463 0.447486 0.000000
383.560300 -54.012810 0.170658 0.000000
384.231600 -54.548241 0.217591 0.000000
384.800660 -54.786934 0.245367 0.000000
385.358120 -55.033447 0.272711 0.000000
390.658810 -56.703262 0.463669 0.000000
381.574620 -52.929787 0.054842 0.000000
382.260410 -53.301579 0.095320 0.000000
390.196990 -56.295563 0.435035 0.000000
389.224240 -55.448959 0.373826 0.000000
389.718810 -55.873596 0.404882 0.000000
391.076350 -56.054321 0.432369 0.000000
391.489170 -52.789818 0.254619 0.000000
375.506040 -46.069420 0.354185 0.000000
377.340520 -46.925350 0.429194 0.000000
373.493710 -45.098587 0.268764 0.000000
374.424190 -45.390732 0.303881 0.000000
376.373660 -46.350670 0.386174 0.000000
371.125730 -43.733166 0.159337 0.000000
372.260990 -44.279133 0.208931 0.000000
378.606570 -46.565205 0.450172 0.000000
379.377320 -46.781124 0.475639 0.000000
391.998780 -51.892754 0.209358 0.000000
392.517240 -51.913986 0.214824 0.000000
393.034730 -51.951576 0.220602 0.000000
393.541290 -52.163124 0.235412 0.000000
394.605070 -51.853264 0.222714 0.000000
395.104980 -52.077774 0.236437 0.000000
395.586490 -52.398293 0.254851 0.000000
379.330870 -39.847435 0.254196 0.000000
381.486820 -39.056221 0.273060 0.000000
378.349640 -47.692387 0.478698 0.000000
380.311920 -47.534462 0.521412 0.000000
380.873840 -56.868073 -0.171589 0.000000
381.725650 -56.414711 -0.157751 0.000000
382.185880 -56.265640 -0.145682 0.000000
383.111720 -55.992798 -0.121966 0.000000
371.554470 -51.009914 -0.195384 0.000000
372.067690 -50.604481 -0.184534 0.000000
372.553620 -50.153206 -0.177309 0.000000
372.824620 -49.346317 -0.193352 0.000000
373.210360 -48.695412 -0.199338 0.000000
374.146610 -48.983749 -0.147362 0.000000
374.615260 -48.470352 -0.146163 0.000000
375.264250 -48.283333 -0.125793 0.000000
377.492520 -63.240612 -0.026199 0.000000
377.740200 -62.879257 -0.026946 0.000000
382.942540 -63.636063 -0.128403 0.000000
377.872160 -62.360813 -0.043544 0.000000
383.274200 -63.494190 -0.118326 0.000000
378.001590 -61.819794 -0.062064 0.000000
383.565370 -63.273861 -0.117484 0.000000
383.848600 -63.031731 -0.119501 0.000000
384.142090 -62.804035 -0.120472 0.000000
371.108860 -59.782402 0.048920 0.000000
378.141330 -61.271770 -0.080943 0.000000
384.393190 -62.472267 -0.132815 0.000000
378.357760 -60.812332 -0.091198 0.000000
384.701290 -62.258591 -0.133242 0.000000
371.036320 -58.926506 0.021741 0.000000
378.508090 -60.237740 -0.112136 0.000000
385.307800 -61.781876 -0.140726 0.000000
385.772550 -61.977478 -0.101740 0.000000
386.060180 -61.686279 -0.112373 0.000000
386.377930 -61.468567 -0.116169 0.000000
386.820470 -61.653805 -0.081190 0.000000
392.608490 -63.059994 0.206546 0.000000
392.932770 -63.298981 0.231702 0.000000
378.677000 -59.666634 -0.132467 0.000000
387.123720 -61.382122 -0.091588 0.000000
387.491390 -61.331802 -0.081172 0.000000
391.582700 -62.321930 0.124690 0.000000
391.933870 -62.571041 0.153033 0.000000
379.025570 -59.360809 -0.128775 0.000000
388.256900 -61.385139 -0.048053 0.000000
388.640320 -61.444000 -0.029726 0.000000
388.967040 -61.228214 -0.037904 0.000000
389.353120 -61.328392 -0.017268 0.000000
389.735500 -61.442211 0.003767 0.000000
390.468260 -61.548515 0.032218 0.000000
390.850280 -61.809471 0.064212 0.000000
391.221680 -62.068092 0.095098 0.000000
371.002140 -57.233608 -0.027753 0.000000
379.341190 -58.994125 -0.130978 0.000000
390.080660 -61.324959 0.002726 0.000000
371.366270 -56.778965 -0.021226 0.000000
379.599670 -58.516380 -0.143206 0.000000
379.926150 -58.142139 -0.146643 0.000000
380.261750 -57.772335 -0.150060 0.000000
370.862300 -55.273018 -0.093405 0.000000
380.605740 -57.405998 -0.153561 0.000000
389.332790 -58.857269 0.273340 0.000000
371.214050 -54.752438 -0.090865 0.000000
381.423000 -56.910633 -0.142419 0.000000
387.977750 -58.281326 0.198990 0.000000
388.426910 -58.409271 0.220109 0.000000
388.885440 -58.635162 0.247306 0.000000
386.965420 -57.654793 0.127192 0.000000
387.466580 -57.912819 0.159658 0.000000
392.949430 -58.817574 0.334856 0.000000
385.353820 -56.792583 0.016521 0.000000
385.911930 -57.100262 0.056112 0.000000
386.449370 -57.390656 0.093192 0.000000
384.188420 -56.181263 -0.066313 0.000000
384.773470 -56.467445 -0.025686 0.000000
383.598570 -55.929214 -0.105703 0.000000
371.153560 -52.653328 -0.160729 0.000000
371.687810 -52.312458 -0.145214 0.000000
381.540010 -51.867676 0.256697 0.000000
382.213650 -52.096558 0.289032 0.000000
382.939730 -52.528275 0.330937 0.000000
383.500760 -52.517120 0.348283 0.000000
379.832400 -50.672691 0.147235 0.000000
378.263790 -50.073605 0.064268 0.000000
379.056270 -50.366173 0.106123 0.000000
377.274050 -49.419403 -0.000190 0.000000
376.373050 -49.020592 -0.051879 0.000000
387.492130 -46.921204 0.207346 0.000000
388.106990 -46.884750 0.218405 0.000000
388.732850 -46.955544 0.233799 0.000000
389.356050 -47.049519 0.249489 0.000000
389.973270 -47.137718 0.264117 0.000000
370.785830 -41.519882 0.432824 0.000000
390.504120 -45.978161 0.220121 0.000000
391.133360 -46.056019 0.233066 0.000000
392.380160 -46.151562 0.253926 0.000000
392.999880 -46.328899 0.269139 0.000000
393.613920 -46.486797 0.282700 0.000000
394.222900 -46.644985 0.295522 0.000000
371.089690 -40.378632 0.421463 0.000000
394.902440 -45.479507 0.248098 0.000000
395.524080 -45.658085 0.260526 0.000000
393.248810 -63.534840 0.255877 0.000000
393.557040 -63.766567 0.279009 0.000000
390.621800 -59.586304 0.350701 0.000000
392.566710 -60.140797 0.419562 0.000000
394.793730 -60.544350 0.464187 0.000000
389.769870 -59.077934 0.298409 0.000000
390.195620 -59.285126 0.321712 0.000000
390.980100 -59.210480 0.332411 0.000000
391.382450 -59.326374 0.347326 0.000000
391.778630 -59.415871 0.359764 0.000000
394.447080 -60.204964 0.440027 0.000000
393.720790 -59.526634 0.389835 0.000000
394.089290 -59.869415 0.415500 0.000000
393.341160 -59.172173 0.362707 0.000000
385.494630 -53.792694 0.461980 0.000000
384.161590 -52.857513 0.383033 0.000000
384.823460 -53.267933 0.420205 0.000000
386.946040 -53.351189 0.480771 0.000000
385.673220 -52.400536 0.406335 0.000000
386.298950 -52.780731 0.439399 0.000000
387.360140 -52.821045 0.467266 0.000000
387.939790 -53.164902 0.495823 0.000000
372.355100 -41.078796 0.474137 0.000000
382.201200 -56.268250 -0.168456 0.000000
373.096800 -50.613632 -0.186988 0.000000
373.678440 -50.317696 -0.167912 0.000000
374.259160 -50.024971 -0.149513 0.000000
374.479250 -49.141289 -0.169915 0.000000
375.240480 -49.142361 -0.134020 0.000000
375.964110 -49.103680 -0.102050 0.000000
383.337400 -63.721069 -0.138816 0.000000
378.111880 -63.826469 -0.025541 0.000000
383.686890 -63.606693 -0.122893 0.000000
392.482240 -62.782097 0.222362 0.000000
378.421600 -63.553261 -0.015466 0.000000
384.048650 -63.148899 -0.132696 0.000000
391.953740 -62.420036 0.177759 0.000000
378.399720 -62.887207 -0.047382 0.000000
384.784210 -62.593338 -0.127866 0.000000
385.177610 -62.572926 -0.105397 0.000000
391.587920 -62.174225 0.146451 0.000000
385.571900 -62.119499 -0.117997 0.000000
390.823390 -61.670597 0.079921 0.000000
378.505740 -62.349281 -0.065065 0.000000
385.977870 -61.659668 -0.131833 0.000000
386.401490 -61.726204 -0.103500 0.000000
387.156520 -61.661808 -0.069901 0.000000
387.472870 -61.459488 -0.071243 0.000000
387.872680 -61.516029 -0.047741 0.000000
388.235410 -61.466331 -0.035542 0.000000
388.621640 -61.510490 -0.015074 0.000000
390.018160 -61.183578 0.010914 0.000000
390.423550 -61.411888 0.044524 0.000000
378.766050 -61.987831 -0.064455 0.000000
388.888150 -61.101341 -0.038847 0.000000
389.256620 -61.076912 -0.026337 0.000000
389.634190 -61.104542 -0.009701 0.000000
378.744140 -61.247208 -0.101837 0.000000
378.771940 -60.538960 -0.134996 0.000000
379.121700 -60.253853 -0.126707 0.000000
371.442410 -60.479271 0.008408 0.000000
379.259370 -59.654484 -0.148652 0.000000
389.557040 -58.897835 0.300189 0.000000
379.695220 -59.484489 -0.130390 0.000000
389.101960 -58.683029 0.271946 0.000000
392.305450 -58.249710 0.327218 0.000000
371.966770 -59.487900 0.015916 0.000000
379.833310 -58.847672 -0.155654 0.000000
388.155460 -58.241585 0.211648 0.000000
388.635130 -58.465034 0.242502 0.000000
380.272090 -58.676292 -0.138694 0.000000
387.657140 -57.994011 0.177960 0.000000
371.810700 -58.550205 -0.017679 0.000000
380.416560 -58.004570 -0.166869 0.000000
387.144100 -57.742043 0.142808 0.000000
394.763280 -57.067703 0.286377 0.000000
372.201690 -58.155220 -0.005179 0.000000
380.833620 -57.784569 -0.155250 0.000000
381.299220 -57.656055 -0.136526 0.000000
386.097440 -57.305103 0.073967 0.000000
386.575530 -57.356056 0.096407 0.000000
385.492370 -56.910530 0.024214 0.000000
395.229680 -56.195137 0.232950 0.000000
381.919490 -56.791473 -0.152597 0.000000
384.892460 -56.587791 -0.021563 0.000000
394.354890 -55.918945 0.204945 0.000000
371.986300 -57.090534 -0.046933 0.000000
382.762850 -56.338100 -0.136149 0.000000
383.214940 -56.178276 -0.123565 0.000000
383.831600 -56.424797 -0.079536 0.000000
384.233460 -56.161850 -0.076966 0.000000
395.713440 -55.533241 0.193059 0.000000
372.315730 -56.598717 -0.041961 0.000000
371.927370 -55.249378 -0.102972 0.000000
371.518890 -53.804752 -0.168589 0.000000
372.062590 -53.492111 -0.148412 0.000000
372.708190 -53.318970 -0.119121 0.000000
382.841250 -52.609726 0.320013 0.000000
383.367100 -52.480682 0.334132 0.000000
382.055450 -52.109020 0.270119 0.000000
372.644100 -52.191353 -0.158420 0.000000
381.285770 -51.713161 0.224407 0.000000
373.224610 -51.919876 -0.137129 0.000000
380.462650 -51.255295 0.173490 0.000000
378.790410 -50.466301 0.073536 0.000000
379.529820 -50.626263 0.110777 0.000000
376.827120 -49.348320 -0.054113 0.000000
386.130070 -47.851685 0.228653 0.000000
386.637300 -47.357655 0.221524 0.000000
387.167600 -46.912449 0.216451 0.000000
387.728520 -46.571568 0.216037 0.000000
388.325810 -46.403164 0.223394 0.000000
389.527830 -46.063709 0.236047 0.000000
390.133360 -45.892365 0.241340 0.000000
390.750270 -45.805328 0.249906 0.000000
391.361570 -45.628540 0.253648 0.000000
391.977940 -45.460453 0.257159 0.000000
392.599490 -45.306694 0.260684 0.000000
393.223630 -45.064468 0.259567 0.000000
393.856350 -44.968975 0.264436 0.000000
394.492340 -44.873196 0.268612 0.000000
395.131960 -44.777229 0.272098 0.000000
370.816930 -41.590546 0.395347 0.000000
371.104890 -40.460644 0.386003 0.000000
394.561770 -63.764118 0.343989 0.000000
394.864140 -63.865051 0.355758 0.000000
393.318360 -63.355377 0.290167 0.000000
394.101750 -63.620399 0.325777 0.000000
392.991390 -63.135063 0.264481 0.000000
370.878720 -63.433403 0.036695 0.000000
370.995510 -62.201309 0.019159 0.000000
371.266720 -61.745041 0.026522 0.000000
393.926480 -59.719475 0.452934 0.000000
371.367000 -61.131584 0.018991 0.000000
392.026120 -59.633247 0.413326 0.000000
393.541350 -59.361053 0.423328 0.000000
390.021060 -59.220825 0.335136 0.000000
391.603450 -59.266998 0.379583 0.000000
393.142940 -58.990417 0.392115 0.000000
372.038760 -60.307739 0.040831 0.000000
390.373500 -58.943443 0.326987 0.000000
391.167270 -58.907722 0.345399 0.000000
392.729000 -58.583729 0.357639 0.000000
385.464230 -53.807503 0.461769 0.000000
384.751430 -53.251877 0.414644 0.000000
386.897670 -53.320793 0.486121 0.000000
386.212340 -52.724464 0.439903 0.000000
384.026060 -52.739632 0.368302 0.000000
385.584870 -52.421307 0.407356 0.000000
372.454740 -41.245167 0.446524 0.000000
391.963130 -62.433449 0.175423 0.000000
392.333560 -62.664864 0.209197 0.000000
391.580990 -62.196255 0.140084 0.000000
384.802610 -63.604023 -0.133399 0.000000
385.161740 -63.517456 -0.113466 0.000000
385.443270 -63.301464 -0.109516 0.000000
385.830080 -63.275642 -0.084373 0.000000
390.997160 -61.888412 0.089585 0.000000
385.960300 -62.769447 -0.114487 0.000000
386.320920 -62.694778 -0.096249 0.000000
386.623140 -62.505356 -0.091535 0.000000
387.006840 -62.491272 -0.068375 0.000000
390.389070 -61.569489 0.035813 0.000000
387.331240 -61.903801 -0.096010 0.000000
387.914460 -61.912720 -0.061093 0.000000
388.291140 -61.905254 -0.040520 0.000000
388.617800 -61.769714 -0.034021 0.000000
388.947450 -61.641148 -0.027453 0.000000
389.313200 -61.624870 -0.010232 0.000000
389.994930 -61.449638 0.007605 0.000000
379.529240 -63.588161 -0.056437 0.000000
379.463780 -62.896729 -0.092804 0.000000
379.703800 -62.532486 -0.091884 0.000000
379.629520 -61.780807 -0.132990 0.000000
379.856320 -61.372120 -0.136449 0.000000
380.182620 -61.082775 -0.127628 0.000000
380.289000 -60.494766 -0.149806 0.000000
380.606450 -60.177780 -0.144336 0.000000
388.313750 -58.497166 0.190660 0.000000
387.322200 -58.150688 0.124328 0.000000
387.770170 -58.163818 0.145518 0.000000
394.304380 -56.618370 0.257629 0.000000
