# .PCD v0.7 - Point Cloud Data file format
VERSION 0.7
FIELDS x y z intensity
SIZE 4 4 4 4
TYPE F F F F
COUNT 1 1 1 1
WIDTH 1166
HEIGHT 1
VIEWPOINT 0 0 0 1 0 0 0
POINTS 1166
DATA ascii
378.913450 387.182190 19.297380 0.000000
378.597050 386.885830 19.285130 0.000000
378.309360 386.633420 19.273752 0.000000
378.018160 386.367000 19.261822 0.000000
380.360630 387.828520 19.197285 0.000000
380.141600 387.623080 19.188782 0.000000
379.686950 387.201350 19.169319 0.000000
379.434390 386.990170 19.157467 0.000000
379.178620 386.769260 19.144926 0.000000
378.857790 386.491820 19.128365 0.000000
378.582090 386.246640 19.113417 0.000000
386.667390 387.740260 19.472692 0.000000
384.692570 386.460140 19.198978 0.000000
388.506100 388.900570 19.347498 0.000000
387.590030 388.288700 19.475193 0.000000
387.349210 388.132870 19.372356 0.000000
386.936610 387.854920 19.332521 0.000000
386.651730 387.664790 19.252048 0.000000
386.049560 387.262480 19.314651 0.000000
385.692500 387.024260 19.214481 0.000000
385.429780 386.848050 19.328577 0.000000
385.070470 386.610080 19.298775 0.000000
384.755340 386.401820 19.300114 0.000000
384.366820 386.138730 19.278799 0.000000
395.724210 401.516140 19.905853 0.000000
394.963170 400.856630 19.885658 0.000000
394.307250 400.328800 19.868958 0.000000
393.679900 399.797940 19.852531 0.000000
393.107030 399.320530 19.837660 0.000000
392.593660 398.917240 19.824759 0.000000
382.221130 392.101380 19.785234 0.000000
382.047090 391.910220 19.777597 0.000000
392.101320 398.511470 19.812057 0.000000
391.645940 398.143620 19.800438 0.000000
391.222690 397.808530 19.789757 0.000000
390.858460 397.585630 19.781702 0.000000
390.476530 397.277130 19.771957 0.000000
390.124540 397.012450 19.763317 0.000000
389.796660 396.782500 19.755558 0.000000
389.183410 396.352420 19.741045 0.000000
388.895900 396.150730 19.734240 0.000000
388.487340 395.864810 19.724581 0.000000
388.099000 395.591860 19.715380 0.000000
387.852720 395.419190 19.709551 0.000000
387.500180 395.171940 19.701208 0.000000
386.947810 394.784550 19.688135 0.000000
386.536560 394.496860 19.678415 0.000000
386.148220 394.227080 19.669270 0.000000
385.870850 394.035100 19.662750 0.000000
385.515930 393.789180 19.654402 0.000000
385.178530 393.532680 19.646072 0.000000
384.852570 393.329680 19.638802 0.000000
384.540530 393.114410 19.631477 0.000000
384.243040 392.884310 19.624065 0.000000
384.020570 392.753360 19.619236 0.000000
381.882840 391.709260 19.769741 0.000000
381.655300 391.477970 19.760822 0.000000
381.448640 391.225040 19.751389 0.000000
381.193600 390.923520 19.740417 0.000000
383.511410 392.168910 19.603239 0.000000
383.319150 392.013610 19.598333 0.000000
383.028020 391.701660 19.589571 0.000000
382.749240 391.403810 19.581196 0.000000
380.889740 390.582820 19.728489 0.000000
380.635990 390.313960 19.719475 0.000000
380.336520 389.994320 19.709204 0.000000
380.012570 389.707860 19.700603 0.000000
379.797880 389.514770 19.695057 0.000000
379.470760 389.225740 19.687239 0.000000
382.482700 391.119080 19.573189 0.000000
382.231350 390.832120 19.565319 0.000000
381.857970 390.512540 19.555479 0.000000
381.600070 390.282750 19.548527 0.000000
381.283840 389.990910 19.539827 0.000000
381.001950 389.735140 19.532146 0.000000
379.133640 388.937380 19.679972 0.000000
378.848420 388.692230 19.674162 0.000000
378.176150 388.057430 19.660225 0.000000
377.947600 387.835170 19.655766 0.000000
377.651550 387.550930 19.650438 0.000000
380.645110 389.435550 19.522844 0.000000
380.345920 389.170100 19.514799 0.000000
380.051420 388.897520 19.506681 0.000000
379.740840 388.633300 19.498526 0.000000
379.483760 388.405240 19.491611 0.000000
379.220700 388.173860 19.484571 0.000000
378.978030 387.920410 19.477385 0.000000
377.342800 387.259340 19.645367 0.000000
376.979130 386.972200 19.641264 0.000000
376.767460 386.786250 19.638601 0.000000
376.441100 386.540590 19.635719 0.000000
376.118870 386.276180 19.632614 0.000000
378.609650 387.568630 19.467043 0.000000
378.268650 387.262940 19.457817 0.000000
377.949890 387.007720 19.449722 0.000000
377.761140 386.845090 19.444731 0.000000
377.372250 386.502260 19.434311 0.000000
377.030180 386.201570 19.425159 0.000000
395.040800 393.263820 19.754702 0.000000
394.172390 392.683750 19.734652 0.000000
388.008420 388.566530 19.709227 0.000000
387.653750 388.329800 19.693146 0.000000
387.345920 388.124330 19.679396 0.000000
386.971040 387.874630 19.616190 0.000000
386.735230 387.716740 19.652803 0.000000
386.252080 387.394200 19.632643 0.000000
386.061220 387.266780 19.624895 0.000000
385.720580 387.032590 19.647593 0.000000
385.357820 386.796480 19.666077 0.000000
385.036870 386.583070 19.587729 0.000000
384.666780 386.334930 19.668575 0.000000
384.391110 386.151030 19.629375 0.000000
395.364320 392.980900 18.155067 0.000000
393.056030 391.412870 18.124165 0.000000
391.790040 390.410340 18.062103 0.000000
390.568210 389.607420 18.042919 0.000000
394.285060 391.660950 18.004393 0.000000
393.853790 391.574980 18.046867 0.000000
393.445130 391.492800 18.086655 0.000000
392.420680 390.505620 17.992750 0.000000
392.097960 390.456880 18.028496 0.000000
391.328310 389.688870 17.951176 0.000000
391.066010 389.662200 17.983196 0.000000
390.812740 389.634980 18.013767 0.000000
395.409390 392.001070 17.884289 0.000000
394.743440 391.753020 17.958666 0.000000
393.699580 390.848080 17.834978 0.000000
392.932070 390.578400 17.935410 0.000000
392.411190 389.977910 17.797159 0.000000
391.884770 389.742680 17.881897 0.000000
391.600040 389.714750 17.917654 0.000000
394.056920 390.726260 17.806501 0.000000
392.659820 389.820710 17.781769 0.000000
392.842380 389.604060 17.778725 0.000000
395.453830 388.652500 17.774403 0.000000
394.037200 387.793460 17.750376 0.000000
395.603060 388.361760 17.769554 0.000000
394.204040 387.454280 17.744991 0.000000
394.357420 387.108950 17.739597 0.000000
394.529790 386.669340 17.732750 0.000000
395.694370 386.890200 17.813866 0.000000
394.526210 386.171690 17.751759 0.000000
395.508120 386.604250 17.846872 0.000000
394.314730 393.759460 18.505062 0.000000
393.795230 393.555080 18.537897 0.000000
393.308010 393.362340 18.568371 0.000000
391.857240 391.956850 18.435595 0.000000
391.518070 391.857600 18.461006 0.000000
391.194340 391.762150 18.484934 0.000000
390.883850 391.668980 18.507624 0.000000
390.235110 390.777890 18.382215 0.000000
389.857570 390.684110 18.414373 0.000000
389.384430 390.564790 18.453596 0.000000
388.856080 389.873990 18.360073 0.000000
388.565190 389.810550 18.386723 0.000000
388.195220 389.726200 18.419786 0.000000
387.912080 389.205750 18.332447 0.000000
387.519260 389.126530 18.370049 0.000000
387.219510 389.062130 18.397793 0.000000
395.460510 394.203400 18.431667 0.000000
394.867920 393.974460 18.469803 0.000000
392.975490 392.275150 18.349813 0.000000
392.585300 392.166170 18.380032 0.000000
392.212220 392.059230 18.408688 0.000000
391.060880 390.975590 18.309565 0.000000
390.637600 390.875790 18.347088 0.000000
389.816890 390.068020 18.267801 0.000000
389.372960 389.980680 18.311192 0.000000
389.058620 389.917880 18.341019 0.000000
388.777800 389.359130 18.244333 0.000000
388.417540 389.298160 18.281860 0.000000
388.159550 389.252500 18.307981 0.000000
394.310970 392.665280 18.242580 0.000000
393.824710 392.512790 18.282669 0.000000
393.386810 392.389340 18.317562 0.000000
392.331360 391.259950 18.192917 0.000000
391.992770 391.186100 18.224537 0.000000
391.513640 391.079070 18.268597 0.000000
390.669980 390.225250 18.181202 0.000000
390.292270 390.157470 18.219992 0.000000
389.666410 389.492710 18.147291 0.000000
389.357030 389.448030 18.181816 0.000000
389.060390 389.403810 18.214212 0.000000
394.825810 392.823460 18.199837 0.000000
392.685060 391.335210 18.159554 0.000000
391.493620 390.363530 18.094154 0.000000
391.071750 390.294400 18.139050 0.000000
390.217130 389.564940 18.084141 0.000000
389.881100 389.521850 18.122932 0.000000
391.496400 393.664220 18.911905 0.000000
391.128600 393.503850 18.925840 0.000000
390.778530 393.350490 18.938877 0.000000
388.649260 391.636290 18.825413 0.000000
388.306150 391.500240 18.841763 0.000000
387.982090 391.370090 18.856684 0.000000
386.634580 390.249570 18.776180 0.000000
386.398160 390.158200 18.788055 0.000000
386.023470 390.008420 18.805979 0.000000
385.149440 389.182250 18.739853 0.000000
384.745210 388.991270 18.760265 0.000000
384.525090 388.881810 18.770733 0.000000
383.410220 387.962950 18.727875 0.000000
383.201080 387.844970 18.733767 0.000000
393.739470 394.694890 18.820692 0.000000
393.221590 394.446750 18.842648 0.000000
392.736210 394.213170 18.862974 0.000000
392.293880 394.012180 18.880867 0.000000
391.885100 393.834810 18.896879 0.000000
390.076690 392.184600 18.752947 0.000000
389.793460 392.077450 18.767885 0.000000
389.537930 392.003510 18.779884 0.000000
389.134610 391.825590 18.801554 0.000000
388.164830 390.803190 18.690166 0.000000
387.864230 390.692110 18.708729 0.000000
387.495090 390.577970 18.728872 0.000000
387.133330 390.434200 18.750034 0.000000
386.879030 390.342290 18.763514 0.000000
386.620910 389.753050 18.655607 0.000000
386.256990 389.626620 18.677837 0.000000
385.846650 389.483760 18.700735 0.000000
385.394040 389.294460 18.726385 0.000000
385.276520 388.865420 18.636778 0.000000
384.905090 388.704500 18.659624 0.000000
384.520260 388.529720 18.681129 0.000000
384.275210 388.255860 18.654217 0.000000
383.885800 388.066250 18.672277 0.000000
383.584990 387.764890 18.647003 0.000000
383.250520 387.584080 18.658426 0.000000
382.944060 387.407990 18.666237 0.000000
382.625790 387.213900 18.671480 0.000000
382.206150 386.937560 18.673176 0.000000
381.892940 386.715580 18.670382 0.000000
381.578520 386.477450 18.664124 0.000000
381.292020 386.248870 18.654295 0.000000
395.525820 395.541870 18.743196 0.000000
394.886930 395.240170 18.771204 0.000000
394.362920 395.044740 18.792442 0.000000
391.691680 392.778470 18.663740 0.000000
391.337830 392.649630 18.683863 0.000000
391.000980 392.526670 18.702719 0.000000
390.678650 392.407530 18.720533 0.000000
390.371030 392.293760 18.737238 0.000000
389.512150 391.246730 18.603617 0.000000
389.150020 391.130710 18.627680 0.000000
388.694640 390.982060 18.657112 0.000000
388.371150 390.873320 18.677498 0.000000
388.040650 390.196620 18.558464 0.000000
387.766880 390.116000 18.578367 0.000000
387.418000 390.009860 18.603014 0.000000
386.927980 389.854680 18.635977 0.000000
386.749970 389.352290 18.537781 0.000000
386.401000 389.250340 18.563042 0.000000
385.941190 389.109220 18.594116 0.000000
385.771300 388.873600 18.560019 0.000000
385.446810 388.590610 18.538216 0.000000
385.067570 388.447140 18.565138 0.000000
384.709990 388.297550 18.589184 0.000000
384.514800 388.212920 18.601200 0.000000
392.865720 393.199550 18.595142 0.000000
392.454160 393.053160 18.619476 0.000000
392.063540 392.913210 18.642286 0.000000
390.586490 391.578830 18.529053 0.000000
390.301670 391.492000 18.549263 0.000000
389.896910 391.367310 18.577393 0.000000
389.048430 390.476440 18.480864 0.000000
388.730500 390.390720 18.505981 0.000000
388.327880 390.278840 18.536968 0.000000
387.929990 389.662810 18.442907 0.000000
387.676790 389.600830 18.464264 0.000000
387.275050 389.496950 18.497093 0.000000
386.952480 389.207670 18.471838 0.000000
386.662570 388.932680 18.446135 0.000000
386.272160 388.829190 18.478348 0.000000
386.025820 388.766270 18.496775 0.000000
387.062260 388.999020 18.415741 0.000000
395.708250 399.492580 19.503080 0.000000
394.756500 398.675260 19.499987 0.000000
385.620970 391.917360 19.253019 0.000000
388.128880 393.243840 19.229580 0.000000
387.779210 393.112730 19.232929 0.000000
387.414860 392.883670 19.237803 0.000000
386.867740 392.597050 19.243395 0.000000
386.660830 392.487670 19.245289 0.000000
386.264770 392.276670 19.248562 0.000000
385.889920 392.073300 19.251232 0.000000
390.649750 394.483030 19.192589 0.000000
390.306490 394.320070 19.198175 0.000000
389.977290 394.161960 19.203394 0.000000
389.510770 393.936710 19.210482 0.000000
389.068760 393.721560 19.216911 0.000000
386.252690 391.403630 19.073126 0.000000
386.079800 391.322360 19.076771 0.000000
385.666080 391.124820 19.084867 0.000000
385.275850 390.928710 19.091856 0.000000
384.830960 390.684750 19.099529 0.000000
384.552220 390.525880 19.103722 0.000000
384.217800 390.333310 19.108080 0.000000
383.962220 390.182710 19.110865 0.000000
383.536620 389.927980 19.114260 0.000000
383.192960 389.701320 19.116554 0.000000
382.867430 389.473750 19.118013 0.000000
382.559050 389.240260 19.118980 0.000000
382.264430 389.012820 19.118872 0.000000
381.981410 388.789950 19.117779 0.000000
381.574920 388.462250 19.114382 0.000000
381.228550 388.175600 19.109617 0.000000
380.934630 387.926240 19.104132 0.000000
380.729340 387.747280 19.099575 0.000000
380.405980 387.460780 19.090839 0.000000
380.089660 387.168580 19.080727 0.000000
379.800960 386.921840 19.069393 0.000000
379.543270 386.712800 19.057764 0.000000
393.296080 395.922730 19.142138 0.000000
392.717070 395.540370 19.154688 0.000000
392.232150 395.266630 19.164360 0.000000
391.783600 395.020200 19.173018 0.000000
391.405980 394.865630 19.179346 0.000000
391.010280 394.655300 19.186523 0.000000
387.928800 392.155980 19.031176 0.000000
387.490690 391.948700 19.043821 0.000000
387.189000 391.832150 19.051031 0.000000
386.705570 391.613160 19.062893 0.000000
385.268010 390.232760 18.956865 0.000000
384.927310 390.065800 18.966455 0.000000
384.541440 389.864530 18.976461 0.000000
384.176180 389.673370 18.984381 0.000000
383.885770 389.514500 18.989922 0.000000
383.445590 389.264650 18.996574 0.000000
383.185180 389.103730 18.999926 0.000000
382.835850 388.880950 19.003099 0.000000
382.494480 388.683200 19.003017 0.000000
382.176480 388.455200 19.003548 0.000000
381.706600 388.085600 19.002523 0.000000
381.417690 387.858460 18.999327 0.000000
381.182340 387.654450 18.996172 0.000000
380.910030 387.421420 18.990740 0.000000
380.608030 387.149750 18.982990 0.000000
380.344240 386.912750 18.974134 0.000000
380.000310 386.608150 18.959675 0.000000
379.542820 386.462490 18.997284 0.000000
379.203860 386.417210 19.041080 0.000000
378.897950 386.149260 19.024336 0.000000
395.580990 397.047120 19.095530 0.000000
394.922360 396.699280 19.109615 0.000000
394.319090 396.387540 19.122211 0.000000
393.754550 396.094180 19.133802 0.000000
389.820160 392.925290 18.973375 0.000000
389.394010 392.743680 18.987684 0.000000
388.998540 392.588870 19.000038 0.000000
388.623660 392.436550 19.011429 0.000000
388.265350 392.289250 19.021967 0.000000
387.093260 391.001890 18.895260 0.000000
386.918150 390.946110 18.901232 0.000000
386.405180 390.734710 18.920265 0.000000
386.004610 390.567200 18.933924 0.000000
385.554530 390.374820 18.947790 0.000000
384.766300 389.421140 18.860727 0.000000
384.531800 389.309970 18.868567 0.000000
384.141510 389.114320 18.880381 0.000000
383.772190 388.913760 18.890568 0.000000
383.422330 388.718600 18.898090 0.000000
382.990300 388.493560 18.902601 0.000000
382.717990 388.328090 18.905231 0.000000
382.411070 388.136260 18.906412 0.000000
382.089940 387.712280 18.864023 0.000000
381.831300 387.534210 18.862038 0.000000
381.528960 387.302920 18.858618 0.000000
381.071200 387.131200 18.893787 0.000000
380.783840 386.877560 18.886286 0.000000
380.513760 386.629360 18.876888 0.000000
380.214230 386.360750 18.863085 0.000000
379.906980 386.088990 18.845617 0.000000
390.444580 393.203250 18.951107 0.000000
390.125760 393.062160 18.962564 0.000000
387.572110 391.202000 18.874960 0.000000
387.280300 391.080750 18.887478 0.000000
385.811340 389.936580 18.814360 0.000000
385.529570 389.787320 18.829168 0.000000
385.264340 389.655150 18.841406 0.000000
385.009550 389.533080 18.851986 0.000000
384.314420 388.775240 18.779793 0.000000
384.009430 388.616880 18.791887 0.000000
383.673250 388.435000 18.803148 0.000000
383.307220 388.233830 18.812567 0.000000
382.998200 387.893680 18.778086 0.000000
382.705720 387.719240 18.781912 0.000000
382.439150 387.550080 18.784365 0.000000
382.094180 387.145390 18.745714 0.000000
381.637210 386.998230 18.778576 0.000000
381.345700 386.777340 18.771931 0.000000
381.065890 386.546390 18.763432 0.000000
380.745700 386.260350 18.750645 0.000000
386.162020 387.318880 18.917217 0.000000
385.519990 386.891570 18.885019 0.000000
385.311800 386.750460 18.939114 0.000000
385.090700 386.603820 18.973961 0.000000
384.695100 386.338780 19.008551 0.000000
394.619930 401.156800 19.968636 0.000000
391.903530 398.810640 19.884323 0.000000
390.872770 397.967070 19.853384 0.000000
389.583010 396.955600 19.815662 0.000000
389.217100 396.703830 19.805752 0.000000
388.549410 396.282620 19.788532 0.000000
388.225070 396.047970 19.779490 0.000000
387.618160 395.610500 19.762606 0.000000
387.333470 395.406010 19.754704 0.000000
387.046360 395.146240 19.745525 0.000000
386.061220 394.490080 19.719336 0.000000
385.188290 393.862850 19.695097 0.000000
384.789400 393.579070 19.684084 0.000000
384.140410 393.118070 19.666183 0.000000
383.877780 392.932620 19.658964 0.000000
383.551510 392.579900 19.647240 0.000000
383.100010 392.083220 19.630823 0.000000
382.753750 391.699280 19.618164 0.000000
382.304530 391.203430 19.601789 0.000000
382.064420 390.938390 19.593040 0.000000
386.068330 393.205260 19.459621 0.000000
385.764890 393.017670 19.456881 0.000000
385.284850 392.719150 19.452230 0.000000
384.923460 392.492980 19.448429 0.000000
384.496220 392.223110 19.443573 0.000000
384.173280 391.939210 19.439579 0.000000
383.943420 391.716740 19.436571 0.000000
381.324340 390.208130 19.568018 0.000000
380.955960 389.839970 19.555458 0.000000
380.837980 389.768740 19.552486 0.000000
380.424800 389.391780 19.539211 0.000000
379.880190 388.880340 19.521381 0.000000
391.864960 396.764980 19.491495 0.000000
391.385710 396.435030 19.489731 0.000000
390.942320 396.137700 19.488026 0.000000
390.549070 395.909790 19.486525 0.000000
390.171690 395.685390 19.484974 0.000000
389.812990 395.473020 19.483412 0.000000
389.469910 395.267970 19.481821 0.000000
389.142030 395.071440 19.480213 0.000000
388.828580 394.883880 19.478590 0.000000
388.528170 394.703670 19.476950 0.000000
388.239530 394.529420 19.475290 0.000000
387.695500 394.200320 19.471922 0.000000
387.438510 394.044460 19.470215 0.000000
387.190610 393.893740 19.468491 0.000000
386.835480 393.676700 19.465870 0.000000
386.495730 393.468380 19.463219 0.000000
383.796450 391.573580 19.434568 0.000000
383.514190 391.308110 19.430559 0.000000
383.243960 391.082490 19.426502 0.000000
382.920560 390.811310 19.421375 0.000000
382.614410 390.553220 19.416157 0.000000
382.377530 390.353820 19.411924 0.000000
382.094640 390.111480 19.406540 0.000000
381.768490 389.831730 19.399923 0.000000
381.506500 389.605710 19.394272 0.000000
381.103390 389.255190 19.384918 0.000000
379.533080 388.570950 19.510393 0.000000
379.233370 388.310550 19.501055 0.000000
378.946960 388.035160 19.491535 0.000000
378.630770 387.695830 19.480228 0.000000
378.387480 387.464840 19.472208 0.000000
378.029450 387.145600 19.460869 0.000000
394.075620 398.211670 19.498178 0.000000
393.516720 397.899690 19.496859 0.000000
392.926180 397.494290 19.495054 0.000000
392.377260 397.117370 19.493269 0.000000
385.363400 391.786220 19.254110 0.000000
384.874910 391.508510 19.255915 0.000000
384.489290 391.270510 19.257046 0.000000
384.196960 391.084110 19.257496 0.000000
383.918950 390.870790 19.258253 0.000000
383.588440 390.628850 19.258299 0.000000
383.215300 390.339600 19.257854 0.000000
382.919860 390.107910 19.256924 0.000000
382.638820 389.884980 19.255424 0.000000
382.316160 389.625950 19.253000 0.000000
382.108610 389.457610 19.251034 0.000000
380.811040 388.998690 19.377636 0.000000
380.480590 388.701870 19.368832 0.000000
380.198760 388.455470 19.360924 0.000000
379.880040 388.162960 19.351349 0.000000
379.603940 387.918090 19.342649 0.000000
379.278350 387.634060 19.331896 0.000000
378.951630 387.344360 19.320473 0.000000
378.713560 387.135530 19.311827 0.000000
378.479310 386.917600 19.302904 0.000000
377.427670 386.631410 19.442318 0.000000
377.156100 386.377840 19.433460 0.000000
381.957430 389.333160 19.249357 0.000000
381.759740 389.170810 19.246849 0.000000
381.331540 388.813050 19.240194 0.000000
381.056850 388.578460 19.235004 0.000000
380.788270 388.346680 19.229202 0.000000
380.481780 388.078000 19.221601 0.000000
380.180330 387.809540 19.213142 0.000000
379.868160 387.526730 19.203257 0.000000
379.591310 387.261230 19.193670 0.000000
379.258120 387.014860 19.180399 0.000000
378.980740 386.786010 19.168692 0.000000
378.301450 386.731930 19.295713 0.000000
378.138520 386.608120 19.289467 0.000000
377.787990 386.285830 19.274990 0.000000
377.580540 386.096620 19.266186 0.000000
378.703340 386.545930 19.156170 0.000000
378.337010 386.204130 19.138348 0.000000
392.794710 391.740720 19.735369 0.000000
391.436800 390.834230 19.699223 0.000000
388.863310 389.114170 19.630671 0.000000
386.221190 387.354370 19.344749 0.000000
385.563570 386.916500 19.329628 0.000000
385.291720 386.733670 19.313028 0.000000
385.013520 386.548800 19.317980 0.000000
384.616460 386.283450 19.324068 0.000000
395.467860 401.889370 19.994957 0.000000
393.856230 400.504270 19.945091 0.000000
391.366670 398.366150 19.868093 0.000000
381.267910 391.381290 19.794205 0.000000
390.398900 397.565280 19.838844 0.000000
389.970640 397.228640 19.826302 0.000000
388.888150 396.525360 19.797922 0.000000
386.796600 395.020780 19.739807 0.000000
386.289060 394.605960 19.724586 0.000000
385.826630 394.277560 19.711832 0.000000
385.611080 394.166020 19.706823 0.000000
384.411290 393.310520 19.673656 0.000000
383.246060 392.242650 19.636106 0.000000
381.034940 391.102690 19.781366 0.000000
380.481350 390.460820 19.752735 0.000000
380.332670 390.260830 19.744160 0.000000
380.167720 390.098970 19.737267 0.000000
382.966190 391.876740 19.624622 0.000000
382.496860 391.390200 19.608227 0.000000
380.026610 389.904880 19.729197 0.000000
379.706050 389.596500 19.716694 0.000000
379.492190 389.398560 19.708946 0.000000
379.279420 389.202820 19.701508 0.000000
378.961150 388.912050 19.690866 0.000000
378.645660 388.619570 19.680645 0.000000
378.343780 388.312770 19.670321 0.000000
381.720370 390.569400 19.580744 0.000000
380.681460 389.625700 19.547453 0.000000
380.438810 389.367550 19.538828 0.000000
380.126800 389.109070 19.529392 0.000000
378.192720 388.158970 19.665319 0.000000
378.039310 388.006100 19.660503 0.000000
377.784880 387.746950 19.652584 0.000000
377.414790 387.385280 19.642174 0.000000
377.139160 387.124510 19.635147 0.000000
376.895940 386.920380 19.630117 0.000000
376.518490 386.605380 19.622761 0.000000
375.912320 386.103970 19.612152 0.000000
379.724400 388.756160 19.516781 0.000000
378.872650 387.923250 19.488153 0.000000
378.761080 387.846040 19.485123 0.000000
377.817840 386.959960 19.454239 0.000000
377.538120 386.728420 19.445782 0.000000
376.971100 386.230350 19.427996 0.000000
392.069090 391.256380 19.716055 0.000000
386.941800 387.833890 19.579578 0.000000
386.627500 387.622830 19.688026 0.000000
386.283690 387.393400 19.671309 0.000000
385.923370 387.152980 19.654034 0.000000
385.609650 386.943630 19.639254 0.000000
385.290310 386.730530 19.624525 0.000000
384.968020 386.515470 19.608767 0.000000
384.641020 386.297240 19.594591 0.000000
391.691470 389.386320 17.771143 0.000000
395.487300 391.966090 17.842342 0.000000
393.351960 390.374510 17.800352 0.000000
391.884740 389.155760 17.767843 0.000000
393.172390 387.133790 17.736589 0.000000
394.797450 388.118990 17.765087 0.000000
394.897860 387.908910 17.761595 0.000000
393.336640 386.769840 17.730980 0.000000
395.039400 387.589970 17.756313 0.000000
393.486790 386.400420 17.725115 0.000000
395.210420 387.157680 17.749535 0.000000
395.329440 386.830600 17.744102 0.000000
394.091860 392.555510 18.259285 0.000000
393.532350 392.373260 18.299761 0.000000
391.353880 390.785400 18.224947 0.000000
395.362150 392.982790 18.165131 0.000000
394.710170 392.767850 18.213535 0.000000
392.573090 391.079160 18.119221 0.000000
392.145940 390.977810 18.156683 0.000000
391.739930 390.879820 18.191883 0.000000
390.744870 389.842650 18.080221 0.000000
390.425170 389.782960 18.112225 0.000000
390.118290 389.724030 18.142584 0.000000
389.548550 388.959440 18.036203 0.000000
389.044310 388.886170 18.091913 0.000000
393.498440 391.293270 18.036699 0.000000
393.023040 391.184050 18.079327 0.000000
391.791900 390.028380 17.972811 0.000000
391.253360 389.934880 18.028444 0.000000
390.376370 389.067810 17.941792 0.000000
389.949800 389.013950 17.990923 0.000000
394.535490 391.526520 17.942202 0.000000
394.000850 391.406560 17.991194 0.000000
392.578550 390.161800 17.889612 0.000000
392.173550 390.092410 17.932785 0.000000
391.187470 389.198790 17.843006 0.000000
390.825560 389.121280 17.889225 0.000000
395.075870 386.482600 17.783676 0.000000
394.709110 386.105930 17.837265 0.000000
395.009340 395.671480 18.865921 0.000000
391.543180 392.768220 18.689634 0.000000
392.993590 393.336850 18.618055 0.000000
392.480260 393.136140 18.643763 0.000000
391.998500 392.947880 18.667505 0.000000
390.139890 391.297180 18.529715 0.000000
389.804630 391.186250 18.550936 0.000000
389.484310 391.079440 18.570877 0.000000
389.177490 390.975830 18.589687 0.000000
387.942440 389.870610 18.495085 0.000000
387.597110 389.767210 18.519669 0.000000
386.915590 389.007110 18.430368 0.000000
386.548520 388.910190 18.458982 0.000000
385.893590 388.284060 18.396963 0.000000
385.598050 388.209530 18.420732 0.000000
394.866240 394.138610 18.519175 0.000000
394.194180 393.851320 18.555084 0.000000
393.631470 393.651700 18.583456 0.000000
391.248810 391.658690 18.457264 0.000000
390.861150 391.533720 18.482933 0.000000
390.490840 391.411900 18.507174 0.000000
389.373600 390.273070 18.387423 0.000000
389.090610 390.196350 18.409435 0.000000
388.687470 390.084750 18.440161 0.000000
388.046720 389.286500 18.335598 0.000000
387.612790 389.183500 18.372980 0.000000
387.305790 389.107910 18.398603 0.000000
386.787290 388.485840 18.319262 0.000000
386.448240 388.412960 18.349659 0.000000
386.125820 388.339510 18.377523 0.000000
395.594180 394.448970 18.479830 0.000000
392.541530 392.067320 18.369297 0.000000
392.084810 391.922390 18.400858 0.000000
391.657200 391.789340 18.429838 0.000000
390.633540 390.603910 18.285578 0.000000
390.297390 390.517210 18.313318 0.000000
389.975890 390.433110 18.339491 0.000000
389.668090 390.351500 18.364189 0.000000
389.006070 389.498260 18.249044 0.000000
388.631900 389.418060 18.283354 0.000000
388.274480 389.338680 18.315521 0.000000
387.721280 388.668760 18.229933 0.000000
387.236760 388.576720 18.277327 0.000000
387.052730 388.539920 18.294783 0.000000
393.022460 392.216550 18.335752 0.000000
389.823490 389.665890 18.171381 0.000000
389.540040 389.608550 18.198719 0.000000
389.267880 389.552830 18.224558 0.000000
388.574830 388.814210 18.142246 0.000000
388.134920 388.741820 18.188082 0.000000
386.917540 387.823790 18.388098 0.000000
394.695070 397.385680 19.266768 0.000000
393.962860 396.951780 19.272402 0.000000
395.483060 397.846920 19.260447 0.000000
390.126190 393.239070 19.009104 0.000000
389.757320 393.079860 19.018105 0.000000
389.404910 392.926420 19.026480 0.000000
389.067870 392.778840 19.034260 0.000000
388.744510 392.635280 19.041527 0.000000
386.599700 390.725560 18.898621 0.000000
386.387790 390.641480 18.905272 0.000000
385.980900 390.473510 18.917625 0.000000
392.391940 394.307010 18.947031 0.000000
391.878570 394.061580 18.961775 0.000000
391.399960 393.835690 18.975168 0.000000
390.948120 393.621190 18.987555 0.000000
388.211400 391.415620 18.838446 0.000000
387.801300 391.241390 18.854782 0.000000
387.413120 391.067660 18.869961 0.000000
387.051730 390.916930 18.883055 0.000000
386.819730 390.814940 18.891354 0.000000
385.994050 389.810670 18.762310 0.000000
385.627080 389.653080 18.779448 0.000000
385.024780 389.359010 18.807596 0.000000
384.785980 389.239410 18.817974 0.000000
384.408840 389.051120 18.833170 0.000000
384.222720 388.728850 18.782341 0.000000
383.985960 388.377750 18.735981 0.000000
383.679170 388.229610 18.749264 0.000000
383.162720 387.962830 18.769690 0.000000
383.000670 387.876220 18.775282 0.000000
382.253910 387.116180 18.708744 0.000000
382.024660 386.983120 18.714020 0.000000
381.788420 386.841920 18.718403 0.000000
394.276090 395.290920 18.889137 0.000000
393.681180 395.040220 18.906624 0.000000
392.972630 394.610570 18.929506 0.000000
389.953520 392.135280 18.763794 0.000000
389.268740 391.855500 18.794123 0.000000
388.949710 391.724180 18.807831 0.000000
388.644290 391.597290 18.820702 0.000000
387.456570 390.368770 18.688837 0.000000
387.113400 390.241790 18.707140 0.000000
386.789000 390.119420 18.723839 0.000000
386.379030 389.961520 18.744173 0.000000
385.757420 389.168580 18.637794 0.000000
385.425140 389.039310 18.657459 0.000000
385.106960 388.902250 18.676315 0.000000
384.735750 388.742740 18.696573 0.000000
384.432650 388.388030 18.660372 0.000000
384.230350 388.095460 18.620253 0.000000
383.926670 387.961880 18.637911 0.000000
383.638790 387.829320 18.653555 0.000000
383.127780 387.419620 18.636311 0.000000
382.798160 387.254390 18.650614 0.000000
382.478550 387.088810 18.662447 0.000000
382.172700 386.768280 18.633472 0.000000
381.853580 386.585210 18.641378 0.000000
381.537750 386.392790 18.646320 0.000000
381.154750 386.142060 18.648264 0.000000
391.112520 392.597080 18.710249 0.000000
390.705510 392.435270 18.729389 0.000000
390.319790 392.281560 18.747198 0.000000
388.600770 390.777680 18.624184 0.000000
388.329160 390.682560 18.640024 0.000000
387.942350 390.545350 18.662018 0.000000
387.061070 389.601650 18.556362 0.000000
386.660680 389.473050 18.582685 0.000000
386.280060 389.339480 18.607361 0.000000
385.709690 388.665340 18.520761 0.000000
385.329160 388.545200 18.546585 0.000000
384.958800 388.392430 18.573835 0.000000
384.760280 388.127930 18.537313 0.000000
384.394070 387.798280 18.515747 0.000000
383.984860 387.634700 18.544384 0.000000
383.676150 387.504520 18.563942 0.000000
387.393710 389.730290 18.531734 0.000000
386.201540 388.815580 18.484898 0.000000
385.171230 388.079160 18.455526 0.000000
384.899810 387.987150 18.477230 0.000000
386.914920 387.819270 18.628239 0.000000
393.718990 399.036440 19.709255 0.000000
393.050750 398.608030 19.697718 0.000000
392.347870 398.069210 19.684233 0.000000
387.336580 393.147830 19.303776 0.000000
387.052610 392.986360 19.303837 0.000000
386.779630 392.830260 19.303747 0.000000
386.390470 392.606660 19.303328 0.000000
386.019900 392.392240 19.302647 0.000000
385.670410 392.188320 19.301666 0.000000
385.019290 391.803710 19.298998 0.000000
384.615780 391.550960 19.296831 0.000000
384.047000 391.129360 19.293516 0.000000
383.780940 390.918000 19.291719 0.000000
390.110410 394.677060 19.296556 0.000000
389.705750 394.460690 19.298231 0.000000
389.320770 394.253780 19.299643 0.000000
388.953030 394.053920 19.300825 0.000000
388.600560 393.858830 19.301804 0.000000
388.263210 393.669950 19.302584 0.000000
387.786560 393.401950 19.303360 0.000000
383.267330 389.785520 19.119999 0.000000
382.987980 389.584930 19.121361 0.000000
393.261110 396.514010 19.277624 0.000000
392.696780 396.234010 19.281366 0.000000
391.461980 395.394500 19.289721 0.000000
390.985470 395.141330 19.292339 0.000000
390.536320 394.903630 19.294601 0.000000
386.215150 391.439180 19.090097 0.000000
385.786680 391.241180 19.095936 0.000000
385.483460 391.107760 19.099384 0.000000
385.181730 390.927670 19.103790 0.000000
384.803010 390.709230 19.108482 0.000000
384.446170 390.499760 19.112310 0.000000
384.191130 390.349150 19.114643 0.000000
383.789640 390.107240 19.117580 0.000000
382.788060 389.433810 19.122164 0.000000
382.470730 389.192870 19.122736 0.000000
382.054600 388.871730 19.122225 0.000000
381.776520 388.653110 19.120918 0.000000
381.510800 388.441100 19.118975 0.000000
381.207790 388.195250 19.115755 0.000000
380.919400 387.956820 19.111652 0.000000
380.569790 387.661010 19.105141 0.000000
380.250310 387.384800 19.097750 0.000000
379.956850 387.127530 19.089468 0.000000
379.704830 386.921510 19.080853 0.000000
388.434750 392.497280 19.048260 0.000000
388.137700 392.364500 19.054495 0.000000
387.713750 392.171450 19.063034 0.000000
387.310390 391.985140 19.070787 0.000000
384.707980 389.858430 18.953815 0.000000
384.465820 389.733060 18.959740 0.000000
384.232120 389.611570 18.965057 0.000000
383.792240 389.375460 18.973953 0.000000
383.182830 389.025820 18.984455 0.000000
382.749180 388.782710 18.988914 0.000000
382.399930 388.569760 18.991682 0.000000
382.018430 388.300350 18.994812 0.000000
381.762630 388.109740 18.996084 0.000000
381.469300 387.886810 18.996485 0.000000
381.099760 387.602420 18.994764 0.000000
380.796630 387.352360 18.992044 0.000000
380.384740 387.002930 18.985842 0.000000
380.102940 386.776030 18.978582 0.000000
379.905550 386.615660 18.972466 0.000000
379.502290 386.289670 18.956718 0.000000
385.593230 390.299190 18.929157 0.000000
385.135440 390.074100 18.942446 0.000000
383.990450 388.854460 18.847122 0.000000
383.662170 388.688170 18.857359 0.000000
383.230800 388.475560 18.868088 0.000000
382.940250 388.325040 18.874195 0.000000
382.717500 388.192200 18.879274 0.000000
382.293370 387.964170 18.884453 0.000000
381.943940 387.753540 18.887951 0.000000
381.663540 387.555790 18.890955 0.000000
381.304380 387.312230 18.891438 0.000000
381.094540 387.147830 18.891724 0.000000
380.692810 386.832000 18.888748 0.000000
380.387970 386.578400 18.884398 0.000000
380.122070 386.372410 18.877201 0.000000
384.126770 388.919490 18.842745 0.000000
382.843600 387.790470 18.780279 0.000000
382.442990 387.574220 18.790306 0.000000
382.204380 387.448300 18.794088 0.000000
381.885740 387.262270 18.798538 0.000000
381.582860 386.896420 18.760828 0.000000
381.288760 386.707310 18.761711 0.000000
380.931430 386.453520 18.761009 0.000000
380.615420 386.216280 18.757385 0.000000
386.911710 387.813510 19.024361 0.000000
384.964020 386.511660 18.840864 0.000000
384.533600 386.220760 19.142979 0.000000
383.156220 392.694430 19.738634 0.000000
382.274900 391.679260 19.688236 0.000000
385.050140 392.990200 19.536257 0.000000
384.711490 392.761470 19.528303 0.000000
384.494380 392.608220 19.523033 0.000000
391.695010 397.562160 19.671497 0.000000
391.102510 397.112920 19.659971 0.000000
390.552400 396.695470 19.649155 0.000000
390.107570 396.446140 19.641459 0.000000
389.621950 396.073670 19.631651 0.000000
389.193970 395.785100 19.623415 0.000000
388.789310 395.512600 19.615532 0.000000
388.406430 395.256380 19.607998 0.000000
388.042450 395.012420 19.600735 0.000000
387.696230 394.781130 19.593744 0.000000
387.049680 394.347170 19.580402 0.000000
386.747220 394.143490 19.574024 0.000000
386.457120 393.947510 19.567814 0.000000
386.178740 393.759250 19.561771 0.000000
385.782380 393.490420 19.552998 0.000000
385.405150 393.232600 19.544470 0.000000
384.075500 392.266020 19.512146 0.000000
383.872590 392.051730 19.506243 0.000000
383.492000 391.649140 19.494967 0.000000
383.227330 391.378480 19.487049 0.000000
382.975680 391.102810 19.479200 0.000000
382.737950 390.888430 19.472128 0.000000
380.542080 389.708560 19.589968 0.000000
380.201570 389.372280 19.572315 0.000000
380.042820 389.197720 19.563507 0.000000
379.667240 388.846620 19.544682 0.000000
379.363650 388.544860 19.528881 0.000000
379.166140 388.349790 19.518641 0.000000
382.435970 390.617920 19.462965 0.000000
382.149480 390.367580 19.454111 0.000000
381.813750 390.056760 19.443220 0.000000
381.557160 389.823910 19.434731 0.000000
381.253540 389.546970 19.424343 0.000000
380.908510 389.230290 19.412096 0.000000
380.581820 388.928470 19.400026 0.000000
380.371950 388.736600 19.392048 0.000000
379.068700 388.253600 19.513592 0.000000
378.481870 387.606810 19.480984 0.000000
377.974120 387.111970 19.454876 0.000000
377.600740 386.759160 19.436037 0.000000
383.287410 390.522130 19.287613 0.000000
383.132690 390.397460 19.286102 0.000000
382.765170 390.098140 19.282051 0.000000
382.488130 389.871000 19.278540 0.000000
382.161590 389.600490 19.273821 0.000000
381.852450 389.342220 19.268784 0.000000
381.560390 389.097630 19.263369 0.000000
381.336640 388.904790 19.258884 0.000000
380.219940 388.591640 19.386074 0.000000
380.022400 388.404110 19.378128 0.000000
379.732730 388.133540 19.366199 0.000000
379.453700 387.867220 19.354212 0.000000
379.270780 387.694240 19.346155 0.000000
378.822910 387.273440 19.325611 0.000000
378.557650 387.026210 19.312931 0.000000
378.294980 386.778720 19.299913 0.000000
377.032870 386.222560 19.407389 0.000000
381.174870 388.765660 19.255352 0.000000
380.914520 388.539860 19.249214 0.000000
380.615300 388.277530 19.241447 0.000000
380.328980 388.023040 19.233231 0.000000
380.009030 387.734380 19.223047 0.000000
379.700560 387.452360 19.212234 0.000000
379.477360 387.268100 19.203640 0.000000
379.080470 386.942260 19.186918 0.000000
378.766880 386.669340 19.172468 0.000000
378.303070 386.515350 19.224865 0.000000
377.900730 386.407040 19.279625 0.000000
377.680390 386.198520 19.267851 0.000000
379.331670 386.618320 19.065889 0.000000
379.086760 386.414310 19.054825 0.000000
378.606450 386.253420 19.097694 0.000000
387.173280 387.976840 19.664322 0.000000
386.908110 387.807130 19.417828 0.000000
384.827480 386.414610 19.239723 0.000000
384.585540 386.253810 19.347919 0.000000
383.354920 392.941440 19.750587 0.000000
380.259520 390.600010 19.815849 0.000000
382.782530 392.304410 19.718580 0.000000
382.437590 391.878940 19.697939 0.000000
382.118100 391.486210 19.678865 0.000000
381.966860 391.299900 19.669823 0.000000
380.020970 390.302370 19.796909 0.000000
379.871670 390.029750 19.780619 0.000000
379.586180 389.716340 19.760784 0.000000
379.366360 389.471220 19.745539 0.000000
377.389400 388.377500 19.864281 0.000000
377.239840 388.203860 19.854248 0.000000
376.990360 387.919190 19.838419 0.000000
376.740880 387.637910 19.823473 0.000000
381.826600 391.073670 19.659698 0.000000
381.610990 390.861690 19.648552 0.000000
381.350040 390.510190 19.631973 0.000000
380.901640 390.063600 19.608606 0.000000
379.256590 389.357030 19.738453 0.000000
379.041380 389.133580 19.724766 0.000000
378.726290 388.807430 19.705162 0.000000
378.526180 388.586640 19.692265 0.000000
378.238590 388.255770 19.673466 0.000000
376.590700 387.470370 19.814932 0.000000
376.386440 387.250120 19.804249 0.000000
376.131530 386.972560 19.791327 0.000000
375.913880 386.757450 19.782141 0.000000
375.498780 386.391390 19.768320 0.000000
375.259030 386.173160 19.760654 0.000000
380.779480 389.942930 19.602272 0.000000
380.426640 389.594510 19.583982 0.000000
380.323820 389.451970 19.577318 0.000000
379.876890 389.051640 19.555485 0.000000
379.668490 388.845860 19.544682 0.000000
379.463930 388.643860 19.534079 0.000000
377.952760 387.939060 19.655888 0.000000
377.678100 387.619840 19.638714 0.000000
377.401310 387.310210 19.622473 0.000000
377.107910 387.018250 19.607483 0.000000
376.801700 386.733460 19.593262 0.000000
376.594640 386.541930 19.583942 0.000000
379.278380 388.421880 19.523199 0.000000
378.883940 388.051790 19.503386 0.000000
378.614320 387.753420 19.488363 0.000000
378.254120 387.376560 19.469004 0.000000
377.880890 387.023900 19.450174 0.000000
377.694240 386.847530 19.440758 0.000000
376.489720 386.445430 19.579334 0.000000
376.223420 386.201170 19.567913 0.000000
377.365750 386.537140 19.424185 0.000000
377.128600 386.313050 19.412220 0.000000
376.896610 386.079620 19.400053 0.000000
387.794340 388.391240 19.690046 0.000000
387.469790 388.174530 19.676600 0.000000
386.900480 387.794860 19.653027 0.000000
386.648800 387.626950 19.642603 0.000000
385.089360 386.586520 19.578016 0.000000
384.467800 386.170810 19.653954 0.000000
390.179320 388.480590 17.755678 0.000000
393.045960 387.544950 17.746508 0.000000
395.227170 388.696440 17.795118 0.000000
393.231570 387.122040 17.739563 0.000000
395.485530 388.372190 17.777128 0.000000
393.358580 386.800600 17.734417 0.000000
393.438510 386.585240 17.730782 0.000000
395.634520 387.986150 17.770216 0.000000
393.549350 386.259860 17.725277 0.000000
391.862640 391.401460 18.307261 0.000000
389.798280 389.842620 18.222340 0.000000
388.618410 388.788790 18.132788 0.000000
387.469940 387.938320 18.088295 0.000000
395.055850 393.819790 18.430902 0.000000
392.909180 391.713260 18.231075 0.000000
392.370030 391.553010 18.270561 0.000000
390.956970 390.117430 18.120632 0.000000
390.552430 390.023160 18.156563 0.000000
390.167630 389.932710 18.190283 0.000000
389.218750 388.899080 18.072542 0.000000
388.911320 388.842010 18.103691 0.000000
388.073300 388.021700 18.021626 0.000000
387.704680 387.971500 18.062691 0.000000
393.479710 391.879520 18.188869 0.000000
391.828920 390.315220 18.041813 0.000000
391.382110 390.214900 18.082418 0.000000
390.217220 389.071930 17.968975 0.000000
389.703980 388.984620 18.022638 0.000000
388.868160 388.120850 17.930357 0.000000
388.458370 388.070770 17.977983 0.000000
394.092770 392.060030 18.142897 0.000000
392.299770 390.419160 17.998539 0.000000
390.958400 389.191590 17.889774 0.000000
390.579280 389.131070 17.930523 0.000000
389.450530 388.187990 17.861115 0.000000
391.393620 386.666600 17.720182 0.000000
391.479030 386.487850 17.717371 0.000000
391.600280 386.217190 17.713017 0.000000
395.407290 386.694060 17.813593 0.000000
395.068570 386.270540 17.853821 0.000000
387.701600 390.083340 18.586761 0.000000
386.164400 388.874570 18.508802 0.000000
385.948670 388.810420 18.523697 0.000000
384.950100 387.934300 18.458397 0.000000
384.022920 387.172090 18.422136 0.000000
395.627620 395.881930 18.810280 0.000000
394.538880 395.191040 18.847092 0.000000
393.789640 394.831940 18.871202 0.000000
390.870540 392.204800 18.652803 0.000000
390.413150 392.028530 18.675531 0.000000
389.979580 391.859950 18.696749 0.000000
388.635010 390.393430 18.528170 0.000000
388.310670 390.286800 18.548861 0.000000
388.000150 390.183990 18.568327 0.000000
387.101900 389.143860 18.440802 0.000000
386.735900 389.039730 18.467953 0.000000
385.787750 388.182040 18.390120 0.000000
385.316280 388.057340 18.428062 0.000000
385.125610 387.517580 18.321075 0.000000
384.872220 387.442380 18.345373 0.000000
384.472170 387.318630 18.382427 0.000000
384.153690 387.181120 18.415098 0.000000
391.871700 392.590480 18.601814 0.000000
391.356780 392.393040 18.628216 0.000000
389.697780 390.733400 18.458275 0.000000
389.327910 390.617070 18.482924 0.000000
388.973480 390.503080 18.506248 0.000000
388.183140 389.437230 18.356693 0.000000
387.897800 389.362000 18.379379 0.000000
387.490140 389.251500 18.411167 0.000000
386.723020 388.401060 18.310684 0.000000
386.292330 388.303190 18.348005 0.000000
385.826200 387.665990 18.255978 0.000000
385.382260 387.576750 18.297409 0.000000
393.649320 393.281100 18.507681 0.000000
393.000950 393.019100 18.542698 0.000000
392.418490 392.798680 18.573389 0.000000
390.928190 391.117370 18.373655 0.000000
390.496610 390.983640 18.403744 0.000000
390.086210 390.854740 18.431992 0.000000
389.110840 389.673890 18.280682 0.000000
388.788910 389.593140 18.307425 0.000000
388.480010 389.514310 18.332726 0.000000
387.799770 388.629670 18.212097 0.000000
387.545560 388.577390 18.236038 0.000000
387.181460 388.500340 18.269629 0.000000
386.603330 387.804780 18.179180 0.000000
386.107730 387.718630 18.228731 0.000000
394.369110 393.584350 18.468054 0.000000
391.382600 391.256200 18.341578 0.000000
389.446080 389.755980 18.252478 0.000000
388.335570 388.735290 18.160557 0.000000
388.062960 388.682340 18.186954 0.000000
387.132810 387.888820 18.124296 0.000000
392.883090 396.338590 19.298510 0.000000
392.168270 395.889710 19.303432 0.000000
387.293270 391.859830 19.053152 0.000000
395.497710 398.013340 19.278919 0.000000
394.345210 397.144260 19.286985 0.000000
393.539730 396.662960 19.293232 0.000000
388.650850 392.452730 19.020981 0.000000
387.775240 392.069120 19.042200 0.000000
385.726650 390.114070 18.881031 0.000000
385.375580 389.954680 18.893822 0.000000
385.043760 389.801300 18.905376 0.000000
384.726100 389.652370 18.916021 0.000000
383.575320 388.372500 18.808321 0.000000
383.264560 388.231080 18.820436 0.000000
382.828090 388.029600 18.835670 0.000000
382.015290 387.113560 18.752716 0.000000
381.681060 386.937190 18.764444 0.000000
381.467530 386.827820 18.770494 0.000000
390.302920 393.179600 18.976921 0.000000
389.844640 392.965090 18.989763 0.000000
389.423650 392.781190 19.001102 0.000000
389.028530 392.614140 19.011393 0.000000
387.174800 390.732480 18.824165 0.000000
386.888240 390.612580 18.835999 0.000000
386.480070 390.439580 18.852362 0.000000
386.092130 390.273530 18.867413 0.000000
385.237880 389.169620 18.726402 0.000000
385.028350 389.073300 18.737673 0.000000
384.727780 388.932950 18.753393 0.000000
384.440190 388.797090 18.767960 0.000000
383.991850 388.580600 18.789513 0.000000
383.740540 387.942050 18.668671 0.000000
383.513210 387.840150 18.681604 0.000000
383.152740 387.672270 18.701246 0.000000
382.748470 387.483670 18.721115 0.000000
382.376890 387.097930 18.686682 0.000000
382.218230 386.826290 18.643936 0.000000
381.840910 386.642490 18.661663 0.000000
381.485570 386.460940 18.676165 0.000000
381.164980 386.126250 18.645334 0.000000
391.856450 393.905520 18.931421 0.000000
391.306340 393.649260 18.947845 0.000000
390.847470 393.489110 18.960644 0.000000
388.448850 391.253970 18.768646 0.000000
388.109560 391.117130 18.783850 0.000000
387.813570 391.033780 18.795612 0.000000
386.251310 389.576510 18.671289 0.000000
385.791260 389.410680 18.695997 0.000000
385.454960 389.268550 18.714468 0.000000
384.939820 388.450350 18.592819 0.000000
384.662260 388.336640 18.611351 0.000000
384.309720 388.187410 18.634224 0.000000
383.897520 388.011260 18.659431 0.000000
383.742100 387.485410 18.551003 0.000000
383.322970 387.317470 18.579290 0.000000
382.866820 387.121640 18.608206 0.000000
382.709470 386.866880 18.569801 0.000000
382.459010 386.580290 18.539379 0.000000
382.036320 386.394990 18.564405 0.000000
381.689730 386.233120 18.582462 0.000000
381.500370 386.140720 18.591305 0.000000
393.121800 394.530090 18.892187 0.000000
392.445710 394.181030 18.913475 0.000000
389.568510 391.699430 18.716526 0.000000
389.177310 391.545200 18.735041 0.000000
388.804780 391.397160 18.752369 0.000000
387.414920 389.985780 18.604151 0.000000
387.139100 389.890720 18.620588 0.000000
386.617400 389.707490 18.650837 0.000000
385.739350 388.746890 18.537888 0.000000
385.434140 388.645750 18.558525 0.000000
385.132600 388.527620 18.579634 0.000000
384.520540 387.780580 18.492846 0.000000
384.116760 387.626710 18.524174 0.000000
383.880950 387.123900 18.434155 0.000000
383.541230 387.005950 18.461668 0.000000
383.215060 386.866670 18.489246 0.000000
382.973820 386.792050 18.504673 0.000000
385.057980 386.587340 18.581116 0.000000
384.652470 386.317020 18.630285 0.000000
394.815490 400.466090 19.818781 0.000000
393.823700 399.679410 19.797935 0.000000
392.957890 399.018370 19.780188 0.000000
392.179870 398.436580 19.764381 0.000000
390.591370 397.017120 19.726498 0.000000
384.572630 391.693970 19.327578 0.000000
384.190160 391.354890 19.326290 0.000000
383.841160 391.081570 19.324793 0.000000
383.620790 390.907750 19.323664 0.000000
383.408690 390.739170 19.322445 0.000000
382.913510 390.346310 19.319017 0.000000
382.635560 390.124360 19.316742 0.000000
382.372680 389.912510 19.314289 0.000000
386.647460 392.868230 19.329273 0.000000
386.172730 392.582610 19.329668 0.000000
385.878300 392.414580 19.329699 0.000000
385.595430 392.253020 19.329567 0.000000
385.060460 391.944670 19.328848 0.000000
384.807280 391.798100 19.328278 0.000000
388.628540 393.951810 19.323853 0.000000
388.227170 393.731050 19.325388 0.000000
387.845340 393.520720 19.326660 0.000000
387.480010 393.316960 19.327688 0.000000
387.131680 393.122680 19.328487 0.000000
384.011750 390.202450 19.113150 0.000000
