# .PCD v0.7 - Point Cloud Data file format
VERSION 0.7
FIELDS x y z intensity
SIZE 4 4 4 4
TYPE F F F F
COUNT 1 1 1 1
WIDTH 1225
HEIGHT 1
VIEWPOINT 0 0 0 1 0 0 0
POINTS 1225
DATA ascii
379.578700 -4.258154 6.956190 0.000000
374.670100 -7.739239 1.818910 0.000000
382.743350 -7.611238 1.997880 0.000000
389.781800 -7.536045 2.152541 0.000000
395.691960 -7.436348 2.282682 0.000000
387.518070 -7.085007 4.008555 0.000000
393.702850 -7.006102 4.013033 0.000000
387.710390 -5.623276 5.946030 0.000000
394.596310 -5.826193 5.796399 0.000000
371.772550 -5.501070 6.283427 0.000000
380.500030 -5.589901 6.097677 0.000000
395.572170 -3.240616 7.607991 0.000000
383.881960 8.770256 10.654611 0.000000
378.026340 -7.521153 1.515152 0.000000
385.159520 -7.420284 1.697781 0.000000
391.423220 -7.358128 1.857118 0.000000
383.390140 -7.071434 3.617204 0.000000
395.638240 -7.022051 3.667318 0.000000
389.860530 -7.023596 3.644178 0.000000
384.785060 -5.844439 5.585351 0.000000
391.282470 -5.932722 5.471270 0.000000
392.590090 -3.368784 7.308732 0.000000
373.327510 -7.566818 1.418837 0.000000
380.759220 -7.461422 1.609015 0.000000
387.282170 -7.396223 1.774865 0.000000
393.147030 -7.388113 1.922536 0.000000
371.279360 -7.200121 3.571062 0.000000
378.963260 -7.109831 3.603738 0.000000
385.697140 -7.059221 3.631714 0.000000
391.709660 -7.057138 3.655696 0.000000
387.066620 -5.898066 5.532061 0.000000
392.929780 -5.975464 5.429573 0.000000
371.809910 -5.571367 5.804359 0.000000
380.295100 -5.806786 5.651092 0.000000
395.463470 -3.893124 7.153511 0.000000
387.893800 -3.074123 7.468949 0.000000
376.504940 -7.500498 1.518470 0.000000
383.264430 -7.432777 1.689634 0.000000
389.341950 -7.424246 1.842055 0.000000
394.515200 -7.376829 1.971981 0.000000
381.658630 -7.091457 3.613221 0.000000
387.887240 -7.089430 3.637442 0.000000
393.185460 -7.047098 3.658965 0.000000
374.679690 -7.143135 3.584963 0.000000
382.976720 -5.861979 5.582829 0.000000
389.059080 -5.942852 5.475932 0.000000
394.089420 -5.926075 5.390411 0.000000
375.952640 -5.766913 5.706960 0.000000
391.248720 -3.645311 7.283229 0.000000
372.050540 -7.507338 1.553652 0.000000
379.057800 -7.439667 1.718752 0.000000
385.356870 -7.432816 1.865740 0.000000
390.721130 -7.386078 1.991019 0.000000
395.344420 -7.306448 2.099088 0.000000
389.271390 -7.019951 3.741167 0.000000
377.285860 -7.054974 3.714697 0.000000
383.762390 -7.058552 3.728532 0.000000
394.013210 -6.946150 3.752890 0.000000
384.721950 -5.793922 5.638327 0.000000
389.983830 -5.786453 5.539457 0.000000
395.500920 -6.044128 5.429159 0.000000
370.996340 -5.584963 5.904355 0.000000
378.355900 -5.697956 5.761381 0.000000
392.018070 -3.519554 7.309280 0.000000
386.179080 -3.140057 7.552275 0.000000
374.529080 -7.495598 1.480839 0.000000
381.058840 -7.487440 1.642540 0.000000
386.620000 -7.437977 1.780329 0.000000
391.422150 -7.357096 1.899340 0.000000
372.956670 -7.159544 3.548393 0.000000
379.637760 -7.158766 3.572291 0.000000
385.323270 -7.115023 3.593491 0.000000
390.219600 -7.035627 3.612585 0.000000
394.908660 -7.061613 3.628826 0.000000
380.798950 -5.896139 5.544654 0.000000
386.205140 -5.880600 5.450993 0.000000
391.876430 -6.138325 5.346113 0.000000
374.363370 -5.832479 5.658925 0.000000
388.438170 -3.582233 7.273886 0.000000
393.442020 -3.829578 7.076716 0.000000
382.491180 -3.213926 7.511942 0.000000
376.909520 -7.505194 1.482143 0.000000
387.634700 -7.372467 1.753094 0.000000
392.316830 -7.371990 1.869877 0.000000
381.470340 -7.159363 3.503064 0.000000
386.526000 -7.077671 3.525213 0.000000
391.365970 -7.104202 3.544462 0.000000
395.569610 -7.087038 3.561931 0.000000
375.601930 -7.204559 3.478280 0.000000
382.459050 -5.904749 5.419189 0.000000
388.300350 -6.168432 5.314535 0.000000
392.883970 -6.217993 5.236870 0.000000
376.890440 -5.922472 5.512818 0.000000
389.895940 -3.775442 7.099908 0.000000
395.420750 -4.351013 6.876433 0.000000
378.652340 -3.156630 7.539732 0.000000
384.756100 -3.527626 7.299256 0.000000
372.818510 -7.567394 1.352853 0.000000
378.764770 -7.514294 1.502617 0.000000
383.899570 -7.427545 1.631829 0.000000
388.737550 -7.425976 1.752204 0.000000
393.078120 -7.426861 1.859679 0.000000
371.572270 -7.279781 3.415066 0.000000
377.628850 -7.232056 3.440178 0.000000
382.845830 -7.146517 3.462544 0.000000
387.842100 -7.173273 3.482165 0.000000
392.180850 -7.154789 3.499894 0.000000
378.665040 -5.937275 5.414917 0.000000
384.691280 -6.208160 5.307171 0.000000
389.421630 -6.258758 5.226841 0.000000
393.443540 -6.224546 5.160842 0.000000
372.918880 -5.956362 5.511916 0.000000
391.923650 -4.284504 6.920445 0.000000
380.912350 -3.438251 7.355773 0.000000
386.221920 -3.693131 7.150085 0.000000
374.347500 -7.393322 1.313362 0.000000
379.662690 -7.311390 1.450605 0.000000
384.671020 -7.317219 1.578644 0.000000
389.165770 -7.325117 1.693013 0.000000
393.003480 -7.255796 1.790788 0.000000
373.372380 -7.152329 3.319895 0.000000
378.754390 -7.070341 3.346548 0.000000
383.910160 -7.104237 3.370402 0.000000
388.388460 -7.090486 3.391766 0.000000
392.179500 -6.988144 3.411206 0.000000
380.786380 -6.139776 5.250810 0.000000
385.652590 -6.195232 5.171696 0.000000
389.736510 -6.142847 5.107967 0.000000
393.639650 -6.165108 5.045953 0.000000
374.592320 -5.856577 5.356748 0.000000
388.314700 -4.186949 6.915540 0.000000
392.735380 -4.443850 6.748522 0.000000
377.059750 -3.327059 7.350699 0.000000
382.485720 -3.584204 7.145009 0.000000
383.827180 9.093113 9.463538 0.000000
383.799840 9.073303 11.424161 0.000000
383.786410 9.046081 13.391346 0.000000
376.117980 -7.330088 1.224824 0.000000
385.815920 -7.344626 1.489429 0.000000
389.737640 -7.273518 1.596308 0.000000
393.381440 -7.233534 1.694926 0.000000
375.184630 -7.081043 3.171814 0.000000
380.499390 -7.133995 3.205656 0.000000
385.080080 -7.123966 3.235656 0.000000
389.001830 -7.037289 3.262510 0.000000
392.734190 -7.015276 3.287161 0.000000
394.132630 -6.217835 4.894148 0.000000
377.578120 -6.228144 5.126122 0.000000
382.416020 -6.247686 5.056991 0.000000
386.570980 -6.191580 4.999740 0.000000
390.527160 -6.205246 4.944244 0.000000
371.386840 -5.968229 5.220345 0.000000
385.459380 -4.311882 6.836639 0.000000
389.894350 -4.552879 6.677690 0.000000
393.764040 -4.715820 6.541440 0.000000
379.626430 -3.725235 7.055165 0.000000
374.212130 -3.490540 7.249901 0.000000
384.449190 9.065743 13.112039 0.000000
374.983700 -7.377518 1.491140 0.000000
379.819150 -7.340956 1.613785 0.000000
384.075930 -7.270227 1.721685 0.000000
388.144530 -7.278240 1.823411 0.000000
391.854490 -7.288874 1.915642 0.000000
395.068970 -7.226061 1.995887 0.000000
373.966950 -7.099310 3.441962 0.000000
383.186800 -6.993961 3.485428 0.000000
387.379640 -7.028961 3.503630 0.000000
391.079770 -7.019049 3.520463 0.000000
394.257930 -6.924425 3.536547 0.000000
378.876800 -7.065996 3.464679 0.000000
395.508540 -6.139952 5.096189 0.000000
375.228970 -5.895586 5.425472 0.000000
379.876280 -5.869185 5.351076 0.000000
384.831910 -6.119875 5.265048 0.000000
388.801730 -6.162975 5.200790 0.000000
392.219730 -6.119558 5.148098 0.000000
394.812680 -4.507528 6.721413 0.000000
386.481050 -3.798626 7.043710 0.000000
391.181550 -4.308052 6.857415 0.000000
377.206970 -3.334623 7.395410 0.000000
382.186650 -3.617733 7.204828 0.000000
385.670040 9.409401 13.269812 0.000000
371.561580 -7.374552 1.123907 0.000000
376.632140 -7.383009 1.264629 0.000000
381.078430 -7.348854 1.387856 0.000000
385.017460 -7.281113 1.496829 0.000000
388.801970 -7.290102 1.600404 0.000000
392.181060 -7.264504 1.692673 0.000000
395.292110 -7.240982 1.777161 0.000000
375.788510 -7.135990 3.156576 0.000000
380.307430 -7.109613 3.188652 0.000000
384.401490 -7.083216 3.217751 0.000000
388.244080 -7.101494 3.244380 0.000000
391.699680 -7.095158 3.268689 0.000000
394.709960 -7.017063 3.291015 0.000000
392.870640 -6.248880 4.861795 0.000000
372.748410 -6.157715 5.133475 0.000000
377.642300 -6.202877 5.065709 0.000000
381.808590 -6.149471 5.010673 0.000000
386.095980 -6.289234 4.950020 0.000000
389.705990 -6.301989 4.901930 0.000000
392.697420 -4.820356 6.488453 0.000000
385.128660 -4.445318 6.751149 0.000000
388.937290 -4.575876 6.620385 0.000000
374.756840 -3.559034 7.128291 0.000000
380.753450 -4.226505 6.904748 0.000000
383.852290 9.148323 9.178305 0.000000
383.833980 9.120911 11.089076 0.000000
383.804020 9.100193 13.008850 0.000000
373.326600 -7.418837 0.918181 0.000000
370.840060 -9.915098 0.823303 0.000000
377.834230 -7.374376 1.055306 0.000000
381.854000 -7.304764 1.177263 0.000000
385.718080 -7.313995 1.293472 0.000000
392.348140 -7.263559 1.491869 0.000000
395.287570 -7.241518 1.579143 0.000000
372.464600 -7.163569 2.852991 0.000000
377.073610 -7.136991 2.898158 0.000000
381.254700 -7.111677 2.939148 0.000000
385.169620 -7.127886 2.976964 0.000000
388.697140 -7.121134 3.011340 0.000000
391.793210 -7.050404 3.042429 0.000000
394.769710 -7.032925 3.071603 0.000000
393.212590 -6.350792 4.609756 0.000000
374.665160 -6.316130 4.805819 0.000000
378.886660 -6.257170 4.761571 0.000000
383.232180 -6.394632 4.712265 0.000000
386.894780 -6.403559 4.673570 0.000000
390.107360 -6.345621 4.641588 0.000000
393.283780 -5.046328 6.195114 0.000000
382.985080 -4.814875 6.513241 0.000000
386.613590 -4.856392 6.401406 0.000000
390.193390 -5.003918 6.288727 0.000000
373.011050 -4.093489 6.843234 0.000000
378.900880 -4.720274 6.641741 0.000000
375.357600 -9.365473 0.769811 0.000000
374.906980 -10.784500 0.743356 0.000000
382.482730 -7.381073 1.020292 0.000000
386.062650 -7.370251 1.137903 0.000000
384.293150 -10.961395 1.054509 0.000000
389.306120 -7.338419 1.244122 0.000000
392.247830 -7.282295 1.340162 0.000000
395.046080 -7.260138 1.430882 0.000000
373.565730 -7.185429 2.641579 0.000000
377.862150 -7.161053 2.696075 0.000000
381.875760 -7.175669 2.746429 0.000000
385.493710 -7.167294 2.792139 0.000000
388.669430 -7.093340 2.833248 0.000000
391.723330 -7.074346 2.872008 0.000000
394.555630 -7.056570 2.907958 0.000000
390.273710 -6.444914 4.444875 0.000000
393.209780 -6.445131 4.423812 0.000000
371.353640 -6.438025 4.589709 0.000000
375.656040 -6.370947 4.557209 0.000000
380.087680 -6.505060 4.519748 0.000000
383.824190 -6.508528 4.491165 0.000000
387.103000 -6.444210 4.468134 0.000000
390.504520 -5.186739 6.063492 0.000000
393.501340 -5.261297 5.981152 0.000000
380.060850 -4.984163 6.355069 0.000000
383.737950 -5.014627 6.252689 0.000000
387.368470 -5.153641 6.149138 0.000000
375.955200 -4.912744 6.471723 0.000000
393.897550 -2.727962 7.610577 0.000000
386.472840 -7.521519 1.114254 0.000000
385.190030 -8.398485 1.065083 0.000000
383.837160 -9.279631 1.013013 0.000000
379.670680 -13.548649 0.836370 0.000000
386.034520 -11.527763 1.070987 0.000000
384.726200 -12.424334 1.019321 0.000000
389.148680 -7.313076 1.205410 0.000000
392.022340 -7.290100 1.301558 0.000000
394.697140 -7.268450 1.390605 0.000000
374.279910 -7.155298 2.582260 0.000000
378.505070 -7.208962 2.639038 0.000000
382.220610 -7.200331 2.689822 0.000000
385.480710 -7.123798 2.735435 0.000000
388.616060 -7.103783 2.778483 0.000000
391.523930 -7.085041 2.818410 0.000000
394.320370 -7.112688 2.856110 0.000000
390.189540 -6.481420 4.373290 0.000000
392.986570 -6.479757 4.356616 0.000000
395.595280 -6.478407 4.341505 0.000000
372.198120 -6.414377 4.491266 0.000000
376.739230 -6.549692 4.457550 0.000000
380.568420 -6.551245 4.432255 0.000000
383.928920 -6.483471 4.412194 0.000000
387.179110 -6.482510 4.391748 0.000000
390.503360 -5.275345 5.971758 0.000000
393.350070 -5.342629 5.897490 0.000000
380.509460 -5.032829 6.239171 0.000000
384.225070 -5.171551 6.137078 0.000000
387.434510 -5.201767 6.052849 0.000000
372.548000 -4.936939 6.454797 0.000000
376.747380 -5.005619 6.339920 0.000000
393.923460 -2.922939 7.501978 0.000000
389.076840 -1.683857 7.771991 0.000000
372.505800 -6.156776 0.673536 0.000000
386.547210 -7.562305 1.135240 0.000000
385.255650 -8.401203 1.087210 0.000000
383.950930 -9.266712 1.038083 0.000000
379.886810 -12.007317 0.881659 0.000000
379.493900 -13.314320 0.858241 0.000000
384.735140 -12.369663 1.043471 0.000000
391.775020 -7.302795 1.309741 0.000000
394.337620 -7.281380 1.394043 0.000000
370.828060 -7.189501 2.537499 0.000000
375.162630 -7.243912 2.594837 0.000000
378.981540 -7.237330 2.646161 0.000000
382.325200 -7.157881 2.692189 0.000000
385.543150 -7.137443 2.735657 0.000000
388.526490 -7.117737 2.775966 0.000000
391.395570 -7.145630 2.814039 0.000000
393.894840 -7.082190 2.848503 0.000000
390.047490 -6.505497 4.353651 0.000000
392.722960 -6.503637 4.337580 0.000000
395.225860 -6.502197 4.322979 0.000000
373.380980 -6.578281 4.460834 0.000000
377.308720 -6.579571 4.434040 0.000000
380.755800 -6.509808 4.412682 0.000000
384.089690 -6.508545 4.390987 0.000000
387.177760 -6.507185 4.371386 0.000000
390.399930 -5.327210 5.934836 0.000000
393.209780 -5.439804 5.860264 0.000000
395.657710 -5.448769 5.799329 0.000000
381.034330 -5.151230 6.182709 0.000000
384.328860 -5.182606 6.095531 0.000000
387.477660 -5.257782 6.011689 0.000000
373.359920 -4.980839 6.392479 0.000000
377.220460 -5.008598 6.288271 0.000000
393.493440 -2.862633 7.470792 0.000000
389.201170 -1.832874 7.705778 0.000000
373.152400 -6.155548 0.695266 0.000000
372.409330 -7.467979 0.662181 0.000000
384.471770 -9.463652 1.056129 0.000000
380.696720 -13.591005 0.902576 0.000000
387.055510 -7.841772 1.150772 0.000000
385.713010 -8.613499 1.102212 0.000000
388.847080 -7.328884 1.212483 0.000000
391.512210 -7.326141 1.300232 0.000000
393.937840 -7.286888 1.379818 0.000000
383.888120 -13.374239 1.012522 0.000000
371.818180 -7.271345 2.529462 0.000000
375.733150 -7.264059 2.582335 0.000000
379.169740 -7.185904 2.629774 0.000000
382.467560 -7.164051 2.674536 0.000000
385.526000 -7.143463 2.716053 0.000000
388.467220 -7.171652 2.755293 0.000000
391.029970 -7.106523 2.790768 0.000000
393.517820 -7.089737 2.824540 0.000000
387.114620 -6.529346 4.333183 0.000000
389.856200 -6.527069 4.316901 0.000000
392.421110 -6.525284 4.302112 0.000000
394.826540 -6.523521 4.288683 0.000000
374.061890 -6.606983 4.414703 0.000000
377.593900 -6.535065 4.393023 0.000000
381.009860 -6.533310 4.371026 0.000000
384.173580 -6.531235 4.351165 0.000000
387.470030 -5.317806 5.953592 0.000000
390.350370 -5.433289 5.877393 0.000000
392.859740 -5.442528 5.815095 0.000000
395.294560 -5.496491 5.753929 0.000000
377.874850 -5.139683 6.206753 0.000000
381.250150 -5.171124 6.117700 0.000000
384.477290 -5.247997 6.032023 0.000000
373.968320 -4.994568 6.314522 0.000000
389.518010 -2.129849 7.606788 0.000000
393.806880 -3.267994 7.368994 0.000000
392.893070 -8.258120 1.134553 0.000000
391.766480 -8.969147 1.094928 0.000000
393.200960 -10.989000 1.143032 0.000000
392.106290 -11.712221 1.103636 0.000000
390.950320 -12.433273 1.061654 0.000000
389.726720 -13.153406 1.016844 0.000000
390.789860 -7.140110 2.555033 0.000000
395.425110 -7.107468 2.627229 0.000000
387.233830 -6.658619 4.070904 0.000000
389.843570 -6.653873 4.061204 0.000000
392.292020 -6.649517 4.052549 0.000000
394.593480 -6.644596 4.044865 0.000000
370.998110 -6.682411 4.139985 0.000000
374.760250 -6.677452 4.122863 0.000000
378.233520 -6.672630 4.107590 0.000000
381.450780 -6.667480 4.093968 0.000000
384.442780 -6.662834 4.081790 0.000000
387.868470 -5.608994 5.655957 0.000000
390.501250 -5.663639 5.594552 0.000000
392.966980 -5.713612 5.537973 0.000000
395.390620 -5.825699 5.481161 0.000000
378.763180 -5.413899 5.874889 0.000000
382.022190 -5.484036 5.795496 0.000000
385.151250 -5.602364 5.718717 0.000000
371.536380 -5.304779 6.052996 0.000000
375.236760 -5.335598 5.961975 0.000000
389.112760 -3.471096 7.264485 0.000000
391.744420 -3.618794 7.150967 0.000000
394.161070 -3.725380 7.049363 0.000000
381.384740 -2.116051 7.643806 0.000000
385.613220 -2.925854 7.432549 0.000000
393.993960 -9.911631 1.114143 0.000000
395.110290 -9.277601 1.153403 0.000000
392.978000 -10.625517 1.078071 0.000000
391.908200 -11.334034 1.039646 0.000000
393.239470 -13.238445 1.086844 0.000000
391.153990 -7.021713 2.481528 0.000000
395.598910 -7.027183 2.554820 0.000000
393.415500 -7.009075 2.518974 0.000000
385.260220 -6.580807 3.975281 0.000000
387.875430 -6.578426 3.968323 0.000000
390.331450 -6.576382 3.962237 0.000000
392.642000 -6.573597 3.956970 0.000000
394.821930 -6.570679 3.952435 0.000000
372.794800 -6.588463 4.014102 0.000000
376.261290 -6.587326 4.002482 0.000000
379.474240 -6.584663 3.992259 0.000000
382.467250 -6.583187 3.983217 0.000000
385.893250 -5.511871 5.581904 0.000000
388.616000 -5.617539 5.520016 0.000000
391.199010 -5.737514 5.461585 0.000000
393.404360 -5.715630 5.416588 0.000000
395.592160 -5.759724 5.370634 0.000000
376.809450 -5.319035 5.789768 0.000000
380.262880 -5.493137 5.706658 0.000000
383.172060 -5.503147 5.641689 0.000000
373.400940 -5.288269 5.868736 0.000000
394.998500 -4.040550 6.876996 0.000000
387.231320 -3.390724 7.207764 0.000000
389.810270 -3.506279 7.101078 0.000000
392.765320 -3.958836 6.965982 0.000000
384.418060 -3.231705 7.327101 0.000000
379.854490 -2.205849 7.555580 0.000000
385.247500 9.232815 13.250602 0.000000
395.083980 -10.895828 1.115725 0.000000
393.983460 -11.508234 1.077605 0.000000
392.977660 -12.197371 1.042605 0.000000
391.917450 -12.880936 1.005222 0.000000
370.792480 -7.119160 2.079897 0.000000
374.352360 -7.148243 2.139173 0.000000
383.325500 -7.092556 2.289718 0.000000
385.849270 -7.026554 2.332501 0.000000
385.040770 -6.607063 3.896141 0.000000
387.554780 -6.604229 3.890479 0.000000
389.922300 -6.602043 3.885590 0.000000
392.154880 -6.599110 3.881435 0.000000
394.267790 -6.597313 3.877909 0.000000
373.144290 -6.615196 3.928526 0.000000
376.436370 -6.613216 3.918764 0.000000
379.501250 -6.611504 3.910185 0.000000
382.452000 -6.657040 3.901546 0.000000
395.094180 -5.831387 5.288438 0.000000
385.845670 -5.647781 5.482308 0.000000
388.487460 -5.769680 5.423326 0.000000
390.743930 -5.747040 5.377766 0.000000
392.981170 -5.791065 5.331369 0.000000
377.299680 -5.521404 5.671159 0.000000
380.276610 -5.531681 5.605352 0.000000
383.059750 -5.539806 5.544860 0.000000
373.767580 -5.344055 5.755115 0.000000
392.406190 -4.051655 6.868263 0.000000
394.717350 -4.236782 6.773586 0.000000
387.108520 -3.510521 7.094946 0.000000
390.124850 -3.969807 6.958471 0.000000
381.601500 -3.233734 7.324008 0.000000
384.474520 -3.394276 7.203080 0.000000
377.022890 -2.233051 7.549639 0.000000
395.010130 -12.612141 1.072072 0.000000
393.976780 -13.230839 1.037486 0.000000
392.970980 -13.888081 1.003632 0.000000
371.028080 -7.203159 2.009879 0.000000
374.210080 -7.132412 2.063759 0.000000
377.283570 -7.117344 2.115436 0.000000
380.154600 -7.102680 2.163713 0.000000
382.815890 -7.072819 2.208575 0.000000
385.450990 -7.121109 2.252461 0.000000
384.639800 -6.679169 3.805053 0.000000
387.064300 -6.675724 3.800196 0.000000
389.351070 -6.671818 3.796077 0.000000
391.514620 -6.668671 3.792607 0.000000
393.563170 -6.664352 3.789772 0.000000
395.509340 -6.660717 3.787485 0.000000
373.254760 -6.693871 3.833308 0.000000
376.393100 -6.690685 3.824718 0.000000
379.414310 -6.735760 3.816156 0.000000
382.064480 -6.682835 3.810701 0.000000
394.440430 -5.939510 5.194572 0.000000
385.649570 -5.853565 5.371846 0.000000
387.958190 -5.829243 5.325346 0.000000
390.246670 -5.872803 5.278140 0.000000
392.403410 -5.909443 5.234655 0.000000
374.207090 -5.606396 5.624022 0.000000
377.250980 -5.614788 5.556977 0.000000
380.098510 -5.621990 5.495287 0.000000
382.947780 -5.730671 5.431730 0.000000
392.078370 -4.316750 6.747829 0.000000
394.412810 -4.572781 6.650935 0.000000
387.387630 -4.048210 6.935714 0.000000
389.717900 -4.129845 6.843942 0.000000
378.686130 -3.304970 7.306636 0.000000
381.619200 -3.466187 7.183761 0.000000
384.309420 -3.582893 7.073774 0.000000
374.415280 -2.509178 7.509687 0.000000
382.226380 9.492947 13.203251 0.000000
370.956240 -7.153420 1.858991 0.000000
374.106540 -7.138527 1.916749 0.000000
377.049440 -7.124069 1.970708 0.000000
381.745120 -6.747250 3.658942 0.000000
384.223480 -6.742455 3.657784 0.000000
386.561280 -6.737217 3.657165 0.000000
388.773350 -6.732838 3.657015 0.000000
390.868100 -6.727352 3.657334 0.000000
392.858250 -6.722599 3.658053 0.000000
394.751500 -6.717724 3.659158 0.000000
373.318390 -6.764088 3.666087 0.000000
376.404270 -6.807907 3.662135 0.000000
379.113460 -6.752727 3.660667 0.000000
393.751650 -6.018910 5.060854 0.000000
395.614070 -6.030647 5.029200 0.000000
382.867100 -5.955380 5.260180 0.000000
385.220580 -5.927326 5.216455 0.000000
387.551480 -5.967083 5.172122 0.000000
389.737730 -5.992577 5.131775 0.000000
391.795720 -6.006237 5.094975 0.000000
374.310090 -5.723343 5.435165 0.000000
377.210720 -5.726696 5.376882 0.000000
380.113650 -5.833641 5.316777 0.000000
371.210170 -5.719013 5.498577 0.000000
391.803440 -4.633953 6.581219 0.000000
393.726870 -4.639114 6.514871 0.000000
395.638460 -4.703190 6.447538 0.000000
384.771120 -4.193096 6.851368 0.000000
387.133880 -4.267654 6.762370 0.000000
389.502320 -4.431381 6.670770 0.000000
378.927580 -3.621590 7.092391 0.000000
381.652680 -3.730701 6.985642 0.000000
372.009280 -2.878696 7.387115 0.000000
375.958370 -3.468212 7.211682 0.000000
370.941680 -7.152172 1.790318 0.000000
376.782200 -7.123337 1.903142 0.000000
379.437130 -7.110317 1.954428 0.000000
381.358920 -6.778351 3.584151 0.000000
383.750150 -6.771671 3.585889 0.000000
386.013430 -6.766228 3.587977 0.000000
388.156770 -6.759693 3.590425 0.000000
390.193210 -6.753964 3.593178 0.000000
392.130620 -6.748169 3.596227 0.000000
393.977230 -6.742332 3.599555 0.000000
395.740360 -6.736515 3.603143 0.000000
373.359800 -6.848423 3.580684 0.000000
376.130950 -6.790768 3.581932 0.000000
378.823030 -6.784061 3.582830 0.000000
393.011780 -6.044189 5.000217 0.000000
394.829620 -6.054398 4.971974 0.000000
382.404850 -5.960567 5.180226 0.000000
384.778840 -5.993893 5.137614 0.000000
386.998780 -6.008007 5.099183 0.000000
389.104610 -6.021065 5.063623 0.000000
391.106110 -6.033180 5.030701 0.000000
371.260830 -5.762913 5.392387 0.000000
374.222350 -5.763088 5.335879 0.000000
377.186130 -5.868927 5.277509 0.000000
380.000150 -5.991512 5.222468 0.000000
391.098180 -4.634499 6.518565 0.000000
393.052400 -4.698166 6.451733 0.000000
394.913940 -4.757763 6.389375 0.000000
384.357420 -4.259506 6.764806 0.000000
386.775850 -4.423172 6.673786 0.000000
389.132020 -4.631157 6.584364 0.000000
375.988490 -3.616024 7.092568 0.000000
378.767150 -3.721992 6.986659 0.000000
381.947170 -4.188309 6.853021 0.000000
372.963620 -3.466297 7.210880 0.000000
384.007140 9.418411 9.174512 0.000000
383.990630 9.391876 10.941902 0.000000
384.084530 9.266197 12.698797 0.000000
373.606380 -7.146298 1.876543 0.000000
376.328400 -7.132752 1.925833 0.000000
378.893190 -7.120499 1.972274 0.000000
381.366390 -7.141251 2.016904 0.000000
383.604980 -7.097504 2.057592 0.000000
385.765840 -7.079376 2.096756 0.000000
380.760010 -6.787823 3.592615 0.000000
383.080720 -6.782532 3.591952 0.000000
385.280790 -6.777691 3.591778 0.000000
387.369840 -6.772823 3.592064 0.000000
389.357180 -6.767811 3.592777 0.000000
391.251280 -6.762734 3.593888 0.000000
393.059660 -6.757633 3.595369 0.000000
394.789250 -6.752640 3.597194 0.000000
372.941440 -6.803341 3.598049 0.000000
375.704470 -6.798077 3.595613 0.000000
378.306000 -6.793175 3.593816 0.000000
392.130250 -6.058453 4.998409 0.000000
393.911350 -6.068783 4.969427 0.000000
395.615840 -6.078232 4.942516 0.000000
381.793850 -5.973625 5.181782 0.000000
384.091430 -6.002209 5.138861 0.000000
386.258610 -6.021481 5.099506 0.000000
388.311490 -6.034874 5.063258 0.000000
390.265960 -6.047089 5.029631 0.000000
370.937530 -5.720032 5.398845 0.000000
373.984990 -5.832516 5.335217 0.000000
376.875370 -5.960430 5.275330 0.000000
379.346590 -5.931507 5.228823 0.000000
390.290560 -4.650799 6.516646 0.000000
392.201600 -4.713951 6.450325 0.000000
394.025020 -4.773109 6.388354 0.000000
383.741490 -4.289188 6.759076 0.000000
386.265050 -4.577663 6.657769 0.000000
388.264100 -4.568329 6.589027 0.000000
375.455720 -3.532078 7.093019 0.000000
378.735110 -4.017979 6.951733 0.000000
381.221340 -4.096935 6.857623 0.000000
372.587740 -3.416420 7.205875 0.000000
383.752140 9.249000 9.135613 0.000000
383.700380 9.259239 10.899940 0.000000
394.856840 -12.673943 1.028409 0.000000
375.949460 -7.134804 1.974733 0.000000
380.776090 -7.111809 2.057076 0.000000
383.000490 -7.100861 2.095026 0.000000
387.126650 -7.081661 2.165416 0.000000
373.322020 -7.147045 1.929911 0.000000
378.430050 -7.123314 2.017052 0.000000
389.038020 -7.067326 2.198047 0.000000
380.222200 -6.776665 3.629043 0.000000
382.476260 -6.771843 3.626504 0.000000
384.619110 -6.768734 3.624523 0.000000
386.656370 -6.764671 3.623105 0.000000
388.597960 -6.760475 3.622193 0.000000
390.451540 -6.756191 3.621754 0.000000
392.225040 -6.752590 3.621742 0.000000
393.922420 -6.747829 3.622162 0.000000
395.551610 -6.743900 3.622953 0.000000
372.658260 -6.788460 3.640777 0.000000
375.326050 -6.784817 3.636121 0.000000
377.842900 -6.780952 3.632230 0.000000
391.326630 -6.051189 5.027924 0.000000
393.073460 -6.061726 4.998492 0.000000
394.747500 -6.071323 4.971115 0.000000
381.209410 -5.943268 5.214245 0.000000
383.450680 -5.976513 5.170819 0.000000
385.572170 -6.002876 5.130773 0.000000
387.585880 -6.023789 5.093769 0.000000
389.500980 -6.039558 5.059571 0.000000
370.811490 -5.748630 5.427639 0.000000
373.783080 -5.883785 5.362906 0.000000
376.322140 -5.856789 5.312382 0.000000
378.838650 -5.904163 5.261277 0.000000
389.527220 -4.622929 6.549576 0.000000
391.399020 -4.685608 6.483929 0.000000
393.282500 -4.826580 6.415546 0.000000
394.898160 -4.797943 6.365135 0.000000
383.282710 -4.368523 6.779189 0.000000
385.395630 -4.402405 6.702417 0.000000
387.565120 -4.555954 6.619800 0.000000
375.463680 -3.742722 7.094290 0.000000
378.032500 -3.830563 6.994136 0.000000
380.634340 -4.034241 6.889518 0.000000
372.074860 -3.234257 7.243928 0.000000
395.374420 -0.728310 7.963038 0.000000
395.289980 -13.751282 1.002063 0.000000
373.035740 -7.162361 1.817359 0.000000
375.624110 -7.183041 1.867424 0.000000
380.240810 -7.124454 1.957259 0.000000
382.402100 -7.113964 1.999218 0.000000
384.457700 -7.102867 2.039133 0.000000
388.291200 -7.082924 2.113565 0.000000
390.082400 -7.073139 2.148346 0.000000
379.755250 -6.826450 3.522311 0.000000
381.939540 -6.819641 3.525491 0.000000
384.017670 -6.812786 3.528978 0.000000
385.998500 -6.805916 3.532754 0.000000
387.889770 -6.799091 3.536799 0.000000
389.699070 -6.792656 3.541093 0.000000
391.432400 -6.786369 3.545626 0.000000
393.094850 -6.779785 3.550393 0.000000
394.692020 -6.773140 3.555380 0.000000
372.463840 -6.848331 3.514831 0.000000
375.029540 -6.841068 3.516951 0.000000
377.455440 -6.833538 3.519457 0.000000
390.559020 -6.084835 4.951657 0.000000
392.268310 -6.092777 4.927771 0.000000
393.908540 -6.099350 4.905701 0.000000
395.485960 -6.105888 4.885267 0.000000
380.762910 -6.026669 5.103265 0.000000
382.918700 -6.045265 5.067854 0.000000
384.963070 -6.056652 5.035375 0.000000
386.912600 -6.066692 5.005315 0.000000
388.776060 -6.076389 4.977446 0.000000
370.945500 -5.967155 5.274367 0.000000
373.526460 -5.932976 5.229299 0.000000
376.084010 -5.973915 5.183517 0.000000
378.488740 -6.003113 5.141720 0.000000
395.707610 -4.894108 6.256107 0.000000
388.861760 -4.694813 6.466858 0.000000
390.781220 -4.834084 6.401710 0.000000
392.428770 -4.801315 6.354390 0.000000
394.101260 -4.849125 6.303616 0.000000
380.626650 -4.414276 6.745598 0.000000
382.768040 -4.436916 6.673305 0.000000
384.956240 -4.572349 6.595803 0.000000
386.954710 -4.635609 6.529120 0.000000
375.307920 -3.893086 6.950517 0.000000
377.942500 -4.086823 6.851047 0.000000
372.708680 -3.817558 7.045302 0.000000
394.778690 -0.920506 7.897214 0.000000
372.720670 -7.161606 1.735201 0.000000
375.255400 -7.204350 1.787046 0.000000
377.493290 -7.137154 1.833410 0.000000
379.701110 -7.126411 1.878838 0.000000
381.801330 -7.115170 1.922058 0.000000
383.804960 -7.105072 1.963288 0.000000
385.718350 -7.095074 2.002661 0.000000
389.303890 -7.076755 2.076443 0.000000
390.987490 -7.068012 2.111088 0.000000
392.603670 -7.057865 2.144356 0.000000
394.160130 -7.049034 2.176388 0.000000
379.276120 -6.859993 3.438163 0.000000
381.396360 -6.852200 3.444211 0.000000
383.417450 -6.844418 3.450438 0.000000
385.347410 -6.836727 3.456833 0.000000
387.193820 -6.829460 3.463385 0.000000
388.962340 -6.821980 3.470097 0.000000
390.659610 -6.814999 3.476952 0.000000
392.289790 -6.807510 3.483961 0.000000
393.858640 -6.800442 3.491105 0.000000
395.370420 -6.793693 3.498383 0.000000
372.227600 -6.884571 3.421177 0.000000
374.701870 -6.875908 3.426638 0.000000
377.047790 -6.867771 3.432303 0.000000
389.814730 -6.113415 4.883243 0.000000
391.489930 -6.120392 4.862662 0.000000
393.099120 -6.125549 4.843763 0.000000
394.649990 -6.131630 4.826311 0.000000
378.083650 -6.057030 5.048041 0.000000
380.273930 -6.068775 5.014856 0.000000
382.360410 -6.080055 4.984168 0.000000
384.349550 -6.089436 4.955861 0.000000
386.250180 -6.097805 4.929719 0.000000
388.070160 -6.105995 4.905548 0.000000
373.342290 -6.024956 5.123158 0.000000
375.779540 -6.044304 5.083960 0.000000
394.916600 -4.944740 6.200105 0.000000
388.317720 -4.847065 6.385756 0.000000
389.997100 -4.811535 6.339614 0.000000
391.703310 -4.859417 6.289880 0.000000
393.340850 -4.903175 6.243495 0.000000
380.175780 -4.468594 6.650919 0.000000
382.380860 -4.586060 6.576290 0.000000
384.416990 -4.648159 6.510863 0.000000
386.360260 -4.706150 6.449827 0.000000
372.596950 -3.932899 6.922872 0.000000
375.189670 -4.065777 6.830509 0.000000
377.999450 -4.450954 6.721580 0.000000
394.521090 -1.444160 7.792846 0.000000
372.464390 -7.236404 1.615696 0.000000
374.750980 -7.167816 1.663124 0.000000
377.006160 -7.156357 1.709730 0.000000
379.152310 -7.145111 1.754085 0.000000
381.199310 -7.134659 1.796389 0.000000
385.024840 -7.114742 1.875450 0.000000
386.817410 -7.105484 1.912497 0.000000
388.537720 -7.096695 1.948050 0.000000
390.190700 -7.087887 1.982213 0.000000
391.781860 -7.079781 2.015096 0.000000
393.314700 -7.071552 2.046776 0.000000
394.792970 -7.062820 2.077331 0.000000
376.644560 -6.930946 3.301485 0.000000
378.808350 -6.923176 3.307856 0.000000
380.871800 -6.916000 3.314391 0.000000
382.842960 -6.909599 3.321081 0.000000
384.730010 -6.904636 3.327910 0.000000
386.537510 -6.899517 3.334892 0.000000
388.271390 -6.894360 3.342020 0.000000
389.934300 -6.886524 3.349324 0.000000
391.534670 -6.879116 3.356760 0.000000
393.075710 -6.870991 3.364340 0.000000
394.562100 -6.862541 3.372059 0.000000
371.980070 -6.949329 3.289264 0.000000
374.371520 -6.939461 3.295287 0.000000
389.122990 -6.186199 4.753756 0.000000
390.764340 -6.191326 4.734667 0.000000
392.346250 -6.197468 4.717049 0.000000
393.870000 -6.201733 4.700937 0.000000
395.340940 -6.205681 4.686179 0.000000
377.686890 -6.137024 4.907507 0.000000
379.812870 -6.146904 4.876534 0.000000
381.841710 -6.156414 4.847900 0.000000
383.780640 -6.165157 4.821449 0.000000
385.636410 -6.173008 4.797032 0.000000
387.415530 -6.180263 4.774499 0.000000
373.102600 -6.111889 4.977455 0.000000
375.452180 -6.124516 4.941115 0.000000
394.227360 -5.086041 6.069538 0.000000
395.717590 -5.122528 6.031273 0.000000
385.964510 -4.950596 6.298386 0.000000
387.674070 -4.913666 6.251537 0.000000
389.411160 -4.961845 6.201242 0.000000
391.078920 -5.006355 6.154298 0.000000
392.682740 -5.047585 6.110470 0.000000
379.921300 -4.687168 6.490890 0.000000
381.994480 -4.750103 6.424676 0.000000
383.973110 -4.808891 6.362905 0.000000
372.759030 -4.269730 6.737731 0.000000
375.556270 -4.619785 6.631968 0.000000
377.722990 -4.603077 6.563333 0.000000
393.373170 -2.647419 7.602516 0.000000
394.950560 -2.745918 7.535286 0.000000
388.729250 -1.135326 7.888315 0.000000
391.102810 -1.890587 7.742527 0.000000
383.982330 9.361347 10.501137 0.000000
383.960240 9.340851 12.235596 0.000000
372.140260 -7.218971 1.433184 0.000000
374.440730 -7.206642 1.482853 0.000000
376.630490 -7.194897 1.530131 0.000000
378.718690 -7.183708 1.575217 0.000000
380.712830 -7.172653 1.618272 0.000000
382.621150 -7.162346 1.659474 0.000000
384.449710 -7.152348 1.698954 0.000000
386.205470 -7.143623 1.736862 0.000000
387.891080 -7.133575 1.773255 0.000000
389.514250 -7.124878 1.808301 0.000000
391.078400 -7.116524 1.842072 0.000000
392.586760 -7.107513 1.874639 0.000000
394.045320 -7.100239 1.906129 0.000000
395.455380 -7.092587 1.936574 0.000000
376.309840 -6.987183 3.114144 0.000000
378.412900 -6.978863 3.122766 0.000000
380.421080 -6.970631 3.131465 0.000000
382.342530 -6.962986 3.140239 0.000000
384.183290 -6.955440 3.149090 0.000000
385.949800 -6.948406 3.158015 0.000000
387.646820 -6.941124 3.167023 0.000000
389.280090 -6.934414 3.176106 0.000000
390.853820 -6.927982 3.185269 0.000000
392.371830 -6.921425 3.194516 0.000000
393.838100 -6.915024 3.203844 0.000000
395.256410 -6.909111 3.213253 0.000000
371.786040 -7.004711 3.097130 0.000000
374.104160 -6.995933 3.105598 0.000000
388.561550 -6.293003 4.575959 0.000000
390.171330 -6.298023 4.559589 0.000000
391.721500 -6.300671 4.544710 0.000000
393.218660 -6.303692 4.531130 0.000000
394.666200 -6.306820 4.518785 0.000000
377.416500 -6.254356 4.709605 0.000000
379.480800 -6.262653 4.682465 0.000000
381.453700 -6.270233 4.657455 0.000000
383.342040 -6.276924 4.634434 0.000000
385.152590 -6.283173 4.613248 0.000000
386.889530 -6.287457 4.593837 0.000000
372.980930 -6.235142 4.770991 0.000000
375.252320 -6.244858 4.739067 0.000000
393.611820 -5.208595 5.897394 0.000000
395.140290 -5.313347 5.857659 0.000000
385.515780 -5.080513 6.107148 0.000000
387.278230 -5.126694 6.058024 0.000000
388.970830 -5.169544 6.012194 0.000000
390.599000 -5.209457 5.969429 0.000000
392.167020 -5.246468 5.929545 0.000000
377.649230 -4.860283 6.341606 0.000000
379.751830 -4.921024 6.276723 0.000000
381.758820 -4.977715 6.216235 0.000000
383.779970 -5.119457 6.153133 0.000000
373.221470 -4.797337 6.480160 0.000000
375.442230 -4.794964 6.411266 0.000000
393.059480 -3.040066 7.396018 0.000000
394.697200 -3.246769 7.322925 0.000000
385.917390 -2.257511 7.725187 0.000000
388.162080 -2.808537 7.599812 0.000000
389.848570 -2.882195 7.528280 0.000000
391.503480 -2.984581 7.457910 0.000000
383.808650 9.203289 10.258072 0.000000
383.777310 9.195950 11.988122 0.000000
377.688900 -7.233795 1.146615 0.000000
379.652920 -7.222290 1.196236 0.000000
388.351650 -7.171726 1.416011 0.000000
391.401210 -7.154068 1.493058 0.000000
373.485720 -7.258453 1.040423 0.000000
375.635500 -7.245686 1.094736 0.000000
381.534730 -7.211517 1.243781 0.000000
383.339080 -7.200123 1.289365 0.000000
385.074550 -7.190754 1.333214 0.000000
386.743680 -7.181183 1.375386 0.000000
389.902800 -7.162662 1.455201 0.000000
392.849820 -7.145382 1.529656 0.000000
394.252560 -7.137264 1.565097 0.000000
395.612700 -7.130093 1.599464 0.000000
375.333950 -7.043186 2.680363 0.000000
377.402830 -7.035526 2.696846 0.000000
379.380250 -7.027279 2.713074 0.000000
381.273830 -7.018974 2.729071 0.000000
383.089870 -7.010422 2.744864 0.000000
384.834930 -7.002525 2.760474 0.000000
386.513790 -6.994976 2.775919 0.000000
388.130860 -6.987343 2.791220 0.000000
389.690550 -6.979881 2.806392 0.000000
391.197170 -6.972992 2.821452 0.000000
392.653440 -6.965756 2.836414 0.000000
394.063540 -6.959049 2.851291 0.000000
395.429930 -6.952335 2.866096 0.000000
370.893620 -7.059544 2.646514 0.000000
373.167630 -7.051544 2.663597 0.000000
387.572020 -6.479069 4.189477 0.000000
389.158540 -6.479931 4.180032 0.000000
390.690430 -6.480965 4.171728 0.000000
392.169680 -6.480408 4.164558 0.000000
393.601470 -6.480068 4.158409 0.000000
394.988160 -6.479157 4.153253 0.000000
376.633820 -6.462883 4.275033 0.000000
378.653020 -6.467022 4.256858 0.000000
380.585820 -6.470787 4.240386 0.000000
382.437810 -6.473244 4.225531 0.000000
384.216640 -6.476028 4.212137 0.000000
385.926330 -6.477951 4.200148 0.000000
372.305450 -6.452415 4.317049 0.000000
374.520570 -6.457962 4.295050 0.000000
392.887790 -5.724552 5.512859 0.000000
394.245610 -5.663418 5.490783 0.000000
395.636080 -5.686676 5.465524 0.000000
384.815890 -5.477634 5.691256 0.000000
386.536560 -5.514771 5.651273 0.000000
388.190980 -5.548466 5.614190 0.000000
389.713440 -5.506455 5.584352 0.000000
391.323580 -5.610287 5.547766 0.000000
377.166440 -5.297211 5.884103 0.000000
379.315670 -5.438564 5.824305 0.000000
381.156770 -5.394165 5.780623 0.000000
383.024840 -5.437786 5.734281 0.000000
372.785580 -5.184261 6.004024 0.000000
375.028080 -5.242184 5.941894 0.000000
391.115080 -3.804176 7.021173 0.000000
392.688110 -3.919632 6.962501 0.000000
394.114690 -3.922657 6.917122 0.000000
384.282780 -3.385052 7.289206 0.000000
386.004090 -3.409225 7.223748 0.000000
387.779660 -3.550938 7.151356 0.000000
389.403720 -3.599789 7.091530 0.000000
380.070250 -2.826740 7.483463 0.000000
382.340330 -3.216248 7.372966 0.000000
374.593600 -1.534866 7.775386 0.000000
377.538450 -2.301426 7.613631 0.000000
384.680300 9.178913 13.159756 0.000000
382.962830 9.117298 13.277697 0.000000
371.979580 -4.683021 0.935220 0.000000
370.812440 -5.480320 0.908366 0.000000
377.303740 -7.256496 1.085587 0.000000
379.219480 -7.244526 1.135483 0.000000
381.058110 -7.233471 1.183374 0.000000
382.824250 -7.222267 1.229373 0.000000
384.524810 -7.212429 1.273669 0.000000
386.172580 -7.211926 1.316631 0.000000
387.743010 -7.192925 1.357492 0.000000
389.269100 -7.183380 1.397241 0.000000
390.745300 -7.174438 1.435690 0.000000
392.174380 -7.165634 1.472913 0.000000
393.559810 -7.157375 1.508999 0.000000
394.904020 -7.149208 1.544010 0.000000
375.012510 -7.067036 2.613663 0.000000
377.027250 -7.059250 2.631787 0.000000
378.956510 -7.051159 2.649612 0.000000
380.806060 -7.042259 2.667166 0.000000
382.583250 -7.033821 2.684476 0.000000
384.292850 -7.025345 2.701569 0.000000
385.939580 -7.016891 2.718465 0.000000
387.528870 -7.009430 2.735185 0.000000
389.063110 -7.001434 2.751749 0.000000
390.547060 -6.994026 2.768175 0.000000
391.984280 -6.987484 2.784476 0.000000
393.375920 -6.979622 2.800673 0.000000
394.726750 -6.972668 2.816777 0.000000
372.906520 -7.075619 2.595208 0.000000
387.004850 -6.518024 4.134763 0.000000
388.563450 -6.517380 4.127616 0.000000
390.070040 -6.516605 4.121536 0.000000
391.527650 -6.515270 4.116479 0.000000
392.940030 -6.514004 4.112377 0.000000
394.309390 -6.511944 4.109210 0.000000
395.638950 -6.509743 4.106915 0.000000
376.314880 -6.511276 4.204173 0.000000
378.278990 -6.512116 4.189083 0.000000
380.164860 -6.514938 4.175466 0.000000
381.974790 -6.516617 4.163322 0.000000
383.714750 -6.517540 4.152548 0.000000
385.389650 -6.517746 4.143062 0.000000
372.110440 -6.503571 4.239617 0.000000
374.259490 -6.507072 4.221020 0.000000
393.603880 -5.710854 5.450269 0.000000
394.975460 -5.730942 5.427795 0.000000
384.344120 -5.543736 5.631336 0.000000
385.950320 -5.500187 5.599802 0.000000
387.650210 -5.608505 5.561335 0.000000
389.300140 -5.727848 5.524656 0.000000
390.726900 -5.664101 5.501340 0.000000
392.188570 -5.688419 5.474759 0.000000
376.890870 -5.381180 5.807131 0.000000
378.873930 -5.426945 5.758141 0.000000
380.773190 -5.469345 5.712657 0.000000
382.594850 -5.508335 5.670453 0.000000
372.645570 -5.279312 5.916683 0.000000
374.936040 -5.427635 5.853423 0.000000
390.494720 -3.787994 6.984108 0.000000
392.264010 -4.160675 6.906496 0.000000
393.729220 -4.239258 6.858074 0.000000
395.150150 -4.317203 6.812610 0.000000
383.793670 -3.389339 7.233667 0.000000
385.513210 -3.442596 7.169850 0.000000
387.326690 -3.658821 7.095066 0.000000
388.920070 -3.704891 7.039538 0.000000
378.012510 -3.029205 7.470311 0.000000
380.081730 -3.210194 7.380820 0.000000
381.908940 -3.238365 7.310818 0.000000
374.520810 -1.696491 7.679225 0.000000
384.405430 9.183662 13.113901 0.000000
382.706240 9.128113 13.226103 0.000000
378.457000 -7.255623 1.185530 0.000000
380.265900 -7.244026 1.231630 0.000000
382.007510 -7.233818 1.276019 0.000000
392.634060 -7.168301 1.546851 0.000000
372.562190 -7.291935 1.035292 0.000000
374.611180 -7.279495 1.087514 0.000000
383.684750 -7.223396 1.318766 0.000000
385.302980 -7.213608 1.360009 0.000000
386.840030 -7.177467 1.399087 0.000000
388.376890 -7.194443 1.438351 0.000000
389.839900 -7.185318 1.475637 0.000000
391.258120 -7.176758 1.511784 0.000000
393.971040 -7.160801 1.580928 0.000000
395.270320 -7.152794 1.614043 0.000000
374.327150 -7.078007 2.669704 0.000000
376.302280 -7.068466 2.686824 0.000000
378.198520 -7.060570 2.703712 0.000000
380.018890 -7.051849 2.720392 0.000000
381.769840 -7.043076 2.736887 0.000000
383.456480 -7.034554 2.753215 0.000000
385.083740 -7.026630 2.769397 0.000000
386.618130 -6.980759 2.785526 0.000000
388.175050 -7.011730 2.801384 0.000000
389.644710 -7.003078 2.817226 0.000000
391.070130 -6.995831 2.832980 0.000000
392.452880 -6.988640 2.848664 0.000000
393.795840 -6.981602 2.864288 0.000000
395.101320 -6.974606 2.879866 0.000000
372.262080 -7.085442 2.652325 0.000000
387.660830 -6.497028 4.187103 0.000000
389.154330 -6.495933 4.181014 0.000000
390.601440 -6.495022 4.175927 0.000000
392.004330 -6.493263 4.171824 0.000000
393.366360 -6.491341 4.168642 0.000000
394.689640 -6.488762 4.166353 0.000000
375.574010 -6.489769 4.263683 0.000000
377.507390 -6.492703 4.248562 0.000000
379.363160 -6.494904 4.234984 0.000000
381.146970 -6.496292 4.222856 0.000000
382.863890 -6.496925 4.212088 0.000000
384.519440 -6.497635 4.202574 0.000000
386.116790 -6.497349 4.194278 0.000000
371.451230 -6.483410 4.298939 0.000000
373.557980 -6.487061 4.280423 0.000000
392.638550 -5.636868 5.524784 0.000000
394.004270 -5.656670 5.502738 0.000000
395.331210 -5.675049 5.482535 0.000000
385.119930 -5.505985 5.666889 0.000000
386.814120 -5.629692 5.628017 0.000000
388.278440 -5.565262 5.603186 0.000000
389.779660 -5.592400 5.574827 0.000000
391.230930 -5.615025 5.548806 0.000000
376.105590 -5.313133 5.875047 0.000000
378.056980 -5.358070 5.827018 0.000000
379.928860 -5.399971 5.782381 0.000000
381.725620 -5.437717 5.740999 0.000000
383.374210 -5.393490 5.707629 0.000000
372.058960 -5.310928 5.975565 0.000000
374.068180 -5.264996 5.926721 0.000000
389.704220 -3.849327 7.059043 0.000000
391.214940 -3.933090 7.007896 0.000000
392.679690 -4.016113 6.959838 0.000000
394.100980 -4.097916 6.914750 0.000000
395.481050 -4.178104 6.872521 0.000000
384.611180 -3.323132 7.257814 0.000000
386.254430 -3.373135 7.199296 0.000000
387.878690 -3.461803 7.140817 0.000000
379.066830 -2.925263 7.480630 0.000000
380.963870 -3.037723 7.403901 0.000000
382.738680 -3.096008 7.336654 0.000000
374.325930 -2.059616 7.712029 0.000000
377.131010 -2.845718 7.558856 0.000000
383.885310 9.268986 9.788340 0.000000
383.861150 9.249283 11.506227 0.000000
383.876590 9.177357 13.223643 0.000000
382.246120 9.053894 13.320646 0.000000
372.030460 -7.273224 1.054046 0.000000
374.034520 -7.260963 1.104706 0.000000
375.957760 -7.249619 1.153324 0.000000
377.805690 -7.238747 1.200038 0.000000
379.583500 -7.228043 1.244979 0.000000
381.296230 -7.217716 1.288274 0.000000
382.948300 -7.207600 1.330036 0.000000
384.544430 -7.198265 1.370385 0.000000
386.087800 -7.189110 1.409400 0.000000
389.030060 -7.171619 1.483777 0.000000
390.459930 -7.192665 1.520016 0.000000
391.799800 -7.155129 1.553793 0.000000
393.126560 -7.147129 1.587332 0.000000
394.417850 -7.139389 1.619975 0.000000
395.675750 -7.131790 1.651773 0.000000
373.758330 -7.059185 2.686915 0.000000
375.695470 -7.052177 2.703756 0.000000
377.554900 -7.044109 2.720401 0.000000
379.342960 -7.035519 2.736872 0.000000
381.065310 -7.027168 2.753188 0.000000
382.726900 -7.019333 2.769365 0.000000
384.330200 -7.010300 2.785425 0.000000
385.882540 -7.003643 2.801374 0.000000
387.384250 -6.996105 2.817236 0.000000
388.839750 -6.988972 2.833020 0.000000
390.265990 -6.998714 2.848674 0.000000
391.623050 -6.974937 2.864411 0.000000
392.956120 -6.968018 2.880041 0.000000
394.253450 -6.961258 2.895641 0.000000
395.517150 -6.954647 2.911223 0.000000
371.740450 -7.067821 2.669852 0.000000
386.881620 -6.476307 4.210216 0.000000
388.359440 -6.475624 4.204709 0.000000
389.792080 -6.474144 4.200217 0.000000
391.182950 -6.472458 4.196674 0.000000
392.534420 -6.470261 4.194047 0.000000
393.849270 -6.467945 4.192284 0.000000
395.129300 -6.464947 4.191368 0.000000
374.987700 -6.470734 4.281706 0.000000
376.882840 -6.473335 4.267440 0.000000
378.704220 -6.474846 4.254678 0.000000
380.458470 -6.476696 4.243282 0.000000
382.148500 -6.477131 4.233231 0.000000
383.778990 -6.476395 4.224440 0.000000
385.356410 -6.477058 4.216757 0.000000
370.954470 -6.464161 4.315098 0.000000
373.013280 -6.467323 4.297567 0.000000
393.172000 -5.616356 5.539696 0.000000
394.490170 -5.633469 5.520596 0.000000
384.469880 -5.568085 5.690214 0.000000
386.033360 -5.576695 5.659932 0.000000
387.499020 -5.529682 5.635299 0.000000
388.982540 -5.553959 5.608334 0.000000
390.420870 -5.576729 5.583467 0.000000
391.816250 -5.597286 5.560634 0.000000
375.522160 -5.288490 5.895573 0.000000
377.434810 -5.331741 5.849540 0.000000
379.270050 -5.370090 5.806889 0.000000
380.955110 -5.325905 5.772413 0.000000
382.740300 -5.442772 5.730261 0.000000
371.446500 -5.192448 5.998357 0.000000
373.528320 -5.242123 5.945093 0.000000
390.393130 -3.832336 7.058148 0.000000
391.847960 -3.916511 7.011640 0.000000
393.260590 -3.999012 6.968069 0.000000
394.633270 -4.079498 6.927324 0.000000
383.815860 -3.171989 7.305008 0.000000
385.478580 -3.263279 7.244740 0.000000
387.347380 -3.660687 7.160440 0.000000
388.893770 -3.746895 7.107707 0.000000
378.399990 -2.826981 7.515798 0.000000
380.216860 -2.887176 7.446533 0.000000
382.133760 -3.120327 7.365299 0.000000
373.423490 -1.656296 7.770919 0.000000
376.123780 -2.391441 7.625773 0.000000
383.523100 9.106960 13.267037 0.000000
384.944030 9.449364 13.217257 0.000000
373.356510 -7.293312 1.038517 0.000000
375.243650 -7.281525 1.087377 0.000000
377.058470 -7.269257 1.134361 0.000000
378.808380 -7.258770 1.179669 0.000000
380.496060 -7.248314 1.223365 0.000000
382.125640 -7.237713 1.265555 0.000000
383.701260 -7.227181 1.306347 0.000000
385.227630 -7.218037 1.345867 0.000000
386.706730 -7.208851 1.384163 0.000000
388.141690 -7.199802 1.421315 0.000000
389.535490 -7.191013 1.457402 0.000000
390.890530 -7.182362 1.492484 0.000000
392.209350 -7.173977 1.526630 0.000000
393.494110 -7.165768 1.559892 0.000000
394.746920 -7.157890 1.592328 0.000000
373.088260 -7.091782 2.621879 0.000000
374.987950 -7.083588 2.640042 0.000000
376.815580 -7.075706 2.657982 0.000000
378.575130 -7.067196 2.675722 0.000000
380.272160 -7.058792 2.693283 0.000000
381.910310 -7.049881 2.710687 0.000000
383.494690 -7.041611 2.727949 0.000000
385.028230 -7.033367 2.745088 0.000000
386.514620 -7.025524 2.762120 0.000000
387.956600 -7.017769 2.779059 0.000000
389.356990 -7.010166 2.795921 0.000000
390.718380 -7.002605 2.812718 0.000000
392.043270 -6.995228 2.829464 0.000000
393.333830 -6.987991 2.846169 0.000000
394.592190 -6.980938 2.862846 0.000000
371.109990 -7.099659 2.603466 0.000000
386.041440 -6.521854 4.161952 0.000000
387.503570 -6.519474 4.158281 0.000000
388.923160 -6.516949 4.155549 0.000000
390.302520 -6.513916 4.153727 0.000000
391.644560 -6.510788 4.152764 0.000000
392.951050 -6.506985 4.152645 0.000000
394.224700 -6.503178 4.153316 0.000000
395.467190 -6.499004 4.154760 0.000000
374.329350 -6.526127 4.218674 0.000000
376.187990 -6.526623 4.206808 0.000000
377.977510 -6.526890 4.196315 0.000000
379.702820 -6.526947 4.187112 0.000000
381.367520 -6.526035 4.179151 0.000000
382.976590 -6.525013 4.172339 0.000000
384.533970 -6.524250 4.166605 0.000000
372.395510 -6.524563 4.232028 0.000000
392.303650 -5.666195 5.508561 0.000000
393.612730 -5.680691 5.491707 0.000000
394.888610 -5.693905 5.476507 0.000000
383.676210 -5.615883 5.645127 0.000000
385.171200 -5.566448 5.620956 0.000000
386.684720 -5.590054 5.594422 0.000000
388.152800 -5.612938 5.569949 0.000000
389.575650 -5.631805 5.547631 0.000000
390.958770 -5.649948 5.527173 0.000000
374.905670 -5.373173 5.832843 0.000000
376.777890 -5.411190 5.790523 0.000000
