# .PCD v0.7 - Point Cloud Data file format
VERSION 0.7
FIELDS x y z intensity
SIZE 4 4 4 4
TYPE F F F F
COUNT 1 1 1 1
WIDTH 1225
HEIGHT 1
VIEWPOINT 0 0 0 1 0 0 0
POINTS 1225
DATA ascii
393.913850 62.633720 2.678877 0.000000
370.967560 62.870445 2.619392 0.000000
391.669860 62.824089 2.688540 0.000000
394.094330 62.823631 2.672447 0.000000
394.239930 63.037811 2.672004 0.000000
371.079930 63.245796 2.675545 0.000000
391.693940 63.234482 2.731750 0.000000
394.202670 63.365509 2.704730 0.000000
371.110170 63.825047 2.740231 0.000000
391.835510 63.678196 2.760099 0.000000
394.456180 63.808849 2.706670 0.000000
371.053740 64.056801 2.755367 0.000000
391.958130 64.122307 2.788550 0.000000
394.709560 64.107849 2.694979 0.000000
370.953030 64.518097 2.785137 0.000000
371.001890 64.288155 2.770441 0.000000
392.039250 64.454582 2.809744 0.000000
395.158780 64.458282 2.658062 0.000000
370.888700 64.861916 2.807053 0.000000
392.044490 64.947845 2.856040 0.000000
395.457090 64.750778 2.636159 0.000000
370.832310 65.203995 2.828664 0.000000
391.963040 65.351677 2.905288 0.000000
394.830380 65.314308 2.762715 0.000000
370.788700 65.545143 2.850483 0.000000
391.877720 65.743401 2.952803 0.000000
394.685180 65.645493 2.804595 0.000000
394.591670 65.946198 2.836465 0.000000
394.120330 66.382706 2.930704 0.000000
370.810360 77.211006 2.832825 0.000000
371.040470 77.583931 2.835134 0.000000
371.365480 77.765251 2.866544 0.000000
371.934480 77.767525 2.948523 0.000000
372.466160 77.769691 3.023891 0.000000
388.184970 62.304466 3.174118 0.000000
390.500760 62.401276 3.205820 0.000000
392.894200 62.444115 3.103777 0.000000
391.754550 66.245834 3.013719 0.000000
391.816930 65.997513 2.983674 0.000000
391.690460 66.488632 3.043007 0.000000
393.959690 66.685516 2.971219 0.000000
391.590030 66.842598 3.085688 0.000000
393.532010 67.069672 3.054895 0.000000
391.451200 67.297234 3.140257 0.000000
393.374210 67.348000 3.092490 0.000000
391.416470 67.788628 3.177123 0.000000
393.278380 67.817177 3.128898 0.000000
391.551060 68.120178 3.172719 0.000000
393.511080 68.081680 3.104912 0.000000
391.732820 68.440735 3.157814 0.000000
391.821900 68.604164 3.149901 0.000000
393.740660 68.354576 3.080602 0.000000
393.890050 68.542412 3.064408 0.000000
391.992000 68.938492 3.133947 0.000000
394.060180 68.841171 3.047786 0.000000
392.154420 69.280006 3.117743 0.000000
392.234620 69.453835 3.108980 0.000000
394.198580 69.372444 3.040681 0.000000
392.381770 69.715019 3.089957 0.000000
394.121980 69.710999 3.059739 0.000000
392.527590 69.981636 3.070164 0.000000
394.011020 70.154373 3.084426 0.000000
392.541050 70.453430 3.075466 0.000000
393.934480 70.586563 3.101287 0.000000
392.507420 70.924683 3.085500 0.000000
393.896670 71.011818 3.109742 0.000000
395.727630 71.003113 3.134529 0.000000
392.459840 71.392258 3.094644 0.000000
393.860260 71.328804 3.115908 0.000000
395.744170 71.369034 3.132919 0.000000
392.408140 71.763138 3.101716 0.000000
393.815890 71.643677 3.121905 0.000000
395.750730 71.735878 3.131245 0.000000
392.345120 72.130943 3.108538 0.000000
393.734070 72.164772 3.130510 0.000000
393.765410 71.956726 3.127733 0.000000
395.748900 72.103241 3.129566 0.000000
370.839940 72.464813 3.092856 0.000000
392.271060 72.495430 3.115089 0.000000
393.714510 72.479347 3.129242 0.000000
395.736720 72.471016 3.127864 0.000000
370.918730 72.841339 3.097832 0.000000
392.185390 72.856186 3.121499 0.000000
393.677250 72.898521 3.127413 0.000000
395.704710 72.961258 3.125822 0.000000
370.985810 73.121422 3.101513 0.000000
392.076810 73.304680 3.126524 0.000000
393.623380 73.316437 3.125917 0.000000
395.668370 73.328415 3.124524 0.000000
370.857300 73.644203 3.061717 0.000000
391.982970 73.755936 3.125564 0.000000
393.551210 73.732010 3.125025 0.000000
395.597810 73.690277 3.126439 0.000000
391.894990 74.114555 3.124484 0.000000
393.464750 74.145363 3.124114 0.000000
395.462370 74.163429 3.132770 0.000000
391.794400 74.470299 3.123422 0.000000
393.336760 74.658157 3.123012 0.000000
393.391300 74.453789 3.123377 0.000000
395.351040 74.514534 3.137483 0.000000
391.650820 74.910202 3.122060 0.000000
393.232450 74.957649 3.124998 0.000000
395.231570 74.861992 3.141957 0.000000
391.490510 75.345078 3.120471 0.000000
393.071500 75.348640 3.129382 0.000000
395.064300 75.321205 3.147215 0.000000
389.529750 75.777054 3.398438 0.000000
391.334350 75.784767 3.114255 0.000000
391.396970 75.608429 3.117207 0.000000
392.899380 75.848686 3.126902 0.000000
392.967500 75.648056 3.128486 0.000000
394.898650 75.909325 3.144621 0.000000
394.961640 75.672546 3.146586 0.000000
391.190460 76.130302 3.109969 0.000000
392.790950 76.148064 3.124373 0.000000
394.828460 76.144142 3.143087 0.000000
391.030700 76.469223 3.106806 0.000000
392.634340 76.543594 3.121040 0.000000
394.719540 76.496391 3.140119 0.000000
390.812840 76.885399 3.102752 0.000000
392.465000 76.935173 3.117467 0.000000
394.516600 77.078003 3.135444 0.000000
394.601780 76.846519 3.137218 0.000000
390.477630 77.453819 3.097049 0.000000
390.626370 77.212921 3.099303 0.000000
392.329220 77.225693 3.114791 0.000000
394.428990 77.309097 3.133428 0.000000
370.961490 77.761215 3.233623 0.000000
371.368440 77.762909 3.281658 0.000000
371.936310 77.766022 3.215302 0.000000
372.467860 77.768242 3.280920 0.000000
372.799220 77.770302 3.195705 0.000000
373.116390 77.771591 3.236492 0.000000
373.564910 77.773460 3.293109 0.000000
373.988160 77.775856 3.230445 0.000000
374.384670 77.777473 3.281592 0.000000
374.761570 77.779022 3.329159 0.000000
375.116330 77.780548 3.372664 0.000000
375.455380 77.781906 3.413260 0.000000
389.520140 77.866203 3.186646 0.000000
390.323670 77.692322 3.094336 0.000000
392.085170 77.702988 3.110186 0.000000
394.288790 77.653069 3.130469 0.000000
390.054470 78.082878 3.089618 0.000000
390.163180 77.926949 3.091796 0.000000
391.875490 78.078659 3.106370 0.000000
394.037810 78.221069 3.125256 0.000000
394.141140 77.994781 3.127398 0.000000
389.645200 78.608864 3.083463 0.000000
389.824400 78.385857 3.086235 0.000000
391.652530 78.448044 3.102498 0.000000
393.818020 78.668564 3.121119 0.000000
389.395420 78.897964 3.080204 0.000000
391.232600 79.079308 3.095307 0.000000
391.415950 78.810287 3.098661 0.000000
393.643460 79.000671 3.117782 0.000000
389.138790 79.182846 3.075978 0.000000
389.512760 79.445183 3.252903 0.000000
390.972320 79.427589 3.091610 0.000000
393.460390 79.329010 3.114523 0.000000
388.520390 79.789162 3.067292 0.000000
390.771390 79.685997 3.088180 0.000000
393.202610 79.760757 3.110014 0.000000
393.333310 79.545700 3.112296 0.000000
388.231960 80.047432 3.062593 0.000000
390.419220 80.104263 3.082985 0.000000
390.558290 79.934402 3.086002 0.000000
392.999020 80.079697 3.106522 0.000000
390.123960 80.429184 3.078657 0.000000
392.787750 80.394638 3.103002 0.000000
389.500550 81.053139 3.210096 0.000000
392.415370 80.908218 3.097058 0.000000
395.744600 80.941788 3.124043 0.000000
389.157990 81.332542 3.067912 0.000000
392.015900 81.403450 3.091907 0.000000
392.181550 81.210159 3.093440 0.000000
395.521610 81.334572 3.119991 0.000000
391.856320 81.604126 3.088541 0.000000
395.289120 81.723251 3.115906 0.000000
391.517150 81.988708 3.083474 0.000000
395.036010 82.099030 3.113048 0.000000
394.562230 82.685448 3.112788 0.000000
390.340520 82.973541 3.084661 0.000000
394.365200 82.914238 3.112681 0.000000
393.953830 83.356560 3.113268 0.000000
394.164490 83.140068 3.112518 0.000000
393.751430 83.581932 3.112119 0.000000
393.323330 84.010437 3.111605 0.000000
389.529300 75.775986 3.602124 0.000000
385.634490 77.315697 3.716953 0.000000
385.787510 77.316521 3.702072 0.000000
370.964570 77.758827 3.656595 0.000000
371.371370 77.760582 3.693206 0.000000
371.939030 77.763779 3.611913 0.000000
372.470400 77.766083 3.663035 0.000000
372.802460 77.767487 3.694434 0.000000
373.118680 77.769524 3.602885 0.000000
373.567080 77.771454 3.647801 0.000000
373.990170 77.773911 3.575079 0.000000
374.386600 77.775574 3.616311 0.000000
374.763370 77.777176 3.654651 0.000000
375.118070 77.778732 3.689718 0.000000
375.564610 77.781189 3.631447 0.000000
375.983430 77.783531 3.573242 0.000000
376.378510 77.785225 3.613793 0.000000
376.752260 77.786812 3.650469 0.000000
377.107180 77.788345 3.683651 0.000000
377.526950 77.790161 3.720571 0.000000
377.925540 77.792381 3.666571 0.000000
378.303990 77.794052 3.697163 0.000000
378.737370 77.795967 3.729025 0.000000
379.150970 77.797806 3.755945 0.000000
379.548310 77.799606 3.778373 0.000000
379.932310 77.801361 3.796676 0.000000
380.305730 77.803078 3.811140 0.000000
380.670900 77.804787 3.821983 0.000000
382.806950 77.815140 3.816623 0.000000
383.172420 77.817215 3.803917 0.000000
383.545680 77.818130 3.787838 0.000000
384.463380 77.823624 3.734094 0.000000
384.742100 77.825081 3.714056 0.000000
385.176060 77.827362 3.680002 0.000000
385.555150 77.829384 3.647484 0.000000
385.791600 77.830154 3.714176 0.000000
386.375430 77.833275 3.660486 0.000000
386.822300 77.835670 3.616300 0.000000
389.519380 77.863960 3.532844 0.000000
389.512510 79.442993 3.633390 0.000000
389.513850 81.067955 3.627818 0.000000
382.724700 75.666389 4.186881 0.000000
383.153020 75.668846 4.166835 0.000000
383.489870 75.735626 4.136150 0.000000
385.636260 75.801636 4.068194 0.000000
385.779240 75.721550 4.062075 0.000000
389.528660 75.774391 3.904939 0.000000
383.475460 76.097878 4.137658 0.000000
385.633880 75.883835 3.919829 0.000000
382.665560 76.576653 4.096052 0.000000
385.634580 77.314293 3.963565 0.000000
385.787600 77.314636 4.033870 0.000000
370.967650 77.756454 4.076029 0.000000
371.374270 77.758278 4.101314 0.000000
371.941710 77.761566 4.005619 0.000000
372.472900 77.763947 4.042359 0.000000
372.804840 77.765396 4.064921 0.000000
373.121550 77.767029 3.965712 0.000000
373.569210 77.769470 3.998986 0.000000
373.992860 77.771339 4.029876 0.000000
374.389130 77.773079 4.058024 0.000000
374.765750 77.774750 4.084194 0.000000
375.120300 77.776382 4.108118 0.000000
375.566710 77.778900 4.037445 0.000000
375.985410 77.781296 3.968043 0.000000
376.380370 77.783035 3.997402 0.000000
376.754000 77.784698 4.023942 0.000000
377.108830 77.786278 4.047944 0.000000
377.528470 77.788155 4.074635 0.000000
377.926940 77.790428 4.012290 0.000000
378.305330 77.792137 4.034911 0.000000
378.738590 77.794098 4.058448 0.000000
379.151820 77.796440 3.998227 0.000000
379.549100 77.798256 4.016210 0.000000
379.933010 77.800163 4.030838 0.000000
380.306430 77.801773 4.042404 0.000000
380.791410 77.804489 3.977199 0.000000
381.149260 77.806175 3.982483 0.000000
381.523280 77.807976 3.984961 0.000000
381.935300 77.809967 3.984010 0.000000
382.329010 77.811897 3.979585 0.000000
382.666900 77.813576 3.973067 0.000000
383.203340 77.815819 4.034480 0.000000
383.577820 77.817703 4.020658 0.000000
383.833010 77.819000 4.010103 0.000000
384.777500 77.823853 3.959895 0.000000
385.176330 77.825447 4.018070 0.000000
385.555330 77.827408 3.993569 0.000000
385.791750 77.828156 4.064805 0.000000
386.375490 77.831207 4.025244 0.000000
386.822300 77.833534 3.992708 0.000000
389.518400 77.861000 3.989666 0.000000
386.777500 78.023048 4.072946 0.000000
389.512270 79.440826 4.011119 0.000000
389.513790 81.065567 4.045418 0.000000
382.893950 75.666977 4.285895 0.000000
383.154110 75.667336 4.434071 0.000000
383.577330 75.715424 4.410273 0.000000
383.896360 75.680321 4.512062 0.000000
385.635860 75.799286 4.407318 0.000000
385.779080 75.719238 4.470566 0.000000
389.527800 75.772278 4.305175 0.000000
383.644560 76.153870 4.300431 0.000000
383.839900 76.005737 4.486231 0.000000
382.814700 76.576332 4.279040 0.000000
383.117610 76.576424 4.520319 0.000000
383.799380 76.425018 4.451712 0.000000
385.634800 77.311531 4.450596 0.000000
385.787750 77.312309 4.443943 0.000000
370.970700 77.754097 4.493455 0.000000
371.377170 77.755981 4.507473 0.000000
371.944430 77.759346 4.396672 0.000000
372.475400 77.761810 4.419132 0.000000
372.807220 77.763313 4.432919 0.000000
373.124020 77.764763 4.445901 0.000000
373.572050 77.766838 4.463909 0.000000
373.995540 77.768791 4.480588 0.000000
374.391630 77.770607 4.495776 0.000000
374.768130 77.772346 4.509888 0.000000
375.122590 77.773994 4.522783 0.000000
375.568790 77.776619 4.439431 0.000000
375.987370 77.779083 4.358568 0.000000
376.382200 77.780899 4.376856 0.000000
376.755710 77.782608 4.393375 0.000000
377.110440 77.784241 4.408301 0.000000
377.529970 77.786171 4.424877 0.000000
377.928680 77.788002 4.439577 0.000000
378.306950 77.789772 4.452347 0.000000
378.740110 77.791794 4.465596 0.000000
379.153260 77.794182 4.397305 0.000000
379.550420 77.796036 4.407968 0.000000
379.934300 77.797844 4.416600 0.000000
380.307560 77.799614 4.423339 0.000000
380.732670 77.801636 4.428896 0.000000
381.150450 77.803627 4.432251 0.000000
381.544010 77.805527 4.433282 0.000000
381.955930 77.807526 4.432243 0.000000
382.329960 77.809349 4.429426 0.000000
382.747890 77.811401 4.424067 0.000000
383.173250 77.813499 4.416470 0.000000
383.546810 77.815353 4.408061 0.000000
383.927400 77.806046 4.398332 0.000000
384.227570 77.818306 4.467498 0.000000
385.287990 77.823639 4.431950 0.000000
385.555570 77.824982 4.421304 0.000000
385.791930 77.826180 4.411651 0.000000
386.375580 77.829155 4.386062 0.000000
386.822300 77.831421 4.365045 0.000000
389.517460 77.858086 4.442335 0.000000
386.776030 78.019379 4.356131 0.000000
389.512020 79.438652 4.386332 0.000000
389.513760 81.063202 4.461064 0.000000
383.544710 75.667152 4.797322 0.000000
383.913700 75.679199 4.789676 0.000000
384.226720 75.735268 4.839451 0.000000
385.636630 75.770340 4.743103 0.000000
385.778960 75.717323 4.807142 0.000000
389.526730 75.769669 4.801593 0.000000
384.074400 76.067047 4.711791 0.000000
384.259580 76.115051 4.889933 0.000000
383.272160 76.576126 4.704541 0.000000
383.641050 76.578987 4.633803 0.000000
383.969640 76.579048 4.755381 0.000000
385.634920 77.309700 4.772193 0.000000
385.787840 77.310463 4.769145 0.000000
370.972720 77.752525 4.770849 0.000000
371.379090 77.754456 4.777382 0.000000
371.947080 77.757141 4.786358 0.000000
372.477910 77.759689 4.794592 0.000000
372.809600 77.761238 4.799639 0.000000
373.126280 77.762733 4.804384 0.000000
373.574190 77.764877 4.810956 0.000000
373.997530 77.766891 4.817030 0.000000
374.393520 77.768753 4.822548 0.000000
374.769900 77.770554 4.827662 0.000000
375.124270 77.772240 4.832321 0.000000
375.624360 77.775185 4.739706 0.000000
375.989290 77.776894 4.746353 0.000000
376.384000 77.778770 4.753652 0.000000
376.757420 77.780533 4.760224 0.000000
377.112030 77.782219 4.766139 0.000000
377.586090 77.783974 4.859232 0.000000
377.930080 77.786087 4.778434 0.000000
378.308260 77.787895 4.783396 0.000000
378.741300 77.789970 4.788490 0.000000
379.154630 77.791939 4.792704 0.000000
379.551700 77.793839 4.796116 0.000000
379.935490 77.795677 4.798788 0.000000
380.308690 77.797470 4.800768 0.000000
380.733700 77.799522 4.802230 0.000000
381.151400 77.801529 4.802880 0.000000
381.564510 77.803528 4.802659 0.000000
381.976380 77.805527 4.801654 0.000000
382.330720 77.807251 4.800115 0.000000
382.748600 77.809288 4.797505 0.000000
383.173890 77.811356 4.794047 0.000000
383.515810 77.813034 4.790750 0.000000
383.931090 77.813446 4.785873 0.000000
384.261470 77.816689 4.781261 0.000000
384.637390 77.818542 4.776204 0.000000
385.594640 77.823242 4.760010 0.000000
385.792080 77.824234 4.756076 0.000000
386.375640 77.827118 4.744357 0.000000
386.822300 77.829315 4.734775 0.000000
389.516720 77.855896 4.780210 0.000000
386.775240 78.016106 4.731340 0.000000
389.511720 79.435776 4.884668 0.000000
389.513730 81.061630 4.737307 0.000000
383.653020 75.666451 5.067513 0.000000
383.932980 75.674835 5.179716 0.000000
384.402310 75.715179 5.185389 0.000000
384.703250 75.710365 5.311281 0.000000
385.635990 75.774055 5.207840 0.000000
385.778840 75.715416 5.142272 0.000000
389.525700 75.767059 5.296642 0.000000
384.452270 76.109009 5.074645 0.000000
384.715940 76.014267 5.326584 0.000000
383.641300 76.576149 5.015420 0.000000
383.887330 76.576248 5.208292 0.000000
384.522890 76.409767 5.144148 0.000000
384.665890 76.565689 5.284465 0.000000
385.635040 77.307884 5.092767 0.000000
385.787960 77.308159 5.174362 0.000000
370.975770 77.750183 5.186398 0.000000
371.381960 77.752174 5.181723 0.000000
371.949770 77.754944 5.175266 0.000000
372.480350 77.757576 5.169309 0.000000
372.811950 77.759171 5.165635 0.000000
373.128540 77.760712 5.162164 0.000000
373.576290 77.762924 5.157325 0.000000
373.999510 77.764999 5.152820 0.000000
374.395390 77.766914 5.148688 0.000000
374.771640 77.768753 5.144825 0.000000
375.125950 77.770493 5.141266 0.000000
375.608920 77.772293 5.235409 0.000000
375.991700 77.774162 5.229531 0.000000
376.386260 77.776115 5.223146 0.000000
376.759520 77.777946 5.217328 0.000000
377.114040 77.779694 5.212019 0.000000
377.506200 77.781616 5.206110 0.000000
377.931820 77.783699 5.200672 0.000000
378.309880 77.785561 5.195907 0.000000
378.742800 77.787689 5.190843 0.000000
379.156040 77.789711 5.186441 0.000000
379.553010 77.791649 5.182636 0.000000
379.936710 77.793526 5.179375 0.000000
380.309810 77.795341 5.176617 0.000000
380.734740 77.797409 5.174003 0.000000
381.152370 77.799438 5.171959 0.000000
381.545780 77.801353 5.170559 0.000000
381.957580 77.803345 5.169640 0.000000
382.331480 77.805153 5.169254 0.000000
382.749300 77.807175 5.169381 0.000000
383.174530 77.809227 5.170044 0.000000
383.547970 77.811028 5.171091 0.000000
383.910370 77.812775 5.172642 0.000000
384.261930 77.814461 5.174028 0.000000
384.693630 77.810966 5.176491 0.000000
385.066160 77.817856 5.261520 0.000000
385.792210 77.822769 5.013606 0.000000
386.375730 77.824585 5.190807 0.000000
386.822300 77.826698 5.195468 0.000000
389.516020 77.853714 5.117399 0.000000
386.774230 78.012024 5.198685 0.000000
389.511470 79.433624 5.257855 0.000000
389.513700 81.059280 5.151177 0.000000
384.091030 75.666023 5.463003 0.000000
384.351900 75.666893 5.530648 0.000000
384.753510 75.696365 5.613174 0.000000
385.082370 75.717461 5.637025 0.000000
385.634580 75.791229 5.609601 0.000000
385.778720 75.713127 5.545518 0.000000
389.524840 75.764969 5.693575 0.000000
384.925870 76.063866 5.528460 0.000000
385.144500 76.062782 5.738125 0.000000
384.255100 76.575020 5.609819 0.000000
370.978820 77.747833 5.602071 0.000000
371.384860 77.749893 5.586187 0.000000
371.953310 77.752014 5.694223 0.000000
372.483670 77.754745 5.669336 0.000000
372.815120 77.756416 5.654030 0.000000
373.131560 77.758018 5.639599 0.000000
373.579100 77.760307 5.619539 0.000000
374.002170 77.762459 5.600920 0.000000
374.397890 77.764450 5.583916 0.000000
374.773990 77.766357 5.568078 0.000000
375.128140 77.768166 5.553556 0.000000
375.574980 77.769867 5.634744 0.000000
375.994140 77.771423 5.713588 0.000000
376.388520 77.773453 5.693499 0.000000
376.761660 77.775352 5.675272 0.000000
377.116030 77.777168 5.658724 0.000000
377.535190 77.779297 5.640226 0.000000
377.933530 77.781303 5.623700 0.000000
378.311490 77.783226 5.609194 0.000000
378.744290 77.785408 5.593955 0.000000
379.157710 77.787025 5.660249 0.000000
379.554570 77.789001 5.647761 0.000000
379.938140 77.790924 5.637364 0.000000
380.311160 77.792778 5.628906 0.000000
380.735990 77.794876 5.621390 0.000000
381.153530 77.796921 5.616106 0.000000
381.546880 77.798843 5.613265 0.000000
381.958590 77.800835 5.612380 0.000000
382.332400 77.802635 5.613473 0.000000
382.750150 77.804642 5.616893 0.000000
383.175290 77.806664 5.622513 0.000000
383.548680 77.808426 5.629309 0.000000
383.932740 77.810234 5.637999 0.000000
384.330080 77.811935 5.648712 0.000000
384.744050 77.814491 5.580554 0.000000
385.214690 77.816673 5.594879 0.000000
385.504090 77.793816 5.603662 0.000000
386.375790 77.822548 5.548361 0.000000
386.822300 77.824081 5.657008 0.000000
389.515050 77.850800 5.567329 0.000000
386.773250 78.007927 5.666710 0.000000
389.511230 79.431465 5.631517 0.000000
389.513670 81.056923 5.565215 0.000000
384.553160 75.736778 5.848376 0.000000
385.342800 75.758202 5.917488 0.000000
385.631960 75.828598 5.884392 0.000000
385.778560 75.711197 5.884619 0.000000
387.141480 75.768433 6.104413 0.000000
387.528690 75.678772 6.140032 0.000000
387.848850 75.680115 6.178221 0.000000
388.773010 75.736748 6.109786 0.000000
389.106260 75.686401 6.142039 0.000000
389.462310 75.725517 6.083543 0.000000
385.241580 76.254135 5.833025 0.000000
385.374880 76.065605 5.959136 0.000000
386.792480 76.124084 6.104482 0.000000
386.968630 75.948174 6.104056 0.000000
388.454280 76.140366 6.108296 0.000000
384.431550 76.575401 5.819442 0.000000
385.440220 76.449928 6.014228 0.000000
388.083280 76.593781 6.110118 0.000000
388.226320 76.426994 6.109474 0.000000
387.676360 77.014931 6.111080 0.000000
387.884460 76.808899 6.110895 0.000000
385.633240 77.298874 6.060002 0.000000
385.757810 77.255318 6.145885 0.000000
387.465730 77.218147 6.112336 0.000000
389.731570 77.332848 6.113025 0.000000
370.981840 77.745483 6.018892 0.000000
371.387760 77.747597 5.991774 0.000000
371.955990 77.749817 6.084684 0.000000
372.486180 77.752617 6.045559 0.000000
372.817500 77.754333 6.021504 0.000000
373.134580 77.755302 6.119107 0.000000
373.581940 77.757683 6.083767 0.000000
374.004820 77.759918 6.050979 0.000000
374.400390 77.761978 6.021051 0.000000
374.776370 77.763954 5.993189 0.000000
375.130370 77.765839 5.967663 0.000000
375.577060 77.767593 6.036138 0.000000
375.996060 77.769218 6.103484 0.000000
376.390350 77.771309 6.072360 0.000000
376.763370 77.773270 6.044142 0.000000
377.117650 77.775131 6.018545 0.000000
377.536680 77.777313 5.989962 0.000000
377.935330 77.778847 6.050331 0.000000
378.313140 77.780861 6.026012 0.000000
378.745820 77.783104 6.000515 0.000000
379.159120 77.784767 6.058725 0.000000
379.555880 77.786797 6.038940 0.000000
379.939390 77.788742 6.022543 0.000000
380.312320 77.790627 6.009293 0.000000
380.737060 77.792740 5.997655 0.000000
381.154510 77.794800 5.989647 0.000000
381.508580 77.796539 5.985787 0.000000
381.920200 77.798538 5.984718 0.000000
382.333160 77.800522 5.987074 0.000000
382.750850 77.802505 5.993262 0.000000
383.175900 77.804504 6.003050 0.000000
383.549260 77.806244 6.014679 0.000000
383.933260 77.808014 6.029413 0.000000
384.330600 77.809837 6.047484 0.000000
384.720700 77.812065 5.986424 0.000000
385.176330 77.811455 6.010817 0.000000
385.556300 77.815475 6.033706 0.000000
385.792630 77.817375 5.961570 0.000000
386.862730 77.753990 6.024608 0.000000
389.527560 77.741631 6.012456 0.000000
388.931580 78.279968 6.120963 0.000000
389.123960 78.095688 6.120981 0.000000
388.676300 78.526497 6.122456 0.000000
387.992190 79.090591 6.124077 0.000000
389.510990 79.429306 6.006278 0.000000
389.513610 81.054558 5.980456 0.000000
389.713780 75.689842 6.209271 0.000000
370.984920 77.743118 6.437425 0.000000
371.390660 77.745300 6.399030 0.000000
371.958680 77.747589 6.477475 0.000000
372.488680 77.750481 6.424034 0.000000
372.819890 77.752243 6.391180 0.000000
373.136870 77.753258 6.481047 0.000000
373.584110 77.755707 6.434177 0.000000
374.007510 77.757347 6.504737 0.000000
374.402890 77.759483 6.461785 0.000000
374.778750 77.761528 6.421804 0.000000
375.132600 77.763489 6.385190 0.000000
375.524690 77.765594 6.345270 0.000000
375.997560 77.767555 6.398274 0.000000
376.391720 77.769691 6.358809 0.000000
376.764680 77.771690 6.323040 0.000000
377.118870 77.773598 6.290602 0.000000
377.537810 77.775818 6.254396 0.000000
370.987980 77.740738 6.859133 0.000000
371.393550 77.742981 6.809380 0.000000
371.961400 77.745354 6.872905 0.000000
372.491210 77.748322 6.805053 0.000000
372.822300 77.750137 6.763346 0.000000
373.138400 77.751884 6.724039 0.000000
373.585540 77.754364 6.669431 0.000000
371.360200 61.252029 2.411714 0.000000
371.192440 61.631294 2.434215 0.000000
371.109440 61.902000 2.453761 0.000000
371.088750 62.214127 2.485006 0.000000
371.340450 62.711479 2.570652 0.000000
371.495640 63.122383 2.633766 0.000000
390.377290 61.237122 2.729567 0.000000
390.629520 61.433434 2.727796 0.000000
392.232240 61.270065 2.802304 0.000000
392.522800 61.473198 2.791244 0.000000
395.461880 61.215496 2.742928 0.000000
390.882970 61.628174 2.724336 0.000000
391.217100 61.893497 2.718578 0.000000
392.735320 61.592331 2.778923 0.000000
393.062870 61.769402 2.757925 0.000000
391.463810 62.098133 2.713721 0.000000
391.707700 62.306812 2.708452 0.000000
393.708590 62.155430 2.716363 0.000000
390.506840 62.402344 2.878954 0.000000
391.865720 62.451366 2.705390 0.000000
392.027680 62.592628 2.700701 0.000000
394.124540 62.441986 2.690314 0.000000
394.434810 62.666328 2.670298 0.000000
392.233830 62.983150 2.719365 0.000000
394.613620 62.990643 2.676031 0.000000
392.314820 63.193668 2.732735 0.000000
392.394320 63.401970 2.745411 0.000000
394.700200 63.374962 2.698731 0.000000
392.510890 63.710224 2.763047 0.000000
394.994200 63.762943 2.690444 0.000000
395.203800 63.921101 2.673324 0.000000
371.708440 63.976803 2.747229 0.000000
392.654020 64.120811 2.786250 0.000000
395.410980 64.084641 2.656337 0.000000
395.617550 64.252457 2.639111 0.000000
371.610570 64.461784 2.778894 0.000000
392.749910 64.429878 2.803955 0.000000
392.910610 64.567665 2.792582 0.000000
371.548130 64.823654 2.802221 0.000000
392.869630 65.074394 2.849100 0.000000
371.498930 65.184586 2.825592 0.000000
371.445800 65.661560 2.855884 0.000000
395.323090 65.734879 2.789046 0.000000
371.415650 66.016212 2.878063 0.000000
395.174500 66.048531 2.831947 0.000000
371.398220 66.368874 2.900281 0.000000
371.378750 66.831184 2.927685 0.000000
371.338750 67.276749 2.948195 0.000000
371.316770 67.608742 2.963035 0.000000
371.306980 67.939606 2.978071 0.000000
371.305330 68.377441 2.997579 0.000000
371.319490 68.811546 3.016848 0.000000
371.349330 69.241364 3.035894 0.000000
371.392940 69.666130 3.054458 0.000000
371.438230 70.084641 3.070602 0.000000
371.640620 72.419594 3.104526 0.000000
371.715030 72.715179 3.110710 0.000000
371.765080 73.013443 3.111651 0.000000
371.656130 73.552933 3.077758 0.000000
371.418030 74.036232 3.021984 0.000000
371.241420 74.413864 2.978254 0.000000
370.878050 74.982437 2.894506 0.000000
371.127930 74.673088 2.948562 0.000000
370.784790 75.251099 2.866143 0.000000
370.853060 76.083130 2.827934 0.000000
371.025700 76.386932 2.834001 0.000000
371.146510 76.585571 2.838210 0.000000
371.309750 76.890381 2.839976 0.000000
371.478330 77.191795 2.841357 0.000000
371.598240 77.388245 2.842771 0.000000
370.921600 77.758942 3.028083 0.000000
371.409580 77.761024 3.087404 0.000000
371.832060 77.717476 2.994717 0.000000
372.297520 77.766373 2.908309 0.000000
372.901460 77.768921 2.990297 0.000000
373.464260 77.771271 3.065437 0.000000
373.814880 77.772804 3.111416 0.000000
388.278050 62.304852 3.120484 0.000000
390.510410 62.401020 3.133734 0.000000
392.850040 62.436882 3.001194 0.000000
392.793640 65.351456 2.887725 0.000000
392.670410 65.755714 2.944936 0.000000
392.540860 66.147247 3.000888 0.000000
395.062560 66.337898 2.867050 0.000000
392.354430 66.647766 3.073887 0.000000
392.448760 66.400787 3.037752 0.000000
394.681670 66.720932 2.949036 0.000000
392.254550 66.985107 3.117227 0.000000
394.554960 66.994781 2.984352 0.000000
392.138920 67.408508 3.168208 0.000000
394.212280 67.333855 3.056714 0.000000
392.215360 67.831482 3.182718 0.000000
394.160400 67.774864 3.086991 0.000000
392.313110 67.975807 3.174023 0.000000
392.483340 68.188499 3.155464 0.000000
394.304810 67.942696 3.071551 0.000000
394.512630 68.203461 3.049115 0.000000
392.703740 68.481979 3.130689 0.000000
392.863310 68.709557 3.112195 0.000000
394.718290 68.471298 3.026216 0.000000
393.020140 68.943756 3.093164 0.000000
394.807220 68.980560 3.028737 0.000000
393.219540 69.266060 3.068161 0.000000
394.731870 69.408997 3.053002 0.000000
393.379670 69.785110 3.053650 0.000000
394.645290 69.829124 3.076708 0.000000
393.312130 70.152550 3.074472 0.000000
394.574620 70.138870 3.093971 0.000000
393.259490 70.512291 3.090139 0.000000
394.514340 70.442596 3.108068 0.000000
393.233090 70.954201 3.099001 0.000000
394.474490 70.939476 3.118701 0.000000
393.190800 71.393066 3.107693 0.000000
394.422450 71.432228 3.128233 0.000000
393.133270 71.828239 3.115834 0.000000
393.158390 71.654663 3.112607 0.000000
394.386170 71.824409 3.132502 0.000000
393.090450 72.087257 3.120581 0.000000
394.372920 72.218155 3.130804 0.000000
393.009220 72.515839 3.127713 0.000000
394.339480 72.710579 3.128567 0.000000
394.355530 72.513634 3.129441 0.000000
392.945430 72.946320 3.128397 0.000000
394.309420 73.005882 3.127173 0.000000
392.890690 73.290848 3.127127 0.000000
394.254970 73.398346 3.125936 0.000000
392.803070 73.718796 3.126034 0.000000
394.186250 73.789261 3.124938 0.000000
392.699340 74.144035 3.124870 0.000000
394.104520 74.178421 3.123973 0.000000
392.601680 74.480995 3.124231 0.000000
393.993100 74.559952 3.125934 0.000000
395.689150 74.627350 3.142596 0.000000
392.464810 74.898712 3.123111 0.000000
393.854190 74.932426 3.130534 0.000000
395.579440 74.950539 3.146718 0.000000
392.272280 75.390602 3.123190 0.000000
392.344180 75.229790 3.122209 0.000000
393.704740 75.300369 3.134875 0.000000
395.462740 75.270805 3.150603 0.000000
392.140930 75.719482 3.120670 0.000000
393.573270 75.676231 3.133856 0.000000
395.336120 75.708557 3.149639 0.000000
391.965420 76.127686 3.116935 0.000000
393.441190 76.054169 3.130663 0.000000
395.211360 76.149796 3.146174 0.000000
391.771760 76.529953 3.113064 0.000000
393.258030 76.522270 3.126543 0.000000
395.072170 76.588684 3.142653 0.000000
391.504610 76.995010 3.111438 0.000000
391.606260 76.847992 3.109828 0.000000
393.056850 76.985451 3.122284 0.000000
394.920320 77.025696 3.138791 0.000000
391.240300 77.469460 3.103292 0.000000
392.882110 77.351990 3.118654 0.000000
394.795170 77.350410 3.136205 0.000000
370.926700 77.757278 3.338418 0.000000
371.414460 77.759422 3.388284 0.000000
371.873570 77.761414 3.434694 0.000000
372.304350 77.764084 3.336039 0.000000
372.810940 77.766289 3.391551 0.000000
373.468380 77.769859 3.329429 0.000000
373.818850 77.771423 3.369012 0.000000
374.151000 77.773529 3.280433 0.000000
374.469940 77.774895 3.318273 0.000000
374.920900 77.776863 3.370713 0.000000
375.345310 77.779327 3.303869 0.000000
375.743870 77.781029 3.351318 0.000000
376.122590 77.782669 3.395358 0.000000
376.479030 77.784279 3.435533 0.000000
376.928220 77.786194 3.484541 0.000000
391.041440 77.772919 3.099876 0.000000
391.142240 77.621880 3.101582 0.000000
392.644780 77.802979 3.114384 0.000000
392.741390 77.622971 3.116259 0.000000
394.663420 77.674271 3.133190 0.000000
389.518310 77.979271 3.288336 0.000000
390.831020 78.070351 3.096419 0.000000
394.475130 78.102615 3.129206 0.000000
390.553220 78.433212 3.092437 0.000000
392.171230 78.597458 3.105750 0.000000
392.336550 78.335915 3.108609 0.000000
394.220210 78.632584 3.124070 0.000000
394.324950 78.421402 3.126157 0.000000
390.078640 78.997070 3.084735 0.000000
391.881620 79.026794 3.100872 0.000000
391.999760 78.856102 3.102870 0.000000
394.111480 78.842316 3.122034 0.000000
389.684270 79.384705 3.201100 0.000000
391.698300 79.279648 3.097863 0.000000
393.764800 79.464783 3.115612 0.000000
389.355530 79.720650 3.074976 0.000000
389.510190 79.612114 3.311130 0.000000
391.505040 79.525284 3.095716 0.000000
393.579440 79.771706 3.112238 0.000000
388.933470 80.094650 3.068541 0.000000
390.969790 80.174805 3.086612 0.000000
391.109040 80.016174 3.088684 0.000000
393.319790 80.175537 3.107774 0.000000
388.639370 80.331612 3.064742 0.000000
390.682860 80.486664 3.082344 0.000000
390.827940 80.331932 3.084441 0.000000
392.975520 80.671463 3.102107 0.000000
393.116090 80.474434 3.104386 0.000000
389.560150 81.069969 3.125846 0.000000
390.152500 81.012398 3.074744 0.000000
392.827150 80.862411 3.100650 0.000000
395.727360 81.015984 3.121864 0.000000
389.915130 81.230057 3.071420 0.000000
392.378690 81.442390 3.092647 0.000000
395.443210 81.508881 3.116731 0.000000
395.587430 81.263153 3.119308 0.000000
389.420590 81.648666 3.064768 0.000000
389.588170 81.511482 3.067006 0.000000
392.140350 81.723785 3.088931 0.000000
395.295100 81.753479 3.114063 0.000000
391.894740 82.000648 3.085247 0.000000
394.969600 82.222473 3.111276 0.000000
395.141850 81.995750 3.111504 0.000000
391.260280 82.584023 3.083546 0.000000
394.605380 82.660713 3.112101 0.000000
394.792480 82.445923 3.111189 0.000000
390.978000 82.825058 3.082657 0.000000
390.491820 83.211769 3.081094 0.000000
393.849850 83.525719 3.110475 0.000000
394.044830 83.313744 3.110842 0.000000
393.649660 83.733223 3.110355 0.000000
393.446900 83.939323 3.110010 0.000000
392.591370 84.723442 3.110016 0.000000
392.810970 84.532600 3.109958 0.000000
392.368930 84.912071 3.109922 0.000000
391.686100 85.467003 3.108398 0.000000
391.916410 85.284012 3.109094 0.000000
388.281100 62.303661 3.348036 0.000000
390.513980 62.399685 3.386840 0.000000
392.856380 62.434639 3.433087 0.000000
389.527560 75.929657 3.705103 0.000000
389.526920 75.931427 3.525170 0.000000
370.934300 77.754814 3.800389 0.000000
371.419310 77.757820 3.687379 0.000000
371.878200 77.759872 3.725031 0.000000
372.311100 77.761818 3.760125 0.000000
373.009220 77.765701 3.682199 0.000000
373.474490 77.767761 3.721932 0.000000
373.824770 77.769379 3.752003 0.000000
374.158660 77.770851 3.780262 0.000000
374.477390 77.772278 3.806833 0.000000
374.926270 77.774956 3.726122 0.000000
375.350490 77.777481 3.649165 0.000000
375.748840 77.779228 3.686649 0.000000
376.127380 77.780914 3.721422 0.000000
376.483670 77.782562 3.753118 0.000000
376.878360 77.784302 3.787583 0.000000
377.350830 77.787491 3.628093 0.000000
377.747470 77.789261 3.664894 0.000000
378.122620 77.790932 3.698015 0.000000
378.478790 77.792542 3.727813 0.000000
378.899930 77.794449 3.760720 0.000000
379.298920 77.796722 3.702807 0.000000
379.678440 77.798462 3.729776 0.000000
380.112950 77.800476 3.757481 0.000000
380.527530 77.802399 3.780424 0.000000
380.925630 77.804268 3.799027 0.000000
381.310240 77.806465 3.813562 0.000000
381.684300 77.807884 3.824487 0.000000
382.049960 77.809662 3.831801 0.000000
384.186580 77.820381 3.805842 0.000000
384.551730 77.822273 3.789654 0.000000
384.925050 77.824142 3.769737 0.000000
385.308990 77.826256 3.745795 0.000000
385.638520 77.828011 3.722679 0.000000
386.189790 77.830986 3.678701 0.000000
386.478390 77.832550 3.653244 0.000000
389.624880 77.848389 3.605252 0.000000
389.517670 77.973389 3.604389 0.000000
389.617370 79.442207 3.555800 0.000000
389.509740 79.606812 3.548922 0.000000
389.564450 81.067841 3.521778 0.000000
383.135410 75.667374 4.205445 0.000000
383.578700 75.678162 4.194792 0.000000
385.692050 75.747063 4.106818 0.000000
383.477970 76.009674 4.140184 0.000000
389.527010 75.925903 3.972742 0.000000
382.888400 76.576080 4.111466 0.000000
383.364070 76.462265 4.125341 0.000000
385.703220 77.313423 3.951638 0.000000
370.941830 77.752357 4.259593 0.000000
371.426570 77.755440 4.133194 0.000000
371.885190 77.757545 4.157799 0.000000
372.317840 77.759567 4.180712 0.000000
372.823820 77.761932 4.207967 0.000000
373.480560 77.765671 4.111596 0.000000
373.830630 77.767342 4.132229 0.000000
374.164340 77.768867 4.151604 0.000000
374.482880 77.770340 4.169804 0.000000
374.931550 77.773071 4.078052 0.000000
375.357300 77.775040 4.104875 0.000000
375.755370 77.776863 4.129212 0.000000
376.133700 77.778618 4.151755 0.000000
376.489750 77.780334 4.172260 0.000000
376.937040 77.782913 4.097103 0.000000
377.356480 77.785370 4.023499 0.000000
377.752900 77.787209 4.049055 0.000000
378.127840 77.788925 4.071996 0.000000
378.483860 77.790588 4.092574 0.000000
378.904820 77.792542 4.115207 0.000000
379.303620 77.794861 4.048906 0.000000
379.683010 77.796661 4.067864 0.000000
380.117340 77.798706 4.087204 0.000000
380.530700 77.801094 4.022902 0.000000
380.928740 77.802994 4.037035 0.000000
381.313350 77.804840 4.047958 0.000000
381.687260 77.806641 4.055877 0.000000
382.172090 77.809425 3.985924 0.000000
382.510500 77.810989 3.987732 0.000000
382.924160 77.813148 3.986443 0.000000
383.297030 77.815079 3.981961 0.000000
383.650540 77.786377 4.129737 0.000000
384.128420 77.819252 3.960902 0.000000
384.554470 77.821030 4.020977 0.000000
384.927830 77.822975 4.003967 0.000000
385.311740 77.824982 3.983698 0.000000
385.641300 77.826721 3.964212 0.000000
386.193510 77.829208 4.009493 0.000000
386.482150 77.830742 3.989586 0.000000
389.629060 77.846161 4.020248 0.000000
389.517060 77.965897 4.020924 0.000000
389.621060 79.440315 3.906445 0.000000
389.508790 79.596321 4.019903 0.000000
389.509250 79.601555 3.785100 0.000000
389.568700 81.065735 3.914877 0.000000
382.977390 75.665245 4.412206 0.000000
383.339320 75.666672 4.458460 0.000000
383.727450 75.705078 4.444781 0.000000
383.992130 75.669083 4.596713 0.000000
385.717590 75.737549 4.401625 0.000000
383.748600 76.077065 4.400409 0.000000
389.526280 75.920952 4.326151 0.000000
382.891600 76.574928 4.357201 0.000000
383.277400 76.605286 4.409799 0.000000
383.832760 76.369759 4.484117 0.000000
385.708310 77.311020 4.399687 0.000000
370.946840 77.750725 4.564381 0.000000
371.433780 77.753075 4.576911 0.000000
371.892120 77.755241 4.588532 0.000000
372.324520 77.757332 4.599324 0.000000
373.021790 77.761414 4.484293 0.000000
373.486570 77.763611 4.498675 0.000000
373.836460 77.765327 4.509937 0.000000
374.170010 77.766891 4.520487 0.000000
374.489470 77.767570 4.530435 0.000000
374.938600 77.770576 4.544005 0.000000
375.364010 77.772621 4.556542 0.000000
375.761870 77.774513 4.567854 0.000000
376.139950 77.776329 4.578278 0.000000
376.495850 77.778069 4.587698 0.000000
376.942840 77.780754 4.499790 0.000000
377.362030 77.783272 4.414659 0.000000
377.758270 77.785172 4.429095 0.000000
378.133030 77.786949 4.441967 0.000000
378.488860 77.788651 4.453426 0.000000
378.909610 77.790665 4.465897 0.000000
379.309420 77.792580 4.476692 0.000000
379.688630 77.794418 4.485755 0.000000
380.122770 77.796524 4.494756 0.000000
380.535980 77.798965 4.422334 0.000000
380.933870 77.800896 4.429104 0.000000
381.318390 77.802658 4.433982 0.000000
381.692140 77.804596 4.437048 0.000000
382.117710 77.806702 4.438431 0.000000
382.535890 77.808777 4.437683 0.000000
382.851140 77.810349 4.435566 0.000000
383.341830 77.812881 4.429720 0.000000
383.735570 77.814499 4.422887 0.000000
384.113830 77.816719 4.414005 0.000000
384.620450 77.819290 4.400353 0.000000
384.932310 77.820900 4.389841 0.000000
385.316250 77.822876 4.375595 0.000000
385.645840 77.824577 4.362088 0.000000
386.198120 77.827011 4.418366 0.000000
386.486790 77.828514 4.405318 0.000000
389.633210 77.843941 4.431575 0.000000
389.515990 77.957954 4.433187 0.000000
389.625950 79.437820 4.370721 0.000000
389.508060 79.588501 4.369941 0.000000
389.572940 81.063637 4.305405 0.000000
383.342960 75.665039 4.762458 0.000000
383.708010 75.666382 4.857365 0.000000
384.119870 75.699135 4.849130 0.000000
384.380580 75.684761 5.000967 0.000000
385.744900 75.728439 4.810126 0.000000
389.526400 75.743416 4.679472 0.000000
384.202240 76.077484 4.835493 0.000000
384.376530 76.020454 5.002054 0.000000
389.525540 75.916031 4.676648 0.000000
383.280700 76.574699 4.716475 0.000000
383.764860 76.576843 4.769496 0.000000
384.088900 76.474541 4.847246 0.000000
384.373600 76.412872 5.003301 0.000000
385.712520 77.309044 4.768927 0.000000
370.954320 77.748291 5.020421 0.000000
371.440980 77.750702 5.019071 0.000000
371.896730 77.753723 4.874793 0.000000
372.331150 77.755096 5.016475 0.000000
373.030120 77.758583 5.013420 0.000000
373.494570 77.760872 5.012789 0.000000
373.842290 77.763306 4.886360 0.000000
374.175630 77.764923 4.888118 0.000000
374.495670 77.765846 5.009289 0.000000
374.943820 77.768715 4.891854 0.000000
375.370730 77.770218 5.005923 0.000000
375.832890 77.772499 5.003485 0.000000
376.146180 77.774063 5.002649 0.000000
376.501860 77.775848 5.001037 0.000000
377.001340 77.779419 4.800076 0.000000
377.334990 77.780510 4.900349 0.000000
377.796970 77.782806 4.900182 0.000000
378.169830 77.784645 4.900588 0.000000
378.523960 77.786400 4.900755 0.000000
378.860810 77.788055 4.901650 0.000000
379.289280 77.790176 4.900869 0.000000
379.694490 77.792206 4.899808 0.000000
380.128390 77.794357 4.898569 0.000000
380.542420 77.796417 4.896954 0.000000
380.939850 77.798386 4.894982 0.000000
381.366270 77.800514 4.892137 0.000000
381.697880 77.802170 4.889978 0.000000
382.183440 77.804604 4.885666 0.000000
382.580930 77.806587 4.881880 0.000000
382.895900 77.808167 4.878492 0.000000
383.288330 77.810135 4.873751 0.000000
383.720370 77.812592 4.794044 0.000000
384.108340 77.814796 4.787840 0.000000
384.441530 77.815933 4.856947 0.000000
384.968260 77.819000 4.771633 0.000000
385.321470 77.820366 4.841270 0.000000
385.650360 77.822464 4.756331 0.000000
386.179020 77.824715 4.823781 0.000000
386.466920 77.826172 4.817536 0.000000
389.636320 77.842285 4.738652 0.000000
389.515140 77.950325 4.842694 0.000000
389.629610 79.435959 4.717335 0.000000
389.507390 79.580742 4.718379 0.000000
389.578550 81.060852 4.824146 0.000000
383.757810 75.706657 5.162337 0.000000
384.103520 75.666695 5.158430 0.000000
384.626740 75.720078 5.210961 0.000000
385.710300 75.728874 5.158752 0.000000
389.526730 75.738449 5.110004 0.000000
384.609530 76.074829 5.226083 0.000000
389.524660 75.909920 5.112747 0.000000
383.671020 76.574738 5.072827 0.000000
384.162630 76.576675 5.189797 0.000000
384.542140 76.490929 5.245653 0.000000
385.716670 77.307068 5.136653 0.000000
370.961820 77.745857 5.476045 0.000000
371.448150 77.748344 5.460832 0.000000
371.903660 77.751427 5.303660 0.000000
372.337800 77.752869 5.433256 0.000000
372.840760 77.756180 5.282614 0.000000
373.500550 77.758804 5.397802 0.000000
373.848080 77.761299 5.262075 0.000000
374.181270 77.762962 5.255061 0.000000
374.501160 77.763924 5.367949 0.000000
374.949070 77.766861 5.239057 0.000000
375.375730 77.768417 5.342470 0.000000
375.707000 77.770691 5.222972 0.000000
376.150850 77.772362 5.320470 0.000000
376.506350 77.774193 5.310599 0.000000
376.990420 77.776665 5.296908 0.000000
377.408450 77.778778 5.286759 0.000000
377.738190 77.780472 5.277210 0.000000
378.114200 77.782379 5.267613 0.000000
378.471130 77.784203 5.258720 0.000000
378.947750 77.786613 5.247842 0.000000
379.345670 77.788628 5.238481 0.000000
379.698520 77.790428 5.230239 0.000000
380.132290 77.792633 5.220829 0.000000
380.546300 77.794724 5.212282 0.000000
380.944150 77.796722 5.204493 0.000000
381.307220 77.798569 5.197647 0.000000
381.701870 77.800560 5.190892 0.000000
382.107120 77.802605 5.184271 0.000000
382.525390 77.804710 5.178044 0.000000
382.900480 77.806190 5.246588 0.000000
383.252720 77.808357 5.168606 0.000000
383.665560 77.810425 5.163992 0.000000
384.109160 77.812363 5.159701 0.000000
384.567720 77.814934 5.155662 0.000000
384.972810 77.816963 5.152258 0.000000
385.390380 77.819046 5.150581 0.000000
385.654880 77.820358 5.148958 0.000000
386.229980 77.823212 5.146500 0.000000
386.519530 77.824654 5.145656 0.000000
389.639400 77.840645 5.045168 0.000000
389.514530 77.944611 5.148985 0.000000
389.633240 79.434090 5.063322 0.000000
389.506650 79.572990 5.065653 0.000000
389.582730 81.058762 5.212660 0.000000
384.085690 75.664886 5.466456 0.000000
384.513520 75.666412 5.577277 0.000000
384.962040 75.708473 5.540150 0.000000
385.199370 75.668777 5.764639 0.000000
385.691620 75.724518 5.564825 0.000000
389.528320 75.734390 5.540958 0.000000
384.981660 76.103470 5.583258 0.000000
389.523740 75.903793 5.549016 0.000000
384.166960 76.574562 5.557831 0.000000
384.570280 76.576546 5.561498 0.000000
384.950100 76.460640 5.556632 0.000000
385.742920 77.304794 5.579830 0.000000
370.966800 77.744232 5.780001 0.000000
371.452940 77.746773 5.755541 0.000000
371.910550 77.749130 5.732691 0.000000
372.342250 77.751381 5.711305 0.000000
373.042600 77.754326 5.809081 0.000000
373.506560 77.756744 5.783316 0.000000
373.855830 77.758614 5.763487 0.000000
374.188780 77.760345 5.744769 0.000000
374.507170 77.761559 5.727027 0.000000
374.956050 77.764381 5.702426 0.000000
375.380800 77.766609 5.679467 0.000000
375.778020 77.768677 5.658409 0.000000
376.155520 77.770653 5.638722 0.000000
376.510860 77.772537 5.620582 0.000000
376.960050 77.774345 5.697417 0.000000
377.381380 77.776001 5.772174 0.000000
377.776890 77.778107 5.748038 0.000000
378.151000 77.780067 5.725988 0.000000
378.506230 77.781944 5.705816 0.000000
378.926330 77.784142 5.683038 0.000000
379.325530 77.786224 5.662448 0.000000
379.704220 77.788216 5.644094 0.000000
380.137820 77.790466 5.624453 0.000000
380.552640 77.792183 5.686649 0.000000
380.950040 77.794243 5.670128 0.000000
381.334140 77.796211 5.655834 0.000000
381.707580 77.798126 5.643592 0.000000
382.132810 77.800301 5.631772 0.000000
382.550690 77.802422 5.622261 0.000000
382.905060 77.804207 5.615995 0.000000
383.316990 77.806274 5.610808 0.000000
383.730190 77.808334 5.607710 0.000000
384.107880 77.810265 5.606936 0.000000
384.614200 77.812706 5.608761 0.000000
384.967560 77.814583 5.611357 0.000000
385.266360 77.815483 5.692924 0.000000
385.692870 77.818405 5.542978 0.000000
386.210880 77.820923 5.551723 0.000000
386.499660 77.822319 5.557675 0.000000
389.643550 77.838440 5.454252 0.000000
389.513890 77.938919 5.455293 0.000000
389.638090 79.431610 5.525094 0.000000
389.505740 79.562675 5.528434 0.000000
389.586940 81.056671 5.601716 0.000000
385.726780 75.718124 5.801045 0.000000
389.077760 75.805717 6.107875 0.000000
389.433750 75.772308 5.967515 0.000000
385.211940 75.925247 5.802321 0.000000
388.664370 76.231621 6.109333 0.000000
388.851810 76.046303 6.108699 0.000000
384.522740 76.574608 5.874856 0.000000
384.938750 76.576607 5.887355 0.000000
385.270360 76.319153 5.862347 0.000000
388.217680 76.618683 6.110485 0.000000
388.468200 76.406960 6.109662 0.000000
387.742130 76.964981 6.111369 0.000000
388.009700 76.777870 6.110900 0.000000
387.012970 77.390495 6.112137 0.000000
387.354740 77.204597 6.111853 0.000000
389.447880 77.397835 6.116729 0.000000
389.626620 77.246101 6.116848 0.000000
370.971800 77.742607 6.084476 0.000000
371.460140 77.744400 6.198759 0.000000
371.917480 77.746826 6.162953 0.000000
372.348910 77.749146 6.129472 0.000000
372.853520 77.751869 6.089858 0.000000
373.512570 77.754662 6.169971 0.000000
373.861660 77.756599 6.140791 0.000000
374.194430 77.758369 6.113268 0.000000
374.513920 77.759438 6.207899 0.000000
374.963040 77.761894 6.167868 0.000000
375.387510 77.764198 6.130654 0.000000
375.784480 77.766327 6.096597 0.000000
376.161740 77.768372 6.064817 0.000000
376.516750 77.770477 6.035631 0.000000
376.965850 77.772186 6.099670 0.000000
377.386960 77.773911 6.162871 0.000000
377.782010 77.776344 6.127689 0.000000
378.156160 77.778091 6.095546 0.000000
378.511230 77.780014 6.066274 0.000000
378.931120 77.782272 6.033356 0.000000
379.331360 77.783936 6.089760 0.000000
379.709840 77.785973 6.061530 0.000000
380.143220 77.788284 6.031573 0.000000
380.557890 77.790047 6.085640 0.000000
380.955140 77.792137 6.061771 0.000000
381.339080 77.794281 6.041457 0.000000
381.712430 77.796082 6.024360 0.000000
382.137570 77.798279 6.008375 0.000000
382.555360 77.800415 5.996100 0.000000
382.909670 77.802208 5.988626 0.000000
383.321560 77.804276 5.983357 0.000000
383.734710 77.806335 5.981505 0.000000
384.152560 77.808395 5.983437 0.000000
384.577790 77.810692 5.988926 0.000000
385.014220 77.812492 5.998471 0.000000
385.335450 77.814384 6.007648 0.000000
385.630100 77.812332 6.017268 0.000000
386.239140 77.818840 5.961378 0.000000
386.504300 77.820091 5.972958 0.000000
388.963290 77.787048 6.118432 0.000000
389.271390 77.550407 6.117762 0.000000
389.647770 77.836304 5.865190 0.000000
388.318880 78.214577 6.119361 0.000000
388.580690 78.050735 6.119042 0.000000
389.513060 77.931282 5.864862 0.000000
387.779050 78.508835 6.119852 0.000000
388.118770 78.330017 6.119600 0.000000
389.642970 79.429108 5.988957 0.000000
389.494840 79.617523 5.997897 0.000000
388.626650 80.237152 6.131013 0.000000
