# .PCD v0.7 - Point Cloud Data file format
VERSION 0.7
FIELDS x y z intensity
SIZE 4 4 4 4
TYPE F F F F
COUNT 1 1 1 1
WIDTH 1223
HEIGHT 1
VIEWPOINT 0 0 0 1 0 0 0
POINTS 1223
DATA ascii
389.351470 98.131584 5.731811 0.000000
391.290370 98.139221 5.735160 0.000000
392.280330 98.143982 5.738000 0.000000
393.798550 98.151344 5.743762 0.000000
394.553010 98.902458 5.767164 0.000000
395.633120 98.907700 5.772637 0.000000
387.846770 86.890060 6.114857 0.000000
389.352660 98.127907 6.325908 0.000000
390.802310 98.133781 6.333296 0.000000
391.291690 98.136139 6.336542 0.000000
392.281680 98.140877 6.344213 0.000000
393.799960 98.148186 6.358788 0.000000
390.803590 98.130699 6.933732 0.000000
391.786040 98.135429 6.945052 0.000000
392.283020 98.137772 6.951607 0.000000
393.801330 98.145020 6.975014 0.000000
389.071380 86.462234 3.092499 0.000000
389.462860 86.365387 3.095385 0.000000
387.067200 86.826492 3.073095 0.000000
387.473540 86.753929 3.079608 0.000000
387.877620 86.695061 3.083220 0.000000
388.278530 86.626923 3.086450 0.000000
388.676760 86.550072 3.089544 0.000000
389.913670 89.356583 3.127974 0.000000
389.307370 89.680405 3.107536 0.000000
389.640590 89.729980 3.096495 0.000000
387.371120 90.049911 3.093206 0.000000
388.185940 89.928101 3.098517 0.000000
388.670750 89.844460 3.101053 0.000000
388.990810 89.771454 3.103678 0.000000
387.042600 90.090698 3.090767 0.000000
387.610470 86.735161 3.423562 0.000000
390.670200 86.870972 3.353662 0.000000
394.745390 87.409454 3.137825 0.000000
393.922700 87.863609 3.136479 0.000000
394.316380 87.592628 3.142754 0.000000
392.874570 88.182007 3.151774 0.000000
392.626460 88.431908 3.137716 0.000000
391.756470 88.835632 3.129588 0.000000
395.159090 91.416161 3.229588 0.000000
395.570010 91.418854 3.213886 0.000000
393.800450 92.138054 3.223198 0.000000
394.213710 92.167526 3.207793 0.000000
391.897740 92.380737 3.257519 0.000000
392.679840 92.385918 3.237259 0.000000
389.686710 92.967865 3.255236 0.000000
390.060090 92.880493 3.256168 0.000000
390.431580 92.789230 3.256851 0.000000
388.545140 93.048950 3.263319 0.000000
388.924160 93.005569 3.262498 0.000000
389.311280 93.050423 3.254125 0.000000
387.017000 93.570015 3.233694 0.000000
387.406220 93.524361 3.235321 0.000000
388.180540 93.433762 3.236766 0.000000
393.837620 96.835289 3.450664 0.000000
395.367070 97.082245 3.402175 0.000000
390.626130 97.130676 3.490527 0.000000
391.087220 97.131897 3.483966 0.000000
392.968200 97.176743 3.449684 0.000000
386.988740 97.480186 3.503490 0.000000
387.446620 97.471954 3.501680 0.000000
388.361720 97.444313 3.497122 0.000000
388.819180 97.424957 3.494371 0.000000
389.286350 97.524399 3.484336 0.000000
389.748870 97.526367 3.479289 0.000000
390.213650 97.533943 3.473375 0.000000
387.612180 86.733330 3.764860 0.000000
393.190890 98.158806 3.994987 0.000000
394.379910 98.908173 3.952122 0.000000
387.613890 86.731529 4.104915 0.000000
389.338320 98.135910 4.039709 0.000000
389.811710 98.138199 4.035491 0.000000
390.286800 98.140511 4.030899 0.000000
390.763850 98.142845 4.025925 0.000000
391.243100 98.144409 4.020594 0.000000
386.986540 98.124542 4.055302 0.000000
387.455840 98.126816 4.052906 0.000000
388.395450 98.131348 4.047035 0.000000
388.866330 98.133606 4.043556 0.000000
387.615570 86.729736 4.444057 0.000000
389.341400 98.132797 4.629012 0.000000
389.814820 98.135078 4.625757 0.000000
390.289950 98.137375 4.622310 0.000000
391.246460 98.141983 4.614829 0.000000
393.193450 98.151451 4.597401 0.000000
386.989380 98.121429 4.642504 0.000000
387.458740 98.123688 4.640170 0.000000
388.398440 98.128227 4.634959 0.000000
388.869350 98.130501 4.632079 0.000000
394.383610 98.904869 4.576472 0.000000
389.224240 86.518478 4.774587 0.000000
387.618100 86.727028 4.951754 0.000000
389.344450 98.129662 5.217847 0.000000
389.817930 98.131943 5.215554 0.000000
390.770260 98.136551 5.210941 0.000000
392.217320 98.146225 5.203958 0.000000
393.196900 98.148254 5.199188 0.000000
386.992250 98.118317 5.229241 0.000000
388.401400 98.125107 5.222415 0.000000
388.872380 98.127365 5.220134 0.000000
394.387300 98.901573 5.200331 0.000000
387.620670 86.724335 5.459244 0.000000
387.461640 98.120575 5.226967 0.000000
387.622340 86.722527 5.797970 0.000000
389.347500 98.126518 5.806789 0.000000
390.296260 98.131096 5.804302 0.000000
390.773470 98.133392 5.803322 0.000000
392.220700 98.143188 5.801528 0.000000
393.200380 98.145050 5.801085 0.000000
386.995090 98.115204 5.816083 0.000000
387.464510 98.117462 5.813870 0.000000
388.404390 98.121971 5.809977 0.000000
388.875400 98.124237 5.808295 0.000000
394.390990 98.898262 5.824305 0.000000
387.880770 86.406761 6.113274 0.000000
387.623410 86.698334 6.135730 0.000000
387.081600 86.883408 6.151876 0.000000
387.355290 86.910347 6.152576 0.000000
389.350590 98.123390 6.396392 0.000000
389.823880 98.123062 6.395887 0.000000
390.299410 98.127930 6.396015 0.000000
390.776790 98.131264 6.396421 0.000000
391.256230 98.132515 6.397082 0.000000
392.223850 98.138885 6.399712 0.000000
386.997960 98.112068 6.403583 0.000000
387.467410 98.114334 6.401431 0.000000
388.407350 98.118843 6.398199 0.000000
388.878360 98.120071 6.397062 0.000000
393.203860 98.141853 6.403660 0.000000
389.827270 98.122513 6.987823 0.000000
390.302580 98.124809 6.988964 0.000000
390.779880 98.127075 6.990652 0.000000
391.259490 98.129356 6.992890 0.000000
392.227450 98.136978 6.999274 0.000000
393.207340 98.138641 7.007495 0.000000
388.881440 98.117981 6.987167 0.000000
393.210820 98.135422 7.613174 0.000000
393.047760 86.112617 3.141323 0.000000
392.292940 86.409088 3.139092 0.000000
392.546630 86.314041 3.139944 0.000000
392.798490 86.216064 3.140581 0.000000
391.259830 86.760567 3.133395 0.000000
387.751010 86.742455 3.184399 0.000000
388.409850 87.354630 3.111889 0.000000
388.827360 87.293533 3.116394 0.000000
389.241490 87.231033 3.119499 0.000000
386.853490 87.500351 3.092545 0.000000
387.139190 87.485092 3.096230 0.000000
387.423740 87.465752 3.099737 0.000000
387.989290 87.411041 3.106664 0.000000
394.824220 88.730972 3.174705 0.000000
395.147860 88.680984 3.164706 0.000000
395.393370 88.425003 3.175664 0.000000
393.907500 89.023521 3.186088 0.000000
394.241730 89.017555 3.173583 0.000000
394.575100 88.998619 3.161653 0.000000
393.496060 89.349007 3.171731 0.000000
393.074950 89.679344 3.156036 0.000000
391.789150 89.940254 3.169063 0.000000
387.848270 90.581573 3.162458 0.000000
388.518250 90.602936 3.157651 0.000000
389.019680 90.529984 3.160689 0.000000
389.517790 90.448250 3.163313 0.000000
386.488100 90.683960 3.150713 0.000000
387.001620 90.643539 3.156440 0.000000
388.181730 90.646309 3.155283 0.000000
388.883150 94.268829 3.312337 0.000000
386.078370 94.258995 3.319975 0.000000
386.480470 94.273666 3.319758 0.000000
386.882020 94.284592 3.319198 0.000000
387.679230 94.393402 3.309972 0.000000
388.282810 94.335533 3.311438 0.000000
387.753270 86.740189 3.524403 0.000000
394.704320 93.107803 3.283807 0.000000
395.125310 93.145935 3.268062 0.000000
395.439420 92.824745 3.279853 0.000000
392.337740 93.227707 3.336883 0.000000
393.903320 93.137596 3.304915 0.000000
394.331730 93.237389 3.285867 0.000000
389.272340 93.859642 3.338612 0.000000
389.663090 93.817543 3.337710 0.000000
393.160770 98.161751 3.562819 0.000000
387.514470 98.134209 3.626842 0.000000
387.981780 98.136475 3.624491 0.000000
388.448700 98.138733 3.621609 0.000000
388.915530 98.140999 3.618194 0.000000
389.382570 98.143280 3.614243 0.000000
389.850100 98.145554 3.609753 0.000000
386.107540 98.127434 3.630703 0.000000
386.577670 98.129692 3.629948 0.000000
395.282590 98.898766 3.483815 0.000000
385.426390 99.944839 3.539786 0.000000
387.755490 86.737930 3.862910 0.000000
395.293370 98.916008 4.101748 0.000000
385.348140 100.654800 4.148376 0.000000
387.757720 86.735687 4.200252 0.000000
393.165830 98.157806 4.156426 0.000000
387.518430 98.130325 4.212395 0.000000
387.985810 98.132576 4.209728 0.000000
388.452820 98.134834 4.206707 0.000000
388.919740 98.137100 4.203331 0.000000
389.386870 98.139359 4.199597 0.000000
389.854490 98.141640 4.195503 0.000000
386.111270 98.123520 4.218284 0.000000
386.581450 98.125778 4.216673 0.000000
387.759950 86.733459 4.536753 0.000000
393.170900 98.153854 4.749122 0.000000
387.522400 98.126434 4.797048 0.000000
387.989840 98.128693 4.794065 0.000000
388.456940 98.130951 4.790905 0.000000
388.923950 98.133224 4.787568 0.000000
389.391170 98.135483 4.784051 0.000000
389.858860 98.137756 4.780354 0.000000
386.114960 98.119614 4.804962 0.000000
386.585240 98.121902 4.802496 0.000000
395.299010 98.911903 4.719889 0.000000
385.352110 100.650520 4.791749 0.000000
387.761290 86.745667 4.872645 0.000000
388.461030 98.127075 5.374752 0.000000
386.589020 98.117996 5.387968 0.000000
387.762540 86.775719 5.377859 0.000000
393.175960 98.149925 5.341465 0.000000
387.526340 98.122543 5.381350 0.000000
387.993870 98.124817 5.378050 0.000000
388.928130 98.128922 5.371448 0.000000
389.395450 98.130890 5.368144 0.000000
386.118680 98.115723 5.391288 0.000000
395.304660 98.907799 5.337665 0.000000
385.356080 100.646240 5.434737 0.000000
387.763790 86.806114 5.885612 0.000000
393.181000 98.145996 5.934033 0.000000
387.530270 98.118652 5.965871 0.000000
387.997920 98.120926 5.962254 0.000000
388.932340 98.125458 5.955558 0.000000
389.399750 98.127647 5.952474 0.000000
389.867580 98.129456 5.949551 0.000000
386.122410 98.111809 5.977835 0.000000
386.592800 98.114105 5.973659 0.000000
395.310300 98.903687 5.955679 0.000000
385.360050 100.641940 6.077966 0.000000
387.808110 86.120789 6.169049 0.000000
393.186040 98.142052 6.527383 0.000000
387.534240 98.114754 6.551160 0.000000
388.001920 98.117722 6.547267 0.000000
388.469300 98.119301 6.543650 0.000000
388.936550 98.121559 6.540431 0.000000
389.872010 98.126091 6.535057 0.000000
386.126100 98.107903 6.565154 0.000000
386.596590 98.110184 6.560121 0.000000
385.364010 100.637660 6.722043 0.000000
393.191130 98.138107 7.122092 0.000000
387.538180 98.111320 7.137824 0.000000
388.473420 98.115402 7.129818 0.000000
388.940770 98.117668 7.126638 0.000000
389.408360 98.119919 7.123992 0.000000
389.876400 98.122192 7.121880 0.000000
393.196200 98.134132 7.718730 0.000000
393.201320 98.130165 8.317860 0.000000
393.206450 98.126144 8.920105 0.000000
394.864620 86.277328 3.143714 0.000000
395.232940 86.103218 3.145465 0.000000
394.107820 86.585625 3.141116 0.000000
394.488830 86.436905 3.142332 0.000000
393.199650 86.893639 3.137598 0.000000
393.591980 86.768440 3.139221 0.000000
393.851350 86.680862 3.140002 0.000000
386.831050 86.762825 3.174424 0.000000
387.663760 86.740837 3.193521 0.000000
391.727690 87.270050 3.130171 0.000000
391.998660 87.208313 3.132117 0.000000
392.402470 87.111992 3.134250 0.000000
392.803160 87.007919 3.136075 0.000000
390.070860 87.537994 3.117340 0.000000
390.350250 87.505913 3.119598 0.000000
390.628450 87.469086 3.121770 0.000000
391.174710 87.273827 3.138269 0.000000
391.455140 87.327499 3.128112 0.000000
387.222930 87.634285 3.084845 0.000000
388.374480 87.630569 3.101754 0.000000
389.790440 87.564316 3.115105 0.000000
386.912630 87.723511 3.068616 0.000000
394.931370 89.783035 3.172283 0.000000
395.240480 89.665665 3.172414 0.000000
394.143620 90.035141 3.173303 0.000000
394.649410 90.020065 3.159934 0.000000
392.522250 90.362862 3.180935 0.000000
393.018490 90.324615 3.174662 0.000000
393.342290 90.248817 3.174399 0.000000
390.375340 90.732529 3.173104 0.000000
391.042300 90.631454 3.177156 0.000000
391.373410 90.575363 3.178762 0.000000
391.702910 90.514511 3.180192 0.000000
392.041410 90.561783 3.170857 0.000000
388.006410 90.833725 3.162285 0.000000
389.702150 90.816521 3.168118 0.000000
390.039490 90.776543 3.170741 0.000000
386.252010 90.954323 3.130215 0.000000
386.602720 90.962280 3.135007 0.000000
393.600250 94.238670 3.308625 0.000000
394.381350 94.053604 3.306235 0.000000
394.787020 94.041901 3.298190 0.000000
395.204860 94.074509 3.286191 0.000000
385.563780 94.321419 3.325426 0.000000
385.974240 94.336479 3.329108 0.000000
389.599730 94.605385 3.324612 0.000000
390.003270 94.565697 3.325959 0.000000
390.405300 94.526245 3.326684 0.000000
387.560670 94.715080 3.314927 0.000000
390.602910 86.350075 3.578478 0.000000
390.849180 86.085983 3.278493 0.000000
386.831090 86.765030 3.519362 0.000000
387.664980 86.738808 3.534862 0.000000
391.978850 94.054321 3.346019 0.000000
392.372500 94.026062 3.342985 0.000000
392.771450 94.042572 3.336120 0.000000
393.185460 94.158020 3.321462 0.000000
393.955900 93.932541 3.323314 0.000000
391.190090 94.075317 3.352810 0.000000
391.588410 94.134911 3.344714 0.000000
392.299290 98.156509 3.638126 0.000000
392.768010 98.158806 3.632909 0.000000
393.238400 98.161133 3.627139 0.000000
387.169280 98.129044 3.660167 0.000000
389.970000 98.145073 3.656083 0.000000
390.434880 98.146614 3.653599 0.000000
390.899960 98.149635 3.650510 0.000000
391.365540 98.151924 3.646921 0.000000
391.831880 98.154205 3.642795 0.000000
394.295990 98.914162 3.576115 0.000000
394.786470 98.916603 3.568430 0.000000
395.279880 98.919067 3.560144 0.000000
384.270390 100.647610 3.523926 0.000000
384.797640 100.651250 3.527608 0.000000
390.598110 86.080887 3.924193 0.000000
386.830870 86.768578 3.862910 0.000000
387.666140 86.736763 3.874735 0.000000
394.300140 98.910561 4.182049 0.000000
394.790740 98.912987 4.176082 0.000000
395.284270 98.915428 4.169708 0.000000
384.271390 100.648790 4.174236 0.000000
384.799040 100.651310 4.175816 0.000000
389.836400 86.075264 4.248105 0.000000
386.830900 86.770767 4.205629 0.000000
387.667330 86.734741 4.213472 0.000000
392.771670 98.155319 4.218420 0.000000
393.242160 98.157623 4.213764 0.000000
387.171600 98.125977 4.246219 0.000000
389.507930 98.139328 4.240818 0.000000
389.972990 98.141869 4.238683 0.000000
390.903200 98.146133 4.233373 0.000000
391.368870 98.148422 4.230178 0.000000
391.835330 98.150719 4.226623 0.000000
392.302830 98.153008 4.222706 0.000000
390.347020 86.075768 4.564529 0.000000
386.830960 86.772964 4.547720 0.000000
387.668490 86.732727 4.551397 0.000000
392.775330 98.151833 4.803087 0.000000
393.245940 98.154121 4.799542 0.000000
387.173980 98.122444 4.831448 0.000000
389.510800 98.135857 4.822724 0.000000
389.975980 98.138123 4.820457 0.000000
390.441100 98.140404 4.818015 0.000000
390.906370 98.141724 4.815399 0.000000
391.372190 98.144958 4.812592 0.000000
391.838750 98.147232 4.809609 0.000000
392.306370 98.149536 4.806441 0.000000
394.304230 98.906944 4.787111 0.000000
394.794980 98.909355 4.782859 0.000000
395.288640 98.911797 4.778397 0.000000
384.273410 100.644910 4.823863 0.000000
384.801180 100.647450 4.823288 0.000000
386.830990 86.775146 4.889509 0.000000
387.669680 86.730698 4.888837 0.000000
387.176390 98.118500 5.416374 0.000000
389.978970 98.134659 5.401929 0.000000
391.375490 98.141479 5.394711 0.000000
391.842160 98.143753 5.392299 0.000000
395.293000 98.908173 5.386781 0.000000
386.831090 86.778435 5.402398 0.000000
387.671420 86.727676 5.394823 0.000000
392.778990 98.148354 5.387457 0.000000
393.249730 98.150642 5.385025 0.000000
389.513700 98.132385 5.404334 0.000000
390.444180 98.136932 5.399525 0.000000
390.909580 98.138252 5.397104 0.000000
392.309910 98.146057 5.389882 0.000000
394.308350 98.903343 5.391870 0.000000
394.799220 98.905746 5.389333 0.000000
384.275390 100.641020 5.473165 0.000000
384.803310 100.643590 5.470436 0.000000
386.831180 86.781738 5.916316 0.000000
387.673190 86.724640 5.901444 0.000000
392.782620 98.144859 5.972102 0.000000
393.253480 98.147133 5.970782 0.000000
389.516570 98.128891 5.986215 0.000000
389.981960 98.132080 5.983707 0.000000
390.447300 98.133453 5.981306 0.000000
390.912810 98.135712 5.979116 0.000000
391.378810 98.138000 5.977102 0.000000
391.845610 98.140274 5.975262 0.000000
392.313450 98.142570 5.973596 0.000000
394.312500 98.899734 5.996914 0.000000
394.803470 98.902115 5.996094 0.000000
395.297390 98.904541 5.995454 0.000000
384.277400 100.637140 6.122776 0.000000
384.805450 100.639710 6.117890 0.000000
392.786290 98.141357 6.557572 0.000000
393.730160 98.145950 6.557520 0.000000
389.519470 98.125420 6.568917 0.000000
389.984990 98.127693 6.566234 0.000000
390.450410 98.129974 6.563907 0.000000
390.916020 98.132233 6.561934 0.000000
391.382140 98.134514 6.560314 0.000000
391.849030 98.136795 6.559047 0.000000
392.316990 98.139069 6.558132 0.000000
387.181060 98.112137 6.587635 0.000000
384.279660 100.632110 6.773238 0.000000
384.807590 100.635830 6.766262 0.000000
392.789950 98.137848 7.144434 0.000000
393.261050 98.140137 7.145348 0.000000
393.734070 98.142418 7.146802 0.000000
389.522370 98.121925 7.153003 0.000000
389.987980 98.124214 7.150181 0.000000
390.453520 98.126488 7.147893 0.000000
390.919250 98.128746 7.146135 0.000000
391.385470 98.131027 7.144911 0.000000
391.852480 98.133293 7.144218 0.000000
392.320560 98.135582 7.144059 0.000000
387.183500 98.107941 7.175010 0.000000
393.264830 98.136597 7.735290 0.000000
393.737980 98.138893 7.738054 0.000000
389.525270 98.118431 7.739039 0.000000
389.991000 98.120712 7.736077 0.000000
390.456630 98.122978 7.733827 0.000000
390.922490 98.125244 7.732287 0.000000
391.388790 98.127510 7.731459 0.000000
391.855930 98.129791 7.731343 0.000000
392.324100 98.132057 7.731941 0.000000
392.793640 98.134331 7.733256 0.000000
393.268650 98.133064 8.327749 0.000000
393.741910 98.135330 8.331824 0.000000
389.062040 98.112610 8.331565 0.000000
389.528200 98.114899 8.327569 0.000000
389.994020 98.117188 8.324468 0.000000
390.459780 98.119492 8.322259 0.000000
390.925720 98.121727 8.320936 0.000000
391.392180 98.123993 8.320505 0.000000
391.859410 98.126282 8.320972 0.000000
392.327700 98.128555 8.322331 0.000000
392.797330 98.130814 8.324589 0.000000
393.272490 98.129517 8.923349 0.000000
393.745850 98.131767 8.928744 0.000000
389.064850 98.109070 8.923536 0.000000
389.531130 98.111389 8.919221 0.000000
389.997070 98.113647 8.915974 0.000000
390.462920 98.115936 8.913805 0.000000
390.928990 98.118202 8.912703 0.000000
391.395540 98.120491 8.912678 0.000000
391.862880 98.122757 8.913725 0.000000
392.331300 98.124992 8.915845 0.000000
392.801060 98.127258 8.919051 0.000000
389.067780 98.103394 9.518812 0.000000
389.534180 98.104797 9.514017 0.000000
390.000150 98.106079 9.510459 0.000000
391.866240 98.117081 9.509789 0.000000
392.334870 98.120689 9.512912 0.000000
395.307010 87.781296 3.151441 0.000000
395.719120 87.658081 3.153406 0.000000
393.904510 88.094612 3.145120 0.000000
394.187900 88.043602 3.146379 0.000000
394.454070 87.887344 3.158743 0.000000
394.890050 87.889145 3.149610 0.000000
392.182340 88.174744 3.148774 0.000000
392.473140 88.273010 3.137489 0.000000
392.904690 88.233299 3.139895 0.000000
393.620180 88.141609 3.143653 0.000000
386.683440 87.783989 3.073275 0.000000
387.573030 87.872307 3.098908 0.000000
388.693630 88.213219 3.097662 0.000000
389.570890 88.280350 3.111077 0.000000
390.008090 88.304367 3.116455 0.000000
390.448580 88.276520 3.126238 0.000000
391.025730 88.335976 3.126089 0.000000
391.316070 88.333107 3.128627 0.000000
391.606110 88.324936 3.131083 0.000000
391.895870 88.420410 3.121433 0.000000
394.648960 91.278664 3.221887 0.000000
395.010250 91.355453 3.210072 0.000000
395.350770 91.289330 3.210341 0.000000
395.717770 91.359306 3.197701 0.000000
392.246250 91.474991 3.220489 0.000000
392.592830 91.522301 3.216000 0.000000
393.282620 91.478973 3.217232 0.000000
393.636930 91.562103 3.207575 0.000000
393.981660 91.518143 3.208503 0.000000
394.325590 91.469948 3.209147 0.000000
385.623900 91.065643 3.135312 0.000000
388.079740 91.402817 3.178786 0.000000
389.134980 91.424187 3.198047 0.000000
389.483550 91.431183 3.203095 0.000000
390.863710 91.543251 3.209098 0.000000
391.210570 91.527275 3.212844 0.000000
391.556580 91.506805 3.216321 0.000000
391.901640 91.480782 3.219628 0.000000
386.651000 91.339752 3.146222 0.000000
391.498630 95.216148 3.404786 0.000000
391.908570 95.215935 3.405936 0.000000
392.319310 95.256119 3.403780 0.000000
392.737090 95.440994 3.391393 0.000000
393.155240 95.504723 3.386413 0.000000
393.576140 95.564346 3.381065 0.000000
394.010010 95.734009 3.367744 0.000000
394.837010 95.569153 3.372721 0.000000
395.285860 95.747124 3.356824 0.000000
395.719970 95.780533 3.349906 0.000000
384.466980 94.645554 3.325929 0.000000
385.695650 94.928261 3.341120 0.000000
389.818970 95.629089 3.366332 0.000000
390.657200 95.626923 3.373268 0.000000
391.075040 95.625931 3.375765 0.000000
394.447360 95.867973 3.356121 0.000000
387.314790 95.375000 3.347507 0.000000
388.566190 95.524612 3.358307 0.000000
389.398710 95.623611 3.362331 0.000000
390.850830 86.620834 3.313297 0.000000
390.564700 86.895752 3.615768 0.000000
390.528840 98.145447 3.785124 0.000000
390.990750 98.147621 3.787294 0.000000
391.452210 98.149773 3.788936 0.000000
391.913480 98.151939 3.790049 0.000000
392.374850 98.154106 3.790635 0.000000
392.836640 98.156288 3.790694 0.000000
393.299070 98.158463 3.790226 0.000000
388.671020 98.136696 3.771093 0.000000
389.137570 98.138947 3.775409 0.000000
389.602420 98.142502 3.779123 0.000000
390.066190 98.143295 3.782421 0.000000
394.294040 98.910965 3.754340 0.000000
394.773380 98.913208 3.752217 0.000000
395.254610 98.915497 3.749537 0.000000
395.738010 98.917801 3.746296 0.000000
386.783510 98.124741 3.748398 0.000000
382.529360 100.643550 3.562513 0.000000
384.172580 100.651080 3.596144 0.000000
390.885500 86.081863 3.849067 0.000000
390.253810 86.079231 3.842443 0.000000
382.524600 100.639830 4.227004 0.000000
384.168460 100.647420 4.250671 0.000000
389.837550 86.311569 4.303533 0.000000
390.989200 98.144394 4.365524 0.000000
391.450810 98.146553 4.366969 0.000000
391.912230 98.148712 4.368061 0.000000
392.373780 98.150879 4.368803 0.000000
392.835720 98.153069 4.369193 0.000000
393.298310 98.155243 4.369232 0.000000
388.668670 98.133545 4.352958 0.000000
389.135380 98.135712 4.356192 0.000000
389.600520 98.137886 4.359063 0.000000
390.064330 98.140060 4.361573 0.000000
390.527130 98.142227 4.363726 0.000000
394.293550 98.907631 4.351304 0.000000
394.773070 98.909889 4.350252 0.000000
395.254460 98.912163 4.348832 0.000000
395.738010 98.914459 4.347039 0.000000
386.780360 98.121948 4.336363 0.000000
390.987640 98.141174 4.943041 0.000000
391.449400 98.143341 4.944290 0.000000
391.910980 98.145508 4.945362 0.000000
392.372680 98.147659 4.946258 0.000000
392.834780 98.149849 4.946980 0.000000
393.297520 98.152023 4.947527 0.000000
388.197540 98.128113 4.931778 0.000000
388.666320 98.130295 4.934113 0.000000
389.133210 98.132492 4.936263 0.000000
389.598480 98.134659 4.938228 0.000000
390.062470 98.136833 4.940012 0.000000
390.525420 98.139015 4.941616 0.000000
394.293060 98.904297 4.947533 0.000000
394.772740 98.906540 4.947554 0.000000
395.254300 98.908829 4.947392 0.000000
395.738010 98.911110 4.947047 0.000000
382.519870 100.636100 4.890697 0.000000
384.164370 100.643760 4.904407 0.000000
390.986080 98.137955 5.520389 0.000000
391.909760 98.142303 5.522492 0.000000
392.833830 98.146622 5.524597 0.000000
388.663970 98.127060 5.515100 0.000000
390.523710 98.135796 5.519336 0.000000
394.772430 98.903244 5.544682 0.000000
382.515140 100.632400 5.554217 0.000000
384.160280 100.640110 5.557964 0.000000
391.448000 98.140114 5.521441 0.000000
392.371580 98.144455 5.523544 0.000000
393.296750 98.148804 5.525652 0.000000
388.195040 98.124863 5.514032 0.000000
389.131010 98.129234 5.516164 0.000000
389.596470 98.131439 5.517224 0.000000
390.060610 98.133621 5.518281 0.000000
394.292600 98.900993 5.543590 0.000000
395.254150 98.905502 5.545779 0.000000
395.738040 98.907776 5.546881 0.000000
390.984560 98.134727 6.098129 0.000000
391.446620 98.136902 6.098985 0.000000
391.908510 98.139069 6.100016 0.000000
392.370510 98.141235 6.101223 0.000000
392.832920 98.143402 6.102607 0.000000
393.295960 98.145576 6.104171 0.000000
388.192540 98.121597 6.096685 0.000000
388.661620 98.123810 6.096484 0.000000
389.128850 98.125999 6.096461 0.000000
389.594450 98.128204 6.096615 0.000000
390.058750 98.130386 6.096944 0.000000
390.522000 98.132568 6.097449 0.000000
382.510410 100.628680 6.218210 0.000000
384.156190 100.636450 6.211981 0.000000
390.983000 98.131508 6.676807 0.000000
391.445220 98.133667 6.677465 0.000000
391.907260 98.135849 6.678476 0.000000
392.369420 98.138008 6.679839 0.000000
392.831970 98.140175 6.681556 0.000000
393.759370 98.144501 6.686057 0.000000
388.190000 98.118347 6.680287 0.000000
388.659270 98.120552 6.678814 0.000000
389.126650 98.122757 6.677702 0.000000
389.592410 98.124954 6.676947 0.000000
390.056850 98.127144 6.676547 0.000000
390.520290 98.129333 6.676501 0.000000
386.768280 98.108955 6.686727 0.000000
384.179170 100.531070 6.860399 0.000000
382.506070 100.623650 6.883217 0.000000
390.981410 98.128265 7.256983 0.000000
391.443820 98.130432 7.257443 0.000000
391.906040 98.132599 7.258433 0.000000
392.368350 98.134781 7.259953 0.000000
392.831050 98.136948 7.262004 0.000000
393.294400 98.139107 7.264587 0.000000
393.758730 98.141266 7.267707 0.000000
388.187500 98.115067 7.265403 0.000000
388.656920 98.117294 7.262655 0.000000
389.124330 98.120735 7.260556 0.000000
389.590390 98.121712 7.258783 0.000000
390.054990 98.123909 7.257652 0.000000
390.518590 98.126099 7.257053 0.000000
391.442410 98.127197 7.839484 0.000000
392.367250 98.131531 7.842130 0.000000
392.830110 98.133690 7.844514 0.000000
393.293640 98.135857 7.847611 0.000000
393.758120 98.138008 7.851423 0.000000
387.713170 98.109543 7.857366 0.000000
388.184970 98.111794 7.852602 0.000000
388.654570 98.114029 7.848574 0.000000
389.122250 98.116249 7.845271 0.000000
389.588350 98.118462 7.842689 0.000000
390.053130 98.120651 7.840822 0.000000
390.516850 98.122841 7.839667 0.000000
390.979860 98.125023 7.839222 0.000000
387.238830 98.107277 7.862872 0.000000
391.441010 98.123940 8.424129 0.000000
391.903500 98.126091 8.425075 0.000000
392.366120 98.127892 8.426861 0.000000
392.829160 98.130447 8.429634 0.000000
393.292850 98.132599 8.433247 0.000000
393.757510 98.134743 8.437752 0.000000
387.710450 98.106232 8.448670 0.000000
388.182430 98.108513 8.442435 0.000000
388.652190 98.110764 8.437119 0.000000
389.120060 98.112976 8.432711 0.000000
389.586300 98.115173 8.429207 0.000000
390.051240 98.117378 8.426603 0.000000
390.515140 98.119583 8.424891 0.000000
390.978270 98.122414 8.424151 0.000000
386.278200 98.099350 8.473023 0.000000
386.758670 98.101662 8.463953 0.000000
391.439580 98.120659 9.011997 0.000000
391.902250 98.122849 9.012927 0.000000
392.365050 98.125023 9.014919 0.000000
393.292050 98.129318 9.022108 0.000000
393.756870 98.131477 9.027319 0.000000
387.708130 98.100349 9.042845 0.000000
388.179870 98.105202 9.035523 0.000000
388.649780 98.107437 9.028908 0.000000
389.117830 98.109680 9.023392 0.000000
389.584230 98.111877 9.018961 0.000000
390.049320 98.114105 9.015617 0.000000
390.513400 98.116302 9.013341 0.000000
390.976720 98.118492 9.012137 0.000000
385.792110 98.088036 9.084629 0.000000
386.274930 98.096001 9.073199 0.000000
386.755580 98.098312 9.062063 0.000000
387.233060 98.100632 9.052087 0.000000
384.676790 100.612370 9.493513 0.000000
395.690670 87.070404 3.157137 0.000000
392.503360 87.097237 3.137049 0.000000
392.767640 87.122208 3.138790 0.000000
393.165160 87.149506 3.141419 0.000000
393.563510 87.167023 3.144018 0.000000
394.095640 87.173317 3.147307 0.000000
394.361850 87.168793 3.148959 0.000000
394.761260 87.153519 3.151235 0.000000
395.160340 87.127960 3.153520 0.000000
395.425750 87.101669 3.155336 0.000000
386.082550 88.752098 3.076894 0.000000
386.969020 89.129471 3.088887 0.000000
387.916840 89.328842 3.114593 0.000000
395.168330 90.241203 3.187212 0.000000
395.489010 90.223755 3.188737 0.000000
387.571840 89.351913 3.097049 0.000000
388.801150 89.726273 3.113597 0.000000
389.112920 89.803978 3.117871 0.000000
389.429570 89.860321 3.123741 0.000000
390.702240 90.024246 3.147179 0.000000
392.292080 90.164398 3.168989 0.000000
392.768710 90.214401 3.171698 0.000000
393.247190 90.241333 3.175479 0.000000
393.566710 90.252419 3.177866 0.000000
393.886570 90.260139 3.179977 0.000000
394.206730 90.262604 3.181996 0.000000
390.811830 86.083733 3.212249 0.000000
391.000180 86.468964 3.173123 0.000000
388.761080 86.292252 3.098793 0.000000
389.642210 86.573181 3.108753 0.000000
389.897190 86.643280 3.111533 0.000000
390.282200 86.739395 3.115646 0.000000
390.695800 86.667915 3.471151 0.000000
391.189700 86.925232 3.125037 0.000000
391.451230 86.967003 3.127745 0.000000
391.844850 87.021523 3.131597 0.000000
392.239590 87.069130 3.135086 0.000000
393.827510 87.072639 3.157679 0.000000
386.662840 86.735390 3.287362 0.000000
386.727110 88.869652 3.100337 0.000000
394.840270 90.150330 3.195663 0.000000
390.398960 89.903145 3.150405 0.000000
391.034970 89.950890 3.162980 0.000000
391.509920 89.987061 3.170656 0.000000
391.975950 90.118736 3.167607 0.000000
384.501280 92.311523 3.165431 0.000000
385.297670 92.415848 3.193346 0.000000
385.701630 92.437889 3.208769 0.000000
386.412600 92.726303 3.216637 0.000000
386.790220 92.805016 3.225228 0.000000
388.330410 92.949982 3.267133 0.000000
390.937560 93.368034 3.303372 0.000000
393.569180 93.662674 3.321173 0.000000
387.921940 93.015976 3.249276 0.000000
389.404300 93.365952 3.267288 0.000000
390.167390 93.416229 3.282702 0.000000
390.547060 93.441208 3.289506 0.000000
391.303500 93.492714 3.301201 0.000000
391.681060 93.516945 3.306284 0.000000
392.058320 93.541214 3.310783 0.000000
392.431950 93.636108 3.309278 0.000000
392.807310 93.759087 3.305082 0.000000
393.952730 93.883202 3.307892 0.000000
394.339230 93.968964 3.304321 0.000000
394.728910 94.049164 3.300608 0.000000
395.117680 94.067062 3.301040 0.000000
395.515560 94.169144 3.294521 0.000000
382.990450 95.706230 3.433941 0.000000
383.756350 96.234550 3.435238 0.000000
384.216770 96.310318 3.447120 0.000000
385.099700 96.543365 3.463978 0.000000
385.575130 96.548561 3.478343 0.000000
386.811280 97.168655 3.481662 0.000000
387.710050 97.327019 3.496583 0.000000
388.173460 97.333015 3.507461 0.000000
388.605740 97.484131 3.509412 0.000000
389.060300 97.521072 3.517408 0.000000
389.497530 97.659348 3.519112 0.000000
389.930210 97.848007 3.517509 0.000000
390.821410 98.107086 3.519570 0.000000
391.282560 98.104507 3.527205 0.000000
391.742310 98.100769 3.534357 0.000000
392.200200 98.109657 3.540274 0.000000
392.656520 98.151001 3.543887 0.000000
393.114260 98.159996 3.548750 0.000000
393.572020 98.162125 3.553463 0.000000
394.515530 98.914398 3.520957 0.000000
394.987490 98.916588 3.524198 0.000000
395.460450 98.918800 3.526903 0.000000
391.060030 86.080505 3.854889 0.000000
390.420070 86.080925 3.678320 0.000000
386.658360 86.733231 3.646736 0.000000
390.382080 86.867470 3.778091 0.000000
381.973450 100.647490 3.832242 0.000000
382.554350 100.640810 3.847545 0.000000
383.685820 100.648120 3.875541 0.000000
384.241850 100.650670 3.888728 0.000000
380.797210 100.634970 3.800771 0.000000
390.007390 86.145882 4.141743 0.000000
386.653870 86.731064 4.004831 0.000000
390.810940 98.145920 4.093833 0.000000
391.272490 98.148048 4.100311 0.000000
391.732730 98.150177 4.106421 0.000000
392.191960 98.152313 4.112168 0.000000
392.650420 98.154419 4.117558 0.000000
393.108430 98.156548 4.122592 0.000000
393.566250 98.158676 4.127275 0.000000
387.518650 98.130707 4.037631 0.000000
387.997710 98.132912 4.046879 0.000000
388.473330 98.135094 4.055706 0.000000
388.945830 98.137291 4.064120 0.000000
389.415530 98.139442 4.072133 0.000000
389.882750 98.141624 4.079751 0.000000
390.347810 98.143768 4.086982 0.000000
394.509670 98.910843 4.111600 0.000000
394.981720 98.913040 4.115351 0.000000
395.454710 98.915237 4.118749 0.000000
389.693480 86.315300 4.450464 0.000000
386.649410 86.728912 4.361993 0.000000
390.804840 98.142448 4.669486 0.000000
391.266450 98.144592 4.675057 0.000000
391.726750 98.146729 4.680437 0.000000
392.186040 98.148872 4.685630 0.000000
392.644560 98.150986 4.690641 0.000000
393.102630 98.153122 4.695473 0.000000
393.560520 98.155243 4.700128 0.000000
387.029110 98.124985 4.617473 0.000000
387.512020 98.127182 4.624752 0.000000
387.991180 98.129402 4.631796 0.000000
388.466890 98.131599 4.638613 0.000000
388.939450 98.133797 4.645207 0.000000
389.409240 98.135971 4.651586 0.000000
389.876530 98.138153 4.657756 0.000000
390.341610 98.140297 4.663721 0.000000
394.503880 98.907310 4.701254 0.000000
394.975950 98.909500 4.705514 0.000000
395.449010 98.911690 4.709603 0.000000
381.965550 100.642640 4.508329 0.000000
382.546660 100.635780 4.518865 0.000000
383.677980 100.644130 4.538575 0.000000
384.234130 100.646700 4.547977 0.000000
380.788730 100.630840 4.486598 0.000000
386.644990 86.726768 4.718564 0.000000
391.720790 98.143288 5.254029 0.000000
393.096830 98.149689 5.267931 0.000000
393.554750 98.151810 5.272557 0.000000
387.505430 98.123657 5.211443 0.000000
387.984650 98.125893 5.216285 0.000000
388.460450 98.128098 5.221091 0.000000
388.933070 98.130310 5.225866 0.000000
394.970180 98.905968 5.295242 0.000000
395.443300 98.908142 5.300021 0.000000
381.957400 100.638500 5.183896 0.000000
383.670140 100.640140 5.201128 0.000000
380.780240 100.626740 5.171933 0.000000
386.638310 86.723564 5.253084 0.000000
388.682190 86.865913 5.440029 0.000000
390.798740 98.138992 5.244714 0.000000
391.260410 98.141144 5.249379 0.000000
392.180110 98.145432 5.258669 0.000000
392.638700 98.147552 5.263302 0.000000
389.402950 98.132492 5.230613 0.000000
389.870300 98.134674 5.235335 0.000000
390.335480 98.136841 5.240034 0.000000
394.498080 98.903778 5.290472 0.000000
386.536960 98.113022 5.201591 0.000000
387.022430 98.121452 5.206565 0.000000
382.538640 100.631630 5.189660 0.000000
390.792660 98.135529 5.820078 0.000000
391.254390 98.137695 5.823836 0.000000
391.714810 98.139847 5.827757 0.000000
392.174190 98.141975 5.831843 0.000000
392.632840 98.144104 5.836099 0.000000
393.091030 98.146248 5.840524 0.000000
393.549010 98.148369 5.845120 0.000000
387.498840 98.120140 5.798277 0.000000
387.978150 98.122383 5.800915 0.000000
388.453980 98.124611 5.803711 0.000000
388.926730 98.126816 5.806665 0.000000
389.396640 98.129013 5.809778 0.000000
389.864070 98.131203 5.813051 0.000000
390.329320 98.133369 5.816484 0.000000
394.492250 98.900230 5.879830 0.000000
394.964420 98.902412 5.885109 0.000000
395.437560 98.904587 5.890578 0.000000
386.528530 98.115616 5.793480 0.000000
387.015750 98.117905 5.795800 0.000000
381.949160 100.634480 5.859633 0.000000
382.530490 100.627720 5.860625 0.000000
380.771790 100.622620 5.857444 0.000000
388.014280 86.284485 6.093130 0.000000
386.884120 86.842133 6.150136 0.000000
390.786560 98.132072 6.396121 0.000000
391.248350 98.134232 6.398970 0.000000
391.708830 98.136391 6.402161 0.000000
392.168270 98.138535 6.405693 0.000000
392.626980 98.140671 6.409569 0.000000
393.085210 98.142792 6.413790 0.000000
393.543240 98.144913 6.418358 0.000000
387.492220 98.116592 6.385805 0.000000
387.971620 98.118866 6.386236 0.000000
388.447540 98.121094 6.387017 0.000000
388.920350 98.123337 6.388150 0.000000
389.390350 98.125534 6.389627 0.000000
389.857850 98.127739 6.391450 0.000000
390.323150 98.129906 6.393615 0.000000
386.521760 98.112061 6.386019 0.000000
387.009060 98.114365 6.385733 0.000000
381.940520 100.631470 6.536235 0.000000
382.521940 100.624940 6.532459 0.000000
383.656830 100.625270 6.526979 0.000000
384.210910 100.634820 6.525395 0.000000
380.158200 100.618870 6.548648 0.000000
380.763520 100.618020 6.543751 0.000000
390.780430 98.128593 6.973398 0.000000
391.242310 98.130760 6.975337 0.000000
391.702850 98.132919 6.977796 0.000000
392.162350 98.135078 6.980773 0.000000
392.621090 98.137207 6.984269 0.000000
393.079380 98.139343 6.988286 0.000000
393.537480 98.141479 6.992826 0.000000
387.485600 98.113083 6.974597 0.000000
387.965060 98.115341 6.972814 0.000000
388.441070 98.117577 6.971577 0.000000
388.913970 98.119827 6.970882 0.000000
389.384030 98.122032 6.970719 0.000000
389.851620 98.124245 6.971088 0.000000
390.316990 98.126427 6.971982 0.000000
386.514950 98.108490 6.979832 0.000000
387.002350 98.110825 6.976935 0.000000
384.110870 99.278992 7.088241 0.000000
384.643220 99.275604 7.082301 0.000000
382.474760 99.284119 7.109646 0.000000
390.774320 98.125122 7.552469 0.000000
391.236240 98.127289 7.553494 0.000000
391.696840 98.129448 7.555217 0.000000
392.156400 98.131599 7.557637 0.000000
392.615200 98.133743 7.560752 0.000000
393.073550 98.135872 7.564565 0.000000
393.531680 98.138016 7.569076 0.000000
393.989930 98.140869 7.574361 0.000000
387.478940 98.109528 7.565219 0.000000
387.958500 98.111801 7.561216 0.000000
388.434600 98.114052 7.557954 0.000000
388.907560 98.116310 7.555426 0.000000
389.377690 98.118538 7.553619 0.000000
389.845340 98.120758 7.552528 0.000000
390.310790 98.122940 7.552146 0.000000
386.016200 98.102570 7.581790 0.000000
386.508150 98.104904 7.575493 0.000000
386.995610 98.107254 7.569977 0.000000
380.149170 100.615510 7.242020 0.000000
390.768160 98.121628 8.133872 0.000000
391.230130 98.123802 8.133980 0.000000
391.690800 98.125969 8.134964 0.000000
392.609280 98.130287 8.139560 0.000000
393.067690 98.132401 8.143166 0.000000
393.525880 98.134514 8.147644 0.000000
393.984130 98.135452 8.152859 0.000000
387.472290 98.105972 8.158224 0.000000
387.951900 98.108261 8.151992 0.000000
388.428070 98.110527 8.146695 0.000000
388.901120 98.112785 8.142324 0.000000
389.371340 98.115013 8.138865 0.000000
389.839050 98.117256 8.136311 0.000000
390.304530 98.119461 8.134649 0.000000
386.008120 98.103050 8.183192 0.000000
386.501310 98.101334 8.173558 0.000000
390.761960 98.118134 8.718220 0.000000
391.224000 98.120277 8.717400 0.000000
391.684750 98.122482 8.717648 0.000000
392.144410 98.124626 8.718943 0.000000
392.603330 98.126778 8.721293 0.000000
393.520050 98.131065 8.729147 0.000000
393.978420 98.135651 8.735006 0.000000
387.465580 98.102394 8.754232 0.000000
388.421540 98.106964 8.738417 0.000000
388.894650 98.109245 8.732197 0.000000
389.364930 98.111473 8.727074 0.000000
389.832700 98.113739 8.723049 0.000000
390.298460 98.114563 8.719904 0.000000
386.002290 98.095329 8.786642 0.000000
386.494450 98.097733 8.774655 0.000000
386.982060 98.100098 8.763862 0.000000
383.148040 100.395900 8.516059 0.000000
383.711460 100.386050 8.500041 0.000000
384.267460 100.377220 8.485337 0.000000
384.816590 100.369400 8.471913 0.000000
384.730440 100.621530 9.169014 0.000000
384.179690 100.618830 9.184858 0.000000
390.755740 98.114594 9.306048 0.000000
391.217860 98.116791 9.304305 0.000000
391.678620 98.118965 9.303803 0.000000
392.138370 98.121117 9.304532 0.000000
392.597350 98.123260 9.306494 0.000000
393.055880 98.125397 9.309685 0.000000
393.514160 98.127518 9.314108 0.000000
393.972530 98.128578 9.319586 0.000000
387.458830 98.098770 9.353792 0.000000
387.938630 98.101097 9.343065 0.000000
388.414950 98.103394 9.333668 0.000000
388.888150 98.105690 9.325586 0.000000
389.358520 98.107933 9.318794 0.000000
389.826350 98.110191 9.313286 0.000000
390.291990 98.112396 9.309038 0.000000
385.995300 98.091652 9.394192 0.000000
386.487520 98.094040 9.379330 0.000000
386.975250 98.096436 9.365875 0.000000
381.324070 100.604740 9.285785 0.000000
381.910370 100.607720 9.262586 0.000000
382.488590 100.610520 9.240921 0.000000
383.059230 100.613330 9.220776 0.000000
380.729100 100.601820 9.310602 0.000000
394.800320 86.571671 3.138650 0.000000
395.178410 86.562653 3.141368 0.000000
395.555630 86.541977 3.144125 0.000000
391.283360 86.179718 3.111780 0.000000
391.657290 86.257126 3.115664 0.000000
392.032620 86.324165 3.119419 0.000000
392.407990 86.387131 3.122518 0.000000
392.784210 86.441528 3.125259 0.000000
393.161250 86.487228 3.127952 0.000000
393.539060 86.522545 3.130520 0.000000
394.043430 86.555130 3.133862 0.000000
394.421910 86.568909 3.136279 0.000000
390.775050 86.534805 3.381700 0.000000
386.748660 86.736015 3.176240 0.000000
385.980960 87.443497 3.067847 0.000000
386.523250 87.750717 3.070800 0.000000
387.385770 88.113647 3.082486 0.000000
387.614500 88.357437 3.070627 0.000000
388.263150 88.427650 3.094212 0.000000
388.854800 88.609940 3.101997 0.000000
389.152800 88.691658 3.106022 0.000000
393.380890 89.240379 3.163505 0.000000
393.680050 89.265190 3.164703 0.000000
393.979160 89.290009 3.165326 0.000000
394.877470 89.399796 3.160032 0.000000
395.178830 89.391037 3.161917 0.000000
395.630160 89.370544 3.164370 0.000000
389.451260 88.769264 3.109887 0.000000
390.503450 88.993393 3.123757 0.000000
390.956730 89.068810 3.129783 0.000000
391.258030 89.117699 3.133140 0.000000
391.710020 89.184143 3.137723 0.000000
392.180660 89.137863 3.153256 0.000000
392.481690 89.163406 3.156706 0.000000
392.781950 89.188873 3.159575 0.000000
393.081630 89.214294 3.161866 0.000000
394.424870 89.401810 3.157225 0.000000
383.874020 90.951080 3.112095 0.000000
384.552280 91.307541 3.117648 0.000000
386.120510 91.561951 3.164608 0.000000
385.689090 91.593422 3.145035 0.000000
386.817380 91.834618 3.170224 0.000000
387.605010 91.866524 3.195330 0.000000
387.883700 92.179611 3.180048 0.000000
389.049160 92.185303 3.214557 0.000000
389.417600 92.227760 3.221137 0.000000
389.785030 92.265930 3.227477 0.000000
390.180910 92.181290 3.243871 0.000000
390.550480 92.183311 3.252078 0.000000
390.851720 92.493683 3.233150 0.000000
391.221620 92.494370 3.240370 0.000000
391.589050 92.494888 3.247005 0.000000
391.969270 92.400345 3.261133 0.000000
392.849550 92.582626 3.258318 0.000000
393.379270 92.707314 3.253841 0.000000
393.727810 92.890694 3.241731 0.000000
395.179170 92.706360 3.264814 0.000000
395.540340 92.822464 3.255639 0.000000
394.086790 92.980202 3.236982 0.000000
394.450010 93.017410 3.236071 0.000000
381.671140 94.617104 3.322673 0.000000
382.657930 94.724548 3.351537 0.000000
383.920650 95.218933 3.365748 0.000000
384.358890 95.339630 3.372419 0.000000
385.174160 95.705803 3.375468 0.000000
386.103730 95.777618 3.396284 0.000000
387.441440 95.949371 3.418599 0.000000
387.883420 95.998222 3.425434 0.000000
391.298460 96.637268 3.445105 0.000000
391.736110 96.634094 3.450516 0.000000
392.592650 96.744949 3.452491 0.000000
388.219730 96.405876 3.408406 0.000000
388.665190 96.445801 3.414838 0.000000
389.106110 96.493073 3.420242 0.000000
389.564580 96.454697 3.430579 0.000000
389.996120 96.519478 3.433771 0.000000
390.427920 96.578339 3.436826 0.000000
390.859800 96.631752 3.439714 0.000000
393.016660 96.854568 3.449376 0.000000
393.443480 96.959686 3.446064 0.000000
393.873080 97.061966 3.442449 0.000000
394.305570 97.160301 3.438595 0.000000
394.739290 97.358925 3.428066 0.000000
395.179660 97.478943 3.421903 0.000000
395.624210 97.599457 3.415212 0.000000
390.374540 86.079849 3.737724 0.000000
390.455780 86.663696 3.693986 0.000000
386.748170 86.733948 3.547697 0.000000
381.277400 100.638110 3.679499 0.000000
381.886720 100.640840 3.692219 0.000000
383.076780 100.646190 3.715828 0.000000
379.384800 100.629610 3.637388 0.000000
390.088840 86.109016 4.052799 0.000000
390.125640 86.800201 4.013660 0.000000
386.747710 86.731903 3.917705 0.000000
381.258640 95.299774 3.863442 0.000000
390.591740 98.145416 3.922132 0.000000
391.058140 98.147552 3.926454 0.000000
391.522030 98.149696 3.930403 0.000000
391.983730 98.151810 3.933985 0.000000
392.443540 98.153915 3.937204 0.000000
392.901730 98.156013 3.940065 0.000000
393.358610 98.158134 3.942570 0.000000
387.230500 98.130127 3.880873 0.000000
387.723360 98.132355 3.888004 0.000000
388.211430 98.134575 3.894708 0.000000
388.695040 98.136780 3.900993 0.000000
389.174530 98.138931 3.906871 0.000000
389.650270 98.141098 3.912348 0.000000
390.122560 98.143265 3.917432 0.000000
394.243650 98.909996 3.916701 0.000000
394.711300 98.912140 3.918198 0.000000
395.178770 98.914299 3.919337 0.000000
395.646300 98.916458 3.920120 0.000000
386.230900 98.119331 3.865553 0.000000
386.732420 98.127838 3.873305 0.000000
389.765720 86.223381 4.368359 0.000000
390.099210 86.077240 4.379616 0.000000
386.747220 86.729843 4.286626 0.000000
381.257480 95.297256 4.453722 0.000000
390.590640 98.142220 4.499068 0.000000
391.057010 98.144371 4.501756 0.000000
391.520870 98.146515 4.504255 0.000000
391.982540 98.148636 4.506568 0.000000
392.442350 98.150742 4.508699 0.000000
392.900540 98.152863 4.510647 0.000000
393.357390 98.154968 4.512417 0.000000
387.229460 98.126839 4.474640 0.000000
387.722320 98.129082 4.478762 0.000000
388.210360 98.131302 4.482665 0.000000
388.693970 98.133537 4.486354 0.000000
389.173460 98.135712 4.489835 0.000000
389.649170 98.137894 4.493111 0.000000
390.121460 98.140068 4.496187 0.000000
394.242370 98.906754 4.501939 0.000000
394.710020 98.908905 4.503217 0.000000
395.177460 98.911064 4.504316 0.000000
395.644990 98.913223 4.505238 0.000000
386.227750 98.122208 4.465715 0.000000
386.731410 98.124527 4.470293 0.000000
384.795720 100.655990 4.409753 0.000000
381.276430 100.634260 4.372163 0.000000
381.885710 100.637050 4.379210 0.000000
383.075740 100.642440 4.392357 0.000000
379.383910 100.625560 4.348977 0.000000
386.746770 86.727798 4.654813 0.000000
389.092250 86.455803 5.026843 0.000000
386.746060 86.724739 5.206500 0.000000
381.256530 95.294312 5.043418 0.000000
390.589480 98.139023 5.075403 0.000000
391.055850 98.141190 5.076459 0.000000
391.519710 98.143333 5.077510 0.000000
391.981380 98.145462 5.078557 0.000000
392.441160 98.147583 5.079598 0.000000
392.899350 98.149704 5.080636 0.000000
393.356200 98.151810 5.081672 0.000000
387.228420 98.123550 5.067787 0.000000
387.721280 98.125809 5.068903 0.000000
388.692900 98.130295 5.071105 0.000000
389.172360 98.132492 5.072192 0.000000
389.648070 98.134674 5.073269 0.000000
390.120330 98.136848 5.074339 0.000000
394.241090 98.903503 5.086569 0.000000
394.708710 98.905655 5.087628 0.000000
395.176150 98.907822 5.088687 0.000000
395.643650 98.909973 5.089747 0.000000
386.226750 98.118881 5.065517 0.000000
386.730380 98.121231 5.066658 0.000000
384.796690 100.646640 5.072080 0.000000
381.275420 100.630430 5.064102 0.000000
381.884700 100.633240 5.065483 0.000000
384.231540 100.641010 5.070788 0.000000
379.382900 100.621720 5.059814 0.000000
386.745330 86.721664 5.758476 0.000000
388.374850 86.703011 5.728468 0.000000
381.255340 95.291824 5.633098 0.000000
390.588380 98.135826 5.651700 0.000000
391.054720 98.138000 5.651125 0.000000
391.518590 98.140152 5.650728 0.000000
391.980220 98.142288 5.650507 0.000000
392.439970 98.144409 5.650461 0.000000
392.898130 98.146538 5.650589 0.000000
393.354980 98.148643 5.650889 0.000000
387.227390 98.120239 5.660894 0.000000
387.720250 98.122528 5.659006 0.000000
388.691830 98.127045 5.655818 0.000000
389.171300 98.129250 5.654510 0.000000
389.646970 98.131462 5.653390 0.000000
390.119230 98.133644 5.652454 0.000000
394.239810 98.900269 5.671161 0.000000
394.707430 98.902412 5.672002 0.000000
395.174840 98.904572 5.673021 0.000000
395.642300 98.906723 5.674218 0.000000
386.225740 98.115540 5.665278 0.000000
386.729370 98.117905 5.662983 0.000000
384.795620 100.642960 5.734247 0.000000
381.274440 100.626600 5.755991 0.000000
383.073670 100.634930 5.743952 0.000000
384.229310 100.640360 5.737236 0.000000
379.382050 100.617680 5.770597 0.000000
386.744870 86.719627 6.127240 0.000000
388.002320 86.823441 6.097772 0.000000
390.587250 98.132629 6.228501 0.000000
391.053560 98.134796 6.226294 0.000000
391.517430 98.136971 6.224448 0.000000
391.979060 98.139107 6.222959 0.000000
392.438810 98.141243 6.221824 0.000000
392.896940 98.143364 6.221040 0.000000
393.353760 98.145485 6.220606 0.000000
387.226380 98.116943 6.254518 0.000000
387.719210 98.119247 6.249622 0.000000
388.690770 98.123795 6.241041 0.000000
389.170200 98.125992 6.237337 0.000000
389.645870 98.128227 6.234017 0.000000
390.118100 98.130432 6.231074 0.000000
386.728360 98.114594 6.259828 0.000000
386.224730 98.112206 6.265562 0.000000
384.794530 100.639300 6.396991 0.000000
383.075260 100.625000 6.420002 0.000000
