# .PCD v0.7 - Point Cloud Data file format
VERSION 0.7
FIELDS x y z intensity
SIZE 4 4 4 4
TYPE F F F F
COUNT 1 1 1 1
WIDTH 1184
HEIGHT 1
VIEWPOINT 0 0 0 1 0 0 0
POINTS 1184
DATA ascii
376.764770 128.710010 11.055999 0.000000
376.923860 133.937440 12.223001 0.000000
377.993740 133.295460 12.203334 0.000000
374.760350 134.279950 12.273670 0.000000
371.982850 132.357420 13.667964 0.000000
371.819120 131.201220 13.695608 0.000000
376.985690 135.936950 14.562190 0.000000
377.187620 135.015820 14.568347 0.000000
373.497560 135.990080 14.796974 0.000000
374.196140 133.069270 14.812589 0.000000
375.322140 135.469440 15.906696 0.000000
374.764590 134.288540 15.988478 0.000000
375.379360 133.451050 15.959161 0.000000
375.361270 135.482500 17.129673 0.000000
375.778660 134.596300 17.113897 0.000000
374.643550 132.170430 17.326866 0.000000
374.219420 135.162370 18.524628 0.000000
376.399960 134.785740 18.254620 0.000000
372.751860 135.798690 18.693766 0.000000
393.891080 113.254040 5.709763 0.000000
393.896000 111.923030 5.621123 0.000000
391.992280 115.103410 6.789873 0.000000
390.721590 115.102550 6.708950 0.000000
393.888400 113.269800 6.817800 0.000000
393.893250 111.939730 6.750979 0.000000
375.177730 130.643110 7.380214 0.000000
371.825500 130.479810 7.184189 0.000000
376.440700 127.984420 7.404337 0.000000
394.702030 127.641850 7.519281 0.000000
377.206480 130.397450 7.492391 0.000000
391.967900 115.095780 7.891611 0.000000
390.695500 115.093800 7.830528 0.000000
393.885770 113.285520 7.921644 0.000000
393.890530 111.956340 7.876535 0.000000
394.680450 127.635740 8.398880 0.000000
374.502900 135.548080 8.624388 0.000000
375.271300 131.724990 8.621979 0.000000
371.598270 131.503360 8.483126 0.000000
375.750890 130.866550 8.632018 0.000000
375.335660 129.655980 8.605252 0.000000
376.453610 127.997270 8.629898 0.000000
378.087040 112.115180 8.485550 0.000000
376.231870 112.096370 8.422120 0.000000
374.348820 112.121870 8.357956 0.000000
372.327510 112.115650 8.288148 0.000000
379.311040 128.239750 8.736937 0.000000
394.068270 123.553760 9.197603 0.000000
393.966710 122.488980 9.177889 0.000000
391.943540 115.088180 8.991624 0.000000
390.668300 115.083940 8.950362 0.000000
389.345370 115.079480 8.907208 0.000000
387.972140 115.075680 8.862074 0.000000
386.535460 115.064500 8.814377 0.000000
393.883120 113.301190 9.022364 0.000000
393.887880 111.972990 8.998890 0.000000
377.784210 135.533510 9.885884 0.000000
376.835630 134.273900 9.868193 0.000000
377.399320 133.480930 9.876405 0.000000
376.545780 131.174000 9.858733 0.000000
375.682650 129.800950 9.842297 0.000000
379.056060 129.150990 9.897553 0.000000
377.734950 135.522670 11.023479 0.000000
376.032650 132.009600 11.049182 0.000000
375.064820 132.692340 11.049087 0.000000
372.158480 132.779270 11.060396 0.000000
373.760800 130.123460 11.069258 0.000000
376.453860 128.011670 11.074068 0.000000
376.892520 127.138180 11.079185 0.000000
374.910550 135.674840 12.231795 0.000000
376.154300 134.064540 12.218426 0.000000
377.836820 133.639250 12.181926 0.000000
376.103180 132.040330 12.245098 0.000000
371.682980 133.703220 12.334385 0.000000
375.792420 130.899870 12.268184 0.000000
374.019960 135.427260 13.475486 0.000000
373.288480 134.191350 13.530119 0.000000
374.718750 133.609220 13.474959 0.000000
371.799350 131.593230 13.646249 0.000000
374.593840 135.593150 14.654285 0.000000
373.556210 134.276370 14.754316 0.000000
374.183750 133.442580 14.732799 0.000000
375.537110 132.867920 14.657936 0.000000
375.545840 134.879750 15.802838 0.000000
377.999730 132.737470 15.659120 0.000000
375.220250 133.779170 15.865500 0.000000
376.228550 136.062090 16.887369 0.000000
376.311310 135.118580 18.100920 0.000000
374.093080 135.463670 18.376627 0.000000
371.147950 112.127430 5.377317 0.000000
393.171570 115.111740 5.903705 0.000000
391.984500 115.107950 5.811883 0.000000
393.888670 114.638790 5.927701 0.000000
391.959320 115.100370 6.896705 0.000000
393.147000 115.104220 6.970464 0.000000
393.885650 114.654740 6.993855 0.000000
371.109380 112.117330 6.850675 0.000000
372.602260 130.127200 7.306704 0.000000
394.648440 127.639170 7.617313 0.000000
378.455840 131.385510 7.662474 0.000000
377.620240 130.055710 7.592515 0.000000
377.854250 129.148560 7.589950 0.000000
393.122470 115.096710 8.034613 0.000000
391.934140 115.092770 7.978871 0.000000
393.883090 114.671140 8.056045 0.000000
394.626040 127.633120 8.474681 0.000000
372.327970 132.164350 8.570764 0.000000
375.146420 130.069700 8.659033 0.000000
375.474060 129.161760 8.663398 0.000000
372.034180 126.590820 8.514606 0.000000
381.897400 112.143370 8.689292 0.000000
380.287350 112.138190 8.635671 0.000000
378.607570 112.132510 8.579313 0.000000
376.851750 112.125870 8.519979 0.000000
375.015900 112.120070 8.457529 0.000000
373.091400 112.113770 8.391623 0.000000
371.070430 112.106960 8.321961 0.000000
377.872410 132.135850 8.776529 0.000000
379.644070 127.963940 8.804658 0.000000
393.098020 115.089260 9.097176 0.000000
391.909060 115.085190 9.059430 0.000000
390.678710 115.081020 9.020038 0.000000
389.404020 115.076680 8.978883 0.000000
388.081630 115.072110 8.935840 0.000000
386.708010 115.067320 8.890776 0.000000
393.880580 114.687560 9.115238 0.000000
375.772640 132.350540 9.875297 0.000000
376.351320 131.565460 9.884749 0.000000
376.542630 134.570110 9.888517 0.000000
377.181490 133.821850 9.898977 0.000000
376.769470 130.726090 9.891527 0.000000
379.383000 129.838810 9.934745 0.000000
377.160980 129.878480 9.897861 0.000000
376.961490 126.676900 9.893919 0.000000
377.015840 135.673050 11.022251 0.000000
374.077240 135.778210 11.034388 0.000000
378.182010 135.101610 11.020908 0.000000
375.749790 132.349110 11.049570 0.000000
376.149630 129.461750 11.070378 0.000000
376.758420 128.690540 11.074782 0.000000
371.005070 131.728180 11.072866 0.000000
374.939510 131.036960 11.062366 0.000000
374.217160 135.823060 12.217172 0.000000
376.323360 133.542590 12.193462 0.000000
376.267300 132.541900 12.209064 0.000000
372.278750 133.215230 12.298342 0.000000
374.416290 135.884600 13.391937 0.000000
374.106230 134.807310 13.425848 0.000000
374.622010 133.972350 13.418234 0.000000
371.865690 132.034480 13.583314 0.000000
373.432040 134.610030 14.672245 0.000000
374.093320 134.814940 15.822933 0.000000
375.114560 134.142270 15.754962 0.000000
373.927830 132.748290 15.906033 0.000000
375.661320 135.292620 16.838772 0.000000
374.501400 133.952130 17.017128 0.000000
374.815220 133.056090 17.019936 0.000000
373.853820 135.747410 18.230560 0.000000
393.058470 115.116730 5.981315 0.000000
391.910310 115.113430 5.893176 0.000000
393.880800 114.788520 6.022108 0.000000
393.885350 113.507350 5.938204 0.000000
393.890080 112.172460 5.849460 0.000000
371.907780 112.140750 5.500320 0.000000
393.887360 112.192630 6.938496 0.000000
393.033230 115.109390 7.030526 0.000000
391.884400 115.105960 6.959525 0.000000
393.878200 114.806640 7.067273 0.000000
393.883510 113.527440 7.004788 0.000000
371.865330 112.128770 6.936864 0.000000
371.742770 131.341020 7.313122 0.000000
395.633180 127.647250 7.753747 0.000000
394.539460 127.643910 7.677755 0.000000
378.369380 131.854490 7.705138 0.000000
375.790890 131.817050 7.555368 0.000000
379.292270 130.338390 7.733437 0.000000
376.277830 130.021580 7.555482 0.000000
377.942200 127.742280 7.610786 0.000000
393.008090 115.102080 8.077208 0.000000
391.858580 115.098530 8.023315 0.000000
393.875610 114.824660 8.108432 0.000000
393.880040 113.545490 8.067071 0.000000
393.884640 112.212750 8.023319 0.000000
395.611150 127.641530 8.571362 0.000000
394.516600 127.638050 8.514450 0.000000
372.375640 132.611180 8.586634 0.000000
371.375150 131.217250 8.539682 0.000000
382.178530 112.152830 8.726059 0.000000
380.632230 112.147570 8.674117 0.000000
379.022340 112.142700 8.619647 0.000000
377.342680 112.137330 8.562405 0.000000
375.587010 112.131040 8.502146 0.000000
373.751250 112.125600 8.438726 0.000000
371.826870 112.119670 8.371805 0.000000
374.591830 135.311800 8.687030 0.000000
377.825870 132.597240 8.791926 0.000000
374.842220 130.453720 8.664436 0.000000
375.211430 129.582890 8.671551 0.000000
379.203550 129.342760 8.817768 0.000000
375.874850 128.841780 8.690288 0.000000
379.079470 128.301670 8.804130 0.000000
392.983000 115.094820 9.122370 0.000000
391.832820 115.091140 9.085566 0.000000
390.644040 115.087300 9.047196 0.000000
389.413910 115.083370 9.007158 0.000000
388.139400 115.079300 8.965336 0.000000
386.817200 115.075010 8.921599 0.000000
393.873020 114.842620 9.146601 0.000000
393.877440 113.564500 9.126380 0.000000
393.881990 112.232860 9.104983 0.000000
376.534850 131.138370 9.875790 0.000000
377.421720 129.532550 9.891967 0.000000
375.662480 129.781400 9.861672 0.000000
376.946560 134.172040 9.880989 0.000000
377.448460 133.408190 9.890055 0.000000
379.771390 129.614150 9.932175 0.000000
373.829010 136.067110 10.989888 0.000000
375.340240 135.550480 10.987598 0.000000
377.662200 135.341080 10.980483 0.000000
374.286010 133.275620 11.007978 0.000000
374.639560 132.406710 11.013538 0.000000
376.069920 131.947390 11.012519 0.000000
376.974490 129.344970 11.032853 0.000000
376.497770 128.113770 11.045959 0.000000
376.906520 127.273080 11.053238 0.000000
374.291660 129.215500 11.041862 0.000000
371.537510 129.152360 11.050850 0.000000
375.054810 135.471120 12.130931 0.000000
374.655760 134.385250 12.155451 0.000000
376.216490 133.938510 12.123888 0.000000
377.807280 133.551990 12.091402 0.000000
376.141360 131.982590 12.155747 0.000000
374.555080 133.382000 13.339655 0.000000
371.871730 131.429230 13.502974 0.000000
374.396820 135.286440 14.468130 0.000000
374.023100 134.197050 14.521832 0.000000
374.326720 133.312060 14.526611 0.000000
375.347900 132.684620 14.478331 0.000000
371.407230 135.403590 14.664783 0.000000
375.477780 135.618100 15.526901 0.000000
376.597230 135.961060 16.535965 0.000000
374.320500 134.306490 16.848204 0.000000
374.800660 133.487870 16.830715 0.000000
374.797180 132.502990 16.874382 0.000000
376.238490 134.926360 17.753941 0.000000
373.416560 135.989270 18.072889 0.000000
393.885590 114.972080 6.126208 0.000000
392.929530 115.113570 6.064324 0.000000
393.890290 113.690720 6.041791 0.000000
393.895320 112.353820 5.952429 0.000000
372.587040 112.135990 5.633756 0.000000
395.484100 127.667530 7.018924 0.000000
393.883000 114.991060 7.150055 0.000000
392.904300 115.106310 7.096902 0.000000
391.791690 115.102810 7.028995 0.000000
393.887630 113.710740 7.087281 0.000000
393.892460 112.374760 7.020804 0.000000
372.548610 112.127000 7.036339 0.000000
372.541200 130.009830 7.399717 0.000000
394.395260 127.640980 7.745259 0.000000
378.460110 131.448300 7.763045 0.000000
377.610780 130.133190 7.693210 0.000000
377.645750 129.176180 7.679170 0.000000
377.661680 128.195620 7.662965 0.000000
395.440120 127.644200 7.817197 0.000000
393.880400 115.009950 8.169957 0.000000
392.879150 115.099070 8.127022 0.000000
391.765870 115.095460 8.075371 0.000000
393.885040 113.730740 8.128725 0.000000
393.889980 112.396140 8.085066 0.000000
394.372500 127.635220 8.562512 0.000000
372.002560 131.877940 8.601244 0.000000
371.122380 130.514140 8.559395 0.000000
395.418150 127.638560 8.616468 0.000000
382.422180 112.150090 8.774550 0.000000
380.935910 112.145100 8.724897 0.000000
379.389740 112.139690 8.672848 0.000000
377.779910 112.134690 8.618266 0.000000
376.100340 112.129170 8.560906 0.000000
374.344730 112.122720 8.500524 0.000000
372.509000 112.117110 8.436976 0.000000
374.452180 135.632220 8.715386 0.000000
377.860870 132.144590 8.823401 0.000000
377.138120 130.902330 8.787577 0.000000
375.430360 129.182330 8.711171 0.000000
379.574310 129.129930 8.864223 0.000000
376.892610 128.838730 8.762767 0.000000
379.424470 128.091640 8.849926 0.000000
393.877900 115.028870 9.186911 0.000000
392.853970 115.091790 9.155671 0.000000
391.740050 115.088060 9.120259 0.000000
390.590000 115.084270 9.083377 0.000000
389.401340 115.080340 9.044927 0.000000
388.171330 115.076280 9.004805 0.000000
386.896940 115.072070 8.962893 0.000000
393.882390 113.750610 9.167128 0.000000
393.887270 112.417140 9.146173 0.000000
377.243440 135.587160 9.891083 0.000000
371.672880 135.791430 9.794995 0.000000
376.651730 134.482970 9.882227 0.000000
377.226650 133.764040 9.892981 0.000000
376.347080 131.548900 9.880504 0.000000
376.890010 130.807540 9.890734 0.000000
370.817110 130.407910 9.786727 0.000000
376.863710 129.823620 9.891461 0.000000
379.369690 129.041370 9.935515 0.000000
376.656740 128.740230 9.889199 0.000000
376.856290 126.807030 9.894951 0.000000
377.483400 135.671170 10.958536 0.000000
375.082030 135.836240 10.965989 0.000000
378.206360 135.018570 10.961238 0.000000
374.523530 132.801160 10.992351 0.000000
373.779940 131.540360 11.005816 0.000000
374.851560 130.961070 11.007740 0.000000
376.071870 129.484950 11.018411 0.000000
376.936000 128.879380 11.022243 0.000000
370.774140 135.545000 10.984235 0.000000
370.984310 128.339720 11.044105 0.000000
374.624110 134.763090 12.105047 0.000000
371.419040 134.740940 12.183800 0.000000
376.606350 134.482910 12.061163 0.000000
376.554020 133.538540 12.077147 0.000000
376.382540 132.535290 12.097581 0.000000
373.273250 128.263790 12.245476 0.000000
371.219510 135.685150 13.372011 0.000000
373.444820 134.393390 13.296673 0.000000
374.961670 133.932620 13.238436 0.000000
374.888180 132.948900 13.264145 0.000000
374.667360 135.732890 14.339384 0.000000
373.605500 134.452560 14.444469 0.000000
374.622650 133.825620 14.395471 0.000000
375.461610 133.162980 14.360584 0.000000
375.707820 135.132280 15.398087 0.000000
374.075290 135.562160 15.526028 0.000000
373.795990 134.529010 16.745285 0.000000
374.640690 133.847850 16.683262 0.000000
374.876830 132.970150 16.697128 0.000000
374.533840 131.870740 16.784863 0.000000
375.949070 135.224320 17.599972 0.000000
393.878420 113.913480 6.236780 0.000000
393.884340 112.575670 6.146409 0.000000
373.173860 112.132580 5.923572 0.000000
371.339750 112.126510 5.802375 0.000000
393.888610 111.172810 6.050212 0.000000
393.805600 115.111290 6.311930 0.000000
395.219600 127.643930 7.184609 0.000000
394.220370 127.640980 7.102959 0.000000
393.784910 115.104220 7.314069 0.000000
392.737640 115.100880 7.255599 0.000000
393.875820 113.929460 7.260586 0.000000
393.880800 112.591380 7.193316 0.000000
371.305760 112.117460 7.204730 0.000000
393.885890 111.190670 7.121918 0.000000
373.140010 112.122860 7.293850 0.000000
375.692290 131.751220 7.829219 0.000000
376.146760 130.984150 7.842214 0.000000
377.180660 130.477020 7.889878 0.000000
376.466920 129.191640 7.830350 0.000000
378.022400 128.956300 7.909129 0.000000
378.912380 128.435870 7.946895 0.000000
379.296780 127.671180 7.952867 0.000000
395.200870 127.638380 7.968415 0.000000
394.200900 127.635300 7.903762 0.000000
392.716430 115.093720 8.270048 0.000000
393.873230 113.945340 8.280653 0.000000
393.878140 112.608190 8.236523 0.000000
393.883180 111.208450 8.189673 0.000000
393.764280 115.097170 8.313822 0.000000
395.182130 127.632840 8.750434 0.000000
394.181490 127.629640 8.702750 0.000000
381.183230 112.140710 8.908361 0.000000
379.697050 112.135670 8.863862 0.000000
378.151250 112.130470 8.817187 0.000000
376.541230 112.125200 8.768177 0.000000
374.861720 112.119630 8.716642 0.000000
373.106200 112.113140 8.662349 0.000000
371.270570 112.107490 8.605166 0.000000
379.280430 135.774730 9.082613 0.000000
374.030270 135.863250 8.901770 0.000000
377.663850 133.450910 9.013260 0.000000
372.217290 132.386020 8.820301 0.000000
379.059140 132.214570 9.052438 0.000000
375.252410 131.583150 8.918875 0.000000
378.304600 130.980160 9.018011 0.000000
378.046140 129.929000 9.001349 0.000000
379.537170 127.807010 9.033485 0.000000
376.352200 127.153080 8.922283 0.000000
392.695250 115.086550 9.283055 0.000000
391.615200 115.082860 9.252771 0.000000
390.501250 115.078990 9.221219 0.000000
389.351290 115.075110 9.188324 0.000000
388.162870 115.071260 9.154003 0.000000
386.933010 115.067210 9.118149 0.000000
385.660710 115.064850 9.080743 0.000000
393.870640 113.961220 9.297975 0.000000
393.875460 112.624930 9.276899 0.000000
393.880430 111.226170 9.254512 0.000000
378.070620 135.369810 10.066704 0.000000
377.031220 134.123020 10.054153 0.000000
375.963840 131.874820 10.042610 0.000000
372.774540 131.604190 9.999160 0.000000
377.327700 129.605870 10.064505 0.000000
375.502780 129.754430 10.039221 0.000000
377.097630 135.921190 10.052567 0.000000
376.426940 131.117490 10.050026 0.000000
379.274630 129.578030 10.091297 0.000000
374.095520 135.895140 11.117906 0.000000
376.226320 135.648220 11.104730 0.000000
377.608760 135.219210 11.098612 0.000000
374.620240 132.311340 11.144410 0.000000
372.182130 132.388180 11.160126 0.000000
376.025820 131.907100 11.138904 0.000000
376.422090 129.196720 11.163528 0.000000
376.527530 128.261170 11.172907 0.000000
370.848360 128.785480 11.202442 0.000000
377.848630 133.541700 12.157605 0.000000
376.257810 133.858750 12.195650 0.000000
372.004210 133.323180 12.320918 0.000000
376.130370 131.956330 12.231179 0.000000
376.686460 131.241940 12.229161 0.000000
374.019680 134.954540 13.356684 0.000000
374.569580 133.259740 13.368191 0.000000
371.955720 131.317200 13.539656 0.000000
373.447600 134.778060 14.520166 0.000000
374.229060 134.091900 14.485779 0.000000
374.278440 133.162380 14.510475 0.000000
375.309480 132.594450 14.458071 0.000000
375.427250 135.417500 15.454470 0.000000
373.466490 135.730620 15.621757 0.000000
375.424990 135.423100 16.548973 0.000000
374.446620 134.179280 16.710627 0.000000
374.867190 133.387730 16.699633 0.000000
374.804780 132.418290 16.751951 0.000000
375.724950 135.525280 17.604412 0.000000
373.743530 112.144070 4.868444 0.000000
371.992340 112.138720 4.730580 0.000000
393.896580 112.841480 6.340116 0.000000
373.716280 112.134660 6.211384 0.000000
371.963200 112.128490 6.103652 0.000000
393.901700 111.435000 6.242462 0.000000
393.609100 115.111190 6.477087 0.000000
392.592040 115.108080 6.411178 0.000000
393.891600 114.182800 6.432026 0.000000
379.142670 129.145230 7.148857 0.000000
378.731630 127.993140 7.087853 0.000000
394.971220 127.643810 7.352117 0.000000
394.013400 127.640950 7.278559 0.000000
393.592860 115.104280 7.465011 0.000000
392.579220 115.105830 7.413541 0.000000
393.889130 114.193880 7.433873 0.000000
393.894040 112.853200 7.365535 0.000000
393.899110 111.447390 7.292919 0.000000
373.689090 112.125270 7.551268 0.000000
371.934880 112.118900 7.473714 0.000000
374.571840 135.475370 8.053064 0.000000
377.909450 132.221070 8.178006 0.000000
377.899410 131.315580 8.163147 0.000000
371.789000 130.664000 7.846875 0.000000
376.591400 129.796650 8.073065 0.000000
376.823210 128.950590 8.069908 0.000000
378.882750 128.079680 8.154554 0.000000
394.956180 127.638400 8.119575 0.000000
393.997770 127.635440 8.062079 0.000000
379.308870 127.355320 8.161162 0.000000
393.891480 112.864850 8.387465 0.000000
393.895630 111.458500 8.339718 0.000000
393.576660 115.097380 8.450573 0.000000
392.558650 115.094070 8.412643 0.000000
393.886660 114.204920 8.432324 0.000000
394.941190 127.633030 8.885276 0.000000
393.982180 127.629950 8.843810 0.000000
381.413210 112.142110 9.093138 0.000000
379.982640 112.137200 9.056285 0.000000
378.496610 112.132080 9.017620 0.000000
376.950960 112.126800 8.977014 0.000000
375.341190 112.121440 8.934325 0.000000
373.661870 112.115830 8.889385 0.000000
371.907320 112.109860 8.842014 0.000000
374.456700 135.443360 9.125379 0.000000
377.463900 133.820830 9.207470 0.000000
377.665860 133.017140 9.208321 0.000000
372.366850 132.861600 9.047133 0.000000
376.356870 130.642170 9.152370 0.000000
371.389530 129.490110 8.995657 0.000000
375.798070 129.436970 9.126636 0.000000
378.813080 128.992130 9.211918 0.000000
375.276610 128.210570 9.101508 0.000000
378.422820 127.844410 9.190639 0.000000
392.541990 115.087060 9.410751 0.000000
391.493770 115.083450 9.385777 0.000000
390.413880 115.079720 9.359734 0.000000
389.300140 115.075800 9.332556 0.000000
388.150360 115.071880 9.304177 0.000000
386.962160 115.068000 9.274524 0.000000
385.732480 115.063890 9.243499 0.000000
393.884220 114.215960 9.428347 0.000000
393.888980 112.876500 9.406897 0.000000
393.893920 111.472040 9.384089 0.000000
377.280550 135.497880 10.230189 0.000000
370.897310 135.275630 10.167812 0.000000
378.317200 135.005140 10.241056 0.000000
372.844790 132.074840 10.191401 0.000000
372.328460 130.891770 10.187980 0.000000
374.911830 130.012100 10.214576 0.000000
372.136290 129.810000 10.187600 0.000000
379.589720 129.390440 10.261382 0.000000
377.338350 129.212490 10.239520 0.000000
375.472050 129.293090 10.221080 0.000000
377.897770 135.712300 11.239562 0.000000
374.875180 135.587140 11.273536 0.000000
378.449340 135.057540 11.239243 0.000000
374.815770 132.827670 11.297890 0.000000
375.736850 132.258190 11.293507 0.000000
374.819460 130.941940 11.315736 0.000000
375.954190 129.521970 11.318682 0.000000
376.833340 128.975390 11.315819 0.000000
374.964140 135.620470 12.337911 0.000000
371.562010 133.566120 12.476484 0.000000
378.078860 133.198320 12.279619 0.000000
376.327640 133.406080 12.330080 0.000000
373.412900 133.254030 12.423321 0.000000
376.095700 131.483220 12.371009 0.000000
374.023680 135.324340 13.460922 0.000000
373.293090 134.159060 13.524747 0.000000
375.062500 133.851650 13.439762 0.000000
371.805300 131.698530 13.659816 0.000000
374.303010 133.584430 14.583405 0.000000
375.550720 133.122710 14.507941 0.000000
373.621890 134.275890 14.612029 0.000000
377.482030 132.976750 15.415464 0.000000
375.530150 135.816070 15.488358 0.000000
375.798770 135.019450 15.491505 0.000000
376.246030 136.049800 16.461094 0.000000
373.874020 134.371900 16.805532 0.000000
374.691190 133.734510 16.740639 0.000000
374.860260 132.872500 16.761900 0.000000
374.421080 131.762600 16.865898 0.000000
376.171260 136.030690 17.526249 0.000000
376.018250 135.103940 17.593014 0.000000
370.770230 112.129390 4.761689 0.000000
393.888060 114.484590 5.559003 0.000000
393.898560 111.728230 5.317056 0.000000
394.515080 111.176410 5.310680 0.000000
393.896240 111.740060 6.350697 0.000000
393.885830 114.495160 6.543053 0.000000
379.232570 128.887950 7.254293 0.000000
378.478610 127.550640 7.164326 0.000000
395.552430 127.641130 7.499208 0.000000
394.668550 127.638350 7.433772 0.000000
393.356870 115.099140 7.527744 0.000000
393.883060 114.504930 7.522793 0.000000
393.888520 113.162370 7.453552 0.000000
393.893890 111.751830 7.379854 0.000000
374.462460 135.816120 8.140394 0.000000
372.032560 132.203400 7.971322 0.000000
377.933200 131.854430 8.258138 0.000000
375.508060 131.711170 8.136575 0.000000
372.608860 131.464650 7.989378 0.000000
377.174650 130.615720 8.200624 0.000000
377.857300 130.026200 8.223646 0.000000
378.944980 127.813510 8.234684 0.000000
395.540100 127.636990 8.236853 0.000000
394.654630 127.633090 8.185688 0.000000
393.891570 111.763570 8.405527 0.000000
393.341830 115.092350 8.499712 0.000000
393.881440 114.516190 8.499372 0.000000
393.886260 113.173450 8.453894 0.000000
395.525630 127.630840 8.972578 0.000000
394.640720 127.627850 8.935871 0.000000
380.191740 112.133380 9.115879 0.000000
378.761020 112.127930 9.080099 0.000000
377.275910 112.123240 9.042589 0.000000
378.986910 135.664580 9.324234 0.000000
374.281130 135.762570 9.184866 0.000000
377.163480 134.154950 9.261157 0.000000
377.544860 133.441670 9.267763 0.000000
375.205320 131.589660 9.186684 0.000000
376.328920 131.153320 9.216271 0.000000
376.001250 130.080080 9.198717 0.000000
378.783080 129.579510 9.274598 0.000000
375.989410 129.130340 9.190912 0.000000
379.341400 128.957870 9.285179 0.000000
378.504360 127.578170 9.249251 0.000000
393.326810 115.085600 9.470280 0.000000
392.336430 115.082240 9.448021 0.000000
391.318240 115.078800 9.424833 0.000000
390.270290 115.075120 9.400659 0.000000
389.190700 115.071350 9.375442 0.000000
388.077300 115.067390 9.349114 0.000000
386.927860 115.063440 9.321614 0.000000
385.739990 115.059490 9.292869 0.000000
393.884030 113.184560 9.451818 0.000000
381.570340 112.138080 9.149986 0.000000
393.889310 111.775390 9.428711 0.000000
372.659030 131.496030 10.229270 0.000000
379.829960 129.221370 10.297577 0.000000
376.867800 135.756770 10.261217 0.000000
377.760860 135.228530 10.270081 0.000000
378.387020 134.623810 10.276635 0.000000
375.119350 131.559190 10.251478 0.000000
376.695100 131.320250 10.266109 0.000000
377.705630 130.872330 10.275919 0.000000
376.875430 129.564250 10.270298 0.000000
377.269740 128.822330 10.274952 0.000000
377.176510 135.866150 11.255690 0.000000
374.112340 135.717680 11.292635 0.000000
378.258970 135.412090 11.247134 0.000000
378.622220 134.717730 11.249249 0.000000
374.639010 132.291990 11.316862 0.000000
376.448000 132.122190 11.298381 0.000000
376.205320 129.247040 11.330980 0.000000
376.688450 128.535550 11.333812 0.000000
377.909480 133.602430 12.262264 0.000000
378.213100 132.867900 12.265966 0.000000
376.554810 133.939060 12.299273 0.000000
374.734220 134.150910 12.353811 0.000000
375.654080 130.873460 12.382681 0.000000
373.755100 135.612560 13.429508 0.000000
374.082280 134.824870 13.429439 0.000000
374.652160 133.223280 13.437276 0.000000
371.871770 131.199020 13.632877 0.000000
375.025050 136.023590 14.393147 0.000000
373.488130 134.628110 14.547098 0.000000
374.383060 134.034850 14.499319 0.000000
375.356320 133.495180 14.445433 0.000000
375.309750 132.575820 14.479298 0.000000
375.451080 135.298900 15.422392 0.000000
373.873140 135.659650 15.559174 0.000000
375.151760 135.202130 16.505684 0.000000
374.519990 134.094090 16.628094 0.000000
375.724520 135.401090 17.474464 0.000000
371.930240 135.047930 18.011545 0.000000
372.952730 112.137120 4.988594 0.000000
371.277560 112.132060 4.858647 0.000000
393.889250 113.552150 5.540681 0.000000
393.894410 112.136380 5.414083 0.000000
376.100650 112.146670 5.228189 0.000000
374.558650 112.141920 5.111606 0.000000
393.099820 115.112190 5.620552 0.000000
393.883970 114.897000 5.659458 0.000000
393.891970 112.148940 6.424683 0.000000
371.250550 112.122710 6.200797 0.000000
393.084590 115.105470 6.585082 0.000000
393.881680 114.908210 6.619774 0.000000
393.886870 113.564000 6.525339 0.000000
376.076600 112.137880 6.489448 0.000000
374.533420 112.132700 6.398308 0.000000
372.926790 112.127960 6.302251 0.000000
375.832120 128.698390 7.066464 0.000000
379.381870 128.723880 7.307405 0.000000
394.305970 127.637560 7.472580 0.000000
393.069430 115.098800 7.546382 0.000000
393.879390 114.919370 7.575907 0.000000
393.884460 113.575760 7.505692 0.000000
376.052670 112.129130 7.747798 0.000000
374.508820 112.124010 7.682111 0.000000
372.900940 112.118830 7.612906 0.000000
371.223630 112.113370 7.539897 0.000000
374.578220 135.382810 8.165573 0.000000
372.762570 132.943540 8.040945 0.000000
372.678710 131.981060 8.022870 0.000000
375.574040 131.355210 8.157698 0.000000
371.839360 130.684920 7.961284 0.000000
375.940280 129.693920 8.147755 0.000000
376.308500 128.945470 8.152340 0.000000
379.065890 127.641430 8.259903 0.000000
375.921910 127.799070 8.112328 0.000000
394.292180 127.632420 8.209740 0.000000
377.841640 131.490200 8.272054 0.000000
379.111450 128.582000 8.280799 0.000000
393.877110 114.930500 8.528783 0.000000
393.054870 115.092910 8.505418 0.000000
393.882110 113.587540 8.482699 0.000000
393.887050 112.173890 8.433570 0.000000
394.278440 127.627320 8.945189 0.000000
377.514980 112.126530 9.042838 0.000000
376.028750 112.120380 9.004446 0.000000
374.484010 112.115100 8.964168 0.000000
372.875120 112.109720 8.921819 0.000000
371.196780 112.104070 8.877235 0.000000
378.755830 136.019610 9.320033 0.000000
374.147670 135.241330 9.176254 0.000000
377.354490 133.854100 9.264315 0.000000
372.349640 132.792430 9.107476 0.000000
378.910100 131.989040 9.297104 0.000000
375.397370 131.283290 9.188088 0.000000
378.127140 129.869520 9.257131 0.000000
375.902650 129.682110 9.190641 0.000000
379.635960 128.876690 9.292136 0.000000
377.053620 128.401950 9.213419 0.000000
378.566100 127.362520 9.247502 0.000000
393.039250 115.085520 9.462973 0.000000
392.075260 115.082210 9.441057 0.000000
391.085210 115.078870 9.418252 0.000000
390.067350 115.075450 9.394502 0.000000
389.019780 115.071820 9.369748 0.000000
387.940550 115.068090 9.343934 0.000000
386.827640 115.064290 9.316996 0.000000
385.678620 115.060400 9.288862 0.000000
393.879730 113.599210 9.457298 0.000000
393.884640 112.186340 9.433806 0.000000
377.277040 135.492860 10.239033 0.000000
370.796600 135.040040 10.177319 0.000000
378.226990 135.026260 10.248850 0.000000
375.858310 132.383540 10.229872 0.000000
372.830230 132.053070 10.201206 0.000000
376.286620 130.784520 10.236303 0.000000
375.749180 129.614410 10.232822 0.000000
372.108180 129.841020 10.197453 0.000000
377.232300 129.424510 10.247370 0.000000
377.265720 128.520320 10.248999 0.000000
373.969790 136.061260 11.237105 0.000000
377.794370 135.683410 11.198088 0.000000
378.365390 135.083560 11.197295 0.000000
374.709870 132.808960 11.257727 0.000000
375.703610 132.324250 11.251930 0.000000
374.832700 131.046570 11.273862 0.000000
376.041900 129.762010 11.275135 0.000000
376.853700 129.240050 11.272857 0.000000
376.486600 128.117000 11.289290 0.000000
377.846370 127.907820 11.278708 0.000000
377.995450 133.290940 12.188084 0.000000
375.121310 135.586490 12.238944 0.000000
374.658940 134.562240 12.269775 0.000000
376.088440 134.225660 12.230569 0.000000
376.349760 133.468750 12.235529 0.000000
375.250580 133.913420 13.283941 0.000000
374.893490 132.893200 13.328019 0.000000
378.333500 132.598460 13.161176 0.000000
371.511080 135.288670 14.539542 0.000000
373.828920 134.274510 14.399925 0.000000
374.710720 133.714200 14.353859 0.000000
375.402040 133.101470 14.324493 0.000000
375.459960 135.715700 15.247614 0.000000
375.505370 134.881060 15.274696 0.000000
373.597960 135.961070 15.414419 0.000000
374.218260 133.533100 15.447469 0.000000
375.701390 134.956360 16.268764 0.000000
374.758060 133.742750 16.433102 0.000000
374.978450 132.943620 16.447477 0.000000
374.780270 131.965730 16.519829 0.000000
376.366700 136.032640 17.143162 0.000000
376.048190 135.085690 17.235710 0.000000
371.744050 112.138550 4.980418 0.000000
393.891270 112.562010 5.526117 0.000000
376.372920 112.152360 5.330108 0.000000
374.890900 112.147870 5.219677 0.000000
373.349430 112.143230 5.103255 0.000000
393.737340 115.117680 5.746171 0.000000
393.886260 113.982650 5.654777 0.000000
393.894840 111.075530 6.404855 0.000000
393.723050 115.111180 6.686793 0.000000
393.883820 113.994270 6.616369 0.000000
393.889070 112.574830 6.514096 0.000000
376.350040 112.143770 6.566879 0.000000
374.867130 112.139100 6.480554 0.000000
373.325320 112.134800 6.389653 0.000000
371.718380 112.129410 6.293673 0.000000
377.342590 130.066770 7.282665 0.000000
377.629210 129.324650 7.280829 0.000000
378.706540 129.013240 7.344102 0.000000
378.292050 127.880010 7.281644 0.000000
394.765690 127.642510 7.585669 0.000000
393.946290 127.640070 7.526328 0.000000
393.708830 115.104680 7.624244 0.000000
393.881710 114.006290 7.573797 0.000000
393.886870 112.587570 7.497717 0.000000
393.892300 111.088650 7.416416 0.000000
395.556490 127.644800 7.642087 0.000000
376.328280 112.136220 7.800852 0.000000
374.843380 112.130360 7.738514 0.000000
373.300110 112.125350 7.672975 0.000000
371.692750 112.120290 7.603921 0.000000
372.735930 132.481140 8.086323 0.000000
375.460570 131.832530 8.212013 0.000000
372.585820 131.500490 8.063929 0.000000
375.968230 130.286530 8.210814 0.000000
376.013150 128.479830 8.179916 0.000000
377.016570 128.091540 8.220598 0.000000
395.544220 127.639990 8.340136 0.000000
394.752930 127.637570 8.295950 0.000000
393.933110 127.635040 8.249510 0.000000
393.890010 111.102150 8.424508 0.000000
374.479280 135.753490 8.219487 0.000000
377.639470 131.949750 8.321526 0.000000
377.215670 130.008850 8.266599 0.000000
378.576080 128.049320 8.294068 0.000000
379.177030 127.490340 8.310936 0.000000
393.694640 115.098240 8.559428 0.000000
393.879580 114.018210 8.527926 0.000000
393.884670 112.600270 8.477937 0.000000
395.531980 127.635180 9.036541 0.000000
394.740260 127.632680 9.004570 0.000000
393.919980 127.630050 8.971004 0.000000
377.733580 112.131440 9.069408 0.000000
376.305420 112.127660 9.033026 0.000000
374.819700 112.121610 8.994765 0.000000
373.275510 112.116460 8.954623 0.000000
371.667210 112.111210 8.912418 0.000000
378.885440 135.723180 9.350463 0.000000
377.178530 135.880580 9.300196 0.000000
374.353640 135.715380 9.214061 0.000000
377.085050 134.223210 9.286826 0.000000
377.478300 133.559540 9.293939 0.000000
375.126920 131.691220 9.210782 0.000000
376.404880 131.385710 9.246086 0.000000
377.537930 129.289250 9.261686 0.000000
375.715090 129.258030 9.208651 0.000000
379.827790 128.771970 9.322632 0.000000
377.355900 128.284550 9.247433 0.000000
371.657320 128.211590 9.081812 0.000000
378.604460 127.156350 9.272322 0.000000
393.680450 115.091750 9.493238 0.000000
392.764400 115.088750 9.473053 0.000000
391.825200 115.085520 9.452063 0.000000
390.861570 115.082260 9.430232 0.000000
386.727360 115.067310 9.333430 0.000000
393.877530 114.030240 9.479689 0.000000
393.882630 112.613130 9.455710 0.000000
382.967350 112.146820 9.199321 0.000000
381.725920 112.144690 9.169053 0.000000
380.440920 112.140390 9.137336 0.000000
379.111270 112.136010 9.104155 0.000000
393.887880 111.115810 9.430068 0.000000
376.860380 135.770780 10.238021 0.000000
371.953550 135.790950 10.191159 0.000000
377.705230 135.280300 10.246752 0.000000
376.997010 134.193010 10.241470 0.000000
372.638550 131.534100 10.203485 0.000000
378.100890 131.327770 10.255902 0.000000
375.505280 130.976520 10.231606 0.000000
376.833340 129.828290 10.245843 0.000000
379.480100 129.457090 10.271611 0.000000
377.320590 129.181170 10.251373 0.000000
376.998600 135.824970 11.183743 0.000000
378.099090 135.434200 11.175204 0.000000
378.529970 134.809690 11.176345 0.000000
375.277370 132.646620 11.231797 0.000000
375.909240 132.046830 11.231146 0.000000
377.017820 130.811000 11.232734 0.000000
375.955020 129.391660 11.259016 0.000000
376.950380 128.992720 11.253740 0.000000
376.772580 134.936260 12.150503 0.000000
376.223360 133.894270 12.185511 0.000000
376.774750 133.279880 12.179493 0.000000
376.059810 132.118620 12.222936 0.000000
372.787990 129.735660 12.367887 0.000000
376.988770 134.204570 13.115594 0.000000
371.911560 131.246550 13.452412 0.000000
373.555080 135.467530 14.286236 0.000000
374.403020 134.048660 14.268419 0.000000
375.236720 133.511020 14.226219 0.000000
375.379210 132.705510 14.243822 0.000000
375.510160 135.309230 15.135033 0.000000
373.954040 133.883790 15.335879 0.000000
374.109310 133.066880 15.355051 0.000000
372.603910 135.149670 15.413498 0.000000
373.770080 134.690020 16.353298 0.000000
374.607090 134.136030 16.283995 0.000000
375.571380 135.340700 17.112633 0.000000
376.526980 112.144590 5.405443 0.000000
375.100650 112.140090 5.300361 0.000000
373.619110 112.135410 5.189679 0.000000
372.077940 112.130330 5.072965 0.000000
376.505000 112.136170 6.619018 0.000000
375.077880 112.131480 6.536766 0.000000
373.595460 112.126600 6.450181 0.000000
372.053650 112.121570 6.358952 0.000000
395.055570 127.642460 6.985809 0.000000
375.633790 129.829900 7.221755 0.000000
378.828980 128.900470 7.409622 0.000000
373.454190 127.778660 7.014031 0.000000
393.490390 127.633820 7.563938 0.000000
395.043700 127.637710 7.674174 0.000000
394.279720 127.635220 7.620346 0.000000
376.483090 112.127790 7.829738 0.000000
375.056240 112.123950 7.770351 0.000000
373.571930 112.117870 7.707747 0.000000
372.029210 112.112640 7.641928 0.000000
372.723790 132.965680 8.131881 0.000000
372.628810 132.034160 8.112699 0.000000
371.748170 130.739270 8.047831 0.000000
395.031830 127.632950 8.360245 0.000000
394.267520 127.630410 8.318035 0.000000
393.478520 127.629700 8.273905 0.000000
374.578670 135.379820 8.260517 0.000000
377.599820 131.672070 8.353019 0.000000
375.420010 131.495270 8.242574 0.000000
376.534180 130.290410 8.275673 0.000000
376.114590 129.187010 8.234401 0.000000
378.633510 127.909470 8.329032 0.000000
377.071410 127.900820 8.254703 0.000000
379.248780 127.386700 8.346704 0.000000
395.020020 127.628200 9.044683 0.000000
394.255310 127.625600 9.014069 0.000000
393.465180 127.624070 8.982040 0.000000
376.461180 112.119390 9.038765 0.000000
375.033570 112.115400 9.002118 0.000000
373.548430 112.109160 8.963581 0.000000
372.004820 112.103760 8.923153 0.000000
377.284330 133.994290 9.304866 0.000000
377.544800 133.298830 9.307378 0.000000
372.446380 132.859970 9.151864 0.000000
376.629330 132.058960 9.270457 0.000000
376.086490 130.946690 9.245291 0.000000
375.949680 130.001300 9.233166 0.000000
375.961520 129.112560 9.225580 0.000000
376.948910 128.743580 9.250761 0.000000
377.642610 128.234240 9.265839 0.000000
378.364960 127.756130 9.281746 0.000000
378.606450 126.995600 9.280806 0.000000
393.296450 115.085110 9.486006 0.000000
392.402340 115.081910 9.466406 0.000000
391.486660 115.078780 9.446050 0.000000
390.547820 115.075440 9.424885 0.000000
389.584530 115.072050 9.402874 0.000000
388.595210 115.068650 9.379971 0.000000
387.578160 115.065150 9.356119 0.000000
386.531370 115.061460 9.331264 0.000000
382.898500 112.141660 9.198999 0.000000
381.694730 112.137450 9.169724 0.000000
380.451840 112.133010 9.139146 0.000000
379.167480 112.128700 9.107196 0.000000
377.838350 112.124160 9.073769 0.000000
373.908750 135.981140 10.196894 0.000000
377.158510 135.536710 10.229024 0.000000
378.051910 135.103840 10.238191 0.000000
372.844330 132.135360 10.190666 0.000000
376.720180 131.258290 10.229360 0.000000
375.283660 131.443340 10.215170 0.000000
377.713530 130.897080 10.239424 0.000000
372.388550 131.032780 10.187414 0.000000
376.852690 129.588040 10.232449 0.000000
379.596530 129.358430 10.259419 0.000000
376.579830 128.547240 10.230911 0.000000
373.995210 136.014820 11.175896 0.000000
377.584110 135.702450 11.139793 0.000000
378.225400 135.177580 11.137719 0.000000
375.612030 132.457750 11.190746 0.000000
376.074490 131.813660 11.192520 0.000000
376.287290 129.296460 11.217452 0.000000
376.697200 128.618060 11.221309 0.000000
375.102020 135.585600 12.126462 0.000000
376.583220 134.526580 12.097961 0.000000
374.684200 134.607560 12.155343 0.000000
376.330630 133.608570 12.121880 0.000000
377.856140 133.450810 12.078455 0.000000
376.190670 131.872670 12.158518 0.000000
375.913640 130.880250 12.186316 0.000000
378.338130 132.868130 12.992563 0.000000
374.115450 136.064240 13.127499 0.000000
374.750120 133.799770 13.148509 0.000000
374.904240 133.015260 13.160987 0.000000
373.840480 134.297270 14.181446 0.000000
374.740970 133.801010 14.133121 0.000000
375.306760 133.189130 14.113783 0.000000
375.414670 135.711040 14.982094 0.000000
377.465790 134.892550 14.824828 0.000000
375.463750 134.916810 15.008493 0.000000
372.581360 135.552250 15.253071 0.000000
374.008240 132.649920 15.236695 0.000000
375.526700 134.945270 15.968101 0.000000
374.935120 133.888230 16.086411 0.000000
375.317540 133.203800 16.078438 0.000000
375.113620 132.264880 16.150883 0.000000
376.273220 136.027830 16.780626 0.000000
373.867340 134.321820 17.196831 0.000000
374.798800 132.991610 17.150181 0.000000
374.533660 132.015340 17.245386 0.000000
375.124480 112.143640 5.264957 0.000000
373.691440 112.139240 5.159457 0.000000
372.202640 112.134610 5.048313 0.000000
393.886600 113.925770 5.667405 0.000000
393.892880 112.426830 5.522191 0.000000
377.838810 112.152030 5.460501 0.000000
376.505620 112.147750 5.365173 0.000000
393.884370 113.935260 6.601055 0.000000
393.889950 112.436000 6.484396 0.000000
375.106750 112.135300 6.482087 0.000000
373.673100 112.130720 6.399584 0.000000
372.183750 112.125940 6.312717 0.000000
395.186650 127.644870 7.016753 0.000000
377.822020 112.143940 6.635141 0.000000
376.488430 112.139600 6.560510 0.000000
376.404850 130.948180 7.322262 0.000000
373.415190 128.523470 7.041589 0.000000
378.245670 127.632740 7.332473 0.000000
373.465910 127.611600 7.014893 0.000000
393.887700 112.446260 7.442470 0.000000
378.878720 128.890520 7.419347 0.000000
395.177430 127.640270 7.685554 0.000000
394.458370 127.637990 7.636531 0.000000
393.715970 127.635650 7.585082 0.000000
393.881990 113.944460 7.530550 0.000000
375.088990 112.126930 7.696105 0.000000
373.654850 112.122250 7.636550 0.000000
372.164860 112.117280 7.573905 0.000000
372.735110 132.702940 8.128611 0.000000
372.513430 131.728010 8.098822 0.000000
372.016970 130.604000 8.051865 0.000000
394.448940 127.633340 8.313532 0.000000
393.706270 127.630930 8.273193 0.000000
377.805330 112.135880 7.806771 0.000000
376.471250 112.131440 7.752782 0.000000
374.367400 135.846530 8.266825 0.000000
377.591160 131.546780 8.344456 0.000000
375.594060 131.402530 8.243981 0.000000
377.847350 130.011180 8.322498 0.000000
375.790250 129.772110 8.218184 0.000000
378.850400 128.877080 8.343306 0.000000
378.729310 127.934830 8.314375 0.000000
395.168240 127.635700 8.351995 0.000000
393.879910 113.954150 8.456855 0.000000
393.885380 112.456450 8.397188 0.000000
395.159060 127.631130 9.016718 0.000000
394.439510 127.628690 8.988791 0.000000
393.696590 127.626220 8.959539 0.000000
375.071290 112.118610 8.908184 0.000000
373.636570 112.113720 8.871542 0.000000
372.146030 112.108620 8.833090 0.000000
378.758330 135.962980 9.347820 0.000000
374.947200 136.055070 9.234436 0.000000
376.927030 134.455840 9.277769 0.000000
377.593200 133.167760 9.283512 0.000000
376.913790 132.039280 9.250791 0.000000
371.840550 131.435210 9.094887 0.000000
376.088380 130.794430 9.212176 0.000000
375.877380 129.820680 9.194348 0.000000
379.069980 129.010640 9.275454 0.000000
375.967530 128.986180 9.186625 0.000000
375.659610 127.911960 9.164168 0.000000
378.431610 127.754760 9.240648 0.000000
392.842290 115.086400 9.382400 0.000000
391.966160 115.083450 9.363594 0.000000
391.069520 115.080370 9.344061 0.000000
390.151000 115.077140 9.323763 0.000000
389.210360 115.075210 9.302710 0.000000
388.243100 115.070630 9.280717 0.000000
387.250550 115.067220 9.257872 0.000000
386.230040 115.063790 9.234081 0.000000
393.877690 113.963550 9.380802 0.000000
393.883090 112.466610 9.349482 0.000000
382.705140 112.144740 9.096145 0.000000
381.533750 112.140690 9.068150 0.000000
380.325590 112.136510 9.038934 0.000000
379.078120 112.132210 9.008417 0.000000
377.788640 112.127840 8.976516 0.000000
376.454070 112.123260 8.943137 0.000000
371.983760 135.842960 10.139081 0.000000
378.452510 135.094700 10.199393 0.000000
377.441830 135.441440 10.190444 0.000000
372.814330 131.864230 10.138812 0.000000
376.743190 131.125930 10.174858 0.000000
375.382690 131.305820 10.162220 0.000000
377.241030 129.685560 10.176645 0.000000
375.754120 129.758910 10.162580 0.000000
379.676790 129.373780 10.199294 0.000000
377.304500 128.852360 10.175534 0.000000
377.723140 135.554720 11.073581 0.000000
376.033720 135.669880 11.091130 0.000000
374.075320 135.746000 11.112097 0.000000
378.260190 135.016070 11.071188 0.000000
374.830600 132.750000 11.121962 0.000000
375.759120 132.329710 11.115244 0.000000
376.170500 131.686800 11.115693 0.000000
376.049160 129.916440 11.130582 0.000000
376.814580 129.455410 11.126976 0.000000
372.236080 128.865100 11.176441 0.000000
376.686950 128.503810 11.136341 0.000000
374.486540 135.087750 12.061446 0.000000
377.613770 134.747830 11.969259 0.000000
376.660370 133.553860 12.016439 0.000000
377.860080 133.296600 11.984201 0.000000
372.410060 133.445800 12.148600 0.000000
378.271180 132.700780 12.877802 0.000000
376.414980 132.635240 12.971802 0.000000
371.989380 132.401290 13.200723 0.000000
374.245300 134.178130 14.011305 0.000000
375.064210 133.686900 13.968025 0.000000
375.359650 132.987930 13.969702 0.000000
375.437530 135.450740 14.822786 0.000000
377.411900 134.668730 14.670858 0.000000
372.619930 135.231230 15.093058 0.000000
373.678920 133.954910 15.041418 0.000000
373.790250 132.302510 15.097515 0.000000
375.933840 134.851940 15.732811 0.000000
373.480870 135.540120 15.980677 0.000000
375.229860 133.759750 15.863747 0.000000
376.640720 135.907230 16.520294 0.000000
374.330260 134.216930 16.919699 0.000000
374.742220 133.558110 16.901844 0.000000
374.809020 132.752930 16.940071 0.000000
395.318390 111.406570 4.653904 0.000000
394.369050 111.200910 4.565244 0.000000
373.453640 112.147480 5.267546 0.000000
372.001710 112.143200 5.160304 0.000000
393.893520 113.547670 5.739952 0.000000
393.899050 111.974000 5.586885 0.000000
378.765900 112.163250 5.646033 0.000000
377.505400 112.159460 5.558344 0.000000
376.201970 112.155620 5.466235 0.000000
374.852360 112.151470 5.369389 0.000000
393.890960 113.558240 6.668395 0.000000
393.896820 111.986220 6.546007 0.000000
373.434140 112.138930 6.492704 0.000000
371.981570 112.134510 6.408883 0.000000
395.145360 127.651150 7.126308 0.000000
394.461670 127.649190 7.071322 0.000000
393.756990 127.647130 7.013624 0.000000
378.748690 112.155300 6.788984 0.000000
377.487700 112.151400 6.720273 0.000000
376.183720 112.147420 6.648145 0.000000
374.833590 112.143180 6.572363 0.000000
372.808620 130.058910 7.147065 0.000000
373.105380 128.393260 7.115553 0.000000
393.894560 111.998360 7.500830 0.000000
376.261260 130.939180 7.408657 0.000000
379.659850 130.347210 7.616932 0.000000
377.674100 130.029280 7.474496 0.000000
378.057220 128.556610 7.449749 0.000000
395.135960 127.646670 7.779109 0.000000
394.451970 127.644620 7.733863 0.000000
393.746980 127.642460 7.686409 0.000000
393.888820 113.569490 7.592792 0.000000
373.414700 112.130460 7.714838 0.000000
371.961490 112.125870 7.654386 0.000000
371.883940 130.513890 8.119021 0.000000
393.737030 127.637810 8.356873 0.000000
378.731540 112.147400 7.929080 0.000000
377.470030 112.143360 7.879305 0.000000
376.165470 112.139230 7.827116 0.000000
374.813720 112.133830 7.772272 0.000000
374.445890 135.800860 8.340829 0.000000
372.689510 132.635130 8.198749 0.000000
377.498350 131.582320 8.413643 0.000000
375.486360 131.388050 8.312168 0.000000
376.555910 130.258060 8.340149 0.000000
376.043550 129.117050 8.290659 0.000000
379.307280 128.481740 8.429233 0.000000
395.126460 127.642110 8.429640 0.000000
394.442260 127.640020 8.394110 0.000000
377.015660 127.926980 8.309223 0.000000
393.886690 113.580710 8.513945 0.000000
393.892360 112.010450 8.452281 0.000000
395.117070 127.637600 9.078540 0.000000
394.432620 127.635460 9.052700 0.000000
393.727110 127.633180 9.025657 0.000000
373.395390 112.122060 8.935121 0.000000
371.941470 112.117280 8.898010 0.000000
378.694030 135.954210 9.391815 0.000000
374.293850 135.746960 9.258867 0.000000
376.903470 134.455470 9.324840 0.000000
377.355800 133.885030 9.332622 0.000000
377.566680 133.207150 9.331986 0.000000
376.800960 132.042130 9.297595 0.000000
376.147890 130.888060 9.266312 0.000000
375.783330 129.845500 9.244286 0.000000
376.768830 129.528760 9.268847 0.000000
379.806340 128.802170 9.345777 0.000000
377.401760 128.166630 9.270553 0.000000
378.597900 127.160860 9.291313 0.000000
372.828610 126.358850 9.119747 0.000000
393.069700 115.094200 9.446040 0.000000
392.224430 115.091320 9.428434 0.000000
391.360660 115.088440 9.410164 0.000000
390.477200 115.085540 9.391196 0.000000
389.572750 115.082570 9.371491 0.000000
388.646030 115.079390 9.351009 0.000000
387.695710 115.076310 9.329716 0.000000
386.720060 115.073030 9.307554 0.000000
385.717590 115.069670 9.284484 0.000000
393.884490 113.591810 9.432744 0.000000
393.890140 112.022470 9.401283 0.000000
382.269320 112.151290 9.152363 0.000000
381.120450 112.147550 9.125248 0.000000
379.936220 112.143570 9.096955 0.000000
378.714360 112.139470 9.067415 0.000000
377.452330 112.135280 9.036553 0.000000
376.147250 112.131010 9.004282 0.000000
374.794980 112.125530 8.970461 0.000000
378.270750 135.047820 10.221191 0.000000
375.378200 131.341670 10.190557 0.000000
379.491940 129.443240 10.227817 0.000000
376.579620 128.557710 10.199476 0.000000
377.452180 135.446790 10.213797 0.000000
