# .PCD v0.7 - Point Cloud Data file format
VERSION 0.7
FIELDS x y z intensity
SIZE 4 4 4 4
TYPE F F F F
COUNT 1 1 1 1
WIDTH 1166
HEIGHT 1
VIEWPOINT 0 0 0 1 0 0 0
POINTS 1166
DATA ascii
414.853910 217.048030 10.917249 0.000000
418.972750 216.539030 10.956926 0.000000
417.621220 216.714360 10.943938 0.000000
420.302250 216.363920 10.969692 0.000000
397.308990 222.620730 10.857839 0.000000
399.159000 222.327070 10.874434 0.000000
409.229130 220.850340 10.965370 0.000000
412.295010 220.382230 10.992965 0.000000
419.442780 219.315090 11.057417 0.000000
418.059570 219.535550 11.045012 0.000000
395.863770 225.835210 10.942764 0.000000
397.744320 225.549040 10.958388 0.000000
399.636780 225.153530 10.973498 0.000000
401.439540 224.840350 10.988255 0.000000
406.582950 223.944120 11.030339 0.000000
404.930970 224.190580 11.016586 0.000000
409.822690 223.362340 11.056750 0.000000
418.756130 221.819120 11.129923 0.000000
417.347440 222.024260 11.118166 0.000000
412.913880 222.834290 11.082104 0.000000
396.510130 225.540650 10.944435 0.000000
398.365510 225.216220 10.960924 0.000000
401.879150 224.700200 10.992755 0.000000
400.139920 224.962860 10.977043 0.000000
403.583680 224.429810 11.008073 0.000000
406.858370 223.951840 11.037757 0.000000
405.220460 224.230180 11.023151 0.000000
409.983610 223.531490 11.066306 0.000000
408.434300 223.744810 11.052184 0.000000
411.508030 223.310090 11.080132 0.000000
414.483730 222.849700 11.106946 0.000000
413.008210 223.081310 11.093670 0.000000
415.934630 222.618440 11.119978 0.000000
418.750820 222.220890 11.145589 0.000000
396.550230 220.272110 10.756480 0.000000
411.449890 219.975010 10.957972 0.000000
407.242250 220.042920 10.900974 0.000000
419.414980 219.806870 11.065630 0.000000
414.171600 219.902040 10.994665 0.000000
412.818730 219.940600 10.976440 0.000000
399.751100 220.198380 10.799706 0.000000
398.146480 220.271970 10.778259 0.000000
410.064480 220.004240 10.939247 0.000000
408.662050 220.027220 10.920252 0.000000
405.781340 220.102970 10.881406 0.000000
404.327030 220.095090 10.861514 0.000000
402.824310 220.139080 10.841278 0.000000
401.299100 220.173980 10.820680 0.000000
420.699370 219.758820 11.082863 0.000000
418.127470 219.818600 11.048134 0.000000
416.818150 219.864070 11.030545 0.000000
415.506900 219.867220 11.012673 0.000000
419.777040 218.337620 11.014546 0.000000
416.076230 218.081420 10.952429 0.000000
404.435270 217.155820 10.756320 0.000000
395.915710 216.503390 10.612945 0.000000
418.549160 218.260570 10.993985 0.000000
417.319580 218.160630 10.973257 0.000000
413.574920 217.876370 10.910254 0.000000
412.306520 217.780880 10.888918 0.000000
411.026950 217.683790 10.867390 0.000000
409.735020 217.585650 10.845653 0.000000
408.431610 217.481660 10.823692 0.000000
407.116420 217.370820 10.801499 0.000000
405.772400 217.290270 10.779015 0.000000
403.066160 217.052410 10.733288 0.000000
401.681610 216.940540 10.709953 0.000000
400.280180 216.821620 10.686299 0.000000
398.834590 216.743350 10.662166 0.000000
397.396510 216.607830 10.637813 0.000000
419.742340 218.422100 11.028497 0.000000
418.523250 218.335570 11.008349 0.000000
417.292820 218.267900 10.988134 0.000000
416.060550 218.176280 10.967745 0.000000
414.815980 218.099240 10.947245 0.000000
412.310120 217.904240 10.905727 0.000000
411.037410 217.818850 10.884724 0.000000
409.752810 217.732760 10.863524 0.000000
408.456850 217.641800 10.842113 0.000000
407.149110 217.544970 10.820477 0.000000
405.829410 217.441180 10.798605 0.000000
404.482970 217.362050 10.776454 0.000000
403.139950 217.236270 10.754072 0.000000
401.764160 217.142460 10.731359 0.000000
400.370150 217.044860 10.708329 0.000000
397.502320 216.875890 10.661145 0.000000
398.957340 216.942570 10.684968 0.000000
396.056820 216.747380 10.637098 0.000000
419.794980 218.055110 11.015571 0.000000
417.375790 217.894740 10.975701 0.000000
411.192870 217.494510 10.873863 0.000000
408.642400 217.346910 10.831959 0.000000
407.349880 217.266310 10.810688 0.000000
406.045290 217.179810 10.789188 0.000000
404.732600 217.076260 10.767457 0.000000
403.390930 217.002780 10.745438 0.000000
400.681370 216.794280 10.700611 0.000000
399.289060 216.707660 10.677700 0.000000
396.428890 216.550810 10.630759 0.000000
418.588100 217.976260 10.995687 0.000000
416.151950 217.832430 10.955645 0.000000
414.927120 217.742340 10.935407 0.000000
413.688810 217.671200 10.915064 0.000000
409.923220 217.422620 10.853013 0.000000
402.052670 216.882420 10.723194 0.000000
397.880070 216.611530 10.654463 0.000000
420.103640 216.397570 10.959743 0.000000
418.934450 216.311370 10.940104 0.000000
417.760310 216.226170 10.920387 0.000000
416.581210 216.138370 10.900575 0.000000
415.392000 216.065980 10.880678 0.000000
414.202820 215.964450 10.860629 0.000000
413.000670 215.882510 10.840469 0.000000
410.578640 215.686580 10.799691 0.000000
409.349950 215.596710 10.779056 0.000000
408.110350 215.505250 10.758232 0.000000
406.858000 215.414670 10.737204 0.000000
405.595150 215.316390 10.715962 0.000000
404.323390 215.205540 10.694509 0.000000
403.023620 215.124440 10.672751 0.000000
401.727140 214.998750 10.650814 0.000000
400.399320 214.903530 10.628523 0.000000
399.056430 214.800130 10.605941 0.000000
397.698030 214.687770 10.583057 0.000000
396.297450 214.613590 10.559683 0.000000
419.181920 214.509870 10.883884 0.000000
418.049010 214.410430 10.864311 0.000000
416.912480 214.309110 10.844666 0.000000
415.771000 214.208530 10.824943 0.000000
414.620570 214.121730 10.805130 0.000000
413.468750 214.014510 10.785202 0.000000
412.304900 213.925290 10.765152 0.000000
409.960850 213.716720 10.724640 0.000000
408.772640 213.619030 10.704140 0.000000
407.574980 213.517810 10.683464 0.000000
406.367460 213.412080 10.662602 0.000000
405.151640 213.296130 10.641555 0.000000
403.924620 213.175950 10.620298 0.000000
402.671480 213.083440 10.598726 0.000000
401.421540 212.949070 10.577019 0.000000
400.142360 212.843030 10.554946 0.000000
398.849090 212.729130 10.532599 0.000000
397.541690 212.606170 10.509974 0.000000
396.198460 212.512210 10.486874 0.000000
420.547210 211.834760 10.807681 0.000000
418.388120 211.663240 10.771121 0.000000
417.304660 211.572360 10.752760 0.000000
416.217530 211.479610 10.734332 0.000000
415.127140 211.380620 10.715831 0.000000
414.028840 211.292430 10.697230 0.000000
412.929170 211.185700 10.678551 0.000000
419.469790 211.744370 10.789423 0.000000
411.817320 211.099320 10.659730 0.000000
398.635860 213.801820 10.554816 0.000000
396.152560 214.128140 10.531743 0.000000
401.053130 213.468080 10.577242 0.000000
399.857880 213.613070 10.566112 0.000000
406.842900 212.652980 10.630923 0.000000
413.431920 211.763640 10.692095 0.000000
412.353520 211.908680 10.682082 0.000000
411.268130 212.056780 10.672009 0.000000
416.633540 211.360570 10.721878 0.000000
415.571010 211.489350 10.711984 0.000000
414.504090 211.626070 10.702064 0.000000
418.746670 211.073760 10.741492 0.000000
417.691860 211.216750 10.731701 0.000000
397.410100 213.939970 10.543381 0.000000
396.081790 211.825130 10.457311 0.000000
400.779140 211.216130 10.501229 0.000000
398.460660 211.526060 10.479561 0.000000
397.285190 211.654830 10.468550 0.000000
399.632290 211.350450 10.490494 0.000000
397.295810 211.201740 10.454756 0.000000
396.127900 211.326460 10.443755 0.000000
397.118230 211.549240 10.459008 0.000000
395.943970 211.723270 10.448064 0.000000
400.537480 211.096650 10.490915 0.000000
399.413540 211.235660 10.480420 0.000000
398.268400 211.413310 10.469753 0.000000
397.666900 213.311390 10.531043 0.000000
400.020200 212.768250 10.544202 0.000000
398.852020 213.039860 10.537671 0.000000
401.172210 212.496950 10.550637 0.000000
403.435610 211.914080 10.563230 0.000000
402.314640 212.181210 10.556971 0.000000
405.635740 211.401640 10.575526 0.000000
404.542050 211.656280 10.569413 0.000000
406.717830 211.143810 10.581568 0.000000
396.348180 212.830200 10.485005 0.000000
398.651400 212.480360 10.504769 0.000000
397.506260 212.656520 10.494946 0.000000
405.284030 211.404360 10.561604 0.000000
406.355470 211.236720 10.570792 0.000000
401.766940 211.091400 10.503755 0.000000
400.693360 211.149050 10.490886 0.000000
398.524050 211.285310 10.464903 0.000000
397.429780 211.341810 10.451783 0.000000
396.327850 211.394960 10.438568 0.000000
399.613740 211.206010 10.477943 0.000000
399.262330 211.099950 10.469243 0.000000
398.186980 211.132110 10.455446 0.000000
397.102870 211.183810 10.441558 0.000000
396.015320 211.211700 10.427599 0.000000
408.421080 211.074010 10.593203 0.000000
406.307590 211.156740 10.566330 0.000000
404.192840 211.223280 10.539421 0.000000
399.940860 211.371540 10.485334 0.000000
407.364170 211.115260 10.579764 0.000000
405.250580 211.190640 10.552881 0.000000
403.133760 211.256180 10.525945 0.000000
402.072510 211.293700 10.512446 0.000000
398.869110 211.410200 10.471704 0.000000
397.792630 211.448410 10.458012 0.000000
396.710750 211.485870 10.444250 0.000000
400.207090 211.867980 10.512884 0.000000
396.975520 212.054780 10.474277 0.000000
395.889430 212.113300 10.461297 0.000000
405.542020 211.580660 10.576651 0.000000
413.043880 211.172330 10.666310 0.000000
409.811710 211.343750 10.627673 0.000000
401.277280 211.806340 10.525670 0.000000
399.133850 211.929960 10.500063 0.000000
398.056880 211.992280 10.487197 0.000000
407.673920 211.464400 10.602130 0.000000
406.607540 211.523990 10.589387 0.000000
404.476720 211.633820 10.563910 0.000000
402.345120 211.750670 10.538436 0.000000
411.962770 211.232030 10.653390 0.000000
410.886200 211.293170 10.640528 0.000000
408.741700 211.404420 10.614889 0.000000
402.114590 215.787350 10.663581 0.000000
400.976720 215.857160 10.650242 0.000000
398.694490 215.991940 10.623471 0.000000
397.548400 216.067350 10.610054 0.000000
396.398040 216.142670 10.596585 0.000000
407.796940 215.426610 10.730149 0.000000
406.659700 215.505070 10.716847 0.000000
405.523280 215.579500 10.703543 0.000000
404.387180 215.648650 10.690223 0.000000
403.251160 215.717900 10.676905 0.000000
413.535460 215.080350 10.797437 0.000000
412.379730 215.153900 10.783898 0.000000
411.228670 215.225070 10.770407 0.000000
410.081570 215.294310 10.756957 0.000000
419.420720 214.726590 10.866450 0.000000
417.045260 214.878430 10.838625 0.000000
415.867740 214.944690 10.824801 0.000000
414.700650 215.023410 10.811146 0.000000
420.625640 214.659640 10.880598 0.000000
400.754940 219.409010 10.770598 0.000000
399.553710 219.494400 10.756379 0.000000
398.350070 219.570010 10.742081 0.000000
405.550510 219.079960 10.827428 0.000000
404.351140 219.157390 10.813190 0.000000
411.577580 218.659770 10.898816 0.000000
410.366000 218.748110 10.884484 0.000000
409.158140 218.834490 10.870189 0.000000
407.952330 218.911120 10.855869 0.000000
406.750640 218.997160 10.841647 0.000000
416.491030 218.344250 10.957150 0.000000
415.250610 218.417820 10.942392 0.000000
417.731870 218.241090 10.971764 0.000000
397.143310 219.654010 10.727787 0.000000
401.954350 219.324100 10.784800 0.000000
414.021060 218.504240 10.927833 0.000000
418.987640 218.159260 10.986667 0.000000
408.044400 220.814040 10.933825 0.000000
400.635830 221.418850 10.849632 0.000000
399.400150 221.521510 10.835601 0.000000
398.162140 221.624760 10.821545 0.000000
405.570100 221.008790 10.905663 0.000000
404.336430 221.112370 10.891661 0.000000
403.103180 221.214460 10.877654 0.000000
401.869900 221.316530 10.863647 0.000000
409.285310 220.713520 10.947932 0.000000
414.295070 220.308070 11.004887 0.000000
413.035800 220.417270 10.990614 0.000000
411.778410 220.506550 10.976244 0.000000
410.529750 220.611180 10.962070 0.000000
419.422450 219.910190 11.063280 0.000000
418.126250 220.008640 11.048506 0.000000
415.566990 220.220760 11.019441 0.000000
420.728420 219.808180 11.078149 0.000000
401.804410 222.585850 10.910106 0.000000
417.047090 221.110960 11.072253 0.000000
418.358150 220.992650 11.086256 0.000000
396.767580 223.074130 10.856531 0.000000
400.548130 222.707210 10.896741 0.000000
399.290410 222.828950 10.883362 0.000000
398.030520 222.951230 10.869962 0.000000
404.314700 222.334930 10.936756 0.000000
403.059910 222.463470 10.923455 0.000000
409.352630 221.846660 10.990344 0.000000
408.089230 221.969060 10.976905 0.000000
406.828700 222.089580 10.963487 0.000000
413.170990 221.481630 11.030992 0.000000
411.894440 221.610790 11.017449 0.000000
410.619630 221.721860 11.003807 0.000000
414.458010 221.368550 11.044759 0.000000
419.678440 220.870800 11.100341 0.000000
407.905940 221.749500 10.960422 0.000000
414.239170 220.945980 11.022700 0.000000
418.118680 220.475040 11.060989 0.000000
416.817260 220.633090 11.048145 0.000000
420.747010 220.145340 11.086860 0.000000
397.868990 223.024350 10.861731 0.000000
400.384400 222.708540 10.886488 0.000000
399.128050 222.866150 10.874123 0.000000
402.892150 222.394240 10.911174 0.000000
401.638890 222.551360 10.898838 0.000000
406.650330 221.909120 10.948076 0.000000
405.396640 222.069060 10.935754 0.000000
410.427340 221.435970 10.985258 0.000000
409.163880 221.587800 10.972777 0.000000
412.965180 221.117950 11.010241 0.000000
415.524020 220.788910 11.035375 0.000000
397.723910 222.711730 10.857192 0.000000
400.221950 222.318650 10.878828 0.000000
398.974580 222.514830 10.868023 0.000000
402.709870 221.927510 10.900377 0.000000
401.466830 222.123000 10.889610 0.000000
405.193210 221.532810 10.921860 0.000000
403.951870 221.731060 10.911127 0.000000
407.678410 221.138230 10.943360 0.000000
406.435030 221.334960 10.932599 0.000000
408.925200 220.947720 10.954196 0.000000
412.680820 220.351900 10.986691 0.000000
411.426510 220.557460 10.975883 0.000000
415.213900 219.967160 11.008721 0.000000
413.943700 220.158200 10.997662 0.000000
416.491090 219.774810 11.019840 0.000000
420.362150 219.160710 11.053334 0.000000
419.064270 219.370760 11.042132 0.000000
397.559200 222.598100 10.849010 0.000000
400.054110 222.201870 10.870359 0.000000
398.807980 222.399720 10.859695 0.000000
402.541500 221.805370 10.891636 0.000000
401.298370 222.004180 10.881007 0.000000
405.027620 221.409640 10.912905 0.000000
403.784610 221.609160 10.902282 0.000000
408.766140 220.807690 10.944843 0.000000
407.518250 221.011510 10.934201 0.000000
411.274140 220.403170 10.966265 0.000000
410.019870 220.612730 10.955600 0.000000
412.536740 220.205080 10.977086 0.000000
416.366060 219.610870 11.009945 0.000000
415.081670 219.808530 10.998913 0.000000
418.954440 219.193240 11.032053 0.000000
417.656460 219.404910 11.020981 0.000000
420.271820 219.002530 11.043446 0.000000
396.171300 222.664930 10.832413 0.000000
398.669680 222.276280 10.853907 0.000000
401.161620 221.890590 10.875358 0.000000
399.916140 222.083770 10.864639 0.000000
403.653320 221.507050 10.896820 0.000000
402.407260 221.699430 10.886091 0.000000
406.150120 221.119480 10.918305 0.000000
404.900480 221.312440 10.907546 0.000000
408.660000 220.736080 10.939943 0.000000
407.401920 220.922940 10.929064 0.000000
411.186160 220.343110 10.961677 0.000000
413.739750 219.955840 10.983709 0.000000
412.459720 220.150860 10.972671 0.000000
416.326140 219.566960 11.006046 0.000000
415.028660 219.762420 10.994843 0.000000
418.954040 219.178360 11.028784 0.000000
420.275700 218.960080 11.040073 0.000000
395.952610 221.845170 10.799627 0.000000
398.428530 221.485020 10.821922 0.000000
400.903350 221.129880 10.844237 0.000000
399.665770 221.307220 10.833076 0.000000
403.381870 220.770630 10.866563 0.000000
402.141820 220.951170 10.855398 0.000000
407.124850 220.244420 10.900378 0.000000
404.626160 220.597530 10.877815 0.000000
409.641600 219.881270 10.923059 0.000000
408.378390 220.056140 10.911630 0.000000
412.187990 219.524660 10.946072 0.000000
410.911320 219.704410 10.934540 0.000000
413.472080 219.341030 10.957653 0.000000
417.391910 218.803650 10.993149 0.000000
416.070530 218.974640 10.981122 0.000000
420.053830 218.413420 11.017100 0.000000
418.711030 218.596890 11.004936 0.000000
399.420040 220.284850 10.789042 0.000000
398.195650 220.450760 10.777626 0.000000
401.873080 219.948270 10.811888 0.000000
400.645630 220.117520 10.800460 0.000000
405.582000 219.463060 10.846561 0.000000
403.105350 219.787570 10.823410 0.000000
408.077180 219.124420 10.869820 0.000000
406.824770 219.287660 10.858109 0.000000
410.602750 218.790890 10.893414 0.000000
409.336360 218.959170 10.881589 0.000000
414.454900 218.271940 10.929343 0.000000
411.876860 218.618700 10.905294 0.000000
417.081820 217.927580 10.953897 0.000000
415.770970 218.121700 10.941768 0.000000
419.764280 217.579960 10.978993 0.000000
418.417050 217.757480 10.966406 0.000000
397.672360 218.673740 10.707077 0.000000
396.475800 218.833920 10.695912 0.000000
401.274290 218.193410 10.740693 0.000000
398.870150 218.512050 10.718246 0.000000
403.696440 217.884580 10.763365 0.000000
402.480100 218.027370 10.751921 0.000000
406.141170 217.575010 10.786258 0.000000
404.913640 217.722960 10.774728 0.000000
409.860230 217.094040 10.821038 0.000000
407.373470 217.417970 10.797793 0.000000
412.384430 216.764070 10.844626 0.000000
411.117130 216.929580 10.832783 0.000000
416.270290 216.286010 10.881082 0.000000
414.960240 216.443440 10.868773 0.000000
413.673460 216.622280 10.856800 0.000000
418.922550 215.939320 10.905868 0.000000
417.590390 216.116970 10.893435 0.000000
420.289460 215.795260 10.918806 0.000000
397.271970 217.109730 10.652209 0.000000
399.628540 216.805160 10.674978 0.000000
398.447780 216.953060 10.663551 0.000000
404.401150 216.216080 10.721202 0.000000
403.196960 216.356110 10.709504 0.000000
406.829130 215.922850 10.744744 0.000000
405.612400 216.073910 10.732964 0.000000
410.528590 215.446260 10.780494 0.000000
409.285830 215.607270 10.768488 0.000000
413.054630 215.134480 10.804959 0.000000
411.792760 215.308590 10.792811 0.000000
419.627560 214.337450 10.868678 0.000000
418.289400 214.519040 10.855783 0.000000
416.946260 214.654940 10.842654 0.000000
396.097690 217.261600 10.640864 0.000000
402.003540 216.511260 10.697978 0.000000
415.639070 214.827180 10.830038 0.000000
414.340880 214.984450 10.817452 0.000000
398.004640 215.928670 10.621058 0.000000
396.837890 216.067110 10.609488 0.000000
401.529390 215.496950 10.655964 0.000000
403.916230 215.226940 10.679678 0.000000
415.144530 213.905270 10.791058 0.000000
416.475400 213.777250 10.804358 0.000000
419.160920 213.454500 10.830975 0.000000
400.350400 215.646160 10.644305 0.000000
405.120790 215.087860 10.691636 0.000000
402.719270 215.363010 10.667789 0.000000
408.782040 214.639160 10.727893 0.000000
406.332700 214.943120 10.703650 0.000000
411.284060 214.347500 10.752722 0.000000
410.034180 214.511780 10.740383 0.000000
413.845430 214.060780 10.778180 0.000000
412.558650 214.207730 10.765400 0.000000
417.800750 213.602390 10.817440 0.000000
420.536130 213.295060 10.844625 0.000000
397.731320 215.423610 10.598008 0.000000
396.567470 215.565020 10.586387 0.000000
401.266750 215.035980 10.633446 0.000000
408.572630 214.252350 10.706732 0.000000
411.097050 213.970630 10.732019 0.000000
415.016850 213.573820 10.771415 0.000000
413.684600 213.690720 10.757968 0.000000
412.384520 213.835110 10.744943 0.000000
419.082430 213.121860 10.812147 0.000000
417.705570 213.271910 10.798343 0.000000
416.344150 213.410340 10.784662 0.000000
420.474700 212.958680 10.826069 0.000000
400.079620 215.158390 10.621522 0.000000
398.904020 215.297010 10.609769 0.000000
403.663850 214.783680 10.657507 0.000000
402.461360 214.911380 10.645440 0.000000
407.320890 214.368030 10.694117 0.000000
406.093990 214.514710 10.681857 0.000000
409.822080 214.098820 10.719204 0.000000
398.937500 216.229350 10.645944 0.000000
406.463440 215.840700 10.735826 0.000000
405.181640 215.920100 10.720560 0.000000
413.150270 215.499390 10.815700 0.000000
411.776490 215.571790 10.799297 0.000000
409.076970 215.689970 10.766988 0.000000
407.770870 215.786560 10.751484 0.000000
418.884160 215.221070 10.884236 0.000000
417.416630 215.297820 10.866714 0.000000
415.971100 215.367070 10.849432 0.000000
414.564210 215.462400 10.832703 0.000000
403.910370 215.989780 10.705390 0.000000
402.650540 216.054020 10.690342 0.000000
410.418760 215.634890 10.783059 0.000000
420.372920 215.133410 10.901982 0.000000
416.114750 218.104770 10.950838 0.000000
414.596100 218.104280 10.928901 0.000000
413.069490 218.032990 10.906613 0.000000
411.594910 218.009990 10.885238 0.000000
410.144200 217.983700 10.864196 0.000000
419.279420 218.169570 10.996765 0.000000
417.684630 218.143810 10.973644 0.000000
420.012080 218.925840 11.027570 0.000000
418.360230 218.891510 11.002862 0.000000
406.205320 218.509030 10.820623 0.000000
403.412840 218.396670 10.778676 0.000000
399.387050 218.276340 10.718338 0.000000
398.076290 218.228580 10.698665 0.000000
396.780030 218.177980 10.679197 0.000000
416.734800 218.842010 10.978498 0.000000
404.666840 218.346300 10.799504 0.000000
400.540370 218.238830 10.738115 0.000000
396.578120 218.137080 10.679174 0.000000
411.997680 218.524050 10.908521 0.000000
407.513980 218.395230 10.841776 0.000000
403.259860 218.281510 10.778478 0.000000
401.891630 218.262500 10.758180 0.000000
399.204650 218.209340 10.718262 0.000000
397.884060 218.175110 10.698616 0.000000
419.308900 219.585480 11.043613 0.000000
415.964140 219.561550 10.996188 0.000000
411.215420 219.556520 10.928975 0.000000
409.671970 219.516360 10.906972 0.000000
408.177760 219.520310 10.885846 0.000000
406.703670 219.514190 10.864963 0.000000
405.246860 219.493580 10.844265 0.000000
403.828920 219.511600 10.824276 0.000000
402.410710 219.478820 10.804074 0.000000
401.028290 219.486370 10.784545 0.000000
399.661160 219.486920 10.765203 0.000000
398.308990 219.481630 10.746048 0.000000
396.971220 219.471410 10.727077 0.000000
403.203460 221.403960 10.877357 0.000000
401.757930 221.399540 10.857498 0.000000
400.346980 221.433900 10.838309 0.000000
398.950740 221.461120 10.819287 0.000000
397.568790 221.482270 10.800429 0.000000
396.201350 221.500670 10.781757 0.000000
417.187290 221.169710 11.068072 0.000000
415.526950 221.211460 11.045499 0.000000
413.891480 221.239780 11.023199 0.000000
412.277160 221.249940 11.001097 0.000000
410.715240 221.302520 10.979928 0.000000
409.146420 221.288540 10.958329 0.000000
407.625820 221.317500 10.937608 0.000000
406.124820 221.336240 10.917105 0.000000
404.646330 221.353580 10.896903 0.000000
400.676330 225.987230 11.005139 0.000000
406.810180 225.848100 11.087906 0.000000
405.237880 225.868130 11.066582 0.000000
403.707280 225.932590 11.046135 0.000000
402.173830 225.939790 11.025252 0.000000
399.194060 226.027070 10.985182 0.000000
397.726590 226.060500 10.965382 0.000000
396.273040 226.087400 10.945726 0.000000
420.353580 225.579440 11.270918 0.000000
418.529360 225.588350 11.246078 0.000000
416.769870 225.641460 11.222428 0.000000
415.033290 225.674650 11.198954 0.000000
413.325440 225.700320 11.175818 0.000000
411.672000 225.769900 11.153729 0.000000
410.011260 225.769930 11.131061 0.000000
408.400570 225.814480 11.109383 0.000000
398.155180 231.361050 11.156826 0.000000
396.600680 231.393460 11.135796 0.000000
406.141720 231.035490 11.263489 0.000000
416.556580 230.735570 11.403669 0.000000
404.515590 231.127350 11.241995 0.000000
402.888730 231.166230 11.220029 0.000000
401.298100 231.245360 11.198910 0.000000
399.722600 231.316480 11.177928 0.000000
418.407230 230.695010 11.428689 0.000000
414.739410 230.773610 11.379086 0.000000
412.987340 230.872860 11.355929 0.000000
411.227600 230.900240 11.332041 0.000000
409.519040 230.972960 11.309250 0.000000
407.820680 231.011350 11.286299 0.000000
420.279080 230.628390 11.453773 0.000000
405.100100 235.916020 11.419871 0.000000
401.686160 236.027500 11.374828 0.000000
414.019840 235.539920 11.536682 0.000000
410.357790 235.662280 11.488396 0.000000
408.578370 235.742220 11.465143 0.000000
415.873440 235.434330 11.560675 0.000000
406.819850 235.811710 11.442066 0.000000
403.371370 235.944240 11.396772 0.000000
412.158420 235.570130 11.511809 0.000000
419.700870 235.260770 11.610673 0.000000
417.774410 235.355770 11.585586 0.000000
406.247530 235.678280 11.423395 0.000000
409.697750 235.147950 11.454817 0.000000
407.954440 235.397550 11.438731 0.000000
418.679290 233.706700 11.535918 0.000000
404.547970 235.934270 11.407858 0.000000
411.434110 234.842800 11.470194 0.000000
415.008640 234.286590 11.502669 0.000000
413.210540 234.568180 11.486353 0.000000
416.821530 233.984070 11.518908 0.000000
420.561740 233.418260 11.553073 0.000000
397.874270 236.009860 11.319125 0.000000
401.135160 235.438800 11.346728 0.000000
399.506070 235.744020 11.333164 0.000000
402.790070 235.158600 11.360847 0.000000
404.460080 234.874850 11.375083 0.000000
407.860600 234.315600 11.404281 0.000000
406.147130 234.588650 11.389469 0.000000
409.567440 233.989990 11.418427 0.000000
411.311920 233.692890 11.433289 0.000000
414.855560 233.065490 11.463208 0.000000
413.074130 233.384700 11.448211 0.000000
416.694890 232.793790 11.479351 0.000000
418.547640 232.494380 11.495319 0.000000
420.419530 232.174870 11.511260 0.000000
396.431150 232.125890 11.172436 0.000000
410.463440 231.048710 11.335190 0.000000
408.602870 231.181300 11.313513 0.000000
406.791530 231.339580 11.292686 0.000000
403.225710 231.593140 11.251137 0.000000
420.327790 230.334580 11.450010 0.000000
418.268400 230.479630 11.426001 0.000000
416.237670 230.598690 11.402099 0.000000
414.252350 230.718320 11.378761 0.000000
412.345460 230.893160 11.356914 0.000000
407.017490 219.582610 10.856849 0.000000
405.281950 219.648710 10.836164 0.000000
403.611450 219.755600 10.816464 0.000000
397.200810 220.098480 10.740540 0.000000
420.241670 218.863160 11.013411 0.000000
418.203670 218.974140 10.989283 0.000000
416.251220 219.118640 10.966355 0.000000
414.270750 219.165190 10.942608 0.000000
412.377930 219.254730 10.920134 0.000000
409.959990 211.096820 10.618470 0.000000
404.794250 211.329470 10.556156 0.000000
403.177670 211.428310 10.536684 0.000000
398.496430 211.644410 10.480221 0.000000
397.017970 211.735760 10.462414 0.000000
420.017270 211.145570 10.752840 0.000000
417.555360 211.100880 10.714929 0.000000
414.615780 211.888140 10.695504 0.000000
412.338230 211.869900 10.662498 0.000000
410.113560 211.822750 10.630285 0.000000
407.998170 211.807530 10.599627 0.000000
405.922910 211.759430 10.569582 0.000000
403.876310 211.667330 10.539991 0.000000
401.937160 211.621670 10.511917 0.000000
400.092590 211.617370 10.485177 0.000000
398.229190 211.523930 10.458244 0.000000
396.453920 211.472090 10.432551 0.000000
417.285100 213.451840 10.788888 0.000000
419.711430 213.390050 10.822215 0.000000
414.916600 213.483280 10.756332 0.000000
412.636170 213.516390 10.724990 0.000000
410.397490 213.511180 10.694190 0.000000
408.265320 213.536070 10.664880 0.000000
406.172000 213.527570 10.636077 0.000000
404.116210 213.485820 10.607763 0.000000
402.159670 213.482790 10.580847 0.000000
400.293520 213.517240 10.555203 0.000000
398.407710 213.462540 10.529218 0.000000
396.608640 213.448520 10.504458 0.000000
405.599580 219.001620 10.799666 0.000000
403.567750 219.035830 10.771862 0.000000
397.713440 219.018280 10.691374 0.000000
419.435000 218.969880 10.989647 0.000000
416.968540 219.017150 10.955914 0.000000
414.537320 219.013550 10.922500 0.000000
412.218750 219.039570 10.890729 0.000000
409.949490 219.036820 10.859543 0.000000
407.722900 219.000490 10.828835 0.000000
401.525420 218.986160 10.743643 0.000000
399.576390 218.980220 10.716846 0.000000
395.878080 219.029400 10.666194 0.000000
420.087070 225.984530 11.243856 0.000000
417.548770 226.029850 11.208702 0.000000
415.050750 226.029690 11.173840 0.000000
412.601560 225.994690 11.139449 0.000000
410.267060 226.002380 11.106915 0.000000
408.039490 226.054230 11.076136 0.000000
405.787140 225.998380 11.044369 0.000000
403.643250 225.997910 11.014446 0.000000
401.593630 226.045470 10.986125 0.000000
399.577730 226.068300 10.958127 0.000000
397.595980 226.068560 10.930471 0.000000
420.580260 227.909350 11.329775 0.000000
418.034970 228.013150 11.296695 0.000000
415.532380 228.075940 11.263874 0.000000
413.107730 228.138370 11.232088 0.000000
410.763730 228.209290 11.201439 0.000000
408.522280 228.321410 11.172463 0.000000
406.256530 228.328430 11.142374 0.000000
404.111360 228.408660 11.114440 0.000000
402.047000 228.522800 11.087834 0.000000
400.002110 228.595280 11.061175 0.000000
397.989810 228.644440 11.034776 0.000000
396.016540 228.681920 11.008806 0.000000
412.859130 229.414860 11.273383 0.000000
406.057830 229.804960 11.191225 0.000000
399.834140 230.278440 11.117049 0.000000
397.820620 230.387650 11.092672 0.000000
395.845340 230.486880 11.068691 0.000000
415.260220 229.284590 11.302452 0.000000
410.549220 229.569210 11.245669 0.000000
408.315890 229.738490 11.219046 0.000000
403.919680 229.946500 11.165561 0.000000
401.867430 230.131770 11.141352 0.000000
420.244840 228.975770 11.362468 0.000000
417.731260 229.148930 11.332354 0.000000
402.501920 229.947450 11.149649 0.000000
418.785280 228.952100 11.346233 0.000000
416.274050 229.123980 11.316073 0.000000
413.828980 229.283570 11.286642 0.000000
409.105960 229.548550 11.229419 0.000000
406.874970 229.717160 11.202763 0.000000
404.635830 229.803310 11.175293 0.000000
400.445010 230.123860 11.125253 0.000000
398.400270 230.251830 11.100593 0.000000
396.388030 230.359040 11.076163 0.000000
411.434200 229.417970 11.257627 0.000000
398.625920 229.557390 11.072035 0.000000
396.599880 229.688480 11.047789 0.000000
411.950200 228.769350 11.232105 0.000000
409.535830 228.862430 11.202684 0.000000
407.224980 228.991730 11.174861 0.000000
400.681430 229.400700 11.096435 0.000000
414.376220 228.609010 11.261109 0.000000
405.021640 229.171690 11.148808 0.000000
402.813480 229.274860 11.122050 0.000000
419.457060 228.278380 11.321896 0.000000
416.852050 228.420840 11.290504 0.000000
396.927460 223.742810 10.853798 0.000000
405.061220 222.897920 10.936398 0.000000
400.893590 223.330020 10.894069 0.000000
414.011050 221.870040 11.026542 0.000000
411.699550 222.158570 11.003433 0.000000
416.360630 221.545430 11.049792 0.000000
398.921660 223.580000 10.874385 0.000000
402.937620 223.102230 10.914709 0.000000
409.415500 222.402210 10.980288 0.000000
407.221680 222.666410 10.958283 0.000000
418.768430 221.200500 11.073527 0.000000
399.340150 215.949650 10.628609 0.000000
407.433780 214.771790 10.702813 0.000000
411.708620 214.020870 10.741291 0.000000
416.326660 213.289410 10.783300 0.000000
413.959720 213.643620 10.761654 0.000000
397.433350 216.212100 10.611044 0.000000
403.304930 215.403380 10.665130 0.000000
401.283690 215.667690 10.646433 0.000000
405.351010 215.101490 10.683866 0.000000
409.555730 214.414610 10.721999 0.000000
418.730290 212.890620 10.805066 0.000000
419.882720 213.504210 10.845345 0.000000
416.952060 213.615450 10.804304 0.000000
411.258060 213.668090 10.724504 0.000000
408.611940 213.711430 10.687427 0.000000
403.670990 213.832930 10.618209 0.000000
414.071870 213.665310 10.763947 0.000000
406.113460 213.790180 10.652432 0.000000
401.290590 213.848140 10.584846 0.000000
398.994570 213.860490 10.552665 0.000000
396.741730 213.834750 10.521073 0.000000
408.586670 221.706970 10.966165 0.000000
397.244960 220.112340 10.747641 0.000000
418.418400 222.894740 11.155905 0.000000
415.023500 222.522800 11.090326 0.000000
411.747340 222.125640 11.027104 0.000000
405.588380 221.318730 10.908343 0.000000
402.666410 220.886800 10.852078 0.000000
399.918150 220.515080 10.799104 0.000000
417.397640 218.090940 10.961945 0.000000
413.938780 217.729450 10.900718 0.000000
410.717830 217.434140 10.843600 0.000000
407.725400 217.213960 10.790398 0.000000
404.815090 216.954620 10.738770 0.000000
401.990750 216.663730 10.688765 0.000000
399.312740 216.403840 10.641310 0.000000
396.709260 216.114230 10.595268 0.000000
419.707180 213.144850 10.833543 0.000000
416.664890 213.296490 10.794150 0.000000
413.799130 213.475270 10.757099 0.000000
411.003780 213.611390 10.720899 0.000000
408.277920 213.707660 10.685540 0.000000
405.672850 213.809800 10.651764 0.000000
403.120300 213.867540 10.618602 0.000000
400.702640 213.956010 10.587246 0.000000
398.332860 214.005510 10.556452 0.000000
396.015110 214.021970 10.526283 0.000000
420.162510 217.557220 10.982107 0.000000
417.246640 217.820740 10.949023 0.000000
414.392400 218.035570 10.916409 0.000000
411.603940 218.208070 10.884347 0.000000
409.021090 218.457210 10.855125 0.000000
404.027400 218.853760 10.798175 0.000000
401.728700 219.110530 10.772354 0.000000
399.385350 219.251430 10.745389 0.000000
397.189610 219.460040 10.720529 0.000000
407.322510 216.905810 10.808344 0.000000
404.136440 216.553510 10.753465 0.000000
398.550110 216.177840 10.656837 0.000000
395.928890 215.991030 10.611515 0.000000
401.279210 216.362000 10.704041 0.000000
407.605650 226.372180 11.118154 0.000000
405.091670 226.594440 11.087458 0.000000
402.570620 226.728010 11.055972 0.000000
400.254390 226.977970 11.028047 0.000000
397.920070 227.135910 10.999163 0.000000
407.781560 212.487640 10.666346 0.000000
406.181060 215.545960 10.747122 0.000000
404.555390 218.633290 10.828694 0.000000
403.752080 220.206910 10.870193 0.000000
402.948640 221.798400 10.912137 0.000000
402.157290 223.420840 10.954809 0.000000
401.315890 225.020320 10.997068 0.000000
400.482390 226.650120 11.040053 0.000000
399.608800 228.265880 11.082815 0.000000
398.718080 229.890080 11.125840 0.000000
397.840640 231.556060 11.169859 0.000000
396.943730 233.232450 11.214196 0.000000
395.988250 234.875820 11.257895 0.000000
406.972750 214.005340 10.706476 0.000000
417.106050 211.561190 10.780807 0.000000
416.555390 213.362110 10.835083 0.000000
415.999820 215.179580 10.889855 0.000000
415.445370 217.019330 10.945270 0.000000
414.873990 218.870970 11.001092 0.000000
414.348210 220.780270 11.058415 0.000000
413.751770 222.666900 11.115346 0.000000
413.177280 224.598880 11.173510 0.000000
412.586000 226.549870 11.232287 0.000000
411.939090 228.489040 11.290931 0.000000
411.282140 230.453550 11.350347 0.000000
410.542850 232.381410 11.409008 0.000000
409.856600 234.392620 11.469888 0.000000
395.847140 212.457840 10.494714 0.000000
399.723820 211.232730 10.480581 0.000000
398.957430 214.315510 10.574540 0.000000
398.574580 215.888820 10.622429 0.000000
398.190460 217.484820 10.670975 0.000000
397.423220 220.756320 10.770330 0.000000
397.038510 222.435120 10.821246 0.000000
395.798950 227.602750 10.978400 0.000000
399.328490 212.756680 10.527157 0.000000
397.837190 219.128540 10.720646 0.000000
396.636290 224.132170 10.872819 0.000000
396.216920 225.848970 10.925087 0.000000
401.796880 212.544300 10.548211 0.000000
401.448670 214.131180 10.597223 0.000000
401.118070 215.750550 10.647052 0.000000
400.780580 217.389620 10.697510 0.000000
400.442750 219.054290 10.748717 0.000000
400.139950 220.771420 10.801196 0.000000
399.770940 222.472230 10.853695 0.000000
399.435850 224.229540 10.907591 0.000000
399.069730 225.997620 10.962035 0.000000
398.654480 227.761950 11.016738 0.000000
398.264860 229.583890 11.072933 0.000000
397.853360 231.427340 11.129922 0.000000
397.408260 233.282810 11.187513 0.000000
396.895450 235.118620 11.245040 0.000000
408.454130 211.978200 10.634109 0.000000
408.066250 213.617050 10.684689 0.000000
407.295470 216.950700 10.787471 0.000000
405.305940 225.636600 11.055161 0.000000
404.833590 227.401760 11.109957 0.000000
403.865360 231.002500 11.221759 0.000000
407.652530 215.258640 10.735499 0.000000
406.885130 218.632610 10.839451 0.000000
406.506410 220.355640 10.892460 0.000000
406.104800 222.088550 10.945894 0.000000
405.687900 223.836760 10.999868 0.000000
404.358370 229.193570 11.165554 0.000000
403.352570 232.828120 11.278571 0.000000
402.852600 234.698940 11.336642 0.000000
418.279300 213.268400 10.829396 0.000000
416.634400 218.454620 10.983730 0.000000
413.826260 227.335420 11.247981 0.000000
418.814580 211.552520 10.778363 0.000000
417.719510 214.981350 10.880424 0.000000
417.180240 216.713870 10.931948 0.000000
416.080020 220.203600 11.035776 0.000000
415.546810 221.978790 11.088509 0.000000
414.971920 223.746150 11.141149 0.000000
414.420590 225.544680 11.194609 0.000000
413.165370 229.101330 11.300850 0.000000
412.515720 230.893190 11.354429 0.000000
411.820160 232.672970 11.407806 0.000000
411.172880 234.509310 11.462656 0.000000
420.079680 223.461610 11.215770 0.000000
419.292360 225.172360 11.263011 0.000000
418.479060 226.873920 11.310034 0.000000
417.589360 228.535460 11.356064 0.000000
416.701780 230.202420 11.402239 0.000000
415.810210 231.872310 11.448498 0.000000
414.122830 235.302120 11.543338 0.000000
407.237790 212.272600 10.628903 0.000000
406.634520 213.738280 10.670186 0.000000
406.037200 215.211000 10.711627 0.000000
405.439820 216.689210 10.753213 0.000000
404.247740 219.668670 10.836980 0.000000
403.649960 221.170940 10.879201 0.000000
403.064000 222.691480 10.921850 0.000000
402.458620 224.212300 10.964594 0.000000
401.842770 225.739670 11.007557 0.000000
401.216830 227.274690 11.050766 0.000000
400.567810 228.808910 11.094058 0.000000
399.906370 230.350300 11.137593 0.000000
399.220700 231.890520 11.181206 0.000000
398.531160 233.446080 11.225241 0.000000
397.838870 235.019620 11.269760 0.000000
405.072690 212.358340 10.596435 0.000000
404.502780 213.794680 10.636896 0.000000
403.926820 215.232570 10.677427 0.000000
399.300690 227.035870 11.009638 0.000000
396.754640 233.113600 11.181515 0.000000
396.089140 234.658330 11.225292 0.000000
403.347440 216.674290 10.718077 0.000000
402.211060 219.591920 10.800159 0.000000
401.635680 221.060490 10.841492 0.000000
401.071750 222.547180 10.883243 0.000000
400.497100 224.039810 10.925202 0.000000
399.899720 225.531160 10.967241 0.000000
398.678160 228.539630 11.052128 0.000000
398.043090 230.050630 11.094869 0.000000
397.393800 231.568410 11.137858 0.000000
408.810760 213.061860 10.672725 0.000000
407.568540 216.011140 10.755713 0.000000
406.353820 218.988370 10.839326 0.000000
405.143070 221.993550 10.923659 0.000000
403.910490 225.021970 11.008697 0.000000
401.962460 229.586720 11.137248 0.000000
409.423920 211.586070 10.631233 0.000000
408.189700 214.535400 10.714190 0.000000
405.738650 220.481660 10.881289 0.000000
404.521580 223.499590 10.965983 0.000000
403.285280 226.547060 11.051538 0.000000
402.621700 228.059160 11.094199 0.000000
401.275390 231.108470 11.180262 0.000000
400.577060 232.636410 11.223483 0.000000
399.860570 234.166080 11.266828 0.000000
399.145080 235.713380 11.310632 0.000000
410.768520 211.925290 10.673087 0.000000
410.141970 213.413390 10.714791 0.000000
409.497740 214.893920 10.756362 0.000000
408.854000 216.375400 10.797956 0.000000
408.237790 217.872180 10.839852 0.000000
406.996640 220.874910 10.923919 0.000000
406.384740 222.390200 10.966288 0.000000
405.753360 223.902400 11.008648 0.000000
405.134370 225.430850 11.051393 0.000000
404.492980 226.955950 11.094131 0.000000
403.809750 228.464920 11.136600 0.000000
403.124820 229.983460 11.179328 0.000000
401.727510 233.038710 11.265368 0.000000
401.000240 234.566190 11.308491 0.000000
407.062740 211.397890 10.612623 0.000000
406.491580 212.834010 10.653443 0.000000
405.924650 214.273530 10.694334 0.000000
405.351990 215.713130 10.735254 0.000000
404.784120 217.158650 10.776309 0.000000
403.648830 220.066070 10.858853 0.000000
403.102360 221.542070 10.900622 0.000000
402.527400 223.011310 10.942342 0.000000
401.953860 224.491210 10.984337 0.000000
401.372500 225.977430 11.026537 0.000000
400.158420 228.954040 11.111282 0.000000
399.544490 230.458190 11.154107 0.000000
398.911620 231.964200 11.197068 0.000000
398.247960 233.463380 11.239988 0.000000
397.573300 234.970690 11.283174 0.000000
409.315670 211.685850 10.648007 0.000000
408.790620 213.174620 10.691128 0.000000
408.253360 214.660980 10.734237 0.000000
407.730650 216.157320 10.777554 0.000000
406.681640 219.165040 10.864618 0.000000
406.157010 220.679610 10.908443 0.000000
405.630040 222.201750 10.952488 0.000000
405.118560 223.742660 10.996978 0.000000
404.577180 225.278460 11.041460 0.000000
404.038940 226.828550 11.086320 0.000000
403.464690 228.370010 11.131102 0.000000
402.854980 229.902300 11.175788 0.000000
402.257600 231.456730 11.221027 0.000000
401.649230 233.019580 11.266546 0.000000
401.014890 234.580830 11.312136 0.000000
420.436100 223.842990 11.226246 0.000000
419.941960 225.627240 11.280886 0.000000
419.396180 227.398190 11.335255 0.000000
418.802760 229.156170 11.389355 0.000000
418.201840 230.920960 11.443676 0.000000
417.597470 232.695890 11.498310 0.000000
417.018220 234.498990 11.553726 0.000000
420.640200 212.092130 10.857923 0.000000
420.294920 226.137860 11.331025 0.000000
419.558170 224.541120 11.264761 0.000000
418.837370 222.954650 11.198895 0.000000
417.375310 219.823390 11.068989 0.000000
416.646300 218.274120 11.004727 0.000000
415.925570 216.732270 10.940763 0.000000
415.207760 215.198210 10.877123 0.000000
414.492920 213.670820 10.813759 0.000000
420.163640 231.043660 11.493540 0.000000
419.315770 229.464460 11.423623 0.000000
418.459780 227.906650 11.354698 0.000000
417.560180 226.377490 11.287181 0.000000
416.631870 224.875090 11.220950 0.000000
415.647160 223.407030 11.156417 0.000000
414.740390 221.939790 11.091737 0.000000
413.780330 220.505830 11.028698 0.000000
412.826320 219.089200 10.966434 0.000000
411.891110 217.684770 10.904681 0.000000
410.974610 216.290680 10.843355 0.000000
410.070340 214.907460 10.782495 0.000000
409.174840 213.534880 10.722100 0.000000
408.246520 212.188510 10.662975 0.000000
418.922000 227.439650 11.327192 0.000000
418.068180 225.894610 11.258934 0.000000
417.088260 224.398360 11.193202 0.000000
413.306460 218.573320 10.937222 0.000000
410.582240 214.341170 10.751184 0.000000
409.655210 212.965240 10.690801 0.000000
420.647310 230.582230 11.466061 0.000000
419.814760 228.995350 11.395844 0.000000
416.162600 222.908810 11.127644 0.000000
415.201840 221.447780 11.063468 0.000000
414.245820 220.004230 11.000078 0.000000
412.386990 217.152160 10.874762 0.000000
411.479490 215.741740 10.812762 0.000000
408.759460 211.589040 10.630331 0.000000
417.659880 218.519840 11.029307 0.000000
415.652650 215.583790 10.897585 0.000000
414.659090 214.137130 10.832687 0.000000
419.745970 221.505860 11.163216 0.000000
418.686520 220.007640 11.096045 0.000000
416.649600 217.045430 10.963162 0.000000
413.625950 212.721800 10.769274 0.000000
412.635440 211.304570 10.705719 0.000000
418.284420 212.147430 10.795381 0.000000
420.583040 215.098070 10.930497 0.000000
419.458860 213.602940 10.862013 0.000000
420.014530 214.180450 10.889886 0.000000
418.870150 212.690520 10.822410 0.000000
417.770690 211.197480 10.754763 0.000000
408.482240 235.683690 11.319960 0.000000
408.671230 233.996460 11.243975 0.000000
403.227690 230.960110 11.145868 0.000000
403.621090 227.574370 10.987993 0.000000
403.437900 229.276860 11.067569 0.000000
403.754180 225.862530 10.907735 0.000000
403.899600 224.115170 10.825155 0.000000
398.963290 223.061720 10.805642 0.000000
398.859340 224.744770 10.886088 0.000000
399.100520 221.329380 10.722085 0.000000
399.269100 219.544490 10.635257 0.000000
417.475010 220.979690 11.027401 0.000000
417.705960 218.903170 10.926568 0.000000
417.978450 216.766710 10.822092 0.000000
411.278290 217.974820 10.885225 0.000000
411.506710 215.920970 10.783472 0.000000
411.776490 213.800400 10.677727 0.000000
411.987210 211.663360 10.570490 0.000000
408.909610 211.369580 10.555208 0.000000
405.933440 211.117490 10.541399 0.000000
416.642490 216.910160 10.913448 0.000000
413.804200 216.255740 10.866332 0.000000
419.738590 235.048400 11.514341 0.000000
417.866150 233.720430 11.461248 0.000000
416.094670 232.407360 11.407827 0.000000
414.336520 231.135330 11.355516 0.000000
412.713710 229.855620 11.301822 0.000000
410.976990 228.662110 11.251653 0.000000
412.646480 220.063450 10.848776 0.000000
410.823610 218.943330 10.798784 0.000000
409.029600 217.851440 10.749395 0.000000
403.955410 214.643040 10.599987 0.000000
402.246280 213.659770 10.553050 0.000000
400.630800 212.653320 10.504257 0.000000
399.035400 211.666720 10.455784 0.000000
403.243040 224.122380 10.956236 0.000000
402.780670 222.419100 10.886845 0.000000
401.310610 217.261960 10.673042 0.000000
400.811040 215.513570 10.599220 0.000000
400.349400 213.720930 10.522672 0.000000
399.807370 211.957490 10.446993 0.000000
412.260740 230.014650 11.238691 0.000000
409.842620 230.895250 11.234070 0.000000
407.488560 231.772340 11.229843 0.000000
405.207090 232.658780 11.226246 0.000000
402.969240 233.533600 11.222791 0.000000
400.780490 234.405610 11.219636 0.000000
398.484100 235.121810 11.213601 0.000000
396.246830 235.843540 11.208050 0.000000
415.082150 230.921630 11.307642 0.000000
412.788570 231.939190 11.309654 0.000000
410.559230 232.962010 11.312128 0.000000
408.401700 234.002440 11.315300 0.000000
406.271120 235.025070 11.318357 0.000000
404.162930 236.027740 11.321241 0.000000
409.935150 222.654330 10.955639 0.000000
406.417360 225.112410 10.987818 0.000000
399.585020 229.917760 11.050845 0.000000
417.214690 217.575850 10.889187 0.000000
415.367400 218.873090 10.906194 0.000000
413.521030 220.138090 10.922658 0.000000
411.692410 221.383870 10.938845 0.000000
408.174930 223.895520 10.971931 0.000000
404.697510 226.336300 11.003925 0.000000
402.983890 227.542790 11.019754 0.000000
401.273380 228.730160 11.035269 0.000000
397.804530 230.993770 11.064290 0.000000
396.046260 232.068130 11.077765 0.000000
399.482670 224.824620 10.898633 0.000000
396.896270 224.928160 10.850722 0.000000
404.338620 211.406720 10.528343 0.000000
401.460510 211.577330 10.466508 0.000000
398.791260 211.805330 10.408935 0.000000
396.185420 211.993590 10.353803 0.000000
417.930690 215.777950 10.756796 0.000000
414.599030 216.031070 10.682929 0.000000
398.741270 225.437670 10.755035 0.000000
419.741910 229.416140 11.215727 0.000000
412.761570 226.775240 11.072845 0.000000
401.192750 225.053860 10.814965 0.000000
406.350920 224.276900 10.943080 0.000000
403.753330 224.689120 10.878005 0.000000
396.055390 213.471950 10.472632 0.000000
396.549560 217.786160 10.644621 0.000000
398.966340 217.118410 10.656991 0.000000
397.505490 225.390820 10.901676 0.000000
400.939030 211.332370 10.331652 0.000000
396.598300 212.007610 10.414347 0.000000
397.469510 215.795210 10.492872 0.000000
397.196620 214.497130 10.406933 0.000000
409.493260 212.844150 10.525887 0.000000
405.215790 213.531630 10.606211 0.000000
406.419530 217.002260 10.680311 0.000000
403.550720 220.837420 10.821958 0.000000
405.158570 223.818510 10.869451 0.000000
401.139500 224.222870 10.943899 0.000000
402.592500 227.136090 10.989716 0.000000
400.385160 230.115940 11.094940 0.000000
401.872220 232.875400 11.129372 0.000000
398.015590 233.046840 11.200630 0.000000
399.606570 235.630390 11.227117 0.000000
403.024660 214.215670 10.557356 0.000000
404.913880 217.096190 10.623146 0.000000
400.902560 217.764500 10.697701 0.000000
402.662480 220.571620 10.760362 0.000000
402.590940 226.315870 10.929414 0.000000
400.535030 223.817050 10.887627 0.000000
398.686920 226.755800 11.000579 0.000000
400.571110 229.236590 11.042034 0.000000
398.850310 231.876950 11.141087 0.000000
396.944180 234.502750 11.241556 0.000000
400.779140 234.277940 11.172693 0.000000
396.644870 222.155730 10.728501 0.000000
397.919800 224.661210 10.802343 0.000000
396.722780 227.207110 10.916934 0.000000
398.244260 229.400020 10.968779 0.000000
397.094760 231.714950 11.071149 0.000000
395.958560 233.931180 11.168854 0.000000
397.528690 235.934140 11.205271 0.000000
406.512790 211.395200 10.520947 0.000000
403.736050 211.691350 10.564395 0.000000
407.661530 214.616330 10.628014 0.000000
404.706600 214.981520 10.678644 0.000000
406.100220 217.828700 10.766280 0.000000
409.110470 217.519200 10.714581 0.000000
407.436950 220.662730 10.849487 0.000000
409.303470 223.099240 10.906527 0.000000
405.991700 223.514370 10.969724 0.000000
407.734860 225.917790 11.025156 0.000000
408.058230 230.849080 11.179447 0.000000
