# .PCD v0.7 - Point Cloud Data file format
VERSION 0.7
FIELDS x y z intensity
SIZE 4 4 4 4
TYPE F F F F
COUNT 1 1 1 1
WIDTH 1195
HEIGHT 1
VIEWPOINT 0 0 0 1 0 0 0
POINTS 1195
DATA ascii
413.994870 -74.258575 0.461102 0.000000
415.579130 -72.903976 0.472546 0.000000
416.896150 -71.847778 0.482015 0.000000
408.240750 -78.433617 0.388774 0.000000
411.560940 -75.700996 0.455946 0.000000
413.691960 -74.048744 0.463900 0.000000
415.212800 -72.690269 0.475838 0.000000
416.474370 -71.648766 0.485597 0.000000
401.155180 -84.069145 0.115697 0.000000
411.285280 -75.602768 0.444943 0.000000
413.395940 -73.832222 0.466651 0.000000
414.855190 -72.466248 0.479067 0.000000
416.145140 -71.477287 0.488525 0.000000
400.299190 -84.272995 0.053396 0.000000
407.587100 -78.113045 0.367831 0.000000
411.036070 -75.200607 0.464521 0.000000
413.011510 -73.533302 0.470521 0.000000
414.507290 -72.230865 0.482488 0.000000
415.744750 -71.247322 0.492432 0.000000
400.127900 -83.681770 0.074514 0.000000
407.392880 -77.777802 0.378798 0.000000
412.639590 -73.222778 0.474602 0.000000
414.169160 -71.984886 0.486035 0.000000
415.355650 -71.003067 0.496424 0.000000
407.241880 -77.397331 0.395611 0.000000
410.436460 -74.582886 0.474430 0.000000
412.368130 -72.983704 0.477656 0.000000
413.761170 -71.662300 0.490868 0.000000
413.922030 -71.793770 0.488823 0.000000
415.054170 -70.795975 0.499837 0.000000
399.939390 -83.125496 0.092134 0.000000
407.030460 -77.099503 0.401532 0.000000
410.148250 -74.268150 0.479129 0.000000
412.105100 -72.737473 0.480917 0.000000
413.525420 -71.459938 0.494082 0.000000
414.760990 -70.579941 0.503287 0.000000
399.755310 -82.578583 0.108952 0.000000
406.823330 -76.801590 0.407240 0.000000
409.961270 -74.055496 0.482241 0.000000
411.763370 -72.403267 0.484956 0.000000
413.217560 -71.185959 0.497745 0.000000
414.405330 -70.299889 0.507081 0.000000
399.568760 -82.047165 0.124237 0.000000
406.729460 -76.382957 0.429365 0.000000
406.557070 -76.060875 0.438313 0.000000
409.649960 -73.778114 0.479464 0.000000
411.507750 -72.155800 0.486339 0.000000
412.908840 -70.918144 0.498318 0.000000
414.052950 -70.020950 0.507843 0.000000
399.310420 -81.596550 0.130285 0.000000
409.404850 -73.426239 0.488009 0.000000
411.256560 -71.905968 0.487063 0.000000
412.609890 -70.641098 0.498954 0.000000
413.711940 -69.730675 0.508151 0.000000
413.846560 -69.848663 0.507976 0.000000
405.810670 -75.834053 0.395183 0.000000
409.134160 -73.109634 0.489890 0.000000
410.931850 -71.564613 0.488140 0.000000
412.319000 -70.357407 0.499156 0.000000
413.514010 -69.549919 0.508359 0.000000
405.625920 -75.525993 0.400630 0.000000
408.870090 -72.789223 0.491647 0.000000
410.695800 -71.302910 0.488971 0.000000
412.040100 -70.063026 0.499887 0.000000
413.194370 -69.239304 0.508601 0.000000
410.542850 -71.125122 0.489615 0.000000
411.837400 -69.837135 0.500467 0.000000
412.887360 -68.917679 0.508853 0.000000
412.709990 -68.719009 0.509068 0.000000
410.368040 -67.925797 0.491941 0.000000
411.416690 -67.037529 0.495787 0.000000
406.977630 -70.115173 0.493115 0.000000
408.752290 -68.830353 0.472963 0.000000
410.161960 -67.698677 0.480994 0.000000
411.130190 -66.691505 0.480003 0.000000
406.798650 -69.907188 0.486554 0.000000
408.418950 -68.485718 0.454814 0.000000
409.894870 -67.386261 0.466540 0.000000
410.913640 -66.402359 0.468102 0.000000
403.802280 -71.769005 0.461706 0.000000
406.532410 -69.590393 0.476221 0.000000
408.174130 -68.218796 0.441131 0.000000
409.634340 -67.064194 0.451667 0.000000
410.705780 -66.104485 0.456254 0.000000
403.561610 -71.524429 0.451767 0.000000
406.271210 -69.267105 0.465793 0.000000
407.938540 -67.941513 0.428019 0.000000
409.383580 -66.731033 0.436933 0.000000
410.506710 -65.798225 0.444404 0.000000
396.359070 -76.974632 0.135947 0.000000
403.434970 -71.211105 0.455233 0.000000
406.014190 -68.936897 0.454920 0.000000
407.633300 -67.560410 0.410644 0.000000
409.145540 -66.385979 0.422814 0.000000
410.269960 -65.403969 0.429349 0.000000
395.907230 -76.676430 0.114895 0.000000
403.192660 -70.772209 0.453049 0.000000
405.770170 -68.596405 0.445046 0.000000
407.406040 -67.268547 0.396825 0.000000
408.914700 -66.031952 0.408196 0.000000
410.045230 -64.998756 0.413942 0.000000
402.890620 -70.364326 0.442782 0.000000
405.526520 -68.251137 0.434141 0.000000
407.184720 -66.968605 0.382910 0.000000
408.693940 -65.668007 0.393557 0.000000
409.880860 -64.664330 0.402445 0.000000
403.229100 -69.827530 0.498359 0.000000
405.278440 -67.903763 0.421755 0.000000
406.969330 -66.661858 0.369071 0.000000
408.483890 -65.294312 0.378939 0.000000
409.764740 -64.408768 0.393994 0.000000
409.690800 -64.236076 0.388366 0.000000
403.008120 -69.570877 0.487795 0.000000
402.958770 -69.234703 0.496600 0.000000
405.113950 -67.668724 0.413056 0.000000
406.765290 -66.345490 0.355917 0.000000
408.300290 -64.906967 0.367086 0.000000
402.751830 -68.968468 0.486789 0.000000
404.950930 -67.430695 0.404125 0.000000
404.895810 -67.151161 0.409376 0.000000
406.439670 -65.932831 0.328449 0.000000
408.186680 -64.497643 0.365567 0.000000
402.823060 -68.241043 0.520663 0.000000
404.832150 -66.876137 0.412875 0.000000
408.094790 -64.082741 0.365617 0.000000
402.713680 -67.938911 0.520301 0.000000
404.586760 -66.512222 0.396968 0.000000
406.157470 -65.236420 0.315870 0.000000
404.402190 -66.124512 0.388278 0.000000
406.006870 -64.886116 0.306418 0.000000
405.952670 -64.640945 0.306473 0.000000
401.030090 -68.174629 0.344332 0.000000
402.170010 -67.439117 0.482175 0.000000
404.308620 -65.709206 0.390346 0.000000
405.950810 -64.385651 0.313930 0.000000
405.966710 -64.128922 0.323458 0.000000
401.895540 -67.180138 0.462385 0.000000
404.097780 -65.321831 0.375965 0.000000
401.623110 -66.913765 0.442513 0.000000
403.959110 -65.059494 0.366004 0.000000
401.345280 -66.641983 0.421735 0.000000
403.824710 -64.793427 0.356123 0.000000
403.676940 -64.526772 0.344038 0.000000
401.061000 -66.364624 0.399936 0.000000
403.509700 -64.259613 0.328970 0.000000
400.772190 -66.080788 0.377312 0.000000
403.338530 -63.988605 0.312925 0.000000
400.468990 -65.792152 0.352804 0.000000
400.863650 -65.361328 0.402769 0.000000
400.741420 -65.036850 0.396637 0.000000
400.449010 -64.387444 0.377839 0.000000
403.827910 -88.489738 0.694687 0.000000
419.995360 -72.328278 1.007692 0.000000
403.070010 -68.488174 0.536111 0.000000
419.989290 -72.357224 1.357640 0.000000
403.823490 -88.480530 1.379042 0.000000
419.981200 -72.394943 1.823785 0.000000
419.975130 -72.423302 2.173825 0.000000
403.814030 -88.479752 2.061994 0.000000
419.969020 -72.451942 2.525258 0.000000
403.803770 -88.480270 2.744777 0.000000
418.987060 -70.992020 3.010059 0.000000
418.231750 -71.274727 2.914904 0.000000
407.266300 -64.599609 2.793414 0.000000
407.102230 -64.401329 2.796592 0.000000
406.935090 -64.199371 2.800007 0.000000
420.149260 -72.947327 3.393187 0.000000
419.954680 -72.514709 3.353754 0.000000
419.956420 -71.174515 3.451003 0.000000
420.121280 -71.133095 3.449583 0.000000
418.894320 -71.776810 3.502521 0.000000
419.071530 -71.780899 3.504081 0.000000
419.372190 -71.237854 3.449803 0.000000
419.791350 -71.160133 3.446862 0.000000
418.575620 -71.534561 3.257333 0.000000
418.788390 -71.235085 3.233830 0.000000
419.223690 -71.056000 3.222600 0.000000
420.477290 -69.101448 3.572982 0.000000
420.205840 -68.683418 3.503789 0.000000
407.263240 -64.600464 3.221859 0.000000
407.099210 -64.402260 3.228901 0.000000
406.931790 -64.200439 3.236406 0.000000
410.188080 -83.529320 3.760708 0.000000
403.793520 -88.480774 3.428085 0.000000
409.998870 -82.950844 3.730667 0.000000
409.767460 -81.608521 3.660184 0.000000
420.140930 -72.963623 3.891782 0.000000
419.946410 -72.529869 3.833063 0.000000
420.554350 -73.476982 4.228352 0.000000
409.769350 -81.590622 4.149390 0.000000
420.136720 -72.971855 4.143588 0.000000
419.942260 -72.537514 4.075108 0.000000
403.783540 -88.480743 4.112546 0.000000
409.845730 -82.318565 4.201465 0.000000
403.772920 -88.481796 4.798916 0.000000
410.007660 -82.899040 4.756714 0.000000
403.812770 -88.399498 5.478357 0.000000
419.989320 -85.364510 0.209212 0.000000
420.431030 -85.140297 0.239158 0.000000
419.559270 -85.302956 0.204721 0.000000
419.141050 -85.119690 0.210856 0.000000
418.321170 -84.741318 0.222655 0.000000
417.925350 -84.504318 0.232281 0.000000
417.549770 -84.180176 0.249693 0.000000
417.187930 -83.830803 0.269161 0.000000
416.832060 -83.501610 0.286396 0.000000
416.493530 -83.134003 0.307028 0.000000
420.644870 -79.402916 0.347654 0.000000
420.317900 -79.357986 0.345230 0.000000
419.669220 -79.238472 0.341960 0.000000
419.984070 -79.423805 0.329554 0.000000
414.457610 -82.911346 0.245193 0.000000
418.865780 -79.078979 0.335615 0.000000
414.146580 -82.549034 0.262737 0.000000
418.389590 -78.959938 0.332860 0.000000
413.841490 -82.196053 0.279126 0.000000
418.077580 -78.857513 0.332949 0.000000
417.465850 -78.617477 0.335635 0.000000
417.787930 -78.649040 0.345018 0.000000
417.170010 -78.467003 0.339817 0.000000
420.250980 -75.727997 0.415034 0.000000
420.514890 -75.759369 0.417726 0.000000
404.735290 -88.064285 -0.003804 0.000000
416.877930 -78.312927 0.343942 0.000000
404.671260 -87.111145 0.048998 0.000000
403.695800 -86.600510 0.026232 0.000000
403.442600 -86.006042 0.046180 0.000000
403.268590 -85.323204 0.074919 0.000000
416.164430 -82.770424 0.327029 0.000000
415.847410 -82.398674 0.347598 0.000000
415.521240 -82.098946 0.360874 0.000000
413.542940 -81.849083 0.294690 0.000000
413.250120 -81.508743 0.309363 0.000000
412.962830 -81.174576 0.323184 0.000000
416.589200 -78.156891 0.347821 0.000000
419.989200 -75.676987 0.414429 0.000000
410.226040 -83.218384 0.560928 0.000000
412.680450 -80.846832 0.336122 0.000000
416.305660 -77.992264 0.352268 0.000000
419.208980 -75.524612 0.409035 0.000000
419.467500 -75.582336 0.410459 0.000000
416.025150 -77.827385 0.356280 0.000000
418.824220 -75.428642 0.407048 0.000000
412.403660 -80.522835 0.348451 0.000000
415.473690 -77.493263 0.363455 0.000000
418.316590 -75.285454 0.404627 0.000000
404.715030 -86.042114 0.113649 0.000000
412.132480 -80.201935 0.360239 0.000000
415.209140 -77.306244 0.368872 0.000000
417.940220 -75.166901 0.402967 0.000000
420.314670 -73.301445 0.458313 0.000000
411.855680 -79.906525 0.369039 0.000000
414.984830 -77.022865 0.386143 0.000000
417.568420 -75.037880 0.401398 0.000000
419.650180 -73.226883 0.447154 0.000000
411.597750 -79.585075 0.380459 0.000000
414.536870 -76.897102 0.372946 0.000000
416.957890 -74.803558 0.398969 0.000000
417.200380 -74.900963 0.399851 0.000000
419.100650 -73.135651 0.438307 0.000000
420.081600 -72.319115 0.604529 0.000000
420.637570 -71.742889 0.460743 0.000000
410.882110 -79.337440 0.358017 0.000000
411.340120 -79.275665 0.390350 0.000000
414.175080 -76.571823 0.384549 0.000000
416.598420 -74.649414 0.397734 0.000000
418.663760 -73.048164 0.431197 0.000000
420.055970 -71.672478 0.453761 0.000000
420.345980 -71.713135 0.457002 0.000000
413.909670 -76.416870 0.383599 0.000000
416.270900 -74.411789 0.407908 0.000000
418.252840 -72.854980 0.439050 0.000000
419.689240 -71.486786 0.471668 0.000000
402.978700 -84.819572 0.086452 0.000000
410.800810 -78.729515 0.401183 0.000000
413.843440 -75.856789 0.436354 0.000000
417.980990 -72.595207 0.462848 0.000000
419.318480 -71.372337 0.474362 0.000000
410.596190 -78.359062 0.417448 0.000000
413.577330 -75.724388 0.431905 0.000000
415.841340 -73.769485 0.460335 0.000000
417.589390 -72.387627 0.469867 0.000000
418.687620 -71.128136 0.482141 0.000000
418.955600 -71.236847 0.478803 0.000000
402.835020 -84.142242 0.115393 0.000000
409.989040 -77.962036 0.408989 0.000000
413.394590 -75.435287 0.448317 0.000000
415.528810 -73.550476 0.465645 0.000000
417.205570 -72.174927 0.475826 0.000000
418.424100 -71.012184 0.485549 0.000000
402.641240 -83.551216 0.136092 0.000000
409.830110 -77.550003 0.429748 0.000000
412.934810 -75.055054 0.453146 0.000000
415.218660 -73.336288 0.469099 0.000000
416.735600 -71.902855 0.481695 0.000000
416.922940 -72.010674 0.479910 0.000000
418.079380 -70.846909 0.490436 0.000000
409.584690 -77.276375 0.433708 0.000000
412.710970 -74.860130 0.455628 0.000000
414.813290 -73.044701 0.473158 0.000000
416.459690 -71.734558 0.484570 0.000000
417.742400 -70.670898 0.495393 0.000000
402.453460 -82.971237 0.155960 0.000000
409.447750 -76.858803 0.455279 0.000000
412.349430 -74.615593 0.451682 0.000000
414.517790 -72.817062 0.476534 0.000000
416.099430 -71.501854 0.488305 0.000000
417.329320 -70.444786 0.499888 0.000000
401.580780 -83.193474 0.091366 0.000000
408.981480 -76.891861 0.420163 0.000000
412.063230 -74.257904 0.463220 0.000000
414.228760 -72.584946 0.479556 0.000000
415.749450 -71.257607 0.492271 0.000000
416.847290 -70.157494 0.504702 0.000000
417.005740 -70.256081 0.503070 0.000000
401.426150 -82.582504 0.113692 0.000000
408.816220 -76.523315 0.435066 0.000000
413.854830 -72.264786 0.483943 0.000000
415.409790 -71.002792 0.496373 0.000000
416.613650 -70.004913 0.507154 0.000000
408.680600 -76.128731 0.453432 0.000000
411.551670 -73.736893 0.469712 0.000000
413.582060 -72.018745 0.487191 0.000000
415.080540 -70.738312 0.500517 0.000000
416.309540 -69.792908 0.510628 0.000000
401.252590 -82.009598 0.132287 0.000000
408.468440 -75.837036 0.458359 0.000000
411.257420 -73.415497 0.473923 0.000000
413.318120 -71.765511 0.490668 0.000000
414.762300 -70.463860 0.504845 0.000000
415.941990 -69.514793 0.515041 0.000000
401.083530 -81.447121 0.150043 0.000000
408.264040 -75.541031 0.463633 0.000000
410.801850 -73.071449 0.464571 0.000000
411.129430 -73.120850 0.489017 0.000000
412.976650 -71.420708 0.495241 0.000000
414.452000 -70.184494 0.508405 0.000000
415.582280 -69.231873 0.517765 0.000000
400.918490 -80.894707 0.166969 0.000000
408.156190 -75.142776 0.482720 0.000000
410.683810 -72.772423 0.479837 0.000000
412.718810 -71.168877 0.496391 0.000000
414.141170 -69.911240 0.508899 0.000000
415.294860 -69.009399 0.516786 0.000000
407.965610 -74.844345 0.488157 0.000000
410.493590 -72.561050 0.480553 0.000000
412.465210 -70.915085 0.496805 0.000000
413.839450 -69.629913 0.509204 0.000000
415.017330 -68.775650 0.516423 0.000000
400.712740 -80.394691 0.178113 0.000000
407.258510 -74.584991 0.449498 0.000000
410.216740 -72.238014 0.481823 0.000000
412.137510 -70.568359 0.497471 0.000000
413.547060 -69.340637 0.509351 0.000000
414.684450 -68.469170 0.516519 0.000000
407.064420 -74.290398 0.452825 0.000000
409.947880 -71.909752 0.483197 0.000000
411.899350 -70.302605 0.497993 0.000000
413.265170 -69.042580 0.509591 0.000000
414.364380 -68.151039 0.516675 0.000000
411.745090 -70.122101 0.498434 0.000000
413.060240 -68.813911 0.509794 0.000000
414.119110 -67.887383 0.516903 0.000000
413.941010 -67.684998 0.517117 0.000000
411.564270 -66.886574 0.495834 0.000000
412.698490 -66.047806 0.505654 0.000000
407.897370 -69.254089 0.462375 0.000000
409.936220 -67.797180 0.478111 0.000000
411.359250 -66.654381 0.485055 0.000000
412.414250 -65.695847 0.490649 0.000000
407.686710 -69.056061 0.451325 0.000000
409.608950 -67.442574 0.460822 0.000000
411.096740 -66.333748 0.471392 0.000000
412.142060 -65.331032 0.475642 0.000000
405.385010 -70.485092 0.523417 0.000000
407.482030 -68.851418 0.440805 0.000000
409.369320 -67.168320 0.447838 0.000000
410.843020 -66.002907 0.457657 0.000000
411.934660 -65.029045 0.463699 0.000000
405.155730 -70.240112 0.514088 0.000000
407.078000 -68.430534 0.419423 0.000000
409.134860 -66.886330 0.434682 0.000000
410.598630 -65.661949 0.443901 0.000000
411.736240 -64.718742 0.451757 0.000000
397.993380 -75.650002 0.197656 0.000000
404.986790 -69.957588 0.511674 0.000000
406.879910 -68.213654 0.408723 0.000000
408.832280 -66.498703 0.417392 0.000000
410.362240 -65.311844 0.429790 0.000000
411.547580 -64.400177 0.439924 0.000000
397.655700 -75.288597 0.186712 0.000000
404.707150 -69.547310 0.503956 0.000000
406.697880 -67.985733 0.399921 0.000000
406.511290 -67.757706 0.390051 0.000000
408.611660 -66.200104 0.404369 0.000000
410.134340 -64.952545 0.415377 0.000000
411.326230 -63.990482 0.425245 0.000000
397.276400 -74.948135 0.171364 0.000000
406.314360 -67.531830 0.378316 0.000000
408.396180 -65.894310 0.391065 0.000000
409.922060 -64.581718 0.401902 0.000000
404.290680 -68.832802 0.494814 0.000000
406.122920 -67.300339 0.366946 0.000000
408.187710 -65.581673 0.377982 0.000000
409.720860 -64.201752 0.388460 0.000000
404.109190 -68.552345 0.488586 0.000000
405.940160 -67.062096 0.356362 0.000000
407.988980 -65.260513 0.365283 0.000000
397.385800 -73.770218 0.221622 0.000000
403.847930 -68.123405 0.479629 0.000000
405.741820 -66.513130 0.356724 0.000000
407.815340 -64.797211 0.361104 0.000000
397.043430 -73.411110 0.208037 0.000000
403.625060 -67.675331 0.474149 0.000000
405.657930 -66.078590 0.364231 0.000000
407.681880 -64.320648 0.360986 0.000000
396.603030 -73.096382 0.184970 0.000000
405.445370 -65.690277 0.353182 0.000000
407.591220 -63.960838 0.360931 0.000000
396.377440 -72.667755 0.181480 0.000000
403.169650 -67.131332 0.447364 0.000000
405.364440 -65.410095 0.353287 0.000000
402.692660 -66.937874 0.405629 0.000000
405.089870 -65.031578 0.332047 0.000000
396.006130 -72.306061 0.164112 0.000000
402.685730 -66.578636 0.415940 0.000000
404.815120 -64.645233 0.309905 0.000000
396.287570 -71.129440 0.220846 0.000000
402.543910 -66.264053 0.410733 0.000000
402.547550 -65.906540 0.421015 0.000000
404.684020 -64.370270 0.301378 0.000000
402.272370 -65.626656 0.400203 0.000000
404.594120 -63.932220 0.301471 0.000000
395.942750 -70.756363 0.204223 0.000000
402.141540 -65.304161 0.394757 0.000000
401.771880 -64.676300 0.370736 0.000000
396.175080 -68.675232 0.275481 0.000000
401.553960 -64.362602 0.354494 0.000000
401.334840 -64.043610 0.337698 0.000000
395.796660 -68.307594 0.253352 0.000000
396.357480 -67.194809 0.322107 0.000000
396.170320 -66.776207 0.314962 0.000000
395.921750 -66.368698 0.302082 0.000000
396.672330 -65.746101 0.374220 0.000000
396.531890 -65.324974 0.369408 0.000000
397.013980 -64.357468 0.422995 0.000000
396.634800 -63.975857 0.396420 0.000000
403.807400 -88.470192 0.645612 0.000000
420.072810 -72.337303 0.996268 0.000000
397.324890 -64.739716 0.443424 0.000000
410.221100 -83.210060 1.113579 0.000000
420.064030 -72.355408 1.386263 0.000000
403.796230 -88.469788 1.365343 0.000000
410.216190 -83.201805 1.664691 0.000000
409.907930 -81.912476 1.685118 0.000000
420.055300 -72.373528 1.775017 0.000000
420.046540 -72.391975 2.163516 0.000000
403.785060 -88.469398 2.084245 0.000000
410.211270 -83.193542 2.214787 0.000000
409.905360 -81.901321 2.213290 0.000000
420.037230 -72.415070 2.552712 0.000000
407.057620 -64.354530 2.538044 0.000000
403.773900 -88.468994 2.803019 0.000000
410.206360 -83.185280 2.764405 0.000000
409.902920 -81.889954 2.740832 0.000000
420.024350 -72.449867 3.074584 0.000000
418.503390 -71.279480 3.124059 0.000000
418.848690 -71.081825 3.112772 0.000000
419.254390 -70.971008 3.107636 0.000000
418.213840 -71.257576 2.879347 0.000000
418.473690 -71.041046 2.872472 0.000000
407.231630 -64.572044 2.857542 0.000000
407.052340 -64.355400 2.860054 0.000000
406.870180 -64.135246 2.862806 0.000000
410.201480 -83.177040 3.314061 0.000000
409.899960 -81.879501 3.268265 0.000000
419.922210 -72.375206 3.460064 0.000000
420.325780 -71.323959 3.612930 0.000000
420.134860 -71.337616 3.613037 0.000000
419.409970 -71.127701 3.353279 0.000000
419.001280 -71.247757 3.362855 0.000000
419.215880 -71.144836 3.354384 0.000000
420.595280 -69.189072 3.580060 0.000000
420.329350 -68.870697 3.538044 0.000000
420.135530 -68.682190 3.513814 0.000000
407.228940 -64.572159 3.177496 0.000000
407.049680 -64.355568 3.182533 0.000000
406.868160 -64.135307 3.187916 0.000000
403.762730 -88.468575 3.522342 0.000000
420.362520 -73.365517 3.829805 0.000000
409.887080 -81.887589 3.797256 0.000000
419.824370 -72.281181 3.711169 0.000000
419.734740 -71.465729 3.624896 0.000000
410.196530 -83.168777 3.864287 0.000000
409.918820 -82.748444 3.844179 0.000000
420.696470 -73.290604 4.107255 0.000000
419.904240 -72.411697 4.254007 0.000000
403.753600 -88.464905 4.242701 0.000000
410.191620 -83.160507 4.415608 0.000000
409.726040 -81.296318 4.287513 0.000000
403.736940 -88.473106 4.965884 0.000000
403.766880 -88.407364 5.683614 0.000000
420.475190 -83.831650 0.280431 0.000000
420.062190 -83.678131 0.282869 0.000000
419.647310 -83.570778 0.280495 0.000000
419.236050 -83.451523 0.278637 0.000000
418.380160 -83.435905 0.252184 0.000000
418.827150 -83.330772 0.276338 0.000000
417.995270 -83.189774 0.260464 0.000000
417.567110 -83.174507 0.246270 0.000000
416.795990 -82.770187 0.251844 0.000000
417.245880 -82.686531 0.276789 0.000000
416.042600 -82.355743 0.256442 0.000000
420.633880 -78.360863 0.353309 0.000000
415.711090 -82.018639 0.270906 0.000000
420.325320 -78.153885 0.366595 0.000000
420.004520 -78.075157 0.364656 0.000000
415.394500 -81.661064 0.287158 0.000000
419.527980 -77.943069 0.362199 0.000000
415.083890 -81.311989 0.302337 0.000000
405.911040 -88.327545 -0.046598 0.000000
414.777310 -80.975159 0.316052 0.000000
418.746490 -77.687691 0.359539 0.000000
418.288300 -77.507553 0.359334 0.000000
405.884160 -87.244156 0.015297 0.000000
417.838680 -77.307510 0.360428 0.000000
417.543730 -77.166046 0.361434 0.000000
405.826080 -86.270523 0.068523 0.000000
405.862120 -85.203308 0.131537 0.000000
405.282930 -85.102036 0.105439 0.000000
414.471590 -80.656586 0.327660 0.000000
414.166900 -80.352783 0.337479 0.000000
413.875370 -80.033005 0.348703 0.000000
420.518250 -74.478195 0.443647 0.000000
413.590420 -79.713867 0.359628 0.000000
417.003300 -76.749176 0.378408 0.000000
420.129150 -74.398933 0.438878 0.000000
413.311800 -79.395683 0.370223 0.000000
416.681640 -76.708298 0.365476 0.000000
419.614840 -74.275841 0.432972 0.000000
413.037570 -79.081955 0.380119 0.000000
416.406130 -76.534294 0.368504 0.000000
419.106630 -74.132507 0.427569 0.000000
412.765620 -78.776093 0.388926 0.000000
416.026340 -76.200012 0.381413 0.000000
418.480960 -73.926346 0.421469 0.000000
418.729640 -74.013054 0.423761 0.000000
420.617920 -72.192902 0.462506 0.000000
412.501740 -78.466202 0.397947 0.000000
415.571870 -76.064957 0.368002 0.000000
418.234470 -73.834061 0.419413 0.000000
420.176210 -72.107880 0.455361 0.000000
420.396640 -72.152580 0.458881 0.000000
405.172030 -84.319542 0.143024 0.000000
412.247680 -78.149315 0.407536 0.000000
415.360530 -75.765518 0.385445 0.000000
417.752140 -73.623322 0.417452 0.000000
417.991970 -73.731400 0.418308 0.000000
419.956570 -72.059937 0.451772 0.000000
404.948000 -83.726486 0.163082 0.000000
415.069310 -75.652481 0.378198 0.000000
417.549930 -73.414497 0.431064 0.000000
419.445800 -71.793083 0.464493 0.000000
411.786500 -77.468262 0.431606 0.000000
415.013850 -75.055283 0.434754 0.000000
417.182650 -72.939842 0.466063 0.000000
419.049040 -71.565887 0.474788 0.000000
420.512790 -70.399803 0.483043 0.000000
404.416020 -83.560783 0.141402 0.000000
411.611240 -77.056709 0.451792 0.000000
414.692470 -74.690468 0.449160 0.000000
416.970000 -72.791222 0.469691 0.000000
418.655150 -71.354370 0.480541 0.000000
420.055790 -70.220360 0.488645 0.000000
404.320400 -82.827682 0.175329 0.000000
411.260160 -76.931465 0.438157 0.000000
416.656740 -72.564575 0.474827 0.000000
418.271730 -71.129723 0.486594 0.000000
419.698880 -70.062263 0.493391 0.000000
411.086610 -76.538315 0.455952 0.000000
414.146670 -74.135361 0.464553 0.000000
416.345730 -72.341408 0.478548 0.000000
417.898500 -70.894211 0.492637 0.000000
419.178310 -69.803223 0.500830 0.000000
419.436070 -69.936325 0.497056 0.000000
404.177000 -82.182137 0.201142 0.000000
410.845430 -76.255379 0.460403 0.000000
413.632600 -73.840973 0.454040 0.000000
413.921880 -73.934853 0.467119 0.000000
415.942140 -72.034431 0.483382 0.000000
416.142180 -72.189651 0.480907 0.000000
417.625210 -70.710876 0.497195 0.000000
418.841580 -69.616844 0.505938 0.000000
404.060150 -81.527237 0.228461 0.000000
413.485170 -73.524345 0.472441 0.000000
415.648650 -71.796013 0.487144 0.000000
417.354770 -70.529037 0.500328 0.000000
418.513340 -69.420158 0.511123 0.000000
403.072510 -81.893372 0.148918 0.000000
410.269990 -75.828461 0.451005 0.000000
413.272580 -73.315651 0.475035 0.000000
415.361760 -71.552246 0.490943 0.000000
417.002290 -70.278778 0.504377 0.000000
418.192840 -69.215813 0.515923 0.000000
402.962620 -81.239700 0.175427 0.000000
410.093140 -75.473312 0.463589 0.000000
412.860690 -72.889252 0.480449 0.000000
415.083130 -71.302124 0.494771 0.000000
416.660490 -70.017960 0.508561 0.000000
417.877810 -69.008774 0.519354 0.000000
409.938930 -75.099777 0.478580 0.000000
412.661470 -72.671753 0.483269 0.000000
414.724270 -70.958359 0.500293 0.000000
416.329350 -69.747528 0.512783 0.000000
417.496800 -68.736008 0.523783 0.000000
402.842290 -80.618225 0.199065 0.000000
409.723820 -74.809044 0.482741 0.000000
412.465910 -72.452560 0.486001 0.000000
414.462490 -70.696365 0.504179 0.000000
416.009550 -69.467163 0.517188 0.000000
417.056820 -68.391472 0.529217 0.000000
417.200960 -68.508743 0.527389 0.000000
402.726140 -80.011063 0.221675 0.000000
409.513120 -74.517723 0.486737 0.000000
412.174770 -72.125175 0.489057 0.000000
414.206730 -70.432053 0.507500 0.000000
415.695890 -69.184937 0.520215 0.000000
416.838380 -68.221764 0.529629 0.000000
402.613770 -79.417648 0.243281 0.000000
409.377230 -74.147743 0.501252 0.000000
409.187100 -73.845161 0.506527 0.000000
411.891880 -71.795944 0.491904 0.000000
413.947270 -70.176300 0.508429 0.000000
415.378300 -68.913277 0.519224 0.000000
416.549440 -67.994812 0.528666 0.000000
408.998080 -73.546013 0.511136 0.000000
411.703280 -71.578461 0.492903 0.000000
413.693330 -69.917244 0.508877 0.000000
415.072690 -68.629532 0.518838 0.000000
416.268770 -67.759010 0.527738 0.000000
402.430790 -78.908600 0.255649 0.000000
408.561980 -73.497292 0.479302 0.000000
411.425540 -71.250267 0.493952 0.000000
413.365330 -69.563812 0.509558 0.000000
414.779240 -68.334541 0.518998 0.000000
415.930660 -67.451447 0.526720 0.000000
411.155270 -70.917587 0.494984 0.000000
413.126560 -69.293686 0.509970 0.000000
414.496520 -68.030853 0.519250 0.000000
415.607360 -67.129791 0.526316 0.000000
412.971370 -69.110939 0.510206 0.000000
414.291260 -67.797935 0.519477 0.000000
415.361330 -66.861465 0.526571 0.000000
415.182800 -66.655609 0.526806 0.000000
412.794800 -65.840889 0.505160 0.000000
413.931340 -64.999542 0.513307 0.000000
409.076840 -68.241692 0.468220 0.000000
411.135990 -66.770088 0.484074 0.000000
412.592500 -65.603912 0.494776 0.000000
413.655580 -64.637726 0.500061 0.000000
408.870850 -68.037415 0.457689 0.000000
410.815400 -66.406006 0.467691 0.000000
412.330350 -65.279175 0.480947 0.000000
413.384740 -64.267929 0.485118 0.000000
406.198360 -69.697212 0.487323 0.000000
408.668700 -67.828087 0.447350 0.000000
410.582000 -66.124474 0.455543 0.000000
412.077670 -64.944061 0.467143 0.000000
413.178130 -63.962364 0.473114 0.000000
405.984740 -69.430794 0.480033 0.000000
408.360260 -67.512833 0.430229 0.000000
410.355010 -65.835152 0.443380 0.000000
411.894040 -64.686493 0.456764 0.000000
411.775180 -64.511375 0.449890 0.000000
399.835270 -74.210274 0.274665 0.000000
405.766540 -69.165115 0.471765 0.000000
408.072720 -67.178139 0.415489 0.000000
410.131990 -65.540329 0.430987 0.000000
411.601650 -64.243965 0.439523 0.000000
399.447720 -73.892761 0.257749 0.000000
405.550020 -68.896248 0.463280 0.000000
407.875370 -66.955261 0.404256 0.000000
409.910890 -65.240044 0.417780 0.000000
399.040040 -73.580704 0.238588 0.000000
405.357820 -68.612137 0.457263 0.000000
407.679500 -66.728737 0.392833 0.000000
409.631650 -64.826622 0.401193 0.000000
404.958010 -68.046837 0.442059 0.000000
407.306000 -66.258514 0.371302 0.000000
409.431820 -64.508224 0.389117 0.000000
399.277130 -72.352997 0.299041 0.000000
404.745880 -67.766708 0.432376 0.000000
407.125180 -66.016685 0.360717 0.000000
409.254700 -64.177452 0.379456 0.000000
398.928710 -72.010086 0.283799 0.000000
404.569270 -67.467972 0.426378 0.000000
406.723110 -65.699928 0.325983 0.000000
404.492100 -67.125755 0.431296 0.000000
406.463170 -65.317467 0.310036 0.000000
398.500000 -71.702057 0.260730 0.000000
404.293790 -66.834503 0.421817 0.000000
406.389830 -65.024765 0.312302 0.000000
398.373110 -71.238205 0.265338 0.000000
404.097900 -66.539490 0.412178 0.000000
406.212130 -64.766670 0.299914 0.000000
406.106020 -64.483559 0.296648 0.000000
398.114530 -70.838783 0.257206 0.000000
403.911680 -66.238083 0.403197 0.000000
406.400300 -64.085884 0.346198 0.000000
397.842380 -70.442825 0.247368 0.000000
399.218020 -69.348320 0.386499 0.000000
403.644350 -65.777428 0.390136 0.000000
398.839840 -69.021629 0.365308 0.000000
403.426480 -65.294785 0.381696 0.000000
398.257050 -68.764397 0.325494 0.000000
402.974640 -64.688866 0.350894 0.000000
397.646970 -68.500175 0.283154 0.000000
402.758300 -64.376038 0.335913 0.000000
397.398470 -68.094498 0.272769 0.000000
402.537810 -64.059326 0.320046 0.000000
397.900150 -67.443169 0.328107 0.000000
399.148680 -66.590134 0.447947 0.000000
398.921940 -66.208786 0.437248 0.000000
398.567990 -65.857071 0.415069 0.000000
398.207030 -65.498032 0.391951 0.000000
397.846280 -65.129440 0.368517 0.000000
398.637330 -64.073090 0.450391 0.000000
403.738160 -88.442719 0.589492 0.000000
398.994690 -64.434311 0.474657 0.000000
420.093050 -72.426895 1.570793 0.000000
420.091580 -72.407433 1.860748 0.000000
420.083860 -72.420013 2.148368 0.000000
420.073060 -72.435028 2.580427 0.000000
407.146060 -64.456848 2.566510 0.000000
406.947880 -64.220299 2.565881 0.000000
420.061550 -72.453384 3.013707 0.000000
419.039370 -71.063316 3.214860 0.000000
419.268590 -71.033066 3.212978 0.000000
418.284060 -71.291161 2.954946 0.000000
407.336210 -64.690292 2.919888 0.000000
407.044590 -64.337959 2.922510 0.000000
420.000120 -72.428886 3.446036 0.000000
419.015200 -71.887093 3.548484 0.000000
419.869870 -71.207024 3.489251 0.000000
419.400270 -71.331383 3.500861 0.000000
418.427670 -71.532555 3.244264 0.000000
418.758480 -71.239784 3.225887 0.000000
420.707460 -69.128845 3.532526 0.000000
420.508580 -68.843124 3.503315 0.000000
407.327480 -64.691734 3.273328 0.000000
407.041260 -64.337631 3.279360 0.000000
410.211580 -83.631683 4.010345 0.000000
410.004550 -83.015244 3.978236 0.000000
420.245760 -74.058571 4.381253 0.000000
409.762850 -81.578438 3.902084 0.000000
419.930630 -72.417572 4.173760 0.000000
410.188870 -83.655441 4.607985 0.000000
410.016750 -82.973404 4.560298 0.000000
419.827610 -72.321129 4.454708 0.000000
403.625920 -88.494263 5.131261 0.000000
403.303890 -87.892258 5.098256 0.000000
419.663510 -83.634041 0.280597 0.000000
419.247100 -83.438660 0.280765 0.000000
418.829530 -83.268219 0.278139 0.000000
418.415250 -83.096153 0.275108 0.000000
417.998750 -82.944229 0.269650 0.000000
417.588070 -82.776649 0.265058 0.000000
416.843410 -82.207153 0.276473 0.000000
416.380100 -82.234634 0.251574 0.000000
415.963100 -82.107681 0.240715 0.000000
415.764040 -81.373497 0.288818 0.000000
420.669710 -77.858887 0.365656 0.000000
406.432130 -87.925751 -0.023166 0.000000
415.350980 -81.264282 0.275434 0.000000
420.371090 -77.591263 0.380985 0.000000
414.969210 -81.072647 0.269585 0.000000
420.051360 -77.460480 0.380429 0.000000
406.533260 -86.626862 0.051433 0.000000
419.735500 -77.322487 0.380153 0.000000
419.146240 -76.910828 0.393775 0.000000
419.448390 -77.076408 0.391817 0.000000
405.884030 -86.565926 0.017009 0.000000
414.343080 -80.386230 0.287295 0.000000
414.043210 -80.038162 0.296328 0.000000
418.543430 -76.604088 0.393351 0.000000
405.969180 -85.389931 0.082911 0.000000
413.749480 -79.692574 0.304903 0.000000
418.072020 -76.451340 0.382359 0.000000
413.435520 -79.401276 0.307498 0.000000
417.640690 -76.184448 0.383935 0.000000
405.987670 -84.372444 0.136047 0.000000
413.146060 -79.072281 0.313830 0.000000
417.315190 -76.116013 0.370906 0.000000
420.583770 -73.611267 0.461608 0.000000
412.857300 -78.753319 0.318837 0.000000
417.136320 -75.675323 0.403332 0.000000
420.070130 -73.434082 0.455776 0.000000
420.325290 -73.527641 0.458292 0.000000
412.582520 -78.419807 0.325209 0.000000
416.542540 -75.418694 0.389615 0.000000
416.811920 -75.612404 0.388575 0.000000
419.559270 -73.257347 0.447558 0.000000
416.334010 -75.098679 0.406409 0.000000
419.181030 -73.113380 0.441395 0.000000
405.092320 -82.831230 0.157567 0.000000
416.018220 -75.017242 0.392181 0.000000
418.806370 -72.961868 0.435144 0.000000
418.559480 -72.854691 0.431092 0.000000
420.548400 -71.190269 0.467854 0.000000
420.146150 -70.932480 0.478519 0.000000
406.210170 -83.122635 0.212669 0.000000
412.325010 -78.067703 0.333468 0.000000
420.096560 -72.343811 0.592518 0.000000
406.188450 -82.265732 0.254013 0.000000
412.445010 -77.117844 0.409843 0.000000
415.810880 -74.715775 0.406052 0.000000
418.398440 -72.533287 0.458151 0.000000
405.076320 -81.991859 0.197198 0.000000
411.951050 -77.177017 0.371203 0.000000
418.201390 -72.319481 0.469174 0.000000
412.116820 -76.230484 0.449352 0.000000
415.487460 -73.984367 0.450774 0.000000
417.885040 -72.064667 0.475166 0.000000
419.746370 -70.695480 0.483905 0.000000
405.110780 -81.127197 0.240666 0.000000
411.881350 -75.915230 0.454172 0.000000
415.174160 -73.600937 0.461954 0.000000
417.576540 -71.804527 0.481185 0.000000
419.455290 -70.505836 0.488761 0.000000
420.754610 -69.320091 0.498354 0.000000
404.938690 -80.538269 0.257089 0.000000
411.740780 -75.475716 0.473900 0.000000
414.875120 -73.212280 0.473560 0.000000
417.277220 -71.539207 0.487057 0.000000
419.171600 -70.309525 0.493621 0.000000
420.403380 -69.123985 0.503645 0.000000
420.577820 -69.223457 0.500979 0.000000
411.345310 -75.392982 0.449914 0.000000
414.727230 -72.882393 0.491052 0.000000
416.981630 -71.276634 0.491742 0.000000
418.803500 -70.039017 0.500149 0.000000
420.146420 -68.969589 0.507665 0.000000
404.962400 -79.747887 0.295193 0.000000
411.202760 -74.974434 0.466951 0.000000
414.451900 -72.755440 0.479399 0.000000
416.692930 -71.012459 0.495735 0.000000
418.360600 -69.686539 0.508501 0.000000
418.535060 -69.829880 0.505075 0.000000
419.812130 -68.754593 0.513210 0.000000
404.903870 -79.077370 0.321748 0.000000
410.987210 -74.660141 0.470946 0.000000
414.110470 -72.457924 0.476203 0.000000
416.412170 -70.742630 0.499898 0.000000
418.103270 -69.470551 0.512999 0.000000
419.407750 -68.472855 0.520149 0.000000
419.567440 -68.587570 0.517337 0.000000
404.848510 -78.426254 0.347085 0.000000
413.853520 -72.052116 0.488517 0.000000
416.140900 -70.467018 0.504116 0.000000
417.766200 -69.182587 0.517619 0.000000
419.173190 -68.296402 0.524362 0.000000
403.944030 -78.650826 0.275086 0.000000
410.451900 -74.169685 0.460153 0.000000
413.663060 -71.814217 0.491500 0.000000
415.877140 -70.187172 0.508353 0.000000
417.441160 -68.885803 0.522268 0.000000
418.794220 -67.993179 0.531071 0.000000
410.303340 -73.792168 0.471840 0.000000
413.301730 -71.326180 0.498575 0.000000
415.623110 -69.901886 0.512682 0.000000
417.205470 -68.657219 0.525917 0.000000
418.426420 -67.684547 0.536399 0.000000
403.900820 -77.999825 0.300126 0.000000
410.172940 -73.404449 0.485085 0.000000
413.119870 -71.089462 0.500565 0.000000
415.204190 -69.434174 0.516892 0.000000
415.376400 -69.613167 0.516963 0.000000
416.975860 -68.425995 0.529118 0.000000
418.140470 -67.433807 0.539459 0.000000
403.776370 -77.445267 0.314810 0.000000
409.966460 -73.105896 0.486060 0.000000
412.934300 -70.860001 0.501067 0.000000
415.034850 -69.253494 0.516727 0.000000
416.665010 -68.130814 0.529338 0.000000
417.853640 -67.190727 0.538994 0.000000
403.655430 -76.901077 0.328753 0.000000
409.667140 -72.654831 0.487502 0.000000
412.493800 -70.480415 0.487493 0.000000
412.823090 -70.552643 0.514282 0.000000
414.789370 -68.975868 0.516917 0.000000
416.361240 -67.832184 0.528510 0.000000
417.574580 -66.941170 0.538117 0.000000
409.474730 -72.109985 0.502466 0.000000
412.404390 -70.157730 0.502918 0.000000
414.474490 -68.597595 0.517444 0.000000
416.068540 -67.524994 0.527740 0.000000
417.305150 -66.683105 0.537361 0.000000
403.539120 -76.365639 0.342119 0.000000
409.311550 -71.787849 0.506363 0.000000
412.236940 -69.919067 0.503690 0.000000
414.246950 -68.308929 0.517877 0.000000
415.787630 -67.209084 0.527153 0.000000
416.982240 -66.349205 0.536479 0.000000
403.426880 -75.838821 0.354891 0.000000
408.889800 -71.696449 0.474153 0.000000
411.994350 -69.557457 0.504885 0.000000
414.027470 -68.016159 0.518219 0.000000
415.521510 -66.882179 0.527412 0.000000
416.614070 -65.933846 0.535657 0.000000
416.733920 -66.074402 0.535885 0.000000
411.759770 -69.192917 0.506027 0.000000
413.815220 -67.719536 0.518644 0.000000
415.267850 -66.547607 0.527880 0.000000
416.438930 -65.719994 0.535237 0.000000
413.678710 -67.519188 0.519010 0.000000
415.085050 -66.292519 0.528268 0.000000
416.216190 -65.427330 0.535316 0.000000
416.056730 -65.203056 0.535685 0.000000
413.668670 -64.251114 0.492154 0.000000
409.719090 -66.449402 0.441099 0.000000
411.932680 -65.079414 0.466652 0.000000
413.490510 -63.993370 0.481931 0.000000
409.542110 -66.219559 0.431393 0.000000
411.721340 -64.782074 0.454677 0.000000
406.323240 -67.938011 0.406264 0.000000
409.365230 -65.987793 0.421244 0.000000
411.517880 -64.477600 0.442818 0.000000
401.806340 -70.852554 0.401738 0.000000
406.098850 -67.659042 0.394211 0.000000
409.112700 -65.470482 0.414020 0.000000
411.255620 -64.063171 0.426883 0.000000
401.665410 -70.424179 0.402580 0.000000
405.868870 -67.379997 0.381056 0.000000
408.850430 -65.272705 0.390306 0.000000
401.630400 -69.944511 0.412896 0.000000
405.638850 -67.097725 0.367473 0.000000
408.690090 -65.025284 0.380651 0.000000
405.524110 -66.760368 0.367007 0.000000
408.541810 -64.614502 0.378059 0.000000
405.421230 -66.419167 0.367349 0.000000
408.361760 -64.214928 0.369963 0.000000
405.402710 -66.045120 0.376908 0.000000
408.286290 -63.932510 0.369992 0.000000
405.277530 -65.716972 0.373459 0.000000
401.057070 -68.279366 0.407129 0.000000
404.884370 -65.110237 0.348582 0.000000
400.722750 -67.944527 0.386687 0.000000
404.660580 -64.811134 0.332349 0.000000
400.371090 -67.609512 0.364297 0.000000
404.434600 -64.508339 0.315427 0.000000
400.058780 -67.252335 0.345164 0.000000
404.226010 -64.195862 0.300038 0.000000
400.748990 -66.088081 0.425245 0.000000
400.400330 -65.747993 0.401207 0.000000
400.044860 -65.401367 0.376202 0.000000
399.678860 -65.048737 0.349882 0.000000
399.869570 -64.099724 0.378711 0.000000
403.841370 -88.536903 0.587973 0.000000
420.085080 -72.344444 1.070299 0.000000
402.503140 -68.563934 0.519982 0.000000
402.455540 -68.130348 0.526603 0.000000
401.091490 -66.421967 0.448374 0.000000
420.069120 -72.361176 1.544203 0.000000
403.835140 -88.516899 1.379540 0.000000
420.057620 -72.375397 1.859414 0.000000
403.828980 -88.496933 2.169416 0.000000
420.038540 -72.403091 2.332499 0.000000
420.018220 -72.435036 2.807092 0.000000
407.043460 -64.338844 2.561924 0.000000
403.812440 -88.492477 2.958590 0.000000
410.270170 -83.323479 2.920349 0.000000
420.003020 -72.461952 3.125371 0.000000
418.249630 -71.421967 3.065641 0.000000
407.249970 -64.592323 2.954260 0.000000
406.930690 -64.206825 2.953438 0.000000
420.134830 -72.923470 3.475081 0.000000
419.986080 -72.494827 3.445911 0.000000
419.809450 -72.201874 3.425858 0.000000
418.659000 -71.710243 3.392834 0.000000
419.128330 -71.182068 3.358487 0.000000
419.400210 -71.129387 3.355075 0.000000
407.244600 -64.589882 3.344068 0.000000
407.032650 -64.334053 3.345931 0.000000
403.795140 -88.489059 3.748445 0.000000
410.263150 -83.308708 3.539784 0.000000
419.791380 -72.212059 4.058328 0.000000
420.145290 -69.649918 3.779800 0.000000
420.022890 -69.096672 3.722858 0.000000
410.255550 -83.295074 4.159834 0.000000
409.838500 -82.066917 4.090512 0.000000
420.533660 -73.448296 4.188928 0.000000
420.117370 -72.930695 4.133818 0.000000
419.947270 -72.563812 4.257337 0.000000
419.777590 -72.232391 4.379145 0.000000
420.597630 -69.542015 4.277279 0.000000
403.781950 -88.479500 4.539349 0.000000
420.593140 -73.123909 4.821064 0.000000
409.966460 -82.779602 4.747019 0.000000
403.760280 -88.482498 5.333317 0.000000
403.349000 -87.969452 5.305720 0.000000
409.835270 -87.843857 -0.067586 0.000000
419.237790 -80.244354 0.325084 0.000000
409.388980 -86.207314 0.008244 0.000000
410.101260 -86.090126 0.052634 0.000000
418.854250 -80.095627 0.320902 0.000000
418.509250 -79.826118 0.328324 0.000000
418.105470 -79.753342 0.315388 0.000000
409.716090 -84.506577 0.127175 0.000000
417.828640 -79.309128 0.339855 0.000000
417.028840 -79.151131 0.312333 0.000000
417.433840 -79.219513 0.327563 0.000000
416.005400 -78.474258 0.312819 0.000000
416.861300 -78.492050 0.358791 0.000000
410.428960 -82.278900 0.297567 0.000000
416.444640 -78.463928 0.338333 0.000000
409.925660 -82.132324 0.278265 0.000000
420.484440 -75.066132 0.430633 0.000000
415.908570 -77.740173 0.367619 0.000000
420.071780 -74.790771 0.438938 0.000000
409.728910 -81.507835 0.303320 0.000000
415.568660 -77.550201 0.363091 0.000000
419.462070 -74.630341 0.422417 0.000000
419.750210 -74.762589 0.424499 0.000000
409.584230 -80.832542 0.333688 0.000000
415.333860 -77.157013 0.380749 0.000000
409.117370 -80.642921 0.317223 0.000000
414.993500 -76.978836 0.374058 0.000000
418.618230 -74.197556 0.417575 0.000000
418.895660 -74.348404 0.418867 0.000000
414.378110 -76.508850 0.372066 0.000000
414.763760 -76.602203 0.389527 0.000000
418.346100 -74.037415 0.416980 0.000000
409.221340 -79.666458 0.378006 0.000000
418.121280 -73.775055 0.429404 0.000000
419.981080 -72.299698 0.699290 0.000000
408.937590 -79.250031 0.383961 0.000000
414.244260 -75.991531 0.403620 0.000000
417.696320 -73.587601 0.419904 0.000000
420.480800 -71.713196 0.458719 0.000000
420.137420 -71.515244 0.461053 0.000000
408.745330 -78.726265 0.400812 0.000000
413.935520 -75.090775 0.451915 0.000000
417.236760 -72.803001 0.466304 0.000000
419.720210 -71.164261 0.475897 0.000000
408.558810 -78.211670 0.416980 0.000000
413.682950 -74.812500 0.455372 0.000000
416.959590 -72.681107 0.457948 0.000000
419.400600 -70.934563 0.480890 0.000000
407.850590 -78.329666 0.366218 0.000000
413.323940 -74.690613 0.439053 0.000000
416.680150 -72.265022 0.477365 0.000000
419.091190 -70.694260 0.486482 0.000000
407.654240 -77.833794 0.379698 0.000000
413.194400 -74.248550 0.462341 0.000000
416.351100 -71.947899 0.482225 0.000000
418.789340 -70.447495 0.492282 0.000000
420.547910 -69.190498 0.500134 0.000000
407.581270 -77.214615 0.406969 0.000000
412.959050 -73.962212 0.465965 0.000000
416.075500 -71.827957 0.471506 0.000000
418.496370 -70.194405 0.498109 0.000000
420.181580 -68.935867 0.506362 0.000000
412.418610 -73.488922 0.459213 0.000000
415.928500 -71.515305 0.488839 0.000000
418.117460 -69.849434 0.505833 0.000000
419.740200 -68.601547 0.514623 0.000000
419.913570 -68.739052 0.510972 0.000000
407.390410 -76.741852 0.418539 0.000000
415.523070 -71.073387 0.495492 0.000000
417.838320 -69.591187 0.510581 0.000000
419.568240 -68.464561 0.517752 0.000000
407.350100 -76.125008 0.446769 0.000000
412.179020 -72.943581 0.478727 0.000000
415.327060 -70.848869 0.498873 0.000000
417.564790 -69.331947 0.514525 0.000000
419.316500 -68.253738 0.522606 0.000000
420.622800 -67.301559 0.533413 0.000000
407.238280 -75.599510 0.465176 0.000000
411.955440 -72.399544 0.498317 0.000000
415.003630 -70.556335 0.496287 0.000000
417.298770 -69.067169 0.518665 0.000000
418.990390 -67.965569 0.529058 0.000000
420.235780 -67.024033 0.538125 0.000000
411.525450 -72.347366 0.467267 0.000000
414.765050 -70.162880 0.509096 0.000000
416.956600 -68.706360 0.524188 0.000000
417.125150 -68.888885 0.521227 0.000000
418.593540 -67.601936 0.535526 0.000000
418.751280 -67.747086 0.533330 0.000000
419.937470 -66.790527 0.542193 0.000000
406.231050 -75.315125 0.410083 0.000000
411.363010 -72.007042 0.476491 0.000000
416.703000 -68.438187 0.526828 0.000000
418.362730 -67.379730 0.538893 0.000000
419.650360 -66.545799 0.546938 0.000000
406.095890 -74.824570 0.423662 0.000000
411.230040 -71.643890 0.489091 0.000000
414.291380 -69.616516 0.511073 0.000000
416.442960 -68.181427 0.526478 0.000000
418.049190 -67.096664 0.539155 0.000000
419.294040 -66.244827 0.549072 0.000000
411.025240 -71.357468 0.490246 0.000000
414.014190 -69.286224 0.511598 0.000000
416.189060 -67.920280 0.525834 0.000000
417.741550 -66.810059 0.538281 0.000000
418.940460 -65.945930 0.547907 0.000000
405.921940 -74.377914 0.431980 0.000000
410.824460 -71.069702 0.491294 0.000000
413.704990 -68.990059 0.504860 0.000000
415.860290 -67.564651 0.524939 0.000000
417.371120 -66.439476 0.537269 0.000000
417.517300 -66.589340 0.537688 0.000000
418.667760 -65.696754 0.547063 0.000000
405.750730 -73.936218 0.439752 0.000000
410.708590 -70.708260 0.503629 0.000000
413.485170 -68.611008 0.512496 0.000000
415.623570 -67.290031 0.524755 0.000000
417.157350 -66.210144 0.536733 0.000000
418.404210 -65.439156 0.546338 0.000000
405.582030 -73.499283 0.446979 0.000000
410.545530 -70.394707 0.508443 0.000000
413.316800 -68.381332 0.512868 0.000000
415.397160 -67.007744 0.525102 0.000000
416.881070 -65.897591 0.536042 0.000000
418.088070 -65.105827 0.545494 0.000000
405.415590 -73.066879 0.453660 0.000000
409.930540 -70.010475 0.476735 0.000000
413.072200 -68.032486 0.513492 0.000000
415.106320 -66.624496 0.525656 0.000000
416.615810 -65.576942 0.535455 0.000000
417.785920 -64.761292 0.544822 0.000000
409.769590 -69.696907 0.480155 0.000000
412.834690 -67.680267 0.514022 0.000000
414.896210 -66.332382 0.526077 0.000000
416.362850 -65.247673 0.535212 0.000000
417.555270 -64.477486 0.544317 0.000000
414.760860 -66.134895 0.526439 0.000000
416.182500 -64.994324 0.535588 0.000000
417.334660 -64.186707 0.543942 0.000000
417.175510 -63.964523 0.543716 0.000000
410.563480 -64.908524 0.426912 0.000000
410.293730 -64.555969 0.412233 0.000000
407.042970 -66.445992 0.378412 0.000000
410.043430 -64.030876 0.406481 0.000000
403.415220 -68.194153 0.481989 0.000000
406.687620 -66.217957 0.351966 0.000000
403.189150 -67.829094 0.475055 0.000000
406.359380 -65.969330 0.328500 0.000000
405.988980 -65.532356 0.306953 0.000000
405.742710 -65.037926 0.299009 0.000000
402.101990 -67.359238 0.400736 0.000000
405.834530 -64.614792 0.322453 0.000000
401.755400 -67.022636 0.381719 0.000000
405.642150 -64.296692 0.312565 0.000000
401.403500 -66.680664 0.361902 0.000000
405.530090 -63.949928 0.311347 0.000000
401.809750 -66.058601 0.411201 0.000000
401.500000 -65.701591 0.394229 0.000000
401.238560 -65.322556 0.381289 0.000000
400.949280 -64.483772 0.375191 0.000000
400.640290 -64.106422 0.356706 0.000000
403.270780 -67.326530 0.496545 0.000000
419.034910 -71.004295 3.048377 0.000000
418.247470 -71.401993 3.061679 0.000000
407.165340 -64.487305 2.595865 0.000000
406.935120 -64.209000 2.594429 0.000000
419.886780 -72.407227 3.449884 0.000000
418.687930 -71.724304 3.415861 0.000000
419.531280 -71.144974 3.377681 0.000000
419.235530 -71.174530 3.381017 0.000000
420.652620 -69.078232 3.525471 0.000000
420.508180 -68.866562 3.510853 0.000000
407.161070 -64.486702 3.020787 0.000000
406.931370 -64.208305 3.021953 0.000000
407.156860 -64.486092 3.446305 0.000000
406.928770 -64.207176 3.449998 0.000000
409.812680 -82.195862 4.085484 0.000000
409.723720 -81.406975 4.045451 0.000000
420.719390 -73.432556 4.236269 0.000000
420.033260 -72.781952 4.178807 0.000000
419.869350 -72.417130 4.144865 0.000000
420.633420 -69.678627 4.433302 0.000000
420.479950 -69.457520 4.407881 0.000000
420.640470 -71.019218 4.622824 0.000000
409.981410 -82.874641 4.767608 0.000000
420.394870 -73.458717 4.979184 0.000000
420.070010 -73.517197 4.996058 0.000000
403.551670 -88.379898 5.329882 0.000000
419.260710 -88.594696 0.236403 0.000000
418.798000 -88.090027 0.251979 0.000000
418.356200 -87.558502 0.269453 0.000000
416.682620 -85.574165 0.327640 0.000000
411.629300 -88.805389 -0.110602 0.000000
410.950870 -88.780548 -0.143334 0.000000
411.397430 -86.543060 0.014287 0.000000
