# .PCD v0.7 - Point Cloud Data file format
VERSION 0.7
FIELDS x y z intensity
SIZE 4 4 4 4
TYPE F F F F
COUNT 1 1 1 1
WIDTH 1184
HEIGHT 1
VIEWPOINT 0 0 0 1 0 0 0
POINTS 1184
DATA ascii
413.959470 202.819090 10.391294 0.000000
420.092440 202.449170 10.462577 0.000000
418.646700 202.514100 10.445868 0.000000
404.801120 204.599040 10.327772 0.000000
402.840300 204.724760 10.305074 0.000000
400.832000 204.824780 10.281922 0.000000
410.271510 204.238660 10.391131 0.000000
406.658600 204.510100 10.349173 0.000000
415.199650 203.917760 10.448196 0.000000
413.579130 204.059630 10.429309 0.000000
411.968540 204.128230 10.410782 0.000000
419.666870 203.657060 10.499824 0.000000
418.220000 203.742260 10.483100 0.000000
416.745360 203.811160 10.466116 0.000000
408.484740 204.386640 10.370334 0.000000
398.542850 204.212250 10.232157 0.000000
409.842070 203.548890 10.362388 0.000000
408.089600 203.692250 10.342031 0.000000
414.676060 203.242130 10.418194 0.000000
413.086000 203.379000 10.399695 0.000000
411.507110 203.442280 10.381614 0.000000
420.459630 202.891740 10.484896 0.000000
419.064210 202.990080 10.468748 0.000000
417.641570 203.074010 10.452349 0.000000
416.191740 203.141860 10.435707 0.000000
415.136440 202.823430 10.408667 0.000000
419.372560 202.585910 10.457705 0.000000
417.986570 202.681180 10.441587 0.000000
416.573640 202.762070 10.425224 0.000000
420.731080 202.478530 10.473564 0.000000
396.369380 203.837390 10.179957 0.000000
402.272610 203.518040 10.248746 0.000000
400.362760 203.638950 10.226415 0.000000
398.412350 203.729600 10.203752 0.000000
412.396880 202.878750 10.367119 0.000000
406.301090 203.203030 10.304271 0.000000
404.568970 203.333630 10.284111 0.000000
407.954190 203.100390 10.323416 0.000000
399.741850 203.539220 10.217581 0.000000
397.832730 203.658490 10.195230 0.000000
395.886840 203.743960 10.172608 0.000000
403.326140 203.343030 10.259419 0.000000
401.555110 203.451390 10.238696 0.000000
411.362120 202.822270 10.353579 0.000000
400.192020 203.495680 10.224576 0.000000
398.378750 203.581180 10.203433 0.000000
396.470090 203.697660 10.181064 0.000000
405.345460 203.164960 10.285045 0.000000
403.700680 203.255260 10.265812 0.000000
401.968230 203.383930 10.245408 0.000000
411.449460 202.806990 10.356521 0.000000
410.010830 202.866850 10.339781 0.000000
408.501040 202.966830 10.322052 0.000000
406.914790 203.106140 10.303277 0.000000
420.621980 202.302670 10.463783 0.000000
419.418610 202.344800 10.449815 0.000000
398.581480 203.836520 10.218582 0.000000
396.753420 203.925200 10.197628 0.000000
403.784760 203.485630 10.278644 0.000000
402.124570 203.582110 10.259546 0.000000
400.372040 203.721440 10.239226 0.000000
408.480930 203.184570 10.332785 0.000000
406.958370 203.289170 10.315202 0.000000
405.362120 203.429030 10.296639 0.000000
414.111390 202.852660 10.397573 0.000000
412.747620 202.951460 10.381803 0.000000
411.356200 203.038700 10.365770 0.000000
409.932100 203.119710 10.349396 0.000000
417.963930 202.632950 10.441874 0.000000
416.701020 202.719970 10.427288 0.000000
415.416290 202.794490 10.412510 0.000000
397.157620 205.922740 10.273720 0.000000
402.448520 205.506710 10.332089 0.000000
400.775240 205.604580 10.313738 0.000000
399.013890 205.743420 10.294305 0.000000
405.734380 205.196810 10.368504 0.000000
404.135960 205.326430 10.350858 0.000000
410.220030 204.876710 10.417886 0.000000
408.753970 204.999330 10.401689 0.000000
407.258390 205.107120 10.385221 0.000000
415.689480 204.446320 10.478226 0.000000
414.372470 204.551790 10.463690 0.000000
413.028590 204.649960 10.448889 0.000000
411.656520 204.740840 10.433806 0.000000
419.452180 204.162960 10.519695 0.000000
418.229100 204.248750 10.506236 0.000000
416.955990 204.378880 10.492095 0.000000
397.256040 208.296950 10.358492 0.000000
399.049590 208.147430 10.376926 0.000000
404.166530 207.626460 10.429732 0.000000
415.781620 206.477780 10.549521 0.000000
413.103000 206.740020 10.521902 0.000000
400.844540 207.925430 10.395538 0.000000
402.547760 207.751950 10.413115 0.000000
408.833650 207.144410 10.477911 0.000000
407.311710 207.317700 10.462164 0.000000
405.752660 207.483930 10.446058 0.000000
411.707700 206.886090 10.507494 0.000000
410.284670 207.021420 10.492830 0.000000
414.438960 206.642500 10.535604 0.000000
419.574770 206.113690 10.588616 0.000000
418.332760 206.242140 10.575795 0.000000
417.068660 206.363530 10.562766 0.000000
403.707460 210.749540 10.532386 0.000000
402.046510 210.934660 10.515697 0.000000
406.881350 210.405690 10.564271 0.000000
405.330870 210.553360 10.548703 0.000000
409.894170 210.067320 10.594543 0.000000
408.402980 210.242100 10.579557 0.000000
414.114560 209.636120 10.636932 0.000000
412.745970 209.766430 10.623190 0.000000
411.318570 209.949280 10.608839 0.000000
416.782530 209.344020 10.663736 0.000000
415.458740 209.497560 10.650434 0.000000
420.569180 208.961730 10.701767 0.000000
419.337400 209.071980 10.689402 0.000000
418.058560 209.238940 10.676542 0.000000
419.857730 186.108170 9.850903 0.000000
418.936280 186.166930 9.829477 0.000000
417.979310 186.242570 9.806694 0.000000
417.040500 186.256680 9.785042 0.000000
420.739990 186.076350 9.870734 0.000000
418.652650 188.860930 9.880950 0.000000
420.462220 188.780430 9.920061 0.000000
419.575470 188.806170 9.901249 0.000000
415.715120 187.667940 9.833933 0.000000
414.734340 187.687970 9.811385 0.000000
413.715700 187.724270 9.787441 0.000000
412.647740 187.787840 9.761676 0.000000
416.713710 187.585140 9.857472 0.000000
412.615360 186.522190 9.777795 0.000000
411.550260 186.550690 9.751948 0.000000
410.432100 186.603130 9.724203 0.000000
409.256900 186.679110 9.694456 0.000000
416.714170 190.053600 9.887674 0.000000
419.538970 189.827180 9.948574 0.000000
418.590640 189.952940 9.927725 0.000000
417.671450 189.987880 9.908458 0.000000
413.679750 188.828690 9.838634 0.000000
412.661220 188.858470 9.815479 0.000000
411.602420 188.906070 9.790876 0.000000
410.491490 188.982670 9.764404 0.000000
416.672520 188.603970 9.906661 0.000000
415.718840 188.649830 9.885627 0.000000
414.719480 188.729190 9.862857 0.000000
410.484040 187.643400 9.780550 0.000000
409.376710 187.682950 9.753978 0.000000
408.213350 187.748050 9.725455 0.000000
406.989750 187.838210 9.694870 0.000000
403.150300 186.734620 9.611354 0.000000
406.996950 186.551930 9.709453 0.000000
405.769010 186.603360 9.678541 0.000000
404.515440 186.636810 9.646856 0.000000
396.401370 186.633440 9.510438 0.000000
417.721130 190.852170 9.953933 0.000000
416.739690 190.995040 9.932849 0.000000
415.787570 191.044650 9.913288 0.000000
414.792790 191.130690 9.892081 0.000000
420.412930 190.683790 10.006988 0.000000
419.523010 190.760480 9.989452 0.000000
418.617740 190.832210 9.971403 0.000000
409.503330 189.996690 9.793393 0.000000
408.348240 190.090360 9.766432 0.000000
414.765290 189.616230 9.911117 0.000000
413.775330 189.678990 9.889694 0.000000
412.739070 189.773990 9.866584 0.000000
411.660060 189.890560 9.841982 0.000000
410.603090 189.934050 9.818432 0.000000
407.208890 188.742220 9.755640 0.000000
405.997040 188.825590 9.726508 0.000000
404.716090 188.941560 9.695070 0.000000
408.360320 188.687230 9.782732 0.000000
400.727630 187.835270 9.609331 0.000000
404.742610 187.595760 9.709748 0.000000
403.459140 187.668240 9.678029 0.000000
402.151370 187.718630 9.645601 0.000000
400.107540 187.143650 9.600343 0.000000
399.419220 186.514980 9.588708 0.000000
417.359010 190.879610 9.957265 0.000000
416.472470 190.877690 9.939590 0.000000
415.498410 191.005340 9.918146 0.000000
414.553010 191.042020 9.898165 0.000000
413.568360 191.110410 9.876652 0.000000
419.996700 190.733570 10.010117 0.000000
419.141850 190.764140 9.993509 0.000000
418.257690 190.824540 9.975640 0.000000
407.224000 189.941100 9.749262 0.000000
413.549410 189.582280 9.895362 0.000000
412.570430 189.628520 9.873630 0.000000
411.547030 189.705470 9.850248 0.000000
410.481870 189.803910 9.825374 0.000000
409.439880 189.829070 9.801565 0.000000
408.356870 189.872380 9.776295 0.000000
403.667570 188.724810 9.677081 0.000000
407.247220 188.528760 9.765325 0.000000
406.115390 188.565000 9.738023 0.000000
404.922420 188.632020 9.708601 0.000000
401.173550 187.450300 9.627334 0.000000
399.785920 187.540310 9.591163 0.000000
403.704530 187.374540 9.691499 0.000000
402.448460 187.425380 9.659697 0.000000
399.186220 186.838990 9.581999 0.000000
398.520780 186.199390 9.570240 0.000000
420.264470 191.026470 9.954714 0.000000
419.300870 189.453540 9.955529 0.000000
418.500340 189.424440 9.937825 0.000000
417.676820 189.418150 9.919001 0.000000
416.842070 189.406750 9.899699 0.000000
416.019530 189.344820 9.881074 0.000000
415.118800 189.401490 9.858726 0.000000
414.246220 189.374980 9.837851 0.000000
413.342290 189.373080 9.815595 0.000000
413.323610 187.910610 9.833529 0.000000
412.426910 187.892320 9.811070 0.000000
411.494480 187.897920 9.787113 0.000000
410.529420 187.918490 9.761837 0.000000
409.589260 187.870700 9.737719 0.000000
408.613980 187.840030 9.712171 0.000000
407.596920 187.831440 9.684946 0.000000
407.618470 186.494950 9.700316 0.000000
406.604770 186.460310 9.672852 0.000000
405.543330 186.447800 9.643525 0.000000
404.431550 186.455890 9.612263 0.000000
420.153200 190.175570 9.930338 0.000000
419.381380 190.120440 9.912380 0.000000
418.465790 188.521240 9.912275 0.000000
417.702510 188.453030 9.893879 0.000000
416.920320 188.403230 9.874469 0.000000
416.129060 188.348570 9.854611 0.000000
415.349950 188.247830 9.835415 0.000000
414.500670 188.255020 9.812634 0.000000
413.678650 188.185380 9.791310 0.000000
412.830570 188.135790 9.768731 0.000000
412.813960 186.716960 9.786255 0.000000
411.976170 186.651730 9.763587 0.000000
411.108700 186.605800 9.739560 0.000000
410.209840 186.578000 9.714128 0.000000
409.336300 186.485750 9.689908 0.000000
408.431760 186.409590 9.664302 0.000000
407.492220 186.351260 9.637161 0.000000
420.428650 190.242980 9.955306 0.000000
419.670010 190.196720 9.938303 0.000000
418.904510 190.147540 9.920900 0.000000
418.132810 190.092670 9.903151 0.000000
417.217160 188.494290 9.903104 0.000000
416.452850 188.428740 9.884849 0.000000
415.668640 188.383510 9.865538 0.000000
414.874110 188.335400 9.845722 0.000000
414.093110 188.238110 9.826635 0.000000
413.241910 188.248550 9.803999 0.000000
412.417910 188.181880 9.782806 0.000000
411.567630 188.135510 9.760356 0.000000
411.553890 186.711240 9.777866 0.000000
410.714260 186.648440 9.755343 0.000000
409.844760 186.605130 9.731463 0.000000
408.943630 186.579990 9.706184 0.000000
408.067810 186.490230 9.682101 0.000000
407.160830 186.416640 9.656637 0.000000
406.218510 186.361050 9.629641 0.000000
420.736150 190.144170 9.964056 0.000000
419.992710 190.105120 9.947860 0.000000
419.242890 190.064300 9.931269 0.000000
418.486850 190.019730 9.914312 0.000000
417.725100 189.969330 9.897029 0.000000
416.956330 189.915470 9.879348 0.000000
416.041230 188.331480 9.879333 0.000000
415.277370 188.271790 9.861022 0.000000
414.493960 188.231220 9.841679 0.000000
413.701140 188.185760 9.821883 0.000000
412.921570 188.091450 9.802813 0.000000
412.072020 188.104370 9.780190 0.000000
411.249480 188.040370 9.759017 0.000000
410.402740 187.993010 9.736689 0.000000
410.387240 186.576860 9.754240 0.000000
409.548580 186.517120 9.731721 0.000000
408.679840 186.477020 9.707834 0.000000
407.779510 186.454940 9.682550 0.000000
406.904140 186.368590 9.658459 0.000000
405.996890 186.299210 9.632955 0.000000
405.051540 186.251190 9.605797 0.000000
420.464690 189.506230 9.942703 0.000000
419.745450 189.449830 9.927388 0.000000
419.017210 189.404020 9.911432 0.000000
418.283260 189.355530 9.895117 0.000000
417.543120 189.304790 9.878418 0.000000
416.796480 189.251270 9.861335 0.000000
416.043090 189.194350 9.843864 0.000000
415.135680 187.658330 9.844150 0.000000
414.386960 187.595840 9.826061 0.000000
413.619450 187.551770 9.806953 0.000000
412.842830 187.502930 9.787406 0.000000
412.079280 187.406340 9.768606 0.000000
411.249790 187.410400 9.746362 0.000000
410.446590 187.340070 9.725578 0.000000
409.618130 187.289120 9.703561 0.000000
420.140810 188.765790 9.922851 0.000000
419.433040 188.738620 9.907284 0.000000
418.729980 188.675610 9.892153 0.000000
418.017640 188.625470 9.876330 0.000000
417.299590 188.573670 9.860135 0.000000
416.575620 188.519700 9.843568 0.000000
415.844970 188.464070 9.826596 0.000000
415.106870 188.407710 9.809184 0.000000
414.210110 186.919330 9.809713 0.000000
413.477690 186.854350 9.791779 0.000000
412.727840 186.805740 9.772873 0.000000
411.970460 186.750180 9.753607 0.000000
411.225680 186.648800 9.735095 0.000000
410.415860 186.647350 9.713073 0.000000
409.631380 186.574140 9.692522 0.000000
408.822600 186.519620 9.670753 0.000000
420.493900 187.762360 9.901339 0.000000
419.808200 187.766540 9.886383 0.000000
419.149600 187.644970 9.874047 0.000000
417.778900 187.559880 9.844567 0.000000
417.086610 187.512760 9.829365 0.000000
416.388730 187.464020 9.813804 0.000000
415.684390 187.414890 9.797837 0.000000
414.973360 187.364490 9.781471 0.000000
414.255920 187.310850 9.764744 0.000000
409.575590 210.905330 10.621722 0.000000
401.413150 210.174850 10.483256 0.000000
400.188630 210.077530 10.462522 0.000000
396.411500 209.774900 10.398556 0.000000
408.438780 210.815570 10.602474 0.000000
407.292850 210.722410 10.583064 0.000000
406.137330 210.624950 10.563480 0.000000
404.974980 210.514500 10.543743 0.000000
403.803280 210.396790 10.523828 0.000000
402.606900 210.305270 10.503579 0.000000
398.950500 209.972640 10.441537 0.000000
397.698700 209.859070 10.420297 0.000000
420.168240 186.749470 9.862516 0.000000
419.518460 186.699770 9.849657 0.000000
418.852020 186.704160 9.835123 0.000000
418.211060 186.589630 9.823240 0.000000
416.878020 186.509630 9.794673 0.000000
416.204590 186.465550 9.779936 0.000000
415.524750 186.422470 9.764780 0.000000
414.838870 186.377840 9.749259 0.000000
414.146910 186.330600 9.733389 0.000000
413.449370 186.278350 9.717222 0.000000
420.717990 209.301820 10.711626 0.000000
418.656620 209.129640 10.677011 0.000000
417.620420 209.055080 10.659629 0.000000
416.582460 208.970860 10.642202 0.000000
415.541140 208.883640 10.624716 0.000000
414.496730 208.789900 10.607168 0.000000
413.443820 208.710300 10.589500 0.000000
412.389560 208.612400 10.571781 0.000000
411.324250 208.531040 10.553905 0.000000
409.178530 208.340870 10.517857 0.000000
408.089450 208.255860 10.499578 0.000000
406.990780 208.169850 10.481136 0.000000
405.883120 208.078920 10.462539 0.000000
404.768250 207.976850 10.443805 0.000000
403.643830 207.869000 10.424902 0.000000
402.495300 207.786710 10.405636 0.000000
401.349670 207.665850 10.386360 0.000000
400.177090 207.571110 10.366674 0.000000
398.991520 207.469190 10.346762 0.000000
397.791840 207.360890 10.326604 0.000000
396.555050 207.286530 10.305880 0.000000
420.703190 206.964310 10.635939 0.000000
413.750090 206.391820 10.520386 0.000000
409.683320 206.048610 10.452799 0.000000
406.551060 205.797320 10.400744 0.000000
403.340850 205.508900 10.347390 0.000000
401.137020 205.321410 10.310763 0.000000
400.010310 205.234420 10.292040 0.000000
398.871000 205.140470 10.273106 0.000000
397.718990 205.038480 10.253959 0.000000
396.533970 204.964250 10.234269 0.000000
419.716640 206.883450 10.619544 0.000000
418.728850 206.802250 10.603128 0.000000
417.739320 206.720400 10.586682 0.000000
416.745760 206.647160 10.570172 0.000000
415.750270 206.566350 10.553629 0.000000
414.752080 206.480130 10.537039 0.000000
412.739810 206.317260 10.503598 0.000000
410.706180 206.147770 10.469801 0.000000
408.647400 205.967500 10.435584 0.000000
407.603390 205.883960 10.418234 0.000000
404.420750 205.608780 10.365339 0.000000
402.237550 205.433850 10.329058 0.000000
418.628780 205.548320 10.551492 0.000000
417.665410 205.460170 10.535041 0.000000
406.835270 204.470870 10.350090 0.000000
405.812770 204.377790 10.332628 0.000000
420.553410 205.723910 10.584361 0.000000
419.591250 205.636140 10.567929 0.000000
416.700620 205.371460 10.518565 0.000000
415.732570 205.289370 10.502029 0.000000
414.764040 205.194430 10.485494 0.000000
413.792080 205.100860 10.468898 0.000000
412.816220 205.007740 10.452235 0.000000
411.832760 204.927280 10.435434 0.000000
410.848020 204.830290 10.418622 0.000000
409.853390 204.748260 10.401631 0.000000
407.850460 204.559230 10.367430 0.000000
404.784060 204.275740 10.315065 0.000000
403.747010 204.169140 10.297363 0.000000
401.630160 203.977520 10.261210 0.000000
400.563140 203.858660 10.243002 0.000000
399.471500 203.763640 10.224357 0.000000
398.368010 203.661960 10.205513 0.000000
397.252560 203.552540 10.186468 0.000000
396.107120 203.467090 10.166896 0.000000
420.336270 204.765170 10.549549 0.000000
419.391850 204.679020 10.533402 0.000000
418.447630 204.592970 10.517261 0.000000
417.503110 204.506870 10.501114 0.000000
416.557740 204.420440 10.484952 0.000000
415.611180 204.332230 10.468771 0.000000
414.662320 204.245330 10.452551 0.000000
413.712130 204.151490 10.436315 0.000000
412.759060 204.057010 10.420030 0.000000
410.837250 203.884550 10.387172 0.000000
409.871400 203.788390 10.370669 0.000000
408.895940 203.706790 10.353984 0.000000
407.919770 203.604750 10.337312 0.000000
406.931640 203.519200 10.320413 0.000000
405.936310 203.430850 10.303393 0.000000
404.934660 203.335750 10.286274 0.000000
403.925110 203.237000 10.269023 0.000000
401.880620 203.026490 10.234099 0.000000
400.830720 202.945980 10.216132 0.000000
399.783420 202.830660 10.198252 0.000000
398.711910 202.738820 10.179926 0.000000
397.628690 202.640430 10.161407 0.000000
396.533690 202.534480 10.142694 0.000000
413.321690 204.811020 10.454606 0.000000
411.357570 204.813030 10.427613 0.000000
410.365720 204.810850 10.413987 0.000000
409.360530 204.831120 10.400146 0.000000
408.353150 204.824620 10.386312 0.000000
407.329680 204.842820 10.372223 0.000000
405.262600 204.838580 10.343823 0.000000
404.209590 204.843720 10.329347 0.000000
403.143100 204.850910 10.314682 0.000000
402.064450 204.854030 10.299855 0.000000
399.869290 204.844700 10.269703 0.000000
420.044430 204.777880 10.547032 0.000000
419.094060 204.782590 10.533967 0.000000
418.141360 204.787340 10.520868 0.000000
417.185730 204.791950 10.507730 0.000000
416.226620 204.796300 10.494544 0.000000
415.263850 204.796890 10.481314 0.000000
412.342710 204.812960 10.441151 0.000000
400.973270 204.852230 10.284863 0.000000
397.548710 207.482930 10.328869 0.000000
396.293270 207.658230 10.316296 0.000000
399.947510 207.238530 10.352767 0.000000
398.758640 207.360630 10.340921 0.000000
404.525600 206.713810 10.398458 0.000000
407.771030 206.377140 10.430799 0.000000
406.706300 206.478040 10.420202 0.000000
405.616880 206.619050 10.409307 0.000000
410.902310 206.025100 10.462041 0.000000
409.872560 206.132220 10.451778 0.000000
408.832030 206.237320 10.441414 0.000000
413.935670 205.670090 10.492325 0.000000
411.921720 205.916580 10.472203 0.000000
416.885960 205.352570 10.521741 0.000000
415.909760 205.459520 10.512005 0.000000
414.926910 205.562130 10.502210 0.000000
419.777440 205.034360 10.550580 0.000000
418.819150 205.139890 10.541022 0.000000
417.855530 205.245970 10.531411 0.000000
402.051970 207.203260 10.385500 0.000000
400.902740 207.354840 10.374863 0.000000
404.286250 206.938890 10.406136 0.000000
403.183620 207.049900 10.395980 0.000000
411.665950 205.986570 10.474410 0.000000
410.644900 206.141540 10.464930 0.000000
409.618190 206.264950 10.455444 0.000000
414.657140 205.616620 10.502060 0.000000
413.668700 205.739960 10.492922 0.000000
412.671840 205.863370 10.483706 0.000000
417.577640 205.258970 10.529052 0.000000
416.610630 205.379580 10.520111 0.000000
420.446040 204.914440 10.555552 0.000000
419.494690 205.019960 10.546775 0.000000
418.538790 205.139070 10.537938 0.000000
398.477810 207.487120 10.339052 0.000000
403.014160 206.972810 10.383454 0.000000
407.302520 206.467250 10.425457 0.000000
406.254120 206.577260 10.415208 0.000000
410.387600 206.101670 10.455676 0.000000
409.366240 206.244690 10.445640 0.000000
417.274320 205.324980 10.523077 0.000000
415.340640 205.541870 10.504154 0.000000
419.188660 205.120040 10.541798 0.000000
401.914120 207.072330 10.372724 0.000000
405.184570 206.723690 10.404703 0.000000
404.111630 206.828900 10.394225 0.000000
408.339600 206.356660 10.435597 0.000000
414.365110 205.650570 10.494609 0.000000
416.310150 205.434330 10.513640 0.000000
420.140290 205.010890 10.551114 0.000000
418.233580 205.216340 10.532467 0.000000
404.939060 186.115140 9.610763 0.000000
404.215420 186.158740 9.597436 0.000000
403.482180 186.198380 9.583775 0.000000
395.963040 207.910980 10.322257 0.000000
397.151090 207.775380 10.333781 0.000000
400.606140 207.356060 10.367329 0.000000
406.019650 206.762420 10.419806 0.000000
409.120570 206.401920 10.449894 0.000000
408.094240 206.541020 10.439909 0.000000
407.062620 206.650190 10.429914 0.000000
412.131160 206.072480 10.479077 0.000000
411.135740 206.183000 10.469426 0.000000
410.132390 206.292910 10.459700 0.000000
415.075810 205.742900 10.507631 0.000000
414.100590 205.852140 10.498174 0.000000
413.119260 205.962110 10.488658 0.000000
418.928560 205.327580 10.544970 0.000000
419.882870 205.220000 10.554224 0.000000
404.959260 186.309880 9.623148 0.000000
404.247960 186.359990 9.610261 0.000000
403.527130 186.408070 9.597007 0.000000
402.797270 186.451570 9.583442 0.000000
402.057620 186.491390 9.569529 0.000000
407.704320 186.147030 9.669773 0.000000
406.373320 186.139250 9.649575 0.000000
405.661380 186.258240 9.635667 0.000000
408.374050 186.094800 9.680816 0.000000
396.777010 208.322600 10.341752 0.000000
400.217040 207.913850 10.375697 0.000000
399.097110 208.017880 10.364677 0.000000
397.946110 208.170590 10.353303 0.000000
403.514680 207.504320 10.408256 0.000000
409.759490 206.781020 10.469857 0.000000
408.744630 206.894850 10.459850 0.000000
412.757690 206.440280 10.499426 0.000000
411.765410 206.553530 10.489639 0.000000
410.766240 206.667180 10.479786 0.000000
415.699620 206.103580 10.528442 0.000000
413.743740 206.327550 10.509151 0.000000
418.602570 205.777330 10.557067 0.000000
417.638310 205.890180 10.547554 0.000000
416.670780 206.003690 10.538008 0.000000
420.523960 205.553280 10.576022 0.000000
419.564270 205.665070 10.566555 0.000000
400.695560 188.972020 9.624908 0.000000
406.659060 188.564700 9.727043 0.000000
405.962770 188.543090 9.717338 0.000000
405.233310 188.628480 9.704836 0.000000
404.506470 188.669800 9.692950 0.000000
403.764160 188.734250 9.680124 0.000000
403.012210 188.797240 9.666907 0.000000
402.250370 188.858250 9.653299 0.000000
401.478240 188.916700 9.639299 0.000000
412.151000 188.103240 9.806687 0.000000
411.483460 188.154220 9.797990 0.000000
410.811920 188.204090 9.789015 0.000000
410.136230 188.251650 9.779783 0.000000
409.453280 188.315050 9.769896 0.000000
408.767210 188.362400 9.760029 0.000000
418.043700 187.660640 9.872185 0.000000
417.394130 187.708110 9.865986 0.000000
416.744230 187.755720 9.859533 0.000000
416.093600 187.803540 9.852821 0.000000
415.441830 187.849610 9.845885 0.000000
414.788540 187.899900 9.838604 0.000000
414.133240 187.950470 9.831047 0.000000
413.475460 188.001250 9.823213 0.000000
412.814850 188.052190 9.815094 0.000000
397.272860 187.810680 9.583690 0.000000
396.455960 187.825670 9.567755 0.000000
420.646420 187.469710 9.894554 0.000000
419.994320 187.517900 9.889316 0.000000
419.343410 187.565670 9.883845 0.000000
418.693300 187.613190 9.878137 0.000000
400.475830 187.578430 9.646559 0.000000
399.690370 187.650190 9.631278 0.000000
398.906220 187.686980 9.616385 0.000000
398.096130 187.751070 9.600257 0.000000
403.809420 187.872890 9.663220 0.000000
403.085720 187.936400 9.650788 0.000000
402.352810 187.998520 9.637980 0.000000
401.610320 188.058720 9.624797 0.000000
400.858180 188.115840 9.611253 0.000000
400.096710 188.167710 9.597392 0.000000
411.271240 187.311680 9.773374 0.000000
410.619290 187.359620 9.765008 0.000000
409.963590 187.407350 9.756355 0.000000
408.636990 187.517240 9.737829 0.000000
407.967190 187.564440 9.728272 0.000000
407.292080 187.610580 9.718418 0.000000
406.611300 187.655360 9.708265 0.000000
405.910060 187.764850 9.696252 0.000000
405.229520 187.748170 9.686855 0.000000
413.208440 187.165160 9.796854 0.000000
412.565400 187.215300 9.789273 0.000000
411.919800 187.263660 9.781458 0.000000
420.222530 186.640430 9.863043 0.000000
399.862880 186.836910 9.619339 0.000000
399.097530 186.907590 9.604517 0.000000
398.333220 186.944500 9.590104 0.000000
397.544100 187.007810 9.574471 0.000000
396.742220 187.066770 9.558420 0.000000
395.944730 187.085710 9.542936 0.000000
417.033360 186.872960 9.836730 0.000000
416.397740 186.920270 9.830737 0.000000
415.761990 186.969240 9.824466 0.000000
415.125610 187.019640 9.817916 0.000000
414.488070 187.065550 9.811208 0.000000
413.849210 187.115230 9.804164 0.000000
419.581240 186.682560 9.858336 0.000000
418.942720 186.730650 9.853278 0.000000
418.305510 186.778290 9.847996 0.000000
417.669160 186.825680 9.842481 0.000000
404.148710 210.776540 10.532731 0.000000
403.040990 210.906880 10.522363 0.000000
417.810420 209.020940 10.660476 0.000000
416.791720 209.154940 10.650952 0.000000
401.920990 211.040240 10.511881 0.000000
405.245820 210.644850 10.542997 0.000000
415.769990 209.289320 10.641402 0.000000
414.744450 209.405940 10.631799 0.000000
413.715180 209.534210 10.622171 0.000000
418.826750 208.887510 10.669977 0.000000
401.860050 187.843690 9.633435 0.000000
401.129580 187.904740 9.620658 0.000000
400.390320 187.961760 9.607561 0.000000
399.641360 188.016330 9.594093 0.000000
398.882350 188.067840 9.580254 0.000000
408.060210 187.359500 9.730102 0.000000
407.395540 187.421650 9.720521 0.000000
406.727780 187.468550 9.710972 0.000000
406.054600 187.515200 9.701109 0.000000
405.375400 187.562530 9.690901 0.000000
404.675960 187.673000 9.678853 0.000000
403.997340 187.656600 9.669468 0.000000
402.581510 187.780520 9.645856 0.000000
410.021820 187.217270 9.756046 0.000000
409.371860 187.264920 9.747685 0.000000
408.718110 187.312410 9.739038 0.000000
420.231020 186.452510 9.854756 0.000000
398.646420 186.747680 9.602251 0.000000
397.883450 186.818010 9.587445 0.000000
397.121520 186.854640 9.573056 0.000000
396.334410 186.918590 9.557417 0.000000
414.499690 186.882420 9.807020 0.000000
413.865050 186.932540 9.800467 0.000000
413.229280 186.978240 9.793755 0.000000
412.592130 187.027080 9.786722 0.000000
411.953220 187.074390 9.779461 0.000000
419.588070 186.501800 9.850355 0.000000
418.947390 186.549970 9.845747 0.000000
418.307890 186.591840 9.841033 0.000000
417.671170 186.639660 9.835969 0.000000
417.035710 186.687040 9.830681 0.000000
416.401150 186.734180 9.825160 0.000000
415.767330 186.782680 9.819375 0.000000
415.133670 186.832490 9.813321 0.000000
400.735900 210.721770 10.487084 0.000000
408.315430 209.759090 10.558376 0.000000
399.600710 210.895600 10.476426 0.000000
398.460510 211.028200 10.465694 0.000000
404.042570 210.325560 10.518202 0.000000
402.951810 210.455690 10.507937 0.000000
401.850160 210.586040 10.497569 0.000000
407.260890 209.896390 10.548460 0.000000
406.198090 210.033770 10.538465 0.000000
405.127170 210.165160 10.528389 0.000000
412.464540 209.231140 10.597402 0.000000
418.558720 208.463790 10.654728 0.000000
417.549410 208.596650 10.645237 0.000000
416.538360 208.729920 10.635731 0.000000
420.576630 208.213060 10.673712 0.000000
419.567750 208.337690 10.664220 0.000000
404.110470 187.798290 9.677462 0.000000
403.406620 187.910600 9.665363 0.000000
402.723750 187.894820 9.655944 0.000000
402.034820 187.882780 9.646104 0.000000
401.298860 188.021550 9.632233 0.000000
400.573240 188.084300 9.619803 0.000000
399.838620 188.144840 9.607019 0.000000
399.094510 188.203430 9.593861 0.000000
398.340580 188.259570 9.580327 0.000000
410.083010 187.342190 9.758865 0.000000
409.435700 187.390870 9.751043 0.000000
408.785400 187.439650 9.742941 0.000000
408.131680 187.488340 9.734556 0.000000
407.474150 187.536850 9.725886 0.000000
406.812440 187.584980 9.716927 0.000000
406.143770 187.648930 9.707302 0.000000
405.471560 187.699860 9.697655 0.000000
404.793910 187.749730 9.687709 0.000000
416.476100 186.847630 9.823041 0.000000
411.370180 187.245350 9.773688 0.000000
410.727690 187.293670 9.766413 0.000000
420.362300 186.604520 9.848979 0.000000
419.697360 186.603380 9.846044 0.000000
419.048650 186.655330 9.841845 0.000000
418.402530 186.705870 9.837442 0.000000
417.758760 186.755310 9.832830 0.000000
417.116060 186.798540 9.828111 0.000000
395.804170 187.093720 9.559133 0.000000
415.837590 186.897420 9.817722 0.000000
415.200010 186.948390 9.812141 0.000000
414.562840 186.999280 9.806321 0.000000
413.925780 187.050230 9.800259 0.000000
413.288360 187.101290 9.793946 0.000000
402.750610 210.816040 10.511577 0.000000
401.649750 210.955980 10.501300 0.000000
407.057860 210.239840 10.551766 0.000000
405.994660 210.381930 10.541845 0.000000
404.923890 210.516530 10.531848 0.000000
410.203520 209.816440 10.581115 0.000000
409.161620 209.956940 10.571395 0.000000
408.113310 210.098110 10.561614 0.000000
411.239690 209.682010 10.590786 0.000000
415.343200 209.170180 10.629102 0.000000
420.424620 208.505330 10.676526 0.000000
419.408600 208.632840 10.667040 0.000000
396.553770 189.543180 9.597505 0.000000
398.909610 189.195590 9.633826 0.000000
398.136510 189.313110 9.622108 0.000000
397.351380 189.429140 9.610003 0.000000
402.600920 188.642750 9.685736 0.000000
401.869960 188.810680 9.674799 0.000000
405.387760 188.227810 9.720329 0.000000
404.699830 188.347780 9.711812 0.000000
404.007660 188.446900 9.703430 0.000000
403.308140 188.545320 9.694738 0.000000
408.722600 187.748200 9.755813 0.000000
408.065890 187.842830 9.749318 0.000000
407.404510 187.937880 9.742535 0.000000
406.738070 188.033200 9.735457 0.000000
406.066010 188.129320 9.728069 0.000000
411.311610 187.383150 9.778797 0.000000
410.669040 187.467390 9.773593 0.000000
410.023740 187.560440 9.767946 0.000000
409.375060 187.654040 9.762020 0.000000
412.589200 187.197070 9.788797 0.000000
411.951510 187.289950 9.783928 0.000000
417.658480 186.453700 9.818843 0.000000
419.567080 186.160980 9.826377 0.000000
418.943420 186.317670 9.822928 0.000000
418.294070 186.361050 9.821499 0.000000
414.492680 186.914790 9.801975 0.000000
417.024080 186.545290 9.815968 0.000000
416.390500 186.636030 9.812866 0.000000
415.757600 186.727220 9.809514 0.000000
415.125270 186.821040 9.805865 0.000000
408.849180 210.630420 10.593463 0.000000
410.941440 210.125950 10.605139 0.000000
409.899840 210.377040 10.599326 0.000000
411.975740 209.908690 10.610945 0.000000
414.022550 209.430190 10.622383 0.000000
413.002440 209.668460 10.616682 0.000000
418.049260 208.479200 10.644876 0.000000
399.069370 188.700850 9.621442 0.000000
398.342830 188.752900 9.609995 0.000000
397.600520 188.828830 9.597581 0.000000
396.848330 188.903410 9.584782 0.000000
396.085210 188.978440 9.571540 0.000000
403.286830 188.298610 9.684564 0.000000
402.601870 188.361620 9.674996 0.000000
401.910950 188.423630 9.665122 0.000000
401.213750 188.484360 9.654938 0.000000
400.495060 188.611600 9.642870 0.000000
399.798160 188.604460 9.633545 0.000000
408.599150 187.786560 9.750344 0.000000
407.947660 187.846480 9.743206 0.000000
407.293580 187.906680 9.735790 0.000000
406.636470 187.967100 9.728092 0.000000
405.975830 188.028700 9.720084 0.000000
413.764710 187.306720 9.798178 0.000000
413.120120 187.368990 9.793023 0.000000
412.475950 187.431090 9.787629 0.000000
411.831790 187.492000 9.782012 0.000000
411.187290 187.551820 9.776169 0.000000
410.542180 187.611850 9.770071 0.000000
409.896030 187.672120 9.763713 0.000000
409.248410 187.726940 9.757209 0.000000
418.322110 186.860370 9.827765 0.000000
417.678800 186.988300 9.823022 0.000000
417.009700 186.997710 9.820311 0.000000
416.356570 187.060330 9.816342 0.000000
415.706050 187.123140 9.812136 0.000000
414.410130 187.244050 9.803098 0.000000
420.332610 186.695940 9.836373 0.000000
419.658420 186.753910 9.833682 0.000000
418.967860 186.735900 9.832198 0.000000
407.419650 211.066070 10.579913 0.000000
410.574680 210.575880 10.606975 0.000000
409.528320 210.728040 10.597987 0.000000
408.477020 210.896500 10.588977 0.000000
413.688660 210.091920 10.633682 0.000000
412.653930 210.249790 10.624804 0.000000
415.751370 209.777860 10.651382 0.000000
414.720920 209.934690 10.642540 0.000000
417.807190 209.451570 10.669006 0.000000
416.779720 209.614930 10.660198 0.000000
407.185760 187.766970 9.732560 0.000000
406.535950 187.783110 9.724208 0.000000
405.885010 187.800900 9.715559 0.000000
405.232450 187.819980 9.706615 0.000000
404.577940 187.839020 9.697398 0.000000
403.921080 187.857940 9.687903 0.000000
403.261470 187.876530 9.678127 0.000000
402.598750 187.894650 9.668066 0.000000
401.930730 187.924610 9.657433 0.000000
401.260220 187.942230 9.646765 0.000000
400.586030 187.955990 9.635865 0.000000
399.907320 187.968320 9.624672 0.000000
399.210210 188.041600 9.611683 0.000000
398.535310 187.987320 9.601397 0.000000
397.130710 188.037280 9.575918 0.000000
396.417420 188.061650 9.562610 0.000000
420.579830 187.420060 9.850939 0.000000
419.863770 187.436330 9.847142 0.000000
419.154820 187.450350 9.843166 0.000000
418.452730 187.462680 9.839004 0.000000
417.736210 187.399080 9.836010 0.000000
415.713170 187.533490 9.819797 0.000000
415.042420 187.557020 9.814341 0.000000
414.375460 187.579040 9.808694 0.000000
413.711880 187.599790 9.802850 0.000000
413.050050 187.610750 9.796970 0.000000
412.392640 187.630950 9.790690 0.000000
411.737520 187.650020 9.784206 0.000000
411.084170 187.667140 9.777532 0.000000
410.432530 187.684080 9.770628 0.000000
402.834930 211.034590 10.516558 0.000000
412.312100 210.535370 10.630171 0.000000
407.066010 210.822110 10.567291 0.000000
404.956970 210.932080 10.542006 0.000000
403.897920 210.983340 10.529306 0.000000
419.723240 210.155610 10.719028 0.000000
418.653900 210.217410 10.706215 0.000000
417.589080 210.277270 10.693454 0.000000
416.526550 210.324330 10.680706 0.000000
415.469390 210.381130 10.668035 0.000000
413.362460 210.484330 10.642768 0.000000
406.012760 210.880690 10.554668 0.000000
414.414700 210.432980 10.655387 0.000000
420.697110 187.637500 9.849168 0.000000
419.957310 187.649280 9.845267 0.000000
419.225560 187.657680 9.841209 0.000000
417.076350 187.668270 9.828020 0.000000
415.679380 187.669570 9.818283 0.000000
415.010070 187.749770 9.811650 0.000000
414.315490 187.705370 9.807075 0.000000
410.974520 187.752590 9.776078 0.000000
410.316220 187.760160 9.769258 0.000000
409.660280 187.767380 9.762222 0.000000
409.006410 187.774370 9.754964 0.000000
408.354160 187.781300 9.747478 0.000000
407.703160 187.788210 9.739757 0.000000
407.052980 187.795240 9.731796 0.000000
406.403260 187.802550 9.723588 0.000000
405.753570 187.810440 9.715120 0.000000
405.103450 187.819270 9.706381 0.000000
404.452510 187.828230 9.697379 0.000000
403.800380 187.837230 9.688112 0.000000
403.146640 187.846190 9.678576 0.000000
402.490840 187.854980 9.668765 0.000000
401.832670 187.863460 9.658676 0.000000
401.171840 187.870930 9.648318 0.000000
400.506530 187.886670 9.637469 0.000000
399.839080 187.891630 9.626558 0.000000
399.167880 187.895400 9.615356 0.000000
398.492520 187.897740 9.603865 0.000000
397.799350 187.959930 9.590597 0.000000
397.128600 187.895480 9.580031 0.000000
416.353420 187.594270 9.824597 0.000000
400.332460 211.067020 10.482973 0.000000
419.446780 210.498700 10.728221 0.000000
414.066530 210.660960 10.659191 0.000000
411.945560 210.715820 10.631969 0.000000
410.890080 210.749940 10.618430 0.000000
407.732150 210.854020 10.577923 0.000000
420.545100 210.477770 10.742326 0.000000
413.004390 210.688660 10.645560 0.000000
409.836460 210.784530 10.604915 0.000000
408.784030 210.819180 10.591415 0.000000
406.680110 210.886780 10.564426 0.000000
405.627410 210.918140 10.550920 0.000000
404.573520 210.945070 10.537393 0.000000
403.517850 210.972180 10.523843 0.000000
401.398070 211.033630 10.496643 0.000000
419.281980 187.702940 9.832083 0.000000
418.542080 187.717350 9.828208 0.000000
414.937990 187.680100 9.807552 0.000000
414.263580 187.759200 9.801238 0.000000
413.593480 187.841800 9.794630 0.000000
412.897920 187.799440 9.790073 0.000000
412.221500 187.815930 9.784233 0.000000
411.549100 187.830690 9.778209 0.000000
410.880000 187.841800 9.772035 0.000000
410.212770 187.841930 9.765849 0.000000
409.550570 187.852450 9.759250 0.000000
408.891080 187.862400 9.752439 0.000000
408.233860 187.872010 9.745408 0.000000
407.578580 187.881380 9.738153 0.000000
406.924870 187.890660 9.730669 0.000000
406.272340 187.900020 9.722949 0.000000
405.620670 187.912600 9.714924 0.000000
404.969240 187.924870 9.706660 0.000000
404.317690 187.936430 9.698160 0.000000
403.665590 187.948180 9.689403 0.000000
403.012570 187.960020 9.680382 0.000000
402.358280 187.971920 9.671094 0.000000
401.702180 187.983750 9.661532 0.000000
401.044100 187.994930 9.651708 0.000000
400.383760 188.003170 9.641660 0.000000
399.720700 188.010930 9.631331 0.000000
399.052860 188.029390 9.620457 0.000000
398.382750 188.036760 9.609523 0.000000
397.708800 188.042940 9.598297 0.000000
397.030610 188.047670 9.586778 0.000000
396.334140 188.114000 9.573448 0.000000
420.218170 186.368730 9.861393 0.000000
411.600190 210.949910 10.633626 0.000000
418.063050 210.732600 10.715845 0.000000
415.890350 210.822240 10.688224 0.000000
410.538420 210.991500 10.620126 0.000000
409.478940 211.032790 10.606654 0.000000
420.267330 210.655760 10.743884 0.000000
419.164180 210.706510 10.729866 0.000000
416.973750 210.778630 10.701999 0.000000
414.811220 210.858200 10.674496 0.000000
413.734650 210.877590 10.660780 0.000000
399.308140 187.119750 9.607397 0.000000
398.661620 187.129560 9.597755 0.000000
398.012080 187.138900 9.587835 0.000000
397.357300 187.159590 9.577345 0.000000
396.700290 187.168460 9.566829 0.000000
396.038790 187.178220 9.555975 0.000000
417.050200 186.801090 9.777408 0.000000
416.334750 186.816740 9.773888 0.000000
415.627470 186.831240 9.770172 0.000000
414.927640 186.844120 9.766274 0.000000
414.234710 186.854920 9.762201 0.000000
413.548310 186.864090 9.757948 0.000000
412.192660 186.874310 9.748967 0.000000
411.540650 186.952350 9.742737 0.000000
410.865690 186.911360 9.738620 0.000000
410.208100 186.926250 9.733197 0.000000
409.554290 186.939670 9.727590 0.000000
408.903870 186.951900 9.721790 0.000000
408.255220 186.954410 9.715971 0.000000
405.690670 187.001740 9.689733 0.000000
405.053590 187.015340 9.682568 0.000000
404.417270 187.028990 9.675168 0.000000
403.781250 187.042720 9.667528 0.000000
403.145230 187.055270 9.659672 0.000000
402.508790 187.068080 9.651562 0.000000
401.871640 187.078580 9.643251 0.000000
401.233370 187.088910 9.634687 0.000000
400.593630 187.099300 9.625858 0.000000
399.952030 187.109620 9.616763 0.000000
407.610900 186.966160 9.709747 0.000000
406.968930 186.977390 9.703314 0.000000
406.328890 186.988310 9.696663 0.000000
412.363980 208.603790 10.567394 0.000000
410.307560 208.679290 10.542403 0.000000
409.285000 208.722520 10.529976 0.000000
402.156130 209.033420 10.443340 0.000000
401.134370 209.074160 10.430923 0.000000
399.081880 209.164030 10.405979 0.000000
398.049650 209.212070 10.393435 0.000000
397.012700 209.259870 10.380833 0.000000
395.970640 209.304780 10.368169 0.000000
408.265230 208.771940 10.517583 0.000000
407.246950 208.821170 10.505208 0.000000
406.229490 208.870360 10.492844 0.000000
405.212040 208.913310 10.480478 0.000000
404.194340 208.955180 10.468110 0.000000
403.175900 208.992970 10.455733 0.000000
418.650630 208.333510 10.643795 0.000000
417.584170 208.371490 10.630835 0.000000
416.530400 208.429630 10.618029 0.000000
415.478180 208.464580 10.605241 0.000000
414.435210 208.513120 10.592566 0.000000
413.397340 208.559360 10.579952 0.000000
400.778350 188.180150 9.663054 0.000000
400.121030 188.191910 9.654441 0.000000
399.462340 188.203800 9.645556 0.000000
398.801970 188.215710 9.636398 0.000000
398.139370 188.227570 9.626961 0.000000
397.474210 188.239230 9.617239 0.000000
396.806090 188.250530 9.607230 0.000000
396.134400 188.263090 9.596890 0.000000
414.984250 187.891160 9.789809 0.000000
414.260350 187.908070 9.785955 0.000000
413.543490 187.922360 9.781924 0.000000
412.833440 187.934560 9.777710 0.000000
412.129910 187.945190 9.773306 0.000000
410.739590 187.957580 9.764002 0.000000
410.070430 188.040860 9.757626 0.000000
409.377690 187.998470 9.753309 0.000000
408.702360 188.014570 9.747709 0.000000
408.030700 188.029220 9.741916 0.000000
407.362300 188.042680 9.735920 0.000000
406.695680 188.046840 9.729875 0.000000
406.033230 188.060970 9.723415 0.000000
405.373170 188.076630 9.716698 0.000000
404.714750 188.091980 9.709752 0.000000
404.057650 188.107150 9.702573 0.000000
403.401490 188.122270 9.695155 0.000000
402.745880 188.137470 9.687492 0.000000
402.090420 188.152790 9.679578 0.000000
401.434690 188.166140 9.671452 0.000000
415.715420 187.871050 9.793495 0.000000
420.461300 186.466690 9.834048 0.000000
419.649600 186.425260 9.833101 0.000000
418.899750 186.480380 9.830291 0.000000
418.140840 186.492770 9.827969 0.000000
417.391630 186.500700 9.825493 0.000000
416.661800 186.528470 9.822453 0.000000
418.539760 210.873810 10.731996 0.000000
415.225830 211.069890 10.692412 0.000000
419.663270 210.817470 10.745432 0.000000
417.430540 210.950680 10.718764 0.000000
416.322690 211.002660 10.705511 0.000000
398.642850 189.767910 9.677475 0.000000
397.956360 189.780760 9.668301 0.000000
397.268040 189.793670 9.658840 0.000000
396.577420 189.806490 9.649089 0.000000
395.883790 189.822170 9.638981 0.000000
412.622830 189.459790 9.808800 0.000000
411.883640 189.473480 9.804496 0.000000
411.151210 189.485490 9.799989 0.000000
410.429570 189.513150 9.795004 0.000000
409.704100 189.502150 9.790410 0.000000
409.008480 189.595000 9.783905 0.000000
408.286560 189.549620 9.779419 0.000000
407.583190 189.567200 9.773676 0.000000
406.883640 189.583280 9.767727 0.000000
406.187440 189.598210 9.761563 0.000000
405.493500 189.606690 9.755274 0.000000
404.803620 189.623990 9.748598 0.000000
404.115840 189.640780 9.741692 0.000000
403.429810 189.657260 9.734546 0.000000
402.745180 189.673550 9.727157 0.000000
402.061460 189.689800 9.719519 0.000000
401.378330 189.706130 9.711624 0.000000
400.695280 189.722560 9.703469 0.000000
400.011960 189.736940 9.695088 0.000000
399.327940 189.752380 9.686419 0.000000
414.883640 189.403470 9.820562 0.000000
414.122560 189.425350 9.816826 0.000000
413.369020 189.443940 9.812907 0.000000
418.171420 187.896360 9.856698 0.000000
417.382420 187.909320 9.854386 0.000000
416.603520 187.917660 9.851907 0.000000
415.845250 187.947800 9.848861 0.000000
420.615570 187.851210 9.862246 0.000000
419.794890 187.881990 9.860414 0.000000
418.950070 187.837110 9.859462 0.000000
401.367280 190.989650 9.751612 0.000000
400.660340 191.007140 9.743543 0.000000
399.953950 191.024670 9.735210 0.000000
399.247650 191.042340 9.726607 0.000000
398.541020 191.057790 9.717770 0.000000
397.833680 191.074430 9.708633 0.000000
397.125180 191.091280 9.699210 0.000000
396.415100 191.107130 9.689512 0.000000
413.913210 190.695420 9.851253 0.000000
413.126620 190.718260 9.847217 0.000000
412.347810 190.737690 9.842989 0.000000
411.576540 190.754270 9.838563 0.000000
410.812500 190.768620 9.833934 0.000000
410.055480 190.781250 9.829093 0.000000
409.309600 190.810040 9.823787 0.000000
407.840480 190.893880 9.812077 0.000000
407.095210 190.851550 9.807099 0.000000
406.368100 190.869890 9.800998 0.000000
405.645390 190.889400 9.794640 0.000000
404.926180 190.908400 9.788050 0.000000
404.208800 190.917910 9.781362 0.000000
403.495540 190.936450 9.774290 0.000000
402.784480 190.954470 9.766979 0.000000
402.075160 190.972150 9.759421 0.000000
417.286650 189.085560 9.887695 0.000000
416.472690 189.099910 9.885103 0.000000
415.669800 189.111190 9.882310 0.000000
414.888060 189.144900 9.878974 0.000000
420.681640 189.024090 9.895588 0.000000
419.807980 189.035950 9.894051 0.000000
418.961430 189.068680 9.891974 0.000000
418.089140 189.021820 9.890695 0.000000
420.741150 187.609480 9.915265 0.000000
397.125850 191.756100 9.730155 0.000000
396.406220 191.772550 9.721126 0.000000
409.607060 191.451800 9.843992 0.000000
408.838380 191.469160 9.839279 0.000000
408.080750 191.502500 9.834111 0.000000
406.587710 191.594210 9.822697 0.000000
405.830380 191.555830 9.817779 0.000000
405.091000 191.576900 9.811803 0.000000
404.355470 191.596360 9.805606 0.000000
403.623440 191.614530 9.799180 0.000000
402.893250 191.622920 9.792646 0.000000
402.167300 191.640640 9.785729 0.000000
401.443660 191.657810 9.778567 0.000000
400.721830 191.674650 9.771154 0.000000
400.001500 191.691310 9.763484 0.000000
399.282140 191.707950 9.755550 0.000000
398.563390 191.724620 9.747350 0.000000
397.844760 191.741420 9.738874 0.000000
412.753780 191.359440 9.860705 0.000000
411.955720 191.387120 9.856836 0.000000
411.165410 191.411330 9.852765 0.000000
410.382630 191.432710 9.848485 0.000000
419.597110 189.594920 9.902557 0.000000
418.712460 189.610530 9.901263 0.000000
417.855470 189.647890 9.899425 0.000000
416.971890 189.603930 9.898331 0.000000
416.159700 189.673710 9.895559 0.000000
415.336730 189.695710 9.893127 0.000000
414.524080 189.713200 9.890499 0.000000
413.731810 189.751530 9.887359 0.000000
420.520810 188.106000 9.922223 0.000000
419.643370 188.134920 9.921352 0.000000
397.169070 192.163090 9.748919 0.000000
396.442720 192.186260 9.740688 0.000000
407.538300 191.844570 9.836472 0.000000
406.773620 191.878230 9.831716 0.000000
405.267360 191.973850 9.821077 0.000000
404.503540 191.938080 9.816494 0.000000
403.758150 191.964690 9.810834 0.000000
403.016480 191.989690 9.804944 0.000000
402.278080 192.013400 9.798820 0.000000
401.541500 192.027880 9.792568 0.000000
400.808930 192.051150 9.785941 0.000000
400.078430 192.073910 9.779062 0.000000
399.349610 192.096310 9.771926 0.000000
398.622070 192.118560 9.764527 0.000000
397.895360 192.140790 9.756861 0.000000
411.490050 191.733700 9.855749 0.000000
410.684600 191.761660 9.852325 0.000000
409.886960 191.786130 9.848692 0.000000
409.096920 191.807720 9.844841 0.000000
408.314120 191.827010 9.840769 0.000000
417.470280 189.906450 9.892968 0.000000
416.609990 189.950410 9.891561 0.000000
415.723390 189.913770 9.890855 0.000000
414.909610 189.994380 9.888450 0.000000
414.082730 190.022980 9.886410 0.000000
413.265870 190.046710 9.884169 0.000000
412.469120 190.090910 9.881417 0.000000
418.358250 189.884750 9.893821 0.000000
420.187470 188.349400 9.912380 0.000000
419.275820 188.363040 9.912517 0.000000
418.396030 188.398470 9.912091 0.000000
397.194090 192.173490 9.741987 0.000000
396.466740 192.207520 9.734577 0.000000
405.327000 191.810100 9.805927 0.000000
403.827640 191.927640 9.795923 0.000000
403.066830 191.903550 9.791654 0.000000
402.323880 191.941070 9.786301 0.000000
401.584260 191.977020 9.780713 0.000000
400.847530 192.011730 9.774886 0.000000
400.112370 192.038420 9.768912 0.000000
399.380650 192.072720 9.762571 0.000000
398.650630 192.106550 9.755974 0.000000
397.921910 192.140080 9.749114 0.000000
410.006230 191.583540 9.828106 0.000000
409.210480 191.631100 9.824931 0.000000
408.419560 191.668730 9.821622 0.000000
407.635380 191.702450 9.818104 0.000000
406.857970 191.733920 9.814358 0.000000
406.087250 191.764370 9.810370 0.000000
411.761020 189.867610 9.855847 0.000000
410.972840 189.924160 9.853432 0.000000
416.780940 189.616460 9.863491 0.000000
415.906920 189.653020 9.862994 0.000000
415.060700 189.713580 9.861905 0.000000
414.187650 189.694170 9.861529 0.000000
413.384700 189.788090 9.859456 0.000000
412.568180 189.830260 9.857757 0.000000
420.411470 187.977840 9.879618 0.000000
419.507870 188.053310 9.880173 0.000000
418.579350 188.061430 9.881248 0.000000
417.682980 188.089050 9.881759 0.000000
416.816990 188.137310 9.881705 0.000000
