# .PCD v0.7 - Point Cloud Data file format
VERSION 0.7
FIELDS x y z intensity
SIZE 4 4 4 4
TYPE F F F F
COUNT 1 1 1 1
WIDTH 921
HEIGHT 1
VIEWPOINT 0 0 0 1 0 0 0
POINTS 921
DATA ascii
427.025300 -89.690643 0.310492 0.000000
421.232420 -96.584175 -0.036121 0.000000
421.075870 -95.286469 0.022872 0.000000
421.508120 -94.594284 0.102867 0.000000
422.156070 -95.125443 0.111169 0.000000
420.917020 -92.623695 0.176767 0.000000
420.876280 -90.975967 0.208847 0.000000
421.480930 -93.807487 0.140878 0.000000
421.304290 -88.927979 0.221448 0.000000
422.728670 -95.739609 0.105652 0.000000
421.497310 -93.281158 0.165848 0.000000
421.135800 -91.467117 0.200739 0.000000
422.100100 -92.650490 0.252549 0.000000
423.601440 -92.012817 0.243673 0.000000
426.886230 -90.781082 0.219598 0.000000
422.532530 -93.176651 0.273971 0.000000
424.019900 -92.543091 0.268414 0.000000
427.247560 -89.748756 0.282674 0.000000
423.658870 -94.724907 0.211621 0.000000
423.205140 -91.372665 0.282951 0.000000
421.858700 -92.054001 0.288934 0.000000
422.592160 -92.797485 0.304807 0.000000
423.615140 -91.926147 0.308222 0.000000
424.213990 -95.125092 0.284077 0.000000
420.957950 -96.951790 -0.150930 0.000000
420.806730 -95.791832 -0.102360 0.000000
420.991390 -96.762894 -0.144374 0.000000
420.795870 -95.607277 -0.094778 0.000000
420.818420 -96.337975 -0.125205 0.000000
420.985780 -94.856400 0.049576 0.000000
422.149900 -90.138260 0.147384 0.000000
421.281070 -88.982109 0.203301 0.000000
422.054720 -95.689453 0.078804 0.000000
424.877010 -90.695923 0.130181 0.000000
421.761080 -94.645874 0.117157 0.000000
421.542720 -93.665031 0.150983 0.000000
421.687810 -92.868851 0.168660 0.000000
421.597530 -91.980301 0.195063 0.000000
420.903470 -90.864769 0.244545 0.000000
422.610840 -90.707565 0.197819 0.000000
423.709170 -89.427750 0.195823 0.000000
426.356080 -91.651840 0.128107 0.000000
425.145140 -90.355576 0.194609 0.000000
422.673770 -95.408707 0.137738 0.000000
422.636840 -94.509987 0.163564 0.000000
422.927250 -93.772339 0.175125 0.000000
422.106020 -92.565453 0.230390 0.000000
421.488710 -91.486900 0.275846 0.000000
423.075070 -91.288109 0.234161 0.000000
424.888730 -89.425827 0.223388 0.000000
426.088560 -90.810440 0.217448 0.000000
423.221160 -95.683372 0.166585 0.000000
423.719300 -95.039963 0.171747 0.000000
423.095980 -93.899193 0.221347 0.000000
422.299470 -92.725159 0.276087 0.000000
424.106540 -92.627365 0.227849 0.000000
423.212460 -91.452080 0.284197 0.000000
425.881990 -89.898369 0.245515 0.000000
425.692440 -89.008636 0.271942 0.000000
427.708830 -90.598328 0.221420 0.000000
423.795590 -95.076096 0.193790 0.000000
423.081240 -93.919716 0.249794 0.000000
422.407040 -92.821815 0.302295 0.000000
424.211000 -92.730339 0.256452 0.000000
423.323120 -91.580505 0.315163 0.000000
426.045560 -89.261726 0.304645 0.000000
422.515530 -95.741150 0.049226 0.000000
422.249690 -94.799530 0.086846 0.000000
421.226500 -93.551918 0.157610 0.000000
421.058140 -92.713577 0.187856 0.000000
421.430880 -92.106819 0.193086 0.000000
421.077450 -91.223221 0.229657 0.000000
422.064880 -90.094978 0.227019 0.000000
424.359560 -90.084839 0.149402 0.000000
424.568300 -89.375252 0.160176 0.000000
422.586300 -95.978516 0.035956 0.000000
422.318360 -95.052513 0.072603 0.000000
421.319730 -93.832413 0.142239 0.000000
421.094300 -92.985878 0.174043 0.000000
421.294460 -92.327171 0.185306 0.000000
421.329440 -91.608696 0.203453 0.000000
420.766750 -90.686470 0.247552 0.000000
422.494690 -90.562447 0.189198 0.000000
421.772610 -89.606430 0.238801 0.000000
424.629730 -89.747620 0.132329 0.000000
422.778630 -95.511169 0.082027 0.000000
421.774600 -94.296249 0.150003 0.000000
421.532530 -93.450294 0.180575 0.000000
421.823490 -92.835014 0.185554 0.000000
421.666320 -92.050377 0.210477 0.000000
421.078860 -91.128860 0.253918 0.000000
422.854580 -91.030495 0.190596 0.000000
422.137510 -90.084930 0.238356 0.000000
424.788020 -90.173149 0.137302 0.000000
423.820500 -89.164001 0.194753 0.000000
424.126310 -95.221588 0.206599 0.000000
423.355830 -94.136772 0.260106 0.000000
422.584810 -93.093704 0.312019 0.000000
424.487060 -93.069153 0.249843 0.000000
423.693210 -92.045776 0.300964 0.000000
427.226680 -90.916672 0.207289 0.000000
425.640230 -88.990189 0.301915 0.000000
427.082240 -90.110008 0.229363 0.000000
424.100250 -95.183746 0.221547 0.000000
423.397830 -94.152176 0.273937 0.000000
423.012390 -93.280022 0.310998 0.000000
424.537450 -93.122299 0.265277 0.000000
423.795100 -92.139725 0.316046 0.000000
427.128390 -90.990562 0.233171 0.000000
426.987760 -90.206635 0.256587 0.000000
426.853000 -89.436272 0.278940 0.000000
423.653780 -94.307518 0.338462 0.000000
424.695890 -93.301895 0.336467 0.000000
428.436400 -89.421005 0.320797 0.000000
427.277950 -91.027687 0.216301 0.000000
427.071010 -90.293755 0.239906 0.000000
426.869810 -89.574692 0.262479 0.000000
423.691310 -94.565773 0.269516 0.000000
423.101990 -93.673126 0.315060 0.000000
424.975310 -93.708679 0.243062 0.000000
424.262020 -92.788635 0.293059 0.000000
423.621280 -91.927887 0.338358 0.000000
421.108520 -96.782433 -0.093686 0.000000
420.860810 -96.027901 -0.043164 0.000000
421.002410 -95.499832 -0.022163 0.000000
420.768370 -94.788193 0.024321 0.000000
420.952390 -94.297485 0.040326 0.000000
420.765840 -93.638733 0.080843 0.000000
421.694490 -90.173103 0.190424 0.000000
421.818080 -89.681381 0.204042 0.000000
421.327240 -89.018616 0.254070 0.000000
423.028260 -88.951355 0.172123 0.000000
425.323520 -90.764030 0.172847 0.000000
425.266570 -90.170853 0.198871 0.000000
425.446810 -89.655266 0.210391 0.000000
425.133300 -89.003876 0.249192 0.000000
422.263580 -95.327736 0.098750 0.000000
422.299470 -94.747780 0.126288 0.000000
422.541470 -94.278603 0.139192 0.000000
422.411930 -93.633774 0.175604 0.000000
422.436980 -93.073624 0.200836 0.000000
421.954560 -92.303223 0.257028 0.000000
423.505490 -91.824997 0.210232 0.000000
421.734250 -91.668304 0.295120 0.000000
422.901640 -91.041367 0.270570 0.000000
422.358090 -90.309792 0.325432 0.000000
423.790860 -94.709724 0.261300 0.000000
425.449800 -94.316544 0.220829 0.000000
424.725560 -93.374596 0.293465 0.000000
427.998840 -89.862930 0.319601 0.000000
423.261900 -93.849281 0.323982 0.000000
424.112210 -92.520737 0.357112 0.000000
421.152590 -89.382683 0.157158 0.000000
424.165920 -95.115097 0.297452 0.000000
423.728910 -94.276573 0.359088 0.000000
425.070980 -93.800987 0.340735 0.000000
420.936980 -89.345070 0.170910 0.000000
421.160370 -88.987198 0.177732 0.000000
425.354370 -94.176338 0.279699 0.000000
423.666470 -94.385750 0.329825 0.000000
424.615660 -93.193260 0.359181 0.000000
422.373840 -96.164764 0.063808 0.000000
422.519900 -95.663506 0.092349 0.000000
422.595730 -95.119904 0.125875 0.000000
423.100800 -94.298721 0.159818 0.000000
422.495570 -94.465897 0.173039 0.000000
424.153230 -93.245308 0.183192 0.000000
425.717220 -92.415268 0.166212 0.000000
422.843750 -93.564041 0.217402 0.000000
424.205930 -92.715714 0.213421 0.000000
425.930300 -91.958939 0.183446 0.000000
426.163670 -91.512825 0.198616 0.000000
426.678770 -91.194809 0.193352 0.000000
422.336330 -92.700706 0.292862 0.000000
423.480930 -91.771461 0.301415 0.000000
426.540800 -90.579254 0.233578 0.000000
426.734070 -89.575134 0.278490 0.000000
426.592440 -88.989166 0.315578 0.000000
420.958370 -89.728882 0.169305 0.000000
423.832210 -94.791107 0.253791 0.000000
425.091060 -93.850327 0.270531 0.000000
423.264920 -93.797195 0.337789 0.000000
424.276310 -92.755112 0.367972 0.000000
423.328950 -89.430565 0.175810 0.000000
421.835420 -90.511398 0.174603 0.000000
422.174930 -90.231018 0.178327 0.000000
422.656400 -89.539261 0.203344 0.000000
421.611880 -89.403191 0.266744 0.000000
424.033080 -94.900345 0.351486 0.000000
425.071990 -93.821457 0.392345 0.000000
420.763150 -94.106110 0.032132 0.000000
420.857640 -93.595062 0.070753 0.000000
424.381650 -90.181244 0.172245 0.000000
424.814610 -89.917145 0.168767 0.000000
420.950440 -93.095474 0.107831 0.000000
422.814730 -91.260864 0.169753 0.000000
423.696560 -90.801262 0.161952 0.000000
423.705110 -90.279762 0.198406 0.000000
424.907350 -89.449875 0.195305 0.000000
422.386080 -91.485023 0.172499 0.000000
421.037050 -92.049683 0.187784 0.000000
421.439760 -91.834435 0.187458 0.000000
421.054020 -91.003151 0.268161 0.000000
424.350800 -90.345154 0.153479 0.000000
423.201510 -90.577232 0.186831 0.000000
423.739690 -90.442818 0.173564 0.000000
424.433720 -89.867165 0.186261 0.000000
424.746860 -89.549446 0.195463 0.000000
421.042510 -92.060760 0.152047 0.000000
421.975250 -91.217445 0.186818 0.000000
422.475520 -91.087433 0.176779 0.000000
424.786250 -89.054382 0.230242 0.000000
421.024260 -91.481087 0.202665 0.000000
422.475220 -90.547173 0.220816 0.000000
420.888370 -90.816528 0.264514 0.000000
424.504430 -90.486206 0.174588 0.000000
424.974000 -90.291016 0.167795 0.000000
425.250000 -89.942009 0.180846 0.000000
422.671840 -91.780136 0.150969 0.000000
423.487000 -90.776520 0.197370 0.000000
424.019040 -90.657310 0.183264 0.000000
425.405400 -89.506592 0.205302 0.000000
420.881100 -93.006042 0.114718 0.000000
421.044040 -92.555580 0.148045 0.000000
421.404570 -92.323921 0.154708 0.000000
422.108670 -91.831909 0.169171 0.000000
422.688320 -91.211349 0.196632 0.000000
421.518980 -91.838593 0.191518 0.000000
422.373260 -90.367355 0.277668 0.000000
423.512080 -90.304550 0.168834 0.000000
424.109440 -89.707642 0.191631 0.000000
424.474520 -89.464088 0.194570 0.000000
421.972900 -91.119751 0.162257 0.000000
422.355560 -90.922981 0.164336 0.000000
423.099300 -90.490257 0.170861 0.000000
423.624480 -89.836403 0.202845 0.000000
424.582890 -89.004204 0.226161 0.000000
420.767090 -91.604462 0.163826 0.000000
421.477600 -91.183655 0.175637 0.000000
422.325320 -90.301384 0.219311 0.000000
420.979830 -91.229630 0.190084 0.000000
425.274020 -94.015709 0.393907 0.000000
424.058440 -94.850899 0.362483 0.000000
424.299680 -90.212799 0.160372 0.000000
424.706090 -90.015335 0.152551 0.000000
422.152890 -91.629478 0.161423 0.000000
422.541660 -91.439003 0.157888 0.000000
422.871370 -91.171722 0.162438 0.000000
423.172060 -90.870285 0.170354 0.000000
423.507420 -90.609894 0.172805 0.000000
423.882390 -90.391365 0.169482 0.000000
424.829100 -89.532089 0.179810 0.000000
424.889890 -89.001839 0.213163 0.000000
420.884860 -92.023033 0.186797 0.000000
421.177030 -91.717194 0.198657 0.000000
421.130980 -90.958405 0.260916 0.000000
420.943600 -93.534958 0.080416 0.000000
420.934720 -92.613831 0.149761 0.000000
423.214290 -90.645523 0.165244 0.000000
423.509700 -90.335793 0.168597 0.000000
423.862700 -90.102539 0.162628 0.000000
424.211460 -89.862122 0.156755 0.000000
424.437590 -89.475601 0.167598 0.000000
421.161500 -92.150398 0.172466 0.000000
421.759190 -91.506119 0.187643 0.000000
422.099880 -91.258324 0.186625 0.000000
422.383030 -90.927673 0.194076 0.000000
422.353550 -90.163597 0.249233 0.000000
421.072270 -91.187965 0.247680 0.000000
422.085750 -90.921188 0.158479 0.000000
423.048890 -90.082382 0.184957 0.000000
423.380280 -89.827126 0.190106 0.000000
423.756500 -89.639145 0.187282 0.000000
424.123470 -89.434692 0.185534 0.000000
424.526820 -89.276802 0.177812 0.000000
421.736570 -91.160728 0.152791 0.000000
422.679960 -90.278732 0.185517 0.000000
420.838590 -91.249397 0.179532 0.000000
421.082580 -90.816605 0.206562 0.000000
421.786100 -89.580116 0.279898 0.000000
424.030760 -89.800896 0.169919 0.000000
424.439150 -89.649338 0.165127 0.000000
423.296540 -90.240280 0.163262 0.000000
423.677430 -90.044601 0.164433 0.000000
421.764890 -91.003563 0.153941 0.000000
422.076200 -90.662018 0.172298 0.000000
422.720610 -90.059898 0.199557 0.000000
421.191590 -90.757294 0.193051 0.000000
422.178040 -89.913162 0.231217 0.000000
425.374020 -94.080765 0.404757 0.000000
424.372800 -89.920738 0.148038 0.000000
424.588380 -89.390381 0.183147 0.000000
422.615750 -90.261322 0.177885 0.000000
422.980870 -90.021858 0.186623 0.000000
423.406740 -89.919678 0.181345 0.000000
423.771210 -89.683685 0.188500 0.000000
421.819090 -90.589722 0.173076 0.000000
421.412380 -90.732124 0.171768 0.000000
420.904330 -90.576881 0.197907 0.000000
421.872040 -89.563026 0.258633 0.000000
424.117800 -89.381561 0.147551 0.000000
423.192230 -89.399605 0.173044 0.000000
423.558780 -89.158035 0.183171 0.000000
422.408600 -89.766525 0.162147 0.000000
422.758090 -89.463600 0.179307 0.000000
421.571410 -89.979050 0.163303 0.000000
421.843630 -89.419136 0.205922 0.000000
421.075070 -89.806877 0.188938 0.000000
424.126770 -94.814499 0.342729 0.000000
424.099150 -89.225624 0.150713 0.000000
423.615750 -89.173271 0.166570 0.000000
423.169980 -89.221146 0.172338 0.000000
421.853490 -89.380524 0.183843 0.000000
422.279480 -89.287704 0.184353 0.000000
422.666630 -89.055870 0.196960 0.000000
421.051510 -89.798950 0.159710 0.000000
425.052920 -93.638199 0.409470 0.000000
424.387150 -95.057373 0.311341 0.000000
425.198940 -93.784035 0.389002 0.000000
423.606990 -94.053253 0.382178 0.000000
423.455900 -88.963814 0.154383 0.000000
424.215240 -94.787697 0.225251 0.000000
425.134060 -93.661255 0.307039 0.000000
423.510560 -93.947441 0.280166 0.000000
424.408020 -92.799316 0.364631 0.000000
423.929630 -94.078651 0.244225 0.000000
424.985140 -93.461212 0.295624 0.000000
423.316560 -93.686363 0.265401 0.000000
424.303340 -92.633400 0.347670 0.000000
422.693630 -92.995880 0.306561 0.000000
425.347050 -93.812759 0.256845 0.000000
424.687900 -93.120209 0.297129 0.000000
422.384280 -92.521637 0.307263 0.000000
425.601350 -93.976624 0.225899 0.000000
424.951290 -93.331001 0.260528 0.000000
424.323120 -92.641632 0.297738 0.000000
423.175840 -93.384254 0.228694 0.000000
422.584810 -92.750717 0.260732 0.000000
423.718140 -91.896439 0.338406 0.000000
422.017640 -92.018845 0.299196 0.000000
425.355070 -93.947128 0.349006 0.000000
423.498050 -93.914574 0.310015 0.000000
425.265230 -92.433807 0.188482 0.000000
425.869960 -92.199371 0.216920 0.000000
424.652470 -92.657059 0.159940 0.000000
424.064640 -92.007690 0.190816 0.000000
423.494110 -91.440559 0.215800 0.000000
422.941500 -90.884048 0.239822 0.000000
421.175900 -90.921036 0.188888 0.000000
426.622280 -92.536652 0.190565 0.000000
425.993290 -92.693146 0.165707 0.000000
425.387570 -92.077423 0.192522 0.000000
424.179110 -91.652954 0.189956 0.000000
424.802490 -91.463028 0.219046 0.000000
423.608430 -91.168976 0.206719 0.000000
423.036290 -90.838547 0.212478 0.000000
421.226650 -90.765381 0.161603 0.000000
422.497770 -90.314903 0.231432 0.000000
421.986880 -89.709869 0.255968 0.000000
426.676420 -92.159424 0.183650 0.000000
426.072480 -91.577835 0.206861 0.000000
425.441100 -91.634888 0.186323 0.000000
424.214720 -91.308281 0.173259 0.000000
424.855960 -91.140694 0.202811 0.000000
423.649840 -90.802658 0.189661 0.000000
423.100280 -90.296028 0.205892 0.000000
422.495540 -90.223877 0.191134 0.000000
421.987520 -89.607681 0.214499 0.000000
421.487060 -89.046143 0.233866 0.000000
428.051240 -89.726395 0.313713 0.000000
425.471340 -90.966217 0.162317 0.000000
426.794130 -90.238182 0.247487 0.000000
427.473690 -89.154602 0.337212 0.000000
424.894380 -90.479027 0.177397 0.000000
426.275510 -89.107185 0.308260 0.000000
423.689030 -90.090408 0.165207 0.000000
424.333040 -89.983994 0.192752 0.000000
423.153080 -89.553703 0.182691 0.000000
422.592130 -89.221512 0.185240 0.000000
424.082210 -94.763702 0.383738 0.000000
424.048280 -94.672569 0.323147 0.000000
425.119050 -93.715767 0.402404 0.000000
423.445470 -93.877434 0.341208 0.000000
423.972900 -94.522064 0.339009 0.000000
423.872190 -94.393936 0.292980 0.000000
424.994870 -93.498489 0.369225 0.000000
423.252410 -93.634735 0.309185 0.000000
425.531860 -94.019226 0.265216 0.000000
424.891850 -93.296310 0.279976 0.000000
424.271640 -92.569283 0.294937 0.000000
421.931340 -91.899094 0.248421 0.000000
421.340210 -91.202484 0.260441 0.000000
423.676030 -91.824188 0.310942 0.000000
423.082670 -91.124039 0.324275 0.000000
426.014680 -92.306564 0.185487 0.000000
425.428100 -91.495354 0.205360 0.000000
424.541050 -91.604172 0.168130 0.000000
424.016300 -90.693565 0.193932 0.000000
423.461820 -89.923744 0.211089 0.000000
422.540770 -90.095009 0.167696 0.000000
422.042240 -89.240562 0.189909 0.000000
425.936280 -92.284348 0.210765 0.000000
424.963350 -92.554771 0.164772 0.000000
424.426540 -91.589241 0.193100 0.000000
423.890720 -90.690369 0.217607 0.000000
422.967500 -90.794014 0.179520 0.000000
422.403290 -90.025459 0.195512 0.000000
421.840730 -89.294189 0.209170 0.000000
425.334410 -93.692146 0.189353 0.000000
424.736720 -92.795067 0.211485 0.000000
424.061430 -92.157593 0.218309 0.000000
423.434910 -91.433319 0.230149 0.000000
422.818760 -90.723083 0.241060 0.000000
422.223180 -90.001999 0.252553 0.000000
421.646510 -89.274414 0.264390 0.000000
425.316410 -93.522141 0.193745 0.000000
424.655090 -92.774467 0.206570 0.000000
423.968900 -92.129272 0.213219 0.000000
423.381560 -91.284363 0.231600 0.000000
422.745150 -90.594185 0.240651 0.000000
420.875460 -90.506668 0.177902 0.000000
422.130620 -89.887680 0.250544 0.000000
426.266360 -92.974144 0.186180 0.000000
425.683840 -92.017563 0.210914 0.000000
424.557740 -92.447670 0.153012 0.000000
424.021700 -91.435989 0.180495 0.000000
423.506770 -90.438217 0.207415 0.000000
422.938780 -89.609650 0.224154 0.000000
421.979610 -89.611771 0.188846 0.000000
425.733700 -91.328674 0.144550 0.000000
428.225430 -89.689529 0.307226 0.000000
427.601010 -88.974884 0.319418 0.000000
424.186160 -94.839058 0.306263 0.000000
423.527220 -94.009483 0.292619 0.000000
422.896300 -93.183502 0.305036 0.000000
424.902590 -93.348511 0.346525 0.000000
425.209290 -93.663757 0.317123 0.000000
424.256590 -92.512123 0.334651 0.000000
425.431550 -93.943085 0.292645 0.000000
424.463590 -92.777748 0.309585 0.000000
423.503720 -91.625710 0.325717 0.000000
421.696900 -91.634399 0.284914 0.000000
424.736210 -93.065979 0.306076 0.000000
423.759980 -91.899506 0.322166 0.000000
424.965180 -93.451309 0.308467 0.000000
424.038020 -92.178482 0.328417 0.000000
422.173650 -92.196899 0.286309 0.000000
425.220980 -93.673477 0.315008 0.000000
424.218080 -92.471367 0.330981 0.000000
422.352840 -92.452850 0.290459 0.000000
425.373540 -94.008621 0.307291 0.000000
424.382930 -92.752579 0.325601 0.000000
423.427400 -91.475388 0.344741 0.000000
421.523800 -91.453827 0.303686 0.000000
424.631040 -93.030586 0.277761 0.000000
423.638610 -91.767509 0.296304 0.000000
422.632930 -90.545601 0.312679 0.000000
420.810730 -90.365868 0.278048 0.000000
424.896120 -93.213425 0.223682 0.000000
423.854520 -91.986443 0.240797 0.000000
422.815060 -90.777367 0.256791 0.000000
421.873840 -89.463501 0.277660 0.000000
425.129520 -93.360931 0.191470 0.000000
424.074950 -92.119751 0.209812 0.000000
423.009280 -90.913795 0.226177 0.000000
421.975520 -89.685028 0.243357 0.000000
425.695920 -92.969658 0.193497 0.000000
424.479520 -91.936409 0.202370 0.000000
423.260680 -90.912018 0.210298 0.000000
422.116730 -89.797874 0.222099 0.000000
427.819730 -89.126671 0.248337 0.000000
427.325780 -89.178009 0.256450 0.000000
428.402890 -89.926437 0.243032 0.000000
421.745510 -89.385986 0.217520 0.000000
422.632260 -90.457077 0.189709 0.000000
424.505980 -92.516678 0.137540 0.000000
424.948360 -93.389091 0.326889 0.000000
423.751980 -94.241379 0.294474 0.000000
425.100310 -93.619865 0.432231 0.000000
428.454440 -89.735626 0.264987 0.000000
428.311740 -89.612991 0.302142 0.000000
426.611690 -91.845978 0.139012 0.000000
421.815340 -89.477837 0.231956 0.000000
422.406010 -90.246216 0.219186 0.000000
423.011960 -91.019836 0.206076 0.000000
423.700560 -91.632904 0.202417 0.000000
424.340240 -92.404037 0.189264 0.000000
424.980830 -93.223022 0.173293 0.000000
425.890870 -93.316010 0.198751 0.000000
421.109190 -90.918579 0.240803 0.000000
422.939000 -90.950073 0.301799 0.000000
421.708860 -91.694443 0.226993 0.000000
423.552370 -91.704933 0.288090 0.000000
424.186800 -92.451630 0.274788 0.000000
424.834320 -93.212288 0.260617 0.000000
425.501530 -93.969818 0.246540 0.000000
422.233120 -90.047836 0.280650 0.000000
421.034420 -90.805908 0.202490 0.000000
422.823550 -90.766792 0.268262 0.000000
423.433960 -91.477814 0.256319 0.000000
424.057680 -92.199509 0.243707 0.000000
424.685090 -92.964233 0.228562 0.000000
425.360260 -93.636032 0.218733 0.000000
420.902130 -90.643494 0.246881 0.000000
421.482730 -91.370102 0.234481 0.000000
422.067170 -92.134346 0.219853 0.000000
423.820650 -92.037148 0.285425 0.000000
424.442260 -92.767166 0.271838 0.000000
425.079960 -93.506699 0.257712 0.000000
423.211180 -91.325745 0.297931 0.000000
423.079800 -93.466057 0.367496 0.000000
423.697630 -94.260376 0.352259 0.000000
425.423250 -94.137314 0.412996 0.000000
427.407810 -88.998215 0.293744 0.000000
428.057890 -89.085663 0.310866 0.000000
423.503940 -89.526054 0.164511 0.000000
424.127110 -89.759521 0.174236 0.000000
426.102870 -89.862709 0.239264 0.000000
427.477390 -89.254608 0.322415 0.000000
428.062500 -89.952759 0.297800 0.000000
422.274440 -89.673523 0.176125 0.000000
422.910710 -89.759468 0.195148 0.000000
423.498500 -90.121643 0.194695 0.000000
424.093230 -90.497635 0.192906 0.000000
425.343810 -90.985748 0.205516 0.000000
424.666530 -91.105156 0.175346 0.000000
425.945650 -91.551056 0.190023 0.000000
426.565730 -92.108131 0.174863 0.000000
423.347530 -91.301773 0.204611 0.000000
423.967220 -91.546906 0.210735 0.000000
424.558990 -92.132233 0.194206 0.000000
425.852970 -92.449005 0.215225 0.000000
425.167820 -92.732910 0.176532 0.000000
421.739200 -89.409485 0.261826 0.000000
420.884400 -90.499924 0.162357 0.000000
422.254460 -90.051620 0.242012 0.000000
422.797150 -90.640076 0.225784 0.000000
425.896820 -92.610786 0.229967 0.000000
425.243650 -92.772072 0.199451 0.000000
421.812650 -89.513870 0.283905 0.000000
421.029850 -90.550598 0.188682 0.000000
422.330350 -90.147644 0.263957 0.000000
422.868680 -90.772430 0.244649 0.000000
423.427430 -91.388550 0.225918 0.000000
424.001560 -92.055618 0.203807 0.000000
424.631960 -92.181244 0.216964 0.000000
425.344180 -93.601547 0.204471 0.000000
422.410160 -90.421204 0.314152 0.000000
422.962400 -90.968506 0.298141 0.000000
423.523800 -91.645363 0.273556 0.000000
424.108550 -92.301407 0.250326 0.000000
424.715610 -92.941422 0.228082 0.000000
425.482330 -94.071838 0.286143 0.000000
423.622410 -91.835136 0.377207 0.000000
422.370480 -92.529526 0.298590 0.000000
424.216220 -92.607910 0.345200 0.000000
424.836400 -93.330498 0.316291 0.000000
424.290130 -94.949776 0.272518 0.000000
423.024080 -93.372986 0.340182 0.000000
423.643100 -94.130035 0.308314 0.000000
423.663390 -94.175766 0.381626 0.000000
424.327760 -95.020020 0.343928 0.000000
422.993380 -89.182922 0.196406 0.000000
422.501800 -89.290390 0.179528 0.000000
424.046910 -89.482002 0.187485 0.000000
423.551420 -89.603333 0.170968 0.000000
424.632750 -89.918083 0.159613 0.000000
421.810610 -89.351868 0.215583 0.000000
422.853520 -89.724899 0.203190 0.000000
422.372280 -89.880905 0.182686 0.000000
423.940190 -90.135025 0.185438 0.000000
423.432710 -90.176979 0.175290 0.000000
425.384580 -89.631767 0.240602 0.000000
424.430110 -89.997444 0.202275 0.000000
426.307070 -89.185501 0.281992 0.000000
425.053530 -90.472206 0.170787 0.000000
426.043520 -90.170509 0.202774 0.000000
428.445340 -89.234818 0.282882 0.000000
429.029660 -89.335808 0.274338 0.000000
422.149110 -89.912384 0.287153 0.000000
421.822690 -91.040321 0.193628 0.000000
421.314540 -91.062729 0.183781 0.000000
422.777710 -90.630402 0.238884 0.000000
423.355470 -90.952713 0.220244 0.000000
423.987400 -91.451248 0.187642 0.000000
425.140380 -91.754646 0.172966 0.000000
428.326080 -89.733925 0.329129 0.000000
427.892760 -90.042877 0.307672 0.000000
426.602330 -91.101181 0.228721 0.000000
425.661650 -91.649635 0.183868 0.000000
427.603000 -90.773674 0.253706 0.000000
426.206300 -91.619537 0.188325 0.000000
421.774840 -91.750763 0.297106 0.000000
423.242250 -91.325188 0.336491 0.000000
422.460600 -92.577774 0.240772 0.000000
423.984890 -92.180351 0.275995 0.000000
423.087920 -92.985191 0.214227 0.000000
421.696140 -94.392845 0.100434 0.000000
421.177400 -94.672943 0.074401 0.000000
424.725620 -92.895447 0.224884 0.000000
425.861270 -92.910080 0.222506 0.000000
425.395050 -93.258713 0.198389 0.000000
424.478180 -94.648453 0.245739 0.000000
424.520600 -92.910385 0.361751 0.000000
423.794310 -94.273895 0.274585 0.000000
425.423860 -93.943954 0.285645 0.000000
423.515230 -93.943535 0.387512 0.000000
425.112550 -93.629761 0.393196 0.000000
421.369320 -89.776337 0.175710 0.000000
420.986910 -90.054565 0.156786 0.000000
423.114720 -89.310944 0.185067 0.000000
422.697720 -89.483253 0.179016 0.000000
423.586850 -89.266205 0.178656 0.000000
421.628570 -89.163490 0.223777 0.000000
422.097320 -89.163078 0.216314 0.000000
424.223850 -94.907600 0.392531 0.000000
421.307650 -90.678207 0.207562 0.000000
423.055660 -90.117905 0.219621 0.000000
422.637050 -90.305649 0.213758 0.000000
421.921720 -90.994804 0.172023 0.000000
424.884860 -89.645950 0.208888 0.000000
424.583500 -90.076263 0.184886 0.000000
424.170650 -90.301071 0.178659 0.000000
423.722200 -90.452194 0.178117 0.000000
421.813570 -89.511810 0.293133 0.000000
422.342800 -90.289711 0.294785 0.000000
421.116820 -90.876617 0.270290 0.000000
421.920530 -91.590569 0.200828 0.000000
421.111540 -92.102509 0.172158 0.000000
425.499510 -89.365570 0.280703 0.000000
423.226350 -91.050232 0.217557 0.000000
422.350560 -91.400497 0.208179 0.000000
424.235230 -90.934616 0.202426 0.000000
423.784420 -91.102600 0.200831 0.000000
425.439330 -90.159073 0.225853 0.000000
425.168980 -90.639160 0.199030 0.000000
424.739780 -90.857254 0.194966 0.000000
421.234680 -95.387314 0.001423 0.000000
420.766540 -95.626221 -0.011296 0.000000
422.905700 -90.818352 0.313659 0.000000
421.782680 -91.683846 0.275959 0.000000
426.286350 -89.192261 0.315531 0.000000
421.720000 -92.673141 0.202554 0.000000
421.344970 -93.019470 0.182953 0.000000
426.122160 -89.772034 0.284158 0.000000
422.702730 -92.484863 0.196299 0.000000
426.033630 -90.485306 0.240333 0.000000
424.886350 -91.400780 0.216100 0.000000
424.465850 -91.648750 0.211322 0.000000
424.067020 -91.935120 0.202272 0.000000
423.187100 -92.362427 0.194043 0.000000
421.257930 -94.077438 0.102908 0.000000
425.838930 -91.071823 0.207790 0.000000
425.367070 -91.247025 0.211534 0.000000
422.394200 -94.430695 0.150366 0.000000
422.364620 -95.558151 0.069652 0.000000
421.850310 -95.703682 0.069040 0.000000
427.204280 -89.151932 0.333778 0.000000
428.337830 -88.969429 0.292181 0.000000
427.798860 -89.100311 0.309961 0.000000
423.990050 -92.147537 0.267306 0.000000
422.740300 -92.923500 0.248970 0.000000
426.877260 -90.285370 0.281689 0.000000
426.781430 -90.969788 0.244457 0.000000
425.208590 -92.216400 0.223775 0.000000
424.789490 -92.492989 0.219372 0.000000
423.945070 -93.037933 0.208437 0.000000
423.436100 -93.158585 0.214366 0.000000
422.727110 -93.962784 0.176109 0.000000
426.621860 -91.596260 0.212324 0.000000
426.131990 -91.782616 0.219071 0.000000
425.649570 -91.971756 0.224409 0.000000
427.126460 -91.607224 0.222265 0.000000
426.789830 -92.009827 0.213651 0.000000
426.290770 -92.205917 0.222734 0.000000
425.816280 -92.426735 0.228397 0.000000
425.396210 -92.717941 0.226761 0.000000
424.976170 -93.008820 0.224170 0.000000
423.000430 -94.699760 0.177338 0.000000
422.674710 -95.185768 0.153207 0.000000
423.372070 -91.503700 0.374362 0.000000
422.306760 -92.494553 0.344005 0.000000
427.751710 -89.277939 0.319019 0.000000
428.526670 -89.368797 0.275906 0.000000
427.491150 -89.720329 0.308609 0.000000
429.102870 -89.233635 0.253161 0.000000
427.357450 -90.314728 0.283216 0.000000
427.221100 -90.925232 0.256127 0.000000
424.043270 -93.445465 0.228397 0.000000
423.488950 -93.513000 0.241587 0.000000
421.103240 -95.749641 -0.015630 0.000000
424.586550 -89.572159 0.199441 0.000000
424.285000 -89.930115 0.197294 0.000000
423.871310 -90.150856 0.208541 0.000000
423.464810 -90.376289 0.218232 0.000000
423.129490 -90.694641 0.217655 0.000000
422.831020 -91.068573 0.210891 0.000000
422.494230 -91.394547 0.208173 0.000000
422.090760 -91.624039 0.213939 0.000000
421.441890 -92.337433 0.198994 0.000000
421.140350 -92.747124 0.185689 0.000000
421.096650 -93.630363 0.128758 0.000000
421.136690 -94.723885 0.053234 0.000000
421.082890 -90.895691 0.308964 0.000000
421.106990 -89.135406 0.198534 0.000000
420.837130 -89.473389 0.197105 0.000000
427.645420 -89.507103 0.299549 0.000000
428.147890 -89.286247 0.271851 0.000000
427.652370 -90.205215 0.276779 0.000000
427.661530 -90.929413 0.252239 0.000000
423.789490 -94.358032 0.353327 0.000000
425.535920 -94.060974 0.267547 0.000000
425.026550 -90.489120 0.180470 0.000000
423.021850 -92.609787 0.182865 0.000000
423.518250 -92.447311 0.164871 0.000000
422.507020 -93.552536 0.156283 0.000000
422.200560 -93.975052 0.147217 0.000000
422.104770 -94.715942 0.108122 0.000000
422.156490 -95.716217 0.045570 0.000000
425.099370 -89.226006 0.237704 0.000000
422.829740 -90.880379 0.288622 0.000000
421.796450 -91.807076 0.293408 0.000000
425.189640 -89.972420 0.196013 0.000000
424.519650 -90.654663 0.202600 0.000000
424.095580 -90.899239 0.215034 0.000000
423.749880 -91.227287 0.217814 0.000000
422.476440 -90.029747 0.217923 0.000000
422.209230 -90.401756 0.202062 0.000000
421.798190 -90.616180 0.203120 0.000000
420.865810 -90.893356 0.219003 0.000000
423.541990 -89.819870 0.186026 0.000000
423.074620 -89.998749 0.194159 0.000000
421.693730 -91.183517 0.164697 0.000000
420.851780 -91.584137 0.166296 0.000000
424.456670 -89.413818 0.171952 0.000000
424.012050 -89.633545 0.177597 0.000000
421.218260 -89.635284 0.183353 0.000000
422.569790 -89.121109 0.178048 0.000000
421.962710 -89.154259 0.197997 0.000000
421.607570 -89.413879 0.188750 0.000000
423.180480 -89.071350 0.158679 0.000000
423.846830 -94.578415 0.318893 0.000000
422.342620 -89.204201 0.207577 0.000000
420.912080 -90.285606 0.177202 0.000000
423.006620 -89.176155 0.182224 0.000000
422.264280 -89.727219 0.170022 0.000000
421.839720 -89.946945 0.169399 0.000000
421.323940 -90.072296 0.179153 0.000000
423.516850 -89.003906 0.173601 0.000000
425.011110 -93.596886 0.421705 0.000000
425.188320 -89.196274 0.239398 0.000000
425.048400 -89.696617 0.211210 0.000000
424.702820 -90.052567 0.200251 0.000000
423.789670 -90.579643 0.197515 0.000000
423.276030 -90.782959 0.201455 0.000000
424.555940 -90.557930 0.170490 0.000000
422.734100 -91.581612 0.161120 0.000000
421.255280 -91.504196 0.215625 0.000000
422.761350 -90.973145 0.205661 0.000000
421.083770 -91.981422 0.183707 0.000000
422.059970 -91.616150 0.180988 0.000000
421.959440 -92.340210 0.245479 0.000000
426.444210 -89.446732 0.278630 0.000000
426.098420 -89.838654 0.268423 0.000000
423.356780 -91.598831 0.253125 0.000000
422.694640 -92.332031 0.223393 0.000000
424.708860 -91.370636 0.222222 0.000000
423.547180 -92.395508 0.191795 0.000000
421.727970 -93.453186 0.170797 0.000000
426.530700 -90.742119 0.196143 0.000000
425.572420 -91.359924 0.192195 0.000000
424.693790 -92.001884 0.180617 0.000000
421.591490 -94.011017 0.132824 0.000000
426.294250 -91.222404 0.174708 0.000000
421.325560 -95.179100 0.050423 0.000000
421.183440 -95.778656 0.007092 0.000000
421.038790 -96.393555 -0.038172 0.000000
427.146090 -89.222046 0.299558 0.000000
423.514370 -91.825333 0.285236 0.000000
426.848570 -89.666443 0.287830 0.000000
426.437470 -90.042267 0.283513 0.000000
422.336300 -92.814369 0.259640 0.000000
426.878750 -90.934204 0.216577 0.000000
425.029020 -92.286621 0.204345 0.000000
423.495300 -93.098999 0.204197 0.000000
426.612490 -91.409866 0.199436 0.000000
425.720890 -92.118668 0.190158 0.000000
424.366330 -93.115051 0.174762 0.000000
422.684570 -94.454338 0.138133 0.000000
426.575930 -92.038971 0.163980 0.000000
422.360780 -94.865669 0.118876 0.000000
422.163850 -95.399292 0.086689 0.000000
422.101750 -96.076340 0.039846 0.000000
426.147280 -89.236145 0.299491 0.000000
426.524320 -90.040863 0.242729 0.000000
423.665160 -91.995094 0.243132 0.000000
422.410580 -92.977890 0.225844 0.000000
426.332060 -90.551788 0.223557 0.000000
426.037380 -91.005745 0.210685 0.000000
425.052220 -91.658852 0.211905 0.000000
425.954220 -91.588478 0.181673 0.000000
423.830260 -92.745232 0.191956 0.000000
422.525180 -93.717079 0.174710 0.000000
422.044340 -93.990219 0.172133 0.000000
421.899630 -94.541412 0.139942 0.000000
425.091860 -92.322693 0.171998 0.000000
422.290160 -95.577713 0.058220 0.000000
422.186770 -96.207733 0.017859 0.000000
422.396060 -90.383942 0.243472 0.000000
421.192170 -91.338417 0.242081 0.000000
423.738040 -90.013512 0.202467 0.000000
424.628170 -89.916412 0.166275 0.000000
423.617190 -90.528168 0.181262 0.000000
422.435300 -91.576950 0.175975 0.000000
421.759030 -92.324638 0.161107 0.000000
421.239690 -92.561974 0.168000 0.000000
421.000090 -92.999039 0.150912 0.000000
420.825870 -93.490646 0.127159 0.000000
421.186130 -94.424751 0.054513 0.000000
421.025090 -94.958900 0.026032 0.000000
421.018100 -95.637901 -0.018240 0.000000
420.840970 -96.183685 -0.048494 0.000000
422.324160 -89.030403 0.189374 0.000000
421.526370 -89.702393 0.193725 0.000000
421.449310 -90.212074 0.170274 0.000000
421.575900 -89.382965 0.211669 0.000000
421.319430 -89.800934 0.202457 0.000000
421.519170 -89.255981 0.252699 0.000000
422.896760 -89.308174 0.184254 0.000000
421.868740 -89.975189 0.206408 0.000000
421.723750 -90.473091 0.191979 0.000000
420.770750 -93.499870 0.090886 0.000000
420.914150 -94.866516 0.013129 0.000000
420.760800 -95.418266 -0.010791 0.000000
421.095210 -96.337944 -0.075081 0.000000
420.834470 -96.838509 -0.093625 0.000000
427.697300 -89.555710 0.295356 0.000000
427.656830 -90.197777 0.275780 0.000000
427.609800 -90.844246 0.255598 0.000000
424.153080 -92.598709 0.316200 0.000000
422.843750 -93.208633 0.336667 0.000000
424.997190 -93.688774 0.242923 0.000000
423.429630 -94.186111 0.275572 0.000000
422.022770 -89.804504 0.291171 0.000000
424.491670 -89.556000 0.199021 0.000000
424.627140 -90.229118 0.167780 0.000000
422.588930 -90.633530 0.234873 0.000000
421.164830 -91.193260 0.268297 0.000000
423.232600 -91.529549 0.172081 0.000000
421.660860 -92.033607 0.212449 0.000000
421.841950 -92.744850 0.173893 0.000000
421.708680 -93.307587 0.153437 0.000000
421.356110 -93.754265 0.145971 0.000000
421.618620 -94.553497 0.098367 0.000000
421.870000 -95.371582 0.049617 0.000000
421.667600 -95.931534 0.029240 0.000000
426.614720 -89.093750 0.319198 0.000000
426.950350 -89.881020 0.278170 0.000000
427.217680 -90.665794 0.238955 0.000000
426.553680 -91.839951 0.213189 0.000000
423.779600 -94.887825 0.168214 0.000000
423.102390 -91.181442 0.349260 0.000000
423.756900 -92.107620 0.290047 0.000000
422.478760 -92.882668 0.296267 0.000000
424.545230 -93.129097 0.222173 0.000000
423.090240 -93.846779 0.235357 0.000000
426.262300 -89.528595 0.298069 0.000000
426.450350 -90.287796 0.261662 0.000000
426.773250 -91.109406 0.218028 0.000000
426.896880 -91.879021 0.182158 0.000000
424.506410 -93.092010 0.201829 0.000000
423.284300 -94.680130 0.165703 0.000000
423.067600 -95.296684 0.143159 0.000000
423.124420 -91.150009 0.327653 0.000000
423.701140 -92.055344 0.271262 0.000000
422.309230 -92.821945 0.278687 0.000000
423.038540 -93.848770 0.210965 0.000000
426.560760 -89.171204 0.300091 0.000000
426.930020 -90.005241 0.260686 0.000000
427.181340 -90.822014 0.225096 0.000000
423.369570 -91.588211 0.317506 0.000000
424.140660 -92.606194 0.256470 0.000000
422.859130 -93.482971 0.262275 0.000000
423.548100 -94.531914 0.201059 0.000000
423.764370 -95.387123 0.160946 0.000000
422.176820 -92.477325 0.321133 0.000000
423.690220 -92.096718 0.224897 0.000000
421.807190 -92.029701 0.284952 0.000000
422.408690 -92.999199 0.228821 0.000000
423.176670 -94.082451 0.162687 0.000000
422.955960 -94.729309 0.143000 0.000000
422.904540 -95.465576 0.114157 0.000000
425.631900 -89.471077 0.251631 0.000000
425.844730 -90.289597 0.213728 0.000000
425.713290 -91.002159 0.189540 0.000000
424.685820 -89.301376 0.186780 0.000000
424.703890 -90.057785 0.157820 0.000000
421.931210 -89.791367 0.254324 0.000000
422.670590 -90.793953 0.192432 0.000000
420.799680 -90.765305 0.250795 0.000000
421.370940 -91.722626 0.194824 0.000000
421.097960 -92.333237 0.177925 0.000000
421.050840 -93.050797 0.149342 0.000000
423.563350 -89.470139 0.201426 0.000000
421.669800 -89.515396 0.258822 0.000000
421.966250 -90.359962 0.218685 0.000000
420.771180 -90.607079 0.246043 0.000000
421.335970 -91.583168 0.191733 0.000000
421.378330 -92.355362 0.160509 0.000000
421.074580 -92.976006 0.145028 0.000000
421.128170 -93.774994 0.111358 0.000000
426.082820 -89.272484 0.298059 0.000000
426.193150 -90.124374 0.268286 0.000000
423.179630 -91.362656 0.308768 0.000000
424.104860 -92.569092 0.243101 0.000000
422.156980 -92.496826 0.296317 0.000000
427.204470 -90.422333 0.246253 0.000000
427.369510 -91.352516 0.222127 0.000000
427.067990 -89.519928 0.268340 0.000000
423.179600 -91.312057 0.347206 0.000000
428.209930 -89.894302 0.324392 0.000000
