# .PCD v0.7 - Point Cloud Data file format
VERSION 0.7
FIELDS x y z intensity
SIZE 4 4 4 4
TYPE F F F F
COUNT 1 1 1 1
WIDTH 1186
HEIGHT 1
VIEWPOINT 0 0 0 1 0 0 0
POINTS 1186
DATA ascii
422.892210 160.410770 9.092118 0.000000
422.620420 160.238390 9.082892 0.000000
441.937100 160.199190 9.364119 0.000000
438.596890 160.013490 9.307209 0.000000
438.329410 160.207990 9.307395 0.000000
435.395390 160.067550 9.252294 0.000000
435.056820 160.231780 9.249193 0.000000
432.303680 159.866040 9.186039 0.000000
431.897610 159.945600 9.179944 0.000000
431.488980 160.010150 9.173454 0.000000
431.078030 160.057800 9.166459 0.000000
430.665470 160.090180 9.159103 0.000000
430.251740 160.105420 9.151285 0.000000
429.837460 160.105270 9.143126 0.000000
429.506010 160.093060 9.136293 0.000000
429.092100 160.062640 9.127385 0.000000
428.679200 160.016460 9.118218 0.000000
428.269740 159.944610 9.110153 0.000000
427.863920 159.853870 9.102467 0.000000
427.622070 159.792080 9.097639 0.000000
425.135040 160.057750 9.088047 0.000000
424.712310 159.853520 9.075173 0.000000
422.261930 159.999880 9.070189 0.000000
421.996150 159.814320 9.060387 0.000000
442.334110 159.837040 9.359625 0.000000
439.118620 159.603300 9.306471 0.000000
438.860900 159.813000 9.306820 0.000000
436.223630 159.615660 9.257606 0.000000
435.838500 159.709690 9.271382 0.000000
433.499300 159.529790 9.201631 0.000000
433.105070 159.657970 9.196899 0.000000
432.706180 159.769330 9.191690 0.000000
427.381500 159.725050 9.092483 0.000000
427.062810 159.627720 9.085346 0.000000
426.668240 159.492780 9.075861 0.000000
426.355190 159.376100 9.067825 0.000000
424.295170 159.634720 9.061747 0.000000
423.968840 159.444200 9.051325 0.000000
421.820680 159.687060 9.053703 0.000000
421.560460 159.490460 9.043531 0.000000
442.722020 159.460170 9.354648 0.000000
439.460450 159.318510 9.304911 0.000000
436.942540 159.155760 9.260004 0.000000
436.704770 159.313130 9.259683 0.000000
436.466130 159.467880 9.258719 0.000000
434.576050 159.091340 9.212353 0.000000
434.272710 159.228100 9.209687 0.000000
433.888980 159.387340 9.205882 0.000000
426.200040 159.313660 9.063715 0.000000
425.892090 159.181640 9.055103 0.000000
425.511140 159.005540 9.043833 0.000000
423.726650 159.295530 9.043211 0.000000
423.487790 159.140290 9.034969 0.000000
423.250980 158.980670 9.026446 0.000000
421.305690 159.285890 9.033673 0.000000
421.047060 159.081760 9.022096 0.000000
443.194850 158.969860 9.347618 0.000000
439.880310 158.948590 9.301765 0.000000
437.408600 158.823990 9.259797 0.000000
437.177460 158.992940 9.259909 0.000000
435.314610 158.704610 9.217700 0.000000
435.095730 158.826370 9.216333 0.000000
434.800290 158.981140 9.214182 0.000000
425.136050 158.814300 9.031983 0.000000
424.766140 158.610340 9.019529 0.000000
423.017000 158.815320 9.017625 0.000000
422.709840 158.586180 9.005691 0.000000
443.470180 158.663930 9.343027 0.000000
440.295200 158.566880 9.297009 0.000000
437.858700 158.466860 9.258990 0.000000
437.560970 158.708310 9.259529 0.000000
435.813810 158.398500 9.220242 0.000000
435.530400 158.576810 9.218893 0.000000
424.547240 158.481090 9.011824 0.000000
424.259430 158.299990 9.001166 0.000000
422.334050 158.285490 8.990311 0.000000
443.828400 158.244060 9.336491 0.000000
440.696870 158.165500 9.291474 0.000000
438.298460 158.092070 9.256530 0.000000
436.296690 158.064000 9.221777 0.000000
436.023100 158.258990 9.221052 0.000000
423.905030 158.062590 8.987381 0.000000
423.626830 157.862290 8.975959 0.000000
421.891600 157.908110 8.970501 0.000000
444.262700 157.700790 9.327416 0.000000
444.092800 157.921740 9.330987 0.000000
441.084840 157.746150 9.285453 0.000000
438.729800 157.700990 9.251862 0.000000
436.953770 157.537230 9.222862 0.000000
436.696690 157.755620 9.222321 0.000000
423.421690 157.705980 8.967321 0.000000
423.156070 157.486130 8.956189 0.000000
421.533140 157.577210 8.953486 0.000000
421.322450 157.371690 8.942959 0.000000
444.596370 157.249880 9.319590 0.000000
444.431030 157.477070 9.323566 0.000000
441.460880 157.310060 9.278384 0.000000
441.312740 157.487060 9.281248 0.000000
439.156890 157.295790 9.244278 0.000000
437.437900 157.179500 9.211828 0.000000
437.149720 157.374860 9.221205 0.000000
422.758790 157.148860 8.936824 0.000000
422.502840 156.911650 8.924149 0.000000
421.102330 157.169750 8.929483 0.000000
420.865840 156.975720 8.911951 0.000000
445.205570 156.905880 9.282514 0.000000
444.865360 157.066190 9.304746 0.000000
442.002140 156.951890 9.247125 0.000000
439.897610 156.846710 9.200773 0.000000
439.604830 157.011630 9.220014 0.000000
438.182280 156.787230 9.166736 0.000000
437.932400 156.923510 9.182529 0.000000
437.684170 157.054660 9.197606 0.000000
422.257720 156.661330 8.912048 0.000000
442.779420 156.543790 9.191338 0.000000
442.380430 156.750900 9.220788 0.000000
440.730010 156.386950 9.138992 0.000000
440.406920 156.561460 9.164229 0.000000
440.096010 156.733080 9.187164 0.000000
438.781010 156.449740 9.124956 0.000000
438.434360 156.644330 9.150010 0.000000
421.862340 156.298280 8.884648 0.000000
421.565950 156.173970 8.847436 0.000000
421.154750 156.110260 8.784586 0.000000
444.128110 156.169600 9.069552 0.000000
443.570860 156.219390 9.125647 0.000000
441.702480 156.158890 9.037649 0.000000
441.291080 156.200870 9.084690 0.000000
439.885440 156.144410 9.005974 0.000000
439.564420 156.179750 9.046340 0.000000
439.157750 156.259410 9.093412 0.000000
442.324430 155.205870 9.013895 0.000000
440.447570 155.443530 8.981479 0.000000
444.720310 154.984500 9.052117 0.000000
442.343260 154.972530 9.022861 0.000000
440.524570 155.046920 8.997320 0.000000
444.704500 154.569500 9.066949 0.000000
442.362150 154.623870 9.036237 0.000000
440.585880 154.650630 9.012999 0.000000
444.710450 154.165860 9.077843 0.000000
442.373410 154.162190 9.053744 0.000000
440.640810 154.157090 9.032221 0.000000
444.714540 153.767240 9.087321 0.000000
442.391170 153.710560 9.067647 0.000000
440.674040 153.666170 9.051111 0.000000
444.706090 153.370000 9.096973 0.000000
442.408970 153.377210 9.075829 0.000000
440.704220 153.281460 9.062582 0.000000
444.694920 153.106860 9.103204 0.000000
444.575530 152.828960 9.121300 0.000000
442.416080 153.045100 9.083929 0.000000
440.731870 152.900970 9.071962 0.000000
444.679500 152.587250 9.113014 0.000000
442.430730 152.607450 9.091974 0.000000
440.768620 152.525790 9.077450 0.000000
444.733310 152.208720 9.111206 0.000000
442.494110 152.180070 9.090924 0.000000
440.835360 152.157290 9.075772 0.000000
442.536130 151.858660 9.089449 0.000000
440.888150 151.786330 9.074036 0.000000
440.919250 151.506910 9.072655 0.000000
440.857060 149.358150 9.066351 0.000000
442.516270 148.943890 9.071270 0.000000
440.863680 148.978590 9.054616 0.000000
444.754610 148.639450 9.086629 0.000000
442.577850 148.605130 9.053825 0.000000
440.909450 148.587460 9.034064 0.000000
444.905790 148.226900 9.059745 0.000000
442.629820 148.261430 9.036069 0.000000
440.940670 148.191160 9.013253 0.000000
444.993010 147.813580 9.038578 0.000000
442.687560 147.796540 9.011746 0.000000
440.958340 147.789980 8.991970 0.000000
445.055020 147.397930 9.018969 0.000000
442.729280 147.324450 8.986885 0.000000
440.962130 147.384290 8.970216 0.000000
440.955410 147.077730 8.953726 0.000000
444.323850 145.693190 9.030769 0.000000
442.206700 145.714280 8.968619 0.000000
441.786190 145.648190 9.016889 0.000000
440.082460 145.646940 8.978283 0.000000
421.693790 145.335920 8.846405 0.000000
421.294190 145.511900 8.795443 0.000000
420.770230 145.639430 8.716946 0.000000
443.928830 145.560440 9.066484 0.000000
443.586360 145.419530 9.095615 0.000000
441.561310 145.508190 9.035433 0.000000
441.277980 145.401310 9.062841 0.000000
439.646150 145.445680 9.021506 0.000000
439.170100 145.184330 9.061970 0.000000
422.029480 145.140610 8.882169 0.000000
443.117770 145.075470 9.126071 0.000000
443.015380 144.852830 9.123881 0.000000
440.837980 145.029630 9.088730 0.000000
440.685700 144.754850 9.085426 0.000000
439.022950 144.953080 9.058788 0.000000
422.396760 144.663730 8.890301 0.000000
422.253810 144.877810 8.891128 0.000000
420.796360 144.550400 8.871141 0.000000
442.857060 144.521300 9.120109 0.000000
440.525570 144.484680 9.082005 0.000000
438.817350 144.651030 9.054532 0.000000
438.656740 144.429090 9.051243 0.000000
422.751430 144.177490 8.888759 0.000000
422.595890 144.383560 8.889360 0.000000
420.944820 144.296620 8.869910 0.000000
442.631130 144.086790 9.115175 0.000000
440.359380 144.218320 9.078478 0.000000
440.244720 144.043270 9.076035 0.000000
438.432560 144.140870 9.046703 0.000000
422.967710 143.908770 8.887891 0.000000
421.261290 143.799580 8.867806 0.000000
421.099400 144.046080 8.868809 0.000000
445.665920 143.821210 9.163433 0.000000
442.455140 143.764530 9.110958 0.000000
440.066250 143.785130 9.072358 0.000000
438.079070 143.722780 9.039669 0.000000
423.306920 143.516280 8.886354 0.000000
421.545100 143.397220 8.866450 0.000000
421.429140 143.556630 8.866925 0.000000
445.478640 143.421070 9.159046 0.000000
442.330960 143.553570 9.108336 0.000000
442.203060 143.344940 9.105675 0.000000
439.754670 143.365310 9.065939 0.000000
437.703490 143.324800 9.032565 0.000000
423.661870 143.134550 8.883634 0.000000
421.786190 143.084460 8.865595 0.000000
445.446620 143.108700 9.145421 0.000000
442.005400 143.035780 9.101394 0.000000
439.426640 142.958470 9.059247 0.000000
437.383420 142.999880 9.024543 0.000000
423.894930 142.871440 8.877663 0.000000
437.280790 142.422010 8.956756 0.000000
437.123660 142.315640 8.957219 0.000000
424.087980 142.248900 8.811749 0.000000
421.986270 142.304670 8.805064 0.000000
445.568120 142.371580 9.095433 0.000000
445.345490 142.147570 9.100244 0.000000
442.020140 142.277890 9.040985 0.000000
441.828280 142.105740 9.044232 0.000000
439.281370 142.240740 8.997623 0.000000
438.902830 142.009310 9.007654 0.000000
436.874270 142.175540 8.960791 0.000000
436.539340 141.997680 8.965136 0.000000
424.877440 141.807680 8.835929 0.000000
424.567720 141.990950 8.829539 0.000000
422.457210 141.759260 8.798596 0.000000
422.234250 141.972080 8.797117 0.000000
445.008540 141.820160 9.107043 0.000000
441.634950 141.937060 9.047322 0.000000
441.312350 141.714800 9.056257 0.000000
438.517790 141.795500 9.017983 0.000000
438.130860 141.595290 9.027794 0.000000
436.117920 141.789370 8.969523 0.000000
435.694430 141.593980 8.972705 0.000000
425.662750 141.370700 8.846221 0.000000
425.344450 141.538060 8.841972 0.000000
425.031370 141.714800 8.837898 0.000000
422.846370 141.423580 8.802480 0.000000
422.609500 141.621090 8.799723 0.000000
444.552700 141.399020 9.115642 0.000000
440.863800 141.445560 9.070213 0.000000
440.552700 141.230510 9.075987 0.000000
437.745030 141.405210 9.036476 0.000000
437.356870 141.229550 9.044901 0.000000
437.059050 141.114140 9.052419 0.000000
435.356810 141.442890 8.973321 0.000000
434.927000 141.277010 8.974981 0.000000
434.484380 141.148040 8.980150 0.000000
434.214600 141.087810 8.984640 0.000000
427.323760 140.991760 8.917829 0.000000
426.968900 141.036680 8.900502 0.000000
426.525180 141.112490 8.879028 0.000000
426.084900 141.214680 8.859094 0.000000
425.824920 141.292970 8.848675 0.000000
424.063320 141.041500 8.883195 0.000000
423.745640 141.103060 8.859056 0.000000
423.421660 141.168620 8.833443 0.000000
421.371090 141.039760 8.873182 0.000000
420.983280 141.129320 8.840462 0.000000
444.127500 140.969970 9.119161 0.000000
440.188320 141.073720 9.090065 0.000000
439.754850 140.827620 9.099371 0.000000
436.858610 141.044340 9.057756 0.000000
436.593870 140.891830 9.055874 0.000000
436.347990 140.711040 9.047859 0.000000
434.034270 141.053040 8.987810 0.000000
433.767640 140.997060 8.990637 0.000000
433.346530 140.845460 8.981659 0.000000
432.923520 140.696700 8.970020 0.000000
429.301150 140.620380 8.951770 0.000000
428.952030 140.653660 8.944992 0.000000
428.514310 140.689180 8.932675 0.000000
428.173070 140.774380 8.930859 0.000000
427.750820 140.892670 8.927755 0.000000
424.987670 140.668400 8.919217 0.000000
424.649020 140.866130 8.916023 0.000000
422.224550 140.650540 8.920429 0.000000
421.941560 140.833370 8.911413 0.000000
443.768220 140.683170 9.125673 0.000000
443.533450 140.493180 9.129011 0.000000
439.348940 140.564850 9.102770 0.000000
439.079740 140.332500 9.097836 0.000000
436.096070 140.537900 9.039905 0.000000
435.840180 140.369670 9.031771 0.000000
432.579770 140.591750 8.960748 0.000000
432.143890 140.480090 8.949513 0.000000
431.696290 140.432620 8.946659 0.000000
431.335080 140.431640 8.948450 0.000000
430.975950 140.439150 8.949561 0.000000
430.530030 140.460830 8.949985 0.000000
430.087220 140.498350 8.950121 0.000000
429.736050 140.548070 8.951316 0.000000
429.474550 140.590040 8.951749 0.000000
425.771550 140.259430 8.925569 0.000000
425.332180 140.480030 8.922138 0.000000
422.882870 140.231120 8.937770 0.000000
422.603580 140.413250 8.931604 0.000000
443.296510 140.308090 9.132291 0.000000
443.057980 140.127530 9.135451 0.000000
438.906920 140.169860 9.092558 0.000000
438.730770 140.010590 9.087315 0.000000
435.666470 140.261980 9.026421 0.000000
435.402340 140.105240 9.018165 0.000000
435.133790 139.955510 9.010036 0.000000
426.861690 139.798630 8.933535 0.000000
426.584690 139.904590 8.931619 0.000000
426.219670 140.055040 8.928966 0.000000
423.637570 139.765900 8.951647 0.000000
423.352080 139.935910 8.946605 0.000000
423.069520 140.111190 8.941410 0.000000
442.818360 139.951110 9.138438 0.000000
442.576970 139.779500 9.141355 0.000000
438.460720 139.777680 9.079381 0.000000
438.184910 139.550990 9.071401 0.000000
434.860440 139.813370 9.001856 0.000000
434.481140 139.657350 8.994651 0.000000
434.069610 139.590850 8.999749 0.000000
433.760010 139.554380 9.004242 0.000000
433.452610 139.522710 9.008030 0.000000
433.044950 139.489060 9.012529 0.000000
432.640080 139.465010 9.016291 0.000000
432.238010 139.449920 9.019257 0.000000
431.838560 139.444500 9.021574 0.000000
431.441830 139.448090 9.023171 0.000000
431.047670 139.460620 9.024070 0.000000
430.558810 139.489090 9.024182 0.000000
430.073670 139.534700 9.024010 0.000000
429.784910 139.577730 9.024872 0.000000
429.290950 139.449450 8.991528 0.000000
428.094270 139.417790 8.941488 0.000000
427.710050 139.521820 8.939125 0.000000
427.330170 139.637800 8.936704 0.000000
427.048190 139.732240 8.934861 0.000000
424.412930 139.338790 8.963599 0.000000
424.119780 139.494520 8.959285 0.000000
423.829320 139.655260 8.954769 0.000000
420.773900 139.454280 8.971277 0.000000
442.149380 139.394030 9.138699 0.000000
441.957920 139.181530 9.133575 0.000000
437.997410 139.403920 9.066018 0.000000
437.710910 139.189420 9.057848 0.000000
428.879430 139.292660 8.953494 0.000000
428.482420 139.325150 8.943664 0.000000
425.208400 138.949650 8.973576 0.000000
424.907900 139.091340 8.970041 0.000000
424.609890 139.237880 8.966268 0.000000
441.778440 138.956440 9.126150 0.000000
440.159550 139.077160 9.229458 0.000000
439.889920 138.985350 9.235902 0.000000
437.322170 138.911210 9.046387 0.000000
436.983310 138.781650 9.048111 0.000000
436.747280 138.717070 9.051611 0.000000
425.711610 138.714600 8.977045 0.000000
425.410400 138.858350 8.975764 0.000000
441.585330 138.743820 9.120022 0.000000
441.412750 138.508150 9.110214 0.000000
439.823790 138.646700 9.209145 0.000000
436.519320 138.641460 9.052866 0.000000
436.226500 138.436160 9.040367 0.000000
431.874970 138.433200 9.136500 0.000000
426.183650 138.370470 8.961330 0.000000
441.244380 138.264850 9.098967 0.000000
435.657320 138.257220 9.040368 0.000000
435.309970 138.173650 9.041816 0.000000
426.875670 137.906390 8.938226 0.000000
426.567990 138.083660 8.945592 0.000000
422.528200 137.937120 8.971278 0.000000
422.242920 137.969420 8.953161 0.000000
427.166230 137.641770 8.917408 0.000000
422.615110 137.571640 8.941507 0.000000
440.514830 137.321660 9.054118 0.000000
440.254460 137.179790 9.053987 0.000000
423.910400 160.991790 9.123491 0.000000
444.127170 160.274640 9.577806 0.000000
435.702910 159.673890 9.520077 0.000000
440.459720 157.467250 9.634890 0.000000
420.991520 139.317540 8.978059 0.000000
421.647610 138.921940 8.997084 0.000000
421.319310 139.117750 8.987854 0.000000
440.173160 139.053330 9.562601 0.000000
439.931920 138.926770 9.563150 0.000000
422.052370 138.617650 9.000894 0.000000
421.862670 138.788040 9.001966 0.000000
431.877840 138.378130 9.402485 0.000000
440.403660 160.384480 10.071775 0.000000
440.378420 160.025360 10.087053 0.000000
435.711940 159.696930 9.868969 0.000000
440.397890 159.403430 10.110763 0.000000
440.406980 158.956670 10.127230 0.000000
440.421720 158.530550 10.142216 0.000000
440.434390 158.120760 10.156048 0.000000
440.462370 157.734970 10.167999 0.000000
440.083010 138.945630 9.893832 0.000000
431.884740 138.276310 9.802131 0.000000
444.162690 160.125030 10.322331 0.000000
435.692290 159.675400 10.336159 0.000000
435.508120 159.729780 10.451447 0.000000
440.113680 138.900970 10.226275 0.000000
432.506900 138.452770 10.225567 0.000000
431.780360 138.178180 10.205169 0.000000
444.324890 160.058650 10.691730 0.000000
443.986510 160.185030 10.691135 0.000000
435.624880 159.935670 10.679753 0.000000
444.412900 159.762390 10.693819 0.000000
435.675480 159.655810 10.684030 0.000000
435.374360 159.873950 10.679126 0.000000
444.009550 158.196530 11.049095 0.000000
432.963870 140.084080 10.543465 0.000000
440.210780 138.985600 10.563464 0.000000
432.842710 138.902560 10.511674 0.000000
440.073330 138.732220 10.557723 0.000000
432.595890 138.533600 10.499079 0.000000
432.188290 138.366180 10.489432 0.000000
431.875760 138.254840 10.482272 0.000000
431.215090 138.326840 10.474581 0.000000
434.169740 138.189910 10.508211 0.000000
431.665440 138.181210 10.477377 0.000000
429.805940 137.870730 10.439572 0.000000
429.469270 137.822040 10.432300 0.000000
431.045720 137.630420 10.453699 0.000000
442.993560 160.896740 11.402849 0.000000
442.614560 160.954480 11.391102 0.000000
444.619960 160.630230 11.454083 0.000000
434.767180 160.330410 10.902690 0.000000
443.973540 160.178670 11.057425 0.000000
435.693050 160.061400 11.037038 0.000000
435.371370 159.880480 11.142833 0.000000
435.045100 160.255630 10.907043 0.000000
444.320070 159.706130 11.244445 0.000000
435.880190 159.641940 11.034852 0.000000
435.360750 159.855560 10.910568 0.000000
435.533940 159.430330 11.023860 0.000000
444.216280 158.633760 11.407512 0.000000
444.043850 158.533310 11.051194 0.000000
435.945310 158.473570 11.127102 0.000000
444.064270 158.228230 11.395891 0.000000
436.931880 158.041990 11.148123 0.000000
436.783390 157.627930 11.134907 0.000000
436.396640 157.823010 11.126783 0.000000
432.319670 141.181380 10.880801 0.000000
432.164700 141.107570 10.772076 0.000000
431.794100 141.264570 10.766528 0.000000
432.738860 140.906310 10.999747 0.000000
432.559330 140.903700 10.995793 0.000000
432.079530 140.869250 10.878152 0.000000
431.684880 140.875600 10.871945 0.000000
431.934540 140.425960 10.990522 0.000000
431.585660 140.331340 10.872394 0.000000
431.209350 140.437610 10.975940 0.000000
431.428560 140.119710 10.870916 0.000000
433.481930 139.651430 11.037400 0.000000
432.988830 139.587360 10.779134 0.000000
431.090090 139.719470 10.986054 0.000000
440.405330 139.154100 11.237412 0.000000
440.051640 138.850330 11.062338 0.000000
430.760770 138.723570 10.737625 0.000000
429.829860 138.796430 10.722239 0.000000
440.426450 138.719180 11.243247 0.000000
430.454380 138.334730 10.998548 0.000000
430.137480 138.534390 10.726250 0.000000
433.707090 138.135650 10.784714 0.000000
431.005520 138.166090 10.739244 0.000000
430.357450 137.844760 10.726853 0.000000
433.794280 137.808230 11.074887 0.000000
431.393250 137.521500 10.742883 0.000000
430.927520 137.547300 11.020567 0.000000
444.740140 160.716490 11.847316 0.000000
433.495850 160.402910 11.559942 0.000000
437.032320 159.960910 11.445841 0.000000
435.751100 160.172910 11.523714 0.000000
435.187810 159.940080 11.486778 0.000000
434.537480 159.863920 11.567852 0.000000
434.260070 159.898280 11.557857 0.000000
433.804380 160.066700 11.439194 0.000000
444.320620 159.710010 11.795996 0.000000
436.071380 159.601100 11.391138 0.000000
434.295320 159.753420 11.330273 0.000000
436.581630 159.349530 11.639759 0.000000
435.447300 159.297740 11.464154 0.000000
434.443970 159.268630 11.525741 0.000000
444.599980 158.855160 11.787898 0.000000
444.496980 158.467580 11.772203 0.000000
435.220700 158.607010 11.522864 0.000000
444.408780 158.098740 11.758021 0.000000
435.289370 158.120390 11.497588 0.000000
434.988160 157.949690 11.471440 0.000000
444.210270 157.683990 11.736783 0.000000
435.305600 157.868030 11.483721 0.000000
444.117650 157.334530 11.723254 0.000000
433.335080 140.752230 11.241973 0.000000
432.730590 140.922650 11.217992 0.000000
432.484590 140.823040 11.215025 0.000000
430.915740 140.697220 11.290985 0.000000
432.189640 140.505490 11.219428 0.000000
431.249820 140.433560 11.310560 0.000000
430.926820 140.557310 11.298577 0.000000
431.423800 140.074920 11.449889 0.000000
432.087740 139.508910 11.255175 0.000000
430.133760 139.621540 11.210658 0.000000
442.040920 139.444960 11.642628 0.000000
440.352780 139.205140 11.569027 0.000000
430.126860 139.063550 11.484879 0.000000
429.926390 139.106290 11.479054 0.000000
439.917270 138.894940 11.558111 0.000000
430.430730 138.975620 11.495584 0.000000
430.334200 138.930180 11.241150 0.000000
441.702390 138.137010 11.661180 0.000000
439.229740 138.031430 11.554038 0.000000
433.774510 137.859740 11.362843 0.000000
429.903870 137.899830 11.274307 0.000000
429.244110 137.993260 11.260888 0.000000
430.575410 137.691280 11.293948 0.000000
429.675750 137.742770 11.276902 0.000000
429.444790 137.637360 11.277606 0.000000
432.246120 137.182540 11.348728 0.000000
432.032560 136.994060 11.351077 0.000000
442.441650 160.817180 12.081403 0.000000
443.786740 160.413600 12.155887 0.000000
433.865480 160.367110 11.801339 0.000000
433.538850 160.539400 11.801148 0.000000
437.409060 160.131710 11.993840 0.000000
437.064000 160.187300 11.974241 0.000000
436.735990 160.255520 11.957392 0.000000
435.794620 160.256740 11.897579 0.000000
435.159240 159.997760 11.956455 0.000000
434.449770 160.116120 11.924424 0.000000
434.266780 160.151350 11.917163 0.000000
444.387420 159.755390 12.171320 0.000000
436.008120 159.514340 11.852342 0.000000
434.502930 159.797410 11.785343 0.000000
444.288060 159.346480 12.147955 0.000000
442.125460 159.536850 12.001934 0.000000
441.699190 159.535930 11.972429 0.000000
436.139040 159.380890 12.084854 0.000000
435.332920 159.289750 11.903554 0.000000
434.433720 159.254100 11.736222 0.000000
436.106780 158.708570 12.018985 0.000000
444.715880 157.624740 12.117603 0.000000
436.480830 157.805470 11.969565 0.000000
434.901210 157.828870 12.031537 0.000000
434.538180 157.534480 11.965521 0.000000
444.689270 157.301880 12.105074 0.000000
444.678770 156.992190 12.094516 0.000000
439.216920 140.814650 12.056234 0.000000
432.061710 140.660370 11.653816 0.000000
431.886990 140.634490 11.650252 0.000000
431.240480 140.831950 11.831750 0.000000
439.294010 140.385380 11.787099 0.000000
431.359500 140.588990 11.638444 0.000000
431.618440 139.985580 11.695328 0.000000
432.418400 139.807480 11.735276 0.000000
431.880490 139.508060 11.742240 0.000000
430.885770 139.670880 11.943768 0.000000
431.112980 139.289080 11.739412 0.000000
429.926120 139.277600 11.717123 0.000000
443.388340 139.011310 12.104732 0.000000
439.886110 138.924180 11.888459 0.000000
433.534850 138.675930 11.868510 0.000000
433.306490 138.713000 11.586558 0.000000
431.371150 138.695310 11.794893 0.000000
429.712370 138.882920 11.746806 0.000000
429.505770 138.854750 11.746514 0.000000
433.329250 138.607480 11.865770 0.000000
433.043180 138.410510 11.731717 0.000000
432.177640 138.310870 11.576106 0.000000
431.846770 138.328400 11.566219 0.000000
430.119810 138.551380 11.780419 0.000000
445.016880 138.041000 11.824441 0.000000
432.813050 137.923250 11.617645 0.000000
430.888400 137.958630 11.844397 0.000000
429.675350 137.850160 11.551934 0.000000
429.281740 137.840000 11.687795 0.000000
429.014920 137.960680 11.536873 0.000000
439.151280 137.660060 11.907177 0.000000
430.453890 137.599640 11.865326 0.000000
439.957640 137.498210 11.959590 0.000000
438.925380 137.503330 11.902808 0.000000
433.169590 137.345660 11.961312 0.000000
439.967930 136.994810 11.984512 0.000000
432.824340 136.646930 11.694277 0.000000
445.074400 160.954440 12.668597 0.000000
442.259120 161.031360 12.430243 0.000000
436.643980 160.880650 12.268141 0.000000
435.282230 160.989110 12.182983 0.000000
436.218750 160.593200 12.467433 0.000000
435.707240 160.513260 12.415352 0.000000
434.219850 160.286330 12.276242 0.000000
433.912570 160.254290 12.251767 0.000000
443.721130 160.369090 12.516653 0.000000
436.992280 159.925110 12.460844 0.000000
435.126130 160.044140 12.312536 0.000000
434.484650 160.205520 12.284437 0.000000
445.301210 159.976780 12.637625 0.000000
441.702510 159.868210 12.312889 0.000000
441.360900 159.919770 12.287035 0.000000
434.456820 159.713200 12.221239 0.000000
421.910950 159.516020 12.281437 0.000000
436.218350 159.336580 12.322682 0.000000
435.159670 159.177670 12.320753 0.000000
436.585940 158.903790 12.309540 0.000000
436.808650 158.456620 12.283851 0.000000
437.115840 158.127520 12.281922 0.000000
434.373870 157.543350 12.133478 0.000000
441.162230 142.084530 12.452370 0.000000
439.962980 142.306690 12.315475 0.000000
439.684940 141.953930 12.311753 0.000000
440.841670 141.876530 12.432631 0.000000
439.525180 141.796050 12.307222 0.000000
439.367490 141.636580 12.303431 0.000000
437.668790 141.581530 12.152295 0.000000
445.628660 141.216920 12.583093 0.000000
440.510160 141.527190 12.422443 0.000000
439.354250 141.331090 12.324371 0.000000
437.521060 141.438480 12.151044 0.000000
431.130040 141.044010 12.019014 0.000000
443.985110 140.834370 12.451489 0.000000
439.359470 140.995700 12.349678 0.000000
430.995150 140.634000 12.066998 0.000000
431.879910 140.606400 12.325854 0.000000
430.824160 140.512570 12.302794 0.000000
430.857090 140.055830 12.136597 0.000000
432.662050 139.581310 12.011148 0.000000
431.839230 139.750430 11.962966 0.000000
429.628360 139.423420 12.194951 0.000000
442.264470 139.219670 12.387785 0.000000
432.535920 139.205800 12.174781 0.000000
431.306790 139.253020 12.123341 0.000000
430.516360 139.174930 11.987782 0.000000
430.019230 139.290540 12.091152 0.000000
429.728420 139.383030 11.952789 0.000000
439.847050 138.962940 12.216839 0.000000
433.283600 138.763180 12.121204 0.000000
432.802250 138.936100 12.347641 0.000000
432.377230 138.963320 12.063461 0.000000
432.190190 138.830510 12.070366 0.000000
430.522860 139.001430 12.005927 0.000000
429.500670 138.841380 12.006919 0.000000
440.848300 138.633030 12.311399 0.000000
433.102330 138.604490 12.129382 0.000000
431.822330 138.439220 12.098605 0.000000
430.322020 138.467860 12.326513 0.000000
429.262120 138.412870 12.049472 0.000000
445.628630 137.971190 12.294154 0.000000
445.243290 137.841090 12.273074 0.000000
444.473330 137.609620 12.231048 0.000000
444.202640 137.401250 12.221769 0.000000
440.144840 136.738140 12.381882 0.000000
440.046510 136.356410 12.400816 0.000000
421.182160 161.005450 12.485860 0.000000
445.645970 160.955670 12.719711 0.000000
445.050230 160.940540 13.065914 0.000000
434.479280 160.669540 12.586554 0.000000
433.877200 160.693210 12.545496 0.000000
443.822780 160.445280 12.901587 0.000000
441.386080 160.631550 12.999422 0.000000
441.097990 160.542970 12.630143 0.000000
437.252350 160.650410 12.840736 0.000000
436.746220 160.660710 12.789621 0.000000
435.751250 160.598790 12.684740 0.000000
434.166690 160.408170 12.524298 0.000000
442.487210 160.153030 12.741089 0.000000
441.824710 160.137160 12.671920 0.000000
441.426940 160.316070 12.645141 0.000000
435.073910 160.153990 12.561589 0.000000
445.330350 159.997190 13.035294 0.000000
437.133760 159.782270 12.715962 0.000000
443.996830 159.508360 12.858177 0.000000
436.470310 159.214870 12.570826 0.000000
436.178130 159.448180 12.570334 0.000000
444.232180 158.979720 12.851180 0.000000
442.912020 159.127730 12.715679 0.000000
436.858340 158.805940 12.562265 0.000000
436.962280 158.642350 12.554126 0.000000
437.677520 158.058520 12.572302 0.000000
437.511470 158.152880 12.562232 0.000000
444.320860 141.664510 12.814361 0.000000
444.480990 141.209490 12.856772 0.000000
440.938350 140.456410 12.866632 0.000000
432.112120 140.327970 12.377055 0.000000
440.626950 139.660480 12.902479 0.000000
431.870850 139.485280 12.490713 0.000000
431.079650 139.541000 12.454730 0.000000
430.496520 139.622530 12.427609 0.000000
440.474150 139.444000 12.569147 0.000000
430.701570 139.333440 12.475462 0.000000
439.773900 139.034590 12.871868 0.000000
433.699550 138.846590 12.403927 0.000000
433.387700 138.769130 12.396845 0.000000
432.903900 138.940830 12.618497 0.000000
432.634890 138.690900 12.641338 0.000000
431.786500 138.635860 12.612954 0.000000
430.313080 138.869170 12.536365 0.000000
430.108830 138.934540 12.523010 0.000000
429.696990 138.825710 12.533670 0.000000
433.677610 138.521210 12.722529 0.000000
433.111570 138.546260 12.410412 0.000000
431.714420 138.387480 12.509296 0.000000
430.753750 138.295330 12.357474 0.000000
429.893830 138.459470 12.590736 0.000000
431.414460 138.115160 12.677158 0.000000
445.498600 137.616350 12.740111 0.000000
444.967290 137.386460 12.708241 0.000000
432.208040 137.295040 12.527955 0.000000
444.087010 137.035370 12.656279 0.000000
443.787630 136.855580 12.642866 0.000000
440.674190 137.018020 12.778885 0.000000
432.495060 137.007920 12.574898 0.000000
440.586460 136.112210 12.847107 0.000000
420.875030 160.981550 12.814569 0.000000
443.848630 160.466800 13.280355 0.000000
443.495940 160.570920 13.245472 0.000000
442.144560 160.579510 13.083326 0.000000
441.686890 160.544020 13.026328 0.000000
445.390050 160.036560 13.442078 0.000000
443.936980 159.472090 13.213059 0.000000
443.588650 158.283400 13.081057 0.000000
443.799290 157.785110 13.419477 0.000000
443.410280 157.286820 13.322045 0.000000
443.713710 156.855820 13.338489 0.000000
441.326630 142.405380 13.065835 0.000000
441.156830 142.230760 13.057300 0.000000
444.599730 141.482330 13.233551 0.000000
440.485690 141.212300 13.062172 0.000000
442.215450 140.020830 13.049530 0.000000
442.081480 139.764100 13.055460 0.000000
440.694340 139.582310 13.256776 0.000000
441.808350 139.244690 13.069172 0.000000
439.740330 139.066790 13.199627 0.000000
441.120450 138.734650 13.040092 0.000000
438.633210 138.370150 13.159885 0.000000
440.125150 138.174970 12.990942 0.000000
443.865260 160.481690 13.661104 0.000000
443.245330 160.747730 13.599753 0.000000
445.398740 160.044340 13.844365 0.000000
445.629360 159.454420 13.829599 0.000000
443.883030 159.439620 13.568376 0.000000
442.799990 140.258990 13.463373 0.000000
442.860350 139.641850 13.529978 0.000000
445.679810 138.785630 13.559584 0.000000
445.487060 138.503850 13.557695 0.000000
442.876340 138.619160 13.632848 0.000000
442.532170 138.529050 13.597891 0.000000
442.010190 138.628250 13.521591 0.000000
441.221160 138.617030 13.425318 0.000000
440.108180 138.187160 13.342703 0.000000
440.070280 136.810350 13.501211 0.000000
443.321380 156.052570 8.990940 0.000000
440.811740 156.076600 8.961573 0.000000
443.332670 155.771300 9.001677 0.000000
440.866640 155.851360 8.968326 0.000000
443.338930 155.491440 9.012285 0.000000
443.822880 146.958310 8.979309 0.000000
441.459690 146.950500 8.949891 0.000000
439.657840 146.856090 8.924853 0.000000
443.859470 146.533130 8.960066 0.000000
441.464970 146.590160 8.931856 0.000000
439.638520 146.545440 8.908026 0.000000
443.877900 146.246700 8.946960 0.000000
441.444640 146.109920 8.909316 0.000000
439.592070 146.132110 8.886652 0.000000
443.892520 145.957900 8.933552 0.000000
443.655270 145.748140 8.950256 0.000000
441.369420 145.766330 8.899446 0.000000
439.540440 145.824070 8.871662 0.000000
439.275820 145.724060 8.901870 0.000000
430.912630 161.057250 9.185966 0.000000
427.782470 161.042910 9.154882 0.000000
427.419370 160.991210 9.149486 0.000000
444.458770 160.980030 9.416198 0.000000
439.665190 160.880250 9.342130 0.000000
439.462710 161.044910 9.342544 0.000000
435.798220 160.883030 9.277285 0.000000
435.516660 161.043700 9.275574 0.000000
432.445040 160.672240 9.206677 0.000000
432.178160 160.754730 9.203397 0.000000
431.819700 160.855010 9.198824 0.000000
431.458620 160.944210 9.193927 0.000000
431.186340 161.004380 9.190022 0.000000
427.057950 160.929810 9.143636 0.000000
426.609040 160.838210 9.135776 0.000000
426.163090 160.732650 9.127246 0.000000
425.808870 160.636920 9.119910 0.000000
425.544680 160.559110 9.114134 0.000000
444.701110 160.748200 9.412936 0.000000
440.164730 160.455540 9.340220 0.000000
439.866520 160.712970 9.341482 0.000000
436.534550 160.424530 9.280555 0.000000
433.407230 160.316250 9.216951 0.000000
432.973050 160.487690 9.212553 0.000000
432.621980 160.613780 9.208726 0.000000
425.369420 160.503890 9.110159 0.000000
425.021120 160.385250 9.101878 0.000000
424.589230 160.224880 9.091002 0.000000
445.408390 160.021700 9.402627 0.000000
445.175480 160.268690 9.406196 0.000000
440.555210 160.100830 9.338135 0.000000
436.986330 160.118940 9.280915 0.000000
434.172180 159.963590 9.223481 0.000000
433.749970 160.166430 9.220080 0.000000
430.606810 159.883240 9.151916 0.000000
430.200070 159.947010 9.145523 0.000000
429.791050 159.994060 9.138634 0.000000
429.380520 160.026030 9.131390 0.000000
429.051240 160.039700 9.125283 0.000000
428.639190 160.039150 9.117740 0.000000
428.228120 160.010510 9.112123 0.000000
427.819120 159.962710 9.106501 0.000000
427.412260 159.901440 9.100320 0.000000
427.008090 159.825240 9.093435 0.000000
424.248840 160.081890 9.082416 0.000000
423.829860 159.886320 9.071612 0.000000
445.638180 159.769840 9.398933 0.000000
440.943150 159.737320 9.334803 0.000000
437.686130 159.590590 9.280723 0.000000
437.429110 159.796520 9.280611 0.000000
434.914220 159.558230 9.228289 0.000000
434.587590 159.745150 9.226391 0.000000
432.123780 159.499300 9.172394 0.000000
431.809110 159.599000 9.168619 0.000000
431.411800 159.709060 9.163487 0.000000
431.011050 159.804640 9.157918 0.000000
426.606600 159.735760 9.085987 0.000000
426.208530 159.631090 9.077922 0.000000
425.813750 159.513400 9.069275 0.000000
425.500790 159.408750 9.061919 0.000000
423.416230 159.677120 9.060192 0.000000
423.009000 159.452440 9.048058 0.000000
420.823240 159.673580 9.049885 0.000000
441.331180 159.366350 9.329921 0.000000
438.115200 159.242260 9.278636 0.000000
437.861480 159.455900 9.279592 0.000000
435.629150 159.099410 9.231370 0.000000
435.393680 159.257630 9.230591 0.000000
435.155700 159.411190 9.229546 0.000000
432.972690 159.173930 9.181221 0.000000
432.590150 159.331420 9.177471 0.000000
432.357910 159.418260 9.175057 0.000000
425.267700 159.324620 9.056180 0.000000
425.036220 159.235230 9.050139 0.000000
424.654300 159.074620 9.039703 0.000000
424.351680 158.937580 9.030916 0.000000
422.607700 159.214170 9.035311 0.000000
422.291530 159.012770 9.024609 0.000000
441.711120 158.981520 9.324437 0.000000
438.529020 158.872570 9.276586 0.000000
438.365110 159.022810 9.277477 0.000000
436.088560 158.763990 9.232517 0.000000
435.861240 158.935230 9.231853 0.000000
433.793730 158.776440 9.187777 0.000000
433.424320 158.965940 9.185053 0.000000
424.127320 158.827850 9.024112 0.000000
423.831420 158.673660 9.014850 0.000000
423.613010 158.550630 9.008090 0.000000
422.057370 158.855730 9.016360 0.000000
421.825960 158.692960 9.007831 0.000000
421.596830 158.525630 8.999074 0.000000
441.989440 158.683400 9.320089 0.000000
438.932100 158.486100 9.273515 0.000000
438.690860 158.719420 9.275595 0.000000
436.531920 158.404480 9.233156 0.000000
436.314360 158.589310 9.232428 0.000000
434.510800 158.352800 9.191634 0.000000
434.227690 158.529370 9.190303 0.000000
434.012210 158.655900 9.189125 0.000000
423.397370 158.421780 9.001196 0.000000
423.113310 158.242810 8.991710 0.000000
421.370730 158.352510 8.990054 0.000000
421.150120 158.171800 8.981514 0.000000
442.529690 158.062760 9.310380 0.000000
442.351590 158.272860 9.313812 0.000000
439.334350 158.091090 9.268117 0.000000
439.174930 158.251370 9.270378 0.000000
436.966860 158.029770 9.231599 0.000000
436.752200 158.220690 9.232256 0.000000
434.993440 158.021380 9.193153 0.000000
434.719910 158.214580 9.192436 0.000000
422.902950 158.103300 8.984360 0.000000
422.626710 157.908950 8.974153 0.000000
420.926450 157.991380 8.971282 0.000000
442.877470 157.631670 9.303173 0.000000
442.706480 157.849790 9.306682 0.000000
439.723270 157.677020 9.261993 0.000000
439.491970 157.928020 9.265711 0.000000
437.317660 157.700930 9.229511 0.000000
437.108520 157.900100 9.230859 0.000000
435.650570 157.498720 9.194342 0.000000
435.393650 157.715730 9.193695 0.000000
422.220580 157.602580 8.958216 0.000000
421.958070 157.386020 8.947844 0.000000
443.134670 157.300540 9.296994 0.000000
439.950650 157.420500 9.257989 0.000000
437.832000 157.246090 9.218182 0.000000
437.525630 157.498960 9.227521 0.000000
436.206670 157.094130 9.180949 0.000000
435.909940 157.281220 9.192377 0.000000
421.755130 157.226550 8.937269 0.000000
421.475250 157.017780 8.919603 0.000000
443.860900 156.862380 9.254786 0.000000
443.524630 157.023180 9.276502 0.000000
440.678800 156.912540 9.219033 0.000000
440.321140 157.111110 9.242186 0.000000
438.582120 156.808090 9.173296 0.000000
438.289490 156.971890 9.192429 0.000000
436.870880 156.747470 9.140136 0.000000
436.620940 156.882490 9.155925 0.000000
436.371670 157.011510 9.171216 0.000000
421.281950 156.843340 8.909534 0.000000
421.097500 156.659130 8.900562 0.000000
444.566590 156.525470 9.207520 0.000000
441.312260 156.572740 9.174743 0.000000
441.048280 156.708420 9.193969 0.000000
439.084380 156.520660 9.138033 0.000000
438.779360 156.694500 9.159939 0.000000
437.466770 156.410680 9.099006 0.000000
437.124660 156.606980 9.123103 0.000000
445.481870 156.219960 9.138958 0.000000
444.937990 156.348770 9.181773 0.000000
442.846310 156.152180 9.036742 0.000000
442.288820 156.201970 9.092907 0.000000
441.863590 156.291090 9.132793 0.000000
440.420650 156.141530 9.005303 0.000000
440.009090 156.183490 9.052392 0.000000
439.636690 156.232330 9.093728 0.000000
438.603580 156.127080 8.973977 0.000000
438.282410 156.162400 9.014381 0.000000
437.857390 156.230420 9.064907 0.000000
440.901030 155.619080 8.977429 0.000000
438.994660 155.782070 8.947900 0.000000
443.339630 155.212890 9.022830 0.000000
440.930110 155.386830 8.986588 0.000000
439.089660 155.390230 8.963802 0.000000
443.336550 154.936260 9.033110 0.000000
440.965580 155.039810 9.000071 0.000000
439.169310 154.997940 8.979517 0.000000
443.327060 154.660800 9.043442 0.000000
440.998200 154.579270 9.017817 0.000000
439.233490 154.605730 8.995082 0.000000
443.307340 154.252200 9.058203 0.000000
441.013890 154.121990 9.035223 0.000000
439.293400 154.116780 9.014198 0.000000
439.272280 154.312090 9.006616 0.000000
443.310790 153.723160 9.072159 0.000000
441.015260 153.781430 9.048070 0.000000
439.318180 153.824780 9.025385 0.000000
443.307310 153.330180 9.081732 0.000000
441.022610 153.447330 9.058431 0.000000
439.340580 153.340470 9.043881 0.000000
443.242130 152.932160 9.096885 0.000000
441.038300 153.008440 9.069318 0.000000
439.368900 152.865800 9.057695 0.000000
443.296330 152.555820 9.096991 0.000000
441.059780 152.575300 9.076961 0.000000
439.412960 152.494860 9.062439 0.000000
443.354100 152.180390 9.095232 0.000000
441.129850 152.151930 9.075535 0.000000
439.482180 152.129320 9.060818 0.000000
441.175540 151.833070 9.073983 0.000000
439.537750 151.761170 9.059116 0.000000
439.570980 151.483720 9.057765 0.000000
439.545010 149.343860 9.048829 0.000000
441.206760 148.929750 9.053032 0.000000
439.556950 148.964510 9.036812 0.000000
443.532290 148.484560 9.054986 0.000000
443.355100 148.766420 9.080948 0.000000
441.290560 148.476940 9.029762 0.000000
439.606480 148.573490 9.016230 0.000000
443.599520 148.212910 9.041124 0.000000
441.344180 148.132140 9.011941 0.000000
439.641050 148.177140 8.995461 0.000000
443.692500 147.799070 9.019873 0.000000
441.389160 147.782210 8.993634 0.000000
439.662170 147.775630 8.974213 0.000000
443.774630 147.379550 8.998484 0.000000
441.435550 147.309420 8.968798 0.000000
439.669460 147.369380 8.952478 0.000000
439.665370 147.062190 8.936000 0.000000
443.021000 145.682310 9.015644 0.000000
440.906620 145.703410 8.953993 0.000000
440.520900 145.622890 8.997184 0.000000
438.799900 145.628800 8.961503 0.000000
445.545290 145.443910 9.116371 0.000000
442.667540 145.534770 9.046477 0.000000
442.311160 145.398830 9.077599 0.000000
440.289830 145.485340 9.016902 0.000000
440.001370 145.380660 9.045290 0.000000
438.370030 145.424260 9.003924 0.000000
437.922450 145.145390 9.039391 0.000000
420.807980 145.059940 8.873457 0.000000
444.945920 145.009740 9.152454 0.000000
441.886630 145.035680 9.103003 0.000000
441.786100 144.811140 9.100860 0.000000
439.598110 144.989410 9.065955 0.000000
437.825990 144.989330 9.037300 0.000000
437.726650 144.835080 9.035200 0.000000
421.106960 144.640790 8.876742 0.000000
420.956150 144.849470 8.875450 0.000000
444.735960 144.613880 9.154455 0.000000
441.629580 144.477020 9.097259 0.000000
439.447510 144.712280 9.062703 0.000000
439.288880 144.439670 9.059332 0.000000
437.571930 144.607510 9.032047 0.000000
437.413090 144.382800 9.028591 0.000000
421.459870 144.152330 8.875304 0.000000
421.305390 144.359660 8.875952 0.000000
444.741270 144.134630 9.133413 0.000000
441.464290 144.147140 9.093674 0.000000
439.124050 144.170780 9.055855 0.000000
439.010220 143.994020 9.053444 0.000000
437.196930 144.086030 9.022580 0.000000
421.675870 143.882830 8.874655 0.000000
444.458740 143.770370 9.140410 0.000000
441.291410 143.821200 9.089690 0.000000
438.832890 143.733250 9.049816 0.000000
436.854920 143.653750 9.013214 0.000000
422.017910 143.492370 8.874287 0.000000
444.275300 143.366040 9.136119 0.000000
441.110200 143.499830 9.085702 0.000000
440.983640 143.288930 9.083078 0.000000
438.649840 143.476470 9.046052 0.000000
438.459080 143.225390 9.042239 0.000000
436.489560 143.240170 9.003696 0.000000
422.378940 143.116990 8.873724 0.000000
444.247100 143.050090 9.122457 0.000000
440.854710 143.079470 9.080223 0.000000
438.262790 142.978650 9.038301 0.000000
436.236910 142.972090 8.996668 0.000000
436.105990 142.842270 8.993243 0.000000
422.759800 142.759510 8.873605 0.000000
422.630920 142.877000 8.873759 0.000000
440.930420 142.433810 9.024660 0.000000
438.236630 142.443530 8.986169 0.000000
436.039150 142.640810 8.973177 0.000000
422.858670 142.302220 8.819789 0.000000
444.356780 142.315490 9.074597 0.000000
444.136630 142.088500 9.079412 0.000000
440.793980 142.220210 9.020475 0.000000
440.602360 142.046390 9.023852 0.000000
438.023250 142.200290 8.981170 0.000000
437.639040 141.972640 8.992556 0.000000
435.897640 142.229830 8.931016 0.000000
435.645750 142.089190 8.934999 0.000000
435.393590 141.952360 8.938382 0.000000
423.562410 141.736680 8.816005 0.000000
423.258880 141.933170 8.812119 0.000000
421.153990 141.718250 8.785725 0.000000
420.931700 141.933000 8.784290 0.000000
443.913360 141.866620 9.084182 0.000000
443.689540 141.648330 9.088620 0.000000
440.387510 141.892400 9.030327 0.000000
440.051150 141.679720 9.041648 0.000000
437.269960 141.740570 8.999751 0.000000
436.991210 141.574300 9.004786 0.000000
435.139770 141.822110 8.941411 0.000000
434.801120 141.654340 8.944420 0.000000
434.548310 141.530590 8.945456 0.000000
424.031220 141.463530 8.821986 0.000000
423.716860 141.642580 8.817951 0.000000
421.459350 141.440800 8.787725 0.000000
421.305600 141.578480 8.786753 0.000000
443.317600 141.350650 9.098702 0.000000
439.603330 141.408620 9.055855 0.000000
439.275510 141.207670 9.064635 0.000000
436.805020 141.466840 9.007815 0.000000
436.524750 141.311290 9.011988 0.000000
436.127200 141.142230 9.022293 0.000000
434.379000 141.451100 8.945900 0.000000
434.123050 141.337980 8.946518 0.000000
433.679500 141.189740 8.952206 0.000000
433.224150 141.080430 8.961584 0.000000
426.044530 140.986570 8.912705 0.000000
425.690340 141.032000 8.895515 0.000000
425.331820 141.079850 8.876248 0.000000
424.879640 141.151630 8.850655 0.000000
424.437130 141.264620 8.829490 0.000000
423.101230 140.978300 8.901757 0.000000
422.788760 141.036880 8.878791 0.000000
422.472080 141.099210 8.854836 0.000000
422.149930 141.166520 8.829611 0.000000
421.823640 141.238630 8.803468 0.000000
442.836550 140.957820 9.109382 0.000000
438.897830 141.063260 9.081216 0.000000
438.380040 140.733220 9.089128 0.000000
435.646090 140.926120 9.030031 0.000000
435.308440 140.691420 9.022817 0.000000
432.863040 141.000400 8.967501 0.000000
432.439850 140.840120 8.960216 0.000000
432.018520 140.672810 8.948413 0.000000
427.578000 140.612610 8.929975 0.000000
427.233670 140.685180 8.927887 0.000000
426.893040 140.770900 8.926129 0.000000
426.471530 140.889510 8.923036 0.000000
423.711820 140.664310 8.915121 0.000000
423.458620 140.813350 8.912995 0.000000
420.865600 140.716380 8.915501 0.000000
442.481630 140.668210 9.115876 0.000000
442.248690 140.476910 9.119312 0.000000
438.133510 140.472900 9.081238 0.000000
435.142430 140.569170 9.017406 0.000000
434.888760 140.391390 9.009232 0.000000
431.673400 140.560490 8.940345 0.000000
431.311770 140.512300 8.941647 0.000000
430.856870 140.485470 8.945940 0.000000
430.404940 140.471470 8.949217 0.000000
430.045200 140.475510 8.951963 0.000000
429.687190 140.496480 8.955538 0.000000
429.332180 140.525800 8.958439 0.000000
428.891880 140.493070 8.946480 0.000000
428.450680 140.476880 8.934307 0.000000
428.099640 140.522130 8.932520 0.000000
427.837800 140.562580 8.931035 0.000000
424.673550 140.174930 8.923972 0.000000
424.406490 140.299580 8.921442 0.000000
424.055300 140.475010 8.918029 0.000000
421.721470 140.194500 8.941234 0.000000
421.338380 140.419570 8.930114 0.000000
442.013490 140.290540 9.122693 0.000000
441.776550 140.108670 9.125954 0.000000
437.880160 140.218600 9.073347 0.000000
437.707370 140.052460 9.067972 0.000000
434.454320 140.110320 8.995618 0.000000
434.098300 139.897160 8.984599 0.000000
425.585600 139.803250 8.931594 0.000000
425.309140 139.908940 8.929572 0.000000
424.944150 140.057250 8.926459 0.000000
422.499480 139.775820 8.961977 0.000000
422.108400 139.979740 8.951820 0.000000
441.538480 139.930920 9.129042 0.000000
441.339320 139.722290 9.126698 0.000000
437.534640 139.885310 9.061941 0.000000
437.270110 139.639140 9.052626 0.000000
433.907750 139.815200 8.982281 0.000000
433.594510 139.757060 8.988253 0.000000
433.282620 139.704280 8.993837 0.000000
432.972660 139.657620 8.998857 0.000000
432.561610 139.604050 9.004929 0.000000
432.153110 139.561160 9.010344 0.000000
431.747590 139.527480 9.014913 0.000000
431.344760 139.503400 9.018743 0.000000
430.944760 139.488330 9.021778 0.000000
430.547330 139.482910 9.024161 0.000000
430.152280 139.489070 9.026228 0.000000
429.856990 139.507980 9.028694 0.000000
429.473450 139.405750 9.010148 0.000000
426.813320 139.410780 8.937823 0.000000
426.430850 139.520970 8.936415 0.000000
426.052520 139.640490 8.934519 0.000000
425.771510 139.736330 8.932861 0.000000
423.175540 139.410140 8.973227 0.000000
422.885280 139.565670 8.968944 0.000000
441.165410 139.491380 9.120474 0.000000
441.061370 139.193710 9.104088 0.000000
436.907140 139.320420 9.040037 0.000000
429.281310 139.301540 8.991761 0.000000
428.986210 139.147860 8.963438 0.000000
428.585330 139.084520 8.946005 0.000000
428.086400 139.148590 8.943622 0.000000
427.591860 139.231450 8.941164 0.000000
427.200530 139.314360 8.939432 0.000000
423.963560 139.021390 8.983119 0.000000
423.665800 139.162980 8.979615 0.000000
423.370610 139.309340 8.975874 0.000000
440.797270 139.045200 9.108875 0.000000
439.835240 138.808000 9.147015 0.000000
436.399080 138.996920 9.032758 0.000000
436.032900 138.904570 9.041543 0.000000
