# .PCD v0.7 - Point Cloud Data file format
VERSION 0.7
FIELDS x y z intensity
SIZE 4 4 4 4
TYPE F F F F
COUNT 1 1 1 1
WIDTH 1187
HEIGHT 1
VIEWPOINT 0 0 0 1 0 0 0
POINTS 1187
DATA ascii
426.737090 162.039350 9.190131 0.000000
426.331970 162.055480 9.187330 0.000000
425.927830 162.060640 9.184121 0.000000
425.524870 162.055340 9.180450 0.000000
425.223450 162.044710 9.177434 0.000000
424.823270 162.011310 9.174140 0.000000
424.325680 161.955920 9.169585 0.000000
423.930210 161.900270 9.165364 0.000000
423.537080 161.834380 9.160729 0.000000
423.146360 161.758830 9.155617 0.000000
439.202550 161.812910 9.356576 0.000000
434.400970 161.646350 9.267838 0.000000
434.083500 161.854020 9.266526 0.000000
430.308960 161.438170 9.193524 0.000000
430.002080 161.522930 9.194741 0.000000
429.592960 161.626690 9.195887 0.000000
429.183780 161.718860 9.196547 0.000000
428.877010 161.781070 9.196707 0.000000
422.758060 161.673490 9.150051 0.000000
422.370910 161.584000 9.143244 0.000000
421.983430 161.493620 9.134706 0.000000
421.597720 161.393050 9.125728 0.000000
421.309750 161.310870 9.118775 0.000000
439.921360 161.170180 9.353285 0.000000
439.683410 161.388350 9.354567 0.000000
439.351170 161.530980 9.364353 0.000000
435.128690 161.134290 9.269890 0.000000
434.818940 161.358250 9.269212 0.000000
430.819240 161.279860 9.190998 0.000000
430.513310 161.377470 9.192579 0.000000
421.118530 161.252410 9.114031 0.000000
420.833040 161.158920 9.106802 0.000000
444.954100 185.909550 10.130230 0.000000
444.115480 185.842900 10.125977 0.000000
443.308260 185.802350 10.121153 0.000000
442.481170 185.689530 10.117370 0.000000
441.716800 185.671570 10.111881 0.000000
440.948150 185.614900 10.106889 0.000000
440.191650 185.554200 10.101823 0.000000
439.458920 185.518830 10.096183 0.000000
445.110410 184.774030 10.153424 0.000000
430.718900 176.139910 9.633179 0.000000
430.245270 176.101210 9.630949 0.000000
429.778440 176.074890 9.627894 0.000000
429.315400 176.047610 9.624571 0.000000
428.842740 175.929920 9.624760 0.000000
428.392670 175.938390 9.619323 0.000000
427.943730 175.941510 9.613793 0.000000
427.496220 175.942950 9.608016 0.000000
427.049590 175.937380 9.602220 0.000000
426.604160 175.929230 9.596216 0.000000
426.159700 175.916150 9.590107 0.000000
425.716310 175.902280 9.583711 0.000000
425.273680 175.880650 9.577333 0.000000
424.831910 175.856460 9.570746 0.000000
424.390960 175.827100 9.564066 0.000000
423.950680 175.795620 9.557156 0.000000
423.511260 175.755940 9.550289 0.000000
434.448850 175.722140 9.669246 0.000000
433.943790 175.696030 9.669129 0.000000
433.415130 175.577330 9.672466 0.000000
432.950930 175.633160 9.668332 0.000000
432.489260 175.687150 9.663938 0.000000
431.983890 175.570940 9.666218 0.000000
431.511720 175.550320 9.664257 0.000000
423.072420 175.713710 9.543210 0.000000
422.634340 175.666210 9.536044 0.000000
422.196840 175.614930 9.528720 0.000000
421.760350 175.555970 9.521421 0.000000
421.324070 175.495330 9.513866 0.000000
420.888430 175.429840 9.506202 0.000000
436.810000 175.247130 9.689252 0.000000
436.272160 175.213470 9.691218 0.000000
435.755550 175.207000 9.691709 0.000000
435.230800 175.161250 9.693445 0.000000
434.717620 175.122100 9.694561 0.000000
437.611480 174.722600 9.708375 0.000000
438.147090 174.716830 9.706895 0.000000
437.059330 174.675810 9.711613 0.000000
438.975860 174.237850 9.721959 0.000000
438.896360 166.778630 9.994117 0.000000
439.240660 166.608520 9.995937 0.000000
430.302860 186.058040 9.980450 0.000000
429.663970 185.997410 9.972730 0.000000
429.031680 185.951260 9.964543 0.000000
428.403350 185.904770 9.956186 0.000000
427.778630 185.858090 9.947653 0.000000
427.157140 185.811340 9.938934 0.000000
426.538510 185.764680 9.930027 0.000000
425.922420 185.719330 9.920895 0.000000
425.308350 185.675890 9.911521 0.000000
424.695890 185.634160 9.901902 0.000000
424.084780 185.587100 9.892194 0.000000
423.474610 185.540250 9.882263 0.000000
422.865080 185.493610 9.872108 0.000000
422.255770 185.447080 9.861720 0.000000
421.646270 185.400560 9.851096 0.000000
421.036290 185.353940 9.840233 0.000000
438.926030 166.823350 10.457720 0.000000
439.070100 166.423420 10.464993 0.000000
439.010800 166.365050 10.924665 0.000000
438.882140 166.781170 10.922207 0.000000
443.348020 161.818950 11.001757 0.000000
438.874910 166.782320 11.386110 0.000000
440.355260 166.176960 11.423791 0.000000
439.382230 166.237200 11.393488 0.000000
438.948300 166.302950 11.380778 0.000000
443.853030 163.539460 11.506492 0.000000
443.498050 161.917140 11.475489 0.000000
437.464390 166.775090 11.787800 0.000000
437.132320 166.923540 11.778540 0.000000
439.317780 166.175130 11.851563 0.000000
437.475920 165.664030 11.750859 0.000000
440.120850 165.416180 11.866090 0.000000
444.967900 161.895200 12.027365 0.000000
435.602720 161.304610 11.853292 0.000000
436.413730 167.777440 12.229407 0.000000
440.359440 167.333600 12.433105 0.000000
437.364900 167.252230 12.253272 0.000000
436.936520 167.271640 12.230540 0.000000
439.581020 167.044650 12.371801 0.000000
436.059840 166.616520 12.147835 0.000000
440.571990 165.346360 12.354238 0.000000
445.377560 163.587910 12.614611 0.000000
444.687130 162.665080 12.532705 0.000000
434.368440 161.282120 12.087456 0.000000
438.949130 168.108830 12.878469 0.000000
438.352290 167.967210 12.826527 0.000000
437.299770 165.466290 12.580893 0.000000
436.729980 164.278440 12.856486 0.000000
437.522030 168.125890 13.254878 0.000000
438.738310 167.242650 13.279862 0.000000
435.431730 166.297730 12.925464 0.000000
439.755550 165.594180 13.237618 0.000000
436.120790 165.570740 12.915256 0.000000
435.536620 165.867020 12.894638 0.000000
436.891020 165.499420 12.973392 0.000000
437.165620 164.300060 12.896914 0.000000
437.155460 169.658810 13.365141 0.000000
442.378300 166.527980 13.559587 0.000000
436.698640 166.372360 13.467710 0.000000
436.276700 166.367420 13.427460 0.000000
439.595180 165.967680 13.721117 0.000000
437.370700 166.119980 13.506518 0.000000
439.914580 165.243700 13.688007 0.000000
440.140200 164.459790 13.642331 0.000000
436.923000 164.515730 13.298622 0.000000
440.229400 164.059770 13.617330 0.000000
437.532010 169.528000 13.884681 0.000000
437.684880 169.047840 13.846149 0.000000
438.642820 168.373430 13.864576 0.000000
439.682190 167.189790 13.848904 0.000000
438.803380 167.332960 13.773301 0.000000
437.059170 166.877170 14.006578 0.000000
436.639430 166.894230 13.963712 0.000000
436.274990 166.978710 13.936103 0.000000
439.368320 164.221310 13.974268 0.000000
444.790370 162.275500 14.044113 0.000000
441.281400 162.210280 14.036803 0.000000
438.662170 168.410570 14.370406 0.000000
436.563960 168.056810 14.103344 0.000000
438.706790 167.833210 14.305334 0.000000
438.715790 167.235690 14.234862 0.000000
439.635160 166.019260 14.203739 0.000000
440.417790 165.753010 14.272112 0.000000
437.350860 174.529040 9.677804 0.000000
439.366790 174.105470 9.683146 0.000000
438.760380 174.066190 9.688519 0.000000
440.866030 173.655840 9.688305 0.000000
440.183410 173.557010 9.697586 0.000000
439.610660 173.590010 9.700758 0.000000
441.788210 173.209700 9.695847 0.000000
441.181460 173.244290 9.700384 0.000000
442.698210 172.725400 9.703328 0.000000
442.056980 172.742570 9.709594 0.000000
443.717560 172.338710 9.704685 0.000000
443.042210 172.348300 9.712372 0.000000
444.680910 171.854680 9.708424 0.000000
445.684970 171.378140 9.709793 0.000000
444.974670 171.414720 9.718619 0.000000
429.175420 169.815960 9.433520 0.000000
427.754640 169.819210 9.430203 0.000000
426.753480 170.083970 9.406654 0.000000
426.402740 170.058900 9.405374 0.000000
425.878200 169.986070 9.405018 0.000000
425.360470 169.933330 9.402617 0.000000
425.020450 169.933330 9.398220 0.000000
424.680940 169.928800 9.393745 0.000000
424.342010 169.921200 9.389094 0.000000
424.003570 169.909060 9.384368 0.000000
423.496950 169.882480 9.377079 0.000000
422.991420 169.848390 9.369540 0.000000
422.655150 169.819660 9.364416 0.000000
422.319370 169.787890 9.359117 0.000000
421.984190 169.751660 9.353743 0.000000
421.474460 169.748990 9.341309 0.000000
420.959410 169.766460 9.326631 0.000000
430.933810 169.550190 9.445551 0.000000
430.523220 169.447720 9.454019 0.000000
430.172390 169.500140 9.452054 0.000000
429.825410 169.557890 9.449338 0.000000
428.788240 169.708800 9.440236 0.000000
428.270720 169.767210 9.435402 0.000000
427.388760 169.724930 9.434562 0.000000
431.932740 169.188490 9.460941 0.000000
431.578430 169.258190 9.459524 0.000000
431.180970 169.210510 9.465293 0.000000
433.712130 168.761830 9.466589 0.000000
433.134030 168.819400 9.470662 0.000000
432.642000 169.031370 9.463637 0.000000
434.788790 168.448760 9.468297 0.000000
434.070280 168.662290 9.467304 0.000000
436.233640 167.960650 9.468581 0.000000
435.972470 168.238510 9.458545 0.000000
435.510890 168.216400 9.468634 0.000000
435.050930 168.179140 9.479117 0.000000
436.951480 167.674390 9.468595 0.000000
437.863370 167.302310 9.466569 0.000000
437.236820 167.429520 9.475042 0.000000
438.778080 166.894380 9.463710 0.000000
438.265810 166.895450 9.477186 0.000000
439.357850 166.384450 9.472610 0.000000
438.886630 166.447190 9.482802 0.000000
428.200130 166.227910 9.307807 0.000000
427.915740 166.261460 9.306364 0.000000
427.501740 166.357440 9.299357 0.000000
427.066800 166.346420 9.300787 0.000000
426.784730 166.367600 9.298687 0.000000
426.362880 166.394640 9.295094 0.000000
425.942170 166.417040 9.291057 0.000000
425.522670 166.432920 9.286535 0.000000
425.103880 166.442140 9.281754 0.000000
424.686040 166.444310 9.276545 0.000000
424.268860 166.440660 9.271009 0.000000
423.991180 166.434110 9.267126 0.000000
423.575290 166.418880 9.260943 0.000000
423.159940 166.397840 9.254438 0.000000
422.745210 166.369320 9.247550 0.000000
422.330960 166.335040 9.240338 0.000000
421.917210 166.293660 9.232707 0.000000
421.503940 166.245620 9.224828 0.000000
421.091030 166.190570 9.216514 0.000000
440.155760 166.079270 9.463661 0.000000
439.708130 166.187990 9.471860 0.000000
430.205600 165.894640 9.313906 0.000000
429.917450 165.952770 9.313492 0.000000
429.504300 166.081470 9.308280 0.000000
429.056060 166.105270 9.311384 0.000000
428.770050 166.149030 9.310389 0.000000
428.484950 166.190690 9.309127 0.000000
440.807280 165.609440 9.464992 0.000000
440.359560 165.733610 9.473376 0.000000
431.948490 165.473180 9.312698 0.000000
431.510560 165.590030 9.313581 0.000000
431.074130 165.699980 9.314081 0.000000
430.783940 165.768280 9.314202 0.000000
441.181820 165.410640 9.461817 0.000000
433.123630 165.118670 9.308353 0.000000
432.681820 165.258350 9.310294 0.000000
432.241270 165.390240 9.311882 0.000000
441.474790 165.137120 9.464119 0.000000
434.009920 164.808960 9.303441 0.000000
433.566680 164.968600 9.306008 0.000000
443.222260 164.432370 9.432762 0.000000
442.695950 164.557500 9.446508 0.000000
442.180330 164.675580 9.459697 0.000000
434.653110 164.646840 9.292882 0.000000
434.190920 164.540220 9.316705 0.000000
443.464840 164.095540 9.437102 0.000000
434.520630 163.980040 9.344597 0.000000
443.691250 163.747630 9.441985 0.000000
435.393740 163.616590 9.335676 0.000000
435.102360 163.742370 9.338809 0.000000
434.811220 163.863450 9.341785 0.000000
427.552280 163.402390 9.258844 0.000000
427.086270 163.461180 9.257516 0.000000
426.737640 163.498060 9.256174 0.000000
426.389800 163.526950 9.254589 0.000000
425.927550 163.557740 9.251840 0.000000
425.580690 163.565170 9.250391 0.000000
425.235020 163.563520 9.248849 0.000000
424.777680 163.574420 9.243918 0.000000
424.321750 163.584430 9.237350 0.000000
423.979980 163.583470 9.232275 0.000000
423.638550 163.575210 9.226927 0.000000
423.183810 163.554550 9.219423 0.000000
422.729920 163.520690 9.211657 0.000000
422.276980 163.475050 9.203474 0.000000
421.937900 163.433690 9.197054 0.000000
421.599580 163.384860 9.190384 0.000000
421.261900 163.330020 9.183526 0.000000
444.193850 163.577410 9.429422 0.000000
435.907170 163.276210 9.336771 0.000000
435.653500 163.450970 9.336030 0.000000
429.546140 163.017090 9.258591 0.000000
429.192990 163.101260 9.259315 0.000000
428.722720 163.202470 9.259883 0.000000
428.370760 163.270750 9.259949 0.000000
428.019620 163.331670 9.259646 0.000000
421.037350 163.288940 9.178882 0.000000
443.813720 162.847850 9.470319 0.000000
436.661990 162.731570 9.337776 0.000000
436.409360 162.914510 9.337869 0.000000
436.153560 163.091690 9.337993 0.000000
430.727390 162.684110 9.253659 0.000000
430.372280 162.791690 9.255556 0.000000
429.899960 162.925200 9.257483 0.000000
444.386960 162.713700 9.452805 0.000000
437.163970 162.354610 9.337018 0.000000
436.913790 162.545170 9.337469 0.000000
431.911900 162.267210 9.245115 0.000000
431.556730 162.401500 9.247975 0.000000
431.200200 162.526490 9.250823 0.000000
430.963620 162.606810 9.252335 0.000000
444.595460 162.354220 9.456891 0.000000
437.534790 162.059480 9.336157 0.000000
432.608700 161.956240 9.240549 0.000000
432.386600 162.076800 9.240551 0.000000
432.149380 162.174000 9.242883 0.000000
426.990170 161.778460 9.181067 0.000000
426.686460 161.820600 9.180364 0.000000
426.282200 161.868360 9.178954 0.000000
425.878570 161.905150 9.177111 0.000000
425.576320 161.926070 9.175439 0.000000
425.274630 161.940060 9.173526 0.000000
424.872650 161.942950 9.171519 0.000000
424.472140 161.932430 9.169461 0.000000
424.073580 161.912160 9.166892 0.000000
423.578310 161.872010 9.163029 0.000000
423.086120 161.817280 9.158514 0.000000
422.694580 161.765290 9.153929 0.000000
422.400970 161.729680 9.148909 0.000000
445.255160 161.762240 9.449725 0.000000
444.694430 161.934570 9.466877 0.000000
433.140200 161.616410 9.242947 0.000000
432.822480 161.822940 9.241604 0.000000
428.613770 161.448290 9.179941 0.000000
428.309200 161.523670 9.180719 0.000000
427.903110 161.614720 9.181343 0.000000
427.497440 161.695190 9.181391 0.000000
427.193020 161.747590 9.181261 0.000000
422.205380 161.704330 9.145175 0.000000
421.912630 161.660950 9.139395 0.000000
421.523380 161.594020 9.131407 0.000000
421.135770 161.515880 9.123134 0.000000
445.583340 161.456530 9.445797 0.000000
438.385160 161.335950 9.332915 0.000000
433.868840 161.107030 9.245078 0.000000
433.558620 161.329820 9.244366 0.000000
429.831420 161.081120 9.173794 0.000000
429.527070 161.182010 9.175809 0.000000
429.121340 161.307480 9.177957 0.000000
428.816770 161.394100 9.179273 0.000000
435.623470 186.071210 10.018462 0.000000
434.923710 186.019350 10.012215 0.000000
434.231930 185.962980 10.005906 0.000000
443.454770 185.445710 10.097388 0.000000
442.626460 185.379270 10.093179 0.000000
441.829590 185.339430 10.088379 0.000000
441.013340 185.228780 10.084640 0.000000
440.258510 185.210740 10.079183 0.000000
439.499690 185.154970 10.074228 0.000000
438.752870 185.095120 10.069207 0.000000
438.029420 185.060210 10.063606 0.000000
445.309360 184.461620 10.128246 0.000000
444.444430 184.385640 10.124795 0.000000
443.616090 184.336670 10.120760 0.000000
429.412050 175.855240 9.608978 0.000000
428.943360 175.816860 9.606765 0.000000
428.481480 175.790740 9.603728 0.000000
428.023250 175.763690 9.600426 0.000000
427.555760 175.648250 9.600604 0.000000
427.110320 175.655870 9.595221 0.000000
426.666080 175.658630 9.589730 0.000000
426.223270 175.659760 9.583994 0.000000
425.781490 175.656200 9.578146 0.000000
425.340850 175.650100 9.572092 0.000000
424.901090 175.638550 9.565961 0.000000
424.462280 175.624730 9.559612 0.000000
424.024230 175.603290 9.553284 0.000000
423.587070 175.579330 9.546749 0.000000
423.150700 175.550320 9.540123 0.000000
422.714940 175.518520 9.533299 0.000000
422.280210 175.477450 9.526580 0.000000
421.846160 175.433750 9.519658 0.000000
421.412870 175.384800 9.512655 0.000000
420.980070 175.333340 9.505442 0.000000
433.107760 175.455600 9.644602 0.000000
432.607090 175.427980 9.644539 0.000000
432.082980 175.308120 9.647973 0.000000
431.622650 175.360720 9.643927 0.000000
431.165280 175.412610 9.639577 0.000000
430.665160 175.297700 9.641863 0.000000
430.197810 175.277210 9.639904 0.000000
435.446230 174.987270 9.664770 0.000000
434.873840 174.865550 9.670353 0.000000
434.403590 174.950670 9.667025 0.000000
433.883940 174.905330 9.668733 0.000000
433.374970 174.864520 9.669910 0.000000
436.771180 174.464320 9.682553 0.000000
436.240750 174.469830 9.683987 0.000000
435.694820 174.425140 9.687115 0.000000
438.165160 174.021390 9.693665 0.000000
437.594150 173.994050 9.697641 0.000000
438.927950 166.500410 9.958342 0.000000
433.548800 185.905320 9.999477 0.000000
432.208040 185.792790 9.986122 0.000000
431.564360 185.807070 9.977824 0.000000
430.902220 185.706710 9.971636 0.000000
430.258510 185.663680 9.964152 0.000000
429.620180 185.619380 9.956532 0.000000
428.986850 185.574080 9.948767 0.000000
428.356410 185.514330 9.941136 0.000000
427.732480 185.468900 9.933039 0.000000
427.112460 185.423080 9.924773 0.000000
426.495970 185.377090 9.916333 0.000000
425.882780 185.332380 9.907682 0.000000
425.272310 185.286530 9.898870 0.000000
424.664280 185.240390 9.889874 0.000000
424.058320 185.194460 9.880675 0.000000
423.454010 185.153020 9.871172 0.000000
422.851010 185.106370 9.861581 0.000000
422.248990 185.059950 9.851771 0.000000
421.647580 185.013730 9.841740 0.000000
421.046390 184.967620 9.831480 0.000000
438.939700 166.522250 10.436597 0.000000
438.851650 166.437930 10.914073 0.000000
439.273440 166.325090 10.921465 0.000000
442.086850 166.785510 11.501719 0.000000
438.812590 166.971360 11.397199 0.000000
438.763490 166.353380 11.386459 0.000000
440.882230 166.250790 11.454321 0.000000
439.261840 166.322270 11.402102 0.000000
439.023500 165.028840 11.375973 0.000000
441.817290 161.635250 11.430982 0.000000
445.183170 161.275530 11.549653 0.000000
444.339230 161.301410 11.518982 0.000000
442.414950 161.129520 11.447439 0.000000
436.312620 167.495680 11.787243 0.000000
438.687100 166.281280 11.855127 0.000000
437.773830 165.835540 11.798565 0.000000
440.475460 164.840940 11.900554 0.000000
445.027830 161.669460 12.069643 0.000000
435.723910 161.111530 11.907383 0.000000
437.795780 167.584110 12.337267 0.000000
436.650020 167.653030 12.274813 0.000000
437.144620 167.377370 12.289001 0.000000
438.829800 167.009960 12.371487 0.000000
439.461520 165.996260 12.364172 0.000000
434.603030 161.175080 12.169127 0.000000
439.763920 166.866500 12.923435 0.000000
438.520320 166.121990 12.780499 0.000000
437.411590 165.453840 12.653328 0.000000
445.019590 163.126630 12.637571 0.000000
442.886350 161.860370 12.925903 0.000000
439.482760 168.356750 12.995987 0.000000
435.510350 166.431470 13.014870 0.000000
435.560700 165.928450 12.975440 0.000000
436.150790 165.584790 12.996462 0.000000
435.846980 165.746830 12.984052 0.000000
437.359990 164.399750 13.009999 0.000000
436.724000 164.214950 12.936407 0.000000
444.970700 161.650090 13.112396 0.000000
439.712920 169.282230 13.614851 0.000000
437.207090 169.439350 13.416835 0.000000
440.228880 168.575470 13.603594 0.000000
438.709780 167.483030 13.378450 0.000000
436.966220 167.182800 13.670832 0.000000
441.697510 166.472400 13.583283 0.000000
436.786250 166.375630 13.570842 0.000000
437.169280 166.276380 13.599777 0.000000
443.454280 162.204910 13.496593 0.000000
441.328280 161.786030 13.698772 0.000000
445.393490 161.402560 13.675179 0.000000
445.711730 161.088820 13.697116 0.000000
437.666260 169.396180 13.968433 0.000000
437.858310 168.973950 13.942782 0.000000
440.073000 168.414020 14.111605 0.000000
438.691800 167.472890 13.875108 0.000000
439.834410 166.958220 13.947821 0.000000
436.399110 167.057330 14.064898 0.000000
438.506130 166.125340 13.725501 0.000000
444.841340 161.128540 14.119817 0.000000
438.561160 168.569090 14.489730 0.000000
439.017180 167.856200 14.459944 0.000000
441.966800 167.300900 14.217129 0.000000
436.787320 166.965640 14.097144 0.000000
438.116490 166.260650 14.170313 0.000000
440.035890 165.000440 14.278296 0.000000
441.138060 162.543490 14.198843 0.000000
441.708250 162.037160 14.238991 0.000000
441.392850 162.272000 14.212460 0.000000
439.932620 169.566590 14.765593 0.000000
437.907140 169.739350 14.558057 0.000000
445.087740 163.700520 14.873051 0.000000
439.071720 172.885940 9.641736 0.000000
439.937350 172.420500 9.647582 0.000000
439.368990 172.477260 9.652922 0.000000
440.189820 171.960390 9.660460 0.000000
440.788360 171.919390 9.653414 0.000000
441.744600 171.516710 9.652812 0.000000
441.109830 171.543870 9.661614 0.000000
442.671110 171.049070 9.653355 0.000000
442.053130 171.122250 9.661104 0.000000
443.578340 170.532840 9.654284 0.000000
443.835360 170.082660 9.663736 0.000000
425.487000 169.915850 9.385306 0.000000
425.140750 169.905300 9.384304 0.000000
424.621670 169.851620 9.384540 0.000000
424.108490 169.818360 9.382681 0.000000
423.770870 169.830830 9.378652 0.000000
423.433290 169.838730 9.374542 0.000000
423.095860 169.843600 9.370251 0.000000
422.758450 169.843920 9.365879 0.000000
422.252620 169.836070 9.359108 0.000000
421.746950 169.820650 9.352076 0.000000
421.409970 169.804320 9.347281 0.000000
421.073120 169.784960 9.342304 0.000000
444.481140 169.984770 9.654756 0.000000
427.867070 169.563810 9.409333 0.000000
427.488040 169.471590 9.416421 0.000000
427.149410 169.522750 9.413710 0.000000
426.642400 169.594440 9.409195 0.000000
426.113560 169.537640 9.412318 0.000000
445.544220 169.541930 9.647448 0.000000
444.767820 169.558410 9.662155 0.000000
429.575440 169.223340 9.420407 0.000000
429.009220 169.178830 9.427772 0.000000
428.502260 169.286470 9.424259 0.000000
431.229340 168.656360 9.436286 0.000000
430.543580 168.833390 9.434490 0.000000
430.200710 168.914230 9.433465 0.000000
429.815490 168.880980 9.439594 0.000000
432.605560 168.250500 9.438115 0.000000
432.260680 168.358150 9.437908 0.000000
431.835630 168.305080 9.448186 0.000000
431.572720 168.561220 9.436979 0.000000
433.294770 168.018920 9.438271 0.000000
434.676940 167.500200 9.436754 0.000000
434.426420 167.776990 9.427379 0.000000
433.985600 167.769440 9.437788 0.000000
433.546050 167.747770 9.448547 0.000000
435.370120 167.212680 9.435021 0.000000
436.268400 166.861980 9.429148 0.000000
435.645690 166.971020 9.440613 0.000000
437.146270 166.449140 9.424522 0.000000
436.666440 166.471880 9.437715 0.000000
426.102020 166.292920 9.271135 0.000000
425.801640 166.227490 9.278051 0.000000
425.522740 166.256500 9.276232 0.000000
425.105160 166.295230 9.273068 0.000000
424.687960 166.328080 9.269569 0.000000
424.271270 166.353900 9.265631 0.000000
423.854800 166.373110 9.261429 0.000000
423.438720 166.385280 9.256794 0.000000
423.022860 166.391650 9.251831 0.000000
422.745730 166.391750 9.248325 0.000000
422.330170 166.386550 9.242701 0.000000
421.914670 166.375530 9.236747 0.000000
421.499270 166.356920 9.230410 0.000000
421.083890 166.332490 9.223743 0.000000
437.771000 166.013990 9.426437 0.000000
437.422910 166.195050 9.428601 0.000000
428.360600 165.923250 9.278419 0.000000
427.902800 165.911770 9.286399 0.000000
427.481290 165.990050 9.285429 0.000000
427.060210 166.059110 9.284155 0.000000
426.639710 166.121400 9.282597 0.000000
426.359990 166.159520 9.281274 0.000000
438.562320 165.726200 9.414171 0.000000
438.128270 165.836500 9.423377 0.000000
429.737270 165.486880 9.286587 0.000000
429.454590 165.562680 9.286922 0.000000
428.888950 165.701220 9.287348 0.000000
428.606690 165.765440 9.287307 0.000000
439.194820 165.261950 9.413730 0.000000
438.838070 165.458450 9.417195 0.000000
431.154820 165.053760 9.282462 0.000000
430.729190 165.193410 9.284059 0.000000
430.303890 165.325320 9.285357 0.000000
430.020320 165.407670 9.286074 0.000000
439.832180 164.786900 9.411838 0.000000
439.552280 165.059800 9.410052 0.000000
431.722960 164.853490 9.279752 0.000000
431.438810 164.955610 9.281182 0.000000
440.270140 164.638960 9.401977 0.000000
440.991210 164.194720 9.392976 0.000000
440.501100 164.319890 9.406657 0.000000
432.338440 163.937030 9.325800 0.000000
431.932830 164.111360 9.327893 0.000000
433.323490 163.547620 9.314511 0.000000
433.044280 163.667890 9.317581 0.000000
432.766200 163.785100 9.320378 0.000000
425.466030 163.359130 9.239584 0.000000
425.121030 163.386020 9.239393 0.000000
424.664980 163.429000 9.236876 0.000000
424.325160 163.468260 9.233122 0.000000
423.984890 163.500080 9.229097 0.000000
423.530640 163.532970 9.223329 0.000000
423.075840 163.554080 9.217122 0.000000
422.734410 163.561480 9.212308 0.000000
422.392820 163.561570 9.207216 0.000000
421.937260 163.552050 9.200042 0.000000
421.481750 163.529280 9.192593 0.000000
421.026430 163.494640 9.184714 0.000000
441.124210 163.316310 9.422584 0.000000
434.161590 163.160320 9.304388 0.000000
433.882230 163.293980 9.307905 0.000000
433.602810 163.423020 9.311283 0.000000
427.534450 163.005170 9.240292 0.000000
427.189510 163.082150 9.240715 0.000000
426.729830 163.174700 9.240846 0.000000
426.270140 163.253880 9.240617 0.000000
425.925720 163.305740 9.240137 0.000000
425.696690 163.337860 9.239486 0.000000
441.227140 162.913910 9.433824 0.000000
434.671200 162.829150 9.302417 0.000000
434.434360 163.015200 9.301470 0.000000
428.801150 162.664080 9.235820 0.000000
428.340480 162.798970 9.237908 0.000000
427.879940 162.921510 9.239429 0.000000
441.855870 162.387250 9.427223 0.000000
441.703400 162.757170 9.420128 0.000000
435.153200 162.460130 9.302345 0.000000
434.915560 162.648990 9.302176 0.000000
429.953090 162.272060 9.228015 0.000000
429.492430 162.438550 9.231568 0.000000
429.146820 162.555270 9.233877 0.000000
442.388000 162.245710 9.409746 0.000000
435.505950 162.169530 9.302316 0.000000
430.987700 161.848820 9.217959 0.000000
430.643190 161.997220 9.221630 0.000000
430.298280 162.138810 9.225008 0.000000
425.118010 161.749910 9.162890 0.000000
424.817230 161.778780 9.162822 0.000000
424.416720 161.806950 9.162545 0.000000
424.017300 161.824800 9.161786 0.000000
423.619080 161.832580 9.160528 0.000000
423.222170 161.829930 9.158836 0.000000
422.727970 161.817550 9.155289 0.000000
422.234800 161.811330 9.148288 0.000000
421.840360 161.796170 9.141927 0.000000
421.446040 161.770400 9.135160 0.000000
421.052190 161.733320 9.128087 0.000000
420.757110 161.698840 9.122533 0.000000
435.968930 161.769010 9.301894 0.000000
431.556300 161.577580 9.211764 0.000000
431.218020 161.746440 9.215166 0.000000
426.815030 161.432340 9.163204 0.000000
426.416170 161.524950 9.163855 0.000000
426.016750 161.605900 9.164127 0.000000
425.617310 161.676470 9.163861 0.000000
425.317690 161.722550 9.163386 0.000000
443.153960 161.292310 9.408342 0.000000
442.648800 161.475860 9.424601 0.000000
436.381770 161.321150 9.305021 0.000000
432.273900 161.080050 9.212785 0.000000
431.971410 161.301120 9.212071 0.000000
428.009090 161.089900 9.158043 0.000000
427.611790 161.215320 9.160252 0.000000
427.213900 161.329910 9.161902 0.000000
435.458500 185.199720 9.979381 0.000000
434.773560 185.195070 9.975120 0.000000
441.486180 184.128970 10.029768 0.000000
440.714630 184.113420 10.027580 0.000000
439.969060 184.119320 10.024785 0.000000
439.204590 184.060330 10.023018 0.000000
438.536590 184.174060 10.017776 0.000000
437.780430 184.076490 10.016360 0.000000
445.688540 183.099030 10.058995 0.000000
444.847870 183.101410 10.057851 0.000000
444.034970 183.116090 10.056246 0.000000
443.208160 183.080410 10.055346 0.000000
442.408450 183.057710 10.053989 0.000000
441.638610 183.056090 10.052031 0.000000
428.096980 175.509160 9.581634 0.000000
427.638920 175.494050 9.580076 0.000000
427.186250 175.488680 9.577776 0.000000
426.736510 175.482360 9.575199 0.000000
426.277070 175.390180 9.576040 0.000000
425.838620 175.419620 9.571279 0.000000
425.400670 175.444560 9.566388 0.000000
424.963320 175.467860 9.561244 0.000000
424.526060 175.484340 9.556073 0.000000
424.089230 175.498280 9.550688 0.000000
423.652560 175.507140 9.545199 0.000000
423.216130 175.513470 9.539495 0.000000
422.779790 175.512130 9.533806 0.000000
422.343600 175.506560 9.527975 0.000000
421.907590 175.495880 9.522047 0.000000
421.471590 175.482350 9.515913 0.000000
421.035830 175.461150 9.509796 0.000000
431.685420 174.952970 9.611165 0.000000
431.201840 174.947010 9.611905 0.000000
430.695160 174.852660 9.616082 0.000000
430.249360 174.924970 9.612780 0.000000
429.805480 174.996080 9.609190 0.000000
429.319670 174.906130 9.612174 0.000000
428.864320 174.905490 9.611004 0.000000
433.934970 174.401290 9.627078 0.000000
433.385500 174.303770 9.633569 0.000000
432.933750 174.405650 9.631089 0.000000
432.433350 174.381030 9.633684 0.000000
431.943660 174.363420 9.635613 0.000000
435.749880 173.872250 9.637010 0.000000
435.199520 173.835110 9.642474 0.000000
434.693970 173.862490 9.644705 0.000000
434.172450 173.841200 9.648644 0.000000
437.658420 173.377790 9.639152 0.000000
437.035490 173.284670 9.648848 0.000000
436.574220 173.430180 9.647500 0.000000
435.981200 173.341930 9.656017 0.000000
438.430020 172.816800 9.651827 0.000000
437.890720 172.871540 9.655792 0.000000
438.854160 166.562900 9.863516 0.000000
434.096130 185.187500 9.970726 0.000000
433.425930 185.177520 9.966194 0.000000
432.762760 185.165630 9.961514 0.000000
432.106350 185.152340 9.956678 0.000000
430.812530 185.123550 9.946493 0.000000
430.189270 185.177080 9.939715 0.000000
429.547030 185.120800 9.935021 0.000000
428.920620 185.117000 9.929048 0.000000
428.298130 185.111880 9.922909 0.000000
427.679170 185.105670 9.916599 0.000000
427.062230 185.089310 9.910310 0.000000
426.449710 185.082760 9.903613 0.000000
425.839690 185.075910 9.896720 0.000000
425.231840 185.068760 9.889629 0.000000
424.625820 185.061430 9.882334 0.000000
424.021270 185.054080 9.874826 0.000000
423.417790 185.046770 9.867104 0.000000
422.815000 185.039550 9.859158 0.000000
422.212590 185.032440 9.850985 0.000000
421.610170 185.024320 9.842606 0.000000
421.007390 185.016330 9.833988 0.000000
437.074680 184.061020 10.013192 0.000000
436.388280 184.065770 10.009448 0.000000
438.885560 166.601490 10.360508 0.000000
439.040560 166.481080 10.861287 0.000000
439.018130 166.747990 11.363592 0.000000
439.215480 166.380020 11.364295 0.000000
440.850560 166.205260 11.410864 0.000000
440.186710 165.107030 11.376718 0.000000
438.987060 165.102750 11.340340 0.000000
443.996730 163.732790 11.481064 0.000000
441.779300 162.826260 11.400357 0.000000
438.709380 167.015300 11.861431 0.000000
437.416600 166.786070 11.797997 0.000000
439.516200 166.120060 11.871711 0.000000
440.461730 164.823550 11.880812 0.000000
440.744050 164.537870 11.887046 0.000000
436.286100 168.473370 12.298955 0.000000
436.433870 168.024670 12.284271 0.000000
437.913510 167.342130 12.334090 0.000000
436.919100 167.393830 12.279902 0.000000
439.670620 166.831120 12.415375 0.000000
438.708040 167.021740 12.365849 0.000000
441.774900 164.301930 12.447814 0.000000
441.575260 162.242580 12.361923 0.000000
442.141660 161.223830 12.369540 0.000000
435.094880 161.255580 12.253147 0.000000
438.491670 166.247680 12.808395 0.000000
439.617980 165.686830 12.862841 0.000000
438.232700 164.945100 12.711365 0.000000
445.477110 163.580960 12.678584 0.000000
439.465030 168.423890 13.014764 0.000000
439.727510 166.893250 12.941445 0.000000
438.769680 167.093000 12.880758 0.000000
435.551850 166.343890 13.051247 0.000000
435.649380 165.906630 13.023170 0.000000
436.794950 165.586030 13.096765 0.000000
436.326900 165.606860 13.057155 0.000000
435.950680 165.716810 13.033362 0.000000
437.049350 164.329960 13.023797 0.000000
438.514010 163.737820 13.121351 0.000000
443.519810 162.465210 13.033983 0.000000
442.553990 162.378310 12.943923 0.000000
437.226930 169.733890 13.475140 0.000000
437.253570 169.086200 13.422048 0.000000
438.821620 167.154420 13.400300 0.000000
439.488040 166.115330 13.383710 0.000000
438.320590 166.084990 13.272947 0.000000
439.930540 164.414840 13.307127 0.000000
436.780000 164.560130 13.458041 0.000000
435.560790 161.673000 13.449410 0.000000
445.338070 161.484150 13.717592 0.000000
436.654600 161.390790 13.567909 0.000000
435.739560 161.433910 13.449417 0.000000
437.816500 169.133850 14.004829 0.000000
439.104310 167.453520 13.972559 0.000000
438.614010 167.533580 13.928649 0.000000
437.447510 167.437230 13.799968 0.000000
436.801480 167.280230 13.720055 0.000000
439.840420 167.016970 14.011671 0.000000
437.012910 166.372150 13.652582 0.000000
440.484220 164.360380 13.859617 0.000000
439.564820 164.126530 13.733034 0.000000
441.964510 161.139510 13.814527 0.000000
436.217190 167.178130 14.131872 0.000000
442.515660 167.082240 14.317325 0.000000
436.581510 167.027970 14.155190 0.000000
445.236150 162.430510 14.318335 0.000000
441.199040 162.482570 14.298802 0.000000
441.973450 162.046510 14.376204 0.000000
441.509800 162.221480 14.322474 0.000000
437.923800 169.959730 14.650429 0.000000
438.519100 168.672550 14.566485 0.000000
440.365750 168.134830 14.727308 0.000000
439.627410 168.000750 14.622550 0.000000
438.616420 168.152300 14.518700 0.000000
438.950620 167.901140 14.530168 0.000000
444.462590 163.020690 14.816305 0.000000
444.806370 161.235810 14.742182 0.000000
440.729740 170.286150 9.599108 0.000000
424.261260 169.802610 9.365481 0.000000
423.918730 169.807240 9.364834 0.000000
423.403930 169.774080 9.365749 0.000000
422.894040 169.761180 9.364557 0.000000
422.557950 169.787110 9.360960 0.000000
422.221440 169.808550 9.357276 0.000000
421.884580 169.826970 9.353405 0.000000
421.547330 169.840850 9.349447 0.000000
421.040680 169.853360 9.343290 0.000000
441.576870 169.763030 9.597977 0.000000
440.991090 169.866710 9.607234 0.000000
425.401310 169.437840 9.387729 0.000000
424.880340 169.402400 9.391499 0.000000
442.407960 169.202190 9.596905 0.000000
427.224580 169.059230 9.400331 0.000000
426.603730 169.359560 9.386295 0.000000
426.231960 169.281780 9.393881 0.000000
425.899960 169.347000 9.391545 0.000000
428.870910 168.611300 9.408307 0.000000
428.270780 168.957050 9.395058 0.000000
427.884340 168.891880 9.403927 0.000000
427.554350 168.976500 9.402265 0.000000
443.366300 168.724760 9.588900 0.000000
442.671510 168.782520 9.603511 0.000000
429.866000 168.320860 9.409651 0.000000
429.203250 168.519870 9.408806 0.000000
428.498720 168.596370 9.414616 0.000000
444.323060 168.208100 9.580566 0.000000
443.651030 168.315770 9.593942 0.000000
431.024780 167.932270 9.409748 0.000000
430.450200 167.953800 9.420552 0.000000
430.197240 168.215190 9.409864 0.000000
444.475460 167.692170 9.591124 0.000000
431.851040 167.622920 9.408834 0.000000
445.593170 167.247590 9.574467 0.000000
444.766910 167.284380 9.594825 0.000000
433.051210 167.208980 9.401070 0.000000
432.511410 167.355640 9.407421 0.000000
432.091550 167.349320 9.418534 0.000000
433.831510 166.769390 9.402657 0.000000
434.864590 166.334640 9.393258 0.000000
434.515230 166.479160 9.396981 0.000000
434.110810 166.547710 9.405992 0.000000
424.873050 166.199890 9.249393 0.000000
424.299470 166.178770 9.255382 0.000000
423.885220 166.228260 9.252897 0.000000
423.470890 166.271790 9.250085 0.000000
423.056400 166.308410 9.246825 0.000000
422.641600 166.338500 9.243296 0.000000
422.226590 166.361650 9.239323 0.000000
421.811280 166.379010 9.235016 0.000000
421.534150 166.386400 9.231949 0.000000
421.118130 166.392060 9.226981 0.000000
435.215420 166.185670 9.389305 0.000000
426.505220 165.788420 9.263191 0.000000
426.229950 165.849210 9.262674 0.000000
425.817500 165.936070 9.261406 0.000000
425.404020 166.013550 9.260098 0.000000
425.128020 166.059950 9.259114 0.000000
424.575740 166.142580 9.256754 0.000000
436.606930 165.516430 9.373369 0.000000
436.265440 165.699190 9.377007 0.000000
435.920040 165.872340 9.380822 0.000000
427.470030 165.554760 9.263291 0.000000
427.093540 165.760100 9.254389 0.000000
426.781070 165.726350 9.263377 0.000000
437.282100 165.127140 9.366234 0.000000
437.020810 165.397430 9.363621 0.000000
429.123540 165.059360 9.259020 0.000000
428.709720 165.194140 9.260745 0.000000
428.296780 165.322240 9.261886 0.000000
437.619750 164.924590 9.362382 0.000000
429.558720 164.955570 9.253316 0.000000
438.298980 164.506500 9.353811 0.000000
437.959110 164.718110 9.358211 0.000000
438.592590 164.252170 9.352699 0.000000
430.542420 163.835850 9.302601 0.000000
430.275450 163.942120 9.305070 0.000000
429.874880 164.093730 9.308505 0.000000
431.344450 163.495960 9.294102 0.000000
431.076840 163.612750 9.297127 0.000000
430.809690 163.726300 9.299931 0.000000
423.448940 163.387700 9.216808 0.000000
423.111080 163.435910 9.213390 0.000000
422.772190 163.476780 9.209700 0.000000
422.319090 163.521820 9.204369 0.000000
421.864590 163.555150 9.198590 0.000000
421.522860 163.571750 9.194093 0.000000
421.180420 163.581050 9.189308 0.000000
439.136170 163.227360 9.371778 0.000000
438.701930 163.377410 9.384429 0.000000
438.270840 163.518540 9.396882 0.000000
432.146820 163.121630 9.284121 0.000000
431.879180 163.250090 9.287638 0.000000
431.611690 163.374830 9.290966 0.000000
425.817380 162.963850 9.222983 0.000000
425.477570 163.035220 9.223881 0.000000
425.021970 163.111710 9.225649 0.000000
424.680850 163.162200 9.226605 0.000000
424.344790 163.226240 9.224923 0.000000
423.897890 163.313200 9.221046 0.000000
439.260830 162.851360 9.381079 0.000000
432.949770 162.712390 9.272525 0.000000
432.681730 162.852390 9.276615 0.000000
432.414220 162.988910 9.280463 0.000000
427.057190 162.631090 9.218502 0.000000
426.719360 162.730710 9.220177 0.000000
426.381590 162.823940 9.221388 0.000000
426.042660 162.908920 9.222602 0.000000
433.463810 162.398250 9.266332 0.000000
433.213200 162.563550 9.268797 0.000000
428.291500 162.206910 9.210067 0.000000
427.955570 162.331630 9.212757 0.000000
427.506530 162.486980 9.215962 0.000000
433.915560 162.012920 9.266077 0.000000
433.690430 162.207030 9.266300 0.000000
429.073550 161.888140 9.202372 0.000000
428.627230 162.075070 9.206941 0.000000
422.795650 161.730190 9.151973 0.000000
422.402500 161.763990 9.148813 0.000000
422.009190 161.796230 9.144045 0.000000
421.614870 161.817960 9.138858 0.000000
421.120640 161.828960 9.131862 0.000000
440.443270 161.796810 9.366384 0.000000
439.950990 161.945450 9.383858 0.000000
434.248930 161.714810 9.265495 0.000000
429.962950 161.476520 9.191370 0.000000
429.519010 161.688920 9.197154 0.000000
425.170140 161.411900 9.147525 0.000000
424.775390 161.495330 9.148904 0.000000
424.378880 161.563030 9.150495 0.000000
423.982510 161.620150 9.151615 0.000000
423.586490 161.667110 9.152214 0.000000
423.190800 161.703490 9.152368 0.000000
440.616360 161.451870 9.370157 0.000000
434.685880 161.305540 9.264328 0.000000
430.404690 161.250120 9.185092 0.000000
426.344090 161.081770 9.142620 0.000000
425.953550 161.201840 9.144844 0.000000
425.562380 161.312270 9.146420 0.000000
439.623690 182.949430 9.964893 0.000000
438.904170 182.981400 9.964720 0.000000
444.305390 181.671430 9.980804 0.000000
443.505040 181.707460 9.982454 0.000000
442.733580 181.759050 9.983474 0.000000
441.984830 181.820400 9.983995 0.000000
441.220730 181.833880 9.985243 0.000000
440.480100 181.859440 9.985961 0.000000
445.232670 180.669360 9.996470 0.000000
444.431700 180.723330 9.998295 0.000000
423.744350 175.363630 9.540850 0.000000
423.310300 175.402040 9.536428 0.000000
422.875950 175.437910 9.531786 0.000000
422.440890 175.467190 9.527102 0.000000
422.005370 175.493990 9.522196 0.000000
421.569210 175.513060 9.517299 0.000000
421.132480 175.529480 9.512182 0.000000
426.831240 175.242070 9.556077 0.000000
426.382600 175.251220 9.555251 0.000000
425.938290 175.268950 9.553717 0.000000
425.496150 175.286470 9.551863 0.000000
425.043700 175.219890 9.553387 0.000000
424.610870 175.271550 9.549374 0.000000
424.177670 175.318440 9.545240 0.000000
428.498380 174.651700 9.580358 0.000000
427.581330 174.606990 9.583822 0.000000
430.319610 174.519260 9.579021 0.000000
429.852330 174.536100 9.580607 0.000000
429.362090 174.468060 9.585576 0.000000
428.929630 174.560300 9.583118 0.000000
428.025730 174.587040 9.584121 0.000000
432.481080 173.872450 9.590709 0.000000
431.521240 173.922640 9.596420 0.000000
431.040160 173.921510 9.599861 0.000000
430.568910 173.927990 9.602582 0.000000
431.954740 173.801910 9.598051 0.000000
434.211330 173.273650 9.597198 0.000000
433.686890 173.259980 9.603599 0.000000
433.205440 173.309810 9.606658 0.000000
432.708130 173.313570 9.611392 0.000000
436.018770 172.710510 9.595819 0.000000
434.982970 172.789920 9.606730 0.000000
435.422060 172.633240 9.606993 0.000000
437.348940 172.174620 9.595759 0.000000
436.746120 172.134220 9.606699 0.000000
436.238650 172.210170 9.611509 0.000000
438.159060 171.687580 9.599919 0.000000
437.627930 171.766820 9.606049 0.000000
438.953060 171.168690 9.604058 0.000000
438.394810 171.232210 9.611935 0.000000
439.251650 170.792600 9.611447 0.000000
439.841670 170.741780 9.601820 0.000000
440.130070 170.352050 9.609147 0.000000
438.845580 166.577030 9.757739 0.000000
423.411160 184.957030 9.861239 0.000000
422.809810 184.991390 9.855164 0.000000
422.208100 185.026030 9.848849 0.000000
421.605620 185.060870 9.842294 0.000000
421.002110 185.091190 9.835603 0.000000
428.878360 184.696030 9.904842 0.000000
428.272920 184.782210 9.899624 0.000000
427.642180 184.721920 9.897370 0.000000
427.033170 184.757550 9.892820 0.000000
426.426150 184.791600 9.888090 0.000000
425.820250 184.820300 9.883260 0.000000
425.216740 184.854860 9.878081 0.000000
424.614290 184.889070 9.872689 0.000000
424.012540 184.923100 9.867077 0.000000
433.947880 184.370000 9.930922 0.000000
433.294530 184.409650 9.928451 0.000000
432.646790 184.446550 9.925816 0.000000
432.004490 184.481200 9.923010 0.000000
431.367370 184.514070 9.920024 0.000000
430.735200 184.545620 9.916851 0.000000
429.483430 184.601850 9.910009 0.000000
436.860440 183.170960 9.960760 0.000000
436.148010 183.123950 9.961267 0.000000
435.481900 183.155120 9.959910 0.000000
434.831180 183.202300 9.957993 0.000000
438.205690 183.030300 9.963942 0.000000
437.488860 183.020220 9.964149 0.000000
439.763890 181.901750 9.986063 0.000000
438.896820 166.629820 10.273604 0.000000
439.046910 166.491070 10.793555 0.000000
439.112550 166.556920 11.314954 0.000000
440.944670 166.159260 11.358254 0.000000
438.968810 165.082370 11.292087 0.000000
437.330170 166.820020 11.770495 0.000000
440.671450 166.504780 11.901677 0.000000
439.613010 166.168270 11.846974 0.000000
444.939330 161.845600 11.997078 0.000000
436.402400 168.189420 12.283575 0.000000
436.547820 167.741810 12.269610 0.000000
437.801270 167.310070 12.317522 0.000000
437.268490 167.340710 12.289542 0.000000
436.840730 167.469330 12.272320 0.000000
438.717070 167.054170 12.357702 0.000000
439.441590 166.025530 12.356046 0.000000
435.049680 161.434840 12.288565 0.000000
440.037290 167.707400 12.462161 0.000000
439.731200 166.840770 12.407289 0.000000
438.298920 165.044310 12.736279 0.000000
444.798400 162.804260 12.585670 0.000000
439.485110 168.411220 13.019759 0.000000
440.374790 168.025760 13.061953 0.000000
437.410370 168.103850 12.854756 0.000000
439.762270 166.874040 12.950048 0.000000
438.771580 167.112120 12.890454 0.000000
435.530730 166.592100 13.101554 0.000000
435.646390 166.163850 13.076703 0.000000
439.673460 165.683780 12.876900 0.000000
436.678650 165.629270 13.123485 0.000000
436.182980 165.657060 13.082502 0.000000
435.843600 165.834640 13.067265 0.000000
436.912630 164.330690 13.048702 0.000000
443.774480 162.268390 13.054996 0.000000
445.231410 161.485730 13.154507 0.000000
437.275480 169.914110 13.515530 0.000000
437.272000 169.232300 13.458745 0.000000
438.824250 167.168350 13.428553 0.000000
439.512790 166.097340 13.413713 0.000000
438.316890 166.125310 13.306185 0.000000
439.964540 164.355150 13.339590 0.000000
434.576290 162.248930 13.468913 0.000000
435.244960 161.602810 13.490669 0.000000
435.137360 161.127730 13.431923 0.000000
434.137970 161.082260 13.297683 0.000000
433.815060 161.184590 13.266594 0.000000
438.636050 167.579930 13.979856 0.000000
438.840550 167.189790 13.965827 0.000000
436.945680 166.447360 13.702046 0.000000
436.541960 166.584520 13.674171 0.000000
439.554810 166.138850 13.950828 0.000000
438.061000 165.893510 13.768106 0.000000
445.059780 161.914380 13.733196 0.000000
441.466800 161.738190 13.848862 0.000000
439.842990 166.957290 14.052187 0.000000
436.482760 167.098860 14.216590 0.000000
439.231630 163.815350 14.221269 0.000000
441.357240 162.377200 14.393517 0.000000
437.979160 170.084380 14.725009 0.000000
438.103390 169.546590 14.676693 0.000000
439.804780 168.121290 14.717989 0.000000
438.679020 168.237630 14.596223 0.000000
438.995910 167.943740 14.601945 0.000000
444.802830 161.297930 14.821828 0.000000
440.685360 168.331650 14.847359 0.000000
439.425930 170.197340 9.576776 0.000000
423.029540 169.804340 9.350504 0.000000
422.686950 169.811040 9.349977 0.000000
422.171840 169.780650 9.351097 0.000000
421.661500 169.770520 9.350105 0.000000
421.325040 169.798340 9.346632 0.000000
420.988070 169.821670 9.343070 0.000000
440.315770 169.719910 9.572629 0.000000
424.169560 169.433210 9.372333 0.000000
423.648740 169.400600 9.376312 0.000000
440.551610 169.277010 9.581164 0.000000
425.990970 169.044140 9.384277 0.000000
425.370970 169.348220 9.370441 0.000000
424.999690 169.272640 9.378167 0.000000
424.667970 169.339660 9.375958 0.000000
441.141080 169.155670 9.571202 0.000000
427.035250 168.936340 9.378601 0.000000
426.649630 168.873200 9.387629 0.000000
426.320160 168.959520 9.386095 0.000000
442.092290 168.674300 9.562793 0.000000
428.615570 168.269170 9.394193 0.000000
427.796140 168.532390 9.392406 0.000000
427.262820 168.574750 9.398073 0.000000
443.041410 168.154010 9.554063 0.000000
442.375210 168.264980 9.567697 0.000000
429.769200 167.875920 9.393825 0.000000
429.071350 168.031130 9.399557 0.000000
443.192750 167.638580 9.564550 0.000000
430.591340 167.563490 9.392584 0.000000
443.481870 167.230390 9.568129 0.000000
431.666260 167.284580 9.380007 0.000000
431.248200 167.293900 9.390912 0.000000
430.830660 167.289550 9.402169 0.000000
444.281590 167.176540 9.548307 0.000000
432.564450 166.708710 9.385239 0.000000
431.903500 167.005840 9.388714 0.000000
444.507320 166.712920 9.554279 0.000000
433.432370 166.361340 9.375977 0.000000
432.911440 166.574370 9.381625 0.000000
423.641270 166.194490 9.234359 0.000000
423.343930 166.138080 9.241870 0.000000
423.067570 166.175230 9.240621 0.000000
422.653170 166.226240 9.238312 0.000000
422.238590 166.271390 9.235668 0.000000
421.823790 166.309630 9.232576 0.000000
421.408600 166.341230 9.229221 0.000000
420.993100 166.365840 9.225429 0.000000
444.730960 166.250850 9.559878 0.000000
434.376430 166.061810 9.359256 0.000000
433.955570 166.138890 9.369919 0.000000
425.272130 165.774660 9.247692 0.000000
424.997860 165.838960 9.247063 0.000000
424.585540 165.927030 9.245993 0.000000
424.172150 166.005950 9.244867 0.000000
423.896210 166.053420 9.243996 0.000000
435.004090 165.653810 9.356841 0.000000
434.656160 165.823270 9.361179 0.000000
426.231260 165.526120 9.248442 0.000000
425.857030 165.736660 9.239325 0.000000
425.546450 165.708010 9.248089 0.000000
436.069150 165.129240 9.341262 0.000000
435.795040 165.387990 9.339859 0.000000
435.360720 165.487000 9.351633 0.000000
427.742340 165.070480 9.244319 0.000000
427.467320 165.160160 9.245513 0.000000
427.055300 165.289140 9.246861 0.000000
436.751620 164.723600 9.332383 0.000000
436.412870 164.931440 9.336714 0.000000
428.313750 164.918910 9.237750 0.000000
428.016420 164.975650 9.243126 0.000000
436.747190 164.224960 9.354405 0.000000
429.014160 163.883240 9.291317 0.000000
428.615660 164.035780 9.294898 0.000000
430.077210 163.434910 9.279978 0.000000
429.811130 163.552170 9.283095 0.000000
429.412570 163.721330 9.287373 0.000000
422.557530 163.348820 9.203395 0.000000
422.219850 163.404390 9.200291 0.000000
421.881230 163.453980 9.196979 0.000000
421.541500 163.496170 9.193395 0.000000
421.087190 163.543010 9.188205 0.000000
437.885070 163.197630 9.348486 0.000000
437.453370 163.349120 9.361291 0.000000
437.024600 163.491640 9.373900 0.000000
430.874690 163.059220 9.269730 0.000000
