# .PCD v0.7 - Point Cloud Data file format
VERSION 0.7
FIELDS x y z intensity
SIZE 4 4 4 4
TYPE F F F F
COUNT 1 1 1 1
WIDTH 1169
HEIGHT 1
VIEWPOINT 0 0 0 1 0 0 0
POINTS 1169
DATA ascii
445.283230 190.304200 10.318470 0.000000
444.584050 190.358520 10.313504 0.000000
423.551640 192.120190 10.054009 0.000000
422.723970 192.165990 10.039139 0.000000
421.885410 192.208760 10.023829 0.000000
421.035580 192.247860 10.008077 0.000000
426.766300 191.895950 10.109609 0.000000
425.970550 191.978100 10.095881 0.000000
425.178650 192.011840 10.082647 0.000000
424.369080 192.070890 10.068467 0.000000
433.505000 191.489360 10.209325 0.000000
432.048830 191.579850 10.189661 0.000000
431.313510 191.624480 10.179335 0.000000
430.569520 191.687000 10.168343 0.000000
439.200380 191.140320 10.275421 0.000000
438.495000 191.185290 10.268151 0.000000
437.788570 191.230510 10.260598 0.000000
437.080780 191.268980 10.252869 0.000000
436.371220 191.310640 10.244801 0.000000
435.659360 191.353040 10.236426 0.000000
434.944640 191.398380 10.227705 0.000000
434.226680 191.443850 10.218673 0.000000
444.145780 190.830230 10.318756 0.000000
443.435580 190.875790 10.313328 0.000000
442.726650 190.915650 10.307726 0.000000
440.609710 191.050780 10.289135 0.000000
439.905150 191.095520 10.282414 0.000000
420.853610 190.664430 10.027005 0.000000
445.573940 190.739300 10.328849 0.000000
444.858250 190.784030 10.323939 0.000000
445.181490 191.342440 10.336766 0.000000
444.427150 191.270510 10.330918 0.000000
442.237950 191.259030 10.309297 0.000000
441.514770 191.242250 10.301811 0.000000
440.796600 191.236600 10.293936 0.000000
440.081330 191.230440 10.285830 0.000000
439.368500 191.223970 10.277485 0.000000
438.657710 191.217320 10.268899 0.000000
437.948610 191.210620 10.260065 0.000000
436.533480 191.193050 10.241693 0.000000
435.826780 191.183460 10.232126 0.000000
435.120000 191.175920 10.222259 0.000000
434.412690 191.168820 10.212106 0.000000
431.569640 191.140470 10.168591 0.000000
430.853300 191.132770 10.156956 0.000000
430.133880 191.124470 10.145009 0.000000
429.408910 191.127840 10.132514 0.000000
428.681760 191.118900 10.119900 0.000000
427.950350 191.108570 10.106957 0.000000
427.214780 191.094700 10.093719 0.000000
426.458010 191.145550 10.078830 0.000000
424.966520 191.079030 10.051177 0.000000
424.207730 191.058820 10.036483 0.000000
423.435670 191.057280 10.020967 0.000000
422.655610 191.053860 10.005034 0.000000
421.867220 191.047990 9.988684 0.000000
421.070280 191.039060 9.971910 0.000000
444.053560 191.832950 10.334477 0.000000
443.281620 191.718980 10.327017 0.000000
442.531680 191.675250 10.318460 0.000000
441.787750 191.630020 10.309725 0.000000
440.314330 191.520980 10.291905 0.000000
439.586460 191.474300 10.282581 0.000000
438.862920 191.427200 10.273052 0.000000
436.003630 191.231900 10.232842 0.000000
435.295500 191.184360 10.222198 0.000000
434.589080 191.142000 10.211229 0.000000
433.883970 191.094360 10.200098 0.000000
433.179750 191.046940 10.188709 0.000000
432.475980 190.999690 10.177056 0.000000
431.772220 190.952560 10.165133 0.000000
431.068080 190.905460 10.152935 0.000000
430.363100 190.858150 10.140454 0.000000
429.656890 190.810580 10.127686 0.000000
428.949070 190.762500 10.114625 0.000000
428.237850 190.721650 10.101114 0.000000
427.525850 190.669820 10.087489 0.000000
426.811220 190.616550 10.073562 0.000000
426.093630 190.561720 10.059324 0.000000
425.355530 190.575090 10.043337 0.000000
423.908080 190.425830 10.013840 0.000000
423.172940 190.367000 9.998189 0.000000
422.427640 190.322370 9.981819 0.000000
421.676090 190.275920 9.965056 0.000000
420.918030 190.227200 9.947895 0.000000
445.080930 191.796160 10.343505 0.000000
444.304470 191.761410 10.335837 0.000000
443.525360 191.681370 10.328542 0.000000
439.784970 191.479660 10.286651 0.000000
439.051850 191.420780 10.277917 0.000000
438.325740 191.377460 10.268763 0.000000
437.603910 191.333680 10.259400 0.000000
436.885650 191.287410 10.249858 0.000000
436.170780 191.239520 10.240118 0.000000
435.459080 191.193420 10.230126 0.000000
434.750000 191.148970 10.219879 0.000000
434.042970 191.104720 10.209393 0.000000
433.337590 191.064610 10.198597 0.000000
432.633390 191.019470 10.187633 0.000000
431.930020 190.974530 10.176410 0.000000
431.226990 190.929780 10.164922 0.000000
430.523960 190.885130 10.153163 0.000000
429.820370 190.840450 10.141128 0.000000
429.115940 190.795640 10.128809 0.000000
428.410190 190.750490 10.116203 0.000000
427.703000 190.702820 10.103340 0.000000
426.992710 190.660800 10.090059 0.000000
426.281070 190.611210 10.076599 0.000000
425.566130 190.563110 10.062779 0.000000
424.109650 190.530090 10.032811 0.000000
424.847840 190.514190 10.048632 0.000000
422.661830 190.385650 10.003620 0.000000
421.926420 190.329100 9.988127 0.000000
421.180690 190.286940 9.971913 0.000000
444.552670 191.578890 10.325674 0.000000
443.767090 191.525600 10.318485 0.000000
442.996520 191.494870 10.310829 0.000000
442.222900 191.417820 10.303564 0.000000
441.483000 191.454610 10.294656 0.000000
440.718600 191.346360 10.287416 0.000000
439.975860 191.308410 10.279072 0.000000
439.238920 191.268940 10.270548 0.000000
438.507350 191.228270 10.261836 0.000000
437.778840 191.172130 10.253134 0.000000
437.056980 191.128750 10.244048 0.000000
436.339230 191.083710 10.234775 0.000000
435.625370 191.039460 10.225273 0.000000
434.915010 190.997530 10.215517 0.000000
434.207520 190.955610 10.205534 0.000000
433.502500 190.913830 10.195317 0.000000
432.799410 190.872250 10.184862 0.000000
432.097870 190.834490 10.174102 0.000000
431.397430 190.791980 10.163169 0.000000
430.697720 190.749660 10.151977 0.000000
429.998290 190.707530 10.140520 0.000000
429.298740 190.665500 10.128794 0.000000
428.598600 190.623440 10.116790 0.000000
427.897710 190.579380 10.104536 0.000000
427.195620 190.533750 10.092018 0.000000
426.491880 190.487630 10.079208 0.000000
425.784390 190.450650 10.065915 0.000000
425.075100 190.407530 10.052413 0.000000
424.362850 190.363130 10.038602 0.000000
423.647340 190.317110 10.024479 0.000000
422.911870 190.335890 10.008675 0.000000
421.469090 190.197800 9.979526 0.000000
445.581540 191.159670 10.308385 0.000000
444.774780 191.105260 10.301638 0.000000
443.979370 191.051560 10.294705 0.000000
443.193820 190.995910 10.287620 0.000000
442.417760 190.938720 10.280376 0.000000
441.656740 190.904270 10.272657 0.000000
440.162660 190.856960 10.256359 0.000000
439.407840 190.744510 10.249133 0.000000
438.674990 190.703000 10.240757 0.000000
437.947850 190.659180 10.232219 0.000000
437.225890 190.612180 10.223529 0.000000
436.507140 190.549220 10.214875 0.000000
435.795530 190.502290 10.205788 0.000000
435.088500 190.457700 10.196461 0.000000
434.385250 190.412890 10.186925 0.000000
433.685360 190.367950 10.177176 0.000000
432.988460 190.323100 10.167207 0.000000
432.294070 190.278320 10.157011 0.000000
431.601780 190.233780 10.146581 0.000000
430.911070 190.193420 10.135844 0.000000
430.221620 190.147980 10.124949 0.000000
429.532990 190.102780 10.113802 0.000000
428.844880 190.056550 10.102418 0.000000
428.156980 190.008130 10.090811 0.000000
427.468720 189.959730 10.078935 0.000000
426.779790 189.911190 10.066785 0.000000
426.089750 189.862400 10.054357 0.000000
425.397610 189.816670 10.041574 0.000000
424.702120 189.778140 10.028342 0.000000
424.005280 189.731960 10.014945 0.000000
423.305630 189.684520 10.001245 0.000000
422.602940 189.635560 9.987242 0.000000
421.881040 189.649050 9.971563 0.000000
444.925380 190.571470 10.281095 0.000000
444.120090 190.519730 10.274262 0.000000
443.325620 190.465680 10.267292 0.000000
442.541290 190.409010 10.260186 0.000000
441.766750 190.350300 10.252939 0.000000
441.001710 190.290050 10.245544 0.000000
440.251770 190.252620 10.237667 0.000000
438.779300 190.197020 10.221096 0.000000
438.035220 190.079360 10.213820 0.000000
437.312870 190.031220 10.205376 0.000000
436.596560 189.981660 10.196769 0.000000
435.885890 189.931000 10.187990 0.000000
435.178800 189.866990 10.179226 0.000000
434.478940 189.819060 10.170023 0.000000
433.783330 189.770720 10.160628 0.000000
433.091550 189.722140 10.151032 0.000000
432.403290 189.673520 10.141232 0.000000
431.718140 189.624940 10.131217 0.000000
431.035550 189.576510 10.120982 0.000000
430.355190 189.528290 10.110521 0.000000
429.676610 189.483700 10.099769 0.000000
428.999480 189.431730 10.088910 0.000000
428.323390 189.380020 10.077807 0.000000
427.647980 189.328510 10.066455 0.000000
426.972810 189.277130 10.054847 0.000000
426.297450 189.225780 10.042977 0.000000
425.621280 189.176610 10.030795 0.000000
424.943910 189.128110 10.018322 0.000000
424.265080 189.079130 10.005569 0.000000
423.583160 189.036770 9.992380 0.000000
422.899990 188.987400 9.979027 0.000000
422.214230 188.936800 9.965381 0.000000
420.818630 188.892620 9.935829 0.000000
445.154390 189.109390 10.306435 0.000000
421.525600 188.884700 9.951438 0.000000
443.210330 189.380920 10.215007 0.000000
442.429440 189.332820 10.208568 0.000000
441.658690 189.281620 10.202007 0.000000
440.897740 189.227860 10.195318 0.000000
440.146150 189.171780 10.188497 0.000000
439.402680 189.110470 10.181587 0.000000
438.674100 189.071610 10.174172 0.000000
437.243560 189.011610 10.158536 0.000000
436.521940 188.899920 10.151739 0.000000
435.821140 188.854540 10.143724 0.000000
435.126650 188.810820 10.135502 0.000000
434.437440 188.766050 10.127112 0.000000
433.751310 188.705990 10.118790 0.000000
433.071990 188.660980 10.110028 0.000000
432.396760 188.615540 10.101078 0.000000
431.725250 188.569920 10.091932 0.000000
431.056980 188.522720 10.082612 0.000000
430.391630 188.473830 10.073115 0.000000
429.728850 188.425060 10.063406 0.000000
429.068330 188.376560 10.053476 0.000000
428.409520 188.332700 10.043237 0.000000
427.752110 188.283390 10.032872 0.000000
427.095700 188.234310 10.022270 0.000000
426.439880 188.185420 10.011424 0.000000
445.014770 188.100650 10.252572 0.000000
444.231380 188.066830 10.246681 0.000000
443.447270 187.999620 10.241087 0.000000
425.784150 188.138170 10.000299 0.000000
425.127990 188.092480 9.988886 0.000000
424.471130 188.046710 9.977211 0.000000
423.813200 188.000610 9.965270 0.000000
423.153810 187.954070 9.953058 0.000000
422.491360 187.914090 9.940413 0.000000
421.827760 187.866470 9.927632 0.000000
421.162170 187.815120 9.914627 0.000000
441.585140 188.252000 10.151878 0.000000
440.826170 188.203430 10.145744 0.000000
440.076870 188.151310 10.139504 0.000000
439.337220 188.096730 10.133144 0.000000
438.606840 188.040190 10.126655 0.000000
437.885440 187.982270 10.120028 0.000000
436.468960 187.868030 10.106262 0.000000
435.789700 187.889660 10.097778 0.000000
435.090210 187.787520 10.091252 0.000000
434.410340 187.747800 10.083474 0.000000
433.735960 187.706700 10.075542 0.000000
433.066650 187.664520 10.067450 0.000000
432.400090 187.606140 10.059471 0.000000
431.739960 187.560590 10.051075 0.000000
431.083890 187.514660 10.042498 0.000000
430.431460 187.468520 10.033731 0.000000
429.782350 187.422300 10.024770 0.000000
429.136140 187.376140 10.015607 0.000000
428.492430 187.330140 10.006236 0.000000
427.850800 187.284330 9.996651 0.000000
427.210820 187.242920 9.986758 0.000000
422.743990 186.932220 9.911338 0.000000
445.726560 187.163180 10.205454 0.000000
444.933470 187.149810 10.199989 0.000000
444.136020 187.096940 10.194946 0.000000
443.351100 187.040070 10.189807 0.000000
442.589420 187.006590 10.184157 0.000000
441.826350 186.938780 10.178876 0.000000
422.103420 186.885470 9.899589 0.000000
421.459960 186.844910 9.887414 0.000000
420.815310 186.797760 9.875101 0.000000
426.572140 187.196320 9.976750 0.000000
425.934330 187.150770 9.966492 0.000000
425.296880 187.107570 9.955950 0.000000
424.659480 187.064450 9.945164 0.000000
424.021730 187.021330 9.934126 0.000000
423.383240 186.978090 9.922834 0.000000
441.899380 211.036910 11.067260 0.000000
438.549290 210.772340 11.011026 0.000000
437.455080 210.692660 10.992670 0.000000
436.369570 210.611310 10.974455 0.000000
435.288850 210.502810 10.956281 0.000000
434.218930 210.414460 10.938315 0.000000
433.156130 210.325590 10.920468 0.000000
432.099730 210.236450 10.902728 0.000000
430.004060 210.063640 10.867539 0.000000
428.963290 209.981920 10.850071 0.000000
427.926150 209.900590 10.832663 0.000000
426.891910 209.827210 10.815315 0.000000
425.860020 209.744140 10.797992 0.000000
424.830200 209.655200 10.780694 0.000000
423.801700 209.566650 10.763419 0.000000
422.773930 209.478350 10.746158 0.000000
421.746220 209.390140 10.728896 0.000000
440.773500 210.958400 11.048377 0.000000
439.907810 187.174560 10.099527 0.000000
439.170620 187.128330 10.093657 0.000000
438.442990 187.079130 10.087681 0.000000
437.724670 187.027540 10.081588 0.000000
437.015290 186.974060 10.075371 0.000000
436.314580 186.919200 10.069022 0.000000
434.939540 186.815060 10.055747 0.000000
434.279600 186.837890 10.047480 0.000000
433.599700 186.739140 10.041296 0.000000
432.938350 186.698300 10.033868 0.000000
445.597350 186.294780 10.160309 0.000000
444.782620 186.258030 10.155755 0.000000
443.948760 186.150360 10.152170 0.000000
443.177310 186.137210 10.146923 0.000000
442.400970 186.084140 10.142160 0.000000
432.282410 186.656190 10.026292 0.000000
431.631500 186.613010 10.018561 0.000000
430.983490 186.555330 10.010938 0.000000
430.341980 186.511960 10.002857 0.000000
429.704350 186.468200 9.994598 0.000000
429.070220 186.424260 9.986156 0.000000
428.439300 186.380230 9.977525 0.000000
427.811160 186.336270 9.968696 0.000000
427.185390 186.292420 9.959663 0.000000
426.561610 186.248780 9.950422 0.000000
425.939420 186.210040 9.940863 0.000000
425.318360 186.168460 9.931148 0.000000
424.698060 186.127080 9.921204 0.000000
424.078310 186.083560 9.911080 0.000000
441.122860 208.628330 10.975289 0.000000
438.945710 208.450130 10.939108 0.000000
435.764920 208.197570 10.886249 0.000000
432.662290 207.929090 10.834683 0.000000
428.621860 207.598790 10.767535 0.000000
427.623930 207.516530 10.750951 0.000000
424.648770 207.288180 10.701510 0.000000
445.638340 208.984820 11.050329 0.000000
444.487060 208.895480 11.031198 0.000000
443.348510 208.796630 11.012275 0.000000
442.224210 208.695100 10.993588 0.000000
440.024410 208.522950 10.957032 0.000000
436.813450 208.271360 10.903671 0.000000
434.723910 208.117170 10.868949 0.000000
433.687590 208.010970 10.851723 0.000000
430.631130 207.764050 10.800928 0.000000
429.624050 207.681370 10.784191 0.000000
426.629610 207.439670 10.734427 0.000000
425.638030 207.369930 10.717951 0.000000
423.661250 207.206820 10.685099 0.000000
422.674870 207.125820 10.668707 0.000000
421.689090 207.045030 10.652324 0.000000
438.475100 186.660710 10.063179 0.000000
437.746370 186.611020 10.057115 0.000000
437.027220 186.558470 10.050953 0.000000
436.317410 186.503540 10.044686 0.000000
435.616910 186.447880 10.038284 0.000000
434.925570 186.392580 10.031727 0.000000
433.567200 186.279820 10.018200 0.000000
432.915070 186.295010 10.009831 0.000000
432.243930 186.192690 10.003561 0.000000
431.591580 186.149020 9.995999 0.000000
430.944700 186.104050 9.988298 0.000000
438.507320 207.343190 10.890980 0.000000
435.355350 207.068570 10.837144 0.000000
434.325930 206.981830 10.819559 0.000000
433.305110 206.893620 10.802123 0.000000
429.295410 206.514470 10.733656 0.000000
423.443820 205.988460 10.633720 0.000000
445.177120 207.949680 11.004885 0.000000
444.028440 207.853330 10.985263 0.000000
442.893590 207.748440 10.965883 0.000000
441.773770 207.640780 10.946763 0.000000
440.668490 207.531070 10.927893 0.000000
439.586430 207.456510 10.909399 0.000000
437.448150 207.262790 10.872882 0.000000
432.289310 206.780500 10.784788 0.000000
431.284670 206.692200 10.767631 0.000000
428.309540 206.425130 10.716820 0.000000
427.328740 206.335750 10.700069 0.000000
426.352390 206.246670 10.683396 0.000000
425.379910 206.156620 10.666789 0.000000
424.410550 206.077440 10.650229 0.000000
422.479100 205.899950 10.617247 0.000000
421.515810 205.811800 10.600796 0.000000
437.051970 186.171020 10.030591 0.000000
436.332820 186.122040 10.024582 0.000000
444.706090 206.974210 10.966189 0.000000
443.561740 206.880630 10.946612 0.000000
442.432530 206.781130 10.927303 0.000000
441.318600 206.678040 10.908261 0.000000
440.219270 206.571730 10.889475 0.000000
439.134160 206.463200 10.870935 0.000000
438.071900 206.389300 10.852748 0.000000
437.012540 206.277210 10.834656 0.000000
435.972840 206.197560 10.816862 0.000000
433.917390 205.999050 10.781735 0.000000
432.907260 205.914570 10.764458 0.000000
431.905580 205.828570 10.747326 0.000000
430.908780 205.718230 10.730309 0.000000
429.922970 205.632190 10.713451 0.000000
427.970830 205.458920 10.680072 0.000000
427.003360 205.372190 10.663529 0.000000
426.040830 205.285520 10.647073 0.000000
425.082520 205.193790 10.630695 0.000000
424.128140 205.103210 10.614384 0.000000
423.176910 205.025620 10.598110 0.000000
422.228210 204.938370 10.581893 0.000000
421.281520 204.851580 10.565709 0.000000
436.419770 204.741210 10.772105 0.000000
434.422640 204.743360 10.744658 0.000000
433.432680 204.729610 10.731074 0.000000
432.454130 204.738750 10.717615 0.000000
431.481290 204.746580 10.704235 0.000000
430.513400 204.752730 10.690927 0.000000
429.548340 204.744750 10.677676 0.000000
428.589360 204.750340 10.664491 0.000000
427.633790 204.755230 10.651353 0.000000
425.730440 204.762070 10.625189 0.000000
424.781560 204.760800 10.612151 0.000000
423.833980 204.759630 10.599132 0.000000
422.887210 204.764950 10.586114 0.000000
420.993010 204.773300 10.560074 0.000000
444.819520 204.714720 10.887568 0.000000
443.715640 204.695080 10.872425 0.000000
442.637910 204.704210 10.857603 0.000000
441.573060 204.711610 10.842960 0.000000
440.520690 204.718600 10.828489 0.000000
439.478970 204.721850 10.814170 0.000000
438.447510 204.722140 10.799995 0.000000
435.415130 204.733900 10.758310 0.000000
426.681000 204.759690 10.638254 0.000000
421.940400 204.768950 10.573098 0.000000
423.569820 204.626460 10.588392 0.000000
422.626620 204.731220 10.578983 0.000000
421.680510 204.836610 10.569545 0.000000
427.327180 204.230770 10.625843 0.000000
426.389430 204.332980 10.616491 0.000000
425.450780 204.431730 10.607136 0.000000
424.511080 204.528840 10.597772 0.000000
430.143340 203.926820 10.653923 0.000000
429.203770 204.028960 10.644553 0.000000
428.264920 204.128310 10.635195 0.000000
433.927670 203.526840 10.691645 0.000000
432.977140 203.628850 10.682168 0.000000
431.084500 203.823440 10.663310 0.000000
436.809570 203.227600 10.720364 0.000000
435.843660 203.327940 10.710738 0.000000
434.885380 203.436070 10.701177 0.000000
440.737060 202.807330 10.759520 0.000000
439.743740 202.913480 10.749617 0.000000
438.759280 203.021100 10.739799 0.000000
437.781340 203.125550 10.730049 0.000000
442.757020 202.607380 10.779635 0.000000
441.738070 202.697390 10.769504 0.000000
444.811430 202.385510 10.800120 0.000000
423.278930 204.558320 10.581747 0.000000
422.337650 204.676360 10.573044 0.000000
421.393550 204.795030 10.564314 0.000000
426.093690 204.224990 10.607745 0.000000
425.156490 204.335600 10.599089 0.000000
424.218350 204.446170 10.590425 0.000000
428.904020 203.880890 10.633718 0.000000
427.966800 203.995830 10.625055 0.000000
427.030030 204.109530 10.616399 0.000000
431.726380 203.537250 10.659800 0.000000
429.842380 203.764860 10.642392 0.000000
434.578610 203.198900 10.686144 0.000000
433.625240 203.318220 10.677329 0.000000
432.672670 203.422780 10.668543 0.000000
438.454410 202.739200 10.721943 0.000000
437.477170 202.859620 10.712910 0.000000
436.506040 202.977040 10.703937 0.000000
435.540370 203.091480 10.695018 0.000000
441.439420 202.386990 10.749511 0.000000
440.430180 202.491350 10.740211 0.000000
439.437990 202.614990 10.731038 0.000000
444.510350 202.019840 10.777880 0.000000
443.473940 202.139590 10.768312 0.000000
445.554440 201.889180 10.787534 0.000000
422.979100 204.686980 10.578903 0.000000
421.088810 204.902400 10.560399 0.000000
426.751530 204.277270 10.615802 0.000000
425.808010 204.379390 10.606573 0.000000
424.865110 204.480790 10.597352 0.000000
430.540440 203.854810 10.652877 0.000000
429.588470 203.955460 10.643570 0.000000
428.641020 204.064210 10.634294 0.000000
427.695560 204.171330 10.625040 0.000000
432.454040 203.645370 10.671597 0.000000
431.493500 203.743160 10.662210 0.000000
436.346070 203.229490 10.709655 0.000000
434.387020 203.435730 10.690503 0.000000
440.352080 202.788880 10.748846 0.000000
439.331240 202.885220 10.738882 0.000000
438.329190 203.004380 10.729066 0.000000
442.413600 202.562970 10.769012 0.000000
445.609560 202.239230 10.800239 0.000000
423.922210 204.581910 10.588132 0.000000
422.034880 204.794480 10.569660 0.000000
435.363980 203.335600 10.700050 0.000000
437.334260 203.118900 10.719325 0.000000
443.464600 202.454380 10.779284 0.000000
444.525880 202.338880 10.789665 0.000000
421.784850 205.006350 10.572669 0.000000
420.834780 205.112980 10.563456 0.000000
425.580840 204.596730 10.609457 0.000000
424.630680 204.692930 10.600258 0.000000
423.681880 204.793610 10.591064 0.000000
422.733730 204.899960 10.581870 0.000000
428.436860 204.280460 10.637147 0.000000
427.483090 204.388170 10.627897 0.000000
426.531400 204.494260 10.618670 0.000000
431.321080 203.970340 10.665098 0.000000
430.354770 204.070390 10.655739 0.000000
429.395230 204.181060 10.646430 0.000000
435.240810 203.560530 10.703068 0.000000
434.250370 203.661100 10.693478 0.000000
433.266330 203.759200 10.683952 0.000000
438.248810 203.222430 10.732239 0.000000
437.239290 203.340290 10.722443 0.000000
436.236970 203.453450 10.712722 0.000000
441.350620 202.895220 10.762289 0.000000
439.275940 203.124080 10.742176 0.000000
445.662110 202.444820 10.804053 0.000000
444.574280 202.581760 10.793485 0.000000
443.478760 202.673320 10.782904 0.000000
442.409480 202.787750 10.772542 0.000000
425.314880 205.006870 10.623273 0.000000
424.355070 205.110690 10.613812 0.000000
428.205600 204.685240 10.651773 0.000000
427.238560 204.788790 10.642243 0.000000
426.276030 204.900450 10.632749 0.000000
430.148530 204.466510 10.670933 0.000000
429.173770 204.570680 10.661326 0.000000
435.102840 203.920550 10.719774 0.000000
434.097870 204.029100 10.709869 0.000000
433.099580 204.134400 10.700033 0.000000
432.108430 204.239790 10.690266 0.000000
438.166290 203.580660 10.749977 0.000000
437.131410 203.683470 10.739787 0.000000
436.114010 203.805680 10.729747 0.000000
441.318760 203.222310 10.781067 0.000000
440.252780 203.334980 10.770563 0.000000
444.597600 202.873780 10.813377 0.000000
443.498870 203.008560 10.802531 0.000000
442.395660 203.103870 10.791683 0.000000
445.721130 202.754580 10.824449 0.000000
421.957060 187.378750 9.904219 0.000000
421.301180 187.427260 9.899448 0.000000
429.428990 186.822780 9.941557 0.000000
428.722470 186.877350 9.939284 0.000000
428.022030 186.928800 9.936821 0.000000
427.327510 186.977720 9.934164 0.000000
426.638610 187.024580 9.931303 0.000000
425.955380 187.070720 9.928219 0.000000
425.256770 187.041400 9.926252 0.000000
424.603090 187.157810 9.921438 0.000000
422.945740 210.515430 10.780493 0.000000
421.897190 210.649150 10.770742 0.000000
420.848660 210.789670 10.761005 0.000000
426.094600 210.116380 10.809780 0.000000
425.044100 210.250930 10.800013 0.000000
423.994230 210.381410 10.790242 0.000000
433.536010 209.150820 10.878944 0.000000
432.455840 209.281010 10.868884 0.000000
430.316890 209.551970 10.848990 0.000000
436.814510 208.736450 10.909439 0.000000
435.716060 208.882340 10.899237 0.000000
434.622710 209.018520 10.889063 0.000000
440.173310 208.309830 10.940677 0.000000
437.920350 208.586090 10.919703 0.000000
442.464630 208.010510 10.961969 0.000000
441.307530 208.149080 10.951191 0.000000
444.811070 207.709780 10.983787 0.000000
443.632810 207.865220 10.972840 0.000000
431.386050 209.425380 10.858953 0.000000
423.459410 186.378880 9.884116 0.000000
422.820710 186.493650 9.879158 0.000000
422.157070 186.491490 9.876224 0.000000
421.509700 186.542450 9.872034 0.000000
420.864960 186.592010 9.867643 0.000000
427.499910 186.097210 9.901162 0.000000
424.100860 186.267330 9.888773 0.000000
422.884700 208.379040 10.707932 0.000000
430.050540 207.494260 10.774968 0.000000
431.088560 207.357670 10.784672 0.000000
436.402920 206.716860 10.834401 0.000000
440.824340 206.170040 10.875763 0.000000
438.594760 206.455830 10.854914 0.000000
444.292180 205.770510 10.908230 0.000000
441.961760 206.031540 10.886405 0.000000
421.870300 208.505690 10.698443 0.000000
420.856200 208.631970 10.688958 0.000000
425.937070 208.002200 10.736487 0.000000
424.918000 208.130190 10.726955 0.000000
423.900880 208.256710 10.717442 0.000000
429.013030 207.612440 10.765254 0.000000
427.984010 207.743230 10.755630 0.000000
426.957550 207.867100 10.746025 0.000000
435.325710 206.853940 10.824327 0.000000
439.698030 206.301850 10.865220 0.000000
437.488890 206.576170 10.844555 0.000000
443.110350 205.885220 10.897146 0.000000
445.466550 205.609700 10.919202 0.000000
421.538450 186.404020 9.861896 0.000000
420.876620 186.401820 9.858955 0.000000
424.841710 186.114380 9.879008 0.000000
424.167940 186.162140 9.876245 0.000000
423.499270 186.207380 9.873301 0.000000
422.175480 186.289890 9.866873 0.000000
425.639620 207.587950 10.721345 0.000000
435.039980 206.448590 10.809799 0.000000
439.441500 205.907490 10.851212 0.000000
442.890410 205.505330 10.883675 0.000000
441.717410 205.625580 10.872622 0.000000
421.585880 208.088060 10.683207 0.000000
424.623050 207.716220 10.711782 0.000000
423.609010 207.842590 10.702243 0.000000
422.596950 207.967500 10.692721 0.000000
428.717070 207.216750 10.750304 0.000000
426.661470 207.466800 10.730962 0.000000
432.902160 206.712550 10.789686 0.000000
431.844450 206.838170 10.779732 0.000000
430.793880 206.960890 10.769844 0.000000
429.750090 207.081510 10.760017 0.000000
433.967350 206.583220 10.799709 0.000000
440.573850 205.770420 10.861867 0.000000
444.061520 205.349580 10.894686 0.000000
445.263730 205.215610 10.906006 0.000000
422.332150 186.403720 9.860372 0.000000
421.002260 186.488650 9.853957 0.000000
425.744690 186.145390 9.873194 0.000000
425.051150 186.203700 9.870979 0.000000
424.363560 186.258880 9.868585 0.000000
423.680910 186.309050 9.866046 0.000000
423.003850 186.357160 9.863311 0.000000
424.505070 207.995150 10.714625 0.000000
423.481840 208.125890 10.705073 0.000000
422.461150 208.254730 10.695544 0.000000
421.442440 208.382110 10.686032 0.000000
427.599980 207.609090 10.743524 0.000000
426.563390 207.736890 10.733844 0.000000
425.534120 207.874310 10.724239 0.000000
431.808470 207.089750 10.782824 0.000000
430.745060 207.219210 10.772892 0.000000
429.688690 207.345750 10.763024 0.000000
435.044460 206.675930 10.813031 0.000000
433.957890 206.818970 10.802892 0.000000
432.879300 206.956620 10.792823 0.000000
438.382930 206.266020 10.844209 0.000000
437.255650 206.399190 10.833677 0.000000
436.151400 206.554410 10.823380 0.000000
440.670810 205.978610 10.865570 0.000000
439.521270 206.126220 10.854839 0.000000
445.451660 205.404170 10.910226 0.000000
423.014860 207.328020 10.672635 0.000000
424.996060 206.871430 10.683713 0.000000
424.005400 207.100340 10.678174 0.000000
426.981200 206.413100 10.694813 0.000000
425.988590 206.645190 10.689265 0.000000
428.977170 205.958220 10.705979 0.000000
427.977720 206.186050 10.700388 0.000000
430.986420 205.497160 10.717216 0.000000
429.979980 205.728840 10.711588 0.000000
431.996830 205.262300 10.722864 0.000000
434.039950 204.801210 10.734299 0.000000
436.109620 204.331050 10.745879 0.000000
435.067930 204.560440 10.740044 0.000000
438.210690 203.849530 10.757630 0.000000
437.156650 204.093370 10.751738 0.000000
440.353270 203.363400 10.769620 0.000000
439.284240 203.621580 10.763654 0.000000
441.447720 203.127080 10.775757 0.000000
443.665070 202.628850 10.788169 0.000000
442.551880 202.882950 10.781941 0.000000
423.081970 186.443910 9.845090 0.000000
422.386290 186.510960 9.843205 0.000000
421.696290 186.574980 9.841127 0.000000
421.011810 186.636460 9.838853 0.000000
420.893010 208.971470 10.695473 0.000000
427.137630 208.022340 10.749058 0.000000
426.086330 208.182830 10.740037 0.000000
430.333370 207.544950 10.776489 0.000000
429.261050 207.705350 10.767284 0.000000
428.195280 207.862230 10.758134 0.000000
433.603910 207.059970 10.804567 0.000000
432.498960 207.210370 10.795066 0.000000
431.412570 207.380250 10.785749 0.000000
435.829280 206.715740 10.823657 0.000000
439.277370 206.218350 10.853275 0.000000
438.106600 206.371950 10.843201 0.000000
436.963100 206.548190 10.833391 0.000000
441.637480 205.853200 10.873520 0.000000
440.442500 206.024720 10.863255 0.000000
445.327060 205.316240 10.905208 0.000000
444.068420 205.483310 10.894379 0.000000
442.845000 205.671390 10.883883 0.000000
422.034450 187.378690 9.858023 0.000000
421.303340 187.401030 9.854563 0.000000
420.797700 210.091420 10.731901 0.000000
433.250730 209.484700 10.881242 0.000000
432.048220 209.521260 10.866798 0.000000
430.874020 209.588230 10.852727 0.000000
429.712550 209.652100 10.838805 0.000000
424.075200 209.947100 10.771222 0.000000
444.840210 208.895290 11.020201 0.000000
443.466740 208.974980 11.003742 0.000000
440.773830 209.092320 10.971434 0.000000
439.479490 209.178120 10.955936 0.000000
438.180880 209.214660 10.940334 0.000000
436.923370 209.288680 10.925267 0.000000
435.681030 209.353880 10.910374 0.000000
434.450160 209.403900 10.895602 0.000000
425.178650 209.877850 10.784439 0.000000
442.110930 209.039600 10.987482 0.000000
427.126340 186.242070 9.895599 0.000000
426.293820 186.244080 9.893997 0.000000
425.491730 186.271640 9.891727 0.000000
424.666320 186.227740 9.890422 0.000000
423.905030 186.278440 9.887297 0.000000
423.134250 186.285550 9.884681 0.000000
422.373900 186.287980 9.881924 0.000000
421.634980 186.311660 9.878586 0.000000
420.894130 186.305970 9.875537 0.000000
445.445070 209.803180 11.061879 0.000000
443.979920 209.821380 11.043053 0.000000
442.565370 209.869770 11.024910 0.000000
441.171300 209.904480 11.007016 0.000000
438.474550 209.994080 10.972425 0.000000
437.144990 210.005230 10.955336 0.000000
435.857120 210.052200 10.938821 0.000000
434.582760 210.083910 10.922463 0.000000
433.324250 210.106260 10.906300 0.000000
428.496280 210.261690 10.844367 0.000000
423.882720 210.373200 10.785144 0.000000
422.763640 210.418550 10.770799 0.000000
421.645810 210.433070 10.756436 0.000000
439.797520 209.927030 10.989370 0.000000
427.326540 210.298310 10.829360 0.000000
425.705690 186.281130 9.878153 0.000000
424.876400 186.289900 9.876522 0.000000
424.074830 186.319790 9.874297 0.000000
423.248320 186.275330 9.873078 0.000000
422.487060 186.327620 9.870009 0.000000
421.716800 186.337430 9.867425 0.000000
420.956880 186.342560 9.864697 0.000000
429.500000 210.330120 10.861320 0.000000
427.124660 210.438290 10.831137 0.000000
445.535640 209.832960 11.065372 0.000000
444.052280 209.875990 11.046493 0.000000
441.175960 209.953120 11.009878 0.000000
439.784910 209.995910 10.992176 0.000000
430.723270 210.304720 10.876902 0.000000
421.385190 210.627460 10.758116 0.000000
442.587160 209.896700 11.027820 0.000000
438.418730 210.035130 10.974789 0.000000
437.097290 210.109070 10.958014 0.000000
431.946500 210.240110 10.892435 0.000000
420.805050 208.239500 10.669977 0.000000
423.004520 208.159390 10.696707 0.000000
433.579280 207.733810 10.825221 0.000000
421.899750 208.201080 10.683281 0.000000
427.542330 207.968280 10.751855 0.000000
426.382050 208.003950 10.737754 0.000000
425.245760 208.062770 10.723945 0.000000
424.119720 208.113560 10.710260 0.000000
442.955410 207.347080 10.939168 0.000000
441.536620 207.410720 10.921925 0.000000
440.138460 207.458570 10.904934 0.000000
444.394680 207.266170 10.956658 0.000000
421.250670 186.437150 9.835947 0.000000
427.831970 210.373210 10.843061 0.000000
423.093140 210.639590 10.786437 0.000000
432.848300 210.138570 10.903072 0.000000
431.552950 210.172910 10.887536 0.000000
445.460140 209.473480 11.053838 0.000000
443.935060 209.544570 11.035592 0.000000
420.795870 210.758710 10.758972 0.000000
426.635160 210.462770 10.828794 0.000000
425.434630 210.507100 10.814414 0.000000
424.258420 210.576290 10.800364 0.000000
430.296720 210.244580 10.872528 0.000000
429.057280 210.312550 10.857715 0.000000
421.463590 187.842510 9.863490 0.000000
425.956450 186.416670 9.885519 0.000000
425.044860 186.451420 9.885591 0.000000
422.385740 186.486760 9.885068 0.000000
421.543520 186.509520 9.884175 0.000000
424.346280 187.542680 9.917666 0.000000
423.438780 187.595090 9.917029 0.000000
422.508670 187.582440 9.916950 0.000000
421.608890 187.585050 9.916388 0.000000
425.285800 187.506610 9.917787 0.000000
429.356870 186.165940 9.928828 0.000000
428.292450 186.164860 9.930834 0.000000
427.272640 186.181520 9.932245 0.000000
426.294430 186.216540 9.933073 0.000000
425.223570 187.988430 9.921769 0.000000
424.236820 188.009190 9.922524 0.000000
423.287810 188.050430 9.922702 0.000000
422.371370 188.108760 9.922354 0.000000
421.430540 188.099260 9.922536 0.000000
428.324980 186.605870 9.931517 0.000000
426.223300 186.631770 9.935573 0.000000
425.239530 186.675930 9.936670 0.000000
421.132140 188.355290 9.911699 0.000000
423.989070 188.215180 9.909614 0.000000
423.001190 188.242900 9.910877 0.000000
422.050600 188.290740 9.911553 0.000000
427.075590 186.784560 9.917330 0.000000
426.003910 186.796890 9.920191 0.000000
424.979130 186.830170 9.922401 0.000000
423.994960 186.881100 9.924023 0.000000
421.346950 187.919830 9.878506 0.000000
422.317200 187.879500 9.876820 0.000000
425.334080 186.410710 9.883310 0.000000
424.289520 186.442810 9.886533 0.000000
423.283840 186.487670 9.889189 0.000000
422.316650 186.548610 9.891255 0.000000
441.050050 211.009550 11.048563 0.000000
444.759980 210.554960 11.085301 0.000000
442.885070 210.790390 11.066754 0.000000
443.417020 210.556920 11.056395 0.000000
441.523960 210.774580 11.037451 0.000000
445.333040 210.303240 11.075460 0.000000
439.686650 210.991270 11.019084 0.000000
428.296020 210.025830 10.839389 0.000000
426.060520 210.233080 10.812538 0.000000
423.849330 210.389180 10.785926 0.000000
421.690120 210.520020 10.759915 0.000000
444.104800 208.954010 11.029697 0.000000
441.169890 209.138700 10.994350 0.000000
438.295530 209.267970 10.959677 0.000000
435.720460 209.523280 10.928766 0.000000
433.161990 209.707280 10.897979 0.000000
430.651550 209.844410 10.867722 0.000000
443.590910 207.384770 10.951020 0.000000
440.589900 207.569380 10.912586 0.000000
437.630370 207.681300 10.874763 0.000000
434.742190 207.742920 10.837905 0.000000
432.133970 207.913940 10.804489 0.000000
429.566770 208.029190 10.771659 0.000000
427.062990 208.107800 10.739678 0.000000
424.702580 208.219700 10.709486 0.000000
422.461240 208.354340 10.680785 0.000000
442.109250 207.299510 10.933064 0.000000
439.003140 207.409710 10.889896 0.000000
435.951660 207.450840 10.847673 0.000000
432.961180 207.429230 10.806467 0.000000
427.643980 207.580110 10.732676 0.000000
425.081820 207.594510 10.697279 0.000000
422.664280 207.639280 10.663795 0.000000
445.425420 207.214970 10.979058 0.000000
430.279110 207.532440 10.769171 0.000000
445.184050 207.982510 10.996051 0.000000
441.767180 208.031140 10.947663 0.000000
438.570130 208.107540 10.902298 0.000000
435.443660 208.121980 10.858110 0.000000
432.373410 208.066850 10.814919 0.000000
424.315670 208.157820 10.700878 0.000000
429.626370 208.143890 10.775907 0.000000
426.939730 208.172840 10.737886 0.000000
443.509460 210.114030 11.038296 0.000000
440.098820 210.124570 10.987532 0.000000
436.782710 210.080760 10.938332 0.000000
425.014310 209.895230 10.763815 0.000000
422.410950 209.864200 10.725180 0.000000
432.079100 210.662660 10.925869 0.000000
435.133150 210.204040 10.953791 0.000000
438.365660 209.751910 10.983528 0.000000
422.175960 207.533480 10.677314 0.000000
424.963590 207.141170 10.704876 0.000000
431.079590 206.405210 10.765683 0.000000
427.921200 206.762730 10.734221 0.000000
434.252560 205.953690 10.797041 0.000000
422.673030 187.282460 9.995363 0.000000
421.988620 188.890500 10.037349 0.000000
421.302980 190.493260 10.079206 0.000000
421.021030 204.774480 10.576481 0.000000
422.140050 201.406110 10.476085 0.000000
421.569760 203.086460 10.526206 0.000000
420.954930 187.562320 9.949351 0.000000
422.676760 187.560970 9.984094 0.000000
422.141630 189.220310 10.029986 0.000000
421.610900 190.868850 10.075577 0.000000
420.942500 192.484880 10.120822 0.000000
424.229800 209.789110 10.796122 0.000000
424.106900 203.612340 10.592772 0.000000
423.669890 201.767940 10.522241 0.000000
423.079680 193.702670 10.211672 0.000000
423.062190 195.836150 10.294107 0.000000
423.023440 197.943980 10.375586 0.000000
423.202580 199.925600 10.451836 0.000000
422.950590 191.606690 10.130924 0.000000
422.208500 189.803180 10.062464 0.000000
421.470460 187.989650 9.993611 0.000000
424.421330 204.705400 10.615820 0.000000
423.068150 203.207460 10.544935 0.000000
421.694890 201.741780 10.475518 0.000000
442.265200 204.136540 10.723289 0.000000
436.399900 204.480590 10.704982 0.000000
436.560420 199.286040 10.423707 0.000000
431.094510 204.742360 10.684937 0.000000
430.992160 199.838390 10.416069 0.000000
426.005430 200.251860 10.403967 0.000000
421.498630 200.552780 10.388233 0.000000
422.851930 194.729160 10.072264 0.000000
422.047730 210.384430 10.611704 0.000000
426.888090 191.168750 10.068429 0.000000
424.270570 191.338500 10.110213 0.000000
426.042690 197.516170 10.307232 0.000000
423.535030 197.605550 10.347340 0.000000
423.534060 202.616490 10.523623 0.000000
425.998540 202.569840 10.483015 0.000000
423.555880 207.262270 10.681732 0.000000
425.665800 207.549680 10.655670 0.000000
427.622010 190.756100 10.065690 0.000000
430.086520 190.838750 10.038719 0.000000
425.267300 190.627750 10.088181 0.000000
428.378910 198.077010 10.328491 0.000000
426.073790 197.907680 10.353004 0.000000
425.323210 203.648830 10.572350 0.000000
427.654210 203.754330 10.542512 0.000000
425.156980 208.412510 10.743168 0.000000
427.391140 208.601290 10.715146 0.000000
420.838840 204.087980 10.469481 0.000000
421.134670 206.155150 10.531828 0.000000
421.409910 208.177960 10.591917 0.000000
421.680690 210.143070 10.649034 0.000000
441.953370 193.830200 10.466944 0.000000
439.518620 190.276150 10.197596 0.000000
434.731930 192.551390 10.238951 0.000000
429.620910 195.474550 10.313054 0.000000
424.914490 198.205440 10.383032 0.000000
420.822050 200.440720 10.434475 0.000000
429.759770 210.319950 10.903157 0.000000
428.806640 208.446750 10.827547 0.000000
427.902680 206.466580 10.747315 0.000000
426.942110 204.503750 10.667976 0.000000
435.341860 210.020830 10.963804 0.000000
421.229430 210.882260 10.783562 0.000000
429.614410 207.451690 10.719507 0.000000
429.686250 209.814820 10.793413 0.000000
430.199550 192.663970 10.246153 0.000000
431.666930 193.834140 10.237244 0.000000
429.434390 204.383730 10.540865 0.000000
426.262790 202.798660 10.593037 0.000000
427.649140 203.797030 10.578109 0.000000
425.810090 210.532990 10.777693 0.000000
434.271330 189.235820 10.189535 0.000000
436.164860 190.022800 10.163977 0.000000
430.352870 199.549160 10.539799 0.000000
431.911930 200.467530 10.521471 0.000000
433.912480 200.939800 10.479259 0.000000
429.992190 207.487340 10.730467 0.000000
431.156070 188.822600 10.087521 0.000000
432.018770 190.798920 10.130665 0.000000
432.860810 192.745390 10.171171 0.000000
427.804810 201.499890 10.536666 0.000000
428.800720 202.938660 10.554922 0.000000
429.654210 204.510770 10.578277 0.000000
426.152280 210.613560 10.827623 0.000000
440.580570 202.345920 10.746839 0.000000
441.832820 203.677890 10.738784 0.000000
436.531860 210.945800 11.013277 0.000000
443.189790 193.235020 10.441801 0.000000
443.323520 195.913310 10.498392 0.000000
443.371770 198.586880 10.554781 0.000000
438.018160 206.373870 10.854324 0.000000
439.242070 207.601900 10.846235 0.000000
445.290920 195.370590 10.544800 0.000000
445.217010 198.182530 10.604351 0.000000
445.276760 200.768430 10.653740 0.000000
439.899900 208.299840 10.940430 0.000000
440.977230 209.643620 10.934877 0.000000
441.382660 207.819610 10.948016 0.000000
442.431640 209.203400 10.943192 0.000000
445.120510 191.032170 10.392511 0.000000
444.021970 200.726100 10.697650 0.000000
444.288510 202.977550 10.751822 0.000000
444.630830 205.072080 10.797837 0.000000
444.868230 208.487140 11.019882 0.000000
445.635680 209.982940 11.041197 0.000000
440.901610 187.988300 10.197184 0.000000
438.023440 189.069760 10.286705 0.000000
442.456600 192.025420 10.317659 0.000000
439.543060 193.077910 10.410791 0.000000
440.575530 197.451950 10.549387 0.000000
441.944980 201.095610 10.647525 0.000000
439.204560 201.920500 10.734869 0.000000
440.958710 204.818880 10.795305 0.000000
440.117220 208.192030 10.926277 0.000000
440.685550 209.845830 10.965950 0.000000
428.855830 186.296430 10.041292 0.000000
435.024050 189.407910 10.090134 0.000000
432.609470 190.123410 10.157669 0.000000
430.262420 190.848890 10.222687 0.000000
433.631010 194.871920 10.341532 0.000000
434.508420 199.401150 10.511238 0.000000
432.124760 200.167180 10.585962 0.000000
435.848750 202.911800 10.623971 0.000000
433.504180 203.566420 10.697014 0.000000
435.030550 206.542510 10.781487 0.000000
434.332240 209.829350 10.921557 0.000000
436.616820 209.284870 10.848939 0.000000
426.851010 189.392730 10.018523 0.000000
424.732090 190.030460 10.071856 0.000000
422.719060 190.558200 10.116980 0.000000
427.993070 194.234100 10.231298 0.000000
425.845490 194.957200 10.292653 0.000000
431.034090 198.363590 10.373978 0.000000
428.835780 199.073060 10.440746 0.000000
426.753230 199.698100 10.500185 0.000000
430.049470 202.829590 10.588577 0.000000
431.467350 205.970610 10.699021 0.000000
429.365390 206.561360 10.763948 0.000000
432.862980 208.929050 10.795510 0.000000
430.782870 209.436550 10.859690 0.000000
421.981290 201.942570 10.404872 0.000000
421.438290 206.070680 10.616502 0.000000
423.060580 205.863200 10.578432 0.000000
424.231840 209.216340 10.716733 0.000000
425.841340 209.081480 10.677818 0.000000
422.559480 209.530090 10.763844 0.000000
443.032100 189.472380 10.310902 0.000000
444.739750 189.984050 10.296745 0.000000
443.875920 197.398130 10.594825 0.000000
445.443940 197.966800 10.581910 0.000000
443.358340 203.556270 10.833639 0.000000
444.954100 203.961430 10.811713 0.000000
443.320530 208.508880 11.012958 0.000000
444.858980 208.911530 10.990026 0.000000
435.739070 191.315610 10.312588 0.000000
437.341000 191.743740 10.304270 0.000000
438.961460 192.165880 10.294142 0.000000
440.579220 192.621930 10.284262 0.000000
438.200130 199.709840 10.625833 0.000000
439.706540 200.145840 10.614799 0.000000
441.239870 200.568270 10.601520 0.000000
441.181950 205.934890 10.820032 0.000000
439.707310 205.534810 10.835264 0.000000
439.826230 210.235280 11.020986 0.000000
441.295990 210.564360 11.000887 0.000000
423.131680 189.125840 10.063850 0.000000
424.627290 189.556820 10.068888 0.000000
426.122530 189.998200 10.073257 0.000000
427.629390 190.420560 10.075363 0.000000
429.136660 190.856780 10.076954 0.000000
427.760380 197.922580 10.439063 0.000000
429.120210 198.409260 10.442851 0.000000
430.477970 198.910340 10.446262 0.000000
431.851440 199.390380 10.447327 0.000000
430.782100 204.565670 10.709667 0.000000
432.118350 204.949620 10.704664 0.000000
433.474120 205.320400 10.697666 0.000000
434.839630 205.698460 10.689783 0.000000
433.776000 210.056210 10.909765 0.000000
435.090150 210.412810 10.899849 0.000000
436.426790 210.761220 10.888111 0.000000
420.770970 190.120180 9.990217 0.000000
422.202610 190.623960 10.002359 0.000000
423.632630 191.127180 10.013332 0.000000
422.677090 198.384380 10.398262 0.000000
423.952270 198.942520 10.411598 0.000000
425.247100 199.443180 10.420692 0.000000
426.552370 199.919100 10.427331 0.000000
427.857420 200.400820 10.433208 0.000000
427.051150 205.532940 10.702602 0.000000
428.296570 205.946870 10.703909 0.000000
429.540130 206.377080 10.705059 0.000000
430.792790 206.802670 10.704833 0.000000
421.635740 191.601390 10.032400 0.000000
423.037990 192.105100 10.044802 0.000000
424.402400 192.715700 10.062061 0.000000
423.455750 199.860260 10.444719 0.000000
424.739690 200.313190 10.452524 0.000000
426.023410 200.768920 10.459440 0.000000
427.306180 201.230960 10.465653 0.000000
428.590520 201.695010 10.470909 0.000000
427.830320 206.665410 10.734058 0.000000
429.055360 207.068650 10.735108 0.000000
430.278560 207.488250 10.736031 0.000000
431.512540 207.899870 10.735394 0.000000
428.524960 189.281040 10.153461 0.000000
430.193850 189.258000 10.145723 0.000000
431.856810 189.307830 10.140550 0.000000
433.558170 189.315950 10.131857 0.000000
435.279910 189.333470 10.122314 0.000000
434.061250 195.875430 10.458967 0.000000
435.712190 195.861760 10.445987 0.000000
437.369290 195.892270 10.434013 0.000000
439.077670 195.877850 10.418235 0.000000
440.873470 201.836260 10.689046 0.000000
442.565340 201.843600 10.669960 0.000000
437.599300 201.804230 10.721886 0.000000
439.206630 201.844850 10.707514 0.000000
441.370060 206.449170 10.902525 0.000000
442.995360 206.497920 10.884040 0.000000
444.681850 206.510280 10.861984 0.000000
443.577030 210.500230 11.061383 0.000000
445.210270 210.554170 11.039890 0.000000
434.750270 186.157060 10.121910 0.000000
432.789370 186.720700 10.144174 0.000000
444.047240 189.525960 10.309852 0.000000
441.974550 189.976990 10.333525 0.000000
439.898040 190.543330 10.361870 0.000000
444.789430 194.892360 10.580149 0.000000
422.262630 188.037640 9.924773 0.000000
423.974000 188.054140 9.974428 0.000000
425.664950 188.078340 10.022696 0.000000
427.343960 188.132000 10.070959 0.000000
428.979460 188.117950 10.113354 0.000000
430.608610 188.141830 10.156377 0.000000
432.208590 188.126100 10.195412 0.000000
433.809690 188.172120 10.236547 0.000000
421.773320 194.820450 10.254856 0.000000
423.413570 194.882230 10.307082 0.000000
424.644530 189.515590 9.983841 0.000000
426.301570 189.469150 10.030593 0.000000
427.935210 189.413890 10.075018 0.000000
429.563960 189.398610 10.120194 0.000000
431.156830 189.330020 10.160421 0.000000
432.747130 189.304200 10.201652 0.000000
434.311340 189.241880 10.239112 0.000000
435.873780 189.223130 10.277672 0.000000
421.184840 196.731510 10.241454 0.000000
422.794860 196.699970 10.292128 0.000000
424.361080 196.625240 10.338099 0.000000
425.931400 196.611130 10.386166 0.000000
421.009460 202.717210 10.533500 0.000000
426.254940 189.217210 9.986168 0.000000
427.916380 189.167390 10.032509 0.000000
429.560360 189.125180 10.077545 0.000000
431.201540 189.130830 10.123807 0.000000
432.805970 189.083360 10.165103 0.000000
434.405640 189.073990 10.207098 0.000000
435.977750 189.025700 10.245156 0.000000
437.543980 189.007130 10.283479 0.000000
421.083280 196.371150 10.186043 0.000000
422.731290 196.346820 10.239088 0.000000
424.357240 196.332580 10.290791 0.000000
425.937650 196.273390 10.337647 0.000000
427.515410 196.260450 10.385663 0.000000
420.988680 202.394530 10.481300 0.000000
422.584750 202.415440 10.537048 0.000000
428.033690 189.246840 10.026161 0.000000
429.695500 189.201900 10.072803 0.000000
431.342410 189.172180 10.118607 0.000000
432.985380 189.188420 10.165499 0.000000
434.588130 189.141650 10.206821 0.000000
436.185060 189.129580 10.248634 0.000000
437.751590 189.067990 10.285884 0.000000
439.316440 189.050230 10.324246 0.000000
422.877170 196.419100 10.226292 0.000000
424.523280 196.395200 10.279332 0.000000
426.146970 196.380550 10.330975 0.000000
427.718320 196.305300 10.376774 0.000000
429.293850 196.290830 10.424673 0.000000
421.195920 202.485570 10.467285 0.000000
422.781650 202.436680 10.520351 0.000000
424.375790 202.457820 10.576073 0.000000
420.833860 207.261200 10.684860 0.000000
429.709260 189.341630 10.051367 0.000000
431.372070 189.304500 10.098253 0.000000
433.018590 189.279510 10.144107 0.000000
