# .PCD v0.7 - Point Cloud Data file format
VERSION 0.7
FIELDS x y z intensity
SIZE 4 4 4 4
TYPE F F F F
COUNT 1 1 1 1
WIDTH 1215
HEIGHT 1
VIEWPOINT 0 0 0 1 0 0 0
POINTS 1215
DATA ascii
439.808900 51.185596 8.722288 0.000000
439.645360 56.189362 8.791178 0.000000
430.373410 56.440346 8.695346 0.000000
440.120270 56.996990 8.757156 0.000000
437.456050 47.819019 8.944511 0.000000
435.899960 51.297180 9.107812 0.000000
438.063540 52.818298 8.906037 0.000000
436.768920 53.167217 9.039190 0.000000
436.289060 53.796162 9.095237 0.000000
437.880890 55.003971 8.951446 0.000000
435.551510 50.354256 9.135691 0.000000
439.094700 56.011444 9.714409 0.000000
439.462250 56.804192 9.679070 0.000000
438.745390 55.203739 9.748903 0.000000
436.795810 56.910244 10.011520 0.000000
438.619870 46.659065 9.788144 0.000000
438.467380 47.416992 9.795586 0.000000
435.194210 52.634270 10.163992 0.000000
435.626980 53.561348 10.116932 0.000000
439.327730 56.735195 10.560627 0.000000
433.476810 49.542000 10.365492 0.000000
437.294430 54.012749 10.841190 0.000000
439.017850 53.794369 10.594841 0.000000
439.031370 55.957863 10.597821 0.000000
438.531370 47.407730 10.738132 0.000000
436.500520 49.812214 10.976336 0.000000
435.922970 50.409760 11.050663 0.000000
436.183900 52.114231 11.002535 0.000000
434.995360 50.896080 11.177074 0.000000
433.457550 53.704445 11.391991 0.000000
426.075620 55.482735 11.322509 0.000000
433.249300 57.042969 2.566318 0.000000
432.787170 57.774071 2.581997 0.000000
432.481840 58.541584 2.606265 0.000000
432.213320 59.320602 2.632220 0.000000
431.902590 60.099937 2.655579 0.000000
431.624300 60.890118 2.680376 0.000000
444.779720 47.226265 2.518741 0.000000
442.108610 48.929977 2.511589 0.000000
443.675140 48.918915 2.578776 0.000000
441.709530 49.514977 2.529994 0.000000
441.270660 50.087814 2.545380 0.000000
435.834810 55.997494 2.632341 0.000000
433.735530 56.328148 2.551995 0.000000
424.957730 36.181458 2.309789 0.000000
429.248110 36.279602 2.412843 0.000000
428.561400 37.036427 2.438236 0.000000
422.404630 38.486713 2.372931 0.000000
421.197880 39.120724 2.377727 0.000000
430.821230 55.663906 3.443149 0.000000
430.765010 55.607239 4.500592 0.000000
441.588990 50.115078 5.177576 0.000000
430.490330 54.628304 5.528935 0.000000
430.806030 55.571411 5.559476 0.000000
439.266420 52.214149 6.191608 0.000000
436.463870 52.853405 6.315862 0.000000
439.035580 55.132996 6.288252 0.000000
439.369450 55.948551 6.301500 0.000000
431.011840 54.705639 6.583212 0.000000
431.211210 55.614426 6.605875 0.000000
438.474240 50.324322 7.101708 0.000000
439.362790 52.210220 7.088993 0.000000
438.029270 53.299561 7.191491 0.000000
437.155030 54.582855 7.274941 0.000000
438.006230 55.565338 7.250222 0.000000
430.748050 54.598850 7.657833 0.000000
431.636720 55.662540 7.634912 0.000000
430.395540 56.263321 7.727680 0.000000
442.129730 48.724495 7.743325 0.000000
439.687870 51.527401 7.957156 0.000000
439.634430 54.495338 8.008136 0.000000
440.236360 56.095879 7.991891 0.000000
436.926610 52.123142 8.183124 0.000000
439.099400 52.080406 8.010862 0.000000
438.348390 53.360390 8.090548 0.000000
438.480930 54.906578 8.108803 0.000000
436.302520 55.867851 8.305944 0.000000
431.909820 55.678074 8.659340 0.000000
430.527890 56.244644 8.786754 0.000000
439.925110 56.688400 8.897196 0.000000
439.039090 47.225395 8.920392 0.000000
439.277980 48.162498 8.895111 0.000000
437.763400 49.968849 9.043773 0.000000
439.072720 52.033066 8.925294 0.000000
436.746150 53.610733 9.174478 0.000000
438.713230 53.435989 8.973799 0.000000
437.190060 54.514046 9.141596 0.000000
438.786990 55.688606 8.996676 0.000000
435.104310 49.790306 9.304937 0.000000
435.497220 51.609123 9.278770 0.000000
431.968810 55.647045 9.696413 0.000000
440.323120 47.795059 9.722200 0.000000
440.011110 49.251965 9.742717 0.000000
439.903020 50.767132 9.745522 0.000000
438.956820 55.694447 9.875775 0.000000
439.407350 56.528309 9.829912 0.000000
436.765590 56.658928 10.160662 0.000000
438.491700 46.071495 9.956022 0.000000
438.203740 47.636673 9.969048 0.000000
436.299040 48.507240 10.184359 0.000000
443.771360 50.843472 10.122184 0.000000
434.975040 53.049309 10.343103 0.000000
435.206420 53.927925 10.321319 0.000000
439.210630 56.443890 10.744877 0.000000
440.065830 46.813168 10.710182 0.000000
439.457090 48.165741 10.762342 0.000000
436.162480 53.358131 11.173831 0.000000
436.936250 54.364754 11.063858 0.000000
430.149780 56.946815 10.994274 0.000000
429.400480 47.627586 11.007520 0.000000
435.479190 48.992020 11.297707 0.000000
436.061000 51.714005 11.192135 0.000000
435.081570 52.217548 11.329985 0.000000
425.747470 55.188583 11.513634 0.000000
424.159240 56.816341 11.745522 0.000000
435.039060 57.807610 2.604546 0.000000
434.708890 58.565422 2.628033 0.000000
434.385010 59.331390 2.651617 0.000000
434.130220 60.113335 2.678638 0.000000
433.723300 60.884731 2.697345 0.000000
444.351140 49.808563 2.575059 0.000000
443.978520 50.394924 2.594869 0.000000
443.558810 50.966465 2.611174 0.000000
441.767360 51.017471 2.534672 0.000000
436.011810 56.378513 2.574857 0.000000
435.529750 57.087845 2.589933 0.000000
429.228030 36.273438 2.351509 0.000000
433.391910 36.455643 2.455148 0.000000
428.426510 37.004356 2.373399 0.000000
432.650450 37.134865 2.476300 0.000000
427.614500 37.743317 2.395093 0.000000
426.732330 38.460796 2.413609 0.000000
424.229310 40.785042 2.479335 0.000000
423.415410 41.601326 2.503126 0.000000
422.305570 42.313732 2.513973 0.000000
430.893430 55.241249 3.379735 0.000000
430.760310 56.111519 3.418588 0.000000
430.837280 55.181606 4.478734 0.000000
441.600770 50.058613 5.203666 0.000000
440.606290 50.452957 5.234316 0.000000
430.621460 55.988853 5.617270 0.000000
440.199010 47.796104 6.104181 0.000000
440.516110 48.763954 6.118385 0.000000
439.216860 52.293362 6.267782 0.000000
438.233340 52.775852 6.319897 0.000000
439.074770 55.358521 6.371043 0.000000
439.289340 56.168644 6.390095 0.000000
436.068880 52.943661 6.407634 0.000000
431.252780 55.176361 6.668193 0.000000
430.569030 55.930660 6.721469 0.000000
439.509190 51.558521 7.177344 0.000000
439.448060 52.329304 7.198723 0.000000
437.158570 54.830853 7.398958 0.000000
437.739650 55.763191 7.390792 0.000000
431.501040 55.183064 7.749167 0.000000
430.553530 55.879646 7.827927 0.000000
441.888550 50.060406 7.916289 0.000000
440.421940 51.838158 8.054309 0.000000
436.810580 52.249523 8.347806 0.000000
437.646610 54.120293 8.317623 0.000000
439.896580 55.488400 8.165692 0.000000
438.663150 55.940784 8.276504 0.000000
438.640500 56.697090 8.297195 0.000000
436.013000 51.151474 8.392010 0.000000
435.567140 52.710228 8.456083 0.000000
439.010890 55.221832 9.166674 0.000000
439.356720 56.065315 9.146565 0.000000
439.198820 48.074436 9.083799 0.000000
436.397310 53.734856 9.409277 0.000000
437.280030 56.357803 9.366468 0.000000
434.783660 51.572372 9.543427 0.000000
433.418210 52.034668 9.687345 0.000000
439.069760 55.956696 10.108137 0.000000
439.504150 56.806534 10.066971 0.000000
440.292390 47.675190 9.944696 0.000000
439.833280 49.135139 9.987320 0.000000
438.628300 49.478638 10.128496 0.000000
439.892330 50.778374 9.974735 0.000000
438.726620 55.108162 10.139668 0.000000
436.455930 56.929802 10.450488 0.000000
436.275360 51.151028 10.410805 0.000000
434.505430 52.309032 10.632706 0.000000
433.344670 49.263313 10.761139 0.000000
441.481320 49.775337 10.717999 0.000000
432.883180 50.930683 10.822227 0.000000
439.191830 54.422546 11.019285 0.000000
439.161530 56.690575 11.041317 0.000000
439.383000 57.482304 11.019098 0.000000
439.766570 47.394852 10.992683 0.000000
429.746520 51.855484 11.213659 0.000000
436.472260 54.484573 11.413885 0.000000
432.465580 47.965286 11.996672 0.000000
430.388950 56.552666 12.330214 0.000000
430.314940 57.434517 12.357285 0.000000
434.659120 56.416031 2.569599 0.000000
434.229370 57.196770 2.585813 0.000000
433.809750 57.989155 2.602365 0.000000
433.595120 58.821133 2.629316 0.000000
433.440950 59.663986 2.658836 0.000000
433.121000 60.490543 2.679454 0.000000
444.096620 47.097607 2.503065 0.000000
443.715390 47.736126 2.523270 0.000000
442.952760 49.021812 2.562455 0.000000
442.562410 49.666199 2.580900 0.000000
440.581210 49.698563 2.497878 0.000000
440.187320 50.382553 2.517132 0.000000
439.789790 51.070171 2.535826 0.000000
440.707580 51.319202 4.507357 0.000000
441.222110 49.841820 5.411842 0.000000
440.543270 50.407135 5.440991 0.000000
439.936220 48.450165 6.390561 0.000000
439.205540 52.383232 6.507979 0.000000
438.252320 52.920601 6.559085 0.000000
438.870390 55.524723 6.602726 0.000000
435.505100 52.992931 6.670397 0.000000
430.977970 54.588856 6.895712 0.000000
431.347230 55.594326 6.909382 0.000000
437.080990 49.048996 7.564333 0.000000
438.263980 50.353508 7.513827 0.000000
439.571170 51.642490 7.456592 0.000000
439.581020 52.464775 7.470300 0.000000
438.134890 52.849281 7.564997 0.000000
434.958950 53.684067 7.775702 0.000000
435.258880 54.628201 7.777840 0.000000
437.435330 55.966946 7.674122 0.000000
431.021850 51.719006 7.975986 0.000000
431.730010 55.629673 8.019700 0.000000
430.376830 56.292442 8.120558 0.000000
432.515900 57.576702 8.020772 0.000000
433.032710 58.539383 8.014794 0.000000
440.009610 56.498268 8.473267 0.000000
437.578030 46.488472 8.565564 0.000000
438.319640 49.472008 8.521697 0.000000
436.978790 51.611252 8.649581 0.000000
438.070680 52.793358 8.574898 0.000000
436.858760 53.289021 8.681005 0.000000
437.513790 54.302952 8.642336 0.000000
436.031800 54.774071 8.772809 0.000000
438.800780 46.980537 9.509563 0.000000
439.848360 50.839188 9.395941 0.000000
438.252930 54.456654 9.580664 0.000000
436.731320 54.903469 9.744181 0.000000
439.243710 56.293476 9.499746 0.000000
436.994170 48.037537 9.684216 0.000000
437.167720 49.004135 9.665457 0.000000
435.904450 50.344433 9.794890 0.000000
432.083950 55.618168 10.241344 0.000000
440.107570 49.226128 10.367861 0.000000
441.686550 51.454777 10.158257 0.000000
439.094360 53.834255 10.474291 0.000000
440.077390 47.498016 10.393017 0.000000
437.342620 54.183689 10.694628 0.000000
427.269380 56.616795 10.767452 0.000000
441.958370 49.106888 11.112150 0.000000
432.745610 47.309845 11.274614 0.000000
437.843290 51.769814 11.659746 0.000000
430.453430 53.353607 11.554852 0.000000
437.678160 54.233101 11.672899 0.000000
435.321660 54.486473 12.019887 0.000000
435.342440 55.350414 12.019727 0.000000
432.354310 55.589912 12.464543 0.000000
437.312620 57.751823 2.636613 0.000000
437.214170 58.573540 2.664165 0.000000
437.003420 59.378677 2.685159 0.000000
436.939390 60.204941 2.713243 0.000000
436.824740 61.024746 2.738064 0.000000
445.739140 48.135090 2.588864 0.000000
445.423800 48.800880 2.608439 0.000000
443.228150 49.506798 2.546167 0.000000
442.888030 50.198090 2.564176 0.000000
442.551240 50.893246 2.581933 0.000000
442.210780 51.590057 2.599013 0.000000
441.864690 52.288574 2.615329 0.000000
441.548130 49.596466 5.455897 0.000000
440.689150 50.128036 5.483080 0.000000
439.443700 50.549751 5.514311 0.000000
435.626590 51.986378 6.714586 0.000000
435.675510 52.908127 6.731453 0.000000
430.965910 54.580368 6.949762 0.000000
438.808470 55.423447 6.664701 0.000000
431.288240 55.606503 6.961115 0.000000
438.409880 50.129654 7.628963 0.000000
439.573060 51.393116 7.575335 0.000000
439.097990 52.099472 7.611884 0.000000
438.089290 53.523632 7.691402 0.000000
437.336700 55.904579 7.776255 0.000000
435.412110 51.890697 7.826469 0.000000
434.946140 53.591034 7.879757 0.000000
435.094480 54.530464 7.886574 0.000000
431.719480 55.654148 8.110599 0.000000
430.329470 56.350780 8.208795 0.000000
432.523070 57.663094 8.103271 0.000000
433.016240 58.650951 8.095260 0.000000
439.830570 56.406563 8.625650 0.000000
440.160400 57.273685 8.611301 0.000000
438.920780 47.583969 8.642413 0.000000
437.069090 53.216232 8.812906 0.000000
437.489590 54.195339 8.788835 0.000000
435.961090 54.697884 8.918764 0.000000
437.276430 45.961735 8.771240 0.000000
438.753140 55.315704 9.721218 0.000000
439.247440 56.250210 9.678102 0.000000
439.430570 57.099316 9.667837 0.000000
435.577820 53.681236 10.036330 0.000000
433.340120 47.311943 10.262228 0.000000
433.834350 48.478127 10.207914 0.000000
434.539370 49.682243 10.134230 0.000000
434.223020 50.533600 10.165283 0.000000
433.225770 51.189884 10.266710 0.000000
439.980650 47.050201 10.670177 0.000000
441.096830 50.123169 10.488221 0.000000
439.866000 50.538090 10.631139 0.000000
426.582670 55.605797 10.983156 0.000000
439.082060 56.183029 10.709804 0.000000
426.634860 56.643822 10.992228 0.000000
436.066680 50.148022 11.094110 0.000000
424.470150 57.357117 11.229582 0.000000
441.097810 49.238968 11.521227 0.000000
440.115390 53.119934 11.595757 0.000000
439.226010 55.362751 11.710302 0.000000
439.103090 56.155785 11.727325 0.000000
438.508420 50.916447 11.854210 0.000000
438.283810 51.719810 11.874899 0.000000
430.458130 53.342285 11.774021 0.000000
437.001100 53.973053 12.039684 0.000000
427.460720 50.504631 13.445280 0.000000
445.672730 49.443626 2.553823 0.000000
445.388120 50.958134 2.596016 0.000000
445.258790 51.712494 2.616785 0.000000
445.102390 52.453217 2.635139 0.000000
444.953060 53.193050 2.653245 0.000000
442.716280 58.881733 2.716610 0.000000
443.195010 59.723835 2.765063 0.000000
443.536870 60.527515 2.804755 0.000000
438.853000 52.151932 4.452694 0.000000
441.684910 49.533775 5.451642 0.000000
440.735470 50.072872 5.470223 0.000000
439.846130 50.658226 5.489065 0.000000
438.576660 51.148952 5.511389 0.000000
439.132870 52.214054 5.520585 0.000000
439.446010 48.683968 6.548253 0.000000
438.286990 49.193073 6.588897 0.000000
435.527620 53.026093 6.712908 0.000000
438.237430 52.830120 6.620493 0.000000
438.865480 55.616096 6.629525 0.000000
430.852780 54.861153 6.891901 0.000000
430.601440 55.811176 6.912854 0.000000
439.580840 51.423431 7.624873 0.000000
438.409000 50.141495 7.686088 0.000000
438.132750 52.780930 7.706975 0.000000
434.665800 53.731808 7.901245 0.000000
438.010710 53.641888 7.717481 0.000000
435.756500 54.912270 7.849104 0.000000
437.348630 56.146969 7.770709 0.000000
432.730800 58.084053 8.047636 0.000000
433.288240 59.101971 8.028913 0.000000
438.017360 54.509438 8.800991 0.000000
438.987670 55.602257 8.728844 0.000000
439.914860 56.644344 8.661146 0.000000
436.507450 53.234768 8.915397 0.000000
439.360050 56.511894 9.747588 0.000000
439.845210 49.682568 9.753524 0.000000
438.859410 55.553528 9.797924 0.000000
436.834930 56.888096 9.996908 0.000000
437.011440 47.718330 10.051250 0.000000
437.256260 49.716915 9.998212 0.000000
435.376770 52.922241 10.148463 0.000000
435.400510 53.863117 10.141525 0.000000
432.529210 51.192116 10.436161 0.000000
441.887080 51.241867 10.562536 0.000000
439.159480 56.450745 10.820726 0.000000
430.485930 56.713158 10.624892 0.000000
435.904210 50.207695 11.278053 0.000000
436.027530 51.196579 11.246981 0.000000
440.848660 49.109600 11.796541 0.000000
440.166750 53.262196 11.782973 0.000000
438.437530 55.418808 11.992322 0.000000
438.020690 50.852802 12.133417 0.000000
437.823210 51.706421 12.140862 0.000000
435.415950 52.888462 12.453417 0.000000
433.596620 55.298733 12.678913 0.000000
430.085300 52.543770 13.207028 0.000000
445.338960 59.251411 2.752778 0.000000
424.185580 36.285736 2.389106 0.000000
424.081300 37.580860 2.426509 0.000000
423.992130 38.865959 2.463580 0.000000
438.178740 51.727013 3.269491 0.000000
440.561830 51.492882 4.413902 0.000000
438.396120 51.767574 4.399507 0.000000
441.132450 49.845856 5.459989 0.000000
440.339290 50.493103 5.478752 0.000000
439.222050 51.061127 5.500286 0.000000
439.646580 49.311676 6.580471 0.000000
435.646060 52.882515 6.744903 0.000000
438.000790 54.392189 6.685276 0.000000
438.796810 55.474251 6.672612 0.000000
430.893040 54.816750 6.927064 0.000000
430.587620 55.789482 6.951074 0.000000
438.358280 50.752644 7.764521 0.000000
436.917660 52.231514 7.847599 0.000000
438.069920 53.468224 7.792501 0.000000
436.149750 53.938980 7.899839 0.000000
434.411290 55.481647 8.007894 0.000000
432.462400 54.093594 8.101983 0.000000
432.688570 58.109180 8.132621 0.000000
433.223540 59.153919 8.117104 0.000000
439.746950 56.507267 8.797939 0.000000
437.377440 54.202118 8.969093 0.000000
437.836580 55.223682 8.937506 0.000000
441.364320 51.636353 9.738988 0.000000
440.325130 53.108715 9.826527 0.000000
438.821350 55.413155 9.964296 0.000000
439.256160 56.388607 9.922066 0.000000
435.301970 53.694386 10.309565 0.000000
436.723600 56.810593 10.171404 0.000000
433.379970 48.129036 10.534061 0.000000
430.510100 56.724476 10.782670 0.000000
441.486360 49.866547 10.829597 0.000000
435.633120 49.844917 11.506208 0.000000
435.799560 50.883179 11.470959 0.000000
434.705140 51.563274 11.590315 0.000000
433.280730 55.185253 11.732109 0.000000
438.698760 51.701874 12.254158 0.000000
438.022370 53.366707 12.318619 0.000000
436.892300 54.951248 12.457254 0.000000
439.123290 56.317780 12.130754 0.000000
426.368440 50.445610 12.584362 0.000000
436.553740 53.940384 12.516165 0.000000
432.823090 56.061081 13.024445 0.000000
429.918460 45.820335 13.599602 0.000000
443.539860 47.365730 2.497819 0.000000
445.693120 47.337357 2.590367 0.000000
443.364560 48.228020 2.521365 0.000000
442.854680 50.790134 2.587882 0.000000
442.705810 51.642372 2.609619 0.000000
442.535030 52.484478 2.629386 0.000000
442.369600 53.325478 2.648705 0.000000
439.399020 58.929436 2.674110 0.000000
439.684140 59.856388 2.711345 0.000000
440.243500 60.798286 2.761038 0.000000
438.441470 52.249958 3.595256 0.000000
438.584290 49.357010 4.694281 0.000000
440.897060 51.046379 4.735518 0.000000
438.543950 51.294724 4.733184 0.000000
437.647460 52.014065 4.744878 0.000000
439.990140 49.793503 5.846757 0.000000
438.941930 50.424400 5.873849 0.000000
439.092990 54.255272 5.926557 0.000000
439.640960 55.298122 5.932648 0.000000
435.441310 52.406334 5.964860 0.000000
430.993710 55.572220 6.095282 0.000000
439.419800 52.446991 7.029212 0.000000
438.263090 53.091625 7.080389 0.000000
437.954010 54.914635 7.111298 0.000000
430.959990 54.481441 7.383714 0.000000
431.522580 55.640999 7.375397 0.000000
438.095640 53.027061 8.248344 0.000000
437.904910 53.934193 8.264231 0.000000
439.830110 55.295258 8.155109 0.000000
438.585020 55.955708 8.235790 0.000000
431.858180 55.675667 8.645893 0.000000
430.325260 56.465977 8.747491 0.000000
437.478150 49.906006 9.473734 0.000000
436.585820 52.623882 9.537098 0.000000
436.731380 54.606316 9.525887 0.000000
437.436890 55.707104 9.470510 0.000000
434.899750 51.179317 9.677223 0.000000
431.909790 55.659706 9.928294 0.000000
438.815280 52.217010 10.514184 0.000000
439.067870 56.006474 10.470541 0.000000
436.362180 49.538174 10.791744 0.000000
436.331480 50.541199 10.783775 0.000000
429.575010 50.830078 11.474473 0.000000
440.506620 55.376011 11.432540 0.000000
439.082180 55.987061 11.607895 0.000000
438.179690 52.021927 11.758914 0.000000
436.976500 53.648373 11.889477 0.000000
432.492490 55.713894 12.440757 0.000000
439.122620 56.884659 12.739708 0.000000
430.239840 57.433922 12.725458 0.000000
438.062320 50.997299 12.981773 0.000000
437.884030 51.918617 12.988171 0.000000
427.515170 50.282478 13.106003 0.000000
426.471220 55.763680 13.203147 0.000000
430.792850 57.487614 13.976606 0.000000
430.634280 51.045368 14.060693 0.000000
430.244690 58.462708 14.058379 0.000000
427.820770 55.954971 14.423613 0.000000
443.517300 37.291409 2.480077 0.000000
443.417720 38.359192 2.510964 0.000000
441.801940 41.871910 2.557256 0.000000
441.231320 42.668976 2.558126 0.000000
440.785520 43.528378 2.564941 0.000000
440.272800 44.361691 2.567643 0.000000
437.782010 44.404438 2.469270 0.000000
437.256200 45.284206 2.471192 0.000000
436.737820 46.173195 2.472882 0.000000
436.843720 49.388531 2.554688 0.000000
436.950780 50.454842 2.583261 0.000000
437.107390 51.520020 2.613116 0.000000
434.430150 51.867321 2.508336 0.000000
435.373690 58.197231 2.666019 0.000000
435.723390 59.234818 2.697545 0.000000
436.288020 60.278145 2.737644 0.000000
443.643250 39.588860 2.558480 0.000000
443.937010 40.823318 2.607999 0.000000
438.465520 51.869560 3.875052 0.000000
438.145110 52.763439 5.080743 0.000000
442.659330 51.134926 5.062199 0.000000
442.346920 51.971222 5.070911 0.000000
438.669710 54.821022 6.278627 0.000000
439.380340 55.917469 6.269649 0.000000
431.249110 55.428848 6.444346 0.000000
439.185880 52.024975 7.434178 0.000000
431.072690 50.978680 7.781139 0.000000
435.272710 54.088387 7.602201 0.000000
430.951970 54.271145 7.789139 0.000000
431.534820 55.465298 7.766678 0.000000
430.359860 56.354279 7.820513 0.000000
429.134920 60.576969 7.895163 0.000000
427.992860 51.383087 7.913210 0.000000
439.253360 55.868828 8.596206 0.000000
440.066930 56.953968 8.541676 0.000000
437.409390 54.529030 8.719079 0.000000
438.242650 54.693588 9.857988 0.000000
438.849490 55.778267 9.798008 0.000000
439.391170 56.822990 9.745337 0.000000
435.989620 51.144035 10.086456 0.000000
433.662690 49.434944 10.305882 0.000000
442.938690 53.897301 10.563869 0.000000
435.881650 51.101967 11.362720 0.000000
434.165190 52.765015 11.519016 0.000000
437.230620 50.432076 12.480198 0.000000
438.184230 51.706772 12.327217 0.000000
438.303470 52.728050 12.288912 0.000000
439.070190 56.729881 13.305225 0.000000
438.174160 51.691330 13.555935 0.000000
436.305540 55.245209 13.750950 0.000000
435.274020 52.994740 13.955292 0.000000
434.018130 53.755333 14.127096 0.000000
431.142120 57.484138 14.503532 0.000000
430.099300 59.510460 14.646355 0.000000
427.923920 55.896355 15.014355 0.000000
429.075070 58.299507 14.811918 0.000000
444.565310 46.389618 2.482961 0.000000
444.851530 47.481045 2.515697 0.000000
445.161320 48.556564 2.548631 0.000000
445.487430 49.613430 2.581389 0.000000
444.720030 53.962051 2.601891 0.000000
445.049620 54.934132 2.629651 0.000000
438.355900 52.382404 3.497691 0.000000
440.951200 51.071110 4.752611 0.000000
438.484890 51.395729 4.732621 0.000000
439.651580 55.651146 5.938958 0.000000
440.364690 47.860489 5.964422 0.000000
439.209230 54.583359 5.948111 0.000000
430.897610 55.083664 6.056030 0.000000
430.496400 56.139198 6.058831 0.000000
438.350830 50.330994 7.223492 0.000000
439.443240 51.654018 7.172755 0.000000
438.104550 53.340828 7.202680 0.000000
435.745360 53.851227 7.279553 0.000000
437.931920 55.319054 7.193112 0.000000
430.494510 56.139042 7.446257 0.000000
442.899170 52.577579 8.186260 0.000000
439.766270 55.674278 8.318743 0.000000
440.166020 56.709541 8.285231 0.000000
437.961550 48.112030 8.533331 0.000000
435.282530 49.455963 8.655048 0.000000
436.960780 54.109055 8.494188 0.000000
430.485320 56.137745 8.836336 0.000000
438.185180 48.186321 9.789078 0.000000
435.616060 53.825302 9.864574 0.000000
436.716860 55.085087 9.758982 0.000000
435.155910 50.512375 9.963335 0.000000
432.276760 52.003220 10.154253 0.000000
440.319120 48.879009 10.835636 0.000000
439.126620 56.527905 10.759659 0.000000
436.076540 50.759369 11.189964 0.000000
436.124510 51.834854 11.157199 0.000000
435.074040 52.647022 11.240625 0.000000
438.605680 51.435497 12.175234 0.000000
437.019470 55.144623 12.260637 0.000000
439.041720 56.513325 11.984777 0.000000
438.056550 55.345650 13.379665 0.000000
439.026950 56.511051 13.209877 0.000000
433.158200 56.559078 14.050226 0.000000
429.311550 58.227222 14.570724 0.000000
428.313290 56.953812 14.738499 0.000000
425.611850 51.711632 15.258493 0.000000
438.439940 51.964523 3.328672 0.000000
440.428130 51.454517 4.628063 0.000000
439.738920 50.241367 5.880094 0.000000
438.458370 50.936760 5.883894 0.000000
439.125120 52.155785 5.865219 0.000000
438.996090 54.182774 5.846363 0.000000
430.438230 54.701977 5.920598 0.000000
439.594120 55.316933 5.830296 0.000000
430.758670 55.911026 5.907245 0.000000
439.078770 52.154297 7.123774 0.000000
438.087400 52.957428 7.141586 0.000000
437.824490 54.982162 7.121158 0.000000
430.809630 54.777618 7.339332 0.000000
430.513210 55.881962 7.335030 0.000000
439.655640 51.278259 8.372907 0.000000
439.520720 55.320786 8.300150 0.000000
438.550050 56.150742 8.336798 0.000000
441.223300 51.707863 9.503360 0.000000
436.449890 49.331894 9.914631 0.000000
434.564450 51.051121 10.003403 0.000000
436.314820 54.708054 9.787881 0.000000
438.980290 54.217327 10.862076 0.000000
438.945160 56.238106 10.813158 0.000000
436.214080 51.472290 11.204515 0.000000
434.944030 52.263607 11.299988 0.000000
437.809140 53.978870 12.270639 0.000000
436.981810 54.856529 12.339766 0.000000
439.192690 56.299465 13.296778 0.000000
432.986110 54.093121 14.231753 0.000000
433.094180 56.338135 14.145592 0.000000
431.609560 47.983459 14.670757 0.000000
428.958440 58.033264 14.679885 0.000000
427.841370 56.706688 14.869685 0.000000
421.695500 59.508354 2.628385 0.000000
438.187620 52.557121 4.518088 0.000000
438.440920 51.537659 4.525085 0.000000
440.485380 47.798466 5.858124 0.000000
436.124020 52.088760 5.851728 0.000000
439.491520 54.959137 5.801168 0.000000
430.760710 55.637001 5.868127 0.000000
438.344360 50.443115 7.170270 0.000000
439.418820 51.799702 7.119414 0.000000
434.420200 52.846397 7.251752 0.000000
436.921750 54.466980 7.157990 0.000000
430.876890 54.480930 7.337153 0.000000
431.121800 55.702545 7.316674 0.000000
440.013030 56.101109 8.308319 0.000000
436.531010 52.200783 8.550726 0.000000
436.875240 55.555515 9.810914 0.000000
434.209590 50.519466 10.113361 0.000000
438.079710 54.716480 11.055025 0.000000
434.823610 51.825085 11.436529 0.000000
435.617860 53.127480 11.326691 0.000000
438.786290 55.907700 12.261114 0.000000
438.934880 55.941563 13.547069 0.000000
439.064150 56.998596 13.498555 0.000000
426.640500 49.948662 13.843105 0.000000
437.525330 51.373531 13.902944 0.000000
432.987300 53.745468 14.436247 0.000000
430.155520 56.778687 14.740029 0.000000
426.221950 57.478577 15.270534 0.000000
445.008760 36.797691 2.466632 0.000000
443.254730 38.271118 2.400350 0.000000
445.647580 38.332169 2.512998 0.000000
444.369930 40.005524 2.469462 0.000000
445.446720 41.654114 2.535176 0.000000
445.415440 42.745319 2.542571 0.000000
445.368010 43.813896 2.548250 0.000000
443.071560 45.064388 2.444696 0.000000
443.022460 46.136742 2.448008 0.000000
443.605070 47.414909 2.482598 0.000000
444.340760 48.707314 2.524042 0.000000
445.086670 49.962727 2.565115 0.000000
444.392400 52.767017 2.535076 0.000000
445.145870 53.928391 2.573430 0.000000
438.345830 52.373459 3.564048 0.000000
442.624080 51.327305 4.942070 0.000000
442.315060 52.278721 4.930113 0.000000
439.341640 53.690079 4.892076 0.000000
436.126710 51.894112 6.266292 0.000000
438.625670 54.629879 6.193519 0.000000
431.080870 55.571270 6.281860 0.000000
439.425540 55.839394 6.165985 0.000000
439.478210 51.603992 7.540173 0.000000
439.363680 52.654694 7.522972 0.000000
438.045230 53.446167 7.553195 0.000000
437.255190 55.473396 7.543670 0.000000
435.652800 48.327942 7.740190 0.000000
434.791380 53.903267 7.657626 0.000000
431.567320 55.664436 7.739407 0.000000
440.799530 51.947544 8.773759 0.000000
443.434020 53.604977 8.585348 0.000000
438.893100 55.775589 8.790503 0.000000
436.717130 53.181038 8.971106 0.000000
439.439580 56.933273 10.032316 0.000000
432.787260 49.977268 10.739603 0.000000
430.649960 50.686859 10.882614 0.000000
437.053500 55.484169 11.612471 0.000000
436.221100 50.844971 11.846490 0.000000
432.464450 55.854591 12.060526 0.000000
428.355870 51.450142 12.601200 0.000000
438.668460 55.781326 12.771040 0.000000
439.043400 56.900524 12.690046 0.000000
437.930330 52.388927 12.982836 0.000000
436.789030 54.352657 13.047395 0.000000
430.195800 56.721661 13.775152 0.000000
430.071470 56.721256 15.311220 0.000000
427.244200 57.581829 15.693703 0.000000
441.099180 37.897099 2.405433 0.000000
442.348820 39.719139 2.478093 0.000000
443.404480 41.381981 2.539791 0.000000
443.660610 42.642609 2.561153 0.000000
441.119420 43.908489 2.452690 0.000000
441.045290 45.030823 2.455504 0.000000
440.990630 46.148323 2.458382 0.000000
441.599880 47.470474 2.492429 0.000000
442.446590 48.829311 2.536983 0.000000
441.617920 51.805782 2.503361 0.000000
442.479520 53.062508 2.545280 0.000000
443.209410 54.251060 2.580093 0.000000
443.922330 55.402153 2.613356 0.000000
438.541600 52.165672 3.708717 0.000000
442.052760 51.942863 5.081436 0.000000
438.912900 52.266304 5.061025 0.000000
438.298950 51.021442 6.431811 0.000000
431.224490 55.409035 6.482530 0.000000
439.032870 55.571754 6.355253 0.000000
438.251890 49.896530 7.819961 0.000000
439.426030 52.414135 7.725581 0.000000
438.337370 53.271206 7.749558 0.000000
436.195710 53.955494 7.816791 0.000000
436.034550 55.058193 7.803320 0.000000
437.308170 56.386562 7.732984 0.000000
433.368960 59.252609 7.837654 0.000000
436.185490 50.526016 9.296028 0.000000
434.636170 52.501350 9.338101 0.000000
438.100220 54.339699 9.092782 0.000000
437.688930 55.363922 9.094821 0.000000
442.277740 53.099525 10.150698 0.000000
436.399230 52.890350 10.626380 0.000000
439.264590 56.723831 10.297186 0.000000
437.375980 54.229034 11.890478 0.000000
432.372310 55.653271 12.361569 0.000000
439.071470 56.721695 12.984013 0.000000
436.745510 55.242645 13.319649 0.000000
430.158600 56.546055 14.100143 0.000000
428.594150 57.574787 14.267959 0.000000
430.035100 56.545067 15.660991 0.000000
431.246460 46.838844 15.890718 0.000000
430.592220 49.203667 15.867131 0.000000
426.536620 57.341507 16.151571 0.000000
445.647800 44.070526 2.478537 0.000000
445.550350 46.209908 2.485584 0.000000
438.365600 51.797108 3.516882 0.000000
440.126830 51.118301 4.916853 0.000000
439.725860 54.324696 4.880949 0.000000
440.650760 51.265671 6.251976 0.000000
431.064120 55.129341 6.320703 0.000000
439.129000 55.320976 6.212089 0.000000
439.029080 52.000454 7.625408 0.000000
436.339600 53.697037 7.685044 0.000000
431.450410 55.208099 7.827436 0.000000
430.274900 56.263367 7.850781 0.000000
438.902130 51.987656 8.998855 0.000000
437.923610 52.895874 9.031105 0.000000
435.195130 53.491230 9.169572 0.000000
436.629180 56.062057 10.437778 0.000000
435.663270 51.257347 10.641923 0.000000
425.979740 55.695469 11.278006 0.000000
437.976140 51.807602 11.845842 0.000000
437.365720 53.946156 11.835539 0.000000
439.041500 56.474804 12.956440 0.000000
427.742280 55.979218 14.346472 0.000000
428.700100 57.375717 14.191301 0.000000
426.407900 53.166168 14.595390 0.000000
433.401980 56.787533 15.125254 0.000000
431.333560 46.490410 15.855440 0.000000
426.560360 57.132812 16.100420 0.000000
422.998380 49.425079 2.442888 0.000000
425.547330 51.340645 2.519378 0.000000
433.049440 58.869629 2.715441 0.000000
434.775270 60.218590 2.764156 0.000000
438.342070 51.585983 4.415543 0.000000
440.402440 47.561714 5.897319 0.000000
441.078280 48.904228 5.864989 0.000000
430.793640 54.950584 5.778732 0.000000
439.569240 55.242695 5.737305 0.000000
439.840390 51.988132 7.171125 0.000000
437.814760 54.959702 7.148571 0.000000
429.832180 54.827705 7.355942 0.000000
430.308380 56.161942 7.313542 0.000000
437.508150 47.940506 8.780258 0.000000
438.163390 49.305832 8.704369 0.000000
436.585390 51.266354 8.714374 0.000000
436.074800 54.680786 8.638466 0.000000
439.979310 56.459015 8.406415 0.000000
430.392240 56.202644 8.866758 0.000000
439.213870 56.364048 9.813217 0.000000
435.626920 51.075260 10.232326 0.000000
435.296940 56.916336 10.067378 0.000000
431.928830 51.486530 10.468931 0.000000
439.030980 56.387379 12.583532 0.000000
436.218810 54.789280 12.959558 0.000000
428.524410 56.030678 13.778666 0.000000
431.659730 55.262589 15.007589 0.000000
430.304500 58.801910 15.062082 0.000000
427.711850 55.948357 15.511799 0.000000
427.392270 57.205750 15.509319 0.000000
445.343720 36.707638 2.487662 0.000000
445.666960 38.120625 2.514638 0.000000
444.287260 42.357155 2.486381 0.000000
443.974640 43.419712 2.479751 0.000000
443.367710 45.541962 2.466044 0.000000
443.364440 46.697102 2.472891 0.000000
443.965330 48.024109 2.508065 0.000000
444.468050 49.288048 2.537962 0.000000
445.106170 50.558144 2.573734 0.000000
438.219730 52.306477 3.706053 0.000000
438.406160 51.174599 5.155846 0.000000
430.441040 55.886642 6.700246 0.000000
438.975800 55.944153 6.545851 0.000000
443.347200 52.331985 7.835851 0.000000
439.697480 54.932793 7.942243 0.000000
440.087310 56.126579 7.912937 0.000000
430.404600 55.888554 8.299264 0.000000
432.911350 58.716248 8.174313 0.000000
435.372250 50.505112 9.688578 0.000000
433.794460 51.404488 9.765745 0.000000
436.019290 53.097542 11.094440 0.000000
436.826780 54.443443 10.999998 0.000000
436.533510 54.399776 12.508472 0.000000
433.133000 56.298157 14.381550 0.000000
431.034180 57.276031 14.627693 0.000000
430.189510 58.453621 14.713797 0.000000
438.293850 52.076000 3.451880 0.000000
442.346770 51.816666 4.946288 0.000000
439.752660 54.716713 4.918045 0.000000
439.161590 55.779068 6.341404 0.000000
430.478700 55.716042 6.468436 0.000000
439.499790 51.176300 7.813246 0.000000
434.367460 53.781052 7.964739 0.000000
437.118710 55.461395 7.849279 0.000000
432.418550 57.260162 8.005268 0.000000
433.584380 59.881371 7.947460 0.000000
430.429530 55.713970 8.089151 0.000000
438.896640 55.747231 9.221854 0.000000
434.743710 51.353161 9.525303 0.000000
436.186430 52.893906 10.930275 0.000000
437.076810 54.269398 10.834121 0.000000
432.376890 50.859657 11.271517 0.000000
436.620090 54.195175 12.374797 0.000000
438.982910 56.929710 13.531593 0.000000
428.048520 56.741859 14.885461 0.000000
445.666810 46.492462 2.476665 0.000000
445.754790 47.674450 2.504276 0.000000
438.328920 51.692062 3.777112 0.000000
436.611390 50.046974 5.269390 0.000000
438.841340 51.786606 5.283989 0.000000
430.817500 54.132828 6.969652 0.000000
430.927120 55.485950 6.977058 0.000000
439.798550 55.535698 8.240075 0.000000
440.150120 56.762192 8.229620 0.000000
438.285460 50.405224 8.299482 0.000000
438.995850 51.791615 8.268272 0.000000
435.824860 51.104088 9.971835 0.000000
436.480870 52.502224 9.924226 0.000000
434.218720 52.047230 11.673828 0.000000
438.513850 55.285770 12.785983 0.000000
439.028960 56.556923 12.722652 0.000000
439.167850 51.772385 14.259697 0.000000
435.923710 48.517612 14.744737 0.000000
438.051570 52.496895 5.246325 0.000000
435.287900 51.942036 6.850009 0.000000
431.311100 55.283203 6.966824 0.000000
442.468840 52.130917 8.156867 0.000000
439.668820 55.220112 8.291232 0.000000
440.075780 56.490555 8.282414 0.000000
432.285860 51.318573 10.270318 0.000000
435.589900 53.261368 10.058991 0.000000
439.004120 56.278332 12.899710 0.000000
436.965610 54.730537 13.124888 0.000000
430.150150 56.402088 13.861806 0.000000
430.076870 57.762875 13.872188 0.000000
439.088560 57.485085 14.421176 0.000000
438.230290 52.258682 3.354380 0.000000
442.219150 51.774841 4.946633 0.000000
439.175870 54.945030 4.997219 0.000000
431.266390 55.066376 6.698557 0.000000
438.213930 49.567043 8.089041 0.000000
439.779630 54.979877 8.086722 0.000000
440.092290 56.267525 8.092014 0.000000
429.959690 56.261063 8.495995 0.000000
433.479800 51.218899 9.986175 0.000000
435.581450 52.960327 9.871412 0.000000
434.598390 51.405045 11.595175 0.000000
438.958100 56.015503 12.829775 0.000000
438.479310 51.960678 3.727596 0.000000
438.958830 52.007580 5.349605 0.000000
437.849270 53.074295 7.014039 0.000000
429.804050 54.579266 7.251899 0.000000
437.730290 54.374413 7.048899 0.000000
438.855740 51.896755 8.576878 0.000000
438.417110 53.127884 8.621557 0.000000
436.310490 54.102600 8.739717 0.000000
438.961850 55.767178 10.255643 0.000000
434.480470 53.763649 10.523561 0.000000
431.495450 47.405464 14.239084 0.000000
426.216740 56.813583 16.821739 0.000000
439.472870 49.060364 6.608920 0.000000
439.514250 51.753880 6.688137 0.000000
437.997920 52.816212 6.753681 0.000000
438.236390 45.889633 9.938812 0.000000
440.240660 53.095852 9.954176 0.000000
438.852360 55.504845 10.105178 0.000000
435.090030 53.583530 10.300278 0.000000
442.072050 48.185673 11.343294 0.000000
437.295990 53.874359 11.850977 0.000000
429.675660 46.555939 14.262733 0.000000
428.136660 53.789963 16.438446 0.000000
425.745480 56.535343 16.807552 0.000000
425.174350 42.246567 2.477892 0.000000
422.130620 43.165821 2.445441 0.000000
432.257200 36.199562 2.389107 0.000000
430.948640 37.373718 2.407906 0.000000
429.622070 38.573502 2.427361 0.000000
428.257570 39.794418 2.446819 0.000000
427.075230 41.101543 2.474156 0.000000
438.214140 51.267075 4.867445 0.000000
437.820070 52.580704 4.916762 0.000000
438.784420 55.272911 10.062849 0.000000
435.218080 53.352676 10.231678 0.000000
431.757290 51.315948 10.392674 0.000000
437.525760 52.203140 13.508801 0.000000
425.231570 56.297462 16.915571 0.000000
423.642400 52.904346 17.040442 0.000000
429.846980 36.661507 2.366874 0.000000
428.580260 37.935951 2.389013 0.000000
427.239200 39.217918 2.409704 0.000000
426.003360 40.562572 2.435436 0.000000
421.714050 42.899864 2.429669 0.000000
441.950040 51.852978 4.932061 0.000000
438.736540 55.234303 10.206404 0.000000
434.360750 53.167946 10.423256 0.000000
436.640440 53.457039 12.063856 0.000000
432.516720 55.793816 12.474457 0.000000
428.186220 53.557034 16.722645 0.000000
424.623540 56.301529 17.244375 0.000000
433.386540 37.079067 2.415272 0.000000
431.906590 38.247456 2.432557 0.000000
430.418850 39.451866 2.451246 0.000000
428.905910 40.688110 2.470758 0.000000
427.267550 41.931633 2.487692 0.000000
421.006770 43.879204 2.428862 0.000000
424.557340 42.958015 2.470300 0.000000
438.241120 54.711876 10.366419 0.000000
438.100130 46.000717 10.134921 0.000000
441.118350 48.102631 11.734037 0.000000
433.905880 56.851048 16.321087 0.000000
431.566890 55.073387 16.575745 0.000000
430.670720 47.132236 16.539024 0.000000
438.297210 51.577667 3.439561 0.000000
436.504520 48.176140 5.113900 0.000000
433.288670 56.380688 14.992867 0.000000
433.782710 47.138107 16.666702 0.000000
428.305480 50.893661 17.447426 0.000000
423.215700 55.196255 18.226944 0.000000
434.052280 36.104759 2.387426 0.000000
432.352360 37.251606 2.401965 0.000000
430.760500 38.477074 2.422542 0.000000
428.993380 39.695942 2.438882 0.000000
427.394410 41.008209 2.463290 0.000000
425.239500 42.229164 2.471020 0.000000
421.702850 43.204796 2.436454 0.000000
430.782590 54.918774 5.170751 0.000000
438.034730 52.733055 6.923515 0.000000
434.681460 53.759281 7.033971 0.000000
437.875980 52.630295 8.768677 0.000000
433.453980 56.360363 14.919188 0.000000
432.961670 53.189995 14.875357 0.000000
433.553650 48.484604 16.672369 0.000000
444.358800 60.397133 2.829158 0.000000
439.990940 49.641579 5.741493 0.000000
435.064210 51.856308 5.903896 0.000000
439.362980 52.417873 7.736131 0.000000
436.038850 53.446075 7.892261 0.000000
435.573910 53.278393 9.826431 0.000000
436.061040 54.879570 9.876534 0.000000
425.157650 56.637901 17.026958 0.000000
445.456240 46.125946 2.506264 0.000000
442.950350 47.017128 2.502081 0.000000
440.290220 47.956848 2.497224 0.000000
437.720090 48.998936 2.501397 0.000000
429.622070 52.569366 2.533516 0.000000
438.201870 52.177975 2.723635 0.000000
426.885860 53.930470 2.554593 0.000000
439.604920 53.779449 4.734839 0.000000
436.452970 54.911057 4.795581 0.000000
439.232600 52.099873 6.510057 0.000000
440.103760 48.870052 11.941818 0.000000
431.474430 55.187500 17.102930 0.000000
429.078740 48.185650 17.088722 0.000000
427.338870 53.038445 17.524002 0.000000
444.416350 49.033569 2.529944 0.000000
441.774110 50.030888 2.524415 0.000000
436.723880 52.315792 2.538866 0.000000
433.920040 53.546070 2.544361 0.000000
431.319980 54.890209 2.562886 0.000000
439.817320 54.162895 4.639250 0.000000
436.193910 55.287727 4.691449 0.000000
439.550140 50.828724 8.248104 0.000000
425.297360 51.640198 15.508883 0.000000
433.358030 49.304775 16.639122 0.000000
426.797820 53.444508 17.648361 0.000000
422.699040 39.105965 2.261699 0.000000
426.681980 38.215996 2.289614 0.000000
430.221370 37.332291 2.309738 0.000000
433.794040 36.573822 2.338349 0.000000
430.778380 54.924316 3.357289 0.000000
441.253140 49.775703 5.154671 0.000000
438.070250 52.399292 5.309293 0.000000
437.282350 55.346169 7.454164 0.000000
432.981170 58.199162 7.722766 0.000000
433.608580 59.872494 7.806614 0.000000
436.216250 53.520844 9.379645 0.000000
432.344240 59.682407 9.901430 0.000000
435.731630 54.950497 11.490442 0.000000
441.302310 45.950623 2.317562 0.000000
445.228700 45.252548 2.386673 0.000000
440.269170 48.915363 2.464142 0.000000
438.126500 46.922832 2.286160 0.000000
430.872340 52.498528 2.418833 0.000000
437.225800 50.020477 2.445527 0.000000
427.606290 53.885876 2.412965 0.000000
430.649020 55.909805 2.620941 0.000000
439.342740 53.393864 4.665676 0.000000
439.989320 55.027340 4.764950 0.000000
441.040830 50.395878 6.433335 0.000000
435.125920 52.769989 6.654444 0.000000
430.453610 55.640827 6.890966 0.000000
436.599730 51.214191 8.569319 0.000000
439.046840 56.151424 10.702700 0.000000
430.925260 60.384144 13.567898 0.000000
428.429780 58.556068 13.666410 0.000000
438.331970 57.420784 14.780672 0.000000
431.805360 48.472343 15.040071 0.000000
427.008210 58.342033 16.004890 0.000000
427.375060 60.112675 16.067543 0.000000
430.703700 55.006470 3.962194 0.000000
438.405330 50.732140 5.825836 0.000000
438.799040 55.344322 10.050219 0.000000
430.987820 59.804890 10.700687 0.000000
427.201840 57.763889 13.022949 0.000000
424.569890 59.443832 13.310769 0.000000
431.304530 59.562115 14.977884 0.000000
427.894040 57.670864 15.200481 0.000000
435.418880 57.964573 16.572762 0.000000
430.768620 54.789822 4.120084 0.000000
438.293850 45.280067 9.753334 0.000000
438.159760 58.186649 10.437418 0.000000
431.097410 59.459034 13.057846 0.000000
430.155670 57.699272 13.025694 0.000000
432.047970 61.051590 15.235788 0.000000
428.205140 59.240421 15.501295 0.000000
428.618010 57.358391 17.591787 0.000000
423.506230 55.262318 18.087683 0.000000
444.030640 44.119316 2.486163 0.000000
421.207370 53.175415 2.397123 0.000000
423.852910 51.502136 2.369937 0.000000
424.761410 49.727032 2.291841 0.000000
425.895050 48.005295 2.223448 0.000000
428.977200 46.596008 2.225018 0.000000
432.655730 45.383781 2.254199 0.000000
435.992980 44.231842 2.278372 0.000000
430.679080 55.614086 2.788235 0.000000
430.583040 55.484867 4.961000 0.000000
438.383480 51.096603 4.750405 0.000000
434.505310 53.917187 6.988333 0.000000
431.346770 55.405651 7.125436 0.000000
439.192230 57.222023 11.082150 0.000000
432.607120 60.200233 13.801315 0.000000
433.572940 56.732342 15.657800 0.000000
426.259520 58.198856 16.507469 0.000000
427.885440 60.018936 16.441116 0.000000
430.633360 55.583355 3.689223 0.000000
438.142820 50.947723 5.587702 0.000000
439.088930 54.250839 5.766011 0.000000
432.649440 58.837646 8.206516 0.000000
432.226500 60.542892 8.320561 0.000000
438.705720 45.915649 9.393365 0.000000
437.705540 57.167145 10.012094 0.000000
431.635740 60.413830 10.497975 0.000000
424.498350 60.294731 13.166473 0.000000
430.188260 58.411041 14.866072 0.000000
429.657900 60.150394 15.019622 0.000000
430.656950 55.155106 3.877780 0.000000
438.127590 52.184635 3.829059 0.000000
435.687590 50.221966 5.780900 0.000000
439.375670 55.373726 6.034296 0.000000
439.347840 56.744965 10.131889 0.000000
431.118320 60.019592 10.732845 0.000000
424.427610 59.953053 13.407743 0.000000
429.235870 59.777077 15.295758 0.000000
439.920040 55.947044 8.121132 0.000000
436.416440 57.413021 10.390053 0.000000
431.541290 60.869892 10.839391 0.000000
440.999150 55.152061 2.448096 0.000000
445.050110 52.174080 2.410844 0.000000
437.572720 58.397060 2.524128 0.000000
439.071870 56.744919 2.476933 0.000000
437.782710 51.684319 4.209785 0.000000
430.748720 54.853584 4.309915 0.000000
438.506900 54.875050 6.450030 0.000000
438.442080 53.124657 8.404450 0.000000
430.052860 59.279827 2.519492 0.000000
431.605830 57.460381 2.470812 0.000000
433.307800 55.696087 2.430422 0.000000
436.592380 52.340061 2.356993 0.000000
438.285280 50.747944 2.327328 0.000000
438.089940 52.286167 4.471599 0.000000
437.181460 53.702858 8.714253 0.000000
432.328060 58.839493 9.155927 0.000000
426.435490 58.643852 16.353537 0.000000
430.630160 54.682014 3.163519 0.000000
430.494840 54.567516 5.398821 0.000000
433.474980 59.669010 7.850907 0.000000
438.607600 47.776566 9.216482 0.000000
432.061040 59.621517 10.092813 0.000000
432.669680 59.474121 12.264811 0.000000
430.699800 55.108044 3.525604 0.000000
439.474550 54.841988 5.744769 0.000000
431.932010 60.136024 8.324584 0.000000
438.699490 46.326103 9.406097 0.000000
433.278260 59.384209 7.919809 0.000000
438.733460 45.593018 9.161045 0.000000
437.263610 53.815392 11.770807 0.000000
431.437680 60.809059 17.092216 0.000000
435.410310 45.132320 2.365630 0.000000
438.201780 52.000317 2.779725 0.000000
439.613650 43.729256 2.409687 0.000000
443.792390 42.466816 2.459525 0.000000
441.377380 50.254181 4.808765 0.000000
442.327300 51.863697 4.892175 0.000000
437.126860 46.625046 8.854171 0.000000
438.192750 51.164082 3.859024 0.000000
440.395870 52.655560 6.011185 0.000000
440.414550 47.772297 5.756962 0.000000
436.058690 54.383060 8.265814 0.000000
437.628270 45.924442 7.780714 0.000000
433.377440 49.140606 10.262388 0.000000
438.248350 45.840481 9.850500 0.000000
438.441040 51.743225 3.520290 0.000000
432.722810 60.493927 8.248606 0.000000
434.167660 48.115051 9.720385 0.000000
438.572170 46.491291 9.436041 0.000000
434.684020 47.561810 20.509071 0.000000
438.328310 51.653744 3.598218 0.000000
440.542210 48.290764 5.479373 0.000000
439.595730 49.902458 5.553819 0.000000
432.553410 60.413212 8.236996 0.000000
434.141270 48.159149 9.751438 0.000000
438.556950 46.509354 9.471993 0.000000
430.815000 54.948727 2.926932 0.000000
438.417080 51.022465 5.002798 0.000000
436.904790 49.467556 4.952218 0.000000
437.723420 47.827766 4.905494 0.000000
439.338070 47.745682 6.890385 0.000000
439.164150 47.689331 8.880901 0.000000
439.162660 47.630478 10.871670 0.000000
434.938570 46.024914 11.090461 0.000000
430.210140 56.482033 11.739649 0.000000
430.877440 47.670456 13.575344 0.000000
429.914610 45.936630 13.605469 0.000000
431.526370 45.882111 15.640190 0.000000
425.701510 45.779266 18.573212 0.000000
438.720640 52.050987 4.237975 0.000000
439.508330 48.825592 6.139317 0.000000
439.703430 47.260826 6.108112 0.000000
438.304750 47.256306 8.103245 0.000000
438.076390 45.643803 10.068153 0.000000
440.070680 47.183468 9.985877 0.000000
434.896300 53.865097 10.419915 0.000000
437.498050 50.388725 12.201349 0.000000
426.826840 49.202675 12.998550 0.000000
431.534270 47.288387 14.737859 0.000000
428.661320 45.603622 14.991299 0.000000
430.371280 45.560799 16.997360 0.000000
438.664610 51.894497 4.135216 0.000000
439.298520 51.807980 6.083289 0.000000
439.818540 48.671143 6.029199 0.000000
439.770940 47.132660 6.007771 0.000000
439.545140 54.873314 8.077871 0.000000
435.297180 48.889427 8.108581 0.000000
428.750210 47.512287 8.303061 0.000000
438.170070 45.574387 9.928709 0.000000
440.121950 47.067894 9.843754 0.000000
432.617770 50.672295 10.315889 0.000000
441.749210 51.502125 11.730701 0.000000
439.904170 47.049820 11.786556 0.000000
435.829130 50.413315 12.160120 0.000000
428.950410 47.417114 14.811311 0.000000
428.846500 45.696121 14.794017 0.000000
430.656920 45.634876 16.763639 0.000000
430.422360 43.944168 16.768373 0.000000
430.792970 54.942226 3.355888 0.000000
438.065190 52.390759 5.416249 0.000000
435.801700 49.436954 5.398488 0.000000
437.187230 49.311115 7.356816 0.000000
439.006320 47.626606 7.291904 0.000000
433.641820 59.534821 7.581198 0.000000
439.682460 50.632565 9.222342 0.000000
438.656560 47.631840 9.234343 0.000000
438.813320 46.080994 9.210265 0.000000
434.494380 49.504810 9.456055 0.000000
441.431120 48.946014 10.995586 0.000000
437.703860 53.956718 11.336927 0.000000
435.974000 47.778088 11.360895 0.000000
435.349950 52.644028 11.476707 0.000000
434.861020 46.235653 11.420453 0.000000
435.488100 49.392410 13.431745 0.000000
430.827390 48.071976 13.839524 0.000000
429.879460 46.432987 13.905315 0.000000
428.839780 44.765739 13.982429 0.000000
430.555910 48.070663 15.994507 0.000000
431.142430 46.361908 15.903612 0.000000
431.231260 44.688675 15.873704 0.000000
