# .PCD v0.7 - Point Cloud Data file format
VERSION 0.7
FIELDS x y z intensity
SIZE 4 4 4 4
TYPE F F F F
COUNT 1 1 1 1
WIDTH 1218
HEIGHT 1
VIEWPOINT 0 0 0 1 0 0 0
POINTS 1218
DATA ascii
431.915560 62.579628 21.028341 0.000000
443.347110 73.506317 4.320162 0.000000
445.147800 74.242249 4.357507 0.000000
445.097780 74.226036 6.339718 0.000000
443.293670 73.490219 6.326710 0.000000
433.932250 73.222824 6.356403 0.000000
445.040220 74.214691 8.325328 0.000000
442.075930 74.209274 8.391246 0.000000
444.988950 74.199081 10.315775 0.000000
442.021000 74.193153 10.436255 0.000000
433.560300 63.623959 14.501179 0.000000
431.896550 62.347866 21.024944 0.000000
443.034550 73.553635 4.506269 0.000000
444.963780 74.239014 4.541209 0.000000
444.914150 74.223083 6.527953 0.000000
443.066220 73.486153 6.518974 0.000000
439.911770 73.463997 6.537908 0.000000
436.574950 73.435585 6.557799 0.000000
444.856570 74.212128 8.518304 0.000000
441.721710 74.254211 8.597573 0.000000
444.806150 74.196541 10.513618 0.000000
441.666870 74.238365 10.651848 0.000000
442.813320 73.558990 4.691656 0.000000
440.796780 72.839127 4.654385 0.000000
444.700380 74.301437 4.727237 0.000000
439.288330 73.632690 6.740477 0.000000
435.731870 73.650925 6.766825 0.000000
432.465580 63.269211 2.716485 0.000000
444.020260 63.672222 2.813613 0.000000
444.117310 73.985352 4.926808 0.000000
436.451420 74.200378 4.864342 0.000000
441.486390 73.491455 6.949841 0.000000
435.074340 74.341812 3.332671 0.000000
442.920170 74.199921 9.572297 0.000000
444.267090 69.690277 3.152899 0.000000
443.735380 73.466339 5.137219 0.000000
440.893010 73.024330 5.142535 0.000000
434.181490 74.237213 5.160450 0.000000
443.761170 73.450928 7.154813 0.000000
438.259890 74.264496 7.285386 0.000000
442.306490 74.166718 9.250771 0.000000
430.226140 65.750488 2.883778 0.000000
442.101720 70.344177 3.121534 0.000000
434.939700 65.991608 2.980954 0.000000
445.024810 70.802048 3.176539 0.000000
437.315800 74.268837 5.178066 0.000000
433.139860 61.079044 13.670282 0.000000
431.684080 61.420753 22.667013 0.000000
429.522030 65.506706 2.822280 0.000000
444.447940 74.328407 5.198740 0.000000
444.435850 74.312851 7.220376 0.000000
444.134700 74.131058 5.163018 0.000000
441.401370 73.514359 7.231489 0.000000
444.119840 73.783203 7.246835 0.000000
438.875180 74.174316 7.355048 0.000000
445.027740 84.382492 13.823742 0.000000
431.728030 63.483635 22.965584 0.000000
441.142180 72.868416 3.099512 0.000000
444.006960 73.472702 5.203158 0.000000
440.872250 72.945160 5.191948 0.000000
429.258420 63.817848 5.038744 0.000000
443.980070 73.456726 7.242293 0.000000
437.398320 74.269791 7.383422 0.000000
442.165800 74.172577 9.375768 0.000000
441.777010 76.126450 11.561432 0.000000
443.785060 84.587227 13.943750 0.000000
432.234250 64.232445 3.003782 0.000000
445.317200 74.223511 3.428746 0.000000
442.506440 73.579727 3.361802 0.000000
436.570430 70.296379 3.191737 0.000000
436.865330 72.033592 3.220729 0.000000
437.086090 73.808975 3.247241 0.000000
445.259580 74.208374 5.453318 0.000000
442.441680 73.564407 5.438152 0.000000
435.851590 74.219902 5.442776 0.000000
445.204930 74.192001 7.480392 0.000000
442.380370 73.547699 7.517289 0.000000
435.776060 74.203636 7.661808 0.000000
445.141200 74.179230 9.512384 0.000000
445.321140 85.041985 14.173076 0.000000
431.837460 62.094707 20.895317 0.000000
445.452150 74.214066 4.267549 0.000000
442.848140 73.452034 4.202360 0.000000
445.327510 74.197433 6.293541 0.000000
442.710720 73.435143 6.275624 0.000000
437.912510 73.353897 6.286229 0.000000
440.010930 74.361557 8.454252 0.000000
445.204070 74.180130 8.325573 0.000000
445.063480 74.169228 10.366700 0.000000
445.681880 74.175705 6.412108 0.000000
442.902160 73.434402 6.402531 0.000000
438.008670 73.301430 6.422256 0.000000
445.565340 74.158539 8.436604 0.000000
445.428830 74.148430 10.470209 0.000000
445.610380 82.954079 12.988205 0.000000
445.634250 74.189392 6.657253 0.000000
442.710270 73.445557 6.654039 0.000000
445.504880 74.172440 8.685515 0.000000
445.356810 74.161705 10.723621 0.000000
443.316220 83.900543 13.454156 0.000000
442.857510 73.438911 6.726109 0.000000
445.706480 74.170242 8.769221 0.000000
445.484440 74.160614 10.809562 0.000000
443.026610 73.452202 4.207157 0.000000
442.682370 73.433899 6.285975 0.000000
437.418640 73.137283 6.250129 0.000000
445.571410 74.168663 8.370573 0.000000
445.224850 74.160004 10.419756 0.000000
443.919280 83.349419 13.251702 0.000000
440.829990 72.837524 3.979626 0.000000
444.034580 73.577469 6.169377 0.000000
439.493620 73.056480 6.112717 0.000000
441.533870 74.146477 8.309793 0.000000
443.024410 73.427422 5.072781 0.000000
442.617280 73.409134 7.158543 0.000000
444.103390 73.428551 5.161257 0.000000
443.737000 73.391518 7.223914 0.000000
442.077120 85.943504 14.600967 0.000000
444.971500 74.174576 4.927231 0.000000
444.505580 74.154800 6.975866 0.000000
438.751370 73.747231 6.956168 0.000000
443.988830 74.145744 9.047477 0.000000
444.114500 73.909264 4.854156 0.000000
444.109860 73.770004 6.912695 0.000000
441.833650 74.129860 9.056230 0.000000
443.344300 73.417755 4.943520 0.000000
442.729250 73.398643 7.026932 0.000000
445.562870 72.376877 3.196355 0.000000
444.108250 74.052834 7.384116 0.000000
443.098110 74.117950 9.489092 0.000000
440.830870 72.804726 4.968222 0.000000
444.107270 73.800026 7.160536 0.000000
441.614720 74.123337 9.318590 0.000000
444.103180 85.486046 14.332517 0.000000
443.670650 85.071121 14.125818 0.000000
445.669980 74.130028 9.079714 0.000000
443.377590 74.107430 8.864145 0.000000
442.536530 74.083786 10.999246 0.000000
441.855040 74.091599 8.567643 0.000000
442.606450 84.056442 13.663130 0.000000
445.035430 74.210258 8.142659 0.000000
443.775670 74.184326 10.265281 0.000000
438.068120 62.263504 2.627122 0.000000
438.984100 67.578705 3.073075 0.000000
437.532500 65.813286 2.886377 0.000000
444.099090 73.879410 7.944071 0.000000
444.100430 74.036926 7.769772 0.000000
439.991790 61.622227 2.579086 0.000000
438.523010 66.868942 2.961887 0.000000
437.140690 63.224792 2.614287 0.000000
442.048520 73.470032 7.948898 0.000000
444.860170 74.207542 10.305037 0.000000
431.918270 62.786781 22.867027 0.000000
431.882540 61.467873 19.469740 0.000000
431.871670 61.565384 22.357473 0.000000
431.949520 62.647354 22.145210 0.000000
431.945650 62.689995 21.890692 0.000000
431.954770 62.737007 21.258900 0.000000
432.281280 63.829315 18.223629 0.000000
431.972660 62.376755 21.008499 0.000000
432.391780 63.642464 17.939808 0.000000
432.159850 62.318207 17.889347 0.000000
431.781680 63.241570 22.951155 0.000000
431.807800 61.219460 20.086624 0.000000
431.946900 61.484047 22.614582 0.000000
431.842130 61.745750 22.160709 0.000000
432.348720 63.093628 18.140343 0.000000
432.015990 62.687233 22.914124 0.000000
431.928890 62.043510 20.150654 0.000000
431.948850 62.112556 22.503044 0.000000
431.909670 61.526497 19.803211 0.000000
431.794430 61.368385 22.164963 0.000000
431.876220 62.934158 21.281124 0.000000
431.973940 61.938408 21.016701 0.000000
431.758210 61.720146 21.763500 0.000000
431.835390 63.075996 21.516142 0.000000
431.968110 62.965157 21.515362 0.000000
432.023320 62.461128 21.613277 0.000000
432.081240 62.492409 21.324322 0.000000
431.834080 63.153259 23.073902 0.000000
432.162870 62.485085 22.789536 0.000000
420.884740 72.187424 3.183298 0.000000
422.288060 72.096352 3.216922 0.000000
421.177580 72.676613 3.228455 0.000000
423.900210 72.170387 3.264460 0.000000
422.553960 72.520569 3.256942 0.000000
422.678960 72.442703 3.267902 0.000000
424.024750 72.086060 3.272286 0.000000
425.378510 71.743607 3.276095 0.000000
422.805940 72.187866 3.271645 0.000000
421.439180 72.383842 3.251750 0.000000
424.159090 71.857933 3.276625 0.000000
425.517430 71.514839 3.278398 0.000000
425.019010 62.237701 2.471786 0.000000
428.110320 62.108772 2.525841 0.000000
426.564480 62.162987 2.499042 0.000000
427.889430 85.835533 3.289677 0.000000
426.767460 86.029266 3.285463 0.000000
429.018740 85.715347 3.300324 0.000000
422.898930 71.444771 3.271322 0.000000
421.525300 71.666786 3.255145 0.000000
424.265320 71.114761 3.275215 0.000000
425.272370 61.182877 2.455002 0.000000
423.715240 61.328064 2.433176 0.000000
424.395600 86.047264 3.288071 0.000000
426.635350 85.554726 3.287941 0.000000
425.509310 85.755356 3.283742 0.000000
430.046020 85.381981 3.337119 0.000000
428.903020 85.177078 3.292842 0.000000
427.766140 85.353065 3.289954 0.000000
422.977420 70.559883 3.262523 0.000000
420.926180 62.029572 2.571312 0.000000
425.319610 84.964928 3.296531 0.000000
426.456910 84.672417 3.288539 0.000000
429.913540 84.463943 3.327586 0.000000
428.758670 84.257065 3.285600 0.000000
427.604580 84.465424 3.288190 0.000000
421.955200 85.862007 3.310701 0.000000
420.819820 85.942947 3.286221 0.000000
423.075590 85.630463 3.315708 0.000000
424.193330 85.299210 3.307277 0.000000
429.884580 81.365059 7.540251 0.000000
428.999630 63.444153 3.005791 0.000000
421.822140 85.059631 3.336810 0.000000
422.958190 84.848473 3.342627 0.000000
425.234620 84.164024 3.318707 0.000000
424.091610 84.507942 3.331852 0.000000
426.388030 83.816528 3.303166 0.000000
429.894070 83.531364 3.328090 0.000000
427.552920 83.534355 3.292867 0.000000
428.726070 83.344948 3.290772 0.000000
429.928470 80.119057 7.593812 0.000000
421.641240 84.236748 3.342300 0.000000
422.793980 84.061012 3.350385 0.000000
425.105010 83.356209 3.321261 0.000000
423.944150 83.710457 3.337030 0.000000
426.277370 82.998055 3.303037 0.000000
427.461520 82.677986 3.286938 0.000000
429.839810 82.555450 3.304885 0.000000
428.656340 82.391335 3.272402 0.000000
429.215060 63.482315 5.037706 0.000000
427.688350 61.710419 6.842943 0.000000
429.957460 78.658203 7.620666 0.000000
432.093900 62.150383 20.501848 0.000000
431.989140 63.280243 22.312767 0.000000
421.501830 83.811211 3.353818 0.000000
422.663210 83.656441 3.362950 0.000000
423.824400 83.295746 3.347428 0.000000
426.182280 82.604965 3.313643 0.000000
424.997340 82.931023 3.329454 0.000000
427.380620 82.234627 3.290955 0.000000
429.785680 82.014755 3.295537 0.000000
428.592930 81.870583 3.266864 0.000000
429.448360 63.499466 5.110899 0.000000
429.967470 78.119331 7.654094 0.000000
421.405300 83.429886 3.358410 0.000000
423.747220 82.926720 3.349742 0.000000
422.574580 83.294952 3.367799 0.000000
424.931920 82.597473 3.333864 0.000000
426.130190 82.223480 3.311088 0.000000
427.343080 81.845131 3.285761 0.000000
429.775940 81.553185 3.278574 0.000000
428.571560 81.462448 3.257859 0.000000
430.374390 74.187485 4.175791 0.000000
430.008580 77.857361 7.683649 0.000000
422.479580 83.117996 3.368524 0.000000
421.304930 83.198090 3.359384 0.000000
423.660000 82.823463 3.352308 0.000000
426.058350 82.151619 3.304577 0.000000
424.852600 82.489281 3.329698 0.000000
427.278200 81.810501 3.276918 0.000000
429.717530 81.571846 3.262549 0.000000
428.513090 81.465965 3.246695 0.000000
430.359920 75.074387 4.235323 0.000000
429.050990 74.851273 4.208710 0.000000
428.461400 63.428078 5.138677 0.000000
430.356230 74.888092 5.887077 0.000000
429.029270 74.839569 5.873719 0.000000
430.006160 78.115646 7.682682 0.000000
430.313110 85.950287 10.853270 0.000000
430.311160 85.803841 12.275558 0.000000
430.307560 85.670349 13.705113 0.000000
423.605010 82.926445 3.354724 0.000000
422.421200 83.203484 3.375897 0.000000
421.246800 83.205971 3.365225 0.000000
424.800600 82.633415 3.329642 0.000000
426.008670 82.337784 3.302068 0.000000
429.661930 81.891792 3.253220 0.000000
427.230010 82.039589 3.271976 0.000000
428.465640 81.739044 3.239348 0.000000
430.353640 85.715424 3.660420 0.000000
430.375670 75.791313 4.253027 0.000000
429.150420 74.863853 4.173331 0.000000
430.350590 85.636436 5.093638 0.000000
428.760710 63.452835 5.111047 0.000000
430.371730 75.690666 5.897295 0.000000
429.135830 74.848442 5.840299 0.000000
430.347110 85.560814 6.525175 0.000000
430.343990 85.482590 7.955925 0.000000
430.010960 78.588982 7.665546 0.000000
430.340670 85.405785 9.387510 0.000000
430.337130 85.330582 10.821177 0.000000
430.334660 85.247185 12.258459 0.000000
430.330930 85.172691 13.700453 0.000000
430.370030 61.764107 14.748920 0.000000
430.670840 62.952377 3.143633 0.000000
430.362820 85.112518 3.576522 0.000000
423.548580 82.935768 3.355510 0.000000
422.359620 83.196487 3.378026 0.000000
424.750520 82.646988 3.327758 0.000000
425.965550 82.355759 3.297500 0.000000
429.636630 81.916687 3.239731 0.000000
427.194550 82.062302 3.264720 0.000000
428.438420 81.766739 3.229392 0.000000
430.377560 76.414375 4.292776 0.000000
430.360200 85.046326 5.027510 0.000000
429.054750 63.472534 5.107612 0.000000
430.373780 76.335762 5.927918 0.000000
430.356870 84.984924 6.476288 0.000000
427.664310 61.584229 6.934691 0.000000
430.354060 84.920052 7.923583 0.000000
430.022340 78.800026 7.667146 0.000000
430.351040 84.856621 9.371107 0.000000
430.347750 84.795052 10.820119 0.000000
430.345430 84.726784 12.272123 0.000000
430.342010 84.665375 13.728292 0.000000
430.251650 85.236816 3.573148 0.000000
423.470490 82.959297 3.350753 0.000000
422.276310 83.206894 3.373414 0.000000
424.679930 82.665779 3.320922 0.000000
425.903440 82.369972 3.288583 0.000000
429.602200 81.889542 3.221458 0.000000
427.141880 82.072029 3.253708 0.000000
428.399380 81.748634 3.213745 0.000000
430.385620 76.740974 4.308954 0.000000
430.248810 85.174164 5.025442 0.000000
429.327580 63.493065 5.103592 0.000000
430.381650 76.667000 5.940940 0.000000
430.245090 85.116798 6.475406 0.000000
427.967350 61.576752 6.932892 0.000000
430.241910 85.056206 7.923722 0.000000
430.033660 78.819679 7.663462 0.000000
430.238460 84.997490 9.372090 0.000000
430.234740 84.940033 10.821748 0.000000
430.232210 84.875618 12.274230 0.000000
430.228300 84.819038 13.730667 0.000000
437.487730 61.130577 18.911203 0.000000
429.590150 81.969933 3.204587 0.000000
428.383090 81.840843 3.200558 0.000000
430.271730 84.864090 3.505680 0.000000
423.423370 83.031975 3.345158 0.000000
424.640110 82.737114 3.312806 0.000000
425.871700 82.440132 3.277935 0.000000
427.122310 82.117416 3.237951 0.000000
430.257630 78.025116 4.396672 0.000000
430.269290 84.805359 4.970986 0.000000
429.639530 63.519234 5.089441 0.000000
430.253720 77.960884 6.005063 0.000000
430.266360 84.749290 6.433576 0.000000
430.262910 84.695953 7.894673 0.000000
429.947600 79.649559 7.684181 0.000000
430.259800 84.641068 9.355416 0.000000
428.177220 62.393013 10.827602 0.000000
430.256320 84.588005 10.817267 0.000000
430.253940 84.528870 12.281731 0.000000
430.250430 84.475548 13.750024 0.000000
429.508420 82.145470 3.183577 0.000000
428.302800 81.998413 3.179686 0.000000
431.518740 63.326508 3.103164 0.000000
430.310460 84.233810 3.396225 0.000000
424.529690 82.942543 3.303702 0.000000
425.770630 82.624374 3.264375 0.000000
427.021550 82.351784 3.227612 0.000000
430.293180 77.961426 4.354266 0.000000
430.306880 84.183174 4.881212 0.000000
428.372740 63.429008 5.049894 0.000000
430.289580 77.899391 5.969001 0.000000
430.303280 84.132622 6.362876 0.000000
430.299740 84.082169 7.842630 0.000000
429.956330 79.566864 7.653743 0.000000
430.296170 84.031639 9.321884 0.000000
430.292630 83.981110 10.802032 0.000000
430.289060 83.930534 12.284517 0.000000
428.383540 62.536316 16.621964 0.000000
434.975190 61.232819 16.845211 0.000000
429.899320 85.452965 3.290993 0.000000
427.558380 85.316528 3.305548 0.000000
428.768890 85.177292 3.276196 0.000000
425.345460 84.484657 3.233546 0.000000
426.578060 84.188072 3.191137 0.000000
430.363890 77.415802 4.050812 0.000000
430.265690 83.764359 4.607779 0.000000
430.360780 77.351944 5.683544 0.000000
430.263000 83.709557 6.104452 0.000000
429.551450 74.530312 7.189580 0.000000
430.259340 83.659103 7.599350 0.000000
429.814480 79.912804 7.431554 0.000000
430.353150 77.231071 8.944799 0.000000
430.256010 83.607239 9.093489 0.000000
430.252110 83.557892 10.588364 0.000000
430.249150 83.504288 12.085417 0.000000
429.742370 84.502533 3.237939 0.000000
428.561310 84.364243 3.240579 0.000000
427.332430 84.484032 3.269467 0.000000
430.281250 76.456139 4.032632 0.000000
430.309020 82.057732 4.515126 0.000000
430.278350 76.396072 5.691465 0.000000
430.305570 82.009384 6.055006 0.000000
429.744810 78.760498 7.453641 0.000000
430.302030 81.961571 7.592611 0.000000
430.298580 81.913353 9.129364 0.000000
429.436340 85.471596 3.328155 0.000000
428.551820 84.128647 3.199192 0.000000
430.309270 76.665520 4.042376 0.000000
430.257840 82.206032 4.517284 0.000000
430.305600 76.613380 5.703785 0.000000
430.253810 82.163315 6.060977 0.000000
429.707520 79.069351 7.471270 0.000000
430.250790 82.116829 7.601970 0.000000
430.247160 82.072800 9.142128 0.000000
432.652830 61.707916 2.699308 0.000000
428.215940 85.515068 3.312770 0.000000
430.274170 77.419991 4.072982 0.000000
430.269930 77.374367 5.725302 0.000000
429.530180 74.717735 7.262995 0.000000
429.672730 79.648880 7.475572 0.000000
420.992520 84.953255 3.255039 0.000000
431.346800 67.781929 3.103895 0.000000
429.819310 67.764839 3.125392 0.000000
430.315860 81.900826 4.328099 0.000000
429.196870 81.262810 4.293847 0.000000
430.312320 81.880028 5.895889 0.000000
429.189640 81.254112 5.869243 0.000000
429.659940 79.501389 7.362463 0.000000
429.412870 75.271873 7.180800 0.000000
430.308780 81.859337 7.460071 0.000000
430.358610 76.912674 8.913544 0.000000
430.295560 86.067848 9.114925 0.000000
430.305240 81.838631 9.022141 0.000000
430.292240 86.049393 10.587950 0.000000
427.938750 61.803726 10.548804 0.000000
430.288910 86.030960 12.061760 0.000000
432.849370 62.720215 2.663079 0.000000
431.211120 62.712967 2.684684 0.000000
429.601930 62.643661 2.698166 0.000000
421.729860 85.955208 3.345080 0.000000
430.304930 81.543526 4.306082 0.000000
429.075410 81.254395 4.301822 0.000000
430.295140 85.583817 4.647545 0.000000
430.291470 85.553444 6.147036 0.000000
430.301060 81.509544 5.889827 0.000000
429.066100 81.236931 5.884961 0.000000
429.648220 79.197891 7.375140 0.000000
429.493440 74.849564 7.187846 0.000000
430.287870 85.522957 7.643551 0.000000
430.297180 81.475655 7.470515 0.000000
430.284270 85.492416 9.138537 0.000000
430.293330 81.441757 9.049658 0.000000
430.280700 85.461899 10.633400 0.000000
427.931370 62.579895 10.586090 0.000000
430.277100 85.431412 12.129597 0.000000
430.273530 85.400742 13.628547 0.000000
433.559510 61.125320 2.576425 0.000000
431.814760 61.339546 2.615162 0.000000
430.154270 61.317657 2.630332 0.000000
428.496890 61.341972 2.646984 0.000000
422.825010 85.351753 3.286219 0.000000
421.585750 85.544769 3.322117 0.000000
430.301300 85.143448 4.650876 0.000000
430.309480 81.273010 4.326112 0.000000
428.987430 81.234558 4.342249 0.000000
430.298190 85.098419 6.168840 0.000000
430.306060 81.223381 5.924238 0.000000
428.970340 81.226212 5.935054 0.000000
429.699550 78.822067 7.420521 0.000000
429.551390 74.657898 7.242145 0.000000
430.294920 85.053925 7.684492 0.000000
430.247470 81.340706 7.527185 0.000000
430.291660 85.009529 9.199243 0.000000
430.299260 81.124245 9.114923 0.000000
430.288420 84.965004 10.714510 0.000000
428.099460 62.608925 10.664618 0.000000
430.285100 84.920677 12.231770 0.000000
430.281920 84.875801 13.752472 0.000000
430.490170 61.100937 2.592297 0.000000
428.820070 61.097343 2.607798 0.000000
427.153170 61.142120 2.624964 0.000000
421.408600 85.430946 3.286087 0.000000
431.713900 68.040001 3.168232 0.000000
430.307070 81.152260 4.292116 0.000000
430.298000 84.868484 4.602158 0.000000
428.927250 81.234741 4.320162 0.000000
430.303470 81.101646 5.903050 0.000000
430.294710 84.822395 6.136597 0.000000
428.923580 81.181870 5.919491 0.000000
429.692350 78.795753 7.416711 0.000000
429.552030 74.813370 7.246917 0.000000
430.291380 84.776375 7.668718 0.000000
430.037690 81.799065 7.543676 0.000000
430.296540 80.999763 9.119406 0.000000
430.288090 84.730415 9.199986 0.000000
430.284790 84.684402 10.731835 0.000000
430.281460 84.638329 12.265763 0.000000
430.333620 61.088165 14.757591 0.000000
430.658330 61.358170 2.562404 0.000000
428.966550 61.392174 2.583971 0.000000
425.629940 61.475288 2.620555 0.000000
430.015900 68.858025 3.207586 0.000000
431.763310 68.334724 3.138986 0.000000
430.317750 77.017708 3.890792 0.000000
430.308930 80.954910 4.219753 0.000000
430.341860 84.430969 4.507606 0.000000
430.305180 80.907028 5.845987 0.000000
430.313930 76.964333 5.598022 0.000000
430.338320 84.387283 6.063065 0.000000
429.952480 81.801819 7.510271 0.000000
429.655670 78.778587 7.383033 0.000000
429.523130 74.952934 7.220473 0.000000
430.334500 84.344292 7.616065 0.000000
430.297700 80.811203 9.092472 0.000000
430.330570 84.301697 9.168040 0.000000
430.326510 84.259369 10.720423 0.000000
430.324740 84.211174 12.274874 0.000000
435.235080 62.472862 16.875774 0.000000
430.160400 62.336769 18.735756 0.000000
431.518710 62.786797 2.724976 0.000000
422.782530 85.983971 3.296456 0.000000
424.143100 85.608749 3.229249 0.000000
430.323820 75.516220 3.797968 0.000000
429.080290 74.846832 3.763743 0.000000
430.314420 79.437927 4.119688 0.000000
430.348110 82.910599 4.401859 0.000000
430.320250 75.467331 5.546980 0.000000
429.065890 74.826622 5.519423 0.000000
430.311040 79.393661 5.788286 0.000000
430.344850 82.870407 6.000057 0.000000
429.870940 80.491898 7.502278 0.000000
429.660130 77.230103 7.369419 0.000000
430.341280 82.830971 7.595605 0.000000
430.304170 79.305649 9.118976 0.000000
430.337550 82.792007 9.189979 0.000000
430.333770 82.753197 10.784641 0.000000
428.147980 62.521255 10.757894 0.000000
430.332240 82.708710 12.381305 0.000000
435.087130 61.910576 17.024662 0.000000
427.574920 62.622940 2.593049 0.000000
428.990690 63.455055 2.645104 0.000000
428.316470 70.523308 3.254395 0.000000
429.988430 70.208443 3.200696 0.000000
431.682310 69.920067 3.146581 0.000000
422.911990 67.910873 3.099188 0.000000
424.575930 67.479530 3.044753 0.000000
430.331180 77.477806 3.801716 0.000000
430.291500 84.463692 4.378414 0.000000
428.970790 63.438637 4.647622 0.000000
430.358490 80.953842 5.740746 0.000000
430.328000 77.430397 5.521438 0.000000
430.307070 84.381340 5.953645 0.000000
430.354550 80.912773 7.386622 0.000000
429.668850 79.058174 7.311540 0.000000
429.486480 75.701141 7.170103 0.000000
430.303530 84.343216 7.530110 0.000000
430.350430 80.872200 9.031195 0.000000
430.316380 77.349243 8.954347 0.000000
430.300050 84.304977 9.105268 0.000000
430.296600 84.266708 10.680609 0.000000
430.293120 84.228401 12.257668 0.000000
429.415040 72.232841 3.186704 0.000000
431.196170 71.686699 3.105955 0.000000
425.118440 71.315041 3.177853 0.000000
427.217160 74.079796 3.384086 0.000000
425.713560 74.115387 3.411742 0.000000
423.512880 71.635223 3.227343 0.000000
421.969270 71.830376 3.262927 0.000000
430.318150 81.101006 5.579580 0.000000
430.371460 77.506180 5.349491 0.000000
430.360440 84.204651 5.775581 0.000000
430.314910 81.057175 7.234014 0.000000
429.459720 79.663368 7.177488 0.000000
429.401670 76.142265 7.023048 0.000000
430.357670 84.163376 7.368391 0.000000
430.311460 81.013878 8.887127 0.000000
430.363530 77.413582 8.802641 0.000000
430.354280 84.123482 8.959916 0.000000
430.350370 84.084778 10.551552 0.000000
427.845060 62.290611 10.447373 0.000000
430.348360 84.041786 12.144907 0.000000
434.959080 61.600922 16.790358 0.000000
428.316250 75.305458 3.311550 0.000000
426.807160 75.315483 3.341039 0.000000
425.315460 75.332306 3.368662 0.000000
423.840700 75.354759 3.394367 0.000000
429.902440 75.159874 3.266663 0.000000
422.896210 73.744644 3.266024 0.000000
421.428860 73.753181 3.286130 0.000000
430.317380 77.724571 5.219005 0.000000
430.373350 73.955994 4.971748 0.000000
430.302800 84.209511 5.639000 0.000000
430.361450 80.978737 5.429761 0.000000
430.299070 84.168045 7.244495 0.000000
430.358150 80.932678 7.099738 0.000000
429.281160 80.062355 7.066511 0.000000
429.210360 76.715851 6.915429 0.000000
430.295290 84.126724 8.848551 0.000000
430.354250 80.888016 8.768373 0.000000
430.309300 77.628014 8.686825 0.000000
430.291470 84.085449 10.452663 0.000000
430.287720 84.044037 12.058398 0.000000
430.310120 83.947205 13.669988 0.000000
435.039280 62.208298 16.660591 0.000000
430.387300 77.910759 3.356338 0.000000
427.733400 77.042465 3.342010 0.000000
422.129730 76.309914 3.381804 0.000000
429.803220 75.757217 3.184789 0.000000
426.691130 75.899261 3.263895 0.000000
425.195070 75.905670 3.293356 0.000000
423.716130 75.918793 3.320969 0.000000
421.169160 74.809944 3.262231 0.000000
430.381010 77.868385 5.104874 0.000000
430.334990 74.469780 4.881329 0.000000
430.312500 84.266869 5.523577 0.000000
430.319790 81.242439 5.326837 0.000000
430.308840 84.225800 7.141488 0.000000
430.315980 81.198418 7.004245 0.000000
429.258480 80.286484 6.969503 0.000000
429.101680 77.258766 6.831264 0.000000
430.305110 84.184906 8.757847 0.000000
430.312190 81.154419 8.680096 0.000000
430.373690 77.772240 8.592916 0.000000
430.301420 84.143990 10.374162 0.000000
430.297760 84.102898 11.992013 0.000000
430.294250 84.061462 13.612944 0.000000
437.711610 61.240685 18.897537 0.000000
428.708530 78.533104 3.343126 0.000000
427.689300 77.413620 3.270779 0.000000
426.168430 77.451721 3.308693 0.000000
422.006590 76.807129 3.334623 0.000000
423.602570 76.433090 3.271883 0.000000
425.131290 76.316818 3.231173 0.000000
428.988160 81.158714 3.561728 0.000000
430.391570 74.772736 4.803558 0.000000
430.312770 84.380020 5.435049 0.000000
430.320010 81.442490 5.243798 0.000000
428.980900 81.122910 5.246056 0.000000
428.932500 74.428001 6.618270 0.000000
430.309910 84.339325 7.064570 0.000000
430.316500 81.400078 6.930667 0.000000
429.245060 80.515770 6.898436 0.000000
429.136780 77.480476 6.758962 0.000000
430.306520 84.299706 8.692489 0.000000
430.312990 81.357742 8.615850 0.000000
430.320500 78.198868 8.533031 0.000000
430.384800 74.673225 8.440141 0.000000
430.303160 84.260002 10.320253 0.000000
430.299320 84.221207 11.949434 0.000000
430.296020 84.181297 13.581595 0.000000
428.687990 78.751717 3.290328 0.000000
427.159240 78.762794 3.331249 0.000000
426.145900 77.641289 3.259242 0.000000
424.540100 77.897202 3.319050 0.000000
421.926390 77.056595 3.300534 0.000000
423.524870 76.730103 3.238898 0.000000
430.319400 81.629585 3.488796 0.000000
428.995450 81.249146 3.494862 0.000000
430.330140 75.246292 4.775873 0.000000
430.308750 84.451004 5.374980 0.000000
430.315550 81.590843 5.190370 0.000000
428.988310 81.215919 5.191165 0.000000
428.983700 74.638245 6.582567 0.000000
430.304990 84.414742 7.017746 0.000000
430.312190 81.551163 6.888384 0.000000
429.216920 80.708038 6.859960 0.000000
429.091490 77.801208 6.727762 0.000000
430.301270 84.378494 8.658649 0.000000
430.308350 81.512589 8.584597 0.000000
430.314790 78.447823 8.504869 0.000000
430.321960 75.157791 8.418729 0.000000
430.297550 84.342270 10.299232 0.000000
427.507630 61.787788 10.121752 0.000000
430.293730 84.306129 11.941091 0.000000
430.290470 84.268951 13.585817 0.000000
434.841220 61.408463 16.607792 0.000000
430.329010 81.852257 3.409258 0.000000
429.096500 81.268547 3.398712 0.000000
425.533170 79.238708 3.326960 0.000000
428.727020 78.952484 3.213635 0.000000
427.186580 78.943687 3.256766 0.000000
422.845640 78.587425 3.337569 0.000000
424.547940 78.075462 3.251511 0.000000
421.903750 77.269379 3.243377 0.000000
430.339450 75.660927 4.721695 0.000000
429.106930 74.855637 4.692172 0.000000
430.319270 84.603363 5.299629 0.000000
430.325230 81.817184 5.121131 0.000000
429.078310 81.260231 5.111292 0.000000
428.933290 75.171745 6.541945 0.000000
430.315610 84.570366 6.954410 0.000000
430.321840 81.781464 6.829253 0.000000
429.119110 81.138313 6.813058 0.000000
429.086270 78.137291 6.676645 0.000000
430.312010 84.537392 8.607147 0.000000
430.318080 81.746490 8.535353 0.000000
430.324740 78.768005 8.458196 0.000000
430.331270 75.581802 8.375101 0.000000
430.308380 84.504417 10.259390 0.000000
430.304630 84.471664 11.912746 0.000000
430.300840 84.438911 13.568765 0.000000
434.984010 62.141975 16.565256 0.000000
431.340240 61.852058 20.690784 0.000000
430.326200 82.128708 3.379950 0.000000
428.335850 80.014961 3.267167 0.000000
430.076350 79.712173 3.187250 0.000000
423.928920 79.663528 3.363322 0.000000
425.662260 79.181541 3.274733 0.000000
427.320430 78.943214 3.206986 0.000000
422.950260 78.506058 3.288464 0.000000
430.319640 84.844994 3.603911 0.000000
421.389400 78.696922 3.343233 0.000000
430.301760 79.252892 4.920274 0.000000
430.336910 76.114670 4.717296 0.000000
430.316040 84.812904 5.273715 0.000000
430.322510 82.094749 5.101408 0.000000
428.939300 75.592819 6.542276 0.000000
430.312500 84.780922 6.939822 0.000000
430.318820 82.060875 6.819086 0.000000
429.104000 81.424347 6.804583 0.000000
429.002440 78.642395 6.680228 0.000000
430.308900 84.749016 8.603830 0.000000
430.315190 82.027000 8.534633 0.000000
430.321660 79.130264 8.460455 0.000000
430.328890 76.038567 8.380728 0.000000
430.305300 84.717148 10.267296 0.000000
430.301730 84.685181 11.931845 0.000000
430.298130 84.653236 13.599042 0.000000
430.315030 82.481178 3.356901 0.000000
429.583130 80.976418 3.257956 0.000000
426.896580 80.104034 3.271145 0.000000
428.579470 79.903748 3.201662 0.000000
424.116460 79.503365 3.301612 0.000000
425.888060 79.022705 3.210021 0.000000
421.527830 78.575226 3.290335 0.000000
430.326080 85.103004 3.570235 0.000000
422.398860 79.966019 3.388059 0.000000
430.336300 79.600067 4.905906 0.000000
430.343050 76.602867 4.714477 0.000000
430.322570 85.071495 5.250802 0.000000
430.329010 82.417969 5.084328 0.000000
428.950200 76.057198 6.544170 0.000000
430.318880 85.040382 6.927644 0.000000
430.325440 82.384712 6.810990 0.000000
429.123600 81.709610 6.795702 0.000000
428.958190 79.118530 6.681897 0.000000
430.315430 85.008896 8.602324 0.000000
430.321840 82.351501 8.535486 0.000000
430.328490 79.530441 8.463991 0.000000
430.335390 76.528168 8.387345 0.000000
430.312010 84.977432 10.276444 0.000000
430.318300 82.318268 10.259436 0.000000
430.308650 84.945839 11.951641 0.000000
430.314910 82.284706 11.984529 0.000000
432.665710 61.242836 12.302294 0.000000
430.305540 84.913750 13.629520 0.000000
430.245120 62.233238 18.604103 0.000000
430.321780 82.784599 3.354353 0.000000
429.941350 80.697975 3.198354 0.000000
428.318050 80.699738 3.253209 0.000000
425.451900 80.150063 3.298438 0.000000
427.307560 79.628380 3.197351 0.000000
421.124150 79.646156 3.378258 0.000000
422.671660 79.554840 3.328787 0.000000
424.445280 79.067276 3.237245 0.000000
430.315310 85.377098 3.562892 0.000000
430.309810 74.037621 4.546227 0.000000
430.318050 82.751930 5.094211 0.000000
430.324950 80.004021 4.922831 0.000000
430.331940 77.087196 4.739239 0.000000
430.311680 85.346169 5.254465 0.000000
428.881500 76.632248 6.579885 0.000000
430.308140 85.315254 6.942268 0.000000
430.314390 82.719330 6.830229 0.000000
429.234250 81.821632 6.804686 0.000000
429.015140 79.380112 6.700077 0.000000
430.304720 85.284180 8.627925 0.000000
430.310730 82.686760 8.564074 0.000000
430.317380 79.935074 8.495885 0.000000
430.324280 77.013901 8.422936 0.000000
430.301270 85.253136 10.313031 0.000000
430.307070 82.654144 10.297370 0.000000
427.490450 61.298485 10.140368 0.000000
430.297730 85.222252 11.999226 0.000000
430.303620 82.621246 12.031820 0.000000
430.294280 85.191162 13.688101 0.000000
434.959050 61.451691 16.785360 0.000000
430.314090 83.217438 3.371815 0.000000
429.644070 81.646500 3.270631 0.000000
426.961400 80.671890 3.283345 0.000000
428.747650 80.392723 3.200778 0.000000
424.085880 80.139832 3.330049 0.000000
425.963440 79.576851 3.225511 0.000000
423.081090 79.053497 3.268884 0.000000
430.313810 85.742599 3.571302 0.000000
428.942080 63.425644 3.903261 0.000000
430.335450 74.645645 4.590651 0.000000
430.315920 83.177162 5.118286 0.000000
430.321990 80.497459 4.954198 0.000000
430.328580 77.658905 4.778694 0.000000
430.310240 85.712646 5.271992 0.000000
428.954830 77.051567 6.616486 0.000000
428.886660 74.084526 6.487428 0.000000
430.306700 85.682747 6.968896 0.000000
430.312290 83.145592 6.861790 0.000000
430.318240 80.464096 6.747498 0.000000
429.037050 79.818626 6.735550 0.000000
430.303160 85.652847 8.663643 0.000000
430.308620 83.114098 8.603110 0.000000
430.314480 80.430794 8.538586 0.000000
430.320860 77.588295 8.469670 0.000000
430.327940 74.569862 8.395910 0.000000
430.299650 85.622955 10.357827 0.000000
430.304990 83.082573 10.343880 0.000000
427.686920 61.944298 10.201017 0.000000
430.296050 85.593147 12.053097 0.000000
430.301360 83.051048 12.085797 0.000000
430.292480 85.563232 13.751051 0.000000
435.150020 62.235008 16.849628 0.000000
430.314030 85.985870 3.563033 0.000000
430.319760 83.500526 3.370502 0.000000
430.105830 81.225708 3.200596 0.000000
428.565890 80.999969 3.238551 0.000000
425.577910 80.513779 3.301966 0.000000
427.518130 79.978355 3.193590 0.000000
424.583190 79.406601 3.244001 0.000000
430.335720 75.139633 4.625929 0.000000
430.316220 83.470901 5.129780 0.000000
430.322270 80.848038 4.972807 0.000000
430.328740 78.075958 4.805207 0.000000
430.310330 85.958191 5.277083 0.000000
430.318660 80.816826 6.776374 0.000000
428.990660 77.390640 6.649348 0.000000
428.917850 74.507545 6.527378 0.000000
430.306880 85.930176 6.987248 0.000000
430.312710 83.441353 6.885142 0.000000
429.069370 80.099998 6.762752 0.000000
430.303710 85.901848 8.695204 0.000000
430.309200 83.411858 8.638274 0.000000
430.315060 80.785637 8.577681 0.000000
430.321350 78.009895 8.513073 0.000000
430.328190 75.069489 8.444052 0.000000
430.300290 85.873886 10.402577 0.000000
430.305730 83.382355 10.390819 0.000000
430.296600 85.846275 12.111006 0.000000
430.302220 83.352814 12.144486 0.000000
430.293210 85.818184 13.822115 0.000000
431.125920 63.378799 16.731096 0.000000
435.452000 62.664879 16.946779 0.000000
431.430570 62.685020 21.125797 0.000000
429.284670 80.386124 3.163871 0.000000
430.312290 84.011497 3.404381 0.000000
429.962070 81.989883 3.262905 0.000000
427.302890 80.850998 3.271639 0.000000
430.326540 75.862167 4.690098 0.000000
430.308070 83.984276 5.170531 0.000000
430.314030 81.421280 5.020575 0.000000
430.320070 78.718605 4.860756 0.000000
430.310000 81.392151 6.829292 0.000000
429.096070 80.610336 6.813877 0.000000
429.018680 77.965561 6.706151 0.000000
430.304140 83.956680 6.932675 0.000000
430.300450 83.928764 8.692542 0.000000
430.305940 81.363091 8.635710 0.000000
430.311770 78.657089 8.575203 0.000000
430.317930 75.797104 8.510673 0.000000
430.296330 83.901550 10.451806 0.000000
430.292390 83.873978 12.212159 0.000000
431.974820 62.801453 21.291309 0.000000
428.976170 81.299606 3.224092 0.000000
430.324890 84.392006 3.405472 0.000000
429.649750 82.874596 3.318082 0.000000
430.313140 84.376518 5.183558 0.000000
430.318850 81.864204 5.039581 0.000000
428.992580 81.239937 5.038180 0.000000
430.314760 81.836426 6.857652 0.000000
429.146300 80.972000 6.839672 0.000000
430.309110 84.350235 6.956519 0.000000
430.305050 84.324005 8.727184 0.000000
430.310640 81.808723 8.673400 0.000000
430.316190 79.161530 8.616228 0.000000
430.321470 76.370537 8.555368 0.000000
430.301030 84.297783 10.497213 0.000000
430.297090 84.271431 12.268336 0.000000
435.188320 61.824661 17.202143 0.000000
430.321140 84.915672 3.396319 0.000000
430.318300 84.888702 5.181403 0.000000
430.314580 84.862984 6.962594 0.000000
430.310880 84.837250 8.741484 0.000000
430.314970 82.374832 8.690084 0.000000
430.320800 79.785576 8.635464 0.000000
430.326630 77.060501 8.577395 0.000000
430.307220 84.811523 10.519739 0.000000
427.872890 61.770462 10.421071 0.000000
430.311160 82.347771 10.511930 0.000000
430.303500 84.785851 12.299097 0.000000
430.307340 82.320702 12.334929 0.000000
430.312590 85.311241 8.813559 0.000000
430.319120 82.890793 8.763471 0.000000
430.323700 80.355522 8.710437 0.000000
430.330050 77.689705 8.654085 0.000000
430.315550 82.859604 10.594412 0.000000
427.938540 62.676643 10.500322 0.000000
430.309080 85.281693 10.602170 0.000000
430.305630 85.252052 12.392103 0.000000
430.311860 82.828583 12.426732 0.000000
430.302250 85.222252 14.185058 0.000000
430.568330 61.442986 14.987122 0.000000
430.298860 85.910339 8.922319 0.000000
430.305020 83.536247 8.873582 0.000000
430.311580 81.050278 8.821977 0.000000
430.316160 78.446358 8.767332 0.000000
430.301390 83.500160 10.710739 0.000000
430.295350 85.876106 10.718508 0.000000
430.291720 85.841919 12.516283 0.000000
430.297850 83.463936 12.549564 0.000000
430.289090 85.806435 14.317423 0.000000
430.320920 62.914223 19.516693 0.000000
430.301060 84.175629 8.892405 0.000000
430.306120 81.739494 8.842419 0.000000
430.311680 79.188576 8.789491 0.000000
430.316930 76.514122 8.733396 0.000000
430.297360 84.139496 10.736573 0.000000
428.027980 61.199142 10.627194 0.000000
430.293760 84.103287 12.582435 0.000000
430.524020 63.723206 19.555489 0.000000
430.304320 84.717850 8.873468 0.000000
430.309510 82.322121 8.824706 0.000000
430.315090 79.817741 8.773141 0.000000
430.321960 77.194267 8.718521 0.000000
428.004970 62.286079 10.619038 0.000000
430.300320 84.683037 10.728418 0.000000
430.264650 82.336990 10.719989 0.000000
430.296260 84.648254 12.584994 0.000000
430.262450 82.297943 12.616055 0.000000
430.302000 85.458023 8.790932 0.000000
430.307100 83.106796 8.741967 0.000000
430.312100 80.653397 8.690282 0.000000
430.318270 78.087807 8.635629 0.000000
430.298070 85.424088 10.651659 0.000000
430.303100 83.071167 10.642130 0.000000
430.294100 85.390160 12.513910 0.000000
430.298890 83.035728 12.543874 0.000000
430.356410 62.921028 19.621494 0.000000
430.319850 76.260941 8.479526 0.000000
430.302920 83.816071 8.646067 0.000000
430.308010 81.406090 8.593535 0.000000
430.313450 78.890869 8.538105 0.000000
430.298680 83.780609 10.553773 0.000000
427.760990 61.669258 10.407220 0.000000
430.289550 86.061256 12.436324 0.000000
430.294430 83.745171 12.462975 0.000000
430.285430 86.027313 14.310451 0.000000
430.313690 77.094818 8.339867 0.000000
430.319820 74.399551 8.274815 0.000000
430.297790 84.513992 8.515432 0.000000
430.303560 82.142487 8.459908 0.000000
430.308470 79.672562 8.401474 0.000000
430.293640 84.475731 10.431365 0.000000
430.290410 84.436462 12.348803 0.000000
432.390260 63.935547 3.212679 0.000000
430.322450 75.417313 6.061556 0.000000
430.307500 80.534286 8.282169 0.000000
430.312560 78.006645 8.217814 0.000000
430.316990 75.369850 8.150044 0.000000
430.297610 85.291435 8.401531 0.000000
430.302490 82.960106 8.343334 0.000000
430.293370 85.250420 10.324396 0.000000
430.298220 82.917381 10.304135 0.000000
430.289150 85.209358 12.248713 0.000000
430.293980 82.874550 12.266446 0.000000
430.284970 85.168182 14.176296 0.000000
439.496150 62.147552 2.713049 0.000000
437.001010 62.173080 2.781307 0.000000
430.315370 78.922729 6.047190 0.000000
430.320830 76.337486 5.933872 0.000000
430.305600 81.357399 8.162289 0.000000
430.308040 78.877693 8.095847 0.000000
430.304840 76.300934 8.026174 0.000000
430.295320 86.040314 8.286001 0.000000
430.299410 83.744850 8.225661 0.000000
430.291140 85.997200 10.217517 0.000000
430.296140 83.698982 10.193927 0.000000
430.287020 85.954010 12.150445 0.000000
430.291960 83.654099 12.163692 0.000000
430.282960 85.910629 14.086617 0.000000
433.886110 61.276764 2.632745 0.000000
430.351680 74.691986 3.573687 0.000000
429.087860 81.236168 6.028742 0.000000
430.330510 77.297134 5.835204 0.000000
430.336300 74.653107 5.716985 0.000000
430.279240 82.266312 8.068878 0.000000
430.310210 84.575294 8.131534 0.000000
430.274170 82.220993 10.080897 0.000000
430.306150 84.530579 10.107114 0.000000
430.302120 84.485748 12.084073 0.000000
430.199650 62.640030 19.265076 0.000000
430.318050 83.160133 5.962807 0.000000
430.332670 78.264748 5.748134 0.000000
430.338320 75.671173 5.632478 0.000000
430.154750 80.895432 7.922162 0.000000
430.308440 85.382149 10.028821 0.000000
430.309080 83.072113 10.002157 0.000000
430.300380 85.296257 14.000428 0.000000
430.300260 84.070496 5.901670 0.000000
430.308230 81.706406 5.800124 0.000000
430.313200 79.256424 5.693670 0.000000
430.318360 76.710693 5.581748 0.000000
430.323640 74.061798 5.463961 0.000000
430.311710 84.936249 5.873636 0.000000
430.316410 82.608742 5.775094 0.000000
430.321290 80.196457 5.671679 0.000000
430.328490 84.688942 5.701314 0.000000
430.314940 86.055771 5.745426 0.000000
430.333950 85.561554 6.252556 0.000000
430.322300 85.471542 12.597370 0.000000
429.354250 62.452736 15.294840 0.000000
430.316350 82.006744 4.152482 0.000000
430.334410 83.185913 4.334861 0.000000
430.332460 85.525169 4.516631 0.000000
428.058780 62.848755 10.603482 0.000000
430.295320 84.974457 13.038713 0.000000
430.314090 82.553864 13.064442 0.000000
430.317570 84.330925 12.657283 0.000000
430.354160 85.832283 10.260172 0.000000
431.478490 63.022003 21.150002 0.000000
430.330440 84.541222 10.429062 0.000000
430.281920 83.824417 9.604629 0.000000
430.344450 81.570984 9.492845 0.000000
430.332980 80.625984 9.460078 0.000000
423.394350 74.132393 3.397342 0.000000
422.365970 75.756302 3.423582 0.000000
424.011410 74.593933 3.419476 0.000000
425.659970 76.463982 3.421922 0.000000
426.114530 75.517723 3.447508 0.000000
430.438350 76.638397 3.468542 0.000000
430.430570 78.407906 3.488370 0.000000
430.423980 80.184624 3.507595 0.000000
429.067540 81.761505 3.535257 0.000000
430.406430 83.763252 3.544328 0.000000
430.426300 78.381042 5.690610 0.000000
430.382140 85.540276 5.787010 0.000000
430.419710 80.158142 5.714597 0.000000
429.061950 81.735558 5.717900 0.000000
430.197630 74.799629 7.830165 0.000000
430.210450 76.561836 7.858015 0.000000
430.246890 78.333481 7.887509 0.000000
430.286290 80.114105 7.917921 0.000000
430.325650 81.904617 7.949169 0.000000
430.398350 83.711891 7.982535 0.000000
430.394040 83.686127 10.205435 0.000000
430.389770 83.660309 12.433722 0.000000
430.381710 85.466461 12.478675 0.000000
430.450530 74.709877 3.498744 0.000000
430.442930 76.446999 3.519864 0.000000
430.435300 78.189964 3.540396 0.000000
430.427670 79.939865 3.560347 0.000000
430.419860 81.697845 3.579727 0.000000
430.446500 74.681427 5.660666 0.000000
430.438900 76.418961 5.685101 0.000000
430.431240 78.162315 5.709616 0.000000
430.423580 79.912598 5.734229 0.000000
430.415770 81.670959 5.758955 0.000000
430.365910 74.646637 7.820908 0.000000
430.207150 76.368050 7.843071 0.000000
430.243620 78.112984 7.873146 0.000000
430.282440 79.866707 7.904111 0.000000
430.324220 81.630630 7.936017 0.000000
430.403960 83.412048 7.970222 0.000000
430.399840 83.385483 10.159832 0.000000
430.392030 85.164192 10.198350 0.000000
430.395810 83.358879 12.354771 0.000000
430.387880 85.137939 12.400065 0.000000
431.135070 62.408157 16.415243 0.000000
431.251830 64.081421 20.885767 0.000000
430.440340 76.054367 3.615748 0.000000
430.432920 77.770142 3.646396 0.000000
430.425450 79.492622 3.676510 0.000000
430.417970 81.222824 3.706106 0.000000
430.410520 82.961929 3.735199 0.000000
430.436800 76.013908 5.748032 0.000000
430.414430 81.183472 5.851806 0.000000
430.407010 82.922935 5.886725 0.000000
430.429350 77.730072 5.782482 0.000000
430.421910 79.452911 5.817067 0.000000
430.253420 75.956039 7.874711 0.000000
430.298830 77.675446 7.914897 0.000000
430.350070 79.404160 7.956152 0.000000
430.367920 81.137657 7.996991 0.000000
430.403410 82.883911 8.039404 0.000000
430.395840 84.633682 8.081045 0.000000
430.929990 82.933601 10.227742 0.000000
430.392180 84.594940 10.243438 0.000000
432.494930 62.175861 12.023097 0.000000
431.093900 82.922203 12.414639 0.000000
430.388550 84.556107 12.411122 0.000000
430.915130 62.156273 16.212528 0.000000
431.042660 63.774288 20.619366 0.000000
432.344850 64.525085 3.378675 0.000000
431.833250 73.032547 3.532041 0.000000
430.483340 74.629356 3.569725 0.000000
430.437500 76.312187 3.597020 0.000000
430.430180 78.003662 3.623484 0.000000
430.422760 79.701767 3.649409 0.000000
430.415370 81.407600 3.674808 0.000000
430.407960 83.122215 3.699691 0.000000
431.755220 72.991257 5.657349 0.000000
430.444430 74.590805 5.668726 0.000000
430.433930 76.276863 5.698833 0.000000
430.426570 77.968704 5.729084 0.000000
430.419190 79.667168 5.759454 0.000000
430.411800 81.373360 5.789962 0.000000
430.404420 83.088310 5.820628 0.000000
430.443820 74.555321 7.768657 0.000000
430.163420 76.215378 7.791874 0.000000
430.202970 77.908302 7.827568 0.000000
430.248320 79.610245 7.864291 0.000000
430.294710 81.321938 7.901897 0.000000
430.400820 83.054390 7.942664 0.000000
430.382260 84.777573 7.979548 0.000000
430.397220 83.020424 10.067800 0.000000
430.389620 84.745995 10.111590 0.000000
430.393590 82.986374 12.198090 0.000000
430.385990 84.712273 12.248382 0.000000
432.621490 62.646976 11.924460 0.000000
430.327700 62.667213 15.970457 0.000000
431.331970 62.543568 20.408794 0.000000
430.946350 64.248482 20.366238 0.000000
430.445100 75.026215 3.562031 0.000000
430.438170 76.689072 3.585920 0.000000
430.431210 78.357468 3.609256 0.000000
430.424290 80.032532 3.632052 0.000000
430.417300 81.715187 3.654315 0.000000
430.441380 74.994347 5.631703 0.000000
430.434450 76.657570 5.658732 0.000000
430.427490 78.326309 5.685849 0.000000
430.420530 80.001709 5.713077 0.000000
430.413570 81.684700 5.740426 0.000000
430.069760 74.932480 7.689112 0.000000
430.081210 76.591400 7.719833 0.000000
430.117680 78.259392 7.752219 0.000000
430.159520 79.936272 7.785588 0.000000
430.202240 81.622589 7.819803 0.000000
430.413760 83.348221 7.861241 0.000000
430.398990 83.316139 9.956745 0.000000
430.391850 85.018448 9.997267 0.000000
428.998110 61.748528 11.517231 0.000000
430.395200 83.285858 12.057713 0.000000
430.389040 84.988678 12.104776 0.000000
429.249450 61.698608 13.593180 0.000000
430.340820 61.598038 15.791506 0.000000
429.711610 63.279678 15.732843 0.000000
437.057250 61.157494 18.859724 0.000000
426.231690 61.775368 19.322615 0.000000
430.685970 63.167290 20.078413 0.000000
430.447810 74.480499 3.409276 0.000000
430.439210 76.118156 3.434610 0.000000
430.432310 77.760834 3.459379 0.000000
430.425320 79.409454 3.483614 0.000000
430.418370 81.065056 3.507325 0.000000
430.411410 82.728683 3.530523 0.000000
430.590610 74.457359 5.451327 0.000000
430.435610 76.084763 5.477575 0.000000
430.428710 77.727715 5.505718 0.000000
430.421690 79.376610 5.533962 0.000000
430.414730 81.032463 5.562326 0.000000
430.407780 82.696350 5.590828 0.000000
430.959290 74.450310 7.508331 0.000000
429.882110 76.002251 7.502444 0.000000
429.896910 77.638115 7.534533 0.000000
429.935420 79.283607 7.568204 0.000000
429.978420 80.938263 7.602825 0.000000
430.400150 80.966179 9.676403 0.000000
430.400450 82.631607 9.715950 0.000000
430.393370 84.305115 9.756553 0.000000
428.386960 63.032654 11.223584 0.000000
432.466250 82.929321 11.950644 0.000000
430.389710 84.272911 11.831306 0.000000
428.972630 61.357143 13.269325 0.000000
430.398010 85.928497 13.970325 0.000000
429.863490 61.258610 15.407431 0.000000
429.533780 62.901451 15.385347 0.000000
430.597020 62.772102 19.678261 0.000000
433.837370 64.223793 3.262777 0.000000
440.824830 74.667374 3.323616 0.000000
430.438050 75.622070 3.444637 0.000000
430.428990 77.239815 3.462934 0.000000
430.421840 78.863037 3.480658 0.000000
430.414640 80.492599 3.497834 0.000000
430.408140 85.432693 3.546015 0.000000
441.100070 74.656799 5.565471 0.000000
430.417850 78.838524 5.501235 0.000000
430.433290 75.596924 5.458617 0.000000
430.424990 77.215019 5.479884 0.000000
430.410580 80.468361 5.522670 0.000000
430.388820 85.406395 5.587612 0.000000
441.403750 74.647850 7.821443 0.000000
429.811610 75.522110 7.452328 0.000000
429.817410 77.131012 7.476895 0.000000
429.834080 78.746887 7.502539 0.000000
429.868590 80.372314 7.529530 0.000000
430.400390 80.419548 9.576636 0.000000
430.395170 82.057579 9.608091 0.000000
430.387880 83.703758 9.640836 0.000000
428.381900 62.766300 11.178704 0.000000
430.383850 83.679962 11.684452 0.000000
436.478640 82.951340 12.130265 0.000000
428.970580 61.113926 13.206094 0.000000
430.372410 85.312332 13.781442 0.000000
434.076900 62.365921 15.834394 0.000000
430.494380 62.526230 19.510887 0.000000
441.936250 65.262314 3.016773 0.000000
