# .PCD v0.7 - Point Cloud Data file format
VERSION 0.7
FIELDS x y z intensity
SIZE 4 4 4 4
TYPE F F F F
COUNT 1 1 1 1
WIDTH 1208
HEIGHT 1
VIEWPOINT 0 0 0 1 0 0 0
POINTS 1208
DATA ascii
-19.116991 52.786629 -0.864212 0.000000
-17.939404 52.898430 -0.827233 0.000000
-16.833042 53.095692 -0.792980 0.000000
-15.933441 53.631222 -0.764817 0.000000
-14.628302 55.659805 -0.723182 0.000000
-13.768969 56.328339 -0.698331 0.000000
-12.878071 56.948116 -0.673494 0.000000
-11.948589 57.497952 -0.648511 0.000000
-11.530468 59.235802 -0.636899 0.000000
-10.598076 59.860439 -0.613464 0.000000
-9.659988 60.491680 -0.590727 0.000000
-5.697065 36.945213 -0.503406 0.000000
-27.559299 42.006508 -1.390952 0.000000
-29.184875 42.103191 -1.453887 0.000000
-25.806633 43.154137 -1.316647 0.000000
-27.452412 43.342468 -1.378192 0.000000
-25.575611 44.392399 -1.301310 0.000000
-24.061436 44.267700 -1.245928 0.000000
-23.960751 45.682850 -1.236112 0.000000
-22.747608 45.848164 -1.191995 0.000000
-22.625183 47.300976 -1.182818 0.000000
-21.379036 47.398933 -1.139326 0.000000
-20.090897 47.402061 -1.095421 0.000000
-19.986740 48.960041 -1.088939 0.000000
-18.894035 49.203205 -1.052674 0.000000
-17.689835 49.257195 -1.013794 0.000000
-16.712196 49.613342 -0.982675 0.000000
-16.565617 51.258522 -0.977847 0.000000
-15.437297 51.388706 -0.943650 0.000000
-13.611936 52.311146 -0.890823 0.000000
-13.399590 54.056412 -0.887233 0.000000
-12.479407 54.550102 -0.862615 0.000000
-11.845929 55.619850 -0.847754 0.000000
-10.877128 56.041256 -0.823270 0.000000
-9.975644 56.607285 -0.801718 0.000000
-9.538035 58.252357 -0.795884 0.000000
-8.610341 58.836029 -0.775362 0.000000
-7.677789 59.424950 -0.755567 0.000000
-6.739371 60.018703 -0.736482 0.000000
-5.796138 60.622631 -0.718163 0.000000
-5.731538 36.922466 -0.646384 0.000000
-23.991394 38.876316 -1.509934 0.000000
-22.413006 40.032787 -1.445140 0.000000
-21.182266 41.523438 -1.396200 0.000000
-19.879269 42.957035 -1.347505 0.000000
-18.596249 44.437786 -1.302508 0.000000
-17.533569 44.662289 -1.265488 0.000000
-16.410053 46.379654 -1.230909 0.000000
-15.405582 46.649689 -1.198205 0.000000
-14.578194 47.154789 -1.172843 0.000000
-13.665329 47.527523 -1.144965 0.000000
-12.540188 49.377560 -1.118187 0.000000
-11.721428 49.918457 -1.096219 0.000000
-10.954960 50.555195 -1.077065 0.000000
-10.695488 52.137520 -1.078805 0.000000
-10.096767 53.164494 -1.068291 0.000000
-9.386515 54.017559 -1.054334 0.000000
-8.488028 54.512600 -1.033633 0.000000
-7.604414 55.045238 -1.014374 0.000000
-7.152922 56.580418 -1.014447 0.000000
-6.245703 57.128906 -0.996287 0.000000
-5.334240 57.681759 -0.978858 0.000000
-4.417557 58.238495 -0.962142 0.000000
-24.944618 37.150928 -1.554348 0.000000
-24.007942 37.601719 -1.514604 0.000000
-22.671143 38.954960 -1.457419 0.000000
-21.184410 40.151855 -1.397584 0.000000
-19.987484 41.645370 -1.351382 0.000000
-18.838097 43.225796 -1.309834 0.000000
-16.633488 45.070621 -1.235207 0.000000
-5.739307 36.889420 -0.850169 0.000000
-8.148089 50.845158 -1.303078 0.000000
-6.301338 51.523972 -1.260529 0.000000
-7.598476 51.907970 -1.300431 0.000000
-4.265223 54.164753 -1.242179 0.000000
-19.195532 36.219933 -1.564650 0.000000
-17.952765 36.272804 -1.516036 0.000000
-17.912470 37.466576 -1.518865 0.000000
-17.067595 37.880806 -1.488347 0.000000
-17.030085 39.131840 -1.492882 0.000000
-15.996576 39.340206 -1.455646 0.000000
-15.955816 40.643303 -1.461705 0.000000
-15.013044 40.940067 -1.429671 0.000000
-14.804461 42.107311 -1.430219 0.000000
-13.952681 42.508175 -1.403500 0.000000
-13.113945 42.913570 -1.377961 0.000000
-12.896086 44.147907 -1.380781 0.000000
-12.084805 44.601322 -1.357956 0.000000
-10.515081 45.569721 -1.316684 0.000000
-10.305202 46.954041 -1.323948 0.000000
-9.555603 47.527203 -1.307065 0.000000
-8.823334 48.136547 -1.291802 0.000000
-8.134178 48.832996 -1.279484 0.000000
-4.829241 50.698105 -1.211193 0.000000
-5.704618 36.937202 -1.081690 0.000000
-5.730122 36.904446 0.791170 0.000000
-12.649811 36.331711 -1.535538 0.000000
-12.623817 37.539616 -1.545547 0.000000
-11.737183 37.822067 -1.514959 0.000000
-11.782310 39.173592 -1.530317 0.000000
-10.868351 39.421307 -1.499665 0.000000
-10.968498 40.920029 -1.519903 0.000000
-10.026125 41.133015 -1.489168 0.000000
-8.036449 42.842331 -1.442859 0.000000
-6.927439 42.750244 -1.405286 0.000000
-5.879908 42.709801 -1.371067 0.000000
-9.275650 43.074287 -1.487246 0.000000
-4.716793 44.085922 -1.354647 0.000000
-5.996307 44.525257 -1.400526 0.000000
-5.804581 36.897881 -1.291958 0.000000
-19.554615 57.409088 -0.518093 0.000000
-18.339016 57.754829 -0.491047 0.000000
-17.086826 58.019867 -0.464085 0.000000
-16.106136 58.679363 -0.441294 0.000000
-15.583229 60.085602 -0.424858 0.000000
-14.600754 60.777344 -0.402799 0.000000
-6.331495 36.261585 0.607496 0.000000
-5.800796 36.827641 0.624799 0.000000
-5.268221 37.399403 0.642248 0.000000
-4.734016 37.978333 0.659873 0.000000
-12.192083 36.508965 -1.570817 0.000000
-11.125235 36.623734 -1.530517 0.000000
-11.255739 38.011738 -1.548110 0.000000
-10.293165 38.222610 -1.513961 0.000000
-10.348806 39.600006 -1.529943 0.000000
-9.225088 39.605999 -1.489069 0.000000
-6.974209 40.891758 -1.424596 0.000000
-8.181902 41.066292 -1.468531 0.000000
-9.428245 41.240395 -1.514473 0.000000
-7.312067 42.832405 -1.460311 0.000000
-4.294918 43.023300 -1.363936 0.000000
-22.507555 55.669842 -0.613675 0.000000
-20.646776 57.259762 -0.563698 0.000000
-19.288401 57.481815 -0.533304 0.000000
-18.078623 57.874199 -0.505644 0.000000
-14.625757 59.184273 -0.428432 0.000000
-14.328089 60.976620 -0.414755 0.000000
-5.351389 37.311165 0.639509 0.000000
-4.805084 37.893139 0.657351 0.000000
-6.423904 36.143227 0.603901 0.000000
-5.890428 36.727226 0.621683 0.000000
-4.256937 38.481068 0.675345 0.000000
-7.035912 36.434059 -1.455764 0.000000
-6.063049 37.799587 -1.435941 0.000000
-7.482798 38.204243 -1.492098 0.000000
-5.175390 39.325993 -1.423601 0.000000
-6.542025 39.713978 -1.476393 0.000000
-5.210962 42.227169 -1.463655 0.000000
-4.305244 42.443729 -1.436639 0.000000
-23.332010 54.807652 -0.711973 0.000000
-21.880556 55.015530 -0.678292 0.000000
-20.427282 55.178188 -0.645268 0.000000
-20.062037 56.662754 -0.630241 0.000000
-18.669939 56.863796 -0.599302 0.000000
-17.506521 57.333164 -0.572549 0.000000
-16.223539 57.616196 -0.544506 0.000000
-15.266352 58.341095 -0.521962 0.000000
-14.101931 58.756641 -0.496776 0.000000
-13.109758 59.423069 -0.474644 0.000000
-6.093471 36.514908 0.580408 0.000000
-5.544233 37.106865 0.597713 0.000000
-4.992449 37.701611 0.615100 0.000000
-4.437742 38.299538 0.632579 0.000000
-22.913500 52.623039 -0.788317 0.000000
-22.486059 53.969250 -0.772805 0.000000
-19.600813 54.399303 -0.707109 0.000000
-18.185942 54.583744 -0.675681 0.000000
-17.901083 56.146080 -0.664342 0.000000
-16.753523 56.644306 -0.638518 0.000000
-15.463587 56.932285 -0.610793 0.000000
-14.611364 57.801624 -0.590980 0.000000
-13.430975 58.206707 -0.566111 0.000000
-12.430517 58.862373 -0.544730 0.000000
-5.736977 36.906677 -0.468741 0.000000
-5.746996 36.888245 0.556439 0.000000
-27.794521 50.242626 -1.003004 0.000000
-26.730797 51.001125 -0.974239 0.000000
-25.636944 51.717930 -0.945420 0.000000
-23.802601 51.693214 -0.902614 0.000000
-22.220367 51.858742 -0.865440 0.000000
-20.562271 51.894203 -0.827436 0.000000
-20.444950 53.551437 -0.819754 0.000000
-18.946285 53.709351 -0.785906 0.000000
-17.495747 53.876537 -0.753560 0.000000
-16.390968 54.417908 -0.728332 0.000000
-16.094933 55.958679 -0.718851 0.000000
-14.837929 56.307285 -0.691667 0.000000
-14.044163 57.252293 -0.673655 0.000000
-12.885384 57.703514 -0.649274 0.000000
-11.859135 58.328457 -0.627835 0.000000
-10.850246 58.975376 -0.607179 0.000000
-28.172384 48.557430 -1.156779 0.000000
-25.089830 47.624786 -1.082294 0.000000
-23.313971 49.345783 -1.032185 0.000000
-22.399069 50.174774 -1.007266 0.000000
-20.951277 50.477825 -0.971275 0.000000
-18.024752 50.927742 -0.900311 0.000000
-17.915514 52.557438 -0.894693 0.000000
-16.429483 52.697365 -0.859982 0.000000
-14.197401 53.726891 -0.807866 0.000000
-13.971548 55.328365 -0.801426 0.000000
-13.228128 56.322056 -0.784410 0.000000
-11.118612 57.501823 -0.738533 0.000000
-10.096941 58.126545 -0.716981 0.000000
-9.092443 58.772842 -0.696247 0.000000
-8.089121 59.419838 -0.675994 0.000000
-5.799299 36.858952 -0.639862 0.000000
-5.809168 36.840485 0.434675 0.000000
-23.612789 55.011608 -0.678574 0.000000
-21.823185 55.088409 -0.649617 0.000000
-20.045193 55.116528 -0.621412 0.000000
-19.594555 56.523003 -0.612971 0.000000
-17.914131 56.585503 -0.587234 0.000000
-16.578625 56.992226 -0.566993 0.000000
-15.180237 57.292400 -0.546340 0.000000
-14.839386 58.877571 -0.541408 0.000000
-13.662266 59.437763 -0.524909 0.000000
-12.537556 60.052174 -0.509645 0.000000
-11.432198 60.682865 -0.495138 0.000000
-5.440990 37.232971 0.691476 0.000000
-4.839085 37.880924 0.702830 0.000000
-21.676075 55.055824 -0.671670 0.000000
-19.851833 55.098145 -0.642596 0.000000
-18.291740 55.353832 -0.617899 0.000000
-17.713844 56.628956 -0.607823 0.000000
-16.325233 57.022018 -0.586618 0.000000
-15.078770 57.546711 -0.567953 0.000000
-13.422691 59.573490 -0.544055 0.000000
-12.270584 60.190060 -0.528209 0.000000
-11.131069 60.810837 -0.513027 0.000000
-13.806366 58.017506 -0.549412 0.000000
-5.727947 36.920868 0.688968 0.000000
-5.110096 37.585766 0.700438 0.000000
-4.492451 38.251232 0.711916 0.000000
-21.864517 52.723621 -0.824878 0.000000
-20.944271 53.663372 -0.805616 0.000000
-19.171234 53.768082 -0.772546 0.000000
-15.854874 55.892578 -0.710135 0.000000
-17.489399 53.905811 -0.741592 0.000000
-16.169853 54.368614 -0.717245 0.000000
-14.378536 56.158115 -0.684173 0.000000
-13.508545 57.088089 -0.668782 0.000000
-12.277199 57.589527 -0.647877 0.000000
-11.922867 59.165524 -0.642004 0.000000
-10.797523 59.799686 -0.623826 0.000000
-9.682888 60.437336 -0.606307 0.000000
-6.448517 36.149136 0.582584 0.000000
-5.820702 36.825115 0.595785 0.000000
-5.193459 37.500484 0.608973 0.000000
-23.208885 53.154381 -0.782510 0.000000
-21.897923 53.788574 -0.757769 0.000000
-20.918095 54.709351 -0.738683 0.000000
-17.525063 55.089046 -0.680238 0.000000
-15.950809 55.326309 -0.653747 0.000000
-15.574654 56.817112 -0.645940 0.000000
-14.515640 57.584339 -0.628272 0.000000
-13.142895 57.979153 -0.606373 0.000000
-11.991680 58.608788 -0.588318 0.000000
-11.628613 60.209957 -0.582623 0.000000
-10.472702 60.842010 -0.565480 0.000000
-5.935555 36.683075 0.652038 0.000000
-4.662701 38.055683 0.677220 0.000000
-22.159210 53.418610 -0.760956 0.000000
-21.116718 54.301598 -0.741264 0.000000
-18.179317 55.207039 -0.690702 0.000000
-16.512074 55.402920 -0.663300 0.000000
-15.239601 55.961929 -0.642339 0.000000
-14.938667 57.555054 -0.636338 0.000000
-13.509335 57.925991 -0.614054 0.000000
-12.389885 58.623135 -0.596877 0.000000
-11.222153 59.250942 -0.579481 0.000000
-10.850086 60.862751 -0.574386 0.000000
-5.371818 37.302418 0.677981 0.000000
-4.726147 37.999443 0.690188 0.000000
-22.589863 53.193924 -0.748623 0.000000
-21.504486 54.065926 -0.727667 0.000000
-20.239834 54.762161 -0.704679 0.000000
-19.064102 55.520844 -0.683537 0.000000
-17.369469 55.752129 -0.655541 0.000000
-16.003021 56.266197 -0.632815 0.000000
-14.484570 56.589722 -0.608489 0.000000
-14.225685 58.249584 -0.602491 0.000000
-12.887497 58.741768 -0.581751 0.000000
-11.755054 59.447651 -0.564425 0.000000
-10.573311 60.082756 -0.546916 0.000000
-21.829048 53.527748 -0.722926 0.000000
-20.834087 54.490459 -0.702752 0.000000
-19.502693 55.138954 -0.678459 0.000000
-18.530022 56.102795 -0.659701 0.000000
-16.799461 56.317638 -0.631105 0.000000
-15.275383 56.689316 -0.605960 0.000000
-14.223164 57.519089 -0.587793 0.000000
-13.661160 58.879204 -0.576741 0.000000
-12.432457 59.516487 -0.557215 0.000000
-11.222252 60.157413 -0.538470 0.000000
-10.028351 60.801884 -0.520467 0.000000
-20.177113 53.069378 -0.775090 0.000000
-19.052979 53.900677 -0.751725 0.000000
-17.937252 54.726021 -0.729051 0.000000
-16.931171 55.642975 -0.708553 0.000000
-14.227844 56.758434 -0.659060 0.000000
-12.950386 57.352257 -0.636258 0.000000
-12.582767 58.918514 -0.627143 0.000000
-11.365425 59.569698 -0.606243 0.000000
-10.165539 60.224300 -0.586129 0.000000
-8.980888 60.882050 -0.566760 0.000000
-6.497791 36.085579 0.654492 0.000000
-5.141338 37.552670 0.683061 0.000000
-4.462662 38.280491 0.697244 0.000000
-20.953938 47.818794 -1.055673 0.000000
-25.534035 47.731804 -1.162945 0.000000
-24.638695 48.814083 -1.135830 0.000000
-20.142372 48.881500 -1.031651 0.000000
-19.271809 49.897354 -1.007019 0.000000
-16.081795 50.680939 -0.932228 0.000000
-18.286617 50.816204 -0.980749 0.000000
-15.205994 51.644299 -0.909213 0.000000
-14.579060 52.835976 -0.891288 0.000000
-13.855907 53.952614 -0.872039 0.000000
-12.581589 54.537426 -0.843196 0.000000
-11.858437 55.660717 -0.824923 0.000000
-10.630711 56.265175 -0.797998 0.000000
-10.283531 57.813667 -0.787442 0.000000
-9.064571 58.420700 -0.761687 0.000000
-7.986790 59.174839 -0.738981 0.000000
-6.857067 59.858868 -0.715862 0.000000
-26.354759 45.827011 -1.233814 0.000000
-25.083687 46.679867 -1.197640 0.000000
-24.205605 47.779175 -1.169890 0.000000
-19.726292 47.942310 -1.063285 0.000000
-23.145409 48.743832 -1.139144 0.000000
-18.973759 49.053726 -1.039997 0.000000
-17.945549 49.948643 -1.011937 0.000000
-17.253883 51.111046 -0.990821 0.000000
-14.946835 50.897587 -0.939744 0.000000
-14.299141 52.070076 -0.920584 0.000000
-13.551353 53.164417 -0.900009 0.000000
-12.918648 54.377586 -0.882028 0.000000
-12.085880 55.411942 -0.860814 0.000000
-10.893784 56.085819 -0.833518 0.000000
-9.732365 56.774250 -0.807330 0.000000
-9.383198 58.337299 -0.796371 0.000000
-8.154350 58.950558 -0.769972 0.000000
-7.067936 59.712238 -0.746667 0.000000
-5.929005 60.403164 -0.722939 0.000000
-26.809696 45.411034 -1.240901 0.000000
-25.173450 46.064075 -1.198274 0.000000
-24.272419 47.165237 -1.170744 0.000000
-23.332943 48.233906 -1.143045 0.000000
-18.877975 48.428131 -1.040323 0.000000
-21.888699 48.932320 -1.106244 0.000000
-17.889992 49.369728 -1.013739 0.000000
-16.358505 51.595627 -0.970523 0.000000
-14.141182 51.466240 -0.922715 0.000000
-13.427868 52.596157 -0.903458 0.000000
-12.829849 53.843071 -0.886785 0.000000
-12.353611 55.226158 -0.872782 0.000000
-11.215237 55.983219 -0.847178 0.000000
-10.044415 56.693218 -0.821528 0.000000
-8.864075 57.377361 -0.796249 0.000000
-8.502010 58.945778 -0.786184 0.000000
-7.254105 59.553158 -0.760710 0.000000
-6.149818 60.310299 -0.738331 0.000000
-4.993523 60.996296 -0.715544 0.000000
-26.655193 44.000740 -1.262625 0.000000
-25.015781 44.683800 -1.220544 0.000000
-23.989048 45.713848 -1.191217 0.000000
-23.100307 46.822113 -1.165177 0.000000
-22.021107 47.794037 -1.136030 0.000000
-20.718357 48.592037 -1.103202 0.000000
-16.822121 49.120522 -1.015019 0.000000
-19.852985 49.687603 -1.079354 0.000000
-16.080803 50.250912 -0.994802 0.000000
-15.182667 51.257710 -0.972141 0.000000
-14.497929 52.444202 -0.953980 0.000000
-12.542358 52.518661 -0.912700 0.000000
-11.871639 53.702766 -0.895861 0.000000
-11.664204 55.340881 -0.888030 0.000000
-9.565388 57.051579 -0.842811 0.000000
-8.378296 57.751816 -0.818473 0.000000
-7.182049 58.426029 -0.794497 0.000000
-6.796246 59.999241 -0.785776 0.000000
-5.533100 60.595509 -0.761606 0.000000
-20.458820 49.298920 -1.073764 0.000000
-16.516235 49.843750 -0.985057 0.000000
-19.352360 50.241905 -1.044904 0.000000
-15.769981 50.996101 -0.964139 0.000000
-14.858463 52.018318 -0.940738 0.000000
-12.247440 53.359512 -0.881478 0.000000
-11.831100 54.806068 -0.868507 0.000000
-11.130039 56.014801 -0.850939 0.000000
-10.365494 57.176949 -0.832735 0.000000
-9.103298 57.846313 -0.806327 0.000000
-7.900265 58.557358 -0.781509 0.000000
-6.687595 59.241760 -0.757071 0.000000
-6.302200 60.844109 -0.747470 0.000000
-23.358746 45.195385 -1.192733 0.000000
-22.379589 46.274765 -1.163658 0.000000
-21.386341 47.334530 -1.134924 0.000000
-20.147594 48.215290 -1.102182 0.000000
-19.284527 49.341530 -1.077103 0.000000
-15.491470 50.003250 -0.990583 0.000000
-18.090778 50.221085 -1.046453 0.000000
-14.624550 51.065063 -0.967315 0.000000
-13.972511 52.303143 -0.948474 0.000000
-13.237087 53.483074 -0.928602 0.000000
-11.518234 53.802883 -0.891574 0.000000
-11.114765 55.276665 -0.878704 0.000000
-10.293968 56.388126 -0.858847 0.000000
-9.524548 57.558353 -0.840400 0.000000
-8.253769 58.232090 -0.813626 0.000000
-5.823391 59.638550 -0.763708 0.000000
-5.727512 36.945370 0.536234 0.000000
-27.467178 36.761890 -1.567519 0.000000
-26.678635 37.994911 -1.536888 0.000000
-25.944893 39.248276 -1.508096 0.000000
-25.034462 40.405727 -1.475934 0.000000
-23.766121 41.357784 -1.436452 0.000000
-22.743958 42.422840 -1.403122 0.000000
-18.316780 43.047436 -1.286493 0.000000
-17.373482 44.062271 -1.257071 0.000000
-16.858742 45.350597 -1.237438 0.000000
-15.964554 46.389843 -1.210151 0.000000
-15.300842 47.587276 -1.188313 0.000000
-14.524967 48.708412 -1.164592 0.000000
-12.354816 48.760632 -1.112060 0.000000
-11.793171 50.018066 -1.093987 0.000000
-11.259159 51.313873 -1.076944 0.000000
-10.728840 52.631779 -1.060429 0.000000
-9.576313 53.419819 -1.031520 0.000000
-8.884750 54.614532 -1.012649 0.000000
-8.090969 55.726467 -0.992163 0.000000
-7.339981 56.889793 -0.973049 0.000000
-4.928558 58.301174 -0.917825 0.000000
-27.904091 40.873978 -1.476578 0.000000
-26.895493 42.051762 -1.443885 0.000000
-25.289864 42.891178 -1.399349 0.000000
-23.792519 43.751450 -1.357884 0.000000
-18.858749 44.175724 -1.237393 0.000000
-17.957611 45.261982 -1.210601 0.000000
-17.197495 46.434299 -1.187242 0.000000
-16.246933 47.476173 -1.160565 0.000000
-15.477600 48.639172 -1.138096 0.000000
-14.654480 49.764473 -1.115074 0.000000
-12.493870 49.863075 -1.065971 0.000000
-11.866234 51.108192 -1.047997 0.000000
-11.218754 52.349796 -1.030115 0.000000
-10.922146 53.904602 -1.019613 0.000000
-9.403557 54.414143 -0.985628 0.000000
-8.610046 55.550694 -0.966398 0.000000
-7.788937 56.669846 -0.947138 0.000000
-7.012592 57.841572 -0.929258 0.000000
-5.740158 58.521511 -0.902282 0.000000
-4.526901 59.243248 -0.876995 0.000000
-19.095345 46.919277 -1.128208 0.000000
-18.223442 48.080940 -1.104205 0.000000
-17.100456 49.066219 -1.076165 0.000000
-16.255325 50.234192 -1.053805 0.000000
-15.262039 51.292019 -1.029309 0.000000
-12.893574 51.286114 -0.980564 0.000000
-12.214027 52.541046 -0.962962 0.000000
-11.610126 53.869709 -0.947216 0.000000
-11.191525 55.374237 -0.935267 0.000000
-9.372711 55.669498 -0.898937 0.000000
-8.544777 56.818401 -0.880783 0.000000
-7.688301 57.948196 -0.862649 0.000000
-6.878994 59.132072 -0.845871 0.000000
-5.556393 59.805721 -0.820604 0.000000
-4.295178 60.521545 -0.796969 0.000000
-5.713379 36.981415 0.564035 0.000000
-21.076286 47.312374 -1.094798 0.000000
-19.733604 48.239960 -1.063197 0.000000
-18.775063 49.395500 -1.038856 0.000000
-17.499809 50.326363 -1.009729 0.000000
-16.613693 51.512600 -0.987831 0.000000
-15.430565 52.477501 -0.961510 0.000000
-12.981682 52.453789 -0.914645 0.000000
-12.264046 53.720966 -0.897394 0.000000
-11.903938 55.293427 -0.886586 0.000000
-11.001728 56.435699 -0.867309 0.000000
-9.125927 56.718594 -0.832585 0.000000
-8.271763 57.880718 -0.815245 0.000000
-7.388176 59.022404 -0.797959 0.000000
-6.553810 60.219589 -0.782013 0.000000
-5.187531 60.887321 -0.757958 0.000000
-6.015221 36.660809 0.638385 0.000000
-5.198044 37.547691 0.654290 0.000000
-4.375034 38.421200 0.669987 0.000000
-19.661152 47.277809 -1.084938 0.000000
-18.652035 48.416122 -1.059071 0.000000
-17.505123 49.453159 -1.031479 0.000000
-16.549801 50.605751 -1.007761 0.000000
-15.407040 51.618771 -0.981487 0.000000
-14.617229 52.878387 -0.961724 0.000000
-12.228741 52.915218 -0.915968 0.000000
-11.674946 54.329250 -0.901331 0.000000
-11.071011 55.722164 -0.886368 0.000000
-10.190434 56.897881 -0.867386 0.000000
-8.298489 57.182461 -0.832461 0.000000
-7.436699 58.353703 -0.814940 0.000000
-6.545242 59.504272 -0.797476 0.000000
-5.703426 60.710812 -0.781358 0.000000
-5.536625 37.178654 0.652011 0.000000
-6.376324 36.274429 0.635770 0.000000
-4.707424 38.078476 0.668162 0.000000
-19.375141 46.193943 -1.125300 0.000000
-24.335484 47.268852 -1.222889 0.000000
-18.328686 47.322475 -1.097559 0.000000
-17.337994 48.474083 -1.071420 0.000000
-16.382137 49.639732 -1.046496 0.000000
-15.445400 50.812016 -1.022498 0.000000
-14.453388 51.940247 -0.998151 0.000000
-13.559544 53.134617 -0.976054 0.000000
-11.417767 53.370251 -0.933603 0.000000
-11.161175 55.037258 -0.923379 0.000000
-10.206997 56.166695 -0.902029 0.000000
-9.327312 57.358990 -0.882473 0.000000
-7.426479 57.652081 -0.846676 0.000000
-6.564652 58.839783 -0.828580 0.000000
-5.672787 60.007057 -0.810535 0.000000
-5.035419 37.711735 0.649947 0.000000
-25.504833 45.011730 -1.281976 0.000000
-24.121891 46.095921 -1.244229 0.000000
-22.899784 47.243332 -1.210120 0.000000
-17.181347 47.469006 -1.087437 0.000000
-16.225147 48.647545 -1.060543 0.000000
-15.407650 49.910801 -1.036625 0.000000
-14.399387 51.043461 -1.010053 0.000000
-13.625362 52.335316 -0.988021 0.000000
-12.847256 53.629417 -0.966470 0.000000
-11.027210 54.129436 -0.928241 0.000000
-10.327076 55.470493 -0.909173 0.000000
-9.448147 56.677013 -0.887707 0.000000
-6.659874 58.191242 -0.829829 0.000000
-5.798908 59.398357 -0.810396 0.000000
-4.907742 60.585537 -0.791020 0.000000
-6.296726 36.374538 0.631060 0.000000
-5.419247 37.310356 0.649480 0.000000
-4.554607 38.241455 0.667786 0.000000
-22.575104 47.797016 -1.177268 0.000000
-16.830971 48.050880 -1.054093 0.000000
-15.924408 49.283394 -1.026831 0.000000
-15.116920 50.577366 -1.001796 0.000000
-14.156746 51.768024 -0.974862 0.000000
-13.305496 53.031487 -0.950283 0.000000
-12.440910 54.286907 -0.926062 0.000000
-10.831627 54.972412 -0.890701 0.000000
-9.949188 56.198574 -0.867436 0.000000
-9.069649 57.430458 -0.844775 0.000000
-8.191513 58.668396 -0.822689 0.000000
-6.259018 58.978710 -0.785132 0.000000
-5.396435 60.211914 -0.764503 0.000000
-5.862988 36.843285 0.674765 0.000000
-24.837509 46.034561 -1.227729 0.000000
-23.690506 47.290546 -1.191271 0.000000
-22.229523 48.352398 -1.150402 0.000000
-17.596382 47.513245 -1.058666 0.000000
-16.614563 48.733257 -1.027891 0.000000
-15.762680 50.027893 -0.999843 0.000000
-14.757645 51.220158 -0.969981 0.000000
-13.984009 52.564011 -0.944364 0.000000
-13.193611 53.901203 -0.919042 0.000000
-12.564911 55.364006 -0.896728 0.000000
-10.526665 55.760254 -0.853721 0.000000
-9.646111 57.016869 -0.828877 0.000000
-8.765854 58.278004 -0.804596 0.000000
-7.887154 59.546139 -0.780891 0.000000
-5.928047 59.864834 -0.742202 0.000000
-5.415031 37.322559 0.715740 0.000000
-25.981438 43.569878 -1.337931 0.000000
-24.140457 44.518658 -1.286306 0.000000
-21.857300 47.031940 -1.210293 0.000000
-20.343124 48.052776 -1.167174 0.000000
-5.836601 36.838783 -0.950931 0.000000
-16.255295 47.522892 -1.082090 0.000000
-15.429176 48.838783 -1.052648 0.000000
-14.574623 50.135845 -1.023343 0.000000
-13.826248 51.502342 -0.996341 0.000000
-12.997963 52.819366 -0.968620 0.000000
-11.865700 55.851295 -0.923000 0.000000
-9.662659 56.138954 -0.875856 0.000000
-7.911316 58.692558 -0.824334 0.000000
-7.037605 59.979866 -0.799430 0.000000
-5.851433 36.811378 0.679636 0.000000
-4.949821 37.806019 0.702250 0.000000
-21.917965 44.182568 -1.288895 0.000000
-20.777317 45.430641 -1.249796 0.000000
-19.572872 46.626732 -1.210386 0.000000
-18.557896 47.910797 -1.175025 0.000000
-14.094448 48.954983 -1.065840 0.000000
-13.317287 50.303936 -1.037004 0.000000
-12.623333 51.711029 -1.010089 0.000000
-11.939877 53.133797 -0.983867 0.000000
-11.558598 54.782974 -0.962948 0.000000
-10.774265 56.161556 -0.936106 0.000000
-8.631107 56.503868 -0.888799 0.000000
-6.014393 60.387680 -0.809906 0.000000
-6.329670 36.355118 0.651222 0.000000
-5.371319 37.355442 0.674868 0.000000
-4.456371 38.363960 0.698528 0.000000
-25.484760 37.281578 -1.479794 0.000000
-25.123806 38.931084 -1.451052 0.000000
-24.145931 40.323185 -1.411379 0.000000
-22.674343 41.476810 -1.363463 0.000000
-21.700253 42.834888 -1.325531 0.000000
-20.674603 44.155792 -1.287430 0.000000
-19.469883 45.370438 -1.246941 0.000000
-18.416454 46.647179 -1.209904 0.000000
-17.438999 47.954350 -1.174911 0.000000
-14.077618 47.846844 -1.100293 0.000000
-13.196224 49.140491 -1.068802 0.000000
-12.535381 50.571754 -1.041569 0.000000
-11.891224 52.022984 -1.015127 0.000000
-10.010639 56.488808 -0.939613 0.000000
-7.854557 56.834557 -0.891765 0.000000
-6.975910 58.130829 -0.864484 0.000000
-6.097958 59.433094 -0.837773 0.000000
-5.221844 60.743923 -0.811639 0.000000
-4.962955 37.769081 0.682760 0.000000
-5.932797 36.756145 0.658608 0.000000
-24.174721 37.334694 -1.480076 0.000000
-23.640335 38.912701 -1.448017 0.000000
-22.337944 40.160114 -1.402257 0.000000
-21.583626 41.631229 -1.367499 0.000000
-20.484459 42.934574 -1.327155 0.000000
-19.533653 44.295330 -1.290274 0.000000
-18.397812 45.549976 -1.250851 0.000000
-17.436562 46.882648 -1.215268 0.000000
-16.413979 48.172276 -1.179331 0.000000
-9.233826 56.944443 -0.946820 0.000000
-11.826271 51.012539 -1.050618 0.000000
-11.184212 52.480824 -1.024013 0.000000
-10.899284 54.206699 -1.003673 0.000000
-10.146317 55.630028 -0.976233 0.000000
-7.059463 57.290966 -0.898411 0.000000
-6.173012 58.596313 -0.870823 0.000000
-6.474342 36.197639 0.641107 0.000000
-5.505600 37.246593 0.666083 0.000000
-4.522774 38.272537 0.690642 0.000000
-23.030006 37.383949 -1.470372 0.000000
-22.123566 38.810940 -1.431207 0.000000
-21.005775 40.134792 -1.388897 0.000000
-20.332603 41.642578 -1.355560 0.000000
-19.497139 43.073372 -1.319922 0.000000
-18.364197 44.350254 -1.279679 0.000000
-15.555771 48.413425 -1.173858 0.000000
-10.692558 53.009109 -1.024083 0.000000
-10.325272 54.698891 -1.002142 0.000000
-9.407410 56.023506 -0.971880 0.000000
-8.489410 57.349056 -0.942222 0.000000
-12.331276 48.404354 -1.101337 0.000000
-11.768730 49.915081 -1.074836 0.000000
-11.170433 51.415836 -1.048234 0.000000
-6.300308 57.700188 -0.893576 0.000000
-5.408394 59.016609 -0.865753 0.000000
-4.517143 60.339142 -0.838505 0.000000
-6.069588 36.618790 0.658496 0.000000
-5.088722 37.681469 0.683809 0.000000
-21.315239 37.302292 -1.462740 0.000000
-20.096054 38.592743 -1.417554 0.000000
-20.085518 40.386234 -1.395712 0.000000
-18.981354 41.707012 -1.354159 0.000000
-17.209404 44.514584 -1.281314 0.000000
-16.418999 45.957966 -1.247627 0.000000
-15.470291 47.313820 -1.211832 0.000000
-14.638878 48.728813 -1.178747 0.000000
-11.039162 50.367157 -1.082147 0.000000
-10.433990 51.879944 -1.055084 0.000000
-10.273911 53.700710 -1.035754 0.000000
-9.530029 55.156364 -1.007361 0.000000
-8.606735 56.492889 -0.976672 0.000000
-7.683418 57.830563 -0.946593 0.000000
-4.581192 59.513683 -0.869117 0.000000
-11.709290 48.903915 -1.110817 0.000000
-5.478531 58.185204 -0.897351 0.000000
-4.635246 38.189445 0.693161 0.000000
-20.228134 37.350979 -1.455056 0.000000
-19.500679 38.848431 -1.418949 0.000000
-18.310349 41.954079 -1.353579 0.000000
-17.390923 43.357296 -1.315948 0.000000
-16.662415 44.847206 -1.282436 0.000000
-15.656715 46.193027 -1.244696 0.000000
-14.932442 47.681293 -1.212561 0.000000
-13.972023 49.038712 -1.177000 0.000000
-10.608612 50.848423 -1.084017 0.000000
-10.184677 52.496006 -1.059609 0.000000
-9.893372 54.253727 -1.037765 0.000000
-8.929253 55.578995 -1.005556 0.000000
-8.000855 56.927940 -0.974547 0.000000
-7.072479 58.278210 -0.944152 0.000000
-4.850487 58.636539 -0.894556 0.000000
-6.273155 36.414352 0.655742 0.000000
-5.249947 37.512096 0.682217 0.000000
-4.244293 38.601086 0.708447 0.000000
-27.921989 38.982540 -1.619597 0.000000
-18.936920 39.186436 -1.402719 0.000000
-18.175644 40.680584 -1.366138 0.000000
-17.690437 42.297066 -1.335193 0.000000
-16.528458 43.598709 -1.292808 0.000000
-15.968323 45.182301 -1.261776 0.000000
-14.940331 46.529808 -1.223241 0.000000
-14.267052 48.058971 -1.191482 0.000000
-13.299461 49.426838 -1.155377 0.000000
-10.069862 51.348015 -1.064219 0.000000
-9.887772 53.168732 -1.043071 0.000000
-9.283417 54.743896 -1.015558 0.000000
-8.316071 56.084568 -0.982880 0.000000
-7.382637 57.447929 -0.951365 0.000000
-6.449310 58.812843 -0.920470 0.000000
-5.885956 36.860222 0.688396 0.000000
-4.850014 37.971218 0.715386 0.000000
-28.029701 37.137897 -1.676973 0.000000
-18.433968 37.319160 -1.440679 0.000000
-18.582275 39.191021 -1.418534 0.000000
-17.760773 40.676594 -1.378922 0.000000
-17.322411 42.329166 -1.346916 0.000000
-16.319649 43.725285 -1.305433 0.000000
-15.697144 45.297676 -1.271366 0.000000
-14.799812 46.733467 -1.233161 0.000000
-14.061867 48.249702 -1.198355 0.000000
-13.205330 49.702160 -1.162186 0.000000
-9.906723 51.638390 -1.066239 0.000000
-9.837639 53.550316 -1.044904 0.000000
-9.105782 55.066517 -1.013436 0.000000
-8.142075 56.433674 -0.978945 0.000000
-7.212372 57.823917 -0.945618 0.000000
-6.283050 59.216427 -0.912914 0.000000
-5.710434 37.032619 0.697627 0.000000
-4.659325 38.159927 0.726351 0.000000
-15.280663 36.346325 -1.483837 0.000000
-21.539093 36.898903 -1.633325 0.000000
-15.333344 38.138439 -1.460807 0.000000
-14.974136 39.781761 -1.430142 0.000000
-14.336845 41.312336 -1.394694 0.000000
-13.988213 42.980320 -1.365235 0.000000
-13.252319 44.473309 -1.329105 0.000000
-12.834534 46.129494 -1.299374 0.000000
-12.047165 47.602921 -1.263500 0.000000
-11.499535 49.210293 -1.232482 0.000000
-9.079201 49.741287 -1.169462 0.000000
-8.862892 51.531086 -1.145574 0.000000
-8.596634 53.320004 -1.121157 0.000000
-7.710388 54.734020 -1.086768 0.000000
-6.753815 56.101616 -1.051850 0.000000
-5.831070 57.492043 -1.018122 0.000000
-4.908813 58.884838 -0.985020 0.000000
-5.468765 37.287762 0.633607 0.000000
-4.402725 38.431263 0.663353 0.000000
-6.555992 36.134140 0.603543 0.000000
-12.449341 37.439507 -1.477516 0.000000
-12.669434 39.295654 -1.458893 0.000000
-12.595741 41.055645 -1.434695 0.000000
-12.246689 42.711479 -1.405498 0.000000
-11.685890 44.278423 -1.372720 0.000000
-11.345337 45.965683 -1.344621 0.000000
-10.642227 47.477345 -1.310229 0.000000
-10.127815 49.098049 -1.279878 0.000000
-7.998405 49.794151 -1.220907 0.000000
-8.119331 51.789917 -1.203213 0.000000
-7.401627 53.305294 -1.170968 0.000000
-6.517502 54.720257 -1.136398 0.000000
-5.563461 56.089165 -1.101257 0.000000
-4.642624 57.480572 -1.067319 0.000000
-16.890808 36.144234 -1.632647 0.000000
-11.601196 37.670456 -1.476659 0.000000
-11.862663 41.357483 -1.436047 0.000000
-11.399162 42.971725 -1.404593 0.000000
-11.028313 44.641884 -1.375411 0.000000
-10.487267 46.240509 -1.343481 0.000000
-10.091171 47.926559 -1.314763 0.000000
-9.613579 49.585030 -1.284996 0.000000
-7.719055 50.435570 -1.230140 0.000000
-7.583298 52.300621 -1.207739 0.000000
-6.653053 53.700943 -1.171672 0.000000
-5.760895 55.124428 -1.136923 0.000000
-5.808037 36.962372 -1.338855 0.000000
-5.806816 36.916641 0.574679 0.000000
-15.664291 36.172722 -1.649114 0.000000
-10.217430 39.409569 -1.468462 0.000000
-10.299431 41.242924 -1.448379 0.000000
-10.456047 43.143108 -1.430009 0.000000
-10.075912 44.816612 -1.401459 0.000000
-9.602150 46.457607 -1.371585 0.000000
-9.160309 48.128620 -1.342813 0.000000
-8.839531 49.883160 -1.316773 0.000000
-4.783470 55.341213 -1.167480 0.000000
-16.653130 54.109161 -0.635212 0.000000
-19.818115 51.777481 -0.735585 0.000000
-11.384178 59.791386 -0.446794 0.000000
-12.906685 58.004704 -0.502529 0.000000
-14.194603 56.195129 -0.554062 0.000000
-18.533371 55.648872 -0.516926 0.000000
-15.500862 57.781128 -0.425102 0.000000
-19.326126 57.410736 -0.371566 0.000000
-16.248955 59.464119 -0.282220 0.000000
-12.435947 60.947971 -0.333140 0.000000
-13.770252 59.420170 -0.379537 0.000000
-15.457218 57.777592 -0.436383 0.000000
-17.527653 55.994083 -0.504723 0.000000
-21.697742 53.693630 -0.631532 0.000000
-4.245857 57.608753 -0.971594 0.000000
-5.229019 56.214951 -1.029378 0.000000
-6.242020 54.768520 -1.089976 0.000000
-7.285835 53.266270 -1.153527 0.000000
-8.131615 51.769032 -1.210546 0.000000
-4.415428 47.851593 -1.148693 0.000000
-4.923843 45.081406 -1.225367 0.000000
-5.361420 43.577957 -1.274187 0.000000
-5.638237 42.107361 -1.317538 0.000000
-11.672688 41.723701 -1.342473 0.000000
-11.917339 40.177681 -1.385626 0.000000
-7.520977 37.906300 -1.295297 0.000000
-7.092251 36.685215 -1.312435 0.000000
-5.381313 58.884602 -0.810214 0.000000
-6.569637 57.490303 -0.872626 0.000000
-7.587536 56.082417 -0.929947 0.000000
-8.637325 54.620102 -0.990128 0.000000
-9.453579 53.169411 -1.042669 0.000000
-9.663837 51.845917 -1.072439 0.000000
-8.577213 50.888432 -1.050868 0.000000
-8.930996 49.502472 -1.088673 0.000000
-9.283482 48.089092 -1.127879 0.000000
-9.806927 46.585800 -1.175721 0.000000
-10.477505 44.990082 -1.231462 0.000000
-7.883167 40.557167 -1.242646 0.000000
-7.679943 39.250221 -1.267311 0.000000
-6.354797 54.372627 -1.111948 0.000000
-7.493114 52.883133 -1.180354 0.000000
-4.908848 47.693253 -1.166883 0.000000
-5.214367 46.346321 -1.204892 0.000000
-5.800221 44.853283 -1.257564 0.000000
-4.457554 57.109238 -0.996603 0.000000
-5.392113 55.766663 -1.052923 0.000000
-8.284203 53.069641 -1.126678 0.000000
-7.646885 50.889553 -1.136528 0.000000
-7.594398 49.708755 -1.154899 0.000000
-8.030129 48.341820 -1.196770 0.000000
-8.400719 46.966972 -1.237105 0.000000
-8.755615 45.567131 -1.278196 0.000000
-8.879478 44.231560 -1.309945 0.000000
-5.173870 43.298702 -1.188050 0.000000
-9.006016 42.870888 -1.343224 0.000000
-4.818520 40.919540 -1.228516 0.000000
-4.691677 39.681656 -1.253084 0.000000
-4.627106 38.391468 -1.282093 0.000000
-4.413990 58.498909 -0.893015 0.000000
-5.304527 57.226128 -0.945891 0.000000
-6.221886 55.905640 -1.001309 0.000000
-7.166798 54.534584 -1.059385 0.000000
-9.771256 53.016350 -1.041401 0.000000
-8.909481 52.091118 -1.022784 0.000000
-8.965664 50.894768 -1.045088 0.000000
-9.382538 49.561497 -1.084516 0.000000
-9.917427 48.155739 -1.130637 0.000000
-10.329025 46.759979 -1.172764 0.000000
-11.123825 45.179356 -1.233854 0.000000
-11.631531 43.668434 -1.283683 0.000000
-12.335381 42.031677 -1.344360 0.000000
-10.035725 41.721848 -1.266513 0.000000
-10.318546 40.249073 -1.309980 0.000000
-10.604103 38.740128 -1.355303 0.000000
-5.914219 37.139774 -1.228301 0.000000
-10.285252 36.096016 -1.407979 0.000000
-4.469223 60.799427 -0.726125 0.000000
-5.254990 59.621319 -0.771218 0.000000
-6.316143 58.351295 -0.829178 0.000000
-7.226620 57.068691 -0.882118 0.000000
-8.164959 55.737343 -0.937636 0.000000
-9.132095 54.354252 -0.995859 0.000000
-8.732948 47.846310 -1.196474 0.000000
-9.191422 46.459747 -1.241845 0.000000
-9.682423 45.024147 -1.290360 0.000000
-10.153236 43.559067 -1.339545 0.000000
-7.177536 42.389732 -1.247328 0.000000
-7.214230 41.104557 -1.278056 0.000000
-7.108749 39.869854 -1.302959 0.000000
-4.722611 58.920189 -0.854136 0.000000
-5.558166 57.709602 -0.905100 0.000000
-6.418121 56.454300 -0.958463 0.000000
-7.302963 55.151657 -1.014325 0.000000
-8.349281 53.760872 -1.079076 0.000000
-7.589573 52.859352 -1.061477 0.000000
-8.117928 51.565559 -1.104694 0.000000
-8.133446 50.411705 -1.125126 0.000000
-8.387009 49.158714 -1.157944 0.000000
-6.962353 43.734142 -1.209133 0.000000
-10.260525 47.676365 -1.144000 0.000000
-10.897533 46.212753 -1.197962 0.000000
-11.452244 44.740639 -1.249735 0.000000
-11.987686 43.235878 -1.302323 0.000000
-10.307335 42.704826 -1.249160 0.000000
-10.519535 41.316471 -1.288532 0.000000
-10.695709 39.915306 -1.327721 0.000000
-11.033245 38.398724 -1.376619 0.000000
-7.114365 37.856472 -1.245056 0.000000
-11.214756 36.927441 -1.419506 0.000000
-5.225731 60.017876 -0.743317 0.000000
-6.214363 58.811302 -0.799339 0.000000
-7.060245 57.593349 -0.850353 0.000000
-7.931259 56.330086 -0.903797 0.000000
-8.828209 55.018784 -0.959788 0.000000
-9.717087 53.666290 -1.016876 0.000000
-8.922470 52.772041 -0.998992 0.000000
-9.077278 51.594650 -1.025069 0.000000
-9.277412 50.383419 -1.054383 0.000000
-9.717770 49.065155 -1.096073 0.000000
-21.621967 46.630363 -0.988911 0.000000
-23.794056 44.481369 -1.094315 0.000000
-27.750637 41.556622 -1.271692 0.000000
-14.306221 56.212181 -0.614688 0.000000
-15.724560 54.709785 -0.680297 0.000000
-17.713078 52.995827 -0.768688 0.000000
-17.435375 50.582138 -0.791519 0.000000
-19.463093 48.674614 -0.886552 0.000000
-11.379017 60.132690 -0.474720 0.000000
-12.315319 58.876133 -0.518692 0.000000
-13.872177 57.450550 -0.586518 0.000000
-6.320179 36.467686 0.694498 0.000000
-21.712715 44.378841 -1.115868 0.000000
-23.917755 42.124481 -1.228811 0.000000
-26.795197 39.481117 -1.372493 0.000000
-23.875443 37.744816 -1.303505 0.000000
-16.648499 52.450108 -0.823462 0.000000
-14.918156 51.760422 -0.769506 0.000000
-16.454708 50.086926 -0.846562 0.000000
-17.889473 48.375130 -0.921379 0.000000
-10.072460 60.584869 -0.501639 0.000000
-10.955181 59.389252 -0.543886 0.000000
-12.135551 58.093700 -0.598785 0.000000
-13.441658 56.719315 -0.659846 0.000000
-13.708794 55.540058 -0.681615 0.000000
-14.918758 54.095528 -0.741517 0.000000
-21.758980 40.752953 -1.301997 0.000000
-21.833740 36.407558 -1.376019 0.000000
-15.717758 48.353287 -0.963325 0.000000
-17.073311 46.628647 -1.038248 0.000000
-18.581230 44.773296 -1.121699 0.000000
-20.239243 42.776688 -1.213817 0.000000
-19.217018 40.503567 -1.209944 0.000000
-19.994385 38.749817 -1.267780 0.000000
-9.021404 59.980225 -0.586464 0.000000
-10.116867 58.763741 -0.638721 0.000000
-11.070896 57.531723 -0.686086 0.000000
-12.165066 56.222725 -0.740471 0.000000
-12.624672 55.029495 -0.769110 0.000000
-13.572994 53.672882 -0.819622 0.000000
-12.508755 52.869404 -0.785229 0.000000
-13.462112 51.455154 -0.838143 0.000000
-14.374386 50.005516 -0.890651 0.000000
-6.584675 47.916958 -1.241173 0.000000
-5.027206 45.447517 -1.197390 0.000000
-5.590214 44.066391 -1.247944 0.000000
-6.203323 42.612610 -1.302958 0.000000
-4.834888 42.236187 -1.241221 0.000000
-4.742104 38.784622 -1.301024 0.000000
-4.725143 56.460197 -1.050700 0.000000
-4.461018 55.612213 -1.043468 0.000000
-4.931233 54.531342 -1.078253 0.000000
-4.958019 53.571335 -1.088942 0.000000
-5.106232 52.555748 -1.107330 0.000000
-5.234791 51.529610 -1.125490 0.000000
-5.397202 50.471985 -1.146495 0.000000
-6.095478 49.170551 -1.199219 0.000000
-4.267460 47.913284 -1.121685 0.000000
-4.835701 46.606995 -1.169900 0.000000
-15.243313 60.080513 -0.283381 0.000000
-16.749214 58.726471 -0.333250 0.000000
-20.039055 56.944214 -0.442743 0.000000
-24.078888 54.866009 -0.577633 0.000000
-27.050537 40.993446 -1.333222 0.000000
-24.594498 37.776321 -1.301587 0.000000
-11.224888 59.965240 -0.464276 0.000000
-12.120960 58.801647 -0.512751 0.000000
-12.934200 57.616745 -0.558783 0.000000
-13.743526 56.394981 -0.605545 0.000000
-14.537415 55.138496 -0.652598 0.000000
-15.668369 53.748627 -0.714440 0.000000
-16.538433 52.383186 -0.766678 0.000000
-17.939629 50.804504 -0.842101 0.000000
-21.217346 47.275665 -1.017415 0.000000
-22.753601 45.430641 -1.103269 0.000000
-24.224129 43.533241 -1.188052 0.000000
-10.461723 61.067631 -0.421917 0.000000
-18.580635 47.069443 -1.014637 0.000000
-19.852638 45.348709 -1.101802 0.000000
-21.154751 43.546158 -1.192932 0.000000
-18.609703 43.378799 -1.107990 0.000000
-19.483963 41.708450 -1.182489 0.000000
-20.305710 40.005554 -1.256935 0.000000
-21.184650 38.215492 -1.336647 0.000000
-18.599739 36.844738 -1.289319 0.000000
-22.025105 36.382843 -1.417185 0.000000
-12.456757 58.633453 -0.548156 0.000000
-13.347282 57.443054 -0.602808 0.000000
-13.904472 56.294582 -0.644926 0.000000
-13.715229 54.280334 -0.677370 0.000000
-14.607841 52.962685 -0.737569 0.000000
-15.198978 51.697235 -0.786360 0.000000
-16.407108 50.184944 -0.863874 0.000000
-17.461178 48.667889 -0.936714 0.000000
-10.794468 60.875237 -0.447904 0.000000
-11.693546 59.759506 -0.500158 0.000000
-13.383335 56.479374 -0.636148 0.000000
-13.442299 55.465397 -0.671631 0.000000
-14.233173 54.224480 -0.740925 0.000000
-14.971737 52.959373 -0.809984 0.000000
-13.565792 52.366833 -0.782587 0.000000
-14.109901 51.130901 -0.845466 0.000000
-14.658897 49.858788 -0.910584 0.000000
-15.389935 48.479519 -0.986571 0.000000
-15.933640 47.132683 -1.055869 0.000000
-14.395855 46.646873 -1.023975 0.000000
-14.983498 45.244728 -1.098460 0.000000
-15.446301 43.858776 -1.169044 0.000000
-15.704994 42.534546 -1.231375 0.000000
-14.072693 42.157219 -1.195300 0.000000
-14.412006 40.765564 -1.264624 0.000000
-14.680847 39.375084 -1.332526 0.000000
-12.531208 38.119637 -1.322175 0.000000
-14.884075 37.985973 -1.399182 0.000000
-12.522076 36.853279 -1.378657 0.000000
-9.632759 36.198540 -1.324234 0.000000
-10.683578 60.882839 -0.403508 0.000000
-11.330311 59.835190 -0.457967 0.000000
-11.904846 58.773350 -0.510987 0.000000
-12.577049 57.659958 -0.569776 0.000000
-10.936172 46.864426 -1.162252 0.000000
-10.471661 44.939182 -1.240351 0.000000
-9.485523 43.270752 -1.290884 0.000000
-9.703018 60.710083 -0.516379 0.000000
-10.280239 59.698006 -0.577284 0.000000
-9.677902 58.941216 -0.584116 0.000000
-10.313393 57.878792 -0.650538 0.000000
-10.835953 56.815777 -0.713406 0.000000
-11.657230 55.635513 -0.792960 0.000000
-11.003338 54.879543 -0.800550 0.000000
-11.050766 53.903320 -0.844158 0.000000
-11.145855 52.897053 -0.891519 0.000000
-11.600903 51.740242 -0.959354 0.000000
-10.886696 51.013008 -0.966300 0.000000
-11.092854 49.919403 -1.023718 0.000000
-11.535519 48.699661 -1.096117 0.000000
-10.722115 48.018349 -1.099564 0.000000
-10.076153 46.219246 -1.163798 0.000000
-7.574211 43.273621 -1.227324 0.000000
-5.653362 42.271278 -1.217046 0.000000
-7.464664 42.239471 -1.277388 0.000000
-4.748920 60.517452 -0.701626 0.000000
-5.004036 58.867863 -0.791550 0.000000
-5.598747 57.880981 -0.866977 0.000000
-6.173843 56.868984 -0.943659 0.000000
-5.915684 56.112736 -0.970876 0.000000
-5.624271 55.368431 -0.996907 0.000000
-5.858665 53.550720 -1.105222 0.000000
-5.751995 52.711693 -1.147223 0.000000
-24.221989 36.799385 -1.313225 0.000000
-27.817520 37.723625 -1.342111 0.000000
-13.260525 56.607067 -0.627045 0.000000
-13.175884 55.686718 -0.672349 0.000000
-13.801678 54.519905 -0.754227 0.000000
-12.986500 53.830490 -0.765208 0.000000
-13.284595 52.742573 -0.833796 0.000000
-12.484726 52.064499 -0.846049 0.000000
-12.911789 50.894333 -0.924622 0.000000
-12.157501 50.208122 -0.940159 0.000000
-12.385284 49.088215 -1.011166 0.000000
-11.678394 48.390038 -1.030253 0.000000
-12.052643 47.163548 -1.113279 0.000000
-11.161407 46.563774 -1.122525 0.000000
-11.294674 45.425732 -1.194630 0.000000
-10.427647 44.829292 -1.205819 0.000000
-5.001839 41.798080 -1.247556 0.000000
-7.134079 42.512432 -1.258381 0.000000
-9.202545 43.378944 -1.260596 0.000000
-10.536964 43.674065 -1.279716 0.000000
-6.835621 41.611481 -1.307926 0.000000
-8.922543 42.450203 -1.310987 0.000000
-8.492775 56.878273 -0.820384 0.000000
-8.299240 56.086971 -0.854055 0.000000
-8.786396 55.032459 -0.930335 0.000000
-8.581055 54.225006 -0.965634 0.000000
-8.999687 53.149734 -1.041504 0.000000
-8.629303 52.393364 -1.068593 0.000000
-8.570850 51.493408 -1.116834 0.000000
-8.095848 49.836174 -1.192968 0.000000
-5.314571 48.488823 -1.165181 0.000000
-7.194984 49.349327 -1.186298 0.000000
-4.500431 47.063255 -1.220957 0.000000
-7.179859 48.396175 -1.241885 0.000000
-8.290653 58.632267 -0.721505 0.000000
-8.007713 57.886013 -0.747893 0.000000
-13.096310 60.991558 -0.313872 0.000000
-13.689255 59.957939 -0.391252 0.000000
-13.259499 59.180931 -0.422896 0.000000
-13.668583 54.433205 -0.720121 0.000000
-12.618710 51.968201 -0.844456 0.000000
-12.371002 50.106575 -0.957701 0.000000
-12.673340 48.944962 -1.042385 0.000000
-11.902271 48.314690 -1.062944 0.000000
-11.163376 47.682312 -1.085218 0.000000
-4.435806 43.709335 -1.191563 0.000000
-5.733368 43.814617 -1.215035 0.000000
-11.760433 46.302994 -1.194578 0.000000
-7.274601 43.793552 -1.254135 0.000000
-10.017014 45.207077 -1.224045 0.000000
-10.885273 45.747559 -1.209384 0.000000
-4.874229 42.307415 -1.303901 0.000000
-9.086533 43.645828 -1.309594 0.000000
-12.383797 60.472275 -0.404066 0.000000
-11.988682 59.730148 -0.443331 0.000000
-12.330173 58.761158 -0.521379 0.000000
-11.900620 58.028091 -0.560232 0.000000
-12.348988 56.989746 -0.647659 0.000000
-10.300461 52.379448 -0.928945 0.000000
-9.377537 50.013714 -1.085715 0.000000
-4.812191 47.013313 -1.208056 0.000000
-6.341953 47.945351 -1.170425 0.000000
-8.719887 49.415550 -1.115004 0.000000
-8.851631 48.362938 -1.201601 0.000000
-8.190151 47.770432 -1.231637 0.000000
-4.706783 48.048187 -1.121042 0.000000
-5.457115 60.943398 -0.655812 0.000000
-5.627735 59.395149 -0.762515 0.000000
-6.098679 58.445839 -0.845411 0.000000
-5.844574 57.773140 -0.878231 0.000000
-5.588684 57.100128 -0.911544 0.000000
-6.107727 56.065399 -1.003876 0.000000
-21.162872 57.553780 -0.369846 0.000000
-24.918854 54.207932 -0.650425 0.000000
-23.611572 52.456867 -0.716655 0.000000
-23.540722 47.900295 -0.976730 0.000000
-24.758572 48.530579 -0.969678 0.000000
-25.990623 49.187237 -0.961862 0.000000
-27.278416 49.854420 -0.955224 0.000000
-20.869568 43.266422 -1.186812 0.000000
-9.606613 36.294254 -1.368977 0.000000
-14.191067 38.965729 -1.298332 0.000000
-15.102715 39.553894 -1.281874 0.000000
-15.992580 40.173920 -1.263357 0.000000
-16.919441 40.784702 -1.246623 0.000000
-11.147331 36.253391 -1.403451 0.000000
-12.532974 36.396759 -1.423424 0.000000
-13.486794 36.933132 -1.409939 0.000000
-14.832390 37.181438 -1.423251 0.000000
-5.178059 36.566792 -1.262161 0.000000
-6.748375 36.330196 -1.308629 0.000000
-8.084358 36.373837 -1.332796 0.000000
-13.727705 60.647606 -0.298732 0.000000
-13.858496 59.739906 -0.353092 0.000000
-14.001616 58.812740 -0.408925 0.000000
-14.532774 57.725903 -0.486147 0.000000
-14.308588 56.900066 -0.524487 0.000000
-14.054670 56.082932 -0.561383 0.000000
-14.365828 55.020008 -0.630158 0.000000
-14.235369 54.129044 -0.675130 0.000000
-14.088953 53.235954 -0.719702 0.000000
-14.141115 52.235153 -0.776656 0.000000
-13.970915 51.329639 -0.821143 0.000000
-13.792177 50.418213 -0.865682 0.000000
-13.659582 49.469872 -0.913754 0.000000
-13.546278 48.496117 -0.963853 0.000000
-5.004377 39.299614 -1.194954 0.000000
-6.006300 39.570190 -1.212472 0.000000
-7.074793 39.805878 -1.234072 0.000000
-12.131624 43.960938 -1.168453 0.000000
-11.802019 43.052612 -1.207933 0.000000
-8.119165 40.092075 -1.252102 0.000000
-10.035894 40.886478 -1.270330 0.000000
-6.511898 60.712429 -0.653324 0.000000
-6.427635 59.989311 -0.701054 0.000000
-6.274383 59.288658 -0.744539 0.000000
-6.226318 58.534340 -0.796562 0.000000
-6.179386 57.768898 -0.849703 0.000000
-5.959446 56.269165 -0.949291 0.000000
-6.125503 56.995594 -0.903394 0.000000
-4.467594 53.789394 -1.070278 0.000000
-5.856678 55.500553 -1.001162 0.000000
-5.547287 53.990181 -1.099489 0.000000
-12.166317 38.582256 -1.286149 0.000000
-5.032303 37.515949 -1.195333 0.000000
-6.273846 37.549160 -1.220680 0.000000
-7.562687 37.576981 -1.247408 0.000000
-24.244743 54.718742 -0.542393 0.000000
-24.290112 53.597179 -0.613635 0.000000
-21.132313 48.263462 -0.877910 0.000000
-21.699829 49.122631 -0.836641 0.000000
-22.346924 49.948143 -0.799235 0.000000
-22.977196 50.789970 -0.760438 0.000000
-23.632721 51.629044 -0.722371 0.000000
-24.267342 52.486744 -0.682675 0.000000
-16.836338 42.550640 -1.140785 0.000000
-17.437397 43.364410 -1.103099 0.000000
-18.039314 44.179573 -1.065344 0.000000
-18.642242 44.996754 -1.027487 0.000000
-19.246330 45.816532 -0.989491 0.000000
-20.705296 47.331467 -0.926846 0.000000
-6.557097 60.912304 -0.602779 0.000000
-6.346075 59.465294 -0.706381 0.000000
-6.451880 60.192352 -0.654182 0.000000
-6.108362 57.999474 -0.811513 0.000000
-6.239504 58.730583 -0.759416 0.000000
-4.509367 53.928684 -1.074607 0.000000
-5.887773 56.489006 -0.921880 0.000000
-5.998449 57.249035 -0.866196 0.000000
-5.775778 55.719040 -0.978577 0.000000
-5.661867 54.938686 -1.036303 0.000000
-5.631597 54.094864 -1.102454 0.000000
-5.036715 38.654003 -1.215334 0.000000
