# .PCD v0.7 - Point Cloud Data file format
VERSION 0.7
FIELDS x y z intensity
SIZE 4 4 4 4
TYPE F F F F
COUNT 1 1 1 1
WIDTH 1186
HEIGHT 1
VIEWPOINT 0 0 0 1 0 0 0
POINTS 1186
DATA ascii
455.202360 142.200210 9.227623 0.000000
469.075130 142.167270 9.353764 0.000000
463.866460 142.100600 9.316650 0.000000
463.564120 141.929310 9.332771 0.000000
460.265780 142.178510 9.291028 0.000000
460.006960 141.905230 9.293867 0.000000
457.492950 142.142400 9.258311 0.000000
457.250580 141.931400 9.258922 0.000000
454.790530 141.974400 9.232788 0.000000
454.363860 141.778960 9.240208 0.000000
468.920040 141.815900 9.353545 0.000000
463.461360 141.639130 9.325703 0.000000
459.656400 141.548550 9.296843 0.000000
456.991640 141.739810 9.262033 0.000000
456.711210 141.576280 9.268763 0.000000
456.431580 141.415950 9.274649 0.000000
454.019990 141.634600 9.245438 0.000000
453.587130 141.469420 9.251179 0.000000
453.244510 141.335850 9.253045 0.000000
468.718260 141.486450 9.356618 0.000000
468.107570 141.360230 9.393454 0.000000
467.727780 141.134450 9.410843 0.000000
459.431300 141.248760 9.291679 0.000000
459.300290 141.029720 9.284225 0.000000
456.279020 141.268010 9.270197 0.000000
456.022340 141.081310 9.268820 0.000000
453.073910 141.269210 9.253017 0.000000
452.815980 141.175800 9.253001 0.000000
452.391270 141.008530 9.248043 0.000000
467.529110 140.820620 9.412520 0.000000
462.840000 140.786870 9.326416 0.000000
459.131620 140.844680 9.282289 0.000000
458.971070 140.651060 9.278358 0.000000
455.593260 140.771870 9.263989 0.000000
451.963440 140.847790 9.241015 0.000000
451.615720 140.733020 9.235258 0.000000
451.175050 140.606980 9.227872 0.000000
450.728850 140.499280 9.220418 0.000000
446.599180 140.457580 9.152892 0.000000
446.326870 140.516400 9.148749 0.000000
445.965670 140.603990 9.142944 0.000000
462.686280 140.337680 9.310956 0.000000
458.714020 140.375350 9.273933 0.000000
455.153200 140.477570 9.258530 0.000000
454.785250 140.267790 9.255859 0.000000
454.497280 140.132710 9.256089 0.000000
450.368230 140.427380 9.214307 0.000000
450.004790 140.368450 9.208177 0.000000
449.639100 140.322190 9.201965 0.000000
449.179350 140.283040 9.194097 0.000000
448.717830 140.263110 9.186206 0.000000
448.347720 140.262330 9.179839 0.000000
447.977390 140.274660 9.173439 0.000000
447.607700 140.302860 9.167495 0.000000
447.239350 140.347270 9.162084 0.000000
446.872890 140.406160 9.156918 0.000000
467.583280 140.150880 9.383441 0.000000
462.537780 140.068630 9.305244 0.000000
458.358830 140.018890 9.268112 0.000000
454.303560 140.047320 9.256205 0.000000
454.010500 139.926070 9.256297 0.000000
453.615390 139.777360 9.256517 0.000000
462.292210 139.679520 9.298130 0.000000
457.988890 139.676730 9.262442 0.000000
457.702300 139.429810 9.258350 0.000000
453.215940 139.643510 9.256728 0.000000
452.813570 139.522250 9.256563 0.000000
452.417850 139.383820 9.251467 0.000000
467.535610 139.294690 9.351907 0.000000
461.947390 139.169830 9.288560 0.000000
457.495730 139.284970 9.257892 0.000000
457.176300 139.082110 9.258144 0.000000
452.019840 139.250170 9.244881 0.000000
451.616850 139.130170 9.238150 0.000000
451.205750 139.042540 9.234063 0.000000
450.790100 138.979920 9.231468 0.000000
450.373110 138.930340 9.228561 0.000000
449.955200 138.893600 9.225310 0.000000
449.536680 138.869930 9.221756 0.000000
449.117860 138.859070 9.217864 0.000000
448.803770 138.858950 9.214737 0.000000
448.489900 138.866930 9.211419 0.000000
448.071810 138.888150 9.206713 0.000000
447.654600 138.922420 9.201720 0.000000
447.238650 138.969420 9.196406 0.000000
446.824310 139.029980 9.190907 0.000000
446.339050 139.021620 9.305729 0.000000
446.001220 139.187450 9.178719 0.000000
467.148830 138.860730 9.357558 0.000000
461.759460 138.716310 9.270081 0.000000
456.742610 138.825970 9.258539 0.000000
456.416900 138.636670 9.257718 0.000000
461.665190 138.376600 9.252218 0.000000
456.069550 138.486450 9.260908 0.000000
455.769350 138.253680 9.251346 0.000000
461.561860 138.037690 9.234428 0.000000
461.257050 137.900540 9.244049 0.000000
455.556520 138.119520 9.247193 0.000000
455.253720 137.883440 9.235088 0.000000
454.651250 137.684620 9.238912 0.000000
446.737950 136.238850 9.104467 0.000000
446.489170 136.315160 9.106233 0.000000
453.738100 160.982960 9.541707 0.000000
458.391970 160.647800 9.579626 0.000000
458.091670 160.849880 9.581841 0.000000
454.746920 160.568210 9.539701 0.000000
454.473850 160.689540 9.540478 0.000000
454.106960 160.841280 9.541341 0.000000
450.422730 160.489010 9.483966 0.000000
450.169530 160.522890 9.481467 0.000000
449.746310 160.567170 9.476938 0.000000
449.321900 160.597110 9.472005 0.000000
448.896610 160.610690 9.466604 0.000000
448.470890 160.609890 9.460805 0.000000
448.130250 160.597670 9.455864 0.000000
447.704680 160.568040 9.449283 0.000000
447.279790 160.523940 9.442320 0.000000
446.940640 160.476990 9.436461 0.000000
446.686860 160.435380 9.431930 0.000000
469.395390 160.326260 9.721504 0.000000
462.876710 160.584580 9.635116 0.000000
458.897060 160.303880 9.573786 0.000000
458.597530 160.515590 9.576984 0.000000
455.377840 160.260600 9.536919 0.000000
455.018620 160.440660 9.538591 0.000000
452.089690 160.122240 9.496161 0.000000
451.759550 160.213750 9.494369 0.000000
451.344420 160.315920 9.491768 0.000000
450.926730 160.402890 9.488508 0.000000
450.591060 160.462800 9.485594 0.000000
446.433650 160.387940 9.427179 0.000000
446.097140 160.316220 9.420657 0.000000
445.762020 160.234540 9.413878 0.000000
469.577700 159.975140 9.723667 0.000000
463.667970 160.023450 9.615634 0.000000
463.441440 160.239350 9.618783 0.000000
459.293060 160.010990 9.569053 0.000000
456.086460 159.867740 9.532347 0.000000
455.733920 160.069720 9.534828 0.000000
453.228210 159.726390 9.499304 0.000000
452.904850 159.848650 9.499136 0.000000
452.499180 159.993120 9.497892 0.000000
452.253940 160.072540 9.496912 0.000000
469.722900 159.607540 9.727686 0.000000
464.113560 159.577700 9.609104 0.000000
463.893430 159.803740 9.612276 0.000000
459.970460 159.463490 9.560128 0.000000
459.683290 159.703890 9.563965 0.000000
456.865140 159.372300 9.525424 0.000000
456.520870 159.598180 9.528813 0.000000
454.027920 159.382540 9.497134 0.000000
453.709900 159.526720 9.498201 0.000000
453.389650 159.662830 9.498983 0.000000
450.927700 159.329740 9.458657 0.000000
450.554170 159.402160 9.455761 0.000000
450.103360 159.471070 9.451792 0.000000
449.726070 159.514070 9.447967 0.000000
449.347560 159.542570 9.443639 0.000000
448.892300 159.559070 9.437898 0.000000
448.512510 159.557680 9.432728 0.000000
448.132720 159.541350 9.427136 0.000000
447.753330 159.511990 9.421170 0.000000
447.374820 159.467360 9.414846 0.000000
446.922180 159.396000 9.406737 0.000000
446.546810 159.321260 9.399629 0.000000
446.248050 159.251080 9.393645 0.000000
470.338900 159.427780 9.702626 0.000000
466.019990 159.138840 9.921179 0.000000
464.541110 159.109390 9.602942 0.000000
464.327670 159.345230 9.606156 0.000000
460.251560 159.212880 9.556309 0.000000
457.287140 159.071060 9.520846 0.000000
457.031250 159.250370 9.524327 0.000000
454.808990 158.977570 9.492851 0.000000
454.576170 159.104370 9.494496 0.000000
454.264220 159.267090 9.496075 0.000000
452.177120 158.978210 9.465223 0.000000
451.740260 159.120330 9.463470 0.000000
451.298710 159.242690 9.461078 0.000000
446.024930 159.192670 9.389038 0.000000
470.549930 159.075960 9.702034 0.000000
464.751770 158.869080 9.599639 0.000000
460.528630 158.954990 9.552355 0.000000
457.780790 158.684330 9.515008 0.000000
457.537290 158.882740 9.517762 0.000000
455.341520 158.656110 9.488798 0.000000
455.037930 158.842440 9.491399 0.000000
453.251100 158.548780 9.464483 0.000000
452.896210 158.703740 9.465499 0.000000
452.537600 158.845920 9.466064 0.000000
464.960080 158.624530 9.596202 0.000000
461.247920 158.229390 9.540461 0.000000
460.981140 158.507250 9.545155 0.000000
458.178800 158.339230 9.510021 0.000000
456.003080 158.194440 9.483097 0.000000
455.714260 158.407900 9.485235 0.000000
454.015320 158.158600 9.460581 0.000000
453.740020 158.307650 9.462223 0.000000
453.461850 158.449080 9.463672 0.000000
465.372500 158.124050 9.588659 0.000000
461.594910 157.845570 9.533965 0.000000
461.422420 158.039170 9.537273 0.000000
458.567630 157.977830 9.504490 0.000000
456.432100 157.860700 9.477999 0.000000
456.220400 158.031520 9.480308 0.000000
454.553100 157.830460 9.456654 0.000000
454.219180 158.040180 9.459134 0.000000
465.574980 157.867370 9.584680 0.000000
461.766330 157.649110 9.530431 0.000000
458.796390 157.752910 9.500823 0.000000
456.845790 157.502200 9.472796 0.000000
456.640380 157.683870 9.475476 0.000000
454.943600 157.559190 9.453582 0.000000
458.549740 157.336380 9.686450 0.000000
458.771550 144.102130 9.705483 0.000000
446.699520 138.963680 9.712922 0.000000
446.380130 138.977290 9.570629 0.000000
447.571110 160.230240 10.127203 0.000000
466.045750 158.788450 10.345521 0.000000
458.550230 157.341320 10.071939 0.000000
458.763580 144.106170 10.102983 0.000000
470.436000 140.210710 10.252147 0.000000
446.697540 138.970730 9.979676 0.000000
447.366730 160.444980 10.527992 0.000000
447.304840 160.301570 10.429667 0.000000
447.082760 160.125700 10.537766 0.000000
447.268040 160.031520 10.342087 0.000000
447.000180 159.916890 10.444953 0.000000
458.550720 157.346270 10.455412 0.000000
458.755710 144.110170 10.497659 0.000000
470.217770 140.317630 10.780157 0.000000
446.700650 139.015050 10.378929 0.000000
446.452030 160.609860 10.940190 0.000000
446.808990 160.219530 10.737020 0.000000
446.620060 159.931460 10.741310 0.000000
446.456600 158.085170 10.785205 0.000000
446.258670 158.048490 10.782454 0.000000
445.763310 158.196750 10.769200 0.000000
458.551210 157.351180 10.838010 0.000000
458.747830 144.114150 10.890846 0.000000
470.144710 140.352980 11.299309 0.000000
446.805450 139.031220 10.775700 0.000000
469.441590 138.844250 11.297786 0.000000
446.280550 160.573350 10.938384 0.000000
446.242030 160.064100 10.940147 0.000000
445.897160 159.051100 10.940582 0.000000
446.356690 158.611220 10.947751 0.000000
446.177120 158.698530 10.945316 0.000000
446.586430 158.340420 10.951555 0.000000
458.551730 157.356090 11.220424 0.000000
458.967130 144.219300 11.286654 0.000000
458.740020 144.118130 11.283111 0.000000
446.670990 143.451800 11.354130 0.000000
449.247410 142.193450 11.431008 0.000000
448.339320 142.207020 11.420128 0.000000
469.179900 141.697240 11.282437 0.000000
469.815030 140.967030 11.292874 0.000000
469.414250 139.804120 11.293318 0.000000
446.320530 139.296260 11.289275 0.000000
446.872560 139.146510 11.166976 0.000000
446.502010 139.141920 11.164034 0.000000
469.908870 139.059710 11.302207 0.000000
446.624330 138.655960 11.307941 0.000000
448.335170 138.224720 11.334709 0.000000
469.486910 138.329710 11.300533 0.000000
446.148770 158.543820 11.568377 0.000000
445.871670 158.675610 11.489363 0.000000
446.835360 158.178020 11.618261 0.000000
446.575070 158.241040 11.542674 0.000000
446.293580 158.340070 11.465613 0.000000
458.548220 157.608250 11.737672 0.000000
458.553280 157.363270 11.731567 0.000000
458.944060 144.233200 11.682337 0.000000
458.897090 144.263140 11.942924 0.000000
458.730930 144.122480 11.806487 0.000000
446.698610 143.051740 11.549969 0.000000
446.423710 143.117950 11.547357 0.000000
447.044710 142.657780 11.759655 0.000000
446.225650 142.489940 11.783484 0.000000
448.943540 142.089950 11.624195 0.000000
448.790650 142.141130 11.618822 0.000000
448.408200 142.117750 11.616755 0.000000
447.271150 142.264710 11.793825 0.000000
446.706600 142.204960 11.803043 0.000000
446.421720 142.338840 11.794217 0.000000
470.256770 142.097870 11.798267 0.000000
449.138430 141.953750 11.735020 0.000000
448.629730 141.860750 11.834469 0.000000
448.243160 141.942670 11.726769 0.000000
447.839480 141.835110 11.632854 0.000000
447.656680 141.656100 11.644598 0.000000
470.529790 141.540740 11.814007 0.000000
447.243290 141.136320 11.679732 0.000000
470.054200 140.853650 11.808228 0.000000
469.013090 140.910490 11.775046 0.000000
467.717040 140.715360 11.737841 0.000000
468.733760 140.612560 11.770618 0.000000
468.893010 139.627670 11.789949 0.000000
447.152500 139.322130 11.805009 0.000000
446.336360 139.391050 11.671580 0.000000
446.929170 139.198940 11.554474 0.000000
446.505800 139.185170 11.553566 0.000000
469.431000 138.849200 11.818110 0.000000
447.885740 138.177720 11.609266 0.000000
447.026180 138.433430 11.591295 0.000000
469.679320 138.211520 11.835493 0.000000
448.317260 137.856090 11.628558 0.000000
447.076420 137.097340 11.655175 0.000000
446.203370 159.573270 12.138727 0.000000
446.366610 159.039470 11.880745 0.000000
446.798220 158.572220 11.825665 0.000000
446.613100 158.715530 11.843387 0.000000
447.051880 158.403980 11.804748 0.000000
458.533660 157.602920 12.125562 0.000000
458.556370 157.369930 12.116993 0.000000
458.918240 144.248430 12.210070 0.000000
458.725860 144.124570 12.200419 0.000000
447.331450 141.690000 11.845678 0.000000
448.944460 141.637240 12.061930 0.000000
448.702060 141.597310 12.063740 0.000000
447.812590 141.613850 11.852446 0.000000
447.628390 141.454730 11.866749 0.000000
449.466400 141.085780 11.916886 0.000000
447.933690 141.189070 12.105784 0.000000
447.417180 141.154460 11.894161 0.000000
470.690090 141.015950 12.349956 0.000000
470.201020 140.783840 12.330198 0.000000
449.845790 140.703020 12.184212 0.000000
449.577210 140.714190 12.177344 0.000000
449.217960 140.803970 12.160783 0.000000
470.006740 140.419690 12.328816 0.000000
448.226620 140.384170 12.198206 0.000000
448.038060 140.320770 12.204605 0.000000
447.646450 140.137950 12.224789 0.000000
469.797760 140.063610 12.326815 0.000000
469.841030 139.572860 12.341092 0.000000
468.440730 139.425670 12.275446 0.000000
469.848910 139.091130 12.353695 0.000000
468.214690 139.099240 12.273075 0.000000
446.490140 159.721730 12.353537 0.000000
470.592860 159.556260 12.758022 0.000000
446.893490 159.384370 12.294613 0.000000
470.306150 158.583690 12.718762 0.000000
458.520020 157.598220 12.515169 0.000000
458.559510 157.376680 12.505546 0.000000
458.896790 144.261230 12.606836 0.000000
458.720760 144.126660 12.596813 0.000000
470.587770 141.962070 12.839316 0.000000
470.334530 141.624050 12.831135 0.000000
469.025270 141.337980 12.746758 0.000000
468.355070 141.233800 12.702901 0.000000
448.254330 140.904860 12.360153 0.000000
469.521150 140.205320 12.819399 0.000000
446.278200 139.646730 12.544043 0.000000
447.304200 139.363190 12.441100 0.000000
446.367520 139.570140 12.296636 0.000000
446.160770 139.572770 12.298976 0.000000
448.296570 137.593020 12.516212 0.000000
458.506440 157.593610 12.906889 0.000000
458.562650 157.383480 12.897380 0.000000
458.880100 144.270920 13.006140 0.000000
458.715640 144.128780 12.995958 0.000000
468.866880 141.412200 13.220189 0.000000
469.090550 140.426410 13.282793 0.000000
468.685300 140.192260 13.257303 0.000000
448.378050 139.738400 12.767481 0.000000
446.293180 139.726440 12.787650 0.000000
468.583920 139.797710 13.266689 0.000000
468.262150 139.527540 13.251445 0.000000
447.354460 139.392550 12.823457 0.000000
470.129820 138.932620 12.906592 0.000000
448.974950 138.510820 12.967556 0.000000
448.760680 138.493320 12.830120 0.000000
448.437680 138.484330 12.690320 0.000000
470.246860 138.370730 12.935326 0.000000
448.542110 138.454680 12.971782 0.000000
448.096680 138.262120 12.999849 0.000000
447.005340 138.394000 12.843252 0.000000
447.851070 137.895080 12.767670 0.000000
447.390470 137.861400 12.772511 0.000000
447.586790 137.507660 12.820063 0.000000
470.501560 160.870500 13.304299 0.000000
470.646420 160.478820 13.305140 0.000000
469.374820 140.730060 13.295000 0.000000
447.823000 137.571470 13.108605 0.000000
447.567170 137.336440 13.146030 0.000000
470.614720 141.950670 13.878759 0.000000
469.312040 141.635670 13.747551 0.000000
468.744900 140.603730 13.738672 0.000000
470.399960 140.223590 13.940151 0.000000
469.175750 139.927690 13.822882 0.000000
468.675900 139.745120 13.779517 0.000000
468.499390 139.387940 13.781675 0.000000
470.442990 140.667420 14.452304 0.000000
470.071380 140.385030 14.421309 0.000000
469.245540 139.889210 14.347105 0.000000
469.882200 141.377850 14.852193 0.000000
469.398960 141.159520 14.794020 0.000000
469.007630 140.909240 14.753031 0.000000
469.547700 140.188420 14.886762 0.000000
468.866150 140.092290 14.793250 0.000000
470.131100 138.928530 14.524748 0.000000
469.683780 139.178100 14.984954 0.000000
469.933320 138.548570 15.072134 0.000000
462.153230 146.314680 9.169042 0.000000
459.822940 146.323010 9.143166 0.000000
458.040340 146.345460 9.123995 0.000000
470.253020 146.329930 9.246745 0.000000
465.422820 145.975270 9.190899 0.000000
462.172610 146.027800 9.156555 0.000000
459.807770 145.960860 9.126691 0.000000
457.903780 145.970960 9.118588 0.000000
470.455750 145.872920 9.225482 0.000000
461.973850 145.813100 9.170895 0.000000
464.710970 157.679660 9.544669 0.000000
460.651980 157.434710 9.510285 0.000000
457.812960 157.428850 9.479512 0.000000
455.700530 157.365170 9.454949 0.000000
453.915860 157.353150 9.436171 0.000000
453.791870 157.452870 9.436768 0.000000
464.865720 157.221510 9.550015 0.000000
460.900480 157.127640 9.504613 0.000000
458.031710 157.188520 9.475280 0.000000
455.965640 157.109160 9.450882 0.000000
455.833890 157.238400 9.452945 0.000000
454.445560 156.975780 9.422283 0.000000
454.167790 157.154790 9.432764 0.000000
465.880770 156.702180 9.494559 0.000000
461.643620 156.742100 9.457527 0.000000
458.930600 156.690160 9.416329 0.000000
458.534760 156.855730 9.446987 0.000000
456.826660 156.679350 9.390591 0.000000
456.414890 156.861340 9.422805 0.000000
455.208310 156.646620 9.365338 0.000000
454.864930 156.798660 9.391766 0.000000
454.612730 156.907460 9.410243 0.000000
467.006040 156.321880 9.424205 0.000000
466.453860 156.523990 9.458536 0.000000
462.804960 156.309860 9.371099 0.000000
462.426330 156.468690 9.399020 0.000000
462.027220 156.608180 9.429108 0.000000
460.439450 156.235670 9.280586 0.000000
459.655550 156.411130 9.356105 0.000000
459.358150 156.525710 9.381224 0.000000
458.260380 156.226880 9.250920 0.000000
457.885220 156.265950 9.295061 0.000000
457.271760 156.496370 9.352449 0.000000
456.916200 156.179280 9.180753 0.000000
456.459260 156.230900 9.240049 0.000000
456.046140 156.290420 9.291376 0.000000
455.762700 156.416110 9.317002 0.000000
455.478580 156.532040 9.342660 0.000000
469.048280 156.095080 9.280516 0.000000
468.036160 156.228130 9.351460 0.000000
464.328860 155.882980 9.246284 0.000000
464.227750 156.171220 9.245136 0.000000
463.478940 156.239870 9.311880 0.000000
461.214840 156.008150 9.206632 0.000000
460.973660 156.186160 9.224244 0.000000
458.952700 155.965760 9.180943 0.000000
458.656770 156.185750 9.203696 0.000000
457.214840 155.911960 9.161769 0.000000
468.966740 155.681180 9.296587 0.000000
464.238680 155.540470 9.266681 0.000000
461.290560 155.630460 9.216647 0.000000
459.074280 155.545120 9.192447 0.000000
457.348570 155.554820 9.171879 0.000000
468.840390 155.264080 9.315469 0.000000
464.403690 155.271410 9.260005 0.000000
461.356780 155.252300 9.226590 0.000000
459.179410 155.121870 9.203947 0.000000
457.525210 155.013050 9.187182 0.000000
457.469420 155.194170 9.182218 0.000000
468.840670 154.878340 9.323664 0.000000
464.432040 154.965740 9.266844 0.000000
461.419980 154.876400 9.235329 0.000000
459.248600 154.803410 9.212463 0.000000
457.602110 154.740110 9.194576 0.000000
468.835880 154.494280 9.331624 0.000000
464.407620 154.496440 9.282646 0.000000
461.489750 154.374970 9.246736 0.000000
459.311890 154.485350 9.220304 0.000000
457.692990 154.374270 9.204435 0.000000
468.691410 154.091250 9.349839 0.000000
461.531650 153.999070 9.255054 0.000000
459.386960 154.061370 9.230106 0.000000
457.775390 154.008300 9.213314 0.000000
468.626250 153.706150 9.361206 0.000000
464.494260 153.748340 9.293181 0.000000
461.560850 153.623180 9.263425 0.000000
459.446780 153.636600 9.239743 0.000000
457.845610 153.641190 9.221876 0.000000
464.492340 153.294250 9.302994 0.000000
461.582280 153.248050 9.271549 0.000000
459.491580 153.211610 9.249182 0.000000
457.914370 153.180910 9.232346 0.000000
468.958070 152.994250 9.346466 0.000000
464.482760 152.842390 9.312368 0.000000
461.592070 152.873730 9.279602 0.000000
459.523100 152.787190 9.258176 0.000000
457.967620 152.720570 9.241984 0.000000
468.914580 152.614320 9.354417 0.000000
464.498140 152.545300 9.315665 0.000000
461.636600 152.381270 9.284557 0.000000
459.574830 152.367840 9.261916 0.000000
458.022950 152.356160 9.244852 0.000000
459.611820 152.053340 9.263557 0.000000
458.069980 151.990690 9.246833 0.000000
458.097230 151.715650 9.248240 0.000000
459.606780 149.523760 9.273298 0.000000
458.064420 149.599990 9.256039 0.000000
461.605900 149.056460 9.298605 0.000000
459.611240 149.096280 9.266191 0.000000
458.033540 149.231630 9.253899 0.000000
461.771330 148.782990 9.275229 0.000000
459.668210 148.763120 9.251516 0.000000
458.070770 148.848570 9.238063 0.000000
464.841340 148.337720 9.289446 0.000000
464.741180 148.657440 9.302536 0.000000
461.860960 148.386110 9.258043 0.000000
459.718750 148.425870 9.236507 0.000000
458.103360 148.458920 9.220496 0.000000
469.300540 148.077260 9.335399 0.000000
465.085170 147.989430 9.261507 0.000000
461.940160 147.983890 9.240835 0.000000
459.761290 148.083600 9.221033 0.000000
458.123690 148.064010 9.202400 0.000000
469.634890 147.642460 9.306921 0.000000
464.905150 147.707400 9.274861 0.000000
462.027710 147.438130 9.217662 0.000000
461.984920 147.712590 9.229465 0.000000
459.800780 147.622300 9.200689 0.000000
458.130190 147.664520 9.183981 0.000000
469.809690 147.219800 9.289959 0.000000
465.117400 147.351750 9.248693 0.000000
462.066040 147.161040 9.205717 0.000000
459.823000 147.154860 9.180135 0.000000
458.120090 147.261730 9.165651 0.000000
469.970980 146.791080 9.273355 0.000000
465.200560 147.014240 9.234634 0.000000
462.099980 146.881330 9.193608 0.000000
459.829830 146.800450 9.164411 0.000000
458.093660 146.856220 9.147334 0.000000
465.280060 146.672130 9.220238 0.000000
465.208770 146.362750 9.220279 0.000000
462.128330 146.599400 9.181476 0.000000
459.828460 146.562410 9.153848 0.000000
458.065120 146.550060 9.133310 0.000000
469.075470 145.778430 9.326203 0.000000
468.371700 145.559510 9.374414 0.000000
464.881710 145.796800 9.237236 0.000000
464.185910 145.683520 9.299200 0.000000
463.754330 145.506240 9.334146 0.000000
461.367520 145.753160 9.236687 0.000000
460.977540 145.629550 9.275009 0.000000
460.654240 145.490660 9.304671 0.000000
459.361480 145.777790 9.175114 0.000000
458.926120 145.728350 9.228592 0.000000
458.668300 145.609710 9.254539 0.000000
458.421080 145.492950 9.278672 0.000000
457.445500 145.758190 9.170415 0.000000
457.013670 145.664230 9.225224 0.000000
456.607970 145.468460 9.266388 0.000000
467.740330 145.343580 9.416789 0.000000
463.313600 145.345230 9.369860 0.000000
463.091340 145.117130 9.382777 0.000000
460.160430 145.172180 9.343588 0.000000
457.911070 145.170960 9.320902 0.000000
456.119630 145.132280 9.303448 0.000000
467.888310 144.920460 9.397763 0.000000
460.063050 144.951770 9.342921 0.000000
459.960880 144.733460 9.342328 0.000000
457.727110 144.801650 9.316781 0.000000
455.878480 144.753190 9.298724 0.000000
467.554140 144.637570 9.416048 0.000000
463.009060 144.369860 9.363364 0.000000
459.800660 144.409230 9.341246 0.000000
457.468810 144.354860 9.312933 0.000000
455.674500 144.456590 9.294852 0.000000
455.513150 144.239550 9.291915 0.000000
467.726140 144.196370 9.393780 0.000000
462.904790 143.935810 9.355630 0.000000
459.586880 143.975980 9.337921 0.000000
458.743960 144.063770 9.429478 0.000000
457.185910 143.922710 9.309910 0.000000
455.346310 144.026460 9.288980 0.000000
455.173130 143.818070 9.285959 0.000000
467.713380 143.808560 9.385443 0.000000
462.714360 143.701190 9.362657 0.000000
459.279790 143.456300 9.336160 0.000000
456.945250 143.586350 9.307333 0.000000
454.989290 143.619090 9.284168 0.000000
454.804140 143.420810 9.281220 0.000000
467.910160 143.339140 9.359595 0.000000
462.621800 143.257610 9.351255 0.000000
459.089320 143.147810 9.334167 0.000000
456.627260 143.178220 9.303878 0.000000
454.544830 143.168580 9.278310 0.000000
454.344880 142.984990 9.276026 0.000000
467.531980 143.080340 9.379334 0.000000
462.299410 142.929630 9.363807 0.000000
458.861690 142.864790 9.336462 0.000000
468.207790 142.400070 9.312927 0.000000
462.750000 142.343030 9.297289 0.000000
459.135990 142.364790 9.273999 0.000000
456.525850 142.421830 9.240336 0.000000
456.368930 142.275310 9.241043 0.000000
454.222500 142.409990 9.212606 0.000000
453.913600 142.197890 9.213223 0.000000
467.727780 142.182860 9.339798 0.000000
462.484800 142.146300 9.309647 0.000000
458.972230 142.175020 9.275286 0.000000
458.720980 141.896160 9.277027 0.000000
456.214020 142.127260 9.240817 0.000000
455.962340 141.926240 9.243411 0.000000
455.685940 141.754440 9.250335 0.000000
453.492000 141.987580 9.221499 0.000000
453.066650 141.792710 9.228964 0.000000
467.460110 141.674260 9.342164 0.000000
462.132080 141.656590 9.312950 0.000000
458.360470 141.548630 9.281671 0.000000
455.406370 141.591420 9.257089 0.000000
455.125310 141.434420 9.263523 0.000000
452.724550 141.647380 9.233971 0.000000
452.298920 141.470670 9.237528 0.000000
451.962590 141.325010 9.237175 0.000000
466.793060 141.363880 9.376997 0.000000
461.721980 141.209050 9.320910 0.000000
458.101410 141.280140 9.282086 0.000000
457.959010 141.073390 9.276657 0.000000
454.963620 141.299380 9.261360 0.000000
454.702610 141.121170 9.261378 0.000000
454.445280 140.938480 9.259435 0.000000
451.796020 141.249500 9.235546 0.000000
451.544430 141.139940 9.232660 0.000000
451.122710 140.961440 9.225820 0.000000
466.564670 141.060840 9.381618 0.000000
466.292790 140.783710 9.389486 0.000000
461.645690 140.897290 9.308795 0.000000
457.789640 140.891050 9.275034 0.000000
457.629820 140.698820 9.271180 0.000000
454.274140 140.816020 9.257276 0.000000
454.010650 140.642180 9.254625 0.000000
450.693600 140.799610 9.218743 0.000000
450.344700 140.684360 9.213015 0.000000
449.902500 140.557770 9.205663 0.000000
449.544920 140.469020 9.199724 0.000000
470.511320 140.508740 9.648186 0.000000
461.469480 140.465790 9.296418 0.000000
457.460660 140.515090 9.268272 0.000000
457.287900 140.334470 9.265362 0.000000
453.734590 140.488720 9.254300 0.000000
453.452360 140.347370 9.254528 0.000000
453.070860 140.171330 9.254902 0.000000
449.364690 140.430080 9.196762 0.000000
449.092900 140.377290 9.192159 0.000000
448.728210 140.318020 9.186054 0.000000
448.361240 140.271470 9.179868 0.000000
447.899870 140.234050 9.172383 0.000000
447.436920 140.227620 9.166896 0.000000
447.066680 140.240430 9.162936 0.000000
446.697020 140.264790 9.158694 0.000000
446.328310 140.300580 9.154155 0.000000
445.960850 140.348100 9.149380 0.000000
466.346650 140.112630 9.360311 0.000000
461.238530 140.070080 9.289263 0.000000
457.021180 140.070500 9.261082 0.000000
456.747220 139.813520 9.256861 0.000000
452.687900 140.001140 9.253890 0.000000
452.312260 139.815830 9.248191 0.000000
461.076510 139.810390 9.284584 0.000000
460.909760 139.552890 9.279811 0.000000
456.551240 139.657780 9.255763 0.000000
456.241420 139.445130 9.256155 0.000000
451.930820 139.641370 9.242019 0.000000
451.543060 139.479660 9.235648 0.000000
451.149200 139.331880 9.229224 0.000000
466.166200 139.111070 9.331029 0.000000
460.648590 139.172820 9.272695 0.000000
455.927030 139.240300 9.256497 0.000000
455.607120 139.045350 9.256782 0.000000
450.745970 139.212270 9.224889 0.000000
450.334660 139.123570 9.222986 0.000000
449.921330 139.047940 9.220776 0.000000
449.506350 138.985260 9.218240 0.000000
449.090060 138.935580 9.215390 0.000000
448.672820 138.898700 9.212198 0.000000
448.254940 138.874880 9.208703 0.000000
447.836790 138.863830 9.204870 0.000000
447.523160 138.863540 9.201788 0.000000
447.209750 138.871350 9.198516 0.000000
446.794250 138.919190 9.197918 0.000000
446.275790 138.974470 9.193437 0.000000
445.960270 138.973020 9.183683 0.000000
465.838500 138.867140 9.340933 0.000000
460.460660 138.720170 9.254277 0.000000
455.173000 138.799990 9.257257 0.000000
454.717040 138.596150 9.261181 0.000000
460.232970 138.510930 9.254767 0.000000
454.318330 138.291990 9.248705 0.000000
459.979860 138.108670 9.242015 0.000000
459.614380 137.817830 9.243654 0.000000
453.921970 137.973180 9.232190 0.000000
453.317260 137.792070 9.238251 0.000000
452.466370 160.988940 9.524026 0.000000
468.189450 160.787540 9.684584 0.000000
461.449220 160.832960 9.612888 0.000000
457.107760 160.631290 9.564274 0.000000
456.807800 160.833590 9.566519 0.000000
453.464840 160.553190 9.524847 0.000000
453.194820 160.679810 9.524894 0.000000
452.831910 160.839390 9.524693 0.000000
449.229800 160.485470 9.466862 0.000000
448.891660 160.532710 9.463588 0.000000
448.467410 160.577270 9.459107 0.000000
448.041990 160.607450 9.454221 0.000000
447.615660 160.621230 9.448865 0.000000
447.188870 160.620590 9.443111 0.000000
446.847380 160.608440 9.438206 0.000000
446.420780 160.578890 9.431667 0.000000
445.994750 160.534810 9.424744 0.000000
468.213170 160.358670 9.697252 0.000000
461.924440 160.432630 9.605745 0.000000
461.588200 160.566210 9.619125 0.000000
457.612210 160.287050 9.558373 0.000000
457.313050 160.498930 9.561611 0.000000
454.095340 160.245190 9.521985 0.000000
453.736390 160.425460 9.523704 0.000000
450.815340 160.127900 9.478429 0.000000
450.484860 160.220840 9.476506 0.000000
450.069210 160.324620 9.473768 0.000000
449.650600 160.412080 9.470542 0.000000
468.396000 160.005720 9.699383 0.000000
462.387080 160.010380 9.598690 0.000000
462.159790 160.225770 9.601976 0.000000
458.007690 159.993940 9.553590 0.000000
454.803410 159.851930 9.517324 0.000000
454.451140 160.054110 9.519850 0.000000
451.953920 159.726650 9.482107 0.000000
451.631650 159.852720 9.481400 0.000000
451.225430 159.997960 9.480167 0.000000
450.979770 160.077670 9.479217 0.000000
468.541290 159.636120 9.703401 0.000000
462.838070 159.567700 9.591541 0.000000
458.686710 159.448120 9.544249 0.000000
458.397370 159.686680 9.548453 0.000000
455.581360 159.356090 9.510303 0.000000
455.237430 159.582120 9.513736 0.000000
452.745940 159.367660 9.482343 0.000000
452.431300 159.517790 9.482443 0.000000
452.114040 159.659990 9.482264 0.000000
449.874330 159.283200 9.442571 0.000000
449.650850 159.333420 9.441078 0.000000
449.276730 159.406780 9.438108 0.000000
448.825160 159.477140 9.433988 0.000000
448.447110 159.521060 9.430083 0.000000
448.067690 159.549790 9.425793 0.000000
447.611360 159.566480 9.420101 0.000000
447.230650 159.565220 9.414970 0.000000
446.849950 159.548970 9.409417 0.000000
446.469600 159.519640 9.403490 0.000000
446.090150 159.475010 9.397201 0.000000
469.159390 159.455170 9.678134 0.000000
463.280610 159.107010 9.583925 0.000000
463.059970 159.339360 9.587835 0.000000
458.970890 159.199870 9.539952 0.000000
456.002900 159.054640 9.505678 0.000000
455.747310 159.234070 9.509190 0.000000
453.526310 158.961980 9.478023 0.000000
453.293670 159.088900 9.479696 0.000000
452.981900 159.251750 9.481313 0.000000
450.902590 158.980610 9.447493 0.000000
450.464940 159.123210 9.445793 0.000000
450.096710 159.227420 9.443897 0.000000
469.330140 159.086090 9.679958 0.000000
463.591490 158.916670 9.571684 0.000000
459.339020 158.853680 9.534523 0.000000
456.499450 158.670720 9.499202 0.000000
456.252870 158.866320 9.502548 0.000000
454.058410 158.640270 9.473906 0.000000
453.755100 158.826740 9.476541 0.000000
451.971440 158.537830 9.449021 0.000000
451.619540 158.698840 9.448940 0.000000
451.263240 158.846970 9.448466 0.000000
469.650270 158.552230 9.678023 0.000000
463.755280 158.475070 9.579398 0.000000
459.699740 158.493770 9.528688 0.000000
456.898500 158.326510 9.493937 0.000000
454.721680 158.180690 9.467632 0.000000
454.431060 158.392170 9.470245 0.000000
452.732790 158.143110 9.445877 0.000000
452.457670 158.292250 9.447555 0.000000
452.180150 158.434600 9.448873 0.000000
470.007450 158.024190 9.673129 0.000000
464.352970 157.878910 9.562168 0.000000
464.143070 158.133560 9.566800 0.000000
460.312740 157.831710 9.517411 0.000000
460.140500 158.025420 9.520742 0.000000
457.287020 157.964840 9.488351 0.000000
455.152040 157.848250 9.462149 0.000000
454.940430 158.019230 9.464488 0.000000
453.271390 157.816240 9.441555 0.000000
452.936490 158.024600 9.444408 0.000000
460.483920 157.635160 9.513853 0.000000
457.590450 157.662780 9.483382 0.000000
455.565490 157.489460 9.456891 0.000000
455.360200 157.671280 9.459599 0.000000
453.599490 157.594020 9.438511 0.000000
458.525540 157.360660 9.694718 0.000000
458.739010 144.066010 9.718860 0.000000
446.686800 138.966550 9.731231 0.000000
446.321690 138.961320 9.591230 0.000000
447.444000 160.101970 10.144506 0.000000
458.526120 157.365600 10.114951 0.000000
458.732880 144.068620 10.150059 0.000000
446.684270 138.973660 9.994091 0.000000
446.259250 138.907930 9.980456 0.000000
447.439240 160.303850 10.333571 0.000000
447.234410 160.216160 10.440967 0.000000
458.526860 157.370640 10.533668 0.000000
458.954930 144.202040 10.575625 0.000000
458.727420 144.070850 10.579228 0.000000
470.198180 140.169800 10.749058 0.000000
446.683200 139.020630 10.387600 0.000000
446.243290 138.817990 10.502959 0.000000
447.084380 160.719730 10.732103 0.000000
446.930330 160.432240 10.737664 0.000000
446.810910 159.869020 10.553031 0.000000
446.638030 159.988240 10.745391 0.000000
446.363070 158.600300 10.948642 0.000000
446.485810 158.243210 10.871572 0.000000
446.189880 158.053910 10.788980 0.000000
458.527400 157.373990 10.812261 0.000000
458.936460 144.212160 10.863866 0.000000
458.723750 144.072300 10.864493 0.000000
470.347350 140.098850 11.297233 0.000000
470.160890 139.700390 11.296826 0.000000
446.783780 139.036130 10.778181 0.000000
469.554570 139.027530 11.292861 0.000000
446.232670 138.749150 10.765919 0.000000
469.698330 138.447400 11.296944 0.000000
446.001950 159.035230 10.942729 0.000000
446.203220 158.722350 10.946324 0.000000
458.528200 157.379040 11.230121 0.000000
458.909420 144.226930 11.294291 0.000000
458.718320 144.074520 11.291936 0.000000
448.272310 142.165340 11.420529 0.000000
469.821840 140.818020 11.288261 0.000000
446.286040 139.291640 11.283562 0.000000
469.934910 139.321950 11.295891 0.000000
446.836610 139.135710 11.164332 0.000000
446.372770 139.131090 11.159318 0.000000
446.647400 138.681690 11.302756 0.000000
446.124050 158.541180 11.545419 0.000000
445.761050 158.758180 11.472549 0.000000
446.812410 158.164380 11.598570 0.000000
446.434510 158.310230 11.527719 0.000000
458.529020 157.384110 11.648622 0.000000
458.884120 144.240690 11.723607 0.000000
458.712830 144.076740 11.719606 0.000000
446.699250 143.092100 11.530044 0.000000
446.434480 143.162890 11.524297 0.000000
446.932160 142.581650 11.748778 0.000000
446.476440 142.440460 11.760544 0.000000
446.279080 142.613480 11.745025 0.000000
448.895510 142.099010 11.627760 0.000000
448.653290 142.168270 11.618052 0.000000
448.426510 142.131120 11.616373 0.000000
446.689210 142.340100 11.770013 0.000000
445.999790 142.299640 11.774312 0.000000
449.035060 141.958450 11.740353 0.000000
448.770570 141.853840 11.841531 0.000000
448.210540 141.936280 11.725364 0.000000
447.899990 141.885990 11.625143 0.000000
447.668270 141.670320 11.637169 0.000000
470.518520 141.453720 11.834997 0.000000
470.049380 141.183870 11.823697 0.000000
468.719970 141.314010 11.780473 0.000000
468.483550 140.527010 11.783816 0.000000
447.093230 139.323750 11.795056 0.000000
446.290190 139.356700 11.534507 0.000000
468.722930 139.473510 11.806166 0.000000
446.886200 139.179410 11.547531 0.000000
446.479860 139.215960 11.542526 0.000000
470.426820 139.067720 11.864111 0.000000
469.625060 138.487290 11.848132 0.000000
447.936430 138.150510 11.608096 0.000000
448.284270 137.908050 11.624307 0.000000
446.572850 137.726900 11.614369 0.000000
447.014160 137.266920 11.640257 0.000000
446.037690 159.614320 12.110923 0.000000
446.721190 159.024120 12.032005 0.000000
446.275570 159.105800 11.860009 0.000000
446.865300 158.631580 11.896605 0.000000
446.464480 158.801210 11.827466 0.000000
447.120300 158.358030 11.781552 0.000000
446.916720 158.433320 11.788686 0.000000
458.529820 157.389190 12.068928 0.000000
458.867520 144.249360 12.153489 0.000000
458.707670 144.078750 12.148625 0.000000
449.257080 141.839160 11.855186 0.000000
448.970950 141.577770 12.078263 0.000000
448.720640 141.598770 12.069298 0.000000
448.166990 141.334630 12.087160 0.000000
447.747560 141.575320 11.848540 0.000000
447.504000 141.342580 11.866945 0.000000
449.917820 141.155670 11.936301 0.000000
449.573030 141.102550 11.930519 0.000000
447.839720 141.137020 12.104227 0.000000
447.331600 141.064970 11.890677 0.000000
470.176940 141.128740 12.366655 0.000000
469.241060 141.078810 12.319786 0.000000
449.845250 140.674680 12.207129 0.000000
449.467250 140.713520 12.190102 0.000000
449.273220 140.779590 12.176727 0.000000
448.576930 140.576570 12.181517 0.000000
448.047520 140.324890 12.199841 0.000000
447.681550 140.160810 12.213169 0.000000
469.897670 140.309830 12.370564 0.000000
469.440550 140.054290 12.353365 0.000000
468.538640 140.039550 12.308378 0.000000
468.580960 139.548860 12.322559 0.000000
447.090730 139.332820 12.047512 0.000000
468.195370 139.287080 12.310062 0.000000
446.843110 138.509780 11.985882 0.000000
447.136200 159.290650 12.254379 0.000000
446.830170 159.397480 12.270163 0.000000
458.530610 157.394290 12.491483 0.000000
458.850920 144.258070 12.584488 0.000000
458.703830 144.079970 12.579716 0.000000
469.033570 141.171880 12.823372 0.000000
448.190370 140.933090 12.353438 0.000000
468.447570 140.993380 12.787523 0.000000
448.555820 140.739650 12.614286 0.000000
448.374080 140.815400 12.373262 0.000000
447.288820 139.381530 12.424706 0.000000
446.307250 139.604220 12.393301 0.000000
445.995090 138.713780 12.369522 0.000000
447.051240 138.431700 12.403843 0.000000
446.831820 138.395980 12.406588 0.000000
448.730560 136.488540 12.648302 0.000000
470.571590 159.583160 12.831613 0.000000
458.534270 157.402690 13.061138 0.000000
458.531770 157.398090 12.775263 0.000000
458.839780 144.263900 12.873035 0.000000
458.701450 144.080670 12.868938 0.000000
470.651030 142.556840 12.900150 0.000000
470.280490 141.550750 12.901155 0.000000
469.438260 140.054700 12.887963 0.000000
448.455020 139.790130 12.761433 0.000000
446.216280 139.711490 12.754860 0.000000
448.272640 139.605090 12.786512 0.000000
447.284390 139.378690 12.807926 0.000000
470.425350 139.066700 12.990277 0.000000
469.937840 138.818570 12.965118 0.000000
448.994540 138.509580 12.977586 0.000000
448.778870 138.515590 12.694222 0.000000
445.876130 138.672000 12.784638 0.000000
447.045440 138.405440 12.821633 0.000000
448.155580 137.946460 12.758344 0.000000
447.817260 137.920820 12.756529 0.000000
447.476900 137.559980 12.801315 0.000000
470.554930 160.989650 13.411780 0.000000
470.645810 160.551650 13.406837 0.000000
458.828610 144.269730 13.162837 0.000000
458.700160 144.080720 13.160077 0.000000
470.183930 142.048420 13.413860 0.000000
469.433870 141.447430 13.367092 0.000000
468.693850 141.324540 13.304285 0.000000
469.236880 140.620420 13.382415 0.000000
468.772800 140.382320 13.350647 0.000000
468.937190 139.832610 13.389368 0.000000
468.425660 139.630460 13.353060 0.000000
448.161590 137.747310 13.077916 0.000000
447.939480 137.502460 13.112803 0.000000
447.589480 137.344620 13.132984 0.000000
470.625370 141.876650 14.007713 0.000000
469.860440 141.263790 13.949504 0.000000
468.596220 140.468730 13.849213 0.000000
468.665620 139.737790 13.896379 0.000000
469.594300 159.225620 14.315487 0.000000
470.545500 141.441730 14.569729 0.000000
470.584990 140.952100 14.602028 0.000000
469.950900 140.282410 14.557763 0.000000
469.896270 139.826630 14.578712 0.000000
469.815370 139.378390 14.596792 0.000000
470.047300 138.756700 14.667289 0.000000
470.738710 141.362470 15.159424 0.000000
470.512020 140.983110 15.148875 0.000000
469.191130 141.099170 14.939839 0.000000
470.361850 140.087910 15.186583 0.000000
469.135710 140.201200 14.994386 0.000000
469.596980 139.490080 15.115494 0.000000
469.963960 138.800480 15.222164 0.000000
468.855590 146.362500 9.230898 0.000000
464.086330 146.003720 9.175285 0.000000
460.874690 146.049850 9.140800 0.000000
458.531490 145.979720 9.111026 0.000000
456.656220 145.980320 9.100500 0.000000
469.096220 145.900800 9.206162 0.000000
460.723570 145.820210 9.149023 0.000000
463.473080 157.663310 9.530887 0.000000
459.434780 157.425050 9.496550 0.000000
456.605620 157.424210 9.465807 0.000000
454.429810 157.426500 9.442206 0.000000
452.713680 157.354950 9.422413 0.000000
452.589360 157.454740 9.423192 0.000000
463.525180 157.339220 9.538517 0.000000
459.681210 157.117190 9.490672 0.000000
456.822570 157.182620 9.461502 0.000000
454.760770 157.106430 9.437070 0.000000
454.629760 157.236420 9.439172 0.000000
453.167690 157.015870 9.412304 0.000000
452.903470 157.206940 9.419674 0.000000
470.660520 156.783890 9.583425 0.000000
469.986480 157.057980 9.613653 0.000000
464.673370 156.697810 9.476656 0.000000
464.119320 156.864270 9.511591 0.000000
460.432710 156.735690 9.441911 0.000000
460.080410 156.871770 9.467213 0.000000
457.727780 156.687410 9.400764 0.000000
457.336120 156.855440 9.431171 0.000000
455.626500 156.678880 9.375204 0.000000
455.217250 156.863100 9.407293 0.000000
454.009920 156.648700 9.349804 0.000000
453.666750 156.801650 9.376401 0.000000
453.413850 156.910430 9.395193 0.000000
465.797240 156.317310 9.405489 0.000000
465.251070 156.521120 9.439800 0.000000
461.594240 156.303770 9.354472 0.000000
461.212190 156.461210 9.383099 0.000000
460.814670 156.601200 9.413354 0.000000
459.243650 156.235400 9.262955 0.000000
458.448270 156.405990 9.340549 0.000000
458.151180 156.520740 9.365873 0.000000
457.460170 156.185760 9.186502 0.000000
457.063840 156.227110 9.233929 0.000000
456.688420 156.266250 9.278305 0.000000
456.067600 156.493070 9.337395 0.000000
455.718440 156.179630 9.164066 0.000000
455.261410 156.231510 9.223618 0.000000
454.844600 156.289030 9.275892 0.000000
454.559360 156.413860 9.302102 0.000000
454.275570 156.530290 9.327910 0.000000
467.783330 156.077350 9.265086 0.000000
466.851780 156.230260 9.330192 0.000000
463.054470 156.017590 9.229453 0.000000
462.282840 156.238950 9.293310 0.000000
459.990660 155.996750 9.192156 0.000000
459.777710 156.185680 9.206347 0.000000
457.737820 155.957110 9.166333 0.000000
456.005070 155.905360 9.147030 0.000000
467.697940 155.663470 9.281056 0.000000
462.985530 155.522720 9.252990 0.000000
460.063510 155.618380 9.202106 0.000000
457.856750 155.535450 9.177769 0.000000
456.136780 155.547100 9.157099 0.000000
467.568570 155.246670 9.299783 0.000000
463.147830 155.253750 9.246216 0.000000
460.126920 155.239690 9.211978 0.000000
457.959080 155.111340 9.189212 0.000000
456.310390 155.003970 9.172336 0.000000
456.255680 155.185500 9.167393 0.000000
467.564910 154.861240 9.307874 0.000000
463.172610 154.948000 9.253073 0.000000
460.181640 154.861800 9.221365 0.000000
458.026250 154.792370 9.197674 0.000000
456.385800 154.730480 9.179689 0.000000
467.556240 154.477620 9.315727 0.000000
463.193970 154.643190 9.259656 0.000000
463.095090 154.315080 9.277836 0.000000
460.246800 154.360120 9.232773 0.000000
458.083800 154.472820 9.206024 0.000000
456.474430 154.364000 9.189524 0.000000
467.408810 154.075240 9.333806 0.000000
460.285920 153.984420 9.241013 0.000000
458.154330 154.048160 9.216012 0.000000
456.550810 153.996380 9.199039 0.000000
467.340450 153.690920 9.345041 0.000000
463.224300 153.732120 9.279114 0.000000
460.312350 153.608870 9.249303 0.000000
458.211400 153.623470 9.225570 0.000000
456.618320 153.628970 9.207645 0.000000
463.219270 153.279110 9.288748 0.000000
460.331090 153.234210 9.257342 0.000000
458.253480 153.198760 9.234924 0.000000
456.684480 153.168780 9.218031 0.000000
467.664700 152.980960 9.329965 0.000000
463.205440 152.828320 9.298060 0.000000
460.339170 152.860690 9.265200 0.000000
458.283200 152.774960 9.243714 0.000000
456.747680 152.617540 9.228708 0.000000
456.724060 152.800220 9.226232 0.000000
467.621520 152.602450 9.337503 0.000000
463.220830 152.532380 9.301031 0.000000
460.381320 152.369400 9.269893 0.000000
458.333070 152.356370 9.247251 0.000000
456.789790 152.344970 9.230156 0.000000
458.368100 152.042450 9.248824 0.000000
456.834870 151.980060 9.232060 0.000000
456.860690 151.705510 9.233408 0.000000
458.348850 149.521190 9.258044 0.000000
456.817690 149.596100 9.240793 0.000000
460.427860 149.045120 9.271193 0.000000
458.351870 149.095610 9.250738 0.000000
456.790410 149.135350 9.235529 0.000000
456.781160 149.322970 9.241456 0.000000
463.434940 148.663300 9.286656 0.000000
460.491390 148.785900 9.259840 0.000000
458.423770 148.653050 9.231102 0.000000
458.389770 148.875260 9.240947 0.000000
456.821560 148.847750 9.222534 0.000000
463.532200 148.345750 9.273499 0.000000
460.578550 148.391370 9.242548 0.000000
458.469060 148.315640 9.215879 0.000000
456.851870 148.460070 9.204992 0.000000
467.910100 148.095090 9.321115 0.000000
463.769530 148.000400 9.245760 0.000000
460.657560 147.991200 9.224959 0.000000
458.506130 147.974790 9.200554 0.000000
456.870090 148.067260 9.186911 0.000000
468.235020 147.665010 9.292788 0.000000
463.589360 147.720230 9.258960 0.000000
460.720000 147.585540 9.207747 0.000000
458.534030 147.629520 9.184899 0.000000
456.874480 147.670040 9.168514 0.000000
468.402160 147.247070 9.275935 0.000000
463.796140 147.367660 9.232904 0.000000
460.777160 147.174030 9.189825 0.000000
458.554320 147.164840 9.164233 0.000000
456.864530 147.269010 9.149854 0.000000
468.567540 146.821210 9.258535 0.000000
463.914180 146.863340 9.211620 0.000000
460.808260 146.896590 9.177813 0.000000
458.559050 146.812820 9.148535 0.000000
456.837400 146.865570 9.131362 0.000000
463.878140 146.387270 9.204518 0.000000
460.845700 146.475680 9.159510 0.000000
458.553040 146.457610 9.132644 0.000000
456.794800 146.459730 9.112708 0.000000
456.210450 145.762860 9.150159 0.000000
467.800020 145.788760 9.300910 0.000000
467.063690 145.579100 9.351816 0.000000
463.626620 145.803760 9.213446 0.000000
462.879670 145.706950 9.280909 0.000000
462.468690 145.524600 9.313808 0.000000
460.122250 145.758970 9.214435 0.000000
459.696380 145.649870 9.257480 0.000000
459.389310 145.505710 9.285116 0.000000
458.120670 145.783310 9.154096 0.000000
457.686280 145.733920 9.207624 0.000000
457.404330 145.627200 9.237417 0.000000
457.031280 145.458300 9.274030 0.000000
455.769040 145.674910 9.206961 0.000000
455.364870 145.479610 9.247962 0.000000
466.385990 145.377410 9.397963 0.000000
461.862640 145.271100 9.361693 0.000000
458.864140 145.203490 9.328200 0.000000
456.587130 145.108730 9.305505 0.000000
454.903080 145.235170 9.289998 0.000000
454.810490 145.082690 9.288137 0.000000
466.522090 144.960570 9.379431 0.000000
458.725950 144.871690 9.325743 0.000000
456.495090 144.925720 9.303430 0.000000
456.350460 144.654170 9.300240 0.000000
454.616240 144.782850 9.284294 0.000000
466.167480 144.686920 9.399280 0.000000
461.764920 144.534420 9.344181 0.000000
461.549010 144.311080 9.354909 0.000000
458.519290 144.439220 9.323585 0.000000
456.146580 144.297550 9.295902 0.000000
454.305760 144.345090 9.278409 0.000000
466.303130 144.261200 9.379473 0.000000
461.437010 144.045200 9.354057 0.000000
458.297910 144.013690 9.321179 0.000000
455.926760 143.949980 9.291970 0.000000
454.086030 144.061950 9.274460 0.000000
453.913600 143.855260 9.271414 0.000000
466.241550 143.894620 9.374785 0.000000
461.307890 143.626530 9.347393 0.000000
458.121700 143.699830 9.319385 0.000000
458.000150 143.492740 9.318006 0.000000
455.748470 143.698150 9.289939 0.000000
455.562410 143.451800 9.287888 0.000000
453.732300 143.656280 9.269219 0.000000
453.552090 143.455460 9.265296 0.000000
