# .PCD v0.7 - Point Cloud Data file format
VERSION 0.7
FIELDS x y z intensity
SIZE 4 4 4 4
TYPE F F F F
COUNT 1 1 1 1
WIDTH 1166
HEIGHT 1
VIEWPOINT 0 0 0 1 0 0 0
POINTS 1166
DATA ascii
454.793760 260.687410 13.116896 0.000000
460.560000 260.511290 13.191322 0.000000
460.820190 260.322510 13.200113 0.000000
465.431880 260.328400 13.269776 0.000000
465.617280 260.141050 13.264059 0.000000
454.509220 260.978300 13.108047 0.000000
460.526000 260.893860 13.219664 0.000000
465.076320 260.715450 13.282267 0.000000
465.251710 260.520140 13.275892 0.000000
469.839540 260.479370 13.338243 0.000000
470.143740 260.345860 13.336481 0.000000
470.556370 260.182890 13.334944 0.000000
464.905210 260.913480 13.288760 0.000000
468.959080 260.937710 13.346401 0.000000
469.344300 260.723790 13.342215 0.000000
469.639370 260.573270 13.339566 0.000000
469.226140 252.523680 13.847161 0.000000
468.886660 259.305180 14.027469 0.000000
469.149230 259.301760 13.885319 0.000000
468.929050 259.404480 13.730681 0.000000
468.714110 250.467740 14.172388 0.000000
468.676700 251.859830 14.246000 0.000000
468.567660 252.829320 14.295038 0.000000
470.256740 253.984130 14.396189 0.000000
470.518100 256.583130 14.187779 0.000000
468.841130 259.198030 14.326947 0.000000
469.088410 259.152370 14.332714 0.000000
469.411830 251.776250 14.719739 0.000000
470.614690 252.247800 14.755594 0.000000
469.692780 254.448040 14.811362 0.000000
470.271090 255.517380 14.479095 0.000000
468.772980 259.034610 14.626876 0.000000
469.045960 259.047910 14.635389 0.000000
467.647740 251.046050 15.149570 0.000000
469.898160 252.321660 15.192452 0.000000
469.836910 253.653930 15.206577 0.000000
469.592380 255.323040 14.837833 0.000000
469.285680 255.368070 14.833607 0.000000
469.916930 255.370640 15.226797 0.000000
469.440700 255.925420 15.226948 0.000000
468.914060 258.889680 15.096218 0.000000
467.218990 250.982010 15.143403 0.000000
469.695740 255.725800 15.227959 0.000000
470.747920 256.374240 15.604503 0.000000
470.325990 257.038390 15.594496 0.000000
464.529690 258.074070 15.563431 0.000000
464.947880 258.168580 15.563062 0.000000
468.776790 258.722990 15.568826 0.000000
466.857060 251.146670 15.629311 0.000000
467.274630 251.168030 15.631540 0.000000
467.656010 251.088130 15.634671 0.000000
468.476590 251.158740 15.639507 0.000000
469.412380 251.819520 15.639894 0.000000
468.466220 252.517730 15.626049 0.000000
470.553100 253.858660 15.628532 0.000000
470.182800 255.199220 15.995599 0.000000
464.586400 258.161320 15.935564 0.000000
465.290990 258.166020 15.927699 0.000000
465.599430 258.114410 15.925953 0.000000
467.705690 257.884250 15.916713 0.000000
467.437960 258.595030 15.898038 0.000000
468.291720 258.562530 15.894425 0.000000
467.778930 258.696620 15.893121 0.000000
468.607790 258.649440 15.890651 0.000000
468.876560 258.631990 15.890304 0.000000
469.496830 258.863680 15.882056 0.000000
469.803960 259.006160 15.877422 0.000000
466.570770 251.515440 16.107580 0.000000
468.077120 252.487790 16.076571 0.000000
469.453830 253.532230 16.045834 0.000000
468.858580 253.908890 16.033272 0.000000
469.972230 255.639530 16.357225 0.000000
470.460480 256.425660 16.314726 0.000000
469.976470 256.819950 16.295525 0.000000
465.000820 258.256560 16.294903 0.000000
465.596650 258.113430 16.288214 0.000000
465.893400 258.049590 16.285046 0.000000
467.674740 258.477660 16.233829 0.000000
467.962370 258.468990 16.230124 0.000000
468.844760 258.555880 16.215023 0.000000
468.447660 258.937560 16.200748 0.000000
468.634400 258.722140 16.209097 0.000000
469.235320 258.878630 16.194870 0.000000
469.496280 258.870150 16.192938 0.000000
469.825440 259.081180 16.179564 0.000000
470.122860 259.224240 16.170177 0.000000
467.892180 250.536190 16.631800 0.000000
470.130830 256.293580 16.684530 0.000000
469.703310 256.894840 16.644636 0.000000
469.926240 256.644470 16.660595 0.000000
466.747830 257.185390 16.678989 0.000000
467.087590 257.219760 16.668245 0.000000
467.505460 257.445100 16.643057 0.000000
470.702390 257.494290 16.591558 0.000000
466.452480 258.471530 16.601679 0.000000
467.106750 258.540560 16.578680 0.000000
465.820530 259.022890 16.586193 0.000000
468.796630 258.796690 16.522137 0.000000
469.240840 258.901250 16.506659 0.000000
469.504460 258.902040 16.502300 0.000000
465.558440 259.369600 16.573635 0.000000
468.582730 259.262910 16.493889 0.000000
469.275600 259.004580 16.810301 0.000000
469.736390 259.018710 16.644733 0.000000
470.091490 259.135010 16.628853 0.000000
465.028380 259.791900 16.567541 0.000000
466.492950 259.613590 16.526672 0.000000
466.723570 259.496060 16.526949 0.000000
468.531740 259.763240 16.762659 0.000000
470.398410 259.338710 16.755754 0.000000
468.836180 259.867610 16.744001 0.000000
470.116270 254.961000 17.174807 0.000000
466.081820 257.187350 17.073353 0.000000
466.741360 257.177580 17.049946 0.000000
464.353120 257.823120 17.095953 0.000000
470.148560 257.490050 16.934101 0.000000
463.569490 258.301360 17.098349 0.000000
463.971830 258.076020 17.094961 0.000000
468.599520 257.929290 16.925682 0.000000
468.570860 258.577580 16.867697 0.000000
468.784520 258.420040 17.204897 0.000000
466.590240 258.724850 16.922663 0.000000
468.355070 258.736970 17.185381 0.000000
469.310940 259.109410 17.110258 0.000000
469.821500 259.094850 17.096661 0.000000
466.411800 259.731750 16.846285 0.000000
466.780940 259.601040 17.002779 0.000000
470.722440 259.649810 17.010878 0.000000
466.164730 260.063140 17.152954 0.000000
468.154140 260.087250 17.047182 0.000000
468.570430 259.855680 17.054459 0.000000
468.540370 260.355040 17.001526 0.000000
469.268370 260.317930 17.120617 0.000000
469.553220 260.433930 17.236488 0.000000
468.518100 260.839630 17.233822 0.000000
468.774960 260.863950 17.217066 0.000000
469.069580 260.984410 17.186615 0.000000
470.448240 261.036100 17.121649 0.000000
470.035220 249.079530 17.221714 0.000000
469.891270 255.359280 17.525747 0.000000
465.735080 257.182130 17.469336 0.000000
464.359830 257.836060 17.479986 0.000000
465.874050 258.587340 17.317606 0.000000
469.154020 258.306580 17.535618 0.000000
470.105380 258.334960 17.499454 0.000000
465.827390 259.040250 17.274473 0.000000
466.011660 259.829530 17.515369 0.000000
466.436920 259.529910 17.521980 0.000000
465.902250 260.131710 17.487858 0.000000
467.561610 259.986570 17.395445 0.000000
468.963320 260.179050 17.296268 0.000000
467.387540 260.659550 17.323183 0.000000
467.675020 260.694550 17.300871 0.000000
463.724060 257.998380 17.896446 0.000000
464.015290 257.877010 17.888081 0.000000
465.688050 258.819920 17.657509 0.000000
466.651340 250.611270 18.151031 0.000000
455.405700 236.589710 12.142910 0.000000
453.719180 237.948750 12.154995 0.000000
454.550780 237.935120 12.193819 0.000000
455.351260 237.898730 12.228848 0.000000
452.910100 239.282850 12.202469 0.000000
453.691070 239.186860 12.235022 0.000000
451.124300 240.415500 12.182637 0.000000
451.963350 240.359940 12.223156 0.000000
452.821660 240.358440 12.267311 0.000000
451.150730 241.570740 12.256121 0.000000
450.311520 242.704620 12.279721 0.000000
451.190310 242.691770 12.327397 0.000000
449.443760 243.776110 12.294823 0.000000
450.322170 243.739000 12.342569 0.000000
449.385250 244.694560 12.345307 0.000000
448.462100 245.659620 12.346336 0.000000
449.353940 245.609500 12.396402 0.000000
468.121490 244.901610 12.602411 0.000000
469.134700 244.862990 12.634321 0.000000
469.632170 244.828480 12.647370 0.000000
470.131840 244.817600 12.662020 0.000000
470.627780 244.804260 12.675568 0.000000
448.386540 246.502940 12.389200 0.000000
466.334960 245.798770 12.616423 0.000000
467.854980 245.735290 12.671661 0.000000
448.270110 247.284770 12.425405 0.000000
464.562710 246.646500 12.614370 0.000000
465.082550 246.620680 12.636656 0.000000
465.560180 246.506350 12.648111 0.000000
466.105440 246.576540 12.678910 0.000000
447.917270 247.839970 12.433911 0.000000
447.564450 248.390690 12.441439 0.000000
463.853330 247.425510 12.649713 0.000000
464.377200 247.409730 12.674580 0.000000
448.130490 249.684520 12.545502 0.000000
462.030610 249.067490 12.695364 0.000000
462.566710 249.053620 12.724695 0.000000
461.389710 249.814320 12.721354 0.000000
461.925660 249.792430 12.751415 0.000000
460.743930 250.519880 12.740698 0.000000
461.280030 250.488330 12.771373 0.000000
447.918980 251.849520 12.642277 0.000000
460.587340 251.093140 12.778008 0.000000
447.437650 252.250320 12.630226 0.000000
459.963100 251.776340 12.792657 0.000000
460.507450 251.746860 12.826119 0.000000
459.848390 252.356110 12.831136 0.000000
448.011350 253.372380 12.722563 0.000000
459.144870 252.907520 12.825833 0.000000
459.716670 252.894820 12.864534 0.000000
447.503880 253.743550 12.705973 0.000000
447.059840 254.163650 12.695280 0.000000
458.841310 253.894090 12.879409 0.000000
459.070890 253.494550 12.865635 0.000000
469.441130 253.367780 13.013762 0.000000
470.040010 252.940090 12.992167 0.000000
470.407410 252.943650 13.008593 0.000000
458.615080 254.290270 12.892502 0.000000
468.738190 253.480590 12.991525 0.000000
469.127380 253.525420 13.016417 0.000000
469.826170 253.426480 13.038706 0.000000
447.636870 255.205960 12.782077 0.000000
468.361540 253.948320 13.024274 0.000000
458.478820 254.770370 12.917751 0.000000
467.256620 254.442210 13.015690 0.000000
467.625490 254.415880 13.034801 0.000000
467.997530 254.408140 13.055495 0.000000
458.289370 255.187060 12.933750 0.000000
467.059540 254.818500 13.044696 0.000000
448.228940 256.215240 12.867765 0.000000
457.818080 255.915440 12.949247 0.000000
458.081940 255.579500 12.945987 0.000000
466.164060 255.315110 13.040047 0.000000
447.816990 256.625060 12.856840 0.000000
465.996670 255.700210 13.069310 0.000000
457.715480 256.390750 12.974094 0.000000
465.665220 256.122010 13.089995 0.000000
448.295620 257.516660 12.928236 0.000000
457.557560 256.808690 12.990015 0.000000
465.261020 256.417110 13.091072 0.000000
447.787690 257.870450 12.906923 0.000000
457.375120 257.200040 13.001545 0.000000
464.581510 257.176480 13.115564 0.000000
465.116670 256.792790 13.118432 0.000000
464.368680 257.439150 13.124475 0.000000
448.197510 258.685060 12.969003 0.000000
456.878630 258.385010 13.037172 0.000000
464.161220 257.704220 13.133421 0.000000
470.638240 257.705750 13.225624 0.000000
456.588960 258.683840 13.031397 0.000000
463.839170 258.329770 13.166214 0.000000
464.030060 258.056520 13.156368 0.000000
469.918060 258.083440 13.232414 0.000000
470.155120 257.952760 13.229948 0.000000
463.659790 258.611630 13.177228 0.000000
469.341770 258.434970 13.240145 0.000000
469.685330 258.221410 13.235505 0.000000
448.003880 259.778170 12.997466 0.000000
456.864140 259.367860 13.096255 0.000000
463.347560 258.980350 13.183805 0.000000
469.006130 258.659480 13.245527 0.000000
456.402590 260.025850 13.095253 0.000000
456.569240 259.654790 13.088072 0.000000
448.472230 259.408390 13.017168 0.000000
462.979220 259.512570 13.198446 0.000000
468.265780 259.238070 13.262630 0.000000
448.291320 260.480680 13.044537 0.000000
462.646480 259.852690 13.197580 0.000000
467.559910 259.840760 13.278194 0.000000
467.882230 259.618100 13.278399 0.000000
468.827300 259.442230 13.656859 0.000000
468.883120 259.539700 13.348687 0.000000
456.644200 260.640870 13.151320 0.000000
462.357510 260.441770 13.220211 0.000000
462.607480 260.244720 13.227359 0.000000
467.185490 260.214390 13.289736 0.000000
467.371060 260.026610 13.284010 0.000000
456.360720 260.930360 13.142447 0.000000
462.324890 260.824620 13.248624 0.000000
466.829560 260.602260 13.302240 0.000000
467.004550 260.405760 13.295715 0.000000
466.491390 261.001890 13.315378 0.000000
466.658290 260.800720 13.308740 0.000000
470.718290 260.825900 13.366139 0.000000
470.341030 261.051760 13.370378 0.000000
470.717900 257.120390 13.858898 0.000000
469.109890 258.873840 13.944749 0.000000
468.770020 259.342100 13.967922 0.000000
469.033660 259.290070 13.977654 0.000000
468.515560 252.925890 14.281829 0.000000
469.608490 252.787840 14.304276 0.000000
470.089260 253.143370 14.335340 0.000000
470.549620 256.636660 14.169358 0.000000
469.118500 258.895420 14.276291 0.000000
468.681880 259.186130 14.277423 0.000000
468.976100 259.185330 14.290261 0.000000
469.409730 250.916500 14.687936 0.000000
468.539400 251.940830 14.703398 0.000000
469.284180 251.794860 14.713447 0.000000
470.570650 252.256740 14.752335 0.000000
470.176820 255.555100 14.464319 0.000000
469.077450 258.818970 14.599152 0.000000
468.914700 259.073430 14.606486 0.000000
470.670230 255.083920 15.235950 0.000000
469.447420 255.379210 14.829752 0.000000
469.340700 255.966950 15.228842 0.000000
468.788670 258.843690 15.253359 0.000000
468.935420 258.834290 14.925460 0.000000
470.657810 255.055020 15.627375 0.000000
469.827090 255.511980 15.229999 0.000000
469.603360 255.796660 15.230291 0.000000
470.710510 256.238010 15.616011 0.000000
470.363650 257.003810 15.606655 0.000000
464.429380 258.048220 15.587523 0.000000
464.921420 258.162380 15.586360 0.000000
468.731380 258.739650 15.584808 0.000000
468.986970 258.652010 15.420586 0.000000
468.283140 250.052920 15.662476 0.000000
466.971220 251.150380 15.645767 0.000000
470.615570 253.762560 15.640013 0.000000
468.800480 255.489330 16.010490 0.000000
469.153350 255.516660 16.008270 0.000000
469.483310 255.499300 16.007696 0.000000
470.473390 255.514560 16.005371 0.000000
464.528020 258.172330 15.981159 0.000000
464.912810 258.153350 15.976026 0.000000
465.306490 258.159120 15.970423 0.000000
467.382870 258.592410 15.934505 0.000000
468.906560 258.500490 15.923552 0.000000
467.788180 258.723630 15.926950 0.000000
468.177890 258.850100 15.919885 0.000000
468.553220 258.695800 15.920860 0.000000
469.381590 258.863430 15.910110 0.000000
469.705780 258.945680 15.905789 0.000000
468.511170 251.896610 16.118177 0.000000
467.480380 253.293760 16.080635 0.000000
469.863430 255.640140 16.388355 0.000000
470.519900 255.669130 16.381233 0.000000
470.011510 256.890080 16.323784 0.000000
467.359070 257.430270 16.338900 0.000000
465.015750 258.287660 16.357782 0.000000
465.640810 258.099670 16.348881 0.000000
465.956300 258.019840 16.344282 0.000000
467.652040 258.499690 16.284172 0.000000
468.951810 258.885350 16.241280 0.000000
469.382540 258.870210 16.234747 0.000000
468.565950 258.999420 16.242958 0.000000
469.745240 259.035860 16.221148 0.000000
470.097750 259.204530 16.207844 0.000000
465.005800 259.688450 16.302475 0.000000
466.864930 250.917830 16.658594 0.000000
467.962620 252.564870 16.563332 0.000000
469.134890 256.295140 16.742970 0.000000
470.094180 256.285860 16.725132 0.000000
469.688570 256.862550 16.691874 0.000000
469.910100 256.632750 16.703793 0.000000
466.613860 257.364040 16.741343 0.000000
466.969910 257.364070 16.729624 0.000000
467.032900 258.573820 16.650974 0.000000
468.390720 258.686160 16.599945 0.000000
468.979800 258.943480 16.566124 0.000000
469.394410 258.899600 16.558006 0.000000
465.741490 259.221830 16.660992 0.000000
468.463840 259.354520 16.554150 0.000000
469.726530 259.003330 16.702682 0.000000
470.056760 259.120330 16.684439 0.000000
465.130280 259.833440 16.652559 0.000000
465.344090 259.643130 16.653734 0.000000
466.585390 259.639620 16.602623 0.000000
470.437040 259.380130 16.807306 0.000000
468.618870 259.878140 16.830450 0.000000
469.260830 260.264920 16.771231 0.000000
470.676730 254.018770 16.880693 0.000000
469.548650 256.522520 17.090813 0.000000
469.870790 256.538150 17.080606 0.000000
466.182130 257.262600 17.154415 0.000000
464.148900 257.706240 16.814560 0.000000
468.600620 258.510220 16.946850 0.000000
466.436740 258.713620 17.026247 0.000000
469.170470 259.034150 16.880224 0.000000
469.446350 259.011320 16.872280 0.000000
469.771610 259.108090 17.172131 0.000000
470.086120 259.194730 17.149603 0.000000
466.233800 259.855900 16.948771 0.000000
466.584780 259.641330 16.946445 0.000000
470.413060 259.329280 17.121906 0.000000
468.066220 260.175810 17.147697 0.000000
468.483060 259.897430 17.152031 0.000000
468.918090 260.150790 17.102646 0.000000
468.572020 260.514190 17.084625 0.000000
469.296660 260.333370 17.064095 0.000000
470.665370 261.034670 17.199402 0.000000
469.557010 254.813830 17.246510 0.000000
470.542790 254.725400 17.233128 0.000000
465.792180 257.242950 17.573185 0.000000
464.347630 257.954410 17.195242 0.000000
464.090640 258.145720 17.195759 0.000000
468.582730 258.480870 17.293608 0.000000
469.667140 258.256990 17.608305 0.000000
469.986760 258.328460 17.583551 0.000000
470.536410 258.292540 17.563725 0.000000
466.279880 259.692900 17.307106 0.000000
466.770510 259.666810 17.277203 0.000000
468.366970 260.188050 17.443909 0.000000
468.747190 260.341460 17.399855 0.000000
468.982180 260.265470 17.393797 0.000000
469.457370 260.387700 17.349262 0.000000
465.637760 260.830690 17.589840 0.000000
468.621670 261.036220 17.325449 0.000000
469.097260 254.525480 17.703144 0.000000
464.268950 257.858860 17.614365 0.000000
465.781100 259.733860 17.693712 0.000000
465.722260 260.099700 17.659286 0.000000
464.603090 256.677190 18.128376 0.000000
465.100950 256.805660 18.075693 0.000000
463.583710 258.052550 18.062168 0.000000
457.157260 236.504150 12.167635 0.000000
457.964600 236.481160 12.202277 0.000000
458.758390 236.460300 12.235653 0.000000
456.302520 237.849560 12.218302 0.000000
457.100340 237.809100 12.252957 0.000000
454.661650 239.196200 12.226599 0.000000
452.867400 240.317150 12.205353 0.000000
453.708470 240.264300 12.246176 0.000000
454.567960 240.264560 12.290525 0.000000
452.884250 241.460950 12.277413 0.000000
452.044460 242.595370 12.300804 0.000000
452.923650 242.582640 12.348534 0.000000
451.177400 243.668690 12.315852 0.000000
452.055940 243.631450 12.363625 0.000000
451.119720 244.588620 12.366311 0.000000
450.197330 245.555210 12.367287 0.000000
451.089230 245.504960 12.417376 0.000000
469.864870 244.803070 12.624544 0.000000
470.375060 244.789340 12.641549 0.000000
450.122530 246.399730 12.410117 0.000000
468.614590 245.752150 12.665597 0.000000
469.094640 245.652660 12.675589 0.000000
469.598330 245.637650 12.693728 0.000000
450.007260 247.183070 12.446342 0.000000
467.302760 246.408360 12.669938 0.000000
449.644900 247.730240 12.453721 0.000000
449.292330 248.281690 12.461199 0.000000
465.590360 247.317290 12.670151 0.000000
464.416810 248.184360 12.684819 0.000000
464.911530 248.097020 12.704012 0.000000
465.465300 248.138240 12.736987 0.000000
449.860350 249.577970 12.565312 0.000000
463.766750 248.961150 12.715608 0.000000
464.303280 248.947560 12.745001 0.000000
449.469150 250.065670 12.565534 0.000000
449.096250 250.567540 12.566942 0.000000
463.662020 249.687300 12.771648 0.000000
449.653080 251.747590 12.662225 0.000000
462.324490 250.991030 12.798294 0.000000
449.171840 252.148670 12.650111 0.000000
461.700810 251.675660 12.812968 0.000000
462.244960 251.645780 12.846402 0.000000
461.586330 252.256200 12.851426 0.000000
449.746340 253.271800 12.742383 0.000000
460.882900 252.808170 12.846064 0.000000
461.454900 252.795590 12.884801 0.000000
460.809720 253.396470 12.885919 0.000000
460.583220 253.799580 12.900109 0.000000
460.357240 254.196120 12.913178 0.000000
470.479920 253.384350 13.012192 0.000000
449.365450 255.102330 12.800998 0.000000
470.103270 253.852600 13.044912 0.000000
460.221190 254.676590 12.938387 0.000000
468.998200 254.346890 13.036263 0.000000
469.367130 254.320630 13.055397 0.000000
469.739290 254.312960 13.076111 0.000000
460.031920 255.093520 12.954342 0.000000
468.452390 254.794430 13.050901 0.000000
468.801120 254.723460 13.065232 0.000000
449.958440 256.112730 12.886648 0.000000
459.566650 255.827470 12.970566 0.000000
459.824650 255.486190 12.966539 0.000000
467.905430 255.220230 13.060493 0.000000
468.257870 255.152710 13.076740 0.000000
449.533910 256.515840 12.874477 0.000000
467.738040 255.605620 13.089718 0.000000
459.478820 256.315580 12.997368 0.000000
467.572970 255.978520 13.117148 0.000000
449.855560 257.324370 12.931198 0.000000
459.334750 256.744600 13.015061 0.000000
466.462070 256.713070 13.109967 0.000000
449.366700 257.691960 12.911731 0.000000
459.163510 257.144100 13.027963 0.000000
466.322810 257.082640 13.135775 0.000000
458.943790 257.500210 13.033453 0.000000
466.109990 257.345460 13.144650 0.000000
449.692630 258.469240 12.966205 0.000000
458.818150 257.925480 13.050474 0.000000
465.902530 257.610660 13.153563 0.000000
458.416630 258.650630 13.062243 0.000000
458.701870 258.350860 13.067644 0.000000
465.580540 258.236510 13.186281 0.000000
465.771450 257.963130 13.176471 0.000000
449.497990 259.572510 12.994801 0.000000
449.970370 259.199400 13.014741 0.000000
465.401180 258.518490 13.197259 0.000000
458.703580 259.340580 13.128353 0.000000
464.967470 258.991030 13.202471 0.000000
465.210570 258.783690 13.205099 0.000000
470.384580 258.735290 13.260258 0.000000
470.741490 258.554080 13.263552 0.000000
468.982270 251.645260 13.227919 0.000000
469.094570 258.949250 13.533121 0.000000
449.788600 260.281650 13.042234 0.000000
464.720460 259.419490 13.218307 0.000000
469.993070 259.120760 13.278433 0.000000
468.794100 259.479310 13.564939 0.000000
469.293850 259.737030 13.296102 0.000000
469.487700 259.555300 13.290647 0.000000
450.077330 260.969480 13.088148 0.000000
458.485320 260.607570 13.182998 0.000000
464.096590 260.347050 13.239565 0.000000
464.346190 260.149540 13.246672 0.000000
468.918790 260.110750 13.307538 0.000000
469.104580 259.922790 13.301834 0.000000
458.203430 260.895630 13.174131 0.000000
464.061190 260.727660 13.267460 0.000000
468.562560 260.499150 13.320000 0.000000
468.737920 260.302670 13.313550 0.000000
463.932770 261.022860 13.278822 0.000000
468.224060 260.899230 13.333094 0.000000
468.391080 260.697810 13.326476 0.000000
470.690520 257.186580 13.813844 0.000000
468.722630 259.379210 13.893550 0.000000
469.075740 259.172090 13.898071 0.000000
467.127620 251.437380 14.137255 0.000000
468.638120 252.768540 14.251856 0.000000
469.934780 252.995650 14.302308 0.000000
470.507840 256.798070 14.142022 0.000000
468.936190 259.211980 14.235839 0.000000
469.133330 259.015350 14.232559 0.000000
468.683530 251.957240 14.695147 0.000000
469.371610 254.358810 14.783661 0.000000
470.733120 254.994480 14.832270 0.000000
469.490910 255.389720 14.817720 0.000000
470.267580 255.530490 14.441532 0.000000
469.080960 258.937320 14.569865 0.000000
468.840150 259.071590 14.567375 0.000000
468.745730 252.106350 15.179679 0.000000
469.400480 255.936540 15.229193 0.000000
469.660890 255.746350 15.230438 0.000000
468.730800 258.911470 14.904560 0.000000
469.033330 258.866610 14.910720 0.000000
469.822540 253.674350 15.210179 0.000000
470.748380 255.040850 15.236600 0.000000
469.860530 255.420380 15.229455 0.000000
470.673550 256.468440 15.625274 0.000000
470.487730 256.779110 15.621767 0.000000
470.287990 257.044860 15.618731 0.000000
469.043330 258.366330 15.605066 0.000000
468.697450 258.740750 15.426544 0.000000
468.985500 258.795720 15.254723 0.000000
466.968080 251.144290 15.660745 0.000000
470.570010 255.038480 15.638167 0.000000
470.438200 256.678530 15.994810 0.000000
464.544830 258.073610 15.609977 0.000000
467.473790 258.634000 15.971485 0.000000
468.112180 258.518800 15.966063 0.000000
467.962040 258.805910 15.960834 0.000000
468.729280 258.665470 15.955064 0.000000
469.350650 258.863680 15.943120 0.000000
469.724000 258.956020 15.936911 0.000000
469.643920 250.117310 16.192379 0.000000
467.734560 254.240570 16.082710 0.000000
470.100490 255.181580 16.040014 0.000000
468.763340 255.421510 16.041748 0.000000
469.332150 255.454640 16.036720 0.000000
470.400360 255.865390 16.407885 0.000000
470.141330 256.754030 16.368507 0.000000
464.663540 258.202640 16.024508 0.000000
465.064940 258.152920 16.018845 0.000000
465.481290 258.132720 16.012543 0.000000
465.836270 258.053100 16.008787 0.000000
467.708620 258.458100 16.342018 0.000000
468.627990 258.769680 16.305820 0.000000
469.034820 258.881100 16.291410 0.000000
465.473080 259.301330 16.373819 0.000000
466.349700 259.365540 16.343788 0.000000
468.452210 259.009030 16.299738 0.000000
469.783260 259.058590 16.267025 0.000000
470.183810 259.221440 16.251375 0.000000
464.723630 259.865540 16.378868 0.000000
465.154540 259.637480 16.372089 0.000000
466.839260 250.904950 16.703075 0.000000
467.990880 254.710330 16.502998 0.000000
468.928100 256.413120 16.799618 0.000000
469.995420 256.459380 16.767111 0.000000
469.807920 256.761960 16.751587 0.000000
467.316680 257.383760 16.792034 0.000000
469.561680 256.939760 16.746485 0.000000
467.034450 258.553560 16.733362 0.000000
468.553740 258.662050 16.668196 0.000000
469.383580 258.923160 16.622959 0.000000
469.080630 258.954960 16.631302 0.000000
469.928650 259.049710 16.597170 0.000000
465.352600 259.837070 16.738922 0.000000
465.563260 259.619080 16.739981 0.000000
466.460940 259.712160 16.692987 0.000000
466.713960 259.559420 16.689943 0.000000
465.066800 259.981960 16.745750 0.000000
470.642120 254.810030 16.866526 0.000000
469.281370 256.415680 17.180460 0.000000
466.349000 257.140140 16.843996 0.000000
466.737580 257.118990 16.830029 0.000000
469.383210 257.241850 17.105854 0.000000
464.242650 257.751860 16.901043 0.000000
466.410160 258.744870 17.132593 0.000000
469.108180 259.000580 16.971590 0.000000
469.454100 259.039670 16.952515 0.000000
469.775730 259.052920 16.937174 0.000000
470.171570 259.209380 17.071400 0.000000
466.446230 259.696960 17.061987 0.000000
466.758790 259.612580 17.049358 0.000000
470.672970 259.580900 17.172062 0.000000
466.245670 259.909390 17.059359 0.000000
468.513280 260.026250 17.088123 0.000000
468.712680 259.850100 16.923470 0.000000
467.939090 260.575260 17.243652 0.000000
468.729060 260.734380 17.173904 0.000000
470.429570 252.321700 17.510357 0.000000
469.324550 255.815200 17.230686 0.000000
470.720180 256.606990 17.488348 0.000000
466.011720 257.241760 17.266697 0.000000
464.207950 258.211030 17.303335 0.000000
469.039490 258.377200 17.383554 0.000000
470.336820 258.412410 17.311338 0.000000
470.755580 258.344600 17.469778 0.000000
469.462340 258.533080 17.344154 0.000000
466.310060 259.546420 17.454323 0.000000
465.974880 260.048770 17.437088 0.000000
468.828220 260.448670 17.518452 0.000000
469.091490 260.377720 17.505808 0.000000
469.400180 260.377690 17.482267 0.000000
468.612640 260.586610 17.520473 0.000000
464.303650 257.820040 17.755657 0.000000
463.590670 258.069730 17.790625 0.000000
465.468170 258.123840 17.641762 0.000000
469.610170 258.239590 17.722191 0.000000
469.964170 258.302280 17.692276 0.000000
470.270200 258.291200 17.675188 0.000000
466.193760 259.418030 17.853420 0.000000
465.742030 261.032840 17.736246 0.000000
465.913510 260.804570 17.741081 0.000000
467.916140 255.955570 18.110399 0.000000
469.354370 255.885390 18.030519 0.000000
469.787780 250.575930 18.702339 0.000000
460.496640 236.375460 12.260920 0.000000
457.213990 237.783200 12.205478 0.000000
458.041900 237.765010 12.243776 0.000000
458.839260 237.724430 12.278339 0.000000
456.401820 239.111760 12.252193 0.000000
457.179870 239.012410 12.284361 0.000000
455.449220 240.179960 12.271839 0.000000
456.307980 240.179920 12.316061 0.000000
453.776210 242.499370 12.325294 0.000000
454.660100 242.492550 12.373573 0.000000
452.904300 243.567550 12.339789 0.000000
453.787960 243.536100 12.388129 0.000000
452.846560 244.487850 12.390235 0.000000
451.923920 245.454480 12.391231 0.000000
452.815980 245.404510 12.441277 0.000000
451.849150 246.299380 12.434055 0.000000
469.807190 245.605930 12.661329 0.000000
470.344150 245.657970 12.688545 0.000000
451.734530 247.083560 12.470341 0.000000
468.034180 246.453870 12.659204 0.000000
468.554290 246.428510 12.681512 0.000000
469.032170 246.314350 12.692982 0.000000
469.577700 246.385190 12.723801 0.000000
451.363340 247.623150 12.476774 0.000000
451.010860 248.175080 12.484288 0.000000
466.141050 248.081710 12.707009 0.000000
466.636020 247.994430 12.726177 0.000000
451.582670 249.475230 12.588750 0.000000
465.490940 248.859280 12.737885 0.000000
451.191470 249.963150 12.588994 0.000000
450.818820 250.465410 12.590448 0.000000
464.850160 249.608320 12.763952 0.000000
465.386320 249.586290 12.793983 0.000000
464.204740 250.316160 12.783407 0.000000
464.740940 250.284270 12.814029 0.000000
451.376400 251.646580 12.685743 0.000000
464.048650 250.891070 12.820771 0.000000
450.895170 252.047780 12.673661 0.000000
463.969300 251.546510 12.868927 0.000000
469.012600 251.639790 13.174556 0.000000
451.470400 253.171940 12.765941 0.000000
462.607880 252.710510 12.868834 0.000000
450.959410 253.540990 12.748960 0.000000
462.536710 253.301380 12.909012 0.000000
450.504360 253.954500 12.737151 0.000000
462.320280 253.715440 12.924753 0.000000
451.083220 254.999180 12.823938 0.000000
462.112490 254.130620 12.940536 0.000000
461.999630 254.633510 12.969097 0.000000
470.720670 254.244280 13.057412 0.000000
461.830140 255.067950 12.987801 0.000000
470.174990 254.693080 13.072232 0.000000
470.522460 254.619230 13.086141 0.000000
451.475010 255.893430 12.890484 0.000000
461.640930 255.475250 13.002418 0.000000
469.628390 255.120390 13.082045 0.000000
469.979430 255.050000 13.097863 0.000000
451.060030 256.306640 12.879428 0.000000
461.381410 255.812300 13.006038 0.000000
469.459630 255.503910 13.110979 0.000000
461.298370 256.301940 13.033310 0.000000
468.961640 255.975750 13.124895 0.000000
461.155120 256.728970 13.050932 0.000000
468.380830 256.604770 13.145652 0.000000
468.723600 256.221860 13.132730 0.000000
460.984890 257.126560 13.063787 0.000000
468.043120 256.981410 13.157063 0.000000
451.175480 258.252590 12.967705 0.000000
460.766050 257.480680 13.069223 0.000000
467.829830 257.243960 13.165886 0.000000
460.641510 257.904210 13.086218 0.000000
451.455870 258.989470 13.016644 0.000000
460.242280 258.625820 13.097967 0.000000
460.526580 258.327970 13.103392 0.000000
467.297390 258.132690 13.207067 0.000000
450.979490 259.365780 12.996559 0.000000
466.925780 258.678920 13.225672 0.000000
467.117130 258.414090 13.217917 0.000000
466.682740 258.886750 13.223110 0.000000
451.272860 260.081360 13.044385 0.000000
460.528020 259.312620 13.163732 0.000000
460.235870 259.596370 13.155556 0.000000
466.434390 259.314540 13.238771 0.000000
460.071690 259.964140 13.162698 0.000000
468.856450 259.498470 13.466335 0.000000
451.564300 260.775420 13.090675 0.000000
460.311250 260.573430 13.218124 0.000000
465.809750 260.242890 13.260054 0.000000
466.059540 260.045200 13.267151 0.000000
470.636840 260.008000 13.327845 0.000000
460.030940 260.860020 13.209329 0.000000
465.774320 260.623990 13.287978 0.000000
470.280210 260.396820 13.340343 0.000000
470.455780 260.200130 13.333875 0.000000
465.645810 260.919560 13.299359 0.000000
469.941440 260.797330 13.353477 0.000000
470.108610 260.595700 13.346839 0.000000
469.755100 253.114620 13.811628 0.000000
469.119840 258.906770 13.799189 0.000000
468.927000 259.361570 13.822176 0.000000
467.108700 251.580510 14.112887 0.000000
467.572360 251.551320 14.127550 0.000000
468.648040 251.819260 14.176908 0.000000
470.259030 254.116960 14.343328 0.000000
470.244660 255.547120 14.413434 0.000000
470.735600 256.751890 14.103794 0.000000
469.128940 258.920440 14.167165 0.000000
468.995360 259.218290 14.178562 0.000000
470.469570 252.907150 14.751122 0.000000
469.662230 254.494920 14.780942 0.000000
470.226750 254.813660 14.803439 0.000000
469.389500 255.404040 14.801497 0.000000
469.738100 255.330720 14.807565 0.000000
469.091190 258.873900 14.528549 0.000000
468.898380 259.099670 14.531046 0.000000
468.893220 258.861390 14.888358 0.000000
469.467320 250.751390 15.176337 0.000000
467.775300 251.076220 15.158525 0.000000
469.678410 253.781740 15.211451 0.000000
470.725220 255.049940 15.238206 0.000000
469.830870 255.497090 15.231742 0.000000
469.475010 255.874070 15.231301 0.000000
470.091640 257.183530 15.635365 0.000000
470.326020 256.979770 15.637267 0.000000
468.580810 258.710020 15.438779 0.000000
468.962920 258.713900 15.440329 0.000000
467.348690 251.179140 15.679716 0.000000
470.379000 255.112760 15.652884 0.000000
469.835110 256.774540 16.031206 0.000000
470.474850 256.627560 16.028866 0.000000
464.358670 258.024720 15.637939 0.000000
465.007780 258.155400 15.635289 0.000000
467.911500 258.853330 16.005913 0.000000
468.596530 258.732270 15.998127 0.000000
468.858730 258.582920 15.997836 0.000000
469.437440 258.858090 15.983192 0.000000
467.068390 249.806920 16.245285 0.000000
467.877810 252.888530 16.154236 0.000000
467.950230 254.436360 16.112677 0.000000
469.883760 256.856540 16.419853 0.000000
467.204960 257.531920 16.046782 0.000000
464.559390 258.213260 16.078552 0.000000
465.013670 258.161740 16.070919 0.000000
465.472140 258.128750 16.063110 0.000000
465.862060 258.039610 16.057945 0.000000
467.552250 258.439580 16.414536 0.000000
468.591130 258.727450 16.372604 0.000000
469.086090 258.877350 16.352619 0.000000
466.467250 259.129430 16.423502 0.000000
469.984100 259.125090 16.318304 0.000000
466.384920 259.492860 16.413473 0.000000
469.294010 260.034820 16.300055 0.000000
467.730680 256.584900 16.484217 0.000000
469.805630 256.734650 16.822386 0.000000
466.647800 258.388550 16.444633 0.000000
468.524260 258.646300 16.755177 0.000000
465.410460 259.460050 16.448902 0.000000
465.587460 259.177030 16.452127 0.000000
469.157470 258.971100 16.710020 0.000000
469.495970 258.940550 16.698122 0.000000
469.932680 259.056340 16.674084 0.000000
464.834010 259.830780 16.458080 0.000000
465.148830 259.666440 16.451645 0.000000
466.265590 259.812810 16.798939 0.000000
466.542270 259.646150 16.793188 0.000000
466.851750 259.516450 16.784410 0.000000
468.559910 259.605500 16.699549 0.000000
470.221740 253.275770 17.038088 0.000000
466.946410 257.226040 16.903524 0.000000
463.538600 258.260040 17.015778 0.000000
463.878020 258.073910 17.006697 0.000000
466.873410 258.632780 16.829592 0.000000
468.499450 258.617400 17.137276 0.000000
470.341190 258.663820 17.037331 0.000000
469.245360 259.086090 17.060867 0.000000
469.984800 259.130740 17.018227 0.000000
466.260440 259.808440 17.193115 0.000000
466.924100 259.589900 17.163677 0.000000
470.598910 259.525210 16.956133 0.000000
468.513340 260.400360 17.008013 0.000000
469.068080 260.194030 16.989100 0.000000
470.312680 260.867800 17.185383 0.000000
470.503570 260.705170 17.187231 0.000000
469.522890 250.904920 17.217300 0.000000
469.596680 254.407990 17.422581 0.000000
468.834350 255.815660 17.338634 0.000000
469.210450 255.781890 17.324108 0.000000
470.554810 256.784090 17.571033 0.000000
469.171050 258.264040 17.505899 0.000000
470.131650 258.354800 17.436487 0.000000
470.477050 258.359100 17.415443 0.000000
465.850980 258.976040 17.274269 0.000000
470.518550 259.412480 17.309250 0.000000
468.988620 260.517430 17.656513 0.000000
468.530090 260.819580 17.667868 0.000000
468.759090 260.667050 17.661999 0.000000
470.697570 260.548000 17.508101 0.000000
467.580870 261.045930 17.380499 0.000000
468.528170 261.012210 17.306259 0.000000
469.543640 255.692340 17.737589 0.000000
465.505160 257.161350 17.867323 0.000000
464.587650 257.751100 17.890999 0.000000
469.644560 258.161960 17.861065 0.000000
470.091800 258.298370 17.812094 0.000000
470.410000 258.258640 17.793888 0.000000
466.144010 259.700200 18.007498 0.000000
470.483000 255.342090 18.144760 0.000000
467.703890 255.983860 18.258615 0.000000
465.816800 259.828800 18.028351 0.000000
465.524260 259.994840 18.043076 0.000000
456.289430 240.170910 12.255813 0.000000
457.129520 240.117550 12.296503 0.000000
457.988040 240.117250 12.340702 0.000000
456.298030 241.303600 12.326599 0.000000
455.454770 242.433200 12.349421 0.000000
456.338470 242.426060 12.397678 0.000000
455.467620 243.470520 12.412262 0.000000
453.600520 245.385010 12.414782 0.000000
454.497620 245.339900 12.465416 0.000000
453.526310 246.230120 12.457581 0.000000
453.410000 247.012500 12.493596 0.000000
470.228060 246.348750 12.704290 0.000000
470.705840 246.234220 12.715744 0.000000
453.025510 247.540410 12.498526 0.000000
452.675110 248.094440 12.506233 0.000000
468.987820 247.132320 12.714708 0.000000
469.513280 247.118620 12.739826 0.000000
468.860140 247.948640 12.780899 0.000000
453.249660 249.396580 12.610859 0.000000
452.859830 249.885820 12.611216 0.000000
452.488220 250.389070 12.612741 0.000000
466.520630 249.523820 12.785801 0.000000
466.411800 250.200330 12.835887 0.000000
453.047120 251.570890 12.708055 0.000000
465.719970 250.808240 12.842687 0.000000
452.567110 251.973140 12.696064 0.000000
465.096920 251.494670 12.857502 0.000000
465.641780 251.465230 12.890983 0.000000
464.983800 252.077240 12.896144 0.000000
453.143340 253.097630 12.788331 0.000000
464.281400 252.631100 12.890982 0.000000
464.853580 252.618440 12.929688 0.000000
452.633730 253.467790 12.771461 0.000000
464.211120 253.222870 12.931236 0.000000
452.172240 253.877430 12.758999 0.000000
452.554660 254.803360 12.826896 0.000000
463.675380 254.556430 12.991398 0.000000
452.974520 255.718400 12.896214 0.000000
463.506260 254.991180 13.010110 0.000000
452.508820 256.107600 12.880558 0.000000
463.318790 255.400090 13.024933 0.000000
463.073150 255.749660 13.030467 0.000000
452.827090 256.924070 12.937248 0.000000
462.994690 256.242740 13.058285 0.000000
470.629210 255.881740 13.144859 0.000000
452.286620 257.274900 12.913434 0.000000
462.858830 256.675380 13.076830 0.000000
469.851170 256.520750 13.151536 0.000000
470.245120 256.502780 13.179722 0.000000
470.391170 256.128390 13.152720 0.000000
462.697170 257.079160 13.090747 0.000000
469.710360 256.889040 13.177055 0.000000
452.645480 258.078890 12.971201 0.000000
462.490690 257.441990 13.097719 0.000000
469.497010 257.152040 13.185889 0.000000
462.373200 257.869480 13.115503 0.000000
469.222660 257.593050 13.206068 0.000000
452.984470 258.847440 13.025513 0.000000
462.264040 258.295960 13.133283 0.000000
468.964660 258.042110 13.227112 0.000000
461.995730 258.603520 13.129768 0.000000
468.784390 258.323970 13.237976 0.000000
452.779240 259.936130 13.051426 0.000000
452.531860 260.990630 13.070559 0.000000
462.265170 259.277100 13.193295 0.000000
461.989590 259.570220 13.187057 0.000000
468.020870 259.369200 13.264104 0.000000
469.078250 259.111940 13.335674 0.000000
461.915950 259.992950 13.205168 0.000000
467.768520 259.566890 13.257952 0.000000
468.679570 259.581820 13.342498 0.000000
453.128300 260.656890 13.102827 0.000000
462.059750 260.540250 13.248680 0.000000
467.477260 260.155730 13.280187 0.000000
467.727050 259.957580 13.287273 0.000000
461.795040 260.834320 13.241640 0.000000
467.442050 260.537290 13.308135 0.000000
467.313690 260.833220 13.319529 0.000000
470.562160 256.964020 14.057410 0.000000
469.160310 259.201480 13.736509 0.000000
468.928920 259.400670 13.734478 0.000000
467.545140 251.119750 14.073039 0.000000
466.803280 251.572600 14.066885 0.000000
467.410100 251.697010 14.095303 0.000000
468.977720 259.232090 14.111547 0.000000
469.733250 254.510250 14.767945 0.000000
469.489070 255.430250 14.788372 0.000000
469.866970 255.361100 14.795800 0.000000
469.100860 258.681090 14.477861 0.000000
469.062410 259.098210 14.494149 0.000000
469.687440 255.718050 15.234433 0.000000
469.413450 255.929750 15.233240 0.000000
469.015870 258.704530 15.062888 0.000000
469.878200 255.381380 15.233250 0.000000
468.976100 258.545900 15.649357 0.000000
468.689700 258.700260 15.649123 0.000000
467.031370 251.146070 15.700013 0.000000
470.322780 255.430010 15.669423 0.000000
470.433320 256.791050 15.659297 0.000000
469.969970 257.250150 15.656165 0.000000
469.636320 257.344730 15.655757 0.000000
464.522280 258.076900 15.665437 0.000000
468.702180 258.714870 16.044191 0.000000
469.267550 258.872220 16.031269 0.000000
468.139160 259.044590 16.047283 0.000000
469.825200 259.047000 16.018328 0.000000
467.750310 252.946640 16.193413 0.000000
467.440090 253.208530 16.190819 0.000000
467.800020 254.361420 16.157789 0.000000
467.061680 254.670070 16.160946 0.000000
470.612550 256.481630 16.069153 0.000000
470.587520 257.560760 16.431307 0.000000
464.712340 258.237030 16.129642 0.000000
465.668400 258.098330 16.112732 0.000000
466.062990 257.973110 16.107388 0.000000
468.095090 258.539310 16.058456 0.000000
468.650790 258.660680 16.443506 0.000000
467.818910 259.177700 16.050541 0.000000
468.617490 259.083400 16.428963 0.000000
469.829900 259.053890 16.391781 0.000000
469.620150 260.532230 16.343243 0.000000
467.421940 255.708100 16.594992 0.000000
469.776760 256.997710 16.476307 0.000000
468.069580 257.537840 16.504229 0.000000
466.553830 258.433230 16.522247 0.000000
465.722230 259.087980 16.531000 0.000000
468.571750 258.576750 16.849833 0.000000
465.546660 259.394930 16.528095 0.000000
466.791440 259.114010 16.490839 0.000000
469.368800 258.987700 16.790747 0.000000
469.818570 259.042270 16.767422 0.000000
464.949920 259.815700 16.538809 0.000000
465.266170 259.617000 16.532207 0.000000
466.723510 259.498840 16.480665 0.000000
468.508000 259.847020 16.787085 0.000000
469.795840 260.709320 16.679417 0.000000
469.651640 256.833590 16.901318 0.000000
466.816830 257.212460 17.005239 0.000000
466.703310 258.573670 16.941786 0.000000
468.849820 258.410460 17.246387 0.000000
466.384090 258.746060 16.949930 0.000000
470.213990 258.584010 17.154243 0.000000
469.881040 259.115840 17.134434 0.000000
466.449520 259.700780 16.901733 0.000000
466.799260 259.565060 16.889210 0.000000
470.646670 259.569150 17.056877 0.000000
466.181920 259.911380 16.906887 0.000000
468.617160 259.953430 17.155844 0.000000
468.772310 256.243870 17.409708 0.000000
468.545410 258.549560 17.255241 0.000000
469.551700 258.261230 17.610201 0.000000
470.007690 258.330260 17.571636 0.000000
470.377010 258.307190 17.548273 0.000000
468.253540 258.706970 17.262661 0.000000
466.232540 259.736660 17.333797 0.000000
466.890410 259.644810 17.292702 0.000000
468.728760 260.470830 17.486366 0.000000
469.457090 260.370670 17.434904 0.000000
470.417760 260.565890 17.343048 0.000000
470.343750 258.266600 17.939659 0.000000
465.851230 259.642090 17.798050 0.000000
465.822020 260.885530 17.714186 0.000000
468.793610 260.925230 17.810768 0.000000
467.720030 256.072780 18.398600 0.000000
468.171940 256.057740 18.361874 0.000000
469.529300 256.110200 18.246487 0.000000
468.636380 258.175320 18.096220 0.000000
467.362270 256.211360 18.414961 0.000000
463.185120 236.944780 12.279576 0.000000
463.976990 236.941600 12.314095 0.000000
461.487490 238.186600 12.286920 0.000000
462.303160 238.190140 12.325366 0.000000
456.973690 244.499280 12.455330 0.000000
456.016780 245.400180 12.453081 0.000000
456.904820 245.371020 12.503334 0.000000
455.349210 247.447490 12.530048 0.000000
454.975310 247.971760 12.536083 0.000000
470.029240 248.243670 12.777010 0.000000
455.496730 249.239720 12.637897 0.000000
455.084590 249.702240 12.636729 0.000000
469.367650 248.972780 12.805212 0.000000
469.899110 248.973680 12.834930 0.000000
454.690460 250.180150 12.636817 0.000000
468.715000 249.677060 12.828897 0.000000
469.246640 249.669040 12.859250 0.000000
455.201510 251.336350 12.729881 0.000000
454.702730 251.716420 12.716732 0.000000
467.887510 250.893040 12.881924 0.000000
467.249970 251.539780 12.894669 0.000000
467.791630 251.523540 12.928389 0.000000
467.121190 252.099170 12.931783 0.000000
455.236360 252.822040 12.807307 0.000000
454.707860 253.171390 12.789295 0.000000
466.406130 252.617710 12.924874 0.000000
466.976140 252.618580 12.963894 0.000000
454.206240 253.548280 12.773752 0.000000
466.319460 253.189130 12.963778 0.000000
454.584260 254.479640 12.843401 0.000000
465.872620 253.983660 12.993221 0.000000
465.745060 254.469120 13.020599 0.000000
465.563350 254.887940 13.038345 0.000000
454.478030 255.750700 12.894300 0.000000
454.981900 255.389630 12.912727 0.000000
465.363650 255.281450 13.052237 0.000000
454.784700 256.567720 12.951838 0.000000
454.188230 256.882350 12.923618 0.000000
464.863530 256.513240 13.101314 0.000000
464.689330 256.904210 13.114445 0.000000
454.554500 257.698210 12.984006 0.000000
464.471130 257.254550 13.120672 0.000000
464.339260 257.669650 13.137577 0.000000
454.866970 258.461090 13.037729 0.000000
464.216460 258.085050 13.154625 0.000000
454.287110 258.788090 13.009309 0.000000
463.937680 258.381380 13.150473 0.000000
470.458040 258.404970 13.258054 0.000000
454.614750 259.530120 13.062037 0.000000
470.721920 258.222530 13.263405 0.000000
470.276520 258.677310 13.267593 0.000000
464.043270 259.187900 13.209705 0.000000
470.102050 258.953190 13.277462 0.000000
463.812870 259.743260 13.223772 0.000000
468.781520 259.465970 13.614460 0.000000
469.155330 259.367460 13.636297 0.000000
469.933350 259.231020 13.287416 0.000000
454.939060 260.248050 13.112977 0.000000
469.369750 259.992650 13.302056 0.000000
469.624630 259.802640 13.309543 0.000000
463.662660 260.567840 13.258862 0.000000
463.938450 260.283170 13.266491 0.000000
469.324520 260.366730 13.329429 0.000000
463.466950 260.902070 13.260490 0.000000
469.188110 260.655180 13.340322 0.000000
469.120330 258.886570 14.012925 0.000000
469.049260 259.268920 14.030519 0.000000
468.918670 259.147580 14.427576 0.000000
469.110440 258.876980 14.424643 0.000000
469.043880 258.812990 14.832788 0.000000
468.677980 258.924290 14.825468 0.000000
464.978820 258.159700 15.676933 0.000000
469.039520 258.343020 15.660083 0.000000
468.915800 258.689820 15.659410 0.000000
465.551700 258.117400 16.154430 0.000000
466.002900 257.993990 16.146692 0.000000
464.441350 258.244690 16.177118 0.000000
467.964540 259.187770 16.086481 0.000000
468.584290 258.836580 16.079943 0.000000
469.107330 258.873540 16.069147 0.000000
469.588840 258.889010 16.059788 0.000000
469.774320 260.750790 16.396502 0.000000
467.259700 256.029970 16.640265 0.000000
466.468020 258.380980 16.592323 0.000000
466.476990 258.861050 16.577888 0.000000
468.408870 258.673710 16.511740 0.000000
469.130370 258.895540 16.479015 0.000000
469.700350 258.999910 16.656006 0.000000
465.190090 259.732820 16.605831 0.000000
465.471590 259.477510 16.600836 0.000000
466.717990 259.507690 16.550087 0.000000
468.566860 259.270750 16.486969 0.000000
466.399320 259.709590 16.557177 0.000000
469.968720 260.918180 16.752314 0.000000
468.796780 257.612030 16.970615 0.000000
469.303340 257.643950 16.944679 0.000000
468.449190 258.710780 16.934299 0.000000
469.263310 259.023010 16.877686 0.000000
469.826750 259.125640 17.242760 0.000000
466.814060 259.581150 16.984425 0.000000
466.164860 259.976620 17.005901 0.000000
466.404720 259.712370 17.002449 0.000000
468.482790 260.060520 16.871006 0.000000
470.035550 260.584320 17.136986 0.000000
468.454470 260.854060 17.234665 0.000000
468.394170 258.659520 17.367704 0.000000
470.097050 258.490170 17.267622 0.000000
465.888030 260.215300 17.462717 0.000000
467.709410 260.688420 17.299204 0.000000
468.705810 260.652280 17.623379 0.000000
469.760770 251.376480 17.818058 0.000000
463.559540 258.093570 17.750019 0.000000
469.810550 258.185300 17.721210 0.000000
468.388850 258.654300 17.798435 0.000000
466.324980 259.199010 17.940109 0.000000
465.771480 259.689610 17.958809 0.000000
465.528780 259.963620 17.964340 0.000000
466.440310 259.736450 17.893198 0.000000
466.163600 260.827850 17.849770 0.000000
466.641540 255.394710 18.200853 0.000000
466.574620 255.893680 18.165655 0.000000
469.117160 257.942410 18.227333 0.000000
468.590580 258.376950 18.236416 0.000000
468.422300 258.685000 18.224422 0.000000
469.125430 258.428770 18.179342 0.000000
467.854490 256.101530 18.527687 0.000000
463.931730 236.528430 12.316389 0.000000
462.170810 237.741030 12.317050 0.000000
460.334990 238.840210 12.299426 0.000000
461.238070 238.886930 12.346846 0.000000
458.430210 241.004180 12.335973 0.000000
459.371770 241.048710 12.388446 0.000000
454.875180 248.865520 12.570650 0.000000
470.548830 247.990860 12.772360 0.000000
469.185940 249.412990 12.814577 0.000000
469.747190 249.408630 12.847586 0.000000
455.465790 250.127660 12.671622 0.000000
469.014530 249.993320 12.852166 0.000000
454.936520 250.523300 12.657428 0.000000
