# .PCD v0.7 - Point Cloud Data file format
VERSION 0.7
FIELDS x y z intensity
SIZE 4 4 4 4
TYPE F F F F
COUNT 1 1 1 1
WIDTH 1166
HEIGHT 1
VIEWPOINT 0 0 0 1 0 0 0
POINTS 1166
DATA ascii
453.539120 290.308530 14.196192 0.000000
454.023280 290.317440 14.209688 0.000000
452.038880 290.808690 14.538177 0.000000
454.766750 290.622740 14.213264 0.000000
455.095920 290.572200 14.224125 0.000000
455.731750 290.566890 14.239063 0.000000
456.061160 290.435520 14.253228 0.000000
456.842930 290.372620 14.271739 0.000000
457.305150 290.388640 14.278797 0.000000
457.613280 290.395230 14.283256 0.000000
458.075530 290.396910 14.289688 0.000000
458.537810 290.392000 14.295777 0.000000
458.846100 290.385160 14.299562 0.000000
459.154940 290.382510 14.302772 0.000000
459.620970 290.392880 14.306123 0.000000
460.092190 290.425200 14.307609 0.000000
460.409480 290.450260 14.307956 0.000000
460.747280 290.591220 14.301770 0.000000
461.077270 290.648190 14.299727 0.000000
461.676060 290.413330 14.313159 0.000000
462.025090 290.526090 14.307069 0.000000
448.684230 293.436980 14.360281 0.000000
451.013060 295.266600 14.373056 0.000000
451.439360 295.273440 14.384040 0.000000
451.861660 295.280150 14.394610 0.000000
452.280210 295.286870 14.404777 0.000000
452.695340 295.293490 14.414554 0.000000
453.082280 295.416960 14.419643 0.000000
453.472470 295.530760 14.424809 0.000000
453.884310 295.530760 14.433796 0.000000
454.293760 295.529330 14.442469 0.000000
454.700990 295.527470 14.450804 0.000000
455.104370 295.539550 14.458301 0.000000
455.506200 295.553560 14.465402 0.000000
455.907930 295.557280 14.472531 0.000000
456.308590 295.560240 14.479362 0.000000
457.117070 295.307400 14.500716 0.000000
457.511260 295.308720 14.506589 0.000000
458.102230 295.310670 14.514793 0.000000
458.693450 295.312650 14.522401 0.000000
459.088200 295.313960 14.527080 0.000000
459.483640 295.315310 14.531466 0.000000
460.337400 295.898130 14.520981 0.000000
470.080020 295.668550 14.536687 0.000000
460.750430 295.929530 14.523643 0.000000
461.166630 295.963410 14.525939 0.000000
461.585450 295.993710 14.528063 0.000000
462.006590 296.018010 14.530082 0.000000
462.428500 296.028630 14.532233 0.000000
463.242250 295.874730 14.541045 0.000000
463.754550 296.222140 14.531917 0.000000
464.112580 295.925660 14.542310 0.000000
464.581600 296.044490 14.539618 0.000000
465.052250 296.139710 14.537345 0.000000
467.800170 296.078860 14.536199 0.000000
468.284390 296.080870 14.534423 0.000000
468.780240 296.091670 14.532004 0.000000
469.244140 296.019010 14.531799 0.000000
469.794070 296.105680 14.526253 0.000000
470.652440 295.769590 14.529904 0.000000
465.554840 296.308010 14.532516 0.000000
466.033480 296.372410 14.530548 0.000000
466.608860 296.682460 14.520710 0.000000
467.089480 296.696140 14.519613 0.000000
467.576170 296.707640 14.518228 0.000000
469.832700 288.014500 15.160891 0.000000
470.273220 288.022950 15.160930 0.000000
470.726750 288.031620 15.160839 0.000000
452.063140 290.712710 14.955050 0.000000
460.632480 295.001010 15.042559 0.000000
451.005280 295.263310 14.887906 0.000000
451.431670 295.270140 14.896365 0.000000
451.854030 295.276860 14.904590 0.000000
452.272670 295.283600 14.912588 0.000000
452.687900 295.290220 14.920366 0.000000
453.076870 295.404110 14.926376 0.000000
457.110230 295.304320 14.993924 0.000000
457.504460 295.305630 14.999578 0.000000
458.095490 295.307590 15.007754 0.000000
458.686770 295.309570 15.015633 0.000000
459.081510 295.310880 15.020693 0.000000
459.477020 295.312190 15.025612 0.000000
459.873470 295.313510 15.030393 0.000000
460.292180 295.519410 15.033044 0.000000
461.103580 295.551940 15.041734 0.000000
461.921810 295.565090 15.050096 0.000000
453.335110 296.187320 14.922764 0.000000
453.757170 296.197080 14.930165 0.000000
454.177030 296.206420 14.937373 0.000000
454.594880 296.215450 14.944393 0.000000
455.011200 296.222630 14.951248 0.000000
455.424220 296.245670 14.957721 0.000000
455.836610 296.268250 14.964029 0.000000
456.248440 296.290770 14.970173 0.000000
461.661320 296.520600 15.037158 0.000000
462.522980 296.553040 15.045442 0.000000
462.957760 296.563870 15.049438 0.000000
463.390050 296.548340 15.053529 0.000000
463.839660 296.591030 15.056999 0.000000
464.286990 296.604770 15.060587 0.000000
464.738920 296.618620 15.064049 0.000000
465.195950 296.632600 15.067384 0.000000
465.658360 296.646820 15.070590 0.000000
466.126560 296.661130 15.073669 0.000000
466.600950 296.675720 15.076619 0.000000
467.081910 296.690430 15.079440 0.000000
467.569950 296.705410 15.082131 0.000000
468.065490 296.720640 15.084691 0.000000
468.569030 296.736050 15.087117 0.000000
469.080990 296.751740 15.089408 0.000000
469.602050 296.767730 15.091561 0.000000
470.132690 296.784000 15.093576 0.000000
470.673550 296.800630 15.095448 0.000000
452.674470 286.370940 15.329654 0.000000
452.084200 286.466740 14.996539 0.000000
469.828340 288.011810 15.583174 0.000000
470.268800 288.020230 15.589320 0.000000
470.722380 288.028870 15.595650 0.000000
452.101260 289.595700 14.966902 0.000000
461.419310 295.005100 15.542900 0.000000
450.997530 295.260010 15.402360 0.000000
451.423980 295.266850 15.408298 0.000000
451.846410 295.273590 15.414178 0.000000
452.265140 295.280330 15.420008 0.000000
452.680420 295.286960 15.425788 0.000000
453.075620 295.372130 15.432140 0.000000
456.708590 295.299900 15.481310 0.000000
457.497620 295.302520 15.492186 0.000000
458.088710 295.304500 15.500334 0.000000
458.680020 295.306460 15.508486 0.000000
459.074830 295.307770 15.513927 0.000000
459.470370 295.309080 15.519380 0.000000
459.866880 295.310390 15.524845 0.000000
453.311430 296.265530 15.445005 0.000000
453.734440 296.278470 15.450960 0.000000
454.155300 296.291380 15.456886 0.000000
454.574250 296.304200 15.462785 0.000000
454.991550 296.316930 15.468658 0.000000
455.407500 296.329680 15.474515 0.000000
455.822300 296.342350 15.480355 0.000000
461.974090 295.901250 15.560182 0.000000
462.436000 296.130980 15.569006 0.000000
463.226070 295.855220 15.576899 0.000000
456.236270 296.355040 15.486182 0.000000
460.384060 296.480100 15.544558 0.000000
460.805270 296.492610 15.550483 0.000000
461.228330 296.502990 15.556411 0.000000
462.910770 296.368800 15.578096 0.000000
463.833740 296.591090 15.593181 0.000000
464.280180 296.601260 15.599428 0.000000
464.732150 296.615080 15.605791 0.000000
465.189150 296.629060 15.612225 0.000000
465.651580 296.643220 15.618735 0.000000
466.119780 296.657560 15.625327 0.000000
466.594150 296.672090 15.632006 0.000000
467.075130 296.686800 15.638776 0.000000
467.563170 296.701750 15.645647 0.000000
468.058720 296.716950 15.652625 0.000000
468.562230 296.732330 15.659712 0.000000
469.074190 296.747990 15.666921 0.000000
469.595210 296.763920 15.674255 0.000000
470.125850 296.780150 15.681726 0.000000
470.666750 296.796750 15.689341 0.000000
462.620420 295.010990 16.056505 0.000000
450.989780 295.256710 15.916921 0.000000
451.416290 295.263550 15.920334 0.000000
451.838840 295.270320 15.923869 0.000000
452.257630 295.277070 15.927530 0.000000
452.672940 295.283720 15.931314 0.000000
453.072570 295.348750 15.936982 0.000000
457.096470 295.298130 15.979679 0.000000
457.490810 295.299440 15.984896 0.000000
458.081940 295.301420 15.993015 0.000000
458.673340 295.303380 16.001438 0.000000
459.068180 295.304690 16.007263 0.000000
459.463710 295.306000 16.013248 0.000000
459.860260 295.307310 16.019398 0.000000
460.660680 295.338590 16.033199 0.000000
461.509740 295.625700 16.056707 0.000000
462.337650 295.648500 16.071918 0.000000
453.303800 296.262050 15.968506 0.000000
453.726870 296.275020 15.973033 0.000000
454.147770 296.287900 15.977695 0.000000
454.566770 296.300750 15.982495 0.000000
454.984160 296.313540 15.987434 0.000000
455.400150 296.326260 15.992515 0.000000
455.815000 296.338960 15.997739 0.000000
460.322020 295.936490 16.047142 0.000000
462.006590 296.124270 16.081411 0.000000
463.246460 295.970430 16.098833 0.000000
456.229000 296.351650 16.003111 0.000000
461.221770 296.501890 16.080200 0.000000
463.826050 296.584010 16.129368 0.000000
464.273380 296.597720 16.138376 0.000000
464.725340 296.611540 16.147642 0.000000
465.182340 296.625460 16.157175 0.000000
465.644780 296.639650 16.166992 0.000000
466.113010 296.653960 16.177097 0.000000
466.587370 296.668460 16.187506 0.000000
467.068360 296.683110 16.198227 0.000000
467.556370 296.698060 16.209282 0.000000
468.051910 296.713230 16.220676 0.000000
468.555420 296.728580 16.232430 0.000000
469.067380 296.744200 16.244556 0.000000
469.588440 296.760130 16.257074 0.000000
470.119050 296.776340 16.270004 0.000000
470.659880 296.792880 16.283363 0.000000
450.115300 295.239380 16.431223 0.000000
450.981990 295.253390 16.432072 0.000000
451.408600 295.260250 16.432959 0.000000
451.831210 295.267030 16.434145 0.000000
452.250060 295.273800 16.435635 0.000000
452.665470 295.280460 16.437416 0.000000
453.066990 295.336910 16.442108 0.000000
457.089600 295.295040 16.473173 0.000000
457.483980 295.296330 16.478170 0.000000
458.075160 295.298310 16.486261 0.000000
458.666600 295.300260 16.494957 0.000000
459.061490 295.301570 16.501163 0.000000
459.457090 295.302890 16.507681 0.000000
459.853640 295.304170 16.514517 0.000000
460.690920 295.644040 16.548193 0.000000
453.296140 296.258610 16.492601 0.000000
453.719300 296.271580 16.495697 0.000000
454.140260 296.284480 16.499096 0.000000
454.559330 296.297300 16.502796 0.000000
454.976750 296.310090 16.506796 0.000000
455.392760 296.322850 16.511101 0.000000
455.807680 296.335540 16.515709 0.000000
456.221710 296.348210 16.520622 0.000000
460.370360 296.475160 16.587284 0.000000
461.215210 296.500980 16.604700 0.000000
461.641270 296.513980 16.613962 0.000000
462.070100 296.527100 16.623608 0.000000
462.501980 296.540310 16.633646 0.000000
462.937260 296.553590 16.644085 0.000000
463.376220 296.566990 16.654940 0.000000
463.819210 296.580510 16.666218 0.000000
464.266570 296.594210 16.677938 0.000000
464.718540 296.608000 16.690111 0.000000
465.175570 296.621920 16.702749 0.000000
465.638000 296.636050 16.715874 0.000000
466.106170 296.650330 16.729498 0.000000
466.580570 296.664790 16.743641 0.000000
467.061520 296.679440 16.758320 0.000000
467.549560 296.694370 16.773561 0.000000
468.045100 296.709500 16.789383 0.000000
468.548610 296.724850 16.805807 0.000000
469.060580 296.740450 16.822857 0.000000
469.581600 296.756350 16.840569 0.000000
470.112210 296.772490 16.858961 0.000000
470.653080 296.789030 16.878077 0.000000
450.543120 295.243100 16.950449 0.000000
450.974180 295.250060 16.948313 0.000000
451.400940 295.256840 16.946657 0.000000
451.823580 295.263730 16.945499 0.000000
452.242520 295.270510 16.944811 0.000000
452.658020 295.277190 16.944588 0.000000
457.082730 295.291900 16.967709 0.000000
457.477140 295.293210 16.972485 0.000000
458.068390 295.295200 16.980547 0.000000
458.659880 295.297150 16.989517 0.000000
459.054780 295.298460 16.996105 0.000000
459.450410 295.299770 17.003160 0.000000
453.288510 296.255130 17.017797 0.000000
453.711700 296.268130 17.019461 0.000000
454.132750 296.281040 17.021591 0.000000
454.551850 296.293880 17.024189 0.000000
454.969300 296.306640 17.027250 0.000000
455.385380 296.319400 17.030777 0.000000
455.800350 296.332120 17.034767 0.000000
456.214450 296.344790 17.039221 0.000000
460.363400 296.471710 17.110027 0.000000
460.784760 296.484590 17.119854 0.000000
461.208280 296.497530 17.130213 0.000000
461.634340 296.510530 17.141115 0.000000
462.063170 296.523620 17.152569 0.000000
462.494840 296.535460 17.164484 0.000000
462.930420 296.550110 17.177193 0.000000
447.545500 291.319400 17.177366 0.000000
457.075840 295.288790 17.463764 0.000000
457.470280 295.290100 17.468319 0.000000
458.061580 295.292080 17.476353 0.000000
458.653140 295.294040 17.485596 0.000000
459.048070 295.295350 17.492571 0.000000
459.443760 295.296660 17.500164 0.000000
463.369420 296.563480 17.190390 0.000000
463.812380 296.576970 17.204199 0.000000
464.259740 296.590640 17.218637 0.000000
464.711730 296.604430 17.233725 0.000000
465.168730 296.618350 17.249474 0.000000
465.631200 296.632450 17.265917 0.000000
466.099400 296.646730 17.283066 0.000000
466.573760 296.661190 17.300953 0.000000
467.054750 296.675780 17.319597 0.000000
467.542760 296.690670 17.339035 0.000000
468.038300 296.705780 17.359295 0.000000
468.541810 296.721100 17.380398 0.000000
469.053770 296.736660 17.402388 0.000000
469.574770 296.752530 17.425301 0.000000
470.105380 296.768650 17.449171 0.000000
470.646210 296.785130 17.474052 0.000000
450.925140 295.379670 17.479191 0.000000
451.355530 295.382840 17.474609 0.000000
451.780790 295.389370 17.471031 0.000000
452.200960 295.401060 17.468616 0.000000
452.617770 295.412990 17.466877 0.000000
453.031460 295.425600 17.465841 0.000000
453.280820 296.251650 17.544601 0.000000
453.704070 296.264620 17.544825 0.000000
454.125150 296.277560 17.545687 0.000000
454.544310 296.290410 17.547176 0.000000
454.961850 296.303220 17.549297 0.000000
455.377990 296.315980 17.552042 0.000000
455.793000 296.328670 17.555412 0.000000
456.207150 296.341370 17.559408 0.000000
460.356410 296.468260 17.634371 0.000000
460.777770 296.481110 17.645500 0.000000
461.201350 296.494050 17.657333 0.000000
461.627440 296.507080 17.669880 0.000000
462.056300 296.520140 17.683149 0.000000
462.488220 296.533330 17.697163 0.000000
462.923520 296.546570 17.711933 0.000000
463.362550 296.559970 17.727484 0.000000
463.805510 296.573430 17.743828 0.000000
464.252870 296.587100 17.760994 0.000000
464.704860 296.600860 17.779005 0.000000
465.161900 296.614750 17.797876 0.000000
465.624330 296.628850 17.817646 0.000000
466.092530 296.643100 17.838335 0.000000
466.566960 296.657530 17.859978 0.000000
467.047910 296.672090 17.882599 0.000000
467.535950 296.686980 17.906252 0.000000
468.031460 296.702060 17.930958 0.000000
468.534940 296.717320 17.956758 0.000000
469.046910 296.732880 17.983704 0.000000
469.567930 296.748690 18.011835 0.000000
470.098510 296.764800 18.041204 0.000000
470.639340 296.781250 18.071869 0.000000
449.818850 293.634770 17.827402 0.000000
450.079380 294.060030 17.869106 0.000000
449.875700 295.846340 18.077440 0.000000
450.323640 295.853420 18.068707 0.000000
450.766570 295.861080 18.060953 0.000000
451.204770 295.869630 18.054203 0.000000
451.638670 295.878600 18.048378 0.000000
452.068570 295.888460 18.043516 0.000000
452.494900 295.898860 18.039568 0.000000
453.273130 296.248140 18.073502 0.000000
453.696440 296.261170 18.072283 0.000000
454.117580 296.274110 18.071869 0.000000
454.536800 296.286960 18.072250 0.000000
454.954350 296.299770 18.073421 0.000000
455.370540 296.312500 18.075380 0.000000
455.785580 296.325230 18.078131 0.000000
456.199800 296.337950 18.081665 0.000000
456.613340 296.350590 18.085983 0.000000
457.026550 296.363220 18.091087 0.000000
457.439640 296.375890 18.096983 0.000000
457.852870 296.388550 18.103670 0.000000
458.266510 296.401210 18.111156 0.000000
458.680760 296.413850 18.119446 0.000000
459.095920 296.426510 18.128544 0.000000
459.512240 296.439240 18.138462 0.000000
459.929990 296.452030 18.149212 0.000000
460.349400 296.464810 18.160803 0.000000
460.770810 296.477660 18.173244 0.000000
461.194370 296.490600 18.186556 0.000000
461.620480 296.503600 18.200752 0.000000
462.049500 296.517550 18.215956 0.000000
462.481290 296.529820 18.231857 0.000000
462.916630 296.543060 18.248804 0.000000
463.355650 296.556430 18.266714 0.000000
463.798650 296.569890 18.285608 0.000000
464.246000 296.583530 18.305517 0.000000
464.698000 296.597290 18.326462 0.000000
465.155030 296.611150 18.348465 0.000000
465.617460 296.625210 18.371580 0.000000
466.085690 296.639430 18.395821 0.000000
466.560090 296.653870 18.421236 0.000000
450.544340 295.157230 18.507915 0.000000
451.979250 296.205110 18.619013 0.000000
452.410920 296.218350 18.613356 0.000000
452.839540 296.231570 18.608711 0.000000
453.265380 296.244630 18.605057 0.000000
453.688750 296.257660 18.602386 0.000000
454.109950 296.270600 18.600689 0.000000
454.529240 296.283450 18.599955 0.000000
454.946840 296.296300 18.600178 0.000000
455.363070 296.309050 18.601351 0.000000
455.778170 296.321780 18.603472 0.000000
456.192410 296.334470 18.606541 0.000000
456.606020 296.347140 18.610554 0.000000
457.019260 296.359800 18.615519 0.000000
457.432400 296.372440 18.621428 0.000000
457.845640 296.385070 18.628294 0.000000
458.259310 296.397740 18.636114 0.000000
458.673610 296.410400 18.644901 0.000000
459.088810 296.423070 18.654655 0.000000
459.505160 296.435790 18.665400 0.000000
459.922910 296.448520 18.677132 0.000000
460.342380 296.461330 18.689873 0.000000
460.763760 296.474180 18.703636 0.000000
461.187380 296.487120 18.718437 0.000000
461.613490 296.500090 18.734287 0.000000
462.042390 296.513120 18.751211 0.000000
462.474330 296.526280 18.769234 0.000000
467.041050 296.668430 18.447853 0.000000
467.529050 296.683260 18.475733 0.000000
468.024600 296.698300 18.504908 0.000000
468.528080 296.713560 18.535427 0.000000
469.040040 296.729060 18.567343 0.000000
469.561040 296.744870 18.600721 0.000000
470.091610 296.760930 18.635607 0.000000
470.632450 296.777340 18.672083 0.000000
449.764560 296.136810 18.662924 0.000000
450.662990 296.164520 18.642153 0.000000
451.105620 296.178160 18.633387 0.000000
451.544250 296.191650 18.625677 0.000000
462.909670 296.539520 18.788372 0.000000
463.348690 296.552860 18.808655 0.000000
463.791720 296.566310 18.830112 0.000000
464.239070 296.579930 18.852772 0.000000
464.691100 296.593690 18.876671 0.000000
465.148130 296.607510 18.901825 0.000000
465.610600 296.621580 18.928295 0.000000
466.078800 296.635800 18.956112 0.000000
466.553190 296.650180 18.985315 0.000000
467.033940 296.664150 19.015862 0.000000
467.522190 296.679530 19.048082 0.000000
468.017700 296.694550 19.081751 0.000000
468.521180 296.709750 19.117006 0.000000
469.033110 296.725250 19.153927 0.000000
469.554140 296.741030 19.192570 0.000000
470.084690 296.757020 19.233007 0.000000
470.625490 296.773410 19.275320 0.000000
450.207790 296.147130 19.201900 0.000000
450.654790 296.160920 19.189333 0.000000
451.097470 296.174590 19.178034 0.000000
451.536160 296.188080 19.167971 0.000000
451.971280 296.201540 19.159140 0.000000
452.402980 296.214810 19.151497 0.000000
452.831630 296.228000 19.145046 0.000000
453.257570 296.241120 19.139761 0.000000
453.681030 296.254090 19.135624 0.000000
454.102290 296.267090 19.132641 0.000000
454.521640 296.279970 19.130779 0.000000
454.939300 296.292790 19.130043 0.000000
455.355560 296.305540 19.130423 0.000000
455.770720 296.318300 19.131920 0.000000
456.185000 296.330990 19.134521 0.000000
456.598660 296.343660 19.138229 0.000000
457.011900 296.356320 19.143051 0.000000
457.425080 296.368960 19.148975 0.000000
457.838410 296.381620 19.156017 0.000000
458.252080 296.394260 19.164179 0.000000
458.666410 296.406920 19.173466 0.000000
459.081630 296.419590 19.183886 0.000000
459.498020 296.432310 19.195456 0.000000
459.915830 296.445040 19.208178 0.000000
460.335270 296.457820 19.222076 0.000000
460.756710 296.470670 19.237162 0.000000
461.180330 296.483580 19.253458 0.000000
461.606480 296.496550 19.270979 0.000000
462.035400 296.509610 19.289747 0.000000
462.467350 296.522770 19.309793 0.000000
462.902710 296.535950 19.331133 0.000000
463.341740 296.549320 19.353807 0.000000
463.784760 296.562770 19.377842 0.000000
464.232150 296.576320 19.403267 0.000000
464.685150 296.593660 19.430759 0.000000
465.138890 296.596100 19.457092 0.000000
469.320190 286.518160 14.087954 0.000000
469.739170 286.343990 14.082724 0.000000
470.158600 286.162260 14.077024 0.000000
453.739840 287.014470 13.998554 0.000000
454.140870 287.103670 14.010843 0.000000
467.884340 286.961940 14.107793 0.000000
468.172850 286.885800 14.103866 0.000000
468.461330 286.804110 14.099854 0.000000
468.896030 286.674010 14.093367 0.000000
454.482730 287.346890 14.008551 0.000000
454.907960 287.355350 14.025793 0.000000
455.337430 287.324430 14.045024 0.000000
456.171570 287.271390 14.079272 0.000000
456.559230 287.334050 14.087475 0.000000
456.946750 287.390990 14.095100 0.000000
457.334630 287.441410 14.102434 0.000000
457.722440 287.486790 14.109148 0.000000
458.110660 287.526250 14.115528 0.000000
465.901520 287.412780 14.127587 0.000000
466.182430 287.359620 14.125341 0.000000
466.886720 287.207000 14.119109 0.000000
467.312190 287.106450 14.114703 0.000000
467.597840 287.036160 14.111349 0.000000
458.499110 287.560640 14.121308 0.000000
458.888210 287.585570 14.127028 0.000000
459.277890 287.598360 14.132696 0.000000
459.667630 287.606140 14.137954 0.000000
460.058690 287.644810 14.139873 0.000000
460.583530 287.690250 14.141611 0.000000
460.979980 287.718930 14.142354 0.000000
461.379360 287.741240 14.142597 0.000000
461.781130 287.758510 14.142426 0.000000
462.186040 287.768920 14.141768 0.000000
462.593600 287.774230 14.140682 0.000000
462.866390 287.771000 14.139918 0.000000
463.276060 287.751920 14.139011 0.000000
463.685790 287.719150 14.138297 0.000000
464.096980 287.676330 14.137276 0.000000
464.510280 287.628600 14.135757 0.000000
464.925020 287.570830 14.133904 0.000000
465.342010 287.508000 14.131542 0.000000
465.621370 287.462250 14.129652 0.000000
470.023650 288.096470 14.372144 0.000000
452.589810 289.765200 14.157622 0.000000
453.078890 289.841830 14.172414 0.000000
470.261900 289.704190 14.295969 0.000000
470.682590 289.711980 14.286569 0.000000
453.318790 290.118900 14.167234 0.000000
454.296780 290.239410 14.194786 0.000000
454.604160 290.328740 14.200079 0.000000
468.532930 290.149410 14.307562 0.000000
468.890900 290.096650 14.304125 0.000000
469.174740 289.900790 14.308289 0.000000
469.614200 289.978210 14.296547 0.000000
469.975620 289.905700 14.292781 0.000000
455.229310 290.466920 14.212004 0.000000
465.787450 290.527470 14.321690 0.000000
466.118290 290.476260 14.321589 0.000000
466.452120 290.426610 14.321005 0.000000
466.963010 290.366030 14.318575 0.000000
467.474240 290.284790 14.316405 0.000000
467.825010 290.244140 14.313657 0.000000
462.534330 290.883610 14.310059 0.000000
463.470460 290.658450 14.323752 0.000000
463.817900 290.742030 14.319146 0.000000
464.142550 290.710510 14.320291 0.000000
464.469090 290.679570 14.321029 0.000000
464.981780 290.695400 14.318054 0.000000
453.031010 286.922670 14.314706 0.000000
470.020050 288.094850 14.777380 0.000000
453.723210 289.939670 14.190720 0.000000
454.069700 289.903690 14.204507 0.000000
455.775600 290.214260 14.240993 0.000000
456.265870 290.160190 14.257170 0.000000
456.593540 290.090210 14.269310 0.000000
458.116180 290.336610 14.289860 0.000000
451.966160 290.799320 14.512650 0.000000
457.166900 290.434110 14.264538 0.000000
457.482700 290.426210 14.271990 0.000000
457.796360 290.423220 14.278772 0.000000
458.578830 290.359710 14.297141 0.000000
459.041320 290.378170 14.303963 0.000000
459.349430 290.403290 14.307340 0.000000
459.658200 290.425080 14.310554 0.000000
460.123720 290.487210 14.313089 0.000000
460.592590 290.548830 14.314985 0.000000
460.907470 290.585270 14.316051 0.000000
461.383450 290.635220 14.317223 0.000000
461.863130 290.679080 14.318035 0.000000
463.136930 290.618650 14.325665 0.000000
462.200960 290.816100 14.312364 0.000000
448.179410 292.550320 14.337782 0.000000
449.910740 293.567470 14.368027 0.000000
450.297700 293.687160 14.376861 0.000000
450.579280 295.125370 14.343443 0.000000
450.977480 295.266480 14.351053 0.000000
451.424320 295.273530 14.363766 0.000000
451.865750 295.280460 14.376007 0.000000
452.302150 295.287380 14.387790 0.000000
452.733860 295.294190 14.399134 0.000000
453.104460 295.497380 14.402497 0.000000
453.530120 295.508910 14.412907 0.000000
453.955320 295.508210 14.423374 0.000000
454.376310 295.509280 14.433369 0.000000
454.794280 295.508940 14.443028 0.000000
455.205020 295.529330 14.451553 0.000000
455.615600 295.538790 14.460115 0.000000
456.024630 295.544100 14.468469 0.000000
456.431640 295.548890 14.476490 0.000000
457.267300 295.307100 14.500167 0.000000
457.665410 295.308320 14.507221 0.000000
458.062290 295.309570 14.513952 0.000000
458.458220 295.310820 14.520365 0.000000
458.853490 295.312100 14.526465 0.000000
459.248230 295.313320 14.532259 0.000000
459.642760 295.314610 14.537747 0.000000
460.450840 295.887630 14.529387 0.000000
460.844910 295.666050 14.541257 0.000000
461.268040 295.976840 14.535746 0.000000
461.682430 296.046750 14.537696 0.000000
462.095340 296.066350 14.540961 0.000000
462.509550 296.078740 14.544161 0.000000
462.927220 296.100310 14.546777 0.000000
463.346560 296.115110 14.549310 0.000000
470.043950 296.100770 14.557324 0.000000
470.548310 296.127560 14.554296 0.000000
464.213260 296.244900 14.550390 0.000000
464.719240 296.618770 14.540964 0.000000
465.158750 296.628480 14.542497 0.000000
465.970120 296.348050 14.553815 0.000000
466.467380 296.536290 14.548924 0.000000
468.299190 296.521850 14.549614 0.000000
465.604950 296.649380 14.543373 0.000000
466.965090 296.688050 14.544838 0.000000
467.429080 296.702240 14.544636 0.000000
467.897950 296.714050 14.544173 0.000000
468.800050 296.595370 14.546579 0.000000
469.277980 296.588560 14.545650 0.000000
469.963350 288.014130 15.182490 0.000000
470.360750 288.021670 15.182919 0.000000
452.091550 289.661870 14.955516 0.000000
452.055970 290.570770 14.946467 0.000000
450.516690 295.255830 14.869456 0.000000
450.969450 295.262970 14.879158 0.000000
451.416380 295.270080 14.888574 0.000000
451.857910 295.277040 14.897718 0.000000
452.294370 295.284000 14.906599 0.000000
452.726170 295.290800 14.915228 0.000000
456.860750 295.302640 14.990078 0.000000
457.260350 295.303920 14.996478 0.000000
457.658510 295.305180 15.002705 0.000000
458.451450 295.307680 15.014652 0.000000
458.846710 295.308930 15.020384 0.000000
459.241520 295.310180 15.025957 0.000000
459.636080 295.311430 15.031377 0.000000
460.030670 295.312680 15.036647 0.000000
461.233760 295.566100 15.049078 0.000000
462.039220 295.581570 15.058315 0.000000
462.463960 295.752040 15.061197 0.000000
462.836670 295.489590 15.068015 0.000000
453.340760 296.177760 14.918349 0.000000
453.775820 296.187960 14.926531 0.000000
454.207400 296.198180 14.934484 0.000000
454.635890 296.208070 14.942224 0.000000
455.061580 296.217860 14.949754 0.000000
455.482090 296.242100 14.956881 0.000000
455.900910 296.265810 14.963826 0.000000
456.318270 296.288940 14.970593 0.000000
460.448670 296.025910 15.034306 0.000000
460.868560 296.268860 15.036960 0.000000
461.716520 296.523250 15.044422 0.000000
463.411770 296.572570 15.062401 0.000000
463.842590 296.589450 15.066521 0.000000
464.275910 296.602660 15.070543 0.000000
464.712650 296.615940 15.074434 0.000000
465.153080 296.629360 15.078196 0.000000
465.597530 296.642910 15.081826 0.000000
466.046330 296.656620 15.085329 0.000000
466.499820 296.670440 15.088701 0.000000
466.958400 296.684420 15.091947 0.000000
467.422390 296.698580 15.095062 0.000000
467.892150 296.712920 15.098048 0.000000
468.368130 296.727450 15.100903 0.000000
468.850740 296.742130 15.103627 0.000000
469.340420 296.757080 15.106218 0.000000
469.837680 296.772310 15.108677 0.000000
470.342860 296.787690 15.111000 0.000000
451.426670 286.382170 14.967524 0.000000
452.131500 288.107940 14.970179 0.000000
469.959110 288.011510 15.584760 0.000000
452.115630 288.846830 14.963337 0.000000
449.583980 295.237670 15.387987 0.000000
450.049560 295.245060 15.394365 0.000000
452.286650 295.280580 15.425011 0.000000
453.065920 295.570800 15.438716 0.000000
456.853730 295.299470 15.486988 0.000000
459.629430 295.308290 15.524627 0.000000
453.744140 296.279480 15.455618 0.000000
454.177090 296.291720 15.461607 0.000000
454.606750 296.304810 15.467561 0.000000
455.033660 296.317810 15.473477 0.000000
456.300780 296.356410 15.491036 0.000000
460.873170 296.495670 15.554399 0.000000
461.290620 296.506740 15.560166 0.000000
462.951200 296.364410 15.581074 0.000000
463.405550 296.572780 15.589492 0.000000
466.493130 296.666840 15.632278 0.000000
466.951720 296.680790 15.638633 0.000000
468.361480 296.723720 15.658169 0.000000
469.333770 296.753330 15.671642 0.000000
470.356480 288.019010 15.590217 0.000000
449.113010 295.226560 15.381496 0.000000
450.508580 295.252350 15.400654 0.000000
450.961400 295.259550 15.406857 0.000000
451.408450 295.266600 15.412981 0.000000
451.850070 295.273620 15.419030 0.000000
457.253390 295.300750 15.492408 0.000000
457.651580 295.301970 15.497808 0.000000
458.048580 295.303220 15.503190 0.000000
458.444610 295.304500 15.508561 0.000000
459.234800 295.307040 15.519276 0.000000
460.023680 295.284270 15.529697 0.000000
462.014950 295.405670 15.557955 0.000000
460.435910 295.838710 15.541321 0.000000
453.308350 296.265230 15.449569 0.000000
455.458100 296.330750 15.479360 0.000000
455.880400 296.343630 15.485211 0.000000
462.501400 296.115480 15.572276 0.000000
463.716610 295.899200 15.586353 0.000000
461.709630 296.519410 15.565971 0.000000
464.269170 296.599090 15.601460 0.000000
464.705900 296.612370 15.607512 0.000000
465.146330 296.625790 15.613615 0.000000
465.590790 296.639310 15.619774 0.000000
466.039640 296.653020 15.625994 0.000000
467.415680 296.694950 15.645063 0.000000
467.885470 296.709230 15.651573 0.000000
468.844060 296.738400 15.664857 0.000000
469.830960 296.768490 15.678533 0.000000
470.336180 296.783870 15.685534 0.000000
449.102870 295.226590 15.924612 0.000000
449.575620 295.234130 15.926934 0.000000
450.041350 295.241550 15.929385 0.000000
450.500460 295.248870 15.931963 0.000000
450.953400 295.256040 15.934668 0.000000
451.400510 295.263180 15.937497 0.000000
451.842250 295.270200 15.940452 0.000000
452.278900 295.277190 15.943529 0.000000
453.064610 295.545410 15.957622 0.000000
457.246430 295.297550 15.988439 0.000000
457.644680 295.298830 15.993011 0.000000
458.041750 295.300080 15.997722 0.000000
458.437810 295.301330 16.002569 0.000000
458.833190 295.302580 16.007561 0.000000
459.228090 295.303860 16.012695 0.000000
460.017400 295.306370 16.023411 0.000000
463.215970 295.392730 16.075422 0.000000
460.420200 295.553920 16.037169 0.000000
460.817440 295.505340 16.041309 0.000000
461.216190 295.494260 16.046850 0.000000
461.624180 295.586180 16.056047 0.000000
462.422700 295.510890 16.066170 0.000000
453.300540 296.261660 15.982290 0.000000
453.736660 296.274990 15.986208 0.000000
454.169400 296.288150 15.990256 0.000000
454.599150 296.301270 15.994437 0.000000
455.026120 296.314270 15.998752 0.000000
455.450650 296.327210 16.003199 0.000000
455.872990 296.340090 16.007786 0.000000
462.079220 296.095580 16.079758 0.000000
462.894930 296.000790 16.089828 0.000000
456.293430 296.352910 16.012508 0.000000
463.829070 296.582370 16.124493 0.000000
464.262420 296.595550 16.132481 0.000000
464.699160 296.608830 16.140694 0.000000
465.139590 296.622220 16.149139 0.000000
465.584080 296.635710 16.157829 0.000000
466.032930 296.649410 16.166767 0.000000
466.486450 296.663210 16.175964 0.000000
466.945010 296.677120 16.185429 0.000000
467.409000 296.691250 16.195175 0.000000
467.878780 296.705540 16.205212 0.000000
468.354800 296.720030 16.215549 0.000000
468.837370 296.734650 16.226202 0.000000
469.327060 296.749570 16.237185 0.000000
469.824280 296.764710 16.248510 0.000000
470.329500 296.780060 16.260191 0.000000
448.614040 295.215390 16.470539 0.000000
449.094420 295.223020 16.468340 0.000000
449.567290 295.230590 16.466505 0.000000
450.033110 295.238010 16.465023 0.000000
450.492310 295.245360 16.463886 0.000000
450.945340 295.252620 16.463089 0.000000
451.392580 295.259740 16.462620 0.000000
451.834410 295.266780 16.462473 0.000000
452.271150 295.273740 16.462645 0.000000
453.063290 295.520050 16.476126 0.000000
457.239470 295.294340 16.485039 0.000000
457.637790 295.295620 16.488785 0.000000
458.034880 295.296880 16.492819 0.000000
458.431000 295.298160 16.497147 0.000000
458.826420 295.299410 16.501764 0.000000
459.221340 295.300690 16.506680 0.000000
459.616060 295.301940 16.511894 0.000000
460.413020 295.535580 16.535950 0.000000
453.292690 296.258060 16.515617 0.000000
453.728880 296.271390 16.517410 0.000000
454.161740 296.284610 16.519506 0.000000
454.591550 296.297700 16.521912 0.000000
455.018590 296.310730 16.524622 0.000000
455.443180 296.323700 16.527636 0.000000
455.865540 296.336580 16.530952 0.000000
456.286010 296.349400 16.534573 0.000000
460.859310 296.488680 16.594791 0.000000
461.273960 296.456600 16.599710 0.000000
461.696040 296.514160 16.609955 0.000000
462.116820 296.526950 16.618059 0.000000
462.539550 296.539790 16.626518 0.000000
462.964510 296.552730 16.635347 0.000000
463.392000 296.565730 16.644547 0.000000
463.822270 296.578830 16.654131 0.000000
464.255680 296.592010 16.664106 0.000000
464.692410 296.605260 16.674484 0.000000
465.132870 296.618650 16.685276 0.000000
465.577360 296.632140 16.696497 0.000000
466.026180 296.645780 16.708158 0.000000
466.479740 296.659610 16.720272 0.000000
466.938080 296.672790 16.732809 0.000000
467.402310 296.687590 16.745918 0.000000
467.872100 296.701840 16.759483 0.000000
468.348080 296.716310 16.773569 0.000000
468.830690 296.730930 16.788193 0.000000
469.320400 296.745820 16.803377 0.000000
469.817600 296.760930 16.819141 0.000000
470.322780 296.776250 16.835508 0.000000
450.852970 293.303650 16.854172 0.000000
450.484190 295.241880 16.996939 0.000000
450.937290 295.249150 16.992630 0.000000
451.384610 295.256290 16.988852 0.000000
451.826510 295.263340 16.985598 0.000000
452.263370 295.270360 16.982859 0.000000
452.695500 295.277250 16.980618 0.000000
457.232510 295.291170 16.982689 0.000000
457.630860 295.292450 16.985603 0.000000
458.028020 295.293730 16.988962 0.000000
458.424160 295.294980 16.992765 0.000000
458.819640 295.296260 16.997015 0.000000
459.214600 295.297520 17.001709 0.000000
459.609340 295.298770 17.006853 0.000000
453.721130 296.267820 17.049728 0.000000
454.154050 296.281040 17.049871 0.000000
454.583920 296.294160 17.050493 0.000000
455.011020 296.307190 17.051598 0.000000
455.435670 296.320160 17.053171 0.000000
455.858120 296.333070 17.055218 0.000000
456.278660 296.345890 17.057732 0.000000
460.435820 296.472530 17.108650 0.000000
460.852360 296.485200 17.116375 0.000000
461.270020 296.497890 17.124599 0.000000
461.689120 296.510650 17.133329 0.000000
462.109950 296.523440 17.142574 0.000000
462.532710 296.536320 17.152340 0.000000
462.957670 296.549220 17.162642 0.000000
463.385190 296.562230 17.173485 0.000000
463.815490 296.575290 17.184883 0.000000
464.248900 296.588470 17.196850 0.000000
448.674260 292.380490 17.318550 0.000000
449.259580 292.122560 17.279278 0.000000
449.085940 295.219420 17.013222 0.000000
449.558930 295.227020 17.007221 0.000000
457.225520 295.287960 17.481869 0.000000
457.623930 295.289250 17.483952 0.000000
458.021120 295.290530 17.486631 0.000000
458.417360 295.291810 17.489910 0.000000
458.812840 295.293090 17.493786 0.000000
459.207860 295.294340 17.498259 0.000000
459.602630 295.295590 17.503334 0.000000
453.284880 296.254490 17.050070 0.000000
464.685640 296.601720 17.209398 0.000000
465.126130 296.615050 17.222542 0.000000
465.570620 296.628540 17.236300 0.000000
466.019500 296.642180 17.250689 0.000000
466.473020 296.655940 17.265726 0.000000
466.931610 296.669830 17.281427 0.000000
467.395600 296.683900 17.297821 0.000000
467.865390 296.698180 17.314928 0.000000
468.341400 296.712620 17.332769 0.000000
468.824010 296.727170 17.351370 0.000000
469.313690 296.742070 17.370768 0.000000
469.810880 296.757140 17.390984 0.000000
470.316100 296.772400 17.412048 0.000000
449.739230 292.013790 17.735682 0.000000
450.097470 294.008450 17.427113 0.000000
448.664180 294.120120 17.472080 0.000000
450.529420 294.036470 17.420341 0.000000
448.988010 295.405550 17.579004 0.000000
450.401890 295.419710 17.549761 0.000000
450.861420 295.420070 17.541168 0.000000
451.312470 295.426940 17.533983 0.000000
451.757720 295.434510 17.527607 0.000000
452.197200 295.444090 17.522146 0.000000
452.631900 295.454040 17.517427 0.000000
453.277040 296.250850 17.586157 0.000000
453.713380 296.264220 17.583679 0.000000
454.146330 296.277470 17.581860 0.000000
454.576260 296.290590 17.580698 0.000000
455.003420 296.303650 17.580187 0.000000
455.428130 296.316620 17.580318 0.000000
455.850650 296.329530 17.581089 0.000000
456.271240 296.342350 17.582491 0.000000
460.428830 296.469060 17.631176 0.000000
460.845400 296.481720 17.639557 0.000000
461.263090 296.494420 17.648598 0.000000
461.682220 296.507140 17.658306 0.000000
462.103060 296.519930 17.668695 0.000000
462.525850 296.532780 17.679770 0.000000
462.950840 296.545680 17.691551 0.000000
463.378360 296.558650 17.704041 0.000000
463.808690 296.571720 17.717260 0.000000
464.242070 296.584870 17.731226 0.000000
464.678860 296.598110 17.745951 0.000000
465.119380 296.611480 17.761456 0.000000
465.563870 296.624940 17.777758 0.000000
466.012730 296.638550 17.794886 0.000000
466.466280 296.652310 17.812857 0.000000
466.924840 296.666140 17.831688 0.000000
467.388890 296.680240 17.851423 0.000000
467.858640 296.694430 17.872078 0.000000
468.334660 296.708890 17.893690 0.000000
468.817260 296.723420 17.916281 0.000000
469.306950 296.738250 17.939905 0.000000
469.804170 296.753330 17.964586 0.000000
470.309360 296.768590 17.990362 0.000000
451.645200 286.465390 17.775589 0.000000
449.485630 293.385130 17.893986 0.000000
448.433010 293.642850 17.960329 0.000000
449.699520 293.875580 17.940535 0.000000
450.047580 294.098140 17.953930 0.000000
449.712950 295.914610 18.166283 0.000000
450.187930 295.918670 18.153120 0.000000
450.656070 295.923550 18.141073 0.000000
451.117800 295.929110 18.130106 0.000000
451.573580 295.935300 18.120182 0.000000
452.023830 295.942320 18.111296 0.000000
452.469020 295.949830 18.103392 0.000000
453.269130 296.247250 18.124384 0.000000
453.705540 296.260620 18.119757 0.000000
454.138580 296.273860 18.115969 0.000000
454.568570 296.286990 18.113010 0.000000
454.995820 296.300080 18.110882 0.000000
455.420590 296.313050 18.109564 0.000000
455.843140 296.325960 18.109055 0.000000
456.263760 296.338840 18.109346 0.000000
456.682770 296.351620 18.110430 0.000000
457.100370 296.364320 18.112303 0.000000
457.516820 296.377040 18.114971 0.000000
457.932430 296.389740 18.118425 0.000000
458.347410 296.402370 18.122665 0.000000
458.761990 296.415010 18.127697 0.000000
459.176480 296.427610 18.133518 0.000000
459.591130 296.440250 18.140139 0.000000
460.006130 296.452910 18.147560 0.000000
460.421810 296.465550 18.155785 0.000000
460.838410 296.478180 18.164820 0.000000
461.256130 296.490880 18.174681 0.000000
461.675290 296.503630 18.185375 0.000000
462.096130 296.516420 18.196911 0.000000
462.518950 296.529240 18.209303 0.000000
462.943970 296.542140 18.222565 0.000000
463.371520 296.555110 18.236713 0.000000
463.801850 296.568180 18.251762 0.000000
464.235260 296.581300 18.267733 0.000000
464.672090 296.594510 18.284643 0.000000
465.112550 296.607850 18.302517 0.000000
465.557070 296.621310 18.321377 0.000000
466.005950 296.634920 18.341251 0.000000
466.459500 296.648650 18.362169 0.000000
466.918090 296.662480 18.384144 0.000000
467.382110 296.676540 18.407234 0.000000
467.851900 296.690730 18.431454 0.000000
468.327910 296.705140 18.456850 0.000000
449.110230 294.125890 18.517488 0.000000
450.029020 294.117980 18.477444 0.000000
454.130800 296.270230 18.652754 0.000000
454.560880 296.283390 18.648001 0.000000
454.988160 296.296480 18.644238 0.000000
455.412990 296.309480 18.641466 0.000000
455.835630 296.322390 18.639669 0.000000
456.256320 296.335270 18.638840 0.000000
456.675350 296.348050 18.638971 0.000000
457.092990 296.360810 18.640057 0.000000
457.509520 296.373540 18.642094 0.000000
457.925140 296.386200 18.645079 0.000000
458.340150 296.398830 18.649015 0.000000
458.754790 296.411470 18.653904 0.000000
459.169310 296.424070 18.659742 0.000000
459.583980 296.436740 18.666540 0.000000
459.999050 296.449340 18.674295 0.000000
460.414730 296.462010 18.683022 0.000000
460.831360 296.474640 18.692717 0.000000
461.249110 296.487370 18.703405 0.000000
461.668300 296.500060 18.715084 0.000000
462.089170 296.512850 18.727777 0.000000
462.511990 296.525670 18.741491 0.000000
462.937010 296.538150 18.756184 0.000000
463.364620 296.551540 18.772060 0.000000
463.794980 296.564580 18.788946 0.000000
468.810670 296.720090 18.483507 0.000000
469.300200 296.734470 18.511318 0.000000
469.797420 296.749480 18.540482 0.000000
470.302610 296.764740 18.570992 0.000000
451.064330 291.803560 18.599455 0.000000
449.009400 293.391940 18.946669 0.000000
448.641510 296.095430 18.793278 0.000000
449.613040 296.123170 18.757687 0.000000
450.084780 296.146120 18.743174 0.000000
450.553960 296.160520 18.728640 0.000000
451.017430 296.174770 18.715284 0.000000
451.475490 296.188810 18.703079 0.000000
451.928560 296.202730 18.692011 0.000000
452.376980 296.216490 18.682037 0.000000
452.821080 296.230100 18.673145 0.000000
453.261230 296.243590 18.665312 0.000000
453.697660 296.257020 18.658527 0.000000
464.228420 296.577700 18.806932 0.000000
464.665220 296.590910 18.826040 0.000000
465.105740 296.604250 18.846294 0.000000
465.550260 296.617680 18.867725 0.000000
465.999150 296.631260 18.890364 0.000000
466.452700 296.644990 18.914242 0.000000
466.911290 296.658780 18.939381 0.000000
467.375310 296.672790 18.965837 0.000000
467.845120 296.687010 18.993645 0.000000
468.321110 296.701350 19.022842 0.000000
468.803710 296.715850 19.053473 0.000000
469.293430 296.730680 19.085608 0.000000
469.790620 296.745670 19.119280 0.000000
470.295810 296.760830 19.154545 0.000000
449.061100 294.204900 19.064583 0.000000
449.438080 294.387570 19.071905 0.000000
449.600740 296.127660 19.327461 0.000000
450.076200 296.142270 19.307930 0.000000
450.545470 296.156740 19.289837 0.000000
451.009030 296.170990 19.273132 0.000000
451.467190 296.185090 19.257792 0.000000
451.920350 296.199010 19.243782 0.000000
452.368840 296.212800 19.231073 0.000000
452.813050 296.226440 19.219635 0.000000
453.253230 296.239930 19.209444 0.000000
453.689790 296.253360 19.200485 0.000000
454.122990 296.266600 19.192722 0.000000
454.553100 296.279790 19.186155 0.000000
454.980470 296.292880 19.180758 0.000000
455.405360 296.305820 19.176504 0.000000
455.828030 296.318820 19.173424 0.000000
456.248780 296.331670 19.171463 0.000000
456.667880 296.344480 19.170633 0.000000
457.085570 296.357240 19.170923 0.000000
457.502140 296.369960 19.172333 0.000000
457.917820 296.382630 19.174850 0.000000
458.332860 296.395290 19.178482 0.000000
458.747530 296.407930 19.183228 0.000000
459.162110 296.420530 19.189079 0.000000
459.576810 296.433170 19.196054 0.000000
459.991910 296.445800 19.204151 0.000000
460.407620 296.458440 19.213377 0.000000
460.824280 296.471100 19.223742 0.000000
461.242070 296.483800 19.235260 0.000000
461.661320 296.496520 19.247931 0.000000
462.082180 296.509280 19.261786 0.000000
462.505100 296.522640 19.276918 0.000000
462.930110 296.535000 19.293083 0.000000
463.357700 296.547940 19.310570 0.000000
463.788060 296.560940 19.329308 0.000000
464.221530 296.574100 19.349327 0.000000
464.658330 296.587280 19.370642 0.000000
465.098850 296.600590 19.393295 0.000000
465.543430 296.614040 19.417315 0.000000
465.992190 296.627110 19.442648 0.000000
466.446870 296.644870 19.470215 0.000000
466.902100 296.647250 19.496531 0.000000
451.986390 286.105190 13.883212 0.000000
452.249180 286.227910 13.892338 0.000000
452.511900 286.347720 13.901206 0.000000
452.774960 286.464260 13.909863 0.000000
453.839840 286.584290 13.963659 0.000000
454.207240 286.778200 13.970834 0.000000
454.428380 286.955050 13.970588 0.000000
454.726440 286.972690 13.984718 0.000000
455.027500 286.974120 13.999690 0.000000
455.500340 286.903900 14.027364 0.000000
456.187190 286.982880 14.053080 0.000000
456.578250 287.070250 14.063431 0.000000
469.942500 286.932310 14.119885 0.000000
470.221250 286.832240 14.117388 0.000000
470.639800 286.674800 14.113204 0.000000
448.669250 287.288730 14.015595 0.000000
457.098790 287.178650 14.076431 0.000000
457.488980 287.252960 14.085676 0.000000
457.878850 287.321040 14.094361 0.000000
458.268590 287.384120 14.102612 0.000000
458.659120 287.436280 14.110702 0.000000
459.050290 287.478700 14.118743 0.000000
459.310820 287.504090 14.123783 0.000000
468.661710 287.278930 14.133184 0.000000
469.090820 287.179230 14.128660 0.000000
469.378780 287.109160 14.125255 0.000000
469.663970 287.028750 14.122169 0.000000
459.571290 287.526550 14.128643 0.000000
459.830170 287.560210 14.132217 0.000000
460.218050 287.623690 14.135780 0.000000
460.607670 287.682370 14.138947 0.000000
460.999600 287.734770 14.141636 0.000000
461.525450 287.796660 14.144547 0.000000
461.922420 287.836790 14.146239 0.000000
462.188510 287.860500 14.147080 0.000000
465.166720 287.829040 14.151909 0.000000
465.441100 287.801760 14.151705 0.000000
465.855350 287.758850 14.150689 0.000000
466.271270 287.709590 14.149279 0.000000
466.688690 287.650540 14.147511 0.000000
467.107030 287.583070 14.145486 0.000000
467.387540 287.535130 14.143753 0.000000
467.810030 287.456480 14.140742 0.000000
462.455690 287.881350 14.147746 0.000000
462.724030 287.900050 14.148178 0.000000
462.993290 287.913330 14.148625 0.000000
463.398220 287.919100 14.149562 0.000000
463.803620 287.910220 14.150794 0.000000
464.210510 287.892330 14.151679 0.000000
464.618900 287.868900 14.152159 0.000000
464.892330 287.850190 14.152152 0.000000
452.597290 289.193850 14.133341 0.000000
453.070160 289.345430 14.146783 0.000000
453.550110 289.469850 14.161085 0.000000
454.191530 289.615480 14.179846 0.000000
454.386050 289.990540 14.168745 0.000000
454.735530 289.990690 14.181928 0.000000
454.977170 290.272610 14.176537 0.000000
455.359920 290.166560 14.195569 0.000000
468.906860 290.427190 14.333196 0.000000
469.479310 290.468510 14.323866 0.000000
470.374880 290.353520 14.316271 0.000000
470.727720 290.281520 14.313855 0.000000
463.139800 290.937260 14.320723 0.000000
463.623170 290.938900 14.323872 0.000000
463.961270 291.041470 14.320065 0.000000
465.221950 290.755460 14.338426 0.000000
465.572810 290.844390 14.333536 0.000000
465.900450 290.815220 14.334571 0.000000
466.229520 290.784730 14.335299 0.000000
466.560030 290.752260 14.335753 0.000000
466.932430 290.850890 14.328800 0.000000
467.565670 290.655550 14.334756 0.000000
467.905670 290.621340 14.333735 0.000000
468.254790 290.602940 14.331451 0.000000
468.662990 290.721680 14.321287 0.000000
464.291440 291.059840 14.320410 0.000000
464.625460 291.086090 14.319972 0.000000
453.941650 286.106720 14.338170 0.000000
454.032870 289.183230 14.194818 0.000000
455.805270 289.843720 14.227515 0.000000
456.137730 289.834840 14.239090 0.000000
456.717830 290.089290 14.244256 0.000000
457.062960 290.007200 14.258978 0.000000
457.526000 290.078890 14.268448 0.000000
457.988860 290.144170 14.277544 0.000000
458.316770 290.074220 14.289715 0.000000
458.890470 290.418460 14.284908 0.000000
459.205110 290.422090 14.291725 0.000000
459.527130 290.344850 14.302733 0.000000
459.834110 290.392360 14.306290 0.000000
460.294920 290.482910 14.309873 0.000000
460.758760 290.567870 14.313102 0.000000
461.070100 290.621150 14.314996 0.000000
461.383090 290.671230 14.316733 0.000000
446.299290 291.263980 14.251333 0.000000
452.085850 290.893860 14.478368 0.000000
461.697750 290.717590 14.318336 0.000000
462.014310 290.768460 14.319359 0.000000
462.333500 290.827970 14.319575 0.000000
462.654970 290.883060 14.319696 0.000000
447.751250 292.104920 14.289102 0.000000
449.857150 292.600520 14.354416 0.000000
450.019870 293.134520 14.345619 0.000000
450.397090 293.295780 14.354190 0.000000
451.112580 293.689730 14.367083 0.000000
462.533200 294.923160 14.584766 0.000000
450.829250 295.255920 14.313091 0.000000
451.302730 295.263460 14.327917 0.000000
451.767400 295.275090 14.342018 0.000000
452.227260 295.282470 14.355770 0.000000
452.680940 295.289730 14.369014 0.000000
453.077060 295.438260 14.376015 0.000000
