# .PCD v0.7 - Point Cloud Data file format
VERSION 0.7
FIELDS x y z intensity
SIZE 4 4 4 4
TYPE F F F F
COUNT 1 1 1 1
WIDTH 1166
HEIGHT 1
VIEWPOINT 0 0 0 1 0 0 0
POINTS 1166
DATA ascii
457.376100 391.386380 18.263773 0.000000
454.699950 390.742160 18.143160 0.000000
454.700560 389.856690 18.123775 0.000000
454.703490 388.972870 18.103849 0.000000
454.706570 388.090360 18.083284 0.000000
468.422760 398.423250 18.814455 0.000000
465.485290 398.576200 18.703867 0.000000
462.143280 398.735470 18.577276 0.000000
451.535640 404.650700 19.477268 0.000000
445.763120 405.401430 19.391266 0.000000
470.433930 402.646390 19.761703 0.000000
468.234310 402.863460 19.728992 0.000000
465.918300 403.048490 19.693577 0.000000
463.045590 403.366150 19.650784 0.000000
460.061490 403.620910 19.604759 0.000000
456.148710 404.091610 19.546389 0.000000
458.251400 387.392400 17.282103 0.000000
460.514070 386.622100 17.402075 0.000000
457.099120 399.105680 18.457952 0.000000
456.511960 398.373990 18.425468 0.000000
455.917420 397.629520 18.391872 0.000000
455.300110 396.874420 18.356586 0.000000
454.917210 396.060910 18.328785 0.000000
454.918460 395.176940 18.314062 0.000000
454.938660 394.295260 18.299452 0.000000
454.958470 393.418730 18.284258 0.000000
454.977870 392.546780 18.268475 0.000000
454.698270 390.837620 18.223120 0.000000
454.700710 389.971340 18.204805 0.000000
454.703120 389.106780 18.185871 0.000000
454.705510 388.243470 18.166306 0.000000
454.708650 387.380860 18.146126 0.000000
454.710850 386.518430 18.125259 0.000000
467.059810 398.680360 18.829697 0.000000
464.070770 398.843410 18.719130 0.000000
460.232940 399.131560 18.577471 0.000000
449.143890 405.252320 19.494457 0.000000
469.880370 398.466030 18.932854 0.000000
470.648530 402.940860 19.804054 0.000000
468.813510 403.056520 19.777107 0.000000
466.564180 403.284150 19.745085 0.000000
464.180300 403.485290 19.710249 0.000000
461.288540 403.797580 19.668753 0.000000
457.802250 404.223850 19.619192 0.000000
453.711820 404.733730 19.560846 0.000000
456.793430 387.831880 17.369658 0.000000
456.160030 387.019260 17.316385 0.000000
457.462220 386.232030 17.377249 0.000000
454.897520 399.877620 18.477129 0.000000
453.504090 399.319790 18.422012 0.000000
452.719760 398.582460 18.386545 0.000000
451.970950 397.816350 18.351391 0.000000
451.364260 397.003140 18.320217 0.000000
451.216060 396.096890 18.304043 0.000000
451.103610 395.185390 18.288418 0.000000
450.995910 394.274170 18.272274 0.000000
451.208830 393.326480 18.266771 0.000000
451.493960 392.382970 18.263308 0.000000
454.689480 391.220370 18.363819 0.000000
467.764190 388.336240 18.028046 0.000000
454.699100 388.677800 18.320572 0.000000
454.701420 387.832760 18.304880 0.000000
454.703740 386.988160 18.288551 0.000000
454.706050 386.143340 18.271576 0.000000
466.823330 398.838100 18.894230 0.000000
463.240840 399.210330 18.769932 0.000000
459.377140 399.532650 18.634743 0.000000
463.551420 389.819640 18.670536 0.000000
460.654170 389.257080 18.552969 0.000000
448.389130 405.703890 19.546961 0.000000
469.451110 398.656460 18.985544 0.000000
468.096860 403.339600 19.795372 0.000000
466.061370 403.493470 19.769354 0.000000
463.551790 403.771210 19.737923 0.000000
460.812930 404.048460 19.703033 0.000000
456.891780 404.669800 19.655289 0.000000
452.957700 405.151640 19.605385 0.000000
460.658330 389.239110 19.480844 0.000000
470.123750 403.115810 19.820290 0.000000
460.662480 389.221160 20.407898 0.000000
460.666630 389.203190 21.335037 0.000000
460.670100 389.185240 22.263166 0.000000
460.672180 389.167330 23.193283 0.000000
460.674100 389.149350 24.126255 0.000000
460.675080 389.131350 25.063059 0.000000
460.676060 389.113250 26.004608 0.000000
460.677060 389.095030 26.951769 0.000000
456.035920 387.799530 17.348696 0.000000
455.853090 386.994320 17.322475 0.000000
457.112210 386.223660 17.382647 0.000000
457.857450 399.631500 18.575617 0.000000
454.251190 399.727390 18.443806 0.000000
453.562560 399.005740 18.412397 0.000000
452.804930 398.281160 18.377745 0.000000
452.121120 397.520940 18.344833 0.000000
451.619350 396.709080 18.317522 0.000000
451.496580 395.822570 18.302929 0.000000
451.372960 394.937010 18.287636 0.000000
451.273250 394.048580 18.272526 0.000000
451.459080 393.128940 18.267136 0.000000
451.941590 392.191560 18.272078 0.000000
466.830900 388.346410 18.006905 0.000000
454.704590 388.615230 18.319658 0.000000
454.706910 387.788570 18.304800 0.000000
454.709230 386.962190 18.289318 0.000000
454.711550 386.135500 18.273201 0.000000
465.342160 398.971340 18.844172 0.000000
461.692470 399.341250 18.713806 0.000000
458.175660 390.837980 18.488934 0.000000
463.540710 389.755860 18.676292 0.000000
460.594670 389.202180 18.554726 0.000000
447.560490 405.548070 19.490824 0.000000
470.272030 398.664520 19.020092 0.000000
468.147030 398.749240 18.944263 0.000000
467.134030 403.291350 19.758251 0.000000
465.120610 403.430390 19.730412 0.000000
462.641110 403.688870 19.696705 0.000000
459.811920 403.994140 19.658051 0.000000
455.946530 404.580720 19.606705 0.000000
452.061160 405.032710 19.553236 0.000000
460.619320 389.184420 19.461370 0.000000
469.140290 403.082640 19.785057 0.000000
460.629460 389.167300 20.366369 0.000000
460.636900 389.150300 21.271225 0.000000
460.643620 389.133300 22.176867 0.000000
460.651250 389.116240 23.084099 0.000000
460.656980 389.099210 23.994003 0.000000
460.661500 389.082150 24.907469 0.000000
460.666050 389.065030 25.825369 0.000000
460.670590 389.047790 26.748550 0.000000
457.901060 387.173490 17.291157 0.000000
459.690490 386.472350 17.394579 0.000000
465.967160 387.876070 17.829948 0.000000
454.695010 388.736080 18.122791 0.000000
454.697390 387.927700 18.109158 0.000000
454.699980 387.119540 18.094925 0.000000
463.526090 398.640080 18.611973 0.000000
460.540770 398.751740 18.488117 0.000000
460.003230 398.133390 18.461607 0.000000
459.445620 397.506710 18.433632 0.000000
458.832210 396.877930 18.402721 0.000000
458.256040 396.225160 18.372614 0.000000
457.797760 395.535400 18.346605 0.000000
457.597380 394.791690 18.330484 0.000000
457.406070 394.043950 18.314123 0.000000
457.273470 393.285770 18.299576 0.000000
457.161190 392.524110 18.285275 0.000000
457.048650 391.761470 18.270363 0.000000
457.085780 390.986080 18.261156 0.000000
463.570340 389.838840 18.524807 0.000000
460.667480 389.302060 18.390795 0.000000
470.680940 398.296300 18.905817 0.000000
468.750610 398.345030 18.826805 0.000000
466.399750 398.457400 18.730284 0.000000
465.419490 402.259770 19.540892 0.000000
463.267820 402.378450 19.499088 0.000000
460.571720 402.622380 19.447325 0.000000
457.559330 402.880430 19.389042 0.000000
453.997560 403.212620 19.320076 0.000000
449.827550 403.606930 19.239035 0.000000
458.163760 390.888000 19.244843 0.000000
460.668430 389.286530 19.272476 0.000000
454.692440 388.718350 19.134371 0.000000
454.700200 386.293270 19.091679 0.000000
469.133450 402.055270 19.612350 0.000000
467.482300 402.102020 19.580307 0.000000
459.452880 400.591340 20.352789 0.000000
467.934600 399.232700 20.326254 0.000000
464.163270 399.834810 20.338018 0.000000
460.669430 389.271000 20.153273 0.000000
460.670440 389.255490 21.034044 0.000000
460.671510 389.239930 21.915621 0.000000
460.672490 389.224370 22.798855 0.000000
460.672210 389.208800 23.684710 0.000000
460.669980 389.193270 24.574163 0.000000
460.667050 389.177670 25.468119 0.000000
460.664120 389.161990 26.367336 0.000000
461.498080 387.381040 17.371857 0.000000
462.792140 386.745940 17.452991 0.000000
462.788910 386.095610 17.440928 0.000000
445.916290 387.188480 17.445255 0.000000
446.404080 386.258450 17.453806 0.000000
464.285770 397.603520 18.454905 0.000000
463.933780 397.026760 18.435495 0.000000
463.590850 396.440770 18.415977 0.000000
463.356350 395.823970 18.400997 0.000000
462.924100 395.243320 18.376221 0.000000
462.716860 394.610660 18.361446 0.000000
462.797360 393.927460 18.359720 0.000000
462.857670 393.253880 18.356592 0.000000
462.937870 392.583310 18.353966 0.000000
463.017150 391.918610 18.350853 0.000000
462.934330 391.274410 18.339539 0.000000
462.735020 390.638280 18.322117 0.000000
461.116820 390.079650 18.235544 0.000000
460.661220 389.418210 18.204199 0.000000
469.505160 397.913910 18.702850 0.000000
467.407170 397.982030 18.604229 0.000000
464.864350 398.106990 18.484308 0.000000
465.096190 400.728850 19.312948 0.000000
462.259800 401.035340 19.241634 0.000000
458.917240 401.407290 19.157396 0.000000
455.084290 401.811890 19.060297 0.000000
449.957520 402.457890 18.931019 0.000000
454.689000 392.029140 18.938290 0.000000
454.691990 391.232820 18.927338 0.000000
460.657930 389.404660 19.063820 0.000000
454.701290 388.854980 18.892845 0.000000
454.703490 388.064480 18.880749 0.000000
454.705690 387.274230 18.868359 0.000000
454.707920 386.483730 18.855661 0.000000
469.335420 400.391780 19.419874 0.000000
467.470370 400.499080 19.372631 0.000000
463.583340 389.922910 19.151272 0.000000
467.747190 409.797060 20.281528 0.000000
469.829930 409.156860 20.282955 0.000000
460.650970 389.391300 19.922531 0.000000
460.641720 389.377990 20.781385 0.000000
460.631810 389.364750 21.641277 0.000000
460.621830 389.351440 22.503048 0.000000
460.598880 389.338590 23.368593 0.000000
461.278440 387.094790 17.354839 0.000000
462.654240 386.491820 17.445251 0.000000
446.229610 387.658540 17.421610 0.000000
447.000120 386.755890 17.447571 0.000000
456.617400 389.932890 17.980806 0.000000
454.701720 388.477050 17.864597 0.000000
469.476320 397.910770 18.678709 0.000000
467.665590 397.918610 18.590425 0.000000
465.482120 397.975280 18.483528 0.000000
464.792020 397.536040 18.448727 0.000000
464.452090 396.985320 18.430468 0.000000
464.113620 396.427460 18.411783 0.000000
463.780610 395.861300 18.392864 0.000000
463.498380 395.277470 18.375917 0.000000
463.180450 394.694760 18.356710 0.000000
463.303340 393.391360 18.354099 0.000000
463.347900 392.750520 18.351303 0.000000
463.409270 392.112270 18.348898 0.000000
463.469940 391.478820 18.346024 0.000000
463.416810 390.859010 18.337036 0.000000
463.486660 390.231200 18.333738 0.000000
463.104250 400.753420 19.200087 0.000000
460.073670 401.076510 19.117847 0.000000
456.641170 401.418730 19.024239 0.000000
452.607600 401.817930 18.913897 0.000000
447.186370 402.462130 18.766060 0.000000
454.692410 391.560180 18.871284 0.000000
454.694490 390.783750 18.861649 0.000000
454.696620 390.009120 18.851740 0.000000
454.698700 389.235840 18.841557 0.000000
454.700840 388.463380 18.831089 0.000000
454.702910 387.691280 18.820332 0.000000
454.705020 386.919160 18.809280 0.000000
454.707150 386.146420 18.797926 0.000000
470.140170 399.972530 19.389565 0.000000
468.258610 400.134220 19.338821 0.000000
465.968570 400.382510 19.277128 0.000000
466.782010 408.545870 20.166744 0.000000
465.062870 408.822750 20.158165 0.000000
470.635740 407.502260 20.180029 0.000000
468.822660 407.988010 20.173706 0.000000
463.783600 408.773740 20.148191 0.000000
462.315060 408.789310 20.137754 0.000000
460.611850 408.881990 20.126699 0.000000
458.682500 409.032470 20.114815 0.000000
456.566890 409.207000 20.101919 0.000000
454.235020 409.409120 20.087839 0.000000
451.229190 409.836430 20.072041 0.000000
447.773990 410.349580 20.054186 0.000000
460.542910 388.993560 24.049809 0.000000
460.573970 388.980620 24.894522 0.000000
460.589720 388.968020 25.744686 0.000000
457.308780 387.440250 17.305428 0.000000
457.388400 386.734010 17.299458 0.000000
458.705470 386.092010 17.378937 0.000000
465.833160 388.131160 17.902853 0.000000
461.453580 398.582120 18.486650 0.000000
460.834810 398.063600 18.457102 0.000000
460.428590 397.475010 18.436481 0.000000
459.870270 396.912840 18.408506 0.000000
459.364500 396.324550 18.382301 0.000000
458.849520 395.724850 18.355083 0.000000
458.591980 395.065430 18.338850 0.000000
458.390320 394.392240 18.324575 0.000000
458.187440 393.715880 18.309690 0.000000
457.996370 393.034360 18.294777 0.000000
457.858220 392.343510 18.281712 0.000000
457.729640 391.649510 18.268524 0.000000
457.970860 390.926670 18.271801 0.000000
470.607300 388.597660 18.238100 0.000000
454.696410 390.404450 18.112089 0.000000
460.656560 389.430420 18.379484 0.000000
454.702210 388.894290 18.092735 0.000000
454.704250 388.140320 18.082167 0.000000
454.707090 387.386470 18.071066 0.000000
469.827760 398.334660 18.861839 0.000000
467.952090 398.432250 18.778481 0.000000
466.025940 398.480070 18.692432 0.000000
463.925140 398.514280 18.598097 0.000000
462.253450 401.802800 19.358770 0.000000
460.040130 401.902190 19.306938 0.000000
457.055540 402.190370 19.237820 0.000000
453.567080 402.536040 19.156788 0.000000
449.188780 403.030090 19.055204 0.000000
447.655330 392.532230 18.908388 0.000000
458.171970 390.899380 19.150898 0.000000
460.648650 389.418730 19.193199 0.000000
454.699890 388.880520 19.036285 0.000000
454.702420 388.126560 19.025526 0.000000
454.705140 387.372740 19.014486 0.000000
454.707090 386.618590 19.003136 0.000000
469.599910 401.306000 19.527588 0.000000
467.938200 401.451570 19.489929 0.000000
466.080750 401.620700 19.447641 0.000000
464.297490 401.692870 19.406273 0.000000
463.576720 389.912450 19.273403 0.000000
460.638000 389.407200 20.006348 0.000000
460.627350 389.395630 20.819853 0.000000
460.616700 389.384060 21.634478 0.000000
460.589570 389.373020 22.452044 0.000000
454.148770 387.521090 17.353443 0.000000
456.359530 388.262850 17.507755 0.000000
454.300050 386.779720 17.349995 0.000000
455.402620 386.090760 17.407728 0.000000
465.192780 388.799220 18.083363 0.000000
460.110840 399.491060 18.660515 0.000000
457.182950 399.636630 18.542387 0.000000
454.437500 399.629820 18.430508 0.000000
470.258480 396.893220 18.448971 0.000000
453.905520 398.972350 18.405359 0.000000
470.133390 396.420260 18.443056 0.000000
469.233890 396.171570 18.388380 0.000000
453.170410 398.349300 18.371475 0.000000
469.104610 395.686220 18.381107 0.000000
452.605320 397.669340 18.343647 0.000000
468.974640 395.201140 18.373213 0.000000
468.844510 394.715760 18.364735 0.000000
452.111720 396.960780 18.317976 0.000000
468.646150 394.244450 18.351435 0.000000
468.472170 393.764950 18.339067 0.000000
451.900850 396.189580 18.302956 0.000000
468.473540 393.251400 18.337051 0.000000
451.766240 395.403630 18.290380 0.000000
468.358830 392.759700 18.327225 0.000000
468.254580 392.265260 18.317465 0.000000
451.631440 394.617370 18.277187 0.000000
468.160430 391.768340 18.307755 0.000000
451.542660 393.824550 18.265249 0.000000
468.073060 391.269590 18.297882 0.000000
451.659300 393.010190 18.261103 0.000000
468.048800 390.764010 18.291399 0.000000
452.040130 392.179350 18.267288 0.000000
468.015590 389.753850 18.277691 0.000000
454.696470 391.201720 18.367050 0.000000
468.265140 389.239690 18.286924 0.000000
453.121830 389.782040 18.280912 0.000000
454.701840 388.987550 18.335943 0.000000
454.704410 388.251160 18.324507 0.000000
454.706390 387.514890 18.312489 0.000000
454.708370 386.778260 18.299902 0.000000
469.562260 398.723240 19.036861 0.000000
467.288640 399.010350 18.947144 0.000000
465.069550 399.196140 18.859060 0.000000
462.757750 399.332980 18.766733 0.000000
463.590820 389.982510 18.726595 0.000000
461.672090 403.183720 19.562557 0.000000
459.514680 403.337430 19.523117 0.000000
456.735110 403.653840 19.472933 0.000000
453.722170 403.954930 19.417891 0.000000
449.894810 404.429170 19.348413 0.000000
446.105530 404.752500 19.277988 0.000000
469.833250 402.613070 19.708778 0.000000
468.498660 402.694060 19.685209 0.000000
467.037510 402.789340 19.659224 0.000000
465.429810 402.900970 19.630444 0.000000
463.651250 403.031460 19.598410 0.000000
461.947170 400.251130 20.350334 0.000000
465.487880 399.645970 20.335918 0.000000
452.234160 387.642910 17.390060 0.000000
452.464480 386.889100 17.390541 0.000000
457.636200 389.059050 17.749540 0.000000
453.349030 388.401460 17.472433 0.000000
464.768100 386.760680 17.469660 0.000000
464.744870 386.215030 17.455730 0.000000
453.617430 386.188810 17.448509 0.000000
450.310910 400.593440 18.412727 0.000000
449.720150 399.893490 18.385742 0.000000
448.958310 399.218930 18.351610 0.000000
448.478790 398.462830 18.327337 0.000000
447.933440 397.708590 18.299847 0.000000
447.718990 396.881620 18.284164 0.000000
447.679200 396.024290 18.274477 0.000000
447.822630 395.144320 18.271204 0.000000
447.937260 394.277250 18.266273 0.000000
448.079350 393.415010 18.261854 0.000000
448.415160 392.543610 18.264446 0.000000
460.148350 399.974640 18.788742 0.000000
457.392880 400.136660 18.683908 0.000000
454.228120 400.319460 18.562914 0.000000
469.408420 397.471860 18.521961 0.000000
468.405880 397.286380 18.463837 0.000000
468.277470 396.799040 18.457741 0.000000
467.325680 396.550350 18.401657 0.000000
467.165010 396.057400 18.392487 0.000000
466.960110 395.574620 18.380070 0.000000
466.753910 395.089230 18.366978 0.000000
466.546230 394.600920 18.353195 0.000000
466.372960 394.102260 18.340872 0.000000
466.280430 393.586580 18.332800 0.000000
466.261810 392.531070 18.324921 0.000000
466.277160 392.003810 18.321602 0.000000
466.302090 391.478390 18.318298 0.000000
466.335880 390.954960 18.314966 0.000000
466.378450 390.433690 18.311615 0.000000
466.322360 389.920590 18.301651 0.000000
454.704650 391.259860 18.500017 0.000000
465.722870 389.426640 18.257612 0.000000
454.719180 386.228970 18.418703 0.000000
469.343930 399.067990 19.133507 0.000000
467.588470 399.210390 19.068241 0.000000
464.998780 399.595180 18.971642 0.000000
462.621580 399.811770 18.882311 0.000000
461.041990 403.860470 19.658268 0.000000
458.625580 404.166960 19.620518 0.000000
456.163760 404.403660 19.581169 0.000000
453.073000 404.794070 19.532242 0.000000
449.849670 405.120540 19.480190 0.000000
445.789430 405.620540 19.415071 0.000000
467.712650 403.315460 19.762768 0.000000
466.284030 403.420930 19.740639 0.000000
464.715240 403.543700 19.716154 0.000000
462.983430 403.686400 19.688934 0.000000
469.746030 402.821410 19.791792 0.000000
469.477200 398.994840 20.380310 0.000000
467.021510 399.408260 20.395481 0.000000
451.182740 388.137240 17.386900 0.000000
451.496700 387.382870 17.393040 0.000000
454.039640 388.869230 17.577650 0.000000
463.423650 387.137150 17.443119 0.000000
463.418700 386.587160 17.430996 0.000000
452.846190 386.682160 17.463993 0.000000
449.167360 400.318630 18.398743 0.000000
448.390720 399.659060 18.364155 0.000000
447.920200 398.909790 18.340401 0.000000
447.385530 398.163060 18.313490 0.000000
446.990050 397.377110 18.291147 0.000000
446.916720 396.528110 18.280447 0.000000
447.056090 395.649510 18.277327 0.000000
447.166350 394.784180 18.272533 0.000000
447.304440 393.923550 18.268269 0.000000
447.525540 393.062990 18.266718 0.000000
462.840330 389.335850 18.134705 0.000000
457.696440 400.207640 18.730082 0.000000
454.764770 400.370820 18.617334 0.000000
450.881500 400.695680 18.467815 0.000000
470.472350 397.599300 18.642433 0.000000
469.108580 397.602570 18.562643 0.000000
467.735470 397.561680 18.481985 0.000000
467.492770 397.115230 18.469183 0.000000
466.551880 396.873290 18.413706 0.000000
466.348480 396.395420 18.402163 0.000000
466.143160 395.915560 18.389910 0.000000
465.936550 395.433230 18.376991 0.000000
465.728520 394.948090 18.363388 0.000000
465.518890 394.459810 18.349083 0.000000
465.509580 393.930240 18.346279 0.000000
465.492710 392.879850 18.339039 0.000000
465.509430 392.355100 18.336086 0.000000
465.532070 391.832730 18.332928 0.000000
465.563480 391.312380 18.329742 0.000000
465.603610 390.794190 18.326536 0.000000
465.541900 390.285250 18.316505 0.000000
465.762330 389.762420 18.323309 0.000000
468.932920 399.213780 19.155159 0.000000
464.818450 399.712280 19.001028 0.000000
467.265170 399.346650 19.092831 0.000000
462.583370 399.913020 18.916567 0.000000
460.265200 400.061740 18.828373 0.000000
460.773900 390.572660 18.769730 0.000000
463.573430 389.850370 18.872787 0.000000
460.666230 389.384060 18.747734 0.000000
460.973850 403.916410 19.670816 0.000000
458.698520 404.199370 19.634665 0.000000
456.389070 404.413450 19.597118 0.000000
453.503780 404.771850 19.550661 0.000000
450.503300 405.068480 19.501385 0.000000
446.739230 405.528440 19.440010 0.000000
470.205750 399.192600 19.202402 0.000000
467.334380 403.412350 19.772057 0.000000
470.461580 402.835630 19.818396 0.000000
469.283200 402.935730 19.800327 0.000000
465.967350 403.509120 19.750540 0.000000
464.470090 403.621920 19.726795 0.000000
462.822140 403.753050 19.700472 0.000000
460.663700 389.371670 19.494265 0.000000
467.153500 399.370570 20.388269 0.000000
464.636600 399.758510 20.402473 0.000000
469.431400 398.987980 20.374887 0.000000
460.661190 389.359280 20.240286 0.000000
460.658660 389.346890 20.986521 0.000000
460.653380 389.334560 21.733807 0.000000
460.645570 389.322300 22.483030 0.000000
460.637760 389.309970 23.234850 0.000000
460.629880 389.297580 23.989975 0.000000
460.621280 389.285130 24.749290 0.000000
460.602970 389.272860 25.514963 0.000000
450.329990 387.830630 17.375937 0.000000
454.705440 388.590060 17.663284 0.000000
462.018650 386.934050 17.395641 0.000000
461.994380 386.375090 17.381943 0.000000
451.892460 387.125520 17.462055 0.000000
452.128020 386.404540 17.463646 0.000000
448.859220 400.621830 18.396257 0.000000
448.048030 399.986600 18.361252 0.000000
447.550200 399.256500 18.337601 0.000000
446.993230 398.527500 18.310965 0.000000
446.428560 397.785920 18.283304 0.000000
446.293610 396.954160 18.271643 0.000000
446.392550 396.085880 18.268494 0.000000
446.466800 395.229220 18.263803 0.000000
446.565460 394.376340 18.259506 0.000000
446.663020 393.530640 18.254602 0.000000
446.611110 392.704440 18.243185 0.000000
463.272610 389.657500 18.217358 0.000000
460.609800 389.170170 18.043247 0.000000
466.493500 387.645230 17.788610 0.000000
457.838350 400.269930 18.747461 0.000000
455.087400 400.419220 18.640526 0.000000
451.464170 400.721100 18.499344 0.000000
470.038120 397.722380 18.657852 0.000000
468.728330 397.725650 18.580883 0.000000
467.413970 397.685060 18.503420 0.000000
466.817230 397.366330 18.469606 0.000000
465.849400 397.143890 18.412617 0.000000
465.626890 396.676570 18.400698 0.000000
465.410430 396.204590 18.388567 0.000000
465.192470 395.729800 18.375763 0.000000
464.975520 395.251370 18.362432 0.000000
464.766240 394.767580 18.348976 0.000000
464.750790 394.242400 18.346767 0.000000
464.755860 393.195070 18.342810 0.000000
464.759890 392.675780 18.340061 0.000000
464.769470 392.158510 18.337084 0.000000
464.787780 391.642850 18.334080 0.000000
464.814790 391.128910 18.331053 0.000000
464.741360 390.624540 18.321247 0.000000
464.805880 390.111570 18.319414 0.000000
454.704320 388.576870 18.519234 0.000000
468.493160 399.334960 19.155323 0.000000
466.897920 399.460690 19.095030 0.000000
464.571590 399.809570 19.006477 0.000000
462.451140 399.998410 18.925388 0.000000
460.260410 400.135470 18.841133 0.000000
460.617370 389.158870 18.770496 0.000000
458.865880 404.128940 19.621315 0.000000
456.694520 404.323430 19.584909 0.000000
453.995730 404.652440 19.539959 0.000000
451.158870 404.936190 19.491968 0.000000
447.646180 405.363160 19.432777 0.000000
469.716250 399.316740 19.201101 0.000000
470.061400 402.851650 19.802034 0.000000
465.761930 403.490910 19.734692 0.000000
468.928960 402.945890 19.784142 0.000000
464.332700 403.595460 19.711363 0.000000
462.763210 403.717040 19.685549 0.000000
461.011290 403.867130 19.656578 0.000000
460.624360 389.147610 19.496105 0.000000
469.163940 399.033970 20.350567 0.000000
467.015110 399.395320 20.361828 0.000000
464.653780 399.758480 20.373678 0.000000
460.632080 389.136350 20.220789 0.000000
460.591430 389.125890 20.946424 0.000000
460.615880 389.114350 21.671574 0.000000
460.626590 389.103030 22.398071 0.000000
460.637330 389.091670 23.126272 0.000000
460.645600 389.080290 23.857124 0.000000
460.652400 389.068910 24.591433 0.000000
460.657380 389.057500 25.330023 0.000000
460.681980 387.080140 17.371195 0.000000
460.675320 386.516780 17.359011 0.000000
449.300930 388.001890 17.377666 0.000000
454.697660 388.757540 17.729280 0.000000
450.856020 387.295100 17.463486 0.000000
451.087620 386.573390 17.464954 0.000000
447.807620 400.807190 18.395361 0.000000
447.045100 400.159450 18.362303 0.000000
446.546690 399.429780 18.338736 0.000000
445.987120 398.701630 18.312099 0.000000
461.868100 389.833220 18.195740 0.000000
468.693760 388.334660 18.073889 0.000000
460.670230 389.314420 18.113340 0.000000
465.851350 387.817080 17.823618 0.000000
456.710390 400.475950 18.743988 0.000000
453.965610 400.623110 18.637173 0.000000
450.354370 400.922150 18.496279 0.000000
469.038390 397.876310 18.660257 0.000000
467.732670 397.879270 18.583494 0.000000
466.422580 397.838380 18.506258 0.000000
465.903320 397.495090 18.477238 0.000000
464.893520 397.287990 18.417675 0.000000
464.682860 396.818300 18.406553 0.000000
464.477260 396.344670 18.395163 0.000000
464.270480 395.868560 18.383120 0.000000
464.062260 395.389770 18.370401 0.000000
463.784580 394.922360 18.352846 0.000000
463.771730 394.397160 18.350893 0.000000
463.775210 393.351010 18.347027 0.000000
463.792690 392.830290 18.345203 0.000000
463.816380 392.312010 18.343193 0.000000
463.849910 391.795680 18.341228 0.000000
463.892730 391.281620 18.339285 0.000000
470.705870 389.912480 18.266451 0.000000
463.822880 390.778560 18.329802 0.000000
463.775420 390.273130 18.321119 0.000000
451.161320 391.658910 18.458170 0.000000
454.696720 388.744810 18.563232 0.000000
467.330380 399.559660 19.151005 0.000000
465.731690 399.684810 19.090509 0.000000
463.402530 400.033450 19.001720 0.000000
461.280120 400.221340 18.920462 0.000000
459.128750 400.343290 18.837618 0.000000
470.231930 397.872860 18.729944 0.000000
463.535710 389.764070 18.940903 0.000000
460.671420 389.303710 18.816843 0.000000
457.765590 404.338040 19.620657 0.000000
455.601290 404.529240 19.584242 0.000000
452.931790 404.846680 19.539579 0.000000
450.149900 405.110290 19.492268 0.000000
446.676510 405.525600 19.433495 0.000000
469.887080 399.433040 19.246634 0.000000
468.556920 399.542210 19.196951 0.000000
470.000550 402.990330 19.818325 0.000000
469.028990 403.026180 19.802919 0.000000
466.046630 403.571690 19.756704 0.000000
464.743320 403.659580 19.735535 0.000000
467.899350 403.119020 19.785013 0.000000
463.319520 403.762150 19.712219 0.000000
461.756650 403.881500 19.686432 0.000000
459.905330 404.079190 19.655956 0.000000
460.672550 389.292970 19.519035 0.000000
469.898620 398.929050 20.343794 0.000000
468.118160 399.208470 20.352701 0.000000
465.971530 399.569890 20.363815 0.000000
463.613620 399.932830 20.375504 0.000000
460.674870 389.282290 20.220577 0.000000
460.674930 389.271610 20.922157 0.000000
460.676090 389.260860 21.624430 0.000000
460.676640 389.250150 22.328121 0.000000
460.674960 389.239440 23.034094 0.000000
460.672390 389.228700 23.742998 0.000000
460.669770 389.217900 24.455526 0.000000
460.667240 389.207030 25.172323 0.000000
458.160280 387.418060 17.303514 0.000000
447.103520 389.143040 17.350332 0.000000
458.281980 386.853790 17.301172 0.000000
468.792940 387.182310 17.718828 0.000000
452.842130 389.793580 17.726692 0.000000
469.023710 386.817540 17.733454 0.000000
468.387050 386.355650 17.651651 0.000000
459.222960 386.361910 17.369663 0.000000
448.905270 387.674590 17.438063 0.000000
449.138210 386.953000 17.438368 0.000000
449.497010 386.246800 17.446159 0.000000
459.521210 390.209290 18.158405 0.000000
467.339290 388.696500 18.115210 0.000000
464.992490 388.210140 17.904793 0.000000
454.701600 388.495240 17.822731 0.000000
454.667420 400.873380 18.745396 0.000000
451.576540 401.129430 18.623543 0.000000
467.144470 398.203120 18.672613 0.000000
448.332790 401.319550 18.494747 0.000000
465.962920 398.163850 18.602539 0.000000
464.636410 398.134310 18.523235 0.000000
470.728790 396.826600 18.420639 0.000000
463.267820 398.072910 18.440975 0.000000
470.690090 396.440000 18.422718 0.000000
463.064610 397.605710 18.429796 0.000000
470.527590 396.099910 18.413692 0.000000
470.371770 395.756130 18.404675 0.000000
462.865230 397.135380 18.418276 0.000000
470.343720 395.371400 18.405872 0.000000
462.664920 396.663060 18.406116 0.000000
470.247800 395.009430 18.400761 0.000000
462.396150 396.205470 18.389175 0.000000
462.115480 395.745270 18.370913 0.000000
469.601320 394.400790 18.350641 0.000000
469.500850 394.031680 18.343458 0.000000
461.831150 395.279850 18.351820 0.000000
469.373810 393.667790 18.333462 0.000000
469.299840 393.291750 18.327335 0.000000
461.800720 394.233400 18.344938 0.000000
469.189540 392.727450 18.317032 0.000000
469.079770 392.162380 18.305595 0.000000
461.821870 393.708530 18.342882 0.000000
469.006100 391.784910 18.297150 0.000000
461.849880 393.186340 18.340691 0.000000
468.932310 391.406520 18.288097 0.000000
461.764010 392.681980 18.330879 0.000000
468.858310 391.027010 18.278431 0.000000
461.548250 392.190730 18.312393 0.000000
468.784180 390.646090 18.268152 0.000000
469.223940 390.235260 18.300846 0.000000
461.408870 391.686980 18.298027 0.000000
469.151640 389.859770 18.289623 0.000000
461.268830 391.179960 18.282991 0.000000
469.024200 389.483370 18.273085 0.000000
461.298770 390.660030 18.278000 0.000000
469.320680 389.101620 18.292183 0.000000
465.050480 400.050780 19.149300 0.000000
462.957180 400.372530 19.068981 0.000000
461.067660 400.538640 18.995985 0.000000
459.169950 400.639950 18.922138 0.000000
457.049130 400.751500 18.839130 0.000000
470.416080 398.195070 18.864624 0.000000
469.413090 398.198580 18.806217 0.000000
468.327270 398.200960 18.742512 0.000000
454.690250 392.276090 18.673018 0.000000
460.784060 390.676790 18.904390 0.000000
454.691990 391.640810 18.664284 0.000000
454.694520 390.374910 18.645397 0.000000
454.700590 388.481480 18.613638 0.000000
457.519560 404.645450 19.664438 0.000000
455.582820 404.807590 19.630930 0.000000
453.255040 405.066710 19.590918 0.000000
450.805480 405.290830 19.548105 0.000000
447.766200 405.654170 19.495445 0.000000
469.958980 399.736480 19.334778 0.000000
468.839780 399.828800 19.292952 0.000000
467.697140 399.891750 19.249977 0.000000
466.499480 399.938780 19.204609 0.000000
470.561580 403.294770 19.878899 0.000000
469.666600 403.377900 19.864887 0.000000
468.822910 403.394740 19.851200 0.000000
467.910980 403.424870 19.836288 0.000000
466.856410 403.508850 19.819132 0.000000
465.135040 403.940830 19.792677 0.000000
463.929110 404.018070 19.772532 0.000000
462.617770 404.108370 19.750454 0.000000
461.176670 404.217990 19.726042 0.000000
459.447390 404.416870 19.697002 0.000000
469.669430 398.951140 20.346272 0.000000
468.084140 399.212040 20.353731 0.000000
464.247800 399.827730 20.371513 0.000000
466.244690 399.522130 20.362516 0.000000
456.987790 387.593510 17.328388 0.000000
457.021970 387.021090 17.318319 0.000000
457.653260 386.498930 17.359013 0.000000
466.766570 387.277340 17.637945 0.000000
450.494960 390.003630 17.686411 0.000000
466.466060 386.841190 17.593906 0.000000
465.741670 386.342380 17.502285 0.000000
447.246800 387.840180 17.443777 0.000000
447.683470 387.117890 17.456572 0.000000
448.073120 386.406430 17.465799 0.000000
459.387540 391.955720 18.271042 0.000000
459.245510 391.431670 18.255772 0.000000
457.357300 390.432590 18.123562 0.000000
466.175570 388.872860 18.132265 0.000000
463.498500 388.374850 17.895840 0.000000
454.710110 388.693910 17.928255 0.000000
452.919400 401.289000 18.759260 0.000000
449.730770 401.562710 18.636625 0.000000
467.144410 398.437380 18.761026 0.000000
465.949740 398.441710 18.691549 0.000000
446.392760 401.766020 18.507294 0.000000
464.754240 398.404850 18.621765 0.000000
463.411800 398.378020 18.542767 0.000000
470.104830 397.240540 18.474655 0.000000
469.484990 397.082550 18.428318 0.000000
461.881710 398.366420 18.452051 0.000000
469.446320 396.691800 18.430464 0.000000
461.676540 397.893190 18.440928 0.000000
469.287930 396.346310 18.421963 0.000000
469.133940 395.998050 18.413265 0.000000
461.440920 397.426730 18.427383 0.000000
469.108580 395.608610 18.414726 0.000000
461.162410 396.968380 18.410664 0.000000
469.014860 395.242340 18.409893 0.000000
460.880620 396.505460 18.393150 0.000000
460.595340 396.037630 18.374823 0.000000
468.314760 394.640140 18.355940 0.000000
468.179140 394.274750 18.345924 0.000000
468.051880 393.905760 18.336020 0.000000
460.268400 395.035340 18.351067 0.000000
467.978450 393.524510 18.329987 0.000000
460.151610 394.522610 18.341106 0.000000
467.905000 393.143280 18.323357 0.000000
467.796330 392.570770 18.312353 0.000000
460.017850 394.011720 18.329506 0.000000
467.686830 391.997340 18.300087 0.000000
459.884030 393.499080 18.317287 0.000000
467.613620 391.613980 18.291090 0.000000
459.764130 392.982540 18.305298 0.000000
467.582150 391.225740 18.284979 0.000000
459.528870 392.476500 18.285622 0.000000
467.575100 390.835850 18.280315 0.000000
468.011140 390.422120 18.312220 0.000000
467.909520 389.662290 18.292795 0.000000
459.479400 390.883300 18.263107 0.000000
468.074490 389.279600 18.300436 0.000000
460.677860 389.290740 18.313433 0.000000
463.545290 400.429470 19.162458 0.000000
461.395260 400.765560 19.082027 0.000000
459.487640 400.928800 19.010141 0.000000
457.553310 401.033510 18.936710 0.000000
470.081020 398.473360 18.928892 0.000000
455.372130 401.155360 18.853432 0.000000
469.256070 398.426480 18.882507 0.000000
468.242160 398.432530 18.824406 0.000000
454.701780 391.748050 18.745594 0.000000
458.184880 390.942570 18.875814 0.000000
454.704770 390.518830 18.727179 0.000000
460.679530 389.279630 18.950790 0.000000
454.705810 389.905700 18.717274 0.000000
454.709290 388.680480 18.696136 0.000000
455.664920 405.211210 19.691799 0.000000
453.715360 405.362550 19.659822 0.000000
451.328580 405.630550 19.621088 0.000000
448.782590 405.876500 19.579126 0.000000
470.186830 400.146090 19.405153 0.000000
469.506350 400.065340 19.381248 0.000000
468.573790 400.091670 19.347700 0.000000
467.429110 400.189330 19.306007 0.000000
466.178710 400.295230 19.260118 0.000000
465.031430 400.310000 19.217770 0.000000
470.084900 403.599610 19.913536 0.000000
469.221310 403.685790 19.901031 0.000000
468.305270 403.775630 19.887587 0.000000
467.442780 403.796910 19.874430 0.000000
463.659420 404.374970 19.818115 0.000000
466.508790 403.832760 19.860069 0.000000
465.427670 403.924350 19.843542 0.000000
462.420440 404.460910 19.798637 0.000000
461.045720 404.574860 19.776932 0.000000
459.428190 404.763430 19.751545 0.000000
457.633360 404.979550 19.723190 0.000000
460.681090 389.268520 19.586935 0.000000
470.021210 398.902950 20.364578 0.000000
468.620240 399.134060 20.372519 0.000000
467.084560 399.373170 20.380972 0.000000
465.195470 399.705960 20.392046 0.000000
460.682680 389.257450 20.222475 0.000000
460.684230 389.246370 20.858028 0.000000
460.685820 389.235290 21.494194 0.000000
460.687380 389.224150 22.131588 0.000000
460.688960 389.213010 22.770824 0.000000
460.690520 389.201840 23.412497 0.000000
460.691960 389.190580 24.057302 0.000000
460.692020 389.179290 24.706028 0.000000
456.600220 387.209590 17.321760 0.000000
465.108610 386.961090 17.524633 0.000000
464.664640 386.490110 17.462685 0.000000
457.041840 387.794680 17.373255 0.000000
464.796020 386.080750 17.463793 0.000000
446.869780 388.734310 17.433025 0.000000
457.212220 386.697170 17.362009 0.000000
447.111850 388.010890 17.434689 0.000000
457.173860 386.137910 17.344208 0.000000
447.499080 387.302400 17.445181 0.000000
447.883730 386.606020 17.454933 0.000000
457.715850 390.526210 18.163160 0.000000
464.012120 388.575070 17.991928 0.000000
467.458800 387.576170 17.795677 0.000000
452.327030 401.278720 18.721142 0.000000
449.251740 401.524900 18.597475 0.000000
465.089660 398.514590 18.669794 0.000000
446.041810 401.700590 18.467442 0.000000
470.019530 397.380460 18.525293 0.000000
463.917790 398.472500 18.599360 0.000000
462.602810 398.439910 18.519688 0.000000
469.177830 397.339230 18.458862 0.000000
468.732060 397.116360 18.426313 0.000000
461.391450 398.328190 18.446075 0.000000
468.696320 396.730740 18.428474 0.000000
461.188480 397.865200 18.434608 0.000000
468.545350 396.388760 18.420177 0.000000
468.397980 396.044430 18.411634 0.000000
460.928160 397.416720 18.419006 0.000000
468.376340 395.660160 18.413219 0.000000
460.665220 396.964360 18.402664 0.000000
468.287780 395.298580 18.408529 0.000000
460.399380 396.507870 18.385559 0.000000
460.130460 396.046810 18.367670 0.000000
467.565860 394.714080 18.351295 0.000000
467.436800 394.352810 18.341501 0.000000
467.321140 393.987090 18.332262 0.000000
459.759640 395.074770 18.340479 0.000000
467.252260 393.610900 18.326399 0.000000
459.635310 394.573300 18.329786 0.000000
467.149410 393.046750 18.316471 0.000000
459.513120 394.070280 18.318628 0.000000
467.047150 392.482150 18.305428 0.000000
466.982670 392.104710 18.297596 0.000000
459.398990 393.564670 18.307375 0.000000
466.978000 391.720180 18.294264 0.000000
459.297670 393.055970 18.296322 0.000000
466.973300 391.336980 18.290352 0.000000
459.091980 392.557130 18.278091 0.000000
466.968570 390.954770 18.285868 0.000000
467.390870 390.549960 18.317362 0.000000
458.972410 392.045290 18.264647 0.000000
458.855040 391.530670 18.250717 0.000000
467.379670 389.803530 18.305588 0.000000
458.955870 391.001400 18.250032 0.000000
467.526580 389.430110 18.312025 0.000000
463.585690 389.869420 18.531187 0.000000
465.899600 389.035310 18.164165 0.000000
460.647160 389.436340 18.334320 0.000000
462.632600 400.514470 19.130173 0.000000
460.532070 400.832400 19.047981 0.000000
458.694550 400.971590 18.975533 0.000000
456.813750 401.061070 18.900841 0.000000
470.122250 398.508970 18.967079 0.000000
454.698060 401.165500 18.816351 0.000000
469.150820 398.564510 18.910091 0.000000
468.338810 398.514220 18.863041 0.000000
467.342160 398.515380 18.804220 0.000000
466.263760 398.515200 18.740105 0.000000
454.696410 391.817050 18.734064 0.000000
454.698180 391.220340 18.725243 0.000000
460.642700 389.425510 18.949038 0.000000
454.699920 390.624730 18.715984 0.000000
454.705570 388.841460 18.685564 0.000000
455.140690 405.102260 19.648809 0.000000
453.273530 405.227140 19.614788 0.000000
450.992830 405.461580 19.573662 0.000000
448.569460 405.671420 19.529324 0.000000
469.877140 400.315000 19.406315 0.000000
469.203950 400.254000 19.381702 0.000000
468.534880 400.168640 19.357033 0.000000
467.568080 400.214080 19.320520 0.000000
466.441860 400.303340 19.277561 0.000000
465.212710 400.400270 19.230335 0.000000
464.088070 400.406400 19.186863 0.000000
463.578800 389.859860 19.081614 0.000000
470.610780 403.587370 19.912699 0.000000
469.959660 403.575290 19.902071 0.000000
469.131040 403.670350 19.888861 0.000000
468.320100 403.722050 19.875576 0.000000
467.425870 403.800900 19.860865 0.000000
465.674770 403.837920 19.830896 0.000000
464.623840 403.916290 19.812950 0.000000
462.905790 404.342960 19.785265 0.000000
461.706050 404.413640 19.764244 0.000000
460.320530 404.540560 19.740061 0.000000
458.761080 404.706120 19.712786 0.000000
457.035490 404.896060 19.682419 0.000000
460.638180 389.414700 19.562811 0.000000
468.928920 399.069030 20.337730 0.000000
467.525510 399.299870 20.343277 0.000000
465.938170 399.560490 20.349545 0.000000
464.094600 399.871090 20.356960 0.000000
462.094210 400.176790 20.364458 0.000000
460.633700 389.403900 20.176214 0.000000
460.626280 389.393100 20.789915 0.000000
460.615110 389.382260 21.404718 0.000000
460.604130 389.371430 22.021206 0.000000
460.632900 389.360570 22.636446 0.000000
460.628360 389.349640 23.256481 0.000000
460.617490 389.338650 23.880579 0.000000
460.614780 389.327640 24.507492 0.000000
463.515870 387.088010 17.459377 0.000000
456.934940 388.024750 17.447004 0.000000
463.401670 386.647490 17.433811 0.000000
463.527010 386.233980 17.434179 0.000000
455.812010 387.411070 17.335503 0.000000
456.415310 386.902800 17.375355 0.000000
446.013520 388.922760 17.431271 0.000000
456.377170 386.348510 17.357656 0.000000
446.712400 387.501890 17.448372 0.000000
447.091920 386.810120 17.458031 0.000000
447.510130 386.133300 17.469713 0.000000
468.614530 388.277560 18.045191 0.000000
462.839050 388.751710 17.975283 0.000000
466.845860 387.793910 17.840401 0.000000
451.632870 390.265380 17.820028 0.000000
470.467070 386.267850 17.793549 0.000000
454.704070 388.477690 17.987093 0.000000
451.286830 401.451320 18.709883 0.000000
448.248080 401.687960 18.586260 0.000000
470.503050 397.611820 18.643085 0.000000
464.094670 398.663420 18.667854 0.000000
469.772890 397.576600 18.586103 0.000000
468.993160 397.537840 18.524736 0.000000
462.931210 398.620210 18.597395 0.000000
468.165740 397.492030 18.459135 0.000000
467.788670 397.243990 18.432278 0.000000
461.626190 398.586300 18.517729 0.000000
460.537840 398.436580 18.451239 0.000000
467.752810 396.860960 18.434359 0.000000
467.603150 396.521090 18.426054 0.000000
460.271700 397.997340 18.435686 0.000000
467.456570 396.179110 18.417463 0.000000
460.003360 397.554200 18.419432 0.000000
467.416290 395.803100 18.417404 0.000000
459.719910 397.110260 18.401659 0.000000
467.293550 395.453610 18.409721 0.000000
459.432860 396.661530 18.383080 0.000000
459.142550 396.207520 18.363705 0.000000
466.572450 394.872070 18.352177 0.000000
466.444370 394.512120 18.342381 0.000000
466.332950 394.147060 18.333422 0.000000
458.781340 395.236850 18.336893 0.000000
466.264560 393.772340 18.327545 0.000000
458.649810 394.738400 18.325668 0.000000
466.196170 393.397800 18.321087 0.000000
466.135220 392.829710 18.313789 0.000000
458.529300 394.236720 18.314541 0.000000
466.127990 392.255710 18.309914 0.000000
458.416170 393.732600 18.303278 0.000000
470.647890 391.242860 18.315178 0.000000
466.123080 391.875150 18.306566 0.000000
458.314270 393.225650 18.292124 0.000000
470.548580 390.801610 18.300724 0.000000
466.118100 391.495820 18.302647 0.000000
458.121950 392.727050 18.274632 0.000000
470.525940 390.502780 18.295010 0.000000
466.113100 391.117520 18.298157 0.000000
470.503050 390.053680 18.286493 0.000000
466.528590 390.716770 18.329287 0.000000
458.041230 392.213590 18.263594 0.000000
470.489780 389.604100 18.277870 0.000000
457.960390 391.698910 18.251940 0.000000
470.351350 389.302190 18.257198 0.000000
466.516940 389.977810 18.317533 0.000000
458.051820 391.173250 18.250711 0.000000
470.705350 389.010890 18.289804 0.000000
466.639470 389.608180 18.321962 0.000000
460.778290 390.553410 18.418501 0.000000
465.229030 389.220400 18.192263 0.000000
461.497680 400.720790 19.119890 0.000000
459.436430 401.022220 19.038294 0.000000
457.609010 401.157680 18.965403 0.000000
455.739840 401.243260 18.890305 0.000000
470.640750 398.656010 19.054861 0.000000
469.893890 398.660060 19.011875 0.000000
469.095790 398.663360 18.965536 0.000000
453.638980 401.343230 18.805429 0.000000
468.129850 398.717680 18.908442 0.000000
467.322630 398.666600 18.861301 0.000000
466.332150 398.666660 18.802399 0.000000
465.259980 398.665650 18.738165 0.000000
454.695040 391.922330 18.766863 0.000000
454.696590 391.344420 18.758274 0.000000
454.699310 390.191680 18.739809 0.000000
454.701260 389.616120 18.729958 0.000000
454.703220 389.040650 18.719669 0.000000
454.705200 388.464940 18.708939 0.000000
454.707920 387.888670 18.697788 0.000000
454.178310 405.233180 19.639534 0.000000
452.332120 405.351650 19.605005 0.000000
450.083560 405.575870 19.563370 0.000000
447.695890 405.775330 19.518522 0.000000
470.407470 400.384830 19.461334 0.000000
469.798220 400.337100 19.439280 0.000000
468.686400 400.560670 19.397141 0.000000
468.013790 400.496830 19.372246 0.000000
467.351590 400.405400 19.347540 0.000000
466.422000 400.429660 19.312056 0.000000
465.297390 400.516910 19.268648 0.000000
464.071320 400.611330 19.220982 0.000000
462.948700 400.615450 19.177071 0.000000
460.769010 390.543330 19.006990 0.000000
470.245360 403.708280 19.920191 0.000000
469.558110 403.749050 19.909037 0.000000
468.910830 403.734830 19.898161 0.000000
468.120120 403.803220 19.885092 0.000000
467.282100 403.875850 19.871075 0.000000
466.394350 403.951510 19.856050 0.000000
465.559360 403.960420 19.841412 0.000000
464.656950 403.982510 19.825481 0.000000
463.615140 404.057100 19.807194 0.000000
461.913600 404.476350 19.778996 0.000000
460.674260 404.571320 19.756863 0.000000
459.269260 404.709990 19.731771 0.000000
457.724430 404.869050 19.704010 0.000000
456.021670 405.049190 19.673210 0.000000
467.840300 399.253940 20.332783 0.000000
466.436460 399.485170 20.337700 0.000000
464.848570 399.746250 20.343254 0.000000
463.004610 400.057340 20.349844 0.000000
461.003750 400.363560 20.356441 0.000000
458.406770 400.825780 20.366148 0.000000
460.571290 389.078740 21.934187 0.000000
460.582240 389.068390 22.528126 0.000000
460.592010 389.057980 23.123985 0.000000
460.601930 389.047550 23.722298 0.000000
460.611820 389.037080 24.323616 0.000000
468.397890 386.885100 17.677967 0.000000
468.516420 386.577940 17.681253 0.000000
462.267000 387.226590 17.435463 0.000000
456.579770 388.220790 17.507072 0.000000
462.152040 386.781650 17.409687 0.000000
454.956630 387.584960 17.351589 0.000000
462.276670 386.363650 17.409859 0.000000
455.556430 387.078950 17.391247 0.000000
455.520260 386.527400 17.373806 0.000000
445.781190 387.669860 17.455658 0.000000
446.225740 386.983730 17.469704 0.000000
446.554960 386.301700 17.475550 0.000000
455.842590 390.864290 18.168457 0.000000
467.831090 388.455660 18.073153 0.000000
454.702120 390.348540 18.086147 0.000000
466.082240 387.977600 17.870577 0.000000
460.918610 388.886020 17.898323 0.000000
454.705510 389.790530 18.076880 0.000000
468.985200 387.291290 17.769192 0.000000
454.706390 388.674410 18.056036 0.000000
450.107730 401.673610 18.705259 0.000000
447.063230 401.908720 18.581219 0.000000
470.187530 397.806850 18.699825 0.000000
469.501310 397.775180 18.646700 0.000000
463.073000 398.834780 18.669821 0.000000
468.771270 397.739930 18.589691 0.000000
467.991700 397.701110 18.528297 0.000000
461.932770 398.782710 18.600756 0.000000
467.076390 397.691160 18.455029 0.000000
466.829900 397.390840 18.439468 0.000000
460.628330 398.748720 18.521057 0.000000
459.441130 398.631500 18.448318 0.000000
466.793790 397.008730 18.441525 0.000000
459.148440 398.198640 18.431108 0.000000
466.636750 396.672270 18.432583 0.000000
466.452970 396.343200 18.420801 0.000000
458.866210 397.757230 18.413986 0.000000
466.397160 395.971950 18.419424 0.000000
458.580600 397.311310 18.396076 0.000000
470.471070 395.032170 18.389814 0.000000
466.273900 395.622280 18.411707 0.000000
458.303310 396.857570 18.378105 0.000000
470.308230 394.615140 18.379042 0.000000
458.033720 396.396390 18.360020 0.000000
470.155490 394.193570 18.368244 0.000000
465.552090 395.040310 18.354082 0.000000
470.060910 393.909580 18.361084 0.000000
465.423490 394.680110 18.344248 0.000000
457.760770 395.930270 18.341124 0.000000
469.984860 393.467620 18.356295 0.000000
465.314730 394.314120 18.335526 0.000000
469.949680 393.017910 18.354763 0.000000
465.273040 393.933840 18.331932 0.000000
457.542940 394.921110 18.322105 0.000000
469.871430 392.578770 18.347168 0.000000
465.261170 393.357120 18.329700 0.000000
457.421200 394.417760 18.310898 0.000000
469.793790 392.139340 18.338497 0.000000
465.250030 392.784300 18.326385 0.000000
469.741970 391.846010 18.331953 0.000000
465.244870 392.404390 18.323606 0.000000
457.317750 393.910370 18.300243 0.000000
469.618650 391.409000 18.316074 0.000000
465.239560 392.025940 18.320257 0.000000
457.248870 393.397520 18.291178 0.000000
469.519170 390.967040 18.301605 0.000000
465.234250 391.648770 18.316339 0.000000
457.190030 392.883480 18.282152 0.000000
469.495700 390.667760 18.295809 0.000000
465.228880 391.272550 18.311855 0.000000
469.472530 390.217960 18.287266 0.000000
465.641330 390.874020 18.342785 0.000000
457.013850 392.379820 18.265064 0.000000
469.458800 389.767610 18.278597 0.000000
456.932340 391.864750 18.253374 0.000000
469.328490 389.465330 18.258804 0.000000
465.629030 390.139100 18.331059 0.000000
