# .PCD v0.7 - Point Cloud Data file format
VERSION 0.7
FIELDS x y z intensity
SIZE 4 4 4 4
TYPE F F F F
COUNT 1 1 1 1
WIDTH 1166
HEIGHT 1
VIEWPOINT 0 0 0 1 0 0 0
POINTS 1166
DATA ascii
486.782200 319.066500 16.354860 0.000000
486.757080 320.577910 16.415565 0.000000
486.860260 322.033970 16.477112 0.000000
488.963650 321.913760 18.057472 0.000000
493.352480 315.843510 17.778502 0.000000
491.166200 313.339360 17.624128 0.000000
486.792020 314.694340 17.653030 0.000000
488.764920 320.549100 17.983107 0.000000
494.017090 311.470950 18.861137 0.000000
495.480100 314.267430 19.031227 0.000000
493.724030 311.576840 20.187714 0.000000
493.778350 315.380920 20.480556 0.000000
492.500890 313.622920 20.377705 0.000000
491.140620 311.905880 20.283558 0.000000
493.643980 311.548950 21.509777 0.000000
494.214140 312.431400 21.562004 0.000000
487.641420 314.263950 15.273672 0.000000
489.471800 321.512150 15.532489 0.000000
489.295650 324.705380 15.604340 0.000000
486.753450 320.462590 15.412296 0.000000
486.771480 325.073580 15.529389 0.000000
493.983310 314.250460 15.500472 0.000000
492.856110 311.153630 16.690994 0.000000
493.276120 312.128420 16.736935 0.000000
494.225590 314.025450 16.827436 0.000000
486.780120 317.468200 16.834772 0.000000
488.710390 323.521700 17.098856 0.000000
487.691380 321.226350 16.995346 0.000000
486.773070 320.372710 16.947371 0.000000
487.701480 322.733980 17.052837 0.000000
488.484160 325.267490 17.160564 0.000000
486.776000 317.395970 18.333452 0.000000
488.555510 322.032620 18.566526 0.000000
486.782530 314.618620 18.192404 0.000000
486.801330 315.979190 18.261471 0.000000
486.757840 324.925380 18.715837 0.000000
494.364930 315.076480 19.542297 0.000000
492.959870 312.187680 19.389160 0.000000
492.518950 313.716310 19.493166 0.000000
495.055850 314.542720 20.815910 0.000000
493.361880 313.120760 20.773891 0.000000
493.845180 314.075160 20.826508 0.000000
493.990780 312.661040 22.037430 0.000000
493.551850 313.113100 16.020643 0.000000
490.881320 312.200530 15.910635 0.000000
488.539090 321.717680 16.162752 0.000000
486.759770 318.582950 16.007551 0.000000
486.767490 320.004120 16.055391 0.000000
486.779050 321.454960 16.103870 0.000000
492.974760 314.636690 17.393826 0.000000
488.604220 323.073850 17.729301 0.000000
486.770260 317.104890 17.440058 0.000000
486.763150 319.928220 17.567656 0.000000
486.759400 321.388120 17.633635 0.000000
491.792180 311.628780 17.245346 0.000000
495.664980 314.102450 18.681496 0.000000
494.661290 313.519930 18.656261 0.000000
494.945190 312.080690 19.847958 0.000000
494.034330 313.841580 19.992157 0.000000
494.158840 315.006130 20.068859 0.000000
494.336730 312.376860 21.177929 0.000000
487.835630 325.045380 16.230328 0.000000
493.642850 311.918950 17.194675 0.000000
491.858860 311.703520 17.156446 0.000000
488.565520 322.938840 17.679564 0.000000
486.806520 318.394530 17.420788 0.000000
486.777860 319.807040 17.492439 0.000000
486.793400 322.681180 17.639359 0.000000
495.612430 314.235930 18.616560 0.000000
494.706850 313.593290 18.579508 0.000000
493.212770 312.079410 18.491241 0.000000
492.703280 313.561860 18.584738 0.000000
486.786900 314.302060 18.653227 0.000000
493.858920 311.648100 19.742041 0.000000
494.083890 313.886870 19.900055 0.000000
494.102630 315.093320 19.988728 0.000000
492.916350 313.361300 19.887817 0.000000
494.403630 312.434910 21.067719 0.000000
494.060880 311.461670 21.001030 0.000000
488.104680 322.594020 16.430576 0.000000
494.572200 312.195620 17.458939 0.000000
492.918790 311.924500 17.426125 0.000000
488.860170 320.605770 17.833374 0.000000
486.789550 320.509160 17.804958 0.000000
494.849850 314.290410 18.849165 0.000000
493.516480 311.538970 18.686747 0.000000
493.120000 314.097530 18.850180 0.000000
493.940550 313.558380 20.098961 0.000000
492.027040 312.237820 20.054319 0.000000
494.137790 312.210080 21.268829 0.000000
494.566280 312.269380 16.414829 0.000000
486.801760 318.970120 16.501631 0.000000
486.811100 320.325990 16.564259 0.000000
495.752930 313.811550 17.765099 0.000000
486.795530 320.242400 18.043962 0.000000
486.792850 321.632630 18.123100 0.000000
494.821560 314.259830 19.049376 0.000000
492.964540 311.798190 18.901598 0.000000
493.189940 312.829620 18.968407 0.000000
492.789150 314.211240 19.065125 0.000000
494.417760 314.408200 20.342588 0.000000
493.940950 313.508000 20.285772 0.000000
493.379820 312.651820 20.235586 0.000000
491.796390 312.298740 20.254726 0.000000
494.029300 312.237240 21.452229 0.000000
494.608400 312.244900 17.593504 0.000000
491.634090 311.429810 17.510826 0.000000
488.716030 320.302920 17.995031 0.000000
495.033450 314.182130 18.963318 0.000000
493.009250 311.832430 18.818182 0.000000
493.179410 312.876310 18.887886 0.000000
492.961300 314.134190 18.975601 0.000000
494.381040 314.453610 20.256006 0.000000
493.896790 311.330440 20.024408 0.000000
493.960240 313.533810 20.194597 0.000000
493.441380 312.664700 20.140598 0.000000
494.151150 312.232420 21.341743 0.000000
487.976380 323.270970 16.639990 0.000000
488.370670 321.600950 18.017992 0.000000
493.245120 312.908690 18.846062 0.000000
493.140810 315.215030 18.997549 0.000000
494.460970 314.466090 20.189228 0.000000
493.914920 311.437130 19.978960 0.000000
493.978550 313.591890 20.137081 0.000000
494.248080 312.291320 21.270931 0.000000
488.509580 320.391970 16.441484 0.000000
495.597840 311.240390 17.462927 0.000000
491.479770 311.875240 17.456377 0.000000
487.913210 321.926880 17.920109 0.000000
486.792850 319.925630 17.810930 0.000000
495.732640 314.255070 18.820768 0.000000
493.200130 312.185060 18.726936 0.000000
494.077640 313.891780 20.055679 0.000000
494.166900 314.944640 20.124733 0.000000
492.735350 313.403500 20.063860 0.000000
492.128660 312.568050 20.026857 0.000000
494.559020 312.536800 21.169449 0.000000
493.768370 311.815800 21.155420 0.000000
494.575260 312.223330 17.328793 0.000000
488.126220 322.111540 17.718410 0.000000
486.799130 318.990110 17.556131 0.000000
495.486210 313.847810 18.609077 0.000000
494.624240 315.295780 18.697325 0.000000
494.059720 312.368070 18.538960 0.000000
493.700470 311.472230 18.492802 0.000000
493.208680 313.773500 18.624001 0.000000
494.012940 311.291530 19.683380 0.000000
494.128480 315.460480 19.947113 0.000000
494.228420 312.175960 20.941364 0.000000
493.777740 314.473690 21.130135 0.000000
493.458010 313.540620 21.077450 0.000000
494.313540 313.119480 22.223789 0.000000
493.172150 314.275120 17.368958 0.000000
495.656040 314.225920 18.580820 0.000000
494.719330 313.586910 18.549458 0.000000
493.373170 313.080200 18.528866 0.000000
494.369260 314.699860 19.828617 0.000000
494.305150 315.783050 19.903566 0.000000
494.038210 313.792450 19.776728 0.000000
494.611570 312.477390 20.865347 0.000000
494.757690 314.469640 21.007383 0.000000
493.960940 312.656400 22.119129 0.000000
493.580780 312.103910 17.092415 0.000000
494.368990 314.817350 18.420004 0.000000
493.394440 313.130160 18.341454 0.000000
493.292910 312.145750 18.293266 0.000000
486.804260 313.225040 18.388905 0.000000
486.798030 320.258480 18.741760 0.000000
486.796170 321.490840 18.805098 0.000000
486.794310 322.743380 18.869902 0.000000
494.489260 315.749080 19.674606 0.000000
493.921230 314.938630 19.641676 0.000000
492.943240 312.207980 19.510605 0.000000
491.989900 313.578000 19.614311 0.000000
495.338960 312.318300 20.617743 0.000000
493.867770 313.866940 20.788383 0.000000
494.054440 314.827330 20.843300 0.000000
494.183010 312.676150 21.891464 0.000000
492.205380 335.501680 16.528578 0.000000
491.582340 334.520420 16.481741 0.000000
495.471220 314.530430 18.348253 0.000000
492.373320 314.655880 18.373222 0.000000
486.800200 313.259890 18.342743 0.000000
486.794310 315.517460 18.449116 0.000000
486.784940 320.203890 18.674992 0.000000
486.782530 321.417240 18.734537 0.000000
486.787410 323.897310 18.857492 0.000000
494.321960 314.912450 19.568264 0.000000
494.491520 315.870730 19.617769 0.000000
492.983520 312.340880 19.463078 0.000000
492.650020 311.438750 19.423988 0.000000
494.958370 311.656400 20.532513 0.000000
493.920410 313.989780 20.725817 0.000000
493.827450 315.044560 20.796894 0.000000
493.257320 313.207280 20.708702 0.000000
494.407780 312.764400 21.809044 0.000000
481.096650 333.605830 16.101288 0.000000
486.709350 333.157870 16.280426 0.000000
484.651090 332.985140 16.204626 0.000000
486.806370 320.120970 17.245913 0.000000
495.536560 314.569670 18.307610 0.000000
493.399350 312.320040 18.208780 0.000000
486.812560 313.201630 18.286289 0.000000
486.798950 315.436370 18.394173 0.000000
486.790010 316.573390 18.449692 0.000000
486.781370 321.259250 18.682577 0.000000
486.784150 323.701230 18.806486 0.000000
486.781950 324.953310 18.870686 0.000000
494.415650 314.917360 19.514931 0.000000
493.694060 312.176030 19.380959 0.000000
492.595580 311.507690 19.373621 0.000000
494.925840 311.751310 20.479794 0.000000
493.959660 314.018430 20.665672 0.000000
493.828090 315.071470 20.738804 0.000000
493.299530 313.235080 20.647442 0.000000
494.522460 312.789790 21.735363 0.000000
481.179380 333.300600 16.027037 0.000000
478.413510 333.319400 15.924578 0.000000
490.338620 322.245210 15.993997 0.000000
495.645230 312.018280 15.826384 0.000000
493.932070 312.393490 18.110895 0.000000
486.799470 316.646090 18.344843 0.000000
486.794560 320.090640 18.521011 0.000000
486.792660 321.268800 18.582108 0.000000
486.808530 323.667510 18.707731 0.000000
486.787410 324.907440 18.773375 0.000000
495.076570 314.899720 19.395905 0.000000
493.069340 312.579960 19.311310 0.000000
492.750270 311.683960 19.269287 0.000000
493.735320 312.334410 20.456697 0.000000
494.055420 314.195650 20.559519 0.000000
493.736510 315.295410 20.644634 0.000000
493.284850 313.446230 20.546276 0.000000
491.429200 311.973020 20.538774 0.000000
493.664400 311.329070 21.572077 0.000000
492.731810 313.552860 21.784643 0.000000
479.912540 333.622310 16.060516 0.000000
474.063260 335.141850 15.894797 0.000000
490.330810 322.218630 16.039963 0.000000
489.672000 333.628420 16.423750 0.000000
488.536650 321.817080 15.955894 0.000000
486.794620 321.339080 15.870540 0.000000
492.045500 311.187650 15.675041 0.000000
486.789120 322.446620 17.291697 0.000000
488.705260 322.833680 17.344406 0.000000
488.048950 324.295990 17.399529 0.000000
486.786990 318.959900 17.131683 0.000000
495.207400 314.095120 18.207201 0.000000
486.798860 315.523620 18.304415 0.000000
486.791230 320.034820 18.541626 0.000000
486.789120 321.196750 18.603767 0.000000
486.787080 322.374270 18.667160 0.000000
486.785130 323.568360 18.731871 0.000000
486.783080 324.780180 18.797966 0.000000
495.061220 315.041990 19.412441 0.000000
493.917330 311.532350 19.236784 0.000000
492.643460 312.822170 19.340626 0.000000
494.905670 311.233670 20.333643 0.000000
494.279020 314.255550 20.552975 0.000000
493.672000 315.424740 20.656424 0.000000
493.265960 312.598820 20.492760 0.000000
492.438540 313.806120 20.606356 0.000000
494.117370 312.317140 21.599903 0.000000
493.665280 311.476750 21.573229 0.000000
492.903840 313.614720 21.769827 0.000000
477.350890 333.029420 15.845913 0.000000
490.286160 322.147950 15.950692 0.000000
488.065090 321.888730 15.849520 0.000000
486.795100 317.807160 15.632230 0.000000
486.793330 318.929470 15.678104 0.000000
486.791470 320.064580 15.724089 0.000000
486.789730 321.213350 15.770214 0.000000
495.244140 313.346890 15.798779 0.000000
488.391270 320.560640 17.133781 0.000000
487.716490 314.212920 16.818672 0.000000
487.620640 321.984040 17.185461 0.000000
486.793300 317.736050 16.966848 0.000000
486.791500 318.857510 17.020027 0.000000
486.789610 319.991700 17.073809 0.000000
486.797240 323.474670 17.239243 0.000000
495.376340 314.128940 18.107542 0.000000
494.645870 313.385250 18.068308 0.000000
486.789700 318.785580 18.360779 0.000000
486.787780 319.918850 18.422346 0.000000
486.786010 321.065670 18.485065 0.000000
486.784060 322.227140 18.549000 0.000000
486.782100 323.404170 18.614212 0.000000
486.780180 324.597780 18.680765 0.000000
486.797580 325.800540 18.748262 0.000000
493.888370 311.622250 19.129686 0.000000
493.024720 312.780030 19.215240 0.000000
492.729740 315.809020 19.400360 0.000000
494.953520 311.322750 20.220396 0.000000
494.168030 314.346980 20.446800 0.000000
493.904110 313.458340 20.400478 0.000000
493.746770 315.440280 20.536701 0.000000
493.338200 312.642060 20.372805 0.000000
494.227690 312.365330 21.471912 0.000000
493.767640 311.529020 21.445063 0.000000
493.074580 313.612850 21.632219 0.000000
488.895540 320.717860 15.814843 0.000000
486.793910 316.973510 15.561280 0.000000
486.800630 318.070620 15.610059 0.000000
486.798710 319.181090 15.658648 0.000000
486.796880 320.303380 15.707349 0.000000
486.789580 322.588530 15.805113 0.000000
495.747070 313.662050 15.799952 0.000000
494.381440 313.061310 15.713917 0.000000
492.330990 311.600130 15.558530 0.000000
493.597960 312.231810 16.798887 0.000000
487.570470 322.227750 17.166113 0.000000
487.287690 321.192540 17.108160 0.000000
486.804170 314.730650 16.774563 0.000000
486.798770 317.996520 16.937679 0.000000
486.796880 319.106080 16.993093 0.000000
486.795040 320.227420 17.049101 0.000000
494.438870 311.131230 16.762348 0.000000
488.493840 325.324040 17.341152 0.000000
486.800480 316.897980 16.882811 0.000000
491.627440 312.580930 17.972708 0.000000
486.823060 315.731750 18.142332 0.000000
486.795040 319.031100 18.326300 0.000000
486.793210 320.151520 18.389601 0.000000
486.791290 321.284670 18.454031 0.000000
486.789460 322.431370 18.519648 0.000000
486.787450 323.592710 18.586517 0.000000
486.785430 324.769620 18.654703 0.000000
495.203740 314.540160 19.217087 0.000000
494.161070 314.749940 20.410181 0.000000
494.011990 313.837310 20.355930 0.000000
494.657650 312.685970 21.394371 0.000000
493.526610 311.994600 21.418762 0.000000
486.805330 314.280090 15.222094 0.000000
486.800480 317.495240 15.341617 0.000000
486.798160 318.584930 15.381287 0.000000
486.806430 319.681820 15.421297 0.000000
493.972530 314.767210 15.566303 0.000000
493.253360 313.979370 15.504281 0.000000
491.106320 311.497220 15.312080 0.000000
486.794310 319.620540 16.749128 0.000000
492.418210 313.139950 16.612947 0.000000
492.435180 314.097020 16.653475 0.000000
486.791140 316.355500 16.612186 0.000000
486.797970 317.432890 16.657513 0.000000
486.796080 318.521610 16.703106 0.000000
494.486910 311.773280 17.733139 0.000000
493.393220 315.746830 17.914576 0.000000
486.801880 314.159700 17.822533 0.000000
486.794070 318.458370 18.023594 0.000000
486.790310 320.665470 18.129269 0.000000
495.649480 314.223690 18.963078 0.000000
493.076900 311.964320 18.897202 0.000000
493.218480 312.878390 18.940014 0.000000
493.981990 313.610170 20.110420 0.000000
492.047940 312.087160 20.105751 0.000000
494.566220 312.516850 21.160013 0.000000
493.906800 311.716220 21.154739 0.000000
493.352690 313.686100 21.304014 0.000000
493.615540 314.574800 21.341761 0.000000
486.793370 317.257840 15.317905 0.000000
492.497280 312.203950 15.415991 0.000000
491.085970 311.445130 15.329660 0.000000
495.268520 311.758610 16.630186 0.000000
492.372860 313.123930 16.611454 0.000000
490.804110 314.358580 16.618288 0.000000
491.436800 312.269200 17.749889 0.000000
486.794130 318.227840 17.973080 0.000000
486.778110 323.744050 18.194952 0.000000
493.208440 312.900480 18.928556 0.000000
493.080050 311.989200 18.893902 0.000000
492.081150 311.187230 18.882299 0.000000
493.234740 313.786350 20.122065 0.000000
492.172060 312.075230 20.090103 0.000000
493.753880 311.807130 21.152981 0.000000
493.633880 314.603000 21.297779 0.000000
492.816040 312.875430 21.263605 0.000000
493.004460 313.782750 21.296143 0.000000
486.788640 321.359860 15.467951 0.000000
494.010380 314.788910 15.562349 0.000000
493.454830 314.782710 17.829788 0.000000
486.804470 314.862340 17.816895 0.000000
493.103420 312.012660 18.854576 0.000000
494.009520 315.508270 20.138802 0.000000
492.148410 312.072170 20.043177 0.000000
494.748990 312.620240 21.077705 0.000000
493.890750 311.825590 21.091087 0.000000
493.670290 314.595090 21.250183 0.000000
493.022220 313.771670 21.246141 0.000000
486.803340 316.735500 15.470573 0.000000
486.801640 317.779300 15.512773 0.000000
486.801090 316.675050 16.756786 0.000000
495.694920 314.340550 19.026047 0.000000
493.189880 312.839170 19.006363 0.000000
493.265840 315.583160 19.140205 0.000000
494.422210 314.456670 20.177025 0.000000
493.979460 313.611050 20.152094 0.000000
493.802890 315.449040 20.256470 0.000000
493.579960 311.845090 20.080463 0.000000
493.816380 311.775150 21.193884 0.000000
493.551570 314.517670 21.357237 0.000000
493.305730 313.634610 21.324812 0.000000
492.704190 312.780270 21.318447 0.000000
486.796750 319.350620 17.278952 0.000000
486.791110 321.395900 18.655933 0.000000
486.789340 322.456390 18.702785 0.000000
486.787540 323.525210 18.750404 0.000000
486.793760 317.223420 18.475521 0.000000
486.808170 311.095490 18.222071 0.000000
495.416560 315.161040 19.412792 0.000000
493.587770 311.764470 19.320206 0.000000
494.395110 314.340850 20.517378 0.000000
493.779140 315.300840 20.593468 0.000000
493.790650 313.500210 20.510122 0.000000
493.533940 311.721590 20.445595 0.000000
493.309140 312.633420 20.496428 0.000000
494.357270 312.525540 21.549187 0.000000
493.578830 311.674410 21.568464 0.000000
492.862950 313.525630 21.704205 0.000000
495.710970 315.635190 18.500021 0.000000
486.795810 319.522400 18.773550 0.000000
486.801940 315.440860 18.586452 0.000000
486.806850 314.428620 18.540979 0.000000
494.514710 315.696590 19.614574 0.000000
494.183140 314.842040 19.585106 0.000000
493.739930 312.208680 19.479574 0.000000
492.029790 313.161930 19.578014 0.000000
493.944460 313.924130 20.660583 0.000000
494.074680 314.801060 20.695393 0.000000
493.813600 312.158660 20.586403 0.000000
493.248810 313.065670 20.658415 0.000000
486.795170 324.530330 18.892414 0.000000
486.791380 322.461490 18.789364 0.000000
486.789760 323.493190 18.840590 0.000000
494.457700 314.964870 19.449966 0.000000
493.022640 312.358890 19.371868 0.000000
492.780670 311.462830 19.338743 0.000000
494.774170 311.460910 20.357576 0.000000
493.999970 314.061100 20.517687 0.000000
494.013790 314.934570 20.559158 0.000000
493.701750 312.312810 20.451820 0.000000
493.364810 313.194370 20.509987 0.000000
493.737340 311.385280 21.512985 0.000000
487.940670 325.108120 17.414719 0.000000
486.796690 317.284700 16.999762 0.000000
494.110990 316.015170 18.152452 0.000000
488.560300 321.973690 18.481026 0.000000
486.784730 325.259580 18.663240 0.000000
486.786160 324.238010 18.607866 0.000000
486.787630 323.222500 18.553205 0.000000
486.790470 321.207210 18.445866 0.000000
486.793400 319.208500 18.340925 0.000000
486.791960 320.206090 18.393114 0.000000
486.794800 318.213750 18.289267 0.000000
486.796230 317.221310 18.238106 0.000000
493.947570 311.639590 19.019993 0.000000
493.151860 312.473180 19.080122 0.000000
492.640380 314.227390 19.179518 0.000000
494.090910 315.044130 20.266518 0.000000
494.199310 314.183440 20.217909 0.000000
493.798920 311.577270 20.110945 0.000000
493.493230 313.305970 20.207745 0.000000
491.940860 312.367190 20.235359 0.000000
494.398710 312.418210 21.200752 0.000000
493.973180 311.534210 21.189331 0.000000
492.997960 313.238370 21.336254 0.000000
488.507230 330.900570 15.460077 0.000000
495.255620 331.821140 15.910152 0.000000
493.387660 331.473910 15.781685 0.000000
491.534730 331.061280 15.650208 0.000000
486.789700 325.048920 17.537226 0.000000
486.796200 321.071840 17.291687 0.000000
486.797850 319.103180 17.170116 0.000000
486.800990 318.121520 17.109539 0.000000
486.803440 316.160980 16.988483 0.000000
486.804570 315.180790 16.927959 0.000000
493.988040 316.126340 18.187574 0.000000
493.074100 312.632200 17.978445 0.000000
492.211460 313.456540 18.031527 0.000000
486.789830 323.969020 18.711555 0.000000
486.793090 321.982150 18.583750 0.000000
486.791440 322.973540 18.647333 0.000000
486.794710 320.994260 18.520767 0.000000
486.797910 319.026400 18.396435 0.000000
486.796300 320.009190 18.458342 0.000000
486.799530 318.045230 18.335003 0.000000
486.801120 317.065120 18.274012 0.000000
486.803990 315.105590 18.153200 0.000000
486.812740 311.172910 17.915234 0.000000
493.080510 316.054050 19.279263 0.000000
493.180020 312.574400 19.067917 0.000000
492.632320 313.414150 19.131424 0.000000
494.510620 314.308170 20.199556 0.000000
494.058840 315.142240 20.270874 0.000000
493.706600 311.684540 20.087214 0.000000
491.995910 312.415950 20.209541 0.000000
493.984920 311.646450 21.152372 0.000000
493.154910 313.312650 21.301884 0.000000
487.281920 330.821110 15.453382 0.000000
485.494540 330.188690 15.308075 0.000000
486.490300 325.950990 15.120091 0.000000
484.363400 327.282680 15.068711 0.000000
482.440730 328.660310 15.031864 0.000000
481.493590 329.925380 15.047605 0.000000
494.564670 331.825900 15.951933 0.000000
495.215450 323.063630 15.483417 0.000000
492.082120 331.587280 15.788447 0.000000
489.796110 331.216160 15.628891 0.000000
488.703700 324.689000 15.180274 0.000000
487.963260 324.696810 16.339693 0.000000
486.786250 325.825440 16.364159 0.000000
495.042880 313.874050 15.911776 0.000000
488.466860 323.682590 16.295141 0.000000
493.285340 314.510560 16.966021 0.000000
492.272950 312.668520 16.825462 0.000000
488.178740 322.675870 17.412870 0.000000
486.788240 325.740940 17.590275 0.000000
487.496220 321.768310 17.340244 0.000000
486.792820 324.753420 17.524973 0.000000
486.796810 319.867070 17.201513 0.000000
486.798250 318.895260 17.137196 0.000000
486.802490 315.980260 16.944267 0.000000
486.801090 316.952480 17.008612 0.000000
494.703610 312.088170 16.831678 0.000000
488.411740 323.607540 17.478836 0.000000
486.793820 320.839970 17.265877 0.000000
486.798890 317.923920 17.072893 0.000000
487.407500 313.108370 16.765224 0.000000
486.801090 315.006590 16.879772 0.000000
495.257570 312.927610 17.938112 0.000000
492.181550 313.474090 17.983507 0.000000
486.789550 323.687870 18.679951 0.000000
486.788120 324.670380 18.747334 0.000000
486.791020 322.708740 18.613174 0.000000
486.793850 320.758420 18.481279 0.000000
486.792420 321.732480 18.546967 0.000000
486.796720 318.814610 18.351307 0.000000
486.795320 319.786010 18.416073 0.000000
486.798160 317.843630 18.286942 0.000000
486.802190 315.900730 18.159254 0.000000
486.799560 316.872530 18.222937 0.000000
486.800480 314.927340 18.095856 0.000000
493.120640 316.085600 19.231415 0.000000
492.934080 315.211820 19.180159 0.000000
493.194920 312.630280 19.012133 0.000000
492.667450 313.448880 19.075964 0.000000
494.478940 314.394560 20.144897 0.000000
494.026430 315.207550 20.216496 0.000000
493.670320 311.751500 20.025431 0.000000
492.045590 312.430540 20.141106 0.000000
494.786160 312.673710 21.081121 0.000000
493.632900 314.258910 21.252571 0.000000
493.995540 311.725800 21.082403 0.000000
493.304960 313.369720 21.222815 0.000000
478.073760 331.955170 15.562897 0.000000
475.459900 331.248140 15.383301 0.000000
473.715640 329.104340 15.161752 0.000000
473.156680 330.407040 15.211212 0.000000
488.253330 332.986540 16.155975 0.000000
486.108180 332.477970 16.014965 0.000000
483.320340 332.031650 15.843126 0.000000
494.488370 335.976350 16.641825 0.000000
493.652680 334.396480 16.514240 0.000000
492.747800 333.733920 16.431252 0.000000
491.260530 333.198820 16.324450 0.000000
488.524870 326.157380 15.766293 0.000000
488.484100 324.272090 15.646132 0.000000
488.219300 325.241880 15.693107 0.000000
488.131040 323.354100 15.568819 0.000000
486.809360 316.594420 16.262474 0.000000
486.807560 313.676730 16.061975 0.000000
492.580110 313.444370 16.226686 0.000000
489.447140 323.191560 16.786240 0.000000
488.506290 325.133670 16.883045 0.000000
487.967800 324.234310 16.807789 0.000000
488.444060 314.806370 16.191349 0.000000
495.243870 311.205570 17.197775 0.000000
494.800780 311.975190 17.244915 0.000000
491.309080 313.206600 17.293592 0.000000
491.232940 314.097840 17.352381 0.000000
489.198000 323.129330 17.935984 0.000000
488.980770 320.357790 17.748800 0.000000
488.121860 322.251040 17.866983 0.000000
487.957460 321.312320 17.802713 0.000000
486.792790 324.247160 17.987518 0.000000
486.791200 325.219760 18.052458 0.000000
486.803860 317.481630 17.535797 0.000000
486.802310 318.447690 17.600298 0.000000
486.807010 315.544680 17.406467 0.000000
486.805420 316.514160 17.471199 0.000000
486.804470 314.572170 17.341497 0.000000
486.800690 319.412900 17.664743 0.000000
495.637150 315.349270 18.501333 0.000000
493.405520 312.544010 18.348482 0.000000
491.971440 313.221010 18.408894 0.000000
486.800350 318.367370 18.806883 0.000000
486.798770 319.332460 18.870981 0.000000
486.801940 317.401430 18.743095 0.000000
486.805110 315.464660 18.616306 0.000000
486.803500 316.434080 18.679585 0.000000
486.804140 313.516820 18.490332 0.000000
494.476870 315.167940 19.552647 0.000000
493.736330 311.658480 19.363386 0.000000
493.016330 312.414790 19.432884 0.000000
491.623960 313.102230 19.521511 0.000000
494.344120 314.243100 20.554817 0.000000
494.477020 311.715090 20.401791 0.000000
493.943050 315.045720 20.625217 0.000000
493.526370 312.421910 20.494190 0.000000
493.365570 313.264740 20.551662 0.000000
494.304720 312.471710 21.517176 0.000000
493.714320 311.514770 21.511786 0.000000
480.223050 329.106570 15.043417 0.000000
479.381290 330.317810 15.063454 0.000000
487.303560 331.143830 15.588950 0.000000
486.794310 325.387700 15.217007 0.000000
484.972470 330.538760 15.414274 0.000000
484.220550 326.581090 15.134130 0.000000
482.447780 327.782710 15.099430 0.000000
492.622680 331.980560 15.953827 0.000000
490.313900 331.538570 15.791664 0.000000
488.401550 323.405730 15.188745 0.000000
488.053740 324.357300 15.228759 0.000000
495.137150 332.297550 16.120577 0.000000
486.794190 325.307220 16.422064 0.000000
486.800960 319.545290 16.039484 0.000000
486.803500 314.716310 15.698397 0.000000
494.329990 313.097290 15.871234 0.000000
489.536380 323.287990 16.398561 0.000000
490.953460 314.322240 15.831127 0.000000
488.206820 326.148960 16.531046 0.000000
487.817810 324.290990 16.396612 0.000000
488.253720 312.988650 15.628092 0.000000
486.794130 325.226870 17.625069 0.000000
486.799680 319.464450 17.240414 0.000000
486.802310 317.540340 17.109041 0.000000
486.800990 318.503300 17.174973 0.000000
486.804960 315.606720 16.975548 0.000000
486.802800 312.676910 16.770382 0.000000
494.854830 313.118960 16.939304 0.000000
493.935550 311.221310 16.788315 0.000000
493.069340 315.411380 17.070036 0.000000
488.332980 321.386050 17.396864 0.000000
488.281980 322.319490 17.458479 0.000000
487.988460 324.203460 17.578447 0.000000
488.369750 320.454070 17.334742 0.000000
495.704930 314.027980 18.041327 0.000000
493.349400 315.374080 18.142170 0.000000
493.029330 312.721680 17.965637 0.000000
486.793090 323.222810 18.698080 0.000000
486.791810 324.183960 18.762573 0.000000
486.795750 321.303340 18.569279 0.000000
486.794430 322.262790 18.633661 0.000000
486.799710 318.422330 18.375963 0.000000
486.803710 315.525090 18.181555 0.000000
486.802400 316.493650 18.246546 0.000000
486.798430 319.383670 18.440470 0.000000
486.797090 320.343810 18.504896 0.000000
486.801030 317.459170 18.311335 0.000000
493.084530 316.130100 19.267664 0.000000
493.201290 312.679320 19.043816 0.000000
492.848600 315.238430 19.216282 0.000000
493.056950 311.772490 18.990393 0.000000
492.654020 313.463070 19.107765 0.000000
493.965480 315.308990 20.248972 0.000000
493.972050 313.605530 20.144957 0.000000
493.596680 311.806700 20.056007 0.000000
492.013670 312.390050 20.165550 0.000000
494.792080 312.824620 21.108606 0.000000
493.645540 314.340000 21.273878 0.000000
493.953190 311.805450 21.110498 0.000000
493.347720 313.430300 21.242514 0.000000
474.502440 331.779910 15.542145 0.000000
471.866300 330.891780 15.362589 0.000000
472.094360 328.422940 15.237520 0.000000
471.505070 329.698640 15.279160 0.000000
477.923460 332.463680 15.748756 0.000000
487.161650 333.042270 16.236868 0.000000
486.801570 318.669160 15.382952 0.000000
486.800420 317.706790 15.318096 0.000000
484.342590 332.533450 16.071636 0.000000
481.098570 326.663540 15.590888 0.000000
492.738400 334.683440 16.589573 0.000000
492.652710 335.608830 16.627701 0.000000
494.104580 311.591710 15.238548 0.000000
489.425170 333.568210 16.374367 0.000000
488.836000 323.435520 15.790367 0.000000
488.486270 322.513000 15.715862 0.000000
487.685490 324.384280 15.789583 0.000000
487.571530 325.329440 15.839885 0.000000
486.800420 318.593930 16.583145 0.000000
486.798340 315.694920 16.391468 0.000000
495.441680 311.845400 16.365520 0.000000
494.611970 313.365360 16.450542 0.000000
493.646640 312.292940 16.348087 0.000000
492.828460 313.882600 16.437054 0.000000
488.905430 323.364440 16.944241 0.000000
488.625520 325.213960 17.047878 0.000000
488.294190 324.297760 16.983433 0.000000
488.315460 321.510770 16.812595 0.000000
487.679870 322.432950 16.851828 0.000000
486.801700 316.589390 17.659328 0.000000
486.800450 317.555760 17.720900 0.000000
486.799220 318.518800 17.781895 0.000000
486.802980 315.619110 17.597137 0.000000
494.666380 313.309140 17.497843 0.000000
493.569950 314.817200 17.589487 0.000000
493.401030 315.650700 17.642448 0.000000
491.452030 313.553800 17.493433 0.000000
488.829800 320.532840 17.922001 0.000000
488.481230 321.443850 17.976307 0.000000
488.212280 322.367030 18.031553 0.000000
486.791840 324.261050 18.137913 0.000000
486.790440 325.217530 18.195934 0.000000
486.793060 323.305360 18.079575 0.000000
486.798000 319.479160 17.842352 0.000000
494.456600 314.901670 18.647541 0.000000
493.363830 312.970920 18.545563 0.000000
491.710240 311.716190 18.493515 0.000000
491.195950 313.433750 18.606646 0.000000
486.797270 316.512940 18.861883 0.000000
486.796970 317.479920 18.921215 0.000000
486.803070 314.567200 18.742420 0.000000
486.801820 315.542570 18.802280 0.000000
494.482360 315.683320 19.738863 0.000000
494.270290 314.802670 19.695698 0.000000
492.802120 311.892490 19.583191 0.000000
492.512630 312.723420 19.640869 0.000000
491.747310 313.467380 19.711294 0.000000
494.632660 311.375580 20.547489 0.000000
494.118470 314.709080 20.752111 0.000000
493.908450 313.812590 20.716293 0.000000
493.539490 315.469210 20.827147 0.000000
493.971250 312.089540 20.622280 0.000000
493.207000 312.799160 20.703436 0.000000
493.422580 311.893800 21.729143 0.000000
485.740690 329.635040 15.107298 0.000000
484.872740 328.717680 15.012484 0.000000
488.849980 323.843230 15.045023 0.000000
488.706300 324.761440 15.081194 0.000000
488.704350 326.603330 15.168185 0.000000
488.354190 330.341550 15.305111 0.000000
488.011110 325.694340 15.080732 0.000000
487.140440 327.607760 15.111618 0.000000
491.701480 330.869510 15.541886 0.000000
487.292720 335.232640 16.622990 0.000000
487.019130 334.302980 16.577236 0.000000
486.806580 317.019590 15.745089 0.000000
486.805180 317.990390 15.800683 0.000000
483.757350 333.839050 16.421452 0.000000
481.102170 326.806610 16.008461 0.000000
492.966580 312.607700 15.734110 0.000000
489.454990 322.889040 16.179028 0.000000
488.731870 323.784550 16.192974 0.000000
487.111110 324.703890 16.168232 0.000000
486.794160 325.658020 16.200502 0.000000
495.353640 312.343930 15.815145 0.000000
486.805480 316.956940 16.952442 0.000000
486.804080 317.928340 17.005266 0.000000
486.802670 318.895630 17.057131 0.000000
486.809230 314.999270 16.843788 0.000000
486.806880 315.980710 16.898621 0.000000
493.674500 313.609770 16.904783 0.000000
491.553470 314.032290 16.886230 0.000000
490.940580 312.040220 16.757204 0.000000
488.711180 322.805450 17.300119 0.000000
488.666560 323.726720 17.345085 0.000000
487.601260 321.821990 17.226662 0.000000
487.730160 314.191740 16.817036 0.000000
487.262660 320.853270 17.169687 0.000000
486.794460 324.645480 17.350145 0.000000
486.793090 325.600340 17.396252 0.000000
486.802950 317.866360 18.208784 0.000000
486.801540 318.834260 18.258255 0.000000
486.800170 319.798580 18.307175 0.000000
486.805760 315.917420 18.108065 0.000000
486.804350 316.894290 18.158733 0.000000
495.729580 314.032170 18.000816 0.000000
494.824550 311.207460 17.849024 0.000000
493.370090 315.240140 18.067297 0.000000
493.248540 316.088680 18.112047 0.000000
492.211090 312.298740 17.911459 0.000000
491.468690 311.178280 17.851702 0.000000
486.796080 322.676060 18.450964 0.000000
486.794710 323.632020 18.498007 0.000000
486.793330 324.587370 18.544653 0.000000
486.791990 325.542720 18.590935 0.000000
486.798830 320.759920 18.355579 0.000000
486.795010 321.718720 18.403494 0.000000
494.701480 313.735530 19.038525 0.000000
493.153810 312.477330 19.011936 0.000000
493.989110 315.250060 20.189260 0.000000
493.772770 311.683900 20.043268 0.000000
492.130040 312.157710 20.135033 0.000000
494.799070 312.779790 21.103165 0.000000
494.024260 311.693760 21.112530 0.000000
493.712920 314.266480 21.231041 0.000000
493.211120 313.268860 21.224779 0.000000
493.413210 315.078310 21.282808 0.000000
481.101170 326.472170 15.083004 0.000000
480.724060 328.587680 15.154411 0.000000
479.545590 327.550350 15.040575 0.000000
478.757720 329.750060 15.088377 0.000000
487.119290 317.885560 14.983081 0.000000
484.670650 330.432370 15.460390 0.000000
490.789340 316.644840 15.117117 0.000000
488.278690 325.544920 15.459229 0.000000
488.002620 323.676270 15.352020 0.000000
487.987850 324.608280 15.397302 0.000000
487.213260 331.204900 15.638247 0.000000
486.802980 322.658660 15.230188 0.000000
486.805790 316.796420 16.116554 0.000000
486.804200 317.775180 16.171768 0.000000
481.097930 326.412080 16.402124 0.000000
489.357600 322.781950 16.529835 0.000000
487.821900 324.547910 16.560524 0.000000
486.882230 323.561710 16.478428 0.000000
486.867000 325.465640 16.569124 0.000000
495.645540 311.560550 16.101246 0.000000
486.803190 317.714480 17.379543 0.000000
486.801610 318.688690 17.430229 0.000000
486.800020 319.658170 17.479933 0.000000
486.807980 314.756840 17.221210 0.000000
486.806340 315.749180 17.275074 0.000000
486.804780 316.734830 17.327839 0.000000
495.458800 311.441800 17.146927 0.000000
495.014070 313.069120 17.236246 0.000000
493.046660 315.206090 17.330940 0.000000
491.372800 313.893160 17.235170 0.000000
489.122190 320.871520 17.574657 0.000000
488.588230 322.672610 17.655880 0.000000
488.366610 323.585910 17.696716 0.000000
488.336360 324.512240 17.740269 0.000000
486.924260 321.596680 17.578955 0.000000
486.790680 325.409270 17.759529 0.000000
486.802150 317.653780 18.586611 0.000000
486.800600 318.628780 18.634169 0.000000
486.799010 319.599030 18.681126 0.000000
486.797420 320.565160 18.727516 0.000000
486.806950 314.693570 18.439995 0.000000
486.805330 315.686800 18.489561 0.000000
486.803740 316.673310 18.538420 0.000000
495.505160 314.018650 18.338182 0.000000
495.752530 314.937130 18.383080 0.000000
495.172790 311.290100 18.199684 0.000000
493.456600 312.561650 18.279669 0.000000
486.792760 323.444520 18.863594 0.000000
486.790070 324.399990 18.908028 0.000000
486.795840 321.527710 18.773371 0.000000
486.794310 322.487270 18.818720 0.000000
495.571840 315.685330 19.452885 0.000000
493.057250 312.386900 19.375835 0.000000
491.997280 313.009980 19.434923 0.000000
493.742310 311.678560 19.323748 0.000000
492.641200 315.892670 19.547340 0.000000
494.968350 311.105710 20.333153 0.000000
494.479740 311.848420 20.386358 0.000000
494.376680 314.478610 20.495609 0.000000
493.873630 315.231050 20.551228 0.000000
493.870640 313.461640 20.480373 0.000000
491.393430 311.842100 20.540295 0.000000
494.728550 312.757900 21.476658 0.000000
493.748260 311.561580 21.506796 0.000000
481.136110 328.627720 15.056384 0.000000
485.769260 330.483920 15.420427 0.000000
483.223720 326.565400 15.084326 0.000000
482.359620 329.634120 15.176439 0.000000
481.970920 327.578490 15.057600 0.000000
489.168330 323.933260 15.308578 0.000000
488.340090 325.728090 15.352558 0.000000
487.965210 321.975490 15.127321 0.000000
486.804080 322.813390 15.104482 0.000000
486.794490 324.722750 15.206961 0.000000
495.125060 313.464510 14.995282 0.000000
493.559880 331.746980 15.944189 0.000000
487.619110 314.138850 15.827707 0.000000
486.806340 316.930050 15.970573 0.000000
486.804840 317.913390 16.029299 0.000000
486.807920 315.940060 15.910343 0.000000
481.098540 326.465820 16.271576 0.000000
488.063260 321.926480 16.305880 0.000000
487.938660 324.724550 16.449268 0.000000
486.890200 322.760990 16.305910 0.000000
486.799740 323.709840 16.352676 0.000000
486.792720 325.616790 16.450132 0.000000
486.805510 316.865660 17.184032 0.000000
486.803990 317.849820 17.238857 0.000000
486.802460 318.827940 17.292606 0.000000
486.808650 314.876650 17.070995 0.000000
486.807070 315.874820 17.128096 0.000000
495.481290 311.684840 17.012289 0.000000
495.202640 315.113890 17.215761 0.000000
494.542660 312.269230 17.034580 0.000000
493.053890 315.434880 17.201305 0.000000
491.107700 312.113370 16.974030 0.000000
489.173830 321.063600 17.452066 0.000000
488.874110 322.877750 17.542011 0.000000
488.285640 320.011410 17.381130 0.000000
488.258240 321.888120 17.480314 0.000000
488.268370 323.755550 17.576794 0.000000
486.793330 324.605380 17.594837 0.000000
486.791840 325.558750 17.642166 0.000000
486.803130 317.786250 18.447584 0.000000
486.801570 318.765140 18.497826 0.000000
486.800050 319.738650 18.547422 0.000000
486.798520 320.707370 18.596409 0.000000
486.807770 314.810580 18.292622 0.000000
486.806210 315.809630 18.345020 0.000000
486.804630 316.801300 18.396662 0.000000
495.497340 314.273530 18.215040 0.000000
494.153320 315.652590 18.296289 0.000000
491.313840 312.112790 18.123026 0.000000
486.793980 323.591030 18.740051 0.000000
486.792480 324.546750 18.786930 0.000000
486.797000 321.671940 18.644823 0.000000
486.795470 322.632970 18.692694 0.000000
492.991210 316.195010 19.418043 0.000000
492.787990 311.571260 19.203146 0.000000
493.139040 312.613710 19.243420 0.000000
492.767270 315.244110 19.378727 0.000000
492.557310 313.361880 19.294657 0.000000
494.991150 311.332520 20.207638 0.000000
494.260440 314.684910 20.380600 0.000000
494.412540 312.044250 20.264057 0.000000
494.018010 313.726500 20.352182 0.000000
493.815310 315.451020 20.434208 0.000000
491.701720 312.105440 20.395643 0.000000
494.920170 311.246430 21.285961 0.000000
493.729370 311.756930 21.384392 0.000000
493.241910 313.439330 21.476284 0.000000
484.742830 326.717220 15.058874 0.000000
484.031370 327.690800 15.060867 0.000000
482.824160 328.688870 15.031298 0.000000
482.800960 329.707610 15.075638 0.000000
488.014400 323.097750 15.076632 0.000000
487.587160 323.997310 15.098591 0.000000
487.697720 324.946110 15.155413 0.000000
486.830320 325.838230 15.146525 0.000000
495.145480 323.026400 15.517446 0.000000
492.261780 331.247190 15.736246 0.000000
487.596860 314.265660 15.725530 0.000000
486.804350 317.067540 15.865343 0.000000
485.523800 335.467220 16.705486 0.000000
486.807070 315.067380 15.744569 0.000000
486.805660 316.071470 15.805758 0.000000
482.789120 334.768770 16.567715 0.000000
481.098600 326.531430 16.140846 0.000000
489.583310 323.206450 16.320820 0.000000
488.202300 325.854580 16.398993 0.000000
487.699980 322.062100 16.183586 0.000000
486.799440 323.871980 16.242031 0.000000
486.797760 324.827390 16.290516 0.000000
486.803380 317.005520 17.081604 0.000000
486.802000 317.995060 17.135349 0.000000
486.800690 318.977910 17.187998 0.000000
486.808650 313.990390 16.913349 0.000000
486.806060 315.003720 16.970631 0.000000
486.804720 316.008670 17.026712 0.000000
493.273500 314.826600 17.074816 0.000000
492.147520 312.627290 16.926931 0.000000
488.799740 323.068480 17.437025 0.000000
488.570650 321.177280 17.336351 0.000000
488.347690 320.201660 17.281370 0.000000
488.221010 323.941070 17.469521 0.000000
486.792760 324.770630 17.483036 0.000000
486.791440 325.724460 17.529072 0.000000
486.800870 321.893370 17.339861 0.000000
486.800960 317.933870 18.346373 0.000000
486.799680 318.917480 18.395121 0.000000
486.798370 319.895020 18.443203 0.000000
486.797060 320.867160 18.490652 0.000000
486.805080 314.940160 18.195755 0.000000
486.803680 315.945890 18.246729 0.000000
486.802400 316.943600 18.296923 0.000000
494.682460 313.395900 18.088310 0.000000
494.178410 315.916660 18.220652 0.000000
493.336270 314.787350 18.165522 0.000000
486.793090 323.757450 18.629539 0.000000
486.790500 325.668610 18.719559 0.000000
486.800230 321.835080 18.537516 0.000000
486.794400 322.797760 18.583788 0.000000
494.063290 311.287990 19.079725 0.000000
493.477020 312.013460 19.127129 0.000000
493.161740 315.585360 19.297468 0.000000
493.143890 312.833560 19.172630 0.000000
494.069240 313.987580 20.283981 0.000000
494.137300 314.906040 20.316950 0.000000
493.429900 311.937290 20.233557 0.000000
493.479060 312.884740 20.267847 0.000000
493.591310 314.689820 21.421928 0.000000
493.605560 311.938900 21.332233 0.000000
493.319920 313.696780 21.407188 0.000000
485.670720 327.867950 15.059950 0.000000
483.896480 328.806340 14.988214 0.000000
489.553380 322.555110 15.036247 0.000000
488.845580 330.713780 15.394547 0.000000
489.051910 323.409520 15.051531 0.000000
488.586000 324.281370 15.068666 0.000000
488.314580 325.183070 15.098545 0.000000
487.195530 326.032930 15.069450 0.000000
486.466060 326.939700 15.067045 0.000000
488.144410 313.547940 15.595748 0.000000
486.803710 317.206570 15.764593 0.000000
486.804080 321.145230 15.987885 0.000000
485.871490 334.583980 16.571697 0.000000
486.806550 315.192320 15.643780 0.000000
486.805080 316.203800 15.705006 0.000000
484.629330 325.798980 16.134941 0.000000
481.098020 326.603030 16.021729 0.000000
489.907070 323.460720 16.243214 0.000000
488.385500 335.294340 16.706329 0.000000
489.333620 314.894930 15.728439 0.000000
487.939270 324.159610 16.195189 0.000000
486.891720 322.127080 16.044485 0.000000
486.835780 325.000060 16.190310 0.000000
486.802760 317.146270 16.983997 0.000000
486.800050 319.129940 17.089479 0.000000
486.814030 312.034850 16.698961 0.000000
486.817320 314.111660 16.817190 0.000000
486.805540 315.130460 16.873806 0.000000
486.804140 316.142730 16.929514 0.000000
485.318360 325.791470 17.390324 0.000000
493.706300 312.425350 16.851978 0.000000
493.224120 315.043640 16.994640 0.000000
488.507600 321.359560 17.239971 0.000000
488.658660 323.253230 17.338181 0.000000
488.383030 320.392400 17.187754 0.000000
488.188690 324.131770 17.371414 0.000000
487.988460 325.047360 17.411417 0.000000
486.796050 322.056980 17.239645 0.000000
486.801850 318.082610 18.250971 0.000000
486.799070 319.071170 18.298841 0.000000
486.797760 320.053380 18.346035 0.000000
486.796450 321.029510 18.392569 0.000000
486.804600 315.068660 18.102781 0.000000
486.803160 316.081760 18.152966 0.000000
486.801820 317.086060 18.202347 0.000000
485.992430 325.784270 18.614403 0.000000
495.268800 312.939610 17.981752 0.000000
493.358800 315.938320 18.137259 0.000000
493.351200 315.026980 18.091455 0.000000
486.792480 323.928070 18.528564 0.000000
486.795350 324.886780 18.572815 0.000000
486.795100 322.000240 18.438480 0.000000
493.262390 312.147090 19.061331 0.000000
493.137850 313.047210 19.103739 0.000000
493.189760 315.834440 19.225256 0.000000
494.499020 314.373170 20.207081 0.000000
494.084170 315.142970 20.253794 0.000000
493.820740 312.294560 20.159683 0.000000
491.981510 312.586430 20.249424 0.000000
494.574340 312.515470 21.223961 0.000000
494.253230 311.459260 21.214088 0.000000
492.919160 313.795840 21.367407 0.000000
492.717590 312.785000 21.349911 0.000000
485.902100 326.150850 15.073510 0.000000
485.129790 329.998170 15.210501 0.000000
484.800990 327.043090 15.049036 0.000000
484.201840 327.997160 15.057928 0.000000
482.743770 328.941310 15.010363 0.000000
488.799990 330.970090 15.486862 0.000000
488.388210 322.633730 15.038485 0.000000
487.991760 323.517700 15.063802 0.000000
488.015110 324.462160 15.117388 0.000000
486.887390 325.282230 15.090402 0.000000
494.195040 331.782530 15.864414 0.000000
493.189180 316.337980 14.933917 0.000000
487.727970 314.616210 15.714264 0.000000
487.298100 313.453550 15.623901 0.000000
486.809080 316.385410 15.787707 0.000000
486.807560 317.395110 15.848383 0.000000
486.810610 315.366210 15.725335 0.000000
482.534760 325.801510 16.132425 0.000000
491.707760 312.955720 15.759284 0.000000
488.680910 323.559140 16.271015 0.000000
487.537510 321.483610 16.112301 0.000000
487.504330 322.438600 16.163046 0.000000
486.840390 325.222230 16.281322 0.000000
487.837770 313.565580 16.879452 0.000000
486.806340 317.334140 17.070875 0.000000
486.795470 318.333830 17.124546 0.000000
486.803470 319.329860 17.177629 0.000000
486.810850 314.273250 16.901474 0.000000
486.809330 315.303530 16.959246 0.000000
486.807830 316.323580 17.015697 0.000000
483.105010 325.793090 17.430252 0.000000
493.496370 313.547270 16.976646 0.000000
492.946470 314.293030 17.010632 0.000000
488.573460 323.489590 17.424749 0.000000
488.376460 320.623440 17.275087 0.000000
488.284910 321.558990 17.321669 0.000000
488.009400 322.462710 17.362391 0.000000
488.000000 325.289980 17.501846 0.000000
486.805080 317.273220 18.292410 0.000000
486.803650 318.275910 18.341290 0.000000
486.802220 319.270540 18.389408 0.000000
486.800780 320.257840 18.436802 0.000000
486.799380 321.238460 18.483509 0.000000
486.797970 322.213070 18.529562 0.000000
486.809630 314.209690 18.140797 0.000000
486.808140 315.240910 18.192205 0.000000
486.806610 316.261810 18.242729 0.000000
483.665800 325.785030 18.702003 0.000000
494.253230 315.597630 18.187323 0.000000
493.580840 311.614410 17.985981 0.000000
492.417480 312.125270 18.016588 0.000000
491.719180 313.810730 18.105133 0.000000
486.796570 323.182340 18.574999 0.000000
486.793790 325.107270 18.664141 0.000000
493.903080 311.685820 19.103262 0.000000
493.068300 316.077450 19.314732 0.000000
492.831760 315.076450 19.276745 0.000000
492.336120 313.005830 19.198318 0.000000
495.005070 311.130430 20.150164 0.000000
494.335020 314.603490 20.303936 0.000000
493.986240 313.553680 20.281391 0.000000
493.899690 315.370610 20.351467 0.000000
493.512940 312.429810 20.262043 0.000000
494.757390 312.855100 21.311729 0.000000
493.899720 311.565610 21.331675 0.000000
492.705410 313.977630 21.477160 0.000000
486.238430 326.554630 15.045925 0.000000
484.387120 328.352140 15.007687 0.000000
483.995480 329.322880 15.024204 0.000000
490.151120 322.425140 15.087572 0.000000
489.659300 323.256200 15.100983 0.000000
488.165860 324.884000 15.089200 0.000000
487.557770 325.747380 15.092599 0.000000
486.533360 330.403560 15.234517 0.000000
487.756900 313.936000 15.659800 0.000000
486.807650 316.728420 15.782457 0.000000
486.813480 320.747280 15.998764 0.000000
486.809020 321.730710 16.048693 0.000000
486.809200 315.700810 15.724442 0.000000
481.101260 325.969970 16.007122 0.000000
495.603180 312.050230 15.847346 0.000000
494.994020 314.601230 15.984718 0.000000
490.997560 314.066380 15.795720 0.000000
489.728180 323.220610 16.246109 0.000000
489.704930 324.136380 16.289732 0.000000
489.427430 325.012420 16.319599 0.000000
489.158810 315.422360 15.803002 0.000000
486.799900 336.046450 16.648451 0.000000
486.550930 335.110570 16.605995 0.000000
486.794560 325.606410 16.234694 0.000000
486.218540 334.170650 16.558710 0.000000
486.803310 322.657170 17.299902 0.000000
486.806400 316.673550 17.014515 0.000000
486.806090 317.692140 17.064970 0.000000
486.803340 318.700650 17.114134 0.000000
486.870730 320.707920 17.211235 0.000000
486.815220 311.413570 16.742516 0.000000
486.799800 313.550600 16.855089 0.000000
486.809450 314.605680 16.909853 0.000000
486.807950 315.645110 16.962839 0.000000
479.846800 325.785060 17.291111 0.000000
493.641600 312.108730 16.904772 0.000000
493.280760 314.843510 17.045502 0.000000
490.967560 311.997650 16.850315 0.000000
488.468140 323.893430 17.390295 0.000000
488.215760 320.027190 17.206446 0.000000
487.775570 324.733460 17.413017 0.000000
487.527310 321.819460 17.276495 0.000000
486.793300 325.557830 17.428255 0.000000
486.803620 317.637850 18.290037 0.000000
486.802090 318.647400 18.333759 0.000000
486.800630 319.648320 18.376738 0.000000
