# .PCD v0.7 - Point Cloud Data file format
VERSION 0.7
FIELDS x y z intensity
SIZE 4 4 4 4
TYPE F F F F
COUNT 1 1 1 1
WIDTH 1166
HEIGHT 1
VIEWPOINT 0 0 0 1 0 0 0
POINTS 1166
DATA ascii
486.248660 287.610690 19.560602 0.000000
484.191860 298.032990 19.646666 0.000000
484.179110 296.181730 20.156971 0.000000
492.335570 286.269930 14.242517 0.000000
484.539550 286.268160 14.186581 0.000000
492.775240 286.535310 14.260084 0.000000
493.066410 286.710820 14.271045 0.000000
493.424930 286.795620 14.290647 0.000000
484.689360 286.704960 14.187330 0.000000
485.170470 286.892730 14.214660 0.000000
494.835850 287.682500 14.331794 0.000000
485.823790 287.488010 14.242845 0.000000
486.325530 287.631100 14.271038 0.000000
495.076170 287.926640 14.332235 0.000000
495.364110 288.095250 14.339265 0.000000
486.713680 287.861600 14.289424 0.000000
495.609190 288.339900 14.338938 0.000000
487.348570 288.437740 14.312975 0.000000
471.548710 286.203920 14.073730 0.000000
471.898860 286.745090 14.092167 0.000000
487.081700 288.104130 14.305758 0.000000
472.284060 287.265870 14.111978 0.000000
487.919400 288.473510 14.346292 0.000000
472.582180 287.825380 14.126695 0.000000
473.636990 287.989140 14.181071 0.000000
488.207180 288.779210 14.354579 0.000000
473.968440 288.512660 14.196645 0.000000
488.493130 289.087680 14.362197 0.000000
489.018070 289.135930 14.391003 0.000000
489.798030 289.498410 14.423582 0.000000
489.251530 289.497860 14.393017 0.000000
490.005620 289.891970 14.422192 0.000000
474.301180 289.033780 14.211822 0.000000
490.244380 290.255800 14.423014 0.000000
490.695860 290.349400 14.443898 0.000000
474.654540 289.541440 14.227630 0.000000
475.738530 289.598180 14.282000 0.000000
476.175660 290.031160 14.301470 0.000000
492.130340 291.164700 14.487952 0.000000
476.417210 290.588230 14.310016 0.000000
492.980560 291.341670 14.522245 0.000000
493.259280 291.664120 14.522835 0.000000
477.112980 290.836790 14.342546 0.000000
493.637820 291.819340 14.534068 0.000000
477.399110 291.359770 14.352609 0.000000
478.191070 291.510620 14.389650 0.000000
494.722530 292.365480 14.559521 0.000000
495.135960 292.437990 14.573760 0.000000
478.473390 292.029450 14.398665 0.000000
495.341460 292.959050 14.560351 0.000000
495.726440 293.099790 14.569655 0.000000
478.811770 293.267060 14.402778 0.000000
479.228390 293.691930 14.417681 0.000000
482.494930 294.589450 14.553530 0.000000
483.266480 294.591800 14.586908 0.000000
484.013000 294.594180 14.618788 0.000000
479.024840 294.664980 14.397599 0.000000
479.871340 294.711270 14.435513 0.000000
480.671630 294.772980 14.470701 0.000000
481.432250 294.847530 14.503511 0.000000
484.149780 295.260890 14.614670 0.000000
484.234380 296.010800 14.606692 0.000000
484.231450 296.895480 14.592570 0.000000
485.396000 297.254520 14.633387 0.000000
486.083890 297.272060 14.660079 0.000000
487.408290 297.309570 14.710164 0.000000
489.884120 297.387760 14.798876 0.000000
490.473330 297.405610 14.819017 0.000000
492.179200 297.457550 14.875021 0.000000
492.729220 297.474300 14.892316 0.000000
484.695650 297.230010 14.605890 0.000000
492.996280 298.095090 14.887084 0.000000
492.992000 299.381290 14.858327 0.000000
492.987670 300.775670 14.826738 0.000000
494.956090 301.831480 14.857780 0.000000
495.538360 301.833280 14.873139 0.000000
493.166930 301.825780 14.807999 0.000000
494.367130 301.829530 14.841820 0.000000
472.073330 288.060490 14.905103 0.000000
472.180940 296.845030 14.961259 0.000000
471.013980 296.809750 14.925618 0.000000
487.425540 286.134770 15.376253 0.000000
473.424530 288.081050 14.949076 0.000000
474.683040 288.104860 14.989838 0.000000
482.477600 294.585420 15.256506 0.000000
483.249730 294.587830 15.278235 0.000000
478.174840 294.571780 15.131898 0.000000
483.815610 294.788210 15.294333 0.000000
484.159820 295.227200 15.304443 0.000000
478.291470 295.292630 15.137716 0.000000
484.230960 295.991820 15.307267 0.000000
478.398410 296.040860 15.143100 0.000000
479.239810 296.111660 15.167642 0.000000
480.040740 296.194850 15.190812 0.000000
484.227970 296.875890 15.307989 0.000000
485.383120 297.246920 15.338874 0.000000
487.394350 297.304960 15.390772 0.000000
488.033290 297.325070 15.406849 0.000000
488.657440 297.346680 15.422349 0.000000
489.270390 297.365390 15.437373 0.000000
489.871220 297.383730 15.451901 0.000000
490.460720 297.401640 15.465959 0.000000
491.039490 297.419280 15.479564 0.000000
492.167390 297.453700 15.505503 0.000000
492.717710 297.470430 15.517873 0.000000
484.679900 297.225560 15.320292 0.000000
492.991790 298.075530 15.522655 0.000000
492.995090 300.724000 15.516402 0.000000
487.479740 286.075930 15.874516 0.000000
491.081420 287.378080 15.944221 0.000000
486.896300 288.226900 15.904864 0.000000
473.397430 288.076200 15.726996 0.000000
474.657470 288.100130 15.743773 0.000000
472.053710 288.050870 15.709109 0.000000
488.155210 289.394530 15.941790 0.000000
477.175570 296.257690 15.920276 0.000000
484.208370 296.875820 16.022457 0.000000
486.053960 297.263520 16.053246 0.000000
486.723660 297.284000 16.062300 0.000000
487.377990 297.303960 16.071144 0.000000
488.017790 297.323430 16.079792 0.000000
488.643950 297.342560 16.088257 0.000000
489.257200 297.361300 16.096548 0.000000
489.858340 297.379730 16.104675 0.000000
491.027160 297.415370 16.120476 0.000000
472.175480 296.824280 15.865365 0.000000
484.664150 297.221130 16.034460 0.000000
485.367800 297.242550 16.043972 0.000000
470.987980 296.803860 15.849592 0.000000
492.949580 309.966890 16.366711 0.000000
485.866330 289.797120 15.919178 0.000000
484.217530 295.984590 16.006863 0.000000
476.184330 296.250550 15.907284 0.000000
479.362090 296.838840 15.958901 0.000000
480.216520 296.865690 15.970466 0.000000
481.845860 296.916990 15.992518 0.000000
492.970250 303.896420 16.259956 0.000000
494.932130 310.711180 16.405567 0.000000
489.987370 286.903780 16.390396 0.000000
487.869900 287.319310 16.409792 0.000000
490.285030 287.134460 16.397440 0.000000
490.478390 287.477050 16.408583 0.000000
488.165680 287.598850 16.417999 0.000000
486.028590 287.822780 16.432150 0.000000
488.342470 287.994140 16.430485 0.000000
490.391750 288.142400 16.431248 0.000000
490.856870 288.191860 16.432316 0.000000
484.220950 296.836700 16.736263 0.000000
486.039000 297.259190 16.750151 0.000000
486.709110 297.279720 16.750978 0.000000
487.363800 297.299740 16.751993 0.000000
488.005920 297.316280 16.753084 0.000000
484.648410 297.216670 16.749088 0.000000
485.352480 297.238160 16.749516 0.000000
492.977600 300.698820 16.891609 0.000000
487.683350 286.395840 16.879271 0.000000
489.411250 286.929840 16.871225 0.000000
489.811220 287.068300 16.870785 0.000000
488.649020 287.125640 16.894667 0.000000
490.101680 287.312770 16.877739 0.000000
489.889280 288.104060 16.920544 0.000000
489.483120 289.782350 17.011541 0.000000
492.934200 309.964020 17.245007 0.000000
489.674320 287.192660 17.358809 0.000000
488.820250 287.494690 17.406645 0.000000
495.652680 290.372620 17.433992 0.000000
482.578980 296.944820 17.482187 0.000000
484.217440 296.817140 17.450489 0.000000
484.632600 297.212220 17.464849 0.000000
488.086580 286.542020 17.869293 0.000000
490.070430 287.875850 17.876541 0.000000
487.920840 287.227690 17.930183 0.000000
488.793270 288.071410 17.952782 0.000000
488.973790 288.467680 17.976095 0.000000
488.398380 286.776950 18.367664 0.000000
488.739320 286.995820 18.364992 0.000000
489.084290 287.206050 18.361996 0.000000
489.802640 288.742950 18.466496 0.000000
488.258360 287.419650 19.461708 0.000000
489.052860 288.336550 19.501581 0.000000
484.199550 295.890500 19.513962 0.000000
495.558690 286.998380 14.289352 0.000000
487.564420 286.177460 14.212778 0.000000
488.162380 286.761930 14.240402 0.000000
488.538700 286.985230 14.260530 0.000000
475.539890 286.364070 14.065195 0.000000
476.689090 286.463500 14.130879 0.000000
488.902650 287.212770 14.279237 0.000000
489.182130 287.511290 14.289907 0.000000
489.638890 287.642520 14.316485 0.000000
489.972930 287.881590 14.331488 0.000000
476.887510 287.014190 14.140579 0.000000
490.192260 288.233000 14.335312 0.000000
490.643430 288.346620 14.360650 0.000000
477.082820 287.569580 14.149641 0.000000
490.866210 288.695920 14.363833 0.000000
491.324980 288.785920 14.389464 0.000000
477.318390 288.105990 14.160608 0.000000
491.548160 289.136990 14.391703 0.000000
478.185090 288.276430 14.208237 0.000000
492.708310 289.598330 14.445035 0.000000
478.484440 288.764220 14.222130 0.000000
493.327270 290.085660 14.463019 0.000000
478.583190 289.378570 14.223734 0.000000
493.581270 290.410770 14.465242 0.000000
478.907590 289.855100 14.238202 0.000000
494.681820 290.888670 14.506430 0.000000
495.000090 291.121280 14.513843 0.000000
495.427920 291.164580 14.533951 0.000000
495.620000 291.625460 14.524917 0.000000
479.138790 290.394620 14.246696 0.000000
480.054380 290.455020 14.295547 0.000000
481.720640 290.607910 14.382856 0.000000
482.023440 291.061310 14.394226 0.000000
482.739070 291.179170 14.430237 0.000000
483.041290 291.625270 14.440828 0.000000
483.721770 291.742070 14.474221 0.000000
483.936520 292.261720 14.478662 0.000000
484.547730 292.417240 14.507260 0.000000
484.768860 292.936490 14.511219 0.000000
485.367190 293.085170 14.538465 0.000000
485.548650 293.653560 14.538986 0.000000
486.300020 293.619780 14.575509 0.000000
486.609040 295.685120 14.556676 0.000000
488.533970 295.828670 14.640869 0.000000
489.159940 295.856320 14.667792 0.000000
489.136810 296.798890 14.648938 0.000000
489.746890 296.842930 14.674065 0.000000
490.826690 297.098360 14.713905 0.000000
491.843870 297.414030 14.748363 0.000000
492.398560 297.474820 14.768887 0.000000
492.964720 297.497890 14.790279 0.000000
491.232060 297.434020 14.723468 0.000000
492.990840 298.573790 14.767492 0.000000
492.987180 299.787750 14.740105 0.000000
493.270170 301.840880 14.703268 0.000000
493.895630 301.832090 14.725517 0.000000
494.504970 301.840120 14.746372 0.000000
495.108550 301.841860 14.766750 0.000000
495.704250 301.843720 14.786434 0.000000
477.527280 294.582980 14.929019 0.000000
476.467470 294.579830 14.891650 0.000000
478.291600 295.622620 14.958708 0.000000
471.008420 296.824010 14.705874 0.000000
492.939510 307.514370 15.392615 0.000000
492.975100 309.387850 15.386461 0.000000
482.205900 294.596890 15.090659 0.000000
483.037690 294.599330 15.118743 0.000000
483.840330 294.601680 15.145628 0.000000
484.142520 295.098140 15.156201 0.000000
478.288970 294.792140 14.956327 0.000000
484.191190 295.876250 15.158439 0.000000
479.112700 295.760500 14.987396 0.000000
479.982090 295.829710 15.017345 0.000000
484.215210 296.710270 15.159684 0.000000
492.951870 297.489990 15.425315 0.000000
488.071560 297.340090 15.281610 0.000000
488.727660 297.359920 15.301656 0.000000
489.369020 297.379360 15.321047 0.000000
491.213130 297.435180 15.375612 0.000000
491.803740 297.453090 15.392694 0.000000
492.383480 297.470640 15.409266 0.000000
492.987460 298.546260 15.423463 0.000000
471.854980 288.061100 15.523508 0.000000
475.413880 295.354740 15.709287 0.000000
482.350740 296.941740 15.860496 0.000000
485.986720 297.272830 15.931391 0.000000
486.693240 297.294280 15.944449 0.000000
488.710630 297.355440 15.981739 0.000000
491.197450 297.430940 16.027706 0.000000
478.844760 296.835330 15.795691 0.000000
479.765840 296.864170 15.812730 0.000000
470.978060 296.817540 15.653970 0.000000
492.949580 309.400630 16.259092 0.000000
493.243740 310.703030 16.286129 0.000000
486.746060 287.868560 15.787996 0.000000
486.865690 288.350040 15.798187 0.000000
473.312560 288.088470 15.550169 0.000000
474.674680 288.114110 15.575084 0.000000
484.171230 295.871950 15.875360 0.000000
476.173400 295.623720 15.727433 0.000000
484.220860 296.677000 15.889696 0.000000
481.573790 296.859920 15.845162 0.000000
485.261260 297.250890 15.917982 0.000000
487.382020 297.315190 15.957182 0.000000
488.054140 297.335570 15.969606 0.000000
489.357420 297.367340 15.993566 0.000000
491.788360 297.448880 16.038630 0.000000
477.889830 296.805420 15.778024 0.000000
480.654360 296.892850 15.829184 0.000000
484.515810 297.228210 15.904202 0.000000
492.967590 298.551300 16.078239 0.000000
492.976170 301.030430 16.119793 0.000000
492.955540 307.418880 16.226105 0.000000
494.927490 310.094390 16.306236 0.000000
489.925660 286.770230 16.315159 0.000000
486.668610 286.793700 16.312069 0.000000
490.245910 287.005040 16.323175 0.000000
486.884610 287.738220 16.340771 0.000000
487.919590 287.442320 16.332930 0.000000
488.258910 287.709440 16.341677 0.000000
490.261840 288.092530 16.357924 0.000000
490.654020 288.264590 16.364555 0.000000
491.177310 288.287600 16.366880 0.000000
488.701690 289.047730 16.384697 0.000000
484.217290 296.654240 16.618793 0.000000
485.242160 297.246090 16.642263 0.000000
485.968080 297.268100 16.646019 0.000000
486.675020 297.289610 16.649893 0.000000
484.496250 297.223330 16.638626 0.000000
492.977140 299.698820 16.775486 0.000000
492.980190 300.982600 16.822290 0.000000
492.955440 305.577480 16.990959 0.000000
488.525150 286.914700 16.831324 0.000000
489.674620 286.981320 16.817244 0.000000
489.982210 287.235870 16.824692 0.000000
488.126190 287.808200 16.877728 0.000000
489.813480 287.950230 16.860470 0.000000
490.207860 288.129270 16.863810 0.000000
489.313230 289.642180 16.947569 0.000000
489.569730 287.059750 17.322041 0.000000
490.239440 288.080020 17.365595 0.000000
484.130190 295.864410 17.311325 0.000000
484.204040 296.642120 17.348595 0.000000
484.477600 297.217350 17.374107 0.000000
490.232760 286.968260 17.785446 0.000000
473.354980 296.862730 17.513597 0.000000
487.739110 286.992190 17.906656 0.000000
488.584110 287.933290 17.935211 0.000000
488.860020 288.838780 17.991938 0.000000
488.142120 286.648560 18.382629 0.000000
488.529570 286.861720 18.375420 0.000000
488.873170 287.105710 18.374569 0.000000
491.292910 297.149410 18.617178 0.000000
477.815000 296.790040 18.272896 0.000000
488.789030 286.627320 18.849840 0.000000
495.719210 309.587460 19.759048 0.000000
484.192410 298.358860 20.491587 0.000000
484.193660 299.320650 20.605606 0.000000
495.378390 286.468780 14.267905 0.000000
487.631710 286.236240 14.192905 0.000000
495.607300 286.718750 14.272238 0.000000
488.062230 286.458440 14.218149 0.000000
488.536830 286.637570 14.246860 0.000000
475.646210 286.420840 14.086861 0.000000
489.209810 287.185760 14.279741 0.000000
489.596500 287.411190 14.299980 0.000000
489.955570 287.653900 14.317479 0.000000
490.175870 288.017640 14.322318 0.000000
475.874360 286.996550 14.099165 0.000000
476.999760 287.131040 14.161386 0.000000
490.770390 288.318180 14.352194 0.000000
477.203000 287.703430 14.171385 0.000000
491.913330 289.217740 14.396943 0.000000
492.400850 289.289760 14.424064 0.000000
477.462190 288.248990 14.184060 0.000000
477.744750 288.782590 14.197590 0.000000
478.550690 289.011380 14.240198 0.000000
492.843930 290.030210 14.426397 0.000000
493.296600 290.123900 14.449362 0.000000
494.467590 290.591280 14.498538 0.000000
478.701600 289.614140 14.245413 0.000000
494.917210 291.003080 14.507752 0.000000
495.511290 291.197850 14.531660 0.000000
478.784030 290.267730 14.246251 0.000000
495.679900 291.687160 14.521740 0.000000
479.369780 290.602720 14.275173 0.000000
480.724400 291.104490 14.342388 0.000000
481.660310 291.138920 14.390371 0.000000
482.438050 291.261470 14.429070 0.000000
482.732090 291.741270 14.439555 0.000000
483.472930 291.858890 14.475577 0.000000
483.626560 292.450900 14.477068 0.000000
484.323090 292.578950 14.509935 0.000000
484.511780 293.147770 14.512563 0.000000
485.178220 293.278590 14.543095 0.000000
484.150600 295.041050 14.471811 0.000000
487.956670 295.889340 14.633776 0.000000
487.241580 295.884580 14.602148 0.000000
487.978420 296.733000 14.620999 0.000000
488.620970 296.811340 14.647414 0.000000
489.850740 296.986110 14.696320 0.000000
492.688420 297.488310 14.800513 0.000000
490.213530 297.410160 14.703627 0.000000
490.861270 297.416560 14.729867 0.000000
491.475950 297.451480 14.753830 0.000000
492.088260 297.470150 14.777604 0.000000
492.985170 298.016970 14.801156 0.000000
492.981630 299.115630 14.778438 0.000000
492.973970 301.539090 14.727005 0.000000
493.471440 301.841640 14.738088 0.000000
494.109590 301.843600 14.760218 0.000000
494.737640 301.845610 14.781559 0.000000
495.356230 301.847530 14.802148 0.000000
474.666840 288.261570 14.840853 0.000000
478.034910 294.586820 14.995829 0.000000
476.932280 294.582700 14.958770 0.000000
478.280490 295.227360 15.006694 0.000000
478.599240 295.817230 15.019538 0.000000
479.538020 295.888280 15.050664 0.000000
473.593200 296.120270 14.853206 0.000000
492.956120 305.850740 15.442450 0.000000
492.950530 307.537230 15.438055 0.000000
482.885250 294.602080 15.155460 0.000000
483.743900 294.604770 15.183057 0.000000
481.993190 294.599240 15.126559 0.000000
484.147130 295.020390 15.196922 0.000000
484.129820 295.860020 15.198195 0.000000
492.673580 297.484250 15.451041 0.000000
486.026490 297.268710 15.258965 0.000000
486.758090 297.304320 15.281095 0.000000
487.480960 297.326230 15.302732 0.000000
488.184970 297.347690 15.323590 0.000000
489.543490 297.385620 15.363214 0.000000
490.195310 297.408810 15.381914 0.000000
490.834780 297.428280 15.400058 0.000000
491.460480 297.447360 15.417608 0.000000
492.073090 297.466030 15.434591 0.000000
492.981900 297.992680 15.458723 0.000000
492.974700 300.259280 15.454889 0.000000
492.970180 301.510770 15.452427 0.000000
473.462280 288.093110 15.627949 0.000000
482.609710 296.491520 15.922289 0.000000
486.739720 297.299770 16.002907 0.000000
477.404360 296.766540 15.843348 0.000000
492.971010 300.232700 16.154562 0.000000
492.959870 302.825990 16.199820 0.000000
486.759490 287.939330 15.839222 0.000000
486.945710 288.382810 15.849989 0.000000
471.907010 288.063570 15.602406 0.000000
474.898800 288.126830 15.651655 0.000000
484.213780 296.598970 15.949984 0.000000
473.786070 295.957700 15.770953 0.000000
483.007450 296.965420 15.936993 0.000000
485.231750 297.253750 15.977837 0.000000
485.996490 297.277040 15.990549 0.000000
487.463040 297.321780 16.014931 0.000000
490.179080 297.404570 16.060087 0.000000
490.818910 297.424100 16.070724 0.000000
478.400880 296.824130 15.860392 0.000000
479.389280 296.855220 15.876842 0.000000
480.341370 296.885190 15.892686 0.000000
481.245880 296.927060 15.907974 0.000000
484.444340 297.229770 15.964745 0.000000
473.728910 296.902980 15.786596 0.000000
492.948300 301.518400 16.176725 0.000000
492.952120 305.816070 16.252085 0.000000
492.946350 307.500060 16.281498 0.000000
494.879850 310.184720 16.359648 0.000000
493.196410 310.639040 16.340519 0.000000
489.560790 286.835110 16.382011 0.000000
490.066990 286.948670 16.385229 0.000000
490.340670 287.251100 16.394707 0.000000
488.023100 287.518220 16.404751 0.000000
490.134800 287.987580 16.418346 0.000000
486.903960 287.812530 16.415154 0.000000
490.510530 288.209380 16.425537 0.000000
491.097290 288.220250 16.426073 0.000000
484.210050 296.577210 16.697062 0.000000
482.983090 296.963960 16.708839 0.000000
484.424380 297.225010 16.718943 0.000000
485.212370 297.249050 16.720858 0.000000
492.958590 302.790590 16.949135 0.000000
489.400360 286.949860 16.907557 0.000000
489.847930 287.117550 16.907335 0.000000
490.165440 287.388060 16.914375 0.000000
488.050690 287.479890 16.955597 0.000000
489.932710 288.153630 16.953875 0.000000
489.129970 289.486210 17.029541 0.000000
472.463200 296.863710 16.712425 0.000000
489.679110 287.243710 17.438229 0.000000
482.964510 296.956570 17.481789 0.000000
489.492980 297.373630 17.423092 0.000000
484.392210 297.233340 17.475176 0.000000
488.755370 287.458280 17.482702 0.000000
490.207490 296.358800 18.024570 0.000000
472.431820 296.858460 17.660471 0.000000
487.912840 286.456970 17.998604 0.000000
489.933930 287.013000 17.931915 0.000000
487.794070 287.088320 18.049101 0.000000
488.056210 287.442200 18.060308 0.000000
488.345210 287.774840 18.069250 0.000000
489.011170 288.361790 18.078890 0.000000
488.671170 286.944030 18.530876 0.000000
492.936160 305.677430 19.488611 0.000000
495.737670 309.588840 19.835754 0.000000
493.518460 309.579830 19.863394 0.000000
489.058110 288.268490 19.730309 0.000000
486.017640 288.395110 19.448046 0.000000
488.991580 288.915220 19.814453 0.000000
485.501590 289.406310 19.592636 0.000000
484.191380 296.467990 20.449608 0.000000
488.859440 286.082090 14.215996 0.000000
488.988590 286.525300 14.216789 0.000000
489.470860 286.715580 14.246436 0.000000
489.935240 286.907350 14.274323 0.000000
490.106540 287.319370 14.277150 0.000000
490.563510 287.502960 14.303720 0.000000
476.591280 286.151280 14.095964 0.000000
476.847750 286.721800 14.111001 0.000000
490.915560 287.764650 14.321033 0.000000
477.008450 287.337590 14.120260 0.000000
478.005520 287.544980 14.175340 0.000000
478.248110 288.109890 14.188190 0.000000
492.512730 289.171420 14.387269 0.000000
493.043880 289.225890 14.418500 0.000000
478.542270 288.648740 14.203424 0.000000
493.296570 289.565280 14.424061 0.000000
478.604980 289.317170 14.205359 0.000000
494.211760 290.421330 14.452122 0.000000
494.716090 290.460140 14.479838 0.000000
495.190430 290.521450 14.504647 0.000000
479.020600 289.790590 14.226385 0.000000
495.392670 290.933720 14.502141 0.000000
495.724210 291.178560 14.511942 0.000000
479.381320 290.292420 14.243906 0.000000
480.774050 290.849980 14.315040 0.000000
481.688290 290.952820 14.362245 0.000000
482.622440 291.011780 14.410292 0.000000
482.957820 291.478580 14.424392 0.000000
483.735660 291.608890 14.463051 0.000000
483.930760 292.174930 14.468408 0.000000
484.602200 292.360350 14.500395 0.000000
485.753450 293.589170 14.544908 0.000000
486.035340 295.691740 14.534322 0.000000
486.794070 295.740600 14.568920 0.000000
487.440670 295.885650 14.596684 0.000000
489.118840 296.528930 14.662725 0.000000
492.498660 297.470580 14.789710 0.000000
489.186860 297.333770 14.653606 0.000000
489.859860 297.390080 14.681651 0.000000
490.543270 297.411010 14.710268 0.000000
491.210540 297.431000 14.737800 0.000000
491.861790 297.451140 14.764249 0.000000
492.976470 297.715640 14.804422 0.000000
492.969180 299.815060 14.765651 0.000000
492.965390 300.960020 14.743851 0.000000
493.152860 301.828490 14.734079 0.000000
493.822050 301.831150 14.758519 0.000000
494.479640 301.832860 14.782109 0.000000
495.125730 301.834930 14.804835 0.000000
477.553830 294.571320 14.981086 0.000000
476.346130 294.567410 14.940173 0.000000
478.271820 294.891600 15.007173 0.000000
473.674260 295.481600 14.855247 0.000000
478.277040 295.736630 15.012196 0.000000
479.209170 295.873720 15.043868 0.000000
480.162080 295.964660 15.075727 0.000000
492.948060 304.832490 15.470236 0.000000
492.943180 306.318730 15.468950 0.000000
492.937560 307.918150 15.467296 0.000000
492.931950 309.643620 15.465247 0.000000
482.811920 294.588350 15.155720 0.000000
485.326420 297.247740 15.245945 0.000000
486.134580 297.272430 15.270969 0.000000
486.918610 297.296390 15.295022 0.000000
488.420140 297.342250 15.340426 0.000000
489.140440 297.364200 15.361882 0.000000
489.841950 297.385620 15.382565 0.000000
490.525850 297.406560 15.402519 0.000000
491.193540 297.426610 15.421791 0.000000
491.845210 297.446810 15.440395 0.000000
492.972990 297.692020 15.472184 0.000000
492.961360 303.429810 15.471434 0.000000
486.767400 288.043400 15.859223 0.000000
472.067440 288.051540 15.625492 0.000000
473.935970 295.282960 15.791077 0.000000
483.867400 296.082240 15.964108 0.000000
482.056820 296.895690 15.950583 0.000000
485.305300 297.242770 16.008787 0.000000
488.401340 297.337620 16.059830 0.000000
489.122100 297.359590 16.071711 0.000000
478.002290 296.797450 15.884227 0.000000
479.070650 296.828860 15.901815 0.000000
494.846920 310.609250 16.411715 0.000000
493.150820 310.924470 16.390652 0.000000
487.036290 288.448550 15.871114 0.000000
473.728490 288.084050 15.652532 0.000000
484.203340 296.612000 15.979405 0.000000
481.076320 296.894590 15.934962 0.000000
486.114070 297.267550 16.022123 0.000000
477.080320 296.618960 15.866205 0.000000
480.075990 296.876620 15.918708 0.000000
484.470700 297.217160 15.995028 0.000000
472.973820 296.834350 15.804915 0.000000
492.944090 304.800020 16.272303 0.000000
492.938840 306.284730 16.300114 0.000000
492.933070 307.881960 16.330029 0.000000
492.927250 309.604920 16.362305 0.000000
488.327510 286.378720 16.411749 0.000000
489.879360 286.883420 16.424843 0.000000
490.237270 287.148930 16.432890 0.000000
486.136140 287.277830 16.444454 0.000000
487.785860 287.307220 16.441833 0.000000
490.466920 287.513730 16.444466 0.000000
488.157650 287.609920 16.450703 0.000000
490.386960 288.142400 16.465113 0.000000
484.200230 296.588620 16.749374 0.000000
482.902160 296.962130 16.761852 0.000000
488.382510 297.332950 16.779741 0.000000
489.100590 297.358950 16.782171 0.000000
488.378420 286.872590 16.991741 0.000000
489.721830 286.986180 16.970837 0.000000
488.308870 287.481870 17.020079 0.000000
490.216890 287.700290 16.994432 0.000000
481.999330 296.920900 16.760584 0.000000
492.934510 306.250760 17.130392 0.000000
492.928560 307.845830 17.191809 0.000000
492.922610 309.566310 17.258331 0.000000
488.363650 297.328250 17.500843 0.000000
492.922940 302.104190 17.723576 0.000000
481.976070 296.915070 17.571928 0.000000
492.930150 306.216800 17.960569 0.000000
492.924070 307.809690 18.053452 0.000000
492.917940 309.527770 18.154173 0.000000
487.626220 286.253390 18.125065 0.000000
488.009800 286.544040 18.122822 0.000000
488.387940 286.831970 18.121395 0.000000
489.611850 287.035770 18.068808 0.000000
488.797610 287.090670 18.116877 0.000000
489.074040 296.450810 18.144447 0.000000
493.067410 301.806520 18.451963 0.000000
488.599030 286.128810 18.617365 0.000000
489.176670 286.261470 18.585312 0.000000
492.926820 304.672820 19.480045 0.000000
493.548950 309.773680 19.968840 0.000000
489.023990 287.427700 19.832670 0.000000
486.218260 287.719820 19.544981 0.000000
487.005740 286.605770 19.966095 0.000000
486.749150 287.343350 20.071720 0.000000
488.091370 287.552060 19.946699 0.000000
489.257930 288.389800 19.917793 0.000000
482.176970 295.774660 20.703720 0.000000
483.086490 295.806180 20.632120 0.000000
489.210940 286.181270 14.226444 0.000000
489.399960 286.604800 14.232103 0.000000
489.911680 286.811190 14.262423 0.000000
490.098180 287.234890 14.266865 0.000000
490.565920 287.455840 14.292989 0.000000
491.067170 287.640470 14.321483 0.000000
474.395080 286.570130 14.045392 0.000000
475.792210 286.746090 14.119019 0.000000
491.611150 288.346800 14.340620 0.000000
476.114170 287.338260 14.137003 0.000000
492.322360 288.908480 14.371444 0.000000
476.503880 287.897520 14.157939 0.000000
492.626980 289.229800 14.381998 0.000000
493.219970 289.278750 14.416274 0.000000
476.802860 288.494810 14.173720 0.000000
477.935330 288.679690 14.231608 0.000000
493.722810 290.008480 14.426264 0.000000
494.250950 290.089690 14.454369 0.000000
494.585330 290.365200 14.465393 0.000000
495.122100 290.412170 14.493983 0.000000
478.247070 289.251340 14.247039 0.000000
495.319890 290.836210 14.492004 0.000000
478.545990 289.829320 14.261317 0.000000
495.508120 291.282200 14.488339 0.000000
479.163450 290.975520 14.289386 0.000000
479.527130 291.516300 14.305496 0.000000
479.891750 292.055300 14.321164 0.000000
481.749970 291.612640 14.413372 0.000000
482.937680 292.287260 14.466447 0.000000
481.926540 292.240880 14.418529 0.000000
484.143250 295.245570 14.499224 0.000000
484.636660 295.641360 14.517578 0.000000
485.353730 295.828520 14.547490 0.000000
486.240690 295.836270 14.586296 0.000000
487.375000 296.403020 14.628613 0.000000
492.488070 297.486660 14.819524 0.000000
487.406520 297.231380 14.619735 0.000000
488.299410 297.156430 14.657928 0.000000
488.905150 297.368930 14.680006 0.000000
489.674740 297.378020 14.711100 0.000000
490.391850 297.423190 14.739128 0.000000
491.108830 297.444850 14.767058 0.000000
491.807220 297.466000 14.793838 0.000000
492.976140 298.717650 14.817430 0.000000
492.972930 299.737820 14.799833 0.000000
492.969600 300.813050 14.780834 0.000000
493.030580 301.844420 14.764437 0.000000
493.737490 301.846500 14.788736 0.000000
494.429960 301.848630 14.812082 0.000000
495.108890 301.850710 14.834520 0.000000
474.286410 288.103940 14.925763 0.000000
477.180570 294.589260 15.071358 0.000000
478.274720 294.707430 15.104905 0.000000
478.271970 295.565370 15.110409 0.000000
478.787200 296.064850 15.128699 0.000000
479.913450 296.094240 15.161831 0.000000
484.209500 296.845400 15.288317 0.000000
472.210330 296.882810 14.937979 0.000000
492.954160 304.401610 15.525212 0.000000
492.949770 305.756870 15.524990 0.000000
492.945190 307.201600 15.524492 0.000000
492.940190 308.746610 15.523685 0.000000
492.934970 310.402980 15.522540 0.000000
487.398500 286.149410 15.318399 0.000000
482.884550 294.629700 15.239904 0.000000
483.909300 294.609920 15.269310 0.000000
484.212280 295.990910 15.284618 0.000000
487.294070 297.325200 15.374671 0.000000
488.099060 297.349670 15.396262 0.000000
488.880040 297.373380 15.416984 0.000000
489.638520 297.396330 15.436889 0.000000
490.375730 297.418790 15.456017 0.000000
491.093230 297.440520 15.474418 0.000000
491.791930 297.461880 15.492125 0.000000
492.473330 297.482480 15.509182 0.000000
484.717440 297.247010 15.304099 0.000000
492.969150 299.717040 15.523774 0.000000
492.958220 303.127350 15.525181 0.000000
472.179140 296.875850 15.948493 0.000000
487.468690 286.092860 15.924195 0.000000
490.993650 287.095760 15.984695 0.000000
490.942810 287.688320 15.995324 0.000000
490.685000 288.461670 16.006941 0.000000
486.886110 288.206020 15.957374 0.000000
491.007900 288.791530 16.016993 0.000000
472.434690 288.078890 15.784830 0.000000
474.216640 288.112760 15.806450 0.000000
484.208130 295.971470 16.072975 0.000000
476.168270 296.117280 15.981085 0.000000
477.112460 296.360230 15.996804 0.000000
482.066220 296.957760 16.066446 0.000000
484.205290 296.825500 16.089123 0.000000
487.275790 297.320530 16.134651 0.000000
488.081390 297.345090 16.144600 0.000000
492.458560 297.478300 16.198656 0.000000
484.697170 297.242070 16.102806 0.000000
492.954130 303.103850 16.311077 0.000000
492.949920 304.376980 16.335150 0.000000
492.945370 305.731080 16.360750 0.000000
492.940670 307.174530 16.388044 0.000000
492.935730 308.717650 16.417223 0.000000
492.936980 310.358670 16.448330 0.000000
488.661530 286.466950 16.531387 0.000000
490.070310 287.192440 16.544935 0.000000
490.424870 287.496920 16.552479 0.000000
487.976200 287.475460 16.566912 0.000000
488.195370 287.916690 16.579222 0.000000
492.957950 300.748230 17.009062 0.000000
492.936580 301.909360 17.052496 0.000000
492.939240 303.098390 17.097214 0.000000
492.945680 304.352420 17.144627 0.000000
492.941040 305.705290 17.196024 0.000000
492.936160 307.147460 17.251076 0.000000
492.930820 308.689670 17.310217 0.000000
492.925350 310.342710 17.373892 0.000000
488.285370 287.257050 17.161032 0.000000
492.932160 301.887510 17.816633 0.000000
487.414790 286.642490 17.769960 0.000000
488.032380 287.406190 17.784157 0.000000
488.417450 287.733030 17.785786 0.000000
492.928620 304.350190 17.955811 0.000000
492.936650 305.679500 18.031593 0.000000
492.931640 307.120390 18.114397 0.000000
492.926360 308.660710 18.203459 0.000000
492.920530 310.312560 18.299536 0.000000
488.204960 286.707150 18.339380 0.000000
492.941160 299.653110 18.417534 0.000000
492.961000 300.688170 18.493446 0.000000
495.045440 301.816860 18.533062 0.000000
495.706150 301.832120 18.521486 0.000000
487.903410 286.315730 18.936958 0.000000
488.409910 286.562770 18.914646 0.000000
492.924040 301.842530 19.348761 0.000000
492.937320 303.010220 19.457874 0.000000
495.700470 286.294220 19.277546 0.000000
492.932950 304.278440 19.578003 0.000000
488.461180 287.077970 19.556425 0.000000
489.021480 288.440520 19.630459 0.000000
493.369780 309.305660 20.050508 0.000000
486.987730 286.261260 20.259497 0.000000
488.364010 287.703160 20.242157 0.000000
489.495760 286.212490 14.200988 0.000000
490.152650 286.375240 14.241896 0.000000
490.818660 286.512510 14.283257 0.000000
490.982450 286.959320 14.286316 0.000000
491.472630 287.188020 14.313675 0.000000
491.597780 287.663360 14.312689 0.000000
474.615970 286.602230 14.070149 0.000000
492.082370 287.882110 14.338823 0.000000
492.701230 288.561830 14.362729 0.000000
475.004700 287.222470 14.091688 0.000000
476.565250 287.357390 14.170353 0.000000
493.206300 288.739200 14.389435 0.000000
476.838440 287.993320 14.185052 0.000000
493.924900 289.311550 14.418699 0.000000
477.246950 288.568150 14.205880 0.000000
494.124390 289.737210 14.419701 0.000000
494.708830 289.806760 14.451660 0.000000
495.070590 290.075200 14.465093 0.000000
495.449070 290.323180 14.479519 0.000000
477.548770 289.188170 14.220931 0.000000
478.580750 289.447270 14.271363 0.000000
478.833710 290.843870 14.281616 0.000000
480.377110 291.522430 14.353418 0.000000
478.940520 291.566160 14.284967 0.000000
480.770570 292.060910 14.369947 0.000000
481.673460 292.275270 14.411231 0.000000
482.912110 293.008760 14.464458 0.000000
484.121980 295.317170 14.501951 0.000000
484.758000 295.633730 14.526962 0.000000
485.163450 293.710360 14.561085 0.000000
486.490750 295.822200 14.599598 0.000000
487.822020 296.275880 14.650559 0.000000
486.819580 296.363310 14.607787 0.000000
487.902440 297.048980 14.644875 0.000000
488.789980 297.031040 14.681170 0.000000
489.283810 297.392550 14.696379 0.000000
490.082310 297.420070 14.727597 0.000000
490.859920 297.443660 14.757596 0.000000
491.615110 297.466520 14.786290 0.000000
492.349210 297.488890 14.813745 0.000000
492.968200 298.554440 14.820114 0.000000
492.965120 299.526090 14.804266 0.000000
492.961910 300.544620 14.787189 0.000000
492.958440 301.614200 14.768780 0.000000
493.547240 301.852080 14.784752 0.000000
494.282070 301.854370 14.809385 0.000000
495.000700 301.856690 14.833010 0.000000
495.704160 301.858830 14.855683 0.000000
472.712620 288.094180 14.929419 0.000000
474.629300 288.130190 14.987118 0.000000
477.962860 294.596800 15.139271 0.000000
476.565860 294.592650 15.099855 0.000000
484.011380 295.383180 15.310164 0.000000
484.203250 296.065800 15.318618 0.000000
479.471860 296.204930 15.191532 0.000000
485.781310 297.285190 15.365166 0.000000
484.831700 297.256290 15.340439 0.000000
471.222290 296.842410 14.964777 0.000000
492.946750 303.904480 15.547705 0.000000
492.942810 305.155940 15.547739 0.000000
492.938390 306.480960 15.547505 0.000000
492.933840 307.886440 15.546988 0.000000
492.928860 309.381350 15.546155 0.000000
486.697170 297.313050 15.388771 0.000000
487.581630 297.339870 15.411330 0.000000
488.437040 297.365600 15.432912 0.000000
489.264470 297.391080 15.453560 0.000000
490.066530 297.415530 15.473345 0.000000
492.964260 298.537050 15.544271 0.000000
492.954220 301.595000 15.546937 0.000000
492.950590 302.719420 15.547432 0.000000
490.892300 287.539430 16.043949 0.000000
486.768490 287.758060 16.008287 0.000000
490.570040 288.345030 16.055786 0.000000
486.971680 288.260680 16.019566 0.000000
472.640620 288.100980 15.878578 0.000000
474.541350 288.145660 15.897713 0.000000
485.805730 289.630000 16.033731 0.000000
483.640170 295.654330 16.124603 0.000000
484.198820 296.047790 16.137280 0.000000
485.762450 297.280180 16.175196 0.000000
486.679020 297.308140 16.184542 0.000000
492.968540 297.585820 16.250267 0.000000
476.140170 296.638950 16.070629 0.000000
492.960390 298.519650 16.267508 0.000000
492.950040 301.575840 16.324089 0.000000
492.946290 302.699550 16.344894 0.000000
492.938230 305.134550 16.389977 0.000000
492.933720 306.458740 16.414492 0.000000
492.923950 309.357060 16.468149 0.000000
492.968050 310.855770 16.496370 0.000000
490.925480 288.685610 16.065527 0.000000
480.896150 296.912810 16.121515 0.000000
492.942320 303.883880 16.366821 0.000000
492.929020 307.863250 16.440495 0.000000
488.582030 286.686280 16.629236 0.000000
488.069920 287.579100 16.660427 0.000000
492.964840 297.568850 16.957191 0.000000
492.953120 299.472320 17.025391 0.000000
492.945860 301.556700 17.100998 0.000000
492.941960 302.679720 17.142097 0.000000
478.510770 296.837220 17.025490 0.000000
479.722350 296.870180 17.016724 0.000000
484.792540 297.246060 16.991255 0.000000
492.937930 303.863280 17.185663 0.000000
492.933720 305.113160 17.231926 0.000000
492.929050 306.436460 17.281170 0.000000
492.924190 307.840060 17.333675 0.000000
492.919010 309.332790 17.389795 0.000000
486.314480 295.892550 17.718845 0.000000
492.949130 299.454410 17.765778 0.000000
487.837280 286.501190 17.904181 0.000000
487.792600 287.114720 17.937620 0.000000
488.109740 287.523650 17.944088 0.000000
492.933500 303.842710 18.005005 0.000000
492.929170 305.091800 18.074379 0.000000
492.924380 306.414220 18.148359 0.000000
492.919400 307.816830 18.227369 0.000000
492.914090 309.308500 18.311958 0.000000
493.303800 310.149440 18.355610 0.000000
486.005680 286.905030 18.012054 0.000000
491.552190 297.431820 18.411413 0.000000
492.952030 297.541560 18.373720 0.000000
492.929500 303.821440 18.825571 0.000000
492.924620 305.070370 18.918148 0.000000
492.907470 306.412320 19.018715 0.000000
492.899230 307.820310 19.124811 0.000000
490.128020 287.400420 19.060217 0.000000
492.930910 300.442200 19.342545 0.000000
492.929470 301.504550 19.438278 0.000000
492.929020 302.620090 19.539738 0.000000
486.035550 287.473330 19.409920 0.000000
486.850800 287.003600 19.975239 0.000000
489.053650 287.489780 19.788734 0.000000
489.206420 287.985380 19.817766 0.000000
493.501950 309.705630 20.185024 0.000000
485.480560 287.136660 20.131170 0.000000
484.176640 295.957430 20.243345 0.000000
486.762360 288.271450 20.781101 0.000000
494.221440 309.885310 21.110727 0.000000
491.739930 286.130980 14.233809 0.000000
492.284730 286.330990 14.267900 0.000000
492.952850 286.974430 14.301882 0.000000
493.115300 287.411560 14.304531 0.000000
493.575900 287.634610 14.330482 0.000000
494.013550 287.864620 14.354275 0.000000
477.630770 286.703430 14.078320 0.000000
478.681980 287.014100 14.135020 0.000000
494.538790 288.583710 14.372224 0.000000
478.761410 287.710970 14.140504 0.000000
494.857180 288.897400 14.385010 0.000000
495.190800 289.195830 14.398603 0.000000
495.536500 289.480710 14.412768 0.000000
478.937160 288.372130 14.150500 0.000000
479.034850 289.074490 14.155918 0.000000
481.560030 289.301640 14.286570 0.000000
481.878050 289.860110 14.301976 0.000000
482.239960 290.393340 14.319183 0.000000
483.467590 290.418300 14.381145 0.000000
486.685210 292.681980 14.527521 0.000000
487.497220 292.814270 14.565197 0.000000
488.623930 293.409880 14.613102 0.000000
488.435520 295.115110 14.588263 0.000000
487.159060 295.410920 14.527047 0.000000
488.807650 295.587950 14.600186 0.000000
489.676210 295.594880 14.638914 0.000000
490.184570 295.922790 14.657600 0.000000
490.992890 295.940830 14.692644 0.000000
490.729190 297.052760 14.667331 0.000000
491.499150 297.095090 14.699520 0.000000
491.942440 297.478360 14.712914 0.000000
492.979740 298.062500 14.747178 0.000000
492.983180 298.988460 14.733351 0.000000
492.974330 299.971370 14.717706 0.000000
492.970790 300.992860 14.701199 0.000000
493.112150 301.861880 14.692307 0.000000
493.882510 301.860660 14.721453 0.000000
494.656890 301.825710 14.750849 0.000000
495.362400 301.868470 14.775871 0.000000
484.005160 294.628270 15.205843 0.000000
476.262360 294.605130 14.966518 0.000000
484.128080 295.358090 15.213683 0.000000
478.284180 295.144680 15.033746 0.000000
473.496000 295.275730 14.884504 0.000000
484.208340 297.000210 15.224638 0.000000
484.936520 297.271480 15.247335 0.000000
485.919680 297.301240 15.276123 0.000000
486.866760 297.329930 15.303608 0.000000
492.959440 303.163480 15.481604 0.000000
492.955750 304.344790 15.482329 0.000000
492.951900 305.589870 15.482832 0.000000
492.943420 308.297090 15.483089 0.000000
492.938930 309.773800 15.482804 0.000000
487.780210 297.357570 15.329876 0.000000
488.662380 297.384220 15.355005 0.000000
489.515320 297.410000 15.379068 0.000000
490.340880 297.435030 15.402129 0.000000
492.975560 298.042820 15.475146 0.000000
492.969480 299.950990 15.478246 0.000000
492.966370 300.971100 15.479551 0.000000
492.963040 302.040470 15.480675 0.000000
491.019470 287.083860 15.972544 0.000000
490.950960 287.702550 15.983268 0.000000
486.977360 288.330600 15.944917 0.000000
471.793580 288.085570 15.748827 0.000000
473.872310 288.124760 15.775778 0.000000
484.206420 296.114440 16.055771 0.000000
480.843290 296.923830 16.028515 0.000000
482.012760 296.943240 16.043629 0.000000
485.897550 297.296110 16.099234 0.000000
488.642490 297.379390 16.135412 0.000000
478.380460 296.850770 15.996085 0.000000
479.643100 296.886290 16.012674 0.000000
484.913570 297.266240 16.086264 0.000000
473.830290 296.954220 15.940635 0.000000
492.961940 300.949340 16.256760 0.000000
492.958500 302.017910 16.276731 0.000000
492.954800 303.140080 16.297705 0.000000
492.950990 304.320430 16.319767 0.000000
492.947020 305.564510 16.343019 0.000000
492.938260 308.269440 16.393576 0.000000
492.933590 309.744840 16.421154 0.000000
494.836460 310.969540 16.468092 0.000000
488.116060 286.450380 16.572050 0.000000
488.772520 286.676700 16.574383 0.000000
490.388550 287.465550 16.588026 0.000000
488.104460 287.656010 16.607567 0.000000
488.337280 289.398010 16.658825 0.000000
492.636960 297.496670 16.911207 0.000000
492.964110 298.935420 16.961870 0.000000
492.957550 300.927580 17.033583 0.000000
492.953980 301.995360 17.072384 0.000000
484.200290 296.957610 16.918867 0.000000
478.357120 296.840820 16.943739 0.000000
492.950160 303.116640 17.113380 0.000000
492.946230 304.296080 17.156755 0.000000
492.942110 305.539150 17.202734 0.000000
492.933110 308.241790 17.303532 0.000000
492.928280 309.715910 17.358940 0.000000
492.959900 298.915100 17.704588 0.000000
487.954040 286.504060 17.880299 0.000000
487.887480 287.137760 17.915134 0.000000
495.452640 294.190310 18.049726 0.000000
492.945500 303.093200 17.929398 0.000000
492.941440 304.271730 17.994087 0.000000
492.937230 305.513790 18.062786 0.000000
492.927950 308.214110 18.213812 0.000000
492.922940 309.687010 18.297047 0.000000
485.969910 286.936890 17.991697 0.000000
491.535950 296.936860 18.357252 0.000000
491.853120 297.457860 18.382322 0.000000
492.959630 297.963440 18.383499 0.000000
492.940860 303.069760 18.746544 0.000000
492.921840 304.269530 18.834543 0.000000
492.944920 305.468870 18.922276 0.000000
492.910000 308.207790 19.127169 0.000000
492.933690 301.936770 19.465563 0.000000
492.901580 309.685910 19.238806 0.000000
486.013240 287.507450 19.426716 0.000000
492.932190 303.051940 19.566273 0.000000
489.211270 287.518310 19.811432 0.000000
489.673220 287.831360 19.793091 0.000000
486.858310 287.038480 20.010452 0.000000
481.862460 296.931490 20.494667 0.000000
494.292110 310.185700 21.134003 0.000000
494.027370 287.107060 14.314837 0.000000
478.622100 286.123170 14.079899 0.000000
494.174900 287.556150 14.316706 0.000000
494.996490 288.071170 14.360900 0.000000
478.651000 286.846680 14.084429 0.000000
479.462680 287.257570 14.129272 0.000000
495.094910 288.564330 14.357140 0.000000
495.508060 288.809630 14.378348 0.000000
479.798160 287.851200 14.148734 0.000000
495.712340 289.224950 14.382011 0.000000
480.147710 288.435670 14.168403 0.000000
492.962710 301.546880 14.678761 0.000000
482.678470 288.689510 14.301418 0.000000
482.872340 289.306430 14.311446 0.000000
483.231780 289.838440 14.329597 0.000000
483.620060 290.351720 14.348764 0.000000
485.284970 291.555150 14.429529 0.000000
486.220150 291.684390 14.475470 0.000000
486.542240 292.202240 14.488914 0.000000
487.483150 292.282590 14.534435 0.000000
488.665950 292.881900 14.587672 0.000000
489.010470 293.357180 14.600633 0.000000
489.780180 293.485200 14.635822 0.000000
488.733800 295.131230 14.573423 0.000000
489.653080 295.135440 14.615696 0.000000
490.109650 295.528560 14.632752 0.000000
490.982700 295.525330 14.672083 0.000000
491.398190 295.937960 14.686191 0.000000
492.111790 296.048610 14.716323 0.000000
491.953740 297.050720 14.697749 0.000000
492.964780 297.695980 14.732754 0.000000
492.955050 298.610260 14.720243 0.000000
493.684810 298.671260 14.749439 0.000000
492.972050 300.510740 14.694363 0.000000
494.705170 301.315250 14.750402 0.000000
493.526790 301.861360 14.696199 0.000000
495.079100 301.862400 14.755874 0.000000
482.960720 294.623500 15.158985 0.000000
484.123600 294.639620 15.195016 0.000000
477.560210 294.607700 14.989161 0.000000
478.282470 295.063480 15.015909 0.000000
484.204280 296.258790 15.208311 0.000000
484.202700 297.131770 15.213703 0.000000
485.122220 297.275420 15.242117 0.000000
486.141240 297.306270 15.272588 0.000000
487.121550 297.335940 15.301651 0.000000
488.065890 297.364500 15.329403 0.000000
471.953310 296.877260 14.830171 0.000000
492.957820 301.524050 15.480094 0.000000
492.954470 302.599430 15.482397 0.000000
492.950680 303.726990 15.484550 0.000000
492.947140 304.910430 15.486559 0.000000
492.943240 306.155730 15.488400 0.000000
492.939580 307.467650 15.490074 0.000000
492.935030 308.854490 15.491543 0.000000
492.929960 310.322910 15.492800 0.000000
488.976780 297.392060 15.355929 0.000000
489.856410 297.418640 15.381310 0.000000
492.960360 297.675840 15.469360 0.000000
492.964200 299.512880 15.475087 0.000000
492.961000 300.496520 15.477653 0.000000
491.015810 287.304660 15.976890 0.000000
486.697750 287.932130 15.933242 0.000000
487.031070 288.397090 15.946675 0.000000
470.871670 288.066770 15.730831 0.000000
473.132780 288.108980 15.760955 0.000000
480.861570 296.922550 16.033850 0.000000
484.197910 297.109710 16.080746 0.000000
485.097470 297.269870 16.095541 0.000000
488.042660 297.360320 16.135471 0.000000
491.514040 297.461210 16.182426 0.000000
474.304660 296.481840 15.940257 0.000000
476.890080 296.812680 15.980240 0.000000
478.325290 296.821410 15.999006 0.000000
479.608460 296.883240 16.016844 0.000000
492.956700 300.473940 16.260170 0.000000
492.953400 301.500700 16.280254 0.000000
492.949950 302.575200 16.301271 0.000000
492.946040 303.701840 16.323305 0.000000
492.942410 304.884340 16.346436 0.000000
492.938350 306.128600 16.370773 0.000000
492.934600 307.439390 16.396418 0.000000
492.929870 308.824950 16.423515 0.000000
492.928680 310.285340 16.452124 0.000000
494.742920 310.167360 16.473318 0.000000
488.157230 286.522520 16.593233 0.000000
486.519900 286.733700 16.610142 0.000000
488.813810 286.776670 16.596626 0.000000
490.114690 287.236970 16.602644 0.000000
490.638030 288.114140 16.626793 0.000000
492.958740 298.527920 16.972286 0.000000
492.952390 300.451350 17.042290 0.000000
484.183110 296.224490 16.919022 0.000000
492.948970 301.477330 17.079998 0.000000
492.945430 302.550960 17.119709 0.000000
492.941440 303.676760 17.161600 0.000000
492.937680 304.858250 17.205830 0.000000
492.933500 306.101470 17.252636 0.000000
492.929630 307.411100 17.302221 0.000000
492.924770 308.795470 17.354918 0.000000
492.919460 310.261170 17.411003 0.000000
492.954590 298.506740 17.722387 0.000000
492.940920 302.526760 17.938477 0.000000
492.936830 303.651640 18.000225 0.000000
492.932920 304.832150 18.065548 0.000000
492.928680 306.074310 18.134821 0.000000
492.924650 307.382810 18.208342 0.000000
492.919650 308.765930 18.286629 0.000000
492.914220 310.230290 18.370102 0.000000
493.845370 310.147160 18.356915 0.000000
488.012760 286.561550 17.941471 0.000000
486.076930 286.914950 18.047049 0.000000
492.936400 302.502500 18.758369 0.000000
492.932190 303.626460 18.839989 0.000000
492.928190 304.806060 18.926424 0.000000
492.923830 306.047150 19.018177 0.000000
492.918610 307.356140 19.115795 0.000000
492.914520 308.736390 19.219543 0.000000
491.436860 297.441560 19.209419 0.000000
492.939390 300.383450 19.393686 0.000000
492.895810 310.221340 19.332359 0.000000
488.923890 287.858310 19.313229 0.000000
484.168490 296.159820 19.491150 0.000000
492.914280 302.501710 19.582972 0.000000
485.460020 287.833710 19.599239 0.000000
485.982760 288.885650 19.630770 0.000000
