# .PCD v0.7 - Point Cloud Data file format
VERSION 0.7
FIELDS x y z intensity
SIZE 4 4 4 4
TYPE F F F F
COUNT 1 1 1 1
WIDTH 1184
HEIGHT 1
VIEWPOINT 0 0 0 1 0 0 0
POINTS 1184
DATA ascii
480.292910 151.450240 9.515403 0.000000
478.759400 151.410290 9.499248 0.000000
476.725980 151.234800 9.477011 0.000000
474.010530 151.000470 9.461156 0.000000
480.321040 150.989930 9.511756 0.000000
478.776760 150.987960 9.495789 0.000000
476.741060 150.740430 9.472904 0.000000
474.006500 150.556520 9.456359 0.000000
480.358520 150.622060 9.508976 0.000000
478.808840 150.565540 9.492464 0.000000
476.762880 150.369260 9.469887 0.000000
473.958890 150.102940 9.444804 0.000000
480.408780 150.254990 9.506314 0.000000
478.855930 150.143590 9.489330 0.000000
476.795900 149.998170 9.467033 0.000000
473.934480 149.648540 9.434881 0.000000
480.472320 149.889300 9.503857 0.000000
478.917790 149.722630 9.486338 0.000000
476.854460 149.503830 9.463388 0.000000
473.959630 149.349990 9.432518 0.000000
480.615390 149.254170 9.500136 0.000000
480.551270 149.526110 9.502032 0.000000
478.981410 149.299560 9.481268 0.000000
476.860350 149.121990 9.453602 0.000000
473.906010 149.034420 9.419902 0.000000
480.642120 148.968020 9.489351 0.000000
478.995640 148.857960 9.465280 0.000000
476.820830 148.723040 9.435541 0.000000
473.835940 148.711110 9.404594 0.000000
473.771730 148.384230 9.389320 0.000000
480.688390 148.584850 9.474846 0.000000
479.012180 148.523540 9.452633 0.000000
476.800900 148.322970 9.418999 0.000000
480.749940 148.201030 9.460655 0.000000
479.036620 148.186430 9.439636 0.000000
476.799620 147.920870 9.403480 0.000000
473.790130 147.755810 9.374919 0.000000
480.826540 147.817050 9.446735 0.000000
479.084290 147.735230 9.422616 0.000000
476.805180 147.515000 9.387567 0.000000
473.634060 147.388790 9.346050 0.000000
480.917300 147.433010 9.432861 0.000000
479.167110 147.168490 9.401503 0.000000
479.130310 147.395400 9.409874 0.000000
476.824740 147.106430 9.371942 0.000000
473.597690 146.884280 9.325912 0.000000
481.023250 147.049960 9.419249 0.000000
479.207950 146.941180 9.393112 0.000000
476.853640 146.695240 9.356251 0.000000
473.717350 146.425460 9.324074 0.000000
481.144320 146.668410 9.405860 0.000000
479.277860 146.599790 9.380593 0.000000
476.879670 146.419690 9.345816 0.000000
481.244320 146.383360 9.395907 0.000000
477.471220 145.827970 9.390780 0.000000
475.102020 145.649930 9.450462 0.000000
474.632110 145.778490 9.403181 0.000000
473.945530 145.836320 9.328066 0.000000
470.998750 145.467070 9.441704 0.000000
482.253140 145.797380 9.493663 0.000000
481.841160 145.843750 9.436110 0.000000
481.553800 145.877180 9.395275 0.000000
480.618160 145.734450 9.508043 0.000000
480.316040 145.794190 9.470570 0.000000
479.962740 145.831680 9.423458 0.000000
478.580990 145.561250 9.516131 0.000000
478.293700 145.683690 9.487501 0.000000
477.944700 145.781660 9.448944 0.000000
475.514860 145.509990 9.490315 0.000000
471.359950 145.210940 9.468037 0.000000
483.076140 145.522460 9.583375 0.000000
482.686650 145.667630 9.543746 0.000000
481.323000 145.462660 9.581202 0.000000
481.076970 145.539350 9.554638 0.000000
480.837710 145.627290 9.529435 0.000000
478.902220 145.466520 9.550243 0.000000
476.022770 145.108900 9.527733 0.000000
471.232850 144.772200 9.442938 0.000000
483.550810 145.229250 9.614192 0.000000
481.673860 145.086380 9.592730 0.000000
479.292360 145.002690 9.566600 0.000000
476.190860 144.545470 9.518039 0.000000
475.987880 144.766430 9.507267 0.000000
471.610020 144.531400 9.470108 0.000000
483.873660 144.788350 9.601070 0.000000
483.708400 145.006820 9.607560 0.000000
481.882140 144.725720 9.584320 0.000000
479.467070 144.541580 9.554159 0.000000
476.189610 144.212040 9.500547 0.000000
471.470400 144.076100 9.442214 0.000000
484.106540 144.505600 9.593295 0.000000
482.094240 144.360980 9.573771 0.000000
479.662200 144.085300 9.542293 0.000000
476.382390 143.986050 9.508855 0.000000
471.518830 143.694460 9.433443 0.000000
484.411320 144.158810 9.582908 0.000000
482.315980 143.996750 9.562247 0.000000
479.822570 143.747630 9.533988 0.000000
476.487820 143.536700 9.494771 0.000000
471.743260 142.981110 9.427541 0.000000
471.354680 143.207200 9.401081 0.000000
484.803470 143.763120 9.571917 0.000000
482.553190 143.638760 9.551004 0.000000
479.995150 143.413860 9.525988 0.000000
485.231290 143.405030 9.565226 0.000000
482.808410 143.290970 9.540731 0.000000
471.213230 142.287310 9.353462 0.000000
485.684140 143.074840 9.560163 0.000000
479.925540 142.517820 9.441482 0.000000
476.546780 142.315260 9.427776 0.000000
476.256680 142.486080 9.409053 0.000000
471.784270 141.943600 9.389906 0.000000
486.026250 142.494840 9.501012 0.000000
485.844600 142.562070 9.495511 0.000000
483.248930 142.284380 9.468307 0.000000
482.952270 142.443050 9.456529 0.000000
480.526310 142.030240 9.461043 0.000000
480.216250 142.263210 9.449846 0.000000
476.903530 142.011570 9.443860 0.000000
472.124820 141.484380 9.400187 0.000000
487.034940 142.174910 9.529413 0.000000
486.574740 142.310750 9.516872 0.000000
486.208500 142.430480 9.506431 0.000000
483.742830 142.029800 9.485932 0.000000
483.445650 142.179870 9.475413 0.000000
480.948300 141.735430 9.476177 0.000000
480.735350 141.879810 9.468417 0.000000
477.383970 141.620540 9.464748 0.000000
472.997650 141.144380 9.459863 0.000000
472.563390 141.309890 9.430294 0.000000
495.668700 142.628940 9.619486 0.000000
495.397280 142.532030 9.621846 0.000000
495.033810 142.411440 9.624506 0.000000
494.760280 142.327300 9.626110 0.000000
488.429500 141.870380 9.562801 0.000000
488.149200 141.918820 9.556509 0.000000
487.776610 141.993770 9.547996 0.000000
487.405030 142.078810 9.538906 0.000000
484.543730 141.662570 9.512723 0.000000
484.141720 141.839970 9.499552 0.000000
481.625270 141.359910 9.505334 0.000000
481.385860 141.466130 9.492990 0.000000
481.162840 141.594790 9.483870 0.000000
477.797390 141.182450 9.473673 0.000000
494.485900 142.249190 9.627280 0.000000
494.118410 142.154880 9.628603 0.000000
493.750240 142.069000 9.629039 0.000000
493.380860 141.993320 9.628918 0.000000
493.011960 141.920700 9.626990 0.000000
492.641910 141.856890 9.624289 0.000000
492.270390 141.804140 9.621220 0.000000
491.897670 141.762220 9.617736 0.000000
491.430450 141.724660 9.612613 0.000000
490.962190 141.702220 9.606770 0.000000
490.586980 141.696790 9.601593 0.000000
490.211520 141.702510 9.596057 0.000000
489.835910 141.718250 9.589957 0.000000
489.460330 141.743970 9.583291 0.000000
488.991360 141.792510 9.574443 0.000000
488.616360 141.840230 9.566585 0.000000
486.282290 141.336940 9.605063 0.000000
485.847600 141.389420 9.581409 0.000000
485.402950 141.441990 9.554754 0.000000
484.956330 141.512510 9.528111 0.000000
482.175510 141.047760 9.524342 0.000000
481.857060 141.248060 9.515817 0.000000
478.222080 140.758500 9.482363 0.000000
473.382080 140.516080 9.462511 0.000000
488.351930 141.061900 9.681471 0.000000
487.944120 141.105820 9.669306 0.000000
487.535800 141.162280 9.656786 0.000000
487.123050 141.218290 9.641756 0.000000
486.705380 141.276200 9.624498 0.000000
482.602360 140.788070 9.534767 0.000000
478.570560 140.470830 9.492413 0.000000
473.639190 140.247060 9.470585 0.000000
495.451810 141.421810 9.708937 0.000000
495.029080 141.356960 9.719365 0.000000
494.609990 141.301090 9.728687 0.000000
494.191380 141.263520 9.738433 0.000000
493.782140 141.213880 9.743899 0.000000
493.380430 141.149780 9.744833 0.000000
492.981080 141.083820 9.743259 0.000000
492.581210 141.026460 9.740814 0.000000
492.180180 140.981600 9.738108 0.000000
491.878810 140.956420 9.736012 0.000000
491.577120 140.939390 9.733806 0.000000
491.174680 140.927460 9.730703 0.000000
490.772400 140.928380 9.727404 0.000000
490.370640 140.942600 9.723988 0.000000
489.869870 140.980440 9.719657 0.000000
489.367890 141.010470 9.710957 0.000000
489.063930 141.017060 9.702298 0.000000
488.759310 141.032470 9.693596 0.000000
483.495570 140.345490 9.560432 0.000000
483.037750 140.545720 9.545503 0.000000
479.034700 140.092530 9.504079 0.000000
478.803710 140.282070 9.498655 0.000000
473.582980 139.748760 9.440861 0.000000
484.546940 139.969570 9.595890 0.000000
484.312500 140.046520 9.588195 0.000000
483.961240 140.168520 9.576319 0.000000
479.425900 139.636660 9.501057 0.000000
479.263610 139.901860 9.508663 0.000000
473.957280 139.331310 9.449358 0.000000
485.607970 139.674390 9.629977 0.000000
485.135740 139.796360 9.615044 0.000000
484.782010 139.896840 9.603559 0.000000
479.737150 139.540880 9.519088 0.000000
487.264680 139.368000 9.679880 0.000000
486.791410 139.436870 9.666044 0.000000
486.317810 139.520360 9.651833 0.000000
485.962830 139.592860 9.641038 0.000000
480.702180 138.852540 9.537389 0.000000
480.333160 139.100080 9.530053 0.000000
495.597870 139.867830 9.781579 0.000000
495.148070 139.730300 9.779909 0.000000
494.808750 139.635970 9.778460 0.000000
494.467500 139.550840 9.776865 0.000000
494.124790 139.473690 9.775234 0.000000
490.423000 139.197020 9.753176 0.000000
490.076780 139.220290 9.750475 0.000000
489.615630 139.254520 9.745535 0.000000
489.149540 139.252180 9.733592 0.000000
488.798190 139.255000 9.723845 0.000000
488.445370 139.266140 9.713793 0.000000
487.973630 139.293900 9.700211 0.000000
487.619380 139.326000 9.690103 0.000000
481.204380 138.540270 9.547420 0.000000
480.995970 138.755660 9.551106 0.000000
493.895230 139.428330 9.774221 0.000000
493.549620 139.369090 9.772773 0.000000
493.203370 139.316740 9.771144 0.000000
492.856410 139.273620 9.769371 0.000000
492.392970 139.228880 9.766879 0.000000
492.045100 139.204270 9.764835 0.000000
491.697170 139.188400 9.762597 0.000000
491.233340 139.179440 9.759426 0.000000
490.770020 139.184560 9.755965 0.000000
481.293980 138.141690 9.518120 0.000000
475.670870 161.023240 9.793805 0.000000
479.471100 160.994780 9.803208 0.000000
485.517520 161.066640 9.868128 0.000000
482.421390 160.686400 9.843533 0.000000
475.427980 160.127850 9.810126 0.000000
492.539890 161.028240 9.956268 0.000000
492.312230 161.057170 9.956189 0.000000
489.511440 161.031300 9.936939 0.000000
489.135560 160.981980 9.930356 0.000000
488.760710 160.919620 9.922974 0.000000
488.312620 160.827710 9.913405 0.000000
487.941220 160.736510 9.904909 0.000000
487.645630 160.653550 9.897701 0.000000
485.088230 160.757060 9.867764 0.000000
484.696230 160.547670 9.854706 0.000000
484.462800 160.415410 9.846455 0.000000
482.289120 160.529480 9.844081 0.000000
482.045650 160.335660 9.835344 0.000000
479.366240 160.316010 9.837010 0.000000
479.095490 160.058940 9.825233 0.000000
475.201840 159.903900 9.798676 0.000000
474.978760 159.674450 9.787251 0.000000
493.824130 160.770720 9.952566 0.000000
493.523190 160.845380 9.954060 0.000000
493.145720 160.925890 9.955381 0.000000
492.767330 160.993960 9.956107 0.000000
487.424900 160.585770 9.892111 0.000000
487.132390 160.486680 9.884333 0.000000
486.769040 160.351960 9.874181 0.000000
486.409360 160.202480 9.863518 0.000000
484.308140 160.324080 9.840804 0.000000
484.004180 160.130400 9.829812 0.000000
481.807100 160.134490 9.826852 0.000000
481.564850 159.932540 9.816832 0.000000
478.738310 159.705900 9.808989 0.000000
474.756930 159.440350 9.775650 0.000000
494.789980 160.459270 9.946436 0.000000
494.348180 160.618760 9.948933 0.000000
494.049220 160.709340 9.951187 0.000000
485.982450 160.005680 9.850051 0.000000
485.561710 159.788880 9.835897 0.000000
483.563840 159.813670 9.814762 0.000000
483.276180 159.590970 9.804459 0.000000
481.172550 159.578350 9.800514 0.000000
478.471440 159.434400 9.796131 0.000000
474.425050 159.080490 9.757705 0.000000
495.567990 160.084180 9.945983 0.000000
495.217380 160.262600 9.946490 0.000000
485.215880 159.593670 9.823526 0.000000
483.134250 159.475830 9.799139 0.000000
480.787900 159.208710 9.783512 0.000000
480.561220 158.978930 9.772956 0.000000
477.930420 158.876690 9.767117 0.000000
477.751650 158.684220 9.756993 0.000000
474.096860 158.710680 9.739494 0.000000
473.178470 158.362050 10.072035 0.000000
479.205510 158.752820 9.911577 0.000000
477.575200 158.487640 9.746844 0.000000
477.400050 158.287540 9.736515 0.000000
473.662170 158.200520 9.714281 0.000000
473.447480 157.937870 9.701422 0.000000
473.165710 158.365200 10.477880 0.000000
479.181820 158.762790 10.489763 0.000000
479.028410 158.583680 10.339436 0.000000
473.179900 158.531010 10.882868 0.000000
479.249210 158.724640 10.782979 0.000000
479.043180 158.573880 10.776006 0.000000
479.177920 159.026900 11.064012 0.000000
479.198460 158.619810 11.069301 0.000000
479.516720 160.643220 11.660672 0.000000
479.471800 160.232180 11.506962 0.000000
478.150790 160.202300 11.342355 0.000000
480.305050 159.931630 11.366426 0.000000
479.531430 159.627030 11.358174 0.000000
478.738460 159.555050 11.349483 0.000000
478.444060 159.727190 11.658291 0.000000
479.953770 159.626020 11.362843 0.000000
479.284760 158.964740 11.356096 0.000000
478.869510 158.927020 11.647084 0.000000
473.255710 158.503650 11.289923 0.000000
479.212590 158.610860 11.355645 0.000000
479.752110 157.720250 11.362478 0.000000
480.443210 157.388470 11.620115 0.000000
475.586210 156.965910 11.662722 0.000000
480.520230 157.026540 11.616489 0.000000
479.814540 157.001250 11.622627 0.000000
479.745970 156.695050 11.621085 0.000000
479.396910 156.268950 11.621649 0.000000
472.206020 141.546230 11.294904 0.000000
471.686160 140.325760 11.290352 0.000000
470.932560 140.327590 11.282023 0.000000
471.922730 139.531370 11.293743 0.000000
472.211980 139.247830 11.297216 0.000000
494.913300 139.232090 11.850420 0.000000
479.200410 161.026080 11.981617 0.000000
479.194000 160.571090 11.970619 0.000000
479.144930 160.158940 11.962083 0.000000
479.077940 159.913040 11.958176 0.000000
478.142640 159.609420 11.976276 0.000000
480.996220 159.431880 12.161227 0.000000
480.807590 159.307430 12.164695 0.000000
479.330200 159.202260 11.936033 0.000000
480.604030 159.189390 12.169274 0.000000
478.792420 158.967480 11.945682 0.000000
473.220920 158.686110 11.695622 0.000000
477.870330 158.617920 11.964739 0.000000
479.021820 158.321090 11.926912 0.000000
479.306550 157.687360 11.907529 0.000000
475.576840 157.551090 12.015853 0.000000
479.428010 157.394590 11.899105 0.000000
474.891880 157.171630 12.032160 0.000000
481.090480 157.285950 12.086294 0.000000
479.455080 157.149670 11.894368 0.000000
480.847290 156.774770 12.084349 0.000000
479.333340 156.625440 11.890186 0.000000
470.788850 142.521850 11.765018 0.000000
471.999020 142.291730 11.757490 0.000000
471.325620 142.361820 11.762246 0.000000
472.622740 141.794480 11.758347 0.000000
471.098690 141.356370 11.775521 0.000000
471.499270 139.733780 11.792543 0.000000
470.949370 139.861690 11.794895 0.000000
471.985440 139.578610 11.791156 0.000000
472.247440 139.277440 11.793421 0.000000
472.344180 138.856000 11.798590 0.000000
494.436370 139.131070 12.146254 0.000000
494.699010 139.092880 12.153946 0.000000
494.551850 137.712070 12.210095 0.000000
480.012180 160.133040 12.518478 0.000000
479.498470 159.368300 12.368021 0.000000
479.299010 159.218280 12.374210 0.000000
474.646550 159.146070 12.448094 0.000000
480.329990 159.111970 12.178599 0.000000
478.760990 158.983090 12.245644 0.000000
478.121340 159.047930 12.277485 0.000000
471.985290 158.394650 12.135788 0.000000
481.079530 158.632000 12.380882 0.000000
479.743650 158.699980 12.191503 0.000000
478.247310 158.436310 12.254171 0.000000
473.411650 158.277080 12.491069 0.000000
478.542880 158.035170 12.229159 0.000000
480.843260 157.408400 12.344603 0.000000
479.075040 157.305560 12.462091 0.000000
480.787020 157.220890 12.341377 0.000000
478.978970 157.106160 12.462459 0.000000
480.659270 156.855820 12.337213 0.000000
478.561430 156.547270 12.475918 0.000000
471.679530 142.548630 12.226634 0.000000
471.982420 142.286000 12.223927 0.000000
471.016880 141.313800 12.271622 0.000000
471.730870 141.274290 12.253402 0.000000
470.865600 140.294540 12.299177 0.000000
471.858060 139.974670 12.281375 0.000000
471.145080 139.007130 12.323838 0.000000
471.595640 138.818360 12.317595 0.000000
471.891020 138.526280 12.318187 0.000000
493.993930 138.893690 12.451900 0.000000
493.744930 138.893430 12.445512 0.000000
495.309940 137.945050 12.550335 0.000000
495.049770 137.889140 12.546054 0.000000
493.844760 137.171230 12.560125 0.000000
493.604340 136.974040 12.567367 0.000000
479.866760 160.823790 12.864650 0.000000
480.421080 160.114870 12.776315 0.000000
479.786040 160.292570 12.836740 0.000000
479.658510 160.094730 12.834506 0.000000
473.573060 159.242830 12.503688 0.000000
472.827940 159.177930 12.539537 0.000000
479.286250 159.223340 12.814238 0.000000
477.379670 159.433350 12.654538 0.000000
471.379550 158.585250 12.601126 0.000000
478.698730 159.015440 12.550576 0.000000
479.741180 158.446910 12.734803 0.000000
477.869200 158.341690 12.580607 0.000000
481.120880 158.370060 12.615229 0.000000
478.999540 158.328310 12.792659 0.000000
477.440770 157.983120 12.915255 0.000000
471.530820 157.447110 12.573744 0.000000
479.877590 157.653320 12.950769 0.000000
478.751830 157.686160 12.785329 0.000000
471.192780 157.172120 12.587379 0.000000
480.236360 157.369800 12.768602 0.000000
479.724120 157.493290 12.690529 0.000000
478.696080 157.216920 12.771099 0.000000
475.787870 157.189360 12.692559 0.000000
479.816250 156.995850 12.922836 0.000000
478.524020 156.797960 12.771132 0.000000
478.267180 156.523790 12.785540 0.000000
470.921600 141.715420 12.758610 0.000000
471.736760 141.723160 12.720626 0.000000
471.286710 141.017210 12.764971 0.000000
471.432770 140.644790 12.771280 0.000000
471.730290 140.365630 12.767972 0.000000
472.530790 139.960630 12.748060 0.000000
495.364470 137.759260 12.901875 0.000000
494.880710 137.491760 12.907271 0.000000
494.359590 137.342220 12.902965 0.000000
494.108090 137.223540 12.905499 0.000000
493.862980 137.062290 12.912322 0.000000
493.615080 136.894820 12.920023 0.000000
481.268190 160.857190 13.326033 0.000000
481.036770 160.335660 13.159302 0.000000
480.764560 160.200560 13.174969 0.000000
479.460820 160.228780 13.161419 0.000000
480.584900 159.991460 13.035657 0.000000
472.775600 159.196230 12.963599 0.000000
471.416750 159.323360 13.063852 0.000000
479.888240 159.387040 13.345366 0.000000
479.265930 159.233700 13.111370 0.000000
477.717040 159.255800 12.948706 0.000000
481.055420 159.129900 13.187159 0.000000
478.273530 158.964070 13.197534 0.000000
479.783450 158.673020 13.021805 0.000000
479.805300 158.410660 13.003028 0.000000
479.033690 158.309950 13.078425 0.000000
478.208650 157.921710 13.146350 0.000000
481.233920 157.849900 13.062566 0.000000
477.856080 157.547620 13.166755 0.000000
481.486910 157.495060 13.005223 0.000000
479.747590 157.250140 13.210032 0.000000
477.463960 157.436250 13.205379 0.000000
475.765440 156.909420 13.031328 0.000000
478.250790 156.894100 13.092964 0.000000
475.972170 156.568680 13.001894 0.000000
471.265050 141.460800 13.241637 0.000000
471.140590 140.935200 13.273133 0.000000
471.869570 140.457980 13.249026 0.000000
495.692630 138.425950 13.515718 0.000000
495.313260 137.452930 13.271490 0.000000
494.943570 137.249560 13.277651 0.000000
494.576930 137.010130 13.289097 0.000000
494.211000 136.737080 13.305243 0.000000
493.721340 136.292970 13.337329 0.000000
478.355500 160.672130 13.632378 0.000000
480.194180 160.278760 13.386943 0.000000
480.141970 160.034330 13.370972 0.000000
479.249790 159.241590 13.410373 0.000000
478.290470 158.410430 13.470646 0.000000
473.796570 158.144620 13.649775 0.000000
479.019590 158.315660 13.371733 0.000000
478.537450 158.032820 13.414770 0.000000
478.393740 157.585300 13.406365 0.000000
477.168850 157.817870 13.580489 0.000000
478.330020 157.110690 13.388414 0.000000
475.424930 157.009840 13.419697 0.000000
472.726960 156.800630 13.315855 0.000000
478.106750 156.820210 13.403459 0.000000
475.796020 156.617000 13.362995 0.000000
477.878140 156.525730 13.420272 0.000000
495.074520 140.176830 13.552528 0.000000
495.447110 138.331040 13.846012 0.000000
472.806640 158.130520 13.762018 0.000000
474.240660 157.049130 13.938374 0.000000
472.356290 156.889310 13.771504 0.000000
474.246090 156.586180 13.919978 0.000000
472.290890 156.396840 13.765377 0.000000
474.147610 156.151580 13.918556 0.000000
472.055940 155.938490 13.781601 0.000000
474.274840 155.822740 13.890597 0.000000
471.829070 155.640340 13.801903 0.000000
470.955570 141.740660 13.745039 0.000000
471.500670 141.597090 13.706596 0.000000
471.045140 140.882930 13.784450 0.000000
471.466580 140.206270 13.789027 0.000000
472.556430 139.986470 13.714998 0.000000
471.064510 139.463940 13.866398 0.000000
471.413020 155.710040 14.288296 0.000000
471.026920 141.333800 14.261332 0.000000
472.324580 141.200350 14.137522 0.000000
471.778080 141.316450 14.185172 0.000000
471.556430 139.792390 14.315004 0.000000
471.221740 140.055010 14.329222 0.000000
472.249080 139.780350 14.247966 0.000000
471.483180 141.147260 14.723151 0.000000
472.614840 140.493770 14.641759 0.000000
471.813290 140.434160 14.741363 0.000000
471.872130 139.037490 14.855756 0.000000
471.334170 139.158840 14.906814 0.000000
472.605900 145.981120 9.280891 0.000000
484.627110 159.872630 9.825794 0.000000
484.207860 159.637530 9.811234 0.000000
482.211610 159.561420 9.797441 0.000000
494.825780 159.989820 9.927442 0.000000
494.544280 160.141170 9.928601 0.000000
494.253810 160.274730 9.931517 0.000000
483.804230 159.373120 9.798176 0.000000
483.541140 159.185580 9.789424 0.000000
481.790440 159.203490 9.781346 0.000000
481.513640 158.955860 9.769732 0.000000
479.509520 158.926740 9.770433 0.000000
495.306640 159.699910 9.925004 0.000000
495.033290 159.868640 9.926529 0.000000
483.347110 159.038650 9.782611 0.000000
483.029820 158.783140 9.770918 0.000000
481.378110 158.827700 9.763889 0.000000
481.177280 158.631060 9.754870 0.000000
479.361080 158.768630 9.763178 0.000000
479.145290 158.523900 9.752667 0.000000
476.480830 158.449200 9.739754 0.000000
476.307100 158.246840 9.729359 0.000000
472.289400 157.909610 9.689938 0.000000
495.509160 159.568180 9.923591 0.000000
482.660280 158.458800 9.756575 0.000000
482.418400 158.234340 9.746253 0.000000
480.979220 158.429840 9.745639 0.000000
480.784790 158.222920 9.736148 0.000000
478.924800 158.278400 9.740639 0.000000
478.706630 158.026730 9.728044 0.000000
476.132840 158.041760 9.718528 0.000000
475.963070 157.831800 9.707909 0.000000
471.907290 157.689640 9.659272 0.000000
482.241940 158.059110 9.738495 0.000000
482.068330 157.879850 9.730574 0.000000
480.593990 158.010970 9.726582 0.000000
480.409610 157.791920 9.717226 0.000000
478.417450 157.683470 9.710257 0.000000
475.792570 157.619110 9.696818 0.000000
475.625790 157.401950 9.685821 0.000000
471.844240 157.369550 9.660768 0.000000
471.625120 157.091020 9.645966 0.000000
481.898560 157.695430 9.722500 0.000000
481.677370 157.442790 9.711498 0.000000
480.225800 157.569850 9.707171 0.000000
480.049500 157.340410 9.697472 0.000000
478.205720 157.418260 9.696765 0.000000
478.066160 157.237870 9.687490 0.000000
475.459260 157.181610 9.674462 0.000000
471.388980 156.811540 9.629059 0.000000
481.462590 157.182130 9.700219 0.000000
481.305790 156.981580 9.691616 0.000000
479.876800 157.106510 9.687588 0.000000
479.681950 156.878770 9.672695 0.000000
477.928190 157.054640 9.678059 0.000000
477.472960 156.745150 9.631005 0.000000
474.948240 156.784260 9.628314 0.000000
474.508670 156.626830 9.581879 0.000000
474.141240 156.436840 9.544248 0.000000
481.100890 156.802690 9.671919 0.000000
480.795440 156.570820 9.637941 0.000000
479.413880 156.677630 9.644006 0.000000
479.222750 156.542850 9.622328 0.000000
477.227600 156.587450 9.604432 0.000000
476.834470 156.345020 9.560333 0.000000
476.033660 156.202060 9.455570 0.000000
473.673220 156.260160 9.493955 0.000000
472.705170 156.180480 9.381973 0.000000
472.443210 155.922700 9.356733 0.000000
480.403290 156.266420 9.591842 0.000000
480.040710 156.219770 9.531615 0.000000
479.571110 156.099720 9.456351 0.000000
478.814510 156.268170 9.573621 0.000000
478.341830 156.213320 9.502347 0.000000
477.847110 156.149660 9.427469 0.000000
477.778170 155.942410 9.425766 0.000000
475.546660 155.939740 9.396767 0.000000
472.580540 155.582930 9.379865 0.000000
479.431850 155.747070 9.451651 0.000000
477.733730 155.615260 9.432092 0.000000
475.513890 155.423290 9.407162 0.000000
472.452820 155.294980 9.369967 0.000000
479.366790 155.370760 9.459156 0.000000
477.690090 155.178680 9.441087 0.000000
475.502530 155.036930 9.415318 0.000000
472.476200 154.827530 9.380139 0.000000
479.315280 154.994050 9.466795 0.000000
477.665890 154.852050 9.447723 0.000000
475.503720 154.652110 9.423737 0.000000
472.629300 154.349230 9.404797 0.000000
479.276250 154.617650 9.474379 0.000000
477.654600 154.525650 9.454989 0.000000
475.513280 154.269070 9.432139 0.000000
479.251530 154.241590 9.482269 0.000000
477.649840 154.092510 9.464374 0.000000
475.535460 153.888230 9.440855 0.000000
472.579650 153.749070 9.404713 0.000000
479.240170 153.866560 9.490296 0.000000
479.239960 153.586210 9.496397 0.000000
477.660190 153.661700 9.473882 0.000000
475.565340 153.509670 9.449478 0.000000
472.647250 153.293580 9.415710 0.000000
479.248320 153.306980 9.502657 0.000000
477.685700 153.233750 9.483549 0.000000
475.606600 153.134050 9.458263 0.000000
472.723630 152.842090 9.426596 0.000000
479.269740 152.936600 9.511003 0.000000
477.724610 152.809190 9.493112 0.000000
475.659730 152.637770 9.467784 0.000000
472.750580 152.544170 9.430200 0.000000
479.278870 152.569230 9.514746 0.000000
477.737370 152.493390 9.496140 0.000000
477.740750 152.283390 9.496561 0.000000
475.673220 152.268360 9.469734 0.000000
472.825100 152.100270 9.438576 0.000000
479.262790 152.202710 9.511500 0.000000
477.732480 151.967970 9.493857 0.000000
475.693240 151.899800 9.471209 0.000000
472.923000 151.659820 9.448647 0.000000
479.259430 151.835310 9.508374 0.000000
477.731290 151.652100 9.491186 0.000000
475.698880 151.530750 9.469492 0.000000
472.958500 151.367130 9.451025 0.000000
479.273800 151.375470 9.504635 0.000000
477.739320 151.335860 9.488613 0.000000
475.704990 151.160830 9.466421 0.000000
472.987850 150.927050 9.450591 0.000000
479.307130 150.915830 9.501133 0.000000
477.762210 150.914110 9.485298 0.000000
475.727660 150.667280 9.462494 0.000000
472.992030 150.483890 9.445970 0.000000
479.348750 150.548840 9.498469 0.000000
477.799770 150.492690 9.482120 0.000000
475.755130 150.297070 9.459614 0.000000
472.952760 150.031630 9.434614 0.000000
479.403140 150.182940 9.495925 0.000000
477.852360 150.072140 9.479135 0.000000
475.793790 149.927260 9.456902 0.000000
472.936740 149.578960 9.424894 0.000000
479.470670 149.818700 9.493584 0.000000
477.919620 149.652950 9.476294 0.000000
475.841220 149.557970 9.454289 0.000000
472.962430 149.280880 9.422055 0.000000
479.585510 149.273040 9.488279 0.000000
479.528990 149.546680 9.491845 0.000000
477.979220 149.339690 9.474253 0.000000
477.982300 149.120120 9.465836 0.000000
475.852970 149.050890 9.441109 0.000000
472.896970 148.963360 9.407423 0.000000
479.628570 148.894960 9.475094 0.000000
477.987400 148.786800 9.451971 0.000000
475.818700 148.653720 9.423113 0.000000
472.833040 148.641630 9.392305 0.000000
472.775150 148.316600 9.377235 0.000000
479.679440 148.513790 9.460819 0.000000
478.007260 148.453810 9.439300 0.000000
475.798160 148.253980 9.405767 0.000000
479.745180 148.132190 9.446799 0.000000
478.036160 148.118770 9.426494 0.000000
475.803250 147.854480 9.390491 0.000000
472.798430 147.690430 9.362310 0.000000
479.826110 147.750850 9.433099 0.000000
478.089780 147.670760 9.409741 0.000000
475.815280 147.451570 9.374838 0.000000
472.646970 147.325390 9.333397 0.000000
479.921080 147.369780 9.419457 0.000000
478.160160 147.221180 9.393105 0.000000
475.841280 147.046420 9.359488 0.000000
472.620480 146.825100 9.313621 0.000000
480.031160 146.990080 9.406088 0.000000
478.223790 146.883480 9.380755 0.000000
475.876680 146.639010 9.344092 0.000000
472.749180 146.370670 9.312112 0.000000
480.156160 146.612180 9.392953 0.000000
478.298000 146.545490 9.368477 0.000000
475.924740 146.229460 9.328754 0.000000
480.296110 146.236720 9.380054 0.000000
478.381230 146.207730 9.356345 0.000000
476.578770 145.817210 9.390499 0.000000
476.079530 145.864360 9.328642 0.000000
474.191100 145.623550 9.444433 0.000000
473.764950 145.768160 9.403074 0.000000
473.083890 145.825360 9.328800 0.000000
481.315580 145.785830 9.491410 0.000000
480.909760 145.833660 9.435102 0.000000
480.624940 145.866680 9.394725 0.000000
479.897710 145.606750 9.523672 0.000000
479.678530 145.712220 9.502420 0.000000
479.223020 145.802490 9.445885 0.000000
478.682950 145.860820 9.373560 0.000000
477.660160 145.542480 9.511034 0.000000
477.203610 145.713380 9.464158 0.000000
474.614720 145.490620 9.485461 0.000000
482.124480 145.507660 9.578043 0.000000
481.732420 145.646710 9.537667 0.000000
480.385310 145.447800 9.575880 0.000000
480.140930 145.523590 9.549639 0.000000
478.247380 145.193920 9.560185 0.000000
475.072880 145.069730 9.515627 0.000000
482.594330 145.216290 9.607794 0.000000
480.770780 144.974610 9.581691 0.000000
480.669160 145.153530 9.585888 0.000000
478.398320 144.867920 9.555159 0.000000
475.242400 144.510210 9.505218 0.000000
475.036530 144.728120 9.494418 0.000000
482.865020 144.857160 9.597654 0.000000
480.929840 144.708720 9.575414 0.000000
478.554870 144.541990 9.549442 0.000000
475.247160 144.181850 9.488029 0.000000
483.270390 144.368320 9.583216 0.000000
483.094600 144.578220 9.590139 0.000000
481.273100 144.189180 9.563717 0.000000
481.097380 144.447130 9.569554 0.000000
478.807620 143.984330 9.535270 0.000000
478.704710 144.207810 9.541201 0.000000
475.443450 143.959700 9.496468 0.000000
483.713810 143.906430 9.570307 0.000000
483.519650 144.101300 9.575717 0.000000
481.507540 143.839360 9.553466 0.000000
478.972230 143.652510 9.526724 0.000000
475.667510 143.415100 9.488255 0.000000
475.447750 143.622470 9.477621 0.000000
470.869020 142.981050 9.419001 0.000000
484.122160 143.533710 9.560303 0.000000
483.915220 143.717640 9.565207 0.000000
481.753540 143.493190 9.542755 0.000000
479.145690 143.323270 9.518279 0.000000
484.562840 143.198000 9.554191 0.000000
484.337830 143.359440 9.556360 0.000000
481.951930 143.243680 9.536074 0.000000
475.339420 142.482990 9.397556 0.000000
470.822200 142.118030 9.379287 0.000000
495.537690 143.628400 9.686529 0.000000
484.978270 142.794050 9.529941 0.000000
484.790500 143.037730 9.551040 0.000000
479.116880 142.464710 9.439047 0.000000
475.887910 142.129100 9.429715 0.000000
475.635620 142.319110 9.416968 0.000000
471.023800 141.800030 9.383180 0.000000
495.393490 143.514510 9.681828 0.000000
495.096770 143.296570 9.672715 0.000000
485.224880 142.433850 9.493739 0.000000
482.310030 142.318920 9.461916 0.000000
481.918120 142.527630 9.446699 0.000000
479.518740 142.148650 9.452389 0.000000
476.267580 141.853030 9.448401 0.000000
471.736940 141.355700 9.424677 0.000000
471.264070 141.505580 9.390901 0.000000
494.703160 143.059950 9.665756 0.000000
486.321500 142.112090 9.523760 0.000000
485.954100 142.208450 9.513953 0.000000
485.497500 142.344300 9.501530 0.000000
483.076170 141.895940 9.483403 0.000000
482.786800 142.049010 9.475531 0.000000
480.257510 141.649550 9.479012 0.000000
479.938200 141.857600 9.467589 0.000000
476.639710 141.578540 9.465320 0.000000
472.184420 141.203160 9.455591 0.000000
494.575500 142.697630 9.617591 0.000000
494.241790 142.520920 9.610933 0.000000
493.971680 142.432770 9.612738 0.000000
493.610230 142.323560 9.614651 0.000000
493.338040 142.248490 9.615828 0.000000
487.893950 141.819180 9.559135 0.000000
487.522520 141.870680 9.551472 0.000000
487.151790 141.932750 9.543367 0.000000
486.782140 142.006160 9.534960 0.000000
486.505400 142.067200 9.528254 0.000000
483.877200 141.554000 9.509234 0.000000
483.576080 141.677600 9.499877 0.000000
483.275450 141.805880 9.490033 0.000000
480.821530 141.353030 9.503118 0.000000
480.476170 141.520360 9.487369 0.000000
476.982420 141.089830 9.462473 0.000000
472.650820 140.641430 9.467156 0.000000
493.065220 142.179200 9.616559 0.000000
492.700840 142.093730 9.616815 0.000000
492.336850 142.011800 9.615359 0.000000
491.971590 141.938830 9.613195 0.000000
491.604800 141.876400 9.610606 0.000000
491.236660 141.824200 9.607541 0.000000
490.867400 141.782390 9.604026 0.000000
490.404480 141.745150 9.598954 0.000000
489.940490 141.723220 9.593256 0.000000
489.568700 141.717670 9.588147 0.000000
489.196560 141.721890 9.582477 0.000000
488.824250 141.736680 9.576381 0.000000
488.451970 141.761700 9.569797 0.000000
488.172820 141.787060 9.564588 0.000000
485.597660 141.261120 9.597022 0.000000
485.281650 141.308820 9.582705 0.000000
484.856350 141.377940 9.562262 0.000000
484.420500 141.442980 9.538196 0.000000
484.089780 141.496840 9.519136 0.000000
481.244720 141.091140 9.514712 0.000000
477.319550 140.793990 9.471417 0.000000
472.907810 140.379840 9.475051 0.000000
495.621580 141.777620 9.669868 0.000000
495.225560 141.624480 9.673150 0.000000
487.847630 140.989790 9.671221 0.000000
487.543150 141.007370 9.662123 0.000000
487.136870 141.044010 9.650168 0.000000
486.729920 141.093250 9.637906 0.000000
486.424800 141.139140 9.628685 0.000000
486.117550 141.186630 9.618211 0.000000
485.806210 141.229710 9.605743 0.000000
481.991270 140.655060 9.532509 0.000000
481.667970 140.835330 9.524680 0.000000
477.875890 140.301880 9.483246 0.000000
477.652560 140.497060 9.478768 0.000000
472.773650 139.831830 9.435447 0.000000
494.817470 141.504780 9.679502 0.000000
494.393190 141.434050 9.691367 0.000000
493.973880 141.370060 9.701716 0.000000
493.556340 141.320240 9.711830 0.000000
493.140990 141.284240 9.721693 0.000000
492.832640 141.260270 9.728069 0.000000
492.527620 141.237340 9.733149 0.000000
492.127260 141.195040 9.736203 0.000000
491.733000 141.135390 9.734358 0.000000
491.338040 141.085510 9.731872 0.000000
490.942140 141.048160 9.729182 0.000000
490.446440 141.020030 9.725571 0.000000
489.950500 141.011320 9.721847 0.000000
489.553920 141.012740 9.717681 0.000000
489.155730 140.990480 9.707691 0.000000
488.755190 140.975720 9.696679 0.000000
488.352780 140.974180 9.685515 0.000000
488.049870 140.980390 9.676893 0.000000
482.868440 140.213420 9.552597 0.000000
482.537080 140.372630 9.545128 0.000000
482.208650 140.539490 9.537639 0.000000
478.333040 139.925420 9.492524 0.000000
478.103000 140.111560 9.487873 0.000000
473.002930 139.543120 9.438544 0.000000
483.675420 139.921600 9.576668 0.000000
483.324280 140.032550 9.565188 0.000000
483.090970 140.111950 9.557488 0.000000
478.807710 139.572880 9.502991 0.000000
478.497710 139.666430 9.485107 0.000000
473.306430 139.313640 9.450251 0.000000
495.701630 140.427250 9.776599 0.000000
484.969390 139.588820 9.617764 0.000000
484.615910 139.668460 9.606765 0.000000
484.145290 139.787700 9.591911 0.000000
479.282930 139.225600 9.511688 0.000000
473.237850 138.782290 9.415137 0.000000
495.377470 140.296540 9.775880 0.000000
494.941960 140.133450 9.774635 0.000000
494.501950 139.985930 9.773342 0.000000
494.170380 139.882310 9.771969 0.000000
486.500370 139.341740 9.663135 0.000000
486.147460 139.384450 9.652952 0.000000
485.794250 139.436650 9.642615 0.000000
485.322850 139.518050 9.628492 0.000000
480.066590 138.808690 9.535157 0.000000
479.774080 138.902770 9.521524 0.000000
479.527250 139.061920 9.516589 0.000000
493.947720 139.819560 9.771190 0.000000
493.724330 139.760300 9.770343 0.000000
493.388490 139.676680 9.768697 0.000000
492.936860 139.583820 9.767216 0.000000
492.483730 139.504350 9.765373 0.000000
492.143250 139.452560 9.763697 0.000000
491.801820 139.410680 9.762008 0.000000
491.345980 139.366500 9.759537 0.000000
491.003780 139.342420 9.757562 0.000000
490.661500 139.326660 9.755373 0.000000
490.205290 139.317290 9.752247 0.000000
489.749480 139.322010 9.748892 0.000000
489.292880 139.299000 9.739757 0.000000
488.948490 139.274580 9.730616 0.000000
488.602080 139.257950 9.721152 0.000000
488.137880 139.247160 9.708220 0.000000
487.788880 139.252940 9.698998 0.000000
487.438390 139.265870 9.689337 0.000000
486.970060 139.296720 9.676414 0.000000
480.324040 138.669450 9.541557 0.000000
480.433380 138.308650 9.516388 0.000000
474.518040 161.027390 9.786858 0.000000
474.203060 160.850630 9.766708 0.000000
481.361150 160.949650 9.813775 0.000000
478.156460 160.832000 9.786723 0.000000
473.920990 160.649110 9.749986 0.000000
484.171630 161.014160 9.840688 0.000000
481.194820 160.819320 9.808539 0.000000
474.262330 160.129070 9.800572 0.000000
491.692260 160.997760 9.948222 0.000000
491.310000 161.050920 9.948285 0.000000
488.480830 161.059020 9.923441 0.000000
488.100070 161.010640 9.916506 0.000000
487.720580 160.947360 9.909040 0.000000
487.267060 160.854000 9.899361 0.000000
486.891170 160.761280 9.890764 0.000000
486.517700 160.653880 9.881586 0.000000
486.220640 160.558980 9.873937 0.000000
483.692470 160.604640 9.844937 0.000000
483.311980 160.365710 9.834018 0.000000
480.988650 160.297650 9.833207 0.000000
478.201200 160.195910 9.830749 0.000000
477.922970 159.940310 9.817478 0.000000
474.038670 159.900740 9.789147 0.000000
473.816350 159.667850 9.777545 0.000000
495.344240 160.932450 9.973693 0.000000
492.908570 160.736880 9.944010 0.000000
492.530060 160.834050 9.946021 0.000000
492.149900 160.916370 9.947394 0.000000
486.072850 160.507830 9.869967 0.000000
485.778990 160.398100 9.861755 0.000000
485.342190 160.217820 9.848882 0.000000
485.053860 160.087200 9.839915 0.000000
482.938510 160.111420 9.822466 0.000000
482.644070 159.898850 9.812827 0.000000
480.750580 160.094120 9.824665 0.000000
480.508940 159.889910 9.814587 0.000000
480.272980 159.677810 9.804844 0.000000
477.737520 159.766400 9.808216 0.000000
473.596100 159.430020 9.765840 0.000000
473.376530 159.187850 9.753873 0.000000
495.734380 160.711410 9.971853 0.000000
494.106020 160.335070 9.933334 0.000000
493.808900 160.448300 9.936612 0.000000
493.360410 160.602690 9.940758 0.000000
484.910680 160.018360 9.835259 0.000000
482.498600 159.788970 9.807798 0.000000
480.117460 159.532900 9.798194 0.000000
479.886960 159.310230 9.787990 0.000000
477.372220 159.407200 9.789495 0.000000
477.101260 159.128630 9.774954 0.000000
473.158020 158.941190 9.741674 0.000000
479.659390 159.082240 9.777557 0.000000
476.833530 158.842800 9.760170 0.000000
476.655910 158.648040 9.749973 0.000000
473.092830 158.632640 9.745090 0.000000
479.160190 158.637850 10.020099 0.000000
472.511410 158.172490 9.703913 0.000000
473.152770 158.608200 10.141120 0.000000
479.139560 158.647090 10.425076 0.000000
473.125700 158.289140 10.146063 0.000000
479.188780 158.866550 10.828128 0.000000
473.165650 158.601440 10.530338 0.000000
479.136720 158.645810 10.830400 0.000000
473.111850 158.292220 10.531915 0.000000
472.692960 140.679240 10.832014 0.000000
471.136230 138.124860 10.752653 0.000000
480.259220 159.941240 11.382304 0.000000
479.924770 159.661800 11.378435 0.000000
479.979280 159.362470 11.116520 0.000000
479.188660 159.119290 11.369981 0.000000
473.202820 158.585560 10.918842 0.000000
479.399170 158.734120 11.238875 0.000000
479.089020 158.672060 11.098201 0.000000
473.111110 158.290660 10.917918 0.000000
481.018190 156.738690 11.387706 0.000000
470.845550 140.363820 11.263053 0.000000
471.820800 139.619170 11.272964 0.000000
472.117650 139.361010 11.275953 0.000000
479.526760 160.818940 11.664516 0.000000
479.489290 160.552800 11.660850 0.000000
480.378420 160.117610 11.383753 0.000000
479.391080 160.196720 11.656409 0.000000
479.376860 159.721220 11.512925 0.000000
478.501220 159.838380 11.363166 0.000000
473.356110 158.852780 11.691176 0.000000
479.243710 159.082020 11.642559 0.000000
478.860350 158.805240 11.366147 0.000000
473.258760 158.562620 11.305240 0.000000
473.005190 158.325610 11.496511 0.000000
479.488490 158.676190 11.635626 0.000000
479.061130 158.437390 11.367998 0.000000
480.388120 157.900540 11.619142 0.000000
480.542020 157.384670 11.611876 0.000000
479.773220 157.581380 11.374960 0.000000
475.489320 156.887180 11.654299 0.000000
480.533570 157.081590 11.608603 0.000000
479.806640 157.022550 11.614355 0.000000
479.719760 156.642910 11.611429 0.000000
479.381470 156.261960 11.611180 0.000000
472.223660 141.663620 11.279132 0.000000
471.388790 140.254030 11.268844 0.000000
494.893250 139.246490 11.830216 0.000000
479.204650 160.777040 11.960300 0.000000
479.159060 160.225010 11.946199 0.000000
479.107730 159.978900 11.940910 0.000000
479.026730 159.757540 11.937178 0.000000
477.995030 159.877490 11.966523 0.000000
479.259120 159.330670 11.920477 0.000000
480.678680 159.218580 12.130910 0.000000
480.387790 159.061420 12.136846 0.000000
478.731320 158.877410 11.923373 0.000000
473.434390 158.492920 12.067698 0.000000
479.567410 158.624730 12.025546 0.000000
479.044740 158.442900 11.905042 0.000000
479.119780 157.802690 11.889161 0.000000
475.558590 157.414980 11.986526 0.000000
479.518460 157.264830 11.866976 0.000000
479.337950 156.591060 11.859768 0.000000
470.786320 142.534130 11.730394 0.000000
471.894810 142.303390 11.723324 0.000000
471.410310 142.447910 11.725930 0.000000
472.569240 141.877230 11.722272 0.000000
471.007570 141.367860 11.739844 0.000000
471.379180 139.785200 11.754148 0.000000
470.918550 139.946810 11.755673 0.000000
471.835450 139.632860 11.752697 0.000000
472.210330 139.194490 11.755432 0.000000
494.401860 139.151210 12.129142 0.000000
494.683500 139.095490 12.138622 0.000000
494.607640 137.756970 12.190655 0.000000
494.376160 137.596830 12.191549 0.000000
480.847930 159.719500 12.397875 0.000000
480.595180 159.663450 12.409153 0.000000
479.365360 159.388780 12.330967 0.000000
474.791560 159.206420 12.399825 0.000000
472.830350 159.056580 12.492826 0.000000
478.683650 158.903530 12.206223 0.000000
478.098140 158.844650 12.231220 0.000000
473.580960 158.436050 12.439908 0.000000
472.848210 158.376820 12.475669 0.000000
471.987580 158.337720 12.109118 0.000000
471.576630 158.124980 12.118648 0.000000
478.944790 158.249190 12.442040 0.000000
478.580630 158.199070 12.187948 0.000000
477.870060 158.050080 12.505980 0.000000
480.685790 157.935030 12.315100 0.000000
478.776210 157.855590 12.168113 0.000000
480.929840 157.473080 12.278345 0.000000
480.451230 157.427830 12.540420 0.000000
480.825930 157.025670 12.265883 0.000000
480.505040 157.191590 12.523433 0.000000
478.404750 157.083740 12.164503 0.000000
480.720520 156.882110 12.267105 0.000000
478.715700 156.729060 12.399952 0.000000
471.928340 142.324630 12.169398 0.000000
471.511690 141.666290 12.194399 0.000000
471.671230 141.331480 12.197366 0.000000
472.262180 139.939440 12.214480 0.000000
471.411160 138.846860 12.262354 0.000000
471.846010 138.177230 12.269161 0.000000
494.283050 138.722690 12.458275 0.000000
493.702760 138.917310 12.428594 0.000000
495.385960 137.970110 12.540606 0.000000
494.221100 138.080280 12.495862 0.000000
495.113340 137.928890 12.533760 0.000000
494.858580 137.842830 12.530537 0.000000
480.961910 160.428700 12.958774 0.000000
480.369930 160.111560 12.714630 0.000000
479.830750 160.269880 12.765657 0.000000
480.298650 159.894670 12.971695 0.000000
479.557890 159.649920 12.745062 0.000000
479.645720 159.324310 12.717383 0.000000
479.314880 159.287030 12.741466 0.000000
473.606450 159.075640 12.837705 0.000000
478.439940 159.043240 12.798743 0.000000
473.674990 158.398900 12.810513 0.000000
471.344880 158.551760 12.556353 0.000000
479.776890 158.490230 12.785075 0.000000
478.887180 158.526550 12.732447 0.000000
471.063900 157.928850 12.557979 0.000000
479.921170 157.714520 12.848001 0.000000
478.779170 157.850690 12.706288 0.000000
475.672760 157.371290 12.636369 0.000000
471.383940 157.143110 12.526730 0.000000
481.421690 157.580050 12.903031 0.000000
480.244420 157.326000 12.789602 0.000000
479.407620 157.535100 12.891220 0.000000
478.816350 157.249150 12.674365 0.000000
478.667110 156.858760 12.670679 0.000000
478.371640 156.522510 12.684119 0.000000
471.681400 141.768400 12.645650 0.000000
471.073240 141.845120 12.671153 0.000000
471.248750 140.628490 12.703075 0.000000
471.618900 140.414750 12.694153 0.000000
472.341550 139.999040 12.677950 0.000000
495.446010 137.806840 12.895862 0.000000
494.307220 137.333560 12.889563 0.000000
493.935700 137.133360 12.893083 0.000000
493.572720 136.875290 12.902782 0.000000
479.749760 160.918050 13.108080 0.000000
481.085080 160.595460 13.228853 0.000000
479.728030 160.638600 13.086119 0.000000
480.917760 160.327330 13.217711 0.000000
480.427490 160.335880 13.269809 0.000000
479.983460 160.142960 13.298550 0.000000
479.660490 160.117980 13.188972 0.000000
477.625610 160.103580 13.245237 0.000000
480.476040 160.018720 13.232948 0.000000
479.615630 159.876460 13.034020 0.000000
479.297550 159.296300 13.020439 0.000000
475.481900 159.189970 13.060220 0.000000
480.620610 159.129750 13.131906 0.000000
478.451540 158.771450 13.069481 0.000000
478.373050 158.554500 13.351151 0.000000
478.655060 158.152980 13.286555 0.000000
478.319000 157.649510 13.153305 0.000000
478.538150 157.254820 12.969516 0.000000
475.713320 157.081390 12.950474 0.000000
479.904170 157.177540 13.060266 0.000000
478.452030 156.944700 12.962980 0.000000
475.634770 156.834080 13.276113 0.000000
479.453340 156.642680 13.084133 0.000000
478.391850 156.626280 13.087414 0.000000
478.055730 156.521290 13.125731 0.000000
475.873290 156.493990 13.235284 0.000000
471.131680 141.007520 13.173519 0.000000
472.426480 140.511610 13.115621 0.000000
470.870390 139.924350 13.239791 0.000000
472.432040 139.606340 13.160357 0.000000
495.713620 138.546520 13.513897 0.000000
495.545780 137.541760 13.272432 0.000000
495.157260 137.389890 13.268701 0.000000
494.791990 137.167110 13.274394 0.000000
494.549530 137.005650 13.280285 0.000000
494.310090 136.823720 13.288965 0.000000
493.944520 136.545010 13.303412 0.000000
493.572300 136.259960 13.319358 0.000000
479.091920 159.977780 13.382812 0.000000
477.225620 159.755140 13.584312 0.000000
477.693080 159.199070 13.483859 0.000000
477.484590 157.712230 13.406586 0.000000
475.146210 157.270230 13.350080 0.000000
472.430540 157.190430 13.658951 0.000000
472.515840 156.844540 13.636909 0.000000
472.446560 156.542020 13.635046 0.000000
472.091740 155.981380 13.660190 0.000000
470.906430 142.184660 13.608826 0.000000
470.846250 141.722180 13.637998 0.000000
471.398770 141.607710 13.597729 0.000000
471.621220 141.308940 13.595793 0.000000
471.607210 140.861630 13.622423 0.000000
495.693880 138.583600 13.842762 0.000000
495.540310 138.272160 13.705281 0.000000
472.792760 158.058260 14.048706 0.000000
472.997340 157.347270 13.987307 0.000000
474.481170 156.618230 13.752564 0.000000
474.459990 156.196690 13.738617 0.000000
474.407170 155.786240 13.730945 0.000000
474.379180 155.512370 13.725794 0.000000
471.050510 142.264860 14.061817 0.000000
471.755920 141.819670 14.017014 0.000000
472.202330 141.241850 14.010845 0.000000
471.276000 140.194760 13.688320 0.000000
471.043490 139.568240 13.744612 0.000000
471.559600 137.961940 13.807715 0.000000
471.427120 141.193240 14.092317 0.000000
472.086910 140.285350 14.090702 0.000000
471.423890 140.295260 14.155159 0.000000
472.188350 139.899860 14.109541 0.000000
472.421910 139.605610 14.109635 0.000000
471.311860 141.989320 14.521601 0.000000
471.931670 141.503650 14.483522 0.000000
472.227480 140.384600 14.541059 0.000000
472.498840 140.123540 14.532531 0.000000
471.088440 140.077350 14.700093 0.000000
471.829710 139.172900 14.693463 0.000000
479.305850 161.022110 9.800410 0.000000
479.049900 160.825790 9.791691 0.000000
475.884220 160.734740 9.770364 0.000000
485.282840 160.966290 9.866380 0.000000
484.981600 160.866390 9.864261 0.000000
481.990660 160.993380 9.818759 0.000000
481.830230 160.903270 9.814453 0.000000
484.757690 160.786560 9.862385 0.000000
484.529300 160.718400 9.857089 0.000000
484.149930 160.596300 9.847272 0.000000
483.703310 160.422450 9.836563 0.000000
