# .PCD v0.7 - Point Cloud Data file format
VERSION 0.7
FIELDS x y z intensity
SIZE 4 4 4 4
TYPE F F F F
COUNT 1 1 1 1
WIDTH 1166
HEIGHT 1
VIEWPOINT 0 0 0 1 0 0 0
POINTS 1166
DATA ascii
511.009640 200.351530 11.531418 0.000000
495.806460 199.059460 11.391117 0.000000
500.309330 199.286500 11.422914 0.000000
496.831330 198.884520 11.398918 0.000000
498.821230 198.520950 11.415148 0.000000
497.836550 198.703720 11.406940 0.000000
499.749510 198.429930 11.422762 0.000000
503.552370 197.303090 11.460870 0.000000
502.313020 196.110520 11.455463 0.000000
503.458220 195.108060 11.470332 0.000000
496.915470 187.351070 11.470285 0.000000
498.181640 186.519840 12.291923 0.000000
497.470370 187.730150 13.152413 0.000000
496.649600 187.785630 13.168728 0.000000
498.347080 187.542630 13.131804 0.000000
500.247960 186.745440 13.871469 0.000000
499.626530 186.564380 13.877674 0.000000
498.835690 186.674010 13.904137 0.000000
499.560520 186.683260 14.687698 0.000000
498.598420 188.457670 15.697232 0.000000
499.942200 187.326490 15.533546 0.000000
498.850830 189.424850 16.642704 0.000000
520.655400 203.644070 11.694584 0.000000
519.763670 203.421300 11.679392 0.000000
518.882750 203.198790 11.664717 0.000000
518.010190 202.946410 11.650609 0.000000
517.149780 202.726960 11.636924 0.000000
516.298400 202.508540 11.623709 0.000000
510.549530 200.946780 11.543440 0.000000
509.753850 200.712940 11.533628 0.000000
508.962980 200.480870 11.524183 0.000000
500.668330 199.934230 11.436234 0.000000
496.279450 199.654770 11.401884 0.000000
508.179630 200.228610 11.515211 0.000000
507.403110 199.963820 11.506675 0.000000
499.939240 199.484710 11.431697 0.000000
498.253300 199.254780 11.418726 0.000000
497.276550 199.454990 11.410220 0.000000
506.630980 199.700930 11.498492 0.000000
505.862760 199.439700 11.490655 0.000000
499.193700 199.102430 11.427044 0.000000
505.097990 199.179900 11.483156 0.000000
504.337980 198.913160 11.476042 0.000000
503.679380 198.263720 11.471739 0.000000
502.499270 196.670070 11.466553 0.000000
503.489010 195.977370 11.478806 0.000000
498.246920 186.579900 12.274742 0.000000
496.580020 186.955510 13.105927 0.000000
499.836790 186.155140 16.128109 0.000000
496.010380 187.957090 16.539328 0.000000
520.597110 204.336490 11.717360 0.000000
519.683780 204.108540 11.701317 0.000000
514.426570 202.724470 11.615934 0.000000
513.582640 202.503680 11.603347 0.000000
512.746580 202.265840 11.591248 0.000000
511.918430 202.020720 11.579607 0.000000
511.097470 201.777650 11.568383 0.000000
510.281620 201.556290 11.557489 0.000000
509.473110 201.315480 11.547068 0.000000
508.673710 201.044800 11.537167 0.000000
507.881230 200.769100 11.527684 0.000000
500.323390 200.464940 11.444924 0.000000
507.094450 200.495820 11.518579 0.000000
506.312770 200.224760 11.509842 0.000000
498.800630 199.718080 11.433901 0.000000
505.535680 199.955700 11.501463 0.000000
499.750610 199.483080 11.443228 0.000000
504.762600 199.688420 11.493435 0.000000
503.993130 199.422620 11.485749 0.000000
503.557980 197.770370 11.486495 0.000000
502.058320 197.337310 11.472730 0.000000
503.440730 195.093110 11.494284 0.000000
499.967740 186.495060 13.799823 0.000000
496.656800 186.188610 14.654130 0.000000
499.737820 187.007390 15.400686 0.000000
517.837590 204.340970 11.698896 0.000000
516.937190 204.108760 11.683646 0.000000
516.045410 203.845570 11.668948 0.000000
515.166320 203.616650 11.654720 0.000000
514.296630 203.388850 11.640974 0.000000
513.435670 203.162380 11.627693 0.000000
512.583130 202.911830 11.614923 0.000000
511.739140 202.659150 11.602612 0.000000
510.903170 202.408570 11.590742 0.000000
510.074580 202.159130 11.579297 0.000000
509.253970 201.897430 11.568312 0.000000
508.442540 201.612120 11.557827 0.000000
507.638030 201.329560 11.547744 0.000000
500.914550 200.975110 11.470413 0.000000
506.839900 201.049650 11.538055 0.000000
506.047550 200.772230 11.528749 0.000000
505.260410 200.497100 11.519814 0.000000
504.477970 200.224060 11.511241 0.000000
503.746730 199.719620 11.504163 0.000000
502.543850 197.778750 11.496275 0.000000
503.451290 197.293850 11.507318 0.000000
499.001680 189.670000 15.661917 0.000000
499.110050 189.381130 16.465776 0.000000
520.634280 205.834060 11.777567 0.000000
519.667360 205.558350 11.759831 0.000000
518.714540 205.278410 11.742714 0.000000
517.780520 205.039730 11.726209 0.000000
516.858640 204.801070 11.710262 0.000000
515.948300 204.562840 11.694855 0.000000
515.046690 204.292940 11.679989 0.000000
514.158080 204.058150 11.665617 0.000000
513.279050 203.822970 11.651734 0.000000
512.408750 203.560180 11.638369 0.000000
511.547910 203.299410 11.625477 0.000000
510.696010 203.035830 11.613053 0.000000
509.854030 202.737410 11.601162 0.000000
509.021090 202.442050 11.589719 0.000000
508.194490 202.174900 11.578640 0.000000
507.377320 201.883620 11.568052 0.000000
506.567260 201.595150 11.557876 0.000000
505.763760 201.309490 11.548095 0.000000
504.966190 201.026380 11.538700 0.000000
504.173980 200.745670 11.529684 0.000000
496.751650 187.505310 11.494820 0.000000
497.865300 186.534790 12.276595 0.000000
497.285030 186.322370 12.274412 0.000000
496.394470 186.744630 13.863052 0.000000
496.428220 186.659410 15.441023 0.000000
497.107570 187.486070 11.500431 0.000000
520.695980 206.470950 11.799861 0.000000
519.716980 206.261800 11.781314 0.000000
518.740840 205.985370 11.763288 0.000000
517.780520 205.716960 11.745894 0.000000
516.836730 205.473310 11.729113 0.000000
515.905330 205.229740 11.712897 0.000000
514.985600 204.986590 11.697228 0.000000
514.074770 204.711260 11.682100 0.000000
513.177000 204.466290 11.667485 0.000000
512.288510 204.197220 11.653393 0.000000
511.410160 203.926330 11.639799 0.000000
510.541900 203.617430 11.626747 0.000000
509.684080 203.311610 11.614182 0.000000
508.836060 203.008910 11.602086 0.000000
495.851010 202.022130 11.451687 0.000000
507.997190 202.709300 11.590445 0.000000
507.164790 202.438420 11.579178 0.000000
496.842930 201.761280 11.461356 0.000000
497.801210 201.552540 11.470924 0.000000
504.717350 201.560790 11.548079 0.000000
497.216370 187.211070 12.285275 0.000000
495.906950 187.067090 12.285282 0.000000
498.156130 186.530210 12.272746 0.000000
498.769040 188.435930 13.103338 0.000000
498.119140 188.358830 13.104815 0.000000
497.625400 187.856510 13.884514 0.000000
498.622160 186.994980 13.818552 0.000000
496.764530 186.659910 13.830990 0.000000
499.484130 186.394350 13.770853 0.000000
499.396030 186.628200 14.544044 0.000000
498.702700 186.764830 14.569991 0.000000
496.968350 189.501910 15.665524 0.000000
496.124570 189.795290 16.578318 0.000000
499.125270 189.301650 16.404528 0.000000
520.116330 186.205140 11.112137 0.000000
519.461980 186.076350 11.104922 0.000000
496.729280 187.512340 11.506708 0.000000
519.777590 206.938690 11.812571 0.000000
518.788270 206.725810 11.793723 0.000000
517.801700 206.443680 11.775366 0.000000
516.832280 206.177780 11.757664 0.000000
515.880370 205.944930 11.740599 0.000000
514.938900 205.696560 11.724086 0.000000
514.009340 205.448640 11.708127 0.000000
513.088320 205.159090 11.692698 0.000000
512.179990 204.881360 11.677812 0.000000
511.281650 204.561080 11.663466 0.000000
510.395230 204.243770 11.649649 0.000000
496.508330 202.478130 11.475536 0.000000
500.123780 202.306430 11.513468 0.000000
498.416990 202.044830 11.495400 0.000000
497.470790 202.261170 11.485386 0.000000
499.373780 201.710800 11.506027 0.000000
502.341830 199.452120 11.542562 0.000000
497.286410 187.803300 12.298288 0.000000
497.204070 186.289280 12.270927 0.000000
499.001860 188.622830 13.109173 0.000000
497.759610 188.338150 13.104407 0.000000
497.886410 187.962140 13.877623 0.000000
497.692690 186.683590 13.804396 0.000000
499.696010 186.393360 13.761263 0.000000
498.965520 186.694020 14.544553 0.000000
498.453670 186.339340 14.526142 0.000000
499.453090 187.125470 15.336092 0.000000
500.133210 186.958820 15.303483 0.000000
496.689700 189.342900 15.636150 0.000000
496.026310 189.234770 15.646166 0.000000
497.479220 189.080660 15.586639 0.000000
499.049680 186.405870 16.028973 0.000000
496.292450 190.391340 16.613161 0.000000
495.934110 189.455140 16.514334 0.000000
497.460970 189.114810 16.415043 0.000000
498.912660 188.821170 16.331068 0.000000
520.477230 186.534650 11.128530 0.000000
519.797670 186.411670 11.120799 0.000000
519.119690 186.255070 11.113835 0.000000
518.463130 186.127460 11.106561 0.000000
497.047030 187.362820 11.524741 0.000000
519.855830 207.633240 11.849753 0.000000
518.839360 207.404080 11.830023 0.000000
517.839660 207.188050 11.810970 0.000000
516.842350 206.898940 11.792365 0.000000
515.862670 206.627750 11.774435 0.000000
514.901610 206.397060 11.757180 0.000000
513.951840 206.159760 11.740481 0.000000
496.171260 203.185810 11.497536 0.000000
497.138180 202.961040 11.507537 0.000000
505.050780 202.998410 11.602324 0.000000
500.711210 202.926710 11.547051 0.000000
498.099090 202.691820 11.517851 0.000000
504.216490 202.691770 11.591172 0.000000
499.938170 202.334090 11.538440 0.000000
499.057860 202.350540 11.528532 0.000000
503.480930 201.578890 11.581976 0.000000
502.007870 200.093930 11.564183 0.000000
502.857270 199.884160 11.574795 0.000000
495.826930 187.067290 12.293732 0.000000
498.485140 186.897420 12.292768 0.000000
497.975130 186.518890 12.284430 0.000000
498.001130 188.417370 13.111929 0.000000
500.400540 186.661220 13.774570 0.000000
497.034850 189.300630 13.968910 0.000000
499.782620 186.658070 14.524834 0.000000
499.175050 186.624600 14.530935 0.000000
500.031040 188.035690 15.413399 0.000000
499.691100 186.963390 15.307334 0.000000
498.571930 188.616900 16.303917 0.000000
497.908910 188.624820 16.324326 0.000000
496.927060 189.564010 16.471912 0.000000
499.087740 189.114640 16.352562 0.000000
520.078860 186.389160 11.120339 0.000000
519.386110 186.253780 11.113478 0.000000
518.716000 186.146220 11.106329 0.000000
518.819580 207.461180 11.836263 0.000000
517.811650 207.267460 11.817837 0.000000
516.819950 207.091320 11.800062 0.000000
495.827000 204.138930 11.517023 0.000000
496.821350 203.821840 11.526464 0.000000
507.461670 204.336530 11.651166 0.000000
506.587130 204.047160 11.639093 0.000000
500.481570 203.484410 11.564042 0.000000
497.793700 203.521090 11.536028 0.000000
505.721830 203.760500 11.627481 0.000000
504.865080 203.476560 11.616313 0.000000
498.769650 203.106930 11.546022 0.000000
504.014370 203.219090 11.605553 0.000000
499.723720 202.700070 11.556120 0.000000
501.718690 200.773500 11.578603 0.000000
502.577760 200.529170 11.588577 0.000000
503.438690 200.140110 11.598916 0.000000
519.850650 207.696270 11.855460 0.000000
497.346370 187.233890 12.308291 0.000000
496.733580 187.140440 12.306000 0.000000
496.050900 187.234070 12.307799 0.000000
498.183960 186.553820 12.296016 0.000000
497.827270 187.722350 13.864342 0.000000
500.026730 186.468020 13.767559 0.000000
499.440950 186.397250 13.767119 0.000000
499.381410 186.603450 14.523382 0.000000
498.192020 188.667330 15.509094 0.000000
497.764920 187.892550 15.437557 0.000000
499.221800 189.769810 15.606085 0.000000
496.704470 189.201860 15.598885 0.000000
498.810730 188.761980 16.305355 0.000000
498.186980 188.662080 16.308544 0.000000
520.417300 186.399660 11.119249 0.000000
519.709470 186.288420 11.112803 0.000000
519.014650 186.175770 11.106550 0.000000
496.908290 187.376040 11.570594 0.000000
517.846130 207.609340 11.832446 0.000000
511.960270 206.449580 11.739709 0.000000
496.431820 205.126650 11.562844 0.000000
510.073330 205.878190 11.712724 0.000000
509.149140 205.614180 11.700029 0.000000
508.235630 205.351720 11.687824 0.000000
497.449770 204.652080 11.571332 0.000000
507.332060 205.091000 11.676093 0.000000
506.437960 204.832180 11.664824 0.000000
500.224000 204.332380 11.596479 0.000000
498.443150 204.186780 11.579954 0.000000
505.552550 204.575350 11.654002 0.000000
504.675230 204.320570 11.643616 0.000000
501.132780 204.220210 11.605393 0.000000
499.413210 203.730730 11.588709 0.000000
503.816250 203.887940 11.633712 0.000000
502.284850 201.481000 11.616437 0.000000
503.288180 199.376220 11.626433 0.000000
496.815800 187.673220 12.342145 0.000000
499.097840 188.752460 13.151600 0.000000
500.161070 186.627180 13.794359 0.000000
499.609950 186.410960 13.783611 0.000000
498.424930 188.804990 15.530302 0.000000
500.083010 186.951780 15.306093 0.000000
499.016880 186.315660 15.996527 0.000000
499.017150 189.006160 16.341194 0.000000
497.767060 188.820160 16.346447 0.000000
520.108830 186.450520 11.114038 0.000000
519.382930 186.330110 11.108251 0.000000
518.681950 186.236050 11.102197 0.000000
497.106540 187.409330 11.591702 0.000000
499.236720 186.086560 11.605130 0.000000
513.942630 207.874690 11.792309 0.000000
496.063900 206.416730 11.592760 0.000000
511.964970 207.416500 11.763697 0.000000
510.987920 207.121110 11.750046 0.000000
510.024480 206.826870 11.736938 0.000000
509.074160 206.536150 11.724358 0.000000
497.100710 205.892210 11.600388 0.000000
508.138340 206.297880 11.712363 0.000000
507.212310 206.060730 11.700841 0.000000
498.111600 205.378980 11.608170 0.000000
506.295350 205.824830 11.689776 0.000000
505.386930 205.590380 11.679161 0.000000
504.486390 205.357480 11.668980 0.000000
500.882970 205.146360 11.632342 0.000000
503.598970 204.990780 11.659161 0.000000
500.014220 204.796920 11.624096 0.000000
499.097870 204.876860 11.616105 0.000000
501.989170 202.583420 11.640736 0.000000
518.992490 208.443410 11.871469 0.000000
497.128720 187.305600 12.350296 0.000000
495.910980 187.148700 12.347226 0.000000
497.917880 186.614530 12.336176 0.000000
500.293030 186.667940 13.807633 0.000000
499.738430 186.459750 13.796121 0.000000
499.695920 186.658840 14.545950 0.000000
497.323520 189.007390 15.575743 0.000000
500.043790 188.083040 15.436000 0.000000
499.621120 187.031190 15.326704 0.000000
499.663640 186.772050 16.043724 0.000000
499.172520 186.247450 15.984385 0.000000
496.548650 186.301040 10.908270 0.000000
495.910920 186.444950 10.898154 0.000000
501.238280 186.331020 10.961912 0.000000
500.654570 186.394530 10.953955 0.000000
500.069210 186.435460 10.946407 0.000000
497.170650 186.185670 10.917658 0.000000
520.084960 187.577550 11.156034 0.000000
519.303960 187.453770 11.149364 0.000000
518.551820 187.357910 11.142495 0.000000
516.358640 187.012630 11.123722 0.000000
515.656490 186.901370 11.117724 0.000000
514.975460 186.815890 11.111481 0.000000
514.295530 186.699600 11.105837 0.000000
513.634580 186.608470 11.099932 0.000000
512.978880 186.500240 11.094414 0.000000
512.325380 186.361880 11.089497 0.000000
511.682370 186.222500 11.084719 0.000000
511.049440 186.082570 11.080069 0.000000
496.915830 187.411620 11.646646 0.000000
504.294220 208.188950 11.774270 0.000000
497.623570 207.866790 11.703872 0.000000
501.477330 207.092940 11.739738 0.000000
500.530300 207.243620 11.730279 0.000000
498.642360 207.247770 11.711692 0.000000
499.628230 206.729160 11.719827 0.000000
502.474730 204.753680 11.744076 0.000000
503.382050 203.294570 11.750194 0.000000
512.416990 211.050000 11.890001 0.000000
511.340090 210.649410 11.873256 0.000000
510.288450 210.305180 11.857404 0.000000
509.253200 209.962420 11.842165 0.000000
508.233490 209.621550 11.827521 0.000000
507.225800 209.238820 11.813297 0.000000
496.573760 208.526520 11.696240 0.000000
506.235600 208.899770 11.799789 0.000000
505.258270 208.542650 11.786761 0.000000
499.459900 186.430150 13.842460 0.000000
498.486390 188.928040 15.587809 0.000000
495.959440 187.106220 10.921343 0.000000
501.349000 187.012560 10.984918 0.000000
500.756650 187.079760 10.976905 0.000000
518.604800 188.039760 11.164536 0.000000
499.044280 186.508070 10.967551 0.000000
517.070920 187.809080 11.151083 0.000000
515.600590 187.589140 11.138166 0.000000
514.883910 187.474240 11.132010 0.000000
513.495120 187.265750 11.119822 0.000000
512.812380 187.143460 11.114188 0.000000
511.465120 186.840580 11.104179 0.000000
510.804440 186.671450 11.099644 0.000000
508.893950 186.192280 11.086347 0.000000
500.161710 187.134480 10.969087 0.000000
497.833340 186.744430 10.949385 0.000000
497.216830 186.864170 10.940145 0.000000
496.592350 186.984830 10.930799 0.000000
517.838130 187.943080 11.157477 0.000000
499.621770 186.578520 10.972912 0.000000
498.442350 186.625690 10.958519 0.000000
516.329470 187.700990 11.144520 0.000000
514.188900 187.385770 11.125625 0.000000
512.135440 187.001280 11.108979 0.000000
510.155090 186.502170 11.095240 0.000000
509.516720 186.333160 11.090958 0.000000
497.124240 187.380660 11.681411 0.000000
499.085690 186.083540 11.693340 0.000000
502.349850 206.407590 11.803229 0.000000
503.263700 205.176060 11.809064 0.000000
506.339200 211.068830 11.869017 0.000000
505.313320 210.682280 11.854608 0.000000
504.302550 210.299380 11.840780 0.000000
497.377930 209.867490 11.764863 0.000000
500.377110 209.209260 11.792290 0.000000
498.425230 209.171690 11.772326 0.000000
501.357760 208.987750 11.801973 0.000000
499.442690 208.520490 11.780034 0.000000
497.141020 187.242420 12.429735 0.000000
496.089540 186.408810 12.405267 0.000000
500.158110 186.803760 13.902605 0.000000
498.764500 188.587250 15.579355 0.000000
500.483920 188.490780 11.018987 0.000000
499.876250 188.202030 11.016642 0.000000
497.426180 188.202970 10.988482 0.000000
519.700680 189.578600 11.222275 0.000000
513.288760 188.545680 11.165199 0.000000
509.686340 187.648760 11.138216 0.000000
508.336980 187.290760 11.128462 0.000000
501.663180 186.554990 11.063609 0.000000
504.557250 186.309080 11.100801 0.000000
496.156520 188.459380 10.969780 0.000000
520.596250 189.730130 11.230129 0.000000
501.098300 188.419070 11.027196 0.000000
498.050750 188.076810 10.997682 0.000000
518.841860 189.457750 11.214349 0.000000
517.998960 189.330520 11.206709 0.000000
517.171880 189.197860 11.199337 0.000000
516.375370 189.094880 11.191840 0.000000
515.578370 188.953030 11.184962 0.000000
499.281040 187.845340 11.015531 0.000000
498.668030 187.970050 11.006487 0.000000
514.809390 188.840880 11.177929 0.000000
514.042480 188.695860 11.171448 0.000000
512.544430 188.380480 11.159302 0.000000
496.899020 187.415770 10.995063 0.000000
511.801270 188.173220 11.154092 0.000000
511.083860 188.001270 11.148611 0.000000
510.379240 187.827150 11.143312 0.000000
509.005710 187.469800 11.133270 0.000000
507.679690 187.112110 11.123780 0.000000
507.038760 186.962910 11.118813 0.000000
506.402310 186.784940 11.114358 0.000000
505.779940 186.634830 11.109618 0.000000
505.162630 186.458920 11.105350 0.000000
503.959470 186.159180 11.096341 0.000000
496.899230 187.350430 11.744847 0.000000
502.272220 210.244290 11.934191 0.000000
503.229100 209.356670 11.940804 0.000000
499.874180 186.134550 16.101173 0.000000
496.334140 189.117980 10.995845 0.000000
501.364320 189.072720 11.053212 0.000000
500.738770 189.148010 11.045028 0.000000
500.110350 189.141910 11.038038 0.000000
497.612120 188.871020 11.013969 0.000000
496.976930 188.984300 11.005104 0.000000
519.970520 190.308320 11.244257 0.000000
519.057500 190.152940 11.236311 0.000000
518.182010 190.028920 11.228315 0.000000
517.322810 189.898410 11.220601 0.000000
499.487790 188.480190 11.040999 0.000000
498.867830 188.608410 11.032080 0.000000
498.242770 188.738980 11.023067 0.000000
516.479800 189.762340 11.213152 0.000000
515.659790 189.637660 11.205791 0.000000
514.833250 189.456880 11.199203 0.000000
514.038020 189.309810 11.192459 0.000000
513.257510 189.159120 11.185934 0.000000
512.471800 188.950590 11.180224 0.000000
511.715120 188.778210 11.174296 0.000000
510.960630 188.565990 11.168994 0.000000
510.232450 188.389740 11.163445 0.000000
509.517460 188.211910 11.158070 0.000000
508.815250 188.032970 11.152854 0.000000
508.125460 187.853490 11.147787 0.000000
507.446840 187.670330 11.142901 0.000000
506.779880 187.487290 11.138144 0.000000
506.129610 187.334370 11.133122 0.000000
505.483920 187.152070 11.128594 0.000000
504.852600 186.998260 11.123799 0.000000
504.226500 186.818180 11.119459 0.000000
501.854610 186.831250 11.092533 0.000000
497.099790 187.316800 11.779140 0.000000
498.924710 186.088930 11.789383 0.000000
500.041960 187.272810 15.548805 0.000000
500.025210 186.188400 16.154751 0.000000
501.404720 190.634030 11.114950 0.000000
500.749570 190.717470 11.106679 0.000000
500.082060 190.618650 11.100615 0.000000
497.454710 190.476320 11.073573 0.000000
520.745360 191.986110 11.310101 0.000000
519.754090 191.838040 11.301111 0.000000
518.771550 191.660740 11.292592 0.000000
499.398740 190.049840 11.100414 0.000000
498.755220 190.190600 11.091534 0.000000
498.107330 190.332670 11.082589 0.000000
517.797610 191.452940 11.284560 0.000000
516.866760 191.281910 11.276529 0.000000
515.955020 191.104680 11.268788 0.000000
515.062070 190.922240 11.261320 0.000000
514.204900 190.775160 11.253791 0.000000
513.347600 190.584090 11.246825 0.000000
512.501530 190.373720 11.240232 0.000000
511.670840 190.153980 11.233927 0.000000
510.857910 189.932390 11.227841 0.000000
510.075650 189.749530 11.221595 0.000000
509.295720 189.525180 11.215907 0.000000
508.543270 189.338530 11.210037 0.000000
507.804690 189.150310 11.204340 0.000000
507.079470 188.961060 11.198802 0.000000
506.367190 188.771290 11.193414 0.000000
505.667510 188.581510 11.188164 0.000000
501.803650 188.316930 11.149105 0.000000
504.979890 188.392120 11.183042 0.000000
504.312350 188.249040 11.177545 0.000000
502.300290 187.340610 11.167107 0.000000
502.748780 186.255870 11.185973 0.000000
499.223910 186.275160 11.873492 0.000000
498.638150 186.100310 11.865039 0.000000
496.806670 192.781980 11.138992 0.000000
496.110930 192.951400 11.130101 0.000000
501.020630 192.795180 11.182170 0.000000
500.324370 192.896590 11.173972 0.000000
519.814210 193.672560 11.366331 0.000000
499.541720 192.112010 11.173985 0.000000
498.863680 192.271180 11.165381 0.000000
518.750490 193.472440 11.357451 0.000000
517.710020 193.264100 11.348898 0.000000
516.692630 193.048810 11.340651 0.000000
515.720150 192.871730 11.332474 0.000000
514.767520 192.688170 11.324568 0.000000
513.834410 192.499150 11.316917 0.000000
512.928650 192.323910 11.309407 0.000000
512.001830 192.050370 11.302691 0.000000
511.115200 191.821040 11.295933 0.000000
501.509060 191.308900 11.202455 0.000000
510.247680 191.589040 11.289398 0.000000
509.398800 191.355160 11.283075 0.000000
508.595210 191.201050 11.276398 0.000000
507.805270 191.043640 11.269895 0.000000
507.038730 190.917590 11.263310 0.000000
506.283720 190.788910 11.256872 0.000000
505.539950 190.658140 11.250570 0.000000
504.807040 190.525850 11.244395 0.000000
501.940860 189.779880 11.222596 0.000000
502.417690 188.767900 11.237890 0.000000
502.890200 187.893490 11.251727 0.000000
503.279080 186.765080 11.267313 0.000000
498.976040 186.344790 11.961720 0.000000
498.375550 186.199430 11.952736 0.000000
500.226260 195.825380 11.293574 0.000000
497.157010 195.602510 11.263150 0.000000
496.415190 195.777440 11.254225 0.000000
500.981600 195.727720 11.302110 0.000000
498.632050 195.280940 11.280717 0.000000
497.896060 195.441410 11.271952 0.000000
519.784360 196.831150 11.490297 0.000000
518.612370 196.576200 11.479845 0.000000
517.467710 196.313110 11.469735 0.000000
516.350040 196.043180 11.459952 0.000000
515.284180 195.817990 11.450403 0.000000
501.553560 194.637800 11.315553 0.000000
514.254030 195.612520 11.441089 0.000000
513.270810 195.457150 11.431919 0.000000
512.311580 195.308750 11.422952 0.000000
511.351930 195.112050 11.414311 0.000000
510.427800 194.953290 11.405781 0.000000
509.520260 194.790210 11.397451 0.000000
508.628880 194.623630 11.389316 0.000000
507.766020 194.492110 11.381235 0.000000
506.904850 194.319760 11.373453 0.000000
506.068480 194.178910 11.365713 0.000000
505.241420 194.023090 11.358172 0.000000
501.878300 192.504900 11.333586 0.000000
502.388090 191.530560 11.345588 0.000000
503.027280 191.219330 11.354381 0.000000
503.299130 189.512100 11.368940 0.000000
498.819790 186.504030 12.088863 0.000000
497.589690 186.464320 14.302549 0.000000
519.512700 201.455610 11.665105 0.000000
518.259520 201.206270 11.651792 0.000000
517.039730 200.959380 11.638844 0.000000
515.873110 200.757460 11.626358 0.000000
500.518310 199.477010 11.457876 0.000000
497.135770 199.219670 11.420687 0.000000
496.330140 199.408690 11.411076 0.000000
513.609500 200.330840 11.602239 0.000000
512.522030 200.131440 11.590633 0.000000
497.938110 199.031190 11.430261 0.000000
510.380740 199.643260 11.568070 0.000000
509.352290 199.418470 11.557205 0.000000
506.376620 198.701050 11.525969 0.000000
505.423160 198.459700 11.515994 0.000000
503.060120 196.012850 11.496845 0.000000
502.308720 196.241270 11.487723 0.000000
503.276980 193.868850 11.505740 0.000000
497.010830 187.369510 11.454996 0.000000
514.729800 200.547530 11.614160 0.000000
511.429630 199.863800 11.579180 0.000000
508.343840 199.190380 11.546574 0.000000
499.533690 198.648740 11.449322 0.000000
507.365300 198.990740 11.536193 0.000000
498.721130 186.707180 14.527515 0.000000
520.161620 204.263550 11.763517 0.000000
518.835510 204.001890 11.749119 0.000000
517.538570 203.731230 11.735051 0.000000
516.298710 203.509050 11.721567 0.000000
515.084050 203.278490 11.708370 0.000000
513.894170 203.040910 11.695454 0.000000
512.743160 202.830110 11.682940 0.000000
496.426180 201.600970 11.503830 0.000000
511.582180 202.536030 11.670399 0.000000
510.468230 202.292890 11.658326 0.000000
500.805080 201.491790 11.552327 0.000000
497.265780 201.364110 11.513340 0.000000
509.359410 202.000150 11.646359 0.000000
508.267240 201.685240 11.634598 0.000000
498.930880 200.882780 11.532211 0.000000
498.099270 201.116390 11.522792 0.000000
507.217590 201.424120 11.623254 0.000000
506.171230 201.106260 11.612002 0.000000
501.526490 200.712920 11.561059 0.000000
499.761540 200.661470 11.541606 0.000000
505.163020 200.840810 11.601121 0.000000
503.183350 197.017880 11.582982 0.000000
496.694000 187.664790 12.299672 0.000000
497.243440 187.211240 12.298538 0.000000
518.192140 206.817460 11.834623 0.000000
516.885070 206.600910 11.820270 0.000000
515.603700 206.375180 11.806188 0.000000
510.642400 205.187420 11.751385 0.000000
496.652280 204.223390 11.598950 0.000000
508.292820 204.496890 11.725318 0.000000
497.526790 203.900500 11.608141 0.000000
507.177430 204.209080 11.712979 0.000000
499.232270 203.126210 11.625938 0.000000
496.928440 187.396820 11.587114 0.000000
519.558040 207.083570 11.849658 0.000000
514.345460 206.136700 11.792345 0.000000
513.125120 205.920330 11.778932 0.000000
511.857940 205.528760 11.764856 0.000000
495.764340 204.492920 11.589567 0.000000
509.454220 204.843110 11.738208 0.000000
506.065700 203.860320 11.700626 0.000000
501.176030 203.562840 11.647385 0.000000
498.385380 203.522980 11.617112 0.000000
501.626680 201.530210 11.650476 0.000000
502.337860 200.758210 11.657501 0.000000
497.629550 187.565340 10.910471 0.000000
498.262050 187.445360 10.915142 0.000000
501.364470 186.579150 10.938994 0.000000
496.368470 187.798950 10.900521 0.000000
496.918490 187.376210 10.910371 0.000000
499.946010 186.440140 10.937546 0.000000
498.524510 186.151410 10.937552 0.000000
496.357970 209.131900 11.791306 0.000000
498.192540 208.013980 11.805331 0.000000
500.079280 207.373460 11.821956 0.000000
499.096130 207.488880 11.812350 0.000000
502.540370 205.188610 11.837812 0.000000
496.907470 187.361770 11.702931 0.000000
499.170140 186.142640 11.720920 0.000000
508.503780 210.502410 11.922048 0.000000
505.919070 209.494340 11.891131 0.000000
497.284850 208.588010 11.798483 0.000000
501.152830 207.616640 11.834040 0.000000
503.194730 204.023740 11.839506 0.000000
496.007750 186.455290 14.773031 0.000000
497.393310 189.375890 15.924266 0.000000
496.685420 189.299900 15.889687 0.000000
500.032140 186.820390 16.571701 0.000000
496.963100 189.513530 10.957688 0.000000
496.294160 189.653180 10.953283 0.000000
500.860660 188.249690 10.984135 0.000000
500.173310 188.371550 10.981483 0.000000
497.881230 187.966570 10.981771 0.000000
499.194580 187.704150 10.988483 0.000000
498.535000 187.832260 10.985288 0.000000
497.048980 187.528990 10.985273 0.000000
502.867800 209.355990 12.008641 0.000000
499.304960 186.192110 11.809501 0.000000
501.976590 210.044010 12.004847 0.000000
497.000030 187.393690 11.795582 0.000000
496.633610 188.450550 12.628173 0.000000
496.216160 189.491910 15.204966 0.000000
498.759400 188.548320 15.211579 0.000000
497.763370 189.904390 16.172285 0.000000
498.048460 188.574220 16.036682 0.000000
495.798160 188.012880 15.879385 0.000000
495.979980 186.355870 16.494053 0.000000
497.300780 188.481490 17.693689 0.000000
495.964630 189.461150 10.994877 0.000000
501.312010 189.450870 11.007474 0.000000
500.545040 189.520340 11.005683 0.000000
496.651340 189.328160 10.998857 0.000000
498.724430 188.899110 11.009610 0.000000
498.041500 189.073730 11.005933 0.000000
499.453430 188.821550 11.011975 0.000000
501.390810 187.981810 11.024083 0.000000
496.745390 187.601700 11.020117 0.000000
501.567020 186.796330 11.037332 0.000000
508.782200 186.190690 11.035752 0.000000
496.711550 187.527770 11.851449 0.000000
499.055690 186.268020 11.865606 0.000000
496.790340 187.754850 12.690381 0.000000
495.981480 187.474270 12.667721 0.000000
497.265990 187.137850 12.681387 0.000000
496.421020 186.783550 13.470402 0.000000
496.063660 189.857710 15.371779 0.000000
498.629150 188.743620 15.376856 0.000000
498.541350 188.546510 16.231783 0.000000
496.296330 188.435790 16.107531 0.000000
496.283290 186.463410 15.887182 0.000000
497.161530 186.948880 16.821432 0.000000
497.947390 187.139850 17.745979 0.000000
499.554140 187.449740 17.908218 0.000000
496.361880 189.486920 10.991469 0.000000
500.327450 189.650510 10.997709 0.000000
497.066160 189.358020 10.994945 0.000000
499.209200 188.963560 11.003917 0.000000
498.492310 189.103230 11.001096 0.000000
501.229280 188.212970 11.014299 0.000000
500.465790 188.288220 11.012959 0.000000
497.078670 187.548450 11.016167 0.000000
501.552060 187.305820 11.024158 0.000000
501.761570 186.244230 11.035373 0.000000
497.012660 187.403630 11.858965 0.000000
498.629640 186.106260 11.865044 0.000000
496.849430 188.840420 12.738916 0.000000
497.182680 186.120730 12.667224 0.000000
496.624480 188.285320 13.576359 0.000000
495.861690 188.201290 13.552181 0.000000
497.487400 186.834470 13.529024 0.000000
496.742890 186.781040 13.505813 0.000000
498.446840 187.355530 15.297580 0.000000
495.832980 186.305940 15.086738 0.000000
495.871920 188.296660 16.993946 0.000000
497.030060 189.380330 17.203636 0.000000
497.722530 187.443240 17.861929 0.000000
499.868710 187.180400 17.985725 0.000000
497.095830 191.113370 11.052769 0.000000
496.341340 191.230640 11.046066 0.000000
499.496610 190.958130 11.069882 0.000000
498.691860 191.023670 11.064283 0.000000
497.904050 191.104190 11.058338 0.000000
500.886380 190.338760 11.084216 0.000000
501.476680 189.831700 11.092480 0.000000
499.784000 189.832050 11.083654 0.000000
501.632810 188.568600 11.106153 0.000000
512.654420 189.023160 11.131937 0.000000
508.105740 188.633730 11.127429 0.000000
517.429200 188.995940 11.134705 0.000000
513.474730 188.657060 11.135528 0.000000
511.091160 188.473620 11.134291 0.000000
506.766200 188.136900 11.128508 0.000000
502.007290 187.746670 11.116057 0.000000
518.245000 188.517670 11.137741 0.000000
514.304380 188.287220 11.138825 0.000000
509.667820 188.020540 11.135754 0.000000
508.294890 187.562010 11.137037 0.000000
519.062740 188.029340 11.140492 0.000000
515.033750 187.797040 11.142612 0.000000
502.457520 187.083020 11.124425 0.000000
519.873170 187.522190 11.143013 0.000000
497.023040 187.381290 11.950213 0.000000
498.686610 186.128520 11.964559 0.000000
497.188690 189.505620 12.872150 0.000000
497.983150 187.824250 12.843203 0.000000
496.509890 187.964580 13.676598 0.000000
496.697420 186.707610 13.621492 0.000000
496.793520 186.939960 14.485418 0.000000
498.472630 187.295680 15.458100 0.000000
495.778560 186.322480 15.231256 0.000000
498.458070 188.884490 15.596518 0.000000
497.943880 189.516750 16.543976 0.000000
497.089510 189.372280 16.477051 0.000000
498.523280 189.042910 16.528366 0.000000
497.596800 187.113330 17.134205 0.000000
498.042450 186.467820 17.084507 0.000000
496.465940 187.955250 17.163624 0.000000
497.507290 188.599700 18.225502 0.000000
497.661220 187.269530 18.040077 0.000000
498.951900 186.763930 18.074327 0.000000
498.293820 186.993470 18.051781 0.000000
496.855160 187.478970 10.898398 0.000000
496.212310 187.741410 10.897440 0.000000
500.152710 186.251280 10.897928 0.000000
500.889190 186.110020 10.895533 0.000000
499.536040 210.795700 11.971171 0.000000
501.688110 210.330730 11.980192 0.000000
502.233950 208.728990 11.970428 0.000000
503.058200 207.917830 11.968740 0.000000
496.793060 187.352460 11.764429 0.000000
497.441770 187.107300 12.632421 0.000000
496.673770 187.105830 12.620468 0.000000
498.789180 188.199860 13.585870 0.000000
496.576930 186.906310 13.468525 0.000000
496.461520 188.306200 14.416349 0.000000
497.789090 187.811430 14.428390 0.000000
497.826020 187.889040 15.326265 0.000000
498.070590 188.383610 16.287392 0.000000
497.473600 187.187910 17.010059 0.000000
498.787570 186.698060 17.928289 0.000000
495.764740 188.579880 10.922481 0.000000
496.457640 188.378140 10.922563 0.000000
496.827730 187.526870 10.930095 0.000000
497.242550 186.805240 10.935884 0.000000
501.277070 186.657960 10.918680 0.000000
500.515260 186.811680 10.921277 0.000000
498.627530 186.426150 10.933922 0.000000
497.929780 186.612200 10.935092 0.000000
499.355590 186.278410 10.931980 0.000000
503.314330 210.260800 12.062250 0.000000
496.741610 187.359090 11.807249 0.000000
497.394170 187.098280 12.686043 0.000000
496.649780 187.179920 12.676187 0.000000
497.746980 187.771240 13.606064 0.000000
496.459110 186.804640 13.525532 0.000000
495.759060 186.940660 13.514120 0.000000
496.442320 188.360460 14.496257 0.000000
497.764530 187.807140 14.506206 0.000000
495.892970 188.878370 15.416800 0.000000
499.117130 187.290830 15.428381 0.000000
498.163270 188.570130 16.416077 0.000000
496.180570 187.824890 16.225576 0.000000
498.946900 188.480590 17.387548 0.000000
496.109310 187.680600 17.096729 0.000000
497.280300 186.894410 17.073854 0.000000
498.799380 186.740050 18.066223 0.000000
497.388980 188.664580 18.233587 0.000000
496.105830 188.499730 10.907144 0.000000
500.448520 187.233290 10.920406 0.000000
496.946440 187.024810 10.925036 0.000000
496.220180 187.165560 10.923232 0.000000
501.288060 187.152440 10.920073 0.000000
498.450620 186.782580 10.927369 0.000000
497.687930 186.894560 10.926448 0.000000
499.190550 186.614330 10.928672 0.000000
502.353610 210.825740 12.042720 0.000000
503.250950 210.075710 12.046651 0.000000
497.106600 187.326290 11.814210 0.000000
498.867770 186.102830 11.823757 0.000000
497.109220 188.873120 12.748555 0.000000
497.328800 187.740810 12.723040 0.000000
497.216460 186.091380 12.677105 0.000000
496.133330 188.590770 13.629911 0.000000
499.289430 188.217120 13.712631 0.000000
496.595920 187.911410 13.612687 0.000000
497.607150 186.782990 13.593132 0.000000
496.790070 186.771760 13.566526 0.000000
496.871580 186.930420 14.462893 0.000000
497.371060 189.393160 14.644082 0.000000
496.460110 189.262630 15.529150 0.000000
498.909240 189.077060 15.641096 0.000000
497.976320 188.962330 16.526087 0.000000
499.978180 186.553410 16.414982 0.000000
497.726260 187.030790 17.220476 0.000000
498.233700 186.483550 17.193283 0.000000
497.790680 187.153490 18.158495 0.000000
495.873780 186.213240 10.863118 0.000000
496.619600 186.095760 10.863621 0.000000
496.700560 187.663710 11.756174 0.000000
499.217620 186.179470 11.771338 0.000000
497.246770 187.163960 12.667740 0.000000
497.612670 187.786160 13.617390 0.000000
498.422970 186.320340 14.491085 0.000000
496.747500 186.345460 14.418358 0.000000
496.614230 189.062740 15.529495 0.000000
498.195890 188.792070 16.552910 0.000000
495.932430 187.833800 16.310213 0.000000
498.691410 186.752760 16.383640 0.000000
497.254270 187.222460 17.259037 0.000000
497.839110 186.782140 17.252491 0.000000
498.154910 187.300250 18.282322 0.000000
498.764620 186.882840 18.281563 0.000000
498.985230 210.483200 11.935520 0.000000
498.364900 188.952970 16.703396 0.000000
500.140620 187.422850 17.671400 0.000000
497.337590 187.359890 17.423857 0.000000
497.539460 189.127080 18.638926 0.000000
511.416560 204.733140 11.741805 0.000000
496.064790 203.970250 11.583273 0.000000
497.027280 203.654590 11.592854 0.000000
501.342250 203.134600 11.636690 0.000000
498.898770 202.889190 11.611335 0.000000
499.814970 202.460910 11.620329 0.000000
501.650360 201.597920 11.638343 0.000000
502.076660 200.338360 11.641483 0.000000
503.256350 198.489090 11.651786 0.000000
496.975890 187.396470 11.576310 0.000000
497.984380 203.318390 11.602361 0.000000
503.054290 200.020370 11.651218 0.000000
495.949340 188.635530 12.527223 0.000000
496.748410 187.071850 12.514731 0.000000
499.356380 188.119310 13.587568 0.000000
497.509280 186.859920 13.475748 0.000000
496.641140 186.925750 13.447819 0.000000
496.258640 189.177430 15.477016 0.000000
498.169560 186.531170 17.318825 0.000000
497.137420 186.391980 18.168507 0.000000
497.965000 188.966490 18.578844 0.000000
496.418700 200.002470 11.435118 0.000000
500.714230 199.747960 11.469247 0.000000
497.341430 199.705200 11.442637 0.000000
516.868710 199.846760 11.596780 0.000000
515.180180 199.701520 11.583553 0.000000
499.199310 199.095660 11.457787 0.000000
498.268280 199.403310 11.450193 0.000000
513.527100 199.531340 11.570627 0.000000
501.506740 199.153980 11.475968 0.000000
508.780180 198.884860 11.533632 0.000000
501.645140 197.556440 11.478303 0.000000
502.012540 196.378080 11.482121 0.000000
503.183990 194.759920 11.492631 0.000000
503.321040 193.382080 11.494784 0.000000
496.913700 187.427290 11.448796 0.000000
496.712520 187.151060 12.403005 0.000000
497.452180 186.880400 13.374825 0.000000
496.515080 186.880000 13.343668 0.000000
499.240110 187.980420 13.473130 0.000000
497.343990 186.764880 16.256247 0.000000
497.643710 187.190190 17.298191 0.000000
497.908510 188.935820 18.530293 0.000000
516.844180 200.860580 11.634472 0.000000
515.003300 200.584090 11.615803 0.000000
513.205260 200.280490 11.597646 0.000000
511.456510 199.959170 11.580049 0.000000
500.851440 199.681760 11.469445 0.000000
497.321260 199.477170 11.432888 0.000000
496.364500 199.727710 11.422270 0.000000
509.754210 199.619230 11.562981 0.000000
498.283870 199.219640 11.443584 0.000000
508.098080 199.262820 11.546435 0.000000
501.554470 198.933690 11.478557 0.000000
499.263700 198.973210 11.454435 0.000000
501.706970 197.383650 11.483756 0.000000
502.235470 196.444470 11.491481 0.000000
503.267030 194.612460 11.506557 0.000000
496.895780 187.446140 11.456363 0.000000
496.709050 187.205080 12.425091 0.000000
497.452700 186.918910 13.414045 0.000000
496.491210 186.920940 13.379066 0.000000
499.382870 188.126620 13.524632 0.000000
496.485380 188.273650 14.413309 0.000000
498.046540 187.724870 14.461963 0.000000
496.225250 186.570140 14.313669 0.000000
497.953640 186.308820 14.386877 0.000000
495.960820 188.925080 15.419807 0.000000
498.037050 189.104900 16.589466 0.000000
497.646420 187.241040 17.398075 0.000000
498.134250 186.587360 17.375454 0.000000
499.293300 186.777660 17.501799 0.000000
498.598020 187.199300 18.496227 0.000000
520.089840 203.371690 11.730371 0.000000
517.953310 202.943700 11.705461 0.000000
515.925230 202.543550 11.681801 0.000000
513.955200 202.121950 11.658902 0.000000
512.061520 201.703700 11.636926 0.000000
510.202760 201.243150 11.615485 0.000000
495.866850 200.515550 11.442739 0.000000
508.361540 200.718490 11.594425 0.000000
500.510930 200.580410 11.499146 0.000000
496.861180 200.295840 11.455427 0.000000
498.884950 199.854130 11.481236 0.000000
497.862730 200.068210 11.468224 0.000000
501.673160 198.667760 11.518305 0.000000
503.090330 197.215360 11.539367 0.000000
502.070860 197.493390 11.526219 0.000000
496.926570 187.413940 11.489896 0.000000
501.504150 200.241060 11.512134 0.000000
496.709630 187.145400 12.471556 0.000000
495.809540 187.245790 12.450377 0.000000
497.478880 186.869810 13.477372 0.000000
496.459110 186.832140 13.436573 0.000000
498.856600 187.312040 13.545633 0.000000
496.539860 188.287000 14.491594 0.000000
498.120910 187.708220 14.544626 0.000000
499.336400 186.638090 14.558028 0.000000
496.250430 186.573990 14.391045 0.000000
498.001460 186.275760 14.468611 0.000000
498.759000 188.542480 15.660825 0.000000
497.093990 190.514210 16.746038 0.000000
497.969150 188.909550 17.722244 0.000000
497.725800 187.258440 17.531654 0.000000
499.404210 186.771330 17.643023 0.000000
498.227140 186.607150 17.513594 0.000000
498.727840 187.243610 18.659206 0.000000
518.977910 203.912200 11.736579 0.000000
514.677860 202.926620 11.683430 0.000000
512.674380 202.458740 11.658692 0.000000
508.717710 201.308980 11.610527 0.000000
496.660340 200.496930 11.455552 0.000000
501.656190 199.007610 11.525325 0.000000
503.083830 197.523030 11.548489 0.000000
502.051030 197.817380 11.534106 0.000000
496.706570 187.650530 11.495279 0.000000
516.793640 203.429230 11.709528 0.000000
510.686000 201.918400 11.634375 0.000000
496.732180 187.703640 12.503970 0.000000
497.319370 187.146790 12.511737 0.000000
499.218780 188.189610 13.629293 0.000000
498.596440 186.180330 13.542766 0.000000
497.257600 189.797040 14.656154 0.000000
496.276250 187.154890 14.474555 0.000000
498.215790 187.003200 14.572290 0.000000
496.704320 186.419310 14.461925 0.000000
499.437380 188.492220 15.775850 0.000000
498.266540 188.386380 15.688795 0.000000
495.895660 188.014310 16.519444 0.000000
498.883820 186.569730 16.644703 0.000000
498.108950 188.210100 16.713385 0.000000
516.317750 202.138200 11.671802 0.000000
514.204220 201.670520 11.645308 0.000000
512.115420 201.137280 11.619412 0.000000
510.134250 200.633150 11.594846 0.000000
508.201480 200.095670 11.571065 0.000000
501.225070 199.786290 11.478580 0.000000
497.345550 199.411270 11.427978 0.000000
496.301390 199.594880 11.413198 0.000000
499.463990 199.013870 11.458063 0.000000
518.570010 202.656370 11.699955 0.000000
498.399780 199.218020 11.442932 0.000000
497.403140 187.159640 12.501192 0.000000
499.353390 188.189030 13.636325 0.000000
498.525240 187.249280 14.617658 0.000000
499.462190 188.357480 15.799364 0.000000
499.629820 187.298860 17.886955 0.000000
519.237430 202.568850 11.706934 0.000000
516.932620 202.074870 11.678180 0.000000
501.348180 199.661820 11.479975 0.000000
496.332210 199.490540 11.413716 0.000000
498.452970 199.089830 11.443656 0.000000
497.387660 199.295640 11.428598 0.000000
499.527830 198.871960 11.458891 0.000000
501.587220 198.238560 11.488959 0.000000
501.792970 196.829040 11.497443 0.000000
502.858700 196.544240 11.512829 0.000000
496.717930 187.585630 11.467327 0.000000
496.703430 186.361510 14.520897 0.000000
497.297090 189.694120 14.708089 0.000000
498.208400 188.128920 15.758310 0.000000
497.382110 187.189990 16.690666 0.000000
499.004670 186.498920 16.777235 0.000000
497.467130 187.309460 17.764936 0.000000
499.745390 187.321210 17.996595 0.000000
500.470460 198.100040 11.397316 0.000000
496.681460 197.963000 11.355035 0.000000
510.071930 197.775420 11.507277 0.000000
501.527400 197.791230 11.410565 0.000000
498.750370 197.467010 11.380515 0.000000
497.704530 197.710390 11.367665 0.000000
501.653140 196.302490 11.418231 0.000000
501.867890 194.979420 11.426209 0.000000
503.213680 193.494510 11.447659 0.000000
503.322450 192.151730 11.454520 0.000000
496.767820 187.549930 11.399683 0.000000
495.821200 189.131620 15.649759 0.000000
497.700620 187.440350 17.823784 0.000000
499.627840 186.995770 17.977083 0.000000
496.425570 195.883700 11.259293 0.000000
511.556000 194.091190 11.387805 0.000000
509.691040 193.874330 11.373755 0.000000
501.957980 191.948350 11.319702 0.000000
496.760500 187.599240 11.295868 0.000000
501.188390 195.577510 11.298691 0.000000
497.429140 195.615260 11.268428 0.000000
498.424680 195.314560 11.277632 0.000000
499.438870 195.016240 11.286975 0.000000
501.571230 194.474330 11.306270 0.000000
502.384890 190.989150 11.327045 0.000000
503.061070 190.300320 11.335279 0.000000
503.293300 189.180800 11.341719 0.000000
496.822330 187.682280 12.367435 0.000000
498.586000 188.339050 13.524483 0.000000
497.243560 189.510500 14.618792 0.000000
499.377040 186.634260 14.604425 0.000000
498.492160 186.974640 14.571367 0.000000
497.126220 186.790250 15.558875 0.000000
499.552000 188.093920 15.801635 0.000000
520.014220 197.626980 11.533614 0.000000
496.104610 197.128890 11.301946 0.000000
517.467410 197.162510 11.510645 0.000000
501.098020 196.924770 11.351606 0.000000
498.206360 196.601170 11.324681 0.000000
497.161770 196.885590 11.313290 0.000000
515.066160 196.721240 11.489001 0.000000
499.270940 196.318450 11.336261 0.000000
512.932800 196.423540 11.469380 0.000000
510.878780 196.114960 11.450581 0.000000
501.591580 195.901690 11.360675 0.000000
501.714360 194.488270 11.367738 0.000000
502.958040 192.846220 11.386706 0.000000
503.259700 191.715740 11.394344 0.000000
503.360750 190.419160 11.400710 0.000000
496.737300 187.627200 11.347542 0.000000
496.766270 187.674410 12.437214 0.000000
497.498380 187.178710 12.449530 0.000000
498.380460 188.145660 15.858262 0.000000
498.692350 187.186840 15.824366 0.000000
498.947300 186.195040 15.785839 0.000000
497.203860 186.934460 16.799484 0.000000
518.203250 198.890300 11.567036 0.000000
515.703860 198.423580 11.541856 0.000000
500.634060 197.928440 11.380249 0.000000
496.589080 197.856260 11.336615 0.000000
513.417360 198.046660 11.518610 0.000000
497.671080 197.585750 11.349510 0.000000
511.207150 197.648040 11.496284 0.000000
509.146610 197.303180 11.475357 0.000000
501.512510 197.315700 11.392378 0.000000
498.777920 197.321150 11.362650 0.000000
501.648620 195.867550 11.399970 0.000000
502.036650 194.741970 11.408937 0.000000
503.119930 194.369140 11.422277 0.000000
503.223970 192.987150 11.429242 0.000000
496.712830 187.710420 12.489643 0.000000
497.426730 187.170790 12.502138 0.000000
496.300050 188.587590 13.607077 0.000000
496.796420 187.832210 14.722186 0.000000
496.154540 187.179520 15.756933 0.000000
495.770660 189.372270 15.861450 0.000000
497.194640 187.004490 16.938272 0.000000
497.913420 186.470260 16.963188 0.000000
498.956730 186.234380 17.040363 0.000000
497.833220 187.665860 18.185806 0.000000
520.051570 199.755130 11.613259 0.000000
517.263980 199.163710 11.584022 0.000000
514.847600 198.780580 11.558131 0.000000
512.475890 198.340300 11.532990 0.000000
500.994840 198.189760 11.402948 0.000000
497.892610 197.804810 11.369261 0.000000
496.768860 198.066350 11.355369 0.000000
510.214450 197.905210 11.509083 0.000000
499.047550 197.553280 11.383465 0.000000
501.571410 197.202680 11.413666 0.000000
501.681820 195.730640 11.421120 0.000000
502.397890 194.940250 11.432596 0.000000
503.158750 194.198650 11.444379 0.000000
503.267180 192.822600 11.451405 0.000000
496.651310 187.668990 12.525303 0.000000
497.397460 187.136780 12.539450 0.000000
496.274170 188.596650 13.663397 0.000000
498.623960 188.364820 14.928967 0.000000
496.835720 187.890210 14.805342 0.000000
498.621030 187.079160 14.875989 0.000000
498.952880 186.138850 14.857931 0.000000
496.140530 187.207290 15.856045 0.000000
497.268400 187.080610 17.071705 0.000000
497.664310 188.780210 18.409225 0.000000
513.433530 198.639110 11.538720 0.000000
501.591250 196.987810 11.411149 0.000000
501.720460 195.542020 11.418761 0.000000
502.626400 194.925030 11.431679 0.000000
496.757780 187.715240 11.395620 0.000000
518.438960 199.460560 11.592116 0.000000
515.852360 199.028700 11.564555 0.000000
510.996730 198.135350 11.513167 0.000000
501.220400 198.214450 11.401721 0.000000
498.038760 197.851520 11.367105 0.000000
496.873230 198.101380 11.352797 0.000000
499.214970 197.584460 11.381607 0.000000
503.304810 192.597720 11.449280 0.000000
496.962310 189.244020 12.568033 0.000000
496.742680 187.718140 12.545197 0.000000
