# .PCD v0.7 - Point Cloud Data file format
VERSION 0.7
FIELDS x y z intensity
SIZE 4 4 4 4
TYPE F F F F
COUNT 1 1 1 1
WIDTH 1180
HEIGHT 1
VIEWPOINT 0 0 0 1 0 0 0
POINTS 1180
DATA ascii
513.848750 141.473650 9.909939 0.000000
503.544250 140.890210 9.789870 0.000000
499.078860 140.519990 9.732368 0.000000
518.877440 141.727160 9.932312 0.000000
518.596800 141.614910 9.944440 0.000000
518.309390 141.516110 9.957443 0.000000
513.410640 141.284650 9.909898 0.000000
513.072450 141.166610 9.911539 0.000000
512.738340 141.041140 9.910514 0.000000
512.401670 140.923170 9.909230 0.000000
504.264190 140.372620 9.767196 0.000000
503.830050 140.609280 9.772339 0.000000
499.197390 140.189060 9.713321 0.000000
495.911130 139.802660 9.782738 0.000000
517.837590 141.206950 9.965502 0.000000
512.172550 140.858730 9.909443 0.000000
511.826750 140.771650 9.909750 0.000000
511.479220 140.693630 9.909971 0.000000
511.130100 140.626400 9.910009 0.000000
510.662510 140.553310 9.910104 0.000000
510.317600 140.473500 9.905285 0.000000
505.551570 140.008990 9.781097 0.000000
505.298710 139.980220 9.767004 0.000000
504.709630 140.149700 9.761808 0.000000
499.553190 139.684680 9.697383 0.000000
517.729680 140.887370 9.946575 0.000000
517.612610 140.569120 9.927709 0.000000
509.917420 139.959700 9.843136 0.000000
506.384220 139.788620 9.781505 0.000000
506.011960 139.774510 9.767681 0.000000
505.750580 139.690980 9.747473 0.000000
499.869840 139.371950 9.693658 0.000000
496.736510 139.032700 9.802185 0.000000
517.489140 140.248720 9.908417 0.000000
509.576840 139.731220 9.815460 0.000000
509.216770 139.615010 9.801197 0.000000
508.847870 139.555150 9.792658 0.000000
508.353180 139.475250 9.779031 0.000000
507.979580 139.414220 9.766969 0.000000
507.482850 139.584640 9.781601 0.000000
507.112400 139.611390 9.777486 0.000000
506.734470 139.538120 9.758727 0.000000
500.306950 138.963530 9.688448 0.000000
497.006440 138.578770 9.793489 0.000000
517.436400 139.813450 9.874304 0.000000
517.104000 139.781070 9.891127 0.000000
501.169770 138.403730 9.694988 0.000000
500.778960 138.603450 9.687761 0.000000
517.060490 139.304060 9.851484 0.000000
501.700620 138.155530 9.704596 0.000000
501.434390 138.278320 9.699945 0.000000
516.900700 138.992140 9.832384 0.000000
501.968630 138.035900 9.709004 0.000000
516.853940 138.475080 9.787953 0.000000
516.541690 138.398670 9.796954 0.000000
514.580690 138.284910 9.872987 0.000000
512.700930 138.382080 9.942441 0.000000
512.439390 138.273830 9.937502 0.000000
512.047790 138.100390 9.927633 0.000000
514.377620 138.005190 9.852790 0.000000
514.073550 137.965330 9.859405 0.000000
513.768010 137.936660 9.866513 0.000000
519.493650 138.020220 10.026212 0.000000
516.426390 137.964970 9.762295 0.000000
516.141240 137.833760 9.763436 0.000000
513.550230 137.668140 9.845902 0.000000
520.678590 137.625370 9.938683 0.000000
520.205630 137.651780 9.965443 0.000000
515.939940 137.535050 9.744122 0.000000
513.451540 137.023160 9.782714 0.000000
499.420320 157.200650 9.858202 0.000000
499.280180 156.998380 9.850616 0.000000
499.143010 156.791410 9.842720 0.000000
497.786380 156.774080 9.832662 0.000000
496.075650 156.840710 9.821947 0.000000
495.901890 156.663620 9.806793 0.000000
498.984040 156.588180 9.829582 0.000000
498.653870 156.341780 9.786712 0.000000
498.183530 156.290080 9.703163 0.000000
497.265660 156.333480 9.775116 0.000000
496.656190 156.272640 9.678239 0.000000
496.354740 156.128890 9.636240 0.000000
517.660030 157.424560 10.110949 0.000000
516.252260 157.409560 10.088284 0.000000
497.816380 156.013090 9.652166 0.000000
496.287450 155.828320 9.640310 0.000000
519.672610 157.257930 10.131189 0.000000
519.495790 157.427930 10.140715 0.000000
518.062560 156.976910 10.090193 0.000000
517.861690 157.203770 10.100799 0.000000
516.600340 157.028170 10.069730 0.000000
497.733090 155.662960 9.656843 0.000000
497.695950 155.486720 9.659162 0.000000
496.208370 155.424850 9.645801 0.000000
519.922730 156.990420 10.118345 0.000000
518.195860 156.821520 10.082829 0.000000
517.131530 156.506450 10.029059 0.000000
516.827390 156.761280 10.056862 0.000000
497.646700 155.220890 9.662824 0.000000
496.157560 155.120360 9.650035 0.000000
496.127750 154.916520 9.652834 0.000000
520.436400 156.545500 10.083595 0.000000
519.613040 156.360090 9.919519 0.000000
519.012450 156.434590 9.996822 0.000000
518.557130 156.525470 10.052970 0.000000
518.051880 156.297000 9.899780 0.000000
517.489500 156.429000 9.978929 0.000000
497.579530 154.774840 9.669107 0.000000
496.090730 154.609510 9.657257 0.000000
519.678710 156.052260 9.926800 0.000000
518.147830 155.943220 9.906342 0.000000
497.529850 154.325900 9.675581 0.000000
496.052730 154.198490 9.663270 0.000000
519.748230 155.638440 9.937271 0.000000
518.219480 155.583680 9.914836 0.000000
497.504460 153.964920 9.680957 0.000000
496.028500 153.785830 9.669423 0.000000
518.261110 155.311890 9.921830 0.000000
497.496580 153.602980 9.687468 0.000000
496.020870 153.372100 9.676176 0.000000
497.505950 153.240950 9.695044 0.000000
496.031220 153.061870 9.682551 0.000000
497.525940 152.879180 9.702403 0.000000
497.527040 152.605770 9.703885 0.000000
496.040440 152.750960 9.687348 0.000000
497.526150 152.330370 9.703607 0.000000
496.025330 152.331540 9.687321 0.000000
497.535680 151.961870 9.703371 0.000000
496.021000 151.909180 9.686871 0.000000
519.837460 153.235430 9.997948 0.000000
518.325260 153.211700 9.974584 0.000000
497.557860 151.592190 9.703249 0.000000
496.031400 151.484710 9.686611 0.000000
519.824650 152.921890 10.003716 0.000000
518.308350 152.846250 9.980736 0.000000
497.593260 151.221860 9.703327 0.000000
496.056400 151.058530 9.686489 0.000000
519.856080 152.497670 10.002864 0.000000
518.328670 152.381990 9.978494 0.000000
497.641420 150.851180 9.703478 0.000000
496.096470 150.631290 9.686554 0.000000
519.915040 152.064040 9.995981 0.000000
518.343320 151.911880 9.973858 0.000000
497.736080 150.294880 9.703532 0.000000
497.685760 150.573260 9.703687 0.000000
496.151700 150.203410 9.686801 0.000000
519.968750 151.622990 9.987552 0.000000
518.362850 151.527820 9.966185 0.000000
497.807430 149.921650 9.702105 0.000000
496.215030 149.772980 9.685991 0.000000
520.001710 151.287930 9.980782 0.000000
518.369570 151.139800 9.958166 0.000000
497.891240 149.548650 9.700592 0.000000
496.264950 149.447390 9.684248 0.000000
520.021790 150.949980 9.974287 0.000000
518.361210 150.748830 9.950129 0.000000
497.947540 149.157170 9.691015 0.000000
496.266690 149.097700 9.672644 0.000000
520.037660 150.494550 9.965097 0.000000
518.339540 150.354860 9.941738 0.000000
497.981780 148.745570 9.674189 0.000000
496.255040 148.614180 9.652384 0.000000
520.037540 150.034260 9.955601 0.000000
518.303100 149.958740 9.933171 0.000000
498.031400 148.330030 9.657375 0.000000
496.256590 148.246490 9.637098 0.000000
520.026860 149.686430 9.948340 0.000000
518.252380 149.560790 9.924316 0.000000
496.262790 147.998540 9.626776 0.000000
520.017400 149.331850 9.939239 0.000000
518.218930 149.255430 9.915188 0.000000
500.128630 145.631440 9.748127 0.000000
499.937290 145.716020 9.730820 0.000000
497.855960 145.680650 9.713923 0.000000
500.656830 145.345610 9.786855 0.000000
500.325650 145.556730 9.766649 0.000000
498.428770 145.289720 9.758704 0.000000
495.826750 145.041870 9.722385 0.000000
501.019740 144.864670 9.777040 0.000000
500.832700 145.100940 9.781365 0.000000
498.633480 144.871400 9.749985 0.000000
495.937900 144.636690 9.712772 0.000000
501.212490 144.629030 9.771974 0.000000
500.192990 144.484800 9.900258 0.000000
498.798280 144.560270 9.743575 0.000000
496.019440 144.366270 9.706428 0.000000
496.712650 139.017760 10.206601 0.000000
517.679750 139.981380 10.247425 0.000000
513.322880 136.396820 10.123481 0.000000
500.310700 160.966370 10.023035 0.000000
497.753330 161.011900 9.997105 0.000000
497.476870 160.805500 9.985666 0.000000
497.200900 160.592440 9.973995 0.000000
504.736970 160.999150 10.070495 0.000000
504.335330 160.882050 10.056169 0.000000
503.933840 160.748870 10.040913 0.000000
502.307070 160.912580 10.033482 0.000000
501.972600 160.696670 10.026582 0.000000
499.915860 160.707440 10.007650 0.000000
499.598850 160.490600 9.994290 0.000000
497.017270 160.445920 9.966057 0.000000
496.841490 160.291560 9.959155 0.000000
511.149780 160.963780 10.156793 0.000000
503.532650 160.599300 10.024681 0.000000
503.132050 160.432800 10.007493 0.000000
502.798610 160.281420 9.992388 0.000000
501.569950 160.429900 10.015799 0.000000
501.155330 160.162550 9.999764 0.000000
499.363190 160.320390 9.984245 0.000000
499.131320 160.141450 9.974468 0.000000
498.899990 159.957460 9.964388 0.000000
496.674380 160.129330 9.953386 0.000000
496.425510 159.879840 9.944529 0.000000
515.139100 160.912640 10.266137 0.000000
513.470520 160.809770 10.202057 0.000000
513.198300 160.970000 10.200840 0.000000
511.915770 160.636990 10.163328 0.000000
511.535680 160.809630 10.160133 0.000000
502.607570 160.174150 9.985765 0.000000
502.366850 160.009870 9.980295 0.000000
502.069240 159.796310 9.972919 0.000000
500.745030 159.875520 9.982872 0.000000
500.472500 159.674820 9.970838 0.000000
498.671330 159.765780 9.954287 0.000000
498.443240 159.568950 9.943854 0.000000
495.994900 159.457700 9.926284 0.000000
518.341740 160.697590 10.282610 0.000000
517.987490 160.850940 10.296851 0.000000
515.769290 160.515880 10.257855 0.000000
515.524780 160.661640 10.262753 0.000000
514.008540 160.468050 10.203232 0.000000
513.738890 160.641050 10.203392 0.000000
512.658390 160.240800 10.168431 0.000000
512.351680 160.413240 10.166512 0.000000
501.892790 159.663180 9.968178 0.000000
501.660310 159.478910 9.961424 0.000000
500.337800 159.570130 9.964810 0.000000
500.070280 159.353120 9.952397 0.000000
498.291840 159.434100 9.936727 0.000000
498.066440 159.225880 9.925878 0.000000
519.064150 160.358670 10.252722 0.000000
518.707090 160.536610 10.267089 0.000000
516.340820 160.151310 10.245107 0.000000
516.014220 160.363630 10.252576 0.000000
514.668460 159.998960 10.202027 0.000000
514.406130 160.191940 10.202860 0.000000
513.123110 159.920610 10.174922 0.000000
512.839360 160.130160 10.169529 0.000000
501.432250 159.287230 9.954850 0.000000
501.203370 159.091130 9.946620 0.000000
500.979190 158.887370 9.938590 0.000000
499.673830 159.010820 9.933146 0.000000
499.414920 158.770140 9.920284 0.000000
497.855350 159.005130 9.917067 0.000000
497.651950 158.775100 9.908895 0.000000
519.570680 159.984700 10.239552 0.000000
519.266540 160.212340 10.247574 0.000000
516.830690 159.811370 10.232856 0.000000
516.586060 159.985150 10.239116 0.000000
515.115720 159.636410 10.200395 0.000000
514.863280 159.848190 10.201063 0.000000
513.591250 159.591660 10.175608 0.000000
513.349910 159.750520 10.177906 0.000000
500.813320 158.729230 9.932218 0.000000
500.593660 158.513210 9.923037 0.000000
499.224150 158.581800 9.910543 0.000000
499.035250 158.388490 9.900635 0.000000
497.319890 158.378070 9.894988 0.000000
519.915950 159.769100 10.226357 0.000000
517.239750 159.507750 10.221445 0.000000
515.533450 159.235210 10.201222 0.000000
515.344180 159.401200 10.203295 0.000000
514.068790 159.253510 10.169575 0.000000
513.831240 159.427000 10.172844 0.000000
500.369900 158.294170 9.911676 0.000000
500.147400 158.068160 9.899427 0.000000
498.851350 158.187710 9.891007 0.000000
498.681980 157.976320 9.883614 0.000000
496.994170 157.965790 9.880380 0.000000
520.529050 159.397170 10.199681 0.000000
517.640140 159.181640 10.210350 0.000000
515.962770 158.923740 10.186035 0.000000
515.748110 159.082030 10.193802 0.000000
514.480830 158.933300 10.162385 0.000000
499.983250 157.893070 9.890114 0.000000
499.821350 157.712710 9.880536 0.000000
498.460360 157.685940 9.873230 0.000000
496.803100 157.710080 9.871395 0.000000
496.597080 157.453350 9.859222 0.000000
518.072690 158.741390 10.202250 0.000000
517.823240 158.947510 10.211426 0.000000
516.463320 158.530030 10.166326 0.000000
516.177060 158.758700 10.177894 0.000000
515.153870 158.408460 10.139934 0.000000
514.907290 158.604540 10.149245 0.000000
499.662870 157.527360 9.871084 0.000000
499.560910 157.399960 9.865147 0.000000
498.138850 157.234040 9.857315 0.000000
496.382290 157.193590 9.845064 0.000000
496.245610 157.014370 9.836260 0.000000
518.501530 158.386150 10.184221 0.000000
516.891600 158.165830 10.147660 0.000000
516.677490 158.351460 10.157241 0.000000
515.398990 158.201830 10.129885 0.000000
518.919310 158.004700 10.166606 0.000000
517.248050 157.842900 10.130735 0.000000
517.105470 157.974400 10.137683 0.000000
516.010740 157.649190 10.101077 0.000000
515.767030 157.877010 10.113090 0.000000
519.330690 157.597430 10.148468 0.000000
519.166080 157.763280 10.155919 0.000000
517.456670 157.637630 10.120672 0.000000
500.290340 144.454640 10.307590 0.000000
500.143920 144.446040 10.428409 0.000000
496.820340 138.908860 10.614990 0.000000
496.559230 139.099560 10.606771 0.000000
517.504460 139.975340 10.625613 0.000000
513.321590 136.391540 10.523630 0.000000
500.400240 144.439510 10.712654 0.000000
496.725590 139.068790 11.018618 0.000000
517.616390 140.071930 10.995202 0.000000
500.391720 144.444440 11.105665 0.000000
496.892610 139.039550 11.426556 0.000000
496.542050 139.109850 11.416658 0.000000
517.881840 140.208110 11.362164 0.000000
517.630550 140.052780 11.362946 0.000000
500.378810 144.448990 11.628270 0.000000
496.963870 139.152010 11.826427 0.000000
496.500370 139.071990 11.821605 0.000000
517.872010 140.222930 11.915156 0.000000
517.649110 140.027790 11.916275 0.000000
496.887150 138.497300 11.839668 0.000000
500.367770 144.450680 12.020284 0.000000
514.324100 141.837840 12.311296 0.000000
496.972660 139.180150 12.223913 0.000000
517.881350 140.211790 12.469168 0.000000
500.356630 144.452300 12.413569 0.000000
500.425110 144.198560 12.428486 0.000000
518.149410 143.118380 12.689659 0.000000
519.564210 143.052140 12.757462 0.000000
515.250430 141.689270 12.651614 0.000000
514.960880 141.692060 12.640833 0.000000
514.683780 141.683170 12.631389 0.000000
517.912660 140.170330 12.842848 0.000000
513.557680 139.956240 12.699701 0.000000
496.207030 138.707640 12.241705 0.000000
517.735050 139.908710 12.850766 0.000000
515.407900 139.833650 12.768268 0.000000
496.860110 138.476700 12.251575 0.000000
498.083190 137.953510 12.275122 0.000000
498.474240 137.655380 12.288424 0.000000
500.345430 144.453930 12.808638 0.000000
500.424800 144.214250 12.827250 0.000000
497.164310 143.381010 12.715855 0.000000
497.490510 142.582080 12.760744 0.000000
496.698880 142.539690 12.788255 0.000000
516.207700 143.273440 12.893063 0.000000
499.561220 142.273790 12.726812 0.000000
499.287290 142.321140 12.729962 0.000000
497.926420 141.855240 12.800001 0.000000
497.488710 142.179090 12.789240 0.000000
520.386290 143.458300 13.132760 0.000000
520.128850 143.304310 13.126051 0.000000
519.420900 143.186770 13.088915 0.000000
518.311650 143.140880 13.023917 0.000000
515.815920 143.011950 12.891231 0.000000
519.517150 142.716140 13.126319 0.000000
518.087280 142.806270 13.033819 0.000000
517.760010 142.177400 13.059474 0.000000
516.136960 142.155690 12.972460 0.000000
514.718380 141.620830 12.943708 0.000000
514.375550 141.740220 12.918470 0.000000
513.935180 141.547760 12.914334 0.000000
515.838380 141.467030 13.009752 0.000000
514.240540 141.479140 12.933272 0.000000
514.136470 139.945310 13.053037 0.000000
516.450130 139.725100 13.174800 0.000000
516.073910 139.795640 13.151241 0.000000
497.068570 138.216750 12.676691 0.000000
496.786530 138.391270 12.669710 0.000000
500.334110 144.455550 13.206888 0.000000
500.435970 144.244840 13.225276 0.000000
517.079530 143.355610 13.552941 0.000000
516.830320 143.271420 13.540302 0.000000
499.309660 141.936720 13.079733 0.000000
498.883060 141.791720 13.109127 0.000000
520.426030 143.053670 13.526217 0.000000
517.992310 142.717610 13.365921 0.000000
516.859990 142.853680 13.587169 0.000000
517.895320 142.429960 13.383936 0.000000
516.824710 142.498550 13.622370 0.000000
515.606750 142.051040 13.419680 0.000000
515.325930 142.033190 13.402638 0.000000
500.565400 141.050800 13.123133 0.000000
500.219910 140.971570 13.141140 0.000000
499.585880 140.949370 13.163375 0.000000
499.199650 140.851430 13.185694 0.000000
516.826600 142.078930 13.340681 0.000000
516.587400 141.967620 13.334924 0.000000
516.236630 142.016280 13.307368 0.000000
515.924620 142.023380 13.286605 0.000000
498.443300 140.237080 13.270116 0.000000
515.601560 141.113620 13.353551 0.000000
518.489260 140.400050 13.606893 0.000000
515.554380 140.137160 13.446053 0.000000
515.144960 140.316650 13.405152 0.000000
514.722780 140.259720 13.387678 0.000000
514.068660 140.091550 13.370460 0.000000
515.963990 139.982070 13.484983 0.000000
497.060210 138.222260 13.091881 0.000000
498.482390 137.379360 13.127822 0.000000
498.665860 137.026500 13.152535 0.000000
518.644780 138.054520 13.413048 0.000000
498.830900 136.621800 13.182076 0.000000
520.101140 137.800260 13.508957 0.000000
498.965210 136.133970 13.219154 0.000000
514.762390 137.024840 13.718567 0.000000
500.322720 144.457210 13.608481 0.000000
500.438630 144.264470 13.626723 0.000000
496.965090 143.586090 13.696949 0.000000
517.110530 142.944400 13.917091 0.000000
516.789000 142.941420 13.885620 0.000000
516.779970 142.556140 13.932799 0.000000
516.706670 142.237810 13.965966 0.000000
520.512390 142.191730 13.983003 0.000000
516.847960 142.052120 13.672749 0.000000
516.589420 141.965710 13.661496 0.000000
520.123840 141.729800 13.991665 0.000000
519.443660 141.133390 13.990428 0.000000
514.345640 140.716950 13.645503 0.000000
496.051180 139.610240 13.420178 0.000000
515.582340 140.631330 13.737936 0.000000
515.083620 140.704990 13.695141 0.000000
514.658510 140.526380 13.855723 0.000000
514.114990 140.605990 13.644544 0.000000
497.365480 139.247940 13.797789 0.000000
513.709590 140.254030 13.663293 0.000000
513.507080 140.066680 13.674812 0.000000
513.235050 140.042920 13.992290 0.000000
517.786250 139.839040 13.991476 0.000000
516.293460 139.980590 13.863784 0.000000
498.907260 138.162250 13.852758 0.000000
514.567630 138.988510 13.868540 0.000000
497.760960 137.486630 13.555258 0.000000
519.968440 139.073560 13.829012 0.000000
513.849730 138.478120 13.890463 0.000000
496.936860 143.206920 14.081473 0.000000
516.812190 143.106980 14.180931 0.000000
520.033020 143.021560 14.220598 0.000000
516.638730 142.735340 14.214138 0.000000
519.893550 142.762600 14.233543 0.000000
516.692440 142.257420 14.288765 0.000000
500.449740 140.894330 14.133824 0.000000
500.154630 140.907380 14.150421 0.000000
499.824190 140.872630 14.177391 0.000000
499.477780 140.826230 14.207925 0.000000
519.668520 142.180690 14.274569 0.000000
500.733610 140.870650 14.120286 0.000000
498.751710 140.712330 13.920524 0.000000
520.374080 141.911250 14.382248 0.000000
519.650450 141.784360 14.318396 0.000000
496.213100 139.836560 14.197878 0.000000
496.092900 139.676240 13.818258 0.000000
517.731450 140.419750 14.293824 0.000000
517.753300 139.886030 14.364650 0.000000
513.425600 139.551300 14.419098 0.000000
517.232540 139.588070 14.357358 0.000000
516.909360 139.540120 14.335920 0.000000
515.621640 139.432370 14.246044 0.000000
498.012240 137.911960 13.919130 0.000000
497.170230 137.826970 13.966629 0.000000
496.925200 138.062840 13.951616 0.000000
514.751340 138.928210 14.252723 0.000000
514.323300 138.831480 14.237179 0.000000
498.415650 136.610170 14.054802 0.000000
518.828370 137.787690 14.301586 0.000000
498.627320 136.276210 14.086517 0.000000
514.760310 137.019740 14.526114 0.000000
496.304570 141.351720 14.386400 0.000000
520.246770 142.835830 14.636726 0.000000
519.625310 143.011780 14.534510 0.000000
519.817930 142.442570 14.631575 0.000000
519.666020 142.186100 14.645742 0.000000
518.155940 142.140900 14.469802 0.000000
499.048250 140.669830 14.261617 0.000000
519.580020 141.858860 14.678130 0.000000
496.284150 139.937590 14.583520 0.000000
495.987490 140.076680 14.589299 0.000000
517.602910 140.594860 14.628188 0.000000
497.620730 139.099790 14.599644 0.000000
517.705750 139.953580 14.733325 0.000000
514.905520 139.584670 14.527539 0.000000
514.505190 139.778780 14.463552 0.000000
517.689820 139.449540 14.806630 0.000000
517.145570 139.448670 14.752473 0.000000
516.668700 139.365340 14.719065 0.000000
515.212400 139.597550 14.551331 0.000000
514.431270 139.282330 14.538173 0.000000
516.393620 139.247770 14.711472 0.000000
514.236570 139.028140 14.564690 0.000000
513.457340 138.694640 14.563782 0.000000
499.008730 137.711650 14.309763 0.000000
498.423740 137.665250 14.345704 0.000000
497.111300 137.757170 14.405988 0.000000
497.595700 137.257680 14.444924 0.000000
498.745420 136.522090 14.486893 0.000000
517.746580 137.601290 14.666306 0.000000
519.057740 137.453570 14.798778 0.000000
517.784060 136.880160 14.766947 0.000000
520.371770 140.124210 15.006332 0.000000
496.979490 147.988480 9.637478 0.000000
497.055600 147.565950 9.620675 0.000000
518.877750 148.699780 9.905871 0.000000
517.042420 148.602520 9.881016 0.000000
497.147710 147.140780 9.603785 0.000000
518.869510 148.329910 9.892313 0.000000
516.989010 148.293010 9.870285 0.000000
497.263150 146.718780 9.588325 0.000000
518.853270 147.956420 9.878391 0.000000
516.912290 147.874620 9.854360 0.000000
497.452640 146.208080 9.573889 0.000000
497.373140 146.411760 9.579562 0.000000
518.824650 147.579790 9.864340 0.000000
516.819210 147.454710 9.838131 0.000000
498.436070 145.838960 9.683050 0.000000
498.037870 145.887050 9.630836 0.000000
497.755100 145.914990 9.592296 0.000000
496.388240 145.805420 9.671066 0.000000
495.902160 145.878010 9.609743 0.000000
518.786620 147.200530 9.850077 0.000000
516.709530 147.033940 9.821590 0.000000
498.758210 145.732710 9.717539 0.000000
518.736510 146.818370 9.835552 0.000000
516.582400 146.613430 9.804856 0.000000
518.675840 146.434630 9.820930 0.000000
518.629640 146.176990 9.810891 0.000000
516.475520 146.298970 9.792264 0.000000
518.125490 145.933440 9.853644 0.000000
517.653080 145.836150 9.900296 0.000000
516.071040 145.949660 9.811548 0.000000
515.660160 145.892680 9.855833 0.000000
515.315860 145.794170 9.886659 0.000000
514.901060 145.496440 9.903562 0.000000
497.789580 144.303630 9.729436 0.000000
520.596980 145.902280 9.911144 0.000000
520.136900 145.698100 9.948343 0.000000
517.219600 145.583890 9.930060 0.000000
514.779480 145.333540 9.899753 0.000000
514.684450 145.139800 9.889178 0.000000
500.597560 144.051730 9.752373 0.000000
498.099000 143.793990 9.719111 0.000000
497.970950 143.995880 9.723052 0.000000
519.736390 145.152500 9.961281 0.000000
516.838320 145.155150 9.938163 0.000000
516.752080 144.925380 9.928835 0.000000
514.557190 144.823060 9.867619 0.000000
500.892760 143.763840 9.746841 0.000000
498.233180 143.595730 9.715595 0.000000
519.695980 144.852840 9.949552 0.000000
516.602970 144.590840 9.916431 0.000000
514.323550 144.460660 9.850011 0.000000
501.361540 143.353940 9.739391 0.000000
501.122010 143.553470 9.742669 0.000000
498.592290 143.114150 9.707985 0.000000
498.361270 143.386520 9.709724 0.000000
519.743960 144.484040 9.925077 0.000000
519.594540 144.250900 9.926048 0.000000
516.442440 144.259720 9.904211 0.000000
516.329350 144.039980 9.895901 0.000000
514.132140 144.200150 9.838105 0.000000
513.930050 143.945630 9.826326 0.000000
501.607150 143.159900 9.736169 0.000000
519.534120 143.948390 9.914173 0.000000
516.148930 143.714040 9.883520 0.000000
513.470090 143.498230 9.811055 0.000000
513.124630 143.453660 9.833496 0.000000
501.912510 142.581830 9.683271 0.000000
498.613370 142.550200 9.653405 0.000000
495.837920 142.082960 9.654612 0.000000
519.465580 143.646240 9.902418 0.000000
515.897340 143.278290 9.865789 0.000000
512.962710 143.316090 9.828327 0.000000
512.803220 143.171480 9.821407 0.000000
503.010830 142.192750 9.711803 0.000000
502.708440 142.289490 9.704357 0.000000
502.308410 142.429310 9.694055 0.000000
499.551910 142.001040 9.688372 0.000000
499.233490 142.173370 9.676543 0.000000
496.301790 141.764600 9.677636 0.000000
496.070920 141.923930 9.666561 0.000000
519.390930 143.343060 9.890511 0.000000
515.844600 142.774870 9.822221 0.000000
512.564030 142.717960 9.778108 0.000000
512.256590 142.610810 9.783936 0.000000
511.939060 142.529790 9.792664 0.000000
511.622130 142.455870 9.800702 0.000000
504.239040 141.879810 9.738708 0.000000
503.929780 141.947940 9.732458 0.000000
503.519590 142.049160 9.723640 0.000000
503.213840 142.133120 9.716701 0.000000
500.308470 141.631260 9.715412 0.000000
499.982450 141.784960 9.704054 0.000000
497.238010 141.385680 9.737921 0.000000
496.803650 141.500080 9.706047 0.000000
496.539120 141.614690 9.689442 0.000000
519.337040 142.632810 9.849785 0.000000
515.561280 142.537230 9.822416 0.000000
515.208130 142.392040 9.836216 0.000000
514.973270 142.299450 9.844921 0.000000
511.200620 142.366390 9.810462 0.000000
510.781980 142.282790 9.818321 0.000000
510.383510 142.146380 9.815050 0.000000
509.986760 142.000440 9.807732 0.000000
509.685520 141.899340 9.801982 0.000000
506.329620 141.623230 9.773850 0.000000
506.013920 141.639070 9.769079 0.000000
505.593480 141.670460 9.762157 0.000000
505.174740 141.720640 9.755584 0.000000
504.757690 141.783690 9.748449 0.000000
504.446110 141.838850 9.742722 0.000000
501.603000 141.317470 9.781412 0.000000
501.131290 141.415330 9.757622 0.000000
500.774380 141.493100 9.738479 0.000000
500.537260 141.552380 9.725793 0.000000
497.657070 141.264400 9.766542 0.000000
519.074830 142.478900 9.861840 0.000000
518.812870 142.328980 9.873480 0.000000
518.550900 142.183290 9.884752 0.000000
514.740420 142.207700 9.852908 0.000000
514.392700 142.074770 9.863968 0.000000
513.932370 141.903320 9.876953 0.000000
513.589540 141.778550 9.885342 0.000000
509.482210 141.839230 9.798450 0.000000
509.170990 141.776090 9.796068 0.000000
508.753390 141.706650 9.793008 0.000000
508.332430 141.662480 9.791252 0.000000
507.910640 141.633320 9.789206 0.000000
507.594330 141.617890 9.787041 0.000000
507.278080 141.606350 9.783856 0.000000
506.856320 141.599820 9.778821 0.000000
506.540160 141.612980 9.776216 0.000000
502.074460 140.902790 9.763996 0.000000
518.290100 142.040680 9.895494 0.000000
518.021850 141.910000 9.907040 0.000000
517.748720 141.789200 9.919042 0.000000
513.246700 141.661410 9.892992 0.000000
512.797240 141.499020 9.899908 0.000000
512.460630 141.381730 9.904006 0.000000
512.234380 141.310490 9.906812 0.000000
502.402440 140.756320 9.767040 0.000000
498.165370 140.311970 9.728479 0.000000
517.476140 141.672870 9.930697 0.000000
517.197510 141.568570 9.943089 0.000000
516.926390 141.460720 9.954017 0.000000
512.012020 141.232180 9.907955 0.000000
511.677280 141.119920 9.909092 0.000000
511.228790 140.979950 9.909791 0.000000
510.889680 140.885650 9.910168 0.000000
510.548000 140.803050 9.910524 0.000000
502.915370 140.388000 9.751621 0.000000
502.653350 140.361370 9.733215 0.000000
498.462770 139.998350 9.725027 0.000000
516.551640 141.041180 9.945783 0.000000
510.002780 140.569980 9.895430 0.000000
509.805510 140.372300 9.874432 0.000000
503.679230 139.932590 9.733153 0.000000
503.354280 140.151150 9.745194 0.000000
503.098570 140.141690 9.730611 0.000000
498.876070 139.590290 9.720339 0.000000
498.667330 139.793210 9.722740 0.000000
516.436710 140.728780 9.927334 0.000000
516.315730 140.413770 9.908413 0.000000
509.602630 140.176060 9.853092 0.000000
509.260130 140.042720 9.841253 0.000000
505.243410 139.541870 9.742845 0.000000
504.998840 139.587650 9.741180 0.000000
504.633640 139.653670 9.737073 0.000000
504.276980 139.777020 9.739410 0.000000
499.305760 139.190840 9.715125 0.000000
499.088810 139.389340 9.717785 0.000000
495.840270 138.814870 9.804666 0.000000
516.262820 139.988130 9.875046 0.000000
515.940730 139.949810 9.891293 0.000000
508.945800 139.691040 9.799391 0.000000
508.580960 139.623200 9.793396 0.000000
508.092620 139.532440 9.783168 0.000000
507.724210 139.467470 9.774243 0.000000
507.353610 139.392230 9.762297 0.000000
506.980380 139.298450 9.746546 0.000000
506.608310 139.592090 9.780305 0.000000
506.109190 139.458890 9.753760 0.000000
505.728030 139.366420 9.733030 0.000000
499.751370 138.799610 9.709241 0.000000
499.526280 138.993550 9.712185 0.000000
500.511410 138.378280 9.717883 0.000000
500.249050 138.500170 9.713239 0.000000
499.990810 138.630550 9.709042 0.000000
515.818240 139.330180 9.843176 0.000000
514.583680 139.140030 9.891170 0.000000
500.775300 138.259060 9.722224 0.000000
520.581240 139.207780 9.948343 0.000000
520.072690 139.248380 9.982243 0.000000
519.557010 139.316710 10.017570 0.000000
514.246220 138.851530 9.879784 0.000000
514.010380 138.674260 9.873262 0.000000
513.059270 138.697360 9.914383 0.000000
512.749150 138.712520 9.927257 0.000000
512.222110 138.518600 9.925159 0.000000
519.432980 138.946270 10.002266 0.000000
519.263490 138.620070 9.991704 0.000000
515.692990 138.670960 9.790302 0.000000
515.399480 138.572680 9.796804 0.000000
513.770570 138.500780 9.866618 0.000000
513.525820 138.333310 9.860103 0.000000
511.854310 138.286960 9.912126 0.000000
518.530330 137.302750 9.945172 0.000000
498.427280 157.195570 9.859642 0.000000
496.955380 157.017790 9.847336 0.000000
498.238160 156.926250 9.849607 0.000000
498.068760 156.729050 9.835278 0.000000
496.742100 156.796280 9.828462 0.000000
496.529170 156.567900 9.809112 0.000000
497.593440 156.357240 9.776946 0.000000
496.872440 156.188920 9.656066 0.000000
496.040990 156.299320 9.746244 0.000000
516.633910 157.337590 10.089586 0.000000
515.290160 157.261920 10.065816 0.000000
496.713870 155.855530 9.647232 0.000000
518.610230 157.162660 10.110469 0.000000
516.832950 157.116560 10.079372 0.000000
515.582340 156.943790 10.049033 0.000000
496.634250 155.501710 9.652014 0.000000
518.852540 156.894550 10.098022 0.000000
517.163450 156.734450 10.061172 0.000000
517.031190 156.889620 10.068702 0.000000
516.173400 156.440660 9.996552 0.000000
515.808290 156.677110 10.035828 0.000000
496.566470 155.145030 9.656912 0.000000
520.273130 156.406020 9.958892 0.000000
519.437500 156.468510 10.052992 0.000000
518.514220 156.261250 9.905018 0.000000
518.200260 156.401210 9.940334 0.000000
517.579470 156.453450 10.022206 0.000000
516.989750 156.204150 9.883828 0.000000
516.654970 156.396070 9.924086 0.000000
496.499660 154.695650 9.663294 0.000000
520.567080 156.093410 9.938817 0.000000
518.577820 155.955570 9.912242 0.000000
517.071960 155.849520 9.892333 0.000000
496.450650 154.243360 9.669865 0.000000
520.617800 155.732890 9.948240 0.000000
518.648800 155.545410 9.922051 0.000000
517.141600 155.492170 9.900762 0.000000
496.430600 153.970810 9.673933 0.000000
496.421450 153.788710 9.676705 0.000000
517.185970 155.222720 9.907031 0.000000
496.415040 153.515150 9.681126 0.000000
496.424470 153.150450 9.688543 0.000000
496.440090 152.693620 9.695272 0.000000
496.438200 152.232070 9.695430 0.000000
496.449160 151.860820 9.695241 0.000000
518.730160 153.161850 9.982180 0.000000
517.243900 153.137100 9.959481 0.000000
496.472960 151.488480 9.695167 0.000000
520.686220 153.075030 10.015059 0.000000
518.722470 152.850620 9.987101 0.000000
517.240600 152.681530 9.963632 0.000000
496.510250 151.115600 9.695293 0.000000
520.727540 152.587270 10.016624 0.000000
518.755800 152.429720 9.985731 0.000000
517.257870 152.219880 9.961206 0.000000
496.560730 150.742610 9.695547 0.000000
518.793400 152.002640 9.981558 0.000000
517.257810 151.847730 9.958880 0.000000
496.643130 150.276930 9.696032 0.000000
518.844600 151.566300 9.973224 0.000000
517.269100 151.468380 9.952395 0.000000
496.756350 149.715480 9.694652 0.000000
496.715090 149.902500 9.695127 0.000000
518.874450 151.235200 9.966722 0.000000
517.273930 151.084210 9.944593 0.000000
496.820770 149.433690 9.693164 0.000000
518.894780 150.900620 9.960067 0.000000
517.265010 150.696880 9.936598 0.000000
496.859410 149.031070 9.679671 0.000000
518.908570 150.450380 9.951026 0.000000
517.242980 150.306630 9.928257 0.000000
496.895690 148.616790 9.662777 0.000000
518.906980 149.995350 9.941663 0.000000
517.217160 150.012650 9.921933 0.000000
517.195130 149.816060 9.917658 0.000000
496.932620 148.303670 9.650116 0.000000
518.890500 149.535720 9.931826 0.000000
517.156010 149.519940 9.910931 0.000000
518.887570 149.181230 9.921440 0.000000
517.111820 149.115010 9.898308 0.000000
518.884220 148.941470 9.913791 0.000000
517.073360 148.807940 9.887978 0.000000
499.145690 145.565990 9.752904 0.000000
498.949650 145.645080 9.734762 0.000000
496.865050 145.603440 9.720099 0.000000
499.553340 145.290240 9.776235 0.000000
497.352720 145.136350 9.746677 0.000000
499.983580 144.734070 9.765780 0.000000
499.792970 144.968320 9.769875 0.000000
497.616030 144.612850 9.735657 0.000000
497.507230 144.821530 9.740053 0.000000
500.447510 144.375810 10.029474 0.000000
500.246950 144.514760 9.896974 0.000000
517.774290 139.949300 10.159922 0.000000
517.450440 139.356870 10.138693 0.000000
496.628270 161.009990 9.988863 0.000000
501.645260 161.023280 10.044304 0.000000
499.302950 161.009000 10.015158 0.000000
498.983520 160.802720 10.003359 0.000000
496.441440 160.872020 9.981396 0.000000
496.183170 160.644520 9.973330 0.000000
503.697480 160.991230 10.052830 0.000000
503.290560 160.874880 10.038519 0.000000
502.883610 160.742140 10.023260 0.000000
502.617950 160.635800 10.014764 0.000000
501.286130 160.846100 10.032493 0.000000
500.929260 160.654710 10.020117 0.000000
500.645200 160.492890 10.009872 0.000000
498.748110 160.638790 9.994923 0.000000
498.507810 160.473360 9.985024 0.000000
498.271210 160.300220 9.975487 0.000000
495.926030 160.411220 9.965002 0.000000
512.090270 161.014800 10.174818 0.000000
510.141020 160.877120 10.145885 0.000000
509.747380 161.005190 10.144646 0.000000
502.430020 160.534130 10.012045 0.000000
502.120000 160.356540 10.007045 0.000000
501.813450 160.169750 10.001394 0.000000
500.433140 160.365160 10.001867 0.000000
500.152530 160.186720 9.991072 0.000000
499.942810 160.047620 9.982654 0.000000
498.036100 160.120090 9.965749 0.000000
497.723850 159.871080 9.952318 0.000000
516.599550 161.024170 10.280577 0.000000
514.355040 160.797940 10.233027 0.000000
514.131160 160.956190 10.233406 0.000000
512.764890 160.597700 10.178839 0.000000
512.498720 160.771970 10.177050 0.000000
510.917690 160.569380 10.146882 0.000000
510.531340 160.731960 10.146618 0.000000
501.631500 160.052700 9.997725 0.000000
501.390620 159.891050 9.992147 0.000000
501.144710 159.731450 9.984113 0.000000
499.735930 159.901440 9.974379 0.000000
499.391110 159.648560 9.959483 0.000000
497.350920 159.534930 9.937431 0.000000
520.614500 160.843670 10.313209 0.000000
519.899110 161.062070 10.345551 0.000000
517.305300 160.598530 10.262230 0.000000
517.018550 160.797760 10.268045 0.000000
514.872500 160.408750 10.230969 0.000000
514.577510 160.634230 10.232343 0.000000
513.292480 160.230450 10.179996 0.000000
513.031430 160.418960 10.179218 0.000000
511.642120 160.146210 10.156704 0.000000
511.347200 160.334960 10.151598 0.000000
500.958280 159.609880 9.976753 0.000000
500.650480 159.397160 9.964108 0.000000
500.408660 159.217100 9.954207 0.000000
498.987000 159.322560 9.941943 0.000000
498.720890 159.094100 9.929833 0.000000
496.998290 159.174060 9.924699 0.000000
496.790470 158.949430 9.916882 0.000000
517.782100 160.246810 10.251981 0.000000
517.496520 160.461010 10.258175 0.000000
515.312070 160.054580 10.227703 0.000000
515.092650 160.234270 10.229559 0.000000
513.675290 159.930220 10.180844 0.000000
513.485530 160.082960 10.180358 0.000000
512.132140 159.856860 10.154895 0.000000
511.825200 160.038930 10.156713 0.000000
500.165830 159.030900 9.942855 0.000000
499.927400 158.836010 9.931770 0.000000
498.523680 158.915480 9.920484 0.000000
498.330810 158.730330 9.911512 0.000000
496.584840 158.718520 9.908727 0.000000
518.161070 159.948100 10.243471 0.000000
515.789180 159.707950 10.216352 0.000000
515.547180 159.882170 10.222799 0.000000
514.152710 159.486560 10.184684 0.000000
513.905520 159.702740 10.185064 0.000000
512.618770 159.544570 10.150165 0.000000
512.376950 159.705350 10.152688 0.000000
499.750820 158.683490 9.923224 0.000000
499.519440 158.472170 9.911873 0.000000
498.151580 158.532910 9.904586 0.000000
497.974850 158.330950 9.897530 0.000000
496.296810 158.409470 9.894587 0.000000
496.067630 158.176790 9.881138 0.000000
518.538020 159.633740 10.234568 0.000000
516.248290 159.326140 10.206212 0.000000
516.030460 159.527500 10.209707 0.000000
514.546570 159.168430 10.177378 0.000000
514.350650 159.330060 10.181063 0.000000
513.331600 159.020020 10.140053 0.000000
513.036800 159.245930 10.144703 0.000000
499.348880 158.307800 9.903358 0.000000
499.126310 158.079560 9.891923 0.000000
497.799960 158.124010 9.890029 0.000000
497.630130 157.911320 9.882857 0.000000
495.841520 157.935330 9.867556 0.000000
519.007690 159.219500 10.222678 0.000000
518.818180 159.387450 10.227769 0.000000
516.613160 158.980560 10.199025 0.000000
516.445980 159.108730 10.205287 0.000000
514.949770 158.839170 10.166270 0.000000
514.742920 159.002430 10.173021 0.000000
513.564030 158.828990 10.135727 0.000000
498.815890 157.714110 9.877813 0.000000
497.462520 157.693500 9.875275 0.000000
497.297820 157.471050 9.867558 0.000000
519.469180 158.905620 10.202464 0.000000
519.193910 159.046230 10.217772 0.000000
517.034000 158.646240 10.182211 0.000000
516.781310 158.849520 10.192459 0.000000
515.440730 158.440980 10.147151 0.000000
515.159790 158.671920 10.158436 0.000000
514.151000 158.329970 10.119413 0.000000
513.910460 158.530330 10.127892 0.000000
498.618620 157.459320 9.868925 0.000000
497.136290 157.243030 9.859567 0.000000
519.602840 158.573840 10.211017 0.000000
517.457150 158.291640 10.164030 0.000000
517.287780 158.436330 10.171466 0.000000
515.864070 158.075620 10.128345 0.000000
515.652470 158.261720 10.138005 0.000000
514.393800 158.121930 10.109347 0.000000
520.317690 158.053530 10.176224 0.000000
517.879580 157.912780 10.144709 0.000000
517.627990 158.143860 10.156206 0.000000
516.216130 157.752060 10.111297 0.000000
516.076350 157.884230 10.118123 0.000000
514.994450 157.564160 10.081427 0.000000
514.755490 157.793930 10.093049 0.000000
520.685670 157.776320 10.157295 0.000000
518.286070 157.505710 10.126241 0.000000
518.124020 157.671630 10.133748 0.000000
516.426510 157.548340 10.100456 0.000000
515.113160 157.445250 10.075317 0.000000
518.448120 157.336070 10.118488 0.000000
500.440700 144.385800 10.531462 0.000000
500.276000 144.489900 10.401003 0.000000
517.696530 140.049480 10.553718 0.000000
517.397580 139.939700 10.560839 0.000000
500.437260 144.390660 10.780560 0.000000
500.263820 144.487400 10.774539 0.000000
517.674010 140.080060 10.937273 0.000000
517.455020 139.866560 10.936912 0.000000
500.430110 144.395000 11.152346 0.000000
500.250890 144.483780 11.146594 0.000000
517.675960 140.079800 11.317738 0.000000
500.422790 144.398990 11.523197 0.000000
500.230190 144.474090 11.642279 0.000000
500.417880 144.401630 11.770224 0.000000
517.929380 140.253680 11.887166 0.000000
496.834230 138.634430 11.651827 0.000000
517.693300 140.061230 11.888536 0.000000
500.214050 144.465970 12.014979 0.000000
500.412960 144.404270 12.017392 0.000000
496.151310 139.326800 12.217402 0.000000
497.118160 139.085780 12.226815 0.000000
517.927490 140.259580 12.458539 0.000000
517.730220 140.018020 12.462653 0.000000
496.998110 138.328380 12.256848 0.000000
498.206020 137.880110 12.276551 0.000000
498.701840 137.463180 12.294742 0.000000
498.435300 137.638660 12.286888 0.000000
500.197420 144.457320 12.389766 0.000000
500.405580 144.408250 12.389016 0.000000
519.452880 143.323670 12.745748 0.000000
518.504760 143.400250 12.698595 0.000000
518.187740 143.137590 12.697777 0.000000
515.100400 141.691930 12.649895 0.000000
514.802980 141.679290 12.639648 0.000000
496.211670 139.423000 12.603280 0.000000
497.196410 139.218930 12.602527 0.000000
513.576050 140.188570 12.686066 0.000000
513.427800 139.884990 12.699828 0.000000
518.013790 140.157120 12.849501 0.000000
517.768250 139.972370 12.849933 0.000000
515.685970 139.820210 12.779762 0.000000
496.986450 138.326510 12.656734 0.000000
517.614440 139.668320 12.860884 0.000000
500.179600 144.447020 12.767141 0.000000
500.398130 144.412230 12.762113 0.000000
496.599950 142.990750 12.726247 0.000000
496.379940 143.136660 12.723527 0.000000
499.279790 142.364700 12.695370 0.000000
497.546630 142.510410 12.730740 0.000000
499.521970 142.300840 12.694607 0.000000
497.527950 142.079770 12.762451 0.000000
520.311770 143.388760 13.155388 0.000000
520.035770 143.229030 13.147561 0.000000
518.344360 143.181440 13.045058 0.000000
516.198180 143.142060 12.922136 0.000000
515.997920 142.996250 12.921376 0.000000
519.456420 142.948720 13.128733 0.000000
518.198610 142.943530 13.052018 0.000000
518.038880 142.716550 13.057720 0.000000
519.434750 142.580470 13.151171 0.000000
517.763120 142.209320 13.076262 0.000000
516.433840 142.078660 13.011088 0.000000
516.057920 142.127670 12.987322 0.000000
514.878230 141.566270 12.968992 0.000000
514.311950 141.515200 12.945897 0.000000
514.020570 141.516950 12.932280 0.000000
515.926150 141.434250 13.031450 0.000000
515.618410 141.405550 13.017890 0.000000
496.248810 139.487850 12.988058 0.000000
514.615420 139.959270 13.081274 0.000000
517.331600 140.039400 13.207619 0.000000
516.460630 139.710490 13.187705 0.000000
515.650760 139.876220 13.135640 0.000000
514.042540 139.862870 13.063835 0.000000
498.379880 137.568740 13.088434 0.000000
499.165620 136.166920 12.768864 0.000000
500.153590 144.425580 13.150417 0.000000
500.390660 144.416230 13.137952 0.000000
499.320950 141.999590 13.028743 0.000000
516.857540 143.169890 13.600698 0.000000
498.943540 141.872040 13.054166 0.000000
518.010500 142.747620 13.399117 0.000000
516.724180 142.549290 13.322323 0.000000
517.904050 142.465030 13.414799 0.000000
515.475400 142.046520 13.443361 0.000000
515.193910 142.002940 13.268950 0.000000
500.225400 141.106990 13.087210 0.000000
499.595120 141.006380 13.115643 0.000000
499.246490 140.919920 13.135000 0.000000
516.843570 142.007160 13.378227 0.000000
516.526610 141.968050 13.359888 0.000000
515.820250 142.013570 13.308435 0.000000
515.441410 141.197100 13.359710 0.000000
513.770750 141.455410 13.236454 0.000000
496.298250 139.569120 13.368869 0.000000
515.285580 140.193240 13.445572 0.000000
514.748840 140.278020 13.406245 0.000000
514.069270 140.103270 13.385862 0.000000
517.835020 139.892680 13.634479 0.000000
515.914250 139.999070 13.501658 0.000000
499.056180 138.224060 13.406027 0.000000
498.763150 136.894900 13.135989 0.000000
498.919460 136.453380 13.169314 0.000000
500.382930 144.420010 13.516777 0.000000
500.124050 144.399350 13.539531 0.000000
517.090580 143.296170 13.608676 0.000000
517.099240 142.917860 13.979467 0.000000
516.851750 142.800310 13.802210 0.000000
516.212710 142.750930 13.910070 0.000000
516.809140 142.456820 13.836596 0.000000
516.092770 142.087570 13.649159 0.000000
520.458560 142.100780 14.036703 0.000000
516.482240 142.024050 13.687711 0.000000
520.240840 141.875000 14.037085 0.000000
520.099430 141.579910 14.051831 0.000000
519.631290 141.157610 14.049742 0.000000
514.464970 140.761000 13.676384 0.000000
498.549620 139.760040 13.628573 0.000000
496.325620 139.620670 13.751571 0.000000
495.988430 139.687010 13.762415 0.000000
515.127140 140.700940 13.729528 0.000000
514.848880 140.638000 13.717095 0.000000
513.780880 140.365040 13.678031 0.000000
513.398620 140.540620 13.961420 0.000000
497.526210 139.216510 13.737028 0.000000
513.591550 140.153750 13.691471 0.000000
513.357420 140.027360 13.860662 0.000000
516.266660 139.995540 13.892578 0.000000
498.674530 138.166440 13.810543 0.000000
498.217350 137.970830 13.851562 0.000000
497.112030 137.955440 13.490911 0.000000
515.242490 138.847930 13.951909 0.000000
514.822570 138.995130 13.907025 0.000000
520.637150 139.181380 13.893111 0.000000
520.220340 139.117260 13.868493 0.000000
498.434690 136.230790 13.621862 0.000000
496.850710 143.297730 13.975708 0.000000
496.299620 143.100420 14.053976 0.000000
516.759090 143.093440 14.250018 0.000000
519.997250 142.891300 14.298924 0.000000
516.610350 142.685300 14.288129 0.000000
519.852110 142.622800 14.311025 0.000000
519.702580 142.355190 14.323223 0.000000
516.564330 142.341290 14.330441 0.000000
500.653170 140.892560 14.047346 0.000000
499.957460 140.915270 14.083544 0.000000
499.121950 140.752560 14.161510 0.000000
498.814210 140.742720 13.842508 0.000000
498.697360 140.568100 14.218327 0.000000
496.069460 139.806520 14.135735 0.000000
520.129150 141.556660 14.458214 0.000000
519.703370 141.525710 14.415245 0.000000
496.279940 139.574340 14.151054 0.000000
517.244750 140.639980 14.270346 0.000000
514.679690 140.395860 14.078036 0.000000
497.548340 139.266560 14.112009 0.000000
517.680050 139.590790 14.443003 0.000000
517.309690 139.566910 14.412001 0.000000
516.959170 139.527370 14.385510 0.000000
515.583560 139.437100 14.279984 0.000000
499.316990 138.103300 14.179932 0.000000
497.099820 137.952700 13.901138 0.000000
514.965940 139.038650 14.285364 0.000000
513.668820 138.698180 14.239552 0.000000
498.772950 137.696820 14.261568 0.000000
498.422450 137.704300 14.277184 0.000000
498.525390 137.186040 13.932955 0.000000
519.160220 137.657440 14.373573 0.000000
517.891480 137.007720 14.348976 0.000000
519.793090 143.439040 14.588964 0.000000
496.307770 141.509220 14.268146 0.000000
519.690730 143.147950 14.609994 0.000000
519.508730 142.919920 14.613766 0.000000
519.381650 142.642870 14.631439 0.000000
519.505370 142.131940 14.711041 0.000000
518.180360 142.193070 14.539388 0.000000
519.561280 141.664280 14.777433 0.000000
496.144780 139.918470 14.506590 0.000000
496.252290 139.552350 14.550852 0.000000
517.654480 140.605450 14.695206 0.000000
497.514100 139.229000 14.504206 0.000000
517.780640 139.967880 14.799374 0.000000
515.152100 139.592220 14.592236 0.000000
514.471070 139.643020 14.524044 0.000000
513.791140 139.749690 14.450179 0.000000
517.595890 139.702620 14.817529 0.000000
517.372990 139.483110 14.825867 0.000000
517.029240 139.430620 14.798078 0.000000
516.706970 139.356410 14.776515 0.000000
514.918210 139.421940 14.597729 0.000000
513.636720 139.437410 14.487911 0.000000
516.420040 139.236560 14.766109 0.000000
516.119020 139.142610 14.751245 0.000000
514.420350 139.131450 14.600569 0.000000
513.658510 138.718720 14.605759 0.000000
513.363220 138.673710 14.590870 0.000000
499.890140 137.919650 14.567867 0.000000
498.082430 137.742200 14.288809 0.000000
497.206940 137.516240 14.365632 0.000000
517.718990 137.269850 14.746292 0.000000
517.854740 136.412490 14.871220 0.000000
498.104490 136.388850 14.909184 0.000000
495.854950 148.188230 9.631281 0.000000
495.903960 147.872210 9.618695 0.000000
495.982670 147.448500 9.601885 0.000000
496.078190 147.022890 9.585148 0.000000
517.732480 148.185790 9.874672 0.000000
515.912410 148.363130 9.859519 0.000000
515.873840 148.158450 9.852426 0.000000
496.192900 146.597560 9.568928 0.000000
520.127750 148.262530 9.903730 0.000000
517.720520 147.938630 9.865309 0.000000
515.810000 147.849720 9.841315 0.000000
496.342470 146.185670 9.556628 0.000000
520.171260 147.667820 9.882652 0.000000
517.690060 147.566730 9.851558 0.000000
515.717710 147.433400 9.825127 0.000000
497.464810 145.799700 9.683939 0.000000
497.089050 145.865740 9.637124 0.000000
496.808230 145.893190 9.599149 0.000000
520.139470 147.237170 9.872675 0.000000
517.634520 147.066470 9.832796 0.000000
515.637570 147.120960 9.812918 0.000000
515.578800 146.912450 9.804652 0.000000
520.201840 146.753050 9.849478 0.000000
517.581120 146.688490 9.818459 0.000000
515.481630 146.600190 9.792227 0.000000
520.200500 146.443190 9.838228 0.000000
517.515380 146.308180 9.803873 0.000000
515.375430 146.288700 9.779767 0.000000
515.109250 145.964660 9.784608 0.000000
514.697630 145.907680 9.829732 0.000000
496.555450 144.486790 9.716907 0.000000
520.193050 146.131100 9.826899 0.000000
