# .PCD v0.7 - Point Cloud Data file format
VERSION 0.7
FIELDS x y z intensity
SIZE 4 4 4 4
TYPE F F F F
COUNT 1 1 1 1
WIDTH 1166
HEIGHT 1
VIEWPOINT 0 0 0 1 0 0 0
POINTS 1166
DATA ascii
496.527400 352.298830 21.601187 0.000000
509.234650 339.613950 16.785870 0.000000
509.641660 340.212040 16.830063 0.000000
509.269990 342.362240 16.879141 0.000000
510.280090 340.632750 16.881338 0.000000
497.348790 346.870540 17.542107 0.000000
497.605190 349.084170 17.656395 0.000000
497.607790 347.872130 17.599913 0.000000
497.604490 350.326630 17.713993 0.000000
497.603030 351.603640 17.772772 0.000000
496.533510 347.340180 18.762249 0.000000
496.531860 348.547730 18.834135 0.000000
496.530090 349.785890 18.907845 0.000000
496.528500 351.056370 18.983482 0.000000
496.526610 352.361720 19.061190 0.000000
497.583680 352.830140 19.113997 0.000000
496.532350 347.248080 19.988274 0.000000
496.530640 348.453740 20.075239 0.000000
496.528870 349.689940 20.164791 0.000000
496.527250 350.958340 20.257069 0.000000
496.525390 352.261540 20.352268 0.000000
497.469240 352.823150 20.399683 0.000000
496.531160 347.155940 21.213997 0.000000
496.529450 348.359770 21.316021 0.000000
496.527620 349.593990 21.421391 0.000000
496.526030 350.860350 21.530283 0.000000
496.524110 352.161380 21.642950 0.000000
497.357030 352.813900 21.691151 0.000000
496.044530 346.877260 17.307222 0.000000
497.613370 346.984650 17.373569 0.000000
497.611820 348.205630 17.421043 0.000000
497.610470 349.458500 17.469381 0.000000
497.608800 350.745850 17.518648 0.000000
497.607210 352.069460 17.568914 0.000000
498.284360 352.850250 17.624403 0.000000
495.936220 346.868320 18.559273 0.000000
496.537840 347.670350 18.613882 0.000000
496.536190 348.918270 18.678486 0.000000
496.534790 350.198730 18.744778 0.000000
496.533080 351.514370 18.812885 0.000000
496.565000 352.839320 18.882206 0.000000
498.188810 352.841060 18.917564 0.000000
495.827480 346.859340 19.815639 0.000000
496.536830 347.586820 19.865171 0.000000
496.535220 348.832950 19.945753 0.000000
496.533780 350.111570 20.028826 0.000000
496.532040 351.425230 20.114573 0.000000
496.530640 352.775600 20.203121 0.000000
498.093020 352.831820 20.214619 0.000000
496.535830 347.503300 21.116247 0.000000
496.534180 348.747680 21.212784 0.000000
496.532750 350.024410 21.312618 0.000000
496.530980 351.336120 21.415979 0.000000
496.529330 352.684630 21.523050 0.000000
497.997770 352.821720 21.516729 0.000000
496.621120 346.866820 17.219168 0.000000
497.610290 347.388490 17.272776 0.000000
497.608830 348.652280 17.313719 0.000000
497.607060 349.950870 17.355389 0.000000
497.605380 351.286100 17.397839 0.000000
497.603640 352.660520 17.441132 0.000000
498.993410 352.840700 17.496429 0.000000
496.507140 346.873410 18.481453 0.000000
496.534850 348.111080 18.538443 0.000000
496.533390 349.402710 18.597328 0.000000
496.531560 350.729860 18.657829 0.000000
496.529850 352.094330 18.720034 0.000000
497.310030 352.829680 18.768614 0.000000
498.911740 352.831420 18.799572 0.000000
496.437230 346.848300 19.746784 0.000000
496.534120 348.035100 19.816355 0.000000
496.532590 349.325010 19.892193 0.000000
496.530820 350.650390 19.970514 0.000000
496.529050 352.013030 20.051447 0.000000
497.224490 352.820190 20.101406 0.000000
498.829900 352.822170 20.106028 0.000000
496.343570 346.839780 21.017340 0.000000
496.533330 347.959080 21.094187 0.000000
496.531800 349.247380 21.186960 0.000000
496.529970 350.570980 21.283085 0.000000
496.528260 351.931760 21.382719 0.000000
497.138580 352.810700 21.438917 0.000000
498.747800 352.812840 21.417040 0.000000
496.989260 346.874450 17.533226 0.000000
497.609710 347.684970 17.574753 0.000000
497.607910 348.992280 17.613285 0.000000
497.606290 350.336300 17.652510 0.000000
497.604430 351.720090 17.692478 0.000000
497.939450 352.846860 17.733791 0.000000
499.524990 352.847810 17.776253 0.000000
496.534330 348.446200 18.874483 0.000000
496.536070 347.145480 18.818592 0.000000
496.532500 349.782470 18.931900 0.000000
496.528900 352.570740 19.051710 0.000000
497.870790 352.837460 19.077343 0.000000
499.458530 352.839480 19.094191 0.000000
496.530850 351.156310 18.990934 0.000000
496.533630 348.380070 20.178904 0.000000
496.535370 347.080570 20.105911 0.000000
496.531800 349.715060 20.254292 0.000000
496.530150 351.087520 20.332207 0.000000
496.528170 352.500520 20.412840 0.000000
497.801970 352.828060 20.424088 0.000000
499.392850 352.830230 20.415201 0.000000
496.532960 348.313900 21.483841 0.000000
496.534700 347.015620 21.393749 0.000000
496.531070 349.647610 21.577202 0.000000
496.529450 351.018740 21.673992 0.000000
496.527470 352.430300 21.774479 0.000000
497.732880 352.818630 21.775311 0.000000
499.326970 352.820950 21.740547 0.000000
510.255920 341.144740 16.849888 0.000000
497.613040 349.548030 17.787458 0.000000
498.702330 352.854490 17.912815 0.000000
500.261660 352.856780 17.949972 0.000000
496.544740 347.637790 19.017242 0.000000
497.012180 352.844790 19.251652 0.000000
495.814090 346.872440 18.977570 0.000000
496.543430 348.984830 19.076920 0.000000
496.542210 350.370120 19.138294 0.000000
496.540860 351.796260 19.201479 0.000000
498.635440 352.846560 19.264526 0.000000
500.199460 352.847500 19.276897 0.000000
496.541840 348.918700 20.407532 0.000000
496.543150 347.572850 20.329668 0.000000
496.540590 350.302800 20.488016 0.000000
496.539250 351.727660 20.571291 0.000000
496.943540 352.835110 20.632872 0.000000
498.570680 352.836550 20.619453 0.000000
500.137180 352.838200 20.606958 0.000000
496.540220 348.852600 21.738911 0.000000
496.541600 347.507870 21.642855 0.000000
496.538730 350.235660 21.838531 0.000000
496.537630 351.659000 21.941879 0.000000
496.874690 352.825410 22.018791 0.000000
498.505100 352.827030 21.978951 0.000000
500.074650 352.828860 21.941429 0.000000
500.418180 352.871800 17.508438 0.000000
501.922670 352.873080 17.555479 0.000000
496.538020 350.459200 18.691778 0.000000
496.539460 349.035520 18.631433 0.000000
496.536740 351.925960 18.753952 0.000000
497.166600 352.859860 18.803518 0.000000
498.786650 352.861180 18.829210 0.000000
500.348570 352.862400 18.853975 0.000000
501.855830 352.863800 18.877888 0.000000
496.540220 347.579650 19.904369 0.000000
496.537350 350.383120 20.062275 0.000000
496.538790 348.961150 19.981977 0.000000
496.536070 351.848080 20.145426 0.000000
497.090580 352.850040 20.202364 0.000000
498.713870 352.851560 20.202221 0.000000
500.278750 352.852940 20.202488 0.000000
501.788910 352.854490 20.203167 0.000000
496.539580 347.506900 21.236055 0.000000
496.536680 350.306980 21.432865 0.000000
496.538150 348.886780 21.332630 0.000000
496.535340 351.770170 21.536980 0.000000
498.640810 352.841920 21.579622 0.000000
500.209810 352.842410 21.555170 0.000000
501.721740 352.845210 21.532583 0.000000
497.014280 352.840210 21.605742 0.000000
499.222080 352.836490 18.728893 0.000000
500.772830 352.838870 18.755239 0.000000
496.526670 349.244480 19.912825 0.000000
496.522800 352.225950 20.078627 0.000000
496.524660 350.712250 19.994236 0.000000
497.539430 352.825380 20.113174 0.000000
499.149840 352.827390 20.115231 0.000000
500.704100 352.829280 20.117624 0.000000
502.205750 352.831330 20.120359 0.000000
495.923070 346.843380 21.136822 0.000000
496.525630 349.168950 21.287033 0.000000
496.527650 347.746030 21.188477 0.000000
496.523620 350.634890 21.389420 0.000000
499.078030 352.817630 21.505819 0.000000
500.635190 352.819640 21.484154 0.000000
502.139530 352.821900 21.464060 0.000000
496.521700 352.146670 21.495876 0.000000
497.464630 352.815430 21.529123 0.000000
496.524540 351.575010 20.017193 0.000000
500.085600 352.830320 20.106133 0.000000
501.613740 352.831850 20.113655 0.000000
503.092320 352.833560 20.121361 0.000000
496.536870 347.032750 21.122219 0.000000
500.008180 352.820680 21.502977 0.000000
501.539280 352.822360 21.487383 0.000000
503.020690 352.824190 21.473135 0.000000
496.529300 351.482420 21.443607 0.000000
496.531130 349.953950 21.332359 0.000000
496.783600 352.816890 21.538441 0.000000
498.423190 352.819890 21.520056 0.000000
520.692380 346.413090 21.867981 0.000000
496.559230 347.456670 19.626040 0.000000
502.158600 352.829070 19.967726 0.000000
496.537050 347.391510 21.015343 0.000000
502.083070 352.820830 21.356148 0.000000
503.556240 352.822480 21.345924 0.000000
496.531740 352.002410 21.343218 0.000000
496.533450 350.416140 21.229546 0.000000
500.562840 352.818850 21.367542 0.000000
501.210720 352.851290 19.674059 0.000000
502.711490 352.861390 19.689159 0.000000
504.181180 352.855190 19.703508 0.000000
495.920140 346.866030 20.730412 0.000000
496.557770 347.809140 20.787106 0.000000
496.533810 350.960630 20.997768 0.000000
496.535400 349.368840 20.891006 0.000000
496.533140 352.605560 21.108994 0.000000
497.966980 352.837920 21.115498 0.000000
501.137120 352.841740 21.097723 0.000000
502.647980 352.843260 21.090515 0.000000
495.835970 346.856450 22.149818 0.000000
496.536500 347.745000 22.203711 0.000000
496.529480 349.288730 22.329332 0.000000
497.083800 352.808200 19.629381 0.000000
504.756500 352.804290 21.091198 0.000000
496.536770 348.326350 20.842165 0.000000
496.462010 346.848180 20.746374 0.000000
496.533260 351.574980 21.056921 0.000000
496.535060 349.923490 20.947300 0.000000
496.986510 352.818150 21.136759 0.000000
498.635890 352.820650 21.125650 0.000000
500.232540 352.822660 21.115759 0.000000
501.779750 352.824340 21.107035 0.000000
503.280330 352.826050 21.099436 0.000000
515.077090 352.806180 22.339287 0.000000
516.225830 352.840060 22.330765 0.000000
496.382870 346.837980 22.176060 0.000000
496.531100 348.248690 22.285213 0.000000
499.593050 336.384890 16.709375 0.000000
496.539150 348.777500 19.880537 0.000000
496.541230 347.173830 19.790480 0.000000
496.535860 352.151790 20.071423 0.000000
496.537720 350.435240 19.974089 0.000000
497.568050 352.832030 20.114527 0.000000
499.206910 352.833680 20.121981 0.000000
503.830020 352.838750 20.145647 0.000000
505.301090 352.817930 20.152742 0.000000
496.539090 348.689820 21.350197 0.000000
496.541200 347.088470 21.236183 0.000000
496.535830 352.058930 21.592842 0.000000
496.537660 350.345060 21.468948 0.000000
497.490570 352.820590 21.637890 0.000000
499.131650 352.823120 21.621101 0.000000
500.721980 352.825130 21.605696 0.000000
502.264740 352.826870 21.591623 0.000000
503.762540 352.828610 21.578838 0.000000
505.218260 352.830350 21.567278 0.000000
495.884250 346.837070 20.238104 0.000000
496.521420 351.249940 20.504066 0.000000
496.524080 349.521360 20.399002 0.000000
496.526550 347.852080 20.297997 0.000000
496.737790 352.808170 20.598942 0.000000
498.407230 352.810730 20.597683 0.000000
500.024930 352.813140 20.596916 0.000000
501.594480 352.815370 20.596617 0.000000
503.118770 352.817440 20.596767 0.000000
504.600400 352.819670 20.597366 0.000000
506.042180 352.822020 20.598392 0.000000
495.803250 346.826600 21.715778 0.000000
496.523320 349.433380 21.900166 0.000000
496.525790 347.766300 21.773661 0.000000
496.660580 352.797360 22.155817 0.000000
496.520660 351.159670 22.032095 0.000000
498.333130 352.800110 22.129852 0.000000
499.953670 352.802760 22.105616 0.000000
501.526090 352.805020 22.082979 0.000000
503.053040 352.807220 22.061893 0.000000
504.537170 352.809630 22.042297 0.000000
505.981510 352.811710 22.024078 0.000000
497.601440 349.204350 17.352539 0.000000
500.705470 352.866790 19.076761 0.000000
496.385590 346.857270 20.213312 0.000000
496.524900 351.924740 20.528860 0.000000
496.527220 350.126010 20.416435 0.000000
497.390660 352.828640 20.586895 0.000000
499.045230 352.830570 20.589973 0.000000
500.650090 352.832860 20.593452 0.000000
502.209110 352.834750 20.597265 0.000000
503.724880 352.836490 20.601418 0.000000
505.199860 352.838410 20.605917 0.000000
506.636570 352.840520 20.610752 0.000000
496.299990 346.847260 21.703495 0.000000
496.525390 351.824280 22.087952 0.000000
496.527710 350.028320 21.947081 0.000000
497.308990 352.818080 22.156008 0.000000
498.966490 352.820430 22.135143 0.000000
500.574550 352.822630 22.115826 0.000000
502.136350 352.824680 22.097969 0.000000
503.654880 352.826570 22.081501 0.000000
505.132350 352.828640 22.066385 0.000000
506.571810 352.830440 22.052523 0.000000
498.164400 352.826420 19.190479 0.000000
501.384000 352.838380 19.242825 0.000000
496.527590 350.795930 20.629324 0.000000
496.529880 348.996280 20.512020 0.000000
496.531980 347.260710 20.399355 0.000000
498.073820 352.824190 20.764593 0.000000
499.713750 352.826450 20.767862 0.000000
501.306760 352.828310 20.771481 0.000000
502.855650 352.830020 20.775454 0.000000
504.362820 352.831910 20.779789 0.000000
505.831210 352.833590 20.784447 0.000000
507.262880 352.835270 20.789436 0.000000
512.607180 352.832400 22.203606 0.000000
513.879640 352.848210 22.197235 0.000000
515.150760 352.821720 22.188021 0.000000
496.527440 350.692200 22.189335 0.000000
496.529720 348.895320 22.043570 0.000000
496.531830 347.162410 21.903912 0.000000
497.997010 352.805760 22.343061 0.000000
499.633180 352.816190 22.323795 0.000000
501.246770 352.796630 22.303268 0.000000
502.802550 352.792600 22.285624 0.000000
504.290990 352.822080 22.272444 0.000000
505.762700 352.822910 22.257927 0.000000
507.196140 352.825680 22.244843 0.000000
508.609860 352.806520 22.230951 0.000000
509.963040 352.828800 22.221996 0.000000
511.299410 352.830750 22.212284 0.000000
500.556850 352.846530 19.216394 0.000000
503.666990 352.849580 19.265701 0.000000
496.535830 351.636290 20.689507 0.000000
496.537870 349.768340 20.568325 0.000000
496.539920 347.969180 20.452074 0.000000
500.479190 352.836360 20.774376 0.000000
502.058350 352.837920 20.777977 0.000000
503.594970 352.839660 20.781961 0.000000
505.092040 352.841190 20.786287 0.000000
506.551610 352.842680 20.790958 0.000000
497.182590 352.832820 20.768303 0.000000
514.585450 352.842070 22.215147 0.000000
515.840390 352.843510 22.208948 0.000000
517.072390 352.844910 22.203691 0.000000
495.825070 346.851320 21.913151 0.000000
496.535860 351.530790 22.279881 0.000000
496.537900 349.665770 22.128685 0.000000
496.539920 347.869380 21.983992 0.000000
500.419040 352.804200 22.335512 0.000000
502.005250 352.799870 22.317064 0.000000
503.522710 352.829770 22.303169 0.000000
505.019350 352.835540 22.288404 0.000000
506.485260 352.831880 22.274061 0.000000
507.911220 352.834690 22.261539 0.000000
509.304900 352.836210 22.250084 0.000000
510.667390 352.837650 22.239752 0.000000
512.000490 352.839170 22.230516 0.000000
513.305970 352.840670 22.222330 0.000000
497.633120 347.801390 17.186541 0.000000
498.276860 345.370090 17.136528 0.000000
496.528750 350.664340 20.425852 0.000000
496.533570 346.993530 20.203705 0.000000
499.699370 352.822570 20.562033 0.000000
502.871250 352.826570 20.568823 0.000000
504.395020 352.828800 20.572798 0.000000
505.881130 352.830260 20.577095 0.000000
507.331150 352.832150 20.581766 0.000000
496.526120 352.608460 20.544250 0.000000
498.044920 352.821660 20.559299 0.000000
496.528020 350.566800 22.017948 0.000000
496.530460 348.699710 21.874498 0.000000
496.532840 346.901310 21.737267 0.000000
499.626400 352.811550 22.152729 0.000000
502.803530 352.815860 22.116825 0.000000
504.329960 352.817810 22.100964 0.000000
505.818080 352.819790 22.086428 0.000000
507.270200 352.821960 22.073174 0.000000
508.691350 352.819790 22.060749 0.000000
496.525450 352.507930 22.168074 0.000000
497.970090 352.809330 22.172922 0.000000
497.603030 347.840910 17.327682 0.000000
496.525760 348.942440 18.927145 0.000000
501.492460 352.838170 20.764666 0.000000
503.067690 352.839810 20.764887 0.000000
506.101960 352.843200 20.766731 0.000000
507.565800 352.844790 20.768312 0.000000
496.530330 350.782200 20.639738 0.000000
499.875550 352.836210 20.764917 0.000000
496.531460 348.745120 22.112732 0.000000
496.521390 346.891910 21.968906 0.000000
502.999080 352.834140 22.344009 0.000000
508.945710 352.828310 22.275679 0.000000
510.352630 352.821720 22.261360 0.000000
511.715760 352.839870 22.250414 0.000000
513.061460 352.841280 22.239126 0.000000
514.381290 352.842830 22.228954 0.000000
515.683650 352.831050 22.218666 0.000000
516.949580 352.845790 22.211746 0.000000
496.522640 350.692780 22.265202 0.000000
503.598450 352.850220 17.929142 0.000000
508.049800 352.836730 19.580133 0.000000
496.523380 347.196960 20.756159 0.000000
503.462040 352.828920 21.125673 0.000000
505.004390 352.830930 21.125387 0.000000
507.983860 352.834470 21.126228 0.000000
496.525820 351.156860 21.020864 0.000000
496.528350 349.133000 20.885319 0.000000
496.885590 352.820830 21.132065 0.000000
498.595980 352.822850 21.129635 0.000000
500.260190 352.825040 21.127787 0.000000
501.881470 352.826970 21.126467 0.000000
497.565700 352.722560 17.688877 0.000000
497.605960 350.510770 17.621120 0.000000
500.823060 352.869020 17.770872 0.000000
506.971650 352.845120 21.090691 0.000000
508.454130 352.846890 21.089663 0.000000
496.528990 351.632390 21.032246 0.000000
496.531560 349.519530 20.894787 0.000000
497.314760 352.832640 21.108294 0.000000
499.025910 352.836000 21.103960 0.000000
500.693820 352.837860 21.100153 0.000000
502.319850 352.839720 21.096949 0.000000
503.907320 352.840580 21.094254 0.000000
505.456540 352.843290 21.092236 0.000000
497.568120 350.984920 17.743355 0.000000
502.891050 352.831210 17.928936 0.000000
506.020810 352.856690 18.000193 0.000000
496.532200 349.991330 19.388788 0.000000
499.499300 352.849700 19.564871 0.000000
507.491850 352.831670 19.648760 0.000000
496.528380 352.092290 21.237314 0.000000
496.531220 349.884280 21.087793 0.000000
496.533910 347.769680 20.945107 0.000000
497.714480 352.829320 21.284191 0.000000
499.431490 352.831270 21.280203 0.000000
501.105350 352.833250 21.276838 0.000000
502.738740 352.835270 21.274073 0.000000
504.334200 352.837130 21.271870 0.000000
505.893980 352.838810 21.270203 0.000000
507.420040 352.840640 21.269079 0.000000
508.914460 352.842470 21.268473 0.000000
501.779880 352.828950 18.058498 0.000000
503.396150 352.858340 18.095898 0.000000
496.518040 348.328400 19.482454 0.000000
495.877990 346.858280 21.092228 0.000000
496.536380 352.715030 21.502869 0.000000
496.538670 350.400570 21.339233 0.000000
496.541380 348.186800 21.183237 0.000000
498.215940 352.830510 21.506796 0.000000
499.937190 352.832370 21.503090 0.000000
501.616850 352.834230 21.500006 0.000000
503.257540 352.836000 21.497503 0.000000
504.861600 352.837550 21.495564 0.000000
506.431030 352.839260 21.494188 0.000000
507.967930 352.840940 21.493341 0.000000
509.474240 352.842470 21.493004 0.000000
502.270170 352.863980 17.957747 0.000000
505.532960 352.849820 18.032759 0.000000
508.654020 352.848790 18.102903 0.000000
496.529660 351.094700 19.546286 0.000000
496.493290 348.820500 19.425407 0.000000
497.017940 352.853580 19.645107 0.000000
500.534030 352.820010 19.684074 0.000000
505.468200 352.834290 19.742010 0.000000
496.185670 346.863980 21.041477 0.000000
496.529820 350.972530 21.329393 0.000000
496.531680 348.653110 21.166222 0.000000
496.940770 352.834960 21.460266 0.000000
498.710720 352.836610 21.458448 0.000000
500.437770 352.838680 21.457249 0.000000
502.124790 352.840640 21.456606 0.000000
503.774200 352.842350 21.456493 0.000000
505.388000 352.844240 21.456921 0.000000
506.968480 352.846070 21.457855 0.000000
508.517550 352.847750 21.459276 0.000000
510.036900 352.849610 21.461191 0.000000
506.004760 352.867190 18.141211 0.000000
496.521330 349.197390 19.562218 0.000000
496.500210 346.906370 19.435183 0.000000
499.259520 352.798580 19.795523 0.000000
500.970340 352.832490 19.818666 0.000000
496.518490 351.496920 21.522354 0.000000
496.521940 349.068480 21.345226 0.000000
496.451480 346.844270 21.183571 0.000000
497.379060 352.815640 21.618607 0.000000
499.155640 352.818270 21.618876 0.000000
500.890990 352.820740 21.619682 0.000000
502.587550 352.823000 21.621002 0.000000
504.247500 352.825410 21.622847 0.000000
505.873050 352.827760 21.625185 0.000000
507.466250 352.829960 21.627995 0.000000
509.028870 352.832280 21.631287 0.000000
510.562650 352.834840 21.635056 0.000000
496.529570 350.429200 21.080431 0.000000
496.632690 352.825780 21.236015 0.000000
498.437930 352.828120 21.230579 0.000000
500.201260 352.830290 21.225819 0.000000
501.925140 352.832310 21.221706 0.000000
503.611690 352.834470 21.218245 0.000000
505.263280 352.836580 21.215395 0.000000
506.881930 352.838560 21.213129 0.000000
508.469480 352.840640 21.211445 0.000000
510.027890 352.842650 21.210316 0.000000
505.599550 352.853970 17.364235 0.000000
508.806950 352.883640 17.434641 0.000000
500.434330 352.867920 19.095655 0.000000
496.530120 348.120540 20.654129 0.000000
496.791320 352.835110 20.946598 0.000000
498.605960 352.837460 20.945005 0.000000
500.378720 352.840520 20.944061 0.000000
502.113340 352.841980 20.943602 0.000000
503.810670 352.844270 20.943756 0.000000
505.473450 352.846470 20.944452 0.000000
507.103730 352.848540 20.945671 0.000000
508.703340 352.850650 20.947407 0.000000
510.274110 352.852720 20.949644 0.000000
506.816070 352.859560 17.501448 0.000000
496.533540 347.148350 20.660326 0.000000
496.529330 349.651610 20.830101 0.000000
497.999330 352.826080 21.055012 0.000000
499.807530 352.828160 21.066504 0.000000
501.575780 352.830260 21.078318 0.000000
503.306400 352.832550 21.090458 0.000000
505.001920 352.834560 21.102890 0.000000
506.664120 352.836640 21.115643 0.000000
508.295230 352.838500 21.128685 0.000000
509.896760 352.840640 21.142059 0.000000
511.470700 352.842470 21.155724 0.000000
510.266910 352.826970 18.806887 0.000000
496.523710 347.226840 20.241302 0.000000
499.980990 352.829740 20.574726 0.000000
501.770630 352.832180 20.579645 0.000000
503.522610 352.834560 20.585033 0.000000
505.239440 352.836610 20.590858 0.000000
506.922670 352.839050 20.597157 0.000000
508.591090 352.809600 20.602058 0.000000
496.522610 347.118040 22.092001 0.000000
496.534060 347.747650 21.392782 0.000000
496.530520 350.372500 21.559786 0.000000
496.735350 352.824160 21.715155 0.000000
505.869870 352.835570 20.078043 0.000000
507.576600 352.871730 20.060299 0.000000
517.308170 352.852540 21.782095 0.000000
507.578490 352.825130 21.947206 0.000000
509.270570 352.827820 21.912670 0.000000
510.932500 352.830380 21.881001 0.000000
512.565980 352.833070 21.852114 0.000000
505.854580 352.822200 21.984692 0.000000
500.067350 352.837340 20.077387 0.000000
501.939580 352.839900 20.040480 0.000000
503.771880 352.842620 20.006145 0.000000
505.566160 352.846190 19.974323 0.000000
507.338810 352.824980 19.943726 0.000000
509.046810 352.861240 19.918074 0.000000
510.759400 352.829470 19.891512 0.000000
498.152040 352.835820 20.117025 0.000000
509.050510 352.837770 21.818096 0.000000
510.745180 352.838930 21.776104 0.000000
500.071590 352.823850 22.076513 0.000000
501.942470 352.826600 22.017853 0.000000
503.773500 352.829410 21.962830 0.000000
505.567020 352.832310 21.911289 0.000000
507.325440 352.834960 21.863075 0.000000
498.158480 352.821010 22.138948 0.000000
496.539090 346.939970 18.999987 0.000000
505.733800 352.878270 19.103939 0.000000
496.500030 352.446140 19.159203 0.000000
498.221500 352.834410 19.155760 0.000000
500.168030 352.835850 19.140182 0.000000
496.533840 346.917790 20.960554 0.000000
502.053620 352.826350 21.125181 0.000000
503.914340 352.829130 21.091503 0.000000
505.736390 352.831940 21.060318 0.000000
507.522280 352.834470 21.031506 0.000000
509.273960 352.837100 21.005005 0.000000
510.982270 352.861510 20.982014 0.000000
496.498810 352.413910 21.217026 0.000000
498.206630 352.820920 21.200417 0.000000
500.151860 352.823700 21.161453 0.000000
503.984590 352.885100 17.293179 0.000000
496.528200 349.564420 19.298552 0.000000
496.524750 352.357760 19.374554 0.000000
498.192570 352.858310 19.364063 0.000000
503.997440 352.828550 21.281849 0.000000
505.844060 352.831330 21.238998 0.000000
507.653290 352.834010 21.198793 0.000000
509.427370 352.836520 21.161133 0.000000
496.527130 349.553740 21.326183 0.000000
496.523740 352.345640 21.451569 0.000000
498.208800 352.820070 21.427488 0.000000
500.182310 352.823000 21.375977 0.000000
502.111020 352.825740 21.327467 0.000000
498.071780 352.854740 17.792122 0.000000
503.937010 352.891300 17.780891 0.000000
509.448000 352.872680 19.727497 0.000000
496.383360 346.878420 19.707296 0.000000
496.540830 349.327670 19.783730 0.000000
496.537780 352.108640 19.874794 0.000000
498.056400 352.851810 19.876207 0.000000
500.063290 352.854060 19.846821 0.000000
502.022610 352.857940 19.819427 0.000000
505.806270 352.847660 21.764633 0.000000
507.642490 352.850070 21.722168 0.000000
509.442170 352.852510 21.682337 0.000000
496.377260 346.865230 21.710838 0.000000
496.539980 349.306490 21.827135 0.000000
496.536740 352.086150 21.967083 0.000000
498.049130 352.837220 21.963041 0.000000
500.055360 352.840090 21.908913 0.000000
502.015110 352.842900 21.857897 0.000000
503.931300 352.845280 21.809835 0.000000
501.963070 352.875270 18.340668 0.000000
503.920350 352.858250 18.338301 0.000000
507.664700 352.849430 20.326399 0.000000
509.489170 352.851810 20.306581 0.000000
496.227720 346.862820 20.238724 0.000000
496.523100 349.137150 20.323845 0.000000
496.519260 351.912630 20.434822 0.000000
497.928650 352.836120 20.451351 0.000000
499.966250 352.839110 20.422676 0.000000
501.956090 352.841670 20.395908 0.000000
503.900670 352.844210 20.370987 0.000000
505.802700 352.846830 20.347843 0.000000
507.642910 352.839630 22.320274 0.000000
509.469820 352.838260 22.280313 0.000000
513.014590 352.843110 22.208546 0.000000
514.738890 352.845520 22.176268 0.000000
516.433590 352.848050 22.146290 0.000000
496.181300 346.883360 22.268421 0.000000
496.523960 347.431430 18.977240 0.000000
496.591890 352.848270 19.151432 0.000000
500.753050 352.833040 19.142544 0.000000
508.455170 352.830960 21.133904 0.000000
496.522670 347.375180 21.024296 0.000000
496.571660 352.813050 21.292934 0.000000
498.670990 352.816190 21.261616 0.000000
500.718870 352.819370 21.232342 0.000000
502.718440 352.822510 21.205017 0.000000
504.672610 352.825410 21.179552 0.000000
506.583680 352.828770 21.155903 0.000000
504.943570 345.630100 17.092676 0.000000
495.945070 346.853390 19.082546 0.000000
496.477600 348.838440 19.146347 0.000000
497.689150 352.827730 19.276051 0.000000
495.907990 346.839450 21.148449 0.000000
496.519320 348.724950 21.232410 0.000000
496.516480 351.476870 21.371506 0.000000
497.652280 352.813200 21.421658 0.000000
499.752720 352.816470 21.389847 0.000000
507.671170 352.828920 21.282251 0.000000
499.320770 352.839660 17.461607 0.000000
501.405640 352.842650 17.485834 0.000000
503.439060 352.847500 17.509504 0.000000
496.508850 350.812870 19.526022 0.000000
497.134090 352.822110 19.601654 0.000000
501.357640 352.832210 19.596737 0.000000
507.328860 352.837680 19.594109 0.000000
497.085690 352.807680 21.770292 0.000000
499.226840 352.811340 21.739611 0.000000
501.314540 352.814640 21.710970 0.000000
503.351720 352.818050 21.684307 0.000000
505.341670 352.821110 21.659500 0.000000
507.287050 352.824100 21.636494 0.000000
498.256810 340.749940 16.972914 0.000000
504.410000 348.304870 17.205553 0.000000
496.514070 347.682400 19.188908 0.000000
496.509700 350.374420 19.287029 0.000000
503.156400 352.847900 19.383656 0.000000
507.177150 352.823700 19.389542 0.000000
496.512880 347.607760 21.292137 0.000000
496.508700 350.296690 21.435726 0.000000
496.741520 352.799650 21.567448 0.000000
498.924960 352.802280 21.540037 0.000000
501.051540 352.805820 21.514696 0.000000
503.125520 352.809170 21.491257 0.000000
505.150050 352.812470 21.469650 0.000000
506.422270 339.142360 16.851101 0.000000
496.513820 351.386230 19.098293 0.000000
497.602230 352.828980 19.145777 0.000000
501.905520 352.857240 19.147358 0.000000
507.992860 352.871890 19.153456 0.000000
495.778290 346.836430 21.068233 0.000000
496.507450 351.323300 21.279896 0.000000
497.560490 352.810240 21.340082 0.000000
499.749150 352.813750 21.311258 0.000000
501.881530 352.817110 21.284477 0.000000
503.960970 352.820370 21.259647 0.000000
507.973210 352.827030 21.215523 0.000000
495.928470 346.861360 19.097538 0.000000
496.524780 348.796690 19.157097 0.000000
495.889710 346.846920 21.235857 0.000000
496.523380 348.738280 21.316082 0.000000
500.499690 352.836850 19.428322 0.000000
504.812290 352.843110 19.412113 0.000000
506.888000 352.846220 19.405277 0.000000
500.463440 352.822110 21.623621 0.000000
504.778260 352.828460 21.551189 0.000000
506.854800 352.831970 21.518284 0.000000
498.217500 352.819980 21.663416 0.000000
498.872250 343.163640 17.070671 0.000000
496.565250 348.168580 19.326345 0.000000
499.556430 352.829500 19.481653 0.000000
501.800290 352.840330 19.477537 0.000000
503.990570 352.843200 19.473906 0.000000
506.125520 352.844700 19.470972 0.000000
501.755250 352.825500 21.676041 0.000000
503.946750 352.828580 21.643463 0.000000
506.082090 352.831480 21.613018 0.000000
497.194030 352.812160 21.747608 0.000000
499.503780 352.822270 21.710861 0.000000
503.801060 338.061250 16.812845 0.000000
501.916320 352.849330 19.197546 0.000000
504.147370 352.851990 19.187700 0.000000
504.118440 352.836490 21.375057 0.000000
506.291020 352.839660 21.337629 0.000000
496.525210 348.204100 21.306557 0.000000
496.521550 350.878910 21.427210 0.000000
497.231140 352.827210 21.502073 0.000000
501.886630 352.833620 21.414871 0.000000
496.512880 347.901090 21.085459 0.000000
496.508730 350.554690 21.199482 0.000000
501.730650 352.798070 21.205534 0.000000
503.989870 352.830200 21.169582 0.000000
499.358030 352.823330 21.247326 0.000000
496.557590 347.403140 18.988909 0.000000
501.388000 352.841130 19.103392 0.000000
496.511140 352.799840 19.131052 0.000000
496.517520 347.400940 21.245396 0.000000
496.513730 350.028380 21.355568 0.000000
501.361360 352.826020 21.375721 0.000000
503.708040 352.829470 21.330191 0.000000
496.509890 352.754970 21.471321 0.000000
498.944240 352.822330 21.424019 0.000000
496.530520 352.178220 19.042385 0.000000
503.364620 352.868290 19.026699 0.000000
498.496610 352.820190 19.048882 0.000000
496.500120 346.868530 21.182638 0.000000
496.529450 352.131410 21.399883 0.000000
500.955870 352.809020 21.340887 0.000000
496.519780 350.615540 19.028770 0.000000
504.466830 352.857640 19.039410 0.000000
497.001950 352.838930 19.081963 0.000000
504.441350 352.842350 21.308918 0.000000
497.006840 352.788880 21.457968 0.000000
499.575010 352.793460 21.404472 0.000000
502.954930 352.823970 19.016621 0.000000
496.489380 351.344480 19.034601 0.000000
500.374050 352.803920 21.409096 0.000000
496.488010 351.311680 21.442865 0.000000
496.530640 347.095120 18.958647 0.000000
496.490600 349.738890 19.015856 0.000000
496.492000 347.100950 21.320646 0.000000
496.489440 349.709320 21.415731 0.000000
496.485470 352.407380 21.515606 0.000000
498.825740 352.805630 21.473686 0.000000
499.949680 352.810300 21.464321 0.000000
500.942990 352.834320 19.026052 0.000000
500.931370 352.818330 21.436642 0.000000
496.493960 347.278140 18.954418 0.000000
496.491760 352.597470 19.057570 0.000000
499.105710 352.819520 19.035311 0.000000
501.850040 352.823640 19.008141 0.000000
496.488400 349.875580 21.455612 0.000000
496.484710 352.579620 21.548807 0.000000
499.097630 352.802800 21.488934 0.000000
501.841920 352.807250 21.419476 0.000000
497.218110 352.812190 19.018976 0.000000
500.063780 352.816890 18.989239 0.000000
496.485530 348.110170 21.381517 0.000000
496.481410 350.758330 21.468805 0.000000
497.213350 352.795040 21.517441 0.000000
500.058960 352.799870 21.443058 0.000000
496.509700 351.799070 18.844288 0.000000
498.323150 352.844390 18.842712 0.000000
501.168090 352.847290 18.813786 0.000000
496.112490 346.846980 21.213879 0.000000
496.511350 349.102810 21.271456 0.000000
496.507930 351.783630 21.354511 0.000000
498.328490 352.821900 21.339123 0.000000
501.167850 352.829960 21.265854 0.000000
496.505860 347.416720 21.085613 0.000000
496.502140 350.047180 21.161453 0.000000
496.515590 352.744450 21.240299 0.000000
499.396270 352.810240 21.167923 0.000000
497.474730 352.866880 18.521585 0.000000
500.460020 352.835480 18.493332 0.000000
496.497440 348.350010 20.965565 0.000000
496.493620 351.011960 21.037498 0.000000
497.526250 352.808410 21.060345 0.000000
500.463840 352.820250 20.986364 0.000000
496.503230 347.548710 20.821770 0.000000
496.499330 350.192780 20.885986 0.000000
496.621150 352.805730 20.947691 0.000000
499.671600 352.813450 20.870140 0.000000
496.324860 346.833370 20.589203 0.000000
496.492000 349.324490 20.635107 0.000000
498.750610 352.808840 20.650194 0.000000
496.487980 352.028690 20.691454 0.000000
496.501460 347.588870 20.464699 0.000000
496.497440 350.246370 20.513468 0.000000
496.695130 352.809270 20.556812 0.000000
496.224490 346.831120 20.243351 0.000000
496.484920 349.267940 20.270607 0.000000
496.480710 351.982670 20.310411 0.000000
497.554630 347.358340 17.420086 0.000000
496.467710 348.215480 20.062046 0.000000
520.716060 341.326630 18.552807 0.000000
519.360350 351.062680 20.714127 0.000000
513.844060 338.188480 16.764648 0.000000
513.554320 340.664400 16.791155 0.000000
512.641300 341.873990 16.794561 0.000000
509.149990 336.541840 16.544821 0.000000
506.808560 337.169100 16.525440 0.000000
508.430240 338.099790 16.553196 0.000000
507.012880 336.624880 16.506454 0.000000
508.416560 337.047120 16.524977 0.000000
505.971370 337.287230 16.503054 0.000000
504.930820 337.994570 16.500139 0.000000
520.724120 346.388280 18.543816 0.000000
519.481320 350.814390 18.655540 0.000000
518.633300 352.716220 18.698484 0.000000
519.466060 350.802860 20.531328 0.000000
518.617680 352.704500 20.605572 0.000000
503.287170 336.923580 16.442856 0.000000
520.583370 350.812620 18.610003 0.000000
511.770110 352.695680 18.528294 0.000000
513.324830 352.700100 18.551758 0.000000
514.897520 352.704770 18.576069 0.000000
516.489380 352.709350 18.601246 0.000000
518.101750 352.714050 18.627325 0.000000
510.218930 352.680150 20.345276 0.000000
511.757080 352.684600 20.377571 0.000000
513.311890 352.688900 20.411339 0.000000
514.884640 352.693480 20.446648 0.000000
516.476560 352.698000 20.483528 0.000000
518.089050 352.702640 20.522043 0.000000
509.080930 336.412350 16.517900 0.000000
506.793550 337.047030 16.500782 0.000000
505.742770 337.707790 16.496754 0.000000
508.270320 337.821440 16.524136 0.000000
504.617950 338.124390 16.489420 0.000000
508.233220 352.687350 18.499517 0.000000
509.742190 352.691380 18.523535 0.000000
511.265500 352.695560 18.548344 0.000000
512.804570 352.700710 18.574001 0.000000
514.359680 352.703920 18.600430 0.000000
508.216340 352.676510 20.322670 0.000000
509.725590 352.681400 20.355082 0.000000
511.248750 352.684660 20.388828 0.000000
512.787600 352.688840 20.424097 0.000000
514.343080 352.692840 20.460865 0.000000
515.916260 352.696260 20.499161 0.000000
519.126100 352.715700 20.581411 0.000000
503.081700 337.630920 16.475473 0.000000
506.616730 337.192870 16.508083 0.000000
505.571620 337.893740 16.504414 0.000000
506.261540 352.684540 18.473650 0.000000
509.242220 352.693180 18.519905 0.000000
510.751860 352.697510 18.544170 0.000000
512.275940 352.702060 18.569229 0.000000
515.366580 352.695530 18.621254 0.000000
518.541320 352.726680 18.678175 0.000000
506.244200 352.673680 20.282837 0.000000
509.225070 352.682250 20.343925 0.000000
510.734800 352.686550 20.376539 0.000000
512.258910 352.691040 20.410591 0.000000
516.928890 352.704470 20.521757 0.000000
500.407100 336.727690 16.452126 0.000000
501.691530 337.389040 16.472757 0.000000
504.271030 338.317870 16.509956 0.000000
505.460110 338.180050 16.521101 0.000000
507.966890 338.327390 16.549240 0.000000
501.471310 352.661130 18.418215 0.000000
504.371610 352.663700 18.458967 0.000000
507.311920 352.684110 18.503057 0.000000
508.797210 352.688390 18.525967 0.000000
507.294490 352.673250 20.313324 0.000000
508.779880 352.677490 20.343361 0.000000
510.273650 352.666530 20.373869 0.000000
513.312560 352.687130 20.441578 0.000000
505.162050 340.936740 16.624773 0.000000
511.791810 337.365110 16.651127 0.000000
499.881440 338.418370 16.540359 0.000000
501.181520 339.213010 16.563208 0.000000
502.480320 339.785710 16.583418 0.000000
511.392550 340.314060 16.681871 0.000000
509.170230 341.713930 16.675434 0.000000
507.968990 342.119080 16.667795 0.000000
497.349520 352.658050 18.456692 0.000000
503.079740 352.675840 18.529867 0.000000
504.528350 352.680420 18.549734 0.000000
505.983060 352.672910 18.569830 0.000000
497.331880 352.647490 20.232656 0.000000
503.062710 352.665190 20.319538 0.000000
504.511510 352.669740 20.344240 0.000000
505.966060 352.660770 20.369392 0.000000
496.746150 340.246250 16.647614 0.000000
501.989500 343.484070 16.744865 0.000000
512.623170 344.144410 16.861925 0.000000
504.848140 345.320500 16.798853 0.000000
506.264800 345.833040 16.820211 0.000000
511.672880 345.746770 16.874016 0.000000
514.729610 342.066070 16.855125 0.000000
510.382690 346.095640 16.865637 0.000000
501.688960 352.671200 18.648060 0.000000
503.124690 352.670960 18.666271 0.000000
506.016910 352.676150 18.704800 0.000000
518.004030 352.720700 18.887865 0.000000
519.404170 352.262330 20.753222 0.000000
510.357600 352.702610 17.132734 0.000000
519.682310 340.509550 17.036194 0.000000
495.850160 346.324460 16.883350 0.000000
520.746220 347.489200 17.157135 0.000000
519.678830 348.742430 17.165939 0.000000
501.532500 351.198520 17.018482 0.000000
515.886410 351.021910 17.162964 0.000000
517.284730 350.679200 17.171907 0.000000
508.886380 352.684630 17.117357 0.000000
497.359680 352.648680 20.548731 0.000000
520.735410 339.674560 17.171305 0.000000
512.858760 351.194210 17.294195 0.000000
514.301150 351.106660 17.307537 0.000000
515.753170 351.022800 17.321043 0.000000
517.214900 350.938350 17.334639 0.000000
504.437160 352.678410 17.233549 0.000000
505.874730 352.675810 17.248346 0.000000
510.233280 352.695740 17.293705 0.000000
511.684360 352.604430 17.307070 0.000000
520.176270 350.811340 19.177504 0.000000
516.165100 352.702060 19.185764 0.000000
517.683040 352.707460 19.210022 0.000000
520.731990 336.172090 20.144545 0.000000
514.179630 351.114870 17.446373 0.000000
515.621640 351.027100 17.459501 0.000000
504.334720 352.676060 17.375511 0.000000
505.768680 352.679930 17.390343 0.000000
507.207310 352.676820 17.405085 0.000000
512.999270 352.492190 17.461084 0.000000
508.654110 352.687810 17.420189 0.000000
510.107480 352.691830 17.435223 0.000000
511.554440 352.613740 17.448589 0.000000
520.704100 348.160580 19.211426 0.000000
520.007390 350.803830 19.306755 0.000000
510.092930 352.681490 19.233948 0.000000
511.554990 352.685390 19.254505 0.000000
513.026370 352.689390 19.275745 0.000000
520.700810 348.174260 20.971043 0.000000
519.995970 350.793460 21.115765 0.000000
520.750850 348.980070 17.559818 0.000000
513.989690 351.132390 17.534735 0.000000
515.423100 351.042850 17.547613 0.000000
516.865050 350.957000 17.560656 0.000000
499.885590 352.665560 17.421463 0.000000
501.307310 352.669710 17.436152 0.000000
504.157560 352.678040 17.465603 0.000000
505.587890 352.682250 17.480381 0.000000
507.022860 352.686400 17.495207 0.000000
509.910280 352.694890 17.525040 0.000000
511.360170 352.671570 17.539454 0.000000
512.793090 352.511870 17.550879 0.000000
508.463350 352.690670 17.510092 0.000000
520.698240 344.034550 19.119701 0.000000
520.724730 348.915990 19.322931 0.000000
519.774230 350.808840 19.386412 0.000000
505.571930 352.671940 19.264412 0.000000
511.350430 352.688840 19.340143 0.000000
515.768620 352.701690 19.403864 0.000000
517.262630 352.705960 19.426521 0.000000
518.768980 352.710300 19.449926 0.000000
520.719790 348.925320 21.091530 0.000000
519.762940 350.798520 21.187931 0.000000
515.755740 352.691220 21.224958 0.000000
517.250180 352.695470 21.254860 0.000000
518.757020 352.699770 21.286129 0.000000
520.685490 343.393070 17.645338 0.000000
496.030700 346.691990 17.454691 0.000000
515.538640 351.049190 17.766123 0.000000
518.417720 350.879670 17.793358 0.000000
519.882260 350.841490 17.808319 0.000000
498.597750 352.671720 17.620275 0.000000
500.018800 352.676030 17.635746 0.000000
501.440280 352.680330 17.651220 0.000000
502.863100 352.684630 17.666710 0.000000
508.585210 352.701870 17.729002 0.000000
510.027860 352.706270 17.744707 0.000000
511.465760 352.632720 17.758564 0.000000
504.288150 352.688900 17.682224 0.000000
505.716220 352.693240 17.697769 0.000000
512.900570 352.511020 17.771280 0.000000
514.339780 352.391780 17.784100 0.000000
507.148280 352.697540 17.713360 0.000000
520.679990 343.397030 19.287336 0.000000
520.705020 348.450380 19.510426 0.000000
519.868350 350.821530 19.601410 0.000000
502.845120 352.674620 19.445923 0.000000
504.270690 352.678960 19.463087 0.000000
505.699310 352.683260 19.480833 0.000000
510.012510 352.696230 19.537683 0.000000
511.462370 352.700620 19.557892 0.000000
512.919800 352.704990 19.578753 0.000000
514.385860 352.709410 19.600290 0.000000
515.861570 352.714480 19.622549 0.000000
518.845210 352.722720 19.669134 0.000000
520.698610 348.455660 21.262522 0.000000
519.856930 350.811490 21.397873 0.000000
509.997130 352.686160 21.333742 0.000000
511.447510 352.690550 21.358391 0.000000
512.905460 352.694890 21.384266 0.000000
514.372070 352.699250 21.411396 0.000000
515.848140 352.703670 21.439814 0.000000
518.832950 352.712160 21.500591 0.000000
520.717290 343.354340 17.338797 0.000000
496.141020 346.696590 17.114006 0.000000
512.686830 351.219270 17.390495 0.000000
514.101680 351.134460 17.405426 0.000000
507.153260 352.704220 17.353415 0.000000
511.452730 352.639980 17.402359 0.000000
500.041020 352.681270 17.270065 0.000000
502.880580 352.690430 17.303343 0.000000
504.302150 352.695010 17.320004 0.000000
497.459500 346.697300 17.129393 0.000000
520.738650 348.638370 17.436687 0.000000
515.522770 351.054170 17.420511 0.000000
505.726100 352.699620 17.336691 0.000000
508.584530 352.708890 17.370190 0.000000
510.020810 352.713530 17.387022 0.000000
498.621310 352.676700 17.253428 0.000000
520.721920 338.815430 18.791485 0.000000
520.706240 343.352810 18.970299 0.000000
496.120540 346.687070 18.761484 0.000000
520.731380 348.656680 19.180620 0.000000
519.819760 350.830470 19.251392 0.000000
507.134280 352.693970 19.134623 0.000000
508.565950 352.698640 19.154243 0.000000
510.002560 352.703220 19.174475 0.000000
511.445130 352.707890 19.195339 0.000000
512.894530 352.712550 19.216846 0.000000
514.351750 352.717220 19.239017 0.000000
515.817630 352.721890 19.261873 0.000000
517.293210 352.726620 19.285431 0.000000
518.779600 352.731450 19.309719 0.000000
497.178830 352.661870 19.013332 0.000000
498.600040 352.666470 19.029022 0.000000
500.020140 352.673160 19.045324 0.000000
501.440030 352.676640 19.062037 0.000000
505.706730 352.689390 19.115602 0.000000
520.724850 348.677670 20.928671 0.000000
519.804380 350.820250 21.038658 0.000000
508.547300 352.688350 20.940990 0.000000
509.984310 352.692930 20.964628 0.000000
511.427250 352.697600 20.989460 0.000000
512.877010 352.702240 21.015505 0.000000
505.687350 352.679140 20.897196 0.000000
507.115260 352.683690 20.918514 0.000000
514.334530 352.706880 21.042786 0.000000
515.800780 352.711580 21.071335 0.000000
517.277890 352.721590 21.101526 0.000000
518.763550 352.721010 21.132351 0.000000
517.914250 350.914550 17.520969 0.000000
502.450990 352.692200 17.374165 0.000000
508.139040 352.710360 17.441189 0.000000
499.613620 352.683170 17.340731 0.000000
520.707890 344.731870 17.433908 0.000000
495.825380 346.699040 17.180367 0.000000
497.145750 346.703190 17.195925 0.000000
520.729060 350.515230 17.546227 0.000000
513.659790 351.162260 17.475903 0.000000
512.423030 352.561190 17.488514 0.000000
503.870030 352.696720 17.390886 0.000000
505.290500 352.701230 17.407623 0.000000
506.713200 352.705780 17.424387 0.000000
509.568880 352.714900 17.458038 0.000000
511.003630 352.719480 17.474943 0.000000
498.193570 352.678650 17.323999 0.000000
501.032500 352.687680 17.357450 0.000000
520.713680 339.818540 18.888227 0.000000
520.697140 344.733280 19.086903 0.000000
495.804290 346.689270 18.828848 0.000000
520.721920 350.538060 19.322870 0.000000
519.334170 350.840700 19.312132 0.000000
512.426390 352.713440 19.281754 0.000000
513.874080 352.718020 19.303268 0.000000
515.329410 352.722600 19.325447 0.000000
516.794980 352.735750 19.348680 0.000000
518.267030 352.731900 19.371872 0.000000
502.430390 352.681700 19.148300 0.000000
503.849820 352.686190 19.165627 0.000000
505.270660 352.690700 19.183510 0.000000
506.693790 352.695250 19.201963 0.000000
508.120030 352.699800 19.221001 0.000000
509.550260 352.704320 19.240635 0.000000
510.985410 352.708890 19.260881 0.000000
520.715270 350.563290 21.103937 0.000000
519.319340 350.833620 21.090683 0.000000
513.856570 352.707340 21.100334 0.000000
503.829590 352.675660 20.943094 0.000000
505.250850 352.680150 20.962128 0.000000
506.674320 352.683720 20.982212 0.000000
508.100980 352.689210 21.003553 0.000000
510.967190 352.698270 21.049570 0.000000
512.408510 352.702850 21.074348 0.000000
500.990390 352.666600 20.908319 0.000000
502.409730 352.671140 20.925163 0.000000
515.312320 352.711980 21.127560 0.000000
516.777530 352.720920 21.156338 0.000000
518.250730 352.721190 21.185829 0.000000
520.713260 340.936770 17.235918 0.000000
520.733150 346.442140 17.331455 0.000000
496.823760 346.707460 17.037678 0.000000
517.457580 350.954560 17.368681 0.000000
520.323180 350.858980 17.402786 0.000000
511.822690 351.276670 17.303938 0.000000
502.020510 352.696200 17.206184 0.000000
503.438140 352.700710 17.223953 0.000000
504.856200 352.705200 17.241728 0.000000
506.275630 352.709750 17.259520 0.000000
507.697240 352.714260 17.277338 0.000000
509.121920 352.718840 17.295197 0.000000
510.550540 352.723390 17.313103 0.000000
497.761810 352.682620 17.152803 0.000000
499.183230 352.687160 17.170620 0.000000
500.602480 352.691680 17.188410 0.000000
520.701840 340.941470 18.801497 0.000000
520.725340 346.468630 19.014776 0.000000
520.303530 350.839720 19.176189 0.000000
496.442900 351.085390 18.852671 0.000000
511.964080 352.717680 19.115501 0.000000
513.403560 352.722230 19.137396 0.000000
514.849790 352.726780 19.159937 0.000000
517.765930 352.735960 19.207037 0.000000
519.228940 352.696040 19.229763 0.000000
503.416140 352.690490 18.996828 0.000000
504.834530 352.694980 19.015167 0.000000
507.676270 352.704040 19.053532 0.000000
509.101290 352.708560 19.073587 0.000000
510.530240 352.713100 19.094236 0.000000
497.738340 352.672390 18.928825 0.000000
499.160130 352.676910 18.945042 0.000000
500.579770 352.681430 18.961775 0.000000
501.998170 352.685970 18.979034 0.000000
520.706790 346.449860 20.699242 0.000000
520.285890 350.829590 20.952377 0.000000
496.435240 350.883540 20.587181 0.000000
511.944060 352.707340 20.902533 0.000000
513.383910 352.711910 20.928291 0.000000
514.830440 352.716430 20.955259 0.000000
503.394100 352.680270 20.772282 0.000000
504.812900 352.684750 20.791187 0.000000
507.655270 352.693760 20.832312 0.000000
509.080630 352.698300 20.854567 0.000000
510.509920 352.702790 20.877964 0.000000
497.714870 352.662140 20.707432 0.000000
499.137020 352.666690 20.722046 0.000000
500.557010 352.671200 20.737720 0.000000
501.975770 352.675720 20.754459 0.000000
517.747190 352.725590 21.012938 0.000000
519.212040 352.693050 21.041317 0.000000
520.699650 336.826110 17.135838 0.000000
520.620180 347.467770 17.312674 0.000000
496.555390 346.708950 16.991722 0.000000
517.072690 350.968630 17.325741 0.000000
518.488160 350.897980 17.342693 0.000000
514.261410 351.137760 17.292555 0.000000
515.665280 351.055570 17.309166 0.000000
511.462310 351.293670 17.259306 0.000000
497.498500 351.368190 17.081673 0.000000
501.654020 352.697780 17.157127 0.000000
503.071260 352.702420 17.175360 0.000000
504.488100 352.707030 17.193586 0.000000
505.905400 352.711670 17.211819 0.000000
507.324040 352.716310 17.230070 0.000000
508.744870 352.720950 17.248348 0.000000
510.168790 352.725650 17.266666 0.000000
498.814940 352.688540 17.120604 0.000000
500.235530 352.693180 17.138880 0.000000
