# .PCD v0.7 - Point Cloud Data file format
VERSION 0.7
FIELDS x y z intensity
SIZE 4 4 4 4
TYPE F F F F
COUNT 1 1 1 1
WIDTH 1166
HEIGHT 1
VIEWPOINT 0 0 0 1 0 0 0
POINTS 1166
DATA ascii
498.698730 179.642460 15.340382 0.000000
496.940730 180.818130 15.337405 0.000000
498.053920 185.352170 15.381395 0.000000
498.016050 175.313690 18.014439 0.000000
497.635500 184.864970 17.931480 0.000000
496.867160 177.354610 20.698231 0.000000
497.064790 176.322660 12.648467 0.000000
496.626530 179.214540 15.391383 0.000000
498.623050 174.784940 18.103201 0.000000
497.172970 175.175780 12.714991 0.000000
498.926210 173.841580 15.476033 0.000000
498.962130 177.418880 15.499798 0.000000
496.294070 180.929180 15.505527 0.000000
496.871460 184.797410 15.534728 0.000000
497.708710 175.854740 18.219812 0.000000
496.842620 176.964970 12.803548 0.000000
495.986850 179.343290 12.840373 0.000000
499.023960 186.036380 13.053918 0.000000
497.184360 183.968870 15.596801 0.000000
499.047300 172.630770 15.539190 0.000000
499.230530 176.436770 15.563591 0.000000
496.614470 176.693450 15.548782 0.000000
495.903990 179.249970 15.559955 0.000000
498.074770 174.995240 18.311224 0.000000
498.336000 178.776150 18.268372 0.000000
498.885380 185.885220 18.189707 0.000000
496.443360 176.494810 21.069588 0.000000
496.113460 178.181700 12.886381 0.000000
497.342040 186.032070 18.296850 0.000000
519.914730 177.334630 10.929476 0.000000
518.045040 185.096250 11.194990 0.000000
496.550750 173.837980 12.904616 0.000000
517.356020 171.334470 10.691107 0.000000
520.152890 179.646730 11.109246 0.000000
517.960020 179.873550 11.054815 0.000000
496.807370 176.303710 13.058547 0.000000
496.447450 179.284550 13.111710 0.000000
500.059630 176.730070 15.882624 0.000000
496.040220 178.829940 15.869443 0.000000
498.984530 178.868070 18.616337 0.000000
516.897710 173.003970 10.901569 0.000000
514.661930 173.417600 10.851942 0.000000
512.490970 173.980350 10.808320 0.000000
512.892520 181.656780 11.107028 0.000000
497.291690 175.756410 13.211111 0.000000
496.535340 178.309570 13.242603 0.000000
496.384310 178.151400 16.033401 0.000000
496.632320 184.910930 16.046511 0.000000
497.185640 185.505000 18.716553 0.000000
512.815250 176.658110 11.003776 0.000000
513.349180 184.225740 11.287876 0.000000
511.119080 184.599900 11.227208 0.000000
497.715820 175.065810 13.297028 0.000000
498.186890 179.032710 13.372644 0.000000
496.377010 177.004710 16.133001 0.000000
510.621770 172.198910 10.894921 0.000000
508.531130 173.049740 10.856068 0.000000
509.000760 180.700810 11.124220 0.000000
500.402530 173.567540 13.449919 0.000000
496.815250 176.382740 13.417379 0.000000
496.290370 179.185360 13.447083 0.000000
500.572270 177.273240 13.509288 0.000000
500.073820 176.715500 16.288811 0.000000
498.668030 184.985260 16.265873 0.000000
498.437900 174.825990 19.133480 0.000000
495.905790 178.815570 19.081499 0.000000
505.918520 170.765050 10.837366 0.000000
503.664120 171.589660 10.786320 0.000000
504.204830 179.280060 11.034977 0.000000
507.108280 185.857790 11.330078 0.000000
499.722720 174.062300 13.603486 0.000000
496.910490 177.804870 13.590188 0.000000
500.794710 178.748280 13.685622 0.000000
499.548680 173.892910 16.480099 0.000000
497.826510 178.869420 19.274996 0.000000
503.199250 179.327760 11.238494 0.000000
503.114930 182.516220 11.315700 0.000000
503.226560 185.794980 11.400717 0.000000
498.677490 174.259290 13.866929 0.000000
497.545840 176.523640 16.760769 0.000000
497.392760 176.400940 19.663242 0.000000
503.097960 184.633640 11.478949 0.000000
499.206240 173.761290 14.021387 0.000000
497.099000 174.935750 13.982716 0.000000
496.555540 177.786270 13.989808 0.000000
496.383240 177.655010 16.898844 0.000000
496.998960 179.701370 14.320063 0.000000
498.033020 174.022520 17.304277 0.000000
496.785340 179.544540 17.223534 0.000000
496.805270 185.973940 17.141012 0.000000
496.774110 176.217130 20.227959 0.000000
498.809750 179.664430 14.464465 0.000000
497.186430 181.328160 14.425692 0.000000
496.664860 177.624730 20.355762 0.000000
508.175840 164.324570 12.265638 0.000000
519.583800 163.355620 15.155205 0.000000
518.741330 161.215610 15.066182 0.000000
520.669310 163.159000 17.853613 0.000000
520.629150 162.322800 17.814650 0.000000
518.713810 165.853500 13.457594 0.000000
520.592960 163.777880 17.818916 0.000000
519.849060 161.795760 15.979988 0.000000
520.504330 163.424900 18.125772 0.000000
520.056400 166.888550 15.956310 0.000000
518.482060 165.400860 15.963078 0.000000
519.967590 161.755140 15.883243 0.000000
520.582760 163.356770 18.004589 0.000000
518.165220 166.108610 15.659104 0.000000
517.887880 164.420230 15.640903 0.000000
519.064700 165.942180 17.763334 0.000000
520.692630 164.001620 17.670347 0.000000
520.691530 162.327880 17.643854 0.000000
519.382080 162.466290 19.801781 0.000000
518.939880 165.766660 13.332181 0.000000
518.427550 164.128310 15.410789 0.000000
520.702880 162.157010 15.355451 0.000000
518.699160 164.068740 17.498972 0.000000
518.308780 164.102540 19.618067 0.000000
519.506040 162.263570 19.516958 0.000000
519.202640 165.493240 13.285295 0.000000
519.317440 165.434490 17.393999 0.000000
519.911440 163.692170 17.346935 0.000000
517.907230 162.300430 17.397589 0.000000
518.275090 163.903470 19.483234 0.000000
519.484990 162.085820 19.383205 0.000000
519.514220 161.933180 13.453468 0.000000
520.208500 163.438900 15.467141 0.000000
519.675600 163.478420 19.500385 0.000000
520.726440 166.257570 13.436645 0.000000
517.646360 165.142530 15.431727 0.000000
519.961550 164.755580 17.366425 0.000000
519.759460 163.173610 19.327597 0.000000
520.736820 184.123050 11.007210 0.000000
514.492860 182.849490 10.796478 0.000000
519.731380 182.759460 10.971872 0.000000
513.403020 181.395480 10.756884 0.000000
512.411990 179.889630 10.719845 0.000000
511.446870 178.358060 10.682954 0.000000
510.465580 176.812710 10.644808 0.000000
509.466310 175.252330 10.605330 0.000000
508.600620 173.639680 10.569546 0.000000
507.781830 171.999880 10.534581 0.000000
508.772310 168.199690 10.550465 0.000000
520.681210 164.502900 10.941262 0.000000
518.312440 166.444820 14.830703 0.000000
519.758670 164.608640 14.795093 0.000000
519.911620 163.017960 14.774248 0.000000
518.414670 166.404170 16.807756 0.000000
518.485600 164.791520 16.779325 0.000000
519.671690 163.031200 16.716120 0.000000
518.594240 161.603780 16.727650 0.000000
518.091060 164.832890 18.774345 0.000000
518.119510 163.231260 18.742699 0.000000
517.663450 183.865780 10.864855 0.000000
516.831240 182.412950 10.824754 0.000000
516.004030 180.947660 10.784116 0.000000
515.167660 179.473710 10.742450 0.000000
514.320070 177.990390 10.699666 0.000000
513.501040 176.485080 10.657114 0.000000
512.766540 174.943790 10.616731 0.000000
512.087040 173.377580 10.577513 0.000000
511.454960 171.790310 10.539215 0.000000
510.843200 170.189250 10.500896 0.000000
513.123410 168.032270 10.563869 0.000000
509.415370 166.991810 10.414759 0.000000
519.999510 166.700560 12.716926 0.000000
514.447940 164.457920 12.597164 0.000000
520.115300 163.561580 14.569438 0.000000
519.533200 162.110490 14.547508 0.000000
518.987550 163.701030 16.499653 0.000000
518.776610 162.180510 16.474195 0.000000
520.443420 163.448350 18.345987 0.000000
519.722530 185.946610 10.985332 0.000000
518.816220 184.580690 10.948570 0.000000
517.899780 183.205890 10.910805 0.000000
516.978700 181.818980 10.872209 0.000000
516.054930 180.418180 10.832837 0.000000
515.116820 179.006270 10.792280 0.000000
514.211610 177.567580 10.752131 0.000000
513.317200 176.109340 10.711632 0.000000
512.433530 174.631360 10.670772 0.000000
511.702910 173.098910 10.634443 0.000000
510.998110 171.548160 10.598289 0.000000
510.269100 169.990020 10.560566 0.000000
511.810640 167.990220 10.601246 0.000000
507.344970 167.079850 10.431553 0.000000
513.655700 164.349460 12.645185 0.000000
518.508850 166.673220 14.654519 0.000000
519.622010 164.935670 14.619900 0.000000
520.146480 163.336430 14.591908 0.000000
519.532650 161.916280 14.574821 0.000000
520.471920 167.800310 16.532890 0.000000
519.130860 166.528750 16.544590 0.000000
518.894100 165.031890 16.522005 0.000000
519.034180 163.478550 16.488874 0.000000
518.832460 161.983920 16.467648 0.000000
520.674010 166.212420 18.359673 0.000000
520.455440 163.237150 18.302652 0.000000
517.732730 184.552150 10.948872 0.000000
516.759950 183.208530 10.911695 0.000000
515.777770 181.852260 10.873545 0.000000
514.790040 180.480620 10.834538 0.000000
513.785160 179.096280 10.794268 0.000000
512.854370 177.670180 10.755811 0.000000
512.028560 176.197010 10.720226 0.000000
511.101100 174.736300 10.680481 0.000000
510.304380 173.224730 10.644482 0.000000
509.538120 171.691390 10.608811 0.000000
508.688540 170.160770 10.569556 0.000000
510.711550 168.067020 10.628675 0.000000
507.549930 165.211030 12.602626 0.000000
518.643250 166.513850 14.646352 0.000000
519.359920 164.872920 14.617627 0.000000
519.513920 161.867020 14.575023 0.000000
520.363710 167.661150 16.491488 0.000000
519.210210 166.382170 16.500130 0.000000
518.901550 164.927230 16.482456 0.000000
519.053710 163.399810 16.451372 0.000000
518.933230 161.922590 16.430145 0.000000
520.558840 166.103500 18.288597 0.000000
520.519290 163.152770 18.227013 0.000000
515.437870 184.888870 10.955894 0.000000
514.482060 183.524350 10.919136 0.000000
513.508610 182.150970 10.881126 0.000000
512.596920 180.739940 10.844485 0.000000
511.727230 179.300420 10.808558 0.000000
510.885710 177.838180 10.772884 0.000000
510.058870 176.357860 10.737007 0.000000
509.131960 174.889570 10.697075 0.000000
508.326900 173.372730 10.660503 0.000000
507.541750 171.836230 10.623880 0.000000
506.635380 170.309710 10.582420 0.000000
508.942810 168.153230 10.649356 0.000000
518.889710 166.217470 14.650378 0.000000
513.898800 165.585340 14.679251 0.000000
520.071410 163.074110 14.595442 0.000000
519.470890 161.707470 14.580952 0.000000
518.977420 161.751050 16.399956 0.000000
517.527950 166.424500 18.390762 0.000000
520.461180 164.415510 18.196943 0.000000
520.561460 162.952590 18.160551 0.000000
507.206390 164.904430 10.304571 0.000000
507.204100 163.254000 10.290025 0.000000
504.437650 161.937850 10.170819 0.000000
520.603150 183.871140 10.929394 0.000000
519.797420 182.578570 10.894660 0.000000
518.997680 181.273620 10.859529 0.000000
518.189390 179.961180 10.823471 0.000000
517.370970 178.640410 10.786419 0.000000
516.532230 177.313260 10.747989 0.000000
515.719060 175.964040 10.709829 0.000000
514.909790 174.599530 10.671148 0.000000
514.095400 173.221570 10.631607 0.000000
513.417480 171.794540 10.596376 0.000000
512.775700 170.347850 10.561806 0.000000
514.917240 168.311920 10.629300 0.000000
513.429260 167.053470 10.562408 0.000000
514.962280 165.205280 12.486232 0.000000
517.993040 163.194410 14.320108 0.000000
519.707090 161.505400 14.287041 0.000000
518.674320 163.064190 16.106468 0.000000
520.425900 161.383410 16.030275 0.000000
518.047300 166.095470 16.181053 0.000000
517.331540 164.745450 16.173100 0.000000
500.549380 174.833240 16.813391 0.000000
518.908810 165.905790 17.954138 0.000000
520.721740 164.141080 17.826784 0.000000
519.702330 162.881550 17.847128 0.000000
519.654050 162.863190 19.624767 0.000000
514.941890 166.489330 11.976695 0.000000
508.822080 164.434270 11.807088 0.000000
500.133120 178.291630 14.001842 0.000000
499.878910 172.883650 13.904088 0.000000
518.112300 164.385940 15.572554 0.000000
519.318420 162.767870 15.517206 0.000000
499.073030 173.025530 16.123201 0.000000
519.969850 164.040310 17.263853 0.000000
517.892150 165.839520 17.392553 0.000000
520.077090 163.993210 18.993732 0.000000
519.849610 162.630620 18.971792 0.000000
514.789120 166.263900 11.880992 0.000000
508.721310 165.825790 11.726590 0.000000
509.284210 164.162920 11.719738 0.000000
507.682100 164.376630 13.648892 0.000000
520.396730 163.799240 13.677911 0.000000
498.547420 185.893430 14.001924 0.000000
499.923830 177.954480 13.855710 0.000000
499.869780 172.574600 13.759859 0.000000
519.035160 162.613040 15.369994 0.000000
518.495060 161.302950 15.355636 0.000000
499.479400 178.036740 16.059933 0.000000
498.010890 174.769350 16.009102 0.000000
518.826840 164.010040 17.127001 0.000000
518.627560 162.647290 17.103794 0.000000
518.175290 165.533950 17.189608 0.000000
498.017940 178.403380 18.333813 0.000000
497.746400 176.627670 18.291759 0.000000
499.082890 174.468250 18.178186 0.000000
520.228760 163.743410 18.762775 0.000000
520.271850 162.369670 18.723866 0.000000
508.534640 165.657180 11.596792 0.000000
497.021210 176.605040 11.410505 0.000000
520.732670 167.593930 13.592244 0.000000
520.407040 163.599430 13.534765 0.000000
501.576570 178.897580 13.681720 0.000000
499.737490 177.643750 13.653402 0.000000
497.724270 174.574860 13.597425 0.000000
520.601440 164.885220 15.209101 0.000000
520.189090 163.613170 15.193974 0.000000
519.237120 162.416840 15.190612 0.000000
518.518130 161.162230 15.183201 0.000000
498.121890 174.442960 15.776893 0.000000
498.338470 172.608860 15.736931 0.000000
496.996060 185.924770 16.052210 0.000000
496.658330 184.119720 16.013885 0.000000
497.897830 178.123570 15.857537 0.000000
497.026310 176.530610 15.838144 0.000000
518.525510 165.252060 16.955236 0.000000
518.419680 161.153090 16.876204 0.000000
499.182920 177.725750 18.005333 0.000000
496.161010 174.884740 18.044577 0.000000
519.865300 163.621120 18.539598 0.000000
519.631590 162.310710 18.522617 0.000000
496.733950 185.975270 18.341087 0.000000
496.485110 178.444090 20.369247 0.000000
496.659450 176.553250 20.297113 0.000000
508.619630 165.458360 11.339535 0.000000
507.763670 165.587690 13.215061 0.000000
519.290160 164.946960 13.280691 0.000000
520.245970 162.133510 13.263256 0.000000
498.117860 185.092770 13.350963 0.000000
499.183780 179.235610 13.291445 0.000000
499.568240 177.341930 13.273775 0.000000
498.646480 175.823640 13.252033 0.000000
500.462070 173.618090 13.241856 0.000000
518.244080 166.493090 14.965029 0.000000
519.529240 164.885480 14.924491 0.000000
519.942020 163.482620 14.900856 0.000000
500.588130 177.028520 15.383547 0.000000
496.605010 176.334690 15.430043 0.000000
498.532350 174.065610 15.367021 0.000000
496.572630 185.614520 15.593178 0.000000
496.272130 180.082550 15.496384 0.000000
518.932740 164.982180 16.592108 0.000000
519.023930 163.624600 16.566727 0.000000
498.746430 173.989170 17.492687 0.000000
497.828430 177.778440 17.605955 0.000000
498.822750 175.726620 17.525898 0.000000
520.570190 163.344790 18.123816 0.000000
516.843690 162.611540 18.328474 0.000000
519.433590 163.523770 19.841728 0.000000
498.646240 177.521820 19.726810 0.000000
497.642940 176.010600 19.742023 0.000000
513.952940 185.295910 11.105221 0.000000
512.682860 184.212390 11.068213 0.000000
511.442810 183.088620 11.032205 0.000000
510.173030 181.948610 10.995313 0.000000
508.970460 180.755450 10.960594 0.000000
507.748470 179.541920 10.925320 0.000000
506.495570 178.310120 10.889126 0.000000
505.293760 177.033170 10.854593 0.000000
503.977230 175.760130 10.816521 0.000000
503.450650 174.245940 10.803244 0.000000
503.438540 172.601550 10.806063 0.000000
503.298830 170.999510 10.804871 0.000000
514.593380 165.616490 12.884616 0.000000
508.194980 165.317460 12.824429 0.000000
499.121950 178.873840 12.779667 0.000000
499.844180 176.910770 12.778611 0.000000
497.143160 175.891940 12.748452 0.000000
496.801790 174.212040 12.739410 0.000000
519.993840 163.288670 14.526248 0.000000
519.587340 162.060730 14.525028 0.000000
519.734990 164.635820 14.537222 0.000000
499.663760 178.695590 14.889761 0.000000
498.563960 177.257050 14.887228 0.000000
497.642610 175.747510 14.883282 0.000000
498.987790 173.666240 14.849512 0.000000
517.809940 166.339390 16.227520 0.000000
498.436770 179.048580 17.041653 0.000000
499.346010 175.287000 16.952875 0.000000
520.524170 164.473940 17.709011 0.000000
496.455510 177.836010 17.085365 0.000000
519.111270 166.062160 17.810472 0.000000
517.349790 162.395020 17.857895 0.000000
519.719970 163.319550 19.346838 0.000000
497.946170 179.180180 19.208603 0.000000
498.215640 177.326450 19.152657 0.000000
497.667880 175.714610 19.148106 0.000000
519.996090 183.582060 11.044557 0.000000
518.713380 182.660260 11.008594 0.000000
517.470090 181.691500 10.974198 0.000000
516.194760 180.706480 10.938860 0.000000
514.883300 179.704500 10.902456 0.000000
513.532780 178.684220 10.864897 0.000000
512.265260 177.601580 10.830413 0.000000
511.016200 176.481750 10.796753 0.000000
509.818480 175.315570 10.765044 0.000000
508.551420 174.139480 10.731146 0.000000
507.379240 172.905880 10.700678 0.000000
505.987120 171.696590 10.662927 0.000000
503.482540 169.104980 10.597555 0.000000
500.651250 178.064700 12.504376 0.000000
497.246150 175.565770 12.465992 0.000000
496.785340 173.941770 12.462025 0.000000
519.886170 161.867430 14.302978 0.000000
517.811710 163.491610 14.326487 0.000000
498.050020 186.051390 14.643217 0.000000
499.310700 178.460110 14.572013 0.000000
497.788600 177.159240 14.578525 0.000000
496.593840 175.732180 14.582461 0.000000
497.402130 173.787260 14.565527 0.000000
518.178410 166.049760 15.945558 0.000000
496.781010 173.935210 16.683699 0.000000
496.670290 184.698240 16.824270 0.000000
496.812620 179.203110 16.741102 0.000000
517.763060 166.134990 17.588676 0.000000
519.872500 163.140760 19.021250 0.000000
520.368470 161.798680 18.968550 0.000000
498.466220 176.955810 18.758978 0.000000
498.011930 178.835100 18.816700 0.000000
497.332670 175.527800 18.793713 0.000000
496.952450 177.375460 20.979382 0.000000
497.134310 175.574810 20.925463 0.000000
519.617370 180.269120 10.942667 0.000000
518.374510 179.344730 10.909576 0.000000
517.093380 178.404510 10.875357 0.000000
515.772640 177.446440 10.839983 0.000000
514.409120 176.468990 10.803362 0.000000
513.013790 175.465850 10.765913 0.000000
511.861630 174.352260 10.737456 0.000000
510.638790 173.230210 10.706737 0.000000
509.469480 172.062530 10.678182 0.000000
508.121220 170.908690 10.643592 0.000000
506.767850 169.718960 10.609142 0.000000
507.713130 168.013200 10.655149 0.000000
520.014220 166.722210 12.623372 0.000000
513.986510 166.710800 12.552732 0.000000
514.816530 165.187040 12.569090 0.000000
497.229860 178.755260 12.314240 0.000000
497.337070 175.258010 12.325054 0.000000
496.649350 173.718220 12.321913 0.000000
520.032040 161.712940 14.175249 0.000000
498.505980 185.433780 14.437111 0.000000
499.605350 179.752060 14.395491 0.000000
498.833250 178.269820 14.395782 0.000000
497.288210 176.994370 14.404898 0.000000
498.755460 174.884290 14.385637 0.000000
520.729430 161.610820 15.682462 0.000000
496.740940 178.896970 16.525974 0.000000
495.966610 175.618740 16.519245 0.000000
496.655880 173.718930 16.484095 0.000000
519.588620 165.553130 17.286169 0.000000
519.765990 163.007570 17.257332 0.000000
497.056950 185.974470 16.604660 0.000000
496.688780 184.280910 16.591370 0.000000
518.881100 164.429720 18.883928 0.000000
520.121460 162.950930 18.775625 0.000000
497.971070 178.523960 18.569969 0.000000
497.602690 176.902820 18.563072 0.000000
498.578670 174.930630 18.484844 0.000000
496.953640 177.084490 20.700516 0.000000
497.061550 175.330120 20.657459 0.000000
519.923030 181.031630 10.967695 0.000000
513.548340 176.350490 10.797600 0.000000
512.270260 175.318860 10.764282 0.000000
511.141420 174.209430 10.736526 0.000000
506.069210 169.616610 10.608500 0.000000
518.720640 180.128400 10.935783 0.000000
517.484920 179.209930 10.902905 0.000000
516.213010 178.275010 10.868974 0.000000
514.901920 177.322360 10.833904 0.000000
509.935520 173.094090 10.706285 0.000000
508.782440 171.933840 10.678160 0.000000
506.293330 168.072420 10.628883 0.000000
520.623720 163.871550 12.631485 0.000000
515.192320 166.223400 12.559425 0.000000
496.986080 178.468440 12.309164 0.000000
497.158450 176.697310 12.315324 0.000000
519.968260 161.557800 14.135849 0.000000
514.604920 165.018450 14.186717 0.000000
497.231260 180.126250 14.387255 0.000000
498.361390 178.051390 14.367924 0.000000
496.858550 176.780170 14.376679 0.000000
497.236360 174.973910 14.367670 0.000000
518.036440 164.369810 15.706048 0.000000
498.088500 178.130520 16.419178 0.000000
497.163670 176.692370 16.432676 0.000000
498.184420 174.723740 16.384430 0.000000
496.654300 173.433060 16.421301 0.000000
517.976810 165.651370 17.275888 0.000000
519.964840 164.006610 17.156780 0.000000
519.647770 162.838440 17.165287 0.000000
520.343690 163.937870 18.643997 0.000000
520.181400 162.750750 18.643021 0.000000
496.968960 180.201480 18.563278 0.000000
497.942840 178.171360 18.478592 0.000000
497.802950 176.510280 18.459118 0.000000
496.698850 176.819960 20.597610 0.000000
496.919860 175.055830 20.545742 0.000000
520.607060 184.385970 11.083952 0.000000
519.408020 183.532610 11.051619 0.000000
518.237490 182.638780 11.020470 0.000000
516.976680 181.758440 10.986355 0.000000
515.749080 180.833890 10.953600 0.000000
514.487490 179.893750 10.919870 0.000000
513.189090 178.936830 10.885081 0.000000
512.009830 177.904680 10.854602 0.000000
510.806270 176.852690 10.823483 0.000000
509.568240 175.782320 10.791393 0.000000
508.390590 174.662720 10.761562 0.000000
507.173310 173.525040 10.730594 0.000000
505.954380 172.356660 10.699782 0.000000
504.524720 171.208210 10.662126 0.000000
503.498050 169.928540 10.638196 0.000000
504.811770 168.136230 10.692278 0.000000
501.061340 178.500180 12.461516 0.000000
500.686340 176.977190 12.457954 0.000000
514.018860 164.904660 12.619167 0.000000
509.056460 164.450550 12.569126 0.000000
497.231810 176.325870 12.420853 0.000000
496.712490 174.787870 12.416945 0.000000
520.743650 164.821550 14.156163 0.000000
518.916500 163.975510 14.174791 0.000000
519.817870 161.407560 14.163279 0.000000
499.501190 178.993030 14.438504 0.000000
495.795290 178.443950 14.471650 0.000000
496.583920 176.504290 14.453284 0.000000
517.805420 166.687960 15.731188 0.000000
520.480830 164.876560 15.632389 0.000000
518.242680 164.104740 15.700283 0.000000
498.205510 174.388490 16.421112 0.000000
498.876620 184.330110 16.531303 0.000000
498.041440 177.762390 16.463133 0.000000
496.801150 176.438660 16.486412 0.000000
517.938230 165.406020 17.250029 0.000000
518.752380 164.009090 17.191954 0.000000
520.372190 166.105850 18.614889 0.000000
519.302370 165.122470 18.678968 0.000000
520.352360 163.706250 18.579378 0.000000
520.125310 162.555500 18.582047 0.000000
496.416720 179.966550 18.609642 0.000000
498.336150 177.668150 18.466839 0.000000
497.535890 176.227130 18.483097 0.000000
496.923220 176.395520 20.558544 0.000000
514.487180 185.277830 11.102213 0.000000
513.269230 184.329540 11.069258 0.000000
512.041750 183.358380 11.036105 0.000000
510.852480 182.343430 11.004280 0.000000
509.688540 181.291900 10.973364 0.000000
508.535100 180.210530 10.942883 0.000000
507.353640 179.113460 10.911620 0.000000
506.141660 177.999370 10.879503 0.000000
504.896640 176.866880 10.846464 0.000000
503.710330 175.686100 10.815388 0.000000
503.488950 174.204380 10.814607 0.000000
503.436430 172.685000 10.819066 0.000000
514.230100 165.914890 12.754017 0.000000
515.669800 164.354060 12.766179 0.000000
500.762700 178.178890 12.651963 0.000000
499.893620 176.824580 12.640500 0.000000
497.470060 175.892330 12.616224 0.000000
510.110110 164.055180 12.717969 0.000000
519.551150 161.257190 14.250182 0.000000
499.456790 178.585490 14.605343 0.000000
498.209350 177.321040 14.608402 0.000000
498.593960 185.684940 14.691245 0.000000
520.224180 163.485110 15.693296 0.000000
520.605220 162.250060 15.670772 0.000000
517.995360 166.352110 15.795776 0.000000
499.002590 175.442730 16.539070 0.000000
498.395810 173.988340 16.539860 0.000000
520.072750 165.878540 17.181112 0.000000
496.708680 184.644450 16.764799 0.000000
496.823180 179.416170 16.669147 0.000000
496.599550 177.794750 16.651379 0.000000
520.180050 165.850130 18.636248 0.000000
518.800050 164.951550 18.724751 0.000000
519.892210 163.542970 18.616245 0.000000
519.594850 162.419950 18.621910 0.000000
498.009640 179.025590 18.626556 0.000000
497.784120 177.428590 18.603588 0.000000
497.281950 175.918290 18.599678 0.000000
497.615660 175.815320 20.574453 0.000000
497.053190 177.637910 20.664930 0.000000
516.318790 185.202060 11.105656 0.000000
515.246460 184.252730 11.070606 0.000000
514.198790 183.270750 11.036371 0.000000
513.084050 182.297580 10.999931 0.000000
512.133060 181.232010 10.968885 0.000000
511.157870 180.158580 10.937045 0.000000
510.164220 179.073060 10.904600 0.000000
509.150210 177.974640 10.871491 0.000000
508.113950 176.862180 10.837654 0.000000
507.053470 175.734560 10.803022 0.000000
506.049500 174.565610 10.770255 0.000000
503.917760 172.191590 10.700659 0.000000
503.495540 170.808640 10.687029 0.000000
503.453120 169.337040 10.685888 0.000000
508.569980 165.439300 10.854576 0.000000
520.040220 166.760890 12.665422 0.000000
514.818480 164.248290 12.594234 0.000000
497.361390 178.809650 12.466702 0.000000
496.755160 174.055600 12.431365 0.000000
507.851070 164.195250 12.514934 0.000000
518.292050 164.771640 14.097487 0.000000
499.584080 179.709110 14.441277 0.000000
498.797360 178.331280 14.429522 0.000000
497.552060 177.078920 14.424608 0.000000
520.632810 166.594150 15.512933 0.000000
519.652400 164.480610 15.513311 0.000000
496.673280 178.988080 16.454910 0.000000
496.563390 177.356060 16.426861 0.000000
496.692990 174.038680 16.364740 0.000000
518.532780 167.093890 17.055611 0.000000
518.426510 165.917400 17.037899 0.000000
518.895750 164.627470 16.989662 0.000000
496.700200 184.089810 16.563120 0.000000
520.410580 164.304990 18.324480 0.000000
520.509400 163.138780 18.292593 0.000000
498.044980 178.530650 18.374966 0.000000
497.406620 177.084350 18.370171 0.000000
498.523440 175.138610 18.266102 0.000000
496.701450 185.810090 18.654549 0.000000
519.392940 163.340470 19.822767 0.000000
497.120300 177.150860 20.371132 0.000000
497.482570 175.412730 20.292345 0.000000
518.437740 185.030880 11.102198 0.000000
515.774900 182.063110 10.995449 0.000000
514.853390 181.059830 10.958592 0.000000
513.952640 180.031110 10.922395 0.000000
513.051090 178.986400 10.886108 0.000000
510.555690 175.678130 10.784161 0.000000
509.720400 174.545700 10.749943 0.000000
508.973790 173.370190 10.718767 0.000000
508.175290 172.195530 10.685726 0.000000
507.329500 171.016970 10.650963 0.000000
506.383790 169.844040 10.612620 0.000000
507.914520 168.090680 10.661438 0.000000
496.115260 166.023470 10.228623 0.000000
519.306700 186.003100 11.137047 0.000000
517.552800 184.054230 11.066757 0.000000
516.653440 183.070860 11.030771 0.000000
512.232540 177.893430 10.852638 0.000000
511.401250 176.790950 10.818675 0.000000
497.247830 167.373540 10.274345 0.000000
519.252200 165.521850 12.484054 0.000000
520.657840 164.069890 12.492779 0.000000
513.822140 164.230320 12.394050 0.000000
497.035490 178.561430 12.273612 0.000000
497.005920 176.929780 12.256736 0.000000
518.701170 164.458280 13.896529 0.000000
518.731690 163.290310 13.882215 0.000000
497.340970 180.085950 14.263596 0.000000
498.201170 178.160810 14.225750 0.000000
518.216310 164.542390 15.341465 0.000000
518.424680 163.333190 15.315872 0.000000
519.269960 162.030840 15.272089 0.000000
499.091520 184.432920 16.303349 0.000000
498.014280 178.190950 16.170752 0.000000
499.090640 173.102360 16.030602 0.000000
518.896060 166.725780 16.800386 0.000000
518.873780 165.556560 16.773983 0.000000
519.864870 164.187070 16.694921 0.000000
519.713070 163.076390 16.679647 0.000000
520.749630 166.259110 18.098608 0.000000
520.644900 165.143370 18.074169 0.000000
520.631230 164.013930 18.045044 0.000000
520.678770 162.880620 18.013577 0.000000
497.931700 178.187770 18.120764 0.000000
497.547730 176.683470 18.094744 0.000000
519.535340 166.535390 19.623919 0.000000
519.759830 163.038250 19.493793 0.000000
498.860050 176.264110 19.940758 0.000000
499.000550 177.819270 19.986929 0.000000
496.798340 176.443700 11.048075 0.000000
519.256410 166.234880 12.992565 0.000000
520.565310 163.705460 12.970133 0.000000
498.606720 179.034300 13.015320 0.000000
497.172180 176.300660 12.964854 0.000000
497.615080 174.593350 12.944489 0.000000
518.578800 164.095890 14.349159 0.000000
519.807430 161.637070 14.292422 0.000000
497.566860 184.297840 15.043868 0.000000
497.602910 174.566990 14.831446 0.000000
499.090210 175.666460 16.697811 0.000000
520.087100 165.972840 17.095436 0.000000
518.842710 164.003690 17.113041 0.000000
519.614620 162.736740 17.037580 0.000000
496.698090 184.604350 17.039717 0.000000
496.040920 179.831830 16.916481 0.000000
498.209470 174.367740 16.694334 0.000000
518.083440 165.303880 17.190302 0.000000
520.450990 163.655180 18.365730 0.000000
519.686160 162.705400 18.398476 0.000000
497.496310 176.110670 18.668148 0.000000
497.076540 174.654140 18.644663 0.000000
497.925050 177.564850 18.693371 0.000000
519.556760 162.711490 19.782419 0.000000
496.933960 176.246800 20.625408 0.000000
496.990050 177.828600 20.684464 0.000000
516.257080 185.732090 11.115612 0.000000
515.529600 184.696670 11.079426 0.000000
514.796510 183.657650 11.042994 0.000000
514.053960 182.615720 11.006184 0.000000
513.316100 181.563190 10.969461 0.000000
512.627870 180.480100 10.934347 0.000000
511.968750 179.377380 10.900162 0.000000
511.304990 178.269580 10.865760 0.000000
510.635410 177.156080 10.831090 0.000000
509.958800 176.036410 10.796102 0.000000
508.660640 173.749860 10.727801 0.000000
508.070130 172.574600 10.695584 0.000000
507.395750 171.414400 10.660336 0.000000
506.703120 170.246730 10.624338 0.000000
505.958400 169.078160 10.586370 0.000000
499.282470 167.757510 10.323750 0.000000
498.659210 166.421980 10.288939 0.000000
497.097410 165.232270 10.220024 0.000000
515.160460 164.472730 12.324646 0.000000
509.541560 164.359860 12.232012 0.000000
520.015810 164.537700 13.731380 0.000000
519.108400 163.641450 13.720150 0.000000
497.720060 177.146350 14.082790 0.000000
496.111110 176.067400 14.066353 0.000000
497.446320 174.123690 14.020627 0.000000
519.759220 164.572390 15.066133 0.000000
519.609440 163.517300 15.046670 0.000000
518.234070 166.033950 15.140045 0.000000
499.260620 175.094770 15.856939 0.000000
498.965700 173.665940 15.826353 0.000000
520.402340 167.679030 16.462938 0.000000
518.948910 164.729890 16.443678 0.000000
520.239320 163.367260 16.345591 0.000000
519.877320 161.298280 16.312300 0.000000
499.158200 184.575820 16.148197 0.000000
496.651000 183.938890 16.184862 0.000000
519.990420 164.475980 17.719395 0.000000
518.243160 162.648900 17.785053 0.000000
497.146300 178.833690 17.910507 0.000000
497.208560 177.231400 17.850657 0.000000
498.014470 175.428330 17.752159 0.000000
497.470640 185.229030 18.146908 0.000000
519.849180 163.403660 19.030279 0.000000
519.708800 162.356250 19.007771 0.000000
496.646180 177.370090 19.781527 0.000000
497.652530 175.498890 19.638397 0.000000
507.385560 185.263460 11.101830 0.000000
506.531250 184.148710 11.063641 0.000000
505.636540 183.039690 11.024155 0.000000
504.779450 181.900770 10.985662 0.000000
504.017090 180.711040 10.949883 0.000000
503.513310 179.413890 10.921789 0.000000
503.483760 176.487610 10.895315 0.000000
503.472170 175.048770 10.882394 0.000000
503.425170 173.635890 10.868521 0.000000
508.686800 165.616390 10.974066 0.000000
514.807680 164.336690 12.577873 0.000000
509.196440 164.238880 12.509759 0.000000
499.414730 185.716280 12.714792 0.000000
500.658390 177.403730 12.593155 0.000000
497.321230 175.422870 12.521040 0.000000
496.833680 174.031780 12.494482 0.000000
518.760310 163.505280 13.936443 0.000000
519.802920 161.186810 13.887671 0.000000
507.665190 164.501910 14.058887 0.000000
498.354980 178.141910 14.411867 0.000000
496.452390 175.647090 14.372987 0.000000
497.412660 173.837280 14.327070 0.000000
519.654480 163.301910 15.227407 0.000000
518.717100 161.351140 15.216040 0.000000
499.083800 173.339390 16.093691 0.000000
518.999210 163.415370 16.569536 0.000000
518.672730 161.339720 16.535295 0.000000
520.729610 166.199280 17.858858 0.000000
520.722050 164.087910 17.786825 0.000000
517.769350 162.555360 17.957512 0.000000
499.393680 174.705110 17.917149 0.000000
499.256530 177.766710 18.031473 0.000000
497.531860 176.792450 18.082300 0.000000
519.848080 164.260680 19.169441 0.000000
519.839780 163.203200 19.131956 0.000000
519.543640 162.206310 19.126392 0.000000
498.938840 177.836700 19.880573 0.000000
498.705510 176.386730 19.835218 0.000000
498.743620 174.864170 19.770365 0.000000
503.537290 183.402540 11.066429 0.000000
503.469940 180.426470 11.035854 0.000000
503.446410 178.963880 11.021135 0.000000
503.362520 177.541080 11.004854 0.000000
497.046690 176.688350 10.793327 0.000000
504.742130 185.920960 11.129266 0.000000
503.873660 184.784010 11.090446 0.000000
503.499540 181.905960 11.050929 0.000000
520.659550 163.912730 12.688143 0.000000
509.129640 164.023160 12.564981 0.000000
501.483730 178.173420 12.696024 0.000000
500.278110 177.106740 12.664284 0.000000
497.183440 176.608990 12.620726 0.000000
497.442660 175.011000 12.598173 0.000000
496.809080 173.687390 12.570429 0.000000
518.657170 163.277010 13.953193 0.000000
520.360470 161.906300 13.910506 0.000000
500.964630 175.377010 14.380422 0.000000
498.965390 185.312520 14.645264 0.000000
498.566680 179.172650 14.491432 0.000000
498.140620 177.788180 14.462332 0.000000
496.292390 175.318330 14.423614 0.000000
496.359560 173.778960 14.389668 0.000000
520.608760 164.914320 15.226833 0.000000
518.345520 164.385280 15.285438 0.000000
519.146060 163.156300 15.231394 0.000000
518.555540 161.175230 15.207683 0.000000
518.732120 164.277540 16.572220 0.000000
518.933110 163.178920 16.530970 0.000000
498.049350 177.781860 16.277571 0.000000
497.330690 176.490510 16.260616 0.000000
498.347470 174.673340 16.177429 0.000000
497.127690 186.068570 16.578636 0.000000
496.740970 184.589130 16.537401 0.000000
520.700990 163.819400 17.715227 0.000000
519.250370 166.260830 17.908545 0.000000
497.320500 184.305690 18.394070 0.000000
497.564970 179.451230 18.183159 0.000000
498.047090 177.745650 18.093914 0.000000
495.983830 176.879320 18.167091 0.000000
520.123110 163.926130 19.039734 0.000000
519.926150 162.935390 19.022020 0.000000
519.458370 161.994960 19.034538 0.000000
498.698490 177.490910 19.858185 0.000000
496.867340 176.564390 19.949228 0.000000
495.973270 175.307360 19.961519 0.000000
496.307770 176.703990 21.853313 0.000000
503.526210 185.853300 11.182232 0.000000
503.472020 184.348010 11.164423 0.000000
503.479060 182.837950 11.148491 0.000000
514.691890 166.075200 12.686172 0.000000
514.215880 165.064650 12.665499 0.000000
509.059020 165.003600 12.612139 0.000000
508.808840 163.848100 12.592414 0.000000
500.501950 178.046300 12.738928 0.000000
499.683840 176.857880 12.708841 0.000000
496.595580 176.373600 12.667151 0.000000
496.844850 174.794540 12.642801 0.000000
519.888060 164.798310 13.965972 0.000000
520.385990 163.667160 13.937233 0.000000
507.558560 165.284870 14.112617 0.000000
499.402220 179.900480 14.532156 0.000000
499.163360 178.483430 14.498046 0.000000
498.177090 177.326170 14.478781 0.000000
497.419160 176.075960 14.456058 0.000000
497.464020 174.574750 14.420315 0.000000
520.419620 165.665910 15.219412 0.000000
518.236330 165.172780 15.276182 0.000000
518.366150 164.094090 15.244488 0.000000
519.517940 162.819820 15.175953 0.000000
519.242800 161.859790 15.162633 0.000000
518.933840 164.981780 16.519423 0.000000
518.593320 164.021090 16.508425 0.000000
518.994260 161.885190 16.426489 0.000000
496.712830 179.313220 16.366381 0.000000
496.689390 177.786560 16.318110 0.000000
496.741820 176.252870 16.268951 0.000000
498.220430 174.314790 16.165003 0.000000
519.103640 165.958710 17.817074 0.000000
520.596680 164.559910 17.653730 0.000000
519.672180 162.745670 17.660685 0.000000
497.493960 177.478900 18.081423 0.000000
498.072940 175.796050 17.987991 0.000000
497.401400 179.029590 18.146982 0.000000
496.259740 174.860080 18.048286 0.000000
520.160400 163.629500 18.898895 0.000000
519.989140 162.659930 18.878513 0.000000
520.589900 161.548630 18.780153 0.000000
518.176820 165.116240 19.150105 0.000000
496.734890 177.694050 19.948280 0.000000
497.652500 175.891630 19.801483 0.000000
503.467250 185.204030 11.224579 0.000000
515.347840 166.675420 12.689479 0.000000
513.704960 164.877430 12.640486 0.000000
508.261440 164.892040 12.584510 0.000000
507.503850 163.843410 12.559160 0.000000
498.384670 178.300160 12.727203 0.000000
497.227970 175.732010 12.664354 0.000000
496.846890 174.380770 12.634585 0.000000
518.945740 163.685410 13.903851 0.000000
509.021940 164.708910 14.035340 0.000000
497.197170 180.195890 14.540703 0.000000
498.775210 178.119930 14.468788 0.000000
497.475340 177.088960 14.453584 0.000000
496.456050 175.936220 14.433503 0.000000
499.078550 173.679640 14.349852 0.000000
519.703740 163.493010 15.104757 0.000000
519.931460 161.459300 16.246693 0.000000
499.404480 174.966130 16.086401 0.000000
520.691040 168.224170 16.435163 0.000000
498.153750 178.298570 16.235832 0.000000
496.641240 177.327270 16.248568 0.000000
496.842160 174.304960 16.144651 0.000000
518.588500 162.685010 17.593941 0.000000
499.116000 177.916410 17.930489 0.000000
495.952390 177.516080 18.075096 0.000000
520.701600 162.233490 18.614639 0.000000
520.547790 166.194060 18.801195 0.000000
518.908020 164.604780 18.885237 0.000000
520.151860 163.322400 18.711372 0.000000
499.037600 177.902620 19.676785 0.000000
498.676940 175.117540 19.570816 0.000000
519.379270 162.477780 19.982964 0.000000
496.666500 177.236020 19.814489 0.000000
496.966740 177.094440 21.572731 0.000000
496.899230 177.032900 10.966482 0.000000
514.570190 165.574080 11.364427 0.000000
520.547180 164.104780 12.706884 0.000000
515.247800 166.451420 12.697342 0.000000
514.793090 164.424670 12.654731 0.000000
500.251650 177.283370 12.757376 0.000000
497.322940 175.390140 12.687182 0.000000
518.841430 163.497790 13.886423 0.000000
508.992430 164.523070 14.021326 0.000000
498.943970 185.212650 14.689700 0.000000
499.388580 178.999400 14.496908 0.000000
498.235630 177.956760 14.478209 0.000000
501.182980 175.512650 14.380873 0.000000
498.430790 174.999480 14.394853 0.000000
497.396850 173.886540 14.376157 0.000000
519.845400 163.250120 15.055705 0.000000
520.269040 161.223650 16.157871 0.000000
498.021580 177.989720 16.215790 0.000000
498.154360 175.046540 16.110241 0.000000
519.019900 164.396220 16.326607 0.000000
518.510500 162.531740 16.293249 0.000000
496.728060 184.582580 16.502682 0.000000
520.555970 165.945510 17.490685 0.000000
517.930480 165.646620 17.672916 0.000000
497.318210 184.276890 18.276356 0.000000
497.889040 177.993580 17.960354 0.000000
496.097870 177.131530 18.015778 0.000000
520.384700 164.018780 18.612240 0.000000
520.319700 163.071900 18.577526 0.000000
520.418030 162.096950 18.527958 0.000000
519.225890 165.286190 18.781208 0.000000
519.363890 162.286070 19.844948 0.000000
498.693050 177.666630 19.631424 0.000000
498.472230 176.296840 19.579758 0.000000
519.199710 163.293810 19.910456 0.000000
495.980990 175.648760 19.729765 0.000000
520.402040 161.155060 10.373905 0.000000
514.541020 165.367400 11.398183 0.000000
508.773470 165.600920 11.223516 0.000000
497.049680 176.672700 11.022490 0.000000
520.643430 163.866990 12.714645 0.000000
509.062620 164.360780 12.613408 0.000000
498.988590 178.842250 12.812536 0.000000
500.052890 177.023540 12.783522 0.000000
497.171420 176.588960 12.744601 0.000000
497.417300 175.069760 12.714730 0.000000
497.001340 173.772610 12.683412 0.000000
518.633360 164.325650 13.898873 0.000000
518.737850 163.324740 13.873238 0.000000
520.426090 162.011860 13.822236 0.000000
515.150570 166.214550 13.986310 0.000000
499.485530 178.611850 14.499189 0.000000
495.827610 178.479870 14.532368 0.000000
500.885770 175.301180 14.388310 0.000000
497.279540 175.071900 14.420215 0.000000
519.575620 165.040700 15.085398 0.000000
518.672240 163.313870 15.063420 0.000000
518.104800 166.425230 15.176692 0.000000
518.976500 164.190830 16.268679 0.000000
499.327060 178.627060 16.192646 0.000000
496.784120 176.632980 16.198399 0.000000
498.141480 174.758610 16.090485 0.000000
496.741940 184.162480 16.486469 0.000000
496.654450 178.142180 16.256634 0.000000
497.431980 179.290160 18.013687 0.000000
497.699770 177.728160 17.930460 0.000000
518.928410 165.127110 18.706596 0.000000
520.452270 163.786000 18.497242 0.000000
520.401120 162.856020 18.461102 0.000000
519.472170 162.108960 18.520367 0.000000
519.726320 162.979550 19.712296 0.000000
498.451110 177.419050 19.586313 0.000000
498.385130 176.012830 19.520462 0.000000
497.308930 176.328670 21.344673 0.000000
514.996400 166.008120 12.612003 0.000000
514.260800 165.152210 12.586094 0.000000
513.641420 164.251980 12.560945 0.000000
509.207370 164.117100 12.509788 0.000000
499.332580 185.666150 12.880233 0.000000
498.371030 178.665150 12.700602 0.000000
499.625550 176.789310 12.672384 0.000000
496.574830 176.424790 12.628640 0.000000
496.902040 174.890230 12.598352 0.000000
520.007450 164.680010 13.783622 0.000000
520.414310 163.642610 13.752523 0.000000
519.926450 162.826770 13.736895 0.000000
497.412170 180.444610 14.450750 0.000000
499.974850 178.018540 14.353579 0.000000
498.041260 177.306660 14.348826 0.000000
496.422300 176.431080 14.337391 0.000000
497.380980 174.695740 14.278295 0.000000
518.344060 166.061140 15.024300 0.000000
520.251950 163.655350 14.888213 0.000000
519.494930 166.678990 16.178585 0.000000
499.176210 178.271550 16.036797 0.000000
496.686770 177.740690 16.089512 0.000000
496.780490 176.266390 16.032471 0.000000
498.447970 172.939390 15.865103 0.000000
518.315730 162.151990 17.247423 0.000000
497.416260 177.436860 17.758099 0.000000
520.507450 163.515230 18.274096 0.000000
497.507110 184.823490 18.110168 0.000000
497.233920 178.949950 17.835852 0.000000
519.713380 162.770600 18.316483 0.000000
519.698730 163.681170 19.518661 0.000000
519.624080 162.764130 19.481504 0.000000
498.028660 177.175110 19.407145 0.000000
497.647430 175.887950 19.368452 0.000000
496.523680 176.217180 21.187201 0.000000
508.152680 183.670760 11.024141 0.000000
507.638000 182.575880 10.988091 0.000000
507.149660 181.469470 10.952871 0.000000
506.731630 180.332290 10.919874 0.000000
505.502590 176.928410 10.821953 0.000000
505.093930 175.797060 10.789400 0.000000
504.140720 173.580980 10.719809 0.000000
503.430300 171.278030 10.658180 0.000000
503.507570 170.005600 10.642053 0.000000
509.241820 185.833470 11.098119 0.000000
508.669070 184.766690 11.060273 0.000000
506.324650 179.193770 10.887280 0.000000
504.608280 174.693700 10.754330 0.000000
503.726380 172.448070 10.687017 0.000000
519.552000 166.445280 12.340409 0.000000
510.222900 164.795380 12.147974 0.000000
515.377990 164.643430 12.231973 0.000000
509.506930 163.859010 12.117641 0.000000
497.096710 178.751910 12.218770 0.000000
520.642330 166.091800 13.465734 0.000000
513.364380 165.098540 13.468863 0.000000
497.474730 181.466030 13.991636 0.000000
500.421780 178.841490 13.902458 0.000000
499.727840 177.717590 13.869793 0.000000
518.754210 166.621580 14.644662 0.000000
519.571720 161.749600 14.473330 0.000000
514.244510 164.856740 14.701460 0.000000
499.363530 179.209300 15.564445 0.000000
500.252110 177.474060 15.477202 0.000000
498.996670 175.175690 15.421988 0.000000
498.752560 173.893330 15.382639 0.000000
496.748900 184.730770 15.846716 0.000000
520.320560 163.344410 16.717764 0.000000
517.299740 166.005950 17.035019 0.000000
519.071290 164.575700 16.853643 0.000000
518.940800 162.746780 16.788303 0.000000
518.664120 161.882550 16.774651 0.000000
497.235170 178.551860 17.276836 0.000000
497.080290 177.181140 17.222046 0.000000
498.578890 175.269960 17.072327 0.000000
496.545170 173.154100 17.076725 0.000000
520.396000 164.206860 17.865067 0.000000
497.554720 185.833070 17.621716 0.000000
517.885930 162.952270 18.032272 0.000000
519.875610 163.396360 19.001684 0.000000
519.776860 162.509570 18.968681 0.000000
520.518070 161.456910 18.836353 0.000000
498.854310 177.899610 18.831030 0.000000
518.696170 164.614700 19.195738 0.000000
497.148380 177.060990 20.586430 0.000000
497.189060 175.640840 20.500813 0.000000
517.498900 185.411580 11.088109 0.000000
517.049620 184.433960 11.054009 0.000000
516.590580 183.468380 11.019654 0.000000
516.135010 182.505360 10.985489 0.000000
515.683530 181.543910 10.951530 0.000000
515.242250 180.580090 10.917984 0.000000
514.797060 179.621230 10.884340 0.000000
514.353580 178.663450 10.850785 0.000000
513.910580 177.706570 10.817266 0.000000
513.467530 176.750240 10.783752 0.000000
513.039920 175.787000 10.750816 0.000000
512.653320 174.806350 10.719440 0.000000
512.323850 173.803820 10.690265 0.000000
511.996150 172.802870 10.661192 0.000000
511.669490 171.803270 10.632182 0.000000
511.342960 170.804550 10.603193 0.000000
511.007570 169.808960 10.573857 0.000000
513.102910 168.087810 10.641222 0.000000
511.517970 167.485090 10.562469 0.000000
509.824040 166.861500 10.478599 0.000000
507.855070 166.251210 10.382781 0.000000
506.360690 165.471410 10.305439 0.000000
506.235350 164.364530 10.283752 0.000000
506.281800 163.229060 10.269228 0.000000
504.198490 162.462810 10.166088 0.000000
503.520260 161.415990 10.120873 0.000000
520.674380 164.006350 11.992132 0.000000
514.917600 166.503050 11.910063 0.000000
514.463320 164.621510 11.861829 0.000000
508.472630 163.873660 11.710683 0.000000
497.205990 176.905240 11.717719 0.000000
519.010680 166.263810 13.123567 0.000000
514.242000 165.646800 13.097497 0.000000
508.177190 164.999530 13.071233 0.000000
514.132570 164.670650 13.072708 0.000000
500.375760 178.433760 13.422173 0.000000
497.775270 185.317840 13.632194 0.000000
499.511930 177.396960 13.387859 0.000000
496.841370 176.984760 13.367352 0.000000
518.142520 164.605590 14.210664 0.000000
519.918760 161.478650 14.083801 0.000000
513.617490 166.798770 14.366462 0.000000
520.377930 165.797260 15.300320 0.000000
519.674380 163.280700 15.234816 0.000000
500.832920 175.521270 14.900717 0.000000
518.855710 164.391940 15.307836 0.000000
518.941220 161.651810 15.210280 0.000000
497.412350 183.925780 15.287109 0.000000
499.624790 178.678450 15.040174 0.000000
499.247650 177.445830 14.999598 0.000000
497.416750 175.348720 14.955242 0.000000
498.348570 173.688660 14.880424 0.000000
519.288020 165.165540 16.434429 0.000000
518.947020 164.339260 16.419861 0.000000
519.099670 163.390520 16.371412 0.000000
519.941650 161.422970 16.243351 0.000000
518.980350 166.179290 16.498571 0.000000
496.983090 179.665120 16.799566 0.000000
496.829320 178.297940 16.742466 0.000000
496.747010 176.917880 16.684118 0.000000
520.406370 164.827270 17.444225 0.000000
496.631010 184.221860 17.034752 0.000000
520.459290 163.893040 18.485249 0.000000
520.424560 163.018970 18.443600 0.000000
520.515990 162.123210 18.389914 0.000000
499.036380 174.712830 18.102013 0.000000
498.156980 177.751540 18.309223 0.000000
497.646210 176.550450 18.276594 0.000000
496.452910 179.819380 18.519138 0.000000
498.712980 177.493740 19.896591 0.000000
496.873110 176.772770 19.999287 0.000000
495.893340 175.711000 20.016623 0.000000
496.433350 176.876710 21.722923 0.000000
518.385250 185.295870 11.096292 0.000000
517.476680 183.423750 11.029598 0.000000
517.024290 182.494320 10.996429 0.000000
516.582150 181.562910 10.963686 0.000000
516.136900 180.637020 10.930882 0.000000
515.699340 179.709660 10.898401 0.000000
515.258610 178.786320 10.865834 0.000000
514.819150 177.863770 10.833335 0.000000
514.379880 176.941850 10.800853 0.000000
513.941100 176.019730 10.768393 0.000000
513.498170 175.098880 10.735763 0.000000
513.121770 174.148860 10.705677 0.000000
512.791750 173.181080 10.677402 0.000000
512.463260 172.214520 10.649210 0.000000
512.135500 171.248930 10.621065 0.000000
511.807680 170.283870 10.592925 0.000000
511.461150 169.324620 10.564036 0.000000
513.217100 167.736370 10.619650 0.000000
511.740690 167.129150 10.545547 0.000000
508.614720 165.820280 10.388319 0.000000
514.440920 165.387160 10.640925 0.000000
507.167110 165.067000 10.313438 0.000000
