# .PCD v0.7 - Point Cloud Data file format
VERSION 0.7
FIELDS x y z intensity
SIZE 4 4 4 4
TYPE F F F F
COUNT 1 1 1 1
WIDTH 1166
HEIGHT 1
VIEWPOINT 0 0 0 1 0 0 0
POINTS 1166
DATA ascii
496.145940 223.740260 19.320972 0.000000
501.734950 223.709060 20.777813 0.000000
497.758670 221.625080 21.024534 0.000000
496.862920 224.403270 20.927830 0.000000
498.296690 223.946040 20.894203 0.000000
498.967010 220.968400 22.678385 0.000000
496.062650 223.703460 22.662613 0.000000
497.499110 223.223450 22.613810 0.000000
505.936280 212.066360 12.188572 0.000000
505.235720 213.386060 12.214119 0.000000
504.591430 214.741300 12.242168 0.000000
503.871490 215.974180 12.261520 0.000000
506.097440 220.502040 12.521524 0.000000
505.427430 221.628190 12.536823 0.000000
504.688050 222.662450 12.544946 0.000000
504.043760 223.781250 12.559115 0.000000
503.363620 224.848080 12.568975 0.000000
505.374660 228.448320 12.781345 0.000000
504.711150 229.419280 12.786690 0.000000
504.038540 230.374590 12.790217 0.000000
503.375850 231.332570 12.793384 0.000000
505.098690 234.245210 12.966150 0.000000
504.345060 235.052860 12.958588 0.000000
503.585390 235.859830 12.949887 0.000000
498.455080 216.125660 13.804819 0.000000
498.403750 223.665890 13.956758 0.000000
497.341190 217.002720 15.549702 0.000000
500.677280 216.483400 15.583265 0.000000
497.301820 218.929050 15.559001 0.000000
496.790590 225.740140 15.587849 0.000000
501.276250 224.587750 15.630685 0.000000
501.513950 224.820690 17.204891 0.000000
499.997070 226.831650 17.193447 0.000000
497.613220 215.263990 17.321852 0.000000
500.848390 216.681020 17.293293 0.000000
499.113340 220.712360 17.258001 0.000000
497.641390 222.985780 17.242769 0.000000
496.869600 225.814190 17.220501 0.000000
496.169800 226.927810 17.214661 0.000000
497.356020 215.005260 19.112478 0.000000
500.518680 222.097410 18.865231 0.000000
501.741670 221.484440 18.856472 0.000000
500.292240 223.673930 18.830145 0.000000
501.503390 223.070310 20.420504 0.000000
500.875980 224.234050 20.396332 0.000000
498.278900 223.583770 20.518501 0.000000
496.302490 223.597560 22.272423 0.000000
497.834810 223.186490 22.211258 0.000000
520.383180 222.003330 12.593960 0.000000
519.476750 222.608220 12.593009 0.000000
518.553470 223.190550 12.589489 0.000000
516.727170 224.393520 12.582606 0.000000
517.637150 223.785920 12.586040 0.000000
517.937070 227.663800 12.789217 0.000000
516.123050 228.726720 12.771016 0.000000
517.026670 228.186540 12.779957 0.000000
515.252080 229.313030 12.764774 0.000000
514.404660 229.932190 12.760231 0.000000
515.585630 232.689470 12.937063 0.000000
514.753910 233.263700 12.929495 0.000000
513.906680 233.831390 12.920229 0.000000
513.004820 234.357380 12.906012 0.000000
498.136200 216.389510 13.235093 0.000000
498.211210 223.980580 13.463889 0.000000
498.484710 216.736180 15.009106 0.000000
500.082000 216.380580 15.020819 0.000000
498.715880 220.817120 15.072192 0.000000
497.752590 223.566740 15.102791 0.000000
500.162200 214.410830 16.757006 0.000000
496.182890 216.435550 16.773394 0.000000
499.661680 215.932270 16.757486 0.000000
500.817870 222.799440 16.748075 0.000000
498.867950 224.542310 16.758961 0.000000
498.239750 216.473210 18.524666 0.000000
497.284180 221.319490 18.469736 0.000000
496.309630 222.274520 18.477339 0.000000
499.915130 221.936750 18.404486 0.000000
501.794460 221.930830 18.365511 0.000000
496.143310 225.665790 18.435465 0.000000
500.900850 224.618680 19.941368 0.000000
498.130310 220.238250 20.175070 0.000000
499.817020 219.984100 20.121243 0.000000
496.196010 223.958270 20.141146 0.000000
497.790280 223.563670 21.757534 0.000000
496.701630 224.379640 21.783218 0.000000
520.119750 221.974180 12.514326 0.000000
519.270260 226.273860 12.704386 0.000000
520.207400 225.777400 12.713574 0.000000
518.318540 226.762180 12.693449 0.000000
517.356510 227.249650 12.681275 0.000000
517.340700 230.408360 12.836092 0.000000
518.279170 229.944630 12.850105 0.000000
516.447630 230.935640 12.826189 0.000000
515.537600 231.456220 12.814508 0.000000
516.502140 233.886180 12.969054 0.000000
514.610170 234.794740 12.932652 0.000000
515.572570 234.347720 12.952250 0.000000
513.602540 235.219060 12.909344 0.000000
498.727600 215.879210 14.947737 0.000000
500.554960 221.510990 15.056972 0.000000
500.102390 215.262330 14.952086 0.000000
497.731320 216.891920 14.953655 0.000000
499.670200 222.502810 15.063711 0.000000
497.577300 224.210940 15.069420 0.000000
499.491060 222.328510 16.725273 0.000000
498.728090 223.432070 16.731400 0.000000
498.756380 225.200780 16.734341 0.000000
497.690670 216.831190 18.506786 0.000000
501.305390 222.198870 18.354242 0.000000
499.468410 225.794140 18.347866 0.000000
502.123350 224.707490 19.893093 0.000000
499.567900 220.547410 20.107901 0.000000
495.989070 224.598480 20.136421 0.000000
497.772400 224.340520 20.071930 0.000000
497.754490 222.539890 21.817890 0.000000
497.123200 223.776380 21.802221 0.000000
497.938420 220.879030 21.878029 0.000000
497.899690 224.082400 13.074633 0.000000
496.745240 215.461580 14.565644 0.000000
500.577550 215.224370 14.605115 0.000000
499.239410 215.890490 14.603502 0.000000
496.373690 226.287870 14.787207 0.000000
500.665440 226.387700 14.839033 0.000000
497.445040 214.076540 16.382561 0.000000
500.089870 214.702840 16.376108 0.000000
496.308380 217.035680 16.404051 0.000000
500.950260 223.172300 16.420702 0.000000
498.442140 224.500950 16.441587 0.000000
500.510930 224.534300 16.431486 0.000000
500.923250 215.551730 18.138992 0.000000
497.991910 216.632640 18.184572 0.000000
497.983030 220.477840 18.150402 0.000000
497.311980 221.729950 18.154419 0.000000
500.778590 221.194670 18.086723 0.000000
496.886470 223.174190 18.152752 0.000000
495.840880 224.088040 18.169487 0.000000
495.953700 225.919430 18.155340 0.000000
498.388400 220.825680 19.861845 0.000000
499.977110 220.428630 19.812918 0.000000
501.280120 225.169400 19.655603 0.000000
496.279910 226.155000 19.829653 0.000000
495.998290 222.407990 19.917143 0.000000
497.841250 222.154100 21.568062 0.000000
498.222870 216.212720 12.726189 0.000000
498.286410 223.798580 12.986719 0.000000
499.827150 225.065660 14.734138 0.000000
500.040710 215.962810 14.559218 0.000000
498.674770 216.633680 14.553455 0.000000
499.744050 213.601070 16.336460 0.000000
496.579410 216.643170 16.355335 0.000000
499.574400 217.483310 16.352964 0.000000
497.350650 221.170930 16.376116 0.000000
497.571960 223.177140 16.386406 0.000000
501.348720 222.860630 16.374460 0.000000
495.796330 225.281190 16.404472 0.000000
500.167720 216.067810 18.128391 0.000000
501.118070 220.826050 18.060936 0.000000
497.784270 221.531190 18.116732 0.000000
500.897430 222.445860 18.049141 0.000000
496.071750 223.722320 18.132215 0.000000
499.220860 224.534710 18.062731 0.000000
498.347230 216.297410 18.157654 0.000000
500.104190 219.877180 19.816664 0.000000
501.414890 222.895690 19.697336 0.000000
496.422450 223.989200 19.853065 0.000000
500.237400 223.632190 19.721640 0.000000
497.943820 221.642110 21.590357 0.000000
496.783510 224.264510 21.557024 0.000000
520.589230 233.775630 12.927879 0.000000
519.945070 235.841220 12.996120 0.000000
500.389740 215.063160 14.784189 0.000000
497.894290 216.697750 14.777353 0.000000
498.221410 224.447390 14.905790 0.000000
500.157590 224.282260 14.928761 0.000000
500.024570 214.695080 16.594416 0.000000
497.146970 217.979800 16.605459 0.000000
499.484710 221.919600 16.604408 0.000000
499.033260 223.336470 16.608633 0.000000
498.384740 224.569630 16.613699 0.000000
497.768070 220.428630 18.379530 0.000000
497.049040 221.673250 18.378729 0.000000
501.684230 222.032380 18.282452 0.000000
496.759670 223.252690 18.366289 0.000000
495.879330 226.086780 18.354530 0.000000
497.859710 216.652040 18.427191 0.000000
497.789150 224.071910 20.058207 0.000000
501.542940 223.682210 19.929144 0.000000
500.643710 224.662600 19.936302 0.000000
499.754970 220.298680 20.085535 0.000000
496.157040 224.545070 20.108831 0.000000
497.869260 220.499820 21.922569 0.000000
497.600190 222.115370 21.871469 0.000000
495.885250 222.529890 21.948389 0.000000
520.092220 227.903630 12.718433 0.000000
520.659790 230.089860 12.845602 0.000000
519.495000 230.360550 12.811333 0.000000
518.924930 232.710620 12.897133 0.000000
520.060970 232.412230 12.930494 0.000000
519.377810 234.536800 12.999623 0.000000
518.230290 234.830580 12.964041 0.000000
498.014070 216.406860 13.123667 0.000000
498.080320 223.991530 13.349688 0.000000
500.123230 216.354390 14.993631 0.000000
496.813750 217.308470 14.973537 0.000000
498.702580 220.857790 15.048125 0.000000
499.200740 226.583680 15.141647 0.000000
498.533110 216.869000 14.984843 0.000000
500.166720 214.358180 16.806969 0.000000
499.501680 215.757810 16.810867 0.000000
495.987670 216.570180 16.831177 0.000000
496.488710 220.863650 16.833656 0.000000
501.003360 222.800550 16.808287 0.000000
498.852170 224.577360 16.824783 0.000000
501.912540 221.772800 18.507607 0.000000
496.291260 222.538960 18.627295 0.000000
500.429410 222.301880 18.534031 0.000000
500.242580 223.929410 18.517914 0.000000
496.036410 225.902440 18.596266 0.000000
498.170260 216.516880 18.661905 0.000000
501.712130 223.380660 20.179220 0.000000
498.352480 224.157520 20.293787 0.000000
500.934630 224.485380 20.180820 0.000000
495.932890 224.051470 20.396107 0.000000
497.772980 223.686420 22.083549 0.000000
498.014470 225.627880 21.995274 0.000000
520.169560 230.624160 12.832337 0.000000
520.616330 232.532930 12.940224 0.000000
519.416140 232.790040 12.903505 0.000000
519.769290 234.511170 12.997293 0.000000
518.531800 234.750580 12.956675 0.000000
497.970210 216.444140 13.140622 0.000000
498.002780 224.017030 13.369387 0.000000
500.067200 216.329710 15.027510 0.000000
498.504430 216.904770 15.022371 0.000000
497.736210 218.198650 15.036173 0.000000
500.060460 222.045500 15.119741 0.000000
499.213620 226.660160 15.186437 0.000000
500.120270 214.336360 16.860451 0.000000
499.514340 215.805940 16.866287 0.000000
497.333070 217.837020 16.885031 0.000000
499.447540 221.522130 16.876925 0.000000
499.245820 223.175140 16.882380 0.000000
498.824250 224.619660 16.889563 0.000000
501.871060 221.723210 18.587687 0.000000
500.389010 222.288360 18.616640 0.000000
500.199430 223.923450 18.602625 0.000000
495.996370 225.997120 18.688807 0.000000
498.045750 216.466920 18.744198 0.000000
501.493840 223.190630 20.295141 0.000000
500.485570 224.137510 20.313137 0.000000
495.809020 224.075120 20.513901 0.000000
498.298650 224.182050 20.404461 0.000000
497.670560 223.680620 22.221489 0.000000
498.025240 225.710720 22.125637 0.000000
500.446720 215.079970 14.741312 0.000000
497.819550 216.770600 14.742046 0.000000
500.066530 225.997280 14.937024 0.000000
500.008610 214.660260 16.614574 0.000000
500.684880 222.935550 16.644850 0.000000
498.971950 223.385280 16.656633 0.000000
498.779540 225.018520 16.666107 0.000000
501.730010 221.962340 18.387543 0.000000
498.106540 224.498200 18.447903 0.000000
497.777100 216.702240 18.525644 0.000000
497.756350 220.566270 18.489017 0.000000
499.649540 220.214050 20.263977 0.000000
497.667330 222.340000 20.294128 0.000000
501.262390 223.367870 20.127842 0.000000
497.753200 224.216550 20.250605 0.000000
497.788300 226.005260 20.212631 0.000000
497.754030 220.530940 22.176067 0.000000
497.123350 221.900830 22.163027 0.000000
496.930180 223.583270 22.116035 0.000000
519.950380 225.862210 12.675077 0.000000
519.183900 228.321080 12.752387 0.000000
520.562680 228.119480 12.798615 0.000000
518.233280 230.499860 12.806748 0.000000
519.695370 230.356260 12.860531 0.000000
518.924190 232.593120 12.923025 0.000000
517.452510 232.752910 12.867855 0.000000
517.920840 234.556950 12.961185 0.000000
516.409610 234.719920 12.902816 0.000000
498.333070 216.422880 13.311419 0.000000
498.229130 223.968110 13.506535 0.000000
499.436610 215.343030 15.224842 0.000000
497.700470 215.873200 15.215932 0.000000
497.047300 223.082960 15.301055 0.000000
496.566280 226.338170 15.337815 0.000000
498.984500 226.279630 15.358807 0.000000
500.198270 213.956670 17.135252 0.000000
497.324040 215.542160 17.153486 0.000000
499.670810 215.541290 17.135931 0.000000
496.606750 216.966800 17.157032 0.000000
499.304050 221.091740 17.130953 0.000000
496.804960 224.713990 17.150200 0.000000
498.990720 224.509950 17.131298 0.000000
501.768830 224.832460 17.107687 0.000000
496.630550 226.370650 17.151926 0.000000
501.877900 221.302490 18.898949 0.000000
499.006710 227.992450 18.881886 0.000000
500.475860 222.013930 18.923346 0.000000
498.235050 222.099880 20.821526 0.000000
498.311860 223.985960 20.767660 0.000000
495.955510 224.085020 20.868790 0.000000
499.065730 220.871890 22.668919 0.000000
497.465030 223.348050 22.665039 0.000000
496.212950 224.257230 22.707094 0.000000
520.609680 229.852890 12.806540 0.000000
519.738400 232.045940 12.857517 0.000000
520.288880 233.952760 12.957052 0.000000
518.832210 234.138400 12.899614 0.000000
519.294190 235.887510 12.987436 0.000000
497.790010 216.870060 15.196746 0.000000
497.633300 218.734650 15.215431 0.000000
498.654080 221.452870 15.256226 0.000000
500.590580 224.738740 15.313162 0.000000
496.999240 225.762360 15.285383 0.000000
500.196960 216.866360 17.131586 0.000000
497.925540 218.961490 17.139166 0.000000
498.952760 221.675990 17.125940 0.000000
495.851140 224.970700 17.141031 0.000000
498.946040 225.326970 17.118662 0.000000
501.303010 225.258120 17.102690 0.000000
496.214660 227.007290 17.135893 0.000000
499.815700 225.938460 18.905823 0.000000
498.338930 215.283540 19.109940 0.000000
496.280700 221.554080 19.056669 0.000000
501.396580 221.705090 18.932362 0.000000
501.257720 223.431440 18.908264 0.000000
501.723540 223.782460 20.682533 0.000000
497.442690 224.247830 20.848892 0.000000
497.260380 222.269990 20.910866 0.000000
520.501340 224.709230 12.659145 0.000000
519.673710 227.228410 12.729452 0.000000
518.372380 233.711180 12.928354 0.000000
517.027950 235.509260 12.936618 0.000000
518.818240 235.463930 13.012802 0.000000
499.496640 216.770710 13.443617 0.000000
498.256200 221.675770 15.440425 0.000000
498.508000 225.551090 15.482936 0.000000
496.649290 226.106280 15.472873 0.000000
497.842070 223.256350 15.453358 0.000000
497.627380 223.095690 17.353672 0.000000
496.070830 225.716250 17.363455 0.000000
499.363710 226.127820 17.331154 0.000000
496.626340 216.479510 17.380337 0.000000
500.928160 227.189580 19.108656 0.000000
499.034270 220.331510 19.263514 0.000000
500.521820 223.328640 19.176991 0.000000
499.422240 224.361650 19.190849 0.000000
497.108760 226.390840 19.225618 0.000000
497.972900 221.443330 21.196136 0.000000
498.329010 223.577240 21.120600 0.000000
520.700500 232.642180 12.873743 0.000000
498.335210 216.375080 13.305156 0.000000
499.531890 215.267170 15.320972 0.000000
497.740840 215.899340 15.310201 0.000000
499.091860 226.504710 15.431093 0.000000
496.399720 226.562970 17.325867 0.000000
499.650020 226.865140 17.297024 0.000000
500.944890 227.711030 19.108128 0.000000
497.118130 215.395830 19.396753 0.000000
520.122740 231.326420 12.827309 0.000000
519.564940 235.262770 12.946426 0.000000
497.506010 216.979720 15.411346 0.000000
497.401370 218.929120 15.429067 0.000000
498.279390 221.530240 15.461674 0.000000
498.942140 220.051860 19.402636 0.000000
497.018070 216.595370 19.510342 0.000000
519.682680 226.910420 12.701305 0.000000
520.392580 229.138960 12.813622 0.000000
518.524540 229.162580 12.737904 0.000000
519.307680 231.348890 12.849812 0.000000
518.134520 233.448610 12.874701 0.000000
520.084660 233.443850 12.957261 0.000000
496.120910 217.230320 13.455403 0.000000
499.846680 217.975140 15.570993 0.000000
497.827480 220.475810 15.578170 0.000000
497.562530 224.148680 15.608891 0.000000
500.309510 224.120390 15.629167 0.000000
500.589480 222.429930 17.550835 0.000000
496.523620 223.456360 17.590168 0.000000
500.259640 220.258450 19.531757 0.000000
501.357240 222.968230 19.455956 0.000000
498.772000 223.053770 19.527832 0.000000
497.914430 222.459400 21.547550 0.000000
520.457700 219.627900 12.486124 0.000000
519.767520 222.633120 12.575519 0.000000
517.909420 227.836980 12.693377 0.000000
519.849910 227.825530 12.771664 0.000000
518.769230 230.131990 12.809898 0.000000
519.578610 232.296220 12.918808 0.000000
517.553590 232.288410 12.833539 0.000000
518.377440 234.372700 12.938478 0.000000
498.411830 216.125980 13.554887 0.000000
497.982790 217.870670 13.581149 0.000000
498.235290 223.950530 13.711849 0.000000
498.595250 214.149900 15.614913 0.000000
496.850100 217.030610 15.625628 0.000000
497.196110 219.325730 15.646367 0.000000
500.988340 223.910060 15.709586 0.000000
498.523130 225.999800 15.708931 0.000000
499.134920 224.529970 17.656002 0.000000
496.625850 224.789960 17.683342 0.000000
495.858220 226.192920 17.687197 0.000000
497.303040 215.268160 17.718912 0.000000
500.878230 223.822490 19.572123 0.000000
496.107790 222.528850 19.732624 0.000000
520.023860 214.126210 12.261652 0.000000
519.327450 221.262920 12.508607 0.000000
518.551510 224.143430 12.583563 0.000000
520.541440 224.180450 12.663776 0.000000
517.617250 226.774600 12.639198 0.000000
518.581420 229.191070 12.762451 0.000000
517.319580 231.382680 12.783544 0.000000
519.396850 231.394870 12.871301 0.000000
518.319030 233.626010 12.899569 0.000000
519.052430 235.597980 12.994486 0.000000
498.183720 217.288760 13.593584 0.000000
497.651670 216.892880 15.669436 0.000000
497.240600 218.657320 15.679197 0.000000
501.383180 223.507030 15.743465 0.000000
498.741360 223.631270 15.725599 0.000000
496.389190 225.930210 15.725418 0.000000
500.997500 221.319850 17.705313 0.000000
497.594700 214.735750 17.778816 0.000000
497.909180 217.078410 17.761730 0.000000
497.668790 222.919850 17.733419 0.000000
496.477110 224.077760 17.741405 0.000000
496.402500 225.926850 19.744049 0.000000
496.724300 224.223570 21.787891 0.000000
519.785340 212.759830 12.237463 0.000000
519.529170 216.630630 12.375938 0.000000
519.130250 220.119280 12.490412 0.000000
518.441770 223.157090 12.573132 0.000000
520.488710 223.209350 12.654902 0.000000
519.546750 225.856060 12.711721 0.000000
517.261410 230.602690 12.778540 0.000000
519.454770 230.673140 12.871775 0.000000
518.339970 232.931820 12.898675 0.000000
519.188600 235.009520 13.000168 0.000000
498.012700 216.425540 13.634431 0.000000
497.492580 218.131500 13.654887 0.000000
500.294160 223.999420 15.814857 0.000000
498.697630 226.734860 15.822462 0.000000
498.300480 214.512590 15.739484 0.000000
498.468750 224.717250 15.807702 0.000000
498.389130 216.695220 17.859251 0.000000
498.253230 220.680740 17.836660 0.000000
501.248350 220.789460 17.801893 0.000000
497.238490 221.982240 17.841175 0.000000
496.685030 223.581600 17.839298 0.000000
495.906250 225.027730 17.841515 0.000000
496.064540 225.118900 19.884760 0.000000
496.491820 227.264340 19.837595 0.000000
519.641850 211.466130 12.195841 0.000000
519.202030 215.241240 12.322272 0.000000
518.844970 218.866090 12.441772 0.000000
518.289790 222.109120 12.535676 0.000000
520.403200 222.183120 12.620260 0.000000
517.348690 224.879390 12.593779 0.000000
519.457760 224.899570 12.678378 0.000000
518.584410 227.580470 12.734090 0.000000
517.178960 229.784610 12.748409 0.000000
518.311520 232.183290 12.871643 0.000000
519.297670 234.383970 12.981565 0.000000
498.220120 223.918270 13.807646 0.000000
495.915410 226.343930 15.847759 0.000000
501.165340 223.900630 15.865695 0.000000
498.342380 225.898820 15.860232 0.000000
499.216670 226.427290 17.860542 0.000000
497.784120 221.669510 17.904491 0.000000
500.533450 221.540740 17.872677 0.000000
499.176880 224.516080 17.871370 0.000000
495.958830 226.364360 17.901478 0.000000
495.960970 226.360600 19.955984 0.000000
520.163450 213.023770 12.296942 0.000000
518.202450 213.127910 12.229387 0.000000
517.863530 216.914870 12.353107 0.000000
519.943360 216.922320 12.431322 0.000000
517.501830 220.462460 12.463055 0.000000
519.719850 220.574570 12.552362 0.000000
516.597230 223.376250 12.525865 0.000000
518.813780 223.435090 12.615419 0.000000
517.986940 226.254560 12.676050 0.000000
519.048220 228.755220 12.799695 0.000000
517.789060 231.050140 12.819829 0.000000
518.990050 233.441190 12.942820 0.000000
519.752200 235.444820 13.034735 0.000000
517.473450 235.446260 12.937518 0.000000
497.161900 216.382110 15.853766 0.000000
498.946780 227.474670 17.929758 0.000000
495.780580 225.612230 20.067196 0.000000
516.223510 214.308460 12.243595 0.000000
518.431640 214.352460 12.326671 0.000000
515.959590 218.120360 12.363756 0.000000
518.311890 218.275270 12.458304 0.000000
515.325380 221.416720 12.447950 0.000000
517.663390 221.511960 12.542164 0.000000
516.859860 224.481990 12.606903 0.000000
515.632630 227.033100 12.637247 0.000000
518.175170 227.242520 12.746406 0.000000
518.156980 232.114930 12.893306 0.000000
516.790890 234.310730 12.899110 0.000000
519.166200 234.332460 12.999812 0.000000
498.204040 214.147130 15.935659 0.000000
501.687810 222.772250 15.994782 0.000000
498.562840 224.662870 15.986386 0.000000
498.331420 216.395510 18.113924 0.000000
513.988340 215.414290 12.233408 0.000000
516.495540 215.616910 12.334528 0.000000
513.533200 219.044530 12.332441 0.000000
516.014710 219.179120 12.432680 0.000000
515.431030 222.485460 12.514162 0.000000
514.226140 225.192570 12.548208 0.000000
516.920410 225.453000 12.664050 0.000000
515.730040 228.028500 12.692573 0.000000
515.889160 233.052190 12.840639 0.000000
518.378540 233.102650 12.946190 0.000000
516.959170 235.271710 12.945500 0.000000
498.347290 223.856370 13.951887 0.000000
499.665010 214.410190 16.020622 0.000000
500.716250 223.376850 16.059441 0.000000
497.647950 215.120710 18.227177 0.000000
497.376530 217.083690 18.213327 0.000000
512.232060 217.190640 12.279308 0.000000
514.292970 220.827560 12.466902 0.000000
513.229550 223.759120 12.507242 0.000000
515.985110 224.010760 12.625589 0.000000
515.023930 226.855560 12.665408 0.000000
516.545530 229.626340 12.802460 0.000000
515.434940 232.171040 12.821666 0.000000
516.757450 234.580810 12.937901 0.000000
499.768250 213.804840 16.113981 0.000000
498.983640 215.419490 16.112461 0.000000
497.064510 216.241550 16.103310 0.000000
501.173830 223.089740 16.137856 0.000000
498.776610 223.565080 16.125467 0.000000
497.709350 222.914430 18.257315 0.000000
495.790740 223.769650 18.274494 0.000000
497.493770 222.789340 22.556545 0.000000
511.796230 211.747220 12.119604 0.000000
514.025630 211.560810 12.200125 0.000000
513.581600 215.436490 12.295707 0.000000
512.956300 222.824310 12.472719 0.000000
514.883240 226.051180 12.635981 0.000000
516.584840 228.977100 12.781063 0.000000
518.073360 231.633770 12.909406 0.000000
517.068790 234.173230 12.926279 0.000000
498.486390 216.536500 13.931997 0.000000
496.629670 217.445450 16.141071 0.000000
498.631990 224.869140 16.154539 0.000000
500.903290 222.304570 18.274395 0.000000
498.068450 224.544340 18.284576 0.000000
512.573910 213.752840 12.245671 0.000000
510.741360 214.347320 12.187931 0.000000
512.888000 218.156400 12.373465 0.000000
515.153690 221.878490 12.560432 0.000000
516.478390 228.251890 12.769249 0.000000
515.545900 231.016540 12.791224 0.000000
518.041690 230.986760 12.898525 0.000000
518.389400 235.951130 13.020510 0.000000
498.198730 224.057400 14.041866 0.000000
496.933070 219.172930 16.198088 0.000000
496.787350 216.931840 16.200811 0.000000
497.241670 221.472170 18.399456 0.000000
496.769100 223.238970 18.382387 0.000000
501.555940 224.128770 20.407272 0.000000
510.199280 214.533840 12.205936 0.000000
512.432980 218.362580 12.386703 0.000000
510.257140 218.747590 12.304339 0.000000
512.346920 222.242830 12.469116 0.000000
514.646480 225.724270 12.641321 0.000000
516.600220 228.814670 12.789344 0.000000
517.621280 234.426090 12.942812 0.000000
497.972990 216.494710 14.020470 0.000000
497.623570 214.055100 16.313763 0.000000
509.655820 214.826230 12.296961 0.000000
507.416600 215.294050 12.211339 0.000000
510.081670 219.327450 12.399244 0.000000
512.498900 222.999250 12.568716 0.000000
512.247070 226.596070 12.618256 0.000000
514.915220 226.500000 12.733953 0.000000
514.576480 229.846660 12.773198 0.000000
516.666750 232.807100 12.911834 0.000000
499.580350 216.371430 14.190649 0.000000
497.602910 217.288380 14.144196 0.000000
496.504820 216.616710 16.461935 0.000000
496.972110 219.105970 16.447281 0.000000
501.433170 221.864650 18.656843 0.000000
507.201290 212.207430 12.199147 0.000000
504.859220 212.694430 12.107811 0.000000
507.825380 217.038010 12.307011 0.000000
510.528960 220.991930 12.487236 0.000000
510.482360 224.869860 12.543075 0.000000
512.860350 224.512310 12.643208 0.000000
512.859680 228.217440 12.696121 0.000000
515.171810 231.373640 12.842449 0.000000
514.835510 234.563750 12.866418 0.000000
517.510070 234.400420 12.987150 0.000000
498.218140 214.849060 14.213896 0.000000
496.689510 216.144520 16.548409 0.000000
497.092710 218.614620 16.528862 0.000000
497.540220 223.156780 16.490664 0.000000
501.009220 223.086900 16.517923 0.000000
497.076600 220.803380 18.818935 0.000000
503.273410 212.505250 12.184052 0.000000
506.247380 216.813540 12.366104 0.000000
509.116360 220.847500 12.538944 0.000000
506.624270 221.272950 12.432854 0.000000
509.558170 225.102140 12.603728 0.000000
512.035580 228.479950 12.748293 0.000000
514.933290 231.941250 12.911522 0.000000
512.302800 232.231190 12.792913 0.000000
514.596010 235.171480 12.921669 0.000000
497.367610 217.669340 14.360430 0.000000
499.692690 214.692050 16.794243 0.000000
499.205260 216.627840 16.765547 0.000000
499.548490 219.046510 16.737123 0.000000
499.646030 221.257640 16.709450 0.000000
503.280180 211.210970 12.162184 0.000000
505.813020 215.266540 12.314877 0.000000
506.553100 220.076580 12.391200 0.000000
509.004460 219.574860 12.498039 0.000000
509.773130 224.130490 12.570789 0.000000
512.467290 227.677370 12.721054 0.000000
515.689330 231.357800 12.895485 0.000000
513.014770 231.650160 12.771759 0.000000
515.724670 234.835310 12.916822 0.000000
499.920840 215.897160 14.444093 0.000000
498.428560 223.769170 14.370788 0.000000
499.776400 215.854660 16.830843 0.000000
497.013280 218.663760 16.764156 0.000000
500.499020 222.847840 16.731060 0.000000
497.258360 216.604000 19.226105 0.000000
507.522710 215.195130 12.306652 0.000000
508.670040 220.276570 12.395893 0.000000
510.968020 219.678130 12.499487 0.000000
511.985960 224.385590 12.577480 0.000000
515.064450 228.153110 12.744556 0.000000
518.430910 231.900600 12.924088 0.000000
515.912170 232.258770 12.803646 0.000000
518.584590 235.403320 12.944757 0.000000
497.938050 215.823970 14.326010 0.000000
497.471440 217.833600 14.300816 0.000000
499.691830 214.665150 16.825443 0.000000
499.553410 219.115520 16.748112 0.000000
499.649600 221.369190 16.710648 0.000000
499.088440 223.218870 16.673372 0.000000
497.326390 224.428590 16.634768 0.000000
497.228790 215.504730 19.264668 0.000000
496.705320 219.760350 19.149460 0.000000
505.906040 212.875850 12.196164 0.000000
509.739320 217.704350 12.402948 0.000000
507.520660 218.431140 12.300760 0.000000
511.179660 222.823870 12.494410 0.000000
514.551030 226.827700 12.671398 0.000000
518.195070 230.787930 12.860252 0.000000
515.693240 231.204280 12.738094 0.000000
518.796450 234.620270 12.896780 0.000000
499.777950 215.893690 14.384267 0.000000
498.249790 223.972350 14.271454 0.000000
500.104310 222.850330 16.718781 0.000000
500.499510 223.123870 19.088789 0.000000
499.205750 220.217090 19.185366 0.000000
504.257140 215.352070 12.210756 0.000000
506.386320 214.439410 12.310999 0.000000
508.483180 220.210690 12.420509 0.000000
512.033080 224.422700 12.595537 0.000000
516.196470 228.773280 12.799249 0.000000
513.620730 229.237810 12.671553 0.000000
517.433170 233.106510 12.855762 0.000000
500.414920 215.340770 14.520751 0.000000
501.684080 222.960370 19.247749 0.000000
503.265530 211.190310 12.268713 0.000000
503.230990 213.560490 12.264233 0.000000
503.493530 216.061980 12.272348 0.000000
507.740140 220.849880 12.467577 0.000000
509.903290 226.262310 12.555562 0.000000
512.142400 225.481720 12.669449 0.000000
513.882690 230.345290 12.735868 0.000000
517.896790 234.234440 12.917555 0.000000
515.094600 222.100520 12.485450 0.000000
519.479800 226.741030 12.703621 0.000000
520.470090 211.935670 11.862977 0.000000
512.797300 235.323030 12.794468 0.000000
511.620880 233.545200 12.744425 0.000000
510.205870 232.005650 12.691784 0.000000
508.776670 230.478850 12.638971 0.000000
507.339450 228.956650 12.586029 0.000000
505.901180 227.430940 12.533018 0.000000
504.475980 225.888810 12.480106 0.000000
503.487300 224.002620 12.433103 0.000000
503.408570 221.453860 12.399110 0.000000
501.753330 217.578550 12.311372 0.000000
500.850340 225.876830 17.765730 0.000000
516.923890 235.473080 12.793701 0.000000
514.174010 232.481780 12.689013 0.000000
512.735840 231.052920 12.635945 0.000000
511.386350 229.539670 12.584007 0.000000
510.037410 228.027440 12.532094 0.000000
508.698030 226.507000 12.480314 0.000000
507.381650 224.966400 12.428848 0.000000
506.061890 223.427120 12.377316 0.000000
504.740910 221.885860 12.325729 0.000000
503.433620 220.329900 12.274296 0.000000
503.387050 217.862530 12.242482 0.000000
503.368290 215.435420 12.211852 0.000000
502.258000 213.793910 12.164189 0.000000
499.560240 213.171460 12.090226 0.000000
499.146420 226.127030 14.931950 0.000000
498.835420 221.055540 14.800571 0.000000
500.429780 214.941010 14.659124 0.000000
498.600010 216.086430 17.249107 0.000000
499.028470 213.370300 17.145292 0.000000
498.909910 226.225100 17.630156 0.000000
499.298070 225.841290 20.300581 0.000000
519.422670 223.255000 12.439810 0.000000
516.465580 220.991970 12.342159 0.000000
514.909910 219.903270 12.291789 0.000000
513.332150 218.811740 12.240826 0.000000
508.112760 213.424470 12.054802 0.000000
506.904510 211.985170 12.009851 0.000000
517.952700 222.123170 12.391201 0.000000
512.006960 217.494480 12.194091 0.000000
510.703090 216.151490 12.147648 0.000000
509.402770 214.796690 12.101179 0.000000
498.045290 223.193280 14.537326 0.000000
497.895870 215.676910 14.367821 0.000000
497.589480 215.812590 16.927979 0.000000
498.493500 225.359830 19.924547 0.000000
498.823700 222.462070 19.772511 0.000000
497.044130 216.106810 19.519941 0.000000
498.381870 214.384660 13.777170 0.000000
496.730960 220.423650 16.464989 0.000000
498.429750 216.719410 16.341105 0.000000
500.011510 225.780580 16.607716 0.000000
498.504240 224.305270 16.571115 0.000000
497.376650 222.534300 16.524239 0.000000
497.644200 214.761250 18.807493 0.000000
498.424410 221.687990 19.080889 0.000000
495.963010 220.911390 19.109272 0.000000
496.699160 225.631130 19.297535 0.000000
501.614320 224.358830 21.699299 0.000000
497.043910 225.295700 21.941708 0.000000
497.641390 222.205260 21.739056 0.000000
498.275760 223.497160 13.136796 0.000000
498.315090 215.920530 13.054277 0.000000
499.110780 215.321200 15.526078 0.000000
497.559880 223.993930 15.739861 0.000000
499.629210 217.326780 18.055918 0.000000
498.228850 215.883650 18.036009 0.000000
497.669040 226.515660 18.444073 0.000000
500.998050 223.792590 20.822233 0.000000
498.434110 223.205110 20.888649 0.000000
497.153870 221.589600 20.856050 0.000000
496.370540 235.140780 12.722498 0.000000
501.886810 233.049150 12.794390 0.000000
497.217160 220.717380 15.170370 0.000000
499.030670 216.908630 15.090426 0.000000
497.083500 218.265000 17.640402 0.000000
498.162450 215.074080 17.516718 0.000000
501.174070 225.307560 17.800264 0.000000
498.819090 224.543960 20.391249 0.000000
498.562560 222.151920 20.285908 0.000000
512.180050 235.919970 12.718441 0.000000
511.732150 233.476410 12.692247 0.000000
509.027980 233.422450 12.643292 0.000000
506.205470 233.395020 12.593178 0.000000
503.414640 233.241360 12.543548 0.000000
504.751340 229.181520 12.540890 0.000000
496.212490 228.449620 12.394597 0.000000
499.992160 227.980740 12.454015 0.000000
503.430390 227.668400 12.509453 0.000000
499.655090 222.978200 12.421980 0.000000
500.378880 215.011380 14.786798 0.000000
499.084320 226.012820 14.987656 0.000000
498.916110 223.526120 14.940628 0.000000
498.783020 221.075070 14.895768 0.000000
497.500000 214.683730 14.788832 0.000000
499.054260 213.571750 17.162947 0.000000
499.033450 223.386870 17.463158 0.000000
498.671330 216.203160 17.247437 0.000000
496.046840 223.148930 17.510431 0.000000
495.950040 220.659030 17.435143 0.000000
499.927190 220.106080 19.811411 0.000000
500.804990 224.488040 19.982281 0.000000
495.839720 225.900280 20.219845 0.000000
497.386080 222.027100 22.534023 0.000000
510.941590 235.860180 12.710446 0.000000
510.498050 233.415470 12.683863 0.000000
507.782710 233.376400 12.635313 0.000000
504.949920 233.362030 12.585630 0.000000
503.387730 232.034700 12.549681 0.000000
503.521700 229.129520 12.532995 0.000000
499.371460 227.410250 12.453673 0.000000
503.403080 226.546510 12.514879 0.000000
498.152040 223.157710 12.410547 0.000000
500.533780 221.202300 14.883408 0.000000
498.538210 220.275760 14.868996 0.000000
501.234990 225.705230 17.468498 0.000000
500.523320 223.704990 17.412922 0.000000
496.554230 221.768100 17.422127 0.000000
498.908200 217.500720 17.243654 0.000000
496.018070 224.778140 17.528711 0.000000
498.776090 222.522520 19.903587 0.000000
498.477420 225.356260 20.046673 0.000000
498.476440 235.438280 12.691575 0.000000
502.487430 234.457630 12.748314 0.000000
495.957030 231.985200 12.624224 0.000000
499.754150 231.360570 12.678850 0.000000
498.796260 216.619690 14.948729 0.000000
499.445680 213.800290 14.893070 0.000000
499.128050 226.404630 15.148499 0.000000
498.556490 224.264040 15.103627 0.000000
498.692630 221.597270 15.047966 0.000000
498.750820 214.262300 17.265398 0.000000
500.402160 225.256560 17.603806 0.000000
498.409330 224.337220 17.607374 0.000000
496.685420 223.160110 17.599213 0.000000
496.155910 221.032550 17.537903 0.000000
497.507140 222.454830 20.054495 0.000000
499.576480 225.915370 20.150978 0.000000
497.252350 225.248410 20.198883 0.000000
497.617550 222.319720 22.541727 0.000000
498.487370 215.890690 12.859990 0.000000
498.187100 223.502930 12.928650 0.000000
498.946990 215.504180 15.210756 0.000000
496.842100 214.706310 15.203983 0.000000
498.572940 225.721440 15.450750 0.000000
497.573240 223.960720 15.411287 0.000000
498.194460 220.916730 15.337099 0.000000
497.468840 219.019470 15.296397 0.000000
499.177280 217.652400 17.632504 0.000000
497.980500 216.181030 17.606373 0.000000
497.331150 226.734340 18.010635 0.000000
501.130100 226.055820 17.911499 0.000000
497.445370 224.014480 17.904152 0.000000
499.410920 224.891660 20.373852 0.000000
498.584290 223.017300 20.305756 0.000000
495.986690 222.585420 20.381069 0.000000
500.200680 218.163090 15.249193 0.000000
499.161010 216.604930 15.208937 0.000000
497.603240 215.438170 15.181370 0.000000
498.868350 226.850020 15.493179 0.000000
498.674040 224.401080 15.423200 0.000000
496.123600 223.971650 15.412476 0.000000
497.406980 215.527110 17.537958 0.000000
500.426420 225.392640 17.890659 0.000000
496.156740 221.335140 17.793297 0.000000
497.024080 225.678310 20.462551 0.000000
500.962460 224.845640 20.285137 0.000000
497.534060 222.669430 20.276119 0.000000
498.617800 216.241090 12.823934 0.000000
498.448430 223.724240 12.951016 0.000000
497.126770 214.965970 15.106314 0.000000
498.668370 226.038730 15.455317 0.000000
496.856810 225.005870 15.416142 0.000000
498.077700 221.430020 15.305774 0.000000
501.176760 223.724520 17.774261 0.000000
498.181090 221.264040 17.701220 0.000000
499.516480 217.748150 17.523363 0.000000
498.608090 216.102630 17.464851 0.000000
499.093290 213.434450 17.341782 0.000000
501.386630 226.116560 17.885469 0.000000
496.035370 225.624360 17.931286 0.000000
500.914950 223.871520 20.181170 0.000000
499.965420 219.709350 19.957808 0.000000
498.691250 223.264680 20.210222 0.000000
497.283200 221.844120 22.602718 0.000000
501.121580 224.633180 16.279198 0.000000
500.202790 220.443150 16.128710 0.000000
500.950070 217.419490 16.016344 0.000000
498.578030 224.364200 16.279093 0.000000
497.557860 220.151950 18.494202 0.000000
497.729130 217.604640 18.365147 0.000000
497.423610 215.500060 18.270596 0.000000
501.078490 227.199780 18.784063 0.000000
496.424070 223.603840 18.691433 0.000000
501.590270 224.042020 20.965902 0.000000
498.211360 221.996670 20.955616 0.000000
498.412200 215.870940 12.959948 0.000000
497.362370 218.989610 15.328532 0.000000
500.329280 216.452180 17.486000 0.000000
498.504060 215.623960 17.468866 0.000000
498.274570 225.591490 17.981236 0.000000
501.249730 225.409930 17.941223 0.000000
498.169040 220.643370 17.725290 0.000000
498.676880 225.120010 20.346180 0.000000
498.685520 222.571500 20.175039 0.000000
496.125150 222.291460 20.228874 0.000000
498.629490 224.297990 15.860502 0.000000
500.432500 220.187190 15.706087 0.000000
499.910580 218.252230 15.633493 0.000000
499.241030 216.478060 15.568211 0.000000
499.861300 218.210660 17.881386 0.000000
497.688750 215.355380 17.774593 0.000000
501.620880 226.534300 18.296837 0.000000
501.537020 224.036680 18.162386 0.000000
496.995060 223.142460 18.182663 0.000000
499.326480 226.038730 20.679331 0.000000
497.540990 222.569310 20.499281 0.000000
498.290830 223.509950 13.607977 0.000000
500.241700 216.862460 15.679111 0.000000
496.114840 222.863860 15.911476 0.000000
500.860840 221.061830 15.840572 0.000000
498.802090 215.772610 15.639818 0.000000
496.023740 215.730220 15.642952 0.000000
498.432310 215.997570 17.869139 0.000000
501.169100 225.704350 18.343201 0.000000
499.425380 224.810550 18.319872 0.000000
496.331050 225.123230 18.385303 0.000000
498.774870 225.333190 20.713814 0.000000
497.861270 223.629970 20.624800 0.000000
495.771420 222.987930 20.649385 0.000000
499.242190 216.525710 15.750460 0.000000
501.249630 224.345520 16.063850 0.000000
498.603880 224.356810 16.063946 0.000000
500.339170 220.260090 15.897320 0.000000
497.336730 215.832640 15.727194 0.000000
499.905610 218.186830 18.018248 0.000000
498.078460 215.140470 17.889229 0.000000
501.303470 224.198010 18.328680 0.000000
501.415220 223.993700 20.586468 0.000000
498.358800 221.894990 20.534887 0.000000
498.154600 224.594250 20.731512 0.000000
520.149900 214.627580 12.123181 0.000000
519.090760 213.640090 12.077208 0.000000
518.124020 212.553440 12.032916 0.000000
517.208190 211.420610 11.989654 0.000000
498.217830 223.434690 13.819974 0.000000
499.460940 217.464080 13.676090 0.000000
498.685760 215.842820 13.620654 0.000000
499.212100 215.307430 15.760575 0.000000
497.993560 214.090840 15.713208 0.000000
500.581730 221.093660 16.001635 0.000000
497.722900 221.321530 16.011946 0.000000
496.423920 220.063600 15.960291 0.000000
502.139950 224.439820 18.385962 0.000000
499.172210 217.542830 18.034578 0.000000
498.345280 215.961930 17.961315 0.000000
499.202390 224.822360 18.451447 0.000000
496.233250 222.591140 18.369574 0.000000
497.860170 223.481410 20.690134 0.000000
497.144470 221.662260 20.581701 0.000000
499.710690 226.805040 20.879198 0.000000
520.166560 217.937290 12.253836 0.000000
519.095890 216.909760 12.206249 0.000000
518.025150 215.888290 12.158745 0.000000
516.955320 214.870320 12.111316 0.000000
515.888430 213.851960 12.063972 0.000000
514.908020 212.743740 12.018117 0.000000
514.049800 211.517360 11.974483 0.000000
498.031920 217.804080 13.740746 0.000000
500.155090 220.502720 16.039158 0.000000
501.002110 217.355320 15.901955 0.000000
499.367160 216.532200 15.868390 0.000000
496.173580 214.729930 15.798450 0.000000
500.059570 213.689900 15.747040 0.000000
500.997380 224.633000 16.222233 0.000000
498.650820 224.431990 16.212072 0.000000
501.136840 224.389250 18.448170 0.000000
501.519010 221.516110 18.270010 0.000000
498.543980 217.170960 18.065502 0.000000
498.113680 215.265410 17.965277 0.000000
501.204100 226.906740 18.600342 0.000000
496.672640 223.708190 18.476048 0.000000
499.920680 225.521510 20.812611 0.000000
498.202450 224.669220 20.800493 0.000000
498.390750 221.982390 20.594543 0.000000
519.292240 220.211240 12.341970 0.000000
518.202880 219.156630 12.293012 0.000000
517.120000 218.102330 12.244257 0.000000
514.955200 216.011230 12.147032 0.000000
511.405150 211.090150 11.965909 0.000000
516.037170 217.054750 12.195601 0.000000
513.876710 214.967390 12.098565 0.000000
512.883180 213.835830 12.051445 0.000000
512.120060 212.476070 12.008123 0.000000
498.661250 223.549640 13.995258 0.000000
499.592620 217.833620 13.840202 0.000000
498.650760 216.382630 13.784081 0.000000
496.838840 215.599700 15.889724 0.000000
499.067410 223.049850 16.215260 0.000000
496.794370 220.306580 16.094584 0.000000
499.818730 217.443300 18.099777 0.000000
499.538240 225.006030 18.559040 0.000000
498.510890 216.327550 18.057831 0.000000
497.083530 215.302800 18.025288 0.000000
499.164520 228.008510 18.749840 0.000000
496.202790 225.761350 18.656492 0.000000
500.631500 223.792940 20.692732 0.000000
498.577940 223.329470 20.720760 0.000000
497.368350 222.012510 20.660196 0.000000
497.296450 221.981860 22.916149 0.000000
514.819460 214.899090 12.103841 0.000000
513.808040 213.820920 12.054555 0.000000
512.971620 212.563520 12.008152 0.000000
512.312190 211.142410 11.964935 0.000000
518.902650 219.257220 12.302898 0.000000
517.874270 218.160290 12.252775 0.000000
516.855470 217.063720 12.202969 0.000000
515.836910 215.977620 12.153329 0.000000
498.177610 215.809590 13.696564 0.000000
501.329770 224.645650 16.220898 0.000000
500.388120 220.644100 16.032780 0.000000
497.200500 218.902010 15.951478 0.000000
501.313480 217.396440 15.884873 0.000000
496.538670 214.895450 15.773853 0.000000
499.995940 214.108120 15.736869 0.000000
500.248930 216.015350 17.910818 0.000000
498.301760 215.513820 17.912968 0.000000
501.570400 224.283720 18.399719 0.000000
497.398350 221.009110 18.255806 0.000000
499.563290 226.283140 20.814075 0.000000
498.703460 224.593580 20.706043 0.000000
498.519230 222.271610 20.531910 0.000000
499.017850 223.347790 15.666132 0.000000
500.633210 216.979680 15.386891 0.000000
498.596010 216.599490 15.357149 0.000000
498.756320 214.217560 15.252690 0.000000
496.116910 214.304310 15.242704 0.000000
496.161130 223.694850 15.661212 0.000000
499.712430 217.745570 17.519314 0.000000
498.663730 216.432680 17.451111 0.000000
499.085140 213.826570 17.293232 0.000000
501.107240 226.135040 18.026974 0.000000
500.362640 224.358310 17.919945 0.000000
496.470490 223.273560 17.883089 0.000000
495.892360 226.403660 18.079906 0.000000
500.112920 219.589690 19.757576 0.000000
498.984190 225.684300 20.255535 0.000000
498.750980 223.381960 20.081318 0.000000
497.461640 222.069670 22.227470 0.000000
498.311190 215.917240 12.763184 0.000000
498.063900 223.138090 15.161556 0.000000
498.320220 220.436000 15.041990 0.000000
497.787170 218.582860 14.951868 0.000000
497.264190 214.518590 14.766238 0.000000
499.063390 227.219940 15.364679 0.000000
498.463230 225.255980 15.264593 0.000000
498.811400 217.492800 17.010155 0.000000
496.435790 215.139100 16.881329 0.000000
500.778410 225.211820 17.480682 0.000000
498.315430 225.276090 17.485983 0.000000
496.235690 224.864640 17.463366 0.000000
496.104980 222.484680 17.318514 0.000000
497.802920 216.038940 19.020233 0.000000
500.260800 220.650570 19.321978 0.000000
499.833530 226.101960 19.754536 0.000000
496.248230 222.216280 19.512510 0.000000
498.115690 220.263210 21.487875 0.000000
497.803340 225.541280 21.987381 0.000000
501.397400 224.266270 21.757324 0.000000
497.959660 222.852810 21.731373 0.000000
498.976260 223.485900 15.097176 0.000000
498.611210 221.395230 14.996841 0.000000
497.850650 219.753750 14.912674 0.000000
496.695220 216.220520 14.741845 0.000000
500.400210 214.998870 14.734501 0.000000
498.876590 226.149190 15.218374 0.000000
499.274930 220.594360 17.084503 0.000000
497.421330 217.709180 16.915447 0.000000
501.428530 225.782440 17.406013 0.000000
499.384770 225.457640 17.384377 0.000000
499.052190 223.274480 17.248964 0.000000
497.333070 215.409360 18.850613 0.000000
500.811340 226.338560 19.628990 0.000000
499.347470 225.361390 19.572216 0.000000
498.812070 223.395290 19.426777 0.000000
497.419040 222.351620 19.369030 0.000000
497.783940 221.853360 21.492397 0.000000
498.346310 215.865980 12.580515 0.000000
499.374820 226.814710 15.113917 0.000000
498.063050 223.118480 14.927769 0.000000
496.878230 217.147610 14.650616 0.000000
499.280550 216.994750 16.714025 0.000000
497.057190 216.863830 16.712078 0.000000
500.676390 225.208130 17.209278 0.000000
498.420010 225.135470 17.203159 0.000000
498.086820 218.048750 18.855633 0.000000
497.882170 215.969560 18.706398 0.000000
499.977940 225.859270 19.422060 0.000000
498.049100 225.405140 19.413548 0.000000
499.687900 226.048310 21.627689 0.000000
499.007810 225.716860 14.916787 0.000000
498.765780 223.432360 14.812432 0.000000
497.842220 219.535830 14.630322 0.000000
496.728880 216.024380 14.467058 0.000000
499.108090 222.931490 16.908974 0.000000
497.422580 222.260620 16.868984 0.000000
496.534520 220.746120 16.780741 0.000000
497.585390 217.351530 16.582388 0.000000
500.894170 216.204100 18.493769 0.000000
497.141360 217.672900 18.665733 0.000000
497.277950 215.285030 18.490519 0.000000
499.314420 225.104100 19.189928 0.000000
496.822420 225.289610 19.238443 0.000000
496.542180 223.060520 19.074196 0.000000
498.390010 223.456210 21.219017 0.000000
497.782530 221.633910 21.070175 0.000000
498.564480 225.813840 21.433140 0.000000
497.949430 215.784000 14.329461 0.000000
496.793210 214.687350 14.268395 0.000000
499.384460 226.342120 14.802116 0.000000
500.452120 220.117130 14.549416 0.000000
499.635380 225.912540 16.920835 0.000000
497.762450 222.926570 16.738728 0.000000
496.957400 221.331510 16.644691 0.000000
497.178650 218.723330 16.493784 0.000000
497.351720 216.260710 16.353144 0.000000
498.024960 215.490170 18.302284 0.000000
498.180880 217.590130 18.452042 0.000000
496.972200 226.220610 19.113859 0.000000
499.872620 225.500030 19.023743 0.000000
496.520140 224.151200 18.963158 0.000000
501.152250 223.874390 20.971500 0.000000
498.111050 224.805280 21.138657 0.000000
498.300540 222.088750 20.883377 0.000000
495.782040 231.824280 12.651156 0.000000
498.289670 223.525570 12.499815 0.000000
498.769470 215.776250 14.261313 0.000000
497.470580 214.861720 14.202234 0.000000
498.860840 225.287870 14.678047 0.000000
497.838930 223.901580 14.598188 0.000000
499.832150 219.118380 16.420284 0.000000
500.618800 215.980500 16.235472 0.000000
497.738950 214.486190 16.146631 0.000000
500.125490 226.257980 16.856295 0.000000
497.704440 223.918950 16.703192 0.000000
500.474790 216.014920 18.178967 0.000000
498.314970 216.007320 18.208912 0.000000
500.253570 225.960080 18.947113 0.000000
496.410250 225.242000 18.930264 0.000000
501.663700 224.116270 20.852644 0.000000
498.392850 222.875520 20.815090 0.000000
497.216430 221.709790 20.738201 0.000000
499.070010 224.627530 20.962828 0.000000
498.694760 216.487850 14.193047 0.000000
497.880980 215.100160 14.106347 0.000000
497.322270 213.482410 14.015507 0.000000
499.177950 225.655730 14.664845 0.000000
498.808930 223.521730 14.546824 0.000000
496.497160 223.654130 14.495869 0.000000
498.867160 218.448140 16.272795 0.000000
497.343870 217.763550 16.214499 0.000000
495.890470 214.751130 16.010014 0.000000
496.182890 223.845280 16.603701 0.000000
499.105900 223.010570 16.578802 0.000000
499.559200 217.547320 18.177765 0.000000
498.480290 216.425840 18.092987 0.000000
497.296910 215.413470 18.020100 0.000000
498.403500 226.246460 18.908344 0.000000
497.245700 225.012630 18.807171 0.000000
498.555360 223.322720 20.734364 0.000000
497.432400 222.116760 20.634125 0.000000
498.808040 225.585910 20.959396 0.000000
497.374450 222.020950 22.702162 0.000000
503.391170 221.130520 12.360036 0.000000
499.962890 220.397030 12.185804 0.000000
503.481900 218.596220 12.276731 0.000000
502.063660 215.652220 12.115180 0.000000
503.436580 211.957060 12.049393 0.000000
503.387570 232.014100 12.741111 0.000000
500.015230 230.875430 12.550262 0.000000
503.426450 229.042270 12.637790 0.000000
