# .PCD v0.7 - Point Cloud Data file format
VERSION 0.7
FIELDS x y z intensity
SIZE 4 4 4 4
TYPE F F F F
COUNT 1 1 1 1
WIDTH 1195
HEIGHT 1
VIEWPOINT 0 0 0 1 0 0 0
POINTS 1195
DATA ascii
503.203640 -17.584892 1.915297 0.000000
503.231080 -17.978554 1.905813 0.000000
497.689390 -23.367479 1.785125 0.000000
497.478150 -23.788937 1.783285 0.000000
503.275240 -18.373301 1.894352 0.000000
497.307280 -24.221989 1.775405 0.000000
503.298550 -18.769171 1.883950 0.000000
497.000030 -24.933542 1.762252 0.000000
496.675720 -25.297211 1.769614 0.000000
496.416200 -25.683186 1.768308 0.000000
496.341130 -25.987576 1.754471 0.000000
496.063290 -26.188457 1.765688 0.000000
495.889310 -26.440023 1.763357 0.000000
503.289460 -19.362808 1.870711 0.000000
503.211360 -19.952206 1.861942 0.000000
503.145810 -20.342854 1.856440 0.000000
502.957000 -21.113806 1.848572 0.000000
502.989380 -21.516354 1.833036 0.000000
502.851260 -21.893082 1.831374 0.000000
502.546570 -22.235785 1.843559 0.000000
502.603880 -22.644997 1.824010 0.000000
502.591160 -23.043432 1.809808 0.000000
502.231600 -23.360077 1.825520 0.000000
502.275450 -23.772604 1.805116 0.000000
501.810330 -24.047518 1.829615 0.000000
501.828800 -24.453808 1.810274 0.000000
501.547420 -25.173843 1.798557 0.000000
501.278440 -25.486866 1.803849 0.000000
500.945890 -25.770376 1.814828 0.000000
500.978700 -26.191273 1.790765 0.000000
500.819700 -26.539043 1.784259 0.000000
500.334690 -27.156645 1.786059 0.000000
500.052060 -27.440769 1.790398 0.000000
499.625000 -27.647114 1.809087 0.000000
499.196230 -28.258389 1.802592 0.000000
498.906010 -28.518215 1.806647 0.000000
496.858220 -30.637390 1.797752 0.000000
496.532170 -30.835056 1.803439 0.000000
495.820560 -31.630005 1.785760 0.000000
500.798070 -26.946598 1.763789 0.000000
499.605260 -28.055845 1.786100 0.000000
498.590640 -29.186619 1.785280 0.000000
498.291780 -29.432665 1.789128 0.000000
497.844180 -29.792723 1.794340 0.000000
497.480650 -30.202824 1.789460 0.000000
497.149810 -30.408106 1.795991 0.000000
496.142300 -31.438114 1.781535 0.000000
510.866460 -19.534519 1.918297 0.000000
510.671420 -20.050993 1.917749 0.000000
509.820980 -21.021275 1.943467 0.000000
510.473510 -20.561619 1.916908 0.000000
509.637240 -21.514944 1.941045 0.000000
509.049740 -21.949533 1.963292 0.000000
509.081480 -22.460585 1.946626 0.000000
509.136570 -22.979486 1.927793 0.000000
508.682500 -23.407089 1.940746 0.000000
508.214970 -23.818865 1.954411 0.000000
508.262300 -24.333427 1.934452 0.000000
507.889500 -24.751200 1.941338 0.000000
508.230070 -25.864054 1.881605 0.000000
508.281650 -26.401918 1.858294 0.000000
496.013120 -36.251793 1.917176 0.000000
510.526760 -17.810741 1.849891 0.000000
510.431030 -18.350527 1.845698 0.000000
496.524540 -14.439081 1.972322 0.000000
496.589290 -14.735714 1.967897 0.000000
496.541600 -15.058621 1.974497 0.000000
496.705570 -15.330963 1.958671 0.000000
496.795650 -15.776188 1.949860 0.000000
496.881130 -16.222401 1.940369 0.000000
496.950470 -16.671522 1.931090 0.000000
497.022400 -17.273180 1.918914 0.000000
497.063170 -17.725853 1.909696 0.000000
501.255400 -14.148781 1.974198 0.000000
497.087740 -18.027948 1.903052 0.000000
497.108220 -18.330473 1.896247 0.000000
497.079440 -18.936993 1.888200 0.000000
501.379940 -15.104174 1.961104 0.000000
497.181520 -19.240669 1.871057 0.000000
497.082950 -19.542215 1.874476 0.000000
501.440550 -15.482954 1.953944 0.000000
501.342590 -15.884851 1.959043 0.000000
497.083100 -19.845234 1.866904 0.000000
497.077940 -20.148430 1.859301 0.000000
497.058690 -20.603230 1.847952 0.000000
501.673950 -16.226257 1.928766 0.000000
501.590670 -16.623503 1.931528 0.000000
497.017520 -21.209583 1.832506 0.000000
501.628540 -17.005093 1.923873 0.000000
496.962250 -21.816132 1.816200 0.000000
501.643070 -17.388531 1.917540 0.000000
501.687810 -17.769722 1.908151 0.000000
496.907620 -22.270388 1.803910 0.000000
496.786040 -22.711550 1.797611 0.000000
501.742830 -18.151308 1.897315 0.000000
496.730560 -23.168230 1.782682 0.000000
496.548520 -23.592644 1.780709 0.000000
501.792540 -18.534418 1.886309 0.000000
496.452940 -24.040445 1.767664 0.000000
501.822750 -18.919052 1.876308 0.000000
501.869320 -19.304880 1.864333 0.000000
496.245730 -24.613222 1.757415 0.000000
496.093080 -24.881636 1.757295 0.000000
495.904420 -25.134521 1.761042 0.000000
501.925140 -19.692774 1.850958 0.000000
501.915950 -20.079994 1.842401 0.000000
501.857390 -20.464334 1.837428 0.000000
501.774870 -20.845570 1.833931 0.000000
501.686400 -21.224413 1.830401 0.000000
508.667540 -14.311605 2.012275 0.000000
508.521390 -14.849550 2.015374 0.000000
501.731750 -21.617184 1.814814 0.000000
501.330440 -21.952887 1.837249 0.000000
501.385410 -22.345858 1.819694 0.000000
501.250700 -22.710478 1.818083 0.000000
509.184750 -15.276256 1.970190 0.000000
500.860470 -23.407391 1.824165 0.000000
500.842440 -23.789143 1.810664 0.000000
509.163090 -15.799567 1.964752 0.000000
500.630000 -24.125933 1.814122 0.000000
500.518620 -24.484652 1.807953 0.000000
500.291840 -24.810383 1.811882 0.000000
500.277890 -25.195156 1.795632 0.000000
500.150630 -25.547380 1.789300 0.000000
509.922150 -16.247931 1.912294 0.000000
500.137020 -25.937515 1.771633 0.000000
499.877110 -26.243715 1.776810 0.000000
499.470280 -26.489182 1.795925 0.000000
499.395260 -26.855556 1.782533 0.000000
499.133640 -27.146431 1.786931 0.000000
498.605900 -27.711514 1.795309 0.000000
498.344300 -27.987940 1.798844 0.000000
509.899350 -16.779888 1.905608 0.000000
499.042690 -27.507248 1.773932 0.000000
498.035860 -28.640104 1.782442 0.000000
497.716710 -28.876720 1.790958 0.000000
497.500180 -29.165211 1.788247 0.000000
497.176570 -29.388271 1.796851 0.000000
496.604000 -30.282772 1.776472 0.000000
496.351650 -30.538599 1.775736 0.000000
496.061770 -30.764816 1.779084 0.000000
509.864650 -17.310337 1.899063 0.000000
497.206360 -29.822758 1.766056 0.000000
510.014470 -18.888172 1.860546 0.000000
509.693540 -19.412390 1.869215 0.000000
509.546390 -19.930847 1.866783 0.000000
508.887760 -20.420488 1.895674 0.000000
508.698330 -20.918367 1.895124 0.000000
507.886540 -21.854719 1.920206 0.000000
508.506260 -21.410591 1.894299 0.000000
507.732270 -22.333542 1.916294 0.000000
507.359470 -23.271376 1.911249 0.000000
507.405910 -23.773985 1.892793 0.000000
507.137180 -24.221622 1.894497 0.000000
506.971440 -24.684183 1.888974 0.000000
507.345000 -25.265949 1.846601 0.000000
500.032530 -33.098942 1.889243 0.000000
507.457820 -25.801811 1.820800 0.000000
507.356350 -26.807583 1.789266 0.000000
506.730220 -27.142376 1.812875 0.000000
506.266240 -28.023651 1.804023 0.000000
505.674260 -28.330814 1.825089 0.000000
507.883450 -26.428308 1.772606 0.000000
496.414250 -35.552898 1.902518 0.000000
496.039150 -35.755348 1.904576 0.000000
497.922060 -34.689198 1.892795 0.000000
497.544040 -34.913490 1.895443 0.000000
497.167210 -35.132580 1.897894 0.000000
496.790620 -35.345711 1.900251 0.000000
495.756990 -17.938601 1.912082 0.000000
499.926420 -14.195419 1.960946 0.000000
495.832670 -18.529171 1.897422 0.000000
500.029660 -14.562832 1.952545 0.000000
495.876830 -18.973911 1.886316 0.000000
500.186340 -15.309753 1.938063 0.000000
495.898960 -19.271248 1.878921 0.000000
495.918210 -19.569014 1.871251 0.000000
500.065580 -15.722725 1.946255 0.000000
495.918550 -19.867311 1.865022 0.000000
495.936160 -20.165785 1.856373 0.000000
500.301120 -16.256990 1.923267 0.000000
495.935460 -20.464476 1.849101 0.000000
495.930540 -20.763268 1.841703 0.000000
500.324250 -16.829948 1.916540 0.000000
495.921600 -21.062115 1.834164 0.000000
495.911740 -21.361267 1.826140 0.000000
500.424990 -17.199137 1.904265 0.000000
495.887570 -21.810064 1.813955 0.000000
500.566590 -17.565683 1.888007 0.000000
495.838040 -22.408056 1.797647 0.000000
500.604950 -18.136766 1.876826 0.000000
495.765380 -23.004494 1.781544 0.000000
500.629030 -18.708277 1.865678 0.000000
500.637120 -19.279778 1.854422 0.000000
506.563540 -13.933609 2.038804 0.000000
500.620730 -19.850992 1.844084 0.000000
500.607120 -20.421169 1.832081 0.000000
507.032900 -14.344995 2.006411 0.000000
500.525270 -20.988213 1.824764 0.000000
500.446780 -21.362991 1.821219 0.000000
507.479980 -14.773898 1.974647 0.000000
500.328340 -21.732635 1.820616 0.000000
500.166780 -22.094898 1.823288 0.000000
507.248540 -15.326391 1.982821 0.000000
506.991580 -15.871394 1.992084 0.000000
500.156190 -22.470514 1.812269 0.000000
499.822600 -23.177757 1.816194 0.000000
499.736760 -23.539196 1.810258 0.000000
499.486970 -23.868834 1.818601 0.000000
507.366270 -16.324152 1.962798 0.000000
507.057130 -16.863071 1.974239 0.000000
499.547300 -24.256123 1.798391 0.000000
499.547940 -24.634901 1.782900 0.000000
499.336670 -24.965069 1.786338 0.000000
499.224850 -25.316750 1.780120 0.000000
498.999850 -25.635935 1.784038 0.000000
507.833190 -17.289089 1.919217 0.000000
498.971710 -26.009449 1.768885 0.000000
498.730220 -26.317846 1.773523 0.000000
498.602480 -26.659727 1.766814 0.000000
498.240690 -26.917419 1.782509 0.000000
497.766420 -27.503643 1.788770 0.000000
507.494200 -17.824039 1.931434 0.000000
507.131810 -18.347145 1.944741 0.000000
497.578550 -27.810921 1.786443 0.000000
497.538790 -28.181137 1.768517 0.000000
497.193910 -28.415340 1.781425 0.000000
496.995150 -28.711548 1.778951 0.000000
496.673100 -28.943764 1.789158 0.000000
496.692080 -29.347832 1.762569 0.000000
496.380890 -29.579273 1.770938 0.000000
496.168700 -29.860701 1.768247 0.000000
495.853550 -30.079187 1.776679 0.000000
508.000670 -18.807728 1.881599 0.000000
507.704070 -19.323870 1.889773 0.000000
507.472960 -19.828970 1.893496 0.000000
507.637760 -20.330954 1.871898 0.000000
507.788480 -20.838495 1.850482 0.000000
506.943700 -21.304449 1.891856 0.000000
506.962650 -21.797937 1.877898 0.000000
506.769740 -22.275696 1.877043 0.000000
506.242920 -22.714628 1.897555 0.000000
506.347050 -23.211102 1.876522 0.000000
506.156520 -23.673302 1.874295 0.000000
506.316250 -24.184795 1.848245 0.000000
506.661960 -24.736509 1.808829 0.000000
506.729710 -25.250996 1.787249 0.000000
506.034820 -25.613028 1.817269 0.000000
505.497410 -26.480186 1.818317 0.000000
506.107390 -26.126637 1.794300 0.000000
505.115600 -27.368263 1.806913 0.000000
504.535980 -27.691925 1.828610 0.000000
503.690770 -28.881855 1.827995 0.000000
501.285250 -31.276308 1.851050 0.000000
500.914490 -31.577511 1.855869 0.000000
499.993620 -32.550327 1.853156 0.000000
499.623870 -32.827339 1.857248 0.000000
505.645970 -27.014742 1.788829 0.000000
504.620150 -28.210796 1.801993 0.000000
504.239230 -28.580839 1.808811 0.000000
503.733060 -29.390898 1.802679 0.000000
503.242400 -29.695894 1.817235 0.000000
502.688690 -29.961491 1.836755 0.000000
502.256500 -30.756916 1.822804 0.000000
501.764860 -31.020010 1.837348 0.000000
500.908290 -32.071007 1.829950 0.000000
500.475340 -32.330212 1.839414 0.000000
502.755430 -30.484209 1.807808 0.000000
519.759030 -14.035679 2.128954 0.000000
518.841310 -14.879692 2.152303 0.000000
496.695280 -34.821953 1.884162 0.000000
496.332120 -35.044922 1.886894 0.000000
495.969420 -35.262222 1.889509 0.000000
498.762730 -33.279255 1.876200 0.000000
497.530730 -34.442062 1.867873 0.000000
497.140620 -34.658783 1.873227 0.000000
499.170590 -33.043716 1.868704 0.000000
498.344120 -34.009521 1.854052 0.000000
497.925960 -34.221527 1.862030 0.000000
498.152220 -14.193323 1.971840 0.000000
498.488860 -14.478786 1.944928 0.000000
498.341950 -14.914266 1.957741 0.000000
498.674530 -15.209044 1.930035 0.000000
498.548950 -15.629398 1.939926 0.000000
498.816190 -16.333126 1.914807 0.000000
498.677610 -16.742294 1.924128 0.000000
498.941100 -17.070684 1.899275 0.000000
498.991820 -17.441044 1.891637 0.000000
498.850680 -17.839083 1.899563 0.000000
499.227810 -18.163727 1.863327 0.000000
499.098820 -18.556019 1.869136 0.000000
499.127040 -19.114590 1.858051 0.000000
504.890720 -14.026805 2.023076 0.000000
499.139770 -19.673243 1.847166 0.000000
499.130710 -20.231400 1.836752 0.000000
505.260590 -14.439337 1.996494 0.000000
499.055820 -20.788786 1.830922 0.000000
498.997040 -21.157890 1.827106 0.000000
498.913910 -21.524399 1.824900 0.000000
505.500850 -15.392645 1.971957 0.000000
498.859010 -21.889732 1.819719 0.000000
498.803890 -22.253716 1.814034 0.000000
505.916080 -15.816978 1.940709 0.000000
498.742710 -22.616138 1.808358 0.000000
498.675570 -22.976852 1.802694 0.000000
505.707860 -16.354912 1.947183 0.000000
505.486020 -16.884552 1.954070 0.000000
498.387730 -23.674566 1.803705 0.000000
498.443660 -24.048805 1.785318 0.000000
498.355740 -24.402433 1.779458 0.000000
498.111240 -24.725555 1.787589 0.000000
505.772980 -17.338808 1.928925 0.000000
505.577120 -17.854162 1.933244 0.000000
498.163760 -25.103741 1.767684 0.000000
497.876190 -25.778513 1.762913 0.000000
497.652650 -26.091660 1.767489 0.000000
497.318080 -26.368668 1.782486 0.000000
497.200900 -26.701878 1.776148 0.000000
497.028560 -27.016882 1.774738 0.000000
505.866610 -18.315895 1.906697 0.000000
505.667820 -18.822784 1.910232 0.000000
496.959410 -27.364302 1.762645 0.000000
496.685940 -27.640305 1.770476 0.000000
496.329500 -28.249813 1.765948 0.000000
496.146300 -28.549404 1.763576 0.000000
505.458400 -19.322031 1.914035 0.000000
496.103120 -28.908386 1.746074 0.000000
505.752350 -19.792950 1.885358 0.000000
505.502930 -20.285637 1.890772 0.000000
505.423920 -20.768404 1.884841 0.000000
505.360140 -21.248537 1.877433 0.000000
505.463590 -21.731686 1.858590 0.000000
505.129000 -22.198174 1.867938 0.000000
505.334230 -22.688820 1.841221 0.000000
505.517640 -23.185986 1.815179 0.000000
505.327360 -23.653570 1.813530 0.000000
505.339200 -24.139982 1.797754 0.000000
504.683470 -24.538353 1.827065 0.000000
516.284360 -13.956982 2.157852 0.000000
504.773990 -25.030123 1.804974 0.000000
504.381010 -25.922789 1.798919 0.000000
503.789980 -26.281298 1.823303 0.000000
504.839780 -25.523447 1.783867 0.000000
503.817600 -26.761326 1.803484 0.000000
503.417050 -27.141611 1.813948 0.000000
516.729550 -14.574604 2.129016 0.000000
503.592900 -27.662514 1.782159 0.000000
503.236480 -28.044626 1.788727 0.000000
502.616270 -28.338795 1.814833 0.000000
502.542110 -28.788765 1.799978 0.000000
502.093600 -29.114338 1.813093 0.000000
501.577000 -29.403660 1.831489 0.000000
501.145510 -30.178478 1.821164 0.000000
500.623600 -30.434349 1.839943 0.000000
499.951290 -31.544598 1.823276 0.000000
501.607570 -29.885441 1.807260 0.000000
500.716580 -30.945778 1.809043 0.000000
500.354310 -31.258820 1.814516 0.000000
517.199710 -15.200598 2.098461 0.000000
516.453120 -15.994608 2.115952 0.000000
516.977660 -16.619888 2.082061 0.000000
516.569270 -17.346809 2.085385 0.000000
516.450440 -18.035645 2.076610 0.000000
515.805480 -18.748465 2.089276 0.000000
497.007630 -33.684891 1.867986 0.000000
496.204860 -34.590248 1.854487 0.000000
495.828220 -34.804291 1.860229 0.000000
499.596410 -31.845249 1.827971 0.000000
498.637660 -32.765167 1.832102 0.000000
498.179930 -32.979134 1.845469 0.000000
497.827030 -33.246250 1.849507 0.000000
497.475770 -33.507797 1.853309 0.000000
496.603000 -34.384193 1.846675 0.000000
499.049500 -32.514450 1.822896 0.000000
496.725650 -14.521023 1.971805 0.000000
496.948430 -14.831604 1.954608 0.000000
496.791500 -15.272074 1.968932 0.000000
497.101960 -15.556031 1.943215 0.000000
496.953770 -15.982239 1.955670 0.000000
497.169130 -16.299179 1.936870 0.000000
497.135770 -16.684225 1.938529 0.000000
497.374480 -17.373991 1.914360 0.000000
497.234590 -17.773132 1.923435 0.000000
497.479680 -18.094286 1.899283 0.000000
497.527470 -18.454443 1.891331 0.000000
497.397490 -18.840324 1.898014 0.000000
497.565580 -19.545200 1.873205 0.000000
503.520420 -14.071043 2.007217 0.000000
497.578670 -19.906544 1.866058 0.000000
497.605710 -20.266117 1.857165 0.000000
503.787960 -14.497473 1.986918 0.000000
497.626800 -20.626038 1.848237 0.000000
503.517360 -15.066541 1.999333 0.000000
497.649350 -21.166323 1.834536 0.000000
503.877780 -15.471749 1.972164 0.000000
497.657500 -21.706947 1.820998 0.000000
503.673740 -16.009460 1.979501 0.000000
497.655700 -22.247581 1.806959 0.000000
504.089200 -16.411964 1.947703 0.000000
497.586360 -22.785809 1.797846 0.000000
497.527010 -23.142399 1.792259 0.000000
497.426670 -23.673780 1.783890 0.000000
504.475010 -16.831503 1.917068 0.000000
504.263550 -17.359907 1.923347 0.000000
497.431300 -24.214998 1.764868 0.000000
497.102780 -24.533180 1.782047 0.000000
504.039950 -17.879723 1.930000 0.000000
497.083590 -25.067572 1.763181 0.000000
496.600280 -25.874496 1.771863 0.000000
504.381620 -18.316448 1.900343 0.000000
496.447630 -26.198307 1.770801 0.000000
496.298890 -26.520279 1.768955 0.000000
496.146550 -26.838846 1.767043 0.000000
504.187040 -18.822584 1.904217 0.000000
495.910610 -27.309771 1.764089 0.000000
504.455020 -19.276852 1.878005 0.000000
504.254150 -19.774494 1.881356 0.000000
504.043090 -20.264423 1.884994 0.000000
504.315000 -20.726374 1.856726 0.000000
504.075530 -21.209024 1.861318 0.000000
504.136990 -21.681215 1.845674 0.000000
504.206360 -22.155575 1.828910 0.000000
503.682010 -23.081532 1.838321 0.000000
504.409850 -22.636469 1.802536 0.000000
503.718930 -23.550966 1.822224 0.000000
503.738430 -24.021351 1.806718 0.000000
503.251040 -24.443415 1.825664 0.000000
502.652160 -25.291700 1.837045 0.000000
503.258730 -24.907843 1.810059 0.000000
502.726290 -25.759983 1.815896 0.000000
502.838470 -26.239838 1.791323 0.000000
502.465270 -26.635075 1.801041 0.000000
502.076290 -27.016586 1.811784 0.000000
514.922730 -14.263984 2.116516 0.000000
514.596250 -15.008919 2.117941 0.000000
502.125670 -27.485788 1.790150 0.000000
501.600980 -27.820812 1.810494 0.000000
501.141820 -28.609924 1.806758 0.000000
500.559780 -28.892570 1.831474 0.000000
500.481480 -29.318237 1.817357 0.000000
500.151090 -29.660765 1.822451 0.000000
501.602360 -28.278032 1.791426 0.000000
514.981020 -15.621396 2.090104 0.000000
515.572880 -16.213614 2.053050 0.000000
515.399110 -16.921434 2.046917 0.000000
514.797850 -18.333494 2.044372 0.000000
515.572570 -17.581757 2.025917 0.000000
514.670170 -19.007215 2.035374 0.000000
514.040410 -19.703640 2.047609 0.000000
513.968380 -20.354378 2.035666 0.000000
499.658360 -29.937706 1.840309 0.000000
496.462920 -33.383820 1.848781 0.000000
496.127350 -33.641220 1.852553 0.000000
495.793060 -33.893223 1.856127 0.000000
499.740080 -30.417583 1.812151 0.000000
499.406010 -30.741499 1.816897 0.000000
499.023470 -31.037952 1.825515 0.000000
498.493440 -31.711628 1.822837 0.000000
498.151790 -32.005699 1.827666 0.000000
497.812900 -32.294128 1.832163 0.000000
497.288510 -32.934479 1.827181 0.000000
496.897520 -33.176540 1.835944 0.000000
499.020140 -31.491547 1.802463 0.000000
495.836940 -17.303007 1.929411 0.000000
495.805360 -17.678764 1.930276 0.000000
496.076350 -17.977936 1.904559 0.000000
496.034760 -18.352859 1.905227 0.000000
496.175020 -19.229191 1.883431 0.000000
496.095730 -19.778559 1.883083 0.000000
502.122010 -14.102762 1.992566 0.000000
501.924770 -14.664519 2.001293 0.000000
496.403900 -20.093067 1.850643 0.000000
496.309840 -20.462137 1.852792 0.000000
502.283140 -15.050071 1.974576 0.000000
496.334930 -20.815222 1.843991 0.000000
496.358000 -21.168165 1.834834 0.000000
496.378390 -21.521137 1.825379 0.000000
502.492340 -15.485167 1.956664 0.000000
502.215910 -16.047874 1.968958 0.000000
496.393250 -21.874344 1.815876 0.000000
502.478490 -16.467793 1.946594 0.000000
496.403500 -22.227678 1.806245 0.000000
496.397220 -22.581190 1.797561 0.000000
502.264950 -16.997873 1.954019 0.000000
496.404360 -22.934553 1.787129 0.000000
502.659150 -17.394175 1.922106 0.000000
496.381710 -23.287491 1.778860 0.000000
496.323030 -23.638355 1.773364 0.000000
496.259740 -23.987444 1.767803 0.000000
496.190980 -24.334682 1.762256 0.000000
496.097600 -24.678095 1.758522 0.000000
503.031830 -17.805370 1.890881 0.000000
502.812100 -18.324795 1.897252 0.000000
496.032500 -25.022688 1.751666 0.000000
502.600040 -18.832481 1.902765 0.000000
502.951970 -19.257118 1.871097 0.000000
502.806370 -19.747751 1.871350 0.000000
503.052370 -20.194534 1.845357 0.000000
502.935120 -20.676273 1.842793 0.000000
502.645940 -21.162804 1.851299 0.000000
502.919770 -21.614845 1.821684 0.000000
502.610020 -22.089893 1.830805 0.000000
502.484280 -22.552519 1.827151 0.000000
502.374940 -23.010834 1.821963 0.000000
501.824430 -23.901690 1.833434 0.000000
502.442750 -23.470509 1.804115 0.000000
501.755520 -24.346691 1.824319 0.000000
501.777040 -24.797581 1.808342 0.000000
501.374270 -25.208794 1.822045 0.000000
513.155760 -13.951538 2.099342 0.000000
501.413820 -25.658632 1.803855 0.000000
501.057740 -26.058807 1.813750 0.000000
513.455630 -14.564960 2.074899 0.000000
501.168210 -26.519123 1.789362 0.000000
500.666410 -27.323545 1.792262 0.000000
500.103850 -27.652376 1.816806 0.000000
500.043400 -28.076246 1.803361 0.000000
501.225920 -26.976788 1.768135 0.000000
513.831180 -15.168985 2.046680 0.000000
513.500730 -15.910742 2.047528 0.000000
513.858340 -16.523075 2.018953 0.000000
514.416630 -17.114910 1.981086 0.000000
513.864930 -17.866276 1.990354 0.000000
513.798710 -18.541084 1.978429 0.000000
513.044010 -19.275433 1.996426 0.000000
512.907100 -19.934109 1.987138 0.000000
499.548370 -28.396061 1.822780 0.000000
499.539250 -28.827990 1.804604 0.000000
499.172640 -29.163616 1.813852 0.000000
498.749020 -29.472696 1.827573 0.000000
498.738040 -29.901169 1.808245 0.000000
498.084230 -30.546513 1.819415 0.000000
497.232910 -31.512634 1.824439 0.000000
498.516240 -30.263069 1.805346 0.000000
498.017730 -30.955891 1.803203 0.000000
497.690060 -31.264843 1.808349 0.000000
497.213100 -31.939274 1.802971 0.000000
496.715300 -32.152702 1.822540 0.000000
496.389070 -32.434372 1.827215 0.000000
496.067110 -32.711479 1.831431 0.000000
512.199650 -20.619694 2.003123 0.000000
511.984100 -21.259050 1.996981 0.000000
511.266540 -21.901802 2.013558 0.000000
511.298800 -22.514429 1.995666 0.000000
510.736080 -23.121325 2.005078 0.000000
510.760990 -23.725760 1.986825 0.000000
500.039790 -13.934205 1.987243 0.000000
500.314850 -14.328280 1.964571 0.000000
500.538300 -14.744974 1.944684 0.000000
500.167850 -15.361514 1.963095 0.000000
500.371220 -15.778662 1.943532 0.000000
500.501740 -16.219763 1.928211 0.000000
500.362610 -16.735027 1.930227 0.000000
500.654510 -17.130135 1.903191 0.000000
500.848850 -17.555084 1.882045 0.000000
500.499420 -18.102528 1.896853 0.000000
500.709930 -18.521088 1.873623 0.000000
500.425080 -19.034706 1.883438 0.000000
500.691470 -19.444187 1.855359 0.000000
500.933290 -19.864225 1.828292 0.000000
500.643130 -20.359383 1.837353 0.000000
500.320860 -20.845804 1.848438 0.000000
500.461430 -21.275597 1.826925 0.000000
500.085820 -21.748379 1.841228 0.000000
500.236480 -22.175804 1.818038 0.000000
499.683040 -23.064583 1.831399 0.000000
499.888790 -23.490688 1.802747 0.000000
499.630220 -23.918802 1.807387 0.000000
511.406590 -14.404158 2.005403 0.000000
511.682340 -15.008727 1.978087 0.000000
511.237150 -15.775450 1.982468 0.000000
511.555910 -16.367865 1.952298 0.000000
511.712010 -16.996895 1.928897 0.000000
512.078800 -17.592762 1.895242 0.000000
499.517520 -24.342236 1.801063 0.000000
499.418330 -24.762777 1.793364 0.000000
499.460420 -25.189520 1.774672 0.000000
499.059660 -25.582836 1.788958 0.000000
499.030240 -25.999878 1.774867 0.000000
498.873840 -26.402597 1.770079 0.000000
498.300750 -26.745680 1.797429 0.000000
498.155000 -27.135181 1.791470 0.000000
497.706360 -27.470291 1.809234 0.000000
497.699190 -27.874548 1.791724 0.000000
497.299870 -28.604328 1.786522 0.000000
496.913240 -28.917608 1.799014 0.000000
497.678770 -28.278488 1.774720 0.000000
496.889310 -29.314684 1.781227 0.000000
496.546450 -29.625336 1.789850 0.000000
496.469210 -30.006361 1.775739 0.000000
496.252810 -30.344481 1.773170 0.000000
495.776980 -30.591309 1.793103 0.000000
511.436460 -18.345764 1.907889 0.000000
511.313260 -19.005810 1.896295 0.000000
509.992460 -20.404894 1.923909 0.000000
511.055850 -19.673512 1.890801 0.000000
509.757110 -21.034151 1.917448 0.000000
508.818120 -21.694527 1.945385 0.000000
508.607910 -22.291170 1.937713 0.000000
508.048830 -22.887772 1.947368 0.000000
508.046330 -23.461172 1.928961 0.000000
507.510710 -24.028177 1.937502 0.000000
507.650120 -24.596378 1.911160 0.000000
507.998260 -25.753979 1.852916 0.000000
508.108980 -26.338535 1.826158 0.000000
499.316620 -14.228999 1.937791 0.000000
498.714420 -14.968850 1.969566 0.000000
498.890780 -15.393560 1.950252 0.000000
499.072300 -15.817248 1.930062 0.000000
499.243990 -16.245373 1.909971 0.000000
499.424100 -16.672033 1.888771 0.000000
498.844850 -17.319202 1.917867 0.000000
499.055210 -17.727167 1.893800 0.000000
499.198150 -18.155539 1.873711 0.000000
498.664610 -18.742283 1.899231 0.000000
498.842770 -19.153503 1.875928 0.000000
499.020600 -19.567951 1.852062 0.000000
498.489010 -20.111858 1.876999 0.000000
498.627440 -20.526873 1.855051 0.000000
498.771450 -20.943645 1.832137 0.000000
498.401790 -21.427164 1.845211 0.000000
498.516330 -21.844181 1.823510 0.000000
509.806640 -15.529038 1.959245 0.000000
510.183140 -16.100277 1.923185 0.000000
510.613530 -16.668552 1.883890 0.000000
498.194700 -22.302441 1.832786 0.000000
508.930300 -14.446293 2.034671 0.000000
498.319950 -22.716219 1.809416 0.000000
498.424290 -23.134485 1.786979 0.000000
509.353520 -14.986561 1.998010 0.000000
498.104310 -23.571028 1.795417 0.000000
497.784450 -23.995893 1.803797 0.000000
497.873110 -24.408766 1.781301 0.000000
497.619810 -24.819237 1.784253 0.000000
497.744750 -25.233797 1.758005 0.000000
497.352450 -25.626869 1.771216 0.000000
496.914370 -26.003799 1.788099 0.000000
496.943940 -26.406601 1.768150 0.000000
496.615360 -26.774542 1.776262 0.000000
496.410950 -27.147413 1.774359 0.000000
509.571900 -17.534458 1.912750 0.000000
496.181670 -27.707754 1.764755 0.000000
509.898560 -18.116344 1.877538 0.000000
509.932920 -18.752470 1.855621 0.000000
509.532500 -19.447659 1.854406 0.000000
508.285550 -20.229872 1.894881 0.000000
508.095180 -20.853745 1.883911 0.000000
507.647580 -21.491341 1.885740 0.000000
507.314330 -22.103365 1.881905 0.000000
506.440580 -22.730915 1.905989 0.000000
506.468080 -23.294899 1.883705 0.000000
506.637880 -23.856598 1.853451 0.000000
506.496730 -24.424068 1.839210 0.000000
506.801330 -24.994154 1.800542 0.000000
506.037050 -25.538540 1.819747 0.000000
505.074620 -26.588751 1.828120 0.000000
505.988280 -26.093966 1.799744 0.000000
505.002990 -27.126001 1.809256 0.000000
504.230900 -27.589222 1.830568 0.000000
504.244900 -28.123182 1.806454 0.000000
503.495150 -28.553074 1.827223 0.000000
502.516720 -29.432196 1.839015 0.000000
501.585660 -30.263561 1.848975 0.000000
503.273100 -29.042110 1.816878 0.000000
502.280760 -29.899073 1.829649 0.000000
501.482240 -30.742670 1.831281 0.000000
500.921390 -31.108261 1.842745 0.000000
500.832490 -31.583580 1.823733 0.000000
500.124600 -31.883133 1.845426 0.000000
499.564270 -32.205887 1.857918 0.000000
498.786990 -32.920891 1.860508 0.000000
498.353880 -33.248138 1.865157 0.000000
497.723270 -33.488625 1.884199 0.000000
497.647030 -33.933895 1.863632 0.000000
497.088230 -34.178242 1.878153 0.000000
496.677980 -34.472668 1.882093 0.000000
496.080470 -34.670040 1.900530 0.000000
496.024170 -35.113323 1.877753 0.000000
499.465520 -32.662174 1.839298 0.000000
498.598360 -14.090492 1.974735 0.000000
498.798340 -14.530216 1.957435 0.000000
499.047850 -14.951083 1.936458 0.000000
499.127230 -15.438454 1.925647 0.000000
499.402010 -15.853088 1.901928 0.000000
499.608700 -16.294950 1.881935 0.000000
498.946500 -17.012909 1.916954 0.000000
499.146940 -17.444447 1.896446 0.000000
499.352540 -17.877096 1.875020 0.000000
499.548800 -18.315145 1.853608 0.000000
499.749820 -18.754940 1.831287 0.000000
499.127560 -19.380714 1.862401 0.000000
499.367000 -19.804600 1.836632 0.000000
499.531740 -20.247688 1.815175 0.000000
498.835210 -20.837944 1.850692 0.000000
499.035220 -21.266401 1.826025 0.000000
499.069670 -21.721426 1.811934 0.000000
498.728940 -22.218399 1.822935 0.000000
498.922940 -22.649954 1.797061 0.000000
511.461270 -14.549170 1.961165 0.000000
498.972530 -23.098242 1.780515 0.000000
498.568080 -23.574902 1.795104 0.000000
511.630950 -15.220345 1.937283 0.000000
498.659910 -24.014694 1.774764 0.000000
498.316860 -24.468521 1.784648 0.000000
511.800350 -15.891456 1.912888 0.000000
498.457700 -24.905642 1.759866 0.000000
511.187070 -16.735924 1.921799 0.000000
498.576200 -25.347370 1.736028 0.000000
498.113740 -25.778324 1.753749 0.000000
511.370570 -17.390995 1.896069 0.000000
511.655730 -18.029066 1.865282 0.000000
511.395540 -18.763918 1.858181 0.000000
511.021030 -19.502472 1.856092 0.000000
509.629700 -20.357477 1.900414 0.000000
497.557650 -26.189463 1.778413 0.000000
497.511960 -26.612915 1.765529 0.000000
497.233800 -27.440115 1.752453 0.000000
496.913880 -27.827845 1.759170 0.000000
496.588680 -28.205252 1.766223 0.000000
496.654660 -28.631401 1.742840 0.000000
496.307740 -28.993126 1.751179 0.000000
496.091830 -29.369064 1.749117 0.000000
495.889310 -29.742630 1.745755 0.000000
509.223110 -21.048515 1.900270 0.000000
495.811400 -30.139381 1.732039 0.000000
508.811520 -21.723164 1.900379 0.000000
508.623410 -22.363791 1.889952 0.000000
507.621220 -23.647593 1.898746 0.000000
507.580570 -24.249863 1.880810 0.000000
507.795410 -24.848093 1.849815 0.000000
507.864110 -25.452324 1.825441 0.000000
508.129940 -26.064423 1.790504 0.000000
496.821040 -35.912373 1.910979 0.000000
498.662410 -14.280927 1.978246 0.000000
498.955570 -14.701884 1.960402 0.000000
499.310790 -15.102302 1.938275 0.000000
499.479800 -15.579641 1.926673 0.000000
499.879430 -15.974360 1.900707 0.000000
500.131900 -16.427673 1.882926 0.000000
499.511110 -17.162064 1.916944 0.000000
499.818020 -17.589634 1.894793 0.000000
500.113070 -18.026752 1.872738 0.000000
500.368900 -18.480129 1.852424 0.000000
500.629090 -18.937223 1.831220 0.000000
500.101780 -19.576111 1.857318 0.000000
500.403200 -20.020994 1.832490 0.000000
500.626860 -20.487785 1.811763 0.000000
499.968990 -21.109074 1.844716 0.000000
500.082120 -21.586641 1.829786 0.000000
500.194640 -22.065723 1.814310 0.000000
499.722020 -22.614622 1.834838 0.000000
499.999300 -23.070763 1.808011 0.000000
512.891910 -14.474186 2.023392 0.000000
500.111240 -23.548428 1.790924 0.000000
499.695190 -24.062304 1.806818 0.000000
513.154050 -15.165129 2.002080 0.000000
499.856690 -24.533852 1.785536 0.000000
513.515620 -15.834873 1.976371 0.000000
499.508760 -25.024918 1.796418 0.000000
512.937070 -16.721823 1.986151 0.000000
499.727540 -25.497004 1.770297 0.000000
499.920530 -25.976374 1.745121 0.000000
499.340030 -26.444307 1.770123 0.000000
498.733670 -26.891342 1.796855 0.000000
513.379330 -17.372089 1.956242 0.000000
498.734190 -27.353390 1.783094 0.000000
498.321960 -27.785009 1.796585 0.000000
513.393490 -18.113298 1.942331 0.000000
498.442410 -28.253292 1.773780 0.000000
498.111270 -28.677059 1.781210 0.000000
497.772950 -29.089987 1.788950 0.000000
513.177310 -18.889154 1.937026 0.000000
497.896700 -29.560799 1.764290 0.000000
497.528590 -29.957357 1.773505 0.000000
497.316560 -30.371859 1.771507 0.000000
512.987430 -19.648962 1.930355 0.000000
511.634640 -20.553532 1.970036 0.000000
511.256710 -21.293835 1.970745 0.000000
497.008700 -30.762339 1.776063 0.000000
496.830720 -31.173252 1.771012 0.000000
496.205660 -31.474981 1.798342 0.000000
495.992740 -31.862778 1.795468 0.000000
511.039520 -22.002214 1.964703 0.000000
511.099460 -22.678265 1.946916 0.000000
510.065190 -23.423580 1.974246 0.000000
510.075010 -24.083582 1.957976 0.000000
495.776950 -32.245815 1.792488 0.000000
497.532290 -14.489540 1.988913 0.000000
497.880860 -14.893510 1.970876 0.000000
498.295680 -15.276064 1.948471 0.000000
498.503330 -15.749060 1.937375 0.000000
498.950010 -16.133476 1.911983 0.000000
499.299530 -16.562794 1.891562 0.000000
498.647160 -17.334105 1.928039 0.000000
499.007170 -17.754721 1.905844 0.000000
499.373140 -18.181486 1.882693 0.000000
499.744260 -18.615133 1.858616 0.000000
500.051330 -19.074068 1.837593 0.000000
499.451870 -19.757177 1.868381 0.000000
499.869420 -20.188309 1.839790 0.000000
500.140900 -20.660349 1.819004 0.000000
499.371800 -21.331402 1.858314 0.000000
499.531400 -21.815937 1.842979 0.000000
499.751310 -22.294212 1.823483 0.000000
499.310460 -22.864672 1.842370 0.000000
499.632870 -23.330162 1.815655 0.000000
512.896240 -14.197438 2.061295 0.000000
499.778260 -23.822123 1.798774 0.000000
499.354800 -24.362312 1.815346 0.000000
513.205440 -14.903607 2.041769 0.000000
499.553890 -24.848148 1.794128 0.000000
499.202610 -25.363972 1.805579 0.000000
513.619930 -15.586545 2.017911 0.000000
499.463040 -25.850685 1.779435 0.000000
513.039180 -16.516178 2.028582 0.000000
499.620360 -26.346958 1.758863 0.000000
498.967650 -26.841635 1.787616 0.000000
498.331600 -27.314127 1.815308 0.000000
513.546080 -17.177341 2.000290 0.000000
498.368900 -27.794127 1.800834 0.000000
498.017400 -28.252462 1.810281 0.000000
498.170960 -28.739178 1.787392 0.000000
513.784670 -17.905495 1.980875 0.000000
497.833010 -29.185364 1.795257 0.000000
497.487210 -29.620356 1.803391 0.000000
513.582030 -18.718384 1.976777 0.000000
497.643890 -30.111042 1.778575 0.000000
497.264770 -30.529522 1.788186 0.000000
496.921450 -30.942917 1.795256 0.000000
496.582860 -31.347595 1.801807 0.000000
513.408140 -19.514200 1.971245 0.000000
512.162660 -20.459049 2.004653 0.000000
496.410550 -31.776854 1.796924 0.000000
511.783660 -21.241962 2.006231 0.000000
511.576260 -21.988619 2.001149 0.000000
511.682280 -22.695066 1.983901 0.000000
510.578700 -23.497568 2.012047 0.000000
496.643890 -14.004287 1.955987 0.000000
496.300960 -15.305348 1.981442 0.000000
496.569790 -15.739754 1.967924 0.000000
496.967560 -16.123436 1.946439 0.000000
497.174530 -16.590649 1.935322 0.000000
497.615300 -16.971106 1.910221 0.000000
497.961210 -17.395565 1.889967 0.000000
497.332310 -18.153534 1.925024 0.000000
497.689540 -18.569374 1.902958 0.000000
498.053530 -18.991074 1.879896 0.000000
498.413270 -19.422234 1.856454 0.000000
498.774410 -19.861364 1.832296 0.000000
498.064610 -20.566877 1.869431 0.000000
498.462740 -20.995529 1.841970 0.000000
498.756930 -21.455925 1.819878 0.000000
498.281070 -22.066505 1.842075 0.000000
498.512270 -22.537804 1.822505 0.000000
498.743290 -23.014439 1.802303 0.000000
498.302030 -23.585587 1.821149 0.000000
512.073000 -14.046960 2.043437 0.000000
498.624730 -24.051207 1.794362 0.000000
512.389830 -14.757135 2.024075 0.000000
498.770200 -24.543383 1.777415 0.000000
498.346370 -25.084192 1.793947 0.000000
512.702150 -15.472260 2.004240 0.000000
498.539030 -25.570595 1.773063 0.000000
497.927000 -26.098406 1.800254 0.000000
513.130860 -16.161228 1.979682 0.000000
498.014340 -26.585228 1.784704 0.000000
498.065700 -27.075003 1.770744 0.000000
497.570650 -27.562059 1.789924 0.000000
497.143830 -28.033714 1.804720 0.000000
512.543520 -17.102962 1.990350 0.000000
497.248660 -28.513700 1.786039 0.000000
496.911290 -28.971397 1.794594 0.000000
512.979130 -17.789539 1.964383 0.000000
497.064540 -29.456484 1.771714 0.000000
512.842040 -18.602543 1.958230 0.000000
496.727750 -29.901495 1.779501 0.000000
496.383180 -30.335329 1.787558 0.000000
512.639890 -19.417101 1.953997 0.000000
496.401670 -30.806347 1.771739 0.000000
495.866180 -31.197844 1.791717 0.000000
510.831330 -21.220112 1.995901 0.000000
512.466490 -20.214571 1.948326 0.000000
510.576110 -21.981575 1.992900 0.000000
510.547270 -22.704817 1.981120 0.000000
510.652920 -23.411243 1.963804 0.000000
509.548890 -24.214413 1.991875 0.000000
496.150240 -17.874870 1.905534 0.000000
496.473570 -18.299011 1.886770 0.000000
496.008850 -18.993301 1.912833 0.000000
496.343260 -19.410957 1.892278 0.000000
496.682770 -19.834122 1.870833 0.000000
497.019650 -20.265467 1.848932 0.000000
497.361210 -20.703114 1.826140 0.000000
496.900180 -21.341923 1.849311 0.000000
497.301510 -21.767628 1.821866 0.000000
497.619630 -22.220970 1.798608 0.000000
497.164180 -22.826077 1.819990 0.000000
497.396970 -23.295782 1.800565 0.000000
510.998110 -13.989190 2.020076 0.000000
497.629580 -23.770893 1.780511 0.000000
497.193660 -24.340107 1.799399 0.000000
511.407470 -14.672428 1.998404 0.000000
497.517460 -24.804413 1.772773 0.000000
511.732640 -15.387327 1.979016 0.000000
497.657380 -25.296013 1.756420 0.000000
496.897490 -25.862320 1.793481 0.000000
496.946230 -26.350510 1.781647 0.000000
496.521730 -26.860401 1.797974 0.000000
512.050720 -16.108173 1.959244 0.000000
496.677730 -27.339033 1.778603 0.000000
512.482790 -16.803600 1.934800 0.000000
496.806790 -27.822948 1.760227 0.000000
496.384740 -28.306839 1.775284 0.000000
495.963380 -28.776169 1.790085 0.000000
511.896390 -17.752480 1.945891 0.000000
496.071500 -29.253876 1.771497 0.000000
511.858180 -18.551456 1.937112 0.000000
495.892210 -30.192352 1.757499 0.000000
511.725400 -19.362202 1.931258 0.000000
511.325930 -20.212078 1.934655 0.000000
510.930110 -21.041969 1.937627 0.000000
509.331420 -22.033337 1.984679 0.000000
509.370820 -22.747833 1.971281 0.000000
509.347170 -23.467640 1.959734 0.000000
509.457120 -24.170877 1.942662 0.000000
508.374760 -24.969723 1.970482 0.000000
506.413790 -14.434589 2.037479 0.000000
506.892790 -15.028341 2.015320 0.000000
507.325560 -15.646886 1.994259 0.000000
508.320680 -16.096107 1.951746 0.000000
509.234310 -16.599091 1.911474 0.000000
510.136960 -17.131649 1.870810 0.000000
510.728730 -17.770790 1.840997 0.000000
508.425020 -19.119278 1.919752 0.000000
509.067660 -19.723900 1.887103 0.000000
508.760010 -20.539351 1.889960 0.000000
508.380280 -21.351698 1.895228 0.000000
508.037350 -22.139460 1.898763 0.000000
506.903900 -23.028751 1.932722 0.000000
507.085050 -23.701094 1.915324 0.000000
507.297700 -24.373096 1.896109 0.000000
507.678410 -25.033695 1.869612 0.000000
507.738250 -25.730549 1.855240 0.000000
508.243930 -26.400389 1.822351 0.000000
506.147310 -14.954763 2.024014 0.000000
506.659330 -15.555362 2.001744 0.000000
507.040950 -16.209917 1.983513 0.000000
507.556580 -16.827936 1.959870 0.000000
509.130190 -17.144098 1.897469 0.000000
510.251340 -17.636963 1.850450 0.000000
507.828550 -19.843758 1.924046 0.000000
510.646090 -18.351635 1.828938 0.000000
508.386230 -20.478374 1.895802 0.000000
508.078950 -21.303207 1.898754 0.000000
507.693850 -22.125931 1.904219 0.000000
507.697910 -22.864960 1.894824 0.000000
506.821440 -23.731192 1.918014 0.000000
507.095580 -24.411255 1.897618 0.000000
507.525210 -25.080070 1.870663 0.000000
508.076660 -25.749544 1.838298 0.000000
508.143130 -26.474020 1.823854 0.000000
504.537780 -15.177221 2.020275 0.000000
505.098790 -15.750606 1.997923 0.000000
505.634340 -16.345036 1.975874 0.000000
506.095150 -16.975704 1.955879 0.000000
506.354860 -17.678314 1.942473 0.000000
506.626590 -18.378731 1.928057 0.000000
507.196040 -18.999050 1.902324 0.000000
506.058650 -20.826355 1.931535 0.000000
508.947450 -19.328327 1.833146 0.000000
506.330510 -21.512962 1.914962 0.000000
506.780700 -22.167589 1.891251 0.000000
506.714170 -22.928686 1.885919 0.000000
506.954410 -23.631439 1.868735 0.000000
506.609740 -24.425547 1.872745 0.000000
507.241970 -25.075527 1.839762 0.000000
507.613490 -25.774103 1.815809 0.000000
508.246430 -26.457863 1.781221 0.000000
506.862340 -27.318966 1.822930 0.000000
503.176640 -14.492464 1.973346 0.000000
503.711060 -15.071890 1.954273 0.000000
503.243190 -16.835087 1.970354 0.000000
503.823490 -17.399445 1.947931 0.000000
504.412450 -17.974117 1.924606 0.000000
504.768980 -18.635696 1.909174 0.000000
505.064820 -19.320377 1.895382 0.000000
505.354610 -20.009968 1.881232 0.000000
505.644230 -20.703037 1.866505 0.000000
504.695100 -21.696606 1.896910 0.000000
505.192020 -22.329226 1.873473 0.000000
505.700070 -22.972012 1.848978 0.000000
505.981410 -23.669807 1.832277 0.000000
506.444210 -24.342659 1.808166 0.000000
505.185670 -25.283983 1.848191 0.000000
505.536130 -25.965719 1.827268 0.000000
505.864840 -26.659010 1.806523 0.000000
506.214780 -27.358986 1.784306 0.000000
504.580510 -28.223911 1.837761 0.000000
501.260250 -14.108002 1.968006 0.000000
501.707210 -14.718237 1.954480 0.000000
502.155880 -15.333677 1.940348 0.000000
502.624630 -15.947193 1.924931 0.000000
502.176480 -17.711077 1.942702 0.000000
502.783810 -18.272095 1.920559 0.000000
503.449310 -18.828043 1.895738 0.000000
503.854710 -19.481981 1.879780 0.000000
504.177760 -20.167065 1.866234 0.000000
504.494080 -20.858234 1.852352 0.000000
504.810150 -21.553860 1.837888 0.000000
504.290040 -22.452808 1.853431 0.000000
504.685090 -23.125811 1.834954 0.000000
505.102870 -23.802835 1.815023 0.000000
505.456540 -24.501389 1.796826 0.000000
505.854610 -25.200493 1.776353 0.000000
503.898500 -26.255341 1.842807 0.000000
504.162660 -26.949966 1.826385 0.000000
504.394320 -27.654285 1.810575 0.000000
503.081300 -29.214823 1.844472 0.000000
504.880100 -28.340136 1.784570 0.000000
503.099550 -29.917812 1.835313 0.000000
503.116550 -30.620066 1.825676 0.000000
501.486540 -32.034279 1.869437 0.000000
501.508510 -14.416370 1.960604 0.000000
501.984680 -15.045618 1.946879 0.000000
502.462890 -15.680698 1.932515 0.000000
503.055480 -16.276211 1.913628 0.000000
501.906740 -17.559647 1.954230 0.000000
502.584840 -18.113417 1.931212 0.000000
503.250270 -18.688057 1.908054 0.000000
503.795230 -19.318464 1.888454 0.000000
504.122560 -20.028011 1.875768 0.000000
504.463560 -20.737320 1.862010 0.000000
504.797580 -21.453218 1.847887 0.000000
505.268400 -22.139301 1.828402 0.000000
504.535100 -23.118481 1.850186 0.000000
504.968200 -23.811653 1.830839 0.000000
505.425320 -24.509914 1.810002 0.000000
505.813810 -25.231611 1.790914 0.000000
503.971190 -27.080765 1.843538 0.000000
506.251130 -25.954399 1.769439 0.000000
504.408570 -27.777929 1.821107 0.000000
504.810670 -28.491096 1.799247 0.000000
502.720830 -30.165300 1.858053 0.000000
504.798220 -29.253454 1.791597 0.000000
502.734650 -30.884758 1.848794 0.000000
499.779690 -15.069647 1.943773 0.000000
500.186250 -15.724457 1.929326 0.000000
500.549440 -16.401949 1.915806 0.000000
500.908540 -17.083429 1.901840 0.000000
501.290310 -17.758476 1.886491 0.000000
501.854830 -18.368492 1.864142 0.000000
502.457640 -18.976402 1.839817 0.000000
501.239380 -20.213409 1.878940 0.000000
501.551730 -20.905701 1.863736 0.000000
501.807530 -21.618124 1.849939 0.000000
502.067260 -22.330933 1.835417 0.000000
502.318660 -23.047989 1.820601 0.000000
502.588440 -23.762802 1.804531 0.000000
502.713960 -24.513412 1.793046 0.000000
502.781370 -25.274529 1.783099 0.000000
501.443660 -26.297642 1.823704 0.000000
501.756070 -26.985895 1.803988 0.000000
501.745210 -27.730318 1.795524 0.000000
501.538270 -28.496887 1.793810 0.000000
499.598600 -30.150085 1.846361 0.000000
501.386350 -29.246183 1.789636 0.000000
499.697300 -30.833862 1.832287 0.000000
499.554290 -31.534719 1.826855 0.000000
499.379460 -32.230537 1.822226 0.000000
497.729250 -32.962624 1.874180 0.000000
497.511900 -33.619156 1.870873 0.000000
497.284000 -34.267780 1.867628 0.000000
497.064360 -34.908779 1.863713 0.000000
502.285980 -19.467033 1.839309 0.000000
502.807980 -20.138115 1.820348 0.000000
499.713620 -16.237068 1.923690 0.000000
500.281620 -16.842409 1.906200 0.000000
500.828400 -17.467091 1.888840 0.000000
501.256900 -18.148478 1.874868 0.000000
501.647190 -18.849731 1.861577 0.000000
501.197570 -21.495020 1.872736 0.000000
501.515810 -22.206959 1.859508 0.000000
501.824550 -22.925259 1.845998 0.000000
502.012510 -23.678726 1.835984 0.000000
502.149660 -24.444197 1.827110 0.000000
502.374390 -25.188488 1.814664 0.000000
502.733400 -25.907297 1.797005 0.000000
503.092830 -26.633369 1.778685 0.000000
501.355800 -27.721146 1.832215 0.000000
501.230070 -28.498949 1.829761 0.000000
501.197910 -29.255817 1.823551 0.000000
501.013980 -30.025578 1.822149 0.000000
500.931150 -30.775972 1.816718 0.000000
499.375030 -31.639065 1.863115 0.000000
499.111210 -32.364555 1.863486 0.000000
498.786440 -33.082024 1.865659 0.000000
496.940190 -34.492302 1.912607 0.000000
498.636600 -33.782219 1.861136 0.000000
496.742130 -35.153790 1.909400 0.000000
496.534880 -35.808315 1.906143 0.000000
500.187590 -16.297655 1.921125 0.000000
500.541810 -17.034254 1.913062 0.000000
501.037140 -17.713655 1.899914 0.000000
501.741730 -18.318083 1.879544 0.000000
502.467960 -18.930616 1.857892 0.000000
503.173220 -19.567825 1.836282 0.000000
503.521970 -20.340858 1.825288 0.000000
501.967650 -21.716576 1.873745 0.000000
502.358370 -22.447632 1.860183 0.000000
502.734010 -23.188927 1.846467 0.000000
503.127870 -23.931431 1.831537 0.000000
503.511470 -24.683414 1.816282 0.000000
503.914730 -25.438114 1.799747 0.000000
504.148560 -26.235468 1.787953 0.000000
504.374050 -27.036844 1.775782 0.000000
502.306550 -28.224266 1.836717 0.000000
502.208440 -29.038834 1.833993 0.000000
502.133270 -29.842712 1.829987 0.000000
502.043400 -30.641981 1.825913 0.000000
501.957400 -31.434601 1.821177 0.000000
499.822910 -32.382545 1.883407 0.000000
499.562010 -33.139141 1.883797 0.000000
497.231630 -35.359951 1.934707 0.000000
501.688260 -15.831751 1.947776 0.000000
502.283780 -16.522966 1.933545 0.000000
503.094420 -17.135420 1.912541 0.000000
503.927400 -17.758364 1.890263 0.000000
504.600250 -18.461498 1.871885 0.000000
504.976100 -19.283901 1.861278 0.000000
505.361450 -20.106079 1.849712 0.000000
504.009430 -21.479219 1.886957 0.000000
504.630800 -22.206617 1.867336 0.000000
505.220060 -22.957016 1.847928 0.000000
505.732700 -23.740448 1.829998 0.000000
506.371640 -24.504368 1.807718 0.000000
507.055790 -25.274139 1.783377 0.000000
507.727570 -26.064268 1.758603 0.000000
504.707700 -28.427265 1.833923 0.000000
504.572110 -29.314369 1.830956 0.000000
501.526730 -16.110970 1.942380 0.000000
502.146640 -16.816671 1.927830 0.000000
503.000920 -17.436249 1.906226 0.000000
503.866700 -18.071989 1.883645 0.000000
504.471220 -18.826651 1.867497 0.000000
504.856990 -19.669878 1.856608 0.000000
505.252560 -20.512875 1.844743 0.000000
504.050960 -21.862785 1.875785 0.000000
504.693730 -22.610598 1.855807 0.000000
505.303160 -23.382273 1.836010 0.000000
505.950930 -24.157791 1.814414 0.000000
506.521030 -24.967482 1.794190 0.000000
507.070740 -25.794724 1.773758 0.000000
507.603490 -26.638176 1.753012 0.000000
503.715520 -29.190914 1.848121 0.000000
503.551570 -30.088821 1.845336 0.000000
499.818210 -17.113163 1.901338 0.000000
500.592740 -17.743818 1.882683 0.000000
501.354430 -18.397144 1.863746 0.000000
501.883700 -19.158920 1.850584 0.000000
502.732820 -19.809214 1.827897 0.000000
503.152470 -20.632431 1.816396 0.000000
503.811400 -21.380140 1.797575 0.000000
501.222750 -23.164715 1.867933 0.000000
501.489140 -23.995344 1.858670 0.000000
501.931490 -24.777960 1.843853 0.000000
502.420650 -25.556314 1.827042 0.000000
502.899930 -26.347061 1.809796 0.000000
503.408110 -27.141468 1.791019 0.000000
503.905640 -27.949593 1.771802 0.000000
500.297850 -30.370041 1.861639 0.000000
503.817990 -28.877588 1.768351 0.000000
500.484530 -31.178349 1.849629 0.000000
500.304900 -32.037094 1.847468 0.000000
499.930210 -32.907829 1.850397 0.000000
497.011990 -34.770660 1.918234 0.000000
496.701230 -35.551743 1.918395 0.000000
497.205050 -18.508892 1.899923 0.000000
498.165920 -19.032152 1.876338 0.000000
499.223210 -19.540947 1.849484 0.000000
500.149810 -20.130478 1.825653 0.000000
500.794160 -20.849480 1.809014 0.000000
501.253910 -21.646807 1.796823 0.000000
501.733580 -22.443628 1.783386 0.000000
499.381500 -24.139528 1.847891 0.000000
499.873500 -24.893967 1.832793 0.000000
500.343080 -25.663954 1.817641 0.000000
500.841090 -26.435486 1.801008 0.000000
500.946200 -27.311596 1.794661 0.000000
500.792180 -28.241432 1.794933 0.000000
500.637120 -29.158966 1.794634 0.000000
500.487790 -30.063576 1.793582 0.000000
498.366460 -31.286568 1.847916 0.000000
497.989720 -32.168461 1.852456 0.000000
497.732180 -33.016991 1.853106 0.000000
497.323390 -33.869865 1.857614 0.000000
