# .PCD v0.7 - Point Cloud Data file format
VERSION 0.7
FIELDS x y z intensity
SIZE 4 4 4 4
TYPE F F F F
COUNT 1 1 1 1
WIDTH 1166
HEIGHT 1
VIEWPOINT 0 0 0 1 0 0 0
POINTS 1166
DATA ascii
529.341060 291.966430 15.082413 0.000000
535.033200 307.256710 16.002802 0.000000
535.273190 310.807650 17.675823 0.000000
533.892580 308.676360 17.586164 0.000000
535.438840 300.461700 16.596804 0.000000
521.622920 286.142550 14.616635 0.000000
524.928410 286.634740 14.703833 0.000000
528.832460 292.012510 15.064357 0.000000
533.237610 292.005000 15.129378 0.000000
539.053280 291.819210 15.190005 0.000000
540.509090 291.097290 15.164988 0.000000
535.078800 297.706480 15.469067 0.000000
535.006770 297.101620 18.848738 0.000000
534.990170 297.088710 20.553558 0.000000
534.973630 297.075740 22.259693 0.000000
534.956970 297.062810 23.968788 0.000000
534.940730 297.056550 25.681976 0.000000
534.923340 297.033480 27.402695 0.000000
536.315000 297.557460 27.356588 0.000000
523.560300 288.309720 14.794477 0.000000
525.218870 288.925260 14.850195 0.000000
528.714230 292.040920 15.066067 0.000000
533.014770 291.536350 15.079802 0.000000
538.794370 291.958980 15.145112 0.000000
540.224610 291.936650 15.151353 0.000000
534.861210 297.108460 18.772390 0.000000
534.854000 297.096160 20.451237 0.000000
534.846980 297.085480 22.131212 0.000000
534.839480 297.068700 23.814228 0.000000
528.205870 291.822390 15.142321 0.000000
534.405700 297.472350 15.508074 0.000000
535.695370 297.024840 15.490370 0.000000
527.200070 291.817200 15.158506 0.000000
534.968020 297.701870 15.691263 0.000000
534.698850 307.780700 16.240650 0.000000
521.091610 296.079590 15.073376 0.000000
523.712710 295.800720 15.109047 0.000000
526.257200 295.259980 15.123780 0.000000
526.970640 291.933840 14.938017 0.000000
528.364260 292.055970 14.968340 0.000000
541.844790 286.753450 14.815051 0.000000
533.487370 301.494320 15.611040 0.000000
534.543460 300.191410 15.546983 0.000000
535.528020 297.402530 15.391695 0.000000
532.516850 311.017270 16.168049 0.000000
535.396910 309.381620 17.404139 0.000000
524.616210 292.650090 15.053184 0.000000
527.147030 291.852600 15.055724 0.000000
528.502810 291.943790 15.085990 0.000000
537.701290 291.911620 15.225288 0.000000
540.293820 291.157900 15.211321 0.000000
535.530880 297.442750 15.525001 0.000000
535.729610 300.132140 17.138433 0.000000
532.540470 310.628540 27.358854 0.000000
535.431340 297.628690 27.591904 0.000000
536.628170 297.554380 27.602211 0.000000
528.738400 292.065580 14.987852 0.000000
540.351870 291.893620 15.146200 0.000000
521.833680 296.208530 15.099611 0.000000
523.066590 295.978120 15.112928 0.000000
524.294920 295.741420 15.124813 0.000000
525.504210 295.428410 15.130737 0.000000
534.511170 297.972600 15.444648 0.000000
535.720030 298.289250 15.481677 0.000000
536.598210 293.442470 15.195633 0.000000
534.408570 307.486690 16.027056 0.000000
534.705570 310.181700 17.408932 0.000000
535.540830 297.417140 27.335915 0.000000
527.000490 291.934940 15.012511 0.000000
528.320010 292.018520 15.038561 0.000000
522.261470 294.095250 15.059786 0.000000
523.539250 293.983460 15.077103 0.000000
524.803100 293.842770 15.091448 0.000000
535.225950 297.678040 15.480961 0.000000
537.266780 292.034240 15.154577 0.000000
538.527470 291.990750 15.164251 0.000000
534.150630 308.080750 16.108965 0.000000
534.240360 308.870970 17.377058 0.000000
535.095340 296.926240 25.760521 0.000000
535.092220 296.997410 27.239990 0.000000
523.180360 287.380680 14.720921 0.000000
521.782590 292.585540 15.016252 0.000000
523.099550 292.585630 15.037965 0.000000
526.804750 291.681340 15.038084 0.000000
535.005980 297.715760 15.507712 0.000000
536.981990 292.028750 15.170440 0.000000
539.466800 291.940090 15.182478 0.000000
533.343510 310.260590 17.437122 0.000000
534.380250 311.026520 17.476618 0.000000
534.939030 297.099240 18.365160 0.000000
534.932860 297.089390 19.810888 0.000000
534.926640 297.079280 21.257244 0.000000
534.920590 297.070560 22.705559 0.000000
534.914610 297.063450 24.157120 0.000000
534.907710 297.045990 25.614239 0.000000
534.901920 297.040740 27.076574 0.000000
535.017820 297.722170 15.597561 0.000000
535.707340 291.841130 15.244963 0.000000
536.939700 291.849490 15.259189 0.000000
532.384830 309.548920 16.284729 0.000000
533.448970 310.449040 17.496172 0.000000
534.995730 307.869810 17.411423 0.000000
534.942500 297.111270 18.409792 0.000000
534.932430 297.103550 19.832666 0.000000
534.922180 297.093720 21.256176 0.000000
534.912050 297.085240 22.681660 0.000000
534.902040 297.078370 24.110394 0.000000
534.891050 297.061220 25.544661 0.000000
534.881160 297.056180 26.984098 0.000000
532.890690 297.942810 15.780263 0.000000
535.015380 297.108760 18.560619 0.000000
535.002930 297.098690 19.957720 0.000000
534.990540 297.088590 21.355654 0.000000
534.978090 297.078520 22.755774 0.000000
534.965580 297.068390 24.159422 0.000000
534.953060 297.058230 25.567900 0.000000
534.940550 297.048030 26.982676 0.000000
535.214720 297.671570 15.725880 0.000000
534.284480 307.518550 16.307638 0.000000
535.090640 297.008910 22.553585 0.000000
535.082460 297.055300 23.927589 0.000000
535.068970 297.045530 25.308887 0.000000
535.055420 297.035770 26.696230 0.000000
521.619510 287.983150 14.837666 0.000000
522.982850 288.161010 14.879374 0.000000
535.278560 297.628880 15.695526 0.000000
534.416930 307.649990 16.300718 0.000000
536.226680 297.614720 27.745998 0.000000
521.603270 291.255920 14.964705 0.000000
523.944700 290.706180 14.984727 0.000000
525.413760 286.178310 14.732932 0.000000
535.394040 297.572240 15.638086 0.000000
534.591190 307.774480 16.273331 0.000000
535.054080 294.062810 16.799187 0.000000
534.944090 310.594910 17.488808 0.000000
536.328610 297.603450 27.462658 0.000000
535.226200 297.014160 27.542471 0.000000
525.677920 291.639370 14.881990 0.000000
539.474060 291.985020 15.134178 0.000000
540.593320 291.833250 15.136885 0.000000
541.764220 287.787480 14.875341 0.000000
542.986880 286.805570 14.821120 0.000000
544.217040 286.421050 14.806531 0.000000
545.445740 286.298340 14.808734 0.000000
521.134280 296.298770 15.086173 0.000000
522.220400 296.084870 15.098583 0.000000
524.376770 295.644230 15.119670 0.000000
534.507200 297.951350 15.469235 0.000000
535.847470 301.323060 15.717691 0.000000
537.257260 292.447020 15.137212 0.000000
537.137700 290.622010 16.447008 0.000000
521.032840 298.085330 15.130107 0.000000
523.108520 297.684270 15.154198 0.000000
526.119320 296.798610 15.162563 0.000000
526.486330 293.808560 14.965029 0.000000
528.660280 293.506990 14.988323 0.000000
537.445860 294.516270 15.203922 0.000000
542.793700 291.967250 15.087410 0.000000
543.922000 291.360990 15.055492 0.000000
545.038090 291.299710 15.060721 0.000000
532.482420 308.393040 16.091333 0.000000
535.310670 311.062620 17.292217 0.000000
526.079650 290.902130 14.869766 0.000000
541.753230 287.368010 14.862071 0.000000
542.936580 286.569030 14.817930 0.000000
544.127010 286.235630 14.805128 0.000000
545.311770 286.198520 14.811843 0.000000
523.705440 294.827940 15.084526 0.000000
537.380620 292.013670 15.133951 0.000000
538.460270 291.995970 15.146125 0.000000
540.616700 291.799440 15.156832 0.000000
533.293210 301.339600 15.716707 0.000000
535.041200 300.325740 15.674662 0.000000
537.449830 291.881290 15.245377 0.000000
538.507450 291.806460 15.252098 0.000000
534.283200 300.509640 15.790605 0.000000
534.397830 307.637880 16.275246 0.000000
536.098750 308.632720 16.367527 0.000000
521.223450 288.050350 14.815094 0.000000
522.540950 288.434200 14.864283 0.000000
523.756900 288.545260 14.892603 0.000000
535.013490 297.720580 15.667320 0.000000
534.336910 311.036160 17.458357 0.000000
534.940060 297.111050 18.006041 0.000000
534.936280 297.103700 19.194008 0.000000
534.932370 297.095610 20.382149 0.000000
534.928650 297.088680 21.571579 0.000000
534.924190 297.075900 22.763796 0.000000
534.920530 297.069850 23.959223 0.000000
534.917050 297.065950 25.159142 0.000000
534.912350 297.050720 26.366234 0.000000
525.546510 310.631590 15.572161 0.000000
527.811830 310.416020 15.614584 0.000000
528.558960 310.360290 15.628223 0.000000
529.746030 309.191100 15.554243 0.000000
530.532710 309.278840 15.578708 0.000000
536.622380 310.985960 15.829336 0.000000
533.098020 302.205690 16.067049 0.000000
533.137880 296.600070 15.692883 0.000000
535.087160 297.099670 18.075785 0.000000
535.083980 297.091830 19.238188 0.000000
535.080750 297.083980 20.400835 0.000000
535.077510 297.076110 21.564846 0.000000
535.074340 297.068210 22.731339 0.000000
535.071110 297.060270 23.901390 0.000000
535.067870 297.052340 25.076214 0.000000
535.064580 297.044370 26.256878 0.000000
521.277710 309.102260 15.536895 0.000000
522.175110 309.188630 15.569909 0.000000
522.431090 307.895020 15.471714 0.000000
526.959530 306.618680 15.475731 0.000000
527.766360 306.596920 15.490433 0.000000
529.009090 305.283260 15.402377 0.000000
529.892150 305.553830 15.440651 0.000000
535.440980 305.988590 15.549004 0.000000
538.459590 305.943880 15.564711 0.000000
539.214360 306.033330 15.575274 0.000000
540.712650 306.407840 15.610912 0.000000
541.448910 306.805110 15.645823 0.000000
542.171880 307.194920 15.679239 0.000000
542.881770 307.587650 15.712101 0.000000
543.577700 308.002870 15.746136 0.000000
544.263550 308.382320 15.776265 0.000000
544.941410 308.728940 15.802757 0.000000
545.619260 308.993290 15.821270 0.000000
536.059270 310.802310 16.813860 0.000000
533.518980 308.033360 17.522429 0.000000
520.932500 307.221980 15.471671 0.000000
521.894840 307.414610 15.510000 0.000000
525.253540 305.311580 15.399549 0.000000
528.182310 304.103610 15.339840 0.000000
529.088010 304.411130 15.377969 0.000000
529.986880 304.767700 15.419403 0.000000
539.986270 306.386600 15.600105 0.000000
540.708800 306.733920 15.628021 0.000000
541.417790 307.186370 15.664617 0.000000
542.111510 307.628810 15.699594 0.000000
542.789980 308.082240 15.734871 0.000000
543.453120 308.544620 15.770284 0.000000
544.103700 308.981690 15.802773 0.000000
544.745180 309.374790 15.830642 0.000000
545.390620 309.636750 15.845979 0.000000
536.652280 290.675200 16.701595 0.000000
536.018310 309.261660 17.553543 0.000000
525.092590 303.664220 15.337371 0.000000
528.953490 302.706090 15.309267 0.000000
535.989260 307.931580 15.821965 0.000000
537.737610 304.080050 15.478824 0.000000
539.240110 304.528140 15.515869 0.000000
539.977720 304.748540 15.532844 0.000000
541.425350 305.453830 15.588169 0.000000
542.129270 305.861150 15.619630 0.000000
542.817930 306.305880 15.653754 0.000000
543.492130 306.751340 15.687269 0.000000
544.152280 307.196140 15.720074 0.000000
544.802860 307.600220 15.748547 0.000000
545.442500 307.996370 15.775668 0.000000
523.768860 298.890590 15.183384 0.000000
526.987730 297.622130 15.111485 0.000000
522.389470 300.068730 15.261457 0.000000
535.159480 300.338810 15.373120 0.000000
539.911870 301.259190 15.429126 0.000000
541.440430 301.781370 15.459836 0.000000
542.182980 302.323120 15.498533 0.000000
542.910890 302.791290 15.530146 0.000000
543.624210 303.249270 15.560215 0.000000
544.322810 303.711090 15.589986 0.000000
545.007630 304.169620 15.618851 0.000000
545.679870 304.618500 15.646256 0.000000
533.282590 310.109070 17.783604 0.000000
534.810730 297.105830 20.388149 0.000000
534.823300 297.099490 21.446255 0.000000
534.835210 297.087770 22.507051 0.000000
534.848020 297.082430 23.570808 0.000000
534.861080 297.079100 24.638702 0.000000
534.872990 297.065490 25.713223 0.000000
520.825990 297.418180 15.144360 0.000000
522.273130 296.256410 15.066277 0.000000
524.370670 296.828980 15.134565 0.000000
535.224120 299.699040 15.405470 0.000000
537.526550 299.130250 15.341717 0.000000
539.122010 299.690730 15.375959 0.000000
541.434570 300.535980 15.421922 0.000000
542.185240 300.837130 15.437449 0.000000
542.915710 301.360410 15.471752 0.000000
543.625610 301.937560 15.510220 0.000000
544.319150 302.487950 15.545797 0.000000
545.000240 302.989590 15.576530 0.000000
545.667540 303.479580 15.605698 0.000000
539.715450 291.219390 15.789555 0.000000
531.711060 307.822850 17.740543 0.000000
534.927860 297.148220 17.254080 0.000000
532.844240 309.785890 17.815599 0.000000
533.823550 308.429930 17.749556 0.000000
534.942570 297.137970 18.284405 0.000000
534.957640 297.130400 19.314213 0.000000
534.972720 297.122830 20.344358 0.000000
534.987850 297.115230 21.375839 0.000000
535.002990 297.107640 22.409645 0.000000
535.018130 297.100040 23.446724 0.000000
535.033390 297.092320 24.488165 0.000000
535.048710 297.084660 25.534904 0.000000
522.183780 297.161800 15.171343 0.000000
526.500610 296.572750 15.159815 0.000000
527.101440 310.754700 15.594843 0.000000
528.178830 310.170650 15.555634 0.000000
529.594240 310.514860 15.615794 0.000000
530.288150 310.712100 15.646919 0.000000
531.746700 297.009000 15.212348 0.000000
535.222410 298.510890 15.334033 0.000000
537.577880 298.689180 15.333778 0.000000
542.152400 300.347050 15.425793 0.000000
542.878910 300.668090 15.442558 0.000000
543.580140 301.226620 15.479851 0.000000
544.266720 301.745450 15.513071 0.000000
544.935060 302.284760 15.547613 0.000000
545.589110 302.804410 15.579895 0.000000
535.900880 308.411500 16.959566 0.000000
533.199650 310.063900 17.815762 0.000000
533.156070 307.117490 17.686718 0.000000
520.801640 297.040650 15.119091 0.000000
525.254820 296.876220 15.146476 0.000000
526.155520 296.968020 15.160021 0.000000
527.077760 310.948150 15.643922 0.000000
527.445250 310.321840 15.585119 0.000000
528.134280 310.437010 15.610394 0.000000
529.220400 309.990970 15.580762 0.000000
530.586980 310.380040 15.641913 0.000000
537.736020 299.426270 15.358073 0.000000
542.105960 301.077180 15.449520 0.000000
542.788390 301.612850 15.486368 0.000000
543.454160 302.134430 15.521439 0.000000
544.107360 302.604890 15.551302 0.000000
544.747250 303.063140 15.579542 0.000000
545.374450 303.511020 15.606340 0.000000
532.857540 309.835240 17.754446 0.000000
533.728640 308.477170 17.682173 0.000000
525.054630 297.587160 15.152309 0.000000
526.820680 310.609830 15.612249 0.000000
527.860530 310.124790 15.580307 0.000000
528.931950 309.713840 15.553555 0.000000
530.276000 310.077330 15.613356 0.000000
530.926570 310.260960 15.641887 0.000000
535.262940 301.863250 15.552824 0.000000
541.347900 301.539310 15.451275 0.000000
542.010990 302.033750 15.486536 0.000000
542.659420 302.485380 15.517241 0.000000
543.295290 302.902950 15.544209 0.000000
543.918520 303.313570 15.570024 0.000000
544.528560 303.730770 15.596000 0.000000
534.163940 309.500060 16.272436 0.000000
545.127260 304.137940 15.620544 0.000000
545.715270 304.536590 15.643815 0.000000
534.747800 298.236150 16.147985 0.000000
535.621950 299.213650 16.209831 0.000000
535.557430 307.719730 16.824768 0.000000
538.036800 290.669220 16.648893 0.000000
535.055970 308.096710 17.571703 0.000000
521.975400 297.348360 15.131411 0.000000
526.225340 309.551540 15.548796 0.000000
526.920470 309.671110 15.576002 0.000000
527.961180 309.210420 15.543903 0.000000
528.651920 309.392300 15.575321 0.000000
529.057070 308.888210 15.524673 0.000000
530.372380 309.208340 15.577352 0.000000
536.258970 311.019040 15.810272 0.000000
537.217770 299.852390 15.356210 0.000000
539.318420 300.644170 15.404066 0.000000
541.972960 301.889800 15.477716 0.000000
542.602910 302.355070 15.509732 0.000000
543.220830 302.770320 15.536439 0.000000
543.826350 303.176330 15.561800 0.000000
544.418580 303.590180 15.587503 0.000000
544.999570 303.993900 15.611788 0.000000
545.569950 304.389040 15.634811 0.000000
535.172790 310.513670 17.035858 0.000000
536.354490 308.056060 16.841866 0.000000
535.062990 293.605900 16.790127 0.000000
534.790410 297.128570 17.905251 0.000000
534.810180 297.122590 18.830021 0.000000
534.829830 297.115720 19.754692 0.000000
534.849670 297.109920 20.680140 0.000000
534.868530 297.097200 21.607658 0.000000
534.888310 297.090210 22.537523 0.000000
534.908140 297.083160 23.470909 0.000000
534.928100 297.076110 24.408665 0.000000
524.026670 294.747010 15.049864 0.000000
525.603270 308.349760 15.555117 0.000000
525.939450 295.311490 15.107555 0.000000
528.453310 307.657710 15.527882 0.000000
528.866940 307.150600 15.476622 0.000000
529.583010 307.422490 15.515292 0.000000
535.737670 297.894870 15.307289 0.000000
537.162720 309.002380 15.708601 0.000000
537.195740 298.362430 15.333699 0.000000
539.215090 309.277800 15.717163 0.000000
540.665590 299.658360 15.400650 0.000000
541.329350 299.997710 15.419942 0.000000
541.979920 300.395320 15.444332 0.000000
542.626890 300.584080 15.448030 0.000000
543.250920 301.045960 15.477670 0.000000
532.576840 302.817410 15.799334 0.000000
542.139890 310.934570 15.856385 0.000000
543.858830 301.523830 15.508484 0.000000
544.454350 301.976010 15.536421 0.000000
545.034240 302.444180 15.565573 0.000000
545.603580 302.886380 15.591816 0.000000
536.075680 308.468020 16.963398 0.000000
532.587950 309.408510 17.714970 0.000000
533.337590 310.187620 17.744514 0.000000
534.063110 311.006350 17.776230 0.000000
534.856570 307.590580 17.588820 0.000000
534.975220 297.108890 17.944708 0.000000
534.995850 297.102290 18.842253 0.000000
535.016480 297.095730 19.739748 0.000000
535.035160 297.075560 20.638590 0.000000
535.041870 296.971620 21.544815 0.000000
523.013120 291.027280 14.902752 0.000000
524.971370 305.969150 15.465664 0.000000
526.831240 305.687560 15.468225 0.000000
527.205570 305.059050 15.405855 0.000000
528.330690 304.635620 15.373957 0.000000
529.084170 304.937160 15.414974 0.000000
537.000370 295.367400 15.228424 0.000000
539.113220 306.737730 15.596339 0.000000
540.688540 307.418060 15.646789 0.000000
541.196290 307.730620 15.672276 0.000000
541.324520 296.764590 15.281320 0.000000
541.693480 308.036440 15.696446 0.000000
542.180480 308.340480 15.719872 0.000000
542.012820 297.082980 15.295940 0.000000
542.657230 308.651550 15.743612 0.000000
542.690060 297.412960 15.311102 0.000000
543.124690 308.955960 15.766075 0.000000
543.355350 297.767790 15.328083 0.000000
544.003360 298.201230 15.352053 0.000000
544.638920 298.625270 15.374695 0.000000
545.253170 299.124420 15.404152 0.000000
543.956730 310.215120 15.886664 0.000000
544.397220 310.430630 15.897489 0.000000
544.850400 310.525850 15.893385 0.000000
545.273250 310.795320 15.909567 0.000000
533.859920 293.835570 17.025841 0.000000
533.110530 310.051390 17.834354 0.000000
533.889890 311.064670 17.872372 0.000000
535.823360 308.794740 17.730387 0.000000
522.906010 291.717930 14.978645 0.000000
524.303340 304.736480 15.378004 0.000000
526.967960 304.717470 15.421459 0.000000
535.869260 307.997280 15.834846 0.000000
538.078120 305.529820 15.525509 0.000000
538.619570 305.728760 15.540943 0.000000
539.152530 305.926270 15.555547 0.000000
539.259890 295.710210 15.232690 0.000000
540.195250 306.339110 15.584868 0.000000
541.205440 306.936400 15.633358 0.000000
541.333440 296.496700 15.264300 0.000000
541.694820 307.243290 15.657770 0.000000
542.174260 307.543580 15.680899 0.000000
542.004580 296.819370 15.279468 0.000000
542.643920 307.843990 15.703545 0.000000
542.665340 297.136660 15.293593 0.000000
543.314030 297.487240 15.310424 0.000000
543.945310 297.918580 15.334620 0.000000
544.564270 298.340390 15.357494 0.000000
545.167480 298.789000 15.382607 0.000000
543.103880 308.148010 15.726141 0.000000
543.489870 309.108520 15.826961 0.000000
544.351620 309.635250 15.860809 0.000000
544.790220 309.775700 15.862099 0.000000
545.205990 310.035370 15.877359 0.000000
545.615170 310.294890 15.892155 0.000000
545.749080 299.300110 15.413544 0.000000
535.070500 299.958010 16.488091 0.000000
531.784790 307.838440 17.728367 0.000000
533.018130 310.091130 17.823017 0.000000
523.278750 306.449130 15.443849 0.000000
526.707890 305.632540 15.418277 0.000000
536.361570 306.834290 15.600747 0.000000
533.233220 301.979490 15.751010 0.000000
535.623900 308.067470 15.758774 0.000000
537.900020 307.518800 15.668121 0.000000
539.775760 307.534450 15.638574 0.000000
540.710750 307.968110 15.672770 0.000000
541.166140 308.232420 15.695013 0.000000
541.612610 308.491330 15.716112 0.000000
541.857790 300.225520 15.426435 0.000000
542.050290 308.752560 15.737034 0.000000
542.479490 309.015140 15.757678 0.000000
542.443360 300.411800 15.430429 0.000000
542.900880 309.272400 15.777211 0.000000
543.014890 300.731600 15.447847 0.000000
543.659790 310.311280 15.882269 0.000000
543.568300 301.153930 15.475628 0.000000
544.053650 310.534090 15.896418 0.000000
544.110960 301.550750 15.500436 0.000000
544.461670 310.624360 15.892963 0.000000
544.642150 301.942410 15.524394 0.000000
544.843930 310.860660 15.907925 0.000000
545.160460 302.344730 15.549199 0.000000
545.664860 302.761510 15.575284 0.000000
537.673710 291.541810 16.499617 0.000000
532.700620 310.755220 17.720436 0.000000
532.857060 300.198060 17.104452 0.000000
534.841610 297.124970 17.706451 0.000000
534.864620 297.118710 18.524271 0.000000
534.887570 297.112430 19.341805 0.000000
534.910580 297.106140 20.159840 0.000000
534.933590 297.099850 20.979160 0.000000
534.956670 297.093540 21.800518 0.000000
534.979860 297.087220 22.624758 0.000000
535.003110 297.080870 23.452633 0.000000
521.843320 297.351170 15.189200 0.000000
524.382140 306.601320 15.457908 0.000000
525.095280 306.736940 15.490426 0.000000
526.165650 306.482240 15.483046 0.000000
526.531800 306.060580 15.439642 0.000000
529.284850 305.798430 15.449717 0.000000
538.939820 307.246120 15.620026 0.000000
539.393550 307.392300 15.631304 0.000000
539.841130 307.536770 15.641798 0.000000
541.148990 308.157960 15.694510 0.000000
541.569890 308.384640 15.713671 0.000000
541.788390 301.087100 15.450686 0.000000
541.983280 308.610840 15.732317 0.000000
542.389160 308.840970 15.751034 0.000000
542.328190 301.337980 15.464140 0.000000
542.788270 309.066830 15.768745 0.000000
542.852910 301.700810 15.489504 0.000000
543.133000 309.776310 15.850544 0.000000
543.366820 302.055360 15.513643 0.000000
543.859130 286.172150 14.801751 0.000000
544.614260 286.911800 14.845905 0.000000
543.886230 310.188900 15.879173 0.000000
543.871770 302.390170 15.535285 0.000000
544.268310 310.304500 15.880599 0.000000
544.634340 310.502500 15.892683 0.000000
544.368230 302.712040 15.555166 0.000000
544.994450 310.706970 15.905233 0.000000
544.856260 303.027530 15.574013 0.000000
545.374940 310.789030 15.900566 0.000000
545.332580 303.362270 15.594707 0.000000
545.352420 287.582520 14.883942 0.000000
545.737790 310.949430 15.906126 0.000000
536.307370 291.162020 16.313164 0.000000
533.068120 310.217620 17.594421 0.000000
535.041080 307.822970 17.408705 0.000000
521.062070 305.518430 15.444675 0.000000
524.369320 304.385890 15.418689 0.000000
524.754330 303.948520 15.379473 0.000000
525.467960 304.080440 15.411021 0.000000
527.893920 310.188260 15.601842 0.000000
528.302610 310.024930 15.595278 0.000000
529.175840 309.814940 15.596916 0.000000
534.321780 307.576080 15.941875 0.000000
535.696350 307.786620 15.968523 0.000000
537.378720 304.319670 15.534326 0.000000
540.253300 304.698790 15.542246 0.000000
542.085270 305.573490 15.611782 0.000000
541.894040 296.944890 15.309444 0.000000
542.525020 305.795750 15.628273 0.000000
542.491640 297.083040 15.309965 0.000000
542.957090 306.029750 15.645727 0.000000
543.079100 297.320980 15.320189 0.000000
543.326420 306.826780 15.733838 0.000000
543.735470 307.055300 15.749915 0.000000
543.653870 297.628390 15.337096 0.000000
544.140320 307.268070 15.763516 0.000000
544.218510 297.946040 15.354624 0.000000
544.551700 307.401460 15.766479 0.000000
544.936220 307.677700 15.787246 0.000000
544.774660 298.258120 15.371135 0.000000
545.313350 307.954470 15.807697 0.000000
545.318910 298.594330 15.389757 0.000000
545.713680 308.083770 15.808597 0.000000
535.993650 310.803740 16.803123 0.000000
536.187990 307.941100 17.040956 0.000000
532.760310 310.559330 17.762659 0.000000
533.378420 299.628850 17.131575 0.000000
533.477720 307.556580 18.129208 0.000000
534.814150 297.071260 23.072550 0.000000
527.442690 310.126710 15.585228 0.000000
528.795410 303.859440 15.417060 0.000000
529.583980 309.618380 15.593367 0.000000
533.535340 297.053250 15.359770 0.000000
534.774660 304.876770 15.590447 0.000000
540.249690 304.896150 15.542035 0.000000
541.792180 298.029910 15.344797 0.000000
542.001280 305.697510 15.607056 0.000000
542.422000 305.908230 15.623363 0.000000
542.353450 298.163600 15.346052 0.000000
542.836120 306.121730 15.639542 0.000000
542.905940 298.376560 15.355280 0.000000
543.193730 306.847870 15.722264 0.000000
543.451050 298.604100 15.365586 0.000000
543.586910 307.056730 15.737155 0.000000
543.975520 307.256930 15.750448 0.000000
543.984500 298.885160 15.381229 0.000000
544.370730 307.379030 15.752941 0.000000
544.509770 299.167360 15.396576 0.000000
545.105960 307.884400 15.791180 0.000000
544.741700 307.631260 15.772192 0.000000
545.019170 299.510680 15.418203 0.000000
545.491270 308.003110 15.791730 0.000000
545.515690 299.874970 15.441795 0.000000
532.472470 310.025330 16.701944 0.000000
536.510740 291.126860 16.441513 0.000000
537.881470 290.949340 16.405144 0.000000
532.029540 307.698760 18.065931 0.000000
534.083190 310.984250 18.156357 0.000000
534.844420 297.120480 18.319839 0.000000
534.863950 297.114870 19.057165 0.000000
534.883420 297.109220 19.794830 0.000000
534.902950 297.103610 20.533543 0.000000
534.922550 297.097930 21.273979 0.000000
534.942200 297.092290 22.016905 0.000000
534.961910 297.086610 22.762991 0.000000
523.402530 304.517820 15.408869 0.000000
524.133850 304.653750 15.448574 0.000000
526.802800 310.016970 15.618036 0.000000
527.125430 309.758760 15.599907 0.000000
535.573300 308.520170 15.679167 0.000000
536.076110 296.690310 15.369150 0.000000
536.560420 295.990690 15.291400 0.000000
537.051270 303.334590 15.491302 0.000000
538.888550 295.948030 15.262079 0.000000
539.650270 308.890380 15.735526 0.000000
540.006160 308.957760 15.741644 0.000000
540.230960 303.687290 15.506834 0.000000
540.050960 296.115690 15.263527 0.000000
540.710140 309.175960 15.764530 0.000000
540.360170 309.063720 15.752920 0.000000
540.675290 303.848880 15.520710 0.000000
541.056090 309.301700 15.777571 0.000000
541.397640 309.428860 15.790242 0.000000
541.734990 309.558810 15.802759 0.000000
541.546020 304.207180 15.551260 0.000000
541.761540 296.668120 15.293291 0.000000
542.074280 309.591460 15.799922 0.000000
541.972600 304.382480 15.565204 0.000000
542.403500 309.745570 15.814957 0.000000
542.393620 304.558870 15.578741 0.000000
542.323850 296.755430 15.291744 0.000000
542.887760 309.983980 15.837544 0.000000
542.809270 304.737730 15.592060 0.000000
542.879150 296.920650 15.297975 0.000000
543.362430 310.228850 15.860094 0.000000
543.173280 305.393520 15.667112 0.000000
543.426940 297.122990 15.307659 0.000000
543.672490 310.396090 15.875067 0.000000
543.571780 305.560760 15.678073 0.000000
544.265140 310.811160 15.916105 0.000000
544.001100 310.428560 15.868643 0.000000
543.966430 305.725460 15.688181 0.000000
543.964900 297.368710 15.321525 0.000000
544.589420 310.842530 15.908411 0.000000
544.366580 305.827390 15.689482 0.000000
544.496460 297.611570 15.334599 0.000000
544.888000 310.994570 15.919024 0.000000
544.743710 306.057160 15.707146 0.000000
545.022090 297.851200 15.346838 0.000000
545.113590 306.294530 15.725383 0.000000
545.693180 306.481900 15.729255 0.000000
545.537540 298.118900 15.361677 0.000000
534.474490 300.016140 15.727360 0.000000
537.919310 290.736940 15.564509 0.000000
538.620970 291.237730 15.596988 0.000000
536.599670 290.842160 16.431374 0.000000
538.612060 290.820740 16.400007 0.000000
532.969790 309.794130 17.646101 0.000000
533.715390 308.643160 17.569216 0.000000
535.061340 297.111570 18.257248 0.000000
535.064640 297.035950 18.963846 0.000000
535.061220 296.922970 19.674965 0.000000
522.501460 304.376130 15.385997 0.000000
523.677860 304.234070 15.413214 0.000000
524.249690 310.569580 15.614031 0.000000
525.806460 309.846860 15.613506 0.000000
535.131470 308.115780 15.711384 0.000000
535.527770 308.224980 15.733130 0.000000
536.918090 311.058140 15.798221 0.000000
537.646610 302.929530 15.488675 0.000000
540.075930 296.159180 15.266353 0.000000
540.669370 303.276460 15.502529 0.000000
541.369630 308.437100 15.747439 0.000000
541.090640 303.443820 15.517536 0.000000
541.697630 308.552490 15.758442 0.000000
541.703920 296.659120 15.294071 0.000000
542.027590 308.579710 15.755201 0.000000
541.916560 303.771390 15.544983 0.000000
542.505740 308.799740 15.777020 0.000000
542.321960 303.931850 15.557461 0.000000
542.235290 296.832340 15.302988 0.000000
542.974790 309.027100 15.798937 0.000000
543.075260 304.699710 15.640572 0.000000
542.722780 304.090240 15.569135 0.000000
542.768680 296.887880 15.298368 0.000000
543.281560 309.181880 15.813378 0.000000
543.292540 297.053500 15.305374 0.000000
543.743530 309.356930 15.825003 0.000000
543.459780 304.855560 15.651065 0.000000
543.840640 305.009580 15.660812 0.000000
543.806520 297.276180 15.318213 0.000000
544.226750 305.105160 15.662150 0.000000
544.467220 309.816770 15.868748 0.000000
544.592350 305.314060 15.678291 0.000000
544.314700 297.497160 15.330396 0.000000
544.904360 310.021670 15.882153 0.000000
544.954410 305.514310 15.692820 0.000000
544.817500 297.715390 15.341797 0.000000
545.305850 310.344450 15.913645 0.000000
545.335510 305.599090 15.691095 0.000000
545.313110 297.946040 15.354134 0.000000
545.703370 305.742000 15.696774 0.000000
532.155460 309.935610 16.771572 0.000000
535.388490 307.585880 16.999037 0.000000
532.856810 310.549500 17.662222 0.000000
533.065250 310.220860 17.639858 0.000000
535.204590 308.188080 17.490580 0.000000
535.248170 301.885470 17.081539 0.000000
537.493900 291.793460 16.393463 0.000000
538.062990 291.043610 16.336117 0.000000
532.805300 307.826570 17.952131 0.000000
532.971070 309.980380 18.043346 0.000000
534.024170 307.953860 17.937674 0.000000
534.787110 297.129580 18.127190 0.000000
534.803040 297.124540 18.800404 0.000000
534.818850 297.118900 19.473837 0.000000
534.834960 297.114750 20.148075 0.000000
534.850830 297.109070 20.823847 0.000000
534.866880 297.103970 21.501753 0.000000
534.883000 297.098910 22.182434 0.000000
524.640010 309.415280 15.580326 0.000000
526.317080 308.286290 15.537001 0.000000
526.732180 308.167790 15.544279 0.000000
536.853390 309.317350 15.685125 0.000000
537.495000 305.989230 15.561695 0.000000
539.254270 309.530030 15.739951 0.000000
540.402650 309.663940 15.756119 0.000000
540.316590 306.544800 15.635928 0.000000
540.537720 295.031280 15.218318 0.000000
541.244750 309.909300 15.787227 0.000000
540.966860 309.837520 15.779230 0.000000
541.519530 310.001130 15.798174 0.000000
541.435550 302.214840 15.474472 0.000000
541.607540 295.297760 15.231339 0.000000
541.925480 310.147920 15.815049 0.000000
541.969850 307.111080 15.696084 0.000000
541.841920 302.376800 15.488677 0.000000
542.325260 310.300750 15.831872 0.000000
542.296570 307.135470 15.692548 0.000000
542.243410 302.534730 15.501811 0.000000
542.717160 310.463010 15.848994 0.000000
542.768680 307.343350 15.712830 0.000000
542.640380 302.690640 15.514142 0.000000
543.351930 310.770170 15.881650 0.000000
543.102600 310.632690 15.866365 0.000000
543.231570 307.565800 15.734338 0.000000
543.033200 302.844670 15.525692 0.000000
543.602170 310.884550 15.892242 0.000000
543.534360 307.718350 15.748676 0.000000
542.135250 295.448390 15.238962 0.000000
542.657710 295.612880 15.247589 0.000000
543.373350 303.432860 15.595083 0.000000
543.183470 295.671970 15.243952 0.000000
543.695680 295.869290 15.255173 0.000000
543.849730 310.999820 15.902475 0.000000
543.992130 307.886960 15.759605 0.000000
544.125730 303.727750 15.614202 0.000000
544.202820 296.064330 15.265643 0.000000
544.398190 308.287350 15.806494 0.000000
544.506100 303.820010 15.615492 0.000000
544.707210 308.337860 15.802575 0.000000
544.865050 304.023280 15.631365 0.000000
544.703550 296.271880 15.277030 0.000000
545.130130 308.580930 15.822480 0.000000
545.218810 304.228580 15.647064 0.000000
545.199400 296.478820 15.287866 0.000000
545.592650 304.320980 15.646792 0.000000
545.688660 296.696780 15.299469 0.000000
538.692690 291.244480 15.585898 0.000000
539.885930 290.648590 15.518194 0.000000
535.999080 308.930510 16.770350 0.000000
535.799740 295.754300 16.677511 0.000000
537.532100 291.654420 16.386675 0.000000
538.082030 291.025330 16.338100 0.000000
538.683110 290.881810 16.320692 0.000000
533.023620 307.751830 17.914461 0.000000
533.842410 307.958590 17.911541 0.000000
532.738650 307.952550 17.927534 0.000000
535.010800 297.121280 17.415102 0.000000
535.034420 297.088650 18.690266 0.000000
535.037540 297.029420 19.329676 0.000000
535.040650 296.969790 19.972317 0.000000
520.951720 307.881990 15.476863 0.000000
523.007930 306.749480 15.473469 0.000000
523.743770 306.257970 15.457897 0.000000
525.208980 305.314480 15.423106 0.000000
538.643800 297.124480 15.278481 0.000000
539.121640 309.169400 15.718341 0.000000
539.420040 306.416660 15.605118 0.000000
539.912660 309.161320 15.722342 0.000000
540.356510 306.553280 15.628579 0.000000
540.539790 297.361390 15.303038 0.000000
540.664980 306.632900 15.640816 0.000000
541.714360 286.185300 14.790639 0.000000
541.346070 309.399230 15.762688 0.000000
541.273560 306.782230 15.661938 0.000000
541.724370 302.993130 15.504782 0.000000
541.472720 297.483670 15.312593 0.000000
541.853700 309.532010 15.781639 0.000000
541.872130 306.938350 15.681911 0.000000
542.088810 303.096130 15.515987 0.000000
541.936100 297.552280 15.317480 0.000000
542.229060 309.640750 15.796148 0.000000
542.175050 306.922700 15.675583 0.000000
542.450380 303.198240 15.526530 0.000000
542.397220 297.628390 15.322754 0.000000
542.721560 309.798490 15.815853 0.000000
542.476440 309.718020 15.805977 0.000000
542.614870 307.065860 15.692494 0.000000
542.809390 303.299530 15.536421 0.000000
542.856080 297.712280 15.328447 0.000000
543.033080 286.350860 14.797712 0.000000
543.084780 309.926510 15.830969 0.000000
543.048890 307.218630 15.709925 0.000000
543.166140 303.400020 15.545670 0.000000
543.311580 297.812840 15.335640 0.000000
543.683170 286.524840 14.809486 0.000000
543.443480 310.060670 15.846170 0.000000
543.616090 307.441740 15.734459 0.000000
543.333920 307.328890 15.722239 0.000000
543.475280 303.857420 15.605637 0.000000
543.773070 297.840180 15.333467 0.000000
543.913510 310.250060 15.866501 0.000000
543.679440 310.154820 15.856493 0.000000
543.895510 307.556700 15.746522 0.000000
544.223630 297.959500 15.341900 0.000000
544.324040 286.750820 14.825926 0.000000
544.263850 310.383580 15.878664 0.000000
544.321470 307.672270 15.754054 0.000000
544.349060 304.039180 15.615332 0.000000
544.614750 310.506770 15.887770 0.000000
544.719970 307.904720 15.780185 0.000000
544.850830 304.256350 15.635313 0.000000
544.672120 298.078190 15.349752 0.000000
544.969730 286.878690 14.832224 0.000000
545.076970 310.681520 15.899960 0.000000
544.846920 310.591670 15.893656 0.000000
544.988950 308.028440 15.791705 0.000000
545.180600 304.405700 15.648648 0.000000
545.118840 298.196320 15.357044 0.000000
545.594540 287.155150 14.852748 0.000000
545.416440 310.828830 15.910786 0.000000
545.255250 308.154720 15.803157 0.000000
545.529910 304.460690 15.647745 0.000000
545.558170 298.346190 15.367701 0.000000
545.749820 310.988620 15.923021 0.000000
535.821230 310.708680 16.552362 0.000000
536.343870 290.758910 15.253503 0.000000
536.105410 310.780180 16.255049 0.000000
536.059690 298.612790 16.586468 0.000000
536.920040 290.551240 15.974401 0.000000
537.564700 291.061370 16.011265 0.000000
538.728030 291.082980 16.008945 0.000000
533.045720 307.756770 17.663261 0.000000
533.292110 292.990910 16.863771 0.000000
535.201720 294.066100 16.911930 0.000000
533.297180 307.522670 18.046497 0.000000
534.813720 297.123050 17.682121 0.000000
534.823180 297.118560 18.284065 0.000000
534.832640 297.113980 18.885904 0.000000
534.841740 297.107790 19.488281 0.000000
534.851260 297.103180 20.091663 0.000000
534.860780 297.098570 20.696690 0.000000
534.870300 297.093990 21.303905 0.000000
521.403020 310.857390 15.614339 0.000000
528.286320 309.853880 15.573682 0.000000
539.832210 309.058110 15.714184 0.000000
540.436710 306.814970 15.617313 0.000000
540.303100 309.067720 15.720870 0.000000
541.598330 304.052520 15.531454 0.000000
541.237060 309.182430 15.746960 0.000000
541.522090 307.064580 15.662735 0.000000
541.915950 304.139250 15.543955 0.000000
541.696530 309.268370 15.762547 0.000000
541.920780 307.148560 15.675847 0.000000
541.824100 310.975400 15.847602 0.000000
542.037230 309.342250 15.774698 0.000000
542.315920 307.239590 15.689209 0.000000
542.374940 309.422450 15.787081 0.000000
542.576900 307.305420 15.698378 0.000000
542.708920 309.509430 15.799555 0.000000
542.964360 307.414220 15.712945 0.000000
543.149110 309.635650 15.816576 0.000000
543.474060 307.572540 15.733143 0.000000
543.583010 309.773440 15.833943 0.000000
543.851260 307.699800 15.748621 0.000000
544.011290 309.919010 15.850913 0.000000
544.225400 307.825230 15.762581 0.000000
544.329590 310.030980 15.862984 0.000000
544.595890 307.957030 15.776746 0.000000
544.649540 310.131290 15.871389 0.000000
544.962160 308.095000 15.790854 0.000000
545.074220 310.269200 15.881754 0.000000
545.324710 308.239010 15.805132 0.000000
545.494510 310.419040 15.892567 0.000000
545.683840 308.386990 15.818966 0.000000
535.411560 294.448330 15.238932 0.000000
535.409610 301.868230 15.595573 0.000000
536.987490 300.188450 15.394823 0.000000
539.325130 293.314640 15.132339 0.000000
540.123290 299.782440 15.362367 0.000000
540.853820 293.421720 15.146047 0.000000
541.360290 293.441410 15.148031 0.000000
541.308040 300.112790 15.407724 0.000000
542.371830 293.479920 15.150751 0.000000
541.275630 304.253170 15.563585 0.000000
541.696590 300.164790 15.414116 0.000000
542.083680 300.216250 15.419985 0.000000
542.874270 293.554080 15.157711 0.000000
542.225220 304.322420 15.571138 0.000000
542.469360 300.270600 15.425804 0.000000
543.376830 293.606020 15.161785 0.000000
542.536990 304.398770 15.581060 0.000000
542.853580 300.329830 15.431844 0.000000
543.870480 293.747280 15.175551 0.000000
542.846310 304.481870 15.591578 0.000000
543.235230 300.404820 15.439564 0.000000
543.305790 304.612760 15.607395 0.000000
543.983150 300.642460 15.465569 0.000000
543.610230 300.526860 15.453211 0.000000
544.361210 293.884550 15.188498 0.000000
543.760440 304.752470 15.623679 0.000000
544.353150 300.762420 15.478094 0.000000
544.847720 294.032200 15.202247 0.000000
544.077330 304.749570 15.618723 0.000000
544.720090 300.887150 15.490851 0.000000
545.333800 294.162690 15.213692 0.000000
544.529910 304.880860 15.631802 0.000000
545.084290 301.014400 15.503534 0.000000
545.445190 301.147370 15.516590 0.000000
545.241520 305.257600 15.676641 0.000000
545.676760 305.418760 15.691818 0.000000
537.029360 291.451870 15.600098 0.000000
538.133120 291.541020 15.610373 0.000000
536.441280 291.158260 16.263279 0.000000
536.411250 301.128600 16.946922 0.000000
537.620730 291.773470 16.304882 0.000000
532.644100 307.916320 17.779488 0.000000
532.579280 310.757320 17.923189 0.000000
532.500370 310.216280 17.896723 0.000000
532.894780 309.391050 17.850096 0.000000
533.857060 308.351930 17.787552 0.000000
535.998170 291.842250 16.310394 0.000000
534.602910 308.639220 17.793976 0.000000
538.093140 291.081480 16.257206 0.000000
534.821780 293.961760 17.091591 0.000000
535.201720 293.290130 17.058001 0.000000
535.064510 297.089870 17.804325 0.000000
535.071590 297.079320 18.369881 0.000000
535.082950 297.086490 18.935415 0.000000
535.081480 297.040250 19.503370 0.000000
535.080080 296.994200 20.074369 0.000000
535.078860 296.948610 20.648888 0.000000
525.698670 310.421940 15.610569 0.000000
526.883360 309.267210 15.570319 0.000000
539.002380 309.943880 15.751077 0.000000
539.746890 309.752470 15.742193 0.000000
540.161740 308.211330 15.685907 0.000000
539.941470 309.754910 15.750532 0.000000
541.086550 309.650570 15.761457 0.000000
541.575320 308.217100 15.719923 0.000000
541.640870 310.954040 15.852699 0.000000
541.755370 309.721800 15.789610 0.000000
542.007510 308.245760 15.731666 0.000000
541.892880 310.983580 15.863034 0.000000
542.040100 309.744690 15.798027 0.000000
542.229370 309.763430 15.803745 0.000000
542.437870 308.288910 15.744379 0.000000
542.228580 311.010710 15.871943 0.000000
542.480040 311.032470 15.877666 0.000000
542.512270 309.798190 15.812815 0.000000
542.865970 308.345460 15.757854 0.000000
542.731450 311.056340 15.882599 0.000000
542.888310 309.849120 15.824239 0.000000
543.291560 308.414370 15.771874 0.000000
543.261840 309.913820 15.836761 0.000000
543.609070 308.473660 15.782714 0.000000
543.725400 310.009520 15.852826 0.000000
543.925420 308.537690 15.793287 0.000000
544.186770 310.114560 15.868042 0.000000
544.346440 308.626710 15.806467 0.000000
544.557250 310.196690 15.877347 0.000000
544.764890 308.727570 15.820104 0.000000
544.929380 310.279720 15.884742 0.000000
545.180970 308.839320 15.833994 0.000000
545.300110 310.374210 15.892659 0.000000
545.601260 308.943050 15.844160 0.000000
545.668880 310.480770 15.901242 0.000000
534.501830 302.525180 15.543686 0.000000
536.206480 301.060910 15.405730 0.000000
536.564270 301.033020 15.413750 0.000000
536.176510 305.290770 15.628224 0.000000
539.340880 300.551510 15.424693 0.000000
539.667420 300.243560 15.389002 0.000000
540.384640 300.280150 15.409409 0.000000
540.740540 300.281100 15.416502 0.000000
540.277220 303.740970 15.518793 0.000000
541.096680 300.324580 15.429169 0.000000
540.863460 303.599030 15.508204 0.000000
541.451050 300.345640 15.438243 0.000000
541.310730 303.732570 15.538251 0.000000
541.804690 300.367190 15.446968 0.000000
542.169740 300.043880 15.406971 0.000000
541.752750 303.754640 15.549129 0.000000
542.528380 300.068360 15.415357 0.000000
541.588560 306.271700 15.637267 0.000000
542.046750 303.773190 15.556391 0.000000
542.886780 300.091740 15.423173 0.000000
541.963750 306.296780 15.647373 0.000000
542.486760 303.808410 15.567562 0.000000
543.237490 300.204130 15.442984 0.000000
542.337650 306.330020 15.657767 0.000000
543.595150 300.222840 15.449309 0.000000
542.834410 306.384800 15.671928 0.000000
543.229860 303.768680 15.568160 0.000000
543.951050 300.260830 15.457906 0.000000
543.205630 306.434080 15.682847 0.000000
543.799010 303.966860 15.603716 0.000000
543.521120 303.822940 15.578929 0.000000
544.306520 300.303440 15.466734 0.000000
543.574770 306.494780 15.694669 0.000000
544.088750 304.013280 15.612298 0.000000
544.661680 300.349210 15.475590 0.000000
543.942440 306.561890 15.706700 0.000000
544.377750 304.063660 15.621065 0.000000
545.193480 300.427310 15.489361 0.000000
544.309690 306.630620 15.717833 0.000000
544.809940 304.145630 15.634352 0.000000
545.724490 300.513310 15.503407 0.000000
544.797300 306.732880 15.733019 0.000000
545.240840 304.234590 15.647854 0.000000
545.161070 306.818760 15.744902 0.000000
545.527100 304.298800 15.657047 0.000000
545.523070 306.912660 15.757051 0.000000
535.057620 298.355380 15.503484 0.000000
538.784300 295.357210 15.243708 0.000000
540.104370 295.136230 15.244058 0.000000
540.527340 294.498320 15.176390 0.000000
541.439820 294.434050 15.184641 0.000000
541.897520 294.403140 15.188410 0.000000
542.353760 294.453000 15.201374 0.000000
542.814940 294.385190 15.200125 0.000000
543.277400 294.344600 15.201765 0.000000
543.739810 294.333560 15.206549 0.000000
544.203310 294.328640 15.211719 0.000000
544.668270 294.327120 15.216951 0.000000
545.134400 294.331760 15.222572 0.000000
545.602110 294.339600 15.228234 0.000000
534.877200 297.722990 15.947376 0.000000
535.865050 296.475560 15.849852 0.000000
536.729130 290.951780 15.337811 0.000000
535.592960 301.453610 16.319683 0.000000
538.843200 291.073360 15.390165 0.000000
540.395020 291.052760 15.415956 0.000000
533.126770 300.001280 16.608528 0.000000
534.002080 300.141540 16.633400 0.000000
535.679140 293.552000 16.171085 0.000000
536.316590 291.636470 16.039169 0.000000
535.513790 298.480100 16.534805 0.000000
536.709290 290.846950 15.986939 0.000000
535.645870 300.372650 16.677713 0.000000
538.836790 291.073430 16.038891 0.000000
535.054500 292.995150 16.119371 0.000000
535.673100 291.020230 15.982727 0.000000
535.974910 298.678530 16.557171 0.000000
538.299870 290.910460 16.017912 0.000000
531.841490 307.758850 17.861776 0.000000
534.601500 295.096620 16.844116 0.000000
534.861760 294.248110 16.801867 0.000000
535.165530 293.469390 16.763992 0.000000
532.738220 309.352940 17.915890 0.000000
532.892700 307.824830 17.854923 0.000000
536.681950 290.695010 16.635988 0.000000
535.575870 300.122530 17.122110 0.000000
528.544190 310.309970 15.596689 0.000000
536.868770 305.174710 15.536880 0.000000
536.369510 310.993740 15.821393 0.000000
540.203860 304.314330 15.531838 0.000000
539.590390 308.051670 15.676559 0.000000
540.587890 304.295170 15.539873 0.000000
539.685670 309.279570 15.728404 0.000000
539.957280 307.907070 15.662400 0.000000
540.557500 306.294460 15.612879 0.000000
540.971440 304.284480 15.548179 0.000000
540.888850 306.279570 15.620086 0.000000
541.354610 304.281490 15.556868 0.000000
541.025270 307.847960 15.690462 0.000000
541.330260 306.271090 15.630266 0.000000
541.217900 309.072140 15.747435 0.000000
541.411560 307.838010 15.699253 0.000000
541.770870 306.275300 15.640938 0.000000
541.475220 309.065890 15.753374 0.000000
541.797300 307.839660 15.708529 0.000000
542.210330 306.292570 15.652174 0.000000
541.818050 309.068820 15.762294 0.000000
542.182250 307.852810 15.718271 0.000000
542.539120 306.312930 15.660809 0.000000
542.245360 309.087860 15.774109 0.000000
542.470210 307.871580 15.726265 0.000000
542.661680 307.888790 15.731938 0.000000
542.866940 306.342220 15.669954 0.000000
542.586060 309.113590 15.784003 0.000000
542.755800 309.130890 15.789159 0.000000
542.948000 307.920010 15.740612 0.000000
543.302490 306.391390 15.682474 0.000000
543.009640 309.162020 15.797095 0.000000
543.328120 307.971830 15.752717 0.000000
543.735530 306.456790 15.696212 0.000000
543.430480 309.226350 15.810743 0.000000
543.706120 308.034790 15.765219 0.000000
544.167050 306.529080 15.709298 0.000000
543.848510 309.304810 15.824791 0.000000
544.082760 308.103820 15.777008 0.000000
544.596500 306.612090 15.722504 0.000000
544.264100 309.394200 15.838001 0.000000
544.457520 308.181760 15.788703 0.000000
545.023440 306.707340 15.736135 0.000000
544.676510 309.497800 15.851640 0.000000
544.922420 308.295720 15.803991 0.000000
545.341860 306.786710 15.746680 0.000000
545.008000 309.579160 15.859652 0.000000
545.383240 308.426030 15.819911 0.000000
545.658510 306.873630 15.757470 0.000000
545.421630 309.690000 15.868774 0.000000
545.753420 308.529750 15.830063 0.000000
533.864560 301.033910 15.519624 0.000000
535.199770 301.624050 15.653884 0.000000
535.409730 302.983400 15.458883 0.000000
535.626340 302.714540 15.429443 0.000000
538.912110 298.253480 15.336063 0.000000
539.281310 298.270840 15.348286 0.000000
539.158020 301.936800 15.455660 0.000000
540.345890 297.930240 15.328709 0.000000
539.437260 301.776030 15.439408 0.000000
539.735350 301.728150 15.440855 0.000000
540.710510 297.884460 15.330664 0.000000
542.746150 290.367100 14.986346 0.000000
540.021360 301.570340 15.424346 0.000000
541.082820 298.004030 15.354582 0.000000
540.634520 301.614810 15.447292 0.000000
541.437440 297.586790 15.305560 0.000000
543.247070 290.310060 14.988001 0.000000
540.935490 301.586060 15.449951 0.000000
541.809140 297.598600 15.314131 0.000000
543.746150 290.324890 14.997313 0.000000
541.237490 301.570920 15.454298 0.000000
542.179990 297.649380 15.327493 0.000000
544.245850 290.340150 15.006300 0.000000
541.690980 301.577550 15.464495 0.000000
542.552000 297.598720 15.326811 0.000000
542.926030 297.551180 15.326148 0.000000
544.746280 290.355770 15.014954 0.000000
541.609620 304.283170 15.562651 0.000000
542.143740 301.593380 15.475191 0.000000
