# .PCD v0.7 - Point Cloud Data file format
VERSION 0.7
FIELDS x y z intensity
SIZE 4 4 4 4
TYPE F F F F
COUNT 1 1 1 1
WIDTH 1166
HEIGHT 1
VIEWPOINT 0 0 0 1 0 0 0
POINTS 1166
DATA ascii
531.618650 281.240810 14.562335 0.000000
533.801570 281.379430 14.584969 0.000000
534.010930 281.145870 14.583454 0.000000
536.519410 281.353390 14.609850 0.000000
539.457580 281.594120 14.673861 0.000000
539.697080 281.400450 14.659944 0.000000
545.683780 281.820530 14.612278 0.000000
530.929380 281.684360 14.570945 0.000000
533.340760 281.804350 14.592056 0.000000
533.601380 281.624390 14.583504 0.000000
536.099000 281.798070 14.623611 0.000000
539.079650 282.036740 14.689822 0.000000
539.258730 281.809810 14.683123 0.000000
545.506040 282.165010 14.620960 0.000000
530.045410 282.148900 14.579497 0.000000
530.456670 281.955690 14.574611 0.000000
532.911380 282.103850 14.603082 0.000000
535.669800 282.230800 14.635619 0.000000
538.901000 282.262940 14.695966 0.000000
528.932680 282.531040 14.594681 0.000000
529.284970 282.442470 14.587787 0.000000
529.711550 282.290830 14.582810 0.000000
532.124150 282.609830 14.618877 0.000000
532.478580 282.393460 14.612088 0.000000
534.996030 282.756410 14.657974 0.000000
535.314090 282.562100 14.644650 0.000000
538.254030 282.851680 14.723377 0.000000
538.448670 282.642180 14.716959 0.000000
545.027530 282.789890 14.645883 0.000000
520.851500 282.446140 14.462858 0.000000
521.288510 282.597690 14.477696 0.000000
521.732240 282.724640 14.493135 0.000000
527.727050 282.886600 14.593061 0.000000
528.070620 282.781250 14.596667 0.000000
528.503660 282.664090 14.596197 0.000000
528.762150 282.587710 14.595194 0.000000
531.307860 283.056150 14.631701 0.000000
531.659120 282.841670 14.629750 0.000000
534.439150 283.035460 14.682546 0.000000
534.768550 282.865780 14.668782 0.000000
537.826840 283.235900 14.738965 0.000000
538.042050 283.046140 14.731218 0.000000
544.534180 283.395110 14.669754 0.000000
544.888670 283.151030 14.649894 0.000000
522.088990 282.813230 14.504794 0.000000
522.446470 282.892490 14.515585 0.000000
522.804570 282.962740 14.525465 0.000000
523.252990 283.037260 14.536544 0.000000
523.701970 283.099210 14.546252 0.000000
524.061650 283.138520 14.552965 0.000000
524.421690 283.169100 14.558779 0.000000
524.872190 283.194180 14.564795 0.000000
525.232850 283.204960 14.568800 0.000000
526.045410 283.200350 14.573590 0.000000
526.406430 283.179020 14.575055 0.000000
526.854000 283.116850 14.578995 0.000000
527.295290 283.019260 14.585081 0.000000
527.555730 282.944000 14.589636 0.000000
530.864010 283.317170 14.631821 0.000000
531.132390 283.164030 14.631675 0.000000
534.068970 283.334290 14.688417 0.000000
537.651670 283.458310 14.741726 0.000000
544.282710 283.690610 14.681257 0.000000
529.833740 283.786930 14.635096 0.000000
530.122800 283.677310 14.633247 0.000000
530.496700 283.503940 14.632694 0.000000
533.162290 283.900910 14.707293 0.000000
533.716490 283.654850 14.689144 0.000000
537.008240 284.016910 14.760448 0.000000
537.313960 283.916900 14.744064 0.000000
537.577700 283.771940 14.732317 0.000000
543.942690 283.930300 14.699071 0.000000
520.874210 283.580540 14.570601 0.000000
521.168090 283.663390 14.580568 0.000000
521.561040 283.764340 14.593252 0.000000
521.955020 283.853790 14.605219 0.000000
522.352050 283.923680 14.617580 0.000000
522.650150 283.967930 14.626532 0.000000
526.896240 284.104950 14.684475 0.000000
527.294310 284.084200 14.681683 0.000000
527.694400 284.057130 14.677523 0.000000
528.096860 284.023560 14.671992 0.000000
528.501890 283.982970 14.665116 0.000000
528.909970 283.935910 14.656776 0.000000
529.321290 283.881590 14.647024 0.000000
529.635190 283.844240 14.637716 0.000000
531.599000 284.228640 14.772621 0.000000
532.067200 284.131380 14.755316 0.000000
532.426150 284.058290 14.740602 0.000000
532.791320 283.981140 14.724533 0.000000
536.124690 284.307650 14.804578 0.000000
536.417110 284.215420 14.790294 0.000000
536.709780 284.116700 14.775805 0.000000
543.642270 284.409300 14.708570 0.000000
522.848570 283.994870 14.632086 0.000000
523.145690 284.031680 14.639781 0.000000
523.542300 284.067570 14.649944 0.000000
523.938900 284.088380 14.659888 0.000000
524.334110 284.102600 14.668515 0.000000
524.826350 284.112430 14.677198 0.000000
525.219300 284.121460 14.681875 0.000000
526.104740 284.126770 14.686170 0.000000
526.499820 284.119020 14.685979 0.000000
530.412720 284.614290 14.793597 0.000000
530.794920 284.378450 14.799034 0.000000
531.137210 284.316960 14.788314 0.000000
543.328310 284.880100 14.717965 0.000000
530.842650 285.026550 14.735804 0.000000
542.942380 285.070680 14.737492 0.000000
530.158630 285.192930 14.747908 0.000000
530.387330 285.142400 14.743901 0.000000
535.689210 285.507230 14.763092 0.000000
535.936650 285.358890 14.756959 0.000000
536.204100 285.231020 14.747866 0.000000
542.348940 285.558750 14.761112 0.000000
528.399170 285.750920 14.743310 0.000000
528.734740 285.664640 14.744678 0.000000
529.069150 285.574010 14.745457 0.000000
534.718630 285.862580 14.796271 0.000000
535.135990 285.720030 14.782215 0.000000
535.414790 285.618900 14.772477 0.000000
541.643860 285.940580 14.792114 0.000000
542.051330 285.795870 14.772313 0.000000
520.790160 285.608890 14.626263 0.000000
521.134770 285.695250 14.635710 0.000000
521.595950 285.797790 14.647850 0.000000
521.942320 285.867340 14.656375 0.000000
522.289550 285.927700 14.664525 0.000000
522.637330 285.980800 14.672376 0.000000
526.692630 286.048890 14.732523 0.000000
527.151430 285.990910 14.736004 0.000000
527.607790 285.917240 14.739037 0.000000
527.947810 285.849760 14.741293 0.000000
528.173890 285.802090 14.742379 0.000000
534.302490 285.996340 14.809757 0.000000
522.869450 286.011690 14.677367 0.000000
523.217960 286.050050 14.684630 0.000000
521.987120 263.146610 14.273687 0.000000
522.360720 263.138980 14.407657 0.000000
522.205930 263.237790 14.528877 0.000000
535.328610 280.034550 15.065269 0.000000
525.397030 280.120850 15.035117 0.000000
525.652830 280.171480 15.028996 0.000000
522.054080 263.340180 14.871537 0.000000
522.320680 263.309270 14.878376 0.000000
535.330570 280.028660 15.469893 0.000000
525.394780 280.132660 15.276701 0.000000
525.648380 280.113620 15.280370 0.000000
522.137630 263.033840 15.406610 0.000000
522.512570 263.032170 15.302780 0.000000
521.973690 263.377530 15.315235 0.000000
522.254090 263.389280 15.214755 0.000000
522.468020 263.491640 15.444726 0.000000
523.199650 263.621580 15.468922 0.000000
523.406430 263.793950 15.383831 0.000000
523.747440 263.862400 15.295418 0.000000
521.984250 265.324160 15.372916 0.000000
521.468080 265.872890 15.398661 0.000000
521.701480 265.716160 15.395103 0.000000
521.360900 265.965670 15.401753 0.000000
525.834290 277.999270 15.699994 0.000000
526.281740 277.941470 15.759912 0.000000
522.697020 278.349880 15.844698 0.000000
526.058040 278.331540 15.793444 0.000000
527.132390 278.378300 15.780604 0.000000
527.272400 278.394170 15.582975 0.000000
526.969240 278.698880 15.698548 0.000000
526.798340 278.951540 15.819832 0.000000
524.923520 279.482570 15.785973 0.000000
525.150760 279.607450 15.857172 0.000000
525.872130 279.381010 15.798964 0.000000
523.153080 279.722200 15.810886 0.000000
525.359920 279.826540 15.773835 0.000000
525.675900 279.884920 15.696460 0.000000
526.132930 279.905240 15.697740 0.000000
526.436340 279.843350 15.777611 0.000000
535.332580 280.022800 15.873143 0.000000
525.455510 280.110080 15.520753 0.000000
524.515260 280.528380 15.810959 0.000000
521.928410 262.981510 15.626424 0.000000
522.588260 262.974400 15.636775 0.000000
521.917480 263.478910 15.648922 0.000000
523.044130 263.337430 15.660459 0.000000
522.487490 263.555880 15.661931 0.000000
523.902950 263.833130 15.496065 0.000000
524.378910 263.793610 15.500744 0.000000
520.859800 264.078860 15.656466 0.000000
522.232360 264.334080 15.495156 0.000000
522.142640 264.539980 15.506481 0.000000
523.580630 264.605440 15.727011 0.000000
523.734620 264.626770 15.730167 0.000000
524.157710 264.486850 15.729268 0.000000
524.599610 264.488680 15.734740 0.000000
521.972470 264.931340 15.527677 0.000000
522.070190 264.773470 15.519946 0.000000
523.790100 264.902710 15.566930 0.000000
521.443790 265.375550 15.541299 0.000000
521.761960 265.188930 15.538600 0.000000
521.332030 265.628360 15.553959 0.000000
526.173580 277.841220 15.934382 0.000000
523.032780 278.112700 15.991987 0.000000
523.315000 278.175140 15.999307 0.000000
526.995000 278.450960 15.906684 0.000000
522.601070 278.538730 16.042221 0.000000
523.343140 278.615050 15.991844 0.000000
523.834050 278.477600 16.005796 0.000000
524.235720 278.525180 16.012484 0.000000
524.529660 278.656400 16.014647 0.000000
525.731510 278.568880 16.030609 0.000000
526.713680 278.829830 16.095480 0.000000
526.869140 278.575070 15.967757 0.000000
523.966920 278.961730 16.136587 0.000000
524.074100 278.985530 16.138205 0.000000
524.703370 279.033110 16.077137 0.000000
524.883730 279.171600 16.149101 0.000000
525.494380 279.215210 16.155485 0.000000
525.646910 278.880580 16.023483 0.000000
526.150630 279.080900 16.160318 0.000000
525.043460 279.334380 16.079407 0.000000
525.267820 279.528960 16.080544 0.000000
526.069700 279.344940 16.017540 0.000000
526.573430 279.563140 16.015251 0.000000
526.807800 279.517030 16.016371 0.000000
525.448120 279.773380 16.005228 0.000000
526.309270 279.846130 16.009405 0.000000
526.504390 279.890140 16.165384 0.000000
526.861390 279.769410 16.166935 0.000000
535.333920 280.018890 16.141489 0.000000
526.108830 280.316830 16.164152 0.000000
527.443300 280.489260 15.999022 0.000000
524.045840 280.455630 15.974154 0.000000
525.944340 280.769810 16.164375 0.000000
527.325200 280.589170 16.172218 0.000000
527.574580 280.705290 16.085833 0.000000
525.389400 280.925050 16.159998 0.000000
527.817870 281.282810 16.176899 0.000000
522.403870 261.160980 16.075779 0.000000
521.952450 262.472900 15.841681 0.000000
521.250730 262.765810 16.079384 0.000000
521.913270 262.939000 15.967781 0.000000
522.465450 262.876310 16.082836 0.000000
522.626280 262.948730 15.971768 0.000000
523.219910 262.946110 16.086330 0.000000
523.789920 263.149630 15.876325 0.000000
524.279910 262.922490 16.092749 0.000000
521.879820 263.503300 15.975170 0.000000
523.110050 263.248080 15.980562 0.000000
523.470150 263.298130 15.983889 0.000000
523.872620 263.403810 15.988273 0.000000
524.213870 263.456510 15.992304 0.000000
524.658690 263.339720 16.097044 0.000000
524.993230 263.390290 16.100000 0.000000
521.769170 263.577670 16.084057 0.000000
522.524350 263.676820 15.981398 0.000000
524.681400 263.620610 15.896705 0.000000
521.910340 264.585540 15.894167 0.000000
521.500060 264.987030 16.281544 0.000000
521.765380 264.834840 16.090210 0.000000
521.516300 265.406220 16.094530 0.000000
521.625430 265.242650 16.092319 0.000000
521.118840 265.826110 16.274733 0.000000
521.361570 265.602540 16.184748 0.000000
520.902100 266.016080 16.275425 0.000000
538.218570 266.485230 16.411793 0.000000
538.810060 266.487670 16.266804 0.000000
524.256840 277.477020 16.396435 0.000000
524.010740 277.906860 16.593170 0.000000
524.553650 277.731080 16.466169 0.000000
525.069270 277.808260 16.473938 0.000000
525.200010 277.813390 16.475290 0.000000
525.955200 277.923680 16.604313 0.000000
526.060060 277.701970 16.586210 0.000000
527.370730 277.923920 16.400499 0.000000
523.895080 278.065340 16.548695 0.000000
524.090520 278.179500 16.496069 0.000000
524.617740 278.209140 16.456083 0.000000
525.284000 278.042630 16.491779 0.000000
527.356380 278.289030 16.480391 0.000000
522.710690 278.556760 16.251654 0.000000
523.096010 278.552150 16.323004 0.000000
523.387020 278.613740 16.325994 0.000000
523.780580 278.551940 16.326883 0.000000
524.184940 278.500310 16.454054 0.000000
524.680420 278.559330 16.397207 0.000000
524.854430 278.798430 16.540512 0.000000
525.477840 278.626370 16.596445 0.000000
525.738040 278.634770 16.451849 0.000000
526.343080 278.590730 16.478189 0.000000
526.977660 278.581790 16.488043 0.000000
527.233950 278.584140 16.426767 0.000000
522.574100 279.053990 16.486567 0.000000
522.865170 278.892360 16.475609 0.000000
523.193180 278.830170 16.472532 0.000000
524.417420 278.884310 16.544441 0.000000
525.407170 279.024350 16.356707 0.000000
525.651060 279.047640 16.564732 0.000000
526.290100 278.904140 16.294834 0.000000
526.925050 279.250700 16.598927 0.000000
524.697080 279.343200 16.290480 0.000000
524.867430 279.361600 16.292582 0.000000
525.664980 279.316990 16.441130 0.000000
526.646670 279.480710 16.385736 0.000000
526.912960 279.450130 16.388130 0.000000
535.335140 280.012510 16.544003 0.000000
525.316890 280.246120 16.561892 0.000000
525.774780 280.253330 16.323647 0.000000
526.080440 280.385280 16.412851 0.000000
524.976200 280.620270 16.495630 0.000000
526.189450 280.475040 16.501301 0.000000
526.384280 280.662320 16.515142 0.000000
526.887210 280.547090 16.686033 0.000000
524.657960 281.152040 16.517929 0.000000
524.822880 280.871520 16.506115 0.000000
525.316470 281.030400 16.338686 0.000000
526.093200 280.918980 16.698881 0.000000
526.563720 280.939910 16.617113 0.000000
527.103820 280.898010 16.713860 0.000000
526.888790 281.327850 16.550026 0.000000
521.754880 261.874510 16.327921 0.000000
523.705080 262.649570 16.538015 0.000000
524.434330 262.737580 16.535521 0.000000
524.690920 262.596130 16.542402 0.000000
520.926700 262.968020 16.551851 0.000000
521.821660 262.818510 16.428463 0.000000
522.697940 262.873720 16.421291 0.000000
523.203800 262.875950 16.308105 0.000000
523.590270 263.018830 16.306005 0.000000
523.876400 262.878020 16.420298 0.000000
524.233030 262.919400 16.420174 0.000000
524.642210 263.129790 16.308376 0.000000
525.064450 263.077580 16.312431 0.000000
521.613400 263.653410 16.516649 0.000000
521.800780 263.659030 16.406160 0.000000
522.583190 263.730410 16.397354 0.000000
523.575870 263.848880 16.691179 0.000000
523.789430 263.909270 16.587469 0.000000
524.373780 263.822080 16.689939 0.000000
521.441710 264.505340 16.288969 0.000000
521.227970 264.789730 16.484293 0.000000
521.056580 265.433930 16.467155 0.000000
520.940250 265.670500 16.462614 0.000000
523.201050 266.271210 16.702833 0.000000
538.232790 266.468870 16.725609 0.000000
538.785640 266.484800 16.752787 0.000000
525.893860 277.590550 16.891895 0.000000
526.156070 277.572480 16.827372 0.000000
526.504390 277.533290 16.957842 0.000000
527.504330 277.594420 16.965136 0.000000
523.467410 277.901890 16.958057 0.000000
523.766540 277.819030 16.993740 0.000000
523.995420 277.942990 16.948303 0.000000
524.500000 277.761960 16.744122 0.000000
525.837220 277.808470 16.812635 0.000000
526.285890 277.751860 16.929541 0.000000
527.474850 277.840760 16.878784 0.000000
523.575930 278.030610 16.851078 0.000000
523.838750 278.076750 16.790546 0.000000
524.085880 278.174560 16.857698 0.000000
525.512510 278.183720 16.797684 0.000000
525.653870 278.173280 16.798422 0.000000
526.303710 278.370940 16.962603 0.000000
527.091490 278.422790 16.804707 0.000000
527.323550 278.216890 16.917971 0.000000
524.225890 278.454620 16.831024 0.000000
524.491760 278.709470 16.926098 0.000000
522.684510 278.868800 16.693127 0.000000
524.933720 279.159640 16.705194 0.000000
525.321040 279.008880 16.967661 0.000000
526.720830 279.132170 16.871037 0.000000
526.860840 279.108460 16.800577 0.000000
527.163090 279.036680 16.874170 0.000000
525.018490 279.283690 16.859461 0.000000
525.173650 279.444120 16.951580 0.000000
525.843380 279.494050 17.040119 0.000000
526.430730 279.461640 16.974085 0.000000
523.059510 279.555240 16.747026 0.000000
525.497070 279.731720 17.067026 0.000000
525.798710 279.685970 16.836901 0.000000
535.334530 280.004820 16.947004 0.000000
527.253110 280.315830 17.017471 0.000000
525.107790 280.659880 16.842327 0.000000
526.637940 280.735080 16.870455 0.000000
526.958560 280.561460 17.036022 0.000000
524.592830 280.994600 16.960615 0.000000
524.817930 280.856450 17.035700 0.000000
526.868100 281.223570 16.919090 0.000000
524.503110 281.188200 16.887001 0.000000
540.159120 283.089110 17.320835 0.000000
524.641780 261.891420 16.930147 0.000000
522.864620 262.216060 16.796015 0.000000
523.045230 262.153320 16.798056 0.000000
524.027590 262.348750 16.781073 0.000000
524.379460 262.157840 16.792936 0.000000
524.563170 262.112520 16.796196 0.000000
520.804320 262.452700 16.819668 0.000000
523.812560 262.468260 16.888544 0.000000
521.710750 262.784450 16.897606 0.000000
522.763730 262.775120 16.877911 0.000000
524.808040 263.154600 16.944876 0.000000
523.681460 263.542210 16.916006 0.000000
524.252140 263.475860 16.917873 0.000000
524.500490 263.492980 16.915970 0.000000
521.553470 263.733090 16.838432 0.000000
521.780090 263.722560 16.832710 0.000000
522.714360 263.884000 16.800959 0.000000
522.925230 263.886540 16.898811 0.000000
523.346740 263.548310 16.919397 0.000000
522.599240 263.924010 16.902624 0.000000
522.972960 264.063810 17.083508 0.000000
521.032230 264.496370 16.806482 0.000000
520.820560 264.702970 16.903358 0.000000
523.498170 277.812900 17.062952 0.000000
526.652040 277.943880 17.090761 0.000000
527.481450 278.022740 17.152534 0.000000
526.024660 278.134640 17.100462 0.000000
526.972230 278.383000 17.183382 0.000000
525.422610 278.666170 17.183668 0.000000
527.358760 278.729980 17.193455 0.000000
524.545040 279.079280 17.186018 0.000000
524.879330 279.073880 17.184513 0.000000
525.345280 279.030940 17.179083 0.000000
525.634640 278.827850 17.215736 0.000000
526.277220 279.229430 17.158117 0.000000
527.067750 279.121250 17.243000 0.000000
527.259090 278.968050 17.155962 0.000000
524.584170 279.218690 17.281736 0.000000
525.035160 279.265720 17.144131 0.000000
525.599610 279.273410 17.150330 0.000000
526.170530 279.289580 17.164581 0.000000
527.471130 279.651920 17.430117 0.000000
527.714900 279.590180 17.433636 0.000000
528.081300 279.493960 17.441051 0.000000
523.901920 279.728330 17.303888 0.000000
524.175170 279.779450 17.308201 0.000000
524.879210 279.843540 17.392399 0.000000
535.354370 280.014160 17.218618 0.000000
525.244630 280.332820 17.312916 0.000000
524.414430 280.638700 17.360209 0.000000
524.076110 281.018070 17.422173 0.000000
540.156130 283.079800 17.715387 0.000000
524.251590 261.850160 17.296637 0.000000
524.521730 261.606020 17.321939 0.000000
523.524110 262.148530 17.271090 0.000000
523.887210 262.019870 17.280838 0.000000
522.788820 262.695650 17.227352 0.000000
522.939150 262.540590 17.240017 0.000000
521.561950 262.784880 17.255043 0.000000
521.506230 263.839320 17.371330 0.000000
523.016240 263.594730 17.340857 0.000000
521.463990 263.954220 17.252863 0.000000
521.732970 263.945130 17.241449 0.000000
522.536320 263.993870 17.204990 0.000000
522.973450 264.067840 17.283758 0.000000
525.102720 280.593870 17.527374 0.000000
522.126530 261.723140 17.598318 0.000000
521.351070 262.500120 17.535513 0.000000
522.942200 262.557220 17.471479 0.000000
521.680850 262.838320 17.480742 0.000000
541.090090 261.178280 13.910627 0.000000
526.917110 261.306370 13.813539 0.000000
527.324710 261.290860 13.809349 0.000000
527.733340 261.295010 13.806595 0.000000
528.142580 261.315220 13.804535 0.000000
528.552490 261.346830 13.802214 0.000000
528.861450 261.372280 13.799199 0.000000
533.850280 261.206210 13.779786 0.000000
534.141720 261.422270 13.790821 0.000000
537.605830 261.277340 13.819456 0.000000
537.774480 261.506380 13.832460 0.000000
541.319210 261.620670 13.933352 0.000000
524.716740 261.573270 13.829009 0.000000
525.108280 261.480440 13.822683 0.000000
525.509520 261.459900 13.828661 0.000000
525.909550 261.428250 13.829896 0.000000
526.310000 261.368380 13.822956 0.000000
526.612610 261.332760 13.818089 0.000000
529.067380 261.394440 13.797373 0.000000
529.375430 261.437930 13.795408 0.000000
529.776920 261.536800 13.799017 0.000000
530.172120 261.658630 13.804799 0.000000
530.562260 261.795930 13.811251 0.000000
534.331850 261.571350 13.798410 0.000000
534.610470 261.802120 13.810095 0.000000
537.938960 261.737340 13.845396 0.000000
538.093690 261.975400 13.859375 0.000000
541.454830 261.924770 13.949867 0.000000
530.946780 261.948060 13.818282 0.000000
531.325070 262.114780 13.825873 0.000000
531.604490 262.248960 13.831955 0.000000
534.970640 262.121770 13.826253 0.000000
535.232120 262.369930 13.838754 0.000000
538.269590 262.191990 13.868357 0.000000
538.442380 262.410610 13.877218 0.000000
541.542480 262.259550 13.972385 0.000000
531.879330 262.392060 13.838400 0.000000
532.239500 262.594090 13.847366 0.000000
535.484380 262.626430 13.851667 0.000000
538.611330 262.631770 13.886066 0.000000
538.776250 262.855710 13.894961 0.000000
541.624940 262.592710 13.994575 0.000000
532.591250 262.809970 13.856938 0.000000
532.934080 263.039120 13.867041 0.000000
535.808410 262.978670 13.869343 0.000000
533.335820 263.361660 13.884590 0.000000
536.080200 263.378690 13.896145 0.000000
539.061220 263.506930 13.936255 0.000000
533.692930 263.737460 13.911686 0.000000
536.238770 263.715940 13.924220 0.000000
536.348210 263.932680 13.940655 0.000000
539.150330 263.947690 13.972466 0.000000
533.895510 263.971950 13.928709 0.000000
534.089780 264.211400 13.945843 0.000000
536.492490 264.268740 13.967575 0.000000
539.202270 264.239750 13.996338 0.000000
534.277340 264.454650 13.963058 0.000000
534.397710 264.619230 13.974604 0.000000
536.626040 264.606960 13.994696 0.000000
539.249570 264.529790 14.019865 0.000000
534.571900 264.869050 13.991868 0.000000
534.734990 265.125980 14.010279 0.000000
536.709230 264.832730 14.012645 0.000000
540.758540 278.052060 14.375542 0.000000
536.608890 278.033080 14.339041 0.000000
538.360170 278.154080 14.358536 0.000000
540.700380 278.313900 14.376770 0.000000
545.499760 261.366460 14.054567 0.000000
523.489010 261.205050 13.975261 0.000000
545.688350 261.706240 14.065344 0.000000
523.033260 261.516850 14.007113 0.000000
523.304320 261.328700 13.988150 0.000000
522.204590 261.960570 14.035131 0.000000
522.585390 261.807650 14.032206 0.000000
521.449160 262.278260 14.036364 0.000000
522.013550 262.034730 14.035246 0.000000
524.363040 262.366330 13.973560 0.000000
541.700930 262.925140 14.016624 0.000000
520.994930 262.514950 14.040175 0.000000
521.263790 262.365780 14.036882 0.000000
523.768190 262.682980 14.007864 0.000000
524.101810 262.485530 13.985531 0.000000
523.054320 263.154820 14.057280 0.000000
523.365970 262.941160 14.035467 0.000000
541.564090 263.385930 14.066852 0.000000
522.276490 263.166660 14.242229 0.000000
522.526310 263.525300 14.090203 0.000000
522.828190 263.319980 14.073400 0.000000
541.220890 263.956210 14.143159 0.000000
541.873410 263.926850 14.084215 0.000000
542.059020 264.179930 14.087921 0.000000
521.724670 263.904360 14.093761 0.000000
522.121640 263.706820 14.091782 0.000000
542.141720 264.489350 14.104496 0.000000
521.363710 264.164890 14.106771 0.000000
539.291260 264.818420 14.043214 0.000000
542.117680 264.850400 14.133935 0.000000
520.955080 264.506470 14.125539 0.000000
536.786250 265.059780 14.030830 0.000000
539.326480 265.106200 14.066552 0.000000
542.256650 265.124540 14.141621 0.000000
534.897950 265.378630 14.026544 0.000000
536.892640 265.400540 14.057969 0.000000
539.360350 265.538970 14.102445 0.000000
542.275330 265.789180 14.187290 0.000000
542.371580 265.410100 14.151743 0.000000
535.049800 265.637880 14.043915 0.000000
535.146670 265.812130 14.055436 0.000000
537.020630 265.853820 14.093662 0.000000
542.277100 266.117370 14.209658 0.000000
535.327330 266.165590 14.078852 0.000000
537.145450 266.297060 14.126245 0.000000
539.308780 266.294220 14.173929 0.000000
542.272220 266.443480 14.231932 0.000000
535.525940 266.618960 14.110265 0.000000
537.210630 266.639680 14.153790 0.000000
539.491150 266.764800 14.192896 0.000000
542.383730 266.720030 14.239433 0.000000
535.640690 267.002320 14.141293 0.000000
537.242430 266.992400 14.185099 0.000000
539.635860 266.975620 14.193462 0.000000
542.328670 267.057500 14.266031 0.000000
535.723940 267.395170 14.175540 0.000000
537.305110 267.559300 14.231304 0.000000
539.461060 267.590300 14.260346 0.000000
542.365110 267.666440 14.299466 0.000000
535.812320 267.669310 14.193681 0.000000
535.890140 267.839870 14.200880 0.000000
537.384030 267.755430 14.238882 0.000000
537.461430 267.951720 14.246100 0.000000
539.564510 267.944150 14.274133 0.000000
542.425420 267.953700 14.310268 0.000000
536.036070 268.184270 14.215144 0.000000
537.571170 268.248170 14.256822 0.000000
539.659300 268.299590 14.287899 0.000000
542.567260 268.367800 14.319400 0.000000
536.172490 268.531680 14.229254 0.000000
536.235900 268.706790 14.236211 0.000000
537.705320 268.647000 14.271164 0.000000
539.746580 268.655790 14.301205 0.000000
542.576540 268.817810 14.342349 0.000000
536.325560 268.970830 14.246489 0.000000
537.825620 269.049410 14.285427 0.000000
539.855830 269.130860 14.317917 0.000000
542.499330 269.133610 14.365948 0.000000
542.652590 269.395020 14.363458 0.000000
536.460080 269.414580 14.263424 0.000000
537.932430 269.454740 14.299518 0.000000
539.928410 269.488400 14.330252 0.000000
542.682560 269.683840 14.373989 0.000000
536.578120 269.861720 14.279952 0.000000
538.024900 269.862820 14.313555 0.000000
539.992680 269.846740 14.342222 0.000000
542.708560 269.972470 14.384356 0.000000
536.652710 270.223390 14.294010 0.000000
538.103520 270.273040 14.327439 0.000000
540.064880 270.325990 14.358052 0.000000
542.866820 270.532170 14.392015 0.000000
536.684390 270.593230 14.313375 0.000000
538.168460 270.684880 14.341140 0.000000
540.108090 270.686310 14.369898 0.000000
540.131650 270.926790 14.377718 0.000000
542.768620 270.835910 14.413853 0.000000
536.709590 270.960850 14.331397 0.000000
538.236150 271.095550 14.352131 0.000000
540.178770 271.163970 14.381946 0.000000
542.834350 271.262150 14.422864 0.000000
536.800420 271.408020 14.340118 0.000000
538.323490 271.504300 14.357957 0.000000
540.253110 271.520720 14.386770 0.000000
542.921750 271.687810 14.428543 0.000000
536.868900 271.767580 14.345638 0.000000
536.898320 271.948580 14.348327 0.000000
538.392940 271.917240 14.364310 0.000000
540.339900 272.000270 14.393002 0.000000
542.974120 271.973600 14.432270 0.000000
536.935670 272.221440 14.352419 0.000000
538.448790 272.333280 14.370522 0.000000
540.395260 272.362700 14.397591 0.000000
543.044430 272.405120 14.437677 0.000000
536.975400 272.587130 14.357755 0.000000
538.490600 272.752010 14.376618 0.000000
540.439640 272.727630 14.402206 0.000000
542.997680 272.839450 14.453979 0.000000
537.006900 273.047030 14.364269 0.000000
538.518550 273.173000 14.382545 0.000000
540.479060 273.216920 14.409011 0.000000
543.036380 273.273770 14.460190 0.000000
537.019650 273.508970 14.370682 0.000000
538.530760 273.489930 14.386887 0.000000
540.497440 273.585510 14.414140 0.000000
543.074830 273.710360 14.465378 0.000000
537.013060 273.879430 14.376015 0.000000
538.534060 273.807770 14.391127 0.000000
540.505860 273.955440 14.419105 0.000000
543.101680 274.003330 14.467999 0.000000
536.987240 274.249360 14.382279 0.000000
538.526610 274.232450 14.396617 0.000000
540.506230 274.326260 14.423957 0.000000
543.236940 274.602780 14.463523 0.000000
536.959110 274.620570 14.386663 0.000000
538.518680 274.660000 14.399929 0.000000
540.516240 274.700780 14.426250 0.000000
543.307430 274.907960 14.460227 0.000000
536.962710 275.000520 14.383449 0.000000
538.546750 275.098020 14.395770 0.000000
540.576970 275.212520 14.421671 0.000000
543.402220 275.220250 14.453993 0.000000
536.958190 275.384090 14.379244 0.000000
538.561890 275.540740 14.391153 0.000000
540.614870 275.601170 14.417752 0.000000
543.481930 275.535000 14.448730 0.000000
536.939210 275.769810 14.375052 0.000000
538.565730 275.875790 14.387289 0.000000
540.641910 275.993930 14.413717 0.000000
543.553650 275.852840 14.443726 0.000000
543.622440 276.174560 14.438454 0.000000
536.905820 276.157140 14.370824 0.000000
538.559390 276.213040 14.383383 0.000000
540.661560 276.390200 14.409397 0.000000
536.858890 276.545870 14.366385 0.000000
538.538020 276.665560 14.377980 0.000000
540.687810 276.795230 14.402761 0.000000
543.636960 276.803710 14.438401 0.000000
536.798650 276.935700 14.361653 0.000000
538.501040 277.121000 14.372324 0.000000
540.723390 277.209440 14.393742 0.000000
543.801330 277.161320 14.421933 0.000000
536.739870 277.332730 14.354040 0.000000
538.463380 277.464170 14.367908 0.000000
540.739870 277.488250 14.387747 0.000000
543.877380 277.667970 14.412910 0.000000
536.670590 277.732760 14.345491 0.000000
538.415100 277.808380 14.363406 0.000000
540.751040 277.768950 14.381753 0.000000
543.823430 278.145170 14.415552 0.000000
536.050420 278.286590 14.406706 0.000000
537.417970 278.439120 14.470576 0.000000
537.657100 278.317020 14.444773 0.000000
538.022830 278.247620 14.399601 0.000000
540.549870 278.540040 14.388833 0.000000
535.246580 278.676180 14.495441 0.000000
535.626770 278.478300 14.455531 0.000000
537.048030 278.724490 14.504620 0.000000
537.232540 278.583500 14.487857 0.000000
539.515620 278.660740 14.503162 0.000000
540.399900 278.764310 14.400261 0.000000
543.668520 278.761410 14.425061 0.000000
534.649840 279.031890 14.549737 0.000000
534.961360 278.813510 14.524767 0.000000
536.501710 279.129730 14.551498 0.000000
536.813780 278.833130 14.528721 0.000000
538.951230 279.075200 14.553160 0.000000
543.249940 279.280850 14.458509 0.000000
543.573180 279.064420 14.430679 0.000000
534.415280 279.301670 14.557930 0.000000
536.322390 279.382260 14.558629 0.000000
538.705080 279.495820 14.565039 0.000000
542.892640 279.641300 14.486466 0.000000
534.047180 279.690030 14.569896 0.000000
536.019350 279.798890 14.568512 0.000000
538.453800 279.911380 14.575426 0.000000
542.684690 280.058840 14.498284 0.000000
533.409000 280.308140 14.584862 0.000000
533.659240 280.056430 14.581429 0.000000
535.334780 280.039860 14.630639 0.000000
535.766970 280.124270 14.575889 0.000000
538.113100 280.413270 14.588903 0.000000
538.250240 280.213410 14.583827 0.000000
542.495000 280.482210 14.506822 0.000000
533.236270 280.514590 14.582281 0.000000
535.297120 280.669650 14.587988 0.000000
535.502440 280.439480 14.582970 0.000000
537.905760 280.711460 14.595654 0.000000
541.048160 280.921510 14.625889 0.000000
542.204160 280.856170 14.524508 0.000000
532.887150 280.933170 14.573349 0.000000
533.054020 280.712650 14.580541 0.000000
534.977780 281.075290 14.589619 0.000000
535.102110 280.909330 14.590059 0.000000
537.622380 281.103550 14.603770 0.000000
540.408140 281.051390 14.678059 0.000000
542.039430 281.117430 14.532591 0.000000
532.404970 281.339480 14.573455 0.000000
532.699890 281.132080 14.569569 0.000000
534.780580 281.315860 14.589643 0.000000
537.335270 281.340150 14.618865 0.000000
540.383300 281.534550 14.664900 0.000000
531.652100 281.836640 14.578137 0.000000
531.963010 281.653230 14.575056 0.000000
534.080260 281.926760 14.602813 0.000000
534.336980 281.749510 14.595047 0.000000
534.594730 281.570890 14.586199 0.000000
536.737000 281.933780 14.639820 0.000000
536.994450 281.681880 14.631455 0.000000
539.881290 281.886600 14.695051 0.000000
540.305730 281.825130 14.661646 0.000000
530.833740 282.214840 14.589270 0.000000
531.163880 282.070710 14.585149 0.000000
531.490540 281.917570 14.580622 0.000000
533.657040 282.222320 14.612365 0.000000
533.911440 282.046140 14.606923 0.000000
536.401120 282.273930 14.648207 0.000000
539.633730 282.229400 14.702579 0.000000
545.675900 282.607760 14.642322 0.000000
520.823550 281.974300 14.440987 0.000000
521.152890 282.148560 14.450891 0.000000
521.486390 282.313510 14.460478 0.000000
529.905580 282.550570 14.598228 0.000000
530.331910 282.411250 14.593980 0.000000
530.667180 282.282620 14.591093 0.000000
532.856870 282.688320 14.630825 0.000000
533.139220 282.557980 14.622076 0.000000
533.399350 282.392700 14.617556 0.000000
535.738280 282.787410 14.669675 0.000000
536.045290 282.592560 14.657578 0.000000
539.206970 282.612400 14.721588 0.000000
545.540340 282.961240 14.646350 0.000000
521.656010 282.389590 14.465412 0.000000
521.921390 282.478790 14.475927 0.000000
522.364200 282.617460 14.492012 0.000000
522.804990 282.750790 14.505385 0.000000
528.438900 282.946590 14.598571 0.000000
528.697880 282.876010 14.601430 0.000000
529.132320 282.772830 14.601244 0.000000
529.564390 282.658420 14.599581 0.000000
532.125670 283.053220 14.644511 0.000000
532.387820 282.898130 14.643144 0.000000
532.663510 282.764530 14.637429 0.000000
535.196900 283.065000 14.692766 0.000000
535.523250 282.902710 14.678907 0.000000
538.679690 283.084140 14.742218 0.000000
545.199340 283.203280 14.665936 0.000000
523.162600 282.836670 14.516713 0.000000
523.520750 282.913180 14.527166 0.000000
523.879210 282.980650 14.536706 0.000000
524.327880 283.051700 14.547352 0.000000
524.686950 283.099950 14.554914 0.000000
525.495730 283.174470 14.568457 0.000000
525.855220 283.197910 14.572365 0.000000
526.305050 283.216490 14.575651 0.000000
526.755190 283.210510 14.579437 0.000000
527.114500 283.187190 14.582684 0.000000
527.472600 283.151700 14.585566 0.000000
527.916500 283.081540 14.589867 0.000000
528.265990 282.995270 14.595704 0.000000
531.508730 283.409450 14.643682 0.000000
531.863830 283.209960 14.644318 0.000000
534.828800 283.354800 14.698709 0.000000
538.462160 283.448430 14.741648 0.000000
544.624760 283.729610 14.695258 0.000000
544.955630 283.493870 14.677385 0.000000
521.056580 283.345580 14.549417 0.000000
521.449580 283.473880 14.564604 0.000000
530.768130 283.749760 14.644326 0.000000
531.141600 283.586330 14.644139 0.000000
533.935180 283.910550 14.716718 0.000000
534.383970 283.736880 14.700500 0.000000
534.564880 283.587340 14.699735 0.000000
537.977420 283.949280 14.752377 0.000000
538.266480 283.837250 14.737209 0.000000
544.463680 284.064270 14.699100 0.000000
521.842900 283.592350 14.578748 0.000000
522.236880 283.700100 14.592007 0.000000
522.631350 283.797580 14.604346 0.000000
523.028140 283.878660 14.616632 0.000000
523.426390 283.943700 14.628804 0.000000
523.824400 283.997010 14.640265 0.000000
524.123900 284.023740 14.649224 0.000000
527.569030 284.121030 14.690844 0.000000
528.062380 284.094420 14.688863 0.000000
528.258420 284.069890 14.688910 0.000000
528.756840 284.040860 14.682389 0.000000
529.156560 284.003110 14.676639 0.000000
529.558960 283.959930 14.669354 0.000000
529.964420 283.911070 14.660509 0.000000
530.372130 283.852720 14.650570 0.000000
532.298830 284.277190 14.781807 0.000000
532.643130 284.207860 14.769489 0.000000
533.107120 284.107670 14.751762 0.000000
533.577700 283.998290 14.732371 0.000000
537.109380 284.245480 14.796844 0.000000
537.542050 284.102660 14.774948 0.000000
543.959110 284.616390 14.719794 0.000000
544.211060 284.341430 14.709726 0.000000
524.323120 284.037660 14.654964 0.000000
524.521850 284.049840 14.660374 0.000000
525.507140 284.105010 14.679965 0.000000
525.801330 284.118040 14.683624 0.000000
526.291500 284.131770 14.688126 0.000000
526.782100 284.136380 14.690743 0.000000
527.175170 284.132200 14.691399 0.000000
531.451110 284.565830 14.795616 0.000000
531.958190 284.341370 14.793131 0.000000
536.626770 284.519170 14.813205 0.000000
543.698850 284.883240 14.730037 0.000000
521.076170 284.520690 14.702089 0.000000
543.150510 285.388280 14.751363 0.000000
543.313720 285.057130 14.750090 0.000000
530.316410 285.389430 14.757210 0.000000
530.638430 285.272950 14.758226 0.000000
531.079830 285.150330 14.754158 0.000000
531.428650 285.097560 14.745256 0.000000
536.420230 285.565370 14.763786 0.000000
536.664000 285.419100 14.757850 0.000000
536.905640 285.268070 14.751792 0.000000
542.859920 285.623410 14.762696 0.000000
521.077940 285.367610 14.621326 0.000000
521.424380 285.458830 14.632631 0.000000
521.652340 285.523440 14.638906 0.000000
529.108400 285.738770 14.751784 0.000000
529.442570 285.659820 14.753092 0.000000
529.773130 285.567470 14.754549 0.000000
530.100100 285.463260 14.756269 0.000000
535.632320 285.912110 14.787455 0.000000
535.907650 285.817660 14.778032 0.000000
536.175170 285.707890 14.769497 0.000000
521.880860 285.584350 14.645034 0.000000
522.224730 285.668300 14.653935 0.000000
522.684750 285.767490 14.665367 0.000000
523.030580 285.832920 14.673543 0.000000
523.377010 285.889310 14.681329 0.000000
523.839720 285.951200 14.691339 0.000000
524.302730 285.998660 14.700730 0.000000
527.068850 286.050570 14.737013 0.000000
527.412290 286.020080 14.740197 0.000000
527.754460 285.979400 14.743153 0.000000
528.772710 285.812260 14.750026 0.000000
535.357670 286.002660 14.796555 0.000000
522.285220 263.185360 14.482100 0.000000
535.336670 280.034360 15.009972 0.000000
525.313290 280.197630 15.009341 0.000000
525.586060 280.088840 15.034165 0.000000
522.452270 263.103940 14.948092 0.000000
522.152340 263.336610 14.844464 0.000000
522.366090 263.370640 14.972673 0.000000
527.426940 278.350010 15.428420 0.000000
527.159790 278.557160 15.406279 0.000000
525.589230 280.040280 15.282393 0.000000
535.338560 280.028900 15.387009 0.000000
525.576720 280.143430 15.350923 0.000000
522.030030 263.060120 15.398319 0.000000
522.489440 263.070280 15.294847 0.000000
522.024230 263.381740 15.303849 0.000000
522.406680 263.463620 15.209468 0.000000
522.442630 263.545840 15.440092 0.000000
523.476440 263.859680 15.276524 0.000000
523.639220 263.825410 15.382257 0.000000
522.160100 264.543640 15.496749 0.000000
522.143740 264.859710 15.417873 0.000000
521.942440 265.446470 15.356900 0.000000
521.756410 265.713750 15.370331 0.000000
521.400570 265.987030 15.375904 0.000000
521.533200 265.916660 15.376505 0.000000
525.784970 277.811190 15.656749 0.000000
526.100220 277.962550 15.818295 0.000000
526.369510 277.885220 15.715773 0.000000
522.975890 278.037230 15.835517 0.000000
523.203800 278.081670 15.843969 0.000000
527.189700 278.412720 15.670941 0.000000
523.874690 278.412750 15.858912 0.000000
526.968630 278.693940 15.713291 0.000000
527.108640 278.560060 15.597067 0.000000
525.902470 279.248660 15.875457 0.000000
526.782650 279.013610 15.824636 0.000000
524.882870 279.451780 15.774632 0.000000
525.068480 279.575290 15.773005 0.000000
525.717350 279.411100 15.793225 0.000000
525.963620 279.451170 15.721004 0.000000
522.676940 279.717190 15.598963 0.000000
525.230290 279.692140 15.771041 0.000000
525.555850 279.939210 15.685440 0.000000
526.055910 279.905700 15.697826 0.000000
526.371400 279.862240 15.778927 0.000000
535.340450 280.023470 15.762096 0.000000
525.159970 280.282530 15.657003 0.000000
524.359990 280.467440 15.797169 0.000000
522.010190 263.014190 15.631079 0.000000
522.505430 262.985260 15.637738 0.000000
521.810360 263.461580 15.647558 0.000000
521.996030 263.426540 15.649169 0.000000
522.468750 263.605220 15.664930 0.000000
521.009220 264.076630 15.659918 0.000000
521.994200 264.577850 15.699933 0.000000
523.710880 264.575230 15.727596 0.000000
524.152040 264.451660 15.728075 0.000000
524.545350 264.471130 15.734022 0.000000
524.811100 264.650790 15.655626 0.000000
521.898930 265.068510 15.522340 0.000000
523.806150 264.861660 15.557748 0.000000
524.149600 264.989530 15.573274 0.000000
521.414980 265.476290 15.532529 0.000000
521.662410 265.285100 15.528566 0.000000
521.347600 265.651280 15.540939 0.000000
527.539180 277.957950 16.162230 0.000000
523.051330 278.113220 16.041563 0.000000
523.208190 278.169770 16.045820 0.000000
525.610660 278.190280 16.149502 0.000000
526.849300 278.471010 16.037830 0.000000
522.564390 278.536930 16.027388 0.000000
523.337340 278.616490 16.046627 0.000000
523.675840 278.566590 16.054472 0.000000
524.111690 278.464050 15.931590 0.000000
524.463070 278.605620 16.003563 0.000000
525.720460 278.657010 16.087242 0.000000
526.249880 278.792240 16.157318 0.000000
526.841670 278.736910 15.969454 0.000000
523.784060 278.871800 16.126795 0.000000
523.915280 279.005190 16.129503 0.000000
524.568420 279.051970 15.998175 0.000000
524.803040 279.045470 16.142527 0.000000
525.715640 278.914310 16.019583 0.000000
526.021730 279.103090 16.087551 0.000000
524.923160 279.262570 16.072304 0.000000
525.181090 279.447420 16.074390 0.000000
526.120790 279.337040 16.016161 0.000000
526.519410 279.576320 16.014917 0.000000
526.694340 279.544710 16.016657 0.000000
524.508360 279.679900 15.986124 0.000000
525.387210 279.646730 16.001539 0.000000
525.735230 279.761780 16.155415 0.000000
526.399540 279.863560 16.084982 0.000000
526.881770 279.745940 16.164480 0.000000
535.342350 280.018040 16.136345 0.000000
523.758850 280.304170 15.959859 0.000000
526.332150 280.336610 16.162275 0.000000
526.722960 280.311040 16.165049 0.000000
527.126160 280.424770 16.002007 0.000000
527.469480 280.490330 16.001671 0.000000
527.203190 280.535520 16.168579 0.000000
527.707640 280.700780 15.998044 0.000000
527.486390 281.166320 16.171865 0.000000
527.801090 281.281010 16.173605 0.000000
527.960880 281.327970 16.174370 0.000000
523.102110 262.090730 15.852345 0.000000
521.243470 262.754270 16.102474 0.000000
521.824650 262.834750 15.980731 0.000000
521.967350 262.916960 15.864098 0.000000
522.593080 262.952060 15.985832 0.000000
522.751280 262.844600 16.101025 0.000000
523.431090 263.153140 16.102610 0.000000
523.026670 263.204960 15.991374 0.000000
523.278080 263.255220 15.993803 0.000000
523.765870 263.363070 15.997564 0.000000
524.092350 263.428890 15.999714 0.000000
524.545720 263.318850 16.105639 0.000000
524.916560 263.482730 16.005207 0.000000
521.857540 263.554260 15.991746 0.000000
522.505860 263.689510 15.995820 0.000000
524.519470 263.607420 15.900356 0.000000
524.771300 263.609250 15.902304 0.000000
521.947570 264.488770 15.902610 0.000000
521.728700 264.927670 16.112957 0.000000
521.591490 265.383000 16.019644 0.000000
521.165710 265.651730 16.314878 0.000000
520.897090 265.939480 16.317059 0.000000
538.301150 266.484500 16.369156 0.000000
538.818540 266.486790 16.231077 0.000000
524.484380 277.484190 16.462351 0.000000
524.735660 277.575900 16.245575 0.000000
524.578060 277.751160 16.478487 0.000000
524.905520 277.833250 16.365307 0.000000
525.205870 277.850490 16.480843 0.000000
526.015930 277.812530 16.587833 0.000000
527.386840 277.971560 16.388275 0.000000
527.491270 277.737820 16.270372 0.000000
523.843930 278.199620 16.644138 0.000000
524.084410 278.241420 16.450041 0.000000
524.623540 278.165500 16.502470 0.000000
524.737120 278.210110 16.568594 0.000000
525.319270 278.182500 16.502903 0.000000
525.878050 278.317750 16.512566 0.000000
526.634460 278.074680 16.500614 0.000000
527.322450 278.339390 16.526926 0.000000
522.763550 278.552340 16.254698 0.000000
523.327210 278.564910 16.330059 0.000000
523.634700 278.578340 16.331854 0.000000
523.998470 278.460690 16.394625 0.000000
524.474000 278.448580 16.329273 0.000000
524.726750 278.602510 16.336031 0.000000
525.433840 278.634950 16.533400 0.000000
525.634340 278.682400 16.472820 0.000000
525.854430 278.536250 16.652731 0.000000
526.353450 278.617310 16.471201 0.000000
526.955510 278.579010 16.474485 0.000000
527.197510 278.619050 16.415096 0.000000
522.632140 278.977080 16.579187 0.000000
523.009090 278.828700 16.488728 0.000000
523.148320 278.825130 16.487764 0.000000
524.642520 279.190160 16.284578 0.000000
525.273560 278.929080 16.349119 0.000000
525.585940 279.041990 16.492586 0.000000
526.298280 278.907590 16.290134 0.000000
524.774110 279.371430 16.290031 0.000000
525.235410 279.439970 16.444630 0.000000
526.576170 279.574190 16.308630 0.000000
526.806820 279.514590 16.454424 0.000000
525.728880 279.801790 16.384005 0.000000
526.459900 279.870210 16.315033 0.000000
535.344180 280.012600 16.510431 0.000000
524.734620 280.339870 16.313555 0.000000
526.003420 280.346130 16.405724 0.000000
524.927610 280.746430 16.500496 0.000000
525.784670 280.564030 16.665312 0.000000
525.912480 280.702820 16.503181 0.000000
526.327700 280.650090 16.590845 0.000000
527.002140 280.597560 16.676535 0.000000
524.719790 281.054690 16.514000 0.000000
525.763430 280.835420 16.508450 0.000000
525.965640 280.943210 16.692005 0.000000
526.462460 280.997740 16.520657 0.000000
526.603940 280.989810 16.609055 0.000000
523.643800 261.830170 16.594713 0.000000
525.017580 261.660950 16.595093 0.000000
524.877260 262.065250 16.578976 0.000000
521.368230 262.325040 16.482853 0.000000
523.657530 262.636440 16.563358 0.000000
524.057800 262.726560 16.556444 0.000000
524.508730 262.671140 16.555944 0.000000
524.759280 262.524350 16.560831 0.000000
520.886170 262.921660 16.601107 0.000000
521.855900 262.782100 16.463892 0.000000
522.550780 262.841160 16.335405 0.000000
522.845210 262.830050 16.449736 0.000000
523.320560 262.796110 16.330912 0.000000
523.738950 262.935910 16.326601 0.000000
524.227660 262.864530 16.439030 0.000000
524.594480 263.121890 16.321314 0.000000
524.938230 263.084780 16.322065 0.000000
525.194270 263.048190 16.323116 0.000000
521.748960 263.635770 16.444206 0.000000
522.572570 263.731750 16.428648 0.000000
522.756410 263.839450 16.530352 0.000000
523.755980 263.928440 16.512789 0.000000
521.392520 264.189060 16.328634 0.000000
521.422550 264.576230 16.323187 0.000000
521.301940 264.932590 16.424450 0.000000
521.011230 265.438690 16.520582 0.000000
521.244870 265.215330 16.419691 0.000000
538.288760 266.482730 16.662735 0.000000
538.798580 266.484070 16.686302 0.000000
525.821290 277.584720 16.991114 0.000000
526.041080 277.491610 16.764568 0.000000
526.487240 277.558590 16.985533 0.000000
523.434810 277.859620 17.013000 0.000000
523.675900 277.843320 16.996851 0.000000
524.038640 277.895660 16.985168 0.000000
524.547000 277.805180 16.714342 0.000000
525.737850 277.789790 16.915220 0.000000
526.003170 277.777830 16.842556 0.000000
526.348510 277.792570 16.971510 0.000000
527.452150 277.996640 16.852951 0.000000
527.494870 277.759860 16.822058 0.000000
523.746830 278.040770 16.825893 0.000000
524.077640 278.178530 16.830160 0.000000
525.386410 278.314090 16.880131 0.000000
525.642030 278.139860 16.793362 0.000000
526.377320 278.302250 16.934023 0.000000
527.295470 278.256740 16.882038 0.000000
524.198240 278.424930 16.788698 0.000000
524.379030 278.593750 16.870459 0.000000
526.151060 278.555110 16.907377 0.000000
524.406980 278.787110 16.822632 0.000000
524.893800 279.091310 16.989635 0.000000
525.274170 278.898220 16.958130 0.000000
526.729980 279.181640 16.856707 0.000000
527.111270 279.096980 16.782227 0.000000
524.981260 279.221340 16.861010 0.000000
525.140620 279.402650 16.878845 0.000000
525.982850 279.565220 17.042818 0.000000
526.403500 279.495270 16.960951 0.000000
526.806400 279.570830 17.049337 0.000000
527.267880 279.458980 16.748262 0.000000
528.023250 279.368380 17.051235 0.000000
528.275020 279.626860 17.093885 0.000000
526.096070 279.684940 16.907595 0.000000
526.216980 279.647090 16.903837 0.000000
535.360230 280.016240 17.011911 0.000000
525.940430 280.216190 16.966799 0.000000
525.980220 280.677030 16.845917 0.000000
526.458860 280.684910 16.849379 0.000000
526.666200 280.745880 16.856697 0.000000
527.061220 280.514100 17.009621 0.000000
524.400270 281.097930 17.074308 0.000000
526.248600 280.910190 16.868282 0.000000
526.675290 281.104740 17.071096 0.000000
540.132260 283.082790 17.244736 0.000000
524.977360 261.352140 16.861233 0.000000
524.644530 261.822570 16.833763 0.000000
524.231690 262.227660 16.930939 0.000000
524.479000 262.001920 16.823921 0.000000
522.893310 262.684050 16.924591 0.000000
524.009030 262.520540 16.797087 0.000000
521.707700 262.803830 16.829660 0.000000
522.731080 262.785830 17.039188 0.000000
522.745480 262.825930 16.801241 0.000000
524.682430 263.134280 16.969469 0.000000
523.363040 263.512080 16.964144 0.000000
523.629150 263.506070 16.957947 0.000000
524.134830 263.427580 16.953617 0.000000
524.533330 263.266360 16.960434 0.000000
521.661440 263.756130 16.892490 0.000000
522.599240 263.902100 16.743961 0.000000
522.839970 263.816930 16.848433 0.000000
523.446900 263.767460 16.731863 0.000000
523.728030 263.835420 16.722660 0.000000
523.985960 263.845210 16.717800 0.000000
522.611020 263.928070 16.955215 0.000000
