# .PCD v0.7 - Point Cloud Data file format
VERSION 0.7
FIELDS x y z intensity
SIZE 4 4 4 4
TYPE F F F F
COUNT 1 1 1 1
WIDTH 1166
HEIGHT 1
VIEWPOINT 0 0 0 1 0 0 0
POINTS 1166
DATA ascii
547.969600 201.322080 11.935603 0.000000
548.626100 202.850830 11.986597 0.000000
549.325560 204.421970 12.040256 0.000000
567.360470 205.718250 12.467052 0.000000
568.663510 207.650730 12.529897 0.000000
548.698910 186.339890 11.424049 0.000000
549.162410 187.079410 11.450813 0.000000
549.640560 187.844650 11.478146 0.000000
550.108950 188.743850 11.503574 0.000000
551.093630 190.710820 11.555655 0.000000
551.619140 191.762470 11.583025 0.000000
552.188050 192.752690 11.613499 0.000000
553.620360 193.194840 11.705143 0.000000
554.318480 193.632570 11.747650 0.000000
555.049800 193.852390 11.793770 0.000000
552.765930 193.892430 11.643131 0.000000
555.772400 194.250790 11.837623 0.000000
556.304570 198.005600 11.842115 0.000000
557.108950 198.429290 11.890448 0.000000
557.910950 199.480440 11.933289 0.000000
558.749630 200.427580 11.978979 0.000000
559.615420 200.771730 12.030892 0.000000
560.487300 200.885330 12.084707 0.000000
561.366460 201.054520 12.138199 0.000000
562.263240 201.392150 12.191105 0.000000
564.124820 202.338120 12.297937 0.000000
565.137630 203.273040 12.352194 0.000000
566.228150 204.517990 12.408367 0.000000
569.082090 205.830170 12.445406 0.000000
570.348080 207.588010 12.494044 0.000000
547.214110 186.146580 11.402484 0.000000
547.713010 186.681240 11.429235 0.000000
548.191710 187.306630 11.453844 0.000000
548.680660 187.948300 11.478702 0.000000
549.676390 189.339170 11.527901 0.000000
550.166630 190.163100 11.550665 0.000000
550.670290 191.027340 11.573637 0.000000
551.191350 191.924610 11.597103 0.000000
551.731260 192.857040 11.621114 0.000000
553.882630 193.511800 11.739680 0.000000
554.596560 193.791720 11.777939 0.000000
552.293640 193.817750 11.645915 0.000000
555.316960 194.068310 11.816303 0.000000
555.962040 195.050480 11.844203 0.000000
556.459590 197.863770 11.848049 0.000000
557.250370 198.222720 11.888751 0.000000
558.025630 198.992360 11.924778 0.000000
558.827450 199.731320 11.962198 0.000000
559.654540 200.438570 12.000946 0.000000
560.508730 200.833480 12.043518 0.000000
561.374450 200.947110 12.088798 0.000000
562.246520 201.152040 12.133302 0.000000
563.130800 201.458710 12.177239 0.000000
564.032650 201.859360 12.220957 0.000000
564.959170 202.374850 12.264639 0.000000
565.918150 203.017460 12.308571 0.000000
566.920840 203.821410 12.353027 0.000000
567.968690 204.726930 12.398571 0.000000
559.320860 209.946730 13.185237 0.000000
550.523190 186.407380 11.391157 0.000000
551.014400 186.974460 11.409142 0.000000
559.365170 188.046890 11.823768 0.000000
558.688050 188.325730 11.785728 0.000000
551.495000 187.618850 11.425115 0.000000
556.028930 188.484250 11.649177 0.000000
558.003170 188.568830 11.747643 0.000000
551.987060 188.281850 11.441165 0.000000
552.475590 189.021450 11.455579 0.000000
557.091920 190.228490 11.674888 0.000000
556.401430 190.214400 11.640197 0.000000
566.847960 186.309070 12.204025 0.000000
565.042910 186.813420 12.114074 0.000000
565.657040 186.754040 12.143069 0.000000
566.275700 186.747420 12.171167 0.000000
563.194210 187.003570 12.025183 0.000000
563.811830 186.931210 12.055261 0.000000
564.427920 186.872410 12.084810 0.000000
561.951660 187.143590 11.964047 0.000000
562.574280 187.072510 11.994816 0.000000
555.084840 186.693660 11.629288 0.000000
561.325810 187.216030 11.932869 0.000000
560.031490 187.752460 11.861287 0.000000
555.593570 187.342790 11.645196 0.000000
548.782100 209.785080 12.244176 0.000000
549.580930 211.000150 12.288284 0.000000
546.544190 206.323240 12.120308 0.000000
547.251280 207.497450 12.159878 0.000000
548.005490 208.621310 12.201392 0.000000
569.916690 188.177470 12.422501 0.000000
548.021480 186.211550 11.379019 0.000000
570.672420 188.725490 12.447261 0.000000
548.519530 186.730530 11.400453 0.000000
568.061280 189.036710 12.331729 0.000000
568.706850 188.907560 12.361349 0.000000
549.023380 187.260390 11.421824 0.000000
566.758480 189.225080 12.272147 0.000000
567.410640 189.132320 12.302076 0.000000
564.791380 189.512210 12.180260 0.000000
565.449160 189.410370 12.211314 0.000000
566.104800 189.317690 12.241899 0.000000
554.206420 188.696200 11.678493 0.000000
563.466490 189.706250 12.117092 0.000000
564.130550 189.606990 12.148907 0.000000
550.043760 188.374650 11.463847 0.000000
562.124150 189.955840 12.051371 0.000000
562.798160 189.821040 12.084622 0.000000
550.513180 189.097660 11.480322 0.000000
554.592290 189.935320 11.682693 0.000000
560.726200 190.610720 11.976664 0.000000
550.997620 189.832760 11.497190 0.000000
555.817750 190.803040 11.733755 0.000000
559.998840 191.021840 11.936468 0.000000
551.539920 190.448970 11.518281 0.000000
555.094300 190.836290 11.696819 0.000000
552.070250 191.155960 11.537366 0.000000
552.613280 191.885220 11.556563 0.000000
559.084230 192.874190 11.868102 0.000000
556.129940 192.905010 11.722465 0.000000
557.619630 192.863220 11.796798 0.000000
558.353580 192.868590 11.832671 0.000000
556.818910 193.225010 11.752599 0.000000
547.030030 186.268230 11.434584 0.000000
546.985900 187.825500 11.420238 0.000000
547.511470 188.359340 11.444707 0.000000
548.042050 188.902040 11.469108 0.000000
548.572570 189.466400 11.493054 0.000000
549.107790 190.045200 11.516860 0.000000
549.649600 190.636610 11.540630 0.000000
550.192810 191.256320 11.563952 0.000000
550.685420 192.046420 11.582849 0.000000
551.190250 192.860990 11.601876 0.000000
553.438170 193.302700 11.713270 0.000000
557.918760 193.955060 11.929695 0.000000
554.112120 193.695890 11.743699 0.000000
554.874760 193.778720 11.781239 0.000000
555.584840 194.059650 11.813971 0.000000
551.714170 193.683760 11.621534 0.000000
552.295040 194.398320 11.644818 0.000000
556.159910 194.954940 11.833781 0.000000
556.413210 197.527820 11.821112 0.000000
557.941470 198.246170 11.888263 0.000000
558.684570 198.817780 11.918244 0.000000
559.448910 199.350280 11.949318 0.000000
560.237120 199.806880 11.981966 0.000000
561.030520 200.337590 12.013789 0.000000
561.833250 200.944730 12.044950 0.000000
562.679200 201.179900 12.081568 0.000000
563.528320 201.477290 12.117373 0.000000
564.384890 201.826420 12.152652 0.000000
565.251830 202.240110 12.187409 0.000000
566.132630 202.611620 12.222882 0.000000
567.034550 203.348650 12.255204 0.000000
567.966130 204.168270 12.287642 0.000000
568.934450 205.109450 12.320091 0.000000
569.916500 205.766450 12.355682 0.000000
570.073360 207.065320 12.487087 0.000000
546.832280 186.156460 11.413815 0.000000
547.318730 186.706600 11.439912 0.000000
547.814450 187.256240 11.466291 0.000000
548.302860 187.836040 11.491816 0.000000
548.246950 189.473540 11.479659 0.000000
548.766300 190.081360 11.506278 0.000000
549.290280 190.704410 11.532794 0.000000
549.812870 191.358280 11.558764 0.000000
550.296390 192.133850 11.581483 0.000000
550.789000 192.934080 11.604275 0.000000
551.340090 193.639140 11.630665 0.000000
553.684630 194.011670 11.758016 0.000000
551.828430 194.554700 11.651882 0.000000
552.329530 195.505370 11.673273 0.000000
553.500000 197.130510 11.726278 0.000000
554.262330 197.460220 11.765344 0.000000
554.998900 197.894010 11.801960 0.000000
555.758420 198.270320 11.839906 0.000000
556.575810 198.434450 11.882177 0.000000
557.315980 198.935780 11.917534 0.000000
558.039550 199.573040 11.950679 0.000000
558.790220 200.156460 11.985327 0.000000
559.555790 200.742250 12.020403 0.000000
560.408750 200.861100 12.063259 0.000000
561.259400 200.993900 12.105559 0.000000
562.116030 201.080840 12.148194 0.000000
562.956910 201.320070 12.188508 0.000000
563.793520 201.677220 12.227340 0.000000
564.636350 202.092180 12.265692 0.000000
565.487670 202.592880 12.303441 0.000000
566.352780 203.167250 12.340939 0.000000
567.237490 203.707280 12.379319 0.000000
568.141720 204.476560 12.416453 0.000000
569.079960 205.562620 12.452316 0.000000
570.240910 207.251600 12.534613 0.000000
546.383910 187.442320 11.442632 0.000000
546.897340 188.001980 11.469919 0.000000
547.413820 188.570360 11.497072 0.000000
547.944820 189.129180 11.524805 0.000000
548.380370 191.491210 11.538603 0.000000
548.935000 192.111720 11.566516 0.000000
549.495790 192.744080 11.594413 0.000000
550.025940 193.470030 11.619851 0.000000
550.527950 194.298030 11.642915 0.000000
551.033870 195.167040 11.665661 0.000000
551.601930 195.937060 11.692006 0.000000
552.123960 196.878560 11.714597 0.000000
552.643310 197.899690 11.736259 0.000000
553.282040 198.653350 11.765524 0.000000
554.174800 198.669800 11.812304 0.000000
554.970830 198.977370 11.851902 0.000000
555.762080 199.310170 11.890772 0.000000
556.569460 199.596330 11.930442 0.000000
557.302860 200.196090 11.963963 0.000000
558.067810 200.720840 11.999251 0.000000
558.939880 200.787770 12.042673 0.000000
559.818360 200.799800 12.086455 0.000000
560.674260 200.912110 12.128104 0.000000
561.522460 201.067610 12.168740 0.000000
562.353820 201.353160 12.207324 0.000000
563.184630 201.694820 12.245153 0.000000
564.860960 202.513850 12.319563 0.000000
565.706540 203.078430 12.355514 0.000000
566.562380 203.800830 12.390476 0.000000
567.440370 204.575260 12.425758 0.000000
568.342350 205.517470 12.460595 0.000000
569.274720 206.024000 12.499611 0.000000
570.362430 207.366780 12.484141 0.000000
546.465450 190.575160 11.560030 0.000000
547.058530 191.113020 11.586768 0.000000
548.261230 192.194290 11.640129 0.000000
548.164180 194.084580 11.625085 0.000000
548.789610 194.672670 11.651908 0.000000
549.420350 195.269350 11.678619 0.000000
550.019290 195.957080 11.702961 0.000000
550.570250 196.786410 11.723853 0.000000
551.131230 197.640350 11.744740 0.000000
551.760380 198.376800 11.769229 0.000000
552.329710 199.315920 11.789298 0.000000
553.975650 199.919680 11.860209 0.000000
554.890200 199.937650 11.901268 0.000000
555.732910 200.163150 11.937311 0.000000
556.524840 200.565480 11.969501 0.000000
557.382080 200.742970 12.005868 0.000000
558.268490 200.794270 12.044106 0.000000
559.164670 200.776790 12.082947 0.000000
560.884340 201.007600 12.154513 0.000000
561.729370 201.193120 12.188638 0.000000
552.913450 200.284730 11.809497 0.000000
562.564210 201.454700 12.221413 0.000000
563.394410 201.784330 12.253133 0.000000
564.226500 202.161790 12.284224 0.000000
565.907410 203.072240 12.344847 0.000000
566.759950 203.646910 12.374182 0.000000
567.634460 204.139540 12.404704 0.000000
568.515140 204.948430 12.432578 0.000000
569.419740 206.014050 12.458964 0.000000
569.605040 190.317810 12.455655 0.000000
568.774050 193.153960 12.395189 0.000000
568.031980 193.523800 12.366505 0.000000
546.582210 191.231550 11.569193 0.000000
547.247310 191.680760 11.593829 0.000000
567.266600 193.981770 12.335742 0.000000
547.912960 192.131470 11.618172 0.000000
548.582400 192.579270 11.642391 0.000000
549.211730 194.859450 11.647562 0.000000
549.884830 195.378450 11.670343 0.000000
550.477540 196.080540 11.687753 0.000000
551.081300 196.790310 11.705215 0.000000
551.695310 197.511200 11.722655 0.000000
552.317870 198.249560 11.739936 0.000000
553.961550 198.789120 11.798867 0.000000
556.591490 199.048320 11.896977 0.000000
553.001530 198.874540 11.760465 0.000000
554.817260 198.956600 11.830228 0.000000
555.694270 199.045940 11.862914 0.000000
557.367070 199.431460 11.921981 0.000000
558.145020 199.825290 11.946630 0.000000
558.936580 200.190550 11.971773 0.000000
560.559140 200.820480 12.023645 0.000000
561.422490 200.911010 12.053510 0.000000
562.264770 201.100510 12.081163 0.000000
563.101200 201.332630 12.107791 0.000000
563.931150 201.630940 12.133099 0.000000
564.760380 201.981830 12.157438 0.000000
565.594300 202.366270 12.181214 0.000000
565.380860 188.510770 12.190837 0.000000
564.645870 188.901810 12.160618 0.000000
546.498900 188.211980 11.493567 0.000000
563.876040 189.362730 12.127892 0.000000
547.184140 188.572480 11.517143 0.000000
563.093690 189.783450 12.095140 0.000000
562.255980 190.333220 12.058234 0.000000
547.172360 189.970060 11.498999 0.000000
547.867920 190.343490 11.522238 0.000000
548.559570 190.719020 11.544992 0.000000
549.267330 191.064390 11.568489 0.000000
549.855100 191.615200 11.584199 0.000000
550.499820 192.075620 11.603066 0.000000
560.797970 192.985660 11.967006 0.000000
551.104980 192.618120 11.618970 0.000000
558.424680 193.125870 11.882213 0.000000
559.241700 193.030330 11.912417 0.000000
560.013850 193.042720 11.939108 0.000000
551.722720 193.151150 11.635186 0.000000
552.340700 193.699460 11.650894 0.000000
554.033510 193.817540 11.712641 0.000000
554.883360 193.828950 11.743883 0.000000
555.662960 193.986360 11.770091 0.000000
556.240780 194.662320 11.780935 0.000000
556.972470 194.953660 11.802808 0.000000
552.411190 195.453990 11.628385 0.000000
568.240300 186.114560 12.320160 0.000000
567.503540 187.145000 12.280502 0.000000
566.792110 187.754290 12.248240 0.000000
566.095890 188.128300 12.220029 0.000000
568.147580 189.219190 12.365049 0.000000
567.428410 189.626070 12.336256 0.000000
566.581540 190.656010 12.294717 0.000000
545.977600 190.136220 11.518388 0.000000
546.868590 190.278260 11.554378 0.000000
547.577700 190.665740 11.580088 0.000000
565.802370 191.123570 12.262636 0.000000
548.266110 192.596850 11.588871 0.000000
564.661680 193.195280 12.196993 0.000000
548.982850 193.005650 11.613744 0.000000
549.697020 193.417500 11.638169 0.000000
563.767090 193.845870 12.158079 0.000000
550.343870 193.951050 11.658274 0.000000
554.818540 194.049380 11.831617 0.000000
553.839230 194.272950 11.791510 0.000000
550.892520 194.681110 11.672008 0.000000
551.554200 195.218700 11.692020 0.000000
552.179630 195.844970 11.709298 0.000000
554.755430 198.449330 11.776876 0.000000
555.625980 198.593750 11.807545 0.000000
556.551450 198.568850 11.841983 0.000000
557.382080 198.783540 11.869662 0.000000
558.163020 199.143740 11.893403 0.000000
553.546020 199.087770 11.723768 0.000000
558.966670 199.441930 11.918409 0.000000
559.783570 199.700010 11.944072 0.000000
560.590640 199.997940 11.968553 0.000000
561.393680 200.323790 11.992203 0.000000
570.260930 187.310420 12.457816 0.000000
568.864200 188.688230 12.395181 0.000000
570.559390 189.180790 12.490133 0.000000
569.182800 189.751280 12.437550 0.000000
568.303220 191.134490 12.391394 0.000000
545.803160 190.568390 11.511490 0.000000
546.732360 190.699480 11.550964 0.000000
547.467590 191.082200 11.579697 0.000000
548.176210 191.497860 11.606701 0.000000
567.205870 193.462920 12.326382 0.000000
548.843870 193.526000 11.617620 0.000000
566.324460 194.208540 12.287160 0.000000
549.558530 193.972230 11.643667 0.000000
550.204650 194.538940 11.665440 0.000000
550.838560 195.140050 11.686065 0.000000
551.388790 195.915800 11.701283 0.000000
552.057370 196.491120 11.722921 0.000000
552.688840 197.159680 11.741824 0.000000
553.420900 197.638340 11.766319 0.000000
554.326290 197.736080 11.801225 0.000000
554.679750 199.117400 11.800879 0.000000
555.588440 199.221860 11.835178 0.000000
556.524480 199.231080 11.871202 0.000000
557.328250 199.572620 11.898272 0.000000
558.125180 199.939270 11.924477 0.000000
558.938230 200.266080 11.951391 0.000000
559.759890 200.572050 11.978522 0.000000
560.604740 200.803130 12.007014 0.000000
561.488220 200.887570 12.038239 0.000000
562.339170 201.082760 12.066691 0.000000
563.179870 201.320240 12.093960 0.000000
564.009640 201.617020 12.119823 0.000000
546.622740 187.112350 11.453433 0.000000
546.577580 188.420380 11.440044 0.000000
567.825380 188.935490 12.330091 0.000000
547.268250 188.841310 11.468163 0.000000
567.078430 189.294300 12.297585 0.000000
547.953670 189.263820 11.495719 0.000000
566.311400 189.659130 12.263998 0.000000
548.614500 189.716060 11.521570 0.000000
565.396180 190.509090 12.218270 0.000000
549.300540 190.130830 11.548615 0.000000
564.594060 190.826290 12.183451 0.000000
549.935180 190.618770 11.572335 0.000000
550.523010 191.182620 11.592903 0.000000
550.524230 192.700500 11.577481 0.000000
562.383300 193.161910 12.067915 0.000000
563.174320 193.117430 12.099387 0.000000
551.123780 193.304660 11.597537 0.000000
561.424990 193.665130 12.023844 0.000000
553.843690 193.473100 11.713416 0.000000
554.682070 193.604520 11.747667 0.000000
555.542910 193.668780 11.783318 0.000000
551.735600 193.902280 11.617882 0.000000
556.215390 194.113200 11.806399 0.000000
557.876160 194.286470 11.873116 0.000000
560.433470 194.179570 11.978026 0.000000
552.361940 194.488830 11.638660 0.000000
556.902280 194.535320 11.830037 0.000000
558.392400 195.121230 11.884243 0.000000
558.066280 198.222810 11.833542 0.000000
569.452390 187.147340 12.413364 0.000000
570.731570 186.835510 12.463472 0.000000
568.571350 188.488540 12.363470 0.000000
547.329770 186.501890 11.417965 0.000000
548.008610 186.909330 11.444644 0.000000
565.875310 188.147080 12.181821 0.000000
565.079280 188.505040 12.146095 0.000000
548.009220 188.151790 11.430973 0.000000
564.237980 188.932340 12.107349 0.000000
548.693910 188.569090 11.457210 0.000000
563.366030 189.374910 12.066937 0.000000
549.373410 188.987950 11.482891 0.000000
560.349790 189.454740 11.945856 0.000000
549.997250 189.479540 11.504934 0.000000
562.452640 189.856320 12.024077 0.000000
550.604920 189.996350 11.525657 0.000000
551.197750 190.539920 11.545102 0.000000
558.972600 190.754900 11.871650 0.000000
561.323240 190.803590 11.965661 0.000000
551.797420 191.080750 11.564573 0.000000
551.824770 192.550990 11.547254 0.000000
553.452880 193.011180 11.611054 0.000000
554.337890 193.089540 11.647490 0.000000
555.271670 193.048920 11.687251 0.000000
556.226260 192.930710 11.728620 0.000000
557.013120 193.115540 11.758602 0.000000
559.620480 192.993900 11.866265 0.000000
552.435300 193.129120 11.566112 0.000000
567.471920 187.181750 12.256467 0.000000
566.675840 187.700130 12.218807 0.000000
562.779850 186.504500 12.008146 0.000000
548.792660 186.126530 11.410109 0.000000
549.472410 186.518140 11.435949 0.000000
553.960510 186.805590 11.632209 0.000000
561.855960 186.961580 11.963448 0.000000
564.640320 187.062480 12.072688 0.000000
554.586550 187.176640 11.654218 0.000000
560.929080 187.360440 11.919318 0.000000
563.787660 187.461550 12.032528 0.000000
549.500000 187.711460 11.421419 0.000000
555.035770 187.818790 11.664330 0.000000
562.900820 187.879820 11.990452 0.000000
559.641910 188.411450 11.849780 0.000000
550.122380 188.191680 11.442897 0.000000
550.717650 188.707700 11.462379 0.000000
551.300050 189.244900 11.480696 0.000000
558.359800 189.339400 11.782130 0.000000
554.834590 189.526470 11.630430 0.000000
555.517150 189.861680 11.654557 0.000000
556.128420 190.316560 11.673557 0.000000
556.123170 191.896120 11.649060 0.000000
565.465330 186.670290 12.111409 0.000000
550.785830 186.405060 11.406033 0.000000
555.453120 186.399990 11.615964 0.000000
560.263060 186.565750 11.821165 0.000000
555.879390 187.051440 11.624155 0.000000
550.837220 187.563230 11.390902 0.000000
556.161320 187.945940 11.621772 0.000000
558.828430 187.710220 11.740604 0.000000
551.418270 188.089230 11.409133 0.000000
556.176640 189.309280 11.599738 0.000000
556.489380 190.252810 11.597308 0.000000
556.214290 186.572600 11.531322 0.000000
556.654910 187.210360 11.537159 0.000000
562.703550 205.571410 12.587477 0.000000
563.617920 205.899000 12.614285 0.000000
546.456180 206.157410 12.096563 0.000000
565.399960 206.746720 12.666060 0.000000
558.600160 208.121290 12.458043 0.000000
549.128660 208.144470 12.172585 0.000000
549.927980 208.997620 12.194736 0.000000
554.361510 209.985060 12.326092 0.000000
556.342650 210.924940 12.383657 0.000000
560.656490 205.519120 12.525911 0.000000
561.754460 205.347080 12.559386 0.000000
564.512760 206.299620 12.640342 0.000000
547.347230 206.811750 12.121929 0.000000
548.235720 207.477390 12.147192 0.000000
566.169370 207.690870 12.687104 0.000000
550.614750 210.099460 12.212931 0.000000
555.524540 210.048980 12.360992 0.000000
556.134830 187.099350 11.535346 0.000000
556.401250 188.013980 11.527336 0.000000
560.810240 205.563510 12.543179 0.000000
562.880130 205.626360 12.601015 0.000000
563.806580 205.937910 12.626090 0.000000
564.711850 206.319240 12.650375 0.000000
559.208920 206.883640 12.494532 0.000000
565.585390 206.823550 12.673421 0.000000
546.891970 207.424290 12.147774 0.000000
547.833860 208.044950 12.172402 0.000000
566.350340 207.764510 12.692174 0.000000
548.772950 208.673630 12.196929 0.000000
549.708010 209.314970 12.221305 0.000000
550.407840 210.405580 12.237808 0.000000
554.164550 210.450710 12.342971 0.000000
555.380190 210.457060 12.377023 0.000000
566.569890 210.987430 12.689129 0.000000
561.357120 186.099370 11.890322 0.000000
549.363280 186.745610 11.394843 0.000000
554.674440 186.733400 11.614799 0.000000
550.119510 187.145510 11.420451 0.000000
550.785710 187.634030 11.440624 0.000000
555.196900 187.306840 11.626493 0.000000
555.821170 187.752320 11.644129 0.000000
559.646420 187.477600 11.799690 0.000000
551.448300 188.122420 11.460335 0.000000
555.836610 189.037690 11.622947 0.000000
557.895690 188.784820 11.708486 0.000000
551.560240 189.265750 11.446628 0.000000
556.161500 189.942520 11.620257 0.000000
562.378050 186.167800 11.954172 0.000000
564.766970 186.119170 12.046317 0.000000
549.368650 186.627490 11.416018 0.000000
554.385070 187.152910 11.618805 0.000000
561.079280 186.905610 11.891500 0.000000
549.778500 187.410170 11.422717 0.000000
550.486450 187.886460 11.445939 0.000000
554.819210 187.865910 11.625964 0.000000
551.160950 188.393050 11.467008 0.000000
555.624020 188.118940 11.654908 0.000000
559.227600 188.383150 11.794834 0.000000
556.063780 188.840930 11.661556 0.000000
556.060120 190.193820 11.640240 0.000000
556.342220 191.204210 11.635437 0.000000
549.475770 186.323730 11.417989 0.000000
554.103150 186.228670 11.615999 0.000000
554.811280 186.615540 11.640162 0.000000
562.366210 186.466840 11.948450 0.000000
549.896850 187.099400 11.425965 0.000000
561.068850 187.135560 11.886714 0.000000
550.251890 187.956300 11.429727 0.000000
554.693790 187.980260 11.615759 0.000000
550.949400 188.463790 11.452404 0.000000
555.422790 188.358470 11.640306 0.000000
555.993710 188.930360 11.655214 0.000000
559.066890 188.736220 11.782106 0.000000
556.286870 189.878010 11.652883 0.000000
556.293760 191.255690 11.632141 0.000000
554.098750 186.210630 11.600690 0.000000
550.132810 186.706070 11.423971 0.000000
554.802730 186.626010 11.624889 0.000000
562.690370 186.304840 11.953741 0.000000
555.523560 187.013490 11.649874 0.000000
561.336850 187.005190 11.888801 0.000000
550.517640 187.532560 11.430045 0.000000
559.031430 187.635240 11.786011 0.000000
550.876160 188.402150 11.434102 0.000000
555.353090 188.456500 11.622458 0.000000
559.239320 188.652470 11.779184 0.000000
556.021060 188.928510 11.643431 0.000000
556.245610 189.966950 11.637578 0.000000
556.258180 186.167310 11.525003 0.000000
546.541750 209.641600 12.233272 0.000000
547.482240 210.419200 12.263208 0.000000
554.719060 203.273700 15.089918 0.000000
546.346190 203.651170 12.021339 0.000000
547.215820 204.399870 12.049362 0.000000
561.194950 204.566990 12.513054 0.000000
548.086360 205.150500 12.077415 0.000000
559.851440 204.928070 12.468070 0.000000
562.210570 204.805790 12.546489 0.000000
563.129030 205.234420 12.576491 0.000000
548.954220 205.909390 12.105368 0.000000
549.772580 206.745620 12.131591 0.000000
550.419980 207.849370 12.151844 0.000000
554.298160 208.161250 12.280188 0.000000
551.071470 208.982440 12.172199 0.000000
556.296020 209.221890 12.345304 0.000000
551.726930 210.148360 12.192652 0.000000
555.501220 208.338460 12.319914 0.000000
554.694210 203.257660 14.937832 0.000000
546.399600 201.510760 11.954395 0.000000
548.183040 202.902710 12.005011 0.000000
561.922120 203.356990 12.435563 0.000000
562.906860 203.634250 12.465456 0.000000
553.678770 204.841280 12.170283 0.000000
547.291690 202.207320 11.979713 0.000000
549.079530 203.590300 12.030502 0.000000
560.791440 203.327970 12.400099 0.000000
559.518740 203.509230 12.359331 0.000000
549.896420 204.383320 12.053071 0.000000
554.813960 205.111950 12.204936 0.000000
556.077640 205.150700 12.244550 0.000000
550.540160 205.423630 12.069212 0.000000
551.224550 206.434110 12.086751 0.000000
556.801940 206.046330 12.263798 0.000000
559.258730 210.732060 13.747460 0.000000
554.681760 203.236300 14.877022 0.000000
546.549560 199.370480 11.877599 0.000000
547.455440 200.031920 11.901912 0.000000
548.356510 200.693010 11.926073 0.000000
549.255740 201.351230 11.950199 0.000000
554.784480 201.283740 12.123308 0.000000
556.073430 201.271840 12.163643 0.000000
550.048220 202.137820 11.970214 0.000000
560.440120 202.047320 12.295376 0.000000
561.520080 202.189300 12.328257 0.000000
556.322020 202.761470 12.162434 0.000000
558.972230 202.500050 12.246794 0.000000
562.560850 202.372250 12.359664 0.000000
550.751460 203.045550 11.986711 0.000000
551.451900 203.973420 12.002999 0.000000
556.919680 203.782150 12.174952 0.000000
554.696660 203.141330 14.804690 0.000000
546.664980 197.312680 11.812605 0.000000
547.556210 197.977910 11.835084 0.000000
554.747010 201.202330 12.033423 0.000000
556.339110 200.813570 12.086068 0.000000
559.863590 201.107510 12.193466 0.000000
551.557560 201.774110 11.929599 0.000000
552.272160 202.654110 11.944880 0.000000
548.466190 198.615780 11.858365 0.000000
549.369020 199.253780 11.881419 0.000000
550.148560 200.027280 11.899566 0.000000
550.852970 200.894790 11.914627 0.000000
557.611390 200.807590 12.125724 0.000000
558.770320 200.924320 12.160881 0.000000
560.934080 201.298100 12.225286 0.000000
561.983280 201.496960 12.256375 0.000000
554.695560 202.990770 14.738395 0.000000
547.059390 198.078280 11.840212 0.000000
549.797420 200.069930 11.907688 0.000000
550.519840 200.939880 11.922703 0.000000
556.172240 200.856160 12.095978 0.000000
558.658870 200.979710 12.170908 0.000000
559.757080 201.194950 12.202697 0.000000
560.872130 201.356140 12.235441 0.000000
551.242980 201.819030 11.937665 0.000000
561.941350 201.560040 12.266438 0.000000
551.966250 202.709760 11.952537 0.000000
545.871640 197.665390 11.807288 0.000000
547.972960 198.748660 11.862680 0.000000
548.907350 199.388950 11.886026 0.000000
557.489620 200.835750 12.136370 0.000000
554.512880 201.270170 12.041957 0.000000
549.413210 200.110260 11.898588 0.000000
550.202090 200.930400 11.916083 0.000000
554.011960 201.633120 12.026775 0.000000
560.771550 201.440660 12.234741 0.000000
550.936400 201.818120 11.931369 0.000000
551.671450 202.715290 11.946599 0.000000
546.605710 198.091980 11.829086 0.000000
547.540770 198.774280 11.852154 0.000000
548.466610 199.457310 11.874932 0.000000
556.011600 200.857790 12.094072 0.000000
557.307680 200.913190 12.133206 0.000000
558.490840 201.081070 12.167986 0.000000
559.614500 201.300250 12.200537 0.000000
546.791200 195.939440 11.774074 0.000000
547.684940 196.652600 11.798008 0.000000
548.568850 197.367340 11.821607 0.000000
550.888670 199.831050 11.879190 0.000000
551.592040 200.736920 11.895470 0.000000
557.307860 200.753110 12.082212 0.000000
555.882080 200.820830 12.035099 0.000000
558.587040 200.827000 12.123482 0.000000
559.817320 200.926220 12.162967 0.000000
549.452150 198.075870 11.845233 0.000000
550.193360 198.926120 11.863166 0.000000
552.303960 201.643780 11.912024 0.000000
553.961180 201.430080 11.967786 0.000000
546.112790 202.810230 11.988321 0.000000
549.215880 204.921660 12.073936 0.000000
555.845150 206.319090 12.269218 0.000000
547.206120 203.462800 12.018850 0.000000
548.214780 204.191940 12.046510 0.000000
550.049440 205.838490 12.095542 0.000000
554.415710 206.242870 12.226216 0.000000
550.746700 206.926620 12.112339 0.000000
551.446350 208.033550 12.129132 0.000000
550.515560 186.358630 11.391663 0.000000
554.770320 186.943180 11.575951 0.000000
555.953190 187.239230 11.625480 0.000000
556.087100 188.388090 11.621949 0.000000
556.223330 189.564500 11.617922 0.000000
561.367980 186.232540 11.868757 0.000000
548.798770 194.133260 11.709354 0.000000
546.675290 194.335360 11.628845 0.000000
549.339420 195.188080 11.725007 0.000000
549.844730 196.286330 11.738712 0.000000
550.242310 197.498400 11.747462 0.000000
551.732540 197.708920 11.800836 0.000000
552.149050 198.918080 11.809402 0.000000
552.615840 200.103520 11.819474 0.000000
555.776920 200.148180 11.931761 0.000000
557.126890 200.344770 11.977991 0.000000
552.995300 201.405820 11.825286 0.000000
546.637020 207.343690 12.113729 0.000000
547.260500 208.649990 12.127912 0.000000
548.871340 208.916550 12.172582 0.000000
546.615050 210.628300 12.195628 0.000000
546.864380 205.682710 12.094906 0.000000
547.546810 206.919920 12.110698 0.000000
546.151310 203.800080 11.964269 0.000000
549.468260 204.435580 12.059851 0.000000
546.954410 204.917240 11.984413 0.000000
547.004700 200.495850 11.920628 0.000000
547.679080 201.672850 11.937137 0.000000
548.350770 202.863590 11.953003 0.000000
549.036680 204.054530 11.968786 0.000000
549.070250 199.777420 11.894105 0.000000
546.347290 200.245880 11.807895 0.000000
549.733280 200.939040 11.909022 0.000000
550.237300 202.251040 11.917855 0.000000
548.388670 201.363630 11.949046 0.000000
549.144650 202.505000 11.964177 0.000000
548.602420 202.166310 11.977528 0.000000
546.486020 200.479160 11.896686 0.000000
546.367550 197.805970 11.768150 0.000000
546.450380 193.010210 11.662977 0.000000
547.678340 194.123520 11.684437 0.000000
559.039790 210.404630 13.555458 0.000000
567.782650 197.004210 12.460182 0.000000
559.513670 194.123570 12.215046 0.000000
564.512080 195.804760 12.360201 0.000000
566.176450 196.288670 12.404715 0.000000
569.494320 195.763430 12.598240 0.000000
564.626530 193.797670 12.451700 0.000000
566.205020 194.708890 12.512407 0.000000
567.842220 195.279330 12.557325 0.000000
554.445010 190.061740 11.912591 0.000000
557.796810 191.354830 12.013569 0.000000
559.109250 194.404790 12.181789 0.000000
560.761720 194.688930 12.213696 0.000000
563.962340 195.784120 12.303057 0.000000
565.587830 196.153230 12.338976 0.000000
567.141910 196.826780 12.389538 0.000000
568.637210 197.690870 12.449117 0.000000
547.237790 201.789370 12.199396 0.000000
548.759340 201.187820 12.183235 0.000000
550.353760 199.631100 12.116909 0.000000
552.059140 197.308620 12.010910 0.000000
553.737850 196.265900 11.972873 0.000000
554.572330 203.645750 12.375105 0.000000
555.940670 204.602630 12.440441 0.000000
557.466800 204.241230 12.437135 0.000000
558.292720 208.423900 12.668800 0.000000
559.248900 211.063450 12.819546 0.000000
562.152770 210.460210 12.817759 0.000000
563.570500 210.443450 12.831696 0.000000
566.461180 210.342440 12.856548 0.000000
547.254640 199.872160 12.124342 0.000000
548.780640 199.144990 12.103510 0.000000
550.384640 197.440230 12.031803 0.000000
552.099300 195.042690 11.924683 0.000000
553.714840 194.794890 11.930279 0.000000
554.487060 202.729200 12.359484 0.000000
555.932070 202.921480 12.386414 0.000000
557.482790 202.355130 12.374386 0.000000
558.326420 206.436200 12.600323 0.000000
561.923340 209.737920 12.816886 0.000000
563.268190 209.942780 12.843323 0.000000
564.569210 210.338420 12.879356 0.000000
566.153990 209.664430 12.862022 0.000000
567.780580 208.978760 12.844553 0.000000
553.836000 208.460270 12.487084 0.000000
556.488280 208.620970 12.528948 0.000000
545.901550 208.984990 12.417493 0.000000
547.216430 208.632170 12.414314 0.000000
548.553100 208.033390 12.397797 0.000000
549.950870 206.708150 12.341840 0.000000
551.464290 204.435420 12.234894 0.000000
552.896610 204.029170 12.230217 0.000000
555.098880 209.041200 12.534931 0.000000
557.521060 210.577580 12.650053 0.000000
560.976750 188.225250 12.181463 0.000000
562.255620 190.589160 12.305070 0.000000
565.428770 191.386140 12.372229 0.000000
566.456850 194.175660 12.513617 0.000000
567.937680 194.800570 12.556913 0.000000
569.440370 195.310880 12.594997 0.000000
570.724000 196.568620 12.666370 0.000000
569.780820 190.320220 12.674269 0.000000
567.237430 186.598940 12.480651 0.000000
568.450930 188.812640 12.592450 0.000000
553.775760 188.545070 11.924405 0.000000
558.537660 189.283580 12.048135 0.000000
559.876400 191.144810 12.165834 0.000000
561.447570 191.290760 12.201759 0.000000
566.980350 195.192250 12.498124 0.000000
568.474850 195.515500 12.541542 0.000000
565.521060 194.717250 12.447739 0.000000
569.915830 196.038210 12.593988 0.000000
547.999210 193.033480 11.775827 0.000000
549.485290 192.780330 11.800890 0.000000
551.033630 191.156660 11.752377 0.000000
552.690670 188.637650 11.657064 0.000000
554.135560 190.258540 11.778858 0.000000
555.597230 191.111180 11.858450 0.000000
557.225040 190.200100 11.845657 0.000000
558.205630 194.719330 12.109577 0.000000
559.637270 195.036770 12.156305 0.000000
564.058960 195.246610 12.252569 0.000000
565.417300 195.917020 12.312281 0.000000
566.813110 196.371220 12.360057 0.000000
568.110470 197.197240 12.424744 0.000000
569.389040 198.027680 12.488259 0.000000
546.607790 199.349640 12.079758 0.000000
570.655940 198.839940 12.549543 0.000000
560.171200 187.458100 12.017360 0.000000
564.251100 191.343410 12.253028 0.000000
565.176760 194.427080 12.413086 0.000000
566.854000 193.622560 12.384921 0.000000
568.075010 194.909620 12.455044 0.000000
569.357480 195.820680 12.505409 0.000000
569.362300 188.385440 12.580287 0.000000
570.428590 190.608250 12.677322 0.000000
549.467100 201.857730 12.056108 0.000000
545.889280 205.871460 12.225451 0.000000
550.747800 202.279750 12.102322 0.000000
548.280580 204.733030 12.204852 0.000000
552.019780 202.392000 12.128635 0.000000
547.193180 207.610950 12.354160 0.000000
553.223880 204.274930 12.257093 0.000000
555.683470 204.638170 12.309551 0.000000
554.363100 206.170230 12.383965 0.000000
556.899780 204.911800 12.338924 0.000000
569.456300 210.007260 12.686662 0.000000
557.724180 208.803830 12.575708 0.000000
562.150940 210.540440 12.707882 0.000000
563.351560 210.380040 12.703516 0.000000
566.825320 210.754240 12.731509 0.000000
554.480100 203.083440 15.364363 0.000000
552.443850 192.399260 11.701086 0.000000
548.293820 196.375870 11.881176 0.000000
551.033570 195.919220 11.888337 0.000000
547.049680 198.517790 11.986627 0.000000
545.846440 200.261200 12.068314 0.000000
549.739870 199.215880 12.062481 0.000000
556.243230 200.990360 12.224995 0.000000
553.612370 202.699890 12.303005 0.000000
554.895140 202.225800 12.286303 0.000000
557.427860 202.408720 12.313143 0.000000
567.437500 209.450090 12.714746 0.000000
568.568120 209.771030 12.726448 0.000000
569.947880 209.190370 12.685463 0.000000
560.410100 208.910830 12.694843 0.000000
559.082340 210.297940 12.770479 0.000000
563.669250 210.445070 12.782363 0.000000
564.796140 210.646220 12.791366 0.000000
565.951480 210.723430 12.792035 0.000000
552.780580 205.618700 12.084908 0.000000
551.611210 207.625340 12.199207 0.000000
547.216190 211.019410 12.354088 0.000000
550.522520 209.956010 12.333538 0.000000
565.019900 188.358180 12.355363 0.000000
566.339720 189.768520 12.429888 0.000000
567.741940 190.426240 12.467326 0.000000
569.150570 190.968460 12.498095 0.000000
570.126280 193.602660 12.626888 0.000000
550.071350 196.378480 11.857719 0.000000
548.847290 198.119480 11.942660 0.000000
552.814760 197.389920 11.951471 0.000000
547.620300 199.237290 11.990139 0.000000
546.424740 200.324070 12.035271 0.000000
551.566100 199.439300 12.056170 0.000000
556.701480 202.355290 12.283862 0.000000
557.929440 202.921810 12.328279 0.000000
558.924620 207.033140 12.577157 0.000000
559.996520 208.349910 12.662321 0.000000
560.997990 209.951640 12.762747 0.000000
569.616030 207.305570 12.642124 0.000000
562.126710 209.966860 12.770548 0.000000
563.267820 209.917370 12.773789 0.000000
564.394350 210.012330 12.784504 0.000000
565.589970 209.708600 12.771490 0.000000
566.618230 210.405790 12.815046 0.000000
567.899600 209.767900 12.781218 0.000000
552.413640 197.050200 11.844930 0.000000
548.867800 202.097840 12.098026 0.000000
547.714230 203.071440 12.138596 0.000000
546.571350 203.905210 12.170067 0.000000
555.157590 202.719970 12.215462 0.000000
556.378540 205.741130 12.408740 0.000000
557.536990 206.991940 12.494711 0.000000
558.607540 209.328740 12.643839 0.000000
563.054810 210.076830 12.719782 0.000000
570.304870 208.321780 12.639431 0.000000
564.176510 210.131550 12.728807 0.000000
568.852840 209.603150 12.712767 0.000000
567.583740 210.185880 12.744412 0.000000
560.808110 210.096710 12.706844 0.000000
561.933290 210.045560 12.711297 0.000000
552.547670 209.565800 12.279549 0.000000
551.542110 210.975340 12.355330 0.000000
554.548950 203.253750 14.980930 0.000000
551.216190 209.624160 12.329439 0.000000
550.264340 211.053130 12.401352 0.000000
552.582520 199.807740 11.995378 0.000000
569.375180 199.996190 12.211926 0.000000
551.430540 201.183750 12.057035 0.000000
549.290470 204.166560 12.194162 0.000000
548.169980 204.905990 12.215734 0.000000
556.625490 204.178700 12.320951 0.000000
554.240110 204.794370 12.320329 0.000000
545.927730 206.083800 12.238276 0.000000
547.066770 205.632540 12.235968 0.000000
555.463930 205.130430 12.360001 0.000000
557.889710 206.788390 12.495117 0.000000
566.984800 209.011320 12.728763 0.000000
570.513790 208.577550 12.727436 0.000000
569.265990 209.108400 12.751146 0.000000
560.176030 209.800930 12.705623 0.000000
570.143800 199.678850 12.223626 0.000000
548.499690 202.166930 12.124861 0.000000
547.330200 202.779330 12.139330 0.000000
546.174930 203.393340 12.153200 0.000000
557.354740 202.840150 12.299303 0.000000
558.734250 207.934560 12.617128 0.000000
567.837100 208.629290 12.737728 0.000000
566.649780 209.094190 12.757897 0.000000
559.894290 209.372790 12.715378 0.000000
561.013000 209.368770 12.727046 0.000000
562.126950 209.578190 12.750431 0.000000
563.235410 209.766450 12.771663 0.000000
564.344300 209.862010 12.786572 0.000000
565.465270 209.785490 12.790567 0.000000
552.415950 199.151180 11.963484 0.000000
551.281740 200.428040 12.022169 0.000000
550.181520 201.675510 12.078654 0.000000
549.099300 202.815700 12.128107 0.000000
546.762760 203.855470 12.147834 0.000000
554.317570 204.463470 12.307243 0.000000
556.720580 204.134190 12.319531 0.000000
555.591920 205.093900 12.362255 0.000000
558.142030 207.721310 12.551159 0.000000
569.680360 207.426090 12.625196 0.000000
568.327580 209.303860 12.730975 0.000000
567.170530 209.656040 12.745866 0.000000
559.401060 210.454960 12.728973 0.000000
560.499390 210.388730 12.736681 0.000000
561.598140 210.129500 12.732003 0.000000
562.700680 210.280360 12.751066 0.000000
563.800720 210.356200 12.764776 0.000000
566.007750 210.338420 12.779593 0.000000
564.877870 210.883290 12.804467 0.000000
552.337950 204.748470 12.110806 0.000000
551.294680 205.807080 12.156099 0.000000
550.303100 206.972630 12.208036 0.000000
549.376460 208.281600 12.269153 0.000000
554.208370 209.213170 12.419516 0.000000
556.505680 209.396850 12.469950 0.000000
555.420960 209.778630 12.475472 0.000000
569.916560 209.859270 12.655583 0.000000
550.747680 187.430360 11.523208 0.000000
549.489440 189.000820 11.589750 0.000000
548.120790 189.796660 11.610212 0.000000
554.252380 190.728700 11.761547 0.000000
555.783200 191.296570 11.815262 0.000000
558.961730 194.902830 12.059543 0.000000
560.353330 195.120670 12.088542 0.000000
561.733640 195.324400 12.115572 0.000000
563.109860 195.724180 12.152550 0.000000
564.470400 196.068300 12.185197 0.000000
548.006350 196.174160 11.961227 0.000000
565.818050 196.460310 12.219391 0.000000
567.150760 196.913790 12.255894 0.000000
546.688290 196.604580 11.960176 0.000000
568.454590 197.690950 12.309376 0.000000
569.728760 198.541690 12.365777 0.000000
559.059940 210.325740 12.926809 0.000000
554.113590 189.369080 11.788146 0.000000
549.911620 191.065920 11.801784 0.000000
558.787230 191.354770 11.972067 0.000000
548.632450 192.081990 11.830664 0.000000
547.263060 192.619810 11.830971 0.000000
545.774540 192.673050 11.801770 0.000000
560.462770 194.198060 12.151622 0.000000
561.873720 194.490860 12.187342 0.000000
563.289790 195.188510 12.244156 0.000000
564.674130 195.705980 12.289686 0.000000
566.038090 196.130310 12.328844 0.000000
567.386410 196.600190 12.369284 0.000000
568.706850 197.550960 12.434672 0.000000
570.003910 198.294220 12.487488 0.000000
550.935180 186.782100 11.653398 0.000000
555.609620 186.648590 11.722069 0.000000
554.233760 187.722310 11.758295 0.000000
549.725830 188.465360 11.721413 0.000000
548.342160 189.224950 11.736111 0.000000
546.904110 189.718690 11.734568 0.000000
559.229490 191.205720 12.018778 0.000000
560.938420 193.783830 12.180174 0.000000
562.405210 194.549320 12.239700 0.000000
563.825010 195.059080 12.283802 0.000000
565.228210 195.662160 12.331710 0.000000
566.604130 196.123570 12.370632 0.000000
567.964050 196.721820 12.415766 0.000000
569.298950 197.844970 12.488052 0.000000
570.608400 198.411040 12.528980 0.000000
551.281490 186.763280 11.636616 0.000000
550.081850 188.417630 11.700407 0.000000
557.987790 189.530670 11.902201 0.000000
548.800170 189.574190 11.735194 0.000000
545.802250 190.142380 11.700787 0.000000
547.396180 190.189700 11.737917 0.000000
553.697270 190.793090 11.895151 0.000000
559.722660 191.294250 12.023813 0.000000
561.505310 194.070590 12.199223 0.000000
562.980100 194.769350 12.257738 0.000000
564.406920 195.239010 12.302238 0.000000
565.815920 195.750060 12.347682 0.000000
567.198000 196.127380 12.384558 0.000000
568.582280 197.132660 12.454226 0.000000
569.929380 198.072950 12.518970 0.000000
549.030210 186.379000 11.628932 0.000000
547.594970 187.099610 11.637212 0.000000
546.065250 187.465790 11.624048 0.000000
562.530880 193.704910 12.242258 0.000000
565.473020 195.199890 12.360075 0.000000
566.884400 195.727230 12.404964 0.000000
568.263310 196.010800 12.435475 0.000000
569.660460 197.382480 12.523046 0.000000
555.306210 188.179440 11.902985 0.000000
560.124880 189.443660 12.041656 0.000000
560.890010 187.600340 12.032009 0.000000
562.875670 190.966980 12.230670 0.000000
564.378600 191.259340 12.264382 0.000000
566.065800 193.592620 12.404060 0.000000
567.557500 194.582950 12.471353 0.000000
570.400210 196.003460 12.572454 0.000000
563.772030 189.789930 12.239277 0.000000
565.423950 191.179760 12.330193 0.000000
568.567870 194.012220 12.509494 0.000000
570.019590 194.809970 12.564859 0.000000
566.476380 191.180760 12.392179 0.000000
567.953060 191.340910 12.416685 0.000000
569.616090 193.942570 12.564301 0.000000
563.843140 186.082610 12.145411 0.000000
565.938110 190.045090 12.367010 0.000000
567.558230 191.187040 12.442407 0.000000
554.461790 203.387910 14.501830 0.000000
559.104250 210.293910 13.332834 0.000000
559.039920 210.566210 13.391474 0.000000
559.039120 210.799730 13.750852 0.000000
554.447630 203.274230 15.059188 0.000000
546.346980 191.318680 11.361780 0.000000
547.570310 191.423130 11.491928 0.000000
547.475100 197.397600 11.597132 0.000000
546.390260 196.238430 11.579720 0.000000
550.360050 204.201680 11.891731 0.000000
549.925900 202.745850 11.887564 0.000000
549.305970 201.482820 11.876376 0.000000
548.639890 200.275390 11.863021 0.000000
549.485230 206.411190 12.016684 0.000000
548.844790 205.104280 11.997673 0.000000
548.242550 203.783000 11.979352 0.000000
550.614010 205.710110 12.001575 0.000000
550.188110 204.238310 11.994009 0.000000
547.370180 203.209980 11.910878 0.000000
549.747070 202.816410 11.985297 0.000000
546.737300 201.957470 11.894716 0.000000
550.791080 205.985660 11.987606 0.000000
550.370850 204.514630 11.982998 0.000000
549.884950 203.146030 11.975425 0.000000
546.928960 202.329250 11.890328 0.000000
549.323300 201.879750 11.964603 0.000000
546.190120 201.205120 11.872522 0.000000
550.498780 206.599120 12.045733 0.000000
549.414310 205.825900 12.018623 0.000000
548.768550 204.593370 12.005930 0.000000
548.056580 203.447650 11.990401 0.000000
547.404420 202.259260 11.976317 0.000000
553.525760 205.149960 12.139361 0.000000
555.480830 204.907550 12.121064 0.000000
550.797360 204.611620 11.975653 0.000000
549.755310 203.863250 11.945503 0.000000
556.190980 202.177800 12.156470 0.000000
549.253110 202.552460 11.934425 0.000000
555.261900 201.450990 12.130733 0.000000
548.643370 201.377040 11.918883 0.000000
548.071410 200.184570 11.904151 0.000000
558.812320 200.732210 12.048284 0.000000
557.377560 200.731840 11.994973 0.000000
552.806760 200.737320 11.822418 0.000000
556.542420 199.974170 11.966848 0.000000
555.140870 199.864320 11.914380 0.000000
551.831420 200.053190 11.787383 0.000000
551.490420 198.709380 11.778454 0.000000
551.096620 197.453490 11.766768 0.000000
550.730590 196.200230 11.755715 0.000000
549.207640 196.044950 11.696083 0.000000
548.744870 194.895970 11.680096 0.000000
548.276790 193.770970 11.663408 0.000000
547.804140 192.666960 11.646066 0.000000
559.972050 200.872100 12.063718 0.000000
558.714170 200.734760 12.017083 0.000000
557.419980 200.606580 11.968614 0.000000
555.872740 200.749500 11.908808 0.000000
555.511900 199.432480 11.900624 0.000000
553.912720 199.567900 11.837997 0.000000
552.346190 199.607330 11.776595 0.000000
551.432980 198.897340 11.743175 0.000000
551.108640 197.577560 11.734701 0.000000
550.732180 196.344680 11.723442 0.000000
550.382080 195.115570 11.712798 0.000000
548.823850 195.031360 11.649952 0.000000
548.382450 193.899570 11.634507 0.000000
547.933110 192.794300 11.618248 0.000000
547.470890 191.716900 11.600983 0.000000
560.044310 200.519900 11.924190 0.000000
557.673580 198.382450 11.849106 0.000000
556.434940 198.227910 11.801677 0.000000
556.265380 195.180590 11.815806 0.000000
555.748410 194.218110 11.801318 0.000000
554.502870 194.048740 11.752117 0.000000
551.718990 193.891600 11.639557 0.000000
553.493770 193.600070 11.713794 0.000000
559.398250 193.073460 11.954574 0.000000
551.327030 192.788540 11.629388 0.000000
550.018800 192.555300 11.576389 0.000000
549.640080 191.454680 11.565947 0.000000
549.177800 190.446900 11.551165 0.000000
548.711300 189.456540 11.535724 0.000000
546.941830 189.524250 11.460370 0.000000
546.466060 188.527360 11.443750 0.000000
565.106020 190.353910 12.197891 0.000000
567.447020 188.626890 12.301472 0.000000
569.820010 188.048660 12.396578 0.000000
550.918580 186.331740 11.394151 0.000000
549.680600 186.085240 11.341261 0.000000
556.216250 189.196010 11.596327 0.000000
558.965450 187.633350 11.731328 0.000000
556.075990 188.020190 11.603127 0.000000
555.947270 186.868470 11.609818 0.000000
554.940310 186.562940 11.569130 0.000000
551.486270 210.550230 12.212072 0.000000
556.300050 209.893650 12.361592 0.000000
555.463070 208.964720 12.337620 0.000000
550.781190 209.366960 12.192656 0.000000
554.112490 208.840620 12.296268 0.000000
550.099850 208.184390 12.173970 0.000000
549.303590 207.184620 12.151388 0.000000
548.335140 206.420870 12.123046 0.000000
547.366150 205.657750 12.094687 0.000000
560.545960 205.003230 12.501842 0.000000
546.386600 204.905840 12.065981 0.000000
552.085450 203.704010 11.962232 0.000000
551.375730 202.752210 11.945039 0.000000
563.208500 202.226530 12.332085 0.000000
562.193910 201.960570 12.300801 0.000000
557.166690 202.194670 12.136298 0.000000
561.128420 201.763460 12.267447 0.000000
560.013670 201.622800 12.232150 0.000000
550.670350 201.813390 11.927906 0.000000
558.856260 201.519840 12.195236 0.000000
556.739010 200.923920 12.130206 0.000000
555.426330 200.954060 12.087442 0.000000
549.977600 200.875610 11.911179 0.000000
549.167050 200.092450 11.889684 0.000000
548.280330 199.400120 11.865159 0.000000
547.387270 198.711360 11.840409 0.000000
546.494140 198.018010 11.815684 0.000000
564.255980 201.844020 12.231738 0.000000
563.331600 201.480410 12.204323 0.000000
562.370610 201.177550 12.175173 0.000000
561.367920 200.935820 12.144116 0.000000
560.286800 200.809170 12.109472 0.000000
559.156010 200.735280 12.072728 0.000000
557.942140 200.758850 12.032394 0.000000
556.830080 200.584500 11.997139 0.000000
552.861330 200.756150 11.864451 0.000000
555.836980 200.206470 11.967578 0.000000
554.682740 200.041610 11.930847 0.000000
