# .PCD v0.7 - Point Cloud Data file format
VERSION 0.7
FIELDS x y z intensity
SIZE 4 4 4 4
TYPE F F F F
COUNT 1 1 1 1
WIDTH 1166
HEIGHT 1
VIEWPOINT 0 0 0 1 0 0 0
POINTS 1166
DATA ascii
568.426880 285.835330 15.747934 0.000000
555.830570 279.804380 15.484222 0.000000
555.511540 279.971500 15.512078 0.000000
555.519230 280.171720 15.515906 0.000000
557.721500 283.449490 15.706684 0.000000
556.981320 282.938480 15.737906 0.000000
555.836360 283.240750 15.797812 0.000000
556.236760 283.166960 15.497259 0.000000
556.442200 283.487880 15.483377 0.000000
556.228330 283.884770 15.783644 0.000000
555.650390 283.871150 15.811237 0.000000
551.746220 279.811770 15.456090 0.000000
554.039730 282.742920 15.416746 0.000000
554.293210 282.946900 15.513227 0.000000
554.566410 283.167600 15.612690 0.000000
551.698550 280.071290 15.464405 0.000000
552.656310 282.780940 15.640012 0.000000
552.981450 283.424770 15.498802 0.000000
553.700260 284.025630 15.664674 0.000000
552.235720 282.886960 15.472709 0.000000
551.564940 282.907960 15.536262 0.000000
551.238340 282.716490 15.570775 0.000000
551.583800 283.174590 15.619975 0.000000
550.689090 282.780700 15.702179 0.000000
550.830870 282.996460 15.597869 0.000000
551.284000 283.604610 15.535545 0.000000
552.003910 284.417300 15.551435 0.000000
550.956480 283.826810 15.463699 0.000000
550.687190 283.987060 15.480403 0.000000
559.889950 265.783870 15.650237 0.000000
559.468140 265.679110 15.647355 0.000000
567.526670 280.086820 16.141508 0.000000
567.711670 280.509250 16.152828 0.000000
555.524660 279.961360 15.883461 0.000000
555.523010 280.160640 15.888661 0.000000
557.638490 282.892090 16.010925 0.000000
557.492070 283.359340 16.024010 0.000000
557.120300 282.976620 16.027866 0.000000
555.298580 282.800230 16.077883 0.000000
555.375240 282.943300 15.947718 0.000000
554.915040 283.093320 15.841564 0.000000
551.767030 279.802060 15.871630 0.000000
554.038270 282.723050 16.112732 0.000000
554.342040 283.267330 16.112480 0.000000
551.660710 279.918400 15.880742 0.000000
551.689270 280.056880 15.881592 0.000000
553.947390 282.884890 16.117817 0.000000
554.310910 283.466670 16.116167 0.000000
554.275270 283.665990 16.119827 0.000000
553.410580 283.043120 15.913335 0.000000
554.098690 283.794190 16.126226 0.000000
553.578980 283.732180 16.139296 0.000000
552.070370 282.657140 15.974619 0.000000
552.176700 282.892880 15.773798 0.000000
552.520260 283.345790 16.162636 0.000000
551.773440 282.929930 15.894336 0.000000
551.009090 282.652250 16.022921 0.000000
551.516170 283.128300 15.813540 0.000000
551.587160 283.347230 15.901288 0.000000
551.997130 283.798310 15.977443 0.000000
551.044560 283.520420 15.836164 0.000000
551.486450 283.648190 15.807585 0.000000
551.782710 284.038020 16.187338 0.000000
550.468080 282.943120 16.045607 0.000000
550.552370 283.248020 16.040512 0.000000
550.536130 283.496280 15.866269 0.000000
550.967650 283.829900 15.834549 0.000000
550.337520 283.425170 16.047983 0.000000
559.482600 265.648100 16.083445 0.000000
567.532530 280.070950 16.650034 0.000000
555.891660 279.778230 16.501263 0.000000
555.482060 279.941070 16.378294 0.000000
555.457580 280.136660 16.384314 0.000000
557.392820 282.923680 16.621786 0.000000
557.580080 283.247830 16.481760 0.000000
557.099240 283.722440 16.342995 0.000000
555.858890 283.002230 16.335585 0.000000
556.377440 283.552370 16.630142 0.000000
555.686520 283.398560 16.346781 0.000000
555.839360 283.700230 16.352802 0.000000
551.791930 279.792970 16.286451 0.000000
554.936890 283.531520 16.356005 0.000000
551.661620 279.905980 16.290863 0.000000
551.680110 280.042630 16.294565 0.000000
553.989200 283.148010 16.471769 0.000000
554.044980 283.327060 16.594900 0.000000
554.386470 283.708280 16.611416 0.000000
552.738460 283.077760 16.466558 0.000000
552.252750 282.652250 16.356386 0.000000
552.721980 283.261380 16.366638 0.000000
551.636350 282.795810 16.457424 0.000000
552.389590 283.643520 16.585421 0.000000
551.087460 282.716310 16.365883 0.000000
551.399960 283.043090 16.371094 0.000000
551.609560 283.442350 16.282742 0.000000
550.547850 282.826080 16.536739 0.000000
551.063720 283.002380 16.372696 0.000000
551.144100 283.397030 16.471558 0.000000
551.323670 283.894440 16.388931 0.000000
550.444150 283.079620 16.377827 0.000000
551.123470 283.843840 16.201330 0.000000
551.554990 284.265010 16.394880 0.000000
550.352910 283.514920 16.386805 0.000000
550.585820 283.886840 16.213596 0.000000
550.725400 283.815060 16.210159 0.000000
559.835210 265.810240 16.092951 0.000000
567.263550 280.458130 16.659443 0.000000
555.517210 279.833890 16.745968 0.000000
555.428340 280.121370 16.753078 0.000000
555.421020 280.319120 16.759878 0.000000
551.664980 279.893980 16.700798 0.000000
551.672060 280.028630 16.706242 0.000000
552.293700 282.840330 16.756067 0.000000
552.715760 283.538700 16.799294 0.000000
551.244690 282.939000 16.727802 0.000000
551.480290 283.258120 16.749086 0.000000
552.471370 284.299680 16.825533 0.000000
550.390750 283.037480 16.541752 0.000000
559.482240 265.629670 16.520477 0.000000
559.745060 265.866030 16.532400 0.000000
568.666690 277.136440 17.102127 0.000000
568.356810 277.577700 17.105543 0.000000
568.138790 278.004910 17.111776 0.000000
568.067500 278.422610 17.122824 0.000000
568.958980 280.139680 17.209917 0.000000
554.601680 262.388280 16.339851 0.000000
554.213440 262.378200 16.330584 0.000000
567.436650 279.643400 17.141756 0.000000
553.831540 262.370670 16.321625 0.000000
567.115170 280.430760 17.157619 0.000000
555.451840 279.816220 17.112865 0.000000
555.484680 280.121030 17.002754 0.000000
555.292600 280.288850 17.120808 0.000000
554.406070 281.453220 17.229633 0.000000
551.668820 279.884550 17.030443 0.000000
551.667970 280.017820 17.036469 0.000000
552.483220 281.075710 17.255005 0.000000
552.641480 281.282070 17.282194 0.000000
567.783260 266.873990 17.372387 0.000000
559.414670 265.668820 16.955414 0.000000
559.629330 265.943180 16.966394 0.000000
566.923160 277.229310 17.542948 0.000000
566.935850 277.625550 17.555660 0.000000
566.941470 278.021850 17.568281 0.000000
554.201970 262.375240 16.746986 0.000000
567.249760 279.619380 17.638124 0.000000
562.687870 278.464970 17.345600 0.000000
555.422000 279.506040 17.468615 0.000000
555.351990 279.696040 17.469301 0.000000
555.274410 280.274870 17.486656 0.000000
556.596620 281.594480 17.402092 0.000000
553.384400 280.486270 17.516863 0.000000
554.571660 282.082460 17.514116 0.000000
553.162600 280.768430 17.506319 0.000000
554.347530 282.304720 17.506573 0.000000
551.673710 279.872620 17.446989 0.000000
551.664610 280.004580 17.452976 0.000000
569.875850 263.503720 17.438238 0.000000
570.391300 264.405210 17.473969 0.000000
570.714420 264.822200 17.495323 0.000000
559.721010 265.848630 17.409483 0.000000
559.927860 266.131620 17.420029 0.000000
559.334780 265.718690 17.386732 0.000000
567.141970 279.598820 18.133776 0.000000
565.417240 279.158780 17.984650 0.000000
555.543580 266.694850 17.509394 0.000000
555.759280 266.884370 17.519314 0.000000
565.230770 281.367130 18.053535 0.000000
565.744320 282.976010 18.162825 0.000000
556.044430 276.533110 17.711384 0.000000
557.699950 280.141450 18.019815 0.000000
555.549870 278.124330 17.684120 0.000000
555.565730 278.321440 17.691715 0.000000
555.292480 279.581670 17.826494 0.000000
556.104490 280.383610 17.972061 0.000000
553.540830 280.504700 17.959251 0.000000
552.824950 281.158360 17.888983 0.000000
552.619810 281.419860 17.876949 0.000000
560.041260 265.564150 17.881876 0.000000
561.151490 266.967440 17.944473 0.000000
561.505190 267.162200 17.971151 0.000000
559.463810 265.120940 17.847343 0.000000
559.163270 265.847500 17.805889 0.000000
559.849240 266.175990 17.852779 0.000000
566.970580 279.575840 18.619982 0.000000
556.586300 266.871460 17.956297 0.000000
555.833860 266.370180 17.911604 0.000000
556.054200 266.565670 17.921944 0.000000
568.606140 283.993770 18.427973 0.000000
557.024780 279.375000 18.476017 0.000000
555.214780 279.563960 18.184086 0.000000
562.698430 267.255680 18.549526 0.000000
560.980350 266.182500 18.403824 0.000000
561.905700 267.316010 18.464930 0.000000
569.729740 277.460020 18.826124 0.000000
560.162600 265.444030 18.349289 0.000000
559.414490 265.145540 18.289629 0.000000
559.905520 266.112370 18.300064 0.000000
560.403500 267.467680 18.305632 0.000000
561.573430 268.769440 18.395054 0.000000
561.947880 268.960660 18.431454 0.000000
559.070560 265.908780 18.227152 0.000000
560.518920 267.802460 18.307878 0.000000
567.784550 278.785860 18.673510 0.000000
567.881350 281.273160 18.777481 0.000000
563.222290 267.383940 18.601883 0.000000
560.276430 265.329830 18.825003 0.000000
559.384830 265.152620 18.734596 0.000000
559.971740 266.484770 18.732975 0.000000
568.807010 278.344420 19.303532 0.000000
569.419130 278.775970 19.392078 0.000000
558.978760 265.969390 18.645538 0.000000
567.225830 279.569730 19.153305 0.000000
566.682740 279.156190 19.072189 0.000000
564.205380 266.778720 19.233967 0.000000
563.514830 266.730500 19.149534 0.000000
562.960390 266.617920 19.085239 0.000000
561.849980 265.985020 18.976852 0.000000
562.298830 266.594020 19.005280 0.000000
561.475650 265.793060 18.941154 0.000000
561.951900 266.374360 18.972330 0.000000
559.245120 264.780730 19.193470 0.000000
558.149720 264.376950 19.089333 0.000000
559.973630 266.464810 19.176157 0.000000
557.601070 263.949220 19.058563 0.000000
557.835390 264.204900 19.065475 0.000000
558.888730 266.028560 19.061649 0.000000
568.293820 279.173980 19.803110 0.000000
565.838440 281.400540 19.545746 0.000000
563.320310 265.889830 19.667913 0.000000
562.941960 265.665950 19.627148 0.000000
559.069030 261.747890 19.406670 0.000000
561.657290 265.637180 19.452637 0.000000
562.082580 265.797210 19.501343 0.000000
560.388120 265.216980 19.309864 0.000000
569.570250 276.986720 19.920780 0.000000
569.252260 277.883420 19.899082 0.000000
569.201840 278.321110 19.905067 0.000000
569.294860 278.757390 19.932648 0.000000
570.595700 280.144590 20.171375 0.000000
566.090820 278.348480 19.946396 0.000000
568.520140 281.309780 19.924843 0.000000
566.645320 283.504120 20.290226 0.000000
566.344970 283.845490 20.264393 0.000000
568.973690 277.007900 20.389107 0.000000
568.466800 277.466460 20.316179 0.000000
568.270320 277.896580 20.295208 0.000000
568.415410 281.281430 20.452341 0.000000
567.759280 281.627230 20.361694 0.000000
567.872560 282.062130 20.403866 0.000000
568.737300 268.354060 20.373098 0.000000
570.283570 261.872920 20.855076 0.000000
570.533510 262.353030 20.867125 0.000000
570.189210 276.131770 14.738023 0.000000
570.378420 276.560240 14.754063 0.000000
569.460510 275.792910 14.756807 0.000000
570.727780 278.345250 14.839915 0.000000
568.759220 275.472810 14.774781 0.000000
569.866760 281.902310 15.073359 0.000000
570.238650 282.383610 15.075327 0.000000
569.369450 281.426610 15.078119 0.000000
569.785030 282.778230 15.118510 0.000000
565.519170 277.546510 14.623376 0.000000
565.739440 277.893400 14.627748 0.000000
564.878110 276.899660 14.631405 0.000000
565.112980 277.228580 14.634620 0.000000
563.927920 276.345250 14.667094 0.000000
564.325990 276.627010 14.655728 0.000000
563.241330 275.795100 14.680843 0.000000
563.409910 276.098790 14.689528 0.000000
562.758970 275.566890 14.700846 0.000000
564.365780 278.355800 14.761974 0.000000
563.338680 278.751650 14.864857 0.000000
561.551270 277.680080 14.564064 0.000000
561.941470 277.937230 14.542324 0.000000
563.493230 281.365690 14.988140 0.000000
563.944520 281.743770 14.970231 0.000000
564.091130 282.101260 14.974426 0.000000
564.104550 282.446470 14.987844 0.000000
560.511900 276.676180 14.595617 0.000000
560.692750 276.929380 14.596480 0.000000
561.076900 277.302250 14.585100 0.000000
563.061340 281.005800 15.004878 0.000000
564.184880 282.804570 14.996130 0.000000
559.849610 276.251860 14.627804 0.000000
560.126890 276.470310 14.617701 0.000000
563.631650 283.055050 15.048179 0.000000
559.043090 275.636690 14.655765 0.000000
559.442990 275.937590 14.642077 0.000000
560.445920 278.366640 14.718208 0.000000
563.364690 283.343690 15.079305 0.000000
558.781250 275.444430 14.664458 0.000000
560.217590 278.657650 14.758941 0.000000
563.264400 283.829680 15.104081 0.000000
560.185670 278.930270 14.778497 0.000000
560.060420 279.204250 14.806908 0.000000
563.089110 284.467350 15.138224 0.000000
558.708250 277.666440 14.530504 0.000000
559.039610 277.998470 14.514211 0.000000
560.050600 279.471860 14.822933 0.000000
560.117800 279.739170 14.830751 0.000000
557.879700 276.957340 14.575380 0.000000
558.108830 277.152440 14.563594 0.000000
558.355220 277.351230 14.549495 0.000000
560.130370 280.949890 14.888820 0.000000
557.119260 276.315160 14.610769 0.000000
557.458800 276.577610 14.593729 0.000000
557.680360 276.762020 14.583048 0.000000
560.055050 281.483430 14.919147 0.000000
560.146910 281.903590 14.926739 0.000000
556.175540 275.581570 14.651393 0.000000
556.456050 275.825440 14.642814 0.000000
556.785100 276.063600 14.627106 0.000000
557.771670 278.379240 14.693743 0.000000
560.298710 282.342740 14.927837 0.000000
560.423890 282.787140 14.930687 0.000000
560.353030 283.056850 14.946093 0.000000
560.279600 283.325530 14.961183 0.000000
560.152950 283.580410 14.980500 0.000000
556.421510 277.698390 14.543052 0.000000
556.692690 277.973720 14.525968 0.000000
560.023500 283.832340 14.999482 0.000000
555.531310 276.862490 14.595682 0.000000
555.796020 277.101560 14.580546 0.000000
556.062130 277.349910 14.564980 0.000000
556.241760 277.521640 14.554093 0.000000
559.842590 284.353820 15.028820 0.000000
554.373110 275.659420 14.628550 0.000000
554.578740 275.874240 14.625210 0.000000
554.851070 276.170620 14.620444 0.000000
555.119870 276.479640 14.615453 0.000000
555.356200 276.709010 14.605431 0.000000
555.900210 278.384640 14.669726 0.000000
554.235290 275.520200 14.630660 0.000000
556.960510 280.599760 14.916739 0.000000
556.942870 280.920100 14.932430 0.000000
557.085270 281.261440 14.928596 0.000000
557.292910 281.622650 14.916369 0.000000
554.443300 277.430850 14.574884 0.000000
554.725890 277.730350 14.556446 0.000000
555.008730 278.045230 14.537133 0.000000
557.376530 282.202880 14.924449 0.000000
557.414120 282.556790 14.929320 0.000000
553.104740 275.851870 14.609016 0.000000
553.339720 276.104160 14.604893 0.000000
553.628910 276.432280 14.599469 0.000000
553.856260 276.706730 14.594748 0.000000
554.134520 277.065160 14.588426 0.000000
554.503600 278.387390 14.647869 0.000000
555.090760 278.935910 14.823762 0.000000
557.228210 282.859770 14.958411 0.000000
552.807560 275.551210 14.613498 0.000000
552.985960 275.729860 14.610955 0.000000
555.137450 279.750700 14.865605 0.000000
555.249630 280.486270 14.884819 0.000000
556.950740 283.017090 14.994246 0.000000
554.068120 278.611270 14.736915 0.000000
553.907780 278.953430 14.788112 0.000000
555.277530 280.673460 14.888560 0.000000
555.242800 281.041140 14.907111 0.000000
555.305600 281.425320 14.910645 0.000000
556.680600 283.168370 15.028595 0.000000
553.885380 279.115840 14.802783 0.000000
553.870610 279.436520 14.825204 0.000000
553.924930 279.755650 14.834393 0.000000
555.248540 281.604640 14.923773 0.000000
555.222530 281.884490 14.934310 0.000000
554.033140 280.406340 14.847214 0.000000
554.056150 280.653900 14.852966 0.000000
555.190250 282.164340 14.944736 0.000000
555.148990 282.443730 14.955148 0.000000
555.094540 282.720730 14.966356 0.000000
554.046200 280.899510 14.863109 0.000000
554.031980 281.229130 14.874836 0.000000
553.996400 281.556300 14.888323 0.000000
554.955930 282.874480 14.986925 0.000000
553.884700 281.867710 14.911561 0.000000
553.700560 282.325410 14.945454 0.000000
553.499020 282.771180 14.977565 0.000000
552.306950 285.561430 15.067077 0.000000
552.109620 285.939090 15.070757 0.000000
569.994320 267.898960 14.766891 0.000000
567.488280 274.455810 14.776539 0.000000
568.180300 275.151520 14.785478 0.000000
566.659670 273.833860 14.778145 0.000000
567.105830 274.131070 14.774907 0.000000
567.403930 274.890140 14.810417 0.000000
563.059140 268.254430 14.516805 0.000000
563.297420 268.551700 14.531861 0.000000
563.530150 268.854220 14.547199 0.000000
563.869450 269.317260 14.570591 0.000000
564.198000 269.789830 14.594429 0.000000
564.284420 270.172030 14.621769 0.000000
564.429140 270.523590 14.643291 0.000000
565.070130 271.901890 14.719672 0.000000
565.416930 272.180450 14.723014 0.000000
565.940980 273.224950 14.772955 0.000000
566.353580 273.509460 14.771517 0.000000
564.503600 270.905700 14.670342 0.000000
564.577640 271.284670 14.696727 0.000000
564.749820 271.621030 14.714354 0.000000
565.585570 272.933320 14.770407 0.000000
568.813780 278.865570 14.975740 0.000000
562.497920 268.168300 14.534707 0.000000
561.882570 268.136410 14.559461 0.000000
568.146240 279.297180 15.036678 0.000000
568.170960 279.705470 15.057269 0.000000
561.279240 268.117070 14.584396 0.000000
560.731380 268.078370 14.604727 0.000000
560.264400 267.997160 14.617257 0.000000
559.988710 267.781010 14.608728 0.000000
568.534480 283.046780 15.199549 0.000000
559.052980 267.467900 14.617311 0.000000
567.982790 283.383580 15.244579 0.000000
556.181700 263.325650 14.292799 0.000000
556.587710 263.948760 14.347505 0.000000
556.790890 264.249050 14.373062 0.000000
556.925600 264.627590 14.408540 0.000000
557.259700 264.757350 14.411392 0.000000
557.343870 265.180420 14.452327 0.000000
557.502500 265.507050 14.480486 0.000000
557.657780 265.830230 14.508020 0.000000
558.038210 266.387600 14.550489 0.000000
558.102540 266.782960 14.587392 0.000000
558.314150 267.030240 14.603774 0.000000
558.577210 267.230530 14.613205 0.000000
555.259520 262.145510 14.188641 0.000000
555.444460 262.525910 14.225732 0.000000
555.915950 263.094020 14.275152 0.000000
556.298100 263.760280 14.335941 0.000000
567.355100 283.689580 15.291995 0.000000
554.575870 261.900240 14.177258 0.000000
554.822450 262.185610 14.203277 0.000000
561.801210 274.833100 14.717424 0.000000
561.924620 275.120880 14.730310 0.000000
562.386110 275.326630 14.711208 0.000000
566.949160 284.018590 15.327771 0.000000
553.938540 261.581790 14.155113 0.000000
554.175350 261.894650 14.185207 0.000000
560.134460 272.867950 14.674681 0.000000
560.606630 273.632420 14.707535 0.000000
560.803340 273.876860 14.713872 0.000000
560.999210 274.125370 14.720153 0.000000
561.208620 274.373260 14.724932 0.000000
553.572450 261.520290 14.155301 0.000000
559.392820 272.254090 14.670116 0.000000
559.801210 272.537840 14.668130 0.000000
560.296810 273.437010 14.713039 0.000000
566.453860 284.316650 15.366709 0.000000
558.147520 270.672490 14.597115 0.000000
558.413820 271.005950 14.614000 0.000000
558.669920 271.347930 14.631526 0.000000
558.762570 271.622280 14.652295 0.000000
559.078670 271.934390 14.661219 0.000000
562.849850 279.093020 14.922315 0.000000
566.002140 284.609680 15.402634 0.000000
556.757570 269.263030 14.529577 0.000000
556.936520 269.476620 14.542994 0.000000
557.199710 269.801180 14.563014 0.000000
557.457030 270.130340 14.583024 0.000000
557.529540 270.421600 14.609375 0.000000
562.677310 279.567870 14.961881 0.000000
555.780400 268.271210 14.469196 0.000000
556.035460 268.605800 14.494638 0.000000
556.280580 268.945500 14.520342 0.000000
554.898860 267.590610 14.431453 0.000000
555.035220 267.855650 14.456883 0.000000
555.331240 268.142330 14.476558 0.000000
553.941470 266.546690 14.344593 0.000000
554.037170 266.893130 14.383932 0.000000
554.376280 267.359590 14.427011 0.000000
554.585390 267.537290 14.439369 0.000000
553.531370 266.399290 14.342136 0.000000
558.389950 275.169710 14.677563 0.000000
552.827150 265.945590 14.309846 0.000000
553.141970 266.233310 14.335671 0.000000
556.733460 273.353730 14.652880 0.000000
556.967650 273.635350 14.661486 0.000000
557.195920 273.924100 14.670436 0.000000
557.420290 274.219820 14.679277 0.000000
557.638120 274.522610 14.688471 0.000000
558.027950 274.898590 14.687251 0.000000
552.322330 265.702640 14.295078 0.000000
555.581600 272.134610 14.614252 0.000000
555.835450 272.383480 14.622356 0.000000
556.168760 272.725280 14.633230 0.000000
556.413510 272.989870 14.641616 0.000000
556.574280 273.170320 14.647243 0.000000
551.454900 265.251680 14.261284 0.000000
551.789250 265.518620 14.287194 0.000000
554.959660 271.594090 14.598339 0.000000
555.320010 271.896240 14.606875 0.000000
550.679690 264.932770 14.237937 0.000000
551.139160 265.273590 14.272536 0.000000
553.980710 270.793460 14.568724 0.000000
554.235960 271.017460 14.579631 0.000000
554.593990 271.305110 14.590055 0.000000
550.141420 264.778810 14.228633 0.000000
550.412780 264.848790 14.232502 0.000000
553.186400 270.164490 14.537542 0.000000
553.544190 270.436490 14.551136 0.000000
553.807620 270.648350 14.561625 0.000000
549.600460 264.641660 14.219954 0.000000
549.869930 264.712010 14.224766 0.000000
552.449460 269.657560 14.511594 0.000000
552.821350 269.904820 14.524361 0.000000
555.138850 274.554930 14.658471 0.000000
555.427860 274.870330 14.661700 0.000000
555.760380 275.177700 14.657363 0.000000
556.009460 275.417140 14.653881 0.000000
549.058110 264.518400 14.211492 0.000000
549.330690 264.574160 14.215106 0.000000
551.782780 269.255980 14.490477 0.000000
552.070620 269.423650 14.499386 0.000000
553.835210 273.125060 14.618423 0.000000
554.053710 273.333370 14.624002 0.000000
554.409910 273.694210 14.633546 0.000000
554.686770 273.994660 14.641624 0.000000
554.883060 274.231260 14.648830 0.000000
548.652830 264.426420 14.204019 0.000000
550.998780 268.846220 14.468170 0.000000
551.295350 268.993840 14.476269 0.000000
551.588620 269.149080 14.484794 0.000000
553.160400 272.537600 14.602160 0.000000
553.463560 272.792140 14.609297 0.000000
553.687620 272.989750 14.614745 0.000000
556.645510 278.807310 14.858384 0.000000
548.244510 264.349430 14.197808 0.000000
550.498840 268.615940 14.455015 0.000000
550.799740 268.751460 14.462811 0.000000
552.459720 272.004970 14.586777 0.000000
552.851870 272.294040 14.595241 0.000000
556.672670 279.223330 14.880653 0.000000
556.743710 279.639950 14.895694 0.000000
547.698490 264.261840 14.190076 0.000000
547.971740 264.303280 14.193824 0.000000
549.998780 268.390900 14.439981 0.000000
551.492370 271.377260 14.567540 0.000000
551.737180 271.525700 14.572287 0.000000
552.061280 271.731380 14.578525 0.000000
553.403320 274.741580 14.640614 0.000000
553.680050 274.992160 14.638024 0.000000
554.027340 275.317170 14.633683 0.000000
547.151120 264.190520 14.182930 0.000000
547.424930 264.224240 14.186445 0.000000
549.191530 268.050480 14.413999 0.000000
549.496890 268.171880 14.423482 0.000000
550.916690 271.050230 14.555843 0.000000
551.245120 271.235780 14.562974 0.000000
552.292360 273.620850 14.612954 0.000000
552.484440 273.795560 14.617590 0.000000
552.798160 274.097930 14.625364 0.000000
553.104000 274.413390 14.633213 0.000000
553.283330 274.609340 14.637936 0.000000
546.732670 264.199920 14.185251 0.000000
548.779970 267.899900 14.401712 0.000000
548.986450 267.973390 14.407768 0.000000
550.184940 270.637630 14.533854 0.000000
550.512630 270.815550 14.543536 0.000000
551.564330 273.025180 14.596331 0.000000
551.899050 273.288210 14.603865 0.000000
552.162410 273.507630 14.609951 0.000000
555.080570 279.298800 14.848050 0.000000
546.328190 264.114990 14.173456 0.000000
548.152590 267.703610 14.385031 0.000000
548.468260 267.795500 14.392754 0.000000
549.687070 270.386990 14.518837 0.000000
550.018860 270.553650 14.529263 0.000000
550.874880 272.542110 14.581585 0.000000
551.222530 272.777040 14.588894 0.000000
552.207640 274.989690 14.619679 0.000000
552.449460 275.207460 14.617421 0.000000
552.629460 275.376370 14.615520 0.000000
555.103940 279.569640 14.860502 0.000000
545.779050 264.083440 14.167671 0.000000
547.518920 267.526610 14.367753 0.000000
547.837650 267.608460 14.375717 0.000000
549.187130 270.143550 14.501427 0.000000
550.090210 272.075230 14.565909 0.000000
550.378360 272.237670 14.571509 0.000000
550.663700 272.407680 14.577207 0.000000
551.231140 274.097600 14.606070 0.000000
551.571110 274.405760 14.614267 0.000000
551.847410 274.674900 14.620898 0.000000
552.024720 274.832030 14.621226 0.000000
556.324890 283.285250 15.071840 0.000000
547.089970 267.433560 14.358227 0.000000
547.304870 267.478030 14.362864 0.000000
548.417420 269.822690 14.476753 0.000000
548.762510 269.958190 14.487460 0.000000
549.578980 271.812380 14.555943 0.000000
549.871890 271.959780 14.561699 0.000000
550.521000 273.534760 14.589963 0.000000
550.880680 273.807400 14.598015 0.000000
555.725590 282.878910 15.387791 0.000000
556.189270 283.672090 15.360096 0.000000
546.765870 267.375310 14.351810 0.000000
547.891910 269.640590 14.461519 0.000000
548.155940 269.728060 14.468993 0.000000
548.768430 271.433810 14.536447 0.000000
549.065610 271.564540 14.543482 0.000000
549.360050 271.702970 14.550684 0.000000
549.774900 273.044340 14.574527 0.000000
550.151430 273.281190 14.582359 0.000000
546.222600 267.297490 14.342148 0.000000
547.358090 269.483490 14.447155 0.000000
547.624760 269.562990 14.455053 0.000000
548.318180 271.252140 14.525435 0.000000
548.544130 271.340480 14.530851 0.000000
549.068970 272.651250 14.559193 0.000000
549.390750 272.825680 14.566882 0.000000
555.170410 283.116970 15.445554 0.000000
546.817570 269.348790 14.433155 0.000000
547.088560 269.413510 14.440199 0.000000
547.785220 271.064180 14.512648 0.000000
548.090330 271.169460 14.520133 0.000000
548.545900 272.394810 14.545963 0.000000
548.874450 272.550900 14.554217 0.000000
554.545100 282.929720 15.158729 0.000000
554.514950 283.115420 15.048492 0.000000
546.271240 269.235080 14.419220 0.000000
546.545290 269.288450 14.426074 0.000000
547.248720 270.888430 14.497047 0.000000
547.556700 270.984800 14.505842 0.000000
547.808650 272.090760 14.528153 0.000000
548.079040 272.194700 14.534582 0.000000
553.976990 282.917210 15.337853 0.000000
554.310060 283.274380 15.189444 0.000000
545.903750 269.172910 14.410329 0.000000
546.703920 270.737550 14.481585 0.000000
546.938900 270.797090 14.487874 0.000000
547.260070 271.908050 14.515533 0.000000
547.535280 271.996150 14.521824 0.000000
551.680910 279.863220 15.213504 0.000000
546.229860 270.633330 14.469287 0.000000
546.467830 270.681820 14.475221 0.000000
546.702820 271.757110 14.503199 0.000000
546.981930 271.830320 14.509585 0.000000
551.732730 280.109190 15.216539 0.000000
553.050480 283.111850 15.044495 0.000000
545.910950 270.575500 14.461350 0.000000
546.138000 271.638180 14.491175 0.000000
546.421140 271.694340 14.497162 0.000000
552.628420 282.779820 15.113086 0.000000
545.853090 271.591520 14.485309 0.000000
552.198670 282.830930 15.358982 0.000000
552.219970 283.002960 15.172609 0.000000
551.179690 282.817410 15.332519 0.000000
551.237610 283.057310 15.318177 0.000000
551.781190 283.644350 15.401887 0.000000
551.093380 283.343050 15.330165 0.000000
551.357360 283.568790 15.285281 0.000000
550.790340 283.527040 15.366718 0.000000
550.936160 283.928250 15.329570 0.000000
569.376100 267.659180 14.767919 0.000000
568.357300 267.116760 14.757933 0.000000
568.860660 267.384610 14.763035 0.000000
567.865480 266.855190 14.752602 0.000000
565.484250 263.459290 14.553246 0.000000
566.116580 264.701570 14.635698 0.000000
566.392090 265.065980 14.656907 0.000000
566.563600 265.498930 14.685839 0.000000
566.800420 265.887240 14.709230 0.000000
567.412170 266.583620 14.745082 0.000000
564.770260 262.856810 14.521812 0.000000
565.137080 263.148130 14.536666 0.000000
565.611390 263.939970 14.588471 0.000000
565.860230 264.323940 14.612606 0.000000
564.421510 262.553960 14.505241 0.000000
561.967220 261.179110 14.443277 0.000000
562.323790 261.446470 14.458784 0.000000
562.542600 261.854310 14.488671 0.000000
560.182370 265.759060 14.865644 0.000000
559.511350 265.396150 14.850329 0.000000
570.024480 285.508480 15.787643 0.000000
569.509090 285.846830 15.819025 0.000000
557.174320 282.803310 15.810482 0.000000
557.512020 283.125180 15.804198 0.000000
555.761170 282.876500 15.636910 0.000000
555.311160 282.947880 15.672279 0.000000
554.508000 282.889280 15.729843 0.000000
554.437130 283.054470 15.739244 0.000000
553.986020 283.080600 15.772654 0.000000
554.059940 283.293060 15.772127 0.000000
551.688350 279.851040 15.445401 0.000000
553.811340 283.027470 15.571321 0.000000
551.712400 280.095670 15.453951 0.000000
553.499880 283.254520 15.811410 0.000000
554.122010 284.291720 15.786080 0.000000
552.457580 282.686190 15.691730 0.000000
552.625310 282.839170 15.490754 0.000000
552.127380 282.788270 15.634221 0.000000
552.301570 283.011290 15.709833 0.000000
552.438540 283.479430 15.701102 0.000000
551.519650 282.757420 15.448753 0.000000
551.286680 282.760250 15.641410 0.000000
551.525090 283.188080 15.610252 0.000000
551.928830 284.225950 15.557700 0.000000
550.771240 282.739690 15.619731 0.000000
550.877260 283.031340 15.604420 0.000000
551.282350 283.350250 15.801683 0.000000
551.168460 283.594390 15.644412 0.000000
551.202270 283.929230 15.636247 0.000000
550.532170 283.036680 15.569675 0.000000
550.822200 283.838200 15.594984 0.000000
550.686650 284.060360 15.521027 0.000000
560.154660 265.755920 15.322165 0.000000
559.567080 265.314060 15.295691 0.000000
559.481380 265.888310 15.335356 0.000000
557.102600 283.001530 16.102066 0.000000
556.520450 283.291410 16.132732 0.000000
555.781740 282.857120 16.138739 0.000000
555.356080 282.847410 15.909268 0.000000
555.375120 283.147160 16.163460 0.000000
555.750550 283.698390 16.173090 0.000000
554.463260 282.863530 15.957006 0.000000
554.801150 283.554660 16.197203 0.000000
554.163330 282.943820 16.083553 0.000000
554.233150 283.159730 15.978455 0.000000
551.709470 279.831090 15.828262 0.000000
551.647950 279.946840 15.915154 0.000000
551.692440 280.074310 15.841459 0.000000
553.393860 283.378630 16.027836 0.000000
552.839110 282.814420 16.039970 0.000000
552.115170 282.685880 16.073292 0.000000
552.083980 282.976260 16.082876 0.000000
552.480470 283.650420 16.080128 0.000000
551.540100 282.878080 16.107447 0.000000
550.975890 282.622830 15.977617 0.000000
551.102540 282.810940 16.127380 0.000000
551.651370 283.538670 16.117508 0.000000
550.929260 282.905880 15.907691 0.000000
551.148070 283.374820 16.056885 0.000000
551.114870 283.539030 16.142731 0.000000
550.484310 283.236330 16.017962 0.000000
550.627750 283.540530 16.010849 0.000000
550.926510 284.204350 16.162498 0.000000
550.268680 283.277470 15.960238 0.000000
550.444030 283.737210 16.021858 0.000000
559.490600 265.852170 15.775890 0.000000
565.343380 281.073700 16.641150 0.000000
557.538450 283.103060 16.382145 0.000000
556.791380 282.891080 16.653519 0.000000
556.871700 283.384340 16.402853 0.000000
557.155210 283.456050 16.687075 0.000000
557.374630 283.764620 16.705606 0.000000
556.683590 283.100680 16.391640 0.000000
555.008730 283.016940 16.406284 0.000000
555.060000 283.436400 16.425022 0.000000
555.709960 283.889220 16.438684 0.000000
554.275820 282.954990 16.632181 0.000000
551.741760 279.807310 16.286798 0.000000
551.649720 279.926910 16.293957 0.000000
551.678040 280.053500 16.223949 0.000000
552.874390 283.102940 16.335756 0.000000
552.604920 283.198520 16.251396 0.000000
551.131410 282.719570 16.432781 0.000000
551.382570 283.223970 16.453131 0.000000
551.571040 283.331630 16.286419 0.000000
552.297120 284.596310 16.502514 0.000000
550.963070 282.867830 16.366079 0.000000
551.095210 283.291930 16.378780 0.000000
551.208130 283.528750 16.467100 0.000000
551.297360 283.950990 16.485929 0.000000
550.246950 283.005430 16.454344 0.000000
550.982060 283.911930 16.320511 0.000000
550.306950 283.175080 16.460886 0.000000
550.329280 283.613800 16.405212 0.000000
550.842100 284.135590 16.330435 0.000000
560.142460 265.738890 15.776287 0.000000
554.838440 283.749110 16.679852 0.000000
554.258480 283.231200 16.646667 0.000000
551.785950 279.791660 16.594536 0.000000
551.651490 279.907010 16.672474 0.000000
551.664670 280.032870 16.603666 0.000000
552.323730 282.581910 16.771282 0.000000
552.707090 283.059880 16.622326 0.000000
552.296140 282.878420 16.788603 0.000000
552.609990 283.422330 16.831688 0.000000
552.759280 283.754360 16.856899 0.000000
551.853330 282.848850 16.602736 0.000000
551.112920 282.863190 16.596218 0.000000
550.520570 282.761780 16.585014 0.000000
550.598080 283.070220 16.602144 0.000000
568.546140 278.763670 17.071430 0.000000
567.899170 278.383880 17.031178 0.000000
559.499820 265.816010 16.217239 0.000000
554.241030 262.382320 15.972078 0.000000
562.742310 278.655240 17.277290 0.000000
555.411800 279.627660 17.169758 0.000000
555.419070 279.820620 17.062956 0.000000
555.303040 280.374510 17.085678 0.000000
554.462710 281.263460 17.193535 0.000000
553.192630 281.433010 17.300905 0.000000
551.658690 279.887150 17.053661 0.000000
551.655820 280.008420 17.060171 0.000000
559.974850 265.834840 16.680643 0.000000
559.463440 265.822690 16.658913 0.000000
567.316040 279.574370 17.569910 0.000000
566.266110 279.204190 17.494205 0.000000
567.624080 282.382320 17.742615 0.000000
554.618290 262.386840 16.415468 0.000000
554.033260 262.375430 16.397173 0.000000
564.576480 281.325470 17.519175 0.000000
555.414980 277.905940 17.566105 0.000000
555.429990 278.285610 17.582108 0.000000
557.097290 280.699010 17.356808 0.000000
555.331910 279.609620 17.513651 0.000000
555.376340 279.795320 17.528677 0.000000
555.987550 280.596470 17.516441 0.000000
555.169250 280.335780 17.653061 0.000000
555.159790 280.347320 17.421015 0.000000
554.097410 280.932530 17.563658 0.000000
554.419190 281.861020 17.448917 0.000000
554.326600 282.196010 17.464939 0.000000
552.854920 280.864750 17.411840 0.000000
551.667660 279.867070 17.439631 0.000000
551.650510 279.987980 17.444111 0.000000
559.775820 265.988010 17.121103 0.000000
559.383300 265.870670 17.097328 0.000000
568.206970 282.423710 18.295439 0.000000
565.444030 279.198910 17.904861 0.000000
565.653750 282.498870 18.108540 0.000000
554.213870 262.370510 16.834135 0.000000
564.638980 281.658230 17.981142 0.000000
556.166440 276.721470 17.879967 0.000000
556.060180 276.959230 17.870523 0.000000
555.866270 277.414180 17.855127 0.000000
556.544740 278.556760 17.725889 0.000000
555.882320 277.713960 17.866184 0.000000
555.242430 279.591800 17.853796 0.000000
555.347720 279.776400 17.878670 0.000000
555.979370 280.582790 17.764931 0.000000
555.166320 280.323460 17.884943 0.000000
555.101930 280.495880 18.002752 0.000000
553.934270 279.433140 17.866344 0.000000
561.569950 267.277860 17.703577 0.000000
559.487000 265.250700 17.550793 0.000000
559.714050 266.016720 17.562283 0.000000
559.282650 265.938140 17.530819 0.000000
567.093200 282.665650 18.724346 0.000000
556.419980 266.964290 17.696499 0.000000
556.067080 266.908810 17.668606 0.000000
555.421200 266.525880 17.627920 0.000000
555.774170 266.793610 17.647943 0.000000
556.246280 280.779850 18.326502 0.000000
555.188960 279.579930 18.079885 0.000000
568.867550 266.635890 18.312792 0.000000
569.123290 278.228390 18.671556 0.000000
562.138310 267.292970 18.219534 0.000000
561.731380 267.130920 18.181122 0.000000
561.148800 266.653840 18.130861 0.000000
560.160220 265.581360 18.057371 0.000000
559.446470 265.261960 18.000416 0.000000
559.894350 266.301270 18.018852 0.000000
559.223630 265.966550 17.964748 0.000000
567.722230 281.934910 18.738913 0.000000
565.620790 281.706600 18.985546 0.000000
556.346440 266.569400 18.087414 0.000000
556.640690 266.699460 18.110580 0.000000
555.597050 266.043430 18.041182 0.000000
555.867000 266.192960 18.059021 0.000000
570.152470 277.690340 19.309896 0.000000
563.223080 267.468140 18.326923 0.000000
569.367490 278.615780 19.259649 0.000000
568.864200 278.215420 19.180305 0.000000
561.326780 266.484100 18.618351 0.000000
560.271180 265.451170 18.534821 0.000000
559.891540 266.276180 18.465488 0.000000
559.147830 266.010990 18.395117 0.000000
565.265870 276.963780 19.157497 0.000000
566.720830 279.116550 18.968178 0.000000
565.647400 278.388090 19.270079 0.000000
565.107790 277.705720 19.164066 0.000000
557.841740 266.808650 18.228127 0.000000
563.522090 267.241000 18.856586 0.000000
563.031130 267.102480 18.800798 0.000000
560.136540 263.465940 18.597439 0.000000
560.348140 263.805540 18.605021 0.000000
562.183960 266.767850 18.709045 0.000000
561.201900 266.108890 18.615244 0.000000
561.706910 266.657650 18.656876 0.000000
560.056150 266.571200 18.920834 0.000000
557.816710 264.353790 18.776278 0.000000
559.058170 266.068630 18.821278 0.000000
566.614320 282.551640 19.651344 0.000000
570.461980 263.944460 19.087263 0.000000
563.852290 266.507080 19.425817 0.000000
563.154420 266.509490 19.330711 0.000000
562.709780 266.348790 19.276743 0.000000
569.146550 277.740570 19.736385 0.000000
562.033810 265.892000 19.205570 0.000000
562.293330 266.177890 19.227978 0.000000
569.117610 278.597840 19.771542 0.000000
568.984130 279.027950 19.773806 0.000000
561.365110 265.945160 19.116564 0.000000
560.369930 265.331540 19.019800 0.000000
565.999080 278.340610 19.794226 0.000000
567.275450 283.013400 20.288792 0.000000
565.847410 282.052430 19.984770 0.000000
566.778200 283.335540 20.233244 0.000000
566.357060 283.656100 20.190962 0.000000
569.519040 277.244630 20.324665 0.000000
569.428530 277.688230 20.327841 0.000000
568.358460 281.083310 20.330467 0.000000
569.074950 266.961030 20.157204 0.000000
568.566650 268.264950 20.062704 0.000000
570.466250 262.601560 20.462210 0.000000
570.750670 263.057400 20.488132 0.000000
563.367550 277.570920 14.570267 0.000000
563.694400 277.849460 14.559847 0.000000
563.046200 277.301060 14.580278 0.000000
560.033260 277.626800 14.524961 0.000000
560.274050 277.854190 14.515361 0.000000
559.296450 276.988530 14.555538 0.000000
559.662600 277.301420 14.540522 0.000000
559.057740 276.787230 14.564888 0.000000
557.549440 277.701260 14.511389 0.000000
557.749080 277.887910 14.500826 0.000000
557.036250 277.262730 14.539635 0.000000
557.342900 277.521790 14.522914 0.000000
556.632570 276.933470 14.561026 0.000000
556.896420 278.300140 14.644731 0.000000
555.920590 278.114470 14.504097 0.000000
555.352050 277.569760 14.538442 0.000000
555.676030 277.875370 14.519174 0.000000
554.641850 276.932340 14.576668 0.000000
554.868710 277.140380 14.565993 0.000000
555.109440 277.350490 14.552529 0.000000
554.191280 277.941130 14.529266 0.000000
554.391300 278.147580 14.516343 0.000000
553.425170 277.080350 14.558910 0.000000
553.589480 277.275480 14.555600 0.000000
553.805910 277.543120 14.550827 0.000000
553.991390 277.741000 14.541783 0.000000
553.913020 278.449890 14.628349 0.000000
553.031980 276.646450 14.566326 0.000000
553.257810 276.891240 14.562201 0.000000
569.451660 268.286800 14.525085 0.000000
567.719790 276.782650 14.645088 0.000000
567.168760 276.479190 14.662271 0.000000
567.783140 277.180630 14.665527 0.000000
566.682980 276.179050 14.674918 0.000000
566.127080 275.909850 14.693720 0.000000
565.666500 275.634160 14.705434 0.000000
565.217830 275.368960 14.716652 0.000000
564.780940 275.113650 14.727354 0.000000
566.852480 281.554810 14.968822 0.000000
564.083620 274.583770 14.734838 0.000000
566.565730 281.922060 15.005692 0.000000
566.825380 282.318020 15.006947 0.000000
567.133480 282.728180 15.005184 0.000000
563.360960 273.734040 14.718518 0.000000
563.602840 274.012050 14.723915 0.000000
563.843080 274.295470 14.729409 0.000000
565.945560 281.157410 15.009952 0.000000
562.383240 272.486480 14.682722 0.000000
562.669010 272.912780 14.698842 0.000000
562.896550 273.183810 14.705780 0.000000
563.120060 273.460330 14.712993 0.000000
565.317080 280.436950 15.015294 0.000000
565.530700 280.791720 15.019292 0.000000
566.083010 283.008000 15.087739 0.000000
561.910100 271.784090 14.654505 0.000000
562.119140 272.053830 14.664010 0.000000
564.940610 280.095090 15.022472 0.000000
560.824650 269.685150 14.537449 0.000000
560.952450 270.007200 14.558794 0.000000
561.037660 270.353820 14.584285 0.000000
561.219240 270.635350 14.598308 0.000000
561.215580 271.028320 14.632069 0.000000
561.221190 271.407650 14.663756 0.000000
565.701350 283.334050 15.127346 0.000000
565.540410 283.679020 15.152677 0.000000
559.805660 268.333040 14.468716 0.000000
559.933780 268.665410 14.492925 0.000000
560.060550 268.993900 14.516455 0.000000
560.182310 269.321720 14.539808 0.000000
565.315490 284.009980 15.181251 0.000000
559.365230 268.267030 14.485083 0.000000
562.189510 276.520720 14.600041 0.000000
562.270690 276.819890 14.614434 0.000000
562.616330 277.063510 14.601475 0.000000
565.067020 284.330720 15.210556 0.000000
558.982300 268.162750 14.494537 0.000000
561.757140 276.315490 14.622308 0.000000
564.894840 284.659520 15.234737 0.000000
558.528870 268.134520 14.514371 0.000000
561.132390 275.871610 14.642356 0.000000
561.442930 276.089750 14.632434 0.000000
557.879460 267.866180 14.519920 0.000000
558.197690 268.003200 14.517921 0.000000
560.678220 275.557530 14.656363 0.000000
559.942500 275.064030 14.678239 0.000000
560.232790 275.256620 14.669786 0.000000
561.755550 280.225460 14.873288 0.000000
561.795470 280.517730 14.885344 0.000000
562.583370 282.661100 14.916499 0.000000
556.123050 265.404790 14.348190 0.000000
556.236270 265.807950 14.385513 0.000000
556.562010 266.449220 14.437895 0.000000
556.712040 266.772950 14.464389 0.000000
559.377750 274.395690 14.668124 0.000000
559.597170 274.752170 14.680677 0.000000
561.823550 280.811190 14.898066 0.000000
561.861330 281.105740 14.909531 0.000000
562.025150 281.406340 14.909633 0.000000
562.190060 281.713070 14.909478 0.000000
562.308780 282.326970 14.926552 0.000000
562.301640 282.937320 14.952771 0.000000
555.766910 265.333370 14.354744 0.000000
556.309450 266.247990 14.427908 0.000000
558.567500 273.578740 14.659848 0.000000
558.745180 273.790310 14.665193 0.000000
558.919980 274.005650 14.670688 0.000000
561.988650 283.200440 14.990811 0.000000
554.901730 264.208560 14.267295 0.000000
555.014100 264.668550 14.312568 0.000000
555.311710 264.821200 14.317956 0.000000
555.429930 265.242550 14.358134 0.000000
557.911620 272.719760 14.628892 0.000000
558.096500 273.075530 14.649135 0.000000
558.380250 273.374730 14.655548 0.000000
561.940730 283.647980 15.011866 0.000000
561.900270 284.098210 15.031444 0.000000
554.338070 263.828310 14.245428 0.000000
554.597660 264.057950 14.261581 0.000000
557.273500 272.189510 14.623581 0.000000
557.540410 272.485570 14.633605 0.000000
558.820250 276.591920 14.574099 0.000000
553.594910 263.027560 14.181290 0.000000
553.818910 263.350950 14.209989 0.000000
554.130000 263.495640 14.216003 0.000000
556.436770 271.178650 14.577149 0.000000
556.636600 271.521820 14.599881 0.000000
556.912660 271.803530 14.609986 0.000000
557.093990 271.995150 14.616776 0.000000
558.450930 276.315800 14.589752 0.000000
559.140930 278.327610 14.672837 0.000000
552.719240 261.496400 14.035582 0.000000
553.003300 261.760470 14.057617 0.000000
553.179080 262.257660 14.108156 0.000000
553.385800 262.656010 14.146440 0.000000
556.036560 270.833980 14.566665 0.000000
556.191830 271.044340 14.579264 0.000000
557.760310 275.786500 14.614932 0.000000
558.083560 276.051880 14.605300 0.000000
558.980590 278.606750 14.709750 0.000000
552.409120 261.286710 14.019883 0.000000
555.403750 270.176700 14.533976 0.000000
555.683840 270.449770 14.547074 0.000000
557.288640 275.467410 14.633640 0.000000
558.913880 280.459560 14.830571 0.000000
551.927250 261.543270 14.060430 0.000000
554.526310 269.398380 14.496464 0.000000
554.824650 269.651060 14.508696 0.000000
555.117310 269.910370 14.521245 0.000000
556.655700 274.995450 14.651373 0.000000
558.828060 280.944700 14.865389 0.000000
558.818360 281.307040 14.884196 0.000000
558.880000 281.674380 14.894167 0.000000
559.024410 282.176700 14.899561 0.000000
559.135310 282.562130 14.902498 0.000000
551.617610 261.339690 14.044575 0.000000
554.119510 269.072540 14.480516 0.000000
554.324890 269.233030 14.488289 0.000000
555.731020 273.962770 14.632201 0.000000
556.019960 274.310520 14.642563 0.000000
556.304320 274.666380 14.652502 0.000000
559.145390 282.940830 14.915105 0.000000
550.883910 261.275940 14.053088 0.000000
551.170290 261.552760 14.078578 0.000000
553.597600 268.682460 14.461094 0.000000
555.130860 273.297060 14.611738 0.000000
555.434810 273.624850 14.621897 0.000000
556.333800 276.698090 14.576391 0.000000
552.952270 268.240390 14.438729 0.000000
553.277470 268.457860 14.449842 0.000000
554.486080 272.685000 14.594735 0.000000
554.814450 272.983610 14.602674 0.000000
555.666320 276.181580 14.607290 0.000000
556.038940 276.473690 14.591100 0.000000
550.154790 261.235900 14.062563 0.000000
552.510310 267.962800 14.424528 0.000000
553.898190 272.187010 14.580996 0.000000
554.152280 272.396580 14.586823 0.000000
554.969790 275.512700 14.618415 0.000000
555.277710 275.804320 14.614086 0.000000
557.649600 283.055050 15.082880 0.000000
552.060240 267.697810 14.410694 0.000000
553.377990 271.789280 14.569975 0.000000
553.725650 272.052150 14.577423 0.000000
554.349240 274.966490 14.626078 0.000000
554.582580 275.166320 14.623329 0.000000
554.815000 275.371920 14.620472 0.000000
555.814210 278.723450 14.818940 0.000000
555.866640 279.007870 14.833275 0.000000
549.436460 261.195400 14.070158 0.000000
551.296200 267.173770 14.373901 0.000000
551.612980 267.423800 14.393974 0.000000
552.668520 271.292660 14.555450 0.000000
552.937070 271.473790 14.560802 0.000000
553.913940 274.563140 14.624299 0.000000
554.193120 274.837040 14.627823 0.000000
556.222840 280.536930 14.883697 0.000000
556.242250 280.929500 14.901690 0.000000
556.374150 281.330350 14.903278 0.000000
556.514040 281.740020 14.902378 0.000000
556.532230 282.148680 14.915741 0.000000
556.591980 282.568150 14.922125 0.000000
548.909360 261.132080 14.070761 0.000000
550.744140 266.784610 14.342806 0.000000
551.077820 267.016270 14.361458 0.000000
552.225830 270.989470 14.543797 0.000000
552.487850 271.175420 14.551921 0.000000
553.094060 273.758880 14.604097 0.000000
553.303220 273.952940 14.609231 0.000000
553.578800 274.218080 14.615831 0.000000
554.062190 276.304810 14.586919 0.000000
554.321590 276.577300 14.582554 0.000000
554.514530 276.788120 14.579054 0.000000
554.821040 278.565280 14.709955 0.000000
555.491090 280.001250 14.949921 0.000000
555.544370 280.275270 14.959298 0.000000
556.462590 282.856750 14.947861 0.000000
550.281130 266.504330 14.320982 0.000000
551.789180 270.680180 14.528282 0.000000
552.592220 273.327550 14.592484 0.000000
552.881100 273.570620 14.599051 0.000000
553.401120 275.668520 14.596725 0.000000
553.666930 275.915860 14.593126 0.000000
553.866640 276.106510 14.589856 0.000000
554.544370 278.803070 14.772162 0.000000
554.558780 279.060670 14.790901 0.000000
556.224370 283.017030 14.983407 0.000000
549.648620 266.287810 14.311018 0.000000
551.067260 270.219120 14.504653 0.000000
551.341370 270.386900 14.513349 0.000000
551.923950 272.812990 14.577865 0.000000
552.223570 273.036900 14.584376 0.000000
552.798030 275.144500 14.603086 0.000000
552.999210 275.314850 14.601355 0.000000
553.199950 275.489320 14.599325 0.000000
554.535770 279.322690 14.814795 0.000000
554.688840 279.987610 14.837802 0.000000
554.752870 280.239810 14.843638 0.000000
554.832820 280.579990 14.850971 0.000000
554.848630 281.010220 14.870790 0.000000
554.935790 281.360320 14.873485 0.000000
555.730770 282.907290 15.287704 0.000000
555.691160 283.106540 15.055204 0.000000
549.317260 265.991790 14.279992 0.000000
550.506900 269.903200 14.487940 0.000000
550.788570 270.058620 14.496257 0.000000
551.540710 272.548710 14.570202 0.000000
551.771480 272.705600 14.574816 0.000000
552.262020 274.710540 14.605246 0.000000
552.595700 274.979610 14.604601 0.000000
552.745480 276.352480 14.571032 0.000000
552.860720 276.468320 14.569205 0.000000
554.903080 281.532350 14.885778 0.000000
554.833370 281.873870 14.909353 0.000000
554.809140 282.219730 14.924502 0.000000
548.798460 265.832580 14.271117 0.000000
550.029540 269.657350 14.474254 0.000000
550.314210 269.808960 14.483500 0.000000
