# .PCD v0.7 - Point Cloud Data file format
VERSION 0.7
FIELDS x y z intensity
SIZE 4 4 4 4
TYPE F F F F
COUNT 1 1 1 1
WIDTH 1226
HEIGHT 1
VIEWPOINT 0 0 0 1 0 0 0
POINTS 1226
DATA ascii
549.340150 33.258350 5.907159 0.000000
549.350460 33.731289 5.927656 0.000000
549.360900 34.208298 5.948685 0.000000
549.371400 34.689770 5.970265 0.000000
549.382020 35.176041 5.992417 0.000000
553.907780 32.015285 6.020521 0.000000
562.743470 27.009708 6.164392 0.000000
562.829410 27.692869 6.189878 0.000000
562.917300 28.378880 6.216054 0.000000
563.009220 29.068319 6.243016 0.000000
563.102910 29.761768 6.270708 0.000000
549.337770 33.237808 6.482611 0.000000
549.347660 33.710434 6.505475 0.000000
545.866760 25.999567 3.524168 0.000000
546.094730 27.121307 3.561456 0.000000
546.310730 27.487459 3.565545 0.000000
546.177190 27.879848 3.589009 0.000000
546.403630 28.252817 3.592243 0.000000
546.052920 28.645510 3.626677 0.000000
545.876160 29.776350 3.679803 0.000000
546.466800 30.956276 3.691324 0.000000
545.965390 30.535191 3.702949 0.000000
546.098450 31.308144 3.723118 0.000000
546.332950 32.109703 3.737730 0.000000
546.831420 32.578167 3.726691 0.000000
547.307500 33.476307 3.729902 0.000000
546.591060 32.939362 3.750838 0.000000
547.176390 33.865292 3.748559 0.000000
547.381650 34.328758 3.751547 0.000000
547.271480 34.725784 3.768723 0.000000
547.291750 35.156723 3.779775 0.000000
547.390990 35.614647 3.787173 0.000000
558.285100 26.574816 3.635904 0.000000
559.976320 30.182831 3.724637 0.000000
558.298220 28.355204 3.706467 0.000000
559.412540 29.553915 3.718189 0.000000
557.770630 27.783293 3.700415 0.000000
559.599060 31.404112 3.782574 0.000000
560.186890 32.070908 3.788989 0.000000
550.489930 27.615057 3.921678 0.000000
553.618590 32.042912 3.993194 0.000000
549.333310 32.497139 4.143312 0.000000
549.352910 33.392567 4.174483 0.000000
549.362790 33.844704 4.189968 0.000000
549.372680 34.300163 4.205398 0.000000
549.382690 34.759304 4.220781 0.000000
549.392820 35.222450 4.236126 0.000000
547.293270 35.135750 4.297616 0.000000
562.184510 26.914942 4.355453 0.000000
562.220830 27.574986 4.380704 0.000000
562.331730 29.558710 4.456580 0.000000
553.815190 32.036968 4.633540 0.000000
549.331480 32.474869 4.693088 0.000000
549.341190 32.921032 4.710298 0.000000
549.351010 33.369907 4.727613 0.000000
549.360840 33.821815 4.745044 0.000000
549.370790 34.277073 4.762605 0.000000
549.390930 35.198887 4.798162 0.000000
547.291140 35.113861 4.814799 0.000000
562.257570 28.235344 4.405964 0.000000
549.380800 34.735985 4.780307 0.000000
554.014650 32.030979 5.282286 0.000000
549.329650 32.452614 5.242559 0.000000
549.339360 32.898563 5.261354 0.000000
549.349120 33.347252 5.280432 0.000000
549.359010 33.798958 5.299809 0.000000
549.368900 34.253990 5.319497 0.000000
549.378910 34.712673 5.339515 0.000000
549.388980 35.175346 5.359877 0.000000
549.395690 35.641388 5.380520 0.000000
549.327760 32.430336 5.792239 0.000000
549.337460 32.876114 5.812620 0.000000
549.347230 33.324581 5.833461 0.000000
549.357120 33.776096 5.854783 0.000000
549.367000 34.230907 5.876598 0.000000
549.377010 34.689365 5.898931 0.000000
549.383970 35.151039 5.921661 0.000000
549.393740 35.617584 5.945064 0.000000
554.216610 32.024868 5.940214 0.000000
569.964050 26.387533 6.256949 0.000000
562.443540 27.502131 6.041073 0.000000
562.536990 28.164665 6.069030 0.000000
562.631710 28.829912 6.097639 0.000000
562.728820 29.498312 6.126958 0.000000
549.355290 33.753201 6.410502 0.000000
549.365110 34.207794 6.434446 0.000000
549.375120 34.666027 6.459096 0.000000
549.385130 35.128197 6.484474 0.000000
549.395320 35.594658 6.510603 0.000000
549.406010 36.065899 6.537542 0.000000
545.892700 24.978954 3.508239 0.000000
546.041810 25.328384 3.513950 0.000000
546.078370 26.086475 3.540738 0.000000
546.168030 26.449472 3.549286 0.000000
546.256590 26.813457 3.557641 0.000000
546.463130 27.161308 3.558782 0.000000
546.283690 27.563793 3.582375 0.000000
546.446350 27.920654 3.585625 0.000000
546.598510 28.282782 3.589335 0.000000
546.377140 28.676903 3.614063 0.000000
545.860780 29.442055 3.665940 0.000000
546.361330 30.164293 3.660073 0.000000
546.107600 30.898359 3.694484 0.000000
546.581540 31.287897 3.679194 0.000000
546.128480 31.634119 3.712876 0.000000
546.497680 32.033382 3.702969 0.000000
546.058780 32.365566 3.734960 0.000000
546.471310 32.784088 3.722607 0.000000
546.070070 33.108238 3.751799 0.000000
546.626590 33.567001 3.732022 0.000000
546.853940 33.991234 3.728945 0.000000
547.004820 34.411476 3.729607 0.000000
547.018070 35.211281 3.744680 0.000000
546.873960 35.579308 3.759208 0.000000
547.014100 36.020138 3.759651 0.000000
558.143800 26.615965 3.635242 0.000000
558.814510 27.728352 3.647504 0.000000
557.648800 28.386286 3.705154 0.000000
557.966980 28.942595 3.711296 0.000000
558.713930 30.085867 3.720221 0.000000
559.400510 31.279018 3.731649 0.000000
559.786870 31.896347 3.736203 0.000000
552.513730 32.033257 3.976479 0.000000
549.318600 32.251350 4.086196 0.000000
549.327940 32.678066 4.097241 0.000000
549.337400 33.106579 4.108171 0.000000
549.346860 33.537197 4.118992 0.000000
549.356870 33.970238 4.129695 0.000000
549.365970 34.405785 4.140327 0.000000
549.375610 34.844364 4.150854 0.000000
549.395140 35.731544 4.171652 0.000000
562.204040 27.450861 4.341164 0.000000
562.240230 28.098713 4.359277 0.000000
562.276430 28.746519 4.377389 0.000000
552.694820 32.027328 4.573778 0.000000
549.317140 32.235649 4.615930 0.000000
549.331240 32.876381 4.634076 0.000000
549.345400 33.520996 4.652333 0.000000
549.354920 33.953785 4.664590 0.000000
549.364500 34.389229 4.676923 0.000000
549.371830 34.827187 4.689351 0.000000
549.393620 35.714409 4.714455 0.000000
549.315670 32.219944 5.145356 0.000000
549.325070 32.646351 5.158471 0.000000
549.334470 33.074539 5.171803 0.000000
549.343930 33.504814 5.185363 0.000000
549.353450 33.937428 5.199159 0.000000
549.362980 34.372684 5.213203 0.000000
549.372620 34.810883 5.227506 0.000000
549.392090 35.697266 5.256934 0.000000
562.201290 27.428574 5.152266 0.000000
562.237550 28.076229 5.170211 0.000000
562.273680 28.723837 5.188401 0.000000
549.331540 33.042465 6.236208 0.000000
562.288270 27.399359 5.966405 0.000000
562.358400 28.046375 5.985287 0.000000
562.430240 28.694437 6.004746 0.000000
549.340940 33.472404 6.252505 0.000000
549.350460 33.904671 6.269381 0.000000
549.360050 34.339565 6.286848 0.000000
549.369690 34.777386 6.304927 0.000000
549.389040 35.662956 6.342978 0.000000
550.941160 28.194744 3.641392 0.000000
551.066590 28.624386 3.644437 0.000000
551.155940 29.060081 3.649061 0.000000
551.248780 29.497229 3.653387 0.000000
550.504210 29.984247 3.696342 0.000000
550.598570 30.411135 3.700071 0.000000
550.698180 30.840572 3.703442 0.000000
550.815060 31.273092 3.705928 0.000000
549.320920 32.097992 3.787867 0.000000
549.329900 32.507946 3.794357 0.000000
549.338870 32.918869 3.800708 0.000000
549.356930 33.744736 3.813000 0.000000
549.366030 34.160183 3.818946 0.000000
549.375180 34.577690 3.824764 0.000000
549.384400 34.997467 3.830456 0.000000
549.393620 35.419830 3.836026 0.000000
549.402890 35.845070 3.841473 0.000000
570.108460 24.949244 3.687132 0.000000
570.027100 25.745716 3.703098 0.000000
569.677980 30.404888 3.793531 0.000000
569.624760 31.169353 3.808273 0.000000
562.206910 27.388531 3.915024 0.000000
562.242430 28.025440 3.925438 0.000000
562.277890 28.661547 3.935841 0.000000
562.313350 29.297184 3.946235 0.000000
562.348820 29.932789 3.956628 0.000000
549.319700 32.088577 4.299451 0.000000
549.328610 32.498276 4.306476 0.000000
549.337650 32.908958 4.313517 0.000000
549.355770 33.734329 4.327666 0.000000
549.366760 34.149750 4.334744 0.000000
549.373900 34.566734 4.341939 0.000000
549.383060 34.986259 4.349132 0.000000
549.392330 35.408340 4.356369 0.000000
549.401550 35.833290 4.363655 0.000000
562.204770 27.376751 4.711853 0.000000
562.240300 28.013309 4.721627 0.000000
562.275760 28.649042 4.731630 0.000000
562.311100 29.284340 4.741869 0.000000
562.346620 29.919590 4.752349 0.000000
549.362120 32.080452 4.810417 0.000000
549.327390 32.488628 4.818020 0.000000
549.336360 32.899063 4.825751 0.000000
549.354370 33.723923 4.841757 0.000000
549.363460 34.138847 4.850045 0.000000
549.372560 34.555805 4.858530 0.000000
549.381710 34.975052 4.867219 0.000000
549.390990 35.396862 4.876120 0.000000
549.400270 35.821541 4.885240 0.000000
548.164610 28.131947 5.238362 0.000000
549.564150 32.076939 5.326517 0.000000
549.326110 32.478970 5.329471 0.000000
549.335080 32.889168 5.337892 0.000000
549.353090 33.713512 5.355751 0.000000
549.362180 34.128181 5.365205 0.000000
549.371280 34.544880 5.375021 0.000000
549.380430 34.963856 5.385205 0.000000
549.389650 35.385387 5.395768 0.000000
549.396420 35.809292 5.406659 0.000000
562.238770 28.001137 5.517672 0.000000
562.273620 28.636564 5.527267 0.000000
562.309020 29.271496 5.537351 0.000000
562.344420 29.906378 5.547917 0.000000
549.350520 33.692684 6.385428 0.000000
549.359560 34.106827 6.397217 0.000000
549.368650 34.522991 6.409693 0.000000
549.377810 34.941418 6.422867 0.000000
549.386960 35.362389 6.436752 0.000000
549.396300 35.786221 6.451371 0.000000
563.315860 28.544691 6.366277 0.000000
563.365780 29.196674 6.377047 0.000000
563.418760 29.848986 6.388695 0.000000
552.207400 27.873049 3.654265 0.000000
552.251040 28.325340 3.659551 0.000000
552.295290 28.776497 3.664623 0.000000
552.304080 29.231428 3.671125 0.000000
552.383480 29.676878 3.674231 0.000000
552.427860 30.126616 3.678759 0.000000
551.635680 31.076948 3.726514 0.000000
551.738530 31.948444 3.733379 0.000000
549.325560 32.397636 3.844614 0.000000
549.334170 32.793552 3.849024 0.000000
549.351440 33.587078 3.857410 0.000000
549.364380 34.184776 3.863310 0.000000
549.377440 34.785149 3.868933 0.000000
549.386170 35.187614 3.872499 0.000000
549.394960 35.592041 3.875929 0.000000
549.404360 35.998779 3.879203 0.000000
547.205810 33.125164 3.946073 0.000000
562.204220 27.329132 3.995455 0.000000
562.239500 27.956676 4.002317 0.000000
562.272030 28.582962 4.009224 0.000000
562.306820 29.207775 4.016066 0.000000
549.324400 32.391670 4.339585 0.000000
549.333010 32.787376 4.344212 0.000000
549.360410 33.978405 4.358104 0.000000
549.376220 34.777870 4.367486 0.000000
549.385010 35.180099 4.372189 0.000000
549.393800 35.584297 4.376915 0.000000
549.402590 35.990711 4.381667 0.000000
547.204710 33.119381 4.394937 0.000000
562.201540 27.322474 4.779144 0.000000
562.235350 27.949875 4.784912 0.000000
562.270200 28.575539 4.790902 0.000000
562.304930 29.200020 4.797118 0.000000
549.323240 32.385719 4.834036 0.000000
549.331850 32.781219 4.838879 0.000000
549.349060 33.573853 4.849037 0.000000
549.357670 33.971493 4.854360 0.000000
549.366330 34.370316 4.859850 0.000000
549.375060 34.770607 4.865511 0.000000
549.383790 35.172592 4.871349 0.000000
549.392580 35.576550 4.877368 0.000000
549.401370 35.982716 4.883573 0.000000
547.203610 33.113602 4.843327 0.000000
549.322020 32.379765 5.328432 0.000000
549.330690 32.775055 5.333490 0.000000
549.347840 33.567253 5.344533 0.000000
549.356690 33.964676 5.350530 0.000000
549.365170 34.363281 5.356839 0.000000
549.373840 34.763329 5.363478 0.000000
549.382570 35.165092 5.370449 0.000000
549.391360 35.568817 5.377759 0.000000
549.400150 35.974739 5.385415 0.000000
547.202450 33.107819 5.291664 0.000000
562.199340 27.315769 5.562713 0.000000
562.233580 27.942787 5.567361 0.000000
562.268370 28.568132 5.572487 0.000000
562.303040 29.192282 5.578078 0.000000
549.336910 33.158012 6.330551 0.000000
549.345520 33.554043 6.337264 0.000000
549.354130 33.951012 6.344597 0.000000
549.362790 34.349167 6.352556 0.000000
549.371460 34.748768 6.361150 0.000000
549.380130 35.150059 6.370388 0.000000
549.388850 35.553303 6.380281 0.000000
549.397710 35.958755 6.390840 0.000000
553.611210 27.434893 3.612208 0.000000
552.741090 28.566229 3.671511 0.000000
552.819340 29.010227 3.676849 0.000000
552.897090 29.454214 3.682038 0.000000
553.045100 29.888182 3.683890 0.000000
553.132080 30.788179 3.696533 0.000000
553.208800 31.234650 3.701121 0.000000
553.287900 31.682188 3.705454 0.000000
549.325070 32.361366 3.885554 0.000000
549.333370 32.744400 3.891500 0.000000
549.333250 33.127365 3.897653 0.000000
549.358090 33.892956 3.908453 0.000000
549.365170 34.276360 3.913870 0.000000
549.378110 34.853054 3.921628 0.000000
549.391300 35.431850 3.929114 0.000000
549.399600 35.819504 3.933951 0.000000
562.201900 27.302572 4.019461 0.000000
549.365300 34.268696 4.393175 0.000000
562.238460 27.921724 4.028222 0.000000
562.270510 28.539307 4.037053 0.000000
562.304630 29.154591 4.045806 0.000000
562.338620 29.768318 4.054535 0.000000
549.324580 32.354603 4.364589 0.000000
549.332280 32.737469 4.370316 0.000000
549.332210 33.120266 4.376203 0.000000
549.348750 33.502663 4.381740 0.000000
549.357060 33.885456 4.387454 0.000000
549.377750 34.845078 4.401780 0.000000
549.390200 35.423538 4.410415 0.000000
549.398500 35.810970 4.416199 0.000000
562.200200 27.293945 4.790641 0.000000
562.234500 27.913155 4.797889 0.000000
562.268740 28.530083 4.805345 0.000000
562.302800 29.145065 4.813010 0.000000
562.336060 29.758577 4.820890 0.000000
549.323000 32.347904 4.843171 0.000000
549.331240 32.730564 4.848656 0.000000
549.331120 33.113148 4.854278 0.000000
549.347780 33.495354 4.860057 0.000000
549.363530 34.260986 4.872052 0.000000
549.376650 34.837086 4.881481 0.000000
549.389040 35.415226 4.891235 0.000000
549.397400 35.802460 4.897964 0.000000
549.321900 32.341187 5.321714 0.000000
549.330510 32.723637 5.326978 0.000000
549.330080 33.106052 5.332326 0.000000
549.346680 33.488064 5.338348 0.000000
549.379700 35.021320 5.364674 0.000000
549.388000 35.406921 5.372026 0.000000
549.396300 35.793938 5.379699 0.000000
562.198360 27.285313 5.561764 0.000000
562.232730 27.904228 5.567450 0.000000
562.266910 28.520851 5.573583 0.000000
562.301030 29.135536 5.580163 0.000000
562.335020 29.748672 5.587193 0.000000
549.329220 32.716717 5.805726 0.000000
549.323910 32.518745 6.282963 0.000000
549.277340 33.093025 6.286829 0.000000
549.345640 33.473434 6.296768 0.000000
549.352290 33.855434 6.303207 0.000000
549.360600 34.237896 6.310345 0.000000
549.377500 35.005089 6.326431 0.000000
549.385800 35.390278 6.335373 0.000000
549.394100 35.776875 6.344934 0.000000
563.281800 27.079105 6.380226 0.000000
563.437740 27.697248 6.389669 0.000000
563.383480 28.348026 6.390781 0.000000
563.393740 28.985336 6.395373 0.000000
563.541870 29.604876 6.406655 0.000000
545.793150 27.373669 3.528758 0.000000
545.982120 27.836224 3.534145 0.000000
553.929380 27.245831 3.619291 0.000000
554.047240 27.698673 3.626101 0.000000
554.165160 28.151327 3.632727 0.000000
554.282900 28.604118 3.639187 0.000000
553.485230 29.716763 3.698409 0.000000
553.603030 30.152843 3.703935 0.000000
553.724000 30.589727 3.709179 0.000000
553.965090 31.469063 3.719315 0.000000
549.329160 32.433319 3.929946 0.000000
549.337160 32.805149 3.937707 0.000000
549.345150 33.176071 3.945309 0.000000
549.364990 34.100819 3.963628 0.000000
549.376950 34.655098 3.974213 0.000000
549.384890 35.024811 3.981085 0.000000
549.396240 35.580368 3.991156 0.000000
546.467470 34.675682 3.694334 0.000000
546.336610 34.992863 3.708710 0.000000
546.369260 35.310688 3.712581 0.000000
546.468200 35.633198 3.712127 0.000000
546.331050 35.944118 3.726054 0.000000
562.207030 27.349396 4.048177 0.000000
562.240300 27.962051 4.059516 0.000000
562.308410 29.178204 4.081985 0.000000
549.328120 32.425343 4.393905 0.000000
549.337220 32.796921 4.400995 0.000000
549.344120 33.167770 4.408112 0.000000
549.352050 33.537830 4.415194 0.000000
549.363950 34.092094 4.425800 0.000000
549.383850 35.015659 4.443473 0.000000
549.395810 35.570965 4.454099 0.000000
562.208500 27.337410 4.807313 0.000000
562.237790 27.950659 4.816629 0.000000
562.272890 28.559586 4.826123 0.000000
562.306520 29.166136 4.835807 0.000000
549.327090 32.417366 4.857435 0.000000
549.335080 32.788872 4.863898 0.000000
549.343080 33.159466 4.870487 0.000000
549.351200 33.529354 4.877204 0.000000
549.363040 34.083374 4.887545 0.000000
549.374820 34.637127 4.898162 0.000000
549.382810 35.006512 4.905433 0.000000
549.390750 35.376308 4.912852 0.000000
549.325440 32.409470 5.320955 0.000000
549.334050 32.780746 5.326785 0.000000
549.341920 33.151180 5.332866 0.000000
549.349980 33.520901 5.339220 0.000000
549.361880 34.074661 5.349297 0.000000
549.373780 34.628162 5.359931 0.000000
549.381770 34.997356 5.367399 0.000000
549.392820 35.552086 5.379163 0.000000
562.203370 27.326855 5.566446 0.000000
562.236210 27.939068 5.573725 0.000000
562.274290 28.547211 5.581543 0.000000
562.305850 29.153862 5.589650 0.000000
549.325070 32.401428 5.784957 0.000000
546.324950 31.116764 5.635798 0.000000
547.212520 33.304573 5.699801 0.000000
547.226200 33.636536 5.705479 0.000000
547.239500 33.968311 5.711518 0.000000
547.252930 34.300068 5.717945 0.000000
547.279660 34.964397 5.731945 0.000000
547.293090 35.297359 5.739532 0.000000
547.321040 35.965977 5.755961 0.000000
549.324040 32.393433 6.249841 0.000000
549.331970 32.764446 6.254359 0.000000
549.339970 33.134563 6.259430 0.000000
549.355830 33.872856 6.271232 0.000000
549.363770 34.241539 6.277967 0.000000
549.371700 34.610176 6.285267 0.000000
549.379640 34.979015 6.293132 0.000000
549.387570 35.348278 6.301569 0.000000
563.307560 27.073723 6.374542 0.000000
563.378660 28.333628 6.386209 0.000000
563.502750 28.944653 6.396978 0.000000
545.756410 27.173744 3.536026 0.000000
545.845400 27.498280 3.543958 0.000000
546.062680 28.122620 3.555830 0.000000
553.949100 27.095314 3.632226 0.000000
554.077510 27.540014 3.639444 0.000000
554.203800 27.984728 3.646573 0.000000
554.330440 28.428928 3.653496 0.000000
554.584170 29.317173 3.666798 0.000000
554.710690 29.761921 3.673210 0.000000
553.807620 30.431259 3.726006 0.000000
553.937620 30.858343 3.731491 0.000000
549.328430 32.511509 3.955655 0.000000
549.336300 32.874737 3.963994 0.000000
549.344120 33.236385 3.972161 0.000000
549.359680 33.955883 3.987998 0.000000
549.367370 34.314198 3.995681 0.000000
549.375060 34.671825 4.003213 0.000000
549.390500 35.385986 4.017846 0.000000
549.398190 35.742939 4.024955 0.000000
546.159610 33.953896 3.737477 0.000000
546.620180 34.215393 3.715483 0.000000
546.581240 34.838440 3.732698 0.000000
546.716490 35.141888 3.731168 0.000000
546.726680 35.452324 3.737320 0.000000
546.867430 35.762348 3.735118 0.000000
546.303410 31.098423 4.040418 0.000000
562.205140 27.367641 4.064520 0.000000
562.238830 27.975185 4.076342 0.000000
562.272340 28.578926 4.088089 0.000000
562.305660 29.179283 4.099771 0.000000
549.319460 32.138966 4.399237 0.000000
549.327330 32.503819 4.406564 0.000000
549.342960 33.228394 4.421114 0.000000
549.350710 33.588535 4.428347 0.000000
549.358520 33.947586 4.435557 0.000000
549.373960 34.663231 4.449928 0.000000
549.382200 35.020229 4.457087 0.000000
546.298520 31.087624 4.825819 0.000000
549.389340 35.377056 4.464263 0.000000
549.397090 35.733849 4.471427 0.000000
562.203060 27.356346 4.813260 0.000000
562.237180 27.963547 4.822628 0.000000
562.270260 28.567102 4.832164 0.000000
562.303590 29.167221 4.841873 0.000000
549.326170 32.496147 4.857060 0.000000
549.334050 32.859070 4.863305 0.000000
549.341800 33.220413 4.869659 0.000000
549.357360 33.939301 4.882708 0.000000
549.365110 34.297302 4.889412 0.000000
549.372800 34.654617 4.896237 0.000000
546.297730 31.081791 5.218273 0.000000
549.388180 35.368130 4.910276 0.000000
549.396000 35.724766 4.917496 0.000000
549.444460 27.837156 5.269051 0.000000
549.317140 32.123894 5.302618 0.000000
549.325010 32.488457 5.307567 0.000000
549.340700 33.212425 5.318216 0.000000
549.348450 33.572269 5.323918 0.000000
549.356810 33.930946 5.329889 0.000000
549.363890 34.288872 5.336087 0.000000
549.372130 34.645992 5.342574 0.000000
549.379700 35.002720 5.349308 0.000000
546.293580 31.076853 5.610969 0.000000
549.387080 35.359219 5.356304 0.000000
547.205510 33.162651 5.264429 0.000000
549.402470 36.072330 5.371131 0.000000
562.201050 27.345055 5.561998 0.000000
562.234680 27.952084 5.568915 0.000000
562.301510 29.155180 5.583981 0.000000
546.980710 32.216896 5.648302 0.000000
547.157590 32.510445 5.658837 0.000000
547.203980 33.155701 5.667361 0.000000
547.230040 33.799862 5.676399 0.000000
547.243590 34.120605 5.681477 0.000000
547.255920 34.440868 5.686856 0.000000
547.269350 34.760643 5.692646 0.000000
547.281680 35.080299 5.698749 0.000000
547.320430 36.039879 5.719341 0.000000
549.400150 36.053791 6.265443 0.000000
563.195620 27.078930 6.355271 0.000000
563.361510 28.303772 6.369417 0.000000
545.912290 27.876472 3.551409 0.000000
553.756410 27.595329 3.644383 0.000000
553.825200 28.050285 3.654489 0.000000
553.961300 28.478258 3.661001 0.000000
554.084110 28.910179 3.667980 0.000000
554.204650 29.342089 3.674879 0.000000
554.325500 29.773430 3.681578 0.000000
554.446590 30.204531 3.688092 0.000000
554.567630 30.635735 3.694440 0.000000
549.321290 32.332230 3.949501 0.000000
549.336670 33.046478 3.966797 0.000000
549.344300 33.400204 3.975164 0.000000
549.351810 33.751957 3.983351 0.000000
549.359380 34.101971 3.991366 0.000000
549.368040 34.450329 3.999164 0.000000
549.378050 34.970753 4.010668 0.000000
549.389220 35.489109 4.021817 0.000000
549.396610 35.833744 4.029054 0.000000
546.041500 32.808590 3.725223 0.000000
546.207150 33.072006 3.723152 0.000000
546.576970 33.907394 3.724791 0.000000
546.866270 34.163681 3.713941 0.000000
546.952640 34.457962 3.716537 0.000000
546.130190 33.690914 3.746325 0.000000
546.747130 34.790810 3.738144 0.000000
546.889830 35.076973 3.736551 0.000000
546.922910 35.377064 3.741938 0.000000
546.926330 35.679539 3.749011 0.000000
546.820980 35.987473 3.762805 0.000000
562.207460 27.463242 4.043857 0.000000
562.274110 28.665554 4.067149 0.000000
549.320190 32.325478 4.389467 0.000000
549.335570 33.039436 4.403761 0.000000
549.343200 33.393005 4.410840 0.000000
549.358280 34.094471 4.424883 0.000000
549.365780 34.442829 4.431858 0.000000
549.377010 34.962879 4.442269 0.000000
549.388120 35.481010 4.452643 0.000000
549.395570 35.825485 4.459539 0.000000
562.205510 27.452847 4.782465 0.000000
562.238280 28.056170 4.791270 0.000000
562.272090 28.654642 4.800228 0.000000
549.319150 32.318733 4.829012 0.000000
549.334530 33.032398 4.840310 0.000000
549.342160 33.385822 4.846103 0.000000
549.349730 33.737274 4.851996 0.000000
549.357240 34.086994 4.857992 0.000000
549.365970 34.435036 4.864094 0.000000
549.375920 34.955017 4.873466 0.000000
549.387080 35.472912 4.883065 0.000000
549.394470 35.817238 4.889622 0.000000
554.435000 26.808483 5.345265 0.000000
552.392400 27.181210 5.303425 0.000000
548.515080 28.062122 5.225443 0.000000
546.999080 28.407070 5.195337 0.000000
549.318050 32.311996 5.268550 0.000000
549.333440 33.025368 5.276854 0.000000
549.341060 33.378635 5.281363 0.000000
549.356140 34.079502 5.291100 0.000000
549.363650 34.427559 5.296330 0.000000
549.374820 34.947151 5.304663 0.000000
546.320130 31.127750 5.574767 0.000000
546.811040 31.942379 5.596335 0.000000
546.977540 32.218697 5.604364 0.000000
547.146730 32.497475 5.612876 0.000000
549.385990 35.464825 5.313489 0.000000
549.393370 35.808990 5.319706 0.000000
547.303100 33.425308 5.625367 0.000000
547.239140 34.069496 5.628085 0.000000
562.203490 27.442448 5.521045 0.000000
562.270140 28.643730 5.533285 0.000000
549.341980 33.371082 5.717126 0.000000
549.355100 34.072006 5.724625 0.000000
549.363590 34.419788 5.729027 0.000000
549.373780 34.939281 5.736277 0.000000
549.392330 35.800732 5.750207 0.000000
545.932620 27.866295 3.554286 0.000000
553.717160 27.533588 3.652978 0.000000
553.844970 27.963898 3.660832 0.000000
554.053470 28.359144 3.664335 0.000000
554.133120 28.806171 3.674218 0.000000
554.280940 29.694715 3.693770 0.000000
554.470150 30.096584 3.697546 0.000000
546.830140 28.462128 3.945496 0.000000
549.318050 32.160248 3.958900 0.000000
549.333370 32.871315 3.977562 0.000000
549.340880 33.222076 3.986572 0.000000
549.348390 33.570030 3.995383 0.000000
549.363160 34.258389 4.012426 0.000000
549.370540 34.599277 4.020673 0.000000
549.382080 35.106834 4.032673 0.000000
549.392270 35.611458 4.044402 0.000000
546.009520 31.498631 3.701020 0.000000
546.258850 31.875940 3.700346 0.000000
547.107910 33.795712 3.714889 0.000000
547.192260 34.084347 3.718779 0.000000
545.796750 32.362350 3.745710 0.000000
545.960750 32.607819 3.744650 0.000000
546.118590 32.858093 3.743918 0.000000
546.364870 33.083469 3.736755 0.000000
546.714540 33.591679 3.732379 0.000000
546.979310 34.438042 3.742721 0.000000
547.128300 34.709705 3.741660 0.000000
547.174740 35.153736 3.751625 0.000000
547.321530 35.581882 3.754474 0.000000
547.194400 36.047146 3.774784 0.000000
562.173650 26.925636 4.038411 0.000000
562.211790 27.530884 4.050382 0.000000
546.827580 28.459499 4.359878 0.000000
549.316960 32.154068 4.390418 0.000000
549.332280 32.864838 4.405034 0.000000
549.339840 33.215450 4.412243 0.000000
549.347290 33.563282 4.419396 0.000000
549.358460 34.079926 4.430019 0.000000
549.369450 34.592106 4.440551 0.000000
549.380370 35.099548 4.450986 0.000000
549.391240 35.603874 4.461357 0.000000
549.398440 35.938343 4.468235 0.000000
547.203610 33.136497 4.069620 0.000000
547.201600 33.125313 4.831535 0.000000
562.171020 26.916023 4.771723 0.000000
562.209900 27.520792 4.780221 0.000000
546.824520 28.457169 4.773743 0.000000
549.315920 32.147888 4.821520 0.000000
549.331240 32.858360 4.832097 0.000000
549.338750 33.208847 4.837509 0.000000
549.346250 33.556522 4.843007 0.000000
549.361020 34.244328 4.854267 0.000000
549.368410 34.584946 4.860035 0.000000
549.376770 34.923473 4.865898 0.000000
549.382930 35.260696 4.871860 0.000000
549.390140 35.596283 4.877922 0.000000
549.397340 35.930611 4.884088 0.000000
554.175900 26.803366 5.332018 0.000000
550.723940 27.555805 5.263239 0.000000
549.271120 27.886436 5.234740 0.000000
547.990600 28.177765 5.209889 0.000000
546.852540 28.436668 5.188055 0.000000
549.314880 32.141716 5.252611 0.000000
549.330200 32.851917 5.259154 0.000000
549.337710 33.202248 5.262770 0.000000
549.345210 33.549789 5.266615 0.000000
549.356320 34.066010 5.272838 0.000000
549.367370 34.577770 5.279519 0.000000
549.374630 34.916340 5.284279 0.000000
546.347660 31.168339 5.559332 0.000000
546.663330 31.692776 5.570472 0.000000
546.983090 32.223392 5.583155 0.000000
549.381900 35.253235 5.289269 0.000000
549.389100 35.588688 5.294491 0.000000
549.396300 35.922874 5.299947 0.000000
547.199580 33.114109 5.593417 0.000000
562.169560 26.906010 5.504994 0.000000
562.207890 27.510674 5.510030 0.000000
549.272460 32.148430 5.682321 0.000000
549.327390 32.845901 5.686543 0.000000
549.335210 33.196018 5.688373 0.000000
549.344120 33.543034 5.690627 0.000000
549.358950 34.230278 5.696115 0.000000
549.366270 34.570602 5.699408 0.000000
549.375310 34.908737 5.703142 0.000000
549.380800 35.245792 5.707083 0.000000
549.388060 35.581081 5.711464 0.000000
549.395260 35.915131 5.716210 0.000000
562.969060 27.247684 6.273467 0.000000
552.342590 28.276207 3.666794 0.000000
552.506530 28.657871 3.674476 0.000000
552.668640 29.039543 3.682069 0.000000
552.832520 29.419819 3.689385 0.000000
552.996090 29.800016 3.696554 0.000000
553.232120 30.150681 3.699666 0.000000
549.322940 32.109241 3.922714 0.000000
549.341740 32.820648 3.946502 0.000000
549.356630 33.517460 3.969435 0.000000
549.364010 33.860554 3.980538 0.000000
549.378480 34.537415 4.002068 0.000000
549.385620 34.871696 4.012515 0.000000
549.392760 35.203487 4.022759 0.000000
549.399780 35.533047 4.032813 0.000000
545.930180 32.829666 3.731406 0.000000
546.108580 33.059044 3.730833 0.000000
547.010740 34.399982 3.731909 0.000000
546.067570 33.672596 3.759533 0.000000
546.448550 33.833031 3.743214 0.000000
547.098330 34.824001 3.743094 0.000000
547.241880 35.233402 3.749729 0.000000
547.144710 35.695816 3.772757 0.000000
549.333070 32.458412 4.356245 0.000000
549.340640 32.812542 4.365639 0.000000
549.355530 33.509090 4.384115 0.000000
549.362920 33.852062 4.393212 0.000000
549.369570 34.191998 4.402240 0.000000
549.376710 34.528839 4.411176 0.000000
549.384520 34.862816 4.420022 0.000000
549.391600 35.194477 4.428819 0.000000
546.280210 31.048798 4.190159 0.000000
549.402220 35.687611 4.441899 0.000000
546.276790 31.041321 4.749821 0.000000
549.320680 32.093601 4.770548 0.000000
549.339540 32.804443 4.784357 0.000000
549.354430 33.500732 4.798385 0.000000
549.361820 33.843575 4.805479 0.000000
549.376280 34.519928 4.819850 0.000000
549.383420 34.853939 4.827133 0.000000
549.390560 35.185463 4.834485 0.000000
546.274540 31.036346 5.122661 0.000000
549.397580 35.514771 4.841911 0.000000
555.425290 26.663773 5.271483 0.000000
552.621030 27.144781 5.220499 0.000000
551.228580 27.460941 5.196133 0.000000
548.855100 28.002224 5.155440 0.000000
546.906860 28.447937 5.123053 0.000000
549.330870 32.442501 5.198564 0.000000
549.335390 32.797424 5.202998 0.000000
549.353330 33.492374 5.212634 0.000000
549.360720 33.835094 5.217730 0.000000
549.367920 34.174633 5.223025 0.000000
549.378110 34.678288 5.231367 0.000000
549.389470 35.176472 5.240140 0.000000
546.118040 30.776396 5.491004 0.000000
546.272280 31.031355 5.495747 0.000000
546.580690 31.543261 5.506244 0.000000
549.400020 35.669205 5.249416 0.000000
547.214420 33.215084 5.534089 0.000000
562.367130 25.749189 5.404827 0.000000
560.373960 25.997938 5.365788 0.000000
558.585330 26.224363 5.331186 0.000000
549.318540 32.077900 5.618272 0.000000
549.337340 32.788246 5.622124 0.000000
549.353150 33.483738 5.627301 0.000000
549.359620 33.826603 5.630359 0.000000
549.374150 34.502434 5.637584 0.000000
549.381290 34.836189 5.641709 0.000000
549.388370 35.167461 5.646174 0.000000
549.399840 35.659836 5.653588 0.000000
549.316350 32.070488 6.043036 0.000000
549.328670 32.426537 6.042395 0.000000
549.365780 34.157349 6.045345 0.000000
549.371580 34.494030 6.047319 0.000000
549.380190 34.827293 6.049957 0.000000
549.387270 35.158432 6.052977 0.000000
549.397830 35.650772 6.058451 0.000000
545.883240 25.446289 3.515913 0.000000
546.036440 25.805195 3.530574 0.000000
546.332890 26.510433 3.559153 0.000000
546.624940 27.193279 3.586102 0.000000
547.892330 29.673084 3.670710 0.000000
548.443730 30.520842 3.692719 0.000000
548.627810 30.803764 3.699803 0.000000
548.994510 31.372589 3.713803 0.000000
549.179440 31.657639 3.720573 0.000000
549.365110 31.943668 3.727234 0.000000
549.325990 32.336933 3.748887 0.000000
547.055730 28.183041 3.623893 0.000000
547.196960 28.505806 3.635930 0.000000
547.524050 29.107368 3.655395 0.000000
547.708370 29.390368 3.663117 0.000000
549.333800 32.701332 3.766926 0.000000
549.341550 33.060375 3.784574 0.000000
549.349980 33.414009 3.801792 0.000000
549.356570 33.763660 3.818770 0.000000
549.376530 34.786751 3.867683 0.000000
546.166560 35.574604 3.716966 0.000000
546.221310 35.833630 3.727758 0.000000
545.811280 35.147671 3.715761 0.000000
566.650450 35.499050 3.895315 0.000000
567.032590 36.067375 3.909846 0.000000
559.580570 26.295906 3.680577 0.000000
559.909300 26.738865 3.691182 0.000000
549.324770 32.324821 4.168679 0.000000
549.340270 33.047993 4.198155 0.000000
549.347900 33.401855 4.212579 0.000000
549.362730 34.095707 4.240861 0.000000
549.377320 34.773041 4.268468 0.000000
549.385010 35.112793 4.082638 0.000000
549.392150 35.442684 4.097052 0.000000
549.399720 35.776234 3.913732 0.000000
546.310610 31.105801 4.000839 0.000000
547.287350 35.168053 4.155829 0.000000
549.383180 35.093048 4.680395 0.000000
549.393130 35.421898 4.691865 0.000000
549.396730 35.756386 4.506131 0.000000
549.404240 36.073105 4.714962 0.000000
546.305050 31.094822 4.563522 0.000000
547.287110 35.150536 4.687812 0.000000
549.328430 32.310417 4.587851 0.000000
549.335630 32.674950 4.599530 0.000000
549.350590 33.387737 4.622737 0.000000
549.354130 33.738373 4.634353 0.000000
549.361510 34.082951 4.645879 0.000000
549.376100 34.760014 4.668892 0.000000
549.382020 35.079849 5.078638 0.000000
549.389100 35.409424 5.088212 0.000000
546.301390 31.087521 4.938136 0.000000
547.285890 35.139252 5.042260 0.000000
549.327330 32.298264 5.007100 0.000000
549.330080 32.664627 5.015557 0.000000
549.357360 33.724014 5.041812 0.000000
549.360290 34.070190 5.050785 0.000000
549.374880 34.746990 5.069211 0.000000
549.381410 35.066517 5.477182 0.000000
549.387880 35.396122 5.484805 0.000000
546.297240 31.080515 5.312805 0.000000
547.284610 35.127930 5.396947 0.000000
549.321040 32.288544 5.426472 0.000000
549.336550 33.010891 5.437386 0.000000
549.343690 33.364548 5.443273 0.000000
549.355710 33.711502 5.449608 0.000000
549.359070 34.057411 5.455969 0.000000
549.373660 34.733940 5.469811 0.000000
546.293090 31.073513 5.687878 0.000000
547.064030 32.353283 5.723353 0.000000
547.224910 33.592022 5.735386 0.000000
547.237120 33.904701 5.737965 0.000000
547.276180 34.817455 5.748290 0.000000
547.283390 35.116623 5.752211 0.000000
547.304200 35.555500 5.759427 0.000000
549.347900 33.349804 5.854604 0.000000
549.355650 33.698418 5.858136 0.000000
547.782100 29.776592 3.653556 0.000000
548.077330 30.414124 3.674523 0.000000
548.270320 30.694765 3.680865 0.000000
548.450260 30.984077 3.688089 0.000000
548.816470 31.556438 3.701552 0.000000
548.995360 31.844877 3.708390 0.000000
549.071110 32.195625 3.722815 0.000000
549.251280 32.480965 3.729180 0.000000
549.340580 32.817471 3.742028 0.000000
549.352420 33.379066 3.769332 0.000000
546.070250 26.532360 3.547556 0.000000
546.220580 26.906504 3.562342 0.000000
546.407100 27.232384 3.572862 0.000000
546.497620 27.652695 3.592345 0.000000
546.640620 28.008167 3.605990 0.000000
546.769170 28.370403 3.620468 0.000000
547.224000 28.656788 3.617115 0.000000
547.452150 29.153137 3.634283 0.000000
547.618040 29.465809 3.643997 0.000000
549.371700 34.285591 3.812826 0.000000
549.379150 34.637875 3.829507 0.000000
545.901060 35.637089 3.709865 0.000000
546.038570 36.002708 3.722096 0.000000
558.577510 26.430939 3.676003 0.000000
556.478880 26.534676 3.733763 0.000000
548.735900 28.022200 3.990135 0.000000
549.347350 33.184116 4.176616 0.000000
549.362980 33.917473 4.204934 0.000000
549.378050 34.627243 4.232340 0.000000
549.389590 35.150673 4.053072 0.000000
549.400390 35.659351 4.074697 0.000000
549.407530 35.992687 4.088787 0.000000
564.206480 35.347710 3.881127 0.000000
549.331300 32.424202 4.147272 0.000000
549.339420 32.807678 4.162079 0.000000
549.366210 34.277153 4.218934 0.000000
549.384280 34.963425 4.645120 0.000000
549.397710 35.473045 4.660759 0.000000
549.405820 35.975838 4.676455 0.000000
556.459530 26.533365 4.358108 0.000000
548.719120 28.029028 4.459968 0.000000
549.330140 32.414600 4.570739 0.000000
549.338320 32.797890 4.581540 0.000000
549.347530 33.360405 4.597662 0.000000
549.361820 33.907181 4.613548 0.000000
549.369450 34.264660 4.624110 0.000000
549.371520 34.619057 4.634735 0.000000
549.387150 35.123486 5.048207 0.000000
549.397640 35.631653 5.059920 0.000000
549.339970 33.166992 5.007722 0.000000
549.352970 33.533680 5.014798 0.000000
549.360720 33.896893 5.021987 0.000000
549.368350 34.254223 5.029307 0.000000
549.375790 34.606022 5.036758 0.000000
549.382080 34.941895 5.443793 0.000000
549.395570 35.280956 5.448955 0.000000
549.403630 35.953377 5.459610 0.000000
545.765010 30.190458 5.318878 0.000000
549.338560 33.157188 5.423266 0.000000
549.351870 33.523552 5.426873 0.000000
549.359560 33.886597 5.430644 0.000000
549.294490 34.278103 5.432663 0.000000
549.374690 34.595417 5.439109 0.000000
547.266110 34.589420 5.730126 0.000000
547.284970 35.059383 5.731262 0.000000
547.315550 35.821198 5.735092 0.000000
549.319030 32.390270 5.841148 0.000000
549.329220 32.771721 5.840069 0.000000
547.557620 31.281506 3.676867 0.000000
547.715940 31.583172 3.686250 0.000000
547.872440 31.882952 3.695485 0.000000
548.065980 32.358688 3.712353 0.000000
548.331910 32.773003 3.722389 0.000000
548.683110 33.324757 3.735431 0.000000
548.934750 33.744850 3.745744 0.000000
549.251770 34.502991 3.770132 0.000000
549.380130 34.802174 3.779384 0.000000
549.383240 35.166786 3.797752 0.000000
545.905520 27.480209 3.534240 0.000000
547.397340 30.977962 3.667343 0.000000
545.853210 30.188496 3.690790 0.000000
546.132750 30.598778 3.701742 0.000000
549.398990 35.695160 3.823601 0.000000
546.306210 31.105167 3.722428 0.000000
561.420590 35.647823 3.880177 0.000000
549.329350 32.462883 4.091219 0.000000
549.332280 32.876350 4.107795 0.000000
549.346620 33.272762 4.123362 0.000000
549.354980 33.664463 4.138908 0.000000
549.371090 34.424084 4.169059 0.000000
549.386600 35.154884 4.198064 0.000000
549.393620 35.505688 4.410465 0.000000
549.400630 35.855453 4.422719 0.000000
546.303220 31.097656 4.519326 0.000000
549.328190 32.454895 4.521163 0.000000
549.336910 32.864170 4.532478 0.000000
549.344970 33.264626 4.543682 0.000000
549.353820 33.655781 4.554743 0.000000
549.377810 34.783546 4.587385 0.000000
549.384340 35.135880 4.997907 0.000000
549.399350 35.840462 5.012403 0.000000
549.327030 32.446911 4.950809 0.000000
549.335750 32.855942 4.957197 0.000000
549.344300 33.255836 4.963697 0.000000
549.352660 33.647102 4.970311 0.000000
549.368840 34.405884 4.983880 0.000000
549.376650 34.774246 4.990836 0.000000
549.383180 35.126385 5.397867 0.000000
549.390810 35.481483 5.401600 0.000000
549.393680 35.832821 5.405514 0.000000
546.298580 31.091814 5.314627 0.000000
549.325870 32.438927 5.380570 0.000000
549.334590 32.847698 5.382038 0.000000
549.343140 33.247360 5.383856 0.000000
549.351500 33.638409 5.386014 0.000000
549.367680 34.396774 5.391312 0.000000
549.375550 34.764950 5.394436 0.000000
549.384460 35.474480 5.798382 0.000000
547.212100 33.173508 5.712814 0.000000
545.787840 30.242718 5.311141 0.000000
547.221250 33.545395 5.708788 0.000000
547.235660 33.904549 5.705588 0.000000
547.249760 34.255661 5.702911 0.000000
547.297180 35.592789 5.696752 0.000000
547.318300 36.065102 5.696586 0.000000
561.173770 35.860207 3.883711 0.000000
560.778020 35.467873 3.874760 0.000000
553.577510 27.493727 3.670892 0.000000
553.884280 27.842411 3.680016 0.000000
552.614690 27.133762 3.678289 0.000000
549.328490 32.290329 4.016866 0.000000
549.338010 32.738132 4.038592 0.000000
549.347230 33.173912 4.059737 0.000000
549.365050 34.012169 4.100408 0.000000
549.373540 34.416023 4.120003 0.000000
549.381960 34.810459 4.139140 0.000000
549.390140 35.196060 4.157848 0.000000
549.402530 35.570576 4.175904 0.000000
548.663570 34.927635 3.767425 0.000000
548.866700 35.172062 3.773522 0.000000
549.061040 35.423492 3.780314 0.000000
549.230770 35.691391 3.789085 0.000000
547.635680 33.520462 3.723915 0.000000
547.842040 33.966156 3.743234 0.000000
548.049500 34.203796 3.749203 0.000000
548.458190 34.685947 3.761477 0.000000
547.101440 32.934540 3.709213 0.000000
547.346620 33.140461 3.712047 0.000000
546.162960 32.977936 3.751178 0.000000
546.395200 33.177490 3.754385 0.000000
547.293150 35.171036 3.842420 0.000000
545.932980 32.777290 3.747696 0.000000
547.290770 35.151234 4.578494 0.000000
552.600590 27.133894 4.249499 0.000000
549.327270 32.279400 4.458571 0.000000
549.336790 32.726982 4.474198 0.000000
549.346010 33.162575 4.489537 0.000000
549.360720 34.002735 4.519535 0.000000
549.372380 34.404140 4.534017 0.000000
549.380740 34.798405 4.548390 0.000000
549.388980 35.183868 4.562566 0.000000
549.396970 35.560986 4.576558 0.000000
549.410520 35.913654 4.986441 0.000000
552.588680 27.131916 4.819462 0.000000
549.326050 32.268482 4.899969 0.000000
549.335570 32.715855 4.909511 0.000000
549.344850 33.151237 4.919059 0.000000
549.362670 33.988754 4.938191 0.000000
549.371150 34.392258 4.947785 0.000000
549.379580 34.786381 4.957406 0.000000
549.387760 35.171665 4.967058 0.000000
549.399600 35.546249 4.976725 0.000000
549.408940 35.901405 5.382873 0.000000
547.288390 35.131462 5.313620 0.000000
549.324830 32.257545 5.341487 0.000000
549.334350 32.704708 5.344952 0.000000
549.336730 33.145336 5.348586 0.000000
549.370000 34.380394 5.361708 0.000000
549.378420 34.774342 5.366581 0.000000
549.386470 35.159569 5.371711 0.000000
549.394650 35.536289 5.377102 0.000000
547.192810 32.799816 5.694979 0.000000
547.213380 33.210804 5.691591 0.000000
547.226930 33.615856 5.688466 0.000000
547.272710 34.759659 5.682651 0.000000
547.293210 35.299004 5.681416 0.000000
552.576720 27.130026 5.388887 0.000000
549.373780 34.364964 5.776411 0.000000
549.370610 34.766785 5.776000 0.000000
549.384770 35.147690 5.776892 0.000000
549.393430 35.523930 5.778009 0.000000
548.875610 35.510025 3.773488 0.000000
549.238340 35.838936 3.785646 0.000000
548.267820 34.977566 3.753873 0.000000
548.560970 35.353176 3.772458 0.000000
547.669680 34.449089 3.733504 0.000000
547.174190 34.488701 3.753033 0.000000
546.467650 33.885578 3.729253 0.000000
547.002260 34.222824 3.738104 0.000000
546.088810 33.845886 3.738326 0.000000
565.298100 35.504646 3.888698 0.000000
564.594670 35.162312 3.879695 0.000000
563.913450 34.830956 3.870986 0.000000
563.301820 34.489113 3.860416 0.000000
552.543640 28.641201 3.684727 0.000000
551.355160 27.955616 3.662863 0.000000
546.144040 24.693983 3.551145 0.000000
549.338990 32.868027 4.002742 0.000000
549.371340 34.236572 4.087093 0.000000
549.377080 34.670685 4.113930 0.000000
549.385860 35.090401 4.139818 0.000000
549.394590 35.499146 4.165029 0.000000
546.273250 31.050573 3.943308 0.000000
547.201900 33.078125 4.052956 0.000000
547.294490 35.196274 4.182771 0.000000
549.327330 32.363041 4.424776 0.000000
549.357240 33.776760 4.491469 0.000000
549.369630 34.217880 4.512535 0.000000
549.375730 34.651722 4.533386 0.000000
549.393250 35.480202 4.573574 0.000000
549.401610 35.878792 4.593093 0.000000
547.288510 35.166779 4.937818 0.000000
549.336180 32.830032 4.892268 0.000000
549.355830 33.757782 4.922870 0.000000
549.373660 34.633316 4.952761 0.000000
549.383240 35.052486 4.967466 0.000000
549.391910 35.461254 4.982046 0.000000
549.400330 35.859852 4.996507 0.000000
546.262570 31.031527 4.803125 0.000000
549.081670 27.937923 5.265137 0.000000
548.454280 28.083391 5.252579 0.000000
547.863830 28.206799 5.241083 0.000000
549.334780 32.811005 5.337273 0.000000
547.278140 28.350521 5.230322 0.000000
549.354490 33.738785 5.354582 0.000000
549.367070 34.179741 5.363493 0.000000
546.723270 28.476568 5.220479 0.000000
549.373050 34.613777 5.372438 0.000000
546.188350 28.598103 5.211422 0.000000
552.655940 27.128881 5.344859 0.000000
549.370360 34.595833 5.792782 0.000000
547.175600 32.546593 5.688927 0.000000
549.331970 32.772865 6.229884 0.000000
549.344850 33.241192 6.225038 0.000000
549.351680 33.700657 6.220575 0.000000
549.361150 34.144379 6.217092 0.000000
549.370300 34.575710 6.214346 0.000000
549.373290 35.000160 6.211868 0.000000
549.387940 35.404278 6.210934 0.000000
549.396360 35.802906 6.210211 0.000000
549.143740 35.799576 3.774395 0.000000
548.886170 35.589401 3.765922 0.000000
567.855960 35.991608 3.911620 0.000000
564.838440 34.682278 3.873681 0.000000
562.784120 33.819977 3.849725 0.000000
551.818850 28.611633 3.682857 0.000000
549.314580 32.121418 3.947347 0.000000
546.333980 25.586706 3.572363 0.000000
549.340330 33.186966 4.015564 0.000000
546.028200 25.199442 3.552126 0.000000
549.356450 33.688004 4.047579 0.000000
549.369140 34.658901 4.109903 0.000000
549.385930 35.111214 4.138771 0.000000
549.395750 35.555931 4.167256 0.000000
549.404910 35.988026 4.194939 0.000000
548.278500 35.712929 3.794795 0.000000
547.444400 34.971527 3.761150 0.000000
547.786990 35.303375 3.777348 0.000000
546.662840 34.172096 3.719780 0.000000
546.916260 34.367218 3.728168 0.000000
547.137210 34.599716 3.740421 0.000000
546.362300 34.036728 3.717513 0.000000
545.809200 34.234642 3.749639 0.000000
566.326660 35.302330 3.890738 0.000000
565.569700 34.987251 3.882082 0.000000
563.446960 34.099335 3.857528 0.000000
550.586120 27.994606 3.662069 0.000000
549.334720 32.656185 3.981472 0.000000
549.312620 32.101463 4.417517 0.000000
549.328000 32.641571 4.443490 0.000000
549.354980 33.667816 4.493253 0.000000
549.375370 34.631577 4.540513 0.000000
549.385010 35.090736 4.563222 0.000000
549.397520 35.533180 4.585236 0.000000
549.407710 35.964535 4.606821 0.000000
549.311280 32.080959 4.887522 0.000000
549.331240 32.616100 4.904846 0.000000
549.353520 33.647636 4.938831 0.000000
549.373900 34.611500 4.971631 0.000000
549.382510 35.071667 4.987660 0.000000
548.323300 28.116625 5.285489 0.000000
547.749820 28.236372 5.274992 0.000000
549.351990 33.627434 5.384742 0.000000
549.391540 35.496029 5.421828 0.000000
549.400760 35.928291 5.431350 0.000000
549.338260 33.079834 6.285869 0.000000
549.349060 33.586918 6.279258 0.000000
549.361690 34.558620 6.268073 0.000000
549.379330 35.010468 6.264573 0.000000
549.388730 35.455940 6.261246 0.000000
549.397950 35.888309 6.258649 0.000000
549.030460 32.655037 3.729536 0.000000
549.329650 32.890594 3.742184 0.000000
549.357120 33.442589 3.784144 0.000000
549.365970 33.994423 3.826302 0.000000
548.417360 32.203552 3.705588 0.000000
548.674070 32.493565 3.723519 0.000000
549.379760 34.519875 3.866204 0.000000
549.383730 35.036530 3.905489 0.000000
548.114380 31.973286 3.692982 0.000000
549.406010 35.516151 3.941459 0.000000
549.409850 35.997902 3.977829 0.000000
547.219670 31.943110 3.705942 0.000000
546.458680 31.758997 3.704010 0.000000
570.377990 29.183792 3.897594 0.000000
548.736270 28.039867 3.930293 0.000000
549.343630 32.847771 4.216785 0.000000
549.355470 33.419022 4.251108 0.000000
549.366940 33.968147 4.284101 0.000000
549.378110 34.496891 4.315869 0.000000
549.388730 35.006870 4.346510 0.000000
549.409060 35.974907 4.404672 0.000000
549.329160 32.229340 4.667071 0.000000
549.341740 32.824211 4.692884 0.000000
549.344360 33.406464 4.718206 0.000000
549.362370 33.948208 4.742052 0.000000
549.402950 35.471176 4.809784 0.000000
570.345520 29.152145 4.781018 0.000000
549.339970 32.800362 5.169147 0.000000
549.352050 33.371918 5.184709 0.000000
549.363590 33.921631 5.199954 0.000000
549.374820 34.450943 5.214909 0.000000
549.379030 34.968269 5.229629 0.000000
549.401490 35.448555 5.244027 0.000000
549.405150 35.931351 5.258273 0.000000
549.295840 32.801895 6.121621 0.000000
549.348690 33.324684 6.120841 0.000000
549.360290 33.875015 6.118310 0.000000
549.371520 34.404900 6.116424 0.000000
549.392700 35.409271 6.114428 0.000000
549.395510 35.893204 6.113838 0.000000
570.702330 28.840265 6.560829 0.000000
549.167600 33.427879 3.723123 0.000000
549.394350 34.946602 3.840043 0.000000
549.405880 35.489368 3.882845 0.000000
549.408140 36.021622 3.924856 0.000000
547.921570 33.200890 3.726880 0.000000
547.644100 32.938034 3.710347 0.000000
547.016780 33.223122 3.743956 0.000000
546.666500 33.092155 3.739052 0.000000
546.309200 32.978004 3.735491 0.000000
545.971500 32.834869 3.729114 0.000000
552.659420 27.138668 3.795524 0.000000
549.358520 33.781044 4.227771 0.000000
549.381040 34.357018 4.263748 0.000000
549.396180 34.918419 4.298849 0.000000
549.406560 35.998074 4.366443 0.000000
570.194030 28.029743 3.765958 0.000000
570.298100 28.819948 3.814961 0.000000
549.355900 33.153744 4.188481 0.000000
549.404420 35.465363 4.333077 0.000000
552.632510 27.141212 4.433855 0.000000
549.354310 33.128410 4.676928 0.000000
549.356750 33.756332 4.705429 0.000000
570.186340 27.981335 4.667388 0.000000
570.290470 28.771660 4.708818 0.000000
549.345580 33.112419 5.165659 0.000000
549.355160 33.731384 5.183249 0.000000
549.377990 34.307716 5.200215 0.000000
549.401180 35.417686 5.233251 0.000000
552.607240 27.141460 5.070494 0.000000
549.363040 33.694370 5.661910 0.000000
549.376400 34.283043 5.669172 0.000000
549.399720 35.393631 5.684038 0.000000
549.410770 35.917530 5.691658 0.000000
546.613650 31.588438 5.558163 0.000000
546.840940 31.966002 5.566609 0.000000
549.374880 34.258297 6.139211 0.000000
549.390620 34.820316 6.137449 0.000000
549.398190 35.369553 6.135875 0.000000
549.409300 35.893745 6.135112 0.000000
570.419370 27.717815 6.479745 0.000000
