# .PCD v0.7 - Point Cloud Data file format
VERSION 0.7
FIELDS x y z intensity
SIZE 4 4 4 4
TYPE F F F F
COUNT 1 1 1 1
WIDTH 1166
HEIGHT 1
VIEWPOINT 0 0 0 1 0 0 0
POINTS 1166
DATA ascii
578.651250 211.163360 18.579542 0.000000
578.258420 217.941040 19.096569 0.000000
582.856380 216.576320 19.325127 0.000000
576.779540 234.911940 20.375736 0.000000
579.722720 234.491580 20.541393 0.000000
578.202150 234.487550 20.436903 0.000000
581.256230 234.495650 20.648483 0.000000
576.768010 235.321720 22.288651 0.000000
584.270810 234.490200 22.766121 0.000000
582.708070 234.486020 22.643845 0.000000
581.160580 234.481920 22.525055 0.000000
579.627500 234.479310 22.409798 0.000000
578.106630 234.473880 22.297440 0.000000
581.497560 234.548580 13.266210 0.000000
579.951110 234.544040 13.186283 0.000000
578.418880 234.539630 13.106522 0.000000
575.111390 226.506560 12.963926 0.000000
571.864380 223.627880 12.803256 0.000000
582.868840 216.921780 13.394573 0.000000
577.596370 216.170070 13.131233 0.000000
582.879520 213.650880 13.404732 0.000000
577.678830 212.553310 13.147885 0.000000
582.957400 234.540500 15.225581 0.000000
581.395570 234.535060 15.135861 0.000000
579.849300 234.530610 15.047054 0.000000
576.824710 234.642610 14.875446 0.000000
578.317140 234.526260 14.959059 0.000000
582.863460 217.113370 14.916096 0.000000
578.310000 214.784940 14.614172 0.000000
582.874630 213.824110 14.859339 0.000000
578.321350 211.190310 14.552101 0.000000
582.858460 217.307420 16.447937 0.000000
582.869870 213.998870 16.323364 0.000000
578.287720 211.300280 15.923380 0.000000
576.815490 235.049820 16.746014 0.000000
584.427920 234.514740 17.205572 0.000000
582.854980 234.525970 17.105629 0.000000
581.293580 234.521510 17.006393 0.000000
579.747440 234.517120 16.908695 0.000000
578.215390 234.512850 16.812460 0.000000
578.280520 211.491200 17.308811 0.000000
582.853210 217.502290 17.991587 0.000000
582.864870 214.174440 17.798243 0.000000
582.874510 211.125730 17.621899 0.000000
576.807500 235.467710 18.638807 0.000000
584.330320 234.516600 19.099466 0.000000
582.752690 234.512390 18.988377 0.000000
581.191410 234.508010 18.879570 0.000000
579.645390 234.503660 18.772966 0.000000
578.113460 234.499480 18.668474 0.000000
582.870300 211.287090 19.045885 0.000000
582.847720 217.698390 19.548660 0.000000
582.859680 214.351070 19.285501 0.000000
578.011290 234.485990 20.528894 0.000000
576.800350 235.895190 20.556305 0.000000
585.823670 234.510350 21.121775 0.000000
584.227540 234.502900 20.996967 0.000000
582.650150 234.498750 20.875603 0.000000
581.088990 234.494420 20.757198 0.000000
579.543150 234.490140 20.641665 0.000000
576.736330 236.066960 22.469284 0.000000
584.124450 234.489110 22.900810 0.000000
582.547240 234.485060 22.769142 0.000000
580.986210 234.480500 22.641068 0.000000
579.440550 234.476620 22.516609 0.000000
577.908810 234.472530 22.395527 0.000000
585.719360 234.493450 23.036316 0.000000
581.414430 234.546690 13.824433 0.000000
579.853640 234.542140 13.739877 0.000000
576.878420 234.955380 13.578098 0.000000
578.308110 234.537630 13.655582 0.000000
582.869140 217.783680 13.852261 0.000000
577.668330 217.702710 13.576944 0.000000
582.879390 214.585660 13.842031 0.000000
577.642880 213.842530 13.564612 0.000000
582.889470 211.644670 13.832224 0.000000
581.310420 234.532840 15.702845 0.000000
576.867680 235.334170 15.454213 0.000000
587.731200 234.551120 16.089968 0.000000
586.096800 234.546390 15.991426 0.000000
584.482790 234.541820 15.894112 0.000000
582.887700 234.537190 15.797940 0.000000
579.749510 234.528320 15.608732 0.000000
582.843380 217.917850 15.402601 0.000000
582.874330 214.753680 15.329706 0.000000
582.884220 211.795850 15.260418 0.000000
578.723880 217.538020 16.660910 0.000000
582.869260 214.922910 16.827072 0.000000
582.919190 212.040820 16.704319 0.000000
576.866270 235.756410 17.351942 0.000000
589.282960 234.541340 18.127983 0.000000
587.626950 234.536850 18.014999 0.000000
585.992680 234.532230 17.904070 0.000000
582.783630 234.523190 17.687992 0.000000
581.206540 234.519780 17.582712 0.000000
579.645320 234.514430 17.478973 0.000000
578.099670 234.510040 17.376877 0.000000
578.641600 217.528560 18.173761 0.000000
582.864140 215.093260 18.335630 0.000000
582.874940 212.104260 18.145180 0.000000
589.180730 234.532670 20.070009 0.000000
587.522580 234.522540 19.943314 0.000000
585.890870 234.525310 19.820633 0.000000
582.679320 234.509160 19.581242 0.000000
581.101990 234.504970 19.465641 0.000000
579.541020 234.500600 19.352369 0.000000
577.995240 234.496230 19.241344 0.000000
581.074710 213.987670 19.597052 0.000000
578.713560 214.299770 19.426735 0.000000
582.058650 213.313280 19.623569 0.000000
582.583250 211.593750 19.523788 0.000000
578.268550 216.639620 19.591389 0.000000
580.083680 214.669950 19.571945 0.000000
576.722840 236.021090 21.156384 0.000000
582.574770 234.495120 21.479530 0.000000
580.997380 234.490970 21.353624 0.000000
579.436340 234.486660 21.230728 0.000000
577.890560 234.482390 21.110744 0.000000
575.082820 236.070040 22.943123 0.000000
582.464720 234.464570 23.382481 0.000000
580.892460 234.476930 23.248442 0.000000
579.331240 234.472230 23.115818 0.000000
577.785520 234.468510 22.986904 0.000000
584.062440 234.478090 23.523846 0.000000
582.836000 234.556950 13.270712 0.000000
581.236330 234.537020 13.217003 0.000000
579.667910 234.561190 13.163836 0.000000
578.101140 234.535860 13.110085 0.000000
574.608640 227.013520 12.980423 0.000000
572.844910 225.463100 12.917021 0.000000
571.241700 224.326720 12.859184 0.000000
582.878050 215.633640 13.237328 0.000000
577.639650 215.349000 13.067597 0.000000
582.887570 212.734530 13.230979 0.000000
577.650390 212.030080 13.062237 0.000000
576.774110 235.625600 14.952770 0.000000
582.768920 234.543060 15.170407 0.000000
581.173770 234.538210 15.105986 0.000000
579.596440 234.533620 15.042282 0.000000
578.035400 234.528900 14.979237 0.000000
578.374450 217.560820 14.615543 0.000000
582.873540 215.730040 14.756233 0.000000
578.466860 214.335980 14.547551 0.000000
582.883180 212.821550 14.691940 0.000000
578.480220 211.195010 14.478235 0.000000
578.327940 217.568680 16.135984 0.000000
582.910160 215.921830 16.287411 0.000000
578.416560 214.325930 16.001469 0.000000
582.878850 212.908910 16.158669 0.000000
578.432370 211.184830 15.868242 0.000000
576.788210 235.933560 16.856838 0.000000
582.701720 234.529140 17.071423 0.000000
581.106510 234.524350 16.996090 0.000000
579.528930 234.519840 16.922176 0.000000
577.967710 234.515170 16.849592 0.000000
578.384890 211.175870 17.260651 0.000000
578.281490 217.577060 17.659843 0.000000
582.905700 216.019620 17.822577 0.000000
578.367610 214.319670 17.458128 0.000000
582.874210 212.996200 17.632542 0.000000
582.634520 234.515200 18.975548 0.000000
581.039060 234.510500 18.889280 0.000000
579.461360 234.506070 18.805136 0.000000
577.899960 234.501460 18.722992 0.000000
578.326350 214.334440 18.921061 0.000000
578.343320 211.182330 18.658440 0.000000
578.260250 217.657530 19.196241 0.000000
582.901000 216.117310 19.366959 0.000000
582.869810 213.084470 19.115114 0.000000
582.567080 234.501220 20.884636 0.000000
580.971500 234.496610 20.787399 0.000000
579.393620 234.492250 20.692986 0.000000
577.832030 234.487700 20.601250 0.000000
580.903690 234.482640 22.692276 0.000000
579.325620 234.478360 22.587551 0.000000
577.763850 234.473910 22.486181 0.000000
587.405520 234.500700 23.147594 0.000000
585.749020 234.496260 23.028057 0.000000
584.114070 234.491670 22.912407 0.000000
582.499390 234.487210 22.800533 0.000000
574.439760 211.185670 12.435328 0.000000
581.090210 234.541610 14.437548 0.000000
577.917850 234.530980 14.411930 0.000000
582.858580 216.459730 14.003747 0.000000
577.618290 216.559540 13.964338 0.000000
577.630550 213.303970 13.883787 0.000000
576.781860 236.060550 14.440742 0.000000
582.704220 234.547030 14.450582 0.000000
579.495180 234.536150 14.424665 0.000000
582.913820 213.700560 13.935837 0.000000
582.854310 216.439160 15.550652 0.000000
582.910520 213.681670 15.428698 0.000000
576.775940 236.046940 16.346134 0.000000
589.376530 234.555360 16.471113 0.000000
587.669860 234.544430 16.442429 0.000000
585.992250 234.543960 16.415281 0.000000
584.335690 234.538570 16.388842 0.000000
582.700740 234.533110 16.363325 0.000000
581.086120 234.527770 16.338705 0.000000
579.490480 234.522370 16.314945 0.000000
577.912540 234.517270 16.292032 0.000000
582.850040 216.418580 17.099880 0.000000
582.906010 213.660280 16.923662 0.000000
576.769960 236.033360 18.254866 0.000000
589.375730 234.541020 18.441261 0.000000
587.667850 234.528900 18.397659 0.000000
585.990110 234.529820 18.356846 0.000000
584.332890 234.524550 18.317305 0.000000
582.697270 234.519130 18.279434 0.000000
581.082090 234.513920 18.243200 0.000000
579.485780 234.508620 18.208538 0.000000
577.907470 234.504520 18.175491 0.000000
582.845700 216.397930 18.652929 0.000000
582.900880 213.637510 18.422115 0.000000
576.763920 236.019260 20.168736 0.000000
589.375000 234.526670 20.416834 0.000000
587.665770 234.513200 20.358189 0.000000
585.987920 234.515660 20.303734 0.000000
584.330080 234.510500 20.251041 0.000000
582.693850 234.505220 20.200779 0.000000
581.078000 234.500060 20.152887 0.000000
579.481080 234.494840 20.107285 0.000000
577.901920 234.489870 20.063929 0.000000
578.253110 214.859480 19.857164 0.000000
578.509520 212.387820 19.605278 0.000000
580.482360 211.199890 19.564972 0.000000
579.270020 211.267460 19.519142 0.000000
579.476070 234.480060 22.012909 0.000000
577.896610 234.476100 21.959381 0.000000
576.757930 236.005540 22.089687 0.000000
584.327450 234.496980 22.191998 0.000000
582.690370 234.491200 22.129215 0.000000
581.073850 234.486150 22.069618 0.000000
582.583370 234.549320 14.282538 0.000000
580.950500 234.543460 14.305573 0.000000
579.337830 234.537630 14.328322 0.000000
577.744140 234.531950 14.350806 0.000000
577.612300 217.704800 13.835052 0.000000
582.864010 214.449570 13.660249 0.000000
577.623540 214.507920 13.736549 0.000000
582.873350 211.828520 13.579489 0.000000
577.633850 211.567500 13.645952 0.000000
582.860050 214.351490 15.179192 0.000000
582.869570 211.735780 15.047736 0.000000
589.401060 234.572050 16.168621 0.000000
587.665470 234.553040 16.176949 0.000000
585.961980 234.546970 16.186356 0.000000
584.283140 234.540990 16.196218 0.000000
582.627500 234.535310 16.206543 0.000000
580.993530 234.529560 16.217306 0.000000
579.379760 234.523900 16.228519 0.000000
577.784910 234.518190 16.240170 0.000000
582.856510 214.254240 16.697132 0.000000
582.866030 211.643720 16.515089 0.000000
589.450320 234.557270 18.153879 0.000000
587.713010 234.537690 18.146370 0.000000
586.008730 234.532780 18.141203 0.000000
584.328670 234.526890 18.137218 0.000000
582.671810 234.521270 18.134481 0.000000
581.036620 234.515560 18.132935 0.000000
579.421750 234.510040 18.132574 0.000000
577.825810 234.504430 18.133362 0.000000
582.852970 214.156980 18.215523 0.000000
582.862850 211.552280 17.983009 0.000000
576.744690 236.024050 20.170271 0.000000
589.499080 234.541140 20.145046 0.000000
587.761720 234.524380 20.121925 0.000000
586.055600 234.518510 20.101973 0.000000
584.374270 234.512730 20.084085 0.000000
582.716250 234.507220 20.068233 0.000000
581.079960 234.501740 20.054338 0.000000
579.463870 234.496190 20.042345 0.000000
577.866820 234.490650 20.032227 0.000000
579.825680 213.282810 19.579418 0.000000
578.455750 213.090000 19.528748 0.000000
582.077510 212.517970 19.548119 0.000000
582.859500 211.460220 19.452808 0.000000
578.249150 215.627670 19.807745 0.000000
577.907650 234.475810 21.938496 0.000000
576.754270 235.905080 22.089378 0.000000
584.420040 234.498500 22.038715 0.000000
582.761050 234.493680 22.009750 0.000000
581.123290 234.487610 21.983356 0.000000
579.506100 234.482220 21.959690 0.000000
573.470760 215.024480 12.474059 0.000000
573.460270 211.785800 12.434473 0.000000
574.481630 211.326610 12.406816 0.000000
584.107420 234.550260 14.437113 0.000000
582.431640 234.544690 14.459297 0.000000
580.778560 234.538570 14.481162 0.000000
579.147160 234.532780 14.502748 0.000000
577.535890 234.527110 14.524070 0.000000
582.860050 215.261930 13.823333 0.000000
577.618470 215.662320 13.906382 0.000000
582.869510 212.668790 13.738451 0.000000
577.629090 212.760160 13.811384 0.000000
578.477910 217.546230 15.516932 0.000000
582.856320 215.164140 15.374642 0.000000
578.382870 214.326660 15.347803 0.000000
582.865360 212.574980 15.239989 0.000000
578.318790 211.413350 15.195103 0.000000
584.153930 234.536190 16.386765 0.000000
582.476680 234.530430 16.395176 0.000000
580.822510 234.524810 16.404062 0.000000
579.189820 234.519090 16.413404 0.000000
577.577330 234.513410 16.423210 0.000000
582.846800 217.931900 15.519073 0.000000
578.516050 217.535080 17.079884 0.000000
582.852660 215.066420 16.925117 0.000000
578.420230 214.315950 16.845490 0.000000
582.861820 212.482270 16.740818 0.000000
578.289670 211.265080 16.624046 0.000000
582.868710 217.880220 17.126961 0.000000
584.200620 234.522370 18.340639 0.000000
582.521970 234.516510 18.335224 0.000000
580.866520 234.510990 18.331076 0.000000
579.232600 234.505360 18.328136 0.000000
577.618960 234.499880 18.326401 0.000000
578.304570 211.209170 18.059973 0.000000
578.554320 217.523900 18.647743 0.000000
582.848940 214.968630 18.476246 0.000000
578.457700 214.305190 18.347883 0.000000
582.858760 212.390500 18.242453 0.000000
582.865780 217.778670 18.733021 0.000000
584.247440 234.508330 20.300613 0.000000
582.567440 234.502590 20.281322 0.000000
580.910640 234.497130 20.264084 0.000000
579.275630 234.492030 20.248852 0.000000
577.660640 234.486210 20.235476 0.000000
578.254820 213.768310 19.791708 0.000000
580.947750 211.236390 19.576328 0.000000
579.567500 211.086820 19.523365 0.000000
578.296750 211.105620 19.493721 0.000000
575.004390 236.072240 22.303797 0.000000
585.992370 234.481260 22.302454 0.000000
584.294370 234.494250 22.268606 0.000000
582.613040 234.488590 22.235365 0.000000
580.954960 234.483260 22.204969 0.000000
579.318600 234.477810 22.177296 0.000000
577.702510 234.472490 22.152302 0.000000
584.132930 234.559720 13.485044 0.000000
582.433350 234.554020 13.481596 0.000000
580.758360 234.548340 13.477610 0.000000
579.106510 234.543000 13.473097 0.000000
577.476070 234.537570 13.468060 0.000000
577.633480 216.465480 13.206525 0.000000
577.688540 213.708280 13.165334 0.000000
582.884160 213.230320 13.160183 0.000000
582.435000 234.539700 15.429097 0.000000
579.105960 234.528930 15.393812 0.000000
577.474550 234.523590 15.376518 0.000000
578.251040 217.806090 14.803528 0.000000
582.880000 213.198170 14.691889 0.000000
591.217220 234.568210 15.522184 0.000000
589.401430 234.562350 15.502939 0.000000
587.601990 234.524800 15.482763 0.000000
584.135680 234.545320 15.447127 0.000000
580.759090 234.534580 15.411345 0.000000
578.247990 217.780930 16.380732 0.000000
582.875790 213.165990 16.224665 0.000000
587.609130 234.514470 17.478682 0.000000
584.138430 234.530910 17.411789 0.000000
582.436580 234.525330 17.379133 0.000000
580.759460 234.519960 17.347549 0.000000
579.105470 234.514800 17.316998 0.000000
577.472960 234.509550 17.287415 0.000000
591.224850 234.553300 17.553907 0.000000
589.407780 234.547590 17.516546 0.000000
578.261110 217.791290 17.963974 0.000000
582.871700 213.133880 17.759968 0.000000
587.613460 234.498080 19.478825 0.000000
584.141170 234.516450 19.380884 0.000000
582.438230 234.511080 19.333563 0.000000
580.760010 234.505710 19.288107 0.000000
579.104920 234.500640 19.244469 0.000000
577.471440 234.495450 19.202555 0.000000
591.232480 234.538380 19.590309 0.000000
589.414120 234.532780 19.534763 0.000000
579.753110 217.967480 19.625580 0.000000
578.256770 217.763310 19.549112 0.000000
581.860720 216.483730 19.570417 0.000000
580.506590 216.614690 19.528101 0.000000
582.867370 213.101350 19.299240 0.000000
584.143980 234.502010 21.356339 0.000000
582.439880 234.496690 21.294277 0.000000
580.760560 234.491420 21.234886 0.000000
579.104430 234.486450 21.178108 0.000000
577.470210 234.482330 21.123913 0.000000
576.390200 236.072630 23.200256 0.000000
574.762570 236.067490 23.138527 0.000000
585.881590 234.500110 23.421577 0.000000
584.146730 234.487460 23.340071 0.000000
582.441530 234.482240 23.263187 0.000000
580.761050 234.477050 23.189793 0.000000
579.103880 234.472200 23.119804 0.000000
577.468320 234.467210 23.053051 0.000000
583.525880 234.560030 13.309510 0.000000
581.820310 234.554410 13.313540 0.000000
580.139770 234.549030 13.316922 0.000000
578.482670 234.543900 13.319674 0.000000
576.866940 234.593080 13.322549 0.000000
577.627260 217.982410 13.081994 0.000000
577.701290 215.219860 13.040699 0.000000
582.896550 214.469190 13.008641 0.000000
577.663390 212.425660 12.998831 0.000000
587.032040 234.556270 15.296715 0.000000
585.270510 234.550830 15.285621 0.000000
578.490540 234.529620 15.242910 0.000000
582.892460 214.424840 14.574185 0.000000
578.365720 211.196150 14.434391 0.000000
583.537230 234.545490 15.274705 0.000000
581.830440 234.539920 15.263945 0.000000
580.148740 234.534670 15.253352 0.000000
576.872070 234.574260 15.234435 0.000000
582.921330 217.084400 14.666431 0.000000
578.642520 214.337740 14.544859 0.000000
582.900450 211.986300 14.489820 0.000000
582.888370 214.380460 16.140238 0.000000
578.653630 214.325840 16.067310 0.000000
582.896480 211.942830 16.009935 0.000000
578.377500 211.185350 15.893060 0.000000
587.045840 234.541470 17.296652 0.000000
585.283020 234.536130 17.269035 0.000000
583.548100 234.529880 17.242401 0.000000
581.840580 234.525510 17.216885 0.000000
580.157780 234.520260 17.192272 0.000000
578.498410 234.515290 17.168602 0.000000
576.877200 234.555390 17.148533 0.000000
582.917300 217.039340 16.283510 0.000000
582.884280 214.336060 17.708275 0.000000
578.658260 214.301070 17.592093 0.000000
582.893010 211.900120 17.532030 0.000000
578.389340 211.174510 17.355076 0.000000
582.914550 216.996460 17.902866 0.000000
585.295780 234.521820 19.256969 0.000000
583.559880 234.516200 19.214645 0.000000
581.850770 234.511000 19.174192 0.000000
580.166750 234.505800 19.135513 0.000000
578.506290 234.500900 19.098568 0.000000
576.882390 234.536500 19.066650 0.000000
587.059080 234.525310 19.301018 0.000000
578.401180 211.163640 18.821861 0.000000
582.880250 214.291600 19.279812 0.000000
578.672970 214.296100 19.123383 0.000000
582.889040 211.856550 19.057461 0.000000
582.908260 216.947270 19.525276 0.000000
585.308170 234.506530 21.251244 0.000000
583.571230 234.501530 21.193176 0.000000
581.860960 234.496400 21.137779 0.000000
580.175720 234.491300 21.084970 0.000000
578.514160 234.486510 21.034695 0.000000
576.887630 234.517990 20.990704 0.000000
587.073550 234.511690 21.312096 0.000000
575.807860 236.072880 23.069485 0.000000
574.175900 236.068020 23.014004 0.000000
585.320800 234.491670 23.253920 0.000000
583.582640 234.486740 23.179983 0.000000
581.871150 234.481750 23.109560 0.000000
580.184810 234.476730 23.042545 0.000000
578.522160 234.472080 22.978867 0.000000
576.892820 234.498950 22.922482 0.000000
590.702760 234.486210 23.495461 0.000000
588.884460 234.501800 23.412941 0.000000
587.087460 234.496690 23.331526 0.000000
584.203980 234.564330 13.415298 0.000000
582.469850 234.558470 13.406140 0.000000
580.762510 234.552510 13.396528 0.000000
579.080440 234.546750 13.386471 0.000000
577.421940 234.540880 13.375966 0.000000
577.605770 217.350650 13.163775 0.000000
582.857730 213.850460 13.137747 0.000000
577.615840 214.580320 13.128078 0.000000
582.900330 211.549190 13.106061 0.000000
577.624450 211.991090 13.094260 0.000000
582.463750 234.544050 15.370316 0.000000
582.862430 211.473660 14.627194 0.000000
589.583620 234.568190 15.472603 0.000000
587.757080 234.562070 15.446364 0.000000
585.962710 234.555890 15.420583 0.000000
584.198850 234.549770 15.395238 0.000000
580.755430 234.538190 15.345771 0.000000
579.072330 234.532500 15.321592 0.000000
577.412960 234.526760 15.297750 0.000000
582.853520 213.829900 14.703545 0.000000
578.538390 211.197270 14.556580 0.000000
582.849240 213.809310 16.270895 0.000000
582.858280 211.452480 16.150642 0.000000
578.537840 211.186490 16.027588 0.000000
585.958560 234.541170 17.419613 0.000000
584.193730 234.535220 17.377590 0.000000
582.457580 234.529590 17.336863 0.000000
580.748470 234.524230 17.297375 0.000000
579.064270 234.518250 17.259018 0.000000
577.403990 234.512570 17.221800 0.000000
589.581670 234.553250 17.507734 0.000000
587.754030 234.547290 17.462978 0.000000
582.845090 213.788730 17.841282 0.000000
582.854190 211.431350 17.677000 0.000000
578.537230 211.175660 17.501835 0.000000
584.188540 234.520600 19.364222 0.000000
582.451660 234.515610 19.307686 0.000000
580.741090 234.509410 19.253105 0.000000
579.056150 234.503940 19.200571 0.000000
577.394960 234.498410 19.149942 0.000000
589.579900 234.538700 19.547365 0.000000
587.750430 234.531400 19.483902 0.000000
585.954410 234.526380 19.422974 0.000000
578.948730 217.179920 19.544292 0.000000
582.840820 213.768040 19.416222 0.000000
582.849430 211.409130 19.207626 0.000000
578.536680 211.164860 18.980770 0.000000
580.270510 216.953430 19.582565 0.000000
584.183350 234.505950 21.357069 0.000000
582.445190 234.500550 21.284561 0.000000
580.733950 234.495030 21.214951 0.000000
579.048100 234.489640 21.148151 0.000000
577.385990 234.484190 21.084049 0.000000
585.950320 234.511690 21.432644 0.000000
574.667110 236.070100 23.090481 0.000000
584.181340 234.498080 23.359015 0.000000
582.438960 234.485950 23.269562 0.000000
580.726750 234.480510 23.184786 0.000000
579.039920 234.475250 23.103653 0.000000
577.376460 234.468800 23.025860 0.000000
585.940800 234.485900 23.449049 0.000000
585.084350 234.563960 13.553266 0.000000
583.320250 234.558240 13.535995 0.000000
576.767210 235.139940 13.473269 0.000000
581.584900 234.552400 13.518404 0.000000
579.876590 234.546770 13.500496 0.000000
578.193360 234.540160 13.482248 0.000000
577.623110 216.437590 13.259949 0.000000
577.632200 213.785900 13.226933 0.000000
582.874630 213.018250 13.260151 0.000000
577.640500 211.300810 13.195542 0.000000
583.304990 234.543660 15.515059 0.000000
590.556950 234.567320 15.654808 0.000000
588.678650 234.532300 15.617693 0.000000
585.069950 234.549260 15.549067 0.000000
576.760380 235.156890 15.409147 0.000000
581.568730 234.537930 15.481600 0.000000
579.859560 234.532390 15.448664 0.000000
578.175780 234.526780 15.416214 0.000000
582.853270 217.967990 14.978631 0.000000
578.262210 217.698750 14.882063 0.000000
582.870420 213.009550 14.821082 0.000000
582.866150 213.000840 16.384136 0.000000
585.055540 234.534520 17.547256 0.000000
583.289670 234.529040 17.496475 0.000000
581.552490 234.523410 17.447105 0.000000
576.756040 235.180450 17.349133 0.000000
579.842410 234.517870 17.399101 0.000000
578.157840 234.512440 17.352406 0.000000
578.257510 217.698700 16.485107 0.000000
592.426700 234.524430 17.763851 0.000000
590.545780 234.552610 17.708950 0.000000
588.669070 234.522710 17.651844 0.000000
582.861880 212.992140 17.950802 0.000000
578.252810 217.698700 18.092182 0.000000
585.041140 234.519710 19.549721 0.000000
583.274290 234.514330 19.482105 0.000000
581.536380 234.509230 19.416813 0.000000
576.752750 235.206880 19.295212 0.000000
579.825320 234.503510 19.353670 0.000000
578.139890 234.498110 19.292673 0.000000
592.415280 234.507480 19.842117 0.000000
590.534000 234.536970 19.767498 0.000000
588.656980 234.508480 19.690239 0.000000
579.884890 215.359630 19.576548 0.000000
578.593870 215.617290 19.534306 0.000000
581.117490 214.972760 19.605698 0.000000
582.857600 212.983400 19.522593 0.000000
578.246400 217.695340 19.704472 0.000000
583.258850 234.499630 21.473894 0.000000
581.519900 234.494280 21.392544 0.000000
576.743710 235.218540 21.247545 0.000000
579.808170 234.489040 21.314257 0.000000
578.121890 234.483760 21.238903 0.000000
585.026610 234.504850 21.558411 0.000000
575.386110 236.070010 23.237379 0.000000
576.740780 235.246250 23.211117 0.000000
581.503540 234.479580 23.376312 0.000000
579.790890 234.474490 23.282772 0.000000
578.103760 234.469250 23.192982 0.000000
585.521120 234.568730 13.639903 0.000000
583.729190 234.563170 13.608096 0.000000
581.967830 234.557510 13.576229 0.000000
580.235290 234.552030 13.544289 0.000000
578.529790 234.546450 13.512252 0.000000
576.879330 234.613830 13.481300 0.000000
577.633060 216.383610 13.330971 0.000000
577.641540 213.804110 13.306280 0.000000
582.884160 212.899860 13.382158 0.000000
577.649600 211.380620 13.282633 0.000000
591.069760 234.571620 15.803155 0.000000
589.156560 234.535890 15.749508 0.000000
585.487920 234.554050 15.649140 0.000000
583.695370 234.548610 15.599686 0.000000
581.933410 234.543090 15.551069 0.000000
580.200260 234.537700 15.503250 0.000000
578.494200 234.532270 15.456175 0.000000
576.852720 234.623440 15.413658 0.000000
582.864380 217.758270 15.093307 0.000000
578.273990 217.620470 14.963097 0.000000
582.880000 212.914550 14.954249 0.000000
582.876220 212.929820 16.529522 0.000000
583.661560 234.534070 17.593374 0.000000
581.898930 234.528630 17.527969 0.000000
580.165160 234.523380 17.464243 0.000000
578.458500 234.518020 17.402094 0.000000
576.784850 234.531430 17.342649 0.000000
582.859310 217.777740 16.758303 0.000000
578.268860 217.647460 16.576206 0.000000
591.039370 234.557720 17.873486 0.000000
589.141300 234.550810 17.800446 0.000000
585.454770 234.539370 17.660513 0.000000
582.872070 212.944600 18.109409 0.000000
582.854860 217.798400 18.428436 0.000000
578.263730 217.674590 18.194504 0.000000
583.627620 234.519420 19.591038 0.000000
581.864380 234.514110 19.508799 0.000000
580.130000 234.508990 19.429111 0.000000
578.422790 234.503780 19.351851 0.000000
576.767640 234.564450 19.282658 0.000000
591.007450 234.541350 19.947857 0.000000
589.109070 234.535220 19.854156 0.000000
585.421510 234.524630 19.675917 0.000000
578.306460 215.127960 19.599564 0.000000
580.274290 213.541020 19.582592 0.000000
579.121700 214.036220 19.554585 0.000000
581.974240 211.586580 19.523561 0.000000
578.256960 217.698780 19.819212 0.000000
583.593630 234.504810 21.594627 0.000000
581.829770 234.499650 21.495487 0.000000
580.094790 234.494510 21.399769 0.000000
578.386960 234.489490 21.307339 0.000000
576.757750 234.615980 21.232639 0.000000
585.388120 234.509860 21.697317 0.000000
580.055850 234.472080 23.377045 0.000000
578.350890 234.475080 23.270451 0.000000
576.755490 234.686710 23.195917 0.000000
586.081670 234.564130 13.497889 0.000000
584.259460 234.558120 13.485194 0.000000
582.470090 234.552570 13.472130 0.000000
580.711360 234.546840 13.458684 0.000000
578.981570 234.541170 13.444865 0.000000
577.278990 234.535770 13.430676 0.000000
577.638310 216.157010 13.198323 0.000000
582.889530 212.643880 13.179159 0.000000
577.646420 213.657640 13.164786 0.000000
577.654420 211.303130 13.132741 0.000000
591.761290 234.567170 15.618775 0.000000
586.074460 234.549530 15.521075 0.000000
584.251160 234.543660 15.489745 0.000000
582.460820 234.538210 15.458990 0.000000
580.701050 234.532610 15.428754 0.000000
578.970340 234.527070 15.399014 0.000000
577.266850 234.521760 15.369747 0.000000
582.869260 217.332670 14.908525 0.000000
578.420470 217.552290 14.839659 0.000000
578.260860 214.707550 14.744765 0.000000
582.885070 212.625820 14.756298 0.000000
578.256350 214.695010 16.308533 0.000000
582.880620 212.607770 16.335197 0.000000
582.451480 234.523800 17.448299 0.000000
580.690730 234.518310 17.401230 0.000000
578.959050 234.512860 17.355530 0.000000
577.254640 234.507690 17.311152 0.000000
582.864500 217.316300 16.573427 0.000000
578.415650 217.540620 16.459215 0.000000
591.756960 234.551240 17.706524 0.000000
586.067140 234.534850 17.546801 0.000000
584.242860 234.529100 17.496786 0.000000
578.252380 214.683350 17.875799 0.000000
582.876160 212.589710 17.917349 0.000000
582.859800 217.300030 18.241867 0.000000
578.410770 217.528870 18.082352 0.000000
582.442200 234.509430 19.441944 0.000000
580.680480 234.504040 19.377983 0.000000
578.947750 234.498720 19.316269 0.000000
577.242430 234.493640 19.256729 0.000000
591.753660 234.536960 19.799061 0.000000
586.059940 234.520140 19.576981 0.000000
584.234560 234.514560 19.508221 0.000000
578.248720 214.672270 19.448128 0.000000
582.871700 212.571610 19.504292 0.000000
578.272030 217.277880 19.682579 0.000000
580.104190 215.317600 19.599583 0.000000
581.371090 214.930370 19.630831 0.000000
582.432800 234.494930 21.441853 0.000000
580.670040 234.489690 21.360931 0.000000
578.936460 234.484470 21.283134 0.000000
577.230160 234.479510 21.208366 0.000000
586.052670 234.505430 21.613592 0.000000
584.226260 234.500000 21.526007 0.000000
576.193540 236.071080 23.297890 0.000000
574.503360 236.066210 23.213478 0.000000
580.659670 234.475270 23.352013 0.000000
578.925050 234.470210 23.258053 0.000000
577.217900 234.465360 23.167971 0.000000
586.091920 234.560670 14.076580 0.000000
584.249510 234.554600 14.066669 0.000000
582.441350 234.548650 14.056942 0.000000
580.665470 234.542970 14.047392 0.000000
578.919800 234.537410 14.038005 0.000000
577.202820 234.531940 14.028772 0.000000
577.625670 216.688630 13.651809 0.000000
582.877080 213.054930 13.602468 0.000000
577.633480 214.222790 13.599445 0.000000
577.641240 211.895550 13.550028 0.000000
582.873110 213.027450 15.196025 0.000000
578.635380 211.190220 15.049404 0.000000
582.445010 234.534180 16.049381 0.000000
580.668460 234.528590 16.022379 0.000000
578.922240 234.523160 15.996435 0.000000
577.204590 234.517780 15.971508 0.000000
578.263670 217.771640 15.305588 0.000000
591.853450 234.563960 16.201967 0.000000
589.894350 234.557860 16.168934 0.000000
586.096920 234.545930 16.106758 0.000000
584.253850 234.540040 16.077496 0.000000
582.869080 212.999890 16.791435 0.000000
578.641110 211.179210 16.560822 0.000000
578.259700 217.745060 16.934326 0.000000
582.448670 234.519670 18.045080 0.000000
580.671510 234.514250 18.000587 0.000000
578.924620 234.508910 17.958050 0.000000
577.206420 234.503660 17.917391 0.000000
591.860660 234.548750 18.299908 0.000000
589.900820 234.542800 18.244322 0.000000
586.101930 234.531220 18.140287 0.000000
584.258120 234.525410 18.091625 0.000000
582.865110 212.972380 18.390251 0.000000
578.646850 211.168230 18.076241 0.000000
578.255130 217.717530 18.566502 0.000000
582.452330 234.505140 20.045977 0.000000
580.674500 234.499800 19.983929 0.000000
578.927060 234.494660 19.924746 0.000000
577.208250 234.489470 19.868305 0.000000
591.867980 234.533540 20.403393 0.000000
589.907290 234.527740 20.325171 0.000000
586.106690 234.515930 20.179089 0.000000
584.262450 234.510730 20.111008 0.000000
578.261050 215.186160 19.961956 0.000000
578.267820 212.817440 19.734943 0.000000
582.456420 234.491360 22.054111 0.000000
580.677120 234.484500 21.974236 0.000000
578.929440 234.480210 21.898422 0.000000
577.210330 234.475810 21.826212 0.000000
587.993410 234.506790 22.317148 0.000000
586.112000 234.501530 22.225279 0.000000
584.266780 234.495990 22.137608 0.000000
582.870120 212.731990 13.811909 0.000000
577.625790 214.011440 13.775160 0.000000
577.633970 211.756590 13.729364 0.000000
581.239750 234.547100 14.243403 0.000000
579.463320 234.540860 14.226510 0.000000
577.717710 234.534910 14.210509 0.000000
577.617430 216.393520 13.824030 0.000000
586.772950 234.566130 14.299749 0.000000
584.892330 234.559520 14.279979 0.000000
583.048830 234.553410 14.261216 0.000000
578.717710 211.187620 15.252222 0.000000
578.333860 217.565060 15.490180 0.000000
582.865720 212.721910 15.413024 0.000000
581.235230 234.532750 16.231512 0.000000
579.459110 234.526640 16.196983 0.000000
577.713750 234.520810 16.164249 0.000000
592.652890 234.570820 16.480450 0.000000
590.647890 234.564350 16.433558 0.000000
586.767580 234.551330 16.346523 0.000000
584.887270 234.544890 16.306194 0.000000
583.044070 234.538970 16.267897 0.000000
578.712220 211.175630 16.775959 0.000000
578.329410 217.553300 17.126705 0.000000
582.861390 212.711870 17.016834 0.000000
581.230710 234.518340 18.222916 0.000000
579.454830 234.512360 18.170725 0.000000
577.709720 234.506650 18.121235 0.000000
592.646550 234.555510 18.598896 0.000000
590.641910 234.549210 18.528103 0.000000
586.762210 234.536540 18.396677 0.000000
584.882200 234.530240 18.335760 0.000000
583.039180 234.524380 18.277899 0.000000
578.706600 211.163330 18.303574 0.000000
578.324890 217.541440 18.767498 0.000000
582.857060 212.701780 18.624886 0.000000
581.226140 234.503880 20.219532 0.000000
579.450560 234.498080 20.149643 0.000000
577.705690 234.492490 20.083359 0.000000
578.242860 212.665280 19.949558 0.000000
590.635860 234.534060 20.628105 0.000000
586.756710 234.521580 20.452171 0.000000
584.877080 234.515500 20.370626 0.000000
583.034360 234.509810 20.293156 0.000000
592.640140 234.540190 20.722855 0.000000
581.221560 234.489410 22.223213 0.000000
579.446230 234.483670 22.135555 0.000000
577.701660 234.478210 22.052418 0.000000
588.669800 234.512660 22.622456 0.000000
586.751400 234.506770 22.514944 0.000000
584.871520 234.499940 22.412579 0.000000
583.029540 234.495210 22.315540 0.000000
590.629820 234.518830 22.735508 0.000000
577.637450 214.614550 13.083936 0.000000
582.889100 211.096340 13.131848 0.000000
577.645140 212.359940 13.066919 0.000000
581.041750 234.546170 13.289623 0.000000
579.252990 234.540330 13.269320 0.000000
577.495850 234.534420 13.249969 0.000000
577.629460 216.993530 13.102386 0.000000
582.881840 213.196430 13.145838 0.000000
586.617800 234.564350 13.356665 0.000000
584.721920 234.558110 13.333251 0.000000
582.864070 234.552200 13.310922 0.000000
582.884830 211.110340 14.715498 0.000000
578.321900 211.198840 14.593633 0.000000
582.870180 215.410950 14.819590 0.000000
582.877500 213.210650 14.765837 0.000000
581.020260 234.531620 15.281756 0.000000
579.232540 234.525920 15.243416 0.000000
577.476320 234.520190 15.206935 0.000000
592.528140 234.567170 15.555643 0.000000
590.505920 234.561970 15.504347 0.000000
588.509890 234.526230 15.454187 0.000000
586.593140 234.549380 15.408776 0.000000
584.698360 234.543270 15.364350 0.000000
582.841550 234.537510 15.322046 0.000000
582.880550 211.124370 16.302025 0.000000
578.313600 211.205990 16.122084 0.000000
582.866090 215.425870 16.481211 0.000000
582.873110 213.224850 16.388769 0.000000
580.998780 234.517120 17.275940 0.000000
579.212040 234.511540 17.219555 0.000000
577.456790 234.505890 17.165945 0.000000
592.500610 234.552860 17.679558 0.000000
590.478880 234.546660 17.603819 0.000000
588.484560 234.511840 17.529739 0.000000
586.568540 234.534520 17.462950 0.000000
584.674800 234.528440 17.397503 0.000000
582.819090 234.522830 17.335220 0.000000
582.876280 211.138400 17.892952 0.000000
578.305240 211.213130 17.654440 0.000000
582.861210 215.439800 18.147362 0.000000
582.867860 213.237900 18.016083 0.000000
580.977290 234.502530 19.274080 0.000000
579.191530 234.497100 19.199638 0.000000
577.437130 234.491580 19.128874 0.000000
582.867680 211.147000 19.489050 0.000000
578.296880 211.220320 19.192127 0.000000
590.451780 234.531310 19.707365 0.000000
588.458620 234.496550 19.609297 0.000000
586.543820 234.519490 19.521141 0.000000
584.651180 234.513580 19.434658 0.000000
582.796570 234.508150 19.352379 0.000000
578.684940 216.318330 19.625404 0.000000
579.264710 214.854400 19.542814 0.000000
582.622310 212.930210 19.608582 0.000000
581.235720 213.208830 19.538403 0.000000
592.472290 234.537340 19.807518 0.000000
580.955690 234.487930 21.278027 0.000000
579.170900 234.482670 21.185484 0.000000
577.417480 234.477200 21.097530 0.000000
588.431820 234.479920 21.694651 0.000000
586.519040 234.504440 21.585258 0.000000
584.627560 234.498690 21.477692 0.000000
582.774480 234.494380 21.375488 0.000000
576.420350 236.068970 23.191422 0.000000
574.691410 236.063750 23.094801 0.000000
580.934020 234.473270 23.289852 0.000000
579.150210 234.468060 23.179146 0.000000
577.397830 234.462830 23.073967 0.000000
582.751220 234.478580 23.406305 0.000000
576.380370 215.278380 12.663280 0.000000
576.759280 213.551590 12.675529 0.000000
577.551570 212.503110 12.694285 0.000000
582.885560 211.256260 12.807570 0.000000
575.267400 218.388310 12.634401 0.000000
575.934750 216.979920 12.650306 0.000000
578.756650 214.310210 14.310098 0.000000
582.868900 211.284040 14.405123 0.000000
578.273930 211.430190 14.252384 0.000000
582.854130 215.562640 14.462304 0.000000
582.861450 213.374590 14.432557 0.000000
581.016600 234.536760 14.704313 0.000000
579.212340 234.530760 14.653893 0.000000
577.440860 234.525070 14.605587 0.000000
590.603520 234.568210 14.991455 0.000000
588.602840 234.561740 14.928993 0.000000
586.646300 234.555270 14.869161 0.000000
584.731450 234.549090 14.811849 0.000000
582.855650 234.543010 14.756938 0.000000
578.713010 214.297760 15.907616 0.000000
582.864750 211.327680 16.006475 0.000000
578.270320 211.473910 15.795893 0.000000
582.849730 215.608980 16.137779 0.000000
580.970950 234.522290 16.705078 0.000000
579.168400 234.516420 16.636118 0.000000
577.398560 234.510890 16.570210 0.000000
590.548280 234.552930 17.100307 0.000000
588.549680 234.546660 17.014027 0.000000
586.595150 234.540370 16.931522 0.000000
584.682190 234.534320 16.852642 0.000000
582.808290 234.528410 16.777216 0.000000
578.671200 214.287990 17.507515 0.000000
578.266240 211.517090 17.344376 0.000000
582.845890 215.656230 17.818737 0.000000
582.860600 211.371430 17.612978 0.000000
579.124570 234.502470 18.621296 0.000000
577.356140 234.496670 18.537754 0.000000
578.624940 214.271880 19.110420 0.000000
578.238890 211.527660 18.895420 0.000000
588.496090 234.530900 19.101921 0.000000
586.543950 234.525470 18.996805 0.000000
584.632870 234.519560 18.896355 0.000000
582.760800 234.513750 18.800411 0.000000
580.925290 234.507900 18.708773 0.000000
582.840640 215.701780 19.506485 0.000000
582.856380 211.415360 19.226124 0.000000
590.492980 234.537690 19.212076 0.000000
579.080260 234.487700 20.611149 0.000000
577.313600 234.482440 20.510015 0.000000
586.492550 234.510440 21.066895 0.000000
584.583440 234.504700 20.944862 0.000000
582.713200 234.499050 20.828382 0.000000
580.879460 234.493380 20.717216 0.000000
590.437500 234.522320 21.328693 0.000000
588.443120 234.516390 21.194759 0.000000
574.560000 236.068630 22.471760 0.000000
579.035950 234.473240 22.607822 0.000000
577.270940 234.468080 22.489035 0.000000
586.441040 234.495420 23.143942 0.000000
584.533810 234.489810 23.000277 0.000000
582.665470 234.484340 22.863230 0.000000
580.833500 234.478790 22.732492 0.000000
590.365420 234.481960 23.448828 0.000000
588.389590 234.501160 23.294535 0.000000
577.639400 212.564640 12.891060 0.000000
584.821230 230.979060 12.978432 0.000000
579.398500 225.092440 12.860214 0.000000
573.942810 221.272920 12.729674 0.000000
574.739440 219.972870 12.759539 0.000000
577.645940 217.131200 12.860361 0.000000
577.631840 214.773250 12.875652 0.000000
582.876710 213.163150 13.044646 0.000000
582.883610 211.097410 13.060942 0.000000
578.284300 211.406810 14.469376 0.000000
582.864500 215.394680 14.707941 0.000000
582.872250 213.233920 14.687277 0.000000
582.879880 211.166350 14.668492 0.000000
579.479740 234.538970 14.800152 0.000000
577.687260 234.533250 14.732994 0.000000
593.126220 234.604310 15.348350 0.000000
591.029360 234.574920 15.259992 0.000000
588.985350 234.549880 15.175178 0.000000
587.012080 234.562380 15.094985 0.000000
585.069270 234.555110 15.017047 0.000000
583.168880 234.550480 14.942079 0.000000
581.306270 234.544780 14.869810 0.000000
578.279910 211.475590 16.024214 0.000000
582.859740 215.468110 16.392708 0.000000
582.874450 211.233460 16.280617 0.000000
579.411320 234.524510 16.791927 0.000000
577.620970 234.518920 16.706524 0.000000
590.946660 234.559450 17.382828 0.000000
588.906010 234.535520 17.272942 0.000000
586.934630 234.547300 17.169722 0.000000
584.994260 234.540190 17.069429 0.000000
583.096190 234.535710 16.973255 0.000000
581.235780 234.530150 16.880791 0.000000
578.274600 211.543470 17.585060 0.000000
593.041870 234.590290 17.497801 0.000000
582.854980 215.541810 18.084068 0.000000
582.869870 211.301900 17.899025 0.000000
579.342900 234.510040 18.786255 0.000000
577.554500 234.504560 18.682606 0.000000
578.271000 211.614110 19.153728 0.000000
588.837400 234.537920 19.374783 0.000000
586.857060 234.532170 19.246975 0.000000
584.919860 234.526490 19.124447 0.000000
583.023380 234.520940 19.006971 0.000000
581.165160 234.515530 18.894316 0.000000
579.353090 217.639310 19.629766 0.000000
581.650700 214.028750 19.584724 0.000000
578.645810 214.305910 19.356457 0.000000
582.634520 211.086460 19.488224 0.000000
592.953860 234.571210 19.649345 0.000000
590.863890 234.543950 19.508162 0.000000
579.274230 234.495510 20.784960 0.000000
577.487980 234.490200 20.663055 0.000000
586.779360 234.517040 21.328651 0.000000
584.844540 234.511460 21.183794 0.000000
582.950680 234.506560 21.045132 0.000000
581.094420 234.500820 20.912228 0.000000
588.756770 234.522020 21.479843 0.000000
579.205380 234.480900 22.790094 0.000000
577.421200 234.475770 22.649914 0.000000
584.769040 234.496460 23.249680 0.000000
582.877200 234.491240 23.089697 0.000000
581.023440 234.486150 22.936615 0.000000
586.701420 234.501850 23.416893 0.000000
577.634890 214.097490 12.826502 0.000000
577.642270 211.945050 12.849361 0.000000
575.555110 217.987140 12.719557 0.000000
577.627010 216.357790 12.802992 0.000000
576.169860 216.526550 12.753802 0.000000
582.879760 212.438810 13.021144 0.000000
578.572200 211.191540 14.450947 0.000000
578.374330 217.552600 14.487801 0.000000
582.868230 214.632810 14.675433 0.000000
582.876040 212.521670 14.663497 0.000000
576.813540 234.903140 14.583516 0.000000
578.407590 234.528470 14.644650 0.000000
594.148190 234.577380 15.334937 0.000000
592.018250 234.570830 15.236949 0.000000
587.911680 234.558110 15.051848 0.000000
585.929020 234.551970 14.964377 0.000000
583.989750 234.545880 14.880066 0.000000
582.091370 234.540010 14.798771 0.000000
580.231450 234.534270 14.720345 0.000000
578.498170 211.180160 16.010857 0.000000
578.308410 217.553160 16.158871 0.000000
582.863280 214.717710 16.358866 0.000000
582.870610 212.602740 16.310915 0.000000
578.328920 234.513900 16.632683 0.000000
587.819950 234.542690 17.146122 0.000000
585.840210 234.536770 17.035238 0.000000
583.903630 234.530850 16.928638 0.000000
582.007810 234.525120 16.826141 0.000000
580.150390 234.519560 16.727552 0.000000
578.423890 211.168640 17.572189 0.000000
594.047000 234.561390 17.506809 0.000000
591.920470 234.555070 17.381674 0.000000
578.277160 217.605030 17.836960 0.000000
582.858580 214.803300 18.049271 0.000000
582.866030 212.685210 17.965143 0.000000
576.802490 235.152130 18.566414 0.000000
578.250120 234.499270 18.622917 0.000000
578.349550 211.157070 19.136383 0.000000
587.728150 234.527310 19.242519 0.000000
585.751220 234.521550 19.108238 0.000000
583.817020 234.515180 18.979317 0.000000
581.924190 234.510250 18.855688 0.000000
580.069270 234.504820 18.736950 0.000000
578.250490 217.664060 19.522484 0.000000
579.362240 216.924930 19.569027 0.000000
579.818600 215.284300 19.508148 0.000000
581.553340 213.229610 19.537624 0.000000
582.005130 211.713680 19.491226 0.000000
593.945800 234.545380 19.680731 0.000000
591.822510 234.539250 19.528471 0.000000
578.171260 234.484680 20.617176 0.000000
585.662110 234.506290 21.185276 0.000000
583.730960 234.500700 21.034134 0.000000
581.840390 234.495320 20.889265 0.000000
579.987920 234.490020 20.750370 0.000000
587.636170 234.511840 21.342957 0.000000
575.350890 236.071320 22.538277 0.000000
576.790830 235.403060 22.593410 0.000000
583.644290 234.485600 23.095055 0.000000
581.756590 234.480800 22.929031 0.000000
579.906370 234.475220 22.769897 0.000000
587.528200 234.472230 23.446163 0.000000
585.572690 234.490970 23.268488 0.000000
576.179990 213.566390 12.562366 0.000000
576.413270 211.747190 12.599062 0.000000
573.558350 211.963900 12.496132 0.000000
582.894040 211.725070 12.831402 0.000000
582.874880 216.038070 14.474060 0.000000
578.300660 214.423250 14.249006 0.000000
582.888730 211.816710 14.472989 0.000000
577.352780 234.532750 14.278498 0.000000
595.245420 234.586810 15.101347 0.000000
590.937930 234.573640 14.894094 0.000000
588.864260 234.567660 14.796255 0.000000
586.839050 234.561390 14.701980 0.000000
584.860170 234.555470 14.611116 0.000000
582.924500 234.549590 14.523483 0.000000
581.029660 234.543950 14.438936 0.000000
579.173220 234.538390 14.357322 0.000000
582.869450 216.137070 16.192312 0.000000
578.281800 214.501250 15.877312 0.000000
582.883790 211.909120 16.119871 0.000000
577.265080 234.518100 16.262333 0.000000
588.758420 234.552030 16.910557 0.000000
586.736630 234.545960 16.791744 0.000000
584.760560 234.539610 16.677502 0.000000
582.828370 234.534520 16.567684 0.000000
580.936460 234.528960 16.461994 0.000000
579.082890 234.523590 16.360277 0.000000
595.128360 234.570560 17.296921 0.000000
590.845460 234.581880 17.035660 0.000000
578.276370 214.598080 17.513279 0.000000
582.878910 212.001970 17.773651 0.000000
582.864320 216.236850 17.917873 0.000000
577.177370 234.503450 18.247852 0.000000
586.634090 234.530550 18.883060 0.000000
584.661250 234.524290 18.745478 0.000000
582.732180 234.519410 18.613491 0.000000
580.843200 234.514040 18.486691 0.000000
578.992430 234.508790 18.364891 0.000000
578.271420 214.696150 19.157860 0.000000
582.873960 212.095310 19.435892 0.000000
595.011230 234.554310 19.493885 0.000000
590.734380 234.563750 19.177635 0.000000
588.652470 234.536410 19.026371 0.000000
581.906070 217.349880 19.621019 0.000000
578.668520 217.523280 19.348728 0.000000
582.357600 215.696930 19.573551 0.000000
582.718810 213.988950 19.517643 0.000000
577.089420 234.488780 20.236874 0.000000
584.562190 234.509640 20.817005 0.000000
582.635740 234.504260 20.662777 0.000000
580.749760 234.499070 20.514874 0.000000
578.901790 234.493960 20.372997 0.000000
588.545780 234.519810 21.145523 0.000000
586.531370 234.515010 20.977829 0.000000
577.001340 234.474080 22.231438 0.000000
582.538390 234.487900 22.717491 0.000000
580.656070 234.484040 22.548626 0.000000
578.810910 234.479100 22.386665 0.000000
588.440000 234.505020 23.270512 0.000000
586.428410 234.499500 23.078213 0.000000
584.462400 234.494290 22.894070 0.000000
576.167420 212.281430 12.543041 0.000000
577.171140 211.514300 12.590800 0.000000
578.463560 211.194870 14.236433 0.000000
578.393070 217.556340 14.237105 0.000000
582.881040 214.446670 14.453811 0.000000
582.887630 212.382020 14.455828 0.000000
577.013000 234.529170 14.223910 0.000000
593.034000 234.577450 14.953323 0.000000
588.740110 234.564360 14.750010 0.000000
586.672970 234.558360 14.654060 0.000000
584.654300 234.552140 14.561626 0.000000
582.681700 234.546230 14.472561 0.000000
580.752200 234.540370 14.386683 0.000000
578.863460 234.534700 14.303850 0.000000
595.266970 234.583980 15.061085 0.000000
578.375610 211.183070 15.827666 0.000000
578.312930 217.554690 15.938040 0.000000
582.876160 214.542450 16.168585 0.000000
582.883120 212.474880 16.136480 0.000000
576.923890 234.514470 16.220213 0.000000
586.568420 234.542820 16.761379 0.000000
584.553100 234.536770 16.644484 0.000000
582.583740 234.531070 16.532143 0.000000
580.657350 234.525330 16.424109 0.000000
578.771550 234.519810 16.320196 0.000000
578.321040 211.212400 17.423725 0.000000
595.146970 234.567600 17.279217 0.000000
592.918150 234.561280 17.141674 0.000000
588.631960 234.548610 16.883015 0.000000
582.878300 212.567930 17.824045 0.000000
578.282650 217.621380 17.646801 0.000000
582.871280 214.638670 17.890463 0.000000
576.864930 234.553940 18.222363 0.000000
578.284850 211.264660 19.027283 0.000000
584.451480 234.520810 18.728779 0.000000
582.485660 234.515790 18.593239 0.000000
580.562380 234.510280 18.463085 0.000000
578.679810 234.505370 18.338160 0.000000
592.802250 234.545100 19.331348 0.000000
588.523740 234.532850 19.017431 0.000000
586.463750 234.527190 18.870148 0.000000
578.263310 217.703460 19.364305 0.000000
