# .PCD v0.7 - Point Cloud Data file format
VERSION 0.7
FIELDS x y z intensity
SIZE 4 4 4 4
TYPE F F F F
COUNT 1 1 1 1
WIDTH 1166
HEIGHT 1
VIEWPOINT 0 0 0 1 0 0 0
POINTS 1166
DATA ascii
595.000980 249.254990 19.609440 0.000000
580.634830 244.696900 19.710396 0.000000
581.554630 244.697810 19.773905 0.000000
574.192140 247.698090 19.845566 0.000000
581.305420 245.968610 19.693893 0.000000
581.678280 246.548420 19.692579 0.000000
581.785400 247.383240 19.661036 0.000000
582.712040 247.411530 19.727846 0.000000
582.629210 248.400820 19.677263 0.000000
594.819520 245.339890 19.681416 0.000000
586.220890 247.988910 19.970043 0.000000
586.577030 248.613970 19.972843 0.000000
586.047850 249.917250 19.879808 0.000000
587.668270 249.567960 20.023426 0.000000
574.677000 246.030330 20.004925 0.000000
575.080260 247.471630 19.929888 0.000000
577.980160 246.749390 20.211113 0.000000
571.460570 249.660980 20.147993 0.000000
571.780760 250.096950 20.134974 0.000000
588.986150 244.677550 20.321924 0.000000
591.434570 247.744030 20.396770 0.000000
590.570430 249.296140 20.270712 0.000000
590.837460 250.028270 20.267900 0.000000
575.616030 243.596050 20.256081 0.000000
571.551030 245.441680 20.561453 0.000000
578.021120 244.689000 20.358040 0.000000
578.862370 244.689680 20.424818 0.000000
580.634890 244.673710 20.570652 0.000000
581.536560 244.694470 20.644840 0.000000
581.712950 245.514370 20.606323 0.000000
581.250370 246.964810 20.473427 0.000000
581.688350 247.458010 20.481060 0.000000
584.566280 247.537770 20.737219 0.000000
582.875490 248.153230 20.545744 0.000000
594.814390 248.375120 20.656254 0.000000
594.976070 249.248200 20.642372 0.000000
572.757750 248.696960 21.037626 0.000000
585.009090 245.196980 20.916298 0.000000
572.640010 249.769740 20.908079 0.000000
572.665770 250.600300 20.820950 0.000000
586.466060 246.819720 20.955292 0.000000
586.031070 248.125150 20.841566 0.000000
581.461060 250.283140 21.079258 0.000000
587.275880 249.839710 20.871841 0.000000
571.182190 246.048680 21.191826 0.000000
576.623540 244.367830 21.085724 0.000000
577.189090 244.682770 21.108007 0.000000
578.006100 244.684620 21.182629 0.000000
578.788940 244.756010 21.249449 0.000000
578.957640 245.575290 21.194992 0.000000
581.262450 244.972460 21.470795 0.000000
572.485530 248.137760 21.072960 0.000000
579.704280 245.709590 21.255955 0.000000
591.467530 244.677990 21.548450 0.000000
582.968990 248.046100 21.406744 0.000000
590.824770 246.208010 21.405588 0.000000
591.404600 247.743270 21.385387 0.000000
594.813720 248.352870 21.702770 0.000000
594.951110 249.241390 21.678505 0.000000
582.471310 244.687030 21.615303 0.000000
585.788760 247.380250 21.762787 0.000000
585.898250 248.214220 21.716698 0.000000
594.816650 246.336910 21.795231 0.000000
594.815250 247.356600 21.747669 0.000000
577.992610 244.678130 22.011885 0.000000
578.833070 244.678680 22.102011 0.000000
579.156250 245.318240 22.071426 0.000000
579.841250 245.531010 22.126186 0.000000
581.486270 245.709720 22.296841 0.000000
588.163880 247.300600 22.034649 0.000000
591.242130 246.862730 22.417351 0.000000
592.107300 248.189290 22.437336 0.000000
592.659000 248.771470 22.469099 0.000000
592.758420 244.690190 22.732937 0.000000
585.912350 248.181180 22.618990 0.000000
591.916990 247.352680 22.465662 0.000000
594.925960 249.234540 22.718916 0.000000
587.717770 244.684600 23.147377 0.000000
587.597600 247.732510 22.875175 0.000000
588.893920 244.685260 23.296307 0.000000
591.787110 246.433120 23.533642 0.000000
573.950870 240.464750 13.636421 0.000000
573.948730 241.815000 13.735701 0.000000
578.959900 244.738280 13.810575 0.000000
579.796450 244.739670 13.784918 0.000000
580.657290 244.741060 13.757751 0.000000
581.543820 244.742660 13.729012 0.000000
583.401980 244.745790 13.666363 0.000000
584.338010 244.787580 13.636182 0.000000
573.192750 248.599200 13.570214 0.000000
584.461360 245.660720 13.686349 0.000000
571.507140 249.263490 13.693159 0.000000
572.327580 248.941700 13.633853 0.000000
585.166500 245.954990 13.678633 0.000000
573.311580 249.351560 13.631632 0.000000
573.461000 250.030560 13.684596 0.000000
585.071110 246.999330 13.745789 0.000000
573.575320 250.729050 13.739919 0.000000
585.110230 247.888110 13.797653 0.000000
573.789430 251.274640 13.777103 0.000000
585.811830 248.183790 13.787779 0.000000
585.932010 248.975370 13.829157 0.000000
585.697390 250.031590 13.899316 0.000000
573.946840 243.083650 13.828266 0.000000
575.064390 243.642170 13.841949 0.000000
575.810420 243.643400 13.823221 0.000000
576.573730 243.644650 13.803329 0.000000
576.644780 244.645140 13.871299 0.000000
577.353760 244.735520 13.857662 0.000000
578.146180 244.736880 13.834798 0.000000
572.280820 247.002850 14.150604 0.000000
580.355100 247.045330 13.918119 0.000000
592.282960 244.754350 14.348076 0.000000
573.195860 252.785610 13.930812 0.000000
573.380680 253.300400 13.965215 0.000000
573.621640 253.737270 13.989849 0.000000
573.148070 254.946590 14.110861 0.000000
573.364500 255.365940 14.133853 0.000000
573.576050 255.782530 14.156197 0.000000
573.244450 256.726470 14.246954 0.000000
576.298100 255.720060 14.007109 0.000000
580.551820 254.829250 14.382562 0.000000
573.612430 256.962100 14.245799 0.000000
576.455380 256.822510 14.078833 0.000000
580.550780 255.505260 14.420209 0.000000
573.513670 257.631010 14.301850 0.000000
576.233830 257.593320 14.146528 0.000000
573.840700 258.448060 14.344480 0.000000
576.099060 258.268620 14.201744 0.000000
576.323000 258.655460 14.215091 0.000000
576.299740 259.216770 14.254470 0.000000
576.575810 259.557310 14.260190 0.000000
576.456540 260.161470 14.306963 0.000000
576.489140 260.650700 14.336162 0.000000
573.950320 240.436570 14.464803 0.000000
573.948240 241.788270 14.538225 0.000000
578.945560 244.732790 14.622393 0.000000
579.781010 244.734880 14.608259 0.000000
580.642030 244.735410 14.593104 0.000000
581.528140 244.736940 14.577043 0.000000
583.385250 244.739850 14.541769 0.000000
584.360050 244.741440 14.522445 0.000000
585.368650 244.743070 14.501900 0.000000
586.413510 244.744690 14.480053 0.000000
587.497130 244.746440 14.456827 0.000000
589.793090 244.750120 14.405838 0.000000
591.011840 244.752230 14.377869 0.000000
586.282900 246.825420 14.577840 0.000000
580.549800 256.163910 14.456283 0.000000
580.548830 256.806300 14.490874 0.000000
580.547790 257.433350 14.524050 0.000000
580.546940 258.045930 14.555868 0.000000
580.546020 258.644960 14.586411 0.000000
580.545170 259.231230 14.615730 0.000000
580.535340 259.810580 14.644548 0.000000
580.543460 260.368380 14.670919 0.000000
580.542660 260.920680 14.696894 0.000000
573.946290 243.058260 14.606735 0.000000
575.051700 243.636870 14.623929 0.000000
575.797420 243.638080 14.614045 0.000000
576.560420 243.639240 14.603443 0.000000
576.644290 244.621930 14.653207 0.000000
577.340210 244.730180 14.648180 0.000000
578.132200 244.731460 14.635701 0.000000
572.395020 246.793180 14.825394 0.000000
580.369630 247.007780 14.709105 0.000000
580.551330 254.813290 15.062137 0.000000
580.550290 255.489690 15.090846 0.000000
580.549380 256.148710 15.118414 0.000000
580.548340 256.791440 15.144905 0.000000
580.547360 257.418850 15.170371 0.000000
580.546510 258.031740 15.194857 0.000000
580.545590 258.631070 15.218418 0.000000
580.544740 259.217620 15.241095 0.000000
580.543090 260.355320 15.283960 0.000000
580.542240 260.907870 15.304226 0.000000
573.949770 240.408450 15.292347 0.000000
573.947690 241.761580 15.339917 0.000000
578.931210 244.727290 15.432248 0.000000
579.766910 244.728550 15.429504 0.000000
580.626890 244.729750 15.426424 0.000000
581.512450 244.731230 15.423002 0.000000
583.368530 244.733950 15.415022 0.000000
584.342830 244.735430 15.410429 0.000000
585.350770 244.736940 15.405402 0.000000
586.395020 244.738460 15.399912 0.000000
587.478030 244.740080 15.393936 0.000000
589.772460 244.743550 15.380384 0.000000
590.990910 244.745060 15.372725 0.000000
592.260680 244.747450 15.364458 0.000000
586.240170 246.841060 15.465606 0.000000
573.945800 243.032940 15.384377 0.000000
575.039060 243.631610 15.404046 0.000000
575.784420 243.632720 15.402980 0.000000
576.547060 243.633820 15.401646 0.000000
576.643740 244.598740 15.434198 0.000000
577.326840 244.724530 15.436785 0.000000
578.118290 244.726060 15.434674 0.000000
572.453920 246.673740 15.512234 0.000000
580.309880 247.051500 15.502989 0.000000
580.550840 254.797330 15.740780 0.000000
580.549870 255.474120 15.760559 0.000000
580.548890 256.133510 15.779628 0.000000
580.547910 256.776610 15.798028 0.000000
580.546940 257.404360 15.815791 0.000000
580.546080 258.017520 15.832948 0.000000
580.545170 258.617190 15.849535 0.000000
580.544310 259.204010 15.865576 0.000000
580.542660 260.342250 15.896132 0.000000
580.541810 260.895080 15.910694 0.000000
578.916930 244.721830 16.240904 0.000000
581.496890 244.725490 16.267689 0.000000
571.968630 247.447270 16.212629 0.000000
585.333010 244.730850 16.307512 0.000000
583.203430 247.758820 16.334005 0.000000
584.332950 249.389100 16.371847 0.000000
580.550420 254.781400 16.419130 0.000000
580.549440 255.458570 16.429977 0.000000
580.544740 258.603300 16.480354 0.000000
573.934570 238.967330 16.097019 0.000000
575.025760 243.627380 16.183046 0.000000
571.335750 245.222470 16.170399 0.000000
572.327640 245.769590 16.189447 0.000000
571.343260 246.364260 16.188786 0.000000
577.315370 244.716400 16.224228 0.000000
578.104370 244.720660 16.232468 0.000000
579.760190 244.713240 16.249502 0.000000
580.611690 244.724140 16.258497 0.000000
573.385190 247.252290 16.224178 0.000000
584.325560 244.729430 16.297054 0.000000
573.702270 247.770510 16.235771 0.000000
581.080200 246.184970 16.286776 0.000000
582.147770 246.003340 16.294922 0.000000
573.827450 248.544080 16.249472 0.000000
590.969540 244.738310 16.366020 0.000000
584.068850 247.856080 16.344530 0.000000
590.363770 246.239580 16.383818 0.000000
584.156130 248.671970 16.358517 0.000000
580.548460 256.118320 16.440548 0.000000
580.547420 256.761780 16.450855 0.000000
580.546450 257.389830 16.460915 0.000000
580.545650 258.003360 16.470745 0.000000
580.543880 259.190430 16.489761 0.000000
580.542240 260.329220 16.508003 0.000000
580.541380 260.882260 16.516863 0.000000
573.091370 243.229980 16.921288 0.000000
572.018130 246.274570 16.889709 0.000000
571.000120 249.015810 16.860373 0.000000
579.655940 246.795100 17.065985 0.000000
572.057010 249.249660 16.883101 0.000000
578.300290 247.423000 17.032297 0.000000
571.117370 249.776230 16.861036 0.000000
574.516780 249.400680 16.939386 0.000000
571.154600 251.478970 16.858130 0.000000
579.963440 249.170930 17.073811 0.000000
571.786130 251.402820 16.872688 0.000000
572.137880 251.732280 16.880283 0.000000
580.080080 249.899630 17.077225 0.000000
580.549930 254.765440 17.097847 0.000000
580.548950 255.443010 17.099754 0.000000
580.548030 256.103120 17.101814 0.000000
580.547000 256.746920 17.104023 0.000000
580.546020 257.375340 17.106373 0.000000
580.545230 257.989170 17.108866 0.000000
580.544310 258.589420 17.111494 0.000000
580.543460 259.176850 17.114258 0.000000
580.541810 260.316160 17.120176 0.000000
580.540950 260.869480 17.123327 0.000000
589.741270 261.018340 17.403263 0.000000
578.902590 244.716350 17.049149 0.000000
579.737490 244.717440 17.069225 0.000000
582.393550 244.720890 17.134663 0.000000
583.335210 244.722150 17.158392 0.000000
585.690670 245.363220 17.219412 0.000000
588.563110 244.728910 17.294489 0.000000
585.639340 246.387100 17.219200 0.000000
587.294430 247.761750 17.265848 0.000000
588.694400 247.552170 17.303572 0.000000
585.310490 248.528810 17.213707 0.000000
572.190310 243.586490 17.650135 0.000000
578.078430 244.707400 17.827726 0.000000
579.562740 246.879300 17.845671 0.000000
571.158690 249.690800 17.484461 0.000000
571.507930 250.064680 17.488632 0.000000
580.484920 247.722370 17.868662 0.000000
571.892090 250.379940 17.495579 0.000000
572.300420 250.658480 17.504478 0.000000
572.657170 251.007710 17.510538 0.000000
580.173460 248.935750 17.837267 0.000000
582.289060 248.589680 17.929976 0.000000
580.547550 256.087890 17.764055 0.000000
580.546570 256.732060 17.758146 0.000000
580.545590 257.360810 17.752769 0.000000
580.544740 257.974980 17.747913 0.000000
581.233760 259.924100 17.768793 0.000000
582.853030 259.642790 17.849205 0.000000
573.944270 241.684720 17.747471 0.000000
578.877870 244.724080 17.857115 0.000000
579.570310 244.898120 17.880123 0.000000
580.594240 244.697690 17.922882 0.000000
582.377440 244.715090 17.992504 0.000000
587.794620 245.389330 18.207212 0.000000
570.988460 249.939990 18.090214 0.000000
585.401550 246.583860 18.089104 0.000000
581.994140 247.986570 17.926352 0.000000
586.106810 247.822920 18.103333 0.000000
590.404600 247.134190 18.301388 0.000000
591.909360 246.961040 18.371140 0.000000
585.975950 248.834180 18.085354 0.000000
585.807500 249.842190 18.066280 0.000000
580.544310 257.960720 18.388508 0.000000
592.902830 258.312810 18.354383 0.000000
572.699710 245.060790 18.361113 0.000000
571.533450 245.954130 18.274551 0.000000
575.164860 245.561190 18.453434 0.000000
578.062620 244.704470 18.626476 0.000000
575.393920 246.268690 18.437681 0.000000
573.242800 247.402970 18.292673 0.000000
575.044860 247.737270 18.366215 0.000000
579.596680 246.818860 18.632839 0.000000
577.210270 247.759350 18.474953 0.000000
578.070190 247.651780 18.523659 0.000000
580.557430 247.624210 18.659117 0.000000
580.788940 249.158780 18.624800 0.000000
571.746700 246.668980 18.942659 0.000000
578.863220 244.719020 18.666443 0.000000
570.858580 247.133910 18.867001 0.000000
582.361270 244.709290 18.851519 0.000000
571.571960 248.011120 18.853775 0.000000
573.019470 247.721310 18.953274 0.000000
584.290590 244.694320 18.958786 0.000000
572.065430 248.214310 18.869822 0.000000
586.325380 244.709720 19.074287 0.000000
573.374510 248.165480 18.949106 0.000000
573.443300 249.004240 18.906509 0.000000
586.427920 248.437680 18.977673 0.000000
586.362670 249.376740 18.949879 0.000000
589.360720 248.838650 19.149477 0.000000
586.380250 250.223630 18.930258 0.000000
590.019530 250.152890 19.162258 0.000000
574.971620 247.815750 19.065815 0.000000
577.663820 247.183350 19.271772 0.000000
587.401610 244.714750 19.136759 0.000000
575.447020 248.118410 19.079346 0.000000
587.923220 245.251130 19.152515 0.000000
572.133850 249.966610 19.407656 0.000000
588.338750 245.880310 19.160280 0.000000
581.290650 249.503660 19.413624 0.000000
582.997680 249.622010 19.536047 0.000000
592.469420 247.499800 19.376535 0.000000
581.330200 250.301030 19.381643 0.000000
594.826600 247.814900 19.521399 0.000000
595.575620 249.270520 19.542366 0.000000
578.808410 244.764790 19.472389 0.000000
580.550960 244.701600 19.590347 0.000000
581.420290 244.718490 19.648241 0.000000
582.341670 244.707240 19.712109 0.000000
574.670900 247.246480 19.793344 0.000000
584.272400 244.689240 19.848915 0.000000
571.402770 248.268020 19.485662 0.000000
575.792360 247.643130 19.849117 0.000000
581.556340 246.541500 19.569036 0.000000
586.097410 249.568730 19.777666 0.000000
575.706480 243.600690 20.139076 0.000000
577.248350 244.688640 20.171207 0.000000
585.261720 244.706410 19.919407 0.000000
577.953250 246.807300 20.076649 0.000000
571.046810 248.833280 20.062519 0.000000
578.586430 246.999210 20.114576 0.000000
589.693240 244.690110 20.251333 0.000000
571.268250 249.435580 20.022541 0.000000
571.553410 249.915770 20.000473 0.000000
587.975220 247.129760 20.020140 0.000000
592.013980 246.836210 20.351120 0.000000
588.483760 248.575130 20.004347 0.000000
589.404790 249.682220 20.038475 0.000000
591.599430 249.036070 20.240421 0.000000
592.003780 249.676960 20.252693 0.000000
578.845210 244.694400 20.293400 0.000000
574.688540 246.190920 20.609917 0.000000
581.346370 244.779100 20.489054 0.000000
575.066890 246.663470 20.598841 0.000000
581.325010 245.803180 20.420176 0.000000
581.830570 246.227540 20.435801 0.000000
571.463440 250.033080 20.612537 0.000000
581.627320 247.381760 20.345648 0.000000
583.251280 248.504850 20.422426 0.000000
586.152530 247.718060 20.734558 0.000000
583.777830 248.905180 20.447630 0.000000
587.078860 249.641710 20.720650 0.000000
594.819090 248.766720 20.517084 0.000000
595.564940 249.254200 20.565186 0.000000
572.430180 244.278780 20.612820 0.000000
572.794680 244.823520 20.587048 0.000000
577.231630 244.687410 20.967102 0.000000
577.935300 244.800380 21.019833 0.000000
585.250120 244.693940 20.828480 0.000000
586.287780 244.697710 20.920527 0.000000
571.515930 249.021550 20.731915 0.000000
572.843870 248.881870 20.873644 0.000000
572.562380 250.191190 20.701740 0.000000
587.778320 247.270980 20.911888 0.000000
591.024720 247.551790 21.210712 0.000000
581.318120 250.273150 20.909378 0.000000
591.497990 249.993190 21.143169 0.000000
571.394350 246.105590 21.059332 0.000000
578.567320 245.023380 21.057816 0.000000
579.663510 244.689580 21.188498 0.000000
572.320500 246.709200 21.070463 0.000000
580.520320 244.690220 21.269566 0.000000
580.882570 245.284810 21.254845 0.000000
574.883240 247.872020 21.186722 0.000000
581.670470 247.315690 21.170105 0.000000
583.543820 247.303670 21.365864 0.000000
590.379760 246.109130 21.221489 0.000000
583.905640 248.770070 21.297367 0.000000
594.821290 246.777370 21.625019 0.000000
591.667360 248.031040 21.250933 0.000000
573.939210 242.832310 21.664448 0.000000
584.867250 245.049940 21.675026 0.000000
581.276370 247.699170 21.908718 0.000000
587.622680 246.427550 21.869652 0.000000
587.879210 247.164350 21.847395 0.000000
588.282780 247.770740 21.852102 0.000000
587.765620 249.088200 21.707195 0.000000
588.030520 249.767910 21.694592 0.000000
578.006470 244.682650 21.848513 0.000000
578.816220 244.683300 21.933250 0.000000
579.097600 245.359510 21.893160 0.000000
581.388670 244.683090 22.213545 0.000000
584.603640 249.011400 22.199871 0.000000
591.885930 247.850540 22.262598 0.000000
592.203120 248.572110 22.256905 0.000000
585.210750 244.684780 22.656841 0.000000
587.467470 249.297960 22.548189 0.000000
594.819030 247.748960 22.616709 0.000000
594.817750 248.721250 22.562140 0.000000
595.512390 249.240520 22.618729 0.000000
586.246890 244.688480 22.781624 0.000000
587.029600 244.962390 22.853167 0.000000
588.417180 244.713490 23.047550 0.000000
590.831600 244.680540 23.357267 0.000000
592.081730 244.692230 23.518482 0.000000
592.241030 246.595090 23.391144 0.000000
595.467040 249.245380 23.649206 0.000000
573.941960 237.434420 13.291594 0.000000
572.253780 237.827150 13.348902 0.000000
571.322200 238.310490 13.400925 0.000000
572.881100 238.092470 13.361233 0.000000
573.950500 239.004790 13.417210 0.000000
573.948360 240.488310 13.535301 0.000000
579.662660 244.739550 13.723869 0.000000
580.489620 244.740940 13.699751 0.000000
581.340330 244.742360 13.674181 0.000000
583.119320 244.745440 13.618383 0.000000
583.995970 244.805980 13.593854 0.000000
583.768550 246.032200 13.685383 0.000000
584.380980 246.371350 13.687235 0.000000
584.975710 246.736880 13.690701 0.000000
585.012080 247.629010 13.748255 0.000000
571.724000 250.169330 13.726030 0.000000
572.460270 249.929170 13.677123 0.000000
572.678590 250.489880 13.721728 0.000000
584.882260 248.642810 13.819070 0.000000
585.606020 248.882450 13.807286 0.000000
572.821290 251.137150 13.776504 0.000000
585.570070 249.774230 13.865223 0.000000
573.946110 241.874100 13.644896 0.000000
573.944030 243.171710 13.746817 0.000000
575.084660 243.642260 13.759115 0.000000
575.807500 243.643430 13.742775 0.000000
576.546330 243.644620 13.725353 0.000000
576.642030 244.619540 13.796650 0.000000
577.310000 244.735470 13.788229 0.000000
578.074220 244.736760 13.768036 0.000000
578.857970 244.738170 13.746610 0.000000
572.410220 247.029560 14.079407 0.000000
580.256160 246.988100 13.866659 0.000000
571.041500 250.360640 13.767676 0.000000
572.967650 251.753020 13.827499 0.000000
573.030460 252.455230 13.889020 0.000000
573.096980 253.123320 13.946583 0.000000
573.202940 253.716030 13.995001 0.000000
573.298030 254.300450 14.042469 0.000000
573.382810 254.876160 14.088956 0.000000
573.510310 255.384980 14.126998 0.000000
576.258480 255.133910 13.970403 0.000000
573.682370 255.831470 14.156931 0.000000
573.325130 256.812380 14.257073 0.000000
576.423890 256.240300 14.050828 0.000000
573.624210 257.093840 14.265611 0.000000
576.703980 256.601410 14.064161 0.000000
573.881590 257.975010 14.324317 0.000000
576.396000 257.452000 14.147181 0.000000
576.744930 257.738680 14.149569 0.000000
576.439330 258.537750 14.227152 0.000000
576.812380 258.796600 14.224738 0.000000
576.596680 259.486720 14.287722 0.000000
576.859800 259.819000 14.295814 0.000000
576.807190 260.364010 14.337362 0.000000
576.691890 260.935030 14.383914 0.000000
573.952640 237.371550 14.165390 0.000000
573.950070 238.968080 14.261677 0.000000
573.947940 240.453640 14.350773 0.000000
579.644230 244.734310 14.530024 0.000000
580.470760 244.735500 14.517167 0.000000
581.320860 244.736830 14.503447 0.000000
583.098450 244.739730 14.473206 0.000000
584.029540 244.741270 14.456575 0.000000
584.991460 244.742830 14.438855 0.000000
585.986450 244.744370 14.419977 0.000000
587.016540 244.746220 14.399890 0.000000
588.076480 244.755620 14.379044 0.000000
589.193660 244.749690 14.355686 0.000000
590.346370 244.751600 14.331403 0.000000
591.546330 244.753570 14.305523 0.000000
580.545650 254.659010 14.366910 0.000000
580.547970 255.327270 14.408016 0.000000
580.547000 255.980190 14.447718 0.000000
580.545960 256.616210 14.485813 0.000000
580.545040 257.236240 14.522373 0.000000
580.544130 257.841310 14.557484 0.000000
580.543210 258.432310 14.591218 0.000000
580.542360 259.010070 14.623641 0.000000
580.541500 259.575380 14.654813 0.000000
580.540650 260.129000 14.684799 0.000000
580.539790 260.671540 14.713652 0.000000
573.945680 241.841290 14.433516 0.000000
573.943600 243.140530 14.510524 0.000000
575.069150 243.637150 14.528095 0.000000
575.791560 243.638240 14.520020 0.000000
576.529910 243.639370 14.511288 0.000000
576.641660 244.590960 14.564398 0.000000
577.293270 244.730330 14.563730 0.000000
578.056950 244.731550 14.553253 0.000000
578.840210 244.732880 14.542030 0.000000
572.496640 246.852920 14.743531 0.000000
580.270020 246.945710 14.640536 0.000000
580.545410 254.639180 15.029730 0.000000
580.547610 255.308010 15.061806 0.000000
580.546630 255.961380 15.092816 0.000000
580.545590 256.597810 15.122638 0.000000
580.544680 257.218260 15.151324 0.000000
580.543760 257.823700 15.178942 0.000000
580.542850 258.415100 15.205543 0.000000
580.541990 258.993230 15.231175 0.000000
580.541200 259.558840 15.255890 0.000000
573.952210 237.332600 15.040616 0.000000
573.949580 238.931370 15.105465 0.000000
573.947450 240.418990 15.165558 0.000000
579.626100 244.728840 15.333990 0.000000
580.451900 244.730070 15.332376 0.000000
581.301390 244.731320 15.330462 0.000000
583.077640 244.734070 15.325688 0.000000
584.008000 244.735500 15.322792 0.000000
584.969180 244.736970 15.319532 0.000000
585.963320 244.738400 15.315885 0.000000
586.992550 244.740140 15.311840 0.000000
588.053100 244.747990 15.307608 0.000000
589.167790 244.743390 15.302411 0.000000
590.319400 244.745180 15.296983 0.000000
591.518250 244.747010 15.291030 0.000000
580.540280 260.112790 15.279732 0.000000
580.539490 260.655670 15.302739 0.000000
573.945250 241.808500 15.221446 0.000000
573.943240 243.109410 15.273538 0.000000
574.346740 243.630940 15.294659 0.000000
575.053710 243.632050 15.295053 0.000000
575.775700 243.633090 15.295218 0.000000
576.513610 243.634200 15.295148 0.000000
576.641240 244.562390 15.331345 0.000000
577.276610 244.725190 15.337168 0.000000
578.039790 244.726360 15.336373 0.000000
578.822510 244.727600 15.335319 0.000000
580.259160 246.931690 15.415584 0.000000
580.545290 254.619250 15.691704 0.000000
580.547240 255.288760 15.714749 0.000000
580.546260 255.942580 15.737076 0.000000
580.545290 256.579470 15.758630 0.000000
580.544310 257.200290 15.779449 0.000000
580.543460 257.806150 15.799577 0.000000
580.542540 258.397890 15.819049 0.000000
580.541690 258.976380 15.837900 0.000000
580.540830 259.542360 15.856160 0.000000
580.539980 260.096620 15.873862 0.000000
580.539120 260.639800 15.891031 0.000000
573.951720 237.293590 15.915991 0.000000
573.949160 238.894670 15.949364 0.000000
574.330630 243.627750 16.052532 0.000000
571.398990 245.373690 16.054977 0.000000
577.259950 244.720030 16.109272 0.000000
578.022640 244.721160 16.118135 0.000000
578.804810 244.722320 16.127226 0.000000
579.607850 244.723480 16.136557 0.000000
580.433110 244.724640 16.146147 0.000000
581.281980 244.725810 16.156010 0.000000
571.481810 246.397610 16.077299 0.000000
572.108150 246.380980 16.084211 0.000000
582.156010 244.727050 16.166166 0.000000
573.034240 246.955290 16.106928 0.000000
586.969360 244.733280 16.222086 0.000000
573.445680 247.323850 16.119385 0.000000
574.845210 247.190720 16.132830 0.000000
581.890260 246.021820 16.190098 0.000000
591.490170 244.740460 16.274635 0.000000
573.692440 247.939500 16.135090 0.000000
581.960140 246.899000 16.209208 0.000000
588.353390 246.421480 16.273348 0.000000
583.025760 247.641890 16.237059 0.000000
581.200620 248.603730 16.235971 0.000000
584.164120 248.338900 16.264795 0.000000
584.170650 249.205490 16.282951 0.000000
580.544800 254.599670 16.353464 0.000000
580.546880 255.269550 16.367462 0.000000
580.545900 255.923800 16.381102 0.000000
580.544920 256.561100 16.394384 0.000000
580.544010 257.182340 16.407335 0.000000
580.543090 257.788570 16.419973 0.000000
580.542240 258.380710 16.432316 0.000000
580.541320 258.959530 16.444384 0.000000
580.540530 259.525850 16.456188 0.000000
580.539670 260.080440 16.467749 0.000000
580.538820 260.623930 16.479078 0.000000
573.956600 241.719960 16.798441 0.000000
571.127810 244.634250 16.741735 0.000000
578.005490 244.715960 16.899303 0.000000
572.049440 246.458300 16.764467 0.000000
577.691650 246.169560 16.896427 0.000000
572.363280 248.043490 16.774654 0.000000
573.847050 247.675750 16.808163 0.000000
572.746580 248.414830 16.784313 0.000000
574.170780 248.163120 16.817123 0.000000
578.068600 247.613460 16.911171 0.000000
581.047360 246.929760 16.985043 0.000000
570.989380 249.377590 16.746254 0.000000
574.394040 248.780320 16.824253 0.000000
579.794680 249.192750 16.962862 0.000000
579.959230 249.863280 16.970623 0.000000
580.546510 255.250270 17.020580 0.000000
580.545530 255.904980 17.025520 0.000000
580.544560 256.542720 17.030525 0.000000
580.543640 257.164370 17.035597 0.000000
580.542790 257.771000 17.040737 0.000000
580.541870 258.363530 17.045942 0.000000
580.541020 258.942690 17.051216 0.000000
580.540220 259.509340 17.056561 0.000000
580.539370 260.064270 17.061972 0.000000
580.538510 260.608060 17.067453 0.000000
573.943790 237.270550 16.792234 0.000000
579.538090 244.784100 16.937452 0.000000
581.252870 244.731860 16.980696 0.000000
582.135990 244.721480 17.003414 0.000000
586.944640 244.728030 17.131542 0.000000
590.288820 244.712100 17.224070 0.000000
586.541870 246.097520 17.128508 0.000000
591.861510 245.421720 17.273468 0.000000
582.939580 247.701930 17.039320 0.000000
586.155820 247.394300 17.125767 0.000000
571.853820 250.718840 17.366842 0.000000
587.169430 248.333480 17.160378 0.000000
572.074280 251.245930 17.366531 0.000000
580.539000 260.048030 17.657089 0.000000
573.955930 241.687530 17.589340 0.000000
572.308720 243.528080 17.504160 0.000000
577.988340 244.710750 17.680616 0.000000
578.769530 244.711780 17.709959 0.000000
579.072810 245.351150 17.712748 0.000000
579.408690 246.901460 17.705645 0.000000
580.448360 247.568680 17.739449 0.000000
571.037840 249.268660 17.362463 0.000000
571.289060 249.805040 17.361971 0.000000
581.707280 248.028870 17.786476 0.000000
571.712040 250.044800 17.372612 0.000000
580.223020 248.708920 17.717293 0.000000
581.634030 248.981780 17.773607 0.000000
572.762020 251.086400 17.393936 0.000000
580.545230 255.886170 17.670940 0.000000
580.544250 256.524320 17.667650 0.000000
580.543330 257.146390 17.664827 0.000000
580.535640 257.758000 17.662109 0.000000
580.541500 258.346280 17.660501 0.000000
581.153200 260.251070 17.687439 0.000000
586.037230 259.479130 17.932842 0.000000
590.387880 258.777310 18.153870 0.000000
580.395510 244.713820 17.772528 0.000000
582.115910 244.715910 17.840769 0.000000
589.078610 244.734940 18.134905 0.000000
590.262080 244.705570 18.187588 0.000000
586.585330 246.028990 18.014542 0.000000
572.842160 249.172260 18.064808 0.000000
583.977840 247.564650 17.887592 0.000000
591.439580 246.716780 18.227077 0.000000
585.742370 249.504970 17.949175 0.000000
585.851930 250.260380 17.948933 0.000000
580.537230 257.739040 18.285347 0.000000
580.552980 258.321350 18.277494 0.000000
593.138670 258.302920 18.294331 0.000000
571.770690 245.767350 18.137964 0.000000
574.877930 244.949160 18.305304 0.000000
577.971250 244.705520 18.462826 0.000000
579.366520 244.946700 18.526493 0.000000
573.170410 246.646360 18.167629 0.000000
577.804260 245.965360 18.414335 0.000000
574.542180 247.560700 18.200443 0.000000
575.047670 247.796110 18.217287 0.000000
580.494200 247.491810 18.512466 0.000000
580.647220 248.228670 18.500814 0.000000
580.705140 249.042280 18.482426 0.000000
573.950320 237.176240 18.551487 0.000000
580.376710 244.708400 18.586685 0.000000
570.772400 246.484620 18.737850 0.000000
571.501650 246.244780 18.789368 0.000000
581.223690 244.709350 18.631809 0.000000
582.095280 244.710950 18.678989 0.000000
571.946660 246.558690 18.795551 0.000000
587.960390 244.717000 19.014374 0.000000
574.592160 247.460190 18.898880 0.000000
586.025570 245.558290 18.879528 0.000000
574.977780 247.870210 18.901491 0.000000
571.771360 248.951660 18.654634 0.000000
573.272580 248.483220 18.766626 0.000000
575.440980 248.166440 18.915504 0.000000
583.219540 247.369450 18.670393 0.000000
586.177060 247.321400 18.846579 0.000000
571.816350 249.829360 18.610117 0.000000
586.756530 247.727170 18.872616 0.000000
586.311710 249.001430 18.817665 0.000000
589.987180 249.634490 19.038006 0.000000
578.734130 244.701230 19.296288 0.000000
578.252870 247.307970 19.139601 0.000000
580.415160 247.553680 19.276405 0.000000
571.536870 249.317580 19.245876 0.000000
572.388610 249.823040 19.268848 0.000000
582.738280 249.568540 19.362301 0.000000
580.925780 250.465970 19.190937 0.000000
570.948550 246.108490 19.447992 0.000000
571.609070 246.013000 19.496326 0.000000
579.534850 244.702220 19.348186 0.000000
581.204220 244.703830 19.459425 0.000000
581.861570 244.951570 19.493114 0.000000
583.900510 244.706710 19.646976 0.000000
584.857850 244.707690 19.715710 0.000000
585.866330 244.690140 19.790001 0.000000
575.169800 247.569170 19.628845 0.000000
571.547850 248.306580 19.320793 0.000000
575.848630 247.578060 19.679287 0.000000
587.912960 246.692640 19.867157 0.000000
585.995670 247.458070 19.690872 0.000000
586.051210 249.194780 19.631819 0.000000
589.118840 250.240750 19.844612 0.000000
575.680480 243.602170 19.944822 0.000000
576.638790 244.390150 19.957256 0.000000
577.617190 246.159100 19.910185 0.000000
572.181340 248.215450 20.025209 0.000000
591.896420 245.304110 20.229532 0.000000
582.730900 247.806640 20.235886 0.000000
591.637270 246.504500 20.168503 0.000000
583.102420 249.203220 20.192463 0.000000
594.818120 248.062330 20.383202 0.000000
591.033570 249.744810 20.018097 0.000000
594.816650 249.015110 20.356995 0.000000
573.947390 238.708740 20.199198 0.000000
572.820070 244.919270 20.381149 0.000000
574.620850 245.273910 20.489597 0.000000
571.530520 246.131710 20.170443 0.000000
579.516600 244.696730 20.155264 0.000000
580.318660 244.722600 20.217581 0.000000
581.146790 244.743640 20.283543 0.000000
582.957210 244.695300 20.437639 0.000000
574.744750 246.155730 20.420433 0.000000
581.145450 245.749340 20.220758 0.000000
582.222470 246.483020 20.267853 0.000000
594.832580 245.053800 20.474380 0.000000
571.348940 249.581310 20.456823 0.000000
586.377320 247.086260 20.607258 0.000000
571.598390 250.106260 20.421953 0.000000
586.079960 248.263500 20.518635 0.000000
586.785340 249.427640 20.528433 0.000000
576.638180 244.361300 20.739220 0.000000
577.160100 244.688720 20.755548 0.000000
577.919620 244.689620 20.822338 0.000000
571.382140 246.382580 20.820814 0.000000
572.476930 246.635700 20.886448 0.000000
584.835450 244.701800 20.599369 0.000000
577.335880 246.506320 20.615774 0.000000
586.243840 245.289730 20.691591 0.000000
581.888430 247.737320 20.960924 0.000000
572.711670 249.274060 20.617374 0.000000
582.672490 247.839020 21.034962 0.000000
588.938110 246.738280 20.866436 0.000000
573.039980 249.693180 20.604105 0.000000
591.181090 247.784520 21.035383 0.000000
581.154300 250.197050 20.706644 0.000000
591.496340 250.282650 20.960526 0.000000
571.250120 245.453600 20.917103 0.000000
579.498470 244.691020 20.965630 0.000000
580.319950 244.692060 21.042393 0.000000
581.165100 244.692760 21.122910 0.000000
582.035280 244.693500 21.207344 0.000000
582.811040 245.821810 21.197971 0.000000
581.461730 246.334080 21.023335 0.000000
592.559330 245.752470 21.264111 0.000000
583.617680 248.695450 21.075090 0.000000
585.911130 248.384460 21.347023 0.000000
587.712280 249.527110 21.479229 0.000000
594.798890 248.998440 21.351353 0.000000
573.924070 242.886690 21.435917 0.000000
579.565490 245.599380 21.698296 0.000000
580.192200 245.829010 21.744473 0.000000
587.524720 246.021090 21.681499 0.000000
581.197570 247.532930 21.698040 0.000000
581.158810 248.470460 21.608530 0.000000
588.173890 248.272250 21.608707 0.000000
579.477720 244.688540 21.779411 0.000000
582.016050 244.686510 22.057579 0.000000
582.910950 244.688570 22.159019 0.000000
583.554570 246.925890 22.031858 0.000000
589.660460 246.101030 21.913330 0.000000
583.964480 248.344530 21.960112 0.000000
585.777770 248.474500 22.177938 0.000000
591.577820 247.455980 22.050556 0.000000
591.699830 248.304960 22.016188 0.000000
594.815550 248.959120 22.355549 0.000000
586.800230 244.691450 22.619919 0.000000
586.145940 247.240550 22.324594 0.000000
587.328980 248.039200 22.411886 0.000000
594.818420 247.028270 22.457626 0.000000
594.817020 248.005100 22.405071 0.000000
592.008540 247.100880 23.100399 0.000000
594.819520 245.996840 23.558838 0.000000
570.852600 236.433900 13.361912 0.000000
573.193600 236.117400 13.315429 0.000000
573.957520 237.876630 13.447477 0.000000
573.954960 239.505740 13.576830 0.000000
581.407350 244.738920 13.817158 0.000000
583.112610 244.742070 13.769428 0.000000
584.004030 244.743650 13.743315 0.000000
584.923650 244.745270 13.715589 0.000000
585.875850 244.744350 13.685903 0.000000
573.218200 246.309890 13.435650 0.000000
573.812870 246.366240 13.423834 0.000000
570.956360 247.237760 13.585535 0.000000
574.246770 246.708600 13.443293 0.000000
574.987980 246.551450 13.405025 0.000000
586.137510 245.470730 13.725872 0.000000
571.489750 247.316250 13.579949 0.000000
572.027710 247.398860 13.573866 0.000000
575.334590 247.039120 13.439283 0.000000
586.672550 245.915470 13.737579 0.000000
575.591920 247.645950 13.486801 0.000000
575.836790 248.248610 13.533535 0.000000
586.606380 246.927600 13.805486 0.000000
587.399350 247.126660 13.791018 0.000000
576.104860 248.797930 13.573724 0.000000
588.006290 247.509430 13.793913 0.000000
576.374270 249.328640 13.611357 0.000000
576.669190 249.811540 13.642910 0.000000
576.964170 250.283230 13.672663 0.000000
577.184940 250.833830 13.711588 0.000000
577.404050 251.371350 13.748657 0.000000
577.658450 251.855590 13.778835 0.000000
577.905330 252.338130 13.808426 0.000000
578.165100 252.797870 13.834743 0.000000
578.426030 253.248960 13.859524 0.000000
578.666200 253.713560 13.885633 0.000000
578.381410 254.662800 13.975731 0.000000
578.648130 255.072650 13.994642 0.000000
573.952270 241.016340 13.696052 0.000000
573.950010 242.420850 13.806199 0.000000
574.672180 243.637590 13.888574 0.000000
575.359380 243.638840 13.876143 0.000000
576.060490 243.639980 13.862757 0.000000
576.647890 243.848020 13.866625 0.000000
576.805420 244.730900 13.929535 0.000000
577.526180 244.732180 13.913674 0.000000
578.263920 244.733460 13.896734 0.000000
579.019780 244.734760 13.878666 0.000000
579.794740 244.736100 13.859422 0.000000
580.590090 244.737520 13.838943 0.000000
580.335390 247.033080 14.008204 0.000000
578.676210 255.687440 14.041056 0.000000
578.623900 256.352390 14.094797 0.000000
578.675660 256.911620 14.134266 0.000000
578.679690 257.494380 14.177368 0.000000
578.712830 258.039430 14.215396 0.000000
578.713320 258.595280 14.255346 0.000000
578.708980 259.140530 14.294136 0.000000
578.701110 259.674770 14.331689 0.000000
578.691530 260.197300 14.367873 0.000000
578.679440 260.709320 14.402846 0.000000
573.957150 237.833980 14.300497 0.000000
573.954590 239.465850 14.397426 0.000000
581.387760 244.733520 14.628173 0.000000
583.091860 244.736500 14.604280 0.000000
583.982670 244.737980 14.591014 0.000000
584.901550 244.739490 14.576806 0.000000
585.850770 244.740840 14.561585 0.000000
586.831540 244.742830 14.545347 0.000000
587.847110 244.744610 14.527971 0.000000
588.899660 244.746400 14.509397 0.000000
589.992000 244.748200 14.489548 0.000000
572.230650 246.984560 14.189505 0.000000
591.126770 244.750340 14.468357 0.000000
580.552730 254.705920 14.509870 0.000000
580.551640 255.365420 14.550458 0.000000
580.550540 256.006350 14.589331 0.000000
580.549560 256.629880 14.626592 0.000000
580.548460 257.237090 14.662323 0.000000
580.547550 257.828890 14.696601 0.000000
580.546630 258.406190 14.729497 0.000000
580.545720 258.969970 14.761092 0.000000
580.544860 259.520940 14.791439 0.000000
571.202760 260.969300 14.435937 0.000000
580.544010 260.059880 14.820601 0.000000
580.543150 260.587520 14.848639 0.000000
573.951970 240.978940 14.486816 0.000000
573.949710 242.385650 14.569460 0.000000
574.656490 243.632580 14.637449 0.000000
575.343380 243.633760 14.632351 0.000000
576.044130 243.634890 14.626678 0.000000
576.647580 243.816530 14.631680 0.000000
576.788820 244.725850 14.681716 0.000000
577.509160 244.727110 14.674489 0.000000
578.246460 244.728300 14.666620 0.000000
579.001770 244.729520 14.658085 0.000000
579.776370 244.730700 14.648848 0.000000
580.571110 244.732180 14.638899 0.000000
572.335080 246.756440 14.834669 0.000000
580.344300 246.995070 14.763309 0.000000
580.552430 254.686170 15.149606 0.000000
580.551330 255.346220 15.180964 0.000000
580.550290 255.987660 15.211060 0.000000
580.549260 256.611660 15.239964 0.000000
580.548220 257.219330 15.267742 0.000000
573.956790 237.791370 15.153131 0.000000
573.954220 239.425990 15.217605 0.000000
581.368230 244.728120 15.437060 0.000000
583.071170 244.730930 15.436924 0.000000
583.961240 244.732320 15.436464 0.000000
584.879460 244.733750 15.435728 0.000000
585.827700 244.735280 15.434704 0.000000
586.807980 244.736910 15.433378 0.000000
587.822690 244.738560 15.431728 0.000000
589.965820 244.741940 15.427383 0.000000
591.099550 244.743930 15.424657 0.000000
586.618900 246.860430 15.507571 0.000000
580.547240 257.811520 15.294452 0.000000
580.545410 258.953460 15.344884 0.000000
580.544560 259.504790 15.368706 0.000000
580.543760 260.044100 15.391661 0.000000
580.541690 260.572810 15.413849 0.000000
573.951600 240.941530 15.277140 0.000000
573.949340 242.350490 15.332255 0.000000
574.640930 243.627610 15.384422 0.000000
575.327450 243.628740 15.386631 0.000000
576.027770 243.629790 15.388649 0.000000
576.647220 243.785080 15.396128 0.000000
576.772280 244.720840 15.431966 0.000000
577.492130 244.722030 15.433343 0.000000
578.229000 244.723180 15.434516 0.000000
578.983830 244.724330 15.435482 0.000000
579.757810 244.725560 15.436234 0.000000
580.552120 244.726840 15.436764 0.000000
572.381470 246.638000 15.493271 0.000000
580.295350 247.026570 15.520826 0.000000
580.552060 254.666460 15.788612 0.000000
580.551030 255.327070 15.810745 0.000000
580.549990 255.968980 15.832065 0.000000
580.548950 256.593480 15.852618 0.000000
580.547910 257.201570 15.872449 0.000000
580.547000 257.794250 15.891592 0.000000
580.545170 258.936950 15.927972 0.000000
580.544310 259.488680 15.945271 0.000000
580.543460 260.028320 15.962021 0.000000
580.541380 260.557370 15.978273 0.000000
580.545410 261.072330 15.993894 0.000000
573.956420 237.748720 16.006176 0.000000
571.268190 245.212770 16.114882 0.000000
578.211550 244.718050 16.201147 0.000000
578.965940 244.719150 16.211592 0.000000
580.533200 244.721500 16.233292 0.000000
581.348690 244.722750 16.244583 0.000000
582.146060 244.773590 16.256594 0.000000
584.857480 244.728010 16.293165 0.000000
572.831850 246.892270 16.169302 0.000000
591.072390 244.737520 16.379221 0.000000
571.997500 247.337480 16.166473 0.000000
573.278260 247.181700 16.181126 0.000000
573.664310 247.570590 16.194057 0.000000
575.115540 247.266270 16.208162 0.000000
575.843630 247.159150 16.216129 0.000000
588.236940 246.282710 16.370237 0.000000
573.858460 248.260480 16.210222 0.000000
583.415280 247.226380 16.322058 0.000000
584.398070 248.045850 16.351648 0.000000
580.551820 254.646760 16.427488 0.000000
580.550720 255.307890 16.440392 0.000000
580.549680 255.950320 16.452932 0.000000
580.548710 256.575290 16.465130 0.000000
580.547670 257.183870 16.477007 0.000000
580.546690 257.776950 16.488581 0.000000
580.544070 259.472530 16.521677 0.000000
580.543210 260.012570 16.532217 0.000000
580.541140 260.541960 16.542534 0.000000
579.740540 244.718840 16.222288 0.000000
571.349120 246.299900 16.137241 0.000000
571.948180 246.285490 16.145237 0.000000
582.027100 245.913240 16.277220 0.000000
582.182740 246.695890 16.294662 0.000000
583.628910 247.914990 16.338465 0.000000
584.231380 249.079320 16.369539 0.000000
580.544860 258.920470 16.510902 0.000000
572.709720 244.741350 16.830194 0.000000
571.841490 245.245830 16.809805 0.000000
578.194150 244.712920 16.967262 0.000000
578.956050 244.702870 16.987364 0.000000
579.721920 244.713870 17.007847 0.000000
580.515440 244.714710 17.029291 0.000000
571.709900 247.855210 16.806818 0.000000
573.670720 247.531520 16.854654 0.000000
579.660830 246.798720 17.010937 0.000000
581.143310 246.911930 17.052416 0.000000
572.622130 248.302120 16.829174 0.000000
573.489500 248.830250 16.851242 0.000000
574.305850 248.498670 16.871666 0.000000
583.019100 247.613710 17.108229 0.000000
574.495610 249.151310 16.877396 0.000000
571.150510 249.931210 16.793964 0.000000
579.883120 249.248180 17.024181 0.000000
580.040890 249.915600 17.030933 0.000000
580.551450 254.627040 17.066858 0.000000
580.550420 255.288700 17.070517 0.000000
580.549440 255.931640 17.074265 0.000000
580.548400 256.557100 17.078093 0.000000
580.547360 257.166110 17.082006 0.000000
580.546450 257.759640 17.086002 0.000000
580.544620 258.903960 17.094242 0.000000
580.543760 259.456420 17.098484 0.000000
580.542970 259.996800 17.102810 0.000000
580.540890 260.526520 17.107180 0.000000
573.960820 237.695220 16.860579 0.000000
582.167240 244.718550 17.074682 0.000000
586.582340 244.905460 17.201143 0.000000
588.823970 244.727940 17.266392 0.000000
589.913510 244.729400 17.298910 0.000000
585.841550 246.611480 17.186544 0.000000
571.233580 249.753020 17.388994 0.000000
587.195620 248.111790 17.234032 0.000000
571.579220 250.103360 17.394638 0.000000
571.845760 250.577900 17.395552 0.000000
572.661990 251.033540 17.417557 0.000000
580.544310 258.887420 17.678545 0.000000
580.543520 259.440280 17.676239 0.000000
580.542660 259.981020 17.674330 0.000000
581.181030 260.136510 17.706676 0.000000
573.950620 240.829160 17.652964 0.000000
572.108700 243.317290 17.543598 0.000000
578.176700 244.707790 17.733580 0.000000
578.784060 244.912200 17.753973 0.000000
580.483640 244.726040 17.824722 0.000000
579.242250 245.327770 17.765614 0.000000
574.589720 247.021510 17.558853 0.000000
575.769710 247.214250 17.599705 0.000000
579.524720 246.941160 17.752872 0.000000
580.477600 247.658910 17.782560 0.000000
570.985900 249.205520 17.390816 0.000000
583.953610 247.533890 17.935219 0.000000
580.114200 248.963700 17.749731 0.000000
581.077330 248.767580 17.793816 0.000000
581.725890 248.941090 17.820047 0.000000
585.826780 250.130310 17.994888 0.000000
580.549130 255.912920 17.696648 0.000000
580.548100 256.538850 17.692089 0.000000
580.547060 257.148320 17.688019 0.000000
591.472600 258.539460 18.249819 0.000000
589.120240 258.947450 18.124510 0.000000
582.147160 244.713070 17.893349 0.000000
587.749690 244.720440 18.136904 0.000000
589.908870 244.703510 18.235582 0.000000
573.169860 247.284760 18.164560 0.000000
587.948670 245.523380 18.137363 0.000000
590.272090 247.306700 18.229237 0.000000
571.009280 250.136690 17.958231 0.000000
585.788760 249.321840 18.000360 0.000000
581.513730 258.232670 18.341413 0.000000
577.424260 244.701770 18.463621 0.000000
578.159300 244.702670 18.500841 0.000000
578.920590 244.691940 18.540508 0.000000
571.640750 245.597120 18.161739 0.000000
574.850830 245.484330 18.309996 0.000000
579.684200 244.704530 18.580219 0.000000
580.476440 244.705520 18.622547 0.000000
575.297790 245.844800 18.318201 0.000000
579.643800 246.764830 18.511501 0.000000
574.823550 247.637530 18.230736 0.000000
581.642760 247.220110 18.609880 0.000000
580.503110 247.602580 18.533522 0.000000
583.187560 247.383730 18.695265 0.000000
571.717650 249.808180 18.602570 0.000000
580.719540 249.130430 18.501074 0.000000
570.974910 245.716370 18.801020 0.000000
582.127080 244.707600 18.712986 0.000000
586.712160 244.714890 18.978315 0.000000
588.773500 244.715620 19.103552 0.000000
570.813110 247.288510 18.699129 0.000000
571.393190 247.266020 18.730888 0.000000
586.653320 245.762240 18.946884 0.000000
573.285400 248.096880 18.789112 0.000000
575.183900 248.038910 18.907080 0.000000
587.618410 246.760990 18.980936 0.000000
573.400150 248.895140 18.751808 0.000000
571.535400 249.147000 18.629801 0.000000
576.687740 244.698590 19.179008 0.000000
578.137450 244.703780 19.269180 0.000000
578.894290 244.698380 19.318102 0.000000
579.665770 244.699230 19.368603 0.000000
580.459110 244.698040 19.421608 0.000000
594.697330 244.700530 19.480154 0.000000
579.622500 246.763700 19.263206 0.000000
581.400150 246.530270 19.398315 0.000000
582.596370 248.855210 19.381863 0.000000
581.112730 249.533620 19.241549 0.000000
582.741880 249.560610 19.363235 0.000000
573.894650 244.794400 19.731352 0.000000
571.438780 245.952420 19.484329 0.000000
581.908140 244.942140 19.509060 0.000000
583.842960 244.717100 19.656769 0.000000
584.769290 244.705050 19.724585 0.000000
572.276000 246.655750 19.482111 0.000000
574.892700 247.473680 19.601164 0.000000
587.656370 245.741130 19.898174 0.000000
588.594180 245.842670 19.967321 0.000000
575.510930 247.519580 19.643482 0.000000
573.812930 248.197570 19.470337 0.000000
587.569820 247.701740 19.814301 0.000000
587.864560 248.347670 19.813622 0.000000
589.268800 249.839190 19.876276 0.000000
575.231690 243.598480 19.912123 0.000000
575.926270 243.604970 19.959507 0.000000
578.841800 244.741270 20.092922 0.000000
579.647220 244.693970 20.159418 0.000000
577.244750 245.967150 19.884352 0.000000
581.158330 245.818970 20.207918 0.000000
581.646360 246.214940 20.223820 0.000000
578.627810 247.045880 19.918781 0.000000
581.621830 247.189290 20.160522 0.000000
591.498780 246.243730 20.184931 0.000000
582.737000 247.802800 20.221447 0.000000
593.847720 247.313220 20.343510 0.000000
594.813720 247.574940 20.417181 0.000000
583.073060 249.211170 20.169952 0.000000
595.113770 249.254040 20.393105 0.000000
571.365230 246.073290 20.143745 0.000000
571.936400 246.119430 20.180292 0.000000
574.614870 245.791020 20.418228 0.000000
581.144410 244.829390 20.271339 0.000000
584.747130 244.699260 20.586929 0.000000
573.603940 246.432430 20.276947 0.000000
574.499210 247.053470 20.291416 0.000000
577.499690 246.587270 20.594124 0.000000
594.665590 244.694520 20.499372 0.000000
574.895390 247.441310 20.289108 0.000000
586.488950 246.816280 20.621918 0.000000
571.374570 249.359570 20.436497 0.000000
572.581670 249.204570 20.562889 0.000000
572.981080 249.496750 20.567543 0.000000
