# .PCD v0.7 - Point Cloud Data file format
VERSION 0.7
FIELDS x y z intensity
SIZE 4 4 4 4
TYPE F F F F
COUNT 1 1 1 1
WIDTH 1166
HEIGHT 1
VIEWPOINT 0 0 0 1 0 0 0
POINTS 1166
DATA ascii
619.021120 197.556840 13.820017 0.000000
618.504640 197.957640 13.836916 0.000000
618.051390 198.392900 13.857162 0.000000
617.587100 198.835100 13.877214 0.000000
617.109860 199.284530 13.897038 0.000000
616.708620 199.767350 13.920382 0.000000
616.301940 200.257840 13.943671 0.000000
614.928530 200.519520 13.929281 0.000000
614.476680 201.036910 13.952391 0.000000
614.062440 201.573730 13.977162 0.000000
613.862300 202.162080 14.009764 0.000000
613.760560 202.770540 14.045484 0.000000
613.721250 203.388580 14.082807 0.000000
616.409000 190.297550 14.046844 0.000000
615.061100 190.293790 14.047035 0.000000
613.623410 190.289060 14.046928 0.000000
612.087520 190.284190 14.046553 0.000000
611.941220 194.070650 14.287974 0.000000
611.211730 206.908810 15.050120 0.000000
610.441710 190.279110 14.045877 0.000000
609.784420 210.223240 15.228432 0.000000
609.706670 210.905850 15.264921 0.000000
608.672360 190.273570 14.044852 0.000000
607.797060 190.725620 14.073208 0.000000
607.786320 194.831950 14.330762 0.000000
607.763310 203.135480 14.827478 0.000000
607.746460 207.444490 15.071337 0.000000
607.322080 199.349640 14.604357 0.000000
605.135740 203.540210 14.844687 0.000000
605.133300 204.307650 14.888556 0.000000
605.130800 205.072430 14.931982 0.000000
605.128300 205.834990 14.974991 0.000000
605.120970 208.114120 15.101800 0.000000
605.118470 208.872530 15.143417 0.000000
605.116760 209.631060 15.184754 0.000000
605.178410 190.464230 14.054811 0.000000
605.172670 192.222230 14.165375 0.000000
605.169800 193.083650 14.219090 0.000000
605.164250 194.775070 14.323647 0.000000
605.161620 195.606450 14.374585 0.000000
605.158870 196.429140 14.424691 0.000000
605.156250 197.243790 14.474008 0.000000
605.153630 198.050990 14.522574 0.000000
605.148440 199.645400 14.617618 0.000000
605.145870 200.433720 14.664167 0.000000
605.143310 201.216840 14.710116 0.000000
605.140750 201.995290 14.755498 0.000000
620.005370 190.308840 14.045052 0.000000
618.874390 190.305300 14.045850 0.000000
617.677490 190.301350 14.046439 0.000000
618.947810 190.300080 14.810854 0.000000
616.491940 190.292020 14.857942 0.000000
615.148860 190.287720 14.883698 0.000000
613.718080 190.283200 14.911141 0.000000
611.939880 194.016220 15.149782 0.000000
611.177060 206.861500 15.867293 0.000000
610.550050 190.272550 14.971868 0.000000
607.987060 209.530350 16.075037 0.000000
607.796510 190.663740 15.046558 0.000000
607.783690 194.773330 15.271636 0.000000
607.608280 199.361050 15.526019 0.000000
605.130620 204.253310 15.841619 0.000000
605.122860 207.302830 16.008602 0.000000
605.118290 208.061890 16.050219 0.000000
605.175480 190.398300 15.082762 0.000000
605.169860 192.158170 15.179150 0.000000
605.166990 193.020430 15.226378 0.000000
605.161500 194.713470 15.319107 0.000000
605.159300 195.545730 15.364682 0.000000
605.153500 197.184340 15.454441 0.000000
605.145750 199.587880 15.586086 0.000000
605.143130 200.376770 15.629295 0.000000
605.140620 201.160460 15.672218 0.000000
605.138120 201.939450 15.714885 0.000000
605.135560 202.714250 15.757321 0.000000
605.133120 203.485380 15.799558 0.000000
620.074580 190.303740 14.789248 0.000000
617.755740 190.296140 14.833709 0.000000
612.188900 190.278140 14.940458 0.000000
608.788570 190.266510 15.005629 0.000000
605.128170 205.018540 15.883531 0.000000
605.125670 205.781540 15.925322 0.000000
605.115840 208.820650 16.091778 0.000000
605.110900 210.339000 16.174940 0.000000
605.156130 196.369000 15.409785 0.000000
605.150940 197.992220 15.498690 0.000000
620.143550 190.298680 15.530605 0.000000
619.013000 190.289900 15.572945 0.000000
612.520750 210.671480 16.840912 0.000000
616.574580 190.286540 15.665666 0.000000
615.237000 190.282060 15.716795 0.000000
613.812260 190.277390 15.771523 0.000000
612.289310 190.271840 15.830274 0.000000
612.274840 194.098010 16.005461 0.000000
611.504700 206.833570 16.672798 0.000000
610.659240 190.266680 15.893469 0.000000
608.905460 190.260090 15.961707 0.000000
608.006840 203.066740 16.618473 0.000000
608.000490 204.504880 16.693596 0.000000
607.997800 205.219990 16.731340 0.000000
607.794310 190.601070 16.020874 0.000000
607.778500 194.713730 16.213539 0.000000
608.032710 196.367650 16.282654 0.000000
608.016600 197.133380 16.320446 0.000000
607.748410 199.339260 16.439936 0.000000
605.123780 205.728100 16.876551 0.000000
605.118040 207.250080 16.958332 0.000000
605.115660 208.009600 16.999561 0.000000
605.113220 208.768740 17.041061 0.000000
605.110720 209.528000 17.082857 0.000000
605.108280 210.287780 17.124973 0.000000
605.172730 190.332400 16.111797 0.000000
605.167050 192.094020 16.193981 0.000000
605.159790 192.955570 16.234810 0.000000
605.181090 194.659070 16.315041 0.000000
605.150820 197.124830 16.435863 0.000000
605.142270 197.931880 16.475950 0.000000
605.143070 199.530290 16.555517 0.000000
605.136470 200.319000 16.595503 0.000000
605.137940 201.104020 16.635271 0.000000
605.135440 201.883560 16.675217 0.000000
605.132630 203.430790 16.755289 0.000000
620.212340 190.293640 16.269831 0.000000
617.902470 190.280430 16.399755 0.000000
613.374390 207.507860 17.405216 0.000000
612.261780 204.913420 17.341274 0.000000
612.244750 208.735960 17.542816 0.000000
616.631590 190.266360 16.471760 0.000000
615.324890 190.276430 16.547104 0.000000
614.592470 193.583680 16.706320 0.000000
614.115050 195.488950 16.807203 0.000000
613.906130 190.271560 16.628902 0.000000
612.389890 190.265840 16.716854 0.000000
612.344910 193.330600 16.830515 0.000000
612.438960 194.111190 16.854542 0.000000
611.911440 195.368120 16.935368 0.000000
611.922670 205.523540 17.393448 0.000000
611.774170 206.803160 17.468943 0.000000
610.767270 190.260480 16.811558 0.000000
610.406560 190.902970 16.855833 0.000000
607.778500 194.655820 17.157175 0.000000
607.763670 199.288600 17.355669 0.000000
605.112790 207.957200 17.950737 0.000000
605.108030 209.476320 18.034193 0.000000
605.105650 210.236470 18.076830 0.000000
605.103210 210.997600 18.120106 0.000000
605.156010 194.590000 17.314024 0.000000
605.153380 195.423630 17.348835 0.000000
605.150700 196.248500 17.383892 0.000000
605.148070 197.065220 17.419197 0.000000
605.145510 197.874440 17.454775 0.000000
605.140320 199.472600 17.526827 0.000000
605.137760 200.262660 17.563334 0.000000
605.135250 201.047490 17.600183 0.000000
605.132810 201.827560 17.637402 0.000000
605.130250 202.603410 17.675003 0.000000
605.130860 203.375920 17.712837 0.000000
605.121640 205.674530 17.829588 0.000000
620.281010 190.288600 17.007643 0.000000
619.157590 190.278850 17.091352 0.000000
613.819820 208.090610 18.173531 0.000000
616.739200 190.275620 17.274101 0.000000
615.412540 190.270810 17.375431 0.000000
614.538820 191.312290 17.467855 0.000000
613.999820 190.265780 17.484119 0.000000
613.682800 192.385420 17.562757 0.000000
613.074520 191.336210 17.582806 0.000000
612.787720 194.200070 17.685753 0.000000
611.802120 203.511920 18.118006 0.000000
611.887820 206.764500 18.268299 0.000000
611.540590 194.439960 17.793423 0.000000
611.460690 204.780640 18.206181 0.000000
611.190490 205.411100 18.259638 0.000000
611.060790 204.072370 18.206526 0.000000
610.857060 195.670170 17.888523 0.000000
610.486210 207.352940 18.418013 0.000000
609.109310 209.370240 18.644520 0.000000
607.966610 205.830990 18.554108 0.000000
607.957460 208.675660 18.704117 0.000000
607.952820 210.096590 18.783951 0.000000
607.950500 210.808210 18.825157 0.000000
607.761170 199.233640 18.274586 0.000000
607.670900 200.708270 18.342707 0.000000
607.253300 199.872760 18.342878 0.000000
607.569400 202.167300 18.414463 0.000000
607.086910 201.343050 18.418884 0.000000
620.323120 190.266200 17.747087 0.000000
607.788940 190.474850 17.976313 0.000000
606.285340 198.104690 18.352936 0.000000
605.966130 197.228610 18.345869 0.000000
605.495540 194.640620 18.291264 0.000000
605.364870 196.251100 18.359211 0.000000
605.246220 190.233960 18.171715 0.000000
605.153080 192.828120 18.258722 0.000000
605.160950 195.365630 18.344057 0.000000
614.093320 190.260010 18.337994 0.000000
612.590940 190.254200 18.483698 0.000000
612.554930 192.561460 18.526445 0.000000
612.307250 204.184360 18.913273 0.000000
612.151060 206.734570 19.050102 0.000000
612.044070 196.031460 18.656364 0.000000
611.971920 196.719190 18.682274 0.000000
611.780400 208.002460 19.155357 0.000000
611.613280 191.354580 18.597540 0.000000
611.457460 194.353320 18.674503 0.000000
611.037540 193.430080 18.695992 0.000000
611.015690 194.931290 18.733208 0.000000
610.545230 204.633070 19.121115 0.000000
610.468870 209.973160 19.405388 0.000000
610.619570 210.633800 19.427971 0.000000
609.252080 205.184940 19.284689 0.000000
609.464420 209.318590 19.475639 0.000000
615.612610 205.732830 19.365606 0.000000
612.468140 206.073730 19.786722 0.000000
612.434750 206.706270 19.821432 0.000000
611.517700 190.512190 18.592627 0.000000
605.145080 196.127260 19.369564 0.000000
605.142640 196.945420 19.395433 0.000000
605.140080 197.755950 19.422277 0.000000
605.137510 198.559510 19.450085 0.000000
605.134950 199.356640 19.478859 0.000000
605.132450 200.147900 19.508610 0.000000
605.129880 200.933850 19.539345 0.000000
605.127440 201.715010 19.571068 0.000000
605.125670 202.492020 19.603720 0.000000
605.120240 205.567090 19.744476 0.000000
605.110170 207.091250 19.822025 0.000000
605.108150 208.612200 19.903214 0.000000
615.720280 209.161940 20.259943 0.000000
615.587520 190.259610 19.029293 0.000000
614.186770 190.254230 19.191305 0.000000
613.794310 190.818560 19.239367 0.000000
613.621090 194.436130 19.293318 0.000000
612.690490 191.034270 19.370272 0.000000
612.757570 191.838970 19.368380 0.000000
612.087710 207.964940 19.930410 0.000000
612.196840 208.604290 19.950718 0.000000
612.108280 192.304150 19.450037 0.000000
611.387630 194.271390 19.562086 0.000000
611.209720 209.906360 20.152220 0.000000
611.027400 196.353910 19.644020 0.000000
611.251650 197.147630 19.633463 0.000000
610.194030 209.263380 20.246456 0.000000
605.319950 190.200500 19.201056 0.000000
618.212830 190.260100 19.517767 0.000000
612.827390 206.684950 20.568569 0.000000
612.366460 207.927220 20.700743 0.000000
612.539790 208.562590 20.708548 0.000000
610.154660 192.221680 19.683409 0.000000
610.043880 195.276540 19.743927 0.000000
609.489930 194.310790 19.794451 0.000000
605.106200 207.037810 20.784689 0.000000
605.095150 210.843540 20.998302 0.000000
620.530700 190.251950 19.962971 0.000000
614.280270 190.248440 20.044924 0.000000
614.053530 194.562070 20.071884 0.000000
613.292850 193.522420 20.174809 0.000000
611.559270 209.851810 20.930847 0.000000
611.502080 210.503570 20.979002 0.000000
611.007200 197.018250 20.536140 0.000000
611.021120 197.739210 20.546564 0.000000
605.142400 196.066270 20.369099 0.000000
605.139890 196.885100 20.390226 0.000000
605.137390 197.696330 20.412659 0.000000
605.134830 198.500530 20.436403 0.000000
605.132200 199.298260 20.461449 0.000000
605.129700 200.090130 20.487797 0.000000
605.127200 200.876650 20.515448 0.000000
605.124690 201.658370 20.544399 0.000000
605.122250 202.435810 20.574667 0.000000
605.119750 203.209410 20.606266 0.000000
605.117310 203.979740 20.639196 0.000000
614.827330 196.858720 20.780861 0.000000
613.205080 206.663420 21.305977 0.000000
613.350220 210.378080 21.484350 0.000000
612.767820 190.230190 20.251047 0.000000
612.450930 190.858310 20.291983 0.000000
611.052980 196.308870 20.518795 0.000000
608.492860 205.013930 21.147865 0.000000
607.378970 204.179690 21.280792 0.000000
615.762700 190.248380 20.684698 0.000000
614.373840 190.242680 20.899601 0.000000
614.537840 191.092760 20.860090 0.000000
613.886290 191.515700 20.956581 0.000000
614.135380 192.383300 20.907059 0.000000
612.409240 205.978500 21.413103 0.000000
610.800720 209.826890 21.893843 0.000000
609.486450 190.228780 20.703220 0.000000
607.644350 190.221560 20.959801 0.000000
605.137150 196.824450 21.390833 0.000000
605.134580 197.636340 21.408834 0.000000
605.132080 198.441210 21.428482 0.000000
605.129520 199.239560 21.449772 0.000000
605.126950 200.032030 21.472691 0.000000
605.124450 200.819120 21.497231 0.000000
605.122010 201.601390 21.523403 0.000000
605.119510 202.379330 21.551205 0.000000
605.117070 203.153470 21.580629 0.000000
605.109680 205.457950 21.678810 0.000000
605.104740 206.984160 21.752628 0.000000
612.272280 193.024830 21.200291 0.000000
611.921510 192.106230 21.262825 0.000000
611.544010 196.419280 21.322023 0.000000
608.762570 204.284880 21.975182 0.000000
608.358830 203.524730 22.016617 0.000000
608.268190 209.187040 22.296848 0.000000
605.151610 191.769730 21.318335 0.000000
605.150150 192.637680 21.325966 0.000000
605.147520 193.494190 21.335526 0.000000
609.233520 194.100280 21.693132 0.000000
605.116820 202.322510 22.534290 0.000000
605.118840 204.637850 22.620317 0.000000
605.102050 206.930100 22.727228 0.000000
605.104680 207.692110 22.765465 0.000000
605.101930 208.453410 22.806646 0.000000
605.151000 191.704770 22.359875 0.000000
605.139470 195.114580 22.377169 0.000000
605.136840 195.943100 22.386681 0.000000
605.134340 196.763380 22.398195 0.000000
605.131770 197.575940 22.411732 0.000000
605.129270 198.381450 22.427258 0.000000
605.126770 199.180470 22.444750 0.000000
605.124210 199.973530 22.464218 0.000000
605.121770 200.761220 22.485626 0.000000
605.119260 201.544020 22.508984 0.000000
605.152770 190.824310 22.361137 0.000000
620.460940 202.055450 13.891866 0.000000
619.716130 202.385790 13.893500 0.000000
618.322570 202.579270 13.865376 0.000000
617.986570 203.060210 13.889329 0.000000
617.665890 203.552220 13.914112 0.000000
617.340030 204.050720 13.938771 0.000000
617.008670 204.556270 13.963320 0.000000
616.801570 205.089580 13.993176 0.000000
616.633610 205.632550 14.024470 0.000000
616.475400 206.179930 14.055935 0.000000
616.324280 206.731220 14.087445 0.000000
616.141970 207.283140 14.117589 0.000000
615.915220 207.836790 14.146015 0.000000
615.688780 208.397000 14.174435 0.000000
614.470830 209.527080 14.206474 0.000000
612.302490 210.127260 14.174851 0.000000
612.225220 210.761290 14.210698 0.000000
616.888310 190.302380 13.684162 0.000000
615.612120 190.298340 13.675661 0.000000
614.259460 190.294430 13.666414 0.000000
612.821410 190.290180 13.656304 0.000000
612.143070 193.881590 13.904719 0.000000
611.185610 206.812530 14.753651 0.000000
611.309450 190.296490 13.646165 0.000000
610.451350 210.081410 14.948362 0.000000
610.366580 210.747880 14.987923 0.000000
609.763790 190.337830 13.637994 0.000000
608.662660 190.647510 13.651744 0.000000
607.776860 199.167020 14.227783 0.000000
607.762570 203.628080 14.519114 0.000000
607.650390 207.942230 14.790124 0.000000
607.346560 195.100850 13.950125 0.000000
607.190610 190.817930 13.652637 0.000000
605.146670 201.656920 14.367451 0.000000
605.144170 202.439350 14.418103 0.000000
605.139160 203.990650 14.517653 0.000000
605.136720 204.760560 14.566622 0.000000
605.134280 205.527300 14.615098 0.000000
605.129390 207.053210 14.710700 0.000000
605.124510 208.572170 14.804709 0.000000
605.122070 209.330180 14.851189 0.000000
605.178830 191.696150 13.698219 0.000000
605.175900 192.580510 13.759358 0.000000
605.173160 193.452680 13.819345 0.000000
605.167540 195.163350 13.936086 0.000000
605.164860 196.003330 13.992951 0.000000
605.162230 196.833970 14.048884 0.000000
605.159550 197.655940 14.103930 0.000000
605.154360 199.276350 14.211553 0.000000
605.151790 200.075990 14.264217 0.000000
605.149230 200.869340 14.316170 0.000000
620.320310 190.312640 13.705597 0.000000
619.236330 190.309420 13.699064 0.000000
618.094180 190.306000 13.691936 0.000000
620.387760 190.307620 14.459200 0.000000
619.307560 190.304140 14.472184 0.000000
618.169800 190.300570 14.485869 0.000000
616.968750 190.296830 14.500316 0.000000
615.698060 190.292770 14.515594 0.000000
614.350890 190.288560 14.531797 0.000000
612.919920 190.284520 14.549035 0.000000
612.109920 193.809310 14.773198 0.000000
611.393980 190.279500 14.567373 0.000000
611.149050 206.758730 15.572116 0.000000
609.763920 190.274290 14.586972 0.000000
608.505130 210.030690 15.803316 0.000000
608.410400 210.731290 15.847062 0.000000
608.017640 190.268910 14.607981 0.000000
607.774230 199.107360 15.148232 0.000000
607.759950 203.571200 15.419756 0.000000
607.746150 207.892380 15.682605 0.000000
607.490420 195.090730 14.907535 0.000000
606.067260 190.228900 14.629377 0.000000
605.136470 203.930530 15.473653 0.000000
605.133970 204.700820 15.520509 0.000000
605.131530 205.467930 15.567170 0.000000
605.126650 206.994510 15.660028 0.000000
605.121770 208.514050 15.752460 0.000000
605.119380 209.272350 15.798585 0.000000
605.175780 191.627090 14.725264 0.000000
605.172970 192.512310 14.779109 0.000000
605.170230 193.385240 14.832207 0.000000
605.164670 195.097350 14.936352 0.000000
605.162050 195.937990 14.987486 0.000000
605.159420 196.769290 15.038051 0.000000
605.156740 197.591870 15.088087 0.000000
605.151610 199.213420 15.186722 0.000000
605.149050 200.013580 15.235394 0.000000
605.146480 200.807430 15.283683 0.000000
605.143920 201.595490 15.331619 0.000000
605.141420 202.378370 15.379239 0.000000
620.454470 190.302370 15.209712 0.000000
619.378540 190.298890 15.242065 0.000000
617.048830 190.291310 15.312860 0.000000
615.783330 190.287090 15.351690 0.000000
614.441890 190.282700 15.393120 0.000000
613.017330 190.278500 15.437412 0.000000
612.141480 193.765750 15.643187 0.000000
611.498350 190.273300 15.484881 0.000000
611.128300 206.706190 16.392170 0.000000
611.347720 207.379260 16.424473 0.000000
609.876100 190.267910 15.535876 0.000000
608.003170 202.825810 16.273331 0.000000
607.952270 203.545350 16.316200 0.000000
608.138550 190.262300 15.590804 0.000000
607.771610 199.047650 16.069315 0.000000
607.743590 207.837480 16.574423 0.000000
607.609070 195.071850 15.859163 0.000000
606.205380 190.225430 15.650665 0.000000
605.137210 203.870850 16.430208 0.000000
605.133610 204.641330 16.474974 0.000000
605.130430 205.408690 16.519835 0.000000
605.119080 208.455920 16.700842 0.000000
605.116640 209.214480 16.746613 0.000000
605.114260 209.972670 16.792648 0.000000
605.111820 210.730970 16.838984 0.000000
605.172910 191.558070 15.753054 0.000000
605.170040 192.444050 15.799590 0.000000
605.167360 193.317760 15.845790 0.000000
605.161870 195.031310 15.937319 0.000000
605.160640 195.873110 15.982693 0.000000
605.156620 196.704560 16.027905 0.000000
605.153930 197.527740 16.072926 0.000000
605.148800 199.150440 16.162560 0.000000
605.146240 199.951130 16.207235 0.000000
605.143680 200.745470 16.251852 0.000000
605.141110 201.534030 16.296440 0.000000
619.449220 190.293640 16.009447 0.000000
618.320130 190.289830 16.064247 0.000000
612.138730 209.934370 17.349867 0.000000
617.128600 190.285780 16.122574 0.000000
615.868350 190.281430 16.184771 0.000000
614.532590 190.276890 16.251217 0.000000
614.217410 193.912460 16.414808 0.000000
613.113590 190.272110 16.322351 0.000000
612.590820 192.378660 16.434509 0.000000
612.242430 205.473280 17.084719 0.000000
611.609860 206.698820 17.188896 0.000000
611.563290 190.246280 16.399815 0.000000
611.542970 193.440170 16.533739 0.000000
611.634830 194.248410 16.563969 0.000000
611.448670 207.336330 17.234476 0.000000
611.107970 190.834870 16.446926 0.000000
608.038760 193.542760 16.722088 0.000000
607.741330 195.058200 16.806234 0.000000
607.769410 198.987960 16.991880 0.000000
607.754820 203.457230 17.223709 0.000000
607.741030 207.782470 17.467676 0.000000
605.126100 205.349000 17.474123 0.000000
605.116330 208.397670 17.650749 0.000000
605.113830 209.156520 17.696171 0.000000
605.109070 210.673490 17.788691 0.000000
605.156370 195.807160 16.979578 0.000000
605.153750 196.639710 17.019381 0.000000
605.151120 197.463530 17.059374 0.000000
605.146000 199.087360 17.139984 0.000000
605.143430 199.888570 17.180655 0.000000
605.140930 200.683410 17.221594 0.000000
605.138430 201.472460 17.262823 0.000000
605.135930 202.256240 17.304367 0.000000
605.130980 203.810070 17.388483 0.000000
618.366580 190.265900 16.851664 0.000000
605.164430 193.250180 16.861050 0.000000
605.159060 194.965180 16.939934 0.000000
617.208190 190.280290 16.930252 0.000000
615.953060 190.275770 17.015648 0.000000
615.066350 192.805820 17.150621 0.000000
614.623050 190.271090 17.106928 0.000000
614.810240 191.923900 17.141771 0.000000
613.831050 192.929980 17.242151 0.000000
613.210330 190.266140 17.204697 0.000000
612.466310 193.033800 17.343021 0.000000
612.180790 203.465590 17.791018 0.000000
612.112920 204.108050 17.828346 0.000000
611.772830 204.709960 17.885353 0.000000
611.578550 205.339190 17.933252 0.000000
611.863950 206.671810 17.983009 0.000000
611.354740 193.296880 17.431795 0.000000
611.316410 205.965060 17.986975 0.000000
611.247860 196.286220 17.547775 0.000000
611.180480 196.996840 17.580399 0.000000
610.310730 208.541890 18.210133 0.000000
609.869080 209.200850 18.283493 0.000000
607.958440 209.868770 18.472658 0.000000
607.955990 210.577840 18.516390 0.000000
607.766360 198.927890 17.916882 0.000000
607.740480 207.727430 18.363083 0.000000
606.491330 206.919480 18.414373 0.000000
614.540950 209.255810 18.673510 0.000000
605.176090 191.423430 17.814238 0.000000
605.168270 192.308810 17.846388 0.000000
605.158750 193.181320 17.879135 0.000000
605.153500 195.741500 17.979040 0.000000
605.150940 196.574720 18.013439 0.000000
605.148250 197.399120 18.048386 0.000000
605.143250 199.024110 18.119946 0.000000
605.140690 199.825850 18.156597 0.000000
605.138120 200.621200 18.193844 0.000000
605.135620 201.410720 18.231707 0.000000
617.287600 190.274800 17.736671 0.000000
616.037660 190.270140 17.845123 0.000000
614.713320 190.265290 17.961077 0.000000
614.340090 190.838820 18.004196 0.000000
614.087590 191.479050 18.038864 0.000000
613.509030 191.948210 18.100397 0.000000
612.860110 193.916150 18.205019 0.000000
612.552980 194.527080 18.249233 0.000000
612.386350 192.937900 18.224619 0.000000
612.035950 206.637700 18.776470 0.000000
611.742740 207.903590 18.874981 0.000000
611.051820 210.486570 19.097271 0.000000
611.242800 194.728840 18.376743 0.000000
610.475100 204.469560 18.821257 0.000000
610.277890 203.756700 18.806648 0.000000
610.310670 205.125690 18.869961 0.000000
609.912480 209.825130 19.170429 0.000000
609.767940 196.446320 18.567499 0.000000
615.315610 195.662380 18.821627 0.000000
614.914250 206.265090 19.219906 0.000000
612.362920 206.618450 19.547741 0.000000
612.577760 209.791310 19.699364 0.000000
611.160520 191.555860 18.304560 0.000000
609.942260 195.746980 18.528908 0.000000
608.809200 194.535690 18.599237 0.000000
607.997380 196.616010 18.741821 0.000000
607.995000 197.395260 18.768892 0.000000
607.992490 198.166260 18.796820 0.000000
607.990110 198.929610 18.825581 0.000000
607.987790 199.685880 18.855198 0.000000
607.985410 200.435610 18.885677 0.000000
607.983090 201.179380 18.917021 0.000000
607.980770 201.917630 18.949244 0.000000
607.978450 202.650940 18.982349 0.000000
605.115720 206.758740 19.472742 0.000000
605.110900 208.280700 19.558826 0.000000
605.127140 205.230180 19.390312 0.000000
616.122250 190.264530 18.673952 0.000000
615.374210 192.853930 18.774538 0.000000
615.192260 193.490100 18.802158 0.000000
614.803530 190.259510 18.814445 0.000000
613.492130 191.100070 18.962523 0.000000
612.382870 192.877670 19.105946 0.000000
612.070070 207.872970 19.650120 0.000000
611.828000 211.070330 19.871212 0.000000
611.561280 194.801380 19.231398 0.000000
611.316470 196.931440 19.307209 0.000000
611.451230 197.701200 19.311565 0.000000
611.209840 209.129320 19.826729 0.000000
609.592590 204.286510 19.771046 0.000000
619.731140 190.272770 19.068729 0.000000
614.293760 209.756670 20.251293 0.000000
613.446410 190.278490 18.960493 0.000000
612.395450 207.842830 20.415384 0.000000
612.416690 208.477290 20.447289 0.000000
611.106930 193.065950 19.251635 0.000000
610.511290 195.139470 19.358273 0.000000
607.908630 206.913640 20.105280 0.000000
605.108150 208.221850 20.518814 0.000000
605.097410 210.500000 20.656578 0.000000
616.199340 190.254320 19.503952 0.000000
614.893740 190.253710 19.667904 0.000000
614.124390 196.498170 19.793413 0.000000
613.801700 191.208160 19.804022 0.000000
611.596800 203.203800 20.317280 0.000000
611.842040 205.870570 20.395449 0.000000
611.879640 209.095860 20.560284 0.000000
611.377990 204.497420 20.400469 0.000000
610.029910 206.345490 20.678631 0.000000
605.152950 193.911190 19.946400 0.000000
605.145200 196.443950 20.013126 0.000000
605.142580 197.269610 20.037918 0.000000
605.140080 198.087020 20.063953 0.000000
605.137630 198.896870 20.091248 0.000000
605.135070 199.699690 20.119804 0.000000
605.132570 200.496060 20.149624 0.000000
605.130070 201.286540 20.180706 0.000000
605.127620 202.071700 20.213051 0.000000
605.125180 202.852050 20.246672 0.000000
605.122190 204.400590 20.317568 0.000000
614.889770 196.745770 20.499535 0.000000
614.019040 209.103500 21.026510 0.000000
613.939880 190.496320 19.787804 0.000000
613.091130 209.698750 21.216639 0.000000
613.398440 210.316470 21.203842 0.000000
612.526490 207.801270 21.202927 0.000000
611.057740 197.513960 20.228947 0.000000
609.540280 193.909230 20.378881 0.000000
609.612670 195.505520 20.390759 0.000000
609.390440 196.195110 20.432657 0.000000
617.526000 190.258330 20.155962 0.000000
616.291440 190.253250 20.332945 0.000000
614.984010 190.247920 20.522202 0.000000
614.458920 191.505490 20.581865 0.000000
610.989500 210.992890 21.649391 0.000000
610.406860 190.223110 20.241840 0.000000
609.593440 191.493480 20.351906 0.000000
609.474550 193.079420 20.379078 0.000000
608.737300 190.229540 20.458933 0.000000
605.098140 210.441570 21.621216 0.000000
605.142330 196.378050 21.020752 0.000000
605.139710 197.204320 21.040422 0.000000
605.137700 198.022480 21.061623 0.000000
605.134770 198.832750 21.084558 0.000000
605.132260 199.636110 21.109030 0.000000
605.129760 200.433000 21.135101 0.000000
605.127260 201.223970 21.162758 0.000000
605.122380 202.790370 21.222847 0.000000
605.117550 204.339510 21.289326 0.000000
605.110230 206.639500 21.401211 0.000000
613.620910 190.256320 20.721151 0.000000
613.634160 191.837690 20.701056 0.000000
610.810120 197.374010 21.147730 0.000000
610.708560 198.069490 21.173956 0.000000
609.398680 204.147890 21.553972 0.000000
609.253480 204.825930 21.605568 0.000000
608.804380 205.471190 21.707924 0.000000
608.965210 208.274610 21.821592 0.000000
608.486210 203.293840 21.671888 0.000000
605.160830 190.306350 20.929834 0.000000
610.304500 191.768650 21.202667 0.000000
609.762270 193.939410 21.284492 0.000000
605.118960 205.815720 22.335144 0.000000
605.115050 206.579930 22.373043 0.000000
608.825380 190.207370 21.434711 0.000000
605.147090 193.774870 22.003454 0.000000
605.144530 194.630520 22.011887 0.000000
605.136840 197.138630 22.049364 0.000000
605.134400 197.957260 22.065821 0.000000
605.131900 198.768220 22.084246 0.000000
605.129390 199.572130 22.104609 0.000000
605.126950 200.369540 22.126892 0.000000
605.124390 201.161000 22.151115 0.000000
605.122010 201.947100 22.177235 0.000000
605.154050 190.233020 21.991507 0.000000
605.172360 191.146480 21.988136 0.000000
620.558840 202.138570 13.884981 0.000000
619.938960 202.487030 13.888932 0.000000
619.551210 202.919390 13.905453 0.000000
619.167660 203.362000 13.922386 0.000000
617.997250 203.619190 13.901525 0.000000
617.715210 204.118150 13.924572 0.000000
617.444950 204.625400 13.948111 0.000000
617.171570 205.137700 13.971441 0.000000
617.145140 205.699130 14.005506 0.000000
617.021360 206.242800 14.034851 0.000000
616.906010 206.788970 14.064198 0.000000
616.752750 207.331910 14.091667 0.000000
616.567020 207.874510 14.117611 0.000000
616.382870 208.421740 14.143454 0.000000
616.202760 208.973980 14.169289 0.000000
615.271000 210.074570 14.200316 0.000000
614.115230 210.637020 14.192734 0.000000
617.567750 190.306120 13.744558 0.000000
616.361270 190.301620 13.734561 0.000000
615.089780 190.298310 13.723856 0.000000
613.743410 190.294010 13.712198 0.000000
612.315920 190.289490 13.699563 0.000000
611.943050 194.136830 13.943709 0.000000
611.374270 207.292250 14.728850 0.000000
610.659240 209.875400 14.864576 0.000000
610.812440 190.292300 13.686460 0.000000
610.584050 210.535550 14.899881 0.000000
609.211730 190.295350 13.672219 0.000000
607.804990 190.452220 13.669372 0.000000
607.790470 194.741590 13.940834 0.000000
607.761840 203.275070 14.456621 0.000000
607.747250 207.631000 14.705979 0.000000
607.388610 199.403500 14.222714 0.000000
606.112490 190.515910 13.657582 0.000000
605.138670 203.549930 14.442978 0.000000
605.136110 204.327880 14.487949 0.000000
605.133540 205.101640 14.532388 0.000000
605.130980 205.871720 14.576323 0.000000
605.123290 208.164690 14.705401 0.000000
605.120730 208.924840 14.747614 0.000000
605.177800 191.903020 13.736650 0.000000
605.174870 192.801160 13.793172 0.000000
605.168950 194.558930 13.902858 0.000000
605.165950 195.420180 13.956139 0.000000
605.163150 196.270690 14.008451 0.000000
605.160340 197.111160 14.059841 0.000000
605.157590 197.942260 14.110355 0.000000
605.152040 199.578980 14.208938 0.000000
605.149350 200.385820 14.257088 0.000000
605.146670 201.185780 14.304531 0.000000
605.143980 201.979430 14.351303 0.000000
619.800230 190.313260 13.762266 0.000000
618.711910 190.309720 13.753751 0.000000
619.858830 190.308060 14.539196 0.000000
618.773930 190.304380 14.550044 0.000000
617.633540 190.300690 14.561457 0.000000
616.432190 190.296750 14.573477 0.000000
615.164060 190.292590 14.586165 0.000000
613.822570 190.288100 14.599583 0.000000
612.400450 190.283420 14.613811 0.000000
611.901860 194.065660 14.823985 0.000000
611.397340 207.249600 15.544043 0.000000
610.889890 190.278900 14.628947 0.000000
609.279420 190.273380 14.645049 0.000000
608.640200 209.758010 15.708141 0.000000
608.557370 210.453340 15.746689 0.000000
607.802310 190.391600 14.666502 0.000000
607.787840 194.684620 14.899443 0.000000
607.759340 203.223650 15.362776 0.000000
607.744810 207.581540 15.599236 0.000000
607.545530 199.395200 15.157351 0.000000
605.716370 190.261640 14.680696 0.000000
605.136110 203.495610 15.404236 0.000000
605.133540 204.273940 15.446469 0.000000
605.130920 205.048050 15.488473 0.000000
605.128360 205.818470 15.530275 0.000000
605.120670 208.112340 15.654741 0.000000
605.118160 208.872790 15.696004 0.000000
605.175050 191.840940 14.771848 0.000000
605.172000 192.739780 14.820620 0.000000
605.166200 194.498960 14.916073 0.000000
605.163270 195.360860 14.962841 0.000000
605.160460 196.211990 15.009024 0.000000
605.157650 197.053040 15.054659 0.000000
605.154910 197.884700 15.099785 0.000000
605.149410 199.522460 15.188650 0.000000
605.146730 200.329770 15.232456 0.000000
605.144040 201.130200 15.275887 0.000000
605.141360 201.924290 15.318975 0.000000
617.699040 190.295260 15.375340 0.000000
616.501710 190.291180 15.409158 0.000000
615.238040 190.286900 15.445113 0.000000
613.901370 190.282240 15.483410 0.000000
612.484560 190.277390 15.524283 0.000000
612.103880 194.108140 15.704508 0.000000
611.382140 207.202900 16.359604 0.000000
610.979250 190.272310 15.568000 0.000000
609.375980 190.267000 15.614862 0.000000
608.008180 200.993100 16.153713 0.000000
607.997920 203.951800 16.300983 0.000000
608.006410 204.680920 16.337612 0.000000
607.799680 190.330960 15.664268 0.000000
607.787660 194.628540 15.858612 0.000000
607.635010 199.367830 16.086475 0.000000
607.922610 203.204730 16.265842 0.000000
607.742430 207.532060 16.493004 0.000000
605.828190 190.254820 15.719488 0.000000
605.131840 204.994930 16.445023 0.000000
605.128170 205.765490 16.484716 0.000000
605.118160 208.059970 16.604626 0.000000
605.115600 208.820660 16.644934 0.000000
605.113040 209.580050 16.685463 0.000000
605.110530 210.338550 16.726234 0.000000
605.172240 191.778820 15.807690 0.000000
605.169370 192.678440 15.848705 0.000000
605.160400 194.437770 15.929946 0.000000
605.160520 195.301500 15.970152 0.000000
605.157780 196.153260 16.010199 0.000000
605.154970 196.994900 16.050074 0.000000
605.152220 197.827120 16.089804 0.000000
605.146790 199.465900 16.168941 0.000000
605.141420 201.074600 16.247814 0.000000
605.138790 201.869130 16.287210 0.000000
612.530460 209.811260 17.250145 0.000000
617.764400 190.289860 16.186987 0.000000
616.571110 190.285640 16.242460 0.000000
615.311830 190.281190 16.301525 0.000000
614.699460 193.809170 16.446234 0.000000
614.727420 195.287990 16.496645 0.000000
613.979980 190.276400 16.364529 0.000000
613.015440 190.530900 16.418789 0.000000
612.744200 192.010880 16.480747 0.000000
612.337280 193.388690 16.548046 0.000000
612.298580 205.324220 17.038242 0.000000
611.068970 190.266110 16.503952 0.000000
607.785770 194.571730 16.819221 0.000000
607.716550 199.338320 17.013168 0.000000
607.741640 207.482670 17.388048 0.000000
605.125730 204.940750 17.403194 0.000000
605.123230 205.711840 17.440723 0.000000
605.120670 206.479680 17.478680 0.000000
605.115600 208.007520 17.555946 0.000000
605.113040 208.768490 17.595301 0.000000
605.107910 210.286850 17.675570 0.000000
605.105410 211.045180 17.716520 0.000000
605.152280 196.936650 17.047022 0.000000
605.149110 197.769290 17.081364 0.000000
605.144100 199.409270 17.150736 0.000000
605.141480 200.217560 17.185831 0.000000
605.138790 201.018910 17.221222 0.000000
605.136170 201.813870 17.256924 0.000000
605.131040 202.602510 17.293064 0.000000
605.130920 203.386840 17.329329 0.000000
620.033690 190.292560 16.856590 0.000000
605.163210 191.713790 16.845364 0.000000
605.166500 192.616910 16.878397 0.000000
605.160770 194.378880 16.945312 0.000000
605.157900 195.242070 16.979021 0.000000
605.155090 196.094420 17.012917 0.000000
617.829650 190.284440 16.997187 0.000000
616.640380 190.280110 17.074194 0.000000
615.385070 190.275300 17.156254 0.000000
614.826350 191.531010 17.218931 0.000000
614.586060 192.176040 17.249193 0.000000
614.058410 190.270570 17.243795 0.000000
614.142580 192.707980 17.291416 0.000000
612.652710 194.262820 17.432724 0.000000
612.120240 203.937330 17.798096 0.000000
611.860050 204.548830 17.843361 0.000000
611.720340 205.185200 17.881414 0.000000
611.568050 207.784850 18.012959 0.000000
611.376100 194.447170 17.526859 0.000000
611.177800 195.901320 17.582346 0.000000
611.201840 196.665800 17.603664 0.000000
610.905520 206.394090 17.997152 0.000000
610.411990 208.348890 18.128077 0.000000
610.124760 209.001140 18.182566 0.000000
607.882450 211.005970 18.457897 0.000000
607.764340 199.299070 17.940479 0.000000
607.484620 210.287140 18.449528 0.000000
607.081850 209.553740 18.441587 0.000000
614.584230 209.213650 18.605080 0.000000
607.869320 190.247880 17.661293 0.000000
606.050660 190.241240 17.786343 0.000000
605.203120 204.898510 18.358175 0.000000
605.213750 206.436980 18.428431 0.000000
605.163700 192.555270 17.910690 0.000000
605.155150 195.182460 17.990429 0.000000
605.152340 196.035430 18.018158 0.000000
605.149600 196.878270 18.046467 0.000000
605.146910 197.711610 18.075369 0.000000
605.141480 199.352490 18.134979 0.000000
605.138850 200.161290 18.165705 0.000000
605.136170 200.963090 18.197060 0.000000
605.133540 201.758480 18.229053 0.000000
616.709530 190.274580 17.905155 0.000000
615.458620 190.269610 18.010090 0.000000
614.136720 190.264740 18.122053 0.000000
614.157290 191.089070 18.128317 0.000000
613.065610 194.406460 18.269653 0.000000
612.338200 191.686330 18.292995 0.000000
612.550780 192.602170 18.286915 0.000000
612.048030 206.494570 18.725975 0.000000
611.846130 196.123610 18.412981 0.000000
611.780460 207.759660 18.808975 0.000000
611.444030 194.425250 18.415604 0.000000
611.069460 210.320830 19.005539 0.000000
611.257810 210.976560 19.022133 0.000000
610.799010 204.309880 18.756929 0.000000
610.667970 203.601000 18.742470 0.000000
610.544370 204.946550 18.806814 0.000000
610.123600 209.627330 19.062096 0.000000
615.071110 206.245830 19.169855 0.000000
613.268370 209.712340 19.540161 0.000000
612.368160 210.939540 19.712313 0.000000
611.754390 190.537690 18.329582 0.000000
609.898190 196.106600 18.591063 0.000000
608.014890 191.149660 18.666264 0.000000
608.015500 193.722080 18.712097 0.000000
607.998600 196.175190 18.767752 0.000000
607.995610 196.972720 18.787907 0.000000
607.993470 197.761020 18.808897 0.000000
607.990970 198.540280 18.830814 0.000000
607.988340 199.311290 18.853642 0.000000
607.985900 200.074650 18.877350 0.000000
607.983400 200.830890 18.901958 0.000000
607.980960 201.580610 18.927471 0.000000
607.979920 202.324630 18.953764 0.000000
605.115480 206.373150 19.394932 0.000000
605.110410 207.902180 19.466593 0.000000
605.121640 204.833050 19.327345 0.000000
616.778750 190.269060 18.736103 0.000000
615.532170 190.263950 18.863819 0.000000
614.816890 192.969240 18.937153 0.000000
614.630000 193.624340 18.959532 0.000000
614.215030 190.258930 19.000103 0.000000
612.611450 194.900940 19.188488 0.000000
612.439330 194.058790 19.200062 0.000000
611.743840 207.711300 19.627777 0.000000
611.402160 197.383270 19.356106 0.000000
611.389400 198.110890 19.370331 0.000000
610.559810 206.256590 19.706951 0.000000
609.752990 204.768330 19.744947 0.000000
609.553280 204.034240 19.742121 0.000000
620.208190 190.277110 19.169409 0.000000
619.143680 190.272750 19.294205 0.000000
613.426390 190.608670 19.081974 0.000000
612.642760 205.843090 20.248955 0.000000
612.388790 208.363920 20.386627 0.000000
611.337220 190.247630 19.302143 0.000000
611.063900 196.509400 19.380482 0.000000
610.622250 194.790770 19.407352 0.000000
610.727720 195.612590 19.405636 0.000000
605.107850 207.849200 20.427731 0.000000
605.105290 208.610960 20.464201 0.000000
605.096440 210.130710 20.541784 0.000000
605.113220 206.319610 20.358858 0.000000
615.561950 209.149950 20.711920 0.000000
615.606140 190.258500 19.718267 0.000000
611.631100 203.027190 20.302744 0.000000
611.859560 208.966480 20.489511 0.000000
611.440060 210.888550 20.646641 0.000000
610.637210 206.219620 20.545555 0.000000
606.272340 190.227710 19.845516 0.000000
605.144170 196.760800 20.056711 0.000000
605.141540 197.595310 20.074688 0.000000
605.138730 198.420910 20.094004 0.000000
605.136170 199.238300 20.114616 0.000000
605.133540 200.048070 20.136536 0.000000
605.130920 200.850810 20.159763 0.000000
605.128300 201.647090 20.184292 0.000000
605.125670 202.437470 20.210125 0.000000
614.293400 190.253080 19.878843 0.000000
613.648930 190.685090 19.952942 0.000000
613.071960 209.617870 21.143414 0.000000
613.433900 210.248210 21.115473 0.000000
613.040770 191.151110 20.023754 0.000000
611.895630 191.338680 20.166128 0.000000
611.048220 196.451430 20.273432 0.000000
611.040530 197.197720 20.280426 0.000000
610.888610 195.626190 20.289774 0.000000
618.092470 190.264080 20.238600 0.000000
616.917360 190.257980 20.401234 0.000000
615.679870 190.252810 20.574276 0.000000
614.719540 196.464220 20.608871 0.000000
611.763670 205.666280 21.197296 0.000000
609.303590 192.516540 20.492292 0.000000
609.230350 193.314480 20.501427 0.000000
609.083440 194.070590 20.521877 0.000000
608.178040 190.228240 20.645094 0.000000
605.100160 209.318600 21.466753 0.000000
605.097110 210.078280 21.505714 0.000000
605.138790 197.536710 21.081974 0.000000
605.136050 198.362850 21.096149 0.000000
605.133480 199.180760 21.111975 0.000000
605.130860 199.991010 21.129463 0.000000
605.128230 200.794240 21.148588 0.000000
605.122990 202.381770 21.191746 0.000000
605.111690 203.165600 21.216934 0.000000
605.117860 203.947830 21.241398 0.000000
605.110290 206.265700 21.328072 0.000000
605.107790 207.031980 21.360237 0.000000
614.613400 191.198350 20.701845 0.000000
614.371950 190.247250 20.759052 0.000000
613.953370 191.612520 20.787886 0.000000
614.032170 192.442170 20.760426 0.000000
611.721250 195.918080 21.068161 0.000000
609.659480 210.827150 21.767200 0.000000
609.467160 203.919490 21.518011 0.000000
609.278080 208.073060 21.695629 0.000000
607.854920 202.883150 21.751785 0.000000
606.348510 190.203780 20.879210 0.000000
605.141480 196.701640 21.069496 0.000000
611.000670 191.636090 21.218277 0.000000
610.729190 192.324050 21.248377 0.000000
609.563720 193.409850 21.410816 0.000000
605.122130 203.893740 22.222178 0.000000
605.110170 205.442030 22.274715 0.000000
605.107670 206.211490 22.303358 0.000000
605.105100 206.978070 22.333948 0.000000
605.146910 194.074970 22.080517 0.000000
605.144170 194.941440 22.081110 0.000000
605.142580 195.797320 22.083672 0.000000
605.138670 196.642090 22.088709 0.000000
605.136050 197.477740 22.095638 0.000000
605.133300 198.304410 22.104639 0.000000
605.130740 199.122860 22.115641 0.000000
605.128110 199.933610 22.128664 0.000000
605.125550 200.737300 22.143665 0.000000
605.122920 201.534500 22.160631 0.000000
605.169920 190.489170 22.098793 0.000000
620.383610 205.767960 13.916130 0.000000
619.986080 206.199160 13.931963 0.000000
619.578800 206.639080 13.947659 0.000000
619.160830 207.088350 13.963210 0.000000
618.880370 207.570860 13.985974 0.000000
618.642270 208.066330 14.010865 0.000000
618.423460 208.570010 14.036658 0.000000
618.214840 209.080180 14.062885 0.000000
618.006350 209.595760 14.089068 0.000000
617.801210 210.117280 14.115366 0.000000
617.596070 210.644680 14.141638 0.000000
613.988040 198.282910 13.929605 0.000000
611.289370 206.997210 14.477410 0.000000
611.218930 209.619060 14.645533 0.000000
611.083310 210.264970 14.684304 0.000000
610.996700 210.916110 14.724000 0.000000
607.774720 199.000760 13.881013 0.000000
607.759340 203.571270 14.191414 0.000000
607.744630 207.945310 14.478638 0.000000
605.141780 202.223800 14.057451 0.000000
605.136410 203.803880 14.162985 0.000000
605.133790 204.585830 14.214769 0.000000
605.131160 205.363070 14.265951 0.000000
605.125980 206.905490 14.366645 0.000000
605.120850 208.435090 14.465342 0.000000
605.160400 195.601260 13.602700 0.000000
605.156010 196.461330 13.662807 0.000000
605.158330 197.313020 13.722125 0.000000
605.152710 198.983140 13.837379 0.000000
605.149900 199.804820 13.893630 0.000000
605.147220 200.618440 13.949029 0.000000
605.144530 201.424560 14.003622 0.000000
620.700070 192.017790 13.570232 0.000000
620.428960 192.560790 13.607408 0.000000
620.268740 193.174590 13.651124 0.000000
620.101380 193.774990 13.693517 0.000000
619.107060 194.558200 13.737608 0.000000
618.934140 195.149800 13.778591 0.000000
618.691770 195.697130 13.815110 0.000000
618.288390 196.156980 13.842699 0.000000
617.647460 196.501680 13.858222 0.000000
617.147830 196.931090 13.881727 0.000000
616.577090 197.337480 13.902281 0.000000
616.020390 197.763230 13.924196 0.000000
615.453800 198.197530 13.946330 0.000000
620.530270 190.312150 14.218020 0.000000
619.494750 190.308730 14.222647 0.000000
618.410220 190.305370 14.227507 0.000000
617.271610 190.301570 14.232593 0.000000
616.074710 190.297760 14.237947 0.000000
614.813840 190.293690 14.243587 0.000000
613.482970 190.289400 14.249540 0.000000
612.075010 190.284760 14.255833 0.000000
611.210940 206.934540 15.296794 0.000000
610.582520 190.279940 14.262506 0.000000
609.119020 210.109410 15.504297 0.000000
609.025330 210.794560 15.547405 0.000000
608.996400 190.274840 14.269603 0.000000
607.800290 190.531880 14.291201 0.000000
607.785710 194.891040 14.562752 0.000000
607.721130 198.923740 14.814203 0.000000
607.756770 203.513230 15.099864 0.000000
607.742070 207.888930 15.372445 0.000000
605.501340 190.263570 14.285235 0.000000
605.133670 203.742480 15.126400 0.000000
605.131040 204.524730 15.175131 0.000000
605.128420 205.302280 15.223568 0.000000
605.123290 206.845230 15.319684 0.000000
605.118100 208.375320 15.415000 0.000000
605.115600 209.136750 15.462432 0.000000
605.176390 191.042240 14.335249 0.000000
605.170170 192.881100 14.449799 0.000000
605.164180 194.664080 14.560868 0.000000
605.161320 195.536730 14.615229 0.000000
605.158390 196.397830 14.668871 0.000000
605.155520 197.248150 14.721842 0.000000
605.147090 199.741440 14.877159 0.000000
605.144410 200.555480 14.927869 0.000000
605.141720 201.362050 14.978112 0.000000
605.139040 202.161670 15.027925 0.000000
605.173280 191.969100 14.392987 0.000000
605.149900 198.919300 14.825945 0.000000
620.588870 190.306880 14.994033 0.000000
619.556760 190.303360 15.016562 0.000000
618.475040 190.299220 15.040399 0.000000
617.341370 190.295970 15.065687 0.000000
616.148860 190.291990 15.092523 0.000000
614.892760 190.287780 15.121054 0.000000
613.567140 190.283340 15.151440 0.000000
612.164920 190.278520 15.183859 0.000000
612.069700 193.552860 15.355233 0.000000
611.284970 206.893370 16.117079 0.000000
610.678650 190.273530 15.218516 0.000000
609.099610 190.268250 15.255640 0.000000
607.987920 208.572800 16.304525 0.000000
607.985290 209.284060 16.347660 0.000000
607.797490 190.465240 15.296928 0.000000
607.783080 194.827930 15.527770 0.000000
607.677730 198.849870 15.749983 0.000000
607.754210 203.455170 16.008625 0.000000
607.739560 207.832550 16.266552 0.000000
605.130920 203.681030 16.090145 0.000000
605.128360 204.463640 16.135818 0.000000
605.125730 205.241490 16.181509 0.000000
605.120610 206.784990 16.273046 0.000000
605.110350 209.836980 16.457523 0.000000
605.107790 210.595470 16.504093 0.000000
605.181460 190.976820 15.386842 0.000000
605.170290 191.900480 15.435921 0.000000
605.167300 192.813190 15.484539 0.000000
605.161320 194.597470 15.580521 0.000000
605.158450 195.470730 15.627959 0.000000
605.155520 196.332400 15.675078 0.000000
605.152710 197.183270 15.721911 0.000000
605.147160 198.855440 15.814855 0.000000
605.144350 199.678050 15.861032 0.000000
605.141660 200.492540 15.907049 0.000000
605.138980 201.299500 15.952940 0.000000
605.136290 202.099520 15.998734 0.000000
620.647280 190.301650 15.767743 0.000000
619.618590 190.298000 15.808046 0.000000
612.685000 209.573490 17.028065 0.000000
612.558170 210.194030 17.071165 0.000000
618.541440 190.294390 15.850751 0.000000
617.410890 190.290360 15.896070 0.000000
616.222720 190.286250 15.944221 0.000000
614.971370 190.281890 15.995466 0.000000
613.650940 190.277280 16.050091 0.000000
612.254150 190.272160 16.108425 0.000000
612.182620 193.552980 16.246067 0.000000
612.274410 195.168610 16.311598 0.000000
611.810300 194.163180 16.288429 0.000000
611.680850 197.186900 16.428558 0.000000
611.611570 206.888720 16.924974 0.000000
611.443480 207.522860 16.968899 0.000000
610.876040 195.306470 16.379807 0.000000
610.774480 190.267140 16.170820 0.000000
609.231930 190.278200 16.237116 0.000000
608.016420 198.901200 16.677282 0.000000
608.019530 199.679840 16.715355 0.000000
607.789250 194.768450 16.493818 0.000000
607.751590 203.397050 16.918554 0.000000
607.737000 207.776060 17.161804 0.000000
605.125670 203.619020 17.055223 0.000000
605.125610 204.402450 17.097738 0.000000
605.123050 205.180600 17.140676 0.000000
605.112790 208.255660 17.316172 0.000000
605.105100 210.536160 17.452406 0.000000
605.133180 199.612140 16.846443 0.000000
605.140260 200.429860 16.887445 0.000000
605.136230 201.236880 16.929022 0.000000
605.133540 202.037290 16.970791 0.000000
619.656370 190.274550 16.598820 0.000000
613.877930 204.670460 17.473152 0.000000
607.794620 190.398480 16.303982 0.000000
605.155580 195.404650 16.642006 0.000000
605.147770 196.265090 16.682734 0.000000
605.161070 197.122220 16.722950 0.000000
617.480220 190.284760 16.724548 0.000000
616.296450 190.280520 16.793877 0.000000
615.049870 190.276030 16.867680 0.000000
614.577880 192.419570 16.956100 0.000000
614.576170 193.202610 16.979624 0.000000
613.734500 190.271260 16.946371 0.000000
613.197200 193.231720 17.066381 0.000000
612.343440 190.265960 17.030434 0.000000
611.958860 204.918470 17.617729 0.000000
611.701600 196.385440 17.268950 0.000000
611.618160 205.517210 17.671396 0.000000
611.714900 206.852400 17.734032 0.000000
611.566160 207.487140 17.778465 0.000000
611.428100 195.496860 17.254648 0.000000
609.651000 205.858700 17.825493 0.000000
607.734440 207.719470 18.059067 0.000000
