# .PCD v0.7 - Point Cloud Data file format
VERSION 0.7
FIELDS x y z intensity
SIZE 4 4 4 4
TYPE F F F F
COUNT 1 1 1 1
WIDTH 171
HEIGHT 1
VIEWPOINT 0 0 0 1 0 0 0
POINTS 171
DATA ascii
618.765990 69.113464 10.209449 0.000000
619.796390 71.687988 10.364481 0.000000
620.578060 62.488865 4.716105 0.000000
598.506710 62.229893 10.194849 0.000000
601.423220 61.657509 10.185414 0.000000
611.760500 61.598618 4.699461 0.000000
617.305660 62.300209 10.180071 0.000000
616.721980 63.678417 10.255926 0.000000
616.032410 65.022514 10.325920 0.000000
612.488530 63.610863 10.189867 0.000000
616.067930 61.407280 10.197893 0.000000
602.474240 61.551811 10.145355 0.000000
597.284730 78.444061 10.587461 0.000000
609.145450 77.049774 4.772273 0.000000
606.125240 78.073044 10.374287 0.000000
604.448850 77.239876 4.792313 0.000000
613.757930 78.145996 10.523401 0.000000
611.634460 77.165688 10.370155 0.000000
608.321780 76.976654 4.797758 0.000000
607.841060 76.684593 10.352520 0.000000
606.440920 77.973770 10.361721 0.000000
610.300900 76.710167 4.786179 0.000000
608.515260 75.853470 4.783495 0.000000
605.442320 77.066551 10.335289 0.000000
603.903870 78.358444 10.344600 0.000000
614.852170 77.283279 4.796012 0.000000
612.577640 76.434669 4.793529 0.000000
610.432860 75.635689 4.790421 0.000000
604.763430 76.255302 10.332316 0.000000
605.036620 78.339836 10.507500 0.000000
602.841190 77.667404 10.338487 0.000000
606.330320 77.293205 4.816020 0.000000
604.585140 76.568619 4.810419 0.000000
614.005740 74.006569 10.354664 0.000000
611.208250 75.820709 10.358335 0.000000
610.884770 78.232384 10.532780 0.000000
608.943300 77.425728 10.372766 0.000000
608.380620 77.006744 4.792858 0.000000
606.739140 76.250488 4.785616 0.000000
605.258000 75.504501 4.772593 0.000000
607.775090 76.694107 10.341581 0.000000
605.732120 78.242004 10.350255 0.000000
612.708440 73.124496 10.335192 0.000000
612.281310 78.088638 10.660529 0.000000
610.140140 74.984436 10.338188 0.000000
615.050780 76.854080 4.783592 0.000000
613.196110 76.028839 4.775821 0.000000
611.427860 75.239632 4.767304 0.000000
609.750120 74.480484 4.757452 0.000000
606.794430 78.226913 10.626055 0.000000
604.524350 75.492729 10.331823 0.000000
602.561890 77.094978 10.334236 0.000000
601.807980 78.321953 10.375183 0.000000
618.169800 73.531189 4.732826 0.000000
616.207820 72.751945 4.718072 0.000000
614.260860 72.028656 4.706950 0.000000
598.847170 78.401978 10.486863 0.000000
597.809080 76.740952 10.320699 0.000000
596.195070 78.202827 10.324685 0.000000
602.948060 78.313431 10.712515 0.000000
597.603520 78.141357 10.377954 0.000000
604.056460 78.267761 10.749266 0.000000
599.552370 76.497910 10.378654 0.000000
599.821660 78.450836 10.523025 0.000000
597.886660 78.449265 10.583327 0.000000
601.135930 78.406754 10.766385 0.000000
614.605470 74.984818 10.390892 0.000000
612.718200 78.115089 10.504743 0.000000
611.506410 77.234077 10.395748 0.000000
618.519780 72.320679 10.396355 0.000000
617.646240 78.032608 10.717221 0.000000
613.032290 74.198563 10.374798 0.000000
610.053960 76.524193 10.380798 0.000000
608.565310 78.234787 10.416632 0.000000
616.745000 71.456993 10.377130 0.000000
619.829280 68.561737 10.409323 0.000000
615.766780 71.696144 10.406514 0.000000
620.737430 64.779526 10.262618 0.000000
618.369320 71.198853 10.697577 0.000000
611.633850 77.632553 10.761952 0.000000
604.804080 78.327484 10.497967 0.000000
606.534240 78.292023 10.539876 0.000000
603.106750 78.367752 10.455976 0.000000
601.453430 78.388039 10.413155 0.000000
597.302310 62.392967 10.667500 0.000000
616.974180 62.879913 10.668816 0.000000
619.059200 62.465210 10.703064 0.000000
618.488340 67.848152 10.839935 0.000000
616.456790 68.273880 10.805752 0.000000
614.360900 68.676498 10.768770 0.000000
617.403380 78.075081 10.661356 0.000000
619.719540 78.027199 10.721024 0.000000
616.811890 78.069527 10.716011 0.000000
619.200130 78.016518 10.768076 0.000000
610.713130 72.762787 10.770416 0.000000
618.111940 69.486198 10.764735 0.000000
613.566350 72.906166 10.818291 0.000000
616.359740 73.093414 10.866067 0.000000
619.011900 73.233963 10.909444 0.000000
609.826420 74.575790 10.818720 0.000000
609.929690 78.217430 10.577681 0.000000
612.687380 78.164322 10.624207 0.000000
615.338810 78.107140 10.668018 0.000000
617.900570 78.054718 10.709769 0.000000
608.932010 78.254608 10.617527 0.000000
611.791690 78.195763 10.663256 0.000000
613.762820 78.145966 10.450676 0.000000
618.916930 78.035912 10.592580 0.000000
616.381410 78.087990 10.523422 0.000000
620.166930 78.001457 10.704062 0.000000
617.713750 78.051376 10.641450 0.000000
615.179200 78.103111 10.575356 0.000000
607.916690 62.587639 10.838144 0.000000
618.051330 72.729927 10.764800 0.000000
619.846680 72.037926 10.800383 0.000000
617.712220 61.578697 10.683989 0.000000
615.778260 68.552704 10.791743 0.000000
617.652770 67.868057 10.827246 0.000000
619.490970 67.171638 10.860777 0.000000
615.283630 63.216194 10.833866 0.000000
615.899290 62.284622 10.669865 0.000000
617.657590 61.385124 10.700682 0.000000
596.571900 69.511490 10.621008 0.000000
597.579590 62.705765 10.587847 0.000000
598.867430 61.301334 10.158478 0.000000
601.050780 61.432602 10.173548 0.000000
617.843510 65.318703 10.206364 0.000000
618.651730 63.859333 10.217701 0.000000
619.523500 66.425552 10.294626 0.000000
620.403630 64.936020 10.316153 0.000000
618.720760 62.890297 10.190863 0.000000
619.589290 61.406723 10.213116 0.000000
612.991270 62.923691 4.650750 0.000000
605.707460 61.158516 9.980617 0.000000
599.707340 61.080135 10.129912 0.000000
596.178220 61.103859 10.184277 0.000000
601.595640 62.582428 10.215384 0.000000
610.349120 64.347015 10.243723 0.000000
609.318050 62.429745 10.166133 0.000000
610.424930 61.133572 10.223583 0.000000
612.246340 65.756790 10.176905 0.000000
613.283390 64.380646 10.232588 0.000000
611.163510 61.190247 10.162431 0.000000
612.754640 66.778442 10.280063 0.000000
612.411740 63.231777 10.243704 0.000000
613.827150 66.222740 10.268811 0.000000
612.313350 63.971901 10.174580 0.000000
612.750670 66.617813 10.205293 0.000000
612.317440 62.943024 10.165518 0.000000
613.823790 65.205307 10.260664 0.000000
606.906310 63.604088 10.171080 0.000000
608.052490 62.317741 10.224541 0.000000
608.198000 65.793655 10.270851 0.000000
615.090090 68.370926 10.213514 0.000000
617.687320 65.501831 10.260049 0.000000
619.054020 64.050369 10.287096 0.000000
617.422910 61.605782 10.149423 0.000000
599.574520 61.223473 9.625820 0.000000
610.237980 67.338348 10.326529 0.000000
609.979740 63.554260 10.204642 0.000000
612.256230 67.920425 10.278343 0.000000
614.891600 65.121597 10.318638 0.000000
613.277650 62.609772 10.169733 0.000000
614.597470 61.201508 10.191420 0.000000
617.379030 71.537460 4.708873 0.000000
596.429200 61.151196 10.206941 0.000000
599.817570 61.883446 10.208546 0.000000
598.896180 62.430248 10.159191 0.000000
600.123290 61.202072 10.199123 0.000000
599.057560 61.735352 10.154528 0.000000
598.055600 62.283863 10.116499 0.000000
