# .PCD v0.7 - Point Cloud Data file format
VERSION 0.7
FIELDS x y z intensity
SIZE 4 4 4 4
TYPE F F F F
COUNT 1 1 1 1
WIDTH 1166
HEIGHT 1
VIEWPOINT 0 0 0 1 0 0 0
POINTS 1166
DATA ascii
604.567870 132.503170 13.853475 0.000000
602.771480 132.497190 13.907929 0.000000
619.411500 132.539310 15.211734 0.000000
617.874510 132.534240 15.265984 0.000000
616.315550 132.529080 15.322107 0.000000
614.733280 132.523740 15.380181 0.000000
613.126040 132.518370 15.440287 0.000000
611.492310 132.512740 15.502511 0.000000
609.830570 132.507310 15.566944 0.000000
608.138850 132.501650 15.633684 0.000000
606.415280 132.495850 15.702840 0.000000
604.657900 132.489780 15.774519 0.000000
602.864690 132.483670 15.848846 0.000000
619.478580 132.526840 16.992985 0.000000
617.943730 132.521700 17.059525 0.000000
616.387080 132.516420 17.128662 0.000000
614.807070 132.510990 17.200497 0.000000
613.202330 132.505550 17.275131 0.000000
611.571110 132.499820 17.352688 0.000000
609.911990 132.494230 17.433275 0.000000
608.223020 132.488490 17.517033 0.000000
606.502320 132.482570 17.604099 0.000000
604.747920 132.476380 17.694626 0.000000
602.954350 132.464390 17.788960 0.000000
620.385130 132.560440 12.752012 0.000000
618.841980 132.555450 12.782464 0.000000
617.277830 132.550540 12.813891 0.000000
615.691410 132.545560 12.846327 0.000000
614.081050 132.540410 12.879813 0.000000
612.445370 132.535220 12.914394 0.000000
610.783080 132.530810 12.950150 0.000000
609.091250 132.524540 12.987045 0.000000
607.369810 132.519900 13.025242 0.000000
605.614990 132.513460 13.064701 0.000000
603.826110 132.507630 13.105551 0.000000
620.442260 132.547840 14.550918 0.000000
618.901370 132.542770 14.593189 0.000000
617.339660 132.537750 14.637147 0.000000
615.755680 132.532680 14.682850 0.000000
614.147890 132.527400 14.730362 0.000000
612.514890 132.522160 14.779758 0.000000
610.854860 132.516600 14.831114 0.000000
609.166380 132.511260 14.884510 0.000000
607.447450 132.505690 14.940032 0.000000
605.696290 132.500240 14.997778 0.000000
603.910520 132.494000 15.057839 0.000000
620.499390 132.535230 16.348778 0.000000
618.960820 132.530080 16.402832 0.000000
617.401490 132.525020 16.459282 0.000000
615.819950 132.519810 16.518208 0.000000
614.214720 132.514480 16.579704 0.000000
612.584590 132.509740 16.643854 0.000000
610.927060 132.503480 16.710800 0.000000
609.241460 132.498020 16.780611 0.000000
607.525510 132.492320 16.853424 0.000000
605.777470 132.486770 16.929361 0.000000
603.994870 132.480380 17.008577 0.000000
620.283870 131.769640 18.174839 0.000000
618.287170 130.597600 18.284937 0.000000
616.617250 130.407200 18.362642 0.000000
614.493410 129.213150 18.483341 0.000000
620.027100 132.558300 13.234271 0.000000
618.462040 132.553070 13.261969 0.000000
616.875790 132.547850 13.290609 0.000000
615.266850 132.542540 13.320227 0.000000
613.633790 132.537050 13.350856 0.000000
611.975100 132.531560 13.382548 0.000000
610.288940 132.525820 13.415339 0.000000
608.573850 132.520230 13.449290 0.000000
606.827760 132.514400 13.484442 0.000000
605.048830 132.508480 13.520852 0.000000
620.077030 132.545840 15.059160 0.000000
618.514040 132.540470 15.098837 0.000000
616.929870 132.535160 15.140176 0.000000
615.323180 132.529790 15.183238 0.000000
613.692380 132.524200 15.228086 0.000000
612.036010 132.518600 15.274794 0.000000
610.352290 132.512760 15.323430 0.000000
608.639770 132.507100 15.374074 0.000000
606.896360 132.501190 15.426813 0.000000
605.120180 132.495150 15.481737 0.000000
620.126950 132.533310 16.883530 0.000000
618.565980 132.527880 16.935156 0.000000
616.983950 132.522520 16.989161 0.000000
615.379460 132.517000 17.045635 0.000000
613.750980 132.511350 17.104666 0.000000
612.096920 132.505690 17.166348 0.000000
610.415650 132.499730 17.230785 0.000000
608.705630 132.493910 17.298080 0.000000
606.964900 132.487930 17.368357 0.000000
605.191470 132.481770 17.441742 0.000000
619.626280 132.562260 12.478974 0.000000
618.040410 132.556990 12.498264 0.000000
616.433110 132.551770 12.518393 0.000000
614.802860 132.546480 12.539383 0.000000
613.148130 132.541020 12.561266 0.000000
611.467470 132.535540 12.584081 0.000000
609.758910 132.529820 12.607856 0.000000
608.020750 132.523510 12.632618 0.000000
606.251950 132.518430 12.658473 0.000000
619.672000 132.549410 14.328272 0.000000
618.088500 132.544070 14.359703 0.000000
616.483580 132.538790 14.392702 0.000000
614.855900 132.533390 14.427320 0.000000
613.203740 132.527830 14.463612 0.000000
611.525700 132.522280 14.501640 0.000000
609.820430 132.517460 14.541483 0.000000
608.085210 132.511140 14.583180 0.000000
606.319340 132.505690 14.626837 0.000000
619.717650 132.536560 16.176365 0.000000
618.136540 132.531140 16.219896 0.000000
616.534060 132.525790 16.265724 0.000000
614.908810 132.520280 16.313921 0.000000
613.259280 132.514630 16.364574 0.000000
611.583920 132.509000 16.417767 0.000000
609.881470 132.504060 16.473585 0.000000
608.148930 132.497250 16.532164 0.000000
606.386170 132.492070 16.593559 0.000000
619.764770 132.527630 18.024891 0.000000
617.821410 131.565670 18.112061 0.000000
616.163880 131.464480 18.174614 0.000000
614.062320 130.373750 18.274616 0.000000
612.363100 130.349410 18.341988 0.000000
610.583740 130.210690 18.416958 0.000000
620.720400 132.563720 12.300361 0.000000
619.129150 132.558380 12.322459 0.000000
617.517460 132.552700 12.345982 0.000000
615.884030 132.547210 12.370997 0.000000
614.227290 132.541630 12.397536 0.000000
612.545840 132.535830 12.425648 0.000000
610.838010 132.530030 12.455392 0.000000
609.102540 132.524990 12.486856 0.000000
607.336000 132.517360 12.519974 0.000000
619.182250 132.545350 14.203581 0.000000
617.573910 132.539700 14.239408 0.000000
615.943910 132.534150 14.277459 0.000000
614.290710 132.528440 14.317801 0.000000
612.612920 132.522580 14.360503 0.000000
610.909180 132.517330 14.405664 0.000000
609.176820 132.510530 14.453338 0.000000
607.415280 132.504550 14.503648 0.000000
619.235290 132.532440 16.083181 0.000000
617.630310 132.526730 16.131252 0.000000
616.003660 132.521070 16.182281 0.000000
614.354130 132.515300 16.236359 0.000000
612.679930 132.509370 16.293587 0.000000
610.979740 132.503360 16.354073 0.000000
609.251590 132.497120 16.417933 0.000000
607.494080 132.491030 16.485285 0.000000
619.162660 132.171010 17.973324 0.000000
617.555850 132.169830 18.033710 0.000000
615.918150 132.144960 18.098537 0.000000
613.842350 131.135390 18.198784 0.000000
612.138120 131.116620 18.272106 0.000000
609.919800 130.043900 18.385286 0.000000
608.148190 130.046840 18.467342 0.000000
619.995120 132.558870 13.365156 0.000000
618.380310 132.553630 13.396249 0.000000
616.744630 132.548340 13.429497 0.000000
615.086670 132.543090 13.464965 0.000000
613.405520 132.539020 13.502752 0.000000
611.697880 132.532200 13.542832 0.000000
609.963930 132.526670 13.585386 0.000000
608.201230 132.520870 13.630461 0.000000
620.048830 132.545620 15.262156 0.000000
618.437680 132.540310 15.305082 0.000000
616.805790 132.534940 15.350890 0.000000
615.151730 132.529600 15.399668 0.000000
613.474120 132.524170 15.451508 0.000000
611.771240 132.518600 15.506508 0.000000
610.041560 132.512940 15.564774 0.000000
608.283330 132.507020 15.626423 0.000000
620.102480 132.532380 17.158508 0.000000
618.495000 132.527010 17.213213 0.000000
616.866940 132.521580 17.271524 0.000000
615.216800 132.516140 17.333553 0.000000
613.543150 132.510620 17.399410 0.000000
611.844480 132.504910 17.469225 0.000000
610.119140 132.499210 17.543129 0.000000
608.365360 132.493160 17.621269 0.000000
614.708250 135.941310 11.846409 0.000000
619.991880 132.555790 13.516825 0.000000
618.360720 132.550320 13.547628 0.000000
616.708680 132.544850 13.580605 0.000000
615.034300 132.539120 13.615803 0.000000
613.336060 132.533290 13.653301 0.000000
611.612610 132.527560 13.693174 0.000000
609.862670 132.522920 13.735529 0.000000
608.083190 132.516270 13.780370 0.000000
620.044560 132.542530 15.435196 0.000000
618.417050 132.536990 15.477855 0.000000
616.768800 132.531460 15.523416 0.000000
615.098270 132.525670 15.571961 0.000000
613.404110 132.519730 15.623585 0.000000
611.684510 132.513410 15.678386 0.000000
609.939150 132.509160 15.736471 0.000000
608.164120 132.502430 15.797953 0.000000
620.097230 132.529280 17.353016 0.000000
618.473390 132.523650 17.407476 0.000000
616.828860 132.518080 17.465565 0.000000
615.162230 132.512180 17.527397 0.000000
613.472110 132.506200 17.593082 0.000000
611.756650 132.499760 17.662754 0.000000
610.015500 132.495420 17.736485 0.000000
608.244930 132.488590 17.814528 0.000000
619.601560 132.556230 13.341784 0.000000
617.948300 132.550750 13.370100 0.000000
616.273930 132.545350 13.400579 0.000000
614.576900 132.539700 13.433274 0.000000
612.855650 132.533870 13.468253 0.000000
611.108830 132.528170 13.505597 0.000000
609.334590 132.522280 13.545376 0.000000
619.653080 132.542770 15.285931 0.000000
618.003660 132.537250 15.326273 0.000000
616.333190 132.531770 15.369520 0.000000
614.640140 132.525970 15.415751 0.000000
612.923100 132.520080 15.465059 0.000000
611.180540 132.514300 15.517546 0.000000
609.410770 132.508300 15.573311 0.000000
619.704650 132.529330 17.229305 0.000000
618.059020 132.523740 17.281616 0.000000
616.392460 132.518170 17.337570 0.000000
614.703430 132.512310 17.397274 0.000000
612.990540 132.506360 17.460844 0.000000
611.252260 132.500430 17.528399 0.000000
609.486940 132.494420 17.600071 0.000000
619.209230 132.551570 13.238680 0.000000
617.532960 132.545900 13.263810 0.000000
615.835210 132.540280 13.291089 0.000000
614.114500 132.534380 13.320564 0.000000
612.369260 132.528410 13.352306 0.000000
610.597960 132.522490 13.386389 0.000000
619.258180 132.537770 15.209802 0.000000
617.585750 132.532040 15.247143 0.000000
615.892030 132.526370 15.287380 0.000000
614.175420 132.520360 15.330597 0.000000
612.434390 132.514250 15.376880 0.000000
610.667540 132.508210 15.426332 0.000000
619.307130 132.523990 17.180027 0.000000
617.638610 132.518170 17.229515 0.000000
615.948850 132.512450 17.282650 0.000000
614.236330 132.506320 17.339544 0.000000
612.499570 132.500170 17.400301 0.000000
610.737060 132.494020 17.465044 0.000000
620.440920 132.552350 13.505455 0.000000
618.757630 132.546570 13.528839 0.000000
617.053830 132.540650 13.554342 0.000000
615.328250 132.534730 13.582027 0.000000
613.579220 132.528530 13.611943 0.000000
611.805360 132.522260 13.644166 0.000000
620.485290 132.538380 15.497206 0.000000
618.805660 132.532470 15.532253 0.000000
617.105710 132.526490 15.570171 0.000000
615.384090 132.520510 15.611032 0.000000
613.639160 132.514240 15.654923 0.000000
611.869510 132.507860 15.701930 0.000000
620.529600 132.524400 17.488312 0.000000
618.853760 132.518430 17.534973 0.000000
617.157650 132.512330 17.585243 0.000000
615.439940 132.506320 17.639223 0.000000
613.699100 132.499940 17.697021 0.000000
611.933590 132.493480 17.758747 0.000000
610.141910 132.487030 17.824526 0.000000
619.950740 132.554180 13.478204 0.000000
618.238650 132.548540 13.497007 0.000000
616.505620 132.542760 13.517904 0.000000
614.750430 132.537020 13.540958 0.000000
612.971440 132.530980 13.566212 0.000000
611.166990 132.524830 13.593735 0.000000
619.990230 132.539760 15.503904 0.000000
618.281860 132.534000 15.534592 0.000000
616.552800 132.528170 15.568137 0.000000
614.801570 132.522350 15.604615 0.000000
613.026670 132.516190 15.644104 0.000000
611.226500 132.509980 15.686692 0.000000
620.029720 132.525330 17.528913 0.000000
618.325130 132.519530 17.571434 0.000000
616.599910 132.513550 17.617569 0.000000
614.852660 132.507690 17.667410 0.000000
613.081910 132.501460 17.721066 0.000000
611.286010 132.495150 17.778646 0.000000
619.745910 132.552000 13.722614 0.000000
618.008540 132.546280 13.733835 0.000000
616.250180 132.540410 13.747087 0.000000
614.469360 132.534480 13.762421 0.000000
612.664610 132.528630 13.779886 0.000000
619.774600 132.537960 15.779699 0.000000
618.040890 132.532060 15.802924 0.000000
616.286250 132.526150 15.828953 0.000000
614.509280 132.520160 15.857853 0.000000
612.708500 132.514220 15.889701 0.000000
619.803280 132.523860 17.836361 0.000000
618.059200 132.476990 17.872227 0.000000
616.319890 132.505160 17.910408 0.000000
614.503420 132.385530 17.954823 0.000000
612.720580 132.420350 18.000305 0.000000
619.995360 132.564650 12.150984 0.000000
618.237550 132.559160 12.150387 0.000000
616.458860 132.553340 12.151052 0.000000
614.657650 132.547150 12.153006 0.000000
612.832890 132.541630 12.156322 0.000000
620.020750 132.549880 14.234385 0.000000
618.266420 132.544280 14.245745 0.000000
616.491210 132.538390 14.259152 0.000000
614.693850 132.532560 14.274666 0.000000
612.872680 132.526550 14.292324 0.000000
620.046140 132.535130 16.315945 0.000000
618.295230 132.529480 16.339207 0.000000
616.523620 132.523500 16.365297 0.000000
614.729860 132.517550 16.394281 0.000000
612.912410 132.511440 16.426239 0.000000
619.066710 129.331510 18.464539 0.000000
617.289860 129.420750 18.498856 0.000000
615.479860 129.466020 18.537771 0.000000
613.651000 129.516200 18.580341 0.000000
619.548030 132.552290 13.378206 0.000000
617.760800 132.546680 13.375551 0.000000
615.952270 132.540770 13.374163 0.000000
614.120850 132.534480 13.374058 0.000000
619.562740 132.537750 15.495955 0.000000
617.778380 132.532040 15.505476 0.000000
615.972840 132.526060 15.517062 0.000000
614.144530 132.519700 15.530754 0.000000
619.577390 132.523240 17.613081 0.000000
617.796020 132.517490 17.634737 0.000000
615.993470 132.511380 17.659252 0.000000
614.168270 132.504940 17.686691 0.000000
619.146060 132.563630 12.190104 0.000000
617.328000 132.558040 12.171760 0.000000
615.488220 132.552220 12.153851 0.000000
613.625370 132.546390 12.136388 0.000000
619.149960 132.548190 14.343115 0.000000
617.334350 132.542570 14.337191 0.000000
615.497190 132.536650 14.332516 0.000000
613.636720 132.530360 14.329107 0.000000
619.153870 132.532780 16.494474 0.000000
617.340760 132.527100 16.500927 0.000000
615.506040 132.521040 16.509439 0.000000
613.648190 132.514680 16.520054 0.000000
620.622620 132.558290 12.357533 0.000000
618.797850 132.552520 12.326437 0.000000
616.952820 132.546940 12.295673 0.000000
615.085690 132.541020 12.265207 0.000000
620.607850 132.543610 14.531054 0.000000
618.785280 132.537350 14.511761 0.000000
616.942440 132.531680 14.493604 0.000000
615.077700 132.525710 14.476572 0.000000
620.593020 132.528530 16.703222 0.000000
618.772640 132.522190 16.695715 0.000000
616.932130 132.516420 16.690125 0.000000
615.069700 132.510350 16.686483 0.000000
620.284850 132.567930 12.373952 0.000000
618.435360 132.562070 12.328900 0.000000
616.565190 132.556400 12.284033 0.000000
614.672490 132.549910 12.239281 0.000000
620.252200 132.552250 14.576920 0.000000
618.404850 132.546370 14.543866 0.000000
616.536800 132.540620 14.511802 0.000000
614.646420 132.534640 14.480717 0.000000
619.941160 132.557050 12.229991 0.000000
618.068240 132.551220 12.167038 0.000000
616.174320 132.545550 12.104076 0.000000
619.886780 132.541210 14.460695 0.000000
618.015750 132.535310 14.409929 0.000000
616.123780 132.529590 14.359974 0.000000
619.924990 133.279910 11.926845 0.000000
618.363650 134.286530 11.909139 0.000000
616.902530 135.539320 11.905921 0.000000
616.586000 132.534090 13.368838 0.000000
618.503600 132.540210 13.452486 0.000000
620.401060 132.546050 13.536635 0.000000
616.498230 132.516750 15.666903 0.000000
618.413820 132.522990 15.738061 0.000000
620.309200 132.528840 15.810543 0.000000
617.311220 132.543700 13.519909 0.000000
619.194820 132.549790 13.593231 0.000000
617.235350 132.527010 15.777887 0.000000
619.116940 132.533200 15.838993 0.000000
616.970400 131.910860 18.042837 0.000000
618.692020 131.345890 18.098438 0.000000
620.414920 130.779500 18.156860 0.000000
616.199770 132.543560 12.103411 0.000000
618.071900 132.549740 12.170698 0.000000
619.923160 132.555020 12.237879 0.000000
616.142580 132.527280 14.334903 0.000000
618.012880 132.533570 14.389414 0.000000
619.862490 132.539520 14.444665 0.000000
616.085450 132.511020 16.565458 0.000000
617.953860 132.517350 16.607227 0.000000
619.801700 132.523410 16.650551 0.000000
615.082640 132.538830 12.067675 0.000000
616.941650 132.544800 12.113935 0.000000
618.778990 132.550770 12.160322 0.000000
620.596070 132.556380 12.206848 0.000000
616.911380 132.529080 14.304506 0.000000
618.746580 132.534970 14.338408 0.000000
620.561650 132.540730 14.373254 0.000000
615.054440 132.522860 14.271538 0.000000
615.026310 132.506960 16.474102 0.000000
616.881100 132.513240 16.493811 0.000000
618.714170 132.519230 16.515272 0.000000
620.527160 132.525050 16.538471 0.000000
614.853270 132.537660 12.070826 0.000000
616.689270 132.543950 12.092332 0.000000
618.503300 132.550170 12.114235 0.000000
620.296750 132.556110 12.136530 0.000000
614.858150 132.522080 14.240877 0.000000
616.691770 132.528590 14.248961 0.000000
618.503300 132.534820 14.258247 0.000000
620.294370 132.540860 14.268723 0.000000
620.291990 132.525630 16.399323 0.000000
614.863160 132.506610 16.409208 0.000000
616.694210 132.513210 16.403910 0.000000
618.503300 132.519530 16.400627 0.000000
613.838130 132.531770 12.632174 0.000000
615.646480 132.538210 12.624811 0.000000
617.431820 132.544590 12.618816 0.000000
619.195680 132.550600 12.614157 0.000000
613.877810 132.516660 14.756097 0.000000
615.682620 132.523160 14.734858 0.000000
617.464540 132.529620 14.715797 0.000000
619.225040 132.535740 14.698862 0.000000
617.497190 132.514650 16.811295 0.000000
619.254330 132.520840 16.782135 0.000000
613.917360 132.501500 16.878416 0.000000
615.718630 132.508100 16.843363 0.000000
611.094480 132.547580 13.370907 0.000000
612.896610 132.526670 13.343298 0.000000
614.684690 132.532620 13.318838 0.000000
616.448970 132.538620 13.296588 0.000000
618.190980 132.544590 13.276491 0.000000
619.912050 132.550230 13.258486 0.000000
612.953120 132.511700 15.432352 0.000000
614.737000 132.517790 15.393611 0.000000
616.497190 132.523860 15.357887 0.000000
618.235110 132.529880 15.325095 0.000000
619.952090 132.535000 15.295156 0.000000
611.156250 132.534610 15.474454 0.000000
614.789310 132.502930 17.467274 0.000000
616.545350 132.509080 17.418137 0.000000
618.279300 132.515200 17.372713 0.000000
619.992370 132.520370 17.330921 0.000000
611.216610 132.518370 17.576700 0.000000
613.009640 132.496770 17.520226 0.000000
620.525630 132.552760 13.018969 0.000000
611.856260 132.522890 13.137861 0.000000
613.636900 132.529020 13.109694 0.000000
615.392580 132.535020 13.083777 0.000000
617.125000 132.541080 13.060060 0.000000
618.835570 132.547070 13.038476 0.000000
620.568600 132.538600 15.019547 0.000000
611.920040 132.508290 15.204534 0.000000
613.696290 132.514540 15.161563 0.000000
615.447690 132.520630 15.121659 0.000000
617.175960 132.526790 15.084743 0.000000
618.882450 132.532870 15.050733 0.000000
620.611570 132.524460 17.019028 0.000000
610.192690 132.503140 17.331263 0.000000
611.983760 132.493770 17.269777 0.000000
613.755620 132.500090 17.212078 0.000000
615.502810 132.506300 17.158257 0.000000
617.226870 132.512510 17.108212 0.000000
618.929320 132.518630 17.061832 0.000000
616.080380 132.539460 13.312424 0.000000
617.779790 132.545470 13.285733 0.000000
619.457700 132.551380 13.261177 0.000000
610.838750 132.521180 13.405939 0.000000
612.611510 132.527440 13.372463 0.000000
614.358150 132.533510 13.341314 0.000000
616.135990 132.525100 15.311604 0.000000
617.831420 132.531140 15.271983 0.000000
619.505550 132.537170 15.235252 0.000000
610.907040 132.506590 15.448671 0.000000
612.675420 132.512910 15.399858 0.000000
614.417850 132.519060 15.354202 0.000000
616.191590 132.510730 17.309826 0.000000
617.883060 132.516880 17.257336 0.000000
619.553340 132.522950 17.208485 0.000000
609.190120 132.499050 17.558159 0.000000
610.975220 132.491910 17.490234 0.000000
612.739260 132.498380 17.426157 0.000000
614.477480 132.504580 17.366066 0.000000
613.388670 132.526920 13.400138 0.000000
615.099610 132.532900 13.369051 0.000000
616.786560 132.538730 13.340185 0.000000
618.451230 132.544590 13.313480 0.000000
620.094670 132.549990 13.288864 0.000000
608.096500 132.508420 13.507425 0.000000
609.889100 132.515260 13.469265 0.000000
611.652590 132.521480 13.433532 0.000000
611.718750 132.507320 15.434488 0.000000
613.450680 132.512820 15.386089 0.000000
615.157530 132.518860 15.340796 0.000000
616.840580 132.524780 15.298507 0.000000
618.501400 132.530750 15.259140 0.000000
620.141170 132.536220 15.222605 0.000000
608.171330 132.493740 15.540980 0.000000
609.959290 132.500340 15.486081 0.000000
611.784910 132.493100 17.434441 0.000000
613.512630 132.498750 17.371111 0.000000
615.215450 132.504820 17.311672 0.000000
616.894590 132.510880 17.256025 0.000000
618.551570 132.516910 17.204052 0.000000
620.187620 132.522420 17.155659 0.000000
608.246400 132.479600 17.573376 0.000000
610.029790 132.486050 17.501831 0.000000
608.999880 132.514250 13.317539 0.000000
610.755980 132.520430 13.275726 0.000000
612.483950 132.526550 13.236375 0.000000
614.185490 132.532620 13.199405 0.000000
615.861820 132.538090 13.164722 0.000000
617.515200 132.544360 13.132305 0.000000
619.146480 132.550170 13.102044 0.000000
607.213620 132.507780 13.361900 0.000000
609.080440 132.500080 15.310709 0.000000
610.832090 132.506580 15.252550 0.000000
612.555660 132.512820 15.197702 0.000000
614.252930 132.518950 15.146051 0.000000
615.925350 132.524980 15.097501 0.000000
617.574520 132.530850 15.051954 0.000000
619.201970 132.536740 15.009322 0.000000
607.299010 132.493740 15.372301 0.000000
617.633850 132.517360 16.970615 0.000000
619.257450 132.523350 16.915670 0.000000
609.161070 132.486340 17.302521 0.000000
610.908140 132.492740 17.228100 0.000000
612.627320 132.499040 17.157835 0.000000
614.320310 132.505310 17.091579 0.000000
615.988650 132.511380 17.029213 0.000000
607.384280 132.479710 17.381256 0.000000
606.217350 132.503250 13.561804 0.000000
608.004030 132.509640 13.512577 0.000000
609.759520 132.515990 13.466000 0.000000
611.485470 132.522060 13.421974 0.000000
613.183780 132.528080 13.380415 0.000000
614.856140 132.534090 13.341242 0.000000
616.504090 132.539920 13.304371 0.000000
618.129030 132.545610 13.269737 0.000000
619.732540 132.551360 13.237274 0.000000
616.567930 132.526550 15.204689 0.000000
618.189090 132.532350 15.157192 0.000000
619.788880 132.538160 15.112597 0.000000
606.307190 132.489330 15.556081 0.000000
608.089170 132.495850 15.489054 0.000000
609.839970 132.502060 15.425571 0.000000
611.561650 132.508450 15.365513 0.000000
613.255740 132.514620 15.308750 0.000000
614.924010 132.520630 15.255177 0.000000
614.991760 132.507250 17.168200 0.000000
616.631770 132.513230 17.104160 0.000000
618.249020 132.519100 17.043861 0.000000
619.845090 132.524980 16.987186 0.000000
606.397030 132.475430 17.549047 0.000000
608.174260 132.482060 17.464312 0.000000
609.920590 132.488600 17.384010 0.000000
611.637820 132.494890 17.307995 0.000000
613.327640 132.501070 17.236103 0.000000
605.122380 132.503450 13.701066 0.000000
606.915710 132.509520 13.659388 0.000000
608.676090 132.515410 13.619658 0.000000
610.405760 132.521320 13.581802 0.000000
612.106200 132.526960 13.545745 0.000000
613.779660 132.533260 13.511441 0.000000
615.426820 132.538150 13.478779 0.000000
617.050110 132.543520 13.447747 0.000000
618.650760 132.548830 13.418281 0.000000
620.230290 132.554200 13.390332 0.000000
618.702210 132.535830 15.275235 0.000000
620.278990 132.541290 15.235299 0.000000
605.199460 132.489650 15.682152 0.000000
606.989140 132.495820 15.621943 0.000000
608.746090 132.501830 15.564610 0.000000
610.472290 132.507840 15.510035 0.000000
612.169490 132.513600 15.458124 0.000000
613.839540 132.519290 15.408773 0.000000
615.483950 132.524930 15.361897 0.000000
617.104370 132.530460 15.317410 0.000000
613.899720 132.506040 17.305599 0.000000
615.541140 132.511780 17.244539 0.000000
617.158630 132.517360 17.186642 0.000000
618.753600 132.522840 17.131798 0.000000
620.327640 132.528350 17.079916 0.000000
605.276490 132.475850 17.662413 0.000000
607.062560 132.482130 17.583742 0.000000
608.815980 132.488280 17.508867 0.000000
610.538760 132.494160 17.437643 0.000000
612.232850 132.500240 17.369926 0.000000
604.089290 132.506100 13.197379 0.000000
605.889340 132.512120 13.159941 0.000000
607.655400 132.518720 13.123825 0.000000
609.388240 132.523560 13.088909 0.000000
611.091740 132.530240 13.055239 0.000000
612.765440 132.534640 13.022644 0.000000
614.412840 132.539980 12.991175 0.000000
616.034970 132.545320 12.960753 0.000000
617.633240 132.550480 12.931337 0.000000
619.209350 132.555600 12.902888 0.000000
604.167240 132.492220 15.166433 0.000000
605.964360 132.498630 15.109792 0.000000
607.726990 132.504290 15.055402 0.000000
609.457400 132.510040 15.003173 0.000000
611.157650 132.515790 14.953013 0.000000
612.829590 132.521900 14.904844 0.000000
614.474120 132.526760 14.858580 0.000000
616.093810 132.532200 14.814154 0.000000
617.689820 132.537450 14.771496 0.000000
619.263610 132.542600 14.730544 0.000000
614.535400 132.513490 16.724987 0.000000
616.152650 132.519040 16.666599 0.000000
617.746340 132.524430 16.610739 0.000000
619.317810 132.529660 16.557322 0.000000
604.245180 132.478320 17.134174 0.000000
606.039250 132.484860 17.058384 0.000000
607.798890 132.490620 16.985809 0.000000
609.526490 132.496490 16.916300 0.000000
611.224060 132.502370 16.849730 0.000000
612.893310 132.508580 16.785986 0.000000
620.138120 130.332120 18.405392 0.000000
603.074340 132.502560 13.118376 0.000000
604.881160 132.508790 13.074713 0.000000
606.652160 132.514950 13.032505 0.000000
608.389340 132.520860 12.991674 0.000000
610.094790 132.526640 12.952166 0.000000
611.770450 132.532390 12.913921 0.000000
613.417850 132.537900 12.876879 0.000000
615.038880 132.543400 12.840992 0.000000
616.635130 132.548830 12.806213 0.000000
618.208070 132.554110 12.772491 0.000000
619.759090 132.559310 12.739788 0.000000
619.819820 132.546570 14.538868 0.000000
603.163450 132.488830 15.076116 0.000000
604.966860 132.495180 15.012623 0.000000
606.734620 132.501460 14.951556 0.000000
608.468750 132.507480 14.892805 0.000000
610.171200 132.513370 14.836274 0.000000
611.843990 132.519200 14.781868 0.000000
613.488650 132.524810 14.729501 0.000000
615.107060 132.530360 14.679091 0.000000
616.700740 132.535920 14.630564 0.000000
618.271180 132.541290 14.583843 0.000000
613.559450 132.511730 16.580849 0.000000
615.175170 132.517360 16.515965 0.000000
616.766360 132.523010 16.453732 0.000000
618.334350 132.528470 16.394056 0.000000
619.880550 132.533830 16.336847 0.000000
603.252440 132.475070 17.032217 0.000000
605.052490 132.481540 16.948965 0.000000
606.817020 132.487950 16.869104 0.000000
608.548100 132.494060 16.792498 0.000000
610.247620 132.500060 16.719002 0.000000
611.917540 132.506010 16.648491 0.000000
615.568850 129.476040 18.395533 0.000000
617.668950 130.676150 18.274717 0.000000
619.324520 130.880910 18.196262 0.000000
613.862550 129.343660 18.479469 0.000000
602.060000 132.496060 13.667355 0.000000
603.874630 132.502200 13.611217 0.000000
605.651920 132.508330 13.556826 0.000000
607.393980 132.514400 13.504086 0.000000
609.102910 132.520230 13.452917 0.000000
610.780580 132.525970 13.403250 0.000000
612.429080 132.531680 13.355012 0.000000
614.049800 132.537110 13.308136 0.000000
615.644530 132.542510 13.262564 0.000000
617.215580 132.549190 13.218269 0.000000
618.762510 132.553120 13.175098 0.000000
620.288570 132.558290 13.133098 0.000000
617.288880 132.535370 15.013367 0.000000
618.833980 132.540680 14.957466 0.000000
620.357730 132.545900 14.903418 0.000000
602.159970 132.482470 15.613955 0.000000
603.971190 132.488740 15.537348 0.000000
605.745180 132.495000 15.463476 0.000000
607.484190 132.501220 15.392217 0.000000
609.190120 132.507190 15.323448 0.000000
610.864870 132.512990 15.257063 0.000000
612.510620 132.518800 15.192953 0.000000
614.128660 132.524350 15.131028 0.000000
615.720890 132.529860 15.071196 0.000000
610.949220 132.500080 17.109787 0.000000
612.592100 132.505980 17.029856 0.000000
614.207520 132.511660 16.952927 0.000000
615.797180 132.517240 16.878876 0.000000
617.362730 132.522800 16.807585 0.000000
618.905460 132.528260 16.738960 0.000000
620.426880 132.533540 16.672899 0.000000
600.412660 132.462270 17.660099 0.000000
602.259890 132.468900 17.559172 0.000000
604.067690 132.475330 17.462156 0.000000
605.838440 132.481740 17.368874 0.000000
607.574340 132.488070 17.279150 0.000000
609.277220 132.494140 17.192837 0.000000
616.168330 132.554170 12.356613 0.000000
599.136660 132.567610 12.719476 0.000000
600.959110 132.504520 12.677764 0.000000
602.786130 132.510480 12.639185 0.000000
604.574650 132.517380 12.601471 0.000000
606.324890 132.522020 12.564463 0.000000
608.041140 132.527740 12.528230 0.000000
609.724610 132.533200 12.492680 0.000000
611.377320 132.538570 12.457783 0.000000
613.001100 132.543930 12.423498 0.000000
614.597780 132.549680 12.389809 0.000000
617.715210 132.559230 12.323954 0.000000
619.239380 132.564180 12.291768 0.000000
620.742430 132.569030 12.260030 0.000000
599.183840 132.484380 14.678155 0.000000
601.049680 132.490810 14.616358 0.000000
602.873900 132.496920 14.556520 0.000000
604.658940 132.502780 14.498540 0.000000
606.407290 132.508700 14.442330 0.000000
608.120970 132.514530 14.387801 0.000000
609.802120 132.520140 14.334867 0.000000
611.452510 132.525630 14.283459 0.000000
613.074100 132.531100 14.233499 0.000000
614.668400 132.536330 14.184923 0.000000
616.237180 132.541490 14.137669 0.000000
617.782040 132.546650 14.091675 0.000000
619.304380 132.551670 14.046886 0.000000
614.739140 132.523540 15.978350 0.000000
616.305970 132.528820 15.917051 0.000000
617.848880 132.534090 15.857763 0.000000
619.369260 132.539180 15.800407 0.000000
599.277280 132.470500 16.636879 0.000000
601.140140 132.477070 16.552811 0.000000
602.961490 132.483340 16.471779 0.000000
604.743840 132.489350 16.393635 0.000000
606.489560 132.495380 16.318243 0.000000
608.200810 132.501340 16.245474 0.000000
609.879520 132.507080 16.175207 0.000000
611.527590 132.512660 16.107334 0.000000
613.146970 132.518190 16.041746 0.000000
609.417050 131.460690 18.055027 0.000000
611.197570 131.690250 17.961245 0.000000
613.230160 132.526820 17.849209 0.000000
614.810000 132.510800 17.771797 0.000000
616.374690 132.516170 17.696480 0.000000
617.915650 132.521500 17.623920 0.000000
619.434200 132.526700 17.554018 0.000000
603.096250 129.543930 18.411451 0.000000
605.063600 129.824890 18.302050 0.000000
607.557070 131.160160 18.155422 0.000000
599.964480 132.487640 13.224242 0.000000
601.802190 132.493840 13.187606 0.000000
603.598820 132.499760 13.151784 0.000000
605.356870 132.505460 13.116728 0.000000
607.078920 132.511550 13.082410 0.000000
608.766480 132.517120 13.048762 0.000000
610.422060 132.522670 13.015757 0.000000
612.046570 132.526860 12.983320 0.000000
613.643740 132.532900 12.951507 0.000000
615.213560 132.537960 12.920202 0.000000
616.758240 132.543000 12.889401 0.000000
618.279300 132.548030 12.859076 0.000000
619.778140 132.552950 12.829189 0.000000
600.044310 132.474560 15.152617 0.000000
601.879580 132.480900 15.093993 0.000000
603.673890 132.486950 15.037248 0.000000
605.429750 132.492800 14.982287 0.000000
607.149600 132.498990 14.929024 0.000000
608.835020 132.504410 14.877373 0.000000
610.488590 132.509950 14.827255 0.000000
612.111820 132.515380 14.778602 0.000000
613.707280 132.521820 14.731346 0.000000
615.274900 132.525990 14.685410 0.000000
616.817930 132.531100 14.640749 0.000000
618.337400 132.536220 14.597300 0.000000
619.834660 132.541180 14.555011 0.000000
612.176700 132.503170 16.572763 0.000000
613.770320 132.509700 16.510090 0.000000
615.336240 132.513960 16.449581 0.000000
616.877620 132.519170 16.391090 0.000000
618.395510 132.524380 16.334547 0.000000
619.891240 132.529430 16.279881 0.000000
598.270260 132.487230 17.162333 0.000000
600.124080 132.461520 17.079588 0.000000
601.956910 132.467970 16.999027 0.000000
603.748900 132.474180 16.921410 0.000000
605.503170 132.481280 16.846563 0.000000
607.220280 132.486480 16.774426 0.000000
608.903690 132.492000 16.704819 0.000000
610.555300 132.497680 16.637630 0.000000
612.646730 130.019700 18.397142 0.000000
614.376160 130.270200 18.309116 0.000000
616.073550 130.529630 18.224087 0.000000
618.164370 131.817600 18.100639 0.000000
619.760990 132.045910 18.024137 0.000000
606.078860 132.518740 12.717720 0.000000
618.789860 132.560780 12.510840 0.000000
598.923650 132.495220 12.834181 0.000000
600.774230 132.501170 12.804056 0.000000
602.582030 132.507280 12.774637 0.000000
604.349430 132.513090 12.745871 0.000000
607.772580 132.524380 12.690155 0.000000
609.432680 132.529970 12.663141 0.000000
611.061100 132.535310 12.636636 0.000000
612.659670 132.540560 12.610616 0.000000
614.230290 132.545810 12.585056 0.000000
615.774410 132.550830 12.559921 0.000000
617.293760 132.555820 12.535191 0.000000
620.264040 132.565600 12.486846 0.000000
597.108220 132.475520 14.808365 0.000000
599.001830 132.482090 14.753613 0.000000
600.849730 132.488190 14.700752 0.000000
602.655090 132.494460 14.649687 0.000000
604.420040 132.500430 14.600325 0.000000
606.147220 132.506180 14.552578 0.000000
607.838750 132.511950 14.506372 0.000000
609.496770 132.517650 14.461631 0.000000
611.123170 132.523130 14.418283 0.000000
612.719790 132.528500 14.376266 0.000000
614.288570 132.533830 14.335518 0.000000
615.830930 132.538940 14.295981 0.000000
617.348570 132.544010 14.257605 0.000000
618.842960 132.549040 14.220335 0.000000
620.315550 132.553960 14.184127 0.000000
609.560790 132.505360 16.258692 0.000000
611.185180 132.510940 16.198544 0.000000
612.779910 132.516390 16.140568 0.000000
614.346800 132.521790 16.084669 0.000000
615.887330 132.527020 16.030767 0.000000
617.403260 132.532170 15.978775 0.000000
618.896060 132.537320 15.928617 0.000000
620.367070 132.542300 15.880225 0.000000
597.189030 132.462280 16.749874 0.000000
599.079900 132.469020 16.671295 0.000000
600.925170 132.475250 16.595760 0.000000
602.727970 132.481630 16.523108 0.000000
604.490660 132.487760 16.453201 0.000000
606.215450 132.493650 16.385914 0.000000
607.904850 132.499510 16.321114 0.000000
617.458010 132.520360 17.700363 0.000000
618.949160 132.525570 17.637337 0.000000
620.418580 132.530670 17.576775 0.000000
609.177800 131.673680 18.090174 0.000000
610.969910 131.968690 18.000641 0.000000
612.628170 132.081730 17.921940 0.000000
614.389650 132.477720 17.835434 0.000000
615.943850 132.515120 17.765949 0.000000
604.944340 130.217070 18.318867 0.000000
606.802430 130.431120 18.224012 0.000000
599.767210 132.507020 12.415760 0.000000
601.587100 132.512650 12.393362 0.000000
603.364990 132.518480 12.371496 0.000000
605.103090 132.524030 12.350113 0.000000
606.803770 132.529370 12.329185 0.000000
608.469360 132.534740 12.308697 0.000000
610.101870 132.540080 12.288617 0.000000
611.703120 132.545150 12.268915 0.000000
613.275090 132.550140 12.249576 0.000000
614.819460 132.555110 12.230577 0.000000
616.337830 132.559910 12.211894 0.000000
617.832030 132.565320 12.193541 0.000000
619.302800 132.569350 12.175416 0.000000
620.752260 132.573940 12.157582 0.000000
596.068480 132.481480 14.397820 0.000000
597.992000 132.506960 14.349759 0.000000
599.840390 132.494020 14.303128 0.000000
601.657650 132.499830 14.258354 0.000000
603.432980 132.505800 14.215181 0.000000
605.168640 132.511490 14.173526 0.000000
606.867000 132.516940 14.133310 0.000000
608.530330 132.522420 14.094474 0.000000
610.160710 132.527860 14.056947 0.000000
611.759890 132.533050 14.020666 0.000000
613.329900 132.538160 13.985579 0.000000
614.872380 132.543270 13.951631 0.000000
616.388850 132.548130 13.918772 0.000000
617.881040 132.552920 13.886956 0.000000
619.350460 132.557740 13.856140 0.000000
608.591190 132.510100 15.878540 0.000000
610.219420 132.515690 15.823615 0.000000
611.816650 132.521000 15.770802 0.000000
613.384580 132.526180 15.720011 0.000000
614.925230 132.531310 15.671153 0.000000
616.439880 132.536320 15.624156 0.000000
617.930360 132.541230 15.578942 0.000000
619.398010 132.546110 15.535442 0.000000
596.147340 132.468170 16.331245 0.000000
598.054140 132.474640 16.258383 0.000000
599.913510 132.481080 16.188484 0.000000
601.728090 132.487010 16.121399 0.000000
603.500850 132.493090 16.056984 0.000000
605.234070 132.498920 15.995117 0.000000
606.930110 132.504520 15.935672 0.000000
614.978090 132.519470 17.390800 0.000000
616.490970 132.524510 17.329693 0.000000
617.979610 132.529510 17.271103 0.000000
619.445620 132.534480 17.214939 0.000000
603.462650 132.314730 17.905451 0.000000
605.299500 132.486360 17.816639 0.000000
606.993230 132.492100 17.738005 0.000000
608.652100 132.497820 17.662611 0.000000
610.278200 132.503480 17.590321 0.000000
611.873350 132.508880 17.521006 0.000000
613.439330 132.514160 17.454540 0.000000
596.164060 129.718720 18.289322 0.000000
598.936770 130.948180 18.139471 0.000000
601.563600 132.121080 17.999146 0.000000
598.844540 132.531040 12.064092 0.000000
600.657410 132.510150 12.051061 0.000000
602.445130 132.515500 12.039400 0.000000
604.191650 132.521060 12.028025 0.000000
605.899050 132.526340 12.016899 0.000000
607.569640 132.531400 12.006006 0.000000
609.205690 132.536500 11.995346 0.000000
611.019650 132.924580 12.001099 0.000000
612.634580 133.025590 11.994985 0.000000
614.172670 133.039460 11.985380 0.000000
615.715210 133.119050 11.978765 0.000000
617.208010 133.152790 11.970374 0.000000
618.679200 133.194180 11.962480 0.000000
620.128850 133.241000 11.954977 0.000000
597.014220 132.485140 13.976692 0.000000
598.890380 132.491150 13.940157 0.000000
600.719790 132.497100 13.905100 0.000000
602.504940 132.502610 13.871438 0.000000
604.249020 132.508300 13.839113 0.000000
605.954040 132.513700 13.808052 0.000000
607.622380 132.518920 13.778196 0.000000
609.256350 132.524140 13.749495 0.000000
610.857850 132.529310 13.721891 0.000000
612.428830 132.534270 13.695337 0.000000
613.971010 132.539140 13.669789 0.000000
615.486150 132.543960 13.645204 0.000000
616.975770 132.548580 13.621541 0.000000
618.441470 132.553160 13.598763 0.000000
619.884770 132.557740 13.576840 0.000000
606.008970 132.501110 15.597335 0.000000
607.675110 132.506420 15.548573 0.000000
609.306880 132.511750 15.501883 0.000000
610.906370 132.517030 15.457175 0.000000
612.475340 132.522110 15.414366 0.000000
614.015620 132.527040 15.373377 0.000000
615.528990 132.531950 15.334133 0.000000
617.016850 132.536670 15.296568 0.000000
618.480900 132.541350 15.260617 0.000000
619.922550 132.546010 15.226221 0.000000
597.081180 132.470610 15.875942 0.000000
598.955320 132.477950 15.815180 0.000000
600.782040 132.484070 15.757072 0.000000
602.564700 132.489750 15.701477 0.000000
604.306270 132.495540 15.648268 0.000000
612.521910 132.509890 17.133390 0.000000
614.060300 132.514920 17.076990 0.000000
615.571840 132.519960 17.023115 0.000000
617.057980 132.524770 16.971674 0.000000
618.520320 132.529510 16.922575 0.000000
619.960390 132.534240 16.875727 0.000000
600.844300 132.471010 17.608763 0.000000
602.624330 132.476780 17.531284 0.000000
604.363530 132.482760 17.457235 0.000000
606.063840 132.488420 17.386473 0.000000
607.727780 132.493870 17.318842 0.000000
609.357420 132.499330 17.254202 0.000000
610.954900 132.504730 17.192423 0.000000
597.127260 132.428130 17.776003 0.000000
599.020260 132.464720 17.689869 0.000000
599.719670 132.504650 12.530966 0.000000
601.519840 132.510310 12.526137 0.000000
603.276490 132.515530 12.521414 0.000000
604.992250 132.520540 12.516796 0.000000
606.670100 132.526090 12.512305 0.000000
608.311520 132.531070 12.507895 0.000000
609.919010 132.536040 12.503579 0.000000
611.494510 132.540990 12.499352 0.000000
613.039860 132.545700 12.495201 0.000000
614.556820 132.550340 12.491126 0.000000
616.047180 132.554990 12.487127 0.000000
617.512330 132.559400 12.483189 0.000000
618.953980 132.563780 12.479316 0.000000
620.373410 132.568180 12.475505 0.000000
596.026670 132.480130 14.434161 0.000000
597.919740 132.486040 14.403963 0.000000
599.764040 132.491910 14.375110 0.000000
601.562320 132.497740 14.347530 0.000000
603.317080 132.503130 14.321162 0.000000
605.031310 132.508670 14.295950 0.000000
606.707210 132.513950 14.271834 0.000000
608.346980 132.519010 14.248768 0.000000
609.952880 132.524120 14.226704 0.000000
611.526980 132.529190 14.205599 0.000000
613.070860 132.534030 14.185410 0.000000
614.586430 132.538770 14.166101 0.000000
616.075990 132.544530 14.147648 0.000000
617.539430 132.548020 14.129985 0.000000
618.979800 132.552520 14.113114 0.000000
620.398070 132.556980 14.096996 0.000000
603.357600 132.490690 16.119829 0.000000
605.070070 132.496350 16.074051 0.000000
606.744260 132.501770 16.030367 0.000000
608.382450 132.507020 15.988682 0.000000
609.986820 132.512240 15.948905 0.000000
611.559390 132.517430 15.910955 0.000000
613.101870 132.522370 15.874761 0.000000
614.616090 132.527220 15.840248 0.000000
616.104310 132.533050 15.807335 0.000000
617.566470 132.536650 15.776007 0.000000
619.005620 132.541240 15.746162 0.000000
620.422730 132.545810 15.717761 0.000000
596.075260 132.467090 16.326017 0.000000
597.966250 132.473180 16.270773 0.000000
599.808410 132.479170 16.218075 0.000000
601.604740 132.485150 16.167797 0.000000
610.020750 132.500370 17.671841 0.000000
611.591800 132.505650 17.617065 0.000000
613.132930 132.510730 17.564878 0.000000
614.645750 132.515660 17.515177 0.000000
616.132140 132.520570 17.467855 0.000000
617.593510 132.525280 17.422836 0.000000
619.031430 132.529940 17.380032 0.000000
620.447330 132.534580 17.339357 0.000000
601.032470 131.584870 18.028749 0.000000
603.399540 132.480270 17.919058 0.000000
605.108890 132.484130 17.852825 0.000000
606.781430 132.489690 17.789595 0.000000
608.417970 132.495040 17.729311 0.000000
596.427550 130.333400 18.238747 0.000000
598.453980 130.519680 18.151556 0.000000
598.813230 132.495820 13.228571 0.000000
600.626040 132.501280 13.229291 0.000000
602.393490 132.506680 13.229994 0.000000
604.118230 132.511670 13.230673 0.000000
605.802980 132.516820 13.231344 0.000000
607.449950 132.521760 13.231997 0.000000
609.061460 132.526490 13.232633 0.000000
610.639590 132.531250 13.233259 0.000000
612.186340 132.535980 13.233874 0.000000
613.703860 132.541320 13.234494 0.000000
615.192630 132.544920 13.235064 0.000000
616.655700 132.549320 13.235645 0.000000
618.094060 132.553570 13.236215 0.000000
619.509220 132.557770 13.236774 0.000000
598.836000 132.483250 15.062487 0.000000
600.647640 132.488860 15.039719 0.000000
602.414060 132.494420 15.018063 0.000000
604.137760 132.499570 14.997468 0.000000
605.821350 132.504490 14.977882 0.000000
607.467650 132.509920 14.959261 0.000000
609.078250 132.514770 14.941562 0.000000
610.655520 132.519670 14.924744 0.000000
612.201480 132.524540 14.908771 0.000000
613.718260 132.529980 14.893608 0.000000
615.206240 132.533690 14.879225 0.000000
616.668640 132.538240 14.865590 0.000000
618.106260 132.542540 14.852678 0.000000
619.520750 132.546840 14.840462 0.000000
602.434630 132.482190 16.806211 0.000000
604.157290 132.487490 16.764360 0.000000
605.840150 132.492950 16.724535 0.000000
607.485350 132.498140 16.686655 0.000000
609.095090 132.503170 16.650633 0.000000
610.671510 132.508130 16.616386 0.000000
612.216610 132.513110 16.583836 0.000000
613.732600 132.518680 16.552900 0.000000
615.219850 132.522490 16.523575 0.000000
616.681520 132.527100 16.495735 0.000000
618.118470 132.531510 16.469353 0.000000
619.532290 132.535890 16.444368 0.000000
598.858760 132.470700 16.896442 0.000000
600.669250 132.476470 16.850208 0.000000
610.985350 130.229770 18.375732 0.000000
612.567440 130.265610 18.325947 0.000000
614.097350 130.257550 18.280800 0.000000
616.118160 131.321530 18.185789 0.000000
617.584410 131.335830 18.144758 0.000000
619.030880 131.359630 18.105423 0.000000
607.132020 129.163510 18.534981 0.000000
608.786870 129.171160 18.480625 0.000000
603.792850 135.597240 11.838777 0.000000
605.376770 135.502320 11.856190 0.000000
606.906980 135.379100 11.871315 0.000000
608.431820 135.295760 11.887388 0.000000
610.025510 135.373550 11.910010 0.000000
611.572750 135.435060 11.930943 0.000000
613.492920 133.605040 11.881639 0.000000
614.916750 133.532000 11.894430 0.000000
613.034850 135.407520 11.946924 0.000000
616.301940 133.428970 11.905132 0.000000
617.712460 133.420810 11.919367 0.000000
619.015930 133.231810 11.924853 0.000000
620.380740 133.214160 11.937294 0.000000
599.811890 132.504410 13.468215 0.000000
601.589540 132.509580 13.469475 0.000000
603.322750 132.514710 13.470704 0.000000
605.013980 132.519420 13.471898 0.000000
606.666080 132.524340 13.473071 0.000000
608.281130 132.529020 13.474215 0.000000
611.409060 132.538380 13.476437 0.000000
614.413270 132.546770 13.478559 0.000000
615.873600 132.550950 13.479591 0.000000
617.308290 132.555150 13.480609 0.000000
618.718690 132.559140 13.481606 0.000000
609.861330 132.533490 13.475333 0.000000
612.925720 132.542770 13.477511 0.000000
620.106380 132.563110 13.482589 0.000000
617.317440 132.544200 15.078982 0.000000
618.727290 132.548260 15.066758 0.000000
620.114560 132.552310 15.055211 0.000000
596.130550 132.481550 15.313648 0.000000
598.004580 132.486740 15.289544 0.000000
599.828490 132.492100 15.266636 0.000000
601.605290 132.497420 15.244858 0.000000
603.337710 132.502720 15.224159 0.000000
605.028140 132.507570 15.204489 0.000000
606.679500 132.512600 15.185795 0.000000
608.293880 132.517430 15.168036 0.000000
609.873410 132.522000 15.151170 0.000000
611.420530 132.527010 15.135157 0.000000
612.936580 132.531510 15.119964 0.000000
614.423520 132.535580 15.105558 0.000000
615.883300 132.539920 15.091907 0.000000
617.326600 132.533190 16.677851 0.000000
618.735900 132.537350 16.652411 0.000000
620.122620 132.541500 16.628336 0.000000
599.845090 132.479830 17.065466 0.000000
601.621030 132.485260 17.020664 0.000000
603.352660 132.490690 16.978046 0.000000
605.042300 132.495700 16.937521 0.000000
606.692990 132.500870 16.898970 0.000000
608.306640 132.505800 16.862316 0.000000
609.886230 132.511660 16.827440 0.000000
611.431950 132.515620 16.794348 0.000000
612.947270 132.519940 16.762903 0.000000
614.433780 132.524410 16.733044 0.000000
615.892940 132.528820 16.704712 0.000000
596.148740 132.468630 17.162086 0.000000
598.022030 132.474290 17.112564 0.000000
616.179870 130.127530 18.404116 0.000000
617.643740 130.140440 18.363609 0.000000
619.088010 130.162900 18.324751 0.000000
606.684140 136.061260 11.855957 0.000000
608.081670 135.810030 11.864285 0.000000
609.613280 135.803420 11.883417 0.000000
611.161320 135.877910 11.905461 0.000000
612.727910 136.043380 11.930849 0.000000
614.082520 135.905210 11.941177 0.000000
614.441530 133.996280 11.868814 0.000000
615.827510 133.922550 11.881128 0.000000
617.176090 133.819950 11.891397 0.000000
618.550660 133.812440 11.905316 0.000000
619.802550 133.588590 11.908720 0.000000
604.240360 132.511230 13.406857 0.000000
605.899050 132.516170 13.408086 0.000000
609.103330 132.526080 13.410469 0.000000
610.653140 132.530700 13.411617 0.000000
612.170900 132.535400 13.412745 0.000000
615.117490 132.544460 13.414935 0.000000
616.549680 132.548800 13.415998 0.000000
617.956790 132.553160 13.417045 0.000000
619.340030 132.557300 13.418070 0.000000
599.007390 132.495210 13.402971 0.000000
600.797060 132.500580 13.404298 0.000000
602.540530 132.505940 13.405594 0.000000
607.519350 132.521220 13.409292 0.000000
613.658450 132.540040 13.413853 0.000000
620.701050 132.561420 13.419081 0.000000
615.128360 132.533680 15.010586 0.000000
616.559940 132.538120 14.997246 0.000000
617.966490 132.542570 14.984619 0.000000
619.349180 132.546780 14.972677 0.000000
620.709660 132.550990 14.961399 0.000000
597.187990 132.477740 15.214052 0.000000
599.025880 132.483120 15.190475 0.000000
600.814640 132.488680 15.168069 0.000000
602.557190 132.494170 15.146771 0.000000
