# .PCD v0.7 - Point Cloud Data file format
VERSION 0.7
FIELDS x y z intensity
SIZE 4 4 4 4
TYPE F F F F
COUNT 1 1 1 1
WIDTH 1166
HEIGHT 1
VIEWPOINT 0 0 0 1 0 0 0
POINTS 1166
DATA ascii
643.135310 346.200070 17.601204 0.000000
635.597110 349.262660 17.805962 0.000000
634.875490 349.680600 17.825090 0.000000
642.654240 346.211980 17.596601 0.000000
642.335210 346.225310 17.593689 0.000000
641.859680 346.244380 17.588264 0.000000
641.380550 346.391660 17.600393 0.000000
641.072140 346.288180 17.578804 0.000000
640.602540 346.279600 17.566586 0.000000
645.507390 342.102050 17.533024 0.000000
640.424680 344.247160 17.708233 0.000000
639.740050 344.548740 17.727440 0.000000
639.405210 344.701900 17.736940 0.000000
639.070430 344.796420 17.738852 0.000000
638.738650 344.895660 17.741032 0.000000
638.406490 344.971410 17.739933 0.000000
638.075930 345.048650 17.738678 0.000000
637.747310 345.131260 17.737759 0.000000
645.073060 342.250670 17.546444 0.000000
644.717770 342.024960 17.514780 0.000000
644.299380 342.136080 17.522915 0.000000
637.261660 345.283290 17.739290 0.000000
636.782590 345.452510 17.742386 0.000000
643.945190 341.868770 17.485285 0.000000
643.113830 342.189240 17.511393 0.000000
643.534480 341.964390 17.490732 0.000000
642.342710 342.129640 17.490154 0.000000
641.180790 342.205630 17.475176 0.000000
640.794070 342.424770 17.493135 0.000000
638.462220 359.635160 18.965899 0.000000
628.418580 359.740140 18.616728 0.000000
627.618650 360.082180 18.566727 0.000000
628.419980 359.254820 18.575781 0.000000
626.790280 360.079350 18.644192 0.000000
628.420960 358.882320 18.543575 0.000000
625.832890 360.077390 18.560106 0.000000
623.466920 360.692110 18.395382 0.000000
623.128780 360.940120 18.382547 0.000000
628.422550 358.371770 18.498281 0.000000
628.421750 358.629090 18.521267 0.000000
624.743590 360.075160 18.464100 0.000000
623.685910 360.118320 18.373896 0.000000
623.577940 360.404750 18.384914 0.000000
628.423650 357.977050 18.462381 0.000000
628.424440 357.566100 18.576939 0.000000
628.425660 357.149080 18.539780 0.000000
628.426880 356.720700 18.501040 0.000000
628.428650 356.126770 18.446249 0.000000
628.427730 356.427030 18.474089 0.000000
628.429500 355.819490 18.417458 0.000000
628.430420 355.504760 18.387672 0.000000
628.432310 354.851140 18.324890 0.000000
628.431400 355.182160 18.356838 0.000000
628.433290 354.511110 18.291759 0.000000
628.434270 354.161560 18.257389 0.000000
628.435300 353.801820 18.221699 0.000000
628.436460 353.431270 18.184608 0.000000
628.438720 352.654510 18.105843 0.000000
628.437500 353.049070 18.146017 0.000000
628.439880 352.246670 18.063972 0.000000
628.447940 351.831540 18.021502 0.000000
629.649480 350.915770 18.006685 0.000000
629.137700 351.243160 18.007383 0.000000
628.864440 351.391480 18.004398 0.000000
628.694820 351.652530 18.020124 0.000000
634.264280 347.265720 17.853825 0.000000
635.850650 340.865230 17.673372 0.000000
635.468020 341.059690 17.679985 0.000000
637.802250 339.650090 17.612364 0.000000
637.410460 339.980960 17.633991 0.000000
636.565250 340.095280 17.619389 0.000000
636.194520 340.437290 17.641800 0.000000
639.038940 338.661190 17.547636 0.000000
638.610470 338.913700 17.561323 0.000000
638.206360 339.343290 17.593195 0.000000
636.940370 339.716030 17.593050 0.000000
640.372800 337.888030 17.504210 0.000000
640.306030 360.889190 19.387953 0.000000
640.001770 360.961730 19.390484 0.000000
639.676700 361.052090 19.390663 0.000000
640.531920 360.554900 19.316616 0.000000
640.190550 360.616670 19.440493 0.000000
639.891910 360.776820 19.458340 0.000000
639.503230 360.964940 19.434948 0.000000
639.144230 361.028990 19.417740 0.000000
640.163820 360.003660 19.362097 0.000000
639.061830 360.605160 19.413305 0.000000
639.941890 359.998380 19.445517 0.000000
639.964360 359.601720 19.380356 0.000000
638.456790 359.622710 19.132345 0.000000
638.341610 359.684270 19.189886 0.000000
628.417600 359.719360 19.041918 0.000000
627.678530 360.078890 19.018805 0.000000
628.419010 359.234160 19.006720 0.000000
626.835690 360.077060 18.962805 0.000000
625.885130 360.074980 18.899446 0.000000
628.420040 358.861790 18.979261 0.000000
624.804200 360.072570 18.827175 0.000000
623.314390 360.641630 18.765285 0.000000
628.421510 358.351260 18.940966 0.000000
628.420780 358.608520 18.960354 0.000000
623.228820 360.308690 18.737511 0.000000
622.621400 360.827150 18.730707 0.000000
628.422610 357.956570 18.910856 0.000000
623.563960 360.069950 18.744030 0.000000
622.482360 360.453700 19.101305 0.000000
628.423770 357.552520 18.879660 0.000000
622.207460 360.063900 19.064734 0.000000
628.424990 357.135500 18.847000 0.000000
628.426150 356.707180 18.813070 0.000000
628.427920 356.113280 18.765314 0.000000
628.427000 356.413480 18.789549 0.000000
628.428770 355.806000 18.740309 0.000000
628.429690 355.491330 18.714502 0.000000
628.431520 354.837710 18.660290 0.000000
628.430600 355.168730 18.687847 0.000000
628.433470 354.148190 18.602261 0.000000
628.434510 353.788510 18.571667 0.000000
628.435610 353.418000 18.539940 0.000000
628.437870 352.641330 18.472757 0.000000
628.436220 353.035400 18.506926 0.000000
628.444700 349.946960 18.643353 0.000000
628.451480 347.766910 18.482000 0.000000
642.450010 360.117520 19.972076 0.000000
642.080080 360.229370 19.832985 0.000000
641.845460 360.193360 19.827038 0.000000
641.627380 360.110690 19.862494 0.000000
641.310850 360.144840 19.813837 0.000000
641.012820 360.194030 19.770231 0.000000
640.655460 360.254390 19.725189 0.000000
639.830930 360.555790 19.533142 0.000000
638.954100 360.977690 19.588070 0.000000
641.166630 359.969090 19.932350 0.000000
640.743840 360.044310 19.882292 0.000000
640.488400 360.165100 19.797897 0.000000
640.032650 360.177800 19.829876 0.000000
639.587830 360.396820 19.647846 0.000000
639.411800 360.543490 19.594639 0.000000
638.964050 360.663020 19.627033 0.000000
638.757080 360.843410 19.719921 0.000000
639.770320 359.878170 19.514267 0.000000
639.512630 360.096130 19.672552 0.000000
639.167420 360.202420 19.761845 0.000000
638.816960 360.365840 19.717659 0.000000
638.652040 360.503080 19.768282 0.000000
639.403930 359.681980 19.674088 0.000000
638.857060 359.809780 19.562487 0.000000
638.697690 360.045200 19.680752 0.000000
639.391170 359.272860 19.631378 0.000000
636.520390 360.149540 19.768059 0.000000
636.022640 360.515320 19.584757 0.000000
639.900150 358.381130 19.684875 0.000000
628.416990 359.705570 19.324181 0.000000
627.737490 360.075650 19.464016 0.000000
626.880680 360.074770 19.278372 0.000000
628.418330 359.220430 19.292791 0.000000
625.936890 360.072540 19.235378 0.000000
628.419740 358.721470 19.260155 0.000000
624.864200 360.069980 19.186399 0.000000
628.420840 358.337620 19.234823 0.000000
623.634160 360.067200 19.130133 0.000000
628.421940 357.942990 19.208553 0.000000
628.423100 357.538940 19.181471 0.000000
628.424260 357.121980 19.153292 0.000000
628.425480 356.693700 19.124157 0.000000
628.427190 356.099820 19.083403 0.000000
628.426330 356.400020 19.104050 0.000000
628.428040 355.792570 19.062168 0.000000
628.428960 355.477910 19.040323 0.000000
628.430790 354.824370 18.994646 0.000000
628.429870 355.155360 19.017830 0.000000
628.430730 354.483580 18.970633 0.000000
628.428470 354.131410 18.945618 0.000000
628.433780 353.775270 18.920528 0.000000
628.435360 353.213710 18.880474 0.000000
628.437010 352.628170 18.838484 0.000000
642.828740 360.063780 20.079628 0.000000
642.525390 360.063660 20.020721 0.000000
642.248230 360.068240 19.964354 0.000000
642.092590 359.969670 20.003916 0.000000
641.741520 359.938110 19.992567 0.000000
641.352170 359.971440 19.937008 0.000000
641.482300 359.684660 20.073645 0.000000
641.143920 359.850130 20.020611 0.000000
640.835570 359.869110 20.012918 0.000000
640.424620 359.961670 19.959724 0.000000
640.018550 360.079930 19.910690 0.000000
638.520870 360.663880 19.907452 0.000000
638.310910 361.010280 20.114910 0.000000
637.933590 360.931700 19.953608 0.000000
641.701480 359.272220 20.122660 0.000000
640.641420 359.672360 20.145658 0.000000
640.291260 359.694340 20.186232 0.000000
639.934630 359.822910 20.132988 0.000000
639.560490 359.957820 20.083231 0.000000
639.221250 360.067690 20.031197 0.000000
638.867740 360.114260 20.041946 0.000000
637.563350 360.842190 20.087244 0.000000
641.025760 359.057680 20.208939 0.000000
639.463440 359.768490 20.269428 0.000000
639.042300 359.816860 20.035326 0.000000
638.814940 359.920530 19.971210 0.000000
636.661680 360.536290 20.085188 0.000000
638.965330 359.373570 19.899361 0.000000
636.864930 360.015230 19.830164 0.000000
636.314330 360.397430 19.957731 0.000000
635.927670 360.364440 19.827209 0.000000
639.431270 358.857330 20.003159 0.000000
636.865480 359.939450 19.947313 0.000000
636.673160 360.020810 19.887115 0.000000
636.090760 360.155670 20.014910 0.000000
635.535220 360.458560 19.958416 0.000000
639.953670 357.905790 19.785301 0.000000
639.712460 358.169340 19.928869 0.000000
639.311280 358.538910 20.178930 0.000000
639.840580 357.895080 19.918509 0.000000
640.181950 357.120450 19.973740 0.000000
638.268860 357.484340 19.950172 0.000000
638.208980 356.683040 19.929878 0.000000
638.125850 356.863680 20.014891 0.000000
628.414730 360.034090 19.904978 0.000000
628.416380 359.691800 19.605881 0.000000
627.795470 360.072330 19.904676 0.000000
626.947330 360.071350 19.746464 0.000000
628.417540 359.138460 19.717899 0.000000
626.013550 360.068970 19.733353 0.000000
628.418820 358.701050 19.694645 0.000000
624.932740 360.060940 19.717718 0.000000
628.419860 358.317230 19.674561 0.000000
623.738040 360.063110 19.701569 0.000000
628.420960 357.922670 19.654026 0.000000
622.146970 360.364720 19.491434 0.000000
628.422420 357.525420 19.482662 0.000000
622.289120 360.060850 19.477596 0.000000
628.423580 357.108520 19.458948 0.000000
628.424800 356.680270 19.434591 0.000000
628.426450 356.086400 19.400814 0.000000
628.420530 356.383360 19.417582 0.000000
628.428710 355.780150 19.383430 0.000000
628.429080 355.142000 19.347097 0.000000
628.428220 355.464540 19.365444 0.000000
628.430050 354.811040 19.328274 0.000000
628.435120 353.009520 19.225807 0.000000
628.435550 351.338010 19.323120 0.000000
639.396670 361.030790 20.451094 0.000000
639.125980 360.984190 20.427773 0.000000
638.812810 360.969730 20.400862 0.000000
639.630130 360.154300 20.436388 0.000000
638.857970 360.712770 20.497509 0.000000
638.515620 360.821720 20.423237 0.000000
638.176390 360.874630 20.392860 0.000000
637.855710 360.981720 20.495672 0.000000
639.580690 360.103420 20.530582 0.000000
638.068730 360.647740 20.545868 0.000000
637.812620 360.828550 20.552116 0.000000
637.291990 360.912200 20.539396 0.000000
637.012450 361.012360 20.503698 0.000000
640.452640 359.089390 20.302656 0.000000
640.156370 359.288360 20.345032 0.000000
639.695500 359.400270 20.439257 0.000000
639.327580 359.575840 20.481237 0.000000
639.125180 359.649050 20.478504 0.000000
640.047240 358.999080 20.409517 0.000000
639.620480 359.143550 20.508598 0.000000
639.218690 359.331970 20.605968 0.000000
638.418880 359.535950 20.280481 0.000000
638.263370 359.615480 20.390827 0.000000
639.728820 358.688540 20.541830 0.000000
638.509340 359.182950 20.520348 0.000000
635.356200 360.311950 20.371609 0.000000
634.931030 360.437290 20.320246 0.000000
634.716920 360.531130 20.405304 0.000000
634.241210 360.771580 20.435015 0.000000
633.937620 361.063840 20.453943 0.000000
636.949770 359.396360 20.573027 0.000000
635.503910 359.771640 20.508759 0.000000
635.170470 359.951720 20.526850 0.000000
634.997740 360.117460 20.536373 0.000000
634.288880 360.458560 20.583479 0.000000
629.795840 360.884950 20.442797 0.000000
629.378170 360.332000 20.438183 0.000000
640.609310 355.616580 20.412050 0.000000
627.834050 360.070220 20.195934 0.000000
628.415100 359.664310 20.168686 0.000000
627.014890 360.068420 20.210115 0.000000
628.416440 359.179380 20.148674 0.000000
626.089480 360.065400 20.226292 0.000000
628.417910 358.680630 20.128798 0.000000
625.040890 360.062410 20.244856 0.000000
623.840700 360.059080 20.266335 0.000000
628.419980 357.902370 20.099140 0.000000
628.420040 357.497860 20.084335 0.000000
622.370480 360.057950 19.886362 0.000000
633.929260 360.841520 20.611511 0.000000
634.543150 360.167660 20.723459 0.000000
634.137760 360.129520 20.924891 0.000000
634.950810 359.457120 20.705040 0.000000
639.271970 357.283810 20.794550 0.000000
639.356810 357.057920 20.738668 0.000000
629.881290 360.695250 20.677166 0.000000
629.403260 360.754910 20.707329 0.000000
629.316040 361.045680 20.722200 0.000000
639.908570 356.142610 20.555582 0.000000
629.389280 360.323210 20.694971 0.000000
640.167480 355.728390 20.581732 0.000000
628.414120 359.643650 20.591408 0.000000
628.415470 359.158810 20.577078 0.000000
628.416630 358.723390 20.564928 0.000000
628.418210 358.283260 20.407114 0.000000
622.451110 360.055080 20.291445 0.000000
628.420040 357.208190 20.378475 0.000000
620.823730 360.050510 20.321123 0.000000
629.202510 360.883540 21.241327 0.000000
639.494810 356.229400 20.894068 0.000000
628.412170 359.978760 21.022833 0.000000
627.948970 360.064030 21.061657 0.000000
628.413150 359.622920 21.015429 0.000000
627.143980 360.061340 21.126108 0.000000
628.414490 359.138210 21.006788 0.000000
628.415410 358.766110 21.001255 0.000000
628.417850 356.610810 20.987661 0.000000
629.194030 360.973270 21.503929 0.000000
629.193540 360.545010 21.497803 0.000000
628.411620 359.964840 21.304264 0.000000
627.986940 360.061950 21.348499 0.000000
628.412540 359.482540 21.441109 0.000000
628.411930 359.721650 21.443110 0.000000
628.413820 359.124390 21.294607 0.000000
626.263610 360.057100 21.359934 0.000000
628.415160 358.625850 21.291754 0.000000
625.214050 360.054930 21.282209 0.000000
628.416260 358.242310 21.290890 0.000000
624.042790 360.051150 21.377796 0.000000
628.417300 357.847960 21.291361 0.000000
628.419070 357.168150 21.294762 0.000000
628.418330 357.444150 21.292942 0.000000
628.419800 356.886690 21.297176 0.000000
628.417420 356.597410 21.300512 0.000000
628.413210 359.110530 21.583767 0.000000
628.414490 358.612060 21.585201 0.000000
628.415530 358.228550 21.587852 0.000000
628.416630 357.834230 21.592173 0.000000
628.418400 357.154480 21.602634 0.000000
628.417660 357.430480 21.597874 0.000000
628.422240 356.874880 21.607771 0.000000
628.420650 355.991670 21.629530 0.000000
628.422850 355.685610 21.638149 0.000000
628.425540 354.730990 21.332687 0.000000
628.425900 354.384400 21.511812 0.000000
628.420900 354.023900 21.697294 0.000000
628.430970 353.672210 21.711000 0.000000
645.112850 356.940890 18.126923 0.000000
644.898130 356.802340 18.119644 0.000000
644.355770 356.852390 18.176640 0.000000
644.094850 356.651060 18.156965 0.000000
643.830810 356.450680 18.136028 0.000000
643.695190 356.354460 18.125788 0.000000
645.585690 354.789730 17.927740 0.000000
645.330260 354.616000 17.913492 0.000000
645.157290 354.503750 17.904083 0.000000
631.746830 359.464900 18.183512 0.000000
631.687620 359.617130 18.197182 0.000000
644.805110 354.288120 17.885441 0.000000
643.016240 354.921140 17.861393 0.000000
631.947880 359.015620 18.144348 0.000000
631.843750 359.239140 18.163687 0.000000
644.349550 354.044980 17.865221 0.000000
644.067380 353.916530 17.855213 0.000000
631.918580 358.678220 18.084936 0.000000
630.359440 359.160980 18.150372 0.000000
643.785950 353.786190 17.843399 0.000000
631.879820 358.318180 18.019358 0.000000
630.407470 358.864560 18.117159 0.000000
645.520870 352.694610 17.848045 0.000000
643.498780 353.668850 17.833260 0.000000
640.103270 354.932620 17.943132 0.000000
632.095640 357.817750 17.964514 0.000000
630.460570 358.449550 18.066916 0.000000
645.098330 352.480380 17.831066 0.000000
641.031010 354.095280 17.743637 0.000000
638.563110 354.960570 17.931511 0.000000
632.379030 357.359220 17.921886 0.000000
630.698970 357.797610 18.004957 0.000000
630.601560 357.964660 18.016516 0.000000
628.814510 358.444120 18.103390 0.000000
644.775090 352.332580 17.819439 0.000000
644.452640 352.182590 17.806021 0.000000
640.209720 353.732420 17.918480 0.000000
632.531430 356.863830 17.850870 0.000000
631.005980 357.300140 17.969469 0.000000
630.799260 357.631590 17.993401 0.000000
628.890080 357.988220 18.057516 0.000000
644.014770 352.000030 17.789631 0.000000
640.017580 353.719120 17.915527 0.000000
636.423400 354.881470 17.818493 0.000000
636.150630 354.908690 17.806831 0.000000
635.785400 354.954040 17.791307 0.000000
632.691040 356.338070 17.771544 0.000000
632.624510 356.550510 17.803789 0.000000
631.442020 356.640260 17.919155 0.000000
631.273250 356.885960 17.938072 0.000000
629.040040 357.699620 18.039959 0.000000
643.569890 351.834560 17.774273 0.000000
643.227970 351.734650 17.765888 0.000000
641.141300 352.806880 17.723169 0.000000
640.937990 352.740020 17.711447 0.000000
635.510380 354.994570 17.779608 0.000000
635.237300 355.049070 17.769686 0.000000
634.873540 355.132930 17.757002 0.000000
634.509580 355.228030 17.744400 0.000000
634.145510 355.334350 17.731865 0.000000
633.782590 355.453670 17.719814 0.000000
633.433470 355.605070 17.713430 0.000000
633.037290 355.861360 17.719927 0.000000
631.526980 356.297820 17.872984 0.000000
629.306150 357.224400 18.010895 0.000000
642.998170 351.675170 17.760883 0.000000
632.015440 355.633580 17.816259 0.000000
631.735170 355.929230 17.835421 0.000000
629.765260 356.475010 17.963593 0.000000
629.587280 356.753750 17.981295 0.000000
645.719360 350.219120 17.771660 0.000000
645.469730 350.097690 17.760836 0.000000
635.983340 353.705780 17.789671 0.000000
635.675420 353.731170 17.776514 0.000000
632.750980 354.911190 17.765404 0.000000
632.450930 355.197630 17.786350 0.000000
632.230040 355.413510 17.801283 0.000000
630.307920 355.779420 17.924931 0.000000
630.086180 356.024810 17.936113 0.000000
629.887080 356.290010 17.951588 0.000000
645.215090 349.987120 17.751280 0.000000
644.959170 349.879430 17.741667 0.000000
641.155400 351.202850 17.701733 0.000000
635.468690 353.750730 17.767460 0.000000
635.162410 353.799770 17.756908 0.000000
634.864440 353.877200 17.751413 0.000000
634.573120 353.975770 17.749130 0.000000
634.186160 354.115200 17.745899 0.000000
633.801150 354.264430 17.742477 0.000000
633.418090 354.423520 17.738838 0.000000
633.059270 354.628200 17.743654 0.000000
630.924500 355.145450 17.894974 0.000000
630.690550 355.381230 17.906530 0.000000
630.459230 355.618770 17.917597 0.000000
644.701540 349.775450 17.732136 0.000000
644.311650 349.627380 17.718071 0.000000
631.630190 354.426480 17.851711 0.000000
631.311100 354.742920 17.871195 0.000000
631.077330 354.983400 17.885542 0.000000
643.786680 349.442260 17.699558 0.000000
632.554930 353.583310 17.796064 0.000000
632.295840 353.809300 17.811518 0.000000
631.958440 354.115330 17.831842 0.000000
643.384580 349.329900 17.688637 0.000000
643.112490 349.270450 17.683136 0.000000
635.580930 352.340300 17.783558 0.000000
635.141850 352.448610 17.779427 0.000000
634.707090 352.576140 17.776857 0.000000
634.382260 352.678280 17.774822 0.000000
634.058350 352.786650 17.772623 0.000000
633.628050 352.939940 17.769562 0.000000
633.206180 353.116270 17.768917 0.000000
632.912170 353.292330 17.776186 0.000000
632.730710 353.434270 17.785576 0.000000
642.839900 349.214290 17.677628 0.000000
642.566770 349.162110 17.672222 0.000000
645.495730 346.628510 17.650724 0.000000
645.176450 346.529450 17.642048 0.000000
644.856510 346.433290 17.633265 0.000000
644.504580 346.446900 17.639196 0.000000
644.212520 346.255710 17.616196 0.000000
643.888920 346.173370 17.607790 0.000000
643.534550 346.221920 17.616962 0.000000
643.231140 346.056150 17.595987 0.000000
642.899720 346.014040 17.591591 0.000000
642.568180 345.976680 17.587339 0.000000
642.071110 345.928890 17.581074 0.000000
631.397400 360.881740 18.326065 0.000000
631.404240 360.628570 18.293949 0.000000
630.249330 361.070310 18.366135 0.000000
631.518740 360.070560 18.236191 0.000000
631.433290 360.292330 18.253115 0.000000
630.281070 360.621400 18.320776 0.000000
631.605770 359.846830 18.218039 0.000000
630.257810 360.130130 18.259018 0.000000
630.263670 360.327910 18.283730 0.000000
628.760440 360.678340 18.340828 0.000000
628.600950 360.933620 18.343592 0.000000
630.273070 359.838870 18.225302 0.000000
628.902950 360.419680 18.334265 0.000000
630.331240 359.356630 18.172153 0.000000
630.305910 359.550780 18.193663 0.000000
628.990230 359.813630 18.282312 0.000000
628.420170 359.876100 18.476351 0.000000
627.835510 360.086980 18.429131 0.000000
626.551330 360.575070 18.322384 0.000000
626.340330 360.877080 18.322630 0.000000
628.944520 359.458650 18.237352 0.000000
628.421200 359.533720 18.443119 0.000000
627.228270 360.085970 18.358715 0.000000
626.847230 360.187290 18.323418 0.000000
626.699580 360.379880 18.323044 0.000000
628.891170 359.086240 18.188280 0.000000
628.422120 359.183620 18.408323 0.000000
625.862790 360.081210 18.511713 0.000000
623.831670 360.849430 18.371687 0.000000
628.842900 358.704620 18.137865 0.000000
628.423520 358.701450 18.358868 0.000000
628.422790 358.944760 18.384027 0.000000
625.052490 360.079740 18.433224 0.000000
624.385250 360.149660 18.373787 0.000000
624.111510 360.496220 18.373211 0.000000
628.424560 358.326840 18.319294 0.000000
628.425660 357.941890 18.277769 0.000000
628.426820 357.542720 18.233624 0.000000
628.427920 357.131070 18.187216 0.000000
628.429570 356.557100 18.120840 0.000000
628.428770 356.847750 18.154675 0.000000
628.430420 356.258790 18.085649 0.000000
628.431150 355.866910 18.193897 0.000000
628.889530 355.053920 17.982340 0.000000
628.535520 355.312960 18.139740 0.000000
629.470030 354.410370 17.952620 0.000000
629.135560 354.776210 17.969786 0.000000
628.433410 354.964450 18.250307 0.000000
638.750730 350.388430 17.856623 0.000000
630.163330 353.694460 17.916782 0.000000
629.812680 354.049930 17.934971 0.000000
628.434390 354.619020 18.212196 0.000000
631.114010 352.880800 17.879286 0.000000
630.714840 353.183840 17.891104 0.000000
630.431880 353.431400 17.902885 0.000000
628.435910 354.077670 18.151657 0.000000
632.676640 351.818880 17.833336 0.000000
632.462830 351.954960 17.839867 0.000000
632.145140 352.161740 17.849281 0.000000
631.727050 352.442900 17.861397 0.000000
631.417910 352.658780 17.870312 0.000000
628.437560 353.511080 18.087463 0.000000
635.250430 350.770390 17.810505 0.000000
634.527770 351.005190 17.813599 0.000000
634.169980 351.132570 17.815163 0.000000
633.813600 351.264280 17.816494 0.000000
633.459050 351.401670 17.817574 0.000000
633.109620 351.551850 17.819927 0.000000
632.892270 351.684630 17.826717 0.000000
628.438660 353.114930 18.042019 0.000000
629.107300 352.405820 18.006544 0.000000
628.766300 352.649380 18.011457 0.000000
630.334720 351.493470 17.976681 0.000000
630.112490 351.661070 17.983356 0.000000
629.782290 351.915560 17.993092 0.000000
629.445310 352.160710 18.000393 0.000000
631.701900 350.515960 17.933222 0.000000
631.470700 350.677610 17.941193 0.000000
631.125370 350.918550 17.952158 0.000000
630.783690 351.162450 17.962858 0.000000
630.558170 351.326930 17.969795 0.000000
632.843750 349.619540 17.874714 0.000000
632.495610 349.889890 17.893253 0.000000
632.152950 350.160890 17.911291 0.000000
631.928340 350.342440 17.923046 0.000000
634.650880 348.669220 17.824516 0.000000
633.853330 349.037200 17.842438 0.000000
633.462100 349.230130 17.851360 0.000000
633.080440 349.441220 17.862240 0.000000
628.447140 349.832120 18.057037 0.000000
630.550290 348.340030 17.999048 0.000000
629.553160 348.879520 18.011457 0.000000
628.448610 349.275540 17.998856 0.000000
631.618470 347.560640 17.958252 0.000000
631.346740 347.752930 17.968534 0.000000
630.960820 348.075500 17.987888 0.000000
630.216310 348.404630 17.991123 0.000000
629.828000 348.382420 17.970921 0.000000
628.976680 348.882170 17.983807 0.000000
628.565670 348.861600 17.961182 0.000000
645.425480 341.751500 17.517500 0.000000
645.074520 341.445470 17.483475 0.000000
644.623110 341.535550 17.494732 0.000000
644.174440 341.644200 17.507648 0.000000
632.805420 345.980290 17.825197 0.000000
632.326970 346.181090 17.830791 0.000000
643.814390 341.341280 17.472559 0.000000
643.372680 341.447420 17.484234 0.000000
643.004700 341.137910 17.447418 0.000000
642.572020 341.216670 17.454990 0.000000
642.129270 341.414700 17.475899 0.000000
638.472660 359.629120 18.995237 0.000000
638.109190 359.837710 19.025591 0.000000
637.846190 359.524260 18.940487 0.000000
628.419560 359.864140 18.737122 0.000000
627.873780 360.083890 18.839193 0.000000
628.420530 359.521670 18.707069 0.000000
627.270750 360.082700 18.787893 0.000000
626.625060 360.080290 18.880478 0.000000
628.421510 359.171570 18.675690 0.000000
626.593690 360.082550 18.582155 0.000000
625.897520 360.078700 18.825491 0.000000
628.422550 358.683170 18.766850 0.000000
628.421880 358.926570 18.788158 0.000000
625.090940 360.076900 18.764221 0.000000
622.815670 360.884550 18.644814 0.000000
628.423650 358.308470 18.733461 0.000000
624.193180 360.075500 18.695763 0.000000
628.424680 357.923370 18.698549 0.000000
623.183590 360.073460 18.618406 0.000000
621.776920 360.325650 18.527328 0.000000
628.425780 357.524080 18.661591 0.000000
622.040650 360.071170 18.530472 0.000000
628.426940 357.112300 18.622860 0.000000
628.428590 356.538120 18.567696 0.000000
628.427730 356.828830 18.595783 0.000000
628.429380 356.239650 18.538538 0.000000
628.430360 355.768800 18.646236 0.000000
628.431700 355.286220 18.601181 0.000000
628.432680 354.951420 18.569538 0.000000
628.433590 354.605870 18.536579 0.000000
628.435120 354.064390 18.484324 0.000000
628.436770 353.497620 18.429008 0.000000
628.437870 353.101380 18.389910 0.000000
628.438960 352.689970 18.348997 0.000000
628.440190 352.262360 18.306135 0.000000
628.441530 351.817350 18.261198 0.000000
628.442750 351.353360 18.213999 0.000000
628.442630 350.867070 18.164091 0.000000
628.438170 350.352750 18.110714 0.000000
628.447390 349.260740 18.411051 0.000000
628.449280 348.675990 18.360168 0.000000
628.450990 348.059910 18.306284 0.000000
628.453250 347.410640 18.249245 0.000000
632.189940 345.291780 18.179501 0.000000
631.015320 345.289030 18.144629 0.000000
632.309570 344.530270 18.112543 0.000000
630.612370 345.288120 18.132097 0.000000
630.203060 345.287170 18.119085 0.000000
629.786990 345.286190 18.105566 0.000000
629.363710 345.285220 18.091526 0.000000
628.936650 345.291560 18.077728 0.000000
632.311890 343.328920 18.001390 0.000000
640.492610 361.005920 19.354136 0.000000
640.188900 361.003910 19.364300 0.000000
639.976750 360.766480 19.454460 0.000000
639.701970 360.811890 19.464760 0.000000
638.429200 359.645020 19.112474 0.000000
637.846190 359.524140 19.240065 0.000000
628.418700 359.846280 19.126135 0.000000
627.911560 360.080810 19.244661 0.000000
628.419620 359.503720 19.100824 0.000000
627.312680 360.079500 19.212132 0.000000
626.656130 360.078060 19.176289 0.000000
628.420590 359.153500 19.074543 0.000000
625.932740 360.076510 19.136612 0.000000
628.421630 358.665040 19.172720 0.000000
628.420960 358.908480 19.190197 0.000000
625.131230 360.074800 19.092457 0.000000
628.422670 358.290190 19.145477 0.000000
624.238950 360.073300 19.043121 0.000000
622.384890 360.457670 18.964081 0.000000
628.423710 357.905000 19.117140 0.000000
623.234130 360.070710 18.987278 0.000000
628.424800 357.505520 19.087324 0.000000
622.098750 360.068240 18.923971 0.000000
628.426330 356.951840 19.045403 0.000000
628.427550 356.519200 19.012199 0.000000
628.428410 356.220640 18.989040 0.000000
628.429260 355.755710 18.952585 0.000000
628.430970 355.273280 18.914412 0.000000
628.431950 354.938390 18.887646 0.000000
628.432860 354.592740 18.859819 0.000000
628.434390 354.051120 18.815811 0.000000
628.435970 353.484190 18.769333 0.000000
628.437070 353.087860 18.736559 0.000000
628.438230 352.676360 18.702318 0.000000
628.440120 352.249540 18.666613 0.000000
628.440610 351.803500 18.629011 0.000000
628.441890 351.339390 18.589691 0.000000
628.443300 350.854950 18.548412 0.000000
628.446470 349.246340 18.822172 0.000000
628.457030 348.674470 18.782978 0.000000
628.450010 348.045320 18.739243 0.000000
631.414180 345.286410 18.614687 0.000000
631.017520 345.285430 18.605974 0.000000
630.615050 345.284480 18.596989 0.000000
630.206120 345.283480 18.587721 0.000000
628.503600 345.288240 18.548275 0.000000
642.492860 360.124360 19.976307 0.000000
642.055420 360.185300 19.858044 0.000000
641.781430 360.294070 19.754459 0.000000
642.195500 360.046300 19.968332 0.000000
641.934020 360.085050 19.909672 0.000000
641.521060 360.039370 19.903271 0.000000
641.167790 360.155730 19.800177 0.000000
640.764400 360.279020 19.708014 0.000000
640.452760 360.343170 19.665949 0.000000
641.303040 359.945370 19.951191 0.000000
640.940730 360.021850 19.896950 0.000000
640.618650 360.095280 19.847050 0.000000
640.318850 360.119780 19.846300 0.000000
640.004090 360.167330 19.845798 0.000000
639.698910 360.440030 19.583305 0.000000
639.036680 360.506710 19.677275 0.000000
638.545840 360.845920 19.875881 0.000000
637.911800 361.064880 19.878298 0.000000
637.742800 361.042140 19.746712 0.000000
639.939940 360.054080 19.938400 0.000000
639.216670 360.231290 19.744778 0.000000
638.137510 359.769650 19.571545 0.000000
636.830630 360.054470 19.784176 0.000000
636.554630 360.166170 19.728285 0.000000
636.047240 360.396240 19.730301 0.000000
635.816280 360.438720 19.784521 0.000000
635.432130 360.574680 19.904308 0.000000
636.479250 360.079250 19.893150 0.000000
636.136840 360.235990 19.896532 0.000000
639.879940 358.355380 19.712893 0.000000
636.266780 357.327760 19.750128 0.000000
628.417480 359.822540 19.642502 0.000000
627.948970 360.077790 19.645437 0.000000
628.418580 359.422150 19.620548 0.000000
627.340390 360.077390 19.492157 0.000000
626.688230 360.076320 19.469969 0.000000
628.419680 359.135530 19.471840 0.000000
625.984380 360.073030 19.598593 0.000000
628.420720 358.646940 19.576921 0.000000
628.420350 358.896480 19.457260 0.000000
625.189330 360.071140 19.579538 0.000000
624.325200 360.067750 19.729141 0.000000
623.129880 360.921840 19.395775 0.000000
628.421690 358.272000 19.555798 0.000000
624.281490 360.070280 19.387356 0.000000
623.158750 360.175350 19.537817 0.000000
622.471800 360.461300 19.347107 0.000000
620.982180 361.071810 19.735340 0.000000
628.422730 357.886660 19.534000 0.000000
622.156370 360.065340 19.313835 0.000000
628.424190 357.493230 19.370115 0.000000
628.425660 356.939390 19.335062 0.000000
628.426880 356.506650 19.307449 0.000000
628.427670 356.208010 19.288271 0.000000
628.428340 355.815830 19.414820 0.000000
628.430240 355.260410 19.226847 0.000000
628.431210 354.925420 19.204939 0.000000
628.432370 354.209440 19.485931 0.000000
628.432070 354.579680 19.182230 0.000000
628.433470 353.938960 19.306784 0.000000
628.435120 353.470830 19.108776 0.000000
628.436280 353.074370 19.082302 0.000000
628.438780 352.235260 19.025949 0.000000
628.439760 351.789700 18.995846 0.000000
628.450810 347.380550 19.138302 0.000000
628.503780 345.275630 19.031786 0.000000
642.706300 359.995640 20.099470 0.000000
642.342960 360.084990 19.972286 0.000000
642.293460 359.887940 20.085176 0.000000
641.907230 359.921360 20.018221 0.000000
641.559810 359.968600 19.955826 0.000000
641.663940 359.820650 20.067654 0.000000
641.414790 359.801450 20.061357 0.000000
641.086980 359.877780 20.001091 0.000000
640.646120 359.901580 19.994957 0.000000
640.371520 359.994600 19.941174 0.000000
638.408200 360.962190 20.291822 0.000000
638.141540 360.981720 20.098055 0.000000
641.089970 359.465000 20.163919 0.000000
640.867550 359.676760 20.159786 0.000000
640.466550 359.712980 20.151424 0.000000
640.114320 359.715580 20.197048 0.000000
639.717710 359.799650 20.187963 0.000000
639.374880 359.909850 20.232721 0.000000
638.449460 360.297120 19.930742 0.000000
637.666080 360.597600 20.124012 0.000000
637.227050 361.039000 20.310101 0.000000
640.586610 359.099950 20.271744 0.000000
639.462590 359.808620 20.235624 0.000000
635.708310 360.596160 20.021961 0.000000
635.350100 360.628940 19.905972 0.000000
634.834110 360.817230 20.035368 0.000000
634.645940 360.891540 20.103979 0.000000
637.039120 359.855830 20.003862 0.000000
636.564090 360.040920 19.892340 0.000000
635.988950 360.213290 20.092995 0.000000
635.601010 360.264860 20.139309 0.000000
635.259160 360.437320 20.147993 0.000000
634.884400 360.579930 20.221100 0.000000
634.577030 360.723210 20.297211 0.000000
636.613710 357.475340 19.928598 0.000000
628.416630 359.804780 20.028971 0.000000
627.986080 360.074770 20.043272 0.000000
628.417660 359.525730 19.887234 0.000000
627.381590 360.074220 19.908848 0.000000
626.732850 360.072540 19.906664 0.000000
628.418760 359.117610 19.868145 0.000000
626.035640 360.069580 20.056717 0.000000
628.419740 358.628880 19.980568 0.000000
628.419430 358.878480 19.857176 0.000000
625.246950 360.067500 20.062351 0.000000
624.368530 360.065220 20.068729 0.000000
623.123540 360.903140 19.755541 0.000000
628.420780 358.253810 19.965548 0.000000
623.358280 360.063780 19.895836 0.000000
628.421750 357.868350 19.950279 0.000000
628.423160 357.474760 19.793566 0.000000
628.424680 356.920750 19.768787 0.000000
620.932920 360.058560 19.683062 0.000000
628.425840 356.487850 19.749540 0.000000
628.426640 356.189090 19.736317 0.000000
628.427860 355.724180 19.714737 0.000000
628.429500 355.247530 19.538776 0.000000
628.427250 354.903440 19.679924 0.000000
628.431580 354.196290 19.812971 0.000000
628.430970 354.560120 19.664953 0.000000
628.434630 353.047490 19.772387 0.000000
628.438600 348.014740 19.170446 0.000000
628.941770 345.276670 19.037727 0.000000
639.267700 360.976140 20.455729 0.000000
639.010380 360.867610 20.461134 0.000000
638.632080 360.978820 20.371349 0.000000
640.764590 360.067440 20.688818 0.000000
640.386230 360.029420 20.670570 0.000000
639.675480 360.157560 20.431068 0.000000
639.204770 360.588990 20.574371 0.000000
638.685490 360.671970 20.521606 0.000000
638.409420 360.813390 20.425598 0.000000
638.035890 360.949280 20.423052 0.000000
639.603880 360.037930 20.638710 0.000000
639.501710 360.082860 20.581762 0.000000
638.969790 360.111450 20.620859 0.000000
638.245480 360.604520 20.532249 0.000000
637.979430 360.711520 20.529116 0.000000
637.439700 360.800050 20.541328 0.000000
637.215210 360.946500 20.542732 0.000000
636.870300 361.009160 20.416250 0.000000
640.068120 359.189090 20.377068 0.000000
639.472230 359.559540 20.461235 0.000000
638.716800 359.525630 20.680071 0.000000
635.876890 359.936830 20.380381 0.000000
635.536990 360.071930 20.391180 0.000000
635.223630 360.255680 20.402023 0.000000
634.787410 360.406220 20.488171 0.000000
634.431400 360.737000 20.370478 0.000000
634.114690 360.759920 20.525867 0.000000
633.898190 360.876980 20.609426 0.000000
636.102660 359.631710 20.507694 0.000000
635.832580 359.689640 20.517872 0.000000
635.315060 359.791560 20.540909 0.000000
635.095760 359.950260 20.548365 0.000000
634.878600 360.192600 20.554438 0.000000
634.312260 360.414860 20.586746 0.000000
629.852050 360.912410 20.397211 0.000000
629.999210 360.502380 20.268324 0.000000
629.888850 360.732030 20.499666 0.000000
628.415410 359.781070 20.544744 0.000000
628.415410 360.016690 20.294180 0.000000
628.416630 359.444180 20.406113 0.000000
627.422550 360.071110 20.322893 0.000000
626.778440 360.069270 20.340504 0.000000
628.417540 359.093690 20.396698 0.000000
626.069580 360.067290 20.360073 0.000000
628.419130 358.616820 20.249722 0.000000
628.418460 358.860470 20.257053 0.000000
625.285160 360.065120 20.381922 0.000000
624.411680 360.062680 20.406454 0.000000
628.420100 358.241700 20.238770 0.000000
628.421140 357.856170 20.227850 0.000000
628.422180 357.456330 20.216957 0.000000
621.000550 360.056000 20.093914 0.000000
628.425540 356.170170 20.184278 0.000000
628.426390 355.863040 20.176991 0.000000
634.060970 360.562260 20.890480 0.000000
636.064510 359.463680 20.782040 0.000000
634.554260 360.174840 20.717131 0.000000
634.188900 360.142640 20.897045 0.000000
634.099120 360.446440 20.891605 0.000000
636.238220 359.007020 20.808702 0.000000
635.920410 359.334410 20.664806 0.000000
635.791320 359.333830 20.672178 0.000000
635.357120 359.292510 20.700891 0.000000
629.392330 360.811650 20.755804 0.000000
629.433410 360.430760 20.746065 0.000000
639.495180 356.295870 20.834288 0.000000
628.415710 359.426300 20.798529 0.000000
626.824770 360.073030 20.627651 0.000000
628.416630 359.075710 20.794178 0.000000
628.418150 358.598720 20.654316 0.000000
628.417540 358.842470 20.657841 0.000000
628.419190 358.223480 20.649471 0.000000
628.420170 357.837800 20.645084 0.000000
628.421020 357.505520 20.641472 0.000000
628.422970 356.889680 20.491966 0.000000
629.283750 360.748200 21.230131 0.000000
639.502380 356.004520 21.047621 0.000000
628.413570 359.745240 21.323559 0.000000
628.254820 360.020480 21.209522 0.000000
627.503910 360.064880 21.145334 0.000000
628.414790 359.408290 21.193090 0.000000
626.868960 360.062810 21.201765 0.000000
628.415710 359.057650 21.193825 0.000000
626.170720 360.060490 21.264280 0.000000
625.398740 360.057950 21.333874 0.000000
628.417240 358.580570 21.060406 0.000000
628.416630 358.824340 21.060114 0.000000
628.418210 358.205200 21.061687 0.000000
628.419860 357.554690 21.065910 0.000000
628.419190 357.819400 21.063854 0.000000
628.421810 354.843080 21.109015 0.000000
629.192630 360.701690 21.477716 0.000000
629.181580 360.995730 21.478485 0.000000
629.191590 360.499240 21.478979 0.000000
629.089230 360.250060 21.494104 0.000000
628.413880 359.390200 21.590141 0.000000
626.899050 360.060610 21.488077 0.000000
628.414790 359.039430 21.595991 0.000000
628.416320 358.562260 21.469372 0.000000
628.415710 358.806120 21.465239 0.000000
628.417180 358.186740 21.476826 0.000000
628.418880 357.536070 21.492325 0.000000
628.418210 357.800870 21.485573 0.000000
628.419920 357.271480 21.355515 0.000000
628.420960 356.852140 21.365585 0.000000
628.422060 356.418640 21.377069 0.000000
628.422790 356.119450 21.385723 0.000000
628.423950 355.653870 21.400312 0.000000
628.425170 355.170100 21.416605 0.000000
628.426030 354.834470 21.428677 0.000000
628.419190 357.258940 21.644060 0.000000
628.420290 356.839510 21.659416 0.000000
628.421390 356.405910 21.676544 0.000000
628.423580 355.482730 21.717602 0.000000
628.427000 354.116970 21.788115 0.000000
628.423030 354.471980 21.769060 0.000000
628.427860 353.746830 21.809002 0.000000
628.429380 353.370540 21.659296 0.000000
628.430600 352.979950 21.504852 0.000000
628.431640 352.567600 21.523718 0.000000
628.432620 352.138950 21.543989 0.000000
628.437870 351.697850 21.565208 0.000000
628.435120 351.228240 21.589073 0.000000
628.447080 349.728270 21.265095 0.000000
628.429810 352.966280 21.855251 0.000000
628.430790 352.553830 21.880817 0.000000
628.431760 352.125060 21.908163 0.000000
628.432920 351.678920 21.937387 0.000000
628.434020 351.213810 21.968658 0.000000
628.435180 350.728300 22.002113 0.000000
628.441350 348.559810 21.734688 0.000000
645.745610 360.019780 18.207138 0.000000
645.372250 359.481480 18.173384 0.000000
645.300170 359.330510 18.157883 0.000000
641.430850 356.752620 18.056015 0.000000
630.223880 360.107480 18.256807 0.000000
641.032470 356.459690 18.015303 0.000000
640.825260 356.319550 17.995155 0.000000
630.336490 359.700990 18.207016 0.000000
630.262270 359.942290 18.235888 0.000000
640.468690 356.098270 17.962688 0.000000
640.146850 356.034120 17.962599 0.000000
630.532900 359.135860 18.138428 0.000000
630.444760 359.378450 18.168049 0.000000
642.761110 355.140720 17.847466 0.000000
639.747070 355.950410 17.958618 0.000000
639.425480 355.893490 17.955639 0.000000
630.661740 358.811800 18.098337 0.000000
629.205020 359.223450 18.199421 0.000000
642.102230 354.704190 17.800083 0.000000
639.183410 355.856690 17.953564 0.000000
639.021610 355.835140 17.952229 0.000000
630.876950 358.326540 18.037643 0.000000
629.238830 358.912290 18.156591 0.000000
641.395020 354.343870 17.762739 0.000000
640.055600 354.912930 17.938168 0.000000
637.549870 355.570950 17.900421 0.000000
631.416320 357.657440 17.975126 0.000000
631.125180 357.973720 18.002010 0.000000
629.360960 358.181760 18.057192 0.000000
629.296390 358.491760 18.098520 0.000000
641.035770 354.162140 17.740797 0.000000
639.247800 354.776610 17.930166 0.000000
637.380980 355.527950 17.888786 0.000000
637.037410 355.448000 17.865192 0.000000
632.020870 357.031590 17.915592 0.000000
631.719970 357.350340 17.948395 0.000000
629.705750 357.721890 18.022617 0.000000
629.529170 357.948850 18.039444 0.000000
642.208860 353.278560 17.782310 0.000000
636.599670 355.358890 17.835522 0.000000
636.152650 355.294800 17.808069 0.000000
632.274780 356.467160 17.822737 0.000000
632.144170 356.750760 17.869637 0.000000
630.076900 357.280210 17.989275 0.000000
629.826720 357.572720 18.011448 0.000000
641.811160 353.079190 17.762100 0.000000
637.514950 354.431670 17.868250 0.000000
637.325560 354.376830 17.855043 0.000000
635.703190 355.273830 17.787666 0.000000
635.340270 355.274480 17.772799 0.000000
634.884030 355.298490 17.756334 0.000000
634.423520 355.337460 17.739880 0.000000
632.692810 355.931520 17.745897 0.000000
632.366390 356.275570 17.790638 0.000000
630.880920 356.442870 17.923685 0.000000
630.672060 356.645940 17.939888 0.000000
630.401370 356.923030 17.961687 0.000000
628.416440 357.406560 18.091999 0.000000
641.619200 352.952060 17.745758 0.000000
637.038090 354.310030 17.837563 0.000000
636.651670 354.256380 17.820210 0.000000
634.051760 355.380680 17.726679 0.000000
633.680910 355.442600 17.715534 0.000000
633.322940 355.546200 17.712467 0.000000
632.993290 355.712650 17.723330 0.000000
631.339170 355.917210 17.868620 0.000000
631.070430 356.211580 17.899075 0.000000
628.623170 356.737430 18.013218 0.000000
628.425540 356.995820 18.032253 0.000000
636.259890 354.212650 17.802851 0.000000
635.862790 354.178890 17.785429 0.000000
635.561520 354.159520 17.772243 0.000000
632.187130 355.227450 17.806396 0.000000
631.950990 355.412260 17.823875 0.000000
631.641780 355.662450 17.846596 0.000000
628.983830 356.330870 17.985554 0.000000
628.772830 356.580080 18.003893 0.000000
635.359560 354.152710 17.764017 0.000000
635.055660 354.153530 17.752943 0.000000
634.553830 354.199920 17.741585 0.000000
634.160400 354.278660 17.739500 0.000000
633.865360 354.345640 17.737984 0.000000
633.471800 354.442810 17.735771 0.000000
633.090580 354.576480 17.739641 0.000000
632.672360 354.865810 17.770020 0.000000
632.346920 355.105710 17.794489 0.000000
629.868960 355.527250 17.936642 0.000000
629.615970 355.733490 17.948332 0.000000
629.284730 356.016360 17.964048 0.000000
636.723450 352.953120 17.813110 0.000000
630.915470 354.749080 17.888926 0.000000
630.649230 354.937440 17.901081 0.000000
630.299010 355.194890 17.917053 0.000000
630.040710 355.393830 17.929102 0.000000
636.285280 352.887660 17.793823 0.000000
635.842040 352.843110 17.776524 0.000000
635.511470 352.846710 17.769501 0.000000
631.891170 354.042630 17.831530 0.000000
631.619140 354.229430 17.847313 0.000000
631.352050 354.421230 17.863037 0.000000
631.088010 354.615570 17.878410 0.000000
641.208250 350.819120 17.681463 0.000000
635.293460 352.869110 17.768066 0.000000
634.967650 352.914860 17.767269 0.000000
634.532780 352.983400 17.765953 0.000000
634.097290 353.061580 17.764412 0.000000
633.770320 353.126430 17.763149 0.000000
633.442930 353.197390 17.761728 0.000000
633.020750 353.335880 17.766996 0.000000
632.635930 353.562560 17.788460 0.000000
632.259830 353.799010 17.810144 0.000000
644.382140 359.655180 18.341261 0.000000
643.969240 359.229490 18.318886 0.000000
643.686950 358.882900 18.288692 0.000000
643.437810 358.602840 18.263660 0.000000
641.989320 357.220090 18.117823 0.000000
641.798650 357.080570 18.102343 0.000000
630.163390 360.530790 18.313864 0.000000
630.134280 360.781280 18.347292 0.000000
630.197510 360.277740 18.279844 0.000000
628.895940 360.490450 18.337564 0.000000
628.657350 360.767360 18.340370 0.000000
629.097290 359.999760 18.297865 0.000000
629.004390 360.349330 18.333515 0.000000
626.575990 360.831790 18.320395 0.000000
629.151430 359.722750 18.265652 0.000000
628.409730 359.809300 18.420839 0.000000
628.125240 360.087590 18.422295 0.000000
627.700070 360.086000 18.497332 0.000000
627.205510 360.131010 18.448137 0.000000
626.861330 360.495120 18.318127 0.000000
629.187380 359.428590 18.227591 0.000000
628.410520 359.418980 18.493469 0.000000
626.737180 360.083340 18.526695 0.000000
626.188420 360.082370 18.471081 0.000000
624.706670 360.509740 18.362068 0.000000
624.435850 360.806550 18.362461 0.000000
624.208800 360.845950 18.658098 0.000000
628.411680 359.022340 18.443140 0.000000
625.591980 360.081360 18.410196 0.000000
625.026370 360.103330 18.507046 0.000000
624.887390 360.317260 18.361719 0.000000
622.839110 360.995670 18.555033 0.000000
639.869320 354.915340 17.944508 0.000000
628.412660 358.670750 18.397844 0.000000
624.275150 360.076600 18.594067 0.000000
623.493900 360.075160 18.529011 0.000000
622.221920 360.537960 18.463232 0.000000
628.413880 358.305240 18.349703 0.000000
622.628170 360.073550 18.456495 0.000000
628.415100 357.796600 18.281191 0.000000
640.570860 353.519100 17.890146 0.000000
640.341130 353.596250 17.911610 0.000000
628.415890 357.389500 18.360800 0.000000
639.741270 353.444180 17.896858 0.000000
639.435060 353.399440 17.894005 0.000000
628.417050 356.971530 18.305195 0.000000
628.418270 356.536560 18.246477 0.000000
637.579160 353.113490 17.851271 0.000000
628.419070 356.234310 18.205095 0.000000
642.141910 351.265840 17.730236 0.000000
640.467530 351.904420 17.883366 0.000000
637.154720 353.028530 17.832268 0.000000
628.420470 355.760650 18.139353 0.000000
640.015560 351.757480 17.866911 0.000000
639.667480 351.688780 17.860590 0.000000
628.421810 355.264710 18.069609 0.000000
628.489380 354.801760 18.162376 0.000000
637.543580 351.485900 17.837883 0.000000
629.402710 354.011660 17.957005 0.000000
629.119870 354.241850 17.972090 0.000000
628.841310 354.476780 17.986994 0.000000
628.423160 354.538090 18.279329 0.000000
637.062500 351.403230 17.821293 0.000000
636.579100 351.380100 17.813131 0.000000
636.214720 351.371830 17.807394 0.000000
630.475340 353.207730 17.901352 0.000000
630.173770 353.415440 17.915558 0.000000
629.784610 353.709630 17.936384 0.000000
628.424260 354.163480 18.231266 0.000000
635.970700 351.369810 17.803535 0.000000
635.725890 351.370480 17.799660 0.000000
635.358460 351.385010 17.795227 0.000000
634.872190 351.440250 17.793959 0.000000
634.509400 351.498500 17.794746 0.000000
632.300600 352.216770 17.836311 0.000000
631.861760 352.434110 17.851646 0.000000
631.535220 352.601140 17.862743 0.000000
631.213500 352.776790 17.874294 0.000000
630.790100 353.020320 17.889910 0.000000
628.425420 353.773470 18.180834 0.000000
640.245060 349.487580 17.824913 0.000000
639.832090 349.454530 17.824907 0.000000
634.150450 351.576930 17.797880 0.000000
633.672790 351.689820 17.801910 0.000000
633.314820 351.779880 17.804674 0.000000
632.967710 351.903530 17.812244 0.000000
632.632750 352.058320 17.824509 0.000000
628.426450 353.366790 18.127842 0.000000
642.098630 348.352450 17.624287 0.000000
628.427610 352.942170 18.072096 0.000000
637.635380 349.411440 17.828447 0.000000
637.225220 349.442290 17.831907 0.000000
630.026250 351.702550 17.983715 0.000000
629.672300 351.901950 17.995033 0.000000
629.305050 352.083250 18.002203 0.000000
628.932800 352.261290 18.007849 0.000000
628.563420 352.449680 18.013987 0.000000
636.812010 349.410340 17.825066 0.000000
636.396240 349.388460 17.818666 0.000000
635.979550 349.382630 17.813822 0.000000
632.052250 350.595920 17.906301 0.000000
631.808590 350.719540 17.915854 0.000000
631.447140 350.910580 17.930279 0.000000
631.087340 351.102360 17.944040 0.000000
630.730770 351.298220 17.957462 0.000000
630.377080 351.498320 17.970764 0.000000
635.561460 349.389070 17.809736 0.000000
635.150210 349.450350 17.813093 0.000000
