# .PCD v0.7 - Point Cloud Data file format
VERSION 0.7
FIELDS x y z intensity
SIZE 4 4 4 4
TYPE F F F F
COUNT 1 1 1 1
WIDTH 174
HEIGHT 1
VIEWPOINT 0 0 0 1 0 0 0
POINTS 174
DATA ascii
638.986150 55.603416 4.676740 0.000000
641.233830 53.746582 4.636908 0.000000
636.905640 36.163551 4.185897 0.000000
644.723140 41.103504 4.276956 0.000000
644.347900 37.856461 4.226709 0.000000
623.547610 37.221077 4.172569 0.000000
636.698910 60.302910 10.254175 0.000000
639.172360 58.849041 10.304386 0.000000
643.347780 59.682343 8.018417 0.000000
624.043150 59.822887 9.882570 0.000000
630.169010 59.461411 10.143465 0.000000
636.312260 58.893532 10.400000 0.000000
636.683590 59.941467 8.061363 0.000000
633.710450 59.270775 10.274813 0.000000
641.320680 58.829025 10.605564 0.000000
624.109070 60.114780 7.823361 0.000000
636.198060 58.956154 10.402374 0.000000
643.363530 59.591736 5.567934 0.000000
636.125490 60.016052 10.234306 0.000000
636.669490 59.878132 9.909214 0.000000
643.490170 59.055328 10.135038 0.000000
635.757080 41.722050 4.278495 0.000000
632.758060 40.045467 4.230711 0.000000
629.920410 38.462498 4.186276 0.000000
627.998780 36.909004 4.137910 0.000000
636.690190 59.869297 5.030403 0.000000
636.706480 59.667938 9.597024 0.000000
630.143800 60.005642 9.659876 0.000000
643.390930 59.726189 6.431058 0.000000
621.161500 59.916203 10.187851 0.000000
626.870240 59.138775 10.403747 0.000000
622.099490 59.292057 10.340382 0.000000
632.594180 40.506302 4.287079 0.000000
626.785580 39.443962 4.250400 0.000000
622.544430 38.377468 4.206118 0.000000
630.162230 60.365738 9.664698 0.000000
635.291140 41.007244 4.262017 0.000000
629.086180 39.983025 4.228065 0.000000
623.240170 39.122597 4.202626 0.000000
624.053100 60.406292 9.416146 0.000000
636.678710 59.983009 9.875862 0.000000
636.679200 59.964432 8.041509 0.000000
624.158450 60.419006 9.749558 0.000000
636.673100 59.821590 10.239746 0.000000
624.031130 60.216560 5.998817 0.000000
635.852910 59.108665 10.283026 0.000000
634.011720 60.709057 10.316469 0.000000
630.146730 60.036232 7.927469 0.000000
630.158450 59.895271 9.967163 0.000000
636.707950 59.614792 9.807454 0.000000
624.020630 60.293793 9.482892 0.000000
630.146180 60.095249 7.859383 0.000000
630.142940 59.966843 9.875629 0.000000
640.363460 59.553421 10.255534 0.000000
640.639830 58.822453 10.571132 0.000000
643.348270 59.527782 9.783318 0.000000
643.969360 60.717850 10.881447 0.000000
644.797240 59.901314 10.844272 0.000000
643.282470 60.526039 10.825728 0.000000
636.732180 60.173851 6.887702 0.000000
636.698180 60.172478 8.991921 0.000000
638.700070 59.388161 10.883004 0.000000
636.992800 59.759651 10.848381 0.000000
635.288700 60.166855 10.813554 0.000000
633.561100 60.552315 10.776149 0.000000
631.822200 60.946136 10.737339 0.000000
633.059940 59.319565 10.713041 0.000000
628.971800 60.424377 10.853465 0.000000
627.051700 60.831604 10.826081 0.000000
624.150330 60.448097 8.735149 0.000000
632.239140 60.955452 10.866762 0.000000
621.466610 60.088173 10.747200 0.000000
623.321780 59.352539 10.777341 0.000000
630.352970 60.099571 8.704529 0.000000
621.138980 59.584175 10.759044 0.000000
624.097530 60.488625 8.308996 0.000000
630.317570 60.170021 8.566143 0.000000
643.511720 59.911705 9.102215 0.000000
622.648680 44.038849 4.161184 0.000000
621.594970 51.743706 4.326962 0.000000
622.127560 54.946896 4.530924 0.000000
626.826970 52.811874 4.355727 0.000000
630.977540 43.702774 4.150305 0.000000
631.562260 45.400620 4.268053 0.000000
620.842830 43.749382 4.190232 0.000000
643.387080 59.151722 10.042809 0.000000
643.351070 51.634972 4.495812 0.000000
640.961240 53.704735 4.638484 0.000000
633.173100 48.731865 4.374506 0.000000
622.198000 45.013390 4.192675 0.000000
623.045900 46.512272 4.288840 0.000000
621.355900 43.535145 4.096047 0.000000
643.899780 50.189667 4.427125 0.000000
640.600280 52.312737 4.578292 0.000000
633.019780 45.600506 4.204298 0.000000
633.959590 47.285851 4.307402 0.000000
621.419490 45.414875 4.261889 0.000000
636.826170 60.500183 4.710578 0.000000
635.199280 58.649921 4.622313 0.000000
624.477910 53.634544 4.437572 0.000000
623.967410 55.246201 4.540010 0.000000
623.453490 56.839279 4.639548 0.000000
630.164490 60.135590 6.899126 0.000000
630.252870 60.017723 9.036551 0.000000
621.801150 58.914181 4.619146 0.000000
622.345340 57.374619 4.533627 0.000000
622.773380 60.518871 4.687541 0.000000
624.040830 60.351814 7.886159 0.000000
624.034610 60.250206 9.854731 0.000000
635.440920 59.450874 10.318531 0.000000
623.161380 61.054264 10.237158 0.000000
624.071960 59.571262 10.202776 0.000000
622.002260 39.390511 4.191776 0.000000
625.939760 40.551315 4.227698 0.000000
630.672240 41.779167 4.262167 0.000000
630.190800 60.143372 9.460426 0.000000
630.187810 60.496201 9.925121 0.000000
636.721860 59.462990 10.137098 0.000000
630.192020 60.285706 9.739332 0.000000
644.301640 60.118481 10.301505 0.000000
636.899660 59.892792 5.731548 0.000000
624.082340 59.843163 9.839521 0.000000
632.741880 59.252281 10.218555 0.000000
636.715090 59.898956 6.348867 0.000000
636.706420 59.867386 8.722726 0.000000
621.125920 59.379856 10.255861 0.000000
626.266970 59.145943 10.537760 0.000000
636.064450 56.638115 4.535628 0.000000
636.983030 54.810516 4.523317 0.000000
638.070980 52.974545 4.509504 0.000000
641.880550 51.321175 4.484081 0.000000
622.303960 59.942574 4.605736 0.000000
621.728330 58.131016 4.601835 0.000000
622.558470 56.560200 4.592353 0.000000
624.046750 60.256973 6.753699 0.000000
643.369320 59.659416 7.085248 0.000000
624.042180 60.247456 8.909192 0.000000
643.368040 59.647278 9.654896 0.000000
624.073490 60.440224 9.568502 0.000000
637.391540 59.042580 10.163183 0.000000
624.068240 60.192787 5.565088 0.000000
643.362240 59.837688 8.289602 0.000000
624.109250 60.201538 9.943388 0.000000
631.304570 59.740349 10.294630 0.000000
637.976680 58.944908 10.617537 0.000000
624.062740 60.187790 5.030185 0.000000
624.055240 60.186775 9.435835 0.000000
643.579350 59.999451 10.299506 0.000000
640.509090 52.246307 4.391282 0.000000
621.067080 53.352547 4.447465 0.000000
623.468690 51.964333 4.449842 0.000000
636.709230 59.840298 9.324621 0.000000
636.129030 48.749203 4.236666 0.000000
629.773250 49.969536 4.250853 0.000000
624.054320 60.135468 8.622168 0.000000
633.125430 49.368568 4.257518 0.000000
639.642940 48.093021 4.244785 0.000000
645.001770 46.497818 4.239636 0.000000
636.628360 46.690857 4.179321 0.000000
642.975340 43.109306 4.196528 0.000000
631.173280 48.053177 4.185851 0.000000
626.107540 46.280270 4.126685 0.000000
628.427310 44.677269 4.133714 0.000000
636.707460 59.943604 6.446957 0.000000
636.696230 59.976166 9.012935 0.000000
623.250000 48.531174 4.290867 0.000000
636.706730 60.063492 5.015842 0.000000
630.201540 60.478626 9.961359 0.000000
637.016240 60.116474 10.247842 0.000000
640.955750 58.866394 10.398482 0.000000
622.327150 59.277557 10.323188 0.000000
628.836300 59.075474 10.625670 0.000000
644.425900 48.432346 4.375087 0.000000
630.132690 40.623505 4.083525 0.000000
