# .PCD v0.7 - Point Cloud Data file format
VERSION 0.7
FIELDS x y z intensity
SIZE 4 4 4 4
TYPE F F F F
COUNT 1 1 1 1
WIDTH 1166
HEIGHT 1
VIEWPOINT 0 0 0 1 0 0 0
POINTS 1166
DATA ascii
667.331790 151.127040 12.506995 0.000000
667.640010 151.726870 12.535776 0.000000
656.320190 160.267200 13.203948 0.000000
657.367860 160.566210 13.211306 0.000000
657.094180 140.844920 12.845964 0.000000
659.139220 159.471830 13.123353 0.000000
659.012150 144.187010 12.987652 0.000000
659.695980 159.258670 13.102965 0.000000
659.683530 144.182570 12.987510 0.000000
653.175960 144.574050 12.992853 0.000000
656.759950 160.121200 13.647838 0.000000
657.148190 160.139450 13.647770 0.000000
657.106080 143.895550 12.973955 0.000000
657.931210 161.048360 13.682409 0.000000
657.689150 144.195740 12.987205 0.000000
658.347530 144.191440 12.987550 0.000000
659.156860 159.420960 13.612743 0.000000
659.712710 159.210850 13.602212 0.000000
658.040100 160.808410 14.126269 0.000000
657.681520 144.190430 13.781477 0.000000
659.003970 144.181640 13.789498 0.000000
653.170230 144.566350 13.761250 0.000000
656.748720 160.132860 14.104335 0.000000
657.103090 143.870650 13.771298 0.000000
657.090820 140.817720 13.708288 0.000000
658.339600 144.186080 13.785469 0.000000
659.132570 159.452840 14.105100 0.000000
659.652340 159.308850 14.105355 0.000000
659.675110 144.177190 13.793569 0.000000
653.164490 144.558650 14.529296 0.000000
657.902650 160.225970 14.577188 0.000000
658.718690 159.390690 14.589121 0.000000
659.128050 159.445540 14.595679 0.000000
659.581480 159.426990 14.603010 0.000000
658.667540 159.480210 15.074154 0.000000
658.642940 158.608120 15.089972 0.000000
659.260500 159.167180 15.095102 0.000000
659.516050 159.535100 15.095123 0.000000
662.326230 161.009570 15.152966 0.000000
653.158750 144.550950 15.297712 0.000000
658.607060 159.589160 15.554218 0.000000
658.633360 158.611710 15.592841 0.000000
659.496520 159.556140 15.587278 0.000000
659.486570 158.702910 15.618980 0.000000
658.579160 159.630630 16.035255 0.000000
659.529360 159.477740 16.087402 0.000000
659.534850 155.570660 15.741571 0.000000
659.804260 159.797320 16.082504 0.000000
653.153020 144.543230 16.067244 0.000000
656.052730 159.827680 16.381498 0.000000
658.638920 158.582410 16.099064 0.000000
659.582460 158.495930 16.145863 0.000000
661.760010 160.394700 16.151257 0.000000
662.087710 160.625730 16.157520 0.000000
662.465330 160.787140 16.170767 0.000000
653.289550 158.818480 16.833492 0.000000
653.644710 158.916900 16.835051 0.000000
653.999690 159.013350 16.837658 0.000000
654.718990 159.170650 16.849562 0.000000
658.531190 159.713940 16.511280 0.000000
658.325440 158.279570 16.613384 0.000000
658.605530 156.566380 16.763985 0.000000
659.672790 158.299580 16.683224 0.000000
659.785400 159.815870 16.574238 0.000000
653.147220 144.535490 16.838627 0.000000
658.473270 159.817900 16.982428 0.000000
658.311040 158.294560 17.122799 0.000000
659.784300 159.802000 17.071205 0.000000
659.752440 158.124100 17.229534 0.000000
658.128780 159.638840 17.463602 0.000000
658.421080 159.910050 17.452551 0.000000
658.406310 158.059770 17.671333 0.000000
659.848330 159.669140 17.589983 0.000000
653.141420 144.527760 17.612572 0.000000
658.122680 157.680680 17.697981 0.000000
659.817990 157.976360 17.782721 0.000000
660.220520 158.112790 17.797792 0.000000
662.875120 157.868840 18.047691 0.000000
653.135680 144.519940 18.389894 0.000000
648.849370 145.294860 19.002523 0.000000
653.129820 144.512130 19.171291 0.000000
645.968080 159.877200 12.418055 0.000000
645.801880 153.295270 12.275949 0.000000
646.331600 160.098310 12.448624 0.000000
646.247680 153.301300 12.282788 0.000000
646.036190 138.257370 11.893436 0.000000
646.956300 159.854660 12.433735 0.000000
646.698490 153.383850 12.295641 0.000000
647.279170 159.799470 12.432788 0.000000
647.138060 153.370700 12.299770 0.000000
647.602970 159.744060 12.431334 0.000000
647.577210 153.361950 12.303764 0.000000
647.927860 159.688450 12.429367 0.000000
648.016110 153.359740 12.307804 0.000000
647.435240 138.024700 11.891428 0.000000
648.417910 159.607120 12.425672 0.000000
648.454590 153.364040 12.311892 0.000000
648.911130 159.525340 12.420947 0.000000
648.137150 137.802280 11.882980 0.000000
649.242550 159.457340 12.415703 0.000000
648.892640 153.372680 12.315838 0.000000
648.846190 137.548310 11.872068 0.000000
649.576600 159.388870 12.409917 0.000000
649.330260 153.387770 12.319828 0.000000
649.913390 159.319980 12.403585 0.000000
649.767330 153.409260 12.323854 0.000000
649.564090 137.291170 11.860470 0.000000
650.253170 159.250700 12.396709 0.000000
650.203920 153.435010 12.327741 0.000000
650.899350 159.534010 12.426334 0.000000
650.646790 153.365750 12.323107 0.000000
650.291500 137.030850 11.848181 0.000000
651.251770 159.383760 12.409296 0.000000
651.086670 153.372850 12.324417 0.000000
651.620910 159.161760 12.384068 0.000000
651.527530 153.380160 12.325245 0.000000
651.021180 136.922940 11.844912 0.000000
651.981140 159.057830 12.370872 0.000000
651.969670 153.387800 12.325597 0.000000
652.339900 158.994930 12.361495 0.000000
652.414180 153.390120 12.324993 0.000000
651.781190 136.439540 11.817680 0.000000
652.703740 158.928100 12.351136 0.000000
653.106020 158.701450 12.323060 0.000000
653.213380 153.948140 12.369018 0.000000
652.533330 136.268420 11.809425 0.000000
653.413820 158.935610 12.343833 0.000000
653.658260 153.932940 12.365437 0.000000
653.256840 136.457520 11.823072 0.000000
653.813050 158.776490 12.321793 0.000000
654.188170 158.742320 12.312571 0.000000
654.125000 153.830780 12.353967 0.000000
654.008300 136.380370 11.819570 0.000000
654.912900 158.805020 12.306491 0.000000
654.592160 158.623030 12.293512 0.000000
654.565430 153.874360 12.354315 0.000000
655.328670 158.683400 12.285881 0.000000
655.006840 153.922030 12.354488 0.000000
654.744320 136.457410 11.825108 0.000000
655.732180 158.623960 12.271339 0.000000
655.488280 153.826970 12.341976 0.000000
655.902160 159.228930 12.329075 0.000000
655.484860 136.510960 11.828622 0.000000
656.564640 160.409590 12.431203 0.000000
656.523930 159.594740 12.350721 0.000000
656.183290 159.492690 12.349065 0.000000
656.335270 154.097810 12.354642 0.000000
656.921940 160.446810 12.424859 0.000000
656.779540 154.167190 12.354546 0.000000
656.274350 136.295410 11.814816 0.000000
657.225650 154.238570 12.354078 0.000000
657.591740 160.239040 12.384268 0.000000
657.076230 136.079380 11.800399 0.000000
657.829220 160.935500 12.444828 0.000000
658.076970 154.512020 12.362812 0.000000
657.729800 154.157470 12.339873 0.000000
658.486080 160.427140 12.373470 0.000000
658.861690 160.482880 12.365684 0.000000
658.569890 154.484440 12.352075 0.000000
659.174560 160.657070 12.370937 0.000000
659.052120 154.500700 12.344518 0.000000
659.662900 160.886870 12.374023 0.000000
659.399540 154.836400 12.364395 0.000000
662.149290 155.467620 12.349955 0.000000
662.674800 155.489840 12.337677 0.000000
663.040950 155.784940 12.349753 0.000000
663.598270 155.780590 12.333535 0.000000
664.172490 157.395810 12.434361 0.000000
664.158570 155.791060 12.317793 0.000000
664.542240 156.073240 12.326781 0.000000
655.779850 145.920150 12.412101 0.000000
656.127690 147.003200 12.478005 0.000000
656.708680 146.998170 12.475659 0.000000
657.657710 160.490070 12.845370 0.000000
657.308230 146.942700 12.469709 0.000000
658.174870 145.973710 12.406098 0.000000
658.935180 159.564450 12.744093 0.000000
658.747500 159.110520 12.713407 0.000000
658.728150 146.179470 12.415483 0.000000
659.425170 159.447690 12.723089 0.000000
659.242370 146.502200 12.431778 0.000000
659.725340 146.900210 12.452403 0.000000
660.283140 147.068340 12.458136 0.000000
660.886780 147.119310 12.455996 0.000000
663.487670 148.451450 12.506903 0.000000
665.547180 149.533340 12.540830 0.000000
666.180850 149.606960 12.535188 0.000000
666.833130 149.668050 12.528099 0.000000
667.493350 149.735570 12.520786 0.000000
667.728270 150.455610 12.556686 0.000000
668.349300 150.593060 12.553041 0.000000
669.083920 150.587860 12.539021 0.000000
656.268800 160.199070 13.280556 0.000000
656.769590 160.337540 13.283634 0.000000
657.217350 160.597660 13.293956 0.000000
657.106570 142.675780 13.010065 0.000000
658.764950 159.060850 13.184940 0.000000
658.982300 159.460570 13.205136 0.000000
656.337520 160.904160 13.737497 0.000000
657.300110 160.404720 13.715845 0.000000
657.053040 160.106350 13.704828 0.000000
657.536250 160.712370 13.727118 0.000000
657.390870 144.197630 13.071806 0.000000
657.920170 160.714550 13.726007 0.000000
658.028630 144.193420 13.072378 0.000000
658.623470 160.873760 13.729562 0.000000
658.991820 159.427920 13.672854 0.000000
658.672550 144.189100 13.072718 0.000000
659.323000 144.184750 13.072824 0.000000
658.021060 144.188160 13.845407 0.000000
659.395140 159.458300 14.145080 0.000000
659.315000 144.179430 13.853736 0.000000
656.351990 160.855480 14.151694 0.000000
656.621220 161.069170 14.157530 0.000000
657.383480 144.192410 13.841302 0.000000
657.103640 142.650570 13.810118 0.000000
658.284060 159.981230 14.147738 0.000000
658.664730 144.183810 13.849550 0.000000
657.799130 160.140900 14.590679 0.000000
658.472350 160.383060 14.601622 0.000000
658.671940 159.199370 14.605349 0.000000
659.374390 159.481370 14.617040 0.000000
658.962280 159.439610 15.078434 0.000000
658.595090 159.336460 15.070704 0.000000
658.581970 158.506640 15.087035 0.000000
659.357480 159.497470 15.088090 0.000000
658.496770 159.516400 15.527341 0.000000
658.566890 158.522030 15.569298 0.000000
659.002080 159.349170 15.552402 0.000000
659.535580 159.549990 15.564939 0.000000
661.487000 161.027820 15.593035 0.000000
658.449830 159.594540 15.984426 0.000000
658.560360 158.519900 16.053177 0.000000
659.665040 159.689590 16.037304 0.000000
659.449770 158.483670 16.096233 0.000000
659.475340 155.634700 15.716717 0.000000
659.923280 158.437160 16.121672 0.000000
661.830260 160.537770 16.107996 0.000000
655.951230 159.959820 16.291147 0.000000
658.404240 159.670170 16.439259 0.000000
659.663270 159.678160 16.512264 0.000000
661.742310 159.286730 16.169014 0.000000
662.166810 159.378590 16.187841 0.000000
652.705080 158.687670 16.725786 0.000000
653.028690 158.849380 16.718500 0.000000
654.017940 159.192490 16.717598 0.000000
654.698360 159.334440 16.731194 0.000000
655.065670 159.325500 16.748928 0.000000
658.347050 159.768910 16.889122 0.000000
658.313480 158.119110 16.557560 0.000000
658.479130 156.775270 16.674477 0.000000
658.558960 158.506790 16.539701 0.000000
659.541500 158.293590 16.611406 0.000000
659.960080 158.354490 16.631170 0.000000
658.287960 159.871370 17.335714 0.000000
658.244870 158.251650 17.033279 0.000000
659.735600 159.536870 17.007303 0.000000
659.630490 158.108380 17.137316 0.000000
659.963750 159.894450 16.990170 0.000000
660.021480 158.226780 17.152817 0.000000
658.039120 154.428440 17.412117 0.000000
658.254030 158.215350 17.530739 0.000000
659.959840 159.886640 17.468821 0.000000
659.934080 157.948300 17.689030 0.000000
648.824340 145.218340 18.902102 0.000000
645.912660 158.591540 12.418327 0.000000
646.135310 151.372700 12.249506 0.000000
646.599670 158.728590 12.445975 0.000000
646.883000 158.292910 12.405640 0.000000
646.594180 151.375000 12.255941 0.000000
647.214840 158.240430 12.405420 0.000000
647.057190 151.455960 12.268371 0.000000
647.547490 158.186250 12.404522 0.000000
647.510800 151.437820 12.272015 0.000000
647.881100 158.131850 12.403101 0.000000
647.964420 151.428600 12.275876 0.000000
648.384160 158.052350 12.400188 0.000000
648.890320 157.972960 12.396283 0.000000
648.418030 151.429400 12.280042 0.000000
649.230100 157.918110 12.392804 0.000000
648.871400 151.472690 12.287187 0.000000
649.572140 157.858730 12.388348 0.000000
649.323060 151.524480 12.294502 0.000000
649.916930 157.793670 12.382789 0.000000
649.772950 151.582340 12.301790 0.000000
650.264650 157.728270 12.376678 0.000000
650.221190 151.642460 12.308741 0.000000
650.919920 158.079220 12.413053 0.000000
650.674800 151.602780 12.306978 0.000000
651.268010 158.022950 12.406325 0.000000
651.123840 151.646760 12.311570 0.000000
651.636960 157.840440 12.385903 0.000000
651.572630 151.690780 12.315647 0.000000
651.994200 157.785350 12.378216 0.000000
652.021480 151.734970 12.319223 0.000000
652.356630 157.722750 12.369186 0.000000
652.742430 157.561580 12.349275 0.000000
652.470890 151.777570 12.322149 0.000000
653.578310 161.067860 12.321991 0.000000
653.421750 157.752000 12.361441 0.000000
653.271360 152.440930 12.373945 0.000000
653.938230 160.902100 12.293221 0.000000
653.823790 157.590550 12.339708 0.000000
653.717160 152.463090 12.373677 0.000000
654.363340 161.052690 12.300369 0.000000
654.192930 157.587510 12.334024 0.000000
654.181030 152.409670 12.366670 0.000000
654.906800 157.697600 12.333179 0.000000
654.591610 157.493060 12.318066 0.000000
654.622800 152.475920 12.368986 0.000000
655.312930 157.608400 12.316516 0.000000
655.099000 152.408040 12.359701 0.000000
655.688780 157.630430 12.311043 0.000000
655.565670 152.400210 12.354817 0.000000
656.115050 157.523530 12.291086 0.000000
655.880550 152.942400 12.395010 0.000000
656.553410 160.170960 12.539780 0.000000
656.450810 157.677540 12.298494 0.000000
656.349610 152.924030 12.388233 0.000000
656.873840 158.568100 12.375108 0.000000
656.853580 157.662750 12.287076 0.000000
656.824280 152.905700 12.380884 0.000000
657.700200 160.811070 12.565399 0.000000
657.433960 160.612660 12.555440 0.000000
657.674870 158.535450 12.349297 0.000000
657.303530 152.891620 12.373295 0.000000
657.117550 141.522450 12.271749 0.000000
657.977050 158.743320 12.360072 0.000000
657.788760 152.878270 12.365163 0.000000
658.073730 153.407170 12.402114 0.000000
658.778320 159.535490 12.408508 0.000000
658.574650 153.361620 12.390182 0.000000
659.020080 153.468190 12.390507 0.000000
659.372130 153.791960 12.408808 0.000000
660.171390 159.999740 12.398596 0.000000
659.935300 159.695510 12.380350 0.000000
660.566470 160.059590 12.387782 0.000000
660.380740 153.775850 12.386974 0.000000
660.896610 160.222780 12.388368 0.000000
661.142760 160.505310 12.402586 0.000000
661.771240 160.881360 12.406742 0.000000
661.538510 160.583690 12.391717 0.000000
663.012210 154.737520 12.393847 0.000000
662.896850 136.501020 11.948301 0.000000
663.570920 154.730510 12.377720 0.000000
664.132510 154.738540 12.362053 0.000000
664.858890 155.358200 12.383780 0.000000
664.500000 155.043500 12.372713 0.000000
656.737730 145.741360 12.523057 0.000000
657.687740 160.822110 12.978356 0.000000
658.137760 160.683140 12.957194 0.000000
657.734130 144.204360 12.428514 0.000000
658.358150 144.200240 12.425508 0.000000
659.197510 159.506960 12.843680 0.000000
658.988530 144.196120 12.422012 0.000000
659.758420 159.269910 12.811694 0.000000
659.625730 144.191930 12.418014 0.000000
660.254330 146.033520 12.520700 0.000000
660.511470 146.992190 12.573994 0.000000
661.114010 147.014620 12.570000 0.000000
661.783390 160.853850 12.863610 0.000000
661.574040 160.524310 12.847729 0.000000
661.716060 147.056610 12.566697 0.000000
662.343140 147.058730 12.560433 0.000000
664.284670 147.065920 12.538366 0.000000
666.601440 147.809780 12.547001 0.000000
667.255430 147.896480 12.541494 0.000000
667.916630 147.989500 12.535751 0.000000
668.129640 148.767620 12.573614 0.000000
668.754520 148.922580 12.570860 0.000000
669.510440 148.910050 12.556491 0.000000
656.520080 161.010210 13.018246 0.000000
656.677370 160.658220 13.391691 0.000000
657.073180 160.578810 13.382645 0.000000
657.776310 160.642320 13.377328 0.000000
657.114500 141.497280 13.074704 0.000000
658.287840 160.398560 13.356901 0.000000
661.781680 160.844150 13.321456 0.000000
661.567570 160.520770 13.308943 0.000000
657.192260 160.320130 13.780746 0.000000
657.042300 159.857270 13.764181 0.000000
657.434510 160.573560 13.789337 0.000000
657.121950 144.150420 13.175595 0.000000
658.104920 160.717930 13.792490 0.000000
657.726810 144.199300 13.178490 0.000000
658.350590 144.195270 13.179180 0.000000
659.217160 159.446430 13.742989 0.000000
658.980770 144.191040 13.179642 0.000000
659.617860 144.186810 13.179878 0.000000
661.779970 160.834470 13.778541 0.000000
661.560910 160.517530 13.769061 0.000000
656.243040 160.819260 14.195779 0.000000
657.231510 160.226090 14.192867 0.000000
657.617000 160.563890 14.201280 0.000000
657.102970 144.193270 13.922995 0.000000
657.121770 141.426620 13.876718 0.000000
658.101560 160.711790 14.207212 0.000000
657.718200 144.199020 13.927472 0.000000
658.343020 144.190380 13.931778 0.000000
658.974000 144.183060 13.936149 0.000000
659.611270 144.177520 13.940596 0.000000
657.986940 160.205580 14.621171 0.000000
658.696590 160.328460 14.633404 0.000000
658.766110 159.491470 14.636524 0.000000
659.644100 159.408720 14.652485 0.000000
658.720090 159.561870 15.078972 0.000000
658.745730 158.753570 15.097182 0.000000
659.249150 159.351030 15.098536 0.000000
659.547610 159.557430 15.102926 0.000000
658.513430 158.385150 15.563669 0.000000
658.703430 159.579040 15.521682 0.000000
658.761470 158.709730 15.559447 0.000000
659.534180 159.566940 15.555156 0.000000
659.596310 158.731140 15.590896 0.000000
659.503850 155.482640 15.721230 0.000000
664.073970 160.996960 15.715328 0.000000
658.326480 159.522060 15.951390 0.000000
658.473750 158.449450 16.023666 0.000000
658.683170 159.602750 15.963870 0.000000
659.527100 159.565800 16.008766 0.000000
659.688960 158.555360 16.076366 0.000000
661.081240 159.189270 16.114025 0.000000
661.551880 160.469090 16.071323 0.000000
661.472720 159.293590 16.130333 0.000000
661.845460 159.432240 16.144268 0.000000
663.048400 160.983730 16.137625 0.000000
655.821110 160.105130 16.213320 0.000000
658.276250 159.603990 16.385147 0.000000
658.471250 158.440080 16.489933 0.000000
658.633240 159.680440 16.400141 0.000000
659.690310 159.278230 16.496635 0.000000
659.785220 159.822080 16.460997 0.000000
659.773990 158.392580 16.570641 0.000000
653.385250 159.177670 16.608559 0.000000
654.014770 159.347980 16.615433 0.000000
654.661560 159.466250 16.631754 0.000000
655.001280 159.483700 16.646330 0.000000
655.539250 159.452610 16.677280 0.000000
658.224120 159.689730 16.816071 0.000000
658.351010 156.936870 16.606178 0.000000
658.575810 159.772050 16.832365 0.000000
659.784730 159.809910 16.917606 0.000000
657.948790 154.754560 17.305786 0.000000
658.348270 159.813930 17.254406 0.000000
658.227840 158.079680 16.978243 0.000000
659.798770 159.774140 17.381023 0.000000
659.847530 158.249680 17.072317 0.000000
658.171810 158.181020 17.436785 0.000000
659.931340 158.088470 17.586643 0.000000
648.806270 145.217100 18.817509 0.000000
646.037230 160.249390 12.422447 0.000000
646.044560 156.295820 12.396837 0.000000
646.338380 160.327450 12.439577 0.000000
646.216430 146.448850 12.092623 0.000000
646.919920 160.422180 12.464370 0.000000
646.668150 155.493900 12.329762 0.000000
647.191890 160.337020 12.459669 0.000000
647.025510 155.386310 12.324981 0.000000
646.765260 146.779300 12.124969 0.000000
647.609070 160.279070 12.460104 0.000000
647.385380 155.277790 12.319587 0.000000
647.299260 147.075040 12.153883 0.000000
648.029300 160.245010 12.462393 0.000000
647.748110 155.168270 12.313570 0.000000
647.815250 147.195430 12.168578 0.000000
648.448670 160.165070 12.457788 0.000000
648.298580 155.007630 12.303849 0.000000
648.871340 160.091800 12.452945 0.000000
648.855830 154.863620 12.294701 0.000000
648.326660 147.328190 12.183593 0.000000
649.155210 160.045720 12.449343 0.000000
649.230350 154.863170 12.297295 0.000000
648.833070 147.467670 12.198499 0.000000
649.440860 159.999400 12.445183 0.000000
649.732970 159.862880 12.429613 0.000000
649.605040 154.862720 12.299316 0.000000
649.334410 147.615950 12.213465 0.000000
650.022710 159.839690 12.427159 0.000000
649.980100 154.862270 12.300770 0.000000
650.313540 159.821090 12.424709 0.000000
650.355900 154.861910 12.301658 0.000000
650.327640 147.812480 12.233947 0.000000
650.753660 159.787350 12.419213 0.000000
651.206240 159.690050 12.404913 0.000000
651.071590 155.238370 12.338817 0.000000
650.817810 147.946990 12.246078 0.000000
651.534360 159.487120 12.377912 0.000000
651.444030 155.238560 12.338051 0.000000
651.304500 148.080260 12.257535 0.000000
651.970030 159.588520 12.385268 0.000000
651.826110 155.179980 12.330927 0.000000
651.788020 148.212480 12.268340 0.000000
652.452640 159.451870 12.362591 0.000000
652.195250 155.229610 12.333883 0.000000
652.268860 148.343730 12.278505 0.000000
652.773250 159.398940 12.351249 0.000000
652.563960 155.282940 12.336634 0.000000
652.746220 148.481220 12.288582 0.000000
652.952090 155.237290 12.329028 0.000000
653.581360 159.316410 12.326022 0.000000
653.335940 155.232130 12.324821 0.000000
653.552550 149.568180 12.369070 0.000000
654.111330 159.157460 12.295493 0.000000
654.052490 155.466090 12.338869 0.000000
654.401670 159.276550 12.301991 0.000000
654.433840 155.490130 12.335790 0.000000
654.030210 149.592970 12.368931 0.000000
654.733640 159.271260 12.292443 0.000000
654.851680 155.395320 12.320211 0.000000
654.523380 149.554810 12.363420 0.000000
655.024290 159.391800 12.297899 0.000000
655.155400 155.701400 12.344145 0.000000
654.983340 149.684160 12.370171 0.000000
655.634280 159.970170 12.343972 0.000000
655.583620 155.598220 12.326437 0.000000
655.487370 149.631040 12.362371 0.000000
656.046200 160.183380 12.353325 0.000000
655.969360 155.644010 12.323040 0.000000
656.449340 160.409700 12.362989 0.000000
656.263310 150.409180 12.413177 0.000000
655.977840 149.652710 12.359726 0.000000
656.898800 160.542720 12.359371 0.000000
656.742370 155.756160 12.316395 0.000000
656.751460 150.418660 12.408559 0.000000
657.129820 160.765700 12.373678 0.000000
657.130250 155.820430 12.312925 0.000000
657.725710 160.960420 12.367542 0.000000
657.459470 160.803530 12.363091 0.000000
657.557620 159.947340 12.674603 0.000000
657.445250 156.065030 12.327350 0.000000
657.245000 150.426510 12.403219 0.000000
657.907840 155.967380 12.305865 0.000000
657.741150 150.442170 12.397878 0.000000
658.350770 155.935090 12.290297 0.000000
658.243040 150.456950 12.391846 0.000000
658.646360 156.223630 12.307492 0.000000
658.554690 150.986220 12.425521 0.000000
659.348270 159.512370 12.572207 0.000000
659.070500 150.970760 12.415991 0.000000
659.570130 151.012050 12.410272 0.000000
659.873230 151.511150 12.440283 0.000000
660.630000 158.165500 12.407286 0.000000
660.428280 151.438950 12.424358 0.000000
661.070370 158.185970 12.391153 0.000000
661.212280 152.007860 12.447766 0.000000
660.878170 151.607440 12.426985 0.000000
661.779110 160.894880 12.579395 0.000000
661.624150 160.528920 12.557980 0.000000
661.655580 158.676360 12.406993 0.000000
661.408450 158.366930 12.392102 0.000000
662.144650 158.657180 12.383755 0.000000
662.385010 158.975160 12.398472 0.000000
662.264650 152.067840 12.427628 0.000000
663.952090 153.013410 12.447385 0.000000
664.529850 153.020890 12.431416 0.000000
665.235290 153.715290 12.455403 0.000000
664.884770 153.367480 12.443584 0.000000
665.829590 153.733550 12.437966 0.000000
666.229250 154.021610 12.443306 0.000000
668.736020 138.771470 12.289352 0.000000
653.279420 144.570710 12.691975 0.000000
657.786010 160.846020 12.745595 0.000000
657.417360 144.198880 12.667513 0.000000
657.104490 143.045840 12.606936 0.000000
658.021120 144.194820 12.664875 0.000000
658.960390 159.478410 13.014402 0.000000
658.631100 144.190800 12.661768 0.000000
659.388920 159.437010 13.000245 0.000000
659.247680 144.186660 12.658176 0.000000
659.871340 144.182570 12.654095 0.000000
661.777470 160.887970 13.019785 0.000000
661.620540 160.524260 13.002639 0.000000
668.226380 146.380550 12.668342 0.000000
668.554810 147.006740 12.692738 0.000000
669.291750 147.025800 12.681040 0.000000
670.054870 147.032790 12.667845 0.000000
657.750180 160.898960 13.141528 0.000000
661.775880 160.881070 13.459031 0.000000
661.615660 160.521290 13.446110 0.000000
653.273800 144.565730 13.391793 0.000000
656.396120 160.128420 13.508848 0.000000
656.708250 160.197630 13.508869 0.000000
657.050050 160.213810 13.505636 0.000000
657.707210 160.324970 13.502717 0.000000
657.411070 144.194020 13.393099 0.000000
657.101680 143.026050 13.354779 0.000000
658.446230 160.944170 13.522206 0.000000
658.014770 144.189940 13.394033 0.000000
658.753910 159.130160 13.861876 0.000000
658.624570 144.185850 13.394754 0.000000
659.389770 159.415370 13.868065 0.000000
659.241090 144.181720 13.395260 0.000000
659.864690 144.177600 13.395546 0.000000
661.774230 160.874180 13.897556 0.000000
661.610780 160.518280 13.888629 0.000000
656.102290 160.742460 14.291688 0.000000
657.581600 160.533550 14.300510 0.000000
658.281130 160.595960 13.907405 0.000000
653.268190 144.560500 14.090811 0.000000
656.450740 160.708880 14.293940 0.000000
656.761840 160.763380 14.296887 0.000000
657.413450 160.179440 14.295316 0.000000
657.812260 160.762470 14.304788 0.000000
658.424680 160.960480 14.311596 0.000000
659.857970 144.172640 14.136132 0.000000
661.772580 160.867310 14.335773 0.000000
661.605900 160.515290 14.330613 0.000000
653.262630 144.554950 14.789728 0.000000
658.931700 159.485960 14.726097 0.000000
658.655520 159.281020 14.722562 0.000000
658.622310 158.631320 14.727110 0.000000
659.338930 159.477330 14.733849 0.000000
661.771000 160.860440 14.774109 0.000000
658.768740 159.417280 15.150446 0.000000
658.634160 158.598850 15.168499 0.000000
659.322330 159.494030 15.165037 0.000000
659.148740 156.016920 15.253911 0.000000
659.728940 159.499690 15.177443 0.000000
662.592410 160.984920 15.239780 0.000000
653.257080 144.549270 15.489216 0.000000
658.495850 159.539290 15.561364 0.000000
658.624510 158.605500 15.609453 0.000000
659.002560 159.346630 15.590703 0.000000
659.504030 159.518550 15.604040 0.000000
659.520870 156.148300 15.758546 0.000000
659.655090 155.000610 15.817677 0.000000
656.070980 160.018170 16.229780 0.000000
658.457150 159.596690 15.979007 0.000000
658.418580 158.229540 16.066690 0.000000
658.632020 158.580840 16.054005 0.000000
659.623780 159.643190 16.037884 0.000000
659.504030 158.493850 16.104136 0.000000
660.016240 158.353000 16.140236 0.000000
661.653440 160.419820 16.110661 0.000000
661.630860 159.263280 16.176371 0.000000
661.954710 160.613020 16.118696 0.000000
662.048030 159.330320 16.197712 0.000000
663.093380 160.953550 16.174456 0.000000
653.401180 159.226090 16.575962 0.000000
653.251530 144.543550 16.189953 0.000000
654.938660 159.491290 16.617401 0.000000
655.269780 159.495760 16.634516 0.000000
655.612610 159.481670 16.655060 0.000000
655.954220 159.483000 16.674553 0.000000
658.413570 159.662660 16.394087 0.000000
658.354550 158.339780 16.502737 0.000000
659.641240 159.606020 16.477879 0.000000
659.600400 158.320980 16.580500 0.000000
660.038640 158.306030 16.609966 0.000000
658.358030 159.749590 16.804583 0.000000
658.349910 158.337280 16.951153 0.000000
659.693910 158.152680 17.067020 0.000000
659.877560 159.865570 16.909805 0.000000
659.809810 159.333770 16.956972 0.000000
660.067140 158.248990 17.085600 0.000000
653.246150 144.536350 16.892727 0.000000
658.300170 159.840670 17.212107 0.000000
658.113830 158.007710 17.424999 0.000000
659.873840 159.861300 17.349173 0.000000
653.240360 144.532090 17.597843 0.000000
659.775700 158.003810 17.561266 0.000000
660.138180 158.122990 17.578638 0.000000
663.266850 157.724230 17.923347 0.000000
653.234740 144.526320 18.306389 0.000000
648.776120 145.224180 18.839333 0.000000
663.010440 150.555760 18.744349 0.000000
653.229060 144.520540 19.018898 0.000000
652.066650 137.767650 11.762263 0.000000
652.723510 137.792650 11.765045 0.000000
653.332760 138.226500 11.795849 0.000000
646.353820 140.289980 11.899899 0.000000
647.574890 140.232670 11.909608 0.000000
648.183960 140.124830 11.907791 0.000000
648.796330 139.994170 11.903687 0.000000
649.412720 139.894810 11.901129 0.000000
650.036620 139.679500 11.889705 0.000000
650.665650 139.526370 11.881997 0.000000
651.319950 139.093170 11.853877 0.000000
653.208310 160.524960 12.337917 0.000000
653.634220 160.509230 12.322713 0.000000
653.114690 144.568540 12.241724 0.000000
653.918520 160.511400 12.313395 0.000000
653.891910 157.620530 12.340571 0.000000
654.205510 160.515400 12.303596 0.000000
654.759340 160.960240 12.338534 0.000000
654.713440 157.679460 12.326818 0.000000
655.168760 157.841810 12.331734 0.000000
655.547550 157.753450 12.310673 0.000000
655.918700 157.704450 12.293464 0.000000
656.217770 157.842830 12.298054 0.000000
656.786620 158.563310 12.352755 0.000000
656.552310 157.899840 12.292133 0.000000
657.831790 158.996980 12.353274 0.000000
658.330570 159.422060 12.372540 0.000000
658.559080 154.346680 12.350350 0.000000
658.907530 154.548020 12.356953 0.000000
659.703310 160.260060 12.381513 0.000000
659.412230 160.114500 12.383953 0.000000
659.297730 154.664640 12.354548 0.000000
659.962280 160.451430 12.384583 0.000000
660.340030 160.752300 12.389856 0.000000
662.420290 155.790440 12.328759 0.000000
662.733580 156.062120 12.336123 0.000000
663.246770 157.396060 12.412652 0.000000
663.261050 156.046130 12.311604 0.000000
663.569030 157.633090 12.414530 0.000000
664.189270 158.138430 12.419899 0.000000
645.892150 158.450910 12.421412 0.000000
646.482180 158.376340 12.427775 0.000000
646.771480 158.296280 12.425102 0.000000
646.448300 152.537830 12.264458 0.000000
647.062810 158.221190 12.422475 0.000000
646.847900 152.535290 12.270735 0.000000
647.508000 158.177580 12.425431 0.000000
647.246340 152.532870 12.276396 0.000000
647.955690 158.159790 12.430243 0.000000
647.643800 152.530470 12.281443 0.000000
648.364810 161.068210 12.455407 0.000000
648.252440 158.114780 12.428864 0.000000
648.040650 152.528090 12.285874 0.000000
648.735110 161.017870 12.452485 0.000000
648.700070 158.051450 12.426165 0.000000
648.635070 152.524170 12.291269 0.000000
649.232300 160.963010 12.448399 0.000000
649.150450 157.984010 12.421867 0.000000
649.229430 152.521620 12.295580 0.000000
649.607480 160.932450 12.445362 0.000000
649.452940 157.938780 12.418220 0.000000
649.625850 152.519880 12.297646 0.000000
649.984560 160.914870 12.442671 0.000000
649.913880 157.822360 12.406042 0.000000
650.022830 152.518190 12.299110 0.000000
650.362730 160.907500 12.440222 0.000000
650.378360 157.736760 12.396240 0.000000
650.420530 152.516540 12.299977 0.000000
650.745360 160.888120 12.434661 0.000000
650.686710 157.731930 12.394909 0.000000
651.139890 160.811540 12.420056 0.000000
651.158870 157.673680 12.385869 0.000000
651.160400 153.086590 12.352899 0.000000
651.542420 160.734950 12.403887 0.000000
651.643490 157.567920 12.370155 0.000000
651.551640 153.085530 12.352016 0.000000
651.950320 160.666280 12.387517 0.000000
651.955020 153.008350 12.343492 0.000000
652.365110 160.606450 12.370708 0.000000
652.260380 157.661510 12.373932 0.000000
652.341060 153.072510 12.347442 0.000000
652.784000 160.559310 12.354296 0.000000
652.746400 157.631810 12.363540 0.000000
652.721190 153.169560 12.353845 0.000000
653.198670 157.764470 12.370713 0.000000
653.125430 153.135730 12.347501 0.000000
653.559940 157.626430 12.348301 0.000000
653.521000 153.161670 12.346086 0.000000
653.291020 146.945800 12.408098 0.000000
653.787110 147.007600 12.410938 0.000000
654.243770 153.515410 12.369612 0.000000
654.627750 153.589610 12.370912 0.000000
655.045780 153.546980 12.360613 0.000000
654.804260 147.026180 12.407475 0.000000
655.367860 153.839800 12.381281 0.000000
655.319520 147.027660 12.404300 0.000000
655.792480 153.793030 12.369305 0.000000
655.837040 147.036530 12.401044 0.000000
656.390500 161.030470 12.623930 0.000000
656.517580 160.160400 12.529268 0.000000
656.180600 153.872060 12.368570 0.000000
656.358090 147.047840 12.397348 0.000000
656.958190 154.042140 12.366325 0.000000
656.880680 147.069460 12.393764 0.000000
657.804690 160.875730 12.542121 0.000000
657.347720 154.133180 12.364802 0.000000
657.398930 147.120150 12.391626 0.000000
657.871220 159.577100 12.409910 0.000000
657.678530 154.369030 12.376663 0.000000
657.909180 147.206990 12.391449 0.000000
658.126830 154.331540 12.361343 0.000000
658.431270 147.267150 12.388734 0.000000
658.956910 147.329100 12.385502 0.000000
659.225950 148.076340 12.431291 0.000000
659.762210 148.100890 12.424229 0.000000
660.276000 148.194400 12.421517 0.000000
660.527100 148.891970 12.462572 0.000000
661.054500 148.948440 12.456028 0.000000
661.593870 160.526860 12.719488 0.000000
661.586850 149.008320 12.449026 0.000000
662.921080 157.164400 12.410717 0.000000
663.146480 150.371380 12.499408 0.000000
665.430050 151.460240 12.502811 0.000000
665.708190 151.937670 12.522431 0.000000
666.288020 151.999650 12.507943 0.000000
666.672910 152.329350 12.514500 0.000000
667.323490 152.327910 12.492941 0.000000
667.714540 152.659640 12.498245 0.000000
668.782100 153.004290 12.479549 0.000000
669.753720 137.325650 12.470221 0.000000
653.112060 144.546800 12.917901 0.000000
656.784240 160.889570 12.952497 0.000000
656.821900 160.207600 12.895108 0.000000
657.588130 160.364120 12.881111 0.000000
657.118650 144.155940 12.895243 0.000000
657.111570 141.840970 12.785164 0.000000
657.911130 160.697950 12.895817 0.000000
657.690120 144.196350 12.894923 0.000000
658.279240 144.192440 12.892004 0.000000
659.060060 159.462250 13.164449 0.000000
658.874760 144.188460 12.888618 0.000000
659.531800 159.346280 13.144100 0.000000
659.477170 144.184510 12.884762 0.000000
661.591130 160.524050 13.145513 0.000000
656.452090 160.274730 13.280212 0.000000
656.713440 160.405500 13.282644 0.000000
657.157290 160.205660 13.259647 0.000000
657.605960 160.620510 13.274217 0.000000
658.213500 160.204760 13.232686 0.000000
659.566410 159.287730 13.559167 0.000000
661.588380 160.521240 13.570351 0.000000
653.107480 144.539110 13.593961 0.000000
656.853880 160.132450 13.635388 0.000000
657.369380 160.429840 13.641408 0.000000
657.115230 144.145140 13.596824 0.000000
657.108640 141.825650 13.535593 0.000000
657.904720 160.695110 13.644855 0.000000
657.685000 144.191710 13.599110 0.000000
658.274110 144.187770 13.599888 0.000000
658.869630 144.183790 13.600458 0.000000
659.506840 159.369660 13.980110 0.000000
659.472050 144.179810 13.600818 0.000000
661.585630 160.518450 13.994415 0.000000
656.237980 160.675870 14.378170 0.000000
656.933590 159.974090 14.003800 0.000000
656.721440 159.727330 13.998228 0.000000
657.554380 160.693500 14.019368 0.000000
658.052250 160.734420 14.018439 0.000000
658.718930 160.538910 14.396377 0.000000
661.588680 160.508990 14.418112 0.000000
653.102840 144.531390 14.269549 0.000000
657.496770 160.193820 14.385243 0.000000
658.055540 160.439040 14.390793 0.000000
658.669310 158.817930 14.386970 0.000000
659.041140 159.470580 14.393229 0.000000
653.098270 144.523700 14.945328 0.000000
658.701600 159.390660 14.796453 0.000000
658.702880 158.754120 14.805004 0.000000
659.086490 159.393200 14.803845 0.000000
659.413510 159.495150 14.808936 0.000000
658.628480 159.501450 15.197293 0.000000
658.720520 158.717010 15.225228 0.000000
659.396910 159.513120 15.220975 0.000000
659.429320 158.854110 15.242588 0.000000
653.093690 144.515990 15.621930 0.000000
658.517400 158.389560 15.653950 0.000000
658.574400 159.581680 15.595441 0.000000
658.736630 158.682340 15.647848 0.000000
659.541870 159.586140 15.637258 0.000000
659.531190 158.688770 15.681046 0.000000
661.293700 160.832990 15.662356 0.000000
655.857180 160.105590 16.193935 0.000000
658.516480 159.664540 16.191114 0.000000
658.477600 158.451170 16.072889 0.000000
659.666380 159.689610 16.052464 0.000000
659.539790 159.285680 16.072323 0.000000
659.636050 158.518480 16.129747 0.000000
661.674130 160.385940 16.131100 0.000000
661.998230 160.536060 16.143219 0.000000
663.064450 160.923630 16.192738 0.000000
652.589290 158.866560 16.546276 0.000000
653.378780 159.296980 16.525356 0.000000
653.089110 144.508240 16.300014 0.000000
654.208560 159.543700 16.534492 0.000000
655.129580 159.571300 16.580362 0.000000
655.959470 159.518970 16.635658 0.000000
658.308040 159.689410 16.779148 0.000000
658.477970 158.442570 16.499002 0.000000
658.403810 157.877180 16.545479 0.000000
658.554930 156.849330 16.648182 0.000000
659.666810 159.682220 16.469406 0.000000
659.733890 158.358950 16.587488 0.000000
653.084470 144.500530 16.980228 0.000000
658.137940 159.658490 17.172312 0.000000
658.378230 159.870250 17.166634 0.000000
658.240840 158.165910 16.939728 0.000000
659.723690 159.593430 16.901688 0.000000
659.925720 159.880620 16.889261 0.000000
659.807370 158.237150 17.049715 0.000000
658.212040 158.210110 17.364374 0.000000
659.923520 159.877000 17.310057 0.000000
659.881770 158.113710 17.521097 0.000000
653.079830 144.492720 17.663216 0.000000
653.075200 144.484920 18.349686 0.000000
663.013730 150.486830 18.758768 0.000000
648.760070 145.230060 18.851254 0.000000
653.070310 144.478270 19.040096 0.000000
650.046330 137.520550 11.853788 0.000000
650.695680 137.338320 11.844494 0.000000
651.361760 137.019550 11.825051 0.000000
652.051090 136.575840 11.796270 0.000000
652.710020 136.600310 11.799133 0.000000
653.358340 136.726070 11.808243 0.000000
654.032230 136.653630 11.802902 0.000000
654.522770 137.795910 11.880783 0.000000
655.145140 137.963960 11.890606 0.000000
655.765500 138.131740 11.899686 0.000000
656.383240 138.303650 11.908325 0.000000
646.365170 150.924550 12.237076 0.000000
646.774110 150.920820 12.243490 0.000000
646.279910 138.540240 11.890152 0.000000
647.181880 150.917210 12.249273 0.000000
647.590090 150.938420 12.256709 0.000000
647.997130 150.969530 12.264416 0.000000
647.521120 138.392880 11.894173 0.000000
648.402530 150.996110 12.271070 0.000000
648.142400 138.230880 11.888976 0.000000
648.806640 151.027730 12.277558 0.000000
648.768800 138.025180 11.880070 0.000000
649.209660 151.059220 12.283407 0.000000
649.611760 151.090580 12.288623 0.000000
649.402040 137.835140 11.871587 0.000000
650.013240 151.121830 12.293210 0.000000
650.736510 155.920610 12.328628 0.000000
650.414310 151.153050 12.297180 0.000000
651.061340 155.897170 12.324614 0.000000
652.000240 156.111420 12.341188 0.000000
651.720460 155.833040 12.312742 0.000000
652.335140 156.060970 12.331604 0.000000
652.650820 156.121260 12.334013 0.000000
653.202700 159.378890 12.342398 0.000000
652.965760 156.185330 12.336237 0.000000
653.625000 159.380460 12.329670 0.000000
653.597470 156.310880 12.338524 0.000000
653.909240 159.385830 12.320829 0.000000
653.921200 156.349620 12.335943 0.000000
654.335940 159.410200 12.308398 0.000000
654.284300 156.264620 12.318339 0.000000
654.766050 159.441890 12.295512 0.000000
654.732180 156.467930 12.329015 0.000000
655.370420 160.108540 12.352049 0.000000
655.052610 159.473750 12.287438 0.000000
655.614620 160.223570 12.354370 0.000000
655.543880 156.618130 12.321783 0.000000
656.098390 160.463230 12.358547 0.000000
655.857420 160.341480 12.356487 0.000000
655.913940 156.574800 12.305356 0.000000
656.456670 160.652160 12.361327 0.000000
656.193300 156.762240 12.315672 0.000000
656.804870 160.859130 12.365580 0.000000
656.838260 156.935760 12.310286 0.000000
656.558110 156.751130 12.301554 0.000000
656.634580 152.625520 12.366683 0.000000
657.213440 156.920490 12.294083 0.000000
657.432740 157.933980 12.388104 0.000000
657.455870 157.180790 12.310810 0.000000
657.772340 157.980580 12.377806 0.000000
658.484680 153.374340 12.383341 0.000000
659.573670 153.876860 12.391069 0.000000
660.018550 159.264630 12.385399 0.000000
659.961120 154.002370 12.388197 0.000000
660.518250 159.678300 12.393209 0.000000
660.264770 159.476360 12.390270 0.000000
660.310670 154.199390 12.391786 0.000000
660.779540 159.870930 12.394221 0.000000
660.736630 154.268710 12.381829 0.000000
661.172240 160.161210 12.394567 0.000000
661.800960 160.678820 12.396820 0.000000
661.450620 160.577510 12.411915 0.000000
663.113830 155.130650 12.350765 0.000000
663.430910 155.398150 12.356121 0.000000
663.814450 155.582280 12.351704 0.000000
664.229310 156.987630 12.430868 0.000000
664.197570 155.772200 12.347090 0.000000
664.886050 157.463750 12.429434 0.000000
664.539790 157.243730 12.432611 0.000000
664.593630 155.952390 12.340518 0.000000
645.966550 160.061540 12.420696 0.000000
645.962220 157.048030 12.402422 0.000000
646.358830 160.115040 12.440785 0.000000
646.402950 156.924040 12.399529 0.000000
646.865360 160.143360 12.459206 0.000000
646.696900 156.827820 12.395306 0.000000
647.226380 160.041520 12.454409 0.000000
647.147770 156.747190 12.395204 0.000000
647.591370 159.951830 12.450199 0.000000
647.602420 156.686160 12.396219 0.000000
647.960450 159.875900 12.446505 0.000000
647.904300 156.611560 12.392256 0.000000
648.332400 159.809660 12.443018 0.000000
648.208130 156.536410 12.387671 0.000000
648.581970 159.770540 12.440635 0.000000
648.832820 159.736310 12.438350 0.000000
648.668580 156.430530 12.380445 0.000000
649.211240 159.692660 12.434825 0.000000
649.133730 156.316380 12.371143 0.000000
649.591670 159.658940 12.431500 0.000000
649.447570 156.239490 12.364084 0.000000
649.974180 159.637100 12.428333 0.000000
649.764470 156.162030 12.356375 0.000000
650.084720 156.084050 12.348013 0.000000
650.358220 159.624250 12.425215 0.000000
650.413210 155.949230 12.332612 0.000000
650.874690 159.607640 12.418948 0.000000
651.141110 159.561600 12.409780 0.000000
651.167970 151.686310 12.346205 0.000000
651.545040 159.502290 12.396089 0.000000
651.561100 151.716520 12.348251 0.000000
651.952450 159.456250 12.382922 0.000000
651.964540 151.676510 12.343287 0.000000
652.365540 159.418790 12.369282 0.000000
652.350830 151.768250 12.349741 0.000000
652.735230 151.864460 12.356003 0.000000
653.142210 151.837400 12.350380 0.000000
653.541750 151.863220 12.348972 0.000000
653.848390 152.305020 12.385200 0.000000
654.269350 152.230500 12.373371 0.000000
654.654910 152.313080 12.375385 0.000000
655.081360 152.254260 12.363672 0.000000
655.342410 145.738100 12.420701 0.000000
655.802860 152.603850 12.381754 0.000000
655.798710 146.011120 12.435903 0.000000
656.183170 152.712040 12.383699 0.000000
656.254390 146.265340 12.449258 0.000000
656.944700 160.067730 12.623376 0.000000
656.570620 146.993960 12.495255 0.000000
657.323180 160.531230 12.650564 0.000000
657.147340 160.280490 12.634727 0.000000
656.937440 152.951800 12.387941 0.000000
657.086670 146.989170 12.489478 0.000000
657.797850 160.827190 12.654540 0.000000
657.312320 153.080060 12.389927 0.000000
657.990230 161.040310 12.664299 0.000000
658.067260 159.894960 12.551395 0.000000
658.055540 153.357250 12.394007 0.000000
657.983760 145.818760 12.401071 0.000000
658.807130 153.624620 12.394605 0.000000
658.475950 145.984120 12.405746 0.000000
659.186280 153.756560 12.393749 0.000000
658.962280 146.166090 12.411005 0.000000
659.484500 159.449450 12.432892 0.000000
659.214970 146.960780 12.459275 0.000000
659.735660 147.025890 12.455191 0.000000
660.238160 147.146220 12.454406 0.000000
660.664000 147.447110 12.466017 0.000000
661.232120 147.432370 12.454199 0.000000
661.738590 147.565000 12.452368 0.000000
661.975830 148.237140 12.489521 0.000000
663.061830 148.365460 12.472775 0.000000
664.067810 149.664050 12.526080 0.000000
666.330630 150.831390 12.528074 0.000000
666.649290 151.249570 12.541388 0.000000
667.611080 151.675690 12.532887 0.000000
667.268010 151.287770 12.523217 0.000000
667.992550 152.015010 12.538021 0.000000
668.672300 152.020980 12.514259 0.000000
669.496830 152.658100 12.517183 0.000000
657.757870 160.367860 12.973801 0.000000
657.358280 144.198900 12.980993 0.000000
657.105220 143.033490 12.928170 0.000000
657.111880 140.659240 12.818170 0.000000
658.060300 160.430540 12.966474 0.000000
657.926880 144.195140 12.978307 0.000000
658.501650 144.191310 12.975172 0.000000
659.058470 159.501560 12.854220 0.000000
659.083070 144.187500 12.971583 0.000000
659.671630 144.183580 12.967523 0.000000
661.447630 160.570570 13.224933 0.000000
656.584960 160.681790 13.383105 0.000000
656.251400 160.154370 13.358620 0.000000
657.171630 160.227720 13.340786 0.000000
657.534300 160.708280 13.359793 0.000000
658.777770 159.355260 13.245252 0.000000
659.079960 159.464770 13.242824 0.000000
661.446040 160.567260 13.629680 0.000000
656.131770 160.937290 13.739454 0.000000
656.522580 160.784500 13.727736 0.000000
657.384340 160.415160 13.699889 0.000000
657.183230 160.202150 13.694075 0.000000
657.102480 143.020110 13.630706 0.000000
657.108890 140.644230 13.570954 0.000000
658.173580 160.760850 13.701152 0.000000
657.874510 160.696270 13.703579 0.000000
657.922060 144.190670 13.661537 0.000000
658.496830 144.186810 13.662220 0.000000
659.078250 144.182980 13.662701 0.000000
659.666810 144.179030 13.662974 0.000000
661.444460 160.563950 14.033756 0.000000
656.183410 160.837570 14.066121 0.000000
657.336790 160.485890 14.054428 0.000000
657.058780 159.843600 14.040741 0.000000
658.144470 160.797290 14.058013 0.000000
657.922300 160.619400 14.055082 0.000000
658.520870 160.755070 14.415385 0.000000
658.213810 160.692170 14.412724 0.000000
659.531310 159.361040 14.020071 0.000000
656.308470 160.604200 14.397414 0.000000
657.854550 159.645650 14.405705 0.000000
658.722470 159.416410 14.604789 0.000000
658.713870 158.859180 14.608077 0.000000
659.139160 159.355710 14.807454 0.000000
659.423340 159.498830 14.811296 0.000000
661.441220 161.028840 14.439408 0.000000
661.442870 160.560620 14.437544 0.000000
658.644590 159.523610 15.179234 0.000000
658.774480 158.755460 15.208317 0.000000
659.406860 159.515790 15.204474 0.000000
658.597600 159.587830 15.558762 0.000000
658.567020 158.484100 15.210768 0.000000
659.174800 156.129440 15.308001 0.000000
659.538270 159.596950 15.601179 0.000000
659.465450 158.880220 15.226509 0.000000
661.467900 160.986480 15.633602 0.000000
658.560850 159.636640 15.937563 0.000000
658.786870 158.729740 15.610626 0.000000
658.554080 158.498280 15.612532 0.000000
659.661320 159.689380 15.998338 0.000000
659.490660 159.387700 16.008213 0.000000
659.576600 158.713990 15.646437 0.000000
659.584110 155.406270 15.816893 0.000000
658.385860 159.620250 16.311455 0.000000
658.542790 158.509670 16.014927 0.000000
659.661740 159.683090 16.396353 0.000000
659.684630 158.552110 16.075857 0.000000
660.936100 159.107730 16.114635 0.000000
661.267460 159.235630 16.127466 0.000000
661.516300 160.460980 16.068159 0.000000
662.121580 160.774310 16.091063 0.000000
661.794920 160.640300 16.076374 0.000000
662.010310 159.419890 16.164331 0.000000
662.466060 160.897580 16.108110 0.000000
655.498540 159.745160 16.473938 0.000000
655.814580 159.726530 16.496357 0.000000
656.182920 159.616040 16.533350 0.000000
658.330510 159.698390 16.683140 0.000000
658.347410 158.203770 16.434666 0.000000
658.544190 158.500670 16.420824 0.000000
659.701970 159.623380 16.805420 0.000000
659.905330 159.877170 16.797691 0.000000
659.781010 158.406890 16.513184 0.000000
653.186280 158.801100 16.817446 0.000000
653.582580 158.931120 16.819386 0.000000
653.987490 159.034240 16.827127 0.000000
654.830440 159.173390 16.859278 0.000000
658.142210 159.706020 17.049278 0.000000
658.410770 159.843060 17.057020 0.000000
658.290530 158.292310 16.831223 0.000000
659.903500 159.873830 17.199600 0.000000
659.869810 158.272350 16.958530 0.000000
658.295960 158.276150 17.244286 0.000000
658.190120 157.812180 17.295023 0.000000
659.889770 159.365970 17.258350 0.000000
659.947080 158.154400 17.410370 0.000000
648.737610 145.178150 18.730675 0.000000
650.026000 136.419160 11.830871 0.000000
650.673520 136.293560 11.825052 0.000000
651.322450 136.228520 11.822735 0.000000
656.396610 137.087720 11.873714 0.000000
657.091610 136.928330 11.858108 0.000000
657.725160 137.063140 11.862305 0.000000
646.324830 149.720630 12.210475 0.000000
646.741820 149.775630 12.222129 0.000000
646.259700 137.520140 11.875651 0.000000
647.155520 149.830440 12.233092 0.000000
647.566220 149.885030 12.243372 0.000000
647.974240 149.939290 12.252972 0.000000
647.497860 137.315610 11.874814 0.000000
648.379700 149.986300 12.261259 0.000000
648.118900 137.114230 11.866416 0.000000
