# .PCD v0.7 - Point Cloud Data file format
VERSION 0.7
FIELDS x y z intensity
SIZE 4 4 4 4
TYPE F F F F
COUNT 1 1 1 1
WIDTH 1166
HEIGHT 1
VIEWPOINT 0 0 0 1 0 0 0
POINTS 1166
DATA ascii
662.013180 368.036870 19.061329 0.000000
661.128300 367.542720 19.048618 0.000000
660.318910 367.248930 19.036207 0.000000
659.718990 367.785160 19.025126 0.000000
658.977110 367.720520 19.012310 0.000000
658.222050 367.548220 18.998959 0.000000
657.557130 367.822720 18.985687 0.000000
656.843080 367.822510 18.971619 0.000000
656.132200 367.816560 18.957094 0.000000
654.727170 367.861570 18.926636 0.000000
654.031310 367.925720 18.910633 0.000000
653.335330 367.990260 18.894094 0.000000
652.638790 368.053310 18.877016 0.000000
651.941220 368.113190 18.859386 0.000000
651.242430 368.171600 18.841200 0.000000
650.542110 368.225620 18.822451 0.000000
649.839900 368.278500 18.803123 0.000000
649.135560 368.328220 18.783211 0.000000
648.429870 368.355470 18.762794 0.000000
647.724240 368.348820 18.741949 0.000000
647.004460 368.489690 18.719688 0.000000
646.282590 368.582820 18.696966 0.000000
668.878850 375.817600 20.261646 0.000000
667.620480 374.975830 20.220516 0.000000
665.920230 372.721250 20.142246 0.000000
664.218930 372.804410 20.109556 0.000000
663.203490 367.038730 19.975502 0.000000
663.379030 372.842530 20.092894 0.000000
662.540470 372.859500 20.075535 0.000000
661.713990 372.895750 20.058502 0.000000
660.891420 372.923460 20.041080 0.000000
660.072200 372.940030 20.023209 0.000000
658.458310 373.022030 19.988041 0.000000
657.668330 373.134550 19.971748 0.000000
656.878780 373.247160 19.955166 0.000000
656.089050 373.358370 19.938248 0.000000
655.298890 373.469910 19.921021 0.000000
654.507750 373.581760 19.903473 0.000000
653.715210 373.693910 19.885590 0.000000
652.920780 373.806370 19.867361 0.000000
652.120970 373.836360 19.847147 0.000000
651.320250 373.820800 19.825756 0.000000
650.520690 373.805270 19.804089 0.000000
648.920230 373.846890 19.761162 0.000000
648.110530 374.006040 19.741562 0.000000
647.301700 374.051730 19.719559 0.000000
646.489750 374.092860 19.697075 0.000000
670.695560 365.949100 21.030279 0.000000
669.341550 366.599580 21.020136 0.000000
669.971130 366.181950 21.020187 0.000000
648.317200 369.523860 20.572058 0.000000
647.581180 369.640660 20.556955 0.000000
646.839360 369.756560 20.541662 0.000000
670.498470 365.588130 21.942656 0.000000
670.077330 366.401980 21.975807 0.000000
670.061400 364.775630 22.792683 0.000000
670.211730 366.689270 23.909260 0.000000
670.475400 367.218960 24.952271 0.000000
670.354610 369.542910 19.321419 0.000000
669.549320 369.674320 19.314728 0.000000
668.727780 369.750270 19.307100 0.000000
667.877380 369.734680 19.298306 0.000000
667.039180 369.716890 19.289047 0.000000
665.088680 366.772860 19.259111 0.000000
665.354920 369.560060 19.268402 0.000000
664.633910 369.774170 19.259346 0.000000
663.798580 369.633240 19.247555 0.000000
663.033510 369.674740 19.236471 0.000000
662.203670 369.467860 19.223537 0.000000
661.339970 369.076810 19.209318 0.000000
660.477970 368.606290 19.194508 0.000000
659.809630 368.869750 19.182970 0.000000
659.083250 368.878140 19.169724 0.000000
657.634700 368.835630 19.141678 0.000000
656.929320 368.882570 19.127228 0.000000
656.218440 368.874760 19.112137 0.000000
655.510620 368.860350 19.096575 0.000000
654.806030 368.843510 19.080555 0.000000
654.104310 368.823000 19.064072 0.000000
652.713500 368.864840 19.029781 0.000000
652.020450 368.921200 19.011881 0.000000
651.326290 368.975460 18.993422 0.000000
650.630620 369.028230 18.974396 0.000000
649.933290 369.076510 18.954794 0.000000
649.233890 369.123600 18.934603 0.000000
648.533390 369.144350 18.913864 0.000000
647.833920 369.122010 18.892645 0.000000
647.124390 369.205630 18.870529 0.000000
646.418330 369.207240 18.848028 0.000000
665.076840 366.767580 20.140352 0.000000
660.092160 373.698030 20.186018 0.000000
659.283330 373.710270 20.167397 0.000000
658.490420 373.783780 20.150171 0.000000
657.705200 373.891690 20.133570 0.000000
656.136290 374.107760 20.099503 0.000000
655.351260 374.213410 20.081949 0.000000
654.565550 374.320530 20.064110 0.000000
653.778560 374.428010 20.045942 0.000000
652.989810 374.535830 20.027433 0.000000
652.198730 374.643950 20.008568 0.000000
651.404910 374.752350 19.989328 0.000000
650.607850 374.776400 19.967909 0.000000
649.905400 369.253330 19.831198 0.000000
649.011350 374.804260 19.923666 0.000000
648.208370 374.873960 19.902134 0.000000
647.395510 375.028750 19.881821 0.000000
646.585450 375.068080 19.858828 0.000000
645.771970 375.102780 19.835329 0.000000
670.669920 365.268740 21.113338 0.000000
670.393430 366.289370 21.149618 0.000000
669.439030 366.039120 21.112387 0.000000
669.212950 367.229520 21.157370 0.000000
670.012760 365.581730 22.014315 0.000000
669.717100 366.616180 23.923119 0.000000
670.636170 366.771180 23.992329 0.000000
669.836610 366.861570 24.895411 0.000000
663.218140 361.079410 18.667364 0.000000
658.659420 361.937770 18.611172 0.000000
658.096130 362.033170 18.601473 0.000000
657.517700 362.051880 18.592251 0.000000
656.942810 362.070070 18.582449 0.000000
656.371150 362.087860 18.572062 0.000000
655.802310 362.105410 18.561083 0.000000
654.664250 362.078060 18.538357 0.000000
654.103520 362.099370 18.525549 0.000000
653.543400 362.112580 18.512272 0.000000
652.983760 362.114590 18.498581 0.000000
652.430540 362.211730 18.482588 0.000000
651.872070 362.228390 18.467369 0.000000
651.313720 362.245120 18.451515 0.000000
650.755190 362.261810 18.435017 0.000000
650.196110 362.278350 18.417868 0.000000
649.636110 362.294650 18.400055 0.000000
649.074650 362.315610 18.381468 0.000000
648.024720 361.445190 18.362385 0.000000
647.472350 361.473300 18.342070 0.000000
646.910100 361.558650 18.319683 0.000000
646.366460 361.471560 18.300619 0.000000
645.793520 361.574340 18.276236 0.000000
670.239010 370.184080 19.534420 0.000000
669.441650 370.311370 19.526695 0.000000
668.609800 370.342130 19.517366 0.000000
667.768430 370.322750 19.507027 0.000000
666.939450 370.301940 19.496256 0.000000
666.121830 370.278290 19.485043 0.000000
665.273070 370.137270 19.472195 0.000000
664.561100 370.347630 19.462578 0.000000
663.734920 370.203370 19.448923 0.000000
662.958860 370.175690 19.436052 0.000000
662.207090 370.200530 19.423262 0.000000
661.432560 370.116000 19.409065 0.000000
659.957280 370.136510 19.381130 0.000000
659.230710 370.158390 19.366602 0.000000
658.502750 370.148990 19.351395 0.000000
657.780940 370.145260 19.335796 0.000000
657.062380 370.132690 19.319702 0.000000
656.347900 370.117950 19.303158 0.000000
655.636900 370.097870 19.286142 0.000000
654.929200 370.074490 19.268663 0.000000
654.224550 370.045810 19.250713 0.000000
653.522890 370.015560 19.232306 0.000000
652.823730 369.979100 19.213417 0.000000
652.127080 369.940670 19.194063 0.000000
650.740110 369.953400 19.154169 0.000000
650.045900 369.996460 19.133499 0.000000
649.349850 370.038450 19.112240 0.000000
648.653140 370.049350 19.090357 0.000000
647.951840 370.103270 19.067902 0.000000
647.251890 370.100710 19.044815 0.000000
646.550050 370.096980 19.021130 0.000000
645.844850 370.100770 18.996817 0.000000
669.027340 366.108340 20.373901 0.000000
650.715210 379.267300 20.248371 0.000000
649.871280 378.532440 20.205399 0.000000
649.056150 377.693760 20.160439 0.000000
648.272090 376.802890 20.114838 0.000000
647.478270 376.477170 20.082378 0.000000
645.880980 376.183870 20.024961 0.000000
670.034790 366.511440 21.304060 0.000000
669.493900 367.034480 21.312202 0.000000
670.238530 365.401460 22.141497 0.000000
670.163760 366.779790 24.055492 0.000000
658.266910 361.522430 18.582151 0.000000
657.719670 361.565730 18.574980 0.000000
657.175170 361.608340 18.567234 0.000000
656.633060 361.650390 18.558912 0.000000
656.093020 361.692140 18.550013 0.000000
655.539550 361.635500 18.542313 0.000000
655.008000 361.702480 18.531799 0.000000
654.475280 361.758330 18.520887 0.000000
653.941960 361.805050 18.509544 0.000000
653.408080 361.842830 18.497768 0.000000
652.873840 361.870150 18.485598 0.000000
651.809020 362.021550 18.457430 0.000000
651.273190 362.062320 18.443094 0.000000
650.736210 362.103060 18.428120 0.000000
650.197810 362.143650 18.412491 0.000000
649.657590 362.183990 18.396204 0.000000
649.114870 362.231840 18.379068 0.000000
647.014710 361.615540 18.323847 0.000000
646.485050 361.553100 18.306417 0.000000
645.925960 361.671080 18.283556 0.000000
670.342290 369.916380 19.423096 0.000000
669.518620 369.948060 19.417261 0.000000
667.904970 370.003330 19.404110 0.000000
667.072020 366.436430 19.382006 0.000000
667.099000 369.991820 19.396536 0.000000
666.304690 369.979250 19.388512 0.000000
665.520690 369.963710 19.380030 0.000000
664.707400 369.836460 19.370323 0.000000
664.022340 370.043610 19.362551 0.000000
663.229920 369.913060 19.351999 0.000000
662.484250 369.893370 19.341793 0.000000
661.761230 369.923550 19.331474 0.000000
661.002010 369.793670 19.319778 0.000000
659.536930 369.620360 19.295782 0.000000
658.838930 369.634800 19.283722 0.000000
658.145450 369.648620 19.271217 0.000000
657.454470 369.653750 19.258232 0.000000
656.766970 369.654880 19.244791 0.000000
656.082760 369.653930 19.230900 0.000000
655.401250 369.647400 19.216543 0.000000
654.722530 369.638490 19.201733 0.000000
654.046200 369.625490 19.186460 0.000000
653.372130 369.610170 19.170727 0.000000
652.699950 369.589360 19.154524 0.000000
651.361940 369.632200 19.120777 0.000000
650.692440 369.688080 19.103136 0.000000
650.021060 369.740140 19.084932 0.000000
649.347290 369.791140 19.066153 0.000000
648.098270 361.469150 18.363432 0.000000
647.561830 361.514430 18.344711 0.000000
648.672420 369.816190 19.046820 0.000000
647.992610 369.878450 19.026844 0.000000
647.313840 369.886350 19.006361 0.000000
646.632750 369.893130 18.985292 0.000000
645.947810 369.908600 18.963591 0.000000
667.065800 366.434480 20.228027 0.000000
657.497010 374.496310 20.218771 0.000000
656.712890 374.399110 20.198206 0.000000
655.960450 374.509610 20.182741 0.000000
655.206970 374.616700 20.166885 0.000000
653.696720 374.836430 20.134344 0.000000
652.938840 374.946870 20.117580 0.000000
652.178280 375.057680 20.100470 0.000000
651.414790 375.168760 20.082994 0.000000
650.647770 375.280060 20.065138 0.000000
649.878170 375.328610 20.045532 0.000000
649.105710 375.391390 20.025869 0.000000
648.329280 375.468630 20.006126 0.000000
647.549440 375.534520 19.985741 0.000000
646.765440 375.599430 19.964918 0.000000
645.970280 375.722600 19.944780 0.000000
670.747070 366.066220 21.156933 0.000000
670.211670 366.548100 21.163885 0.000000
669.430420 366.575470 21.144302 0.000000
670.444460 365.539310 21.991262 0.000000
670.563540 367.200990 23.907246 0.000000
670.179630 366.505550 24.706318 0.000000
670.151790 367.969360 24.882414 0.000000
670.273380 369.224000 19.225000 0.000000
669.479190 369.264160 19.221462 0.000000
668.812930 369.544740 19.217937 0.000000
667.973210 369.444520 19.213120 0.000000
667.191650 369.438870 19.208036 0.000000
666.421630 369.431790 19.202494 0.000000
665.662480 369.423400 19.196501 0.000000
664.913820 369.414310 19.190065 0.000000
664.114380 369.235170 19.182993 0.000000
663.262330 368.852450 19.175358 0.000000
662.662540 369.188390 19.168003 0.000000
661.062010 368.486480 19.151138 0.000000
660.301450 368.172120 19.142326 0.000000
659.725460 368.542330 19.133137 0.000000
659.047360 368.494540 19.123528 0.000000
658.343570 368.288480 19.113640 0.000000
657.739320 368.545290 19.102987 0.000000
657.088130 368.556000 19.092087 0.000000
656.440120 368.564850 19.080759 0.000000
649.418400 368.982640 18.924538 0.000000
648.773930 369.030060 18.907211 0.000000
648.130680 369.024020 18.889685 0.000000
647.486450 369.012210 18.871668 0.000000
646.840820 368.997710 18.853134 0.000000
646.177730 369.104490 18.833042 0.000000
661.411740 367.368410 19.158897 0.000000
655.794740 368.570070 19.069006 0.000000
655.152100 368.573430 19.056826 0.000000
654.511350 368.571290 19.044222 0.000000
653.873720 368.579070 19.031151 0.000000
652.607670 368.698120 19.003258 0.000000
651.973330 368.759000 18.988550 0.000000
651.337520 368.818330 18.973331 0.000000
650.699950 368.875270 18.957596 0.000000
650.060300 368.930940 18.941328 0.000000
670.114750 376.123320 20.265312 0.000000
668.912290 375.412840 20.233004 0.000000
667.760440 374.723940 20.201593 0.000000
666.130370 372.662020 20.136646 0.000000
665.363160 372.754460 20.125404 0.000000
664.579470 372.779510 20.112368 0.000000
663.812010 372.829280 20.099773 0.000000
662.301510 372.945800 20.074486 0.000000
661.552610 372.996610 20.061399 0.000000
660.789550 372.968410 20.046373 0.000000
660.063050 373.069920 20.034052 0.000000
659.302920 372.998020 20.017757 0.000000
657.858830 373.164030 19.991259 0.000000
657.142760 373.271030 19.978134 0.000000
656.426760 373.378020 19.964737 0.000000
655.710450 373.485230 19.951061 0.000000
654.993410 373.592770 19.937096 0.000000
654.274660 373.695340 19.922733 0.000000
653.554690 373.802190 19.908140 0.000000
652.832640 373.909550 19.893230 0.000000
652.106570 373.966190 19.877087 0.000000
651.378540 373.960270 19.859558 0.000000
650.651060 373.954440 19.841764 0.000000
649.923650 373.948610 19.823698 0.000000
649.194150 373.983860 19.805998 0.000000
648.067570 369.567630 19.701962 0.000000
648.460570 374.050960 19.788460 0.000000
646.972470 374.282530 19.753662 0.000000
646.226140 374.332980 19.734671 0.000000
661.400090 367.363740 19.958387 0.000000
657.620610 367.987920 19.896709 0.000000
670.582460 365.470640 20.909279 0.000000
670.511470 366.708920 20.955618 0.000000
669.549740 366.393550 20.919914 0.000000
668.919250 366.654600 20.914667 0.000000
650.012760 369.228490 20.553366 0.000000
648.707030 369.440310 20.529736 0.000000
648.046020 369.557590 20.518164 0.000000
657.606020 367.982640 20.690239 0.000000
655.726930 368.293060 20.656448 0.000000
651.940610 368.912200 20.588120 0.000000
650.659060 369.122740 20.565027 0.000000
649.362180 369.334380 20.541607 0.000000
670.583920 365.481020 24.309155 0.000000
669.816710 366.902130 24.420887 0.000000
670.422490 368.953220 19.140551 0.000000
669.696840 369.093900 19.135902 0.000000
668.969670 369.214970 19.130793 0.000000
668.238100 369.309390 19.125250 0.000000
667.425960 369.208590 19.119585 0.000000
666.670720 369.200530 19.113348 0.000000
665.925290 369.187870 19.106701 0.000000
665.156190 369.087250 19.099846 0.000000
664.282170 368.670560 19.093424 0.000000
663.472110 368.360780 19.086483 0.000000
662.089600 368.295200 19.070061 0.000000
662.664980 367.997920 19.079447 0.000000
661.313170 367.932710 19.062433 0.000000
660.574220 367.630460 19.054382 0.000000
659.902040 367.516050 19.045357 0.000000
659.361020 367.901060 19.033861 0.000000
658.076840 367.819000 19.013210 0.000000
657.475400 367.945190 19.001461 0.000000
656.852970 367.950380 18.989914 0.000000
656.233400 367.951050 18.977989 0.000000
655.616390 367.947390 18.965693 0.000000
654.397400 368.003200 18.939440 0.000000
653.792180 368.060610 18.925442 0.000000
653.186580 368.117000 18.910980 0.000000
652.580380 368.172090 18.896053 0.000000
651.973080 368.223180 18.880674 0.000000
651.364560 368.272890 18.864815 0.000000
650.754700 368.320040 18.848476 0.000000
650.142940 368.366120 18.831638 0.000000
649.529360 368.408480 18.814316 0.000000
648.913450 368.449740 18.796473 0.000000
648.297420 368.456850 18.778477 0.000000
647.681340 368.444520 18.760193 0.000000
647.060790 368.458400 18.741062 0.000000
646.433410 368.502930 18.720968 0.000000
645.783080 368.674220 18.698530 0.000000
670.218870 371.724030 20.064861 0.000000
669.547910 372.059390 20.058674 0.000000
668.718440 372.049740 20.044523 0.000000
667.920780 372.082030 20.031237 0.000000
667.132630 372.110750 20.017782 0.000000
666.327390 372.070130 20.002768 0.000000
664.818910 372.172090 19.976315 0.000000
664.075200 372.219940 19.962831 0.000000
663.338440 372.267640 19.949207 0.000000
662.607240 372.312130 19.935375 0.000000
661.882020 372.356480 19.921391 0.000000
661.161680 372.398160 19.907198 0.000000
660.442380 372.423340 19.892544 0.000000
659.727970 372.447330 19.877708 0.000000
659.017940 372.469360 19.862675 0.000000
658.302730 372.440640 19.846609 0.000000
657.614010 372.535000 19.832441 0.000000
656.926090 372.629270 19.818024 0.000000
655.550840 372.817780 19.788412 0.000000
654.862790 372.912350 19.773203 0.000000
654.173460 373.002960 19.757648 0.000000
653.478880 373.029940 19.740908 0.000000
652.783020 373.015470 19.723352 0.000000
652.088810 373.001250 19.705576 0.000000
651.395810 372.987210 19.687571 0.000000
650.703550 372.973270 19.669321 0.000000
650.011600 372.959350 19.650818 0.000000
648.622620 373.008270 19.613832 0.000000
647.914860 373.164400 19.596222 0.000000
647.210570 373.204650 19.576998 0.000000
646.502990 373.241520 19.557369 0.000000
645.806340 373.163510 19.536341 0.000000
655.649660 368.319000 19.734047 0.000000
670.481630 366.289250 20.824093 0.000000
657.457950 368.014070 20.542448 0.000000
656.849490 368.114410 20.529968 0.000000
656.241090 368.214690 20.517487 0.000000
655.632570 368.315490 20.505016 0.000000
655.023250 368.415590 20.492506 0.000000
654.412840 368.515840 20.479971 0.000000
653.801150 368.616330 20.467411 0.000000
669.342290 367.007970 21.658924 0.000000
670.520630 365.088590 22.419504 0.000000
670.531190 365.112550 23.244347 0.000000
670.377200 366.137700 23.327995 0.000000
670.681340 365.363620 24.109144 0.000000
670.058650 366.940220 24.238361 0.000000
670.095890 369.208590 19.206387 0.000000
669.376160 369.328520 19.201313 0.000000
668.591310 369.300900 19.195890 0.000000
667.918950 369.477330 19.189861 0.000000
667.125310 369.378300 19.183668 0.000000
666.386350 369.367550 19.176987 0.000000
665.658450 369.355590 19.169909 0.000000
664.941160 369.342800 19.162437 0.000000
664.139340 369.078120 19.155073 0.000000
650.435360 361.077640 18.377569 0.000000
649.967530 361.103730 18.363153 0.000000
649.498230 361.129270 18.348177 0.000000
649.026490 361.163020 18.332336 0.000000
663.341190 368.768890 19.147543 0.000000
662.546020 368.407260 19.139908 0.000000
661.979860 368.697330 19.130314 0.000000
661.215270 368.336240 19.122128 0.000000
660.487980 368.035000 19.113571 0.000000
659.915100 368.257810 19.102955 0.000000
659.289250 368.272950 19.092632 0.000000
658.044680 368.270510 19.070978 0.000000
657.436950 368.309450 19.059389 0.000000
656.825130 368.309300 19.047596 0.000000
656.216670 368.307560 19.035419 0.000000
655.609250 368.288360 19.022961 0.000000
654.408570 368.291320 18.996616 0.000000
653.815060 368.337130 18.982523 0.000000
653.222050 368.389890 18.967926 0.000000
652.628540 368.442140 18.952866 0.000000
652.034060 368.490480 18.937363 0.000000
651.438480 368.537320 18.921392 0.000000
650.841550 368.581910 18.904951 0.000000
650.242980 368.625400 18.888021 0.000000
649.642520 368.665100 18.870617 0.000000
649.039920 368.703740 18.852703 0.000000
648.436770 368.716090 18.834555 0.000000
647.834410 368.697660 18.816248 0.000000
647.230590 368.680940 18.797422 0.000000
646.621700 368.689480 18.777754 0.000000
645.987060 368.854280 18.755409 0.000000
670.676150 371.827700 20.123690 0.000000
669.888490 371.905460 20.111464 0.000000
669.430420 372.647580 20.114588 0.000000
668.439580 372.266660 20.091434 0.000000
667.657100 372.296020 20.077745 0.000000
666.884030 372.321810 20.063900 0.000000
666.094300 372.279660 20.048496 0.000000
665.351140 372.328640 20.034998 0.000000
663.885990 372.419830 20.007509 0.000000
663.163820 372.464420 19.993553 0.000000
662.447140 372.505890 19.979404 0.000000
661.736450 372.547180 19.965109 0.000000
661.030090 372.584200 19.950584 0.000000
660.324890 372.604860 19.935600 0.000000
659.625120 372.626400 19.920488 0.000000
658.929870 372.646970 19.905201 0.000000
658.250310 372.728580 19.890810 0.000000
656.883480 372.811520 19.860023 0.000000
656.210080 372.901980 19.845112 0.000000
655.536740 372.992550 19.829943 0.000000
654.862980 373.083280 19.814508 0.000000
654.188050 373.170410 19.798740 0.000000
653.511600 373.250950 19.782591 0.000000
652.829410 373.234070 19.764793 0.000000
652.148930 373.217440 19.746784 0.000000
651.469730 373.201020 19.728554 0.000000
650.791320 373.184690 19.710087 0.000000
650.113340 373.168430 19.691374 0.000000
648.753110 373.203860 19.653917 0.000000
648.060000 373.354060 19.636120 0.000000
647.370670 373.389710 19.616709 0.000000
646.677920 373.424100 19.596922 0.000000
645.983150 373.444270 19.576632 0.000000
670.703190 366.245240 20.856514 0.000000
669.787410 365.984040 20.822794 0.000000
669.339290 366.496830 20.828415 0.000000
657.353640 368.029630 20.558067 0.000000
656.762570 368.127200 20.545496 0.000000
656.171570 368.224730 20.532923 0.000000
655.580380 368.322720 20.520361 0.000000
654.988530 368.420230 20.507765 0.000000
653.801390 368.615260 20.482479 0.000000
670.407900 365.773010 21.640718 0.000000
670.029660 367.722290 21.730320 0.000000
670.564270 366.042300 23.299408 0.000000
670.302610 366.891480 24.198421 0.000000
669.930850 367.592040 25.101379 0.000000
670.496150 369.378140 19.285116 0.000000
669.798830 369.499730 19.281944 0.000000
669.109130 369.618230 19.278309 0.000000
668.373470 369.630680 19.274284 0.000000
667.642760 369.627500 19.269844 0.000000
666.924130 369.623140 19.264996 0.000000
662.979060 361.252320 18.670422 0.000000
662.414370 361.169590 18.673376 0.000000
661.861080 361.086210 18.675791 0.000000
659.445920 361.259520 18.665209 0.000000
658.642580 361.775540 18.646040 0.000000
658.222410 361.991820 18.636684 0.000000
657.750240 362.018160 18.631670 0.000000
657.452580 362.768740 18.607336 0.000000
656.971190 362.785000 18.601444 0.000000
656.494570 362.809780 18.594822 0.000000
656.020320 362.834080 18.587709 0.000000
655.548160 362.857910 18.580101 0.000000
655.077820 362.881500 18.571993 0.000000
654.599370 362.829900 18.565443 0.000000
654.135310 362.872860 18.555799 0.000000
653.670780 362.907290 18.545868 0.000000
653.205930 362.933170 18.535654 0.000000
652.741030 362.953370 18.525082 0.000000
652.276000 362.965000 18.514231 0.000000
651.811100 362.968170 18.503109 0.000000
651.346980 363.067050 18.488577 0.000000
650.880370 363.089810 18.475754 0.000000
650.412780 363.112580 18.462372 0.000000
649.943970 363.135130 18.448427 0.000000
649.473630 363.157470 18.433910 0.000000
649.000920 363.186190 18.418594 0.000000
648.135130 362.498380 18.411263 0.000000
647.668820 362.518860 18.394804 0.000000
647.192140 362.587980 18.376019 0.000000
646.735050 362.512790 18.361664 0.000000
646.248050 362.596100 18.341028 0.000000
645.768740 362.612580 18.322096 0.000000
666.215820 369.615230 19.259745 0.000000
665.518920 369.607670 19.254097 0.000000
664.831790 369.597990 19.248060 0.000000
664.120060 369.499180 19.241783 0.000000
663.486210 369.576020 19.234842 0.000000
662.728150 369.281800 19.228243 0.000000
661.974370 368.942080 19.221502 0.000000
661.434330 369.224000 19.212997 0.000000
660.127930 369.003360 19.196817 0.000000
659.494690 368.911930 19.188202 0.000000
658.894780 368.924290 19.178900 0.000000
658.277950 368.838500 19.169603 0.000000
657.711360 368.965880 19.159100 0.000000
657.121700 368.969360 19.148703 0.000000
656.535710 368.972720 19.137930 0.000000
655.952700 368.974490 19.126787 0.000000
655.372130 368.972660 19.115280 0.000000
654.794070 368.969480 19.103399 0.000000
654.217900 368.961490 19.091158 0.000000
653.643680 368.951900 19.078541 0.000000
652.503360 369.004880 19.051580 0.000000
651.932740 369.011510 19.037603 0.000000
651.362850 369.101680 19.022503 0.000000
650.790410 369.147060 19.007282 0.000000
650.216130 369.191350 18.991587 0.000000
649.639950 369.232150 18.975431 0.000000
649.061460 369.272000 18.958782 0.000000
648.482910 369.279970 18.941957 0.000000
647.904720 369.264650 18.924898 0.000000
647.325440 369.246220 18.907391 0.000000
646.729800 369.336090 18.888056 0.000000
646.140140 369.347720 18.869097 0.000000
670.650330 372.496520 20.173561 0.000000
669.647280 372.115480 20.151882 0.000000
668.872560 372.134370 20.139847 0.000000
669.277830 374.628270 20.185204 0.000000
668.196470 374.028590 20.158024 0.000000
666.790410 372.586090 20.112228 0.000000
666.021300 372.526610 20.098026 0.000000
665.332210 372.639560 20.087547 0.000000
664.602540 372.627840 20.074234 0.000000
663.210330 372.721130 20.049778 0.000000
662.523680 372.766940 20.037334 0.000000
661.842160 372.810120 20.024696 0.000000
661.165830 372.852780 20.011900 0.000000
660.489930 372.877590 19.998608 0.000000
659.819030 372.901860 19.985159 0.000000
659.152890 372.926510 19.971563 0.000000
657.852910 373.087550 19.945860 0.000000
657.191280 373.083530 19.931219 0.000000
656.547180 373.173370 19.918005 0.000000
655.903260 373.263240 19.904545 0.000000
655.259090 373.353270 19.890833 0.000000
654.614260 373.443540 19.876863 0.000000
653.968020 373.529510 19.862555 0.000000
653.320740 373.619200 19.848021 0.000000
652.670290 373.676030 19.832720 0.000000
652.017330 373.664310 19.816189 0.000000
651.365170 373.652740 19.799437 0.000000
650.713620 373.641300 19.782450 0.000000
650.062190 373.629850 19.765217 0.000000
648.753050 373.683930 19.730873 0.000000
648.084840 373.833950 19.714607 0.000000
647.420590 373.873290 19.696712 0.000000
646.752870 373.910520 19.678440 0.000000
646.081670 373.943970 19.659767 0.000000
670.394650 366.724030 20.861282 0.000000
669.501830 366.464260 20.829142 0.000000
656.934690 368.088810 20.562717 0.000000
656.378110 368.180690 20.551620 0.000000
655.821470 368.272610 20.540522 0.000000
655.264400 368.364620 20.529417 0.000000
654.706670 368.456910 20.518305 0.000000
653.587650 368.640690 20.495958 0.000000
653.025700 368.733120 20.484741 0.000000
651.895140 368.919070 20.462177 0.000000
670.573970 365.854400 21.608696 0.000000
669.592530 367.850620 21.679565 0.000000
670.124020 365.171140 22.312822 0.000000
670.435970 366.807280 24.039200 0.000000
670.623600 367.109410 24.896873 0.000000
670.734190 369.612920 19.373209 0.000000
670.054020 369.731660 19.370647 0.000000
668.738710 361.578640 18.737680 0.000000
667.993590 361.416230 18.749910 0.000000
667.285770 361.272740 18.760780 0.000000
667.064760 361.822510 18.752935 0.000000
666.424930 361.745090 18.760717 0.000000
666.242070 362.376040 18.749809 0.000000
665.586790 362.245910 18.757652 0.000000
664.965640 362.143950 18.764099 0.000000
664.767030 362.780180 18.751526 0.000000
664.152770 362.664220 18.757126 0.000000
663.552250 362.545410 18.762180 0.000000
663.352420 363.223180 18.747025 0.000000
662.786440 363.154080 18.749727 0.000000
662.189880 362.989840 18.754202 0.000000
661.982360 363.713200 18.736326 0.000000
661.415950 363.596950 18.738533 0.000000
660.860900 363.479400 18.740250 0.000000
659.730590 361.738590 18.781570 0.000000
659.524170 362.482880 18.761061 0.000000
659.432010 363.653690 18.729301 0.000000
658.672420 362.754730 18.748579 0.000000
658.577640 364.055360 18.712246 0.000000
658.123110 364.168370 18.705112 0.000000
657.629820 364.123170 18.701485 0.000000
657.153750 364.128230 18.696091 0.000000
656.681030 364.132170 18.690241 0.000000
656.352420 364.867550 18.664745 0.000000
655.870970 364.860660 18.658024 0.000000
655.394170 364.862760 18.650570 0.000000
654.919740 364.864380 18.642630 0.000000
654.447510 364.865720 18.634201 0.000000
653.977230 364.866850 18.625278 0.000000
653.502140 364.792660 18.617968 0.000000
653.037600 364.813480 18.607508 0.000000
652.572880 364.825680 18.596773 0.000000
652.108340 364.829410 18.585766 0.000000
651.644170 364.827450 18.574406 0.000000
651.180240 364.816930 18.562780 0.000000
650.716860 364.797940 18.550894 0.000000
650.250370 364.874600 18.535519 0.000000
649.784670 364.875090 18.521921 0.000000
649.318120 364.875520 18.507767 0.000000
648.850400 364.875760 18.493050 0.000000
648.382260 364.866640 18.478065 0.000000
647.912780 364.856540 18.462530 0.000000
647.077210 364.155030 18.453547 0.000000
646.612490 364.153380 18.436344 0.000000
646.136600 364.194700 18.416945 0.000000
669.382810 369.848630 19.367638 0.000000
668.685790 369.902070 19.364182 0.000000
667.970640 369.899510 19.360308 0.000000
667.267940 369.895420 19.356033 0.000000
666.576780 369.889710 19.351368 0.000000
665.896970 369.882970 19.346321 0.000000
665.227910 369.875270 19.340897 0.000000
664.568540 369.865840 19.335104 0.000000
663.918820 369.855470 19.328947 0.000000
663.278260 369.844640 19.322432 0.000000
662.645630 369.831150 19.315565 0.000000
662.021360 369.817540 19.308346 0.000000
661.313480 369.520290 19.301338 0.000000
660.058590 369.301390 19.285788 0.000000
659.578120 369.688810 19.276203 0.000000
658.985720 369.659150 19.267323 0.000000
658.382690 369.556090 19.258356 0.000000
657.808650 369.551420 19.248739 0.000000
657.241150 369.557680 19.238729 0.000000
656.676640 369.560880 19.228371 0.000000
656.114990 369.561190 19.217667 0.000000
655.556210 369.560120 19.206604 0.000000
654.999630 369.554720 19.195202 0.000000
654.445370 369.547760 19.183441 0.000000
653.815370 368.624660 19.176922 0.000000
653.342770 369.525910 19.158857 0.000000
652.793950 369.509800 19.146036 0.000000
652.246770 369.498930 19.132797 0.000000
651.701290 369.534300 19.118807 0.000000
651.154910 369.577270 19.104313 0.000000
650.606990 369.617980 19.089384 0.000000
650.057370 369.657170 19.074001 0.000000
649.505800 369.694060 19.058165 0.000000
648.952030 369.729830 19.041857 0.000000
648.399660 369.719450 19.025543 0.000000
647.846680 369.702580 19.008842 0.000000
647.292540 369.683380 18.991703 0.000000
646.737000 369.661770 18.974117 0.000000
646.179810 369.637850 18.956074 0.000000
669.842290 374.995640 20.254757 0.000000
668.720460 374.330470 20.225716 0.000000
667.688660 373.769500 20.199551 0.000000
667.244140 376.238430 20.230085 0.000000
666.424440 372.601140 20.159678 0.000000
666.213380 375.602910 20.201981 0.000000
664.474240 373.010930 20.131119 0.000000
663.760990 372.949580 20.116961 0.000000
663.094180 372.991910 20.104973 0.000000
662.434020 373.034700 20.092875 0.000000
661.128300 373.111390 20.068106 0.000000
660.479550 373.135800 20.055239 0.000000
659.835510 373.158230 20.042202 0.000000
659.196230 373.180690 20.029024 0.000000
658.568420 373.237400 20.016338 0.000000
657.950130 373.330110 20.004128 0.000000
657.332640 373.422330 19.991688 0.000000
656.715520 373.513120 19.979000 0.000000
656.098140 373.601320 19.966034 0.000000
655.480710 373.689510 19.952829 0.000000
654.852170 373.673920 19.937695 0.000000
653.799620 368.621460 19.842981 0.000000
653.616210 373.837740 19.909897 0.000000
652.996340 373.920170 19.895601 0.000000
652.374450 373.994840 19.880915 0.000000
651.749330 373.977170 19.864645 0.000000
651.125120 373.959660 19.848164 0.000000
650.501530 373.942350 19.831465 0.000000
649.878050 373.925110 19.814533 0.000000
648.623230 373.985870 19.781040 0.000000
647.990840 374.030000 19.763985 0.000000
647.354920 374.073760 19.746590 0.000000
646.703000 374.214020 19.729824 0.000000
646.058960 374.245240 19.711538 0.000000
670.743410 366.244540 20.868748 0.000000
669.869020 366.012270 20.837635 0.000000
669.479860 366.488100 20.844330 0.000000
668.889950 366.653290 20.834759 0.000000
656.410640 368.184230 20.562609 0.000000
655.886290 368.270840 20.551964 0.000000
655.361760 368.357360 20.541309 0.000000
654.836670 368.443940 20.530645 0.000000
654.310850 368.530700 20.519968 0.000000
653.783870 368.617160 20.509249 0.000000
653.255430 368.704010 20.498505 0.000000
670.705930 365.173580 21.558029 0.000000
669.216980 367.184940 21.608835 0.000000
670.092770 365.312770 22.266695 0.000000
670.598080 367.110750 23.958593 0.000000
669.497440 366.530400 23.813314 0.000000
670.207820 366.531040 24.625721 0.000000
670.494570 363.128230 18.817280 0.000000
669.750240 363.037110 18.828972 0.000000
669.524230 363.582580 18.823225 0.000000
669.274540 364.113490 18.817421 0.000000
668.502260 363.937350 18.829071 0.000000
667.750490 363.754360 18.840036 0.000000
667.521730 364.314970 18.831728 0.000000
666.850340 364.211790 18.839306 0.000000
666.662410 364.856960 18.827877 0.000000
666.018620 364.769530 18.833788 0.000000
665.327450 364.571290 18.841709 0.000000
665.123110 365.219150 18.828608 0.000000
664.518370 365.144500 18.832336 0.000000
663.861570 364.940190 18.838566 0.000000
663.651610 365.619320 18.823092 0.000000
663.054500 365.506010 18.826004 0.000000
662.450740 365.347440 18.829443 0.000000
662.157650 365.890320 18.815554 0.000000
661.651370 365.938320 18.812954 0.000000
661.078980 365.798890 18.814329 0.000000
659.763490 363.569790 18.865721 0.000000
659.579710 364.376160 18.843399 0.000000
659.487490 365.546170 18.811516 0.000000
658.717830 364.614470 18.830462 0.000000
658.614930 365.883580 18.794767 0.000000
658.188350 366.096830 18.784462 0.000000
657.717900 366.146850 18.777691 0.000000
657.219060 366.062560 18.773821 0.000000
656.742070 366.049260 18.767694 0.000000
656.379580 366.610600 18.746206 0.000000
655.896420 366.577880 18.739479 0.000000
655.419130 366.556790 18.731976 0.000000
654.945130 366.535310 18.724010 0.000000
654.474180 366.513610 18.715576 0.000000
653.997740 366.413330 18.708826 0.000000
653.535030 366.411740 18.698908 0.000000
653.073490 366.405850 18.688618 0.000000
652.612920 366.393040 18.678030 0.000000
652.153320 366.373600 18.667143 0.000000
651.694890 366.349790 18.655891 0.000000
651.237550 366.319370 18.644346 0.000000
650.781370 366.282470 18.632505 0.000000
650.326350 366.241240 18.620306 0.000000
649.866940 366.298370 18.604502 0.000000
649.410280 366.276460 18.590630 0.000000
648.953250 366.254360 18.576227 0.000000
648.495540 366.232030 18.561291 0.000000
648.036560 366.213170 18.545679 0.000000
647.204160 365.612120 18.532606 0.000000
646.751100 365.589390 18.515770 0.000000
646.288880 365.602910 18.497007 0.000000
645.847050 365.504300 18.481777 0.000000
670.550110 369.946930 19.473520 0.000000
669.891970 370.061680 19.470524 0.000000
669.243290 370.175290 19.467104 0.000000
668.546390 370.188320 19.463171 0.000000
667.852910 370.183380 19.458839 0.000000
667.172490 370.177860 19.454140 0.000000
666.504150 370.171330 19.449080 0.000000
665.846680 370.162540 19.443665 0.000000
665.200260 370.153110 19.437906 0.000000
663.937500 370.131040 19.425369 0.000000
663.320070 370.118380 19.418604 0.000000
662.711300 370.104920 19.411514 0.000000
662.110530 370.089840 19.404100 0.000000
661.517520 370.074130 19.396368 0.000000
660.934940 370.067080 19.388306 0.000000
660.357600 370.055180 19.379927 0.000000
659.279600 370.248570 19.361706 0.000000
658.717960 370.242770 19.352289 0.000000
658.162660 370.243040 19.342529 0.000000
657.590820 370.143680 19.332769 0.000000
657.045780 370.143800 19.322378 0.000000
656.503780 370.140900 19.311663 0.000000
655.679140 368.305360 19.308701 0.000000
655.428830 370.129000 19.289249 0.000000
654.895140 370.118230 19.277557 0.000000
654.363950 370.106290 19.265528 0.000000
653.830870 370.045500 19.253445 0.000000
653.307680 370.074860 19.240473 0.000000
652.782170 370.054050 19.227451 0.000000
652.258240 370.031830 19.214083 0.000000
651.735660 370.006680 19.200377 0.000000
650.692260 370.027190 19.171238 0.000000
650.168880 370.060270 19.155834 0.000000
649.643740 370.091160 19.140003 0.000000
649.116640 370.120970 19.123720 0.000000
648.590330 370.114810 19.107355 0.000000
648.062070 370.113650 19.090487 0.000000
647.536990 370.072170 19.073641 0.000000
647.008670 370.047450 19.056154 0.000000
646.478880 370.020480 19.038235 0.000000
645.929750 370.091250 19.018492 0.000000
667.175660 376.071410 20.289801 0.000000
664.648380 377.151280 20.256832 0.000000
662.607180 373.298580 20.157913 0.000000
661.975520 373.334630 20.145315 0.000000
661.349060 373.368350 20.132559 0.000000
660.104490 373.407780 20.106125 0.000000
659.489260 373.424680 20.092678 0.000000
658.880130 373.447510 20.079226 0.000000
658.287960 373.532350 20.066811 0.000000
657.696960 373.615810 20.054176 0.000000
657.106990 373.699190 20.041338 0.000000
655.664920 368.302430 19.931494 0.000000
655.927980 373.860810 20.014931 0.000000
655.338560 373.940340 20.001371 0.000000
654.748720 374.018680 19.987558 0.000000
654.149540 373.993960 19.971865 0.000000
653.559630 374.067570 19.957533 0.000000
652.968510 374.141420 19.942947 0.000000
652.375730 374.209660 19.928011 0.000000
651.780880 374.256160 19.912498 0.000000
651.184940 374.233180 19.895781 0.000000
650.589720 374.210450 19.878862 0.000000
649.995000 374.187810 19.861727 0.000000
648.799010 374.225710 19.827732 0.000000
648.196470 374.261570 19.810490 0.000000
647.590820 374.297090 19.792925 0.000000
646.970210 374.424010 19.775936 0.000000
646.357240 374.447390 19.757524 0.000000
670.516050 366.730770 20.910181 0.000000
669.639100 366.475800 20.876879 0.000000
656.142330 368.217620 20.565229 0.000000
655.650700 368.299650 20.554535 0.000000
655.158570 368.380100 20.543776 0.000000
654.666200 368.461400 20.533033 0.000000
654.173100 368.542850 20.522278 0.000000
653.678770 368.623990 20.511482 0.000000
653.183230 368.705510 20.500660 0.000000
652.685970 368.787320 20.489803 0.000000
652.186580 368.864840 20.478737 0.000000
648.082340 369.544620 20.389290 0.000000
670.717900 365.119570 21.552242 0.000000
670.601810 365.888920 21.588161 0.000000
669.333500 367.032650 21.597984 0.000000
670.155880 365.294710 22.229700 0.000000
670.327330 365.526640 24.366945 0.000000
669.884770 366.844120 24.490625 0.000000
670.578800 364.393860 18.854639 0.000000
669.906680 364.391300 18.865595 0.000000
669.398440 364.570100 18.870670 0.000000
668.860780 364.700530 18.876362 0.000000
668.312560 364.803740 18.882074 0.000000
667.769960 364.900090 18.887264 0.000000
667.237180 364.996120 18.891775 0.000000
666.711910 365.089420 18.895695 0.000000
666.194460 365.181210 18.899008 0.000000
665.684510 365.271790 18.901724 0.000000
665.181460 365.360930 18.903864 0.000000
664.684940 365.448970 18.905437 0.000000
664.194400 365.535830 18.906458 0.000000
663.709660 365.621670 18.906933 0.000000
663.229860 365.705930 18.906889 0.000000
662.755620 365.790530 18.906290 0.000000
662.285640 365.873600 18.905188 0.000000
661.820430 365.957180 18.903542 0.000000
661.357970 366.037450 18.901451 0.000000
660.899720 366.118470 18.898827 0.000000
660.445310 366.200500 18.895666 0.000000
659.735900 365.558350 18.909927 0.000000
659.564270 366.420530 18.886429 0.000000
658.863100 365.703090 18.901699 0.000000
658.599790 366.343290 18.882614 0.000000
658.201290 366.569850 18.873318 0.000000
657.817570 366.868130 18.861656 0.000000
657.487670 361.352080 18.563890 0.000000
657.373540 366.946040 18.855055 0.000000
656.933170 361.354830 18.563360 0.000000
656.917910 366.967380 18.849409 0.000000
656.469850 367.012050 18.842678 0.000000
656.122560 361.754390 18.541027 0.000000
656.024960 367.065030 18.835238 0.000000
655.755860 361.746090 18.539196 0.000000
655.599910 367.227910 18.824390 0.000000
655.382810 361.691800 18.539068 0.000000
655.035520 361.750030 18.532991 0.000000
655.138550 367.173220 18.818810 0.000000
654.687680 361.803470 18.526611 0.000000
654.695680 367.223820 18.809940 0.000000
654.144900 361.734070 18.523302 0.000000
654.252810 367.271760 18.800640 0.000000
653.809880 367.317140 18.790905 0.000000
653.309570 362.153660 18.488943 0.000000
653.366640 367.360720 18.780708 0.000000
652.953490 362.150790 18.482635 0.000000
652.923030 367.401700 18.770073 0.000000
652.598510 362.147830 18.475809 0.000000
652.478880 367.440370 18.758986 0.000000
652.244570 362.144930 18.468466 0.000000
652.034000 367.473970 18.747524 0.000000
651.714720 362.140930 18.456377 0.000000
651.588260 367.505250 18.735601 0.000000
651.185610 362.136380 18.443260 0.000000
650.833070 362.132970 18.433821 0.000000
651.141720 367.533940 18.723225 0.000000
650.480220 362.129550 18.423841 0.000000
650.694150 367.557160 18.710476 0.000000
650.127080 362.126130 18.413309 0.000000
650.245730 367.573120 18.697409 0.000000
649.773380 362.122710 18.402225 0.000000
649.796570 367.582120 18.684017 0.000000
649.341490 367.652100 18.668116 0.000000
648.933170 361.708010 18.394506 0.000000
648.891170 367.632630 18.654510 0.000000
648.396790 361.774840 18.371029 0.000000
648.440000 367.612950 18.640371 0.000000
648.049870 361.727390 18.359766 0.000000
647.702820 361.679140 18.348005 0.000000
647.987920 367.592990 18.625690 0.000000
647.335880 361.727870 18.329988 0.000000
647.533750 367.577640 18.610291 0.000000
646.692870 361.385220 18.318346 0.000000
646.721740 366.987000 18.597769 0.000000
646.148070 361.398590 18.291872 0.000000
646.272580 366.965970 18.581177 0.000000
645.813110 366.981510 18.562624 0.000000
670.701780 370.022190 19.506319 0.000000
670.063660 370.138730 19.505322 0.000000
669.415280 370.222750 19.503885 0.000000
668.776370 370.303530 19.502028 0.000000
668.101750 370.305690 19.499750 0.000000
667.439210 370.305050 19.497086 0.000000
666.789670 370.304410 19.494043 0.000000
666.150760 370.300720 19.490633 0.000000
665.524410 370.298680 19.486864 0.000000
664.907960 370.294530 19.482742 0.000000
664.300900 370.288240 19.478279 0.000000
663.703370 370.281400 19.473475 0.000000
663.114810 370.273740 19.468338 0.000000
661.961980 370.254490 19.457090 0.000000
661.405760 370.268130 19.450947 0.000000
660.865720 370.310700 19.444424 0.000000
659.796570 370.385500 19.430376 0.000000
659.267090 370.417600 19.422861 0.000000
658.711430 370.334080 19.415337 0.000000
658.250430 370.608830 19.406420 0.000000
657.735230 370.666500 19.397764 0.000000
657.190800 370.572020 19.389318 0.000000
656.673220 370.582760 19.380180 0.000000
656.158260 370.591280 19.370716 0.000000
655.645870 370.598240 19.360926 0.000000
655.135680 370.603330 19.350805 0.000000
654.627080 370.603420 19.340372 0.000000
654.119750 370.595400 19.329645 0.000000
653.614380 370.586670 19.318584 0.000000
653.110600 370.575780 19.307192 0.000000
652.608280 370.563870 19.295460 0.000000
652.107060 370.548030 19.283405 0.000000
651.606870 370.529790 19.271015 0.000000
651.107540 370.508730 19.258287 0.000000
650.108890 370.503910 19.231390 0.000000
649.606750 370.535640 19.217016 0.000000
649.102480 370.567380 19.202198 0.000000
648.599550 370.559110 19.187361 0.000000
648.096130 370.543120 19.172184 0.000000
647.591370 370.526000 19.156595 0.000000
647.085330 370.506810 19.140598 0.000000
646.577640 370.485930 19.124172 0.000000
666.508610 376.722930 20.297886 0.000000
665.537600 376.116180 20.271681 0.000000
663.206670 377.299650 20.247021 0.000000
661.386350 367.364720 19.466295 0.000000
659.511660 367.772460 19.442886 0.000000
661.378050 367.361690 20.064272 0.000000
660.718140 373.513030 20.143311 0.000000
660.126590 373.535950 20.131895 0.000000
659.472170 367.675320 20.033533 0.000000
659.539670 373.557890 20.120342 0.000000
658.955750 373.573360 20.108540 0.000000
658.393740 373.667360 20.098097 0.000000
657.831360 373.754330 20.087332 0.000000
657.269590 373.838930 20.076326 0.000000
656.708310 373.922180 20.065100 0.000000
656.147400 374.005490 20.053665 0.000000
655.586490 374.087620 20.041996 0.000000
655.024960 374.167390 20.030067 0.000000
654.463010 374.247250 20.017912 0.000000
653.900020 374.326020 20.005503 0.000000
653.335880 374.403750 19.992834 0.000000
652.770200 374.480470 19.979897 0.000000
652.199950 374.456090 19.965242 0.000000
651.632140 374.523740 19.951693 0.000000
651.062560 374.526310 19.936991 0.000000
650.493230 374.509670 19.921818 0.000000
649.924010 374.493160 19.906429 0.000000
648.777470 374.551880 19.876041 0.000000
648.199520 374.591830 19.860538 0.000000
647.618290 374.631590 19.844723 0.000000
647.033450 374.671020 19.828581 0.000000
646.156980 369.866670 19.735949 0.000000
646.431400 374.799870 19.812963 0.000000
645.838500 374.827450 19.795982 0.000000
670.729430 366.232360 20.865078 0.000000
669.820560 365.943970 20.831280 0.000000
669.000120 366.620610 20.834053 0.000000
655.744200 368.283480 20.549583 0.000000
669.546260 366.464660 20.842667 0.000000
661.369200 367.357240 20.662458 0.000000
657.593750 367.979800 20.586729 0.000000
655.282780 368.359620 20.540331 0.000000
654.821170 368.435880 20.531076 0.000000
654.359010 368.512150 20.521807 0.000000
653.896060 368.588380 20.512520 0.000000
653.432130 368.664730 20.503206 0.000000
652.499820 368.818180 20.484497 0.000000
652.030880 368.895360 20.475084 0.000000
670.421510 365.844420 21.514330 0.000000
669.837040 366.856020 21.544861 0.000000
669.326420 367.077150 21.536808 0.000000
669.234680 367.898680 21.577168 0.000000
670.117000 365.460850 22.144289 0.000000
670.274290 364.819640 22.764078 0.000000
670.506530 365.944850 23.558926 0.000000
670.398680 366.688750 24.325392 0.000000
669.894840 366.932160 24.308887 0.000000
669.626460 368.449250 18.927599 0.000000
669.096800 368.631260 18.929955 0.000000
670.368040 364.498350 18.977995 0.000000
669.856020 364.662020 18.983919 0.000000
669.297790 364.759890 18.990908 0.000000
668.717220 364.814850 18.998295 0.000000
668.453610 368.638280 18.936005 0.000000
668.271000 365.020450 19.000998 0.000000
667.687620 365.040680 19.007875 0.000000
667.645390 368.373380 18.948050 0.000000
667.074280 368.437350 18.951199 0.000000
666.304380 368.160190 18.962013 0.000000
665.780640 368.256840 18.963024 0.000000
665.084590 368.036290 18.971090 0.000000
664.365660 367.734560 18.980463 0.000000
663.846920 367.771150 18.981091 0.000000
663.252010 367.639040 18.985199 0.000000
662.473750 361.214940 18.674347 0.000000
662.586610 367.328120 18.993044 0.000000
662.003720 361.140870 18.685835 0.000000
662.105160 367.372890 18.991837 0.000000
661.725520 361.371090 18.681458 0.000000
661.551330 367.237550 18.994438 0.000000
661.315000 361.371700 18.687883 0.000000
661.095890 361.709590 18.677147 0.000000
660.962160 366.985440 18.999357 0.000000
660.542660 367.119960 18.994503 0.000000
659.965450 366.830510 18.999411 0.000000
659.617980 361.101200 18.720360 0.000000
659.489990 361.629940 18.698309 0.000000
659.714780 367.412080 18.982744 0.000000
659.281430 367.499850 18.977537 0.000000
658.944820 361.238770 18.719852 0.000000
658.703250 361.526400 18.708370 0.000000
658.644040 362.292300 18.673649 0.000000
658.435060 362.727110 18.654236 0.000000
658.331120 367.374270 18.973122 0.000000
658.095150 362.828090 18.650171 0.000000
657.933720 367.552640 18.964256 0.000000
657.702210 362.769040 18.653160 0.000000
657.455320 363.150450 18.634701 0.000000
657.504940 367.618930 18.957693 0.000000
656.897280 363.139250 18.633636 0.000000
657.065980 367.636510 18.951889 0.000000
656.629520 367.651580 18.945698 0.000000
656.081910 363.516300 18.610516 0.000000
656.195310 367.663600 18.939135 0.000000
655.713870 363.498110 18.608376 0.000000
655.340210 363.435030 18.607891 0.000000
655.354980 367.808810 18.921465 0.000000
654.992250 363.483950 18.601507 0.000000
654.644040 363.528110 18.594826 0.000000
654.101680 363.445070 18.591063 0.000000
653.267330 363.839510 18.556093 0.000000
652.912600 363.827420 18.549515 0.000000
652.559270 363.815340 18.542433 0.000000
652.207210 363.803220 18.534843 0.000000
651.680850 363.786040 18.522383 0.000000
651.155820 363.768310 18.508919 0.000000
650.806340 363.755800 18.499281 0.000000
650.456910 363.743320 18.489113 0.000000
650.107480 363.730870 18.478407 0.000000
649.757750 363.718380 18.467161 0.000000
649.832700 368.111820 18.777040 0.000000
649.103030 363.277530 18.466206 0.000000
649.403750 368.128420 18.762604 0.000000
648.758420 363.265050 18.453560 0.000000
648.973210 368.143800 18.747662 0.000000
648.403440 363.316310 18.436705 0.000000
648.541690 368.150540 18.732456 0.000000
648.064330 363.249210 18.426025 0.000000
648.111450 368.132420 18.717546 0.000000
647.726200 363.178410 18.415056 0.000000
647.676510 368.137120 18.701298 0.000000
647.366580 363.216460 18.397097 0.000000
647.236940 368.155520 18.683975 0.000000
646.752810 362.797910 18.389317 0.000000
647.013240 363.208160 18.381229 0.000000
646.794740 368.170620 18.666155 0.000000
646.389830 362.836360 18.369602 0.000000
646.360110 368.131680 18.649715 0.000000
