# .PCD v0.7 - Point Cloud Data file format
VERSION 0.7
FIELDS x y z intensity
SIZE 4 4 4 4
TYPE F F F F
COUNT 1 1 1 1
WIDTH 1166
HEIGHT 1
VIEWPOINT 0 0 0 1 0 0 0
POINTS 1166
DATA ascii
656.985290 308.405090 17.459038 0.000000
656.662170 308.409030 17.470547 0.000000
656.191890 308.407410 17.486721 0.000000
655.742070 308.405880 17.501369 0.000000
655.386900 308.405670 17.378366 0.000000
654.939580 308.121800 17.281778 0.000000
654.907650 308.403990 17.395899 0.000000
654.763730 308.894780 17.374105 0.000000
654.762210 309.251830 17.490435 0.000000
654.761110 309.624690 17.472502 0.000000
654.759950 310.016240 17.453234 0.000000
654.758670 310.428010 17.432529 0.000000
654.756900 310.865390 17.560602 0.000000
654.486020 306.007970 17.312374 0.000000
654.476380 308.187620 17.296652 0.000000
654.467900 308.845920 17.254883 0.000000
654.050960 308.614930 17.284475 0.000000
659.253300 308.413180 18.021448 0.000000
658.834900 308.411770 18.025343 0.000000
658.434450 308.410460 18.028788 0.000000
658.050540 308.409210 18.031809 0.000000
657.681950 308.408050 18.034437 0.000000
657.328370 308.407990 17.889118 0.000000
656.981990 308.401860 17.893877 0.000000
656.658330 308.405790 17.897903 0.000000
656.178410 308.394620 17.903366 0.000000
655.737060 308.402770 17.907825 0.000000
655.311830 308.402400 17.779221 0.000000
654.901730 308.401030 17.785040 0.000000
654.762450 308.899050 17.772688 0.000000
654.760930 309.256990 17.897930 0.000000
654.759770 309.630800 17.889877 0.000000
654.758540 310.023380 17.881115 0.000000
654.757260 310.436310 17.871590 0.000000
654.755490 310.874940 18.011492 0.000000
659.253360 308.410710 18.348553 0.000000
658.834530 308.409330 18.345264 0.000000
658.433720 308.408080 18.341928 0.000000
658.049320 308.406890 18.338541 0.000000
657.800600 305.418580 18.292601 0.000000
657.325500 308.404660 18.331625 0.000000
656.978520 308.398440 18.327988 0.000000
656.495540 308.402040 18.322712 0.000000
656.033330 308.404850 18.317322 0.000000
655.732120 308.399720 18.313526 0.000000
655.306400 308.399410 18.175770 0.000000
654.897220 308.399870 18.172945 0.000000
654.761170 308.903320 18.170605 0.000000
654.759580 309.262120 18.305174 0.000000
654.762630 309.642880 18.307137 0.000000
654.763920 310.040370 18.308977 0.000000
654.755800 310.444580 18.310511 0.000000
654.754520 310.881320 18.312119 0.000000
658.833800 308.404510 18.985779 0.000000
658.677060 305.414400 18.576923 0.000000
658.428530 308.401250 18.811810 0.000000
658.223080 305.413090 18.566427 0.000000
657.796140 305.411830 18.556475 0.000000
657.393490 305.410610 18.547012 0.000000
657.321660 308.400180 18.921947 0.000000
657.013060 305.409450 18.537992 0.000000
656.979370 308.399170 18.907499 0.000000
656.652890 305.408390 18.529383 0.000000
656.490170 308.397770 18.886850 0.000000
656.311100 305.407350 18.521137 0.000000
655.831420 305.405910 18.509430 0.000000
655.381470 305.404600 18.498312 0.000000
655.157410 308.393950 18.830593 0.000000
655.099240 305.403720 18.491251 0.000000
654.760190 308.567930 18.820915 0.000000
654.759030 308.910430 18.834740 0.000000
654.757810 309.268980 18.849211 0.000000
654.756650 309.644990 18.864388 0.000000
654.755370 310.040040 18.880333 0.000000
654.752560 310.894070 18.914804 0.000000
654.570190 305.402160 18.477825 0.000000
654.480960 305.656860 18.482141 0.000000
654.478270 306.120880 18.493904 0.000000
654.477050 306.489780 18.503111 0.000000
654.475770 306.881230 18.512707 0.000000
654.474430 307.292880 18.522654 0.000000
654.473450 307.582000 18.529547 0.000000
654.472050 308.040470 18.540321 0.000000
654.470460 308.526150 18.551582 0.000000
654.469300 308.870030 18.559448 0.000000
654.468140 309.230620 18.567617 0.000000
654.466980 309.609440 18.576113 0.000000
654.465640 310.007900 18.584965 0.000000
654.465450 310.430050 18.594290 0.000000
654.462650 310.872040 18.603886 0.000000
659.253660 308.404510 19.167736 0.000000
658.833440 308.402070 19.306986 0.000000
658.431210 308.400940 19.283171 0.000000
658.046880 308.401580 19.106546 0.000000
657.675540 308.398900 19.238710 0.000000
657.319700 308.397920 19.217905 0.000000
656.977050 308.396970 19.197964 0.000000
656.487490 308.395600 19.169640 0.000000
656.021670 308.395390 19.004957 0.000000
655.723820 308.394560 18.990162 0.000000
655.365360 308.393550 18.971916 0.000000
654.759340 308.570220 19.081705 0.000000
654.758180 308.913300 19.101484 0.000000
654.756960 309.272400 19.122274 0.000000
654.755740 309.649080 19.144163 0.000000
654.754390 310.044770 19.167252 0.000000
654.753420 310.458400 19.044367 0.000000
654.751590 310.900450 19.217443 0.000000
659.263240 308.408050 19.662739 0.000000
658.833070 308.399630 19.629238 0.000000
658.430420 308.398590 19.598532 0.000000
658.044680 308.397800 19.569324 0.000000
657.317750 308.395660 19.514771 0.000000
656.974850 308.394780 19.489309 0.000000
656.484800 308.393460 19.453272 0.000000
656.017090 308.392270 19.419214 0.000000
655.718810 308.391450 19.397717 0.000000
655.218020 308.389130 19.494499 0.000000
654.787170 308.526820 19.473063 0.000000
654.757320 308.916140 19.369234 0.000000
654.756100 309.275850 19.396383 0.000000
654.754820 309.653140 19.425032 0.000000
654.753540 310.049590 19.455311 0.000000
654.752010 310.466770 19.487347 0.000000
654.750550 310.906890 19.521339 0.000000
655.426270 308.388520 19.645782 0.000000
654.756470 308.919040 19.638254 0.000000
670.213810 292.197780 16.612316 0.000000
670.404480 292.581670 16.633984 0.000000
669.734620 291.475680 16.574457 0.000000
669.816770 291.898590 16.604767 0.000000
669.587400 291.078220 16.548063 0.000000
668.971010 290.436550 16.518097 0.000000
669.169620 290.805600 16.541504 0.000000
668.210940 302.053680 16.836468 0.000000
668.225220 302.418460 16.849783 0.000000
668.239500 302.784640 16.862455 0.000000
668.253780 303.152400 16.874491 0.000000
668.268070 303.522030 16.885899 0.000000
668.338130 303.901520 16.893194 0.000000
668.300660 304.268340 16.906567 0.000000
668.246640 304.632930 16.920265 0.000000
668.331730 305.024840 16.924816 0.000000
668.344850 305.407140 16.933144 0.000000
668.322080 289.833560 16.490028 0.000000
667.911010 299.174500 16.719410 0.000000
668.060850 299.523590 16.728313 0.000000
668.075440 299.884030 16.746246 0.000000
668.113890 300.243500 16.761835 0.000000
668.152470 300.603880 16.776772 0.000000
668.169980 300.965330 16.792490 0.000000
668.184750 301.327360 16.807732 0.000000
668.196720 301.690030 16.822502 0.000000
667.817080 305.668240 16.973270 0.000000
667.827510 306.046720 16.980282 0.000000
667.820980 306.424350 16.987673 0.000000
667.870300 306.821230 16.991125 0.000000
667.868530 289.141420 16.444738 0.000000
667.884460 289.603450 16.485258 0.000000
667.702640 298.297940 16.682690 0.000000
667.757570 298.829960 16.710310 0.000000
667.388550 307.062010 17.025112 0.000000
667.509640 307.483670 17.022999 0.000000
667.390200 307.831820 17.034288 0.000000
667.499510 308.262880 17.031605 0.000000
667.542720 288.856170 16.429962 0.000000
667.029480 308.481780 17.061815 0.000000
666.980100 308.856380 17.066948 0.000000
667.088560 288.173950 16.381811 0.000000
667.162410 288.610320 16.419950 0.000000
666.837770 297.018010 16.658197 0.000000
667.058110 297.505650 16.676090 0.000000
667.041140 297.860320 16.699863 0.000000
666.659240 309.518130 17.087948 0.000000
666.681580 309.932950 17.086872 0.000000
666.854130 287.838290 16.357534 0.000000
666.384950 296.240450 16.633297 0.000000
666.305540 310.161990 17.108051 0.000000
666.277650 310.558230 17.108458 0.000000
666.479250 287.099300 16.297796 0.000000
666.314760 295.551640 16.586710 0.000000
666.266660 295.919220 16.617371 0.000000
665.920170 310.786130 17.127195 0.000000
666.115050 286.858400 16.284622 0.000000
665.876160 294.972870 16.569260 0.000000
666.012020 295.285340 16.585356 0.000000
665.600590 286.223180 16.235268 0.000000
665.859680 286.539180 16.260048 0.000000
665.422730 293.879670 16.506413 0.000000
665.584410 294.358580 16.537220 0.000000
664.928650 293.174870 16.473593 0.000000
665.223690 293.413270 16.477633 0.000000
664.529170 292.625460 16.445932 0.000000
664.836060 292.849240 16.449238 0.000000
664.068300 292.117800 16.423122 0.000000
664.082520 292.479370 16.457195 0.000000
663.679500 291.956390 16.428450 0.000000
663.061950 300.706700 16.780474 0.000000
663.103940 300.979550 16.789541 0.000000
663.135740 301.253630 16.798946 0.000000
663.170470 301.666780 16.813059 0.000000
663.190370 302.081390 16.827288 0.000000
663.189450 302.496730 16.841833 0.000000
663.174800 302.912200 16.856333 0.000000
663.265380 303.345760 16.860462 0.000000
663.027400 304.151760 16.899923 0.000000
662.963320 304.564300 16.912996 0.000000
663.048770 304.872130 16.910341 0.000000
663.229190 291.469600 16.403358 0.000000
663.215760 291.848510 16.442499 0.000000
662.931210 299.759310 16.742661 0.000000
662.961300 300.165590 16.762184 0.000000
663.015690 300.435300 16.771236 0.000000
662.751340 305.083130 16.938498 0.000000
662.790710 305.382200 16.938393 0.000000
662.664980 305.779820 16.952091 0.000000
662.554320 306.184690 16.963301 0.000000
662.436580 298.467500 16.706606 0.000000
662.532590 298.856600 16.723856 0.000000
662.606870 299.249600 16.741743 0.000000
662.301030 306.834170 16.984179 0.000000
662.120180 307.211670 16.997271 0.000000
661.991760 307.459140 17.005795 0.000000
661.857060 307.703000 17.014198 0.000000
661.715760 307.942960 17.022520 0.000000
661.567990 308.178740 17.030748 0.000000
661.552060 308.483370 17.027472 0.000000
659.269960 306.508210 16.936569 0.000000
659.243230 306.748600 16.934351 0.000000
659.215330 306.991550 16.931578 0.000000
659.185000 307.236540 16.928377 0.000000
659.136050 307.609160 16.922510 0.000000
659.083070 307.986910 16.915615 0.000000
658.886660 308.424220 16.917589 0.000000
658.680420 299.615510 16.607061 0.000000
658.728940 302.084810 16.719734 0.000000
658.746220 302.486720 16.727951 0.000000
658.737920 302.889160 16.737123 0.000000
658.711610 303.189670 16.745085 0.000000
658.712890 303.498290 16.748018 0.000000
658.688780 303.908540 16.753201 0.000000
658.674130 304.327420 16.754702 0.000000
658.664490 304.755620 16.753036 0.000000
658.653380 305.192630 16.748947 0.000000
658.642940 305.640590 16.742044 0.000000
658.635010 305.984070 16.735111 0.000000
658.616150 306.330690 16.727768 0.000000
658.514220 306.764160 16.725578 0.000000
658.457210 308.422610 16.954689 0.000000
658.397950 297.955410 16.510553 0.000000
658.546390 298.328610 16.525085 0.000000
658.642270 298.716160 16.545216 0.000000
658.670040 299.116090 16.572786 0.000000
658.676510 299.416380 16.593845 0.000000
658.315060 307.151820 16.733406 0.000000
658.154600 307.436680 16.739096 0.000000
658.278440 297.680020 16.499588 0.000000
657.864560 307.898070 16.748070 0.000000
657.679500 308.167660 16.753120 0.000000
657.289980 308.420290 16.777817 0.000000
657.131840 308.040370 16.815649 0.000000
656.938050 308.418980 16.812256 0.000000
656.601320 308.417630 16.844570 0.000000
656.278990 308.416380 16.874897 0.000000
654.761780 310.038090 16.870493 0.000000
654.760860 310.364470 16.840818 0.000000
654.759890 310.705380 16.809181 0.000000
654.469180 310.667300 16.831114 0.000000
662.450200 291.206300 16.415791 0.000000
662.003850 297.747650 16.693298 0.000000
662.090520 298.128630 16.713518 0.000000
662.031010 291.110660 16.426380 0.000000
661.626830 296.906710 16.659876 0.000000
661.674380 297.293550 16.686886 0.000000
661.664120 290.991150 16.431263 0.000000
661.157410 290.799560 16.433998 0.000000
660.572390 290.311580 16.405157 0.000000
660.250730 308.083440 17.130125 0.000000
660.132390 308.458830 17.131409 0.000000
660.265260 289.795530 16.358055 0.000000
660.418400 290.055050 16.382084 0.000000
660.036870 295.621550 16.675385 0.000000
660.101750 295.981230 16.704556 0.000000
660.182190 296.457210 16.741777 0.000000
660.238400 296.811650 16.768444 0.000000
659.939150 289.286960 16.310324 0.000000
660.109250 289.536070 16.333580 0.000000
659.706480 294.026460 16.534330 0.000000
659.791200 294.400020 16.568972 0.000000
659.868350 294.770780 16.602470 0.000000
659.967590 295.258730 16.644878 0.000000
659.520630 298.416930 16.682898 0.000000
659.547300 298.740940 16.704512 0.000000
659.588500 299.169800 16.730564 0.000000
659.627440 299.597290 16.754469 0.000000
659.663940 300.024350 16.776316 0.000000
659.695130 300.451840 16.796486 0.000000
659.713500 300.880310 16.815838 0.000000
659.719540 301.202090 16.829800 0.000000
659.717710 301.524200 16.843220 0.000000
659.704900 301.953860 16.860369 0.000000
659.678960 302.383510 16.876671 0.000000
659.640810 302.812930 16.892006 0.000000
659.598690 303.243470 16.905512 0.000000
659.553770 303.675960 16.917038 0.000000
659.518250 304.002040 16.924458 0.000000
659.488100 304.332310 16.929890 0.000000
659.442630 304.775820 16.935749 0.000000
659.390810 305.223720 16.939922 0.000000
659.338750 305.799160 16.940502 0.000000
659.317570 306.033540 16.939644 0.000000
659.294740 306.269930 16.938332 0.000000
659.571960 288.808470 16.265503 0.000000
659.771790 289.032960 16.285799 0.000000
659.447390 293.608640 16.505772 0.000000
659.360960 297.225220 16.598478 0.000000
659.447330 297.654080 16.627789 0.000000
659.492000 298.090910 16.659887 0.000000
658.891780 308.421910 17.219252 0.000000
659.265620 288.476840 16.234768 0.000000
658.953250 292.287750 16.380329 0.000000
658.969600 293.475710 16.523603 0.000000
659.035890 296.876340 16.599220 0.000000
658.685490 299.912930 16.625677 0.000000
658.691220 300.307890 16.648531 0.000000
658.696530 300.701600 16.668947 0.000000
658.707700 301.095090 16.686157 0.000000
658.718870 301.588440 16.704584 0.000000
658.461550 308.420320 17.248501 0.000000
658.839660 288.050750 16.194471 0.000000
658.724670 291.986300 16.356329 0.000000
658.819520 292.694820 16.439482 0.000000
658.771790 293.027530 16.483328 0.000000
658.434390 294.885560 16.441072 0.000000
658.569030 295.063050 16.449696 0.000000
658.697080 295.610990 16.500528 0.000000
658.712100 295.962010 16.537863 0.000000
658.734990 296.301910 16.571768 0.000000
658.051390 308.419950 17.132524 0.000000
658.477360 287.779270 16.170277 0.000000
658.385010 291.612790 16.328167 0.000000
658.157590 294.538670 16.423721 0.000000
658.297300 294.710720 16.432402 0.000000
658.068180 297.229160 16.480255 0.000000
658.194950 297.498750 16.492165 0.000000
658.097900 287.531490 16.148209 0.000000
657.939030 291.167760 16.293695 0.000000
657.724300 294.039400 16.397566 0.000000
657.943420 294.286160 16.410643 0.000000
657.629390 296.454010 16.447479 0.000000
657.838320 296.790830 16.460840 0.000000
657.293580 308.417110 17.188372 0.000000
657.713010 287.294160 16.126507 0.000000
657.479250 290.739200 16.258837 0.000000
657.346310 293.644010 16.375858 0.000000
657.575680 293.878330 16.388735 0.000000
657.353880 296.046450 16.430370 0.000000
657.521000 296.289250 16.440697 0.000000
657.131100 308.035740 17.082312 0.000000
656.939880 308.416870 17.080166 0.000000
657.324340 287.066100 16.104706 0.000000
657.093320 290.417760 16.232153 0.000000
656.956600 293.265380 16.353922 0.000000
657.114690 293.414030 16.362591 0.000000
656.945860 295.499210 16.405655 0.000000
657.182250 295.808290 16.419960 0.000000
656.602780 308.415620 17.106674 0.000000
656.929990 286.849820 16.083466 0.000000
656.583860 290.051090 16.201933 0.000000
656.789730 290.194400 16.213902 0.000000
656.508300 292.803770 16.320204 0.000000
656.730290 293.035770 16.337976 0.000000
656.455080 294.903470 16.375557 0.000000
656.642940 295.122560 16.386934 0.000000
656.279910 308.414400 17.131514 0.000000
656.531860 286.643710 16.062265 0.000000
656.375980 289.911500 16.190025 0.000000
656.202760 292.504790 16.296631 0.000000
656.352420 292.656920 16.309326 0.000000
656.064940 294.482480 16.352701 0.000000
656.262020 294.690490 16.364140 0.000000
655.821590 308.413700 17.041246 0.000000
656.073300 286.541080 16.055281 0.000000
655.954100 289.644070 16.166473 0.000000
656.166020 289.775880 16.178215 0.000000
655.725400 292.078310 16.261637 0.000000
655.966740 292.288390 16.279041 0.000000
655.656860 294.084320 16.329832 0.000000
655.863890 294.280000 16.341032 0.000000
655.387270 308.412050 17.076241 0.000000
655.855530 286.330230 16.028650 0.000000
655.632450 289.454160 16.149048 0.000000
655.476500 291.877720 16.244785 0.000000
655.446590 293.894070 16.318356 0.000000
654.865420 308.174930 17.017830 0.000000
654.764160 309.065920 17.075415 0.000000
654.761050 310.038700 17.128937 0.000000
654.760070 310.365420 17.104843 0.000000
654.758670 310.707550 17.213541 0.000000
655.304440 286.107450 16.003214 0.000000
655.197020 289.215060 16.126301 0.000000
655.043460 291.567780 16.219053 0.000000
655.218440 291.688960 16.229248 0.000000
655.014830 293.530580 16.295444 0.000000
655.229250 293.712280 16.307741 0.000000
654.476680 308.042880 17.060482 0.000000
654.760010 308.650540 17.106579 0.000000
654.468440 310.669250 17.096491 0.000000
654.754820 288.992340 16.104042 0.000000
654.777100 291.392790 16.203966 0.000000
654.569270 293.190220 16.272446 0.000000
654.793580 293.357510 16.284037 0.000000
654.059270 308.621000 17.045649 0.000000
654.418700 288.836610 16.087835 0.000000
654.416260 291.170440 16.184088 0.000000
654.275150 292.964690 16.254261 0.000000
653.935490 308.747560 17.043591 0.000000
654.077090 288.695010 16.072611 0.000000
653.754150 290.837340 16.154984 0.000000
654.042660 290.970730 16.166430 0.000000
653.887820 292.711000 16.234735 0.000000
653.616030 288.523530 16.053356 0.000000
653.462830 290.713070 16.143856 0.000000
653.487730 292.480160 16.216978 0.000000
653.153260 288.364500 16.033920 0.000000
653.070980 290.560240 16.129562 0.000000
653.078860 292.270360 16.199982 0.000000
652.804020 288.255680 16.019705 0.000000
652.580930 290.380620 16.110704 0.000000
652.775450 290.453860 16.118996 0.000000
652.663760 292.078340 16.183500 0.000000
652.453740 288.155060 16.005474 0.000000
652.292480 290.266850 16.096340 0.000000
652.326900 291.939700 16.170893 0.000000
651.984010 288.036190 15.987240 0.000000
651.903870 290.127620 16.077747 0.000000
651.901310 291.784420 16.155706 0.000000
651.630620 287.956600 15.973807 0.000000
651.511290 290.002780 16.059715 0.000000
651.471560 291.647800 16.141262 0.000000
651.275940 287.887970 15.960872 0.000000
651.114990 289.893280 16.042435 0.000000
651.045410 291.513370 16.123655 0.000000
651.214780 291.568630 16.131483 0.000000
650.802550 287.808720 15.943888 0.000000
650.715820 289.798520 16.025799 0.000000
650.704100 291.413120 16.108404 0.000000
650.446900 287.759920 15.931622 0.000000
650.314510 289.718170 16.009747 0.000000
650.273800 291.304110 16.090130 0.000000
650.091190 287.720580 15.919633 0.000000
649.911010 289.654360 15.994728 0.000000
649.926940 291.231600 16.076145 0.000000
649.616270 287.686550 15.905042 0.000000
649.506900 289.603120 15.979967 0.000000
649.578430 291.171880 16.062754 0.000000
649.259770 287.676910 15.895525 0.000000
649.101810 289.569210 15.966434 0.000000
649.141050 291.115810 16.046896 0.000000
649.022640 287.676060 15.889453 0.000000
648.797970 289.552830 15.956718 0.000000
648.702700 291.079100 16.032120 0.000000
648.439510 291.067230 16.023872 0.000000
646.297970 289.732450 15.892019 0.000000
646.347600 291.113160 15.945075 0.000000
646.116460 287.904750 15.812499 0.000000
646.003480 289.776250 15.883366 0.000000
645.806150 289.796750 15.875093 0.000000
645.913450 291.156250 15.926548 0.000000
658.896850 308.419590 17.520109 0.000000
658.465880 308.418060 17.541502 0.000000
658.056820 308.416630 17.561375 0.000000
657.605410 308.370180 17.583609 0.000000
657.297180 308.413940 17.597048 0.000000
657.130310 308.031070 17.347755 0.000000
656.942690 308.413790 17.480030 0.000000
656.604800 308.412570 17.497839 0.000000
656.126220 308.410890 17.522230 0.000000
655.673280 308.409300 17.544498 0.000000
655.386900 308.409210 17.438025 0.000000
654.989500 308.292080 17.350130 0.000000
654.764470 308.587010 17.462318 0.000000
654.757930 309.059200 17.559877 0.000000
654.761600 309.423890 17.543087 0.000000
654.760500 309.803740 17.525061 0.000000
654.759090 310.284910 17.502182 0.000000
654.757450 310.709720 17.616070 0.000000
654.500730 305.415100 17.318552 0.000000
654.475650 308.040500 17.392618 0.000000
654.467590 310.671140 17.360861 0.000000
654.057250 308.619230 17.270473 0.000000
653.934810 308.747590 17.268549 0.000000
658.904480 308.416110 17.970501 0.000000
658.472350 308.414670 17.980089 0.000000
658.055180 308.408420 17.988930 0.000000
657.641240 308.389650 17.997149 0.000000
657.299560 308.411830 17.868679 0.000000
656.945430 308.410710 17.878534 0.000000
656.606870 308.409550 17.887642 0.000000
656.127320 308.407930 17.899937 0.000000
655.673460 308.406430 17.910976 0.000000
655.386230 308.406070 17.797850 0.000000
655.067690 308.364500 17.807837 0.000000
654.763430 308.584990 17.811571 0.000000
654.762390 308.924040 17.803421 0.000000
654.760500 309.423400 17.912169 0.000000
654.759640 309.725400 17.905931 0.000000
654.758180 310.204130 17.895414 0.000000
654.756230 310.711880 18.017275 0.000000
654.507450 305.411960 17.688671 0.000000
654.474370 308.037380 17.832832 0.000000
658.912110 308.412630 18.420719 0.000000
658.478760 308.411250 18.418457 0.000000
658.067630 308.410030 18.416140 0.000000
657.676700 308.408810 18.413765 0.000000
657.304380 308.407620 18.411339 0.000000
656.948240 308.407620 18.276293 0.000000
656.608890 308.406520 18.276680 0.000000
656.128360 308.405000 18.276848 0.000000
655.673650 308.403590 18.276636 0.000000
655.386170 308.402710 18.276260 0.000000
655.105040 308.397670 18.275677 0.000000
654.762020 308.582340 18.275978 0.000000
654.760740 308.992100 18.278353 0.000000
654.752690 309.415190 18.280296 0.000000
654.758480 309.725460 18.281721 0.000000
654.757020 310.205170 18.283291 0.000000
654.755070 310.714050 18.418186 0.000000
654.514530 305.409120 18.057169 0.000000
654.478580 306.296810 18.157267 0.000000
654.473080 308.034270 18.271368 0.000000
658.922240 308.407960 19.022348 0.000000
658.487430 308.406770 19.004169 0.000000
658.074830 308.405580 18.986923 0.000000
657.682680 308.404480 18.970528 0.000000
657.471370 305.420070 18.583914 0.000000
657.309080 308.403410 18.954908 0.000000
656.988460 305.409880 18.573038 0.000000
656.952820 308.402470 18.940018 0.000000
656.565670 305.411560 18.563835 0.000000
656.612300 308.401460 18.925777 0.000000
656.166630 305.410370 18.554985 0.000000
656.130190 308.400150 18.905621 0.000000
655.794560 305.409270 18.546667 0.000000
655.674010 308.398860 18.886551 0.000000
655.446410 305.408230 18.538822 0.000000
655.383240 308.396670 18.754581 0.000000
655.107970 308.397250 18.862886 0.000000
654.966370 305.406860 18.527895 0.000000
654.756100 308.575010 18.740158 0.000000
654.758420 308.989380 18.755747 0.000000
654.750610 309.413880 18.771460 0.000000
654.756960 309.725620 18.783163 0.000000
654.755430 310.206600 18.800938 0.000000
654.753780 310.716190 18.819685 0.000000
654.508910 305.454710 18.519152 0.000000
654.479130 305.821810 18.530628 0.000000
654.477910 306.194920 18.542862 0.000000
654.476680 306.587520 18.555496 0.000000
654.474910 307.001920 18.568569 0.000000
654.474240 307.328800 18.578741 0.000000
654.472840 307.789830 18.592836 0.000000
654.472050 308.031950 18.600136 0.000000
659.387570 308.406890 19.352179 0.000000
658.927370 308.405640 19.324398 0.000000
658.491760 308.404480 19.298191 0.000000
658.078490 308.403380 19.273417 0.000000
657.685670 308.402340 19.249954 0.000000
657.311520 308.401310 19.227688 0.000000
656.954710 308.400390 19.206539 0.000000
656.613650 308.399440 19.186399 0.000000
656.130860 308.398160 19.158043 0.000000
655.674070 308.396940 19.131369 0.000000
655.246400 308.395780 19.106571 0.000000
654.759580 308.577670 19.089737 0.000000
654.758240 308.989110 19.114944 0.000000
654.756840 309.421720 19.141602 0.000000
654.755800 309.725680 19.160433 0.000000
654.754030 310.041440 19.180027 0.000000
654.753170 310.545620 19.211597 0.000000
659.395750 308.405820 19.664341 0.000000
658.932500 308.403290 19.627655 0.000000
658.496090 308.402190 19.593365 0.000000
658.082090 308.401150 19.561012 0.000000
657.688600 308.400150 19.530436 0.000000
657.313960 308.399170 19.501478 0.000000
656.956540 308.398320 19.474035 0.000000
656.451660 308.397000 19.435558 0.000000
655.974980 308.395780 19.399548 0.000000
655.674320 308.394100 19.500399 0.000000
655.245790 308.393010 19.465105 0.000000
654.778440 308.529660 19.438532 0.000000
654.757200 308.987790 19.476160 0.000000
654.755680 309.421230 19.513477 0.000000
654.755070 309.725740 19.413067 0.000000
654.754030 310.042910 19.438148 0.000000
654.752320 310.546840 19.478329 0.000000
670.659360 297.138460 16.761654 0.000000
670.745790 297.545930 16.787247 0.000000
670.177190 296.833340 16.761889 0.000000
669.869020 295.642300 16.684095 0.000000
669.935490 296.050540 16.713219 0.000000
670.123720 296.423000 16.733248 0.000000
669.341920 294.958680 16.652748 0.000000
669.397090 295.367800 16.683708 0.000000
669.094910 294.184540 16.598772 0.000000
669.137080 294.602480 16.632294 0.000000
668.701050 293.908170 16.592236 0.000000
668.380620 293.609590 16.579960 0.000000
667.516360 304.667760 16.926929 0.000000
667.527590 305.022580 16.941010 0.000000
667.601990 305.567020 16.957169 0.000000
667.738650 306.127990 16.968174 0.000000
667.571290 307.560730 17.025129 0.000000
667.086980 302.738740 16.864988 0.000000
667.185790 303.254610 16.884745 0.000000
667.252200 303.601900 16.897173 0.000000
667.318970 303.952030 16.909048 0.000000
667.386170 304.305270 16.920380 0.000000
667.306090 306.412960 17.008492 0.000000
667.476140 306.806180 17.009340 0.000000
667.456670 307.166470 17.021740 0.000000
667.347050 308.246640 17.058382 0.000000
667.294190 308.605960 17.070328 0.000000
667.294370 309.173220 17.082119 0.000000
666.705020 301.224640 16.805286 0.000000
666.794430 301.556580 16.819117 0.000000
666.884580 301.890870 16.832388 0.000000
666.975590 302.227750 16.845102 0.000000
667.058170 309.668790 17.106936 0.000000
666.766910 309.947110 17.130508 0.000000
666.855960 310.367520 17.130688 0.000000
666.928470 310.789950 17.131279 0.000000
666.227720 299.598820 16.730871 0.000000
666.292660 299.924930 16.749269 0.000000
666.513370 300.400420 16.765892 0.000000
666.616330 300.894810 16.790895 0.000000
666.107120 299.283390 16.716536 0.000000
665.500310 298.739750 16.718105 0.000000
665.207340 298.149080 16.691717 0.000000
665.331050 298.448550 16.707123 0.000000
664.802310 296.935270 16.616541 0.000000
664.942140 297.560000 16.661104 0.000000
662.683170 303.690550 16.893372 0.000000
662.721620 303.960480 16.901726 0.000000
662.830630 304.375490 16.908648 0.000000
662.813350 305.190640 16.939869 0.000000
662.815670 305.604370 16.952660 0.000000
662.694030 306.135220 16.978294 0.000000
662.770810 306.433350 16.978455 0.000000
662.739440 306.708770 16.987265 0.000000
662.637700 303.422210 16.885139 0.000000
662.655270 304.759520 16.939693 0.000000
662.571590 306.947910 17.006992 0.000000
662.641170 307.253450 17.006071 0.000000
662.608280 307.677460 17.015068 0.000000
662.444090 308.061610 17.033804 0.000000
662.277590 308.591460 17.052082 0.000000
662.184750 308.853390 17.061073 0.000000
662.036320 309.243350 17.074047 0.000000
659.358830 308.193210 17.006458 0.000000
659.315550 308.424990 17.008278 0.000000
658.638490 300.813260 16.594482 0.000000
658.659850 301.110570 16.616018 0.000000
658.745540 303.871520 16.765125 0.000000
658.754580 304.171780 16.774189 0.000000
658.766970 304.575870 16.784311 0.000000
658.764100 304.982210 16.794123 0.000000
658.760500 305.289920 16.800211 0.000000
658.734250 305.595610 16.807747 0.000000
658.711240 306.010560 16.814226 0.000000
658.696230 306.326720 16.817249 0.000000
658.553340 300.527100 16.581331 0.000000
658.682130 306.538600 16.818970 0.000000
658.678280 306.756100 16.818720 0.000000
658.669800 307.312190 16.815001 0.000000
658.661250 307.769500 16.809269 0.000000
658.653750 308.120360 16.803337 0.000000
658.643250 308.356450 16.799131 0.000000
658.303830 308.425480 16.837837 0.000000
657.430050 308.421720 16.940350 0.000000
670.452030 286.847990 16.465006 0.000000
670.522520 287.387050 16.512276 0.000000
669.817320 286.103550 16.407207 0.000000
667.840030 292.984380 16.546803 0.000000
667.921330 293.381010 16.579214 0.000000
667.645870 292.640260 16.523273 0.000000
667.193240 292.431520 16.522240 0.000000
666.867550 292.165890 16.510166 0.000000
666.218870 291.651950 16.485794 0.000000
665.862980 290.975920 16.432074 0.000000
665.995180 291.342530 16.463760 0.000000
665.548460 290.726350 16.418194 0.000000
665.085080 290.124760 16.372375 0.000000
665.190190 290.512180 16.408897 0.000000
664.846800 289.829770 16.349426 0.000000
664.792970 297.273100 16.646645 0.000000
664.930360 297.893620 16.689793 0.000000
664.233700 289.350160 16.317932 0.000000
664.326540 289.751800 16.358086 0.000000
664.402950 296.737640 16.625380 0.000000
663.656860 289.339230 16.334425 0.000000
664.151980 296.496090 16.619881 0.000000
663.504460 295.759120 16.591846 0.000000
663.587520 296.055630 16.615110 0.000000
663.646730 296.360080 16.640066 0.000000
663.233760 289.217130 16.333590 0.000000
663.012940 295.646640 16.611645 0.000000
662.815730 289.101750 16.332790 0.000000
662.885440 295.376370 16.592585 0.000000
662.325930 289.063260 16.342030 0.000000
662.308290 295.002750 16.589367 0.000000
662.426450 295.270900 16.609919 0.000000
662.323000 301.980830 16.836819 0.000000
662.459720 302.498020 16.853985 0.000000
662.546200 302.891240 16.867176 0.000000
662.596310 303.155910 16.876007 0.000000
661.906070 288.974520 16.343168 0.000000
661.823850 294.932130 16.610716 0.000000
662.056700 300.837370 16.786913 0.000000
662.073850 301.223450 16.811863 0.000000
662.205570 301.598850 16.824198 0.000000
661.510860 288.873380 16.341721 0.000000
661.602420 300.137050 16.777111 0.000000
661.706540 300.501770 16.795065 0.000000
661.170590 288.726750 16.333145 0.000000
660.518130 288.423250 16.312563 0.000000
660.274480 288.186830 16.289709 0.000000
660.144590 294.644590 16.675171 0.000000
660.209530 294.913480 16.701557 0.000000
660.354980 295.131650 16.717312 0.000000
660.225770 299.572450 16.856709 0.000000
660.317080 299.905550 16.876354 0.000000
659.783200 287.715790 16.242722 0.000000
660.029170 287.951480 16.266489 0.000000
659.786320 293.262450 16.533075 0.000000
659.899600 293.683900 16.577484 0.000000
660.008060 294.099700 16.620441 0.000000
660.077510 294.373350 16.648134 0.000000
659.813540 297.380460 16.682537 0.000000
659.900700 297.726010 16.711239 0.000000
659.970700 298.075560 16.740725 0.000000
660.034180 298.423890 16.769304 0.000000
660.113460 298.885680 16.805845 0.000000
660.169560 299.230190 16.832041 0.000000
659.281620 287.252010 16.194710 0.000000
659.533630 287.483060 16.218853 0.000000
659.558230 292.922670 16.502871 0.000000
659.487490 296.219150 16.579672 0.000000
659.534550 296.464390 16.604256 0.000000
659.609990 296.824460 16.638769 0.000000
659.734500 297.157590 16.665215 0.000000
659.424190 300.876430 16.764170 0.000000
659.456420 301.298710 16.792133 0.000000
659.483150 301.720120 16.818409 0.000000
659.504210 302.141050 16.843035 0.000000
659.519900 302.562010 16.866034 0.000000
659.528200 302.877990 16.882280 0.000000
659.533080 303.194460 16.897541 0.000000
659.536070 303.617490 16.916470 0.000000
659.534550 304.042270 16.933729 0.000000
659.522460 304.468570 16.949987 0.000000
659.507690 304.897640 16.964375 0.000000
659.489200 305.330230 16.976986 0.000000
659.482300 305.659390 16.984331 0.000000
658.958250 287.115540 16.182798 0.000000
658.921940 291.447570 16.344461 0.000000
659.087100 291.679140 16.367661 0.000000
659.242130 291.918150 16.391699 0.000000
659.070800 292.799470 16.510536 0.000000
659.099550 296.027980 16.587112 0.000000
659.287840 299.601170 16.670418 0.000000
659.342470 300.027440 16.703024 0.000000
659.386230 300.452850 16.734488 0.000000
659.476990 305.993130 16.990133 0.000000
659.463620 306.442840 16.996696 0.000000
659.444340 306.899170 17.001619 0.000000
659.403750 307.597470 17.005861 0.000000
659.378050 307.953120 17.006582 0.000000
659.337950 308.425350 17.297098 0.000000
658.448000 286.658630 16.132631 0.000000
658.505620 291.067540 16.310789 0.000000
658.717220 291.253780 16.327269 0.000000
658.543580 294.541840 16.440554 0.000000
658.701290 294.872470 16.472708 0.000000
658.723450 295.290010 16.524530 0.000000
658.737920 295.560700 16.557400 0.000000
658.684330 297.769810 16.543058 0.000000
658.699710 298.112090 16.580688 0.000000
658.713930 298.447600 16.616245 0.000000
658.799930 298.863950 16.651270 0.000000
658.966130 299.141330 16.661516 0.000000
658.664730 301.309300 16.630898 0.000000
658.671200 301.606020 16.652006 0.000000
658.678710 301.999970 16.678162 0.000000
658.684880 302.392550 16.702002 0.000000
658.694150 302.882750 16.728043 0.000000
658.698850 303.373720 16.751242 0.000000
658.725340 303.671420 16.760223 0.000000
658.815920 308.427670 17.198963 0.000000
658.064940 286.619170 16.132057 0.000000
658.284730 290.891910 16.295536 0.000000
658.182680 294.211580 16.420553 0.000000
658.305110 296.999300 16.487972 0.000000
658.494080 297.265260 16.502285 0.000000
658.248470 299.790920 16.552326 0.000000
658.367860 300.063810 16.563282 0.000000
658.481200 300.340420 16.574196 0.000000
658.324340 308.422360 17.243225 0.000000
657.836790 286.348420 16.100023 0.000000
657.836430 290.550900 16.265030 0.000000
658.061830 290.719420 16.280243 0.000000
657.814450 293.894470 16.400606 0.000000
657.999570 294.051270 16.410549 0.000000
657.891720 296.495450 16.462631 0.000000
658.103390 296.742800 16.474951 0.000000
657.854250 298.997990 16.518450 0.000000
658.036010 299.345670 16.533606 0.000000
658.165710 299.611300 16.544863 0.000000
657.374820 286.127840 16.075706 0.000000
657.375670 290.228970 16.235401 0.000000
657.608150 290.386780 16.249985 0.000000
657.533390 293.665890 16.385723 0.000000
657.529910 296.096440 16.441862 0.000000
657.409670 298.244480 16.483606 0.000000
657.563170 298.491240 16.495304 0.000000
657.711670 298.742130 16.506948 0.000000
657.014340 290.011200 16.215481 0.000000
657.152890 293.372380 16.365997 0.000000
657.158080 295.712710 16.420790 0.000000
657.041080 297.682530 16.453960 0.000000
657.251770 298.002320 16.471554 0.000000
657.136110 308.031620 17.109213 0.000000
657.441100 308.419770 17.194042 0.000000
656.649230 289.802120 16.195827 0.000000
656.685730 293.005950 16.337921 0.000000
656.861510 293.162660 16.351692 0.000000
656.774840 295.346860 16.399515 0.000000
656.765560 297.294010 16.431519 0.000000
657.037660 308.419070 17.109165 0.000000
656.279300 289.604310 16.176567 0.000000
656.225650 292.639040 16.305853 0.000000
656.503480 292.856630 16.325047 0.000000
656.302250 294.929320 16.373760 0.000000
656.283630 296.707580 16.398182 0.000000
656.473570 296.919890 16.409618 0.000000
656.574160 308.417110 17.156412 0.000000
655.781490 289.353850 16.151144 0.000000
655.751950 292.292270 16.274286 0.000000
655.943240 292.428280 16.286844 0.000000
655.897580 294.600160 16.352341 0.000000
655.820130 296.236940 16.372213 0.000000
656.087280 296.502560 16.387114 0.000000
656.297610 308.412320 17.069155 0.000000
655.403750 289.177760 16.132559 0.000000
655.460330 292.096010 16.255793 0.000000
655.484190 294.288090 16.330780 0.000000
655.647340 294.414090 16.340199 0.000000
655.477720 295.917790 16.353380 0.000000
655.615970 296.043520 16.360929 0.000000
655.653500 308.414460 17.139505 0.000000
655.023070 289.011690 16.114182 0.000000
655.058110 291.855440 16.233255 0.000000
654.977780 293.935670 16.304632 0.000000
655.232360 294.109040 16.317692 0.000000
655.196410 295.674220 16.338196 0.000000
654.638790 288.856110 16.096371 0.000000
654.647830 291.631500 16.211557 0.000000
654.720760 293.768400 16.291401 0.000000
654.763790 295.326540 16.315479 0.000000
654.910830 308.198790 17.228655 0.000000
654.780460 308.505000 17.226238 0.000000
654.769040 308.917790 17.203993 0.000000
654.766540 309.714540 17.154015 0.000000
654.764830 310.146420 17.239990 0.000000
654.763790 310.471440 17.218737 0.000000
654.761780 310.741610 17.200933 0.000000
654.251280 288.712460 16.079088 0.000000
654.229610 291.425170 16.190874 0.000000
654.286190 293.503200 16.269512 0.000000
654.459900 293.608430 16.278563 0.000000
654.321410 294.998410 16.292027 0.000000
654.472290 310.700010 17.224964 0.000000
653.858460 288.584590 16.063204 0.000000
653.795960 291.252170 16.174080 0.000000
653.918400 293.326050 16.256634 0.000000
653.850890 294.712740 16.273834 0.000000
654.013370 294.799590 16.278509 0.000000
653.465090 288.464900 16.047272 0.000000
653.466740 291.135280 16.162430 0.000000
653.354190 293.093170 16.240273 0.000000
653.540590 293.170780 16.246401 0.000000
653.523680 294.548280 16.264572 0.000000
653.070860 288.352720 16.031456 0.000000
653.136600 291.026610 16.150875 0.000000
653.076660 292.977420 16.230036 0.000000
653.029110 294.319640 16.250786 0.000000
653.194520 294.392880 16.255373 0.000000
652.675540 288.249940 16.015800 0.000000
652.693970 290.895750 16.136175 0.000000
652.705630 292.831090 16.216150 0.000000
652.696290 294.182710 16.241825 0.000000
652.163090 288.075680 15.987355 0.000000
652.142760 290.741970 16.116575 0.000000
652.361080 290.806610 16.125412 0.000000
652.331240 292.698460 16.202847 0.000000
652.278260 294.025050 16.230770 0.000000
651.749390 288.044800 15.980383 0.000000
651.817810 290.641780 16.101673 0.000000
651.954710 292.578250 16.189871 0.000000
651.942320 293.911220 16.222027 0.000000
651.483950 287.995670 15.970579 0.000000
651.491090 290.549260 16.087091 0.000000
651.575740 292.471650 16.177494 0.000000
651.521120 293.783750 16.211128 0.000000
650.952450 287.909390 15.951323 0.000000
651.162170 290.466640 16.072996 0.000000
651.004390 292.336330 16.159880 0.000000
651.290470 292.399990 16.168547 0.000000
651.098630 293.671810 16.200478 0.000000
650.686280 287.873290 15.942040 0.000000
650.721440 290.369200 16.054745 0.000000
650.622560 292.261050 16.148502 0.000000
650.675290 293.576450 16.190073 0.000000
650.844670 293.612580 16.194223 0.000000
650.287110 287.826110 15.928211 0.000000
650.278320 290.287690 16.037292 0.000000
650.245060 292.179870 16.133816 0.000000
650.336430 293.512660 16.181896 0.000000
649.904720 287.686650 15.898744 0.000000
649.833560 290.221310 16.020498 0.000000
649.867000 292.107030 16.118729 0.000000
649.909360 293.458890 16.174868 0.000000
649.487060 287.770360 15.903435 0.000000
649.387510 290.171110 16.004578 0.000000
649.487180 292.047640 16.104311 0.000000
649.486760 293.408450 16.165047 0.000000
649.086850 287.763760 15.892828 0.000000
649.052610 290.143100 15.993109 0.000000
649.106200 292.000890 16.090405 0.000000
649.074340 293.321870 16.143942 0.000000
648.688230 287.763950 15.882086 0.000000
648.717470 290.124600 15.982105 0.000000
648.724430 291.968110 16.077293 0.000000
648.742310 293.261540 16.126637 0.000000
648.382450 290.114140 15.971552 0.000000
648.343380 291.936680 16.062393 0.000000
648.324280 293.200870 16.105280 0.000000
647.987920 293.163020 16.088528 0.000000
646.117740 293.149600 16.001926 0.000000
645.846800 291.885100 15.945911 0.000000
645.861820 293.173770 15.991032 0.000000
659.354980 308.423130 17.586187 0.000000
658.831850 308.421050 17.618198 0.000000
658.344790 308.419220 17.647600 0.000000
657.877320 308.419490 17.413960 0.000000
657.457580 308.416840 17.573370 0.000000
657.057370 308.415220 17.600258 0.000000
656.498410 308.413970 17.519403 0.000000
655.981020 308.412840 17.444366 0.000000
655.662660 308.411530 17.470190 0.000000
655.360230 308.410370 17.494295 0.000000
654.920590 308.500270 17.525331 0.000000
654.767880 308.909880 17.522232 0.000000
654.766480 309.355680 17.504587 0.000000
654.765380 309.707430 17.489582 0.000000
654.764470 310.015470 17.476072 0.000000
654.762570 310.465180 17.571312 0.000000
654.761720 310.736940 17.559803 0.000000
654.500850 305.416290 17.361132 0.000000
654.483150 307.435730 17.309879 0.000000
654.471070 310.694700 17.576498 0.000000
654.053100 308.620300 17.290882 0.000000
659.380430 308.419800 18.019875 0.000000
658.854680 308.417850 18.036484 0.000000
658.365170 308.416110 18.051662 0.000000
657.901790 308.415500 17.935240 0.000000
657.474060 308.413880 17.952087 0.000000
656.883000 308.411680 17.974783 0.000000
656.421750 308.410920 17.874653 0.000000
655.995300 308.409330 17.894966 0.000000
655.675420 308.408110 17.909220 0.000000
655.299260 308.406740 17.924906 0.000000
654.845280 308.536160 17.943251 0.000000
654.766480 308.899410 17.943705 0.000000
654.765010 309.345790 17.938745 0.000000
654.763850 309.698000 17.934080 0.000000
654.762630 310.069820 17.928381 0.000000
654.761350 310.458980 17.921783 0.000000
654.760500 310.731080 17.916739 0.000000
654.521420 305.414090 17.610971 0.000000
654.484190 305.820340 17.869390 0.000000
654.482360 306.581880 17.873625 0.000000
654.470210 310.691160 17.809685 0.000000
654.469480 310.687650 18.042274 0.000000
659.405940 308.416440 18.454308 0.000000
658.877500 308.414610 18.455397 0.000000
658.385680 308.412990 18.456251 0.000000
657.920170 308.412450 18.326391 0.000000
657.490480 308.410950 18.330946 0.000000
657.086980 308.409550 18.335035 0.000000
656.702700 308.409150 18.219713 0.000000
656.348570 308.406980 18.341995 0.000000
656.009580 308.405820 18.344936 0.000000
655.688170 308.404690 18.347555 0.000000
655.310490 308.403410 18.351038 0.000000
654.765990 308.569580 18.357273 0.000000
654.765010 308.889010 18.363176 0.000000
654.763550 309.335970 18.370893 0.000000
654.762330 309.688630 18.376564 0.000000
654.761050 310.060970 18.382118 0.000000
654.759700 310.450740 18.387581 0.000000
654.758850 310.723270 18.391161 0.000000
654.468260 310.682370 18.390528 0.000000
658.413090 308.408810 18.998163 0.000000
657.925230 305.417720 18.583904 0.000000
657.510190 308.409790 18.710770 0.000000
657.191710 305.415410 18.572021 0.000000
656.547610 305.413270 18.561518 0.000000
655.977540 305.411440 18.552168 0.000000
656.020260 308.403200 18.682959 0.000000
655.469060 305.409790 18.543768 0.000000
655.697690 308.402100 18.676786 0.000000
655.391540 308.401150 18.670864 0.000000
655.012510 305.408360 18.536173 0.000000
654.790710 308.478120 18.662148 0.000000
654.745480 308.865570 18.676426 0.000000
654.693790 309.152920 18.686489 0.000000
654.761600 309.562710 18.703579 0.000000
654.759890 310.054380 18.722111 0.000000
654.758540 310.444580 18.736641 0.000000
654.756710 310.857240 18.872854 0.000000
654.484560 305.650600 18.538254 0.000000
654.482970 306.093750 18.557762 0.000000
654.481630 306.479250 18.574375 0.000000
654.477910 307.009890 18.506023 0.000000
654.479000 307.220860 18.605446 0.000000
654.476680 307.994960 18.540068 0.000000
654.467040 310.677090 18.738697 0.000000
659.457280 308.409700 19.329538 0.000000
659.440670 308.412260 19.036572 0.000000
658.915770 308.409180 19.157845 0.000000
658.426820 308.406680 19.270746 0.000000
657.957030 308.406370 19.112654 0.000000
657.523560 308.405030 19.092281 0.000000
657.116700 308.403810 19.073193 0.000000
656.733280 308.402370 19.055218 0.000000
656.372560 308.401580 19.038389 0.000000
656.031010 308.400540 19.022470 0.000000
655.707340 308.399540 19.007416 0.000000
655.254030 308.398190 18.986399 0.000000
654.763920 308.553410 18.973061 0.000000
654.762880 308.873380 18.992147 0.000000
654.761720 309.205840 19.012041 0.000000
654.760500 309.555540 19.033051 0.000000
654.758730 310.047730 19.062733 0.000000
654.757320 310.438390 19.086382 0.000000
654.756100 310.782500 19.107859 0.000000
658.938900 308.405910 19.582956 0.000000
658.440670 308.404570 19.544773 0.000000
657.975650 308.403290 19.509293 0.000000
657.540280 308.402070 19.476234 0.000000
657.131650 308.400910 19.445354 0.000000
656.756410 308.401730 19.538420 0.000000
656.388610 308.397920 19.507153 0.000000
656.045410 308.397000 19.478424 0.000000
655.720280 308.396090 19.451372 0.000000
655.264950 308.394870 19.413820 0.000000
654.782230 308.505890 19.384022 0.000000
654.761660 308.808530 19.408485 0.000000
654.760250 309.195800 19.443018 0.000000
654.758910 309.545900 19.474331 0.000000
654.757200 310.038880 19.519018 0.000000
654.755310 310.429660 19.554840 0.000000
654.754640 310.847690 19.472586 0.000000
670.306950 307.554320 17.120920 0.000000
670.473140 307.981350 17.132139 0.000000
670.605590 308.410830 17.144972 0.000000
670.476070 309.212650 17.190601 0.000000
670.506160 309.634860 17.207592 0.000000
670.690490 310.097630 17.216251 0.000000
670.625430 310.936040 17.254505 0.000000
670.299930 308.767940 17.180992 0.000000
670.392520 310.448120 17.249010 0.000000
665.655760 307.949620 17.027170 0.000000
665.595400 308.590420 17.058573 0.000000
665.608830 308.923100 17.070219 0.000000
665.798220 309.303960 17.068539 0.000000
665.616270 309.593080 17.093433 0.000000
665.610410 309.930110 17.104963 0.000000
665.426940 310.215060 17.128603 0.000000
658.671390 307.424560 16.826916 0.000000
658.671200 307.837280 16.834339 0.000000
658.670170 308.151610 16.838573 0.000000
670.210940 294.228420 16.657476 0.000000
670.294680 294.665950 16.693613 0.000000
670.544130 295.030300 16.716784 0.000000
669.394710 293.427610 16.612825 0.000000
669.668520 294.007420 16.656612 0.000000
669.649410 303.998200 16.955597 0.000000
669.739380 304.381410 16.974567 0.000000
669.846860 304.767700 16.992022 0.000000
669.983700 305.158450 17.007299 0.000000
669.718200 305.538060 17.046837 0.000000
669.853090 305.932010 17.061245 0.000000
669.989140 306.331570 17.075310 0.000000
670.189510 306.742830 17.085360 0.000000
669.038270 301.376280 16.809389 0.000000
669.125430 301.745910 16.831678 0.000000
669.212950 302.116760 16.853458 0.000000
669.300900 302.489070 16.874735 0.000000
669.383060 303.054350 16.909109 0.000000
668.627380 301.062810 16.811001 0.000000
668.246400 300.005490 16.750401 0.000000
668.347290 300.361390 16.773058 0.000000
668.489810 300.710360 16.792025 0.000000
667.836300 299.539060 16.736683 0.000000
667.343380 298.736080 16.697489 0.000000
667.556400 299.049650 16.711998 0.000000
666.589780 298.415620 16.713741 0.000000
666.082030 297.675570 16.675585 0.000000
666.228390 297.989200 16.696203 0.000000
665.538820 297.155210 16.657255 0.000000
665.592590 297.498810 16.687082 0.000000
665.300600 296.518100 16.608280 0.000000
665.342290 296.870880 16.640717 0.000000
664.823910 296.184200 16.600939 0.000000
665.436830 306.326200 16.968172 0.000000
665.473510 307.277070 17.012272 0.000000
665.513060 307.602330 17.023859 0.000000
664.960390 304.916990 16.928745 0.000000
665.151490 305.377990 16.939999 0.000000
665.223330 305.688690 16.951666 0.000000
665.279420 306.001310 16.964191 0.000000
665.281250 306.935090 17.012171 0.000000
665.407590 308.225710 17.059509 0.000000
663.877440 295.373540 16.567345 0.000000
664.140380 295.789150 16.597136 0.000000
664.427120 303.734680 16.897579 0.000000
664.613400 304.169560 16.911020 0.000000
664.733150 304.464810 16.919960 0.000000
663.944950 302.611600 16.857082 0.000000
664.127260 303.026060 16.872765 0.000000
664.250730 303.306490 16.882618 0.000000
663.609250 301.796780 16.820805 0.000000
663.842900 302.191130 16.833054 0.000000
663.191770 301.020050 16.789612 0.000000
663.368350 301.411500 16.808821 0.000000
662.681460 300.437840 16.779121 0.000000
662.317080 299.980070 16.765476 0.000000
662.499150 300.207030 16.772388 0.000000
661.706050 299.205200 16.736969 0.000000
661.925660 299.547240 16.754328 0.000000
661.988460 299.806120 16.774906 0.000000
661.264160 298.959810 16.745863 0.000000
661.824830 306.759950 16.977957 0.000000
661.457340 305.122890 16.933626 0.000000
661.532100 305.610870 16.953056 0.000000
661.614260 305.985750 16.963926 0.000000
661.695370 306.490600 16.979635 0.000000
661.744320 307.127200 17.001831 0.000000
661.715700 307.631500 17.024019 0.000000
661.799620 308.432830 17.041285 0.000000
661.787350 308.829130 17.053490 0.000000
661.711910 309.075130 17.067238 0.000000
661.146610 304.285370 16.914696 0.000000
