# .PCD v0.7 - Point Cloud Data file format
VERSION 0.7
FIELDS x y z intensity
SIZE 4 4 4 4
TYPE F F F F
COUNT 1 1 1 1
WIDTH 1166
HEIGHT 1
VIEWPOINT 0 0 0 1 0 0 0
POINTS 1166
DATA ascii
678.240300 214.512100 14.102081 0.000000
678.350590 216.565080 14.179726 0.000000
678.389770 218.619640 14.258567 0.000000
678.514340 220.428910 14.324652 0.000000
678.371090 230.728380 14.710934 0.000000
678.436040 232.072160 14.756356 0.000000
678.451720 233.420040 14.802894 0.000000
678.466310 234.715930 14.847000 0.000000
678.479800 235.963620 14.888848 0.000000
676.281920 215.730800 15.586892 0.000000
676.181760 218.142640 15.638190 0.000000
676.587590 219.553070 15.660241 0.000000
680.214110 215.668520 15.520396 0.000000
681.121220 216.367660 15.518753 0.000000
684.429570 223.155060 15.588960 0.000000
685.040280 224.105010 15.594646 0.000000
685.278260 225.471020 15.614843 0.000000
685.272950 227.064330 15.643579 0.000000
685.304630 228.555860 15.669360 0.000000
685.261470 230.071590 15.696708 0.000000
685.255980 231.493060 15.721264 0.000000
685.250850 232.864730 15.744592 0.000000
685.267640 234.169370 15.765960 0.000000
677.211730 220.551970 16.971262 0.000000
685.246280 223.863390 16.931137 0.000000
685.268920 227.075040 16.935934 0.000000
685.263980 228.605870 16.938309 0.000000
685.257570 230.081090 16.940607 0.000000
685.252200 231.502010 16.942818 0.000000
685.247070 232.873150 16.944948 0.000000
685.242000 234.198060 16.947008 0.000000
675.544190 214.769260 16.971775 0.000000
674.755430 218.538150 16.981993 0.000000
676.401490 217.767640 16.971550 0.000000
676.483220 219.739730 16.974115 0.000000
679.494140 218.918330 16.955915 0.000000
685.287660 222.089040 16.928183 0.000000
685.274110 225.482420 16.933464 0.000000
685.237120 235.479630 16.949001 0.000000
685.243350 232.881610 18.144674 0.000000
685.238280 234.205980 18.126633 0.000000
685.233460 235.487110 18.109533 0.000000
676.259220 213.416960 18.391941 0.000000
675.459840 217.260030 18.320166 0.000000
675.808530 218.820770 18.294558 0.000000
676.999820 218.878250 18.299911 0.000000
679.037230 217.599840 18.333351 0.000000
684.932800 218.888670 18.351124 0.000000
685.283450 222.102010 18.303228 0.000000
685.276980 223.833450 18.276529 0.000000
685.269960 225.493850 18.251320 0.000000
685.264890 227.085820 18.227558 0.000000
685.260010 228.615970 18.205105 0.000000
685.253660 230.090590 18.183830 0.000000
685.248410 231.510990 18.163717 0.000000
685.239560 232.890030 19.344898 0.000000
685.235290 234.213350 19.306791 0.000000
685.229860 235.494600 19.270569 0.000000
674.387940 214.616180 19.747826 0.000000
676.301450 217.965820 19.652624 0.000000
678.946110 217.758160 19.704075 0.000000
679.950930 218.225160 19.705214 0.000000
685.272710 223.845630 19.622652 0.000000
685.265810 225.505280 19.569654 0.000000
685.244510 231.519930 19.385111 0.000000
675.705690 214.486660 19.771488 0.000000
677.506040 213.526640 19.833914 0.000000
680.231990 213.434370 19.880798 0.000000
685.292660 218.413640 19.801308 0.000000
685.285640 220.306610 19.738190 0.000000
685.235780 232.898480 20.546778 0.000000
676.177490 213.599230 21.236841 0.000000
676.663880 215.080370 21.165823 0.000000
676.242610 218.080470 20.987638 0.000000
678.140620 216.974720 21.100380 0.000000
679.113400 217.497240 21.099369 0.000000
680.039790 218.096370 21.094128 0.000000
684.488650 219.502700 21.161201 0.000000
674.913090 216.024770 22.437788 0.000000
678.830080 217.967220 22.440514 0.000000
679.568910 218.841080 22.407360 0.000000
685.540410 218.098130 22.723160 0.000000
674.500790 214.432010 23.946560 0.000000
674.980100 215.909520 23.826126 0.000000
677.053160 216.679930 23.850407 0.000000
679.952640 216.157670 24.044283 0.000000
670.776060 214.664580 26.515640 0.000000
673.590640 212.293930 13.862061 0.000000
673.958980 214.043730 13.940426 0.000000
674.319150 215.703060 14.014130 0.000000
674.592530 217.426510 14.092255 0.000000
674.969300 218.868880 14.154304 0.000000
675.340450 220.246920 14.212975 0.000000
675.698730 221.579120 14.269329 0.000000
675.995850 222.945630 14.328241 0.000000
676.315920 224.214420 14.381638 0.000000
676.577760 225.513660 14.437382 0.000000
678.125730 230.978000 14.657045 0.000000
677.941040 233.828050 14.792045 0.000000
678.422670 231.977750 14.695932 0.000000
678.242490 234.735080 14.825937 0.000000
678.457210 235.709840 14.864702 0.000000
675.435120 215.857850 15.336224 0.000000
675.502500 217.909820 15.395466 0.000000
678.260190 215.267470 15.291624 0.000000
685.317200 212.764530 15.150203 0.000000
684.450740 223.277710 15.465462 0.000000
684.448240 224.895890 15.512718 0.000000
684.863100 225.976680 15.540246 0.000000
685.264530 227.044590 15.567527 0.000000
685.259160 228.515350 15.610510 0.000000
685.253850 229.932680 15.651930 0.000000
685.248780 231.299970 15.691889 0.000000
685.243710 232.620880 15.730494 0.000000
685.239140 233.898130 15.767818 0.000000
685.245180 231.280090 16.884609 0.000000
685.240170 232.600860 16.903086 0.000000
685.235600 233.877930 16.921307 0.000000
685.231080 235.114550 16.939293 0.000000
674.958010 214.445570 16.657047 0.000000
676.285100 214.274430 16.656075 0.000000
675.359860 218.146760 16.694332 0.000000
676.775700 217.774380 16.692221 0.000000
677.449040 220.627090 16.723511 0.000000
680.373720 213.904600 16.657240 0.000000
679.433780 219.461580 16.715176 0.000000
685.267030 220.541960 16.745914 0.000000
685.272220 223.906740 16.787434 0.000000
685.267330 225.495940 16.807600 0.000000
685.260740 227.025330 16.827383 0.000000
685.255430 228.495880 16.846785 0.000000
685.250120 229.912960 16.865852 0.000000
685.241520 231.260240 18.077532 0.000000
685.236570 232.580800 18.075893 0.000000
685.232060 233.857760 18.075018 0.000000
685.227600 235.094240 18.074858 0.000000
675.369870 213.638460 18.025957 0.000000
675.554990 215.606320 18.009525 0.000000
676.160160 216.713810 18.006481 0.000000
677.059940 219.304030 17.995811 0.000000
678.471250 214.873370 18.050335 0.000000
685.280090 220.502240 18.114130 0.000000
685.268190 223.888030 18.098619 0.000000
685.290160 225.446720 18.093147 0.000000
685.256900 227.006100 18.087399 0.000000
685.251590 228.476410 18.083235 0.000000
685.246150 229.893550 18.079956 0.000000
685.233030 232.560790 19.250046 0.000000
685.228580 233.837540 19.230068 0.000000
685.224120 235.073900 19.211754 0.000000
676.880550 217.562560 19.326378 0.000000
677.893920 217.922680 19.340981 0.000000
685.265810 223.867490 19.411282 0.000000
685.258730 225.458860 19.378794 0.000000
685.253050 226.986890 19.348783 0.000000
685.277950 228.425140 19.322699 0.000000
685.260310 229.855710 19.296381 0.000000
674.889950 214.548100 19.367311 0.000000
676.768310 213.351320 19.441055 0.000000
677.403380 214.495420 19.422882 0.000000
679.601990 217.204190 19.402567 0.000000
680.360960 218.019320 19.401255 0.000000
685.229430 232.540700 20.426666 0.000000
685.225040 233.817310 20.387560 0.000000
685.220640 235.053530 20.351067 0.000000
676.323730 214.156360 20.788054 0.000000
677.007200 215.180800 20.761942 0.000000
676.572750 218.069720 20.612906 0.000000
679.873050 218.738820 20.703468 0.000000
682.598450 218.570830 20.818953 0.000000
685.253050 222.210020 20.788046 0.000000
680.087830 214.315290 20.908405 0.000000
681.555110 214.110990 20.971197 0.000000
682.783690 216.370360 20.919731 0.000000
675.691040 217.497410 21.921629 0.000000
678.869510 218.319600 22.016457 0.000000
678.004270 215.615520 22.148643 0.000000
673.937740 216.339860 23.245346 0.000000
677.237730 218.943910 23.204712 0.000000
675.415770 215.802540 23.368587 0.000000
677.320130 216.763400 23.391281 0.000000
682.441530 216.827120 23.697418 0.000000
675.240420 216.111270 24.677044 0.000000
670.890380 224.739230 14.156214 0.000000
671.022460 227.832350 14.336469 0.000000
671.678590 228.336550 14.353539 0.000000
672.444270 228.672360 14.358068 0.000000
673.652830 231.192290 14.477015 0.000000
674.367980 231.578430 14.482990 0.000000
672.112850 230.599150 14.475740 0.000000
672.882810 230.889530 14.476330 0.000000
674.176330 233.101970 14.572340 0.000000
675.916440 235.818440 14.678709 0.000000
678.696470 213.274830 14.731937 0.000000
682.474910 219.339290 14.943116 0.000000
682.949770 216.864360 14.842382 0.000000
683.044920 220.334240 14.976746 0.000000
684.388240 220.340100 14.964739 0.000000
684.441650 226.562810 15.200763 0.000000
685.339360 211.486300 14.611486 0.000000
682.860960 233.454440 15.472950 0.000000
682.865780 232.221710 15.427823 0.000000
682.870730 230.945920 15.380775 0.000000
682.875790 229.623990 15.331670 0.000000
682.852110 235.801830 15.557904 0.000000
682.856450 234.646940 15.516273 0.000000
675.729920 218.230470 16.214901 0.000000
679.224980 220.273800 16.274084 0.000000
683.099910 216.617540 16.212685 0.000000
685.300290 217.380690 16.238722 0.000000
685.307370 215.503520 16.198490 0.000000
685.263610 227.095310 16.446926 0.000000
685.238710 233.678390 16.588015 0.000000
685.243290 232.447740 16.561640 0.000000
685.248050 231.177060 16.534407 0.000000
685.253110 229.863460 16.506252 0.000000
685.258240 228.503970 16.477116 0.000000
685.229860 236.029740 16.638411 0.000000
685.234250 234.871580 16.613588 0.000000
675.901120 213.712570 16.118752 0.000000
676.501040 214.840500 16.145578 0.000000
676.906430 220.136080 16.260944 0.000000
676.768490 218.470890 16.224621 0.000000
680.475770 216.573270 16.200207 0.000000
685.293400 219.174560 16.277168 0.000000
685.269100 225.633960 16.415607 0.000000
685.235170 233.652800 17.722143 0.000000
685.239690 232.421720 17.713741 0.000000
685.244380 231.150540 17.705423 0.000000
685.226440 236.004970 17.739201 0.000000
685.230710 234.846440 17.730629 0.000000
675.705200 214.030790 17.466768 0.000000
675.900450 215.855130 17.474081 0.000000
676.956240 216.127330 17.491009 0.000000
677.226070 219.602680 17.505293 0.000000
677.866030 220.450990 17.518452 0.000000
679.155090 214.567990 17.521179 0.000000
680.464840 218.446980 17.554926 0.000000
683.199400 218.294340 17.601189 0.000000
684.365540 218.552980 17.622746 0.000000
685.253170 219.188080 17.641348 0.000000
685.259770 227.067230 17.680964 0.000000
685.265140 225.605260 17.672970 0.000000
685.254460 228.476440 17.689037 0.000000
685.231630 233.627170 18.857433 0.000000
685.234740 232.396870 18.866964 0.000000
685.240780 231.123990 18.877644 0.000000
685.245670 229.809400 18.889349 0.000000
685.222960 235.980210 18.841116 0.000000
685.227230 234.821260 18.848812 0.000000
675.496220 218.551700 18.729223 0.000000
676.398440 212.723270 18.848707 0.000000
677.127810 213.662160 18.851801 0.000000
678.417600 215.724670 18.853014 0.000000
678.748540 219.091020 18.810799 0.000000
678.762020 217.171540 18.840126 0.000000
679.830810 219.327260 18.838638 0.000000
684.208620 218.719420 18.979116 0.000000
685.255860 227.039060 18.916273 0.000000
685.261230 225.576540 18.931633 0.000000
685.250730 228.448850 18.902203 0.000000
685.228090 233.601440 19.994984 0.000000
685.219480 235.955380 19.945221 0.000000
685.223690 234.795990 19.969215 0.000000
675.269410 214.749180 20.111574 0.000000
678.860660 216.980180 20.169594 0.000000
679.796690 217.479970 20.190594 0.000000
680.157590 218.818470 20.161646 0.000000
676.667600 214.430830 20.173759 0.000000
677.335270 215.411650 20.164188 0.000000
679.257930 214.322830 20.275509 0.000000
682.032900 217.991260 20.267218 0.000000
684.806950 216.058990 20.447409 0.000000
685.216000 235.930470 21.052578 0.000000
676.448300 218.845180 21.275387 0.000000
677.482850 215.123720 21.525187 0.000000
679.500920 217.887470 21.482830 0.000000
680.417850 218.404970 21.505581 0.000000
681.969730 218.042250 21.608698 0.000000
675.779360 217.963880 22.565947 0.000000
677.023190 217.874760 22.648287 0.000000
680.888730 219.514710 22.785767 0.000000
682.937260 218.498670 22.994980 0.000000
683.714420 219.249910 23.000427 0.000000
674.234440 214.326460 24.081497 0.000000
674.721500 215.636170 23.990261 0.000000
675.528080 216.318450 23.981861 0.000000
676.783690 216.228070 24.078682 0.000000
677.079900 217.745470 23.962091 0.000000
680.579900 218.096070 24.198311 0.000000
679.065190 216.546950 24.217419 0.000000
680.556700 216.223050 24.359966 0.000000
671.099180 229.783680 14.435680 0.000000
671.142580 228.315090 14.349547 0.000000
671.231750 226.693480 14.252568 0.000000
672.127080 230.995240 14.480043 0.000000
672.073300 229.749190 14.410745 0.000000
673.263000 232.029940 14.508225 0.000000
673.099240 230.986970 14.454866 0.000000
673.400150 233.066060 14.561049 0.000000
674.465210 234.131060 14.587614 0.000000
674.305240 233.163300 14.540846 0.000000
683.674010 213.428790 14.622190 0.000000
685.329900 213.093780 14.589815 0.000000
674.655940 235.033200 14.629158 0.000000
678.492430 213.220750 14.666279 0.000000
682.173400 219.115450 14.860436 0.000000
682.899720 224.559630 15.053726 0.000000
682.721980 221.714970 14.951483 0.000000
682.539920 220.322910 14.901645 0.000000
684.371460 221.333860 14.914137 0.000000
682.856200 235.900760 15.440783 0.000000
682.861390 234.798890 15.405746 0.000000
682.865840 233.664030 15.369022 0.000000
682.870420 232.493230 15.330471 0.000000
682.896300 226.004290 15.105906 0.000000
675.796880 213.539150 16.025291 0.000000
676.321170 214.735320 16.053822 0.000000
676.689640 218.049800 16.128422 0.000000
677.192810 219.099580 16.152475 0.000000
677.889280 214.171980 16.045527 0.000000
678.708680 220.375850 16.182476 0.000000
680.396550 216.172290 16.094584 0.000000
684.463070 221.200520 16.202629 0.000000
684.380980 216.202420 16.099747 0.000000
685.284910 223.368230 16.245495 0.000000
685.290950 221.826110 16.214905 0.000000
685.303830 218.548680 16.148655 0.000000
685.310850 216.802900 16.112736 0.000000
685.332400 213.057880 16.034367 0.000000
685.237730 235.052320 16.462305 0.000000
685.243470 233.911680 16.442492 0.000000
685.248110 232.738450 16.421776 0.000000
685.252810 231.529370 16.400076 0.000000
685.257390 230.282230 16.377340 0.000000
676.572140 216.293620 17.368818 0.000000
676.195560 212.794540 17.350983 0.000000
676.804440 219.657840 17.384159 0.000000
677.270140 217.103470 17.381462 0.000000
680.936950 215.351590 17.426268 0.000000
681.522090 219.910430 17.450821 0.000000
685.234380 235.038890 17.556984 0.000000
685.226560 233.908870 17.552809 0.000000
685.244690 232.723920 17.548800 0.000000
685.253850 230.266450 17.540087 0.000000
685.275270 224.833300 17.520842 0.000000
685.293210 220.199680 17.504423 0.000000
675.512020 216.078200 17.353270 0.000000
679.131410 219.752760 17.416933 0.000000
681.693360 217.959520 17.446192 0.000000
685.286990 221.805510 17.510115 0.000000
685.282470 216.809510 17.492079 0.000000
685.231020 235.025480 18.652336 0.000000
685.236690 233.883790 18.664116 0.000000
685.241210 232.709380 18.676537 0.000000
685.245730 231.499080 18.689682 0.000000
685.250180 230.250640 18.703590 0.000000
674.451290 217.851990 18.571676 0.000000
675.563350 217.912890 18.598726 0.000000
676.190670 212.765210 18.692783 0.000000
677.235470 218.973800 18.625862 0.000000
679.427190 219.307460 18.678640 0.000000
679.189450 214.045680 18.748837 0.000000
679.473390 217.457350 18.706318 0.000000
679.980220 220.254330 18.680096 0.000000
685.271360 224.814470 18.768003 0.000000
685.283020 221.784880 18.806263 0.000000
685.287110 220.180360 18.827074 0.000000
685.228760 235.011110 19.749470 0.000000
674.103820 218.411190 19.768291 0.000000
675.087040 214.687810 19.930969 0.000000
676.896670 217.627410 19.897200 0.000000
678.102480 213.716420 20.072775 0.000000
679.158570 217.886660 19.974613 0.000000
679.799800 218.753480 19.971653 0.000000
679.584350 215.377560 20.072844 0.000000
681.954160 217.546400 20.095234 0.000000
685.267580 224.795650 20.017210 0.000000
684.576290 215.856540 20.253502 0.000000
685.267270 218.509980 20.200611 0.000000
676.373780 218.420360 21.093401 0.000000
678.308290 217.282710 21.247824 0.000000
678.777040 218.413820 21.214024 0.000000
680.165770 218.208010 21.295828 0.000000
681.660640 217.915270 21.388655 0.000000
682.354490 218.736370 21.385555 0.000000
683.703250 218.716980 21.459637 0.000000
684.357540 219.591160 21.454248 0.000000
675.962460 215.168960 22.546026 0.000000
679.003970 218.051120 22.528471 0.000000
679.491940 219.128020 22.486292 0.000000
674.690490 213.167250 22.619057 0.000000
679.151790 215.968730 22.681536 0.000000
683.978330 218.340850 22.837074 0.000000
675.459410 215.993090 23.743488 0.000000
677.944030 217.772670 23.762909 0.000000
675.049620 214.643420 23.838722 0.000000
677.730710 216.211980 23.885202 0.000000
680.740050 215.477540 24.173325 0.000000
681.367190 216.452410 24.137300 0.000000
681.981750 219.167510 23.956121 0.000000
682.445980 216.787570 24.193142 0.000000
683.162230 219.344600 24.037403 0.000000
673.816830 213.995760 13.957570 0.000000
673.955510 211.567250 13.814229 0.000000
674.593630 214.667510 13.990413 0.000000
675.265750 217.397800 14.140316 0.000000
675.380130 215.309460 14.020302 0.000000
676.076600 217.928620 14.161381 0.000000
675.970830 219.831420 14.268631 0.000000
676.786800 220.304470 14.284233 0.000000
677.374150 224.157520 14.482772 0.000000
677.475650 222.528380 14.394737 0.000000
677.560420 220.840940 14.302793 0.000000
678.092900 226.086640 14.570939 0.000000
678.268010 224.470490 14.484417 0.000000
679.073490 227.614930 14.629859 0.000000
678.980350 226.396450 14.570503 0.000000
678.466740 230.753190 14.796120 0.000000
678.500790 231.881530 14.849372 0.000000
678.833980 229.149780 14.710487 0.000000
679.334110 234.384480 14.945706 0.000000
675.924260 218.119370 15.383267 0.000000
677.257750 212.097440 15.155708 0.000000
680.778320 216.324400 15.314275 0.000000
683.059200 216.769120 15.325488 0.000000
683.668520 219.340420 15.413358 0.000000
683.690370 214.156250 15.230836 0.000000
684.168760 220.334590 15.445295 0.000000
684.461610 223.024430 15.533865 0.000000
684.467410 221.532440 15.484275 0.000000
684.859310 224.038700 15.564698 0.000000
685.281800 225.005230 15.593082 0.000000
685.317870 215.639340 15.278998 0.000000
685.266660 228.964650 15.716341 0.000000
685.240170 235.860110 15.913568 0.000000
685.261960 234.776760 15.884048 0.000000
674.749080 214.286730 16.501261 0.000000
676.052310 214.073300 16.514027 0.000000
679.091000 213.138350 16.533943 0.000000
679.415830 219.848210 16.664021 0.000000
679.911930 213.832580 16.557123 0.000000
683.145630 216.615070 16.645315 0.000000
685.277710 224.978780 16.810686 0.000000
685.283080 223.563200 16.787350 0.000000
685.288700 222.094420 16.762749 0.000000
685.300600 218.981250 16.709410 0.000000
685.306820 217.327820 16.680466 0.000000
685.284240 215.639010 16.650200 0.000000
677.246460 219.556550 16.634150 0.000000
677.560610 220.759800 16.660248 0.000000
685.236570 235.843120 16.975281 0.000000
685.240660 234.772380 16.960373 0.000000
685.262760 228.941930 16.873909 0.000000
675.128720 215.578050 17.777069 0.000000
675.129090 213.565170 17.775328 0.000000
676.276860 215.613460 17.804653 0.000000
676.812500 216.641390 17.818399 0.000000
677.365170 217.607510 17.832502 0.000000
678.661320 217.467830 17.863485 0.000000
679.164730 218.483900 17.876450 0.000000
679.362550 219.879430 17.882410 0.000000
682.071170 217.964860 17.945747 0.000000
683.619870 217.677120 17.982662 0.000000
684.296080 218.506820 17.999613 0.000000
685.270080 224.955840 18.028593 0.000000
685.278930 223.535310 18.027569 0.000000
685.232970 235.826140 18.037151 0.000000
685.237000 234.754550 18.036316 0.000000
685.271850 230.141540 18.033142 0.000000
685.258850 228.919200 18.031767 0.000000
685.229310 235.809100 19.100216 0.000000
685.233280 234.736690 19.113485 0.000000
685.270080 230.118040 19.174927 0.000000
685.265560 226.293490 19.228210 0.000000
675.030210 217.586820 18.983828 0.000000
676.465210 213.269840 19.111376 0.000000
678.059200 214.647000 19.143511 0.000000
678.659910 217.425250 19.117128 0.000000
678.603390 215.700840 19.144730 0.000000
679.270020 218.294480 19.124685 0.000000
680.497190 218.313320 19.169638 0.000000
682.656800 217.164220 19.268953 0.000000
683.676820 219.215390 19.274164 0.000000
685.258790 222.058910 19.290602 0.000000
685.304140 215.529540 19.394852 0.000000
675.558470 218.505770 20.184765 0.000000
676.396120 218.974090 20.208176 0.000000
685.255620 227.593140 20.390030 0.000000
685.260440 226.269320 20.429216 0.000000
674.989870 213.699460 20.333832 0.000000
675.903080 214.166080 20.358582 0.000000
677.007200 214.326600 20.404196 0.000000
678.835330 217.126370 20.391794 0.000000
679.704220 219.338760 20.358166 0.000000
681.977420 214.471730 20.638830 0.000000
682.888980 218.510930 20.547602 0.000000
683.569460 219.306630 20.556452 0.000000
685.287600 218.882680 20.659924 0.000000
685.254820 222.029110 20.558186 0.000000
670.837590 215.076980 21.311811 0.000000
674.871830 215.857640 21.491434 0.000000
678.354740 217.778240 21.594011 0.000000
680.470700 218.265240 21.700245 0.000000
682.824160 218.552190 21.836487 0.000000
682.642700 217.098480 21.898510 0.000000
683.691410 219.120610 21.864830 0.000000
681.707640 214.802150 21.958294 0.000000
670.998050 216.805450 22.408115 0.000000
681.173160 215.503330 23.217764 0.000000
673.228210 214.623550 23.978329 0.000000
676.810910 216.403440 24.098461 0.000000
677.122800 217.743620 24.002773 0.000000
680.583920 218.027760 24.279442 0.000000
681.964840 219.550420 24.274277 0.000000
679.106930 216.595660 24.275883 0.000000
680.699160 216.121090 24.456882 0.000000
681.926510 217.945740 24.407782 0.000000
670.847050 214.817320 26.261093 0.000000
671.056950 212.917740 13.656887 0.000000
670.761540 215.614790 13.830915 0.000000
671.463320 216.276400 13.863642 0.000000
671.794980 219.380770 14.051231 0.000000
672.087220 217.058720 13.903864 0.000000
672.472720 219.965150 14.076404 0.000000
673.151920 220.537630 14.099823 0.000000
673.843080 222.638000 14.212497 0.000000
674.551880 223.114470 14.226692 0.000000
672.954100 222.435870 14.216889 0.000000
674.454160 224.688890 14.319860 0.000000
675.066280 225.256200 14.339353 0.000000
675.037350 226.629900 14.417671 0.000000
675.653560 227.155730 14.432851 0.000000
676.108950 230.261060 14.590455 0.000000
676.173160 229.016280 14.522068 0.000000
676.230830 227.726590 14.450517 0.000000
676.749330 231.819660 14.654997 0.000000
676.676640 230.786760 14.603209 0.000000
677.424380 233.280730 14.710052 0.000000
677.366580 232.280330 14.661254 0.000000
685.332030 211.754270 14.759467 0.000000
677.324460 211.950470 14.820310 0.000000
678.858520 213.415990 14.873258 0.000000
677.460140 234.270580 14.758107 0.000000
682.837890 219.911010 15.099182 0.000000
683.774480 220.340360 15.105593 0.000000
684.462160 222.502930 15.177925 0.000000
684.467830 221.052370 15.124487 0.000000
685.324950 213.578490 14.831146 0.000000
685.318180 215.323210 14.898880 0.000000
682.860780 234.753650 15.619680 0.000000
682.864690 233.716020 15.586662 0.000000
684.441710 227.808850 15.366488 0.000000
684.446660 226.549970 15.322803 0.000000
684.451720 225.248110 15.276913 0.000000
684.456850 223.900270 15.228675 0.000000
685.274410 230.651490 15.449453 0.000000
682.871950 235.752370 15.650612 0.000000
675.713380 214.556550 16.176823 0.000000
676.695620 214.855960 16.190214 0.000000
680.395080 216.536000 16.249689 0.000000
683.056950 216.413880 16.259775 0.000000
685.301390 218.570070 16.315294 0.000000
685.307310 216.965480 16.281181 0.000000
685.276060 215.338680 16.246042 0.000000
685.284180 223.024250 16.407763 0.000000
685.289610 221.595320 16.378477 0.000000
685.295960 220.111280 16.347679 0.000000
676.959960 217.999770 16.264109 0.000000
677.970580 218.218870 16.274712 0.000000
678.959530 220.083830 16.321436 0.000000
685.268860 227.020810 16.487555 0.000000
685.273860 225.733660 16.462215 0.000000
685.279240 224.402210 16.435640 0.000000
685.250730 231.783510 16.577991 0.000000
685.255000 230.645750 16.556894 0.000000
685.242370 233.966050 16.617496 0.000000
685.246520 232.889620 16.598175 0.000000
675.005980 217.491030 17.416506 0.000000
685.270020 225.711380 17.640511 0.000000
685.247190 231.765380 17.668848 0.000000
685.251460 230.626910 17.663519 0.000000
685.243040 232.872210 17.674030 0.000000
676.543700 218.573680 17.449360 0.000000
677.013000 216.145800 17.446287 0.000000
677.685790 220.192320 17.477627 0.000000
678.417850 217.550090 17.478271 0.000000
680.514770 218.006030 17.518225 0.000000
681.690060 218.111110 17.539904 0.000000
681.704160 219.672300 17.547571 0.000000
684.754090 219.161120 17.600105 0.000000
685.303040 216.936190 17.599432 0.000000
685.307860 220.067150 17.614386 0.000000
685.284790 222.995240 17.627876 0.000000
685.254030 233.938080 17.679291 0.000000
674.896610 217.625310 18.587641 0.000000
675.520020 218.384320 18.595913 0.000000
676.373960 218.786320 18.616282 0.000000
679.442690 219.381270 18.703032 0.000000
685.266240 225.689060 18.819870 0.000000
685.276250 224.350940 18.834227 0.000000
685.243650 231.747220 18.760618 0.000000
685.256710 228.225850 18.794012 0.000000
685.235530 233.932540 18.741512 0.000000
685.239560 232.854770 18.750772 0.000000
676.622920 212.971980 18.702843 0.000000
678.651310 217.182950 18.706802 0.000000
680.338380 219.791750 18.726015 0.000000
681.887450 214.426240 18.842144 0.000000
682.887880 218.190340 18.826460 0.000000
684.064390 218.365400 18.861984 0.000000
685.261540 225.667630 20.001335 0.000000
685.248600 229.415300 19.908401 0.000000
685.253050 228.205340 19.937721 0.000000
685.236210 232.837220 19.829424 0.000000
685.240110 231.729080 19.854328 0.000000
676.446900 216.931290 19.848305 0.000000
676.770080 214.613390 19.935898 0.000000
679.257320 214.510220 20.043610 0.000000
679.867610 215.422880 20.041395 0.000000
679.884770 218.765080 19.940296 0.000000
680.287230 216.572360 20.024391 0.000000
682.010930 217.634640 20.069168 0.000000
683.413700 219.101500 20.090595 0.000000
684.785340 215.831650 20.247911 0.000000
685.288880 218.486190 20.195320 0.000000
676.174930 217.307940 21.022350 0.000000
676.491210 218.540650 20.978228 0.000000
675.900390 214.076750 21.171638 0.000000
676.843690 214.454680 21.201933 0.000000
679.503050 217.606930 21.192150 0.000000
680.278080 218.212250 21.207617 0.000000
682.424320 218.690770 21.311125 0.000000
683.692320 218.738970 21.384979 0.000000
684.344790 219.531680 21.389076 0.000000
683.990660 215.083860 21.571012 0.000000
670.837770 217.132220 21.900402 0.000000
679.652220 219.002260 22.349026 0.000000
680.736880 219.184840 22.414978 0.000000
682.731690 218.279750 22.617809 0.000000
683.204160 219.283780 22.589979 0.000000
680.552120 217.779970 23.745834 0.000000
680.948670 215.555620 23.963768 0.000000
680.227420 216.505080 25.102846 0.000000
682.388980 218.632280 25.104765 0.000000
681.090820 213.528760 25.489063 0.000000
681.442200 216.568660 25.214169 0.000000
682.567750 216.784390 25.303875 0.000000
677.546330 213.740600 14.146855 0.000000
677.956300 211.243060 14.015783 0.000000
678.320130 214.360020 14.159547 0.000000
678.377380 215.986740 14.235819 0.000000
678.402340 219.135190 14.382279 0.000000
678.389280 217.598830 14.311369 0.000000
678.541440 220.443530 14.438417 0.000000
678.772580 222.964460 14.544558 0.000000
678.642880 221.746190 14.494264 0.000000
678.885800 224.156920 14.593187 0.000000
682.874150 227.465790 14.602077 0.000000
678.942080 225.369380 14.643355 0.000000
678.708070 230.251270 14.850057 0.000000
679.163390 227.555020 14.727452 0.000000
679.102050 226.428150 14.682943 0.000000
679.468570 233.665310 14.951684 0.000000
679.462770 232.682330 14.916308 0.000000
679.507810 231.624240 14.875507 0.000000
679.636170 228.237110 14.739868 0.000000
677.317870 212.232120 15.341539 0.000000
679.957340 215.448260 15.410333 0.000000
680.682800 216.126480 15.421192 0.000000
683.985840 219.814580 15.476839 0.000000
684.467770 220.722900 15.492918 0.000000
685.323550 213.569230 15.289187 0.000000
685.330140 211.831790 15.240576 0.000000
685.310910 216.830220 15.378078 0.000000
685.316960 215.233760 15.334963 0.000000
675.812810 218.018280 15.532217 0.000000
684.463010 223.450620 15.561611 0.000000
684.462520 222.114180 15.528363 0.000000
684.436830 228.396130 15.678450 0.000000
685.273620 226.478470 15.619333 0.000000
685.278440 225.238650 15.590442 0.000000
685.265500 223.975070 15.560608 0.000000
685.264590 228.845640 15.672481 0.000000
685.236330 235.205800 15.800493 0.000000
685.243900 234.210420 15.781963 0.000000
685.248900 233.192290 15.762435 0.000000
679.845090 213.879070 16.628374 0.000000
682.880680 216.540650 16.661102 0.000000
685.300900 218.356980 16.679718 0.000000
685.306820 216.822080 16.664101 0.000000
685.289860 221.255810 16.708107 0.000000
685.295290 219.833500 16.694366 0.000000
674.827820 214.366170 16.623558 0.000000
675.225650 215.523190 16.639009 0.000000
675.680790 218.195220 16.672441 0.000000
676.526120 220.105800 16.696110 0.000000
677.362240 220.472630 16.701168 0.000000
679.212040 219.567150 16.692465 0.000000
680.466740 220.942550 16.707693 0.000000
685.284730 222.627720 16.720997 0.000000
685.265440 227.676320 16.765030 0.000000
685.269960 226.474350 16.755066 0.000000
685.255740 225.251620 16.744621 0.000000
685.279660 223.952820 16.733091 0.000000
685.261050 228.842380 16.774361 0.000000
685.236940 235.202010 16.818750 0.000000
685.240660 234.208920 16.812605 0.000000
685.244570 233.191220 16.805988 0.000000
675.159300 215.609070 17.813932 0.000000
678.488400 217.417340 17.849915 0.000000
679.802670 220.290650 17.850954 0.000000
680.932860 220.380260 17.866365 0.000000
682.771610 219.697660 17.896488 0.000000
684.832520 218.860210 17.930693 0.000000
685.285950 221.249620 17.922529 0.000000
685.257570 228.839100 17.875860 0.000000
685.261840 227.672610 17.883032 0.000000
685.241210 233.189380 17.849108 0.000000
675.564450 213.133010 17.834747 0.000000
676.695800 216.689270 17.829042 0.000000
677.124390 217.707840 17.828884 0.000000
678.071590 212.882920 17.871672 0.000000
678.411190 220.568560 17.829613 0.000000
679.281490 217.936950 17.857944 0.000000
685.291320 219.826720 17.931280 0.000000
685.250430 231.072480 17.862144 0.000000
685.233640 235.200790 17.836740 0.000000
685.237300 234.207380 17.842848 0.000000
674.902530 217.694730 18.930962 0.000000
675.396850 218.579010 18.922506 0.000000
678.337650 217.607330 19.024357 0.000000
678.929080 219.898680 18.986753 0.000000
681.028990 218.777600 19.071032 0.000000
685.262700 226.466060 19.026520 0.000000
685.249080 225.241700 19.051537 0.000000
685.245790 231.070890 18.933640 0.000000
685.258300 227.668930 19.001747 0.000000
685.230410 235.199580 18.855320 0.000000
685.234070 234.205890 18.873697 0.000000
685.238890 233.186770 18.892899 0.000000
678.462160 215.799850 19.070738 0.000000
680.689880 216.071110 19.124544 0.000000
682.941040 217.997150 19.142590 0.000000
684.537600 217.673100 19.195230 0.000000
685.292850 218.342070 19.201912 0.000000
685.287290 219.819890 19.169062 0.000000
677.066350 217.757810 20.147205 0.000000
678.788090 216.977650 20.247915 0.000000
679.861330 218.702800 20.220974 0.000000
685.250240 223.954900 20.253630 0.000000
685.242310 231.068360 20.006823 0.000000
674.490300 212.985900 20.254393 0.000000
675.086910 213.877900 20.237232 0.000000
675.995180 214.246220 20.255032 0.000000
677.018070 214.450780 20.284912 0.000000
677.464840 215.525680 20.256481 0.000000
681.972050 214.369840 20.483341 0.000000
682.618470 218.365040 20.349672 0.000000
683.529170 218.809970 20.371090 0.000000
685.294740 213.544480 20.653561 0.000000
685.278200 221.237180 20.355040 0.000000
685.283330 219.813030 20.408884 0.000000
685.288820 218.334530 20.465557 0.000000
685.222410 234.206330 20.940639 0.000000
679.384400 217.757280 21.433487 0.000000
680.158450 218.311920 21.443386 0.000000
675.677190 212.884000 21.538231 0.000000
676.515930 215.198030 21.436981 0.000000
677.349730 215.677030 21.450127 0.000000
682.010130 217.549940 21.589256 0.000000
683.675600 218.630620 21.622742 0.000000
682.728150 218.209350 22.828352 0.000000
683.197880 219.163220 22.792765 0.000000
684.257200 219.446620 22.849319 0.000000
674.684140 214.479840 23.794384 0.000000
676.904110 216.296690 23.778927 0.000000
680.545780 217.791890 23.925461 0.000000
680.867550 215.775210 24.138788 0.000000
681.933900 219.135090 23.919216 0.000000
682.470150 216.958800 24.161188 0.000000
676.997310 217.790710 24.819830 0.000000
679.881840 215.420470 25.351143 0.000000
680.299320 216.507710 25.268505 0.000000
681.463200 216.612400 25.367449 0.000000
682.580380 216.809600 25.454048 0.000000
671.010990 215.235730 25.784142 0.000000
681.435490 216.632660 26.627720 0.000000
671.241520 217.746150 13.930458 0.000000
671.695010 220.224700 14.065184 0.000000
671.896790 218.312090 13.946547 0.000000
672.331120 220.751970 14.076982 0.000000
685.318120 212.618610 14.524713 0.000000
672.165160 222.449630 14.179535 0.000000
672.874390 222.820630 14.177639 0.000000
672.789610 224.279170 14.261630 0.000000
673.525210 227.043210 14.383994 0.000000
673.567320 225.790330 14.316193 0.000000
673.627260 224.455830 14.242224 0.000000
674.248720 229.560670 14.483666 0.000000
674.256230 228.463380 14.428592 0.000000
674.295040 227.284520 14.367035 0.000000
675.020390 229.788790 14.462609 0.000000
677.730650 214.275910 14.750731 0.000000
680.966370 216.408140 14.762335 0.000000
682.987430 217.021640 14.735847 0.000000
675.146910 231.702590 14.547679 0.000000
675.051090 230.795090 14.509439 0.000000
675.436710 234.265580 14.648667 0.000000
675.326290 233.448330 14.618336 0.000000
675.224120 232.600390 14.585230 0.000000
675.566220 235.045150 14.675440 0.000000
675.770390 235.743990 14.694190 0.000000
681.388180 221.703950 14.935904 0.000000
682.189580 219.421250 14.838356 0.000000
682.456180 221.887920 14.913235 0.000000
682.903810 222.737980 14.928066 0.000000
682.884400 226.465560 15.042130 0.000000
682.888920 225.266880 15.006504 0.000000
682.893550 224.027190 14.968641 0.000000
682.880000 227.625950 15.075645 0.000000
682.864260 231.931270 15.190839 0.000000
682.868040 230.901120 15.164669 0.000000
682.871950 229.841460 15.136806 0.000000
682.875920 228.750500 15.107168 0.000000
682.849980 235.791990 15.280221 0.000000
682.849180 234.865660 15.260248 0.000000
676.903990 211.952360 15.916962 0.000000
680.742250 216.683730 15.984279 0.000000
683.163090 216.807430 15.962259 0.000000
685.296260 217.400270 15.948768 0.000000
685.302980 215.868290 15.922180 0.000000
685.285640 220.291580 15.996712 0.000000
676.305480 214.672880 15.978935 0.000000
676.167110 218.147020 16.052252 0.000000
676.713990 218.915190 16.063406 0.000000
676.927860 220.103970 16.085016 0.000000
677.293400 214.904720 15.977217 0.000000
678.909060 220.447800 16.072836 0.000000
683.944210 220.303340 16.013811 0.000000
684.427490 223.793210 16.062410 0.000000
685.286380 221.654420 16.018152 0.000000
685.258000 227.858800 16.106146 0.000000
685.262150 226.695660 16.091026 0.000000
685.266540 225.496770 16.074751 0.000000
685.252560 224.276790 16.057768 0.000000
685.249880 230.086790 16.133160 0.000000
685.253850 228.988490 16.120174 0.000000
685.231380 235.170200 16.184107 0.000000
685.231080 234.205060 16.175739 0.000000
680.750180 211.656280 17.178789 0.000000
682.908080 217.101650 17.198868 0.000000
685.005430 217.715030 17.206266 0.000000
685.286800 218.872920 17.207941 0.000000
675.112550 214.773670 17.157103 0.000000
676.072390 215.014480 17.163389 0.000000
676.271360 216.392000 17.168463 0.000000
676.443730 219.273830 17.176735 0.000000
677.362240 220.959640 17.184324 0.000000
678.479980 218.055790 17.183220 0.000000
679.031070 220.291560 17.189684 0.000000
681.351810 220.364590 17.197859 0.000000
684.831480 220.754150 17.207773 0.000000
685.272030 222.983410 17.208946 0.000000
685.276920 221.661190 17.208984 0.000000
685.267400 224.261930 17.208555 0.000000
685.246400 230.091200 17.201904 0.000000
685.250310 228.992550 17.203819 0.000000
685.270200 227.849350 17.205482 0.000000
685.228090 235.176220 17.188465 0.000000
685.231510 234.208280 17.191643 0.000000
675.925170 213.471620 18.360050 0.000000
675.973880 216.816500 18.309914 0.000000
676.372440 214.543400 18.351576 0.000000
676.709660 218.901730 18.291063 0.000000
676.932560 217.042910 18.323320 0.000000
677.988460 218.692690 18.316736 0.000000
679.340640 219.905790 18.322020 0.000000
680.584110 216.867110 18.390209 0.000000
680.883610 220.892640 18.334106 0.000000
682.269960 217.848310 18.404896 0.000000
684.333920 218.448820 18.432034 0.000000
685.143550 219.020890 18.437550 0.000000
685.259220 225.502300 18.340775 0.000000
685.244020 230.094790 18.270496 0.000000
685.246830 228.996600 18.287287 0.000000
685.224790 235.182300 18.192598 0.000000
685.228210 234.214050 18.207418 0.000000
685.248110 232.197800 18.238506 0.000000
674.082210 214.638020 19.470484 0.000000
674.174070 217.882190 19.363791 0.000000
675.192320 214.617810 19.503454 0.000000
677.944820 215.599850 19.552479 0.000000
678.758670 217.671260 19.509245 0.000000
679.926330 217.692760 19.544701 0.000000
680.092900 218.978350 19.508413 0.000000
685.274170 221.658710 19.591503 0.000000
685.243290 229.000670 19.371632 0.000000
685.221560 235.188390 19.197489 0.000000
685.221860 234.221890 19.223803 0.000000
677.492370 214.574710 19.572906 0.000000
679.068910 215.675260 19.584110 0.000000
682.510070 217.558170 19.630188 0.000000
683.734990 219.102910 19.620464 0.000000
685.316530 215.834320 19.774368 0.000000
685.273930 220.293490 19.633480 0.000000
685.278810 218.872920 19.677706 0.000000
674.772520 213.484210 20.721853 0.000000
675.627930 213.912520 20.734135 0.000000
675.605900 218.897980 20.475933 0.000000
676.556030 214.235890 20.755606 0.000000
677.051210 215.209900 20.726093 0.000000
679.024410 217.312640 20.704559 0.000000
685.265260 221.664870 20.785004 0.000000
685.246890 226.709320 20.557409 0.000000
685.256160 224.268800 20.666130 0.000000
685.260680 222.988750 20.724209 0.000000
685.239810 229.004760 20.457878 0.000000
680.083500 214.281080 20.903313 0.000000
681.517880 217.227260 20.820179 0.000000
682.096800 214.931580 20.959480 0.000000
683.475460 219.383500 20.806217 0.000000
673.323790 215.856630 21.673367 0.000000
674.536250 215.628360 21.752840 0.000000
677.953060 217.176270 21.831703 0.000000
677.951230 215.567790 21.941833 0.000000
678.457090 218.049450 21.801132 0.000000
682.581970 217.459730 22.082560 0.000000
674.416870 215.803150 22.886959 0.000000
674.729310 213.522660 23.111691 0.000000
678.474490 218.017470 22.968014 0.000000
677.489560 217.788420 24.078888 0.000000
679.289610 216.935650 24.316952 0.000000
680.674260 218.237240 24.303410 0.000000
681.989870 219.603470 24.284613 0.000000
681.364260 215.834440 24.605440 0.000000
681.894100 218.258850 24.408428 0.000000
684.685730 218.036100 24.681620 0.000000
680.871830 214.843750 25.929510 0.000000
680.968440 216.328060 25.761375 0.000000
682.707090 218.779690 25.652514 0.000000
682.675420 217.328920 25.816513 0.000000
671.130370 211.522860 13.675314 0.000000
672.389400 214.902690 13.870608 0.000000
673.061580 215.510590 13.895426 0.000000
672.971560 217.312770 14.008698 0.000000
673.673650 217.809620 14.023357 0.000000
673.624760 219.405400 14.120497 0.000000
674.353030 219.822510 14.127161 0.000000
674.365780 221.218320 14.208359 0.000000
675.160280 222.848530 14.279206 0.000000
675.084530 221.623140 14.212028 0.000000
685.310490 211.689160 14.694589 0.000000
675.133910 224.148410 14.352317 0.000000
675.811460 225.755490 14.418091 0.000000
675.775510 224.605440 14.357496 0.000000
675.863340 226.844570 14.473745 0.000000
676.654540 229.258360 14.567924 0.000000
676.562560 228.297470 14.523670 0.000000
676.504030 227.269350 14.473707 0.000000
676.889890 231.046480 14.644646 0.000000
676.739620 230.196430 14.610190 0.000000
678.865840 213.421720 14.857873 0.000000
683.574340 216.897050 14.919942 0.000000
685.313900 213.333450 14.756779 0.000000
677.046940 231.868740 14.676441 0.000000
677.467770 233.366680 14.725823 0.000000
677.221680 232.656010 14.704844 0.000000
677.621520 235.015380 14.788753 0.000000
677.510190 234.228790 14.760892 0.000000
677.767880 235.758700 14.812254 0.000000
682.578980 219.444050 15.031092 0.000000
683.024410 220.330810 15.053989 0.000000
682.869570 225.513320 15.231653 0.000000
684.312870 220.335950 15.028024 0.000000
684.396360 222.861880 15.111141 0.000000
684.456050 221.519520 15.065260 0.000000
684.435060 226.436310 15.223012 0.000000
684.441890 225.264100 15.186876 0.000000
682.863220 231.950210 15.421308 0.000000
682.866940 230.950030 15.394054 0.000000
682.870670 229.922260 15.365126 0.000000
682.889400 228.852810 15.333693 0.000000
682.860660 232.923780 15.446918 0.000000
676.422550 211.789730 16.037256 0.000000
678.477290 213.943240 16.090044 0.000000
680.073850 213.394870 16.076653 0.000000
684.206420 216.157070 16.126537 0.000000
685.236820 217.963810 16.157862 0.000000
685.298280 216.434280 16.127655 0.000000
685.292720 219.315060 16.183298 0.000000
675.754210 214.583800 16.104010 0.000000
676.745970 214.774230 16.109276 0.000000
677.070010 218.972080 16.205427 0.000000
677.266300 220.140200 16.230812 0.000000
679.241210 220.480320 16.232870 0.000000
680.944700 217.005140 16.154680 0.000000
685.278020 222.005070 16.232460 0.000000
685.282900 220.685910 16.208727 0.000000
685.260310 226.872920 16.313362 0.000000
685.264530 225.712010 16.295084 0.000000
685.268860 224.515410 16.275558 0.000000
685.273380 223.280610 16.254707 0.000000
685.244630 231.202510 16.375202 0.000000
685.248410 230.163350 16.361320 0.000000
685.252260 229.096600 16.346422 0.000000
685.256230 228.000460 16.330454 0.000000
685.227170 236.038330 16.430855 0.000000
685.230530 235.114410 16.421429 0.000000
676.080690 212.298400 17.254730 0.000000
684.411320 218.824010 17.382746 0.000000
685.239320 219.353970 17.392679 0.000000
675.323850 216.834260 17.271030 0.000000
676.339050 213.662230 17.266140 0.000000
676.630740 219.527250 17.301109 0.000000
676.856690 216.208470 17.286863 0.000000
676.950380 217.627550 17.295425 0.000000
677.803890 220.827470 17.320627 0.000000
678.295040 218.814610 17.317066 0.000000
680.265750 219.251450 17.341030 0.000000
681.310000 219.439700 17.353014 0.000000
683.123900 218.809050 17.369591 0.000000
685.274110 221.995450 17.400620 0.000000
685.278930 220.675260 17.397043 0.000000
685.265010 224.507660 17.406393 0.000000
685.269530 223.271990 17.403728 0.000000
685.241090 231.199310 17.414186 0.000000
685.244870 230.159520 17.413778 0.000000
685.250240 229.090900 17.413044 0.000000
685.223820 236.037960 17.411613 0.000000
685.227170 235.113510 17.412710 0.000000
685.230590 233.204710 17.414024 0.000000
676.077210 218.794690 18.379261 0.000000
677.105650 218.880360 18.403894 0.000000
680.848270 217.080380 18.519905 0.000000
683.983640 217.844310 18.588730 0.000000
684.369690 218.851260 18.585804 0.000000
685.252930 226.860860 18.507881 0.000000
685.220520 236.037600 18.392500 0.000000
685.223820 235.112630 18.404131 0.000000
685.230530 233.200440 18.428173 0.000000
675.364990 213.400570 18.428806 0.000000
676.544800 213.317870 18.459324 0.000000
677.256470 213.967510 18.469000 0.000000
679.355710 220.307530 18.442312 0.000000
681.372310 214.888030 18.560373 0.000000
682.545650 218.011780 18.550699 0.000000
685.274900 220.664610 18.585791 0.000000
685.279660 219.296590 18.602989 0.000000
685.250120 231.187090 18.453798 0.000000
685.241330 230.155640 18.466455 0.000000
674.599430 214.583370 19.542412 0.000000
674.706180 217.688390 19.450861 0.000000
677.031070 217.468890 19.544947 0.000000
677.834900 214.770430 19.656832 0.000000
678.952330 216.427060 19.649326 0.000000
679.073730 217.782930 19.613636 0.000000
680.221500 217.826720 19.656727 0.000000
680.381470 219.075900 19.626383 0.000000
682.598270 217.932680 19.746597 0.000000
683.821230 219.417770 19.752571 0.000000
685.266300 221.976210 19.739273 0.000000
685.270940 220.653960 19.776131 0.000000
685.237790 230.151790 19.520384 0.000000
685.243710 229.081270 19.548161 0.000000
685.264340 226.842300 19.607603 0.000000
685.224060 233.200450 19.443277 0.000000
683.526060 218.330280 19.771843 0.000000
685.275630 219.284820 19.814655 0.000000
685.198850 236.045790 20.357208 0.000000
674.462040 214.770260 20.676323 0.000000
675.599850 219.399600 20.507540 0.000000
676.065670 213.988690 20.792858 0.000000
676.902400 214.430690 20.812513 0.000000
678.356260 217.188190 20.753685 0.000000
679.091060 217.738750 20.765816 0.000000
679.606450 218.559570 20.754562 0.000000
682.552250 219.385620 20.874640 0.000000
683.560000 219.679020 20.916666 0.000000
685.249510 225.684600 20.755470 0.000000
685.253600 224.484530 20.805302 0.000000
685.251280 230.135190 20.578074 0.000000
685.237920 229.078430 20.618450 0.000000
685.245360 227.976350 20.662502 0.000000
678.864560 213.283910 20.966009 0.000000
683.749510 215.072420 21.134811 0.000000
684.631530 215.591920 21.158342 0.000000
673.723750 215.912380 21.702402 0.000000
675.861330 214.270870 21.942989 0.000000
678.157350 217.426790 21.878693 0.000000
678.664000 218.259320 21.858097 0.000000
679.732060 218.384670 21.920731 0.000000
683.316890 218.524730 22.155416 0.000000
679.194640 214.462840 22.138416 0.000000
680.227780 216.225430 24.497009 0.000000
684.795230 218.312380 24.739216 0.000000
679.945130 216.561920 25.640762 0.000000
681.199770 216.518880 25.780912 0.000000
670.991760 223.623960 14.143433 0.000000
678.508480 212.966860 14.417608 0.000000
680.642030 211.682270 14.318935 0.000000
681.929690 213.280910 14.371904 0.000000
682.251340 211.219250 14.268044 0.000000
683.344480 213.117320 14.336560 0.000000
683.746890 214.204650 14.378378 0.000000
684.384090 214.994090 14.400541 0.000000
670.988830 224.867050 14.226326 0.000000
671.626650 226.368550 14.304236 0.000000
671.621580 225.217120 14.229802 0.000000
671.709720 227.375080 14.365732 0.000000
672.642090 228.400240 14.397021 0.000000
672.545900 227.453370 14.341846 0.000000
672.769040 229.279720 14.445902 0.000000
673.745850 230.212810 14.463713 0.000000
673.631350 229.349180 14.417386 0.000000
673.938540 230.972610 14.499865 0.000000
674.354250 232.407990 14.563088 0.000000
674.134700 231.709820 14.533564 0.000000
674.576900 233.088750 14.590519 0.000000
674.825440 233.734020 14.613913 0.000000
675.142330 234.311840 14.629703 0.000000
681.376530 221.099580 14.738220 0.000000
681.371890 222.368870 14.792895 0.000000
681.598270 219.543120 14.664982 0.000000
681.741390 223.222400 14.819782 0.000000
682.666440 223.527710 14.808832 0.000000
682.894530 224.499080 14.842230 0.000000
675.221500 235.074870 14.664941 0.000000
675.363770 235.770660 14.692868 0.000000
682.886050 226.775120 14.931898 0.000000
682.890260 225.654920 14.888247 0.000000
682.871030 230.941420 15.085233 0.000000
682.874690 229.942960 15.049853 0.000000
682.878420 228.916980 15.012574 0.000000
682.882260 227.861600 14.973288 0.000000
682.857540 234.691530 15.209552 0.000000
682.860780 233.787660 15.180889 0.000000
682.864070 232.862290 15.150669 0.000000
682.867490 231.914030 15.118811 0.000000
677.905640 212.112490 15.596984 0.000000
683.761410 214.161270 15.629842 0.000000
685.299930 218.314970 15.733879 0.000000
675.977230 218.016020 15.789139 0.000000
677.034000 215.022920 15.691767 0.000000
677.878780 216.941650 15.747276 0.000000
679.018070 221.091280 15.862539 0.000000
680.196110 215.452730 15.690037 0.000000
680.737370 216.282240 15.711479 0.000000
683.591060 217.326080 15.721249 0.000000
683.755740 218.548430 15.753775 0.000000
684.431820 223.060320 15.866453 0.000000
684.436160 227.652730 15.977427 0.000000
684.452940 226.540450 15.951320 0.000000
685.285400 221.001310 15.804935 0.000000
685.290220 219.683960 15.770473 0.000000
685.271910 224.703050 15.897711 0.000000
685.224430 223.554410 15.870173 0.000000
685.248780 231.196260 16.043634 0.000000
685.252440 230.184770 16.022482 0.000000
685.256160 229.147310 16.000147 0.000000
685.260010 228.082290 15.976571 0.000000
685.241580 232.185750 16.063763 0.000000
685.232060 235.915300 16.133476 0.000000
678.477660 212.948070 16.824055 0.000000
680.080440 214.016270 16.851831 0.000000
683.009580 216.513120 16.905422 0.000000
