# .PCD v0.7 - Point Cloud Data file format
VERSION 0.7
FIELDS x y z intensity
SIZE 4 4 4 4
TYPE F F F F
COUNT 1 1 1 1
WIDTH 1166
HEIGHT 1
VIEWPOINT 0 0 0 1 0 0 0
POINTS 1166
DATA ascii
692.904790 278.811740 21.096743 0.000000
692.354740 279.429320 21.216337 0.000000
691.383060 280.207000 21.384659 0.000000
691.222290 280.753360 21.472075 0.000000
692.028080 280.966550 21.454773 0.000000
693.279300 281.459560 21.453251 0.000000
693.141360 281.997010 21.540865 0.000000
692.468440 282.781520 21.696766 0.000000
692.992250 285.142790 22.031025 0.000000
689.971190 261.139280 19.368395 0.000000
689.665770 261.561920 19.420788 0.000000
679.045780 264.018100 19.436975 0.000000
693.576540 279.442810 21.689777 0.000000
693.358760 279.965000 21.785511 0.000000
675.700320 282.986300 21.783546 0.000000
695.038510 284.455660 22.376793 0.000000
692.582210 284.820740 22.002710 0.000000
689.914060 261.591090 20.045382 0.000000
691.153930 262.580170 20.021742 0.000000
691.527100 263.212980 20.040874 0.000000
691.751460 263.776610 20.067442 0.000000
691.966550 264.323270 20.094284 0.000000
691.624210 277.700040 21.600567 0.000000
691.939880 278.087130 21.628416 0.000000
692.162840 278.490660 21.667191 0.000000
692.183590 278.946380 21.731077 0.000000
691.922420 279.489620 21.831757 0.000000
691.879520 280.948270 22.053350 0.000000
693.268010 281.874570 22.087040 0.000000
691.262510 282.185670 22.293087 0.000000
692.383910 282.745540 22.293852 0.000000
677.925780 261.540590 20.125755 0.000000
681.353640 261.799410 19.939394 0.000000
691.427860 264.575560 20.745564 0.000000
691.573790 265.091980 20.771200 0.000000
691.600770 265.568080 20.807026 0.000000
691.657290 280.463590 22.594526 0.000000
691.822940 280.896580 22.646538 0.000000
693.560670 282.163940 22.681967 0.000000
693.074890 284.413240 23.117775 0.000000
689.980960 261.550660 20.674065 0.000000
690.405270 263.269870 20.751835 0.000000
682.074160 263.856690 20.872593 0.000000
672.896550 264.192600 20.691708 0.000000
682.361080 264.552800 20.911451 0.000000
673.028260 264.998290 20.763632 0.000000
694.130800 277.855260 22.468159 0.000000
694.226010 278.253110 22.518314 0.000000
694.419190 278.623050 22.552881 0.000000
694.452210 279.039890 22.616058 0.000000
689.318240 280.186160 22.791344 0.000000
689.569150 280.631960 22.834406 0.000000
693.081540 280.854190 23.086584 0.000000
691.140930 282.158260 22.919697 0.000000
690.964660 282.752350 23.035500 0.000000
680.113160 261.352720 20.818336 0.000000
688.020140 261.923550 20.896772 0.000000
671.237430 261.422120 20.528145 0.000000
678.227910 261.527890 20.988539 0.000000
686.625790 262.597960 21.088470 0.000000
681.233220 263.004640 20.867308 0.000000
690.082030 263.609040 21.432808 0.000000
689.690430 277.490720 22.977848 0.000000
690.225460 277.867890 22.965424 0.000000
687.099430 279.173250 22.870678 0.000000
691.756900 280.847500 23.246780 0.000000
691.094420 282.100710 23.540804 0.000000
679.541750 286.058750 23.820860 0.000000
689.816350 261.955870 21.357338 0.000000
687.086120 279.095280 23.549675 0.000000
688.615910 281.393620 23.723122 0.000000
686.615540 261.357420 21.709133 0.000000
686.291750 261.834350 21.779989 0.000000
680.313900 263.353940 21.805618 0.000000
671.410160 263.816800 21.767456 0.000000
680.720580 264.108980 21.827436 0.000000
673.727170 280.903170 23.548489 0.000000
683.143860 263.942810 22.327814 0.000000
676.126830 281.043060 24.298519 0.000000
676.624630 282.412720 24.447065 0.000000
676.098690 283.307190 24.636074 0.000000
679.859680 285.832790 24.647100 0.000000
680.123050 261.175480 22.498243 0.000000
680.341250 261.923130 22.525614 0.000000
681.137940 262.805540 22.492258 0.000000
678.866150 278.963840 24.580292 0.000000
673.784790 279.228730 24.291817 0.000000
673.431460 280.065060 24.445486 0.000000
673.563660 280.821110 24.538000 0.000000
686.451290 280.088320 15.236035 0.000000
692.403440 281.997770 16.790459 0.000000
682.040650 282.337400 16.529428 0.000000
681.705140 283.121730 16.577259 0.000000
681.357910 283.929720 16.625595 0.000000
681.011170 284.758480 16.675220 0.000000
681.507390 285.307500 16.770866 0.000000
687.443790 275.236480 16.270834 0.000000
695.477660 275.698060 16.533051 0.000000
686.114070 275.938540 16.227787 0.000000
694.873290 276.212620 16.518551 0.000000
686.263980 276.487730 16.301161 0.000000
671.396970 276.738890 16.027145 0.000000
687.129760 279.173490 16.662296 0.000000
670.863890 279.305300 16.276878 0.000000
686.357730 279.934540 16.671177 0.000000
686.009520 280.617460 16.709190 0.000000
694.202450 269.055360 16.157379 0.000000
693.614990 269.419280 16.149796 0.000000
688.501530 274.605590 16.296509 0.000000
693.885990 276.319310 16.970078 0.000000
690.781490 276.360960 16.695015 0.000000
693.809690 276.773220 17.011114 0.000000
688.831910 278.251650 16.719284 0.000000
675.446110 279.375460 16.597265 0.000000
676.948850 279.863010 16.752871 0.000000
675.496340 284.058900 17.103352 0.000000
675.057500 284.994960 17.171955 0.000000
675.346680 285.725710 17.267267 0.000000
691.695800 265.293820 16.056082 0.000000
690.971250 265.616490 16.048353 0.000000
690.209230 265.953370 16.039522 0.000000
689.481200 266.320770 16.036465 0.000000
688.473270 266.659970 16.010448 0.000000
687.625000 267.057950 16.002243 0.000000
686.622740 267.460540 15.983682 0.000000
685.569090 267.889160 15.964382 0.000000
695.301270 268.371400 16.169743 0.000000
694.763920 268.706450 16.164017 0.000000
684.453250 268.345400 15.943785 0.000000
685.152470 278.926540 17.208834 0.000000
687.098820 279.095150 17.358978 0.000000
684.973450 280.180910 17.331358 0.000000
692.281010 281.891140 17.998133 0.000000
683.002500 261.666500 15.821180 0.000000
682.214720 262.116180 15.840288 0.000000
681.560120 262.622920 15.872271 0.000000
680.846680 263.133640 15.901774 0.000000
680.108400 263.659240 15.931690 0.000000
679.343570 264.200870 15.962060 0.000000
678.475100 264.746000 15.987783 0.000000
693.509460 265.290920 16.177820 0.000000
695.052800 265.272490 16.279032 0.000000
671.865540 265.193330 15.734594 0.000000
676.633850 265.156010 15.951779 0.000000
672.139280 278.171510 17.266113 0.000000
675.940800 278.423860 17.471750 0.000000
680.473940 279.101620 17.759047 0.000000
677.103330 282.729250 18.009558 0.000000
676.824710 283.573150 18.090488 0.000000
675.041560 284.877990 18.153103 0.000000
683.732670 261.221530 15.799755 0.000000
687.041560 279.022740 18.054377 0.000000
682.980590 279.276580 17.894939 0.000000
684.034610 280.313600 18.059847 0.000000
685.109250 279.965970 18.822994 0.000000
685.749630 281.021180 18.962002 0.000000
692.594480 284.810640 19.573772 0.000000
675.716550 285.367190 19.220762 0.000000
685.870850 279.192750 18.751614 0.000000
680.670350 279.642790 18.675354 0.000000
685.108950 280.578340 18.894455 0.000000
692.034790 281.829680 19.212006 0.000000
683.090760 279.702820 19.536720 0.000000
684.872440 279.930360 19.570324 0.000000
693.762510 280.639070 19.689789 0.000000
694.337770 281.387570 19.785254 0.000000
691.642210 281.896580 19.837278 0.000000
682.168700 264.592380 17.769814 0.000000
694.197020 279.489960 20.107201 0.000000
674.904540 279.896760 19.533897 0.000000
678.764100 279.917080 19.548616 0.000000
692.727840 280.923370 20.319326 0.000000
695.607790 281.288090 20.320435 0.000000
692.927060 281.856570 20.439234 0.000000
693.882140 283.501770 20.645023 0.000000
675.858090 282.815400 19.891319 0.000000
694.222470 283.859010 20.688532 0.000000
694.505370 284.239720 20.736437 0.000000
682.599430 264.593020 18.574976 0.000000
688.484190 265.281620 18.542065 0.000000
690.273500 278.593170 20.061497 0.000000
690.263550 280.158480 20.261969 0.000000
690.422610 281.174900 20.391174 0.000000
691.418820 281.899810 20.469645 0.000000
689.945070 261.221340 18.763622 0.000000
692.442260 263.693940 18.904749 0.000000
689.231990 264.305690 19.088232 0.000000
693.670720 279.114350 20.635481 0.000000
680.397520 278.811220 20.269560 0.000000
693.016420 279.778290 20.750834 0.000000
679.238280 279.718350 20.404255 0.000000
692.075500 281.071500 20.964371 0.000000
693.173100 281.688230 21.009680 0.000000
695.284670 281.818850 20.951370 0.000000
675.809810 282.710390 20.844776 0.000000
692.944030 283.859190 21.328270 0.000000
682.919860 263.927340 19.297480 0.000000
688.254150 264.602110 19.156166 0.000000
692.001950 277.570650 21.092358 0.000000
692.323790 277.977660 21.128119 0.000000
692.433900 278.428310 21.183491 0.000000
692.309200 278.940520 21.262360 0.000000
687.090820 279.241700 20.909754 0.000000
692.411070 279.398320 21.320669 0.000000
693.888850 280.383420 21.374725 0.000000
693.441890 281.512660 21.567108 0.000000
694.075930 283.261870 21.796843 0.000000
689.969480 261.159640 19.425692 0.000000
680.016720 261.130340 19.130207 0.000000
679.229490 263.790280 19.429510 0.000000
692.604060 282.866820 21.818323 0.000000
691.482180 283.888280 22.036884 0.000000
692.560300 285.063320 22.160332 0.000000
692.870540 285.469150 22.207924 0.000000
691.525210 263.263610 20.141518 0.000000
691.779720 263.854520 20.170738 0.000000
691.957150 264.407990 20.203907 0.000000
691.508730 277.599550 21.736204 0.000000
691.966980 278.468840 21.821869 0.000000
691.874760 278.980350 21.903557 0.000000
691.613460 279.546690 22.007978 0.000000
690.882320 280.267090 22.174265 0.000000
691.700680 280.531770 22.148325 0.000000
691.836910 280.999210 22.208689 0.000000
693.004210 281.102420 22.132179 0.000000
693.605290 281.377930 22.127972 0.000000
675.294490 282.720030 21.834770 0.000000
675.693360 283.411160 21.911509 0.000000
694.895450 284.334380 22.513107 0.000000
680.183410 261.083160 19.992752 0.000000
687.758670 261.436340 20.290619 0.000000
689.897770 261.623840 20.137156 0.000000
681.688350 262.201600 20.007072 0.000000
687.069890 279.074770 22.312027 0.000000
693.079220 281.001620 22.712151 0.000000
693.897090 281.196230 22.662725 0.000000
689.992610 261.587370 20.793922 0.000000
677.187810 261.751190 20.235790 0.000000
691.267330 264.646390 20.901472 0.000000
691.449830 265.194850 20.928745 0.000000
691.857670 280.915160 22.820599 0.000000
694.139040 281.034240 23.195557 0.000000
687.796260 261.962740 21.041214 0.000000
686.221860 262.661770 21.255665 0.000000
671.831790 262.947240 20.679974 0.000000
681.636540 263.449620 20.960876 0.000000
672.721800 263.940460 20.725336 0.000000
682.138310 264.226720 20.991884 0.000000
672.953120 264.791050 20.798145 0.000000
690.632200 278.635590 23.233898 0.000000
686.999020 279.004090 23.025667 0.000000
691.337340 279.977660 23.359467 0.000000
689.025090 280.734100 23.078951 0.000000
691.747130 280.874150 23.457632 0.000000
693.137330 280.906740 23.294352 0.000000
689.876100 262.029110 21.506102 0.000000
677.843080 261.814820 21.122990 0.000000
689.868040 263.658360 21.622322 0.000000
690.083620 264.250700 21.640615 0.000000
690.101320 264.778930 21.679884 0.000000
689.265750 277.374660 23.216246 0.000000
689.808900 277.790190 23.208941 0.000000
690.292790 278.202700 23.210072 0.000000
690.534670 279.171230 23.329876 0.000000
680.506410 263.778260 21.941284 0.000000
671.422060 264.428010 21.904606 0.000000
688.496700 281.370180 23.937862 0.000000
685.949100 261.888610 21.974270 0.000000
682.858950 263.559230 22.486782 0.000000
671.221560 263.555330 21.835093 0.000000
678.672300 283.028590 24.494263 0.000000
681.590640 263.923860 22.676754 0.000000
673.517700 279.544040 24.519695 0.000000
675.970400 280.658420 24.420523 0.000000
676.750060 282.016080 24.539070 0.000000
673.118410 262.974300 22.640953 0.000000
672.107240 263.599980 22.805344 0.000000
679.743900 282.624420 25.223148 0.000000
672.792540 283.797420 25.217096 0.000000
673.930180 286.010100 25.443947 0.000000
685.835390 280.677090 15.040880 0.000000
685.161250 278.855710 15.562348 0.000000
683.361450 281.766540 16.484978 0.000000
683.010680 282.545100 16.532421 0.000000
682.660160 283.343440 16.581095 0.000000
689.057010 275.287600 16.309565 0.000000
687.813350 275.977450 16.273144 0.000000
687.956910 276.523070 16.346304 0.000000
673.754150 276.725800 16.100056 0.000000
672.707150 279.322910 16.320686 0.000000
685.564210 279.925600 16.493031 0.000000
685.868840 280.478670 16.577477 0.000000
675.184330 284.626250 17.067879 0.000000
695.729920 269.128510 16.186872 0.000000
695.140750 269.491270 16.179115 0.000000
690.152950 274.655640 16.338379 0.000000
693.082030 276.295040 16.786453 0.000000
695.734190 276.314360 17.028698 0.000000
692.552920 277.845370 16.904070 0.000000
692.380490 282.003690 17.306452 0.000000
693.312010 265.401310 16.088440 0.000000
692.591800 265.722290 16.080805 0.000000
691.832210 266.056980 16.071869 0.000000
691.103150 266.421390 16.068432 0.000000
690.098210 266.758580 16.042246 0.000000
689.252440 267.154270 16.033974 0.000000
688.251650 267.554440 16.015179 0.000000
687.199340 267.980650 15.995652 0.000000
686.086360 268.434690 15.974948 0.000000
685.260070 278.648250 17.108244 0.000000
685.856570 279.765660 17.271217 0.000000
685.884030 280.380620 17.339630 0.000000
685.710510 281.052150 17.399990 0.000000
684.696410 261.809080 15.848731 0.000000
684.151060 262.321110 15.886985 0.000000
683.691530 262.869020 15.933434 0.000000
682.980350 263.367980 15.961849 0.000000
682.243900 263.881710 15.990662 0.000000
681.480410 264.411500 16.019917 0.000000
694.789060 265.308690 16.176664 0.000000
677.774110 265.178440 15.939678 0.000000
680.612550 264.944700 16.044441 0.000000
672.964600 265.218050 15.718399 0.000000
680.786560 279.382570 17.757381 0.000000
671.079830 279.440090 17.307991 0.000000
671.362730 280.259860 17.415236 0.000000
676.467290 282.541200 17.913626 0.000000
676.042240 283.449580 17.996195 0.000000
675.510680 284.410340 18.079391 0.000000
675.815060 285.152160 18.176575 0.000000
690.108460 261.094600 16.009161 0.000000
685.210510 261.300930 15.809254 0.000000
684.774110 279.275850 17.932125 0.000000
686.044010 279.630770 18.031816 0.000000
692.396060 281.837430 18.573967 0.000000
682.695800 264.563320 16.931473 0.000000
687.076420 279.312530 18.782106 0.000000
680.557250 280.025240 18.701380 0.000000
683.301700 280.803860 18.862606 0.000000
685.709290 280.862030 18.930336 0.000000
675.377690 285.996770 19.274878 0.000000
687.125240 279.212190 19.508080 0.000000
684.627500 280.392820 19.643503 0.000000
693.694520 280.721560 19.721546 0.000000
691.695980 281.920170 19.862528 0.000000
683.416080 264.619170 17.774780 0.000000
674.449040 278.694460 19.398764 0.000000
694.132200 279.527650 20.164494 0.000000
680.882630 279.154210 19.477730 0.000000
683.006900 279.434230 19.519760 0.000000
675.128480 279.390140 19.485590 0.000000
675.548220 285.817200 20.278030 0.000000
690.537410 278.929500 20.149225 0.000000
687.112850 279.125180 20.234507 0.000000
689.854000 279.637970 20.252167 0.000000
690.065310 280.136720 20.312975 0.000000
693.448430 280.222140 20.266792 0.000000
692.640010 280.988370 20.380951 0.000000
691.432860 281.928680 20.525015 0.000000
690.693660 282.752470 20.646433 0.000000
692.359440 282.691160 20.611841 0.000000
693.967960 283.655090 20.717468 0.000000
694.306950 284.040310 20.765083 0.000000
694.555540 284.463960 20.819654 0.000000
694.766170 284.905580 20.877613 0.000000
692.440120 264.837220 19.081247 0.000000
679.287720 265.124390 18.721655 0.000000
692.926940 278.302730 20.636726 0.000000
693.974300 278.537930 20.627502 0.000000
693.603820 279.114750 20.719595 0.000000
692.902280 279.803800 20.840157 0.000000
692.075990 281.091280 21.048647 0.000000
693.073910 281.808780 21.112019 0.000000
695.484500 281.909390 21.038832 0.000000
692.272640 282.642430 21.259249 0.000000
689.916560 261.312840 18.829842 0.000000
688.487790 264.364410 19.185556 0.000000
687.057680 279.047060 20.964928 0.000000
689.978520 261.260040 19.520643 0.000000
679.757690 263.663850 19.453369 0.000000
682.724610 263.616270 19.332455 0.000000
692.057500 277.919590 21.248184 0.000000
692.206790 278.390720 21.303926 0.000000
692.208130 278.896550 21.374180 0.000000
692.403320 279.355870 21.427034 0.000000
690.969420 280.270450 21.642351 0.000000
691.940490 281.054200 21.698223 0.000000
692.912110 281.787660 21.749884 0.000000
692.592410 282.984560 21.947824 0.000000
694.539430 284.312010 22.045399 0.000000
691.465150 285.184880 22.348753 0.000000
692.845830 285.708370 22.356699 0.000000
691.818120 264.007930 20.305492 0.000000
691.597170 277.937320 21.919300 0.000000
693.063600 281.133330 22.273914 0.000000
689.831910 261.716220 20.268229 0.000000
682.036130 262.670870 20.118830 0.000000
691.531800 263.391200 20.274736 0.000000
690.071040 279.883790 22.325312 0.000000
690.248110 280.388890 22.385801 0.000000
691.703860 280.513210 22.287384 0.000000
691.857240 280.999630 22.348997 0.000000
691.909910 284.310610 22.869179 0.000000
690.909790 264.211640 21.058838 0.000000
691.153810 264.808930 21.084780 0.000000
691.889160 280.908200 22.988575 0.000000
690.030090 261.709560 20.948162 0.000000
681.777220 263.899780 21.113201 0.000000
672.325070 263.682160 20.809952 0.000000
682.187130 264.667790 21.153431 0.000000
672.771550 264.599730 20.877708 0.000000
688.655760 280.742740 23.290672 0.000000
689.271610 281.147280 23.291277 0.000000
680.151670 261.365940 21.011211 0.000000
677.426510 261.410490 21.236343 0.000000
687.392030 262.031130 21.237425 0.000000
686.655030 262.427310 21.344063 0.000000
677.299070 262.157710 21.315956 0.000000
689.908140 264.415070 21.863556 0.000000
689.974610 264.979610 21.901821 0.000000
689.454220 277.661470 23.440090 0.000000
689.847350 278.129330 23.460426 0.000000
691.245790 278.368470 23.320778 0.000000
689.860960 262.152250 21.697601 0.000000
673.779850 280.755890 23.788799 0.000000
688.548890 281.862240 24.216101 0.000000
690.031010 281.973970 24.054436 0.000000
676.546200 281.804170 23.708897 0.000000
676.264710 282.663570 23.856007 0.000000
678.744080 262.393070 22.152203 0.000000
687.039730 263.068910 22.111540 0.000000
680.381160 264.210020 22.147377 0.000000
671.322630 264.245540 22.013401 0.000000
683.154540 264.012450 22.673534 0.000000
675.887390 280.241700 24.539289 0.000000
677.170410 280.773130 24.482321 0.000000
676.979430 281.588230 24.622358 0.000000
676.836180 282.405090 24.759476 0.000000
678.602910 282.743620 24.628933 0.000000
673.453060 263.649200 22.818748 0.000000
678.844730 278.852810 24.962044 0.000000
671.355040 261.522490 22.839470 0.000000
678.193180 282.730350 25.635239 0.000000
679.435060 283.165190 25.550924 0.000000
674.145080 282.917600 26.169651 0.000000
673.666630 285.602230 26.659573 0.000000
684.760440 281.195190 16.464821 0.000000
684.315670 281.988010 16.507875 0.000000
683.954160 282.779910 16.557549 0.000000
690.806880 275.336520 16.372721 0.000000
689.578670 276.020940 16.338133 0.000000
672.258730 278.839140 16.164982 0.000000
686.669310 280.091090 16.520163 0.000000
691.846620 274.713010 16.396381 0.000000
695.266720 276.257870 16.884815 0.000000
676.241700 276.713870 16.196281 0.000000
695.418330 277.628230 17.048428 0.000000
679.687070 278.570890 16.650370 0.000000
685.231990 279.011050 17.084618 0.000000
677.800290 279.634400 16.640587 0.000000
685.649540 280.875150 17.321404 0.000000
694.363770 265.865660 16.128542 0.000000
693.609860 266.196720 16.119938 0.000000
692.885250 266.557100 16.116781 0.000000
691.889280 266.891170 16.091089 0.000000
691.045590 267.282230 16.082872 0.000000
690.047490 267.677950 16.064127 0.000000
688.998410 268.099760 16.044733 0.000000
687.885380 268.548980 16.023930 0.000000
687.130310 279.269040 17.244759 0.000000
686.346010 280.066070 17.279621 0.000000
685.860840 262.466830 15.911399 0.000000
685.318420 262.989320 15.951897 0.000000
684.926270 263.561370 16.005497 0.000000
684.432620 264.120030 16.052351 0.000000
683.927860 264.689090 16.099733 0.000000
695.080260 265.548680 16.136057 0.000000
678.922360 265.210390 15.926874 0.000000
682.562680 265.114620 16.088074 0.000000
674.276430 265.284090 15.714776 0.000000
671.961610 265.818940 15.670626 0.000000
679.108580 279.294710 17.636051 0.000000
682.457030 279.427060 17.810720 0.000000
674.990970 283.335300 17.910580 0.000000
676.156190 283.887150 18.029259 0.000000
675.197270 284.992280 18.111141 0.000000
686.942870 261.462220 15.834654 0.000000
686.405760 261.958890 15.872623 0.000000
687.136350 279.172420 18.003201 0.000000
686.441830 279.946470 18.060158 0.000000
671.099240 261.077640 16.173443 0.000000
684.640810 280.243470 18.835871 0.000000
685.607240 280.683290 18.913939 0.000000
675.938720 283.814090 19.041380 0.000000
690.089110 261.073700 17.394701 0.000000
686.922730 279.024540 19.519854 0.000000
692.164670 281.217680 19.820276 0.000000
691.695190 281.929200 19.908592 0.000000
692.326780 282.282620 19.956949 0.000000
680.852660 278.779390 19.463512 0.000000
678.705320 279.889250 19.592503 0.000000
681.155580 280.895080 19.728788 0.000000
675.841800 282.873930 19.953568 0.000000
688.355830 265.323760 18.614124 0.000000
690.214360 278.847170 20.213018 0.000000
694.409480 278.935150 20.153503 0.000000
690.526430 279.341250 20.272150 0.000000
694.085080 279.520780 20.236174 0.000000
693.381160 280.232330 20.342161 0.000000
692.200500 281.121520 20.479971 0.000000
691.418950 281.931610 20.601170 0.000000
690.613890 282.786380 20.729172 0.000000
692.310120 282.769010 20.700500 0.000000
693.992610 283.802220 20.816929 0.000000
694.330930 284.216370 20.869432 0.000000
694.567810 284.672420 20.929596 0.000000
694.639280 285.208310 21.003599 0.000000
692.290470 263.384220 19.002151 0.000000
692.480470 264.522860 19.111925 0.000000
692.293210 265.009490 19.169817 0.000000
679.543820 264.991970 18.729279 0.000000
692.884280 278.196990 20.724619 0.000000
693.811580 278.501890 20.730177 0.000000
693.476560 279.089200 20.823149 0.000000
692.808410 279.781860 20.943832 0.000000
679.201540 279.683410 20.511145 0.000000
693.116150 281.840210 21.221403 0.000000
695.739440 281.949280 21.142384 0.000000
692.061650 281.078490 21.152460 0.000000
692.431700 282.637730 21.360411 0.000000
692.982790 284.142360 21.559551 0.000000
682.568910 263.316770 19.363329 0.000000
682.754520 264.059780 19.435383 0.000000
692.133910 278.273220 21.424107 0.000000
690.736080 279.119630 21.626804 0.000000
694.258850 279.318480 21.445337 0.000000
690.798710 279.664400 21.700308 0.000000
693.234920 280.640380 21.697910 0.000000
693.010130 281.246830 21.800587 0.000000
689.982480 261.404790 19.616669 0.000000
687.523860 261.853670 19.800772 0.000000
690.921940 283.091130 22.197062 0.000000
691.323730 284.139070 22.334663 0.000000
690.202090 285.856720 22.664190 0.000000
681.718750 262.295750 20.185705 0.000000
682.286070 263.152160 20.237869 0.000000
691.470460 263.544890 20.416468 0.000000
691.785580 264.186920 20.450060 0.000000
691.916380 264.765660 20.493626 0.000000
691.609860 278.298550 22.133434 0.000000
691.417790 278.880520 22.233646 0.000000
689.890690 280.376220 22.578922 0.000000
691.672790 280.464940 22.449118 0.000000
691.872860 280.962980 22.509228 0.000000
693.100400 281.134340 22.438408 0.000000
680.199710 261.157140 20.163094 0.000000
686.527530 261.459870 20.622417 0.000000
689.697940 261.834470 20.404991 0.000000
694.190060 278.184080 22.526869 0.000000
694.413450 278.626400 22.571308 0.000000
694.440060 279.115420 22.644253 0.000000
689.303530 279.938290 22.561136 0.000000
689.965090 261.840880 21.112501 0.000000
690.140260 263.079740 21.197104 0.000000
672.102360 263.458830 20.883976 0.000000
672.625000 264.418030 20.954279 0.000000
689.693660 277.468230 22.888479 0.000000
690.358520 277.910830 22.883545 0.000000
691.844540 280.884520 23.187593 0.000000
689.635010 282.136470 23.611977 0.000000
676.542910 284.810700 23.285231 0.000000
687.109620 261.550960 21.374435 0.000000
671.203610 261.498750 20.734121 0.000000
691.614500 262.873290 21.720287 0.000000
691.229060 278.206180 23.525957 0.000000
691.693790 278.649720 23.536533 0.000000
687.111080 279.125120 23.400660 0.000000
688.709660 281.195280 23.554401 0.000000
689.960570 261.758030 21.837120 0.000000
677.104980 261.840270 21.415066 0.000000
685.823180 262.481960 21.583244 0.000000
676.393680 262.489840 21.536179 0.000000
689.352780 264.539640 22.134104 0.000000
689.693360 265.195650 22.149248 0.000000
689.505740 277.978420 23.708157 0.000000
680.283810 261.726650 22.081408 0.000000
672.930050 262.614870 21.832209 0.000000
679.651790 263.836520 22.341774 0.000000
670.971070 264.024690 22.137472 0.000000
680.452580 264.728610 22.345095 0.000000
673.819760 280.245090 23.874733 0.000000
673.755620 281.106510 24.001835 0.000000
680.502320 261.676700 22.988037 0.000000
673.191040 279.363010 24.888477 0.000000
677.823360 283.261780 25.997288 0.000000
673.395750 283.506100 26.586149 0.000000
675.173890 284.791870 26.574060 0.000000
687.139400 279.220180 15.617804 0.000000
686.041560 280.667110 16.487137 0.000000
683.972900 281.852810 16.431736 0.000000
692.477230 274.855130 16.408676 0.000000
691.362370 275.504550 16.384205 0.000000
690.008240 276.223790 16.345695 0.000000
671.599060 276.504490 15.862080 0.000000
674.593870 277.102540 16.136715 0.000000
672.829100 279.043950 16.245129 0.000000
674.255250 279.713230 16.419619 0.000000
677.081600 280.096920 16.655069 0.000000
692.011290 281.605930 17.112617 0.000000
676.608340 282.684880 16.918497 0.000000
695.211550 278.072420 17.018690 0.000000
686.042300 279.891200 17.235598 0.000000
695.435300 265.782410 16.145506 0.000000
694.636290 266.114560 16.135929 0.000000
693.864560 266.477200 16.131813 0.000000
692.808230 266.812870 16.104588 0.000000
691.909910 267.208440 16.095438 0.000000
690.842710 267.608520 16.075035 0.000000
689.717590 268.036160 16.053833 0.000000
688.521120 268.493100 16.031088 0.000000
687.058650 279.033510 17.206163 0.000000
687.308230 261.115540 15.804350 0.000000
686.712100 261.619480 15.842408 0.000000
686.108460 262.136690 15.881583 0.000000
685.505620 262.669980 15.922599 0.000000
685.061340 263.256740 15.977415 0.000000
684.508240 263.830170 16.025307 0.000000
683.941350 264.415500 16.073816 0.000000
683.044620 264.956180 16.101318 0.000000
680.037050 265.177700 15.991542 0.000000
675.078740 265.216370 15.768991 0.000000
671.521180 265.606780 15.654636 0.000000
681.870910 279.163180 17.789833 0.000000
671.028930 279.145110 17.290182 0.000000
674.346500 279.564640 17.492596 0.000000
680.537540 280.146640 17.845461 0.000000
682.911930 280.425960 17.987045 0.000000
676.437990 282.590970 17.946787 0.000000
676.034240 283.538120 18.039690 0.000000
675.531130 284.532930 18.133341 0.000000
684.869450 278.552700 18.705278 0.000000
684.992070 279.894380 18.872480 0.000000
679.723270 280.177250 18.780001 0.000000
686.530330 280.244840 18.952490 0.000000
676.127500 283.381870 19.085548 0.000000
674.695860 284.610170 19.201374 0.000000
675.343630 285.328430 19.304926 0.000000
694.076720 280.101810 19.776905 0.000000
690.144230 280.561070 19.824440 0.000000
692.913700 280.980650 19.886339 0.000000
691.657710 281.937710 20.005758 0.000000
692.329220 282.316130 20.056787 0.000000
693.646910 283.025210 20.153231 0.000000
683.890200 279.304050 19.648157 0.000000
673.321470 279.444790 19.640245 0.000000
684.356810 279.913600 19.726488 0.000000
671.977780 280.544680 19.775393 0.000000
681.703310 281.186920 19.881216 0.000000
688.776180 265.115940 18.692566 0.000000
694.343510 278.889950 20.271051 0.000000
687.100280 279.268100 20.457533 0.000000
693.615840 279.597900 20.378733 0.000000
692.981930 280.312190 20.485937 0.000000
692.129210 281.118190 20.609867 0.000000
691.381410 281.929900 20.733099 0.000000
692.338320 282.813660 20.836695 0.000000
689.911500 283.011380 20.906269 0.000000
693.149900 283.707730 20.945988 0.000000
694.140500 284.493440 21.038960 0.000000
694.411560 284.968810 21.101290 0.000000
679.677370 264.780400 18.827726 0.000000
693.649170 278.433590 20.886101 0.000000
693.946230 280.510990 21.162727 0.000000
692.206050 263.483800 19.149616 0.000000
692.197750 264.055420 19.209978 0.000000
692.012880 264.578400 19.272844 0.000000
692.735170 278.080290 20.875076 0.000000
692.996090 279.116760 21.006109 0.000000
692.284060 279.842770 21.135006 0.000000
691.434880 280.636380 21.279404 0.000000
693.180300 281.859190 21.384315 0.000000
692.470090 282.676450 21.529202 0.000000
692.419920 284.506530 21.798439 0.000000
693.136660 284.825680 21.819372 0.000000
682.136900 263.629270 19.567221 0.000000
691.620480 277.645080 21.566471 0.000000
692.003360 278.134030 21.610550 0.000000
692.190490 278.653780 21.671986 0.000000
692.173580 279.217010 21.753067 0.000000
689.941590 261.503390 19.796947 0.000000
691.206050 262.518370 19.819094 0.000000
691.699650 279.897090 21.879887 0.000000
689.803890 280.973510 22.152006 0.000000
691.818600 281.024870 22.037149 0.000000
692.496400 283.169680 22.319183 0.000000
690.561160 283.230830 22.442516 0.000000
672.548220 262.519870 19.834314 0.000000
691.552310 264.876070 20.744915 0.000000
691.597900 265.456880 20.798643 0.000000
691.632390 280.401340 22.678553 0.000000
681.889650 262.723820 20.406958 0.000000
690.871220 263.535490 20.672182 0.000000
682.475040 263.594850 20.461149 0.000000
690.342100 278.264800 23.211645 0.000000
690.795290 278.760350 23.237940 0.000000
686.935730 278.995270 22.861942 0.000000
690.465820 279.416350 23.372368 0.000000
691.745850 280.861390 23.465208 0.000000
691.056460 261.082180 21.180714 0.000000
689.857240 261.932370 21.372166 0.000000
690.158630 264.463960 21.565559 0.000000
672.312010 264.150880 21.154749 0.000000
689.799620 277.771760 23.196529 0.000000
691.375240 261.109560 21.891792 0.000000
680.125550 261.419220 21.355560 0.000000
686.582400 261.600590 21.679432 0.000000
686.001590 262.120640 21.784897 0.000000
691.109440 278.032380 23.823610 0.000000
691.425420 278.542210 23.861965 0.000000
691.060850 279.192810 24.010506 0.000000
676.685610 281.747960 24.121477 0.000000
677.631770 283.205470 24.258381 0.000000
690.093440 261.918730 22.109764 0.000000
689.859680 262.469510 22.182297 0.000000
688.251830 262.643770 22.396666 0.000000
673.690000 279.717650 24.083124 0.000000
673.659910 280.598910 24.210218 0.000000
676.494810 282.630280 24.267168 0.000000
680.398130 261.376160 22.299282 0.000000
671.237850 261.997410 22.153225 0.000000
678.167970 263.249940 22.709957 0.000000
679.889280 264.366210 22.638241 0.000000
682.862240 264.084560 23.204380 0.000000
678.709840 282.816590 25.128777 0.000000
680.036010 261.170650 23.300810 0.000000
679.883420 262.703120 23.455418 0.000000
673.141050 279.661320 25.245663 0.000000
678.988770 261.706540 23.479244 0.000000
679.072510 279.434080 25.579214 0.000000
678.844670 282.655730 26.110001 0.000000
685.812810 281.131350 16.469418 0.000000
684.210210 282.236210 16.451330 0.000000
684.645870 282.867160 16.558456 0.000000
693.497800 274.947140 16.435444 0.000000
692.349910 275.610750 16.412708 0.000000
690.884220 276.354830 16.370619 0.000000
673.316160 276.530910 15.966437 0.000000
672.982790 277.461880 16.057354 0.000000
676.254520 277.982940 16.339504 0.000000
673.954410 280.043610 16.432507 0.000000
676.151370 283.190160 16.948154 0.000000
674.916440 284.376500 17.003658 0.000000
679.651370 278.375520 16.613886 0.000000
685.187010 279.026610 17.060778 0.000000
684.644530 279.835050 17.119947 0.000000
685.496640 280.379330 17.240250 0.000000
695.315310 266.474030 16.163631 0.000000
694.218570 266.805970 16.135214 0.000000
693.282960 267.199770 16.125368 0.000000
692.172610 267.598480 16.104095 0.000000
690.994810 268.024990 16.081553 0.000000
689.738590 268.481870 16.057285 0.000000
692.315610 281.952480 17.870392 0.000000
687.785950 261.483800 15.837429 0.000000
687.122010 261.995300 15.875290 0.000000
686.464720 262.526490 15.915763 0.000000
685.966800 263.113280 15.970351 0.000000
685.380190 263.692930 16.019785 0.000000
684.780580 264.285710 16.070080 0.000000
684.110110 264.882080 16.117393 0.000000
681.500670 265.179020 16.038727 0.000000
676.440670 265.205170 15.814795 0.000000
672.353390 265.531710 15.672924 0.000000
682.997070 279.282200 17.876177 0.000000
687.099850 279.264280 18.057993 0.000000
679.020260 279.139310 17.680153 0.000000
671.025390 279.392400 17.351614 0.000000
681.649230 281.050660 18.030495 0.000000
682.674380 264.508240 16.946463 0.000000
687.117370 279.153810 18.885609 0.000000
684.957150 280.980650 19.064592 0.000000
692.461180 281.716490 19.330740 0.000000
675.854610 282.091280 18.992905 0.000000
692.464600 284.832430 19.721479 0.000000
691.653810 280.019740 19.845837 0.000000
692.900760 280.899110 19.963217 0.000000
691.549740 281.884640 20.090006 0.000000
692.311340 282.275050 20.143070 0.000000
693.613280 283.065830 20.250700 0.000000
683.417790 264.535640 17.890911 0.000000
687.064820 279.056180 19.713142 0.000000
680.408260 279.465970 19.756075 0.000000
674.054080 279.599950 19.764181 0.000000
681.583070 280.816590 19.932556 0.000000
675.848750 282.834290 20.185228 0.000000
689.950260 261.177730 18.301497 0.000000
689.026250 264.850520 18.738560 0.000000
694.261230 278.767210 20.372440 0.000000
693.499390 279.496580 20.486086 0.000000
692.062810 281.029910 20.723108 0.000000
692.350770 282.781860 20.959761 0.000000
693.599910 284.196170 21.135527 0.000000
694.037840 284.642120 21.191034 0.000000
679.780880 264.536800 18.886982 0.000000
686.950200 278.969240 20.545647 0.000000
689.970150 261.090850 19.092333 0.000000
691.509340 262.217220 19.150223 0.000000
691.978700 263.583440 19.278053 0.000000
691.592160 264.091090 19.349169 0.000000
691.773380 264.737790 19.413006 0.000000
692.507200 277.892330 21.010952 0.000000
692.896970 278.393310 21.063747 0.000000
691.370730 279.287200 21.251322 0.000000
692.216370 279.698880 21.274113 0.000000
693.903630 280.445160 21.310982 0.000000
691.210210 280.541500 21.434387 0.000000
693.163450 281.822480 21.539221 0.000000
692.430790 282.657960 21.690125 0.000000
692.187260 284.636050 21.992302 0.000000
689.840580 261.617680 19.953667 0.000000
691.245420 262.676300 19.974281 0.000000
691.661380 263.410610 20.023670 0.000000
691.899780 264.079440 20.078205 0.000000
691.902100 278.490300 21.857073 0.000000
691.745610 279.112920 21.956327 0.000000
690.644170 279.958770 22.148247 0.000000
690.598630 280.592190 22.243933 0.000000
691.822570 280.899750 22.213423 0.000000
672.349850 262.180050 19.930698 0.000000
672.907100 263.213620 20.024866 0.000000
694.578670 278.437810 22.363499 0.000000
694.608950 278.976410 22.441742 0.000000
689.992980 261.570860 20.738308 0.000000
682.083500 263.176940 20.596920 0.000000
690.661380 263.678470 20.885965 0.000000
682.541560 264.033660 20.660694 0.000000
691.163880 264.418550 20.917919 0.000000
691.393620 265.076420 20.965633 0.000000
691.536680 280.265690 22.895966 0.000000
691.713260 280.830470 22.968063 0.000000
687.493710 262.191800 21.003960 0.000000
687.017090 279.307010 23.134283 0.000000
689.849910 262.087920 21.599293 0.000000
671.472350 262.820130 21.228926 0.000000
689.795470 264.003810 21.782692 0.000000
689.973020 264.675690 21.829243 0.000000
689.276550 277.523160 23.480648 0.000000
689.750980 278.072510 23.510975 0.000000
691.271480 278.416560 23.399755 0.000000
680.604130 263.536470 21.719193 0.000000
688.362300 281.591030 24.204222 0.000000
691.408750 261.194460 22.136135 0.000000
686.091060 261.707400 21.956182 0.000000
690.278810 262.120060 22.351372 0.000000
691.061890 264.823180 22.491661 0.000000
690.885740 277.786620 24.114967 0.000000
690.813900 279.009770 24.315035 0.000000
687.627870 263.389590 22.796768 0.000000
687.071720 279.078430 24.807623 0.000000
673.854680 279.054780 24.224863 0.000000
673.462100 280.011510 24.394779 0.000000
673.593810 280.898620 24.511507 0.000000
677.901980 262.874730 22.933470 0.000000
677.904850 281.711610 25.329979 0.000000
679.348330 283.067660 25.388607 0.000000
674.837460 283.231930 25.891689 0.000000
680.320130 263.240750 23.716684 0.000000
676.588130 282.705350 26.730278 0.000000
687.148190 279.252110 15.374485 0.000000
695.474610 274.974060 16.487345 0.000000
694.319760 275.632080 16.464224 0.000000
692.926640 276.361210 16.427706 0.000000
675.449950 276.547640 16.005287 0.000000
677.642090 277.215520 16.237736 0.000000
673.111020 278.602540 16.101833 0.000000
675.054440 279.274750 16.316544 0.000000
675.443480 280.120760 16.446499 0.000000
692.367610 281.938750 17.024611 0.000000
675.136660 283.837370 16.873789 0.000000
687.033570 279.042540 17.099205 0.000000
686.128300 279.915100 17.143602 0.000000
686.197390 280.623200 17.233341 0.000000
695.389160 267.339510 16.168823 0.000000
694.293210 267.731540 16.147778 0.000000
693.134460 268.151520 16.125820 0.000000
691.896970 268.601140 16.102058 0.000000
692.299740 281.854340 17.787621 0.000000
691.117130 262.047550 15.959617 0.000000
690.439700 262.522920 15.992944 0.000000
689.925840 263.058780 16.041582 0.000000
689.345030 263.591670 16.086523 0.000000
688.748350 264.136690 16.132105 0.000000
688.134770 264.694670 16.178381 0.000000
686.692200 265.118930 16.168724 0.000000
682.939940 265.211090 16.009014 0.000000
677.925540 265.247710 15.783792 0.000000
675.341060 265.770290 15.733865 0.000000
672.453120 266.346160 15.676654 0.000000
684.777160 279.307460 17.906456 0.000000
684.005800 280.191990 17.981426 0.000000
676.456050 282.490910 17.921965 0.000000
676.020390 283.489260 18.025806 0.000000
685.579160 280.511110 19.007000 0.000000
671.074220 261.130860 16.167475 0.000000
684.643310 279.208890 18.817142 0.000000
684.896360 279.905330 18.912716 0.000000
694.648500 283.409850 19.598137 0.000000
694.946840 284.539610 19.750465 0.000000
691.563840 279.833340 19.846354 0.000000
695.470280 280.685580 19.971067 0.000000
693.595890 283.044950 20.283566 0.000000
694.043270 283.520510 20.349533 0.000000
694.441160 284.004520 20.416706 0.000000
677.082340 279.442990 19.759037 0.000000
679.388920 279.940490 19.830114 0.000000
681.248170 280.441350 19.900875 0.000000
681.696720 281.160030 19.997311 0.000000
693.700500 279.275240 20.511957 0.000000
671.036930 279.342930 19.731846 0.000000
692.948360 281.890140 20.890509 0.000000
692.458070 282.668210 21.009285 0.000000
693.522090 284.237520 21.214630 0.000000
693.987240 284.706540 21.274347 0.000000
689.267520 264.617890 18.718235 0.000000
688.382690 265.116030 18.794764 0.000000
687.076540 279.277280 20.638472 0.000000
690.255860 284.027310 21.241552 0.000000
691.549560 262.445830 19.213266 0.000000
691.748720 263.145360 19.283070 0.000000
690.821290 263.552890 19.365683 0.000000
691.508540 264.358760 19.429424 0.000000
679.929870 264.336910 18.862797 0.000000
679.066530 265.027400 18.963257 0.000000
692.130070 277.674740 21.086195 0.000000
692.364380 278.241330 21.155790 0.000000
691.042240 279.102330 21.331074 0.000000
692.061770 279.523010 21.349464 0.000000
693.894170 280.318570 21.390152 0.000000
694.015320 283.327610 21.829954 0.000000
689.953610 261.308900 19.150829 0.000000
691.360470 262.946410 20.071360 0.000000
691.716000 263.679470 20.127871 0.000000
691.947390 264.365260 20.187855 0.000000
691.701970 278.255430 21.961597 0.000000
691.680110 278.877720 22.053257 0.000000
672.732420 262.949950 20.028837 0.000000
694.181820 278.309570 22.540237 0.000000
694.414670 278.839080 22.600742 0.000000
689.943180 279.860230 22.305447 0.000000
690.251400 280.449650 22.373682 0.000000
682.293950 263.717040 20.714701 0.000000
690.744750 263.988830 21.025158 0.000000
691.115360 264.713710 21.070398 0.000000
682.510680 264.542210 20.794201 0.000000
690.171570 277.770600 22.799303 0.000000
691.418580 280.082120 23.041584 0.000000
691.166140 280.779240 23.170647 0.000000
689.930480 261.785490 20.869179 0.000000
687.871460 261.903810 21.049612 0.000000
680.755490 262.596310 20.685646 0.000000
686.993470 262.390380 21.171259 0.000000
691.652040 278.677800 23.595043 0.000000
680.701970 264.095370 21.877926 0.000000
689.221860 264.201750 22.012627 0.000000
689.816590 264.988680 22.030664 0.000000
685.569640 261.166990 22.096420 0.000000
691.350950 261.346590 22.328396 0.000000
692.195430 264.140780 22.471571 0.000000
692.471860 264.820560 22.501564 0.000000
692.703000 265.476470 22.536615 0.000000
690.740420 278.105590 24.412720 0.000000
692.497860 278.422060 24.237095 0.000000
676.074220 280.784850 24.437323 0.000000
689.577210 262.840790 22.680443 0.000000
688.510440 261.164610 22.664471 0.000000
680.549380 261.471160 22.648571 0.000000
671.309200 261.416320 22.376587 0.000000
678.404240 279.402650 25.116310 0.000000
678.572140 280.223630 25.222538 0.000000
677.263850 278.706760 25.134741 0.000000
682.217470 264.125520 23.739243 0.000000
681.075070 281.291840 26.157928 0.000000
673.919800 282.867070 26.124956 0.000000
695.478760 276.292330 16.505201 0.000000
677.758000 276.534850 16.020004 0.000000
675.280640 278.579590 16.108158 0.000000
675.936040 279.415470 16.259626 0.000000
675.123960 285.200780 16.919933 0.000000
682.970640 276.886020 16.429155 0.000000
682.972660 279.254700 16.729073 0.000000
687.091610 279.347630 17.026842 0.000000
685.940980 280.293150 17.064548 0.000000
692.304500 281.677400 17.672876 0.000000
695.626220 268.317810 16.181690 0.000000
694.436100 268.756290 16.158934 0.000000
691.756770 265.153990 16.287138 0.000000
684.387270 265.239720 15.947952 0.000000
688.508790 265.212620 16.140617 0.000000
681.584410 265.602110 15.863312 0.000000
679.172550 266.109860 15.816658 0.000000
676.500730 266.669740 15.764286 0.000000
687.122380 279.220520 17.923853 0.000000
680.866460 279.437680 17.653412 0.000000
674.583680 279.441280 17.353912 0.000000
676.468140 281.927280 17.763004 0.000000
676.443790 282.855070 17.880278 0.000000
676.141660 283.851870 17.992794 0.000000
694.858640 261.471920 15.926922 0.000000
694.506650 261.995730 15.983089 0.000000
694.161800 262.527920 16.040522 0.000000
693.716920 263.039120 16.090107 0.000000
693.379150 263.587980 16.149700 0.000000
693.005800 264.135100 16.207130 0.000000
684.995670 280.982760 19.010630 0.000000
692.208190 281.481900 19.263424 0.000000
694.234920 279.633000 19.829832 0.000000
693.705320 280.368160 19.927959 0.000000
692.888240 281.846830 20.127172 0.000000
693.522950 282.963350 20.284307 0.000000
694.399540 283.975980 20.429216 0.000000
681.135800 279.947420 19.816256 0.000000
692.119630 281.394170 20.061380 0.000000
675.908690 282.650120 20.160822 0.000000
693.885930 278.992740 20.503952 0.000000
693.277100 279.734500 20.618895 0.000000
693.073850 281.688320 20.900473 0.000000
694.973020 281.793000 20.884266 0.000000
693.869630 284.712250 21.327263 0.000000
688.879820 264.953160 18.745499 0.000000
679.339600 264.866060 18.901098 0.000000
692.214360 279.210480 21.364916 0.000000
691.306340 261.970460 19.177099 0.000000
691.687440 262.751980 19.252069 0.000000
691.106750 263.946690 19.412813 0.000000
691.750240 264.748870 19.482422 0.000000
692.540160 283.042570 21.920555 0.000000
693.784180 281.285740 22.390745 0.000000
689.983340 261.487640 20.038200 0.000000
691.018550 262.470760 20.083887 0.000000
691.536560 263.279630 20.142136 0.000000
691.844480 264.014950 20.205742 0.000000
691.518740 277.939850 22.023361 0.000000
691.647890 278.562840 22.106977 0.000000
689.918760 280.217800 22.458706 0.000000
675.772520 283.299800 22.597399 0.000000
671.019230 261.393620 19.887789 0.000000
672.595400 262.685850 19.981333 0.000000
673.112180 263.748990 20.089828 0.000000
693.967830 278.064330 22.655743 0.000000
693.843630 278.691930 22.761768 0.000000
682.002560 263.387050 20.726883 0.000000
682.395320 264.276550 20.806267 0.000000
691.125000 265.071750 21.194626 0.000000
687.397520 262.129610 21.180145 0.000000
686.232300 262.595400 21.324226 0.000000
688.265010 281.154630 23.602409 0.000000
676.457950 282.075320 23.551292 0.000000
690.099120 262.010890 21.813923 0.000000
689.323850 264.605040 22.159433 0.000000
691.120000 277.780330 23.677771 0.000000
691.667300 278.340850 23.706947 0.000000
691.107300 279.087890 23.882620 0.000000
688.343630 262.980010 22.090639 0.000000
680.538090 263.812740 21.925243 0.000000
692.262020 264.456120 22.647614 0.000000
692.690120 265.812590 22.733280 0.000000
692.403080 278.111820 24.400602 0.000000
692.440550 278.736050 24.496378 0.000000
692.710390 279.317290 24.557507 0.000000
689.949520 262.561490 22.750708 0.000000
691.899600 263.723540 22.620434 0.000000
690.780580 264.793730 22.867598 0.000000
690.571590 277.748350 24.575695 0.000000
689.954160 261.863680 22.684834 0.000000
678.748470 278.734710 25.125050 0.000000
677.415100 279.630580 15.216981 0.000000
686.363400 285.417300 16.715815 0.000000
679.688720 276.555730 16.136732 0.000000
683.338930 277.054930 16.453621 0.000000
683.640140 278.629150 16.676773 0.000000
675.950810 278.734800 16.160475 0.000000
676.509580 285.284270 17.023123 0.000000
684.858760 279.249630 16.839663 0.000000
685.031740 280.010160 16.947849 0.000000
686.179870 280.584630 17.098869 0.000000
695.567380 268.770540 16.193565 0.000000
671.410100 280.117580 17.314169 0.000000
689.788820 265.228730 16.189589 0.000000
692.928710 265.143710 16.324764 0.000000
685.543150 265.240540 15.992302 0.000000
682.529420 265.578890 15.897268 0.000000
680.037660 266.086640 15.849591 0.000000
677.271240 266.647770 15.795954 0.000000
682.569340 279.460510 17.752455 0.000000
684.596860 279.949310 17.911098 0.000000
676.471070 282.260040 17.830124 0.000000
695.490170 261.891540 15.991594 0.000000
695.173340 262.441440 16.053944 0.000000
694.739070 262.964510 16.106853 0.000000
694.435610 263.530760 16.171619 0.000000
694.086850 264.091670 16.233292 0.000000
693.943180 280.066990 19.959398 0.000000
682.907590 264.545410 17.850740 0.000000
687.103270 279.272800 19.826172 0.000000
691.570010 279.897920 19.927561 0.000000
692.115910 281.138580 20.100929 0.000000
681.725460 280.993190 20.043686 0.000000
692.712710 281.670350 20.176933 0.000000
692.362370 282.442750 20.283016 0.000000
693.875000 283.364140 20.417740 0.000000
694.117000 278.655550 20.554489 0.000000
693.491030 279.408170 20.672512 0.000000
689.035640 264.749020 18.801340 0.000000
687.102420 279.145600 20.751740 0.000000
692.508240 280.263640 20.812092 0.000000
692.054440 281.037480 20.931032 0.000000
692.887330 281.512510 20.984737 0.000000
690.685420 283.496310 21.310909 0.000000
679.488220 264.710390 18.970692 0.000000
689.965820 261.213530 19.249468 0.000000
690.823730 279.121490 21.544052 0.000000
692.366580 279.514310 21.539919 0.000000
693.281070 281.966890 21.868847 0.000000
680.118770 261.135830 19.622805 0.000000
691.622800 263.664120 20.324057 0.000000
691.855900 264.397830 20.393990 0.000000
691.978210 265.096410 20.467651 0.000000
689.151000 280.008150 22.646416 0.000000
691.526730 280.239720 22.535919 0.000000
687.958130 261.294860 20.278858 0.000000
671.204650 261.193570 19.981701 0.000000
672.474060 262.454900 20.084551 0.000000
672.976680 263.544160 20.198151 0.000000
690.119870 263.203770 21.250795 0.000000
682.046330 263.996770 20.948769 0.000000
689.727660 277.669620 23.151438 0.000000
690.399840 278.267430 23.184885 0.000000
690.621460 278.920900 23.265882 0.000000
690.031920 261.739780 21.101154 0.000000
676.645020 281.427800 23.629551 0.000000
671.346980 263.122770 21.505184 0.000000
690.917540 277.395780 23.875103 0.000000
691.001590 278.060490 23.968462 0.000000
690.943420 278.749300 24.082184 0.000000
673.748960 280.935940 23.735584 0.000000
680.131650 261.750850 21.913843 0.000000
689.900210 262.318390 22.072376 0.000000
688.316280 262.662960 22.271673 0.000000
680.553830 264.458650 22.186665 0.000000
694.130430 279.373600 24.654011 0.000000
678.786740 262.369140 22.094332 0.000000
686.625850 263.804380 22.569263 0.000000
691.818660 264.067870 22.907862 0.000000
692.274660 264.836330 22.929586 0.000000
692.513430 265.543300 22.974125 0.000000
692.230410 278.423070 24.739740 0.000000
691.850650 279.151920 24.906725 0.000000
677.056150 282.130860 24.892588 0.000000
678.632690 282.748810 24.858158 0.000000
690.267820 262.300140 22.926884 0.000000
690.000000 262.950040 23.023962 0.000000
680.508360 261.692810 22.981266 0.000000
678.540100 278.107820 25.299639 0.000000
676.503850 282.070680 26.129810 0.000000
685.584590 280.496340 15.029324 0.000000
687.351200 283.989500 16.629826 0.000000
