# .PCD v0.7 - Point Cloud Data file format
VERSION 0.7
FIELDS x y z intensity
SIZE 4 4 4 4
TYPE F F F F
COUNT 1 1 1 1
WIDTH 1166
HEIGHT 1
VIEWPOINT 0 0 0 1 0 0 0
POINTS 1166
DATA ascii
691.271910 143.815170 13.057409 0.000000
690.884400 143.780200 13.057211 0.000000
690.495120 143.756700 13.055813 0.000000
690.026000 143.746260 13.053361 0.000000
689.633910 143.754650 13.051044 0.000000
689.240840 143.775570 13.047645 0.000000
688.846740 143.807210 13.043227 0.000000
688.609740 143.831800 13.040056 0.000000
685.776120 143.459380 13.053126 0.000000
694.016420 143.499970 13.105516 0.000000
693.680480 143.423400 13.113392 0.000000
693.260800 143.337330 13.122302 0.000000
692.842650 143.258320 13.129107 0.000000
692.426330 143.179490 13.133206 0.000000
692.092350 143.124310 13.135555 0.000000
687.642520 143.089650 13.102102 0.000000
687.290280 143.141490 13.094387 0.000000
686.847960 143.219420 13.083738 0.000000
686.403200 143.309570 13.071885 0.000000
686.045590 143.392200 13.061500 0.000000
683.200870 143.056210 13.069818 0.000000
695.722050 143.035100 13.170069 0.000000
695.260560 142.892200 13.183227 0.000000
694.892210 142.786030 13.192887 0.000000
691.673400 143.065890 13.137440 0.000000
691.252930 143.017850 13.138254 0.000000
690.915220 142.987670 13.138038 0.000000
690.491270 142.960460 13.136701 0.000000
690.065490 142.943740 13.134281 0.000000
689.637270 142.939030 13.130601 0.000000
689.206850 142.945020 13.125815 0.000000
688.860660 142.958570 13.121108 0.000000
688.514100 142.985700 13.116546 0.000000
688.079900 143.034410 13.110267 0.000000
684.440800 142.658050 13.114991 0.000000
684.132390 142.747440 13.104284 0.000000
683.727780 142.888790 13.091234 0.000000
683.417240 142.993650 13.079635 0.000000
694.708440 142.735990 13.197321 0.000000
694.436040 142.657030 13.202472 0.000000
694.078000 142.542680 13.206560 0.000000
693.720090 142.430070 13.209121 0.000000
693.449950 142.351680 13.210779 0.000000
685.737000 142.293850 13.148981 0.000000
685.343140 142.400920 13.140314 0.000000
684.947270 142.516250 13.130622 0.000000
684.645020 142.601180 13.121698 0.000000
693.178280 142.278880 13.212108 0.000000
692.814210 142.188610 13.213348 0.000000
692.447810 142.106350 13.213939 0.000000
692.078980 142.033520 13.214055 0.000000
691.707760 141.970200 13.213698 0.000000
691.334170 141.916840 13.212918 0.000000
687.983640 141.868320 13.185212 0.000000
687.693050 141.908910 13.182096 0.000000
687.305360 141.971790 13.177521 0.000000
686.915160 142.038500 13.171531 0.000000
686.523190 142.112950 13.164602 0.000000
686.130370 142.197860 13.157068 0.000000
690.958440 141.872970 13.211645 0.000000
690.485720 141.832210 13.209341 0.000000
690.010130 141.805510 13.206301 0.000000
689.627440 141.795100 13.203220 0.000000
689.243160 141.796220 13.199842 0.000000
688.857180 141.806630 13.195861 0.000000
688.469670 141.827240 13.191376 0.000000
688.178160 141.849380 13.187725 0.000000
682.849850 141.416030 13.177643 0.000000
682.457460 141.483960 13.160358 0.000000
682.033810 141.523860 13.137902 0.000000
681.745730 141.554410 13.122286 0.000000
681.430970 141.560960 13.102532 0.000000
695.593510 141.457320 13.270571 0.000000
695.191650 141.304170 13.274766 0.000000
694.888370 141.195540 13.277578 0.000000
683.989070 141.014920 13.202949 0.000000
683.644840 141.122510 13.195213 0.000000
683.347170 141.311160 13.196298 0.000000
694.685240 141.126530 13.279283 0.000000
694.481510 141.059590 13.280806 0.000000
694.174070 140.965410 13.282967 0.000000
693.762080 140.847380 13.285316 0.000000
693.451230 140.765690 13.286810 0.000000
685.251160 140.696170 13.229513 0.000000
684.908570 140.774140 13.222856 0.000000
684.564210 140.858400 13.215624 0.000000
684.219670 140.950210 13.208205 0.000000
693.243160 140.714200 13.287592 0.000000
692.929690 140.641940 13.288490 0.000000
692.509830 140.552280 13.289063 0.000000
692.087220 140.472150 13.289046 0.000000
691.661930 140.401820 13.288461 0.000000
691.233760 140.341890 13.287360 0.000000
690.910950 140.304820 13.286350 0.000000
687.606510 140.271350 13.259609 0.000000
687.271730 140.312960 13.256297 0.000000
686.824580 140.378160 13.251426 0.000000
686.488590 140.434430 13.247429 0.000000
686.152040 140.497830 13.243050 0.000000
685.702640 140.592470 13.236746 0.000000
690.586490 140.273130 13.284888 0.000000
690.151670 140.239140 13.282434 0.000000
689.714290 140.216170 13.279486 0.000000
689.274350 140.203960 13.275991 0.000000
688.831910 140.202900 13.271974 0.000000
688.498660 140.209180 13.268636 0.000000
688.163940 140.222730 13.264980 0.000000
687.829350 140.247710 13.261662 0.000000
680.482300 138.997250 13.205325 0.000000
678.922550 138.990800 13.126770 0.000000
678.572140 139.066940 13.112931 0.000000
681.424440 138.811510 13.235863 0.000000
681.007630 138.714870 13.210670 0.000000
680.696290 138.786180 13.201254 0.000000
679.759950 138.791720 13.156662 0.000000
679.282650 138.935700 13.141955 0.000000
683.453490 138.348540 13.282463 0.000000
682.982300 138.351430 13.265830 0.000000
682.540280 138.432530 13.255147 0.000000
681.743160 138.500430 13.227790 0.000000
684.463440 137.869460 13.278353 0.000000
683.954590 138.101350 13.280559 0.000000
683.628170 138.064650 13.267167 0.000000
695.734070 137.792020 13.253230 0.000000
694.498230 137.620130 13.276228 0.000000
685.373350 137.506910 13.274221 0.000000
684.918880 137.489010 13.261452 0.000000
684.720580 137.759170 13.277125 0.000000
695.413330 137.434880 13.235276 0.000000
694.952450 137.518920 13.255579 0.000000
694.174870 137.214310 13.251495 0.000000
693.716920 137.370740 13.274820 0.000000
693.303710 137.355070 13.282059 0.000000
692.872440 137.475330 13.299985 0.000000
692.343990 137.368090 13.299496 0.000000
686.880000 137.196780 13.279655 0.000000
686.576600 137.131590 13.269303 0.000000
686.154110 137.184600 13.265669 0.000000
692.124020 136.859210 13.260261 0.000000
691.709230 136.819090 13.261718 0.000000
691.294010 136.778900 13.262325 0.000000
691.016600 136.752010 13.262162 0.000000
690.599120 136.713040 13.261188 0.000000
688.808170 136.975830 13.282239 0.000000
688.515440 136.863080 13.271076 0.000000
688.095700 136.883790 13.269329 0.000000
687.676820 136.920170 13.268028 0.000000
687.374820 136.837040 13.257518 0.000000
687.081910 136.818280 13.251959 0.000000
690.179870 136.674420 13.259397 0.000000
689.759030 136.658130 13.258409 0.000000
689.336980 136.649020 13.257163 0.000000
681.821410 136.494190 13.490591 0.000000
681.438420 136.467860 13.478678 0.000000
681.057370 136.459340 13.467392 0.000000
680.667970 136.450620 13.455482 0.000000
680.269900 136.441770 13.442924 0.000000
679.897090 136.485470 13.433466 0.000000
679.445010 136.423310 13.415718 0.000000
679.017090 136.413800 13.401012 0.000000
678.577940 136.403980 13.385511 0.000000
678.126830 136.393920 13.369182 0.000000
695.475830 160.809430 13.712676 0.000000
693.962520 160.831570 13.582964 0.000000
692.609990 160.807600 13.453039 0.000000
678.548030 160.574170 13.673517 0.000000
695.558900 160.630620 13.722523 0.000000
694.713260 160.441650 13.584435 0.000000
694.305850 160.657230 13.584298 0.000000
693.518070 160.525880 13.543872 0.000000
693.006410 160.607600 13.463230 0.000000
690.999940 160.615800 13.693680 0.000000
689.891970 160.612380 13.609319 0.000000
687.913150 160.577290 13.573372 0.000000
687.562190 160.481960 13.573200 0.000000
684.214970 160.593550 13.593761 0.000000
695.074890 160.151030 13.592049 0.000000
694.237550 160.010960 13.472616 0.000000
693.855040 160.206970 13.471431 0.000000
693.031560 160.008590 13.367485 0.000000
692.784000 160.121610 13.363133 0.000000
687.933470 159.981610 13.386388 0.000000
687.339600 160.168380 13.509017 0.000000
687.045900 159.960690 13.519821 0.000000
686.781740 159.858310 13.517893 0.000000
695.400450 159.817920 13.603401 0.000000
694.628660 159.689350 13.484818 0.000000
694.415950 159.889760 13.475691 0.000000
693.818240 159.626620 13.374752 0.000000
693.459590 159.809510 13.372015 0.000000
693.216250 159.924820 13.369744 0.000000
687.713130 159.803450 13.401798 0.000000
687.501100 159.623580 13.416222 0.000000
686.573300 159.796810 13.512999 0.000000
686.217900 159.696030 13.502512 0.000000
685.840820 159.612630 13.486669 0.000000
685.451780 159.523040 13.468446 0.000000
685.133970 159.445360 13.452679 0.000000
695.038150 159.286790 13.500756 0.000000
694.836610 159.488490 13.493254 0.000000
694.239930 159.285630 13.391276 0.000000
694.037350 159.467410 13.381639 0.000000
687.295040 159.441880 13.430072 0.000000
687.080510 159.288510 13.437647 0.000000
686.695010 159.173070 13.426304 0.000000
686.280820 159.083130 13.406089 0.000000
684.972230 159.403730 13.444297 0.000000
684.638730 159.318890 13.425720 0.000000
684.277710 159.249710 13.402051 0.000000
695.428040 158.882350 13.513309 0.000000
695.235410 159.084440 13.507597 0.000000
694.680850 158.878420 13.408920 0.000000
694.437990 159.103040 13.400198 0.000000
685.999210 159.016560 13.391378 0.000000
695.444150 158.475080 13.386198 0.000000
695.075930 158.646330 13.402022 0.000000
695.319640 136.779950 13.550554 0.000000
695.020390 136.773160 13.556864 0.000000
694.576600 136.763140 13.565565 0.000000
694.137570 136.753200 13.573521 0.000000
693.703670 136.743380 13.580571 0.000000
692.988340 136.727220 13.590691 0.000000
691.298030 136.724530 13.608532 0.000000
692.563480 136.717620 13.595674 0.000000
692.140620 136.708080 13.599992 0.000000
691.719670 136.698580 13.603491 0.000000
691.020080 136.682800 13.607813 0.000000
690.600770 136.673340 13.609380 0.000000
690.181090 136.663910 13.610309 0.000000
689.760250 136.654430 13.610440 0.000000
689.338010 136.644930 13.609927 0.000000
688.913390 136.635360 13.608607 0.000000
688.486270 136.625760 13.606634 0.000000
688.199580 136.619290 13.604876 0.000000
687.766050 136.609560 13.601566 0.000000
687.328550 136.599730 13.597572 0.000000
687.033940 136.593140 13.594446 0.000000
686.586910 136.583100 13.589036 0.000000
686.134160 136.572940 13.582893 0.000000
685.828250 136.566070 13.578293 0.000000
685.364140 136.561100 13.570960 0.000000
684.889040 136.545040 13.562127 0.000000
684.567930 136.537830 13.555911 0.000000
684.242370 136.530520 13.549264 0.000000
683.744380 136.519390 13.538396 0.000000
683.235960 136.508010 13.526591 0.000000
682.889470 136.500270 13.518070 0.000000
682.536800 136.492370 13.509035 0.000000
681.811220 136.473750 13.892251 0.000000
681.437810 136.465390 13.885654 0.000000
681.056030 136.455860 13.878627 0.000000
680.667180 136.448100 13.871281 0.000000
680.268920 136.439180 13.863470 0.000000
679.896060 136.482890 13.857623 0.000000
679.443850 136.420680 13.846501 0.000000
679.015810 136.411150 13.837302 0.000000
678.576480 136.401290 13.827589 0.000000
678.125240 136.391170 13.817341 0.000000
678.558410 160.569460 13.988017 0.000000
695.558170 160.628710 14.031403 0.000000
693.634160 160.623110 13.900762 0.000000
692.416690 160.618480 13.933918 0.000000
691.000370 160.613630 13.868824 0.000000
690.309020 160.611540 13.872709 0.000000
689.893680 160.610240 13.959650 0.000000
688.020690 160.604140 13.939832 0.000000
687.074710 160.601530 14.013052 0.000000
684.220340 160.590870 14.038371 0.000000
686.279050 144.429720 14.138550 0.000000
695.413570 142.582210 13.880425 0.000000
695.227480 142.283430 14.119594 0.000000
694.911870 142.262740 14.125655 0.000000
694.503420 142.226750 14.132619 0.000000
693.930180 142.096160 14.138356 0.000000
693.743650 142.042040 14.139493 0.000000
693.287720 141.864690 14.139904 0.000000
692.861940 141.517880 14.132472 0.000000
694.139340 136.753420 13.931081 0.000000
693.561950 136.737140 13.937947 0.000000
693.258420 136.830320 13.945180 0.000000
691.299680 136.722470 13.958266 0.000000
692.990360 136.725140 13.944046 0.000000
692.565370 136.715550 13.947965 0.000000
692.142460 136.705990 13.951438 0.000000
691.721370 136.696500 13.954361 0.000000
691.021670 136.680710 13.958226 0.000000
690.602230 136.671250 13.959861 0.000000
690.182430 136.661800 13.961072 0.000000
689.761540 136.652330 13.961751 0.000000
689.339170 136.642820 13.962006 0.000000
688.914490 136.633260 13.961722 0.000000
688.487300 136.623640 13.961008 0.000000
688.200500 136.617170 13.960241 0.000000
687.766910 136.607420 13.958646 0.000000
687.329350 136.597600 13.956600 0.000000
687.034670 136.590970 13.954931 0.000000
686.587520 136.580920 13.951955 0.000000
686.134700 136.570760 13.948499 0.000000
685.828670 136.563860 13.945864 0.000000
685.364440 136.558870 13.941624 0.000000
684.889220 136.542790 13.936413 0.000000
684.568120 136.535680 13.932727 0.000000
684.242490 136.528230 13.928751 0.000000
683.744320 136.517070 13.922209 0.000000
683.235780 136.505680 13.915057 0.000000
682.889220 136.497910 13.909865 0.000000
682.536500 136.489960 13.904342 0.000000
681.810730 136.471310 14.294574 0.000000
681.437190 136.462920 14.292063 0.000000
681.056090 136.454700 14.289381 0.000000
680.666320 136.445560 14.286502 0.000000
680.268010 136.436650 14.283437 0.000000
679.894960 136.480320 14.281196 0.000000
679.442630 136.418080 14.276693 0.000000
679.014470 136.408480 14.272997 0.000000
678.575070 136.398590 14.269067 0.000000
678.123660 136.388430 14.264894 0.000000
671.415650 160.544400 14.643733 0.000000
695.557250 160.626190 14.441416 0.000000
694.993230 160.624620 14.248500 0.000000
693.634280 160.620290 14.366102 0.000000
690.933720 160.609880 14.562893 0.000000
689.895870 160.607620 14.393954 0.000000
688.022710 160.602460 14.212672 0.000000
687.076230 160.600490 14.202037 0.000000
686.044250 160.592150 14.483998 0.000000
684.225770 160.588180 14.480366 0.000000
683.008670 160.585340 14.357660 0.000000
686.276370 144.422820 14.545003 0.000000
693.009580 143.936920 14.223361 0.000000
695.325740 136.775880 14.458342 0.000000
695.026610 136.767850 14.460421 0.000000
694.582580 136.757840 14.463431 0.000000
694.143250 136.747920 14.466301 0.000000
693.781130 136.739750 14.468699 0.000000
691.301270 136.720380 14.307488 0.000000
690.465450 136.709590 14.660015 0.000000
690.186220 136.702900 14.661196 0.000000
689.766240 136.692840 14.662969 0.000000
689.347230 136.713790 14.664616 0.000000
686.757930 136.661190 14.675514 0.000000
686.459170 136.653580 14.676778 0.000000
686.157470 136.645950 14.678054 0.000000
693.566040 136.733830 14.647119 0.000000
692.993350 136.722000 14.473206 0.000000
692.568180 136.712400 14.475530 0.000000
692.145140 136.702870 14.477736 0.000000
691.723940 136.693370 14.479800 0.000000
691.023990 136.677580 14.482982 0.000000
690.674260 136.681210 14.484378 0.000000
690.183780 136.659710 14.311318 0.000000
689.762760 136.650240 14.312547 0.000000
689.340390 136.640720 14.313565 0.000000
688.918330 136.651870 14.490429 0.000000
688.491520 136.641950 14.491601 0.000000
688.205080 136.635280 14.492316 0.000000
687.772220 136.627780 14.493277 0.000000
687.334660 136.615080 14.494162 0.000000
687.040040 136.607510 14.494680 0.000000
686.588070 136.578740 14.314346 0.000000
686.135190 136.568540 14.313573 0.000000
685.840880 136.599930 14.496122 0.000000
685.376530 136.591520 14.496529 0.000000
684.902950 136.577500 14.496731 0.000000
684.582280 136.569820 14.496824 0.000000
684.257080 136.562010 14.496861 0.000000
683.759640 136.550140 14.496801 0.000000
683.251710 136.537980 14.496623 0.000000
682.905520 136.529710 14.496422 0.000000
682.553220 136.521240 14.496157 0.000000
681.846680 136.536620 14.696287 0.000000
681.474000 136.527160 14.697863 0.000000
681.093570 136.517490 14.699471 0.000000
680.704770 136.507610 14.701117 0.000000
680.287230 136.466060 14.703006 0.000000
679.900210 136.487240 14.704519 0.000000
679.462340 136.446030 14.706491 0.000000
679.034420 136.435810 14.708299 0.000000
678.595150 136.425260 14.710154 0.000000
678.143980 136.414460 14.712060 0.000000
677.703670 136.433380 14.713802 0.000000
677.226500 136.421420 14.715819 0.000000
676.727170 136.400150 14.717965 0.000000
676.218440 136.386120 14.720121 0.000000
679.833010 160.570940 14.898984 0.000000
679.433410 160.569600 14.907695 0.000000
679.013730 160.568180 14.916936 0.000000
678.572390 160.566590 14.926750 0.000000
695.556580 160.624340 14.748291 0.000000
693.634340 160.617430 14.829893 0.000000
692.381960 160.613240 14.822909 0.000000
690.174680 160.606250 14.738742 0.000000
689.898010 160.604980 14.826844 0.000000
688.028020 160.598070 14.936870 0.000000
686.047550 160.590740 14.880545 0.000000
684.226810 160.589860 14.811255 0.000000
680.926880 160.574750 14.875636 0.000000
680.578370 160.573530 14.882991 0.000000
680.214170 160.572270 14.890762 0.000000
694.344420 144.055310 14.820771 0.000000
693.987060 144.062100 14.819073 0.000000
693.774290 143.693950 14.827291 0.000000
695.330020 136.771420 15.002598 0.000000
695.030330 136.764650 15.002179 0.000000
694.586120 136.754670 15.001775 0.000000
694.146670 136.744770 15.001594 0.000000
693.712340 136.734970 15.001684 0.000000
693.281490 136.725280 15.001990 0.000000
692.996340 136.718860 15.002336 0.000000
692.571040 136.709270 15.003066 0.000000
692.147830 136.699740 15.004005 0.000000
691.726500 136.690260 15.005209 0.000000
691.306150 136.680770 15.006622 0.000000
691.026310 136.674470 15.007705 0.000000
690.606570 136.665010 15.009542 0.000000
690.186520 136.655530 15.011595 0.000000
689.765320 136.646040 15.013921 0.000000
689.342770 136.636520 15.016467 0.000000
688.917790 136.626920 15.019298 0.000000
688.490300 136.617290 15.022360 0.000000
688.203370 136.610790 15.024560 0.000000
687.769470 136.601010 15.028103 0.000000
687.331670 136.591160 15.031898 0.000000
687.036740 136.584500 15.034599 0.000000
686.589290 136.574390 15.038919 0.000000
686.136230 136.564150 15.043516 0.000000
685.830020 136.557240 15.046773 0.000000
685.363770 136.546690 15.051956 0.000000
684.889950 136.536030 15.057451 0.000000
684.568600 136.528870 15.061328 0.000000
684.242680 136.521350 15.065382 0.000000
683.744260 136.510130 15.071810 0.000000
683.235350 136.498630 15.078609 0.000000
682.888430 136.490780 15.083402 0.000000
682.535460 136.482770 15.088401 0.000000
682.176030 136.474700 15.093611 0.000000
695.555850 160.622450 15.055387 0.000000
694.635740 160.619140 15.326951 0.000000
694.206360 160.615570 15.311996 0.000000
693.876340 160.615720 15.301723 0.000000
693.555660 160.614990 15.199456 0.000000
693.013920 160.612430 15.279187 0.000000
692.639280 160.610730 15.271493 0.000000
692.273930 160.610640 15.265480 0.000000
691.808900 160.609210 15.172033 0.000000
691.005370 160.605290 15.255250 0.000000
690.177060 160.602630 15.258003 0.000000
689.934390 160.602800 15.173395 0.000000
689.056150 160.600520 15.097624 0.000000
688.623410 160.599030 15.105319 0.000000
688.254820 160.597750 15.112968 0.000000
687.799680 160.596160 15.123829 0.000000
687.487300 160.594790 15.132113 0.000000
686.920840 160.590230 15.148658 0.000000
685.863280 160.589540 15.083920 0.000000
685.387210 160.587370 14.997417 0.000000
684.984560 160.587460 15.008966 0.000000
684.562810 160.585980 15.021541 0.000000
684.232480 160.584840 15.031726 0.000000
684.004030 160.584010 15.038949 0.000000
682.751650 160.580230 15.080780 0.000000
686.265870 144.400050 15.156849 0.000000
695.332580 136.769290 15.366015 0.000000
695.032840 136.762510 15.363912 0.000000
694.735840 136.755860 15.362042 0.000000
694.441220 136.749240 15.360409 0.000000
694.148930 136.742650 15.359006 0.000000
693.714480 136.732880 15.357353 0.000000
693.283570 136.723190 15.356145 0.000000
692.998290 136.716780 15.355632 0.000000
692.572940 136.707200 15.355296 0.000000
692.149600 136.697660 15.355389 0.000000
691.728210 136.688170 15.356017 0.000000
691.307740 136.678700 15.357071 0.000000
691.027830 136.672390 15.358057 0.000000
690.608030 136.662920 15.359962 0.000000
690.187870 136.653460 15.362295 0.000000
689.766600 136.643950 15.365171 0.000000
689.343990 136.634430 15.368484 0.000000
688.918880 136.624830 15.372354 0.000000
688.491330 136.615170 15.376678 0.000000
688.204350 136.608690 15.379870 0.000000
687.770390 136.598880 15.385130 0.000000
687.332400 136.588990 15.390877 0.000000
687.037480 136.582340 15.395038 0.000000
686.589900 136.572200 15.401796 0.000000
686.136720 136.561970 15.409084 0.000000
685.830440 136.555020 15.414310 0.000000
685.364140 136.544480 15.422716 0.000000
684.890200 136.533770 15.431714 0.000000
684.568730 136.526490 15.438125 0.000000
684.242800 136.519090 15.444855 0.000000
683.744200 136.507810 15.455616 0.000000
683.235170 136.496280 15.467079 0.000000
682.888240 136.488400 15.475208 0.000000
682.535160 136.480380 15.483724 0.000000
681.809690 136.466420 15.099045 0.000000
681.435970 136.457980 15.104711 0.000000
681.054440 136.449330 15.110621 0.000000
680.664670 136.440510 15.116786 0.000000
680.266110 136.431520 15.123218 0.000000
679.858150 136.422290 15.129930 0.000000
679.440250 136.412810 15.136938 0.000000
679.011840 136.403150 15.144254 0.000000
678.572140 136.393190 15.151898 0.000000
678.120480 136.382950 15.159885 0.000000
695.555180 160.620570 15.363251 0.000000
695.175900 160.619420 15.347502 0.000000
694.249570 145.023680 15.733526 0.000000
686.263120 144.393080 15.567973 0.000000
695.241210 142.023860 15.639632 0.000000
695.558780 141.821000 15.666715 0.000000
695.335140 136.767140 15.730293 0.000000
695.035340 136.760380 15.726499 0.000000
694.590940 136.750430 15.721525 0.000000
694.151250 136.740550 15.717260 0.000000
693.716670 136.730770 15.713860 0.000000
693.285640 136.721080 15.711133 0.000000
693.000310 136.714660 15.709760 0.000000
692.574830 136.705090 15.708356 0.000000
692.151430 136.695590 15.707600 0.000000
691.729860 136.686080 15.707651 0.000000
691.309390 136.676620 15.708343 0.000000
691.029420 136.670320 15.709230 0.000000
690.609500 136.660840 15.711205 0.000000
690.189270 136.651350 15.713820 0.000000
689.767880 136.641860 15.717247 0.000000
689.345150 136.632310 15.721329 0.000000
688.919980 136.622700 15.726242 0.000000
688.492310 136.613040 15.731832 0.000000
688.205260 136.606540 15.736018 0.000000
687.771240 136.596740 15.743000 0.000000
687.333370 136.587800 15.750631 0.000000
687.038150 136.580170 15.756328 0.000000
686.590520 136.570020 15.765532 0.000000
686.137270 136.559770 15.775518 0.000000
685.830870 136.552810 15.782717 0.000000
685.364440 136.542240 15.794356 0.000000
684.890440 136.531490 15.806868 0.000000
684.568910 136.524200 15.815815 0.000000
684.242860 136.516780 15.825233 0.000000
683.744200 136.505480 15.840343 0.000000
683.234990 136.493910 15.856481 0.000000
682.888000 136.486040 15.867955 0.000000
682.534850 136.477980 15.879997 0.000000
681.809140 136.463970 15.501965 0.000000
681.435360 136.455510 15.511729 0.000000
681.053710 136.446840 15.521951 0.000000
680.663820 136.437970 15.532645 0.000000
680.265140 136.428960 15.543837 0.000000
679.857120 136.419690 15.555552 0.000000
679.439090 136.410170 15.567815 0.000000
679.010560 136.400480 15.580649 0.000000
678.570680 136.390490 15.594097 0.000000
678.118840 136.380200 15.608182 0.000000
694.143430 145.566970 15.839355 0.000000
694.323490 144.872710 15.949523 0.000000
686.260680 144.387100 15.879058 0.000000
695.201350 141.595990 15.939869 0.000000
694.938420 141.687790 15.920393 0.000000
693.614200 141.817150 15.865317 0.000000
693.350160 141.653030 15.877015 0.000000
694.829650 140.765690 16.014805 0.000000
694.612850 140.715760 16.013254 0.000000
694.185120 140.604160 16.012859 0.000000
695.245120 140.293410 16.079247 0.000000
695.337710 136.764980 16.095783 0.000000
695.037840 136.758240 16.090292 0.000000
694.593320 136.748290 16.083023 0.000000
694.153500 136.738420 16.076706 0.000000
693.718810 136.728650 16.071548 0.000000
693.287720 136.718980 16.067299 0.000000
693.002320 136.712570 16.065062 0.000000
692.576780 136.703000 16.062584 0.000000
692.153200 136.693480 16.060978 0.000000
691.731630 136.683990 16.060450 0.000000
691.310970 136.674510 16.060780 0.000000
691.031010 136.668210 16.061569 0.000000
690.610960 136.658740 16.063610 0.000000
690.190610 136.649260 16.066509 0.000000
689.769170 136.639740 16.070492 0.000000
689.346310 136.630190 16.075344 0.000000
688.921080 136.620570 16.081305 0.000000
688.493350 136.610900 16.088165 0.000000
688.206240 136.604400 16.093348 0.000000
687.772090 136.594570 16.102057 0.000000
687.333920 136.584660 16.111723 0.000000
687.038880 136.577970 16.118820 0.000000
686.591130 136.567830 16.130478 0.000000
686.137760 136.557560 16.143173 0.000000
685.831360 136.550600 16.152353 0.000000
685.364810 136.539990 16.167236 0.000000
684.890690 136.529240 16.183275 0.000000
684.569030 136.521900 16.194769 0.000000
684.242980 136.514480 16.206886 0.000000
683.744140 136.503140 16.226358 0.000000
683.234860 136.491550 16.247190 0.000000
682.887760 136.483640 16.262024 0.000000
682.534480 136.475590 16.277607 0.000000
681.808650 136.461530 15.905858 0.000000
681.434690 136.453020 15.919735 0.000000
681.053040 136.444340 15.934277 0.000000
680.663020 136.435440 15.949515 0.000000
680.264220 136.426390 15.965481 0.000000
679.856020 136.417100 15.982211 0.000000
679.437930 136.407550 15.999747 0.000000
679.009220 136.397830 16.018118 0.000000
678.569210 136.387770 16.037386 0.000000
678.117250 136.377460 16.057587 0.000000
695.589540 140.673630 16.340364 0.000000
695.333130 140.702120 16.325071 0.000000
695.082950 140.725950 16.311167 0.000000
694.555850 140.539580 16.458115 0.000000
694.111630 140.470080 16.450464 0.000000
693.639400 140.296660 16.459257 0.000000
693.331120 140.138890 16.472729 0.000000
695.642940 136.770360 16.470568 0.000000
694.155520 136.737630 16.437523 0.000000
693.721010 136.726550 16.430756 0.000000
693.289790 136.716860 16.424974 0.000000
693.004330 136.710450 16.421869 0.000000
692.578670 136.700900 16.418314 0.000000
692.155030 136.691380 16.415854 0.000000
691.733340 136.681880 16.414743 0.000000
691.312620 136.672410 16.414709 0.000000
691.032530 136.666090 16.415401 0.000000
690.612490 136.656630 16.417511 0.000000
690.192020 136.647140 16.420694 0.000000
689.770510 136.637630 16.425230 0.000000
689.347530 136.628070 16.430859 0.000000
688.922180 136.618450 16.437868 0.000000
688.494380 136.608760 16.446007 0.000000
688.207210 136.602250 16.452192 0.000000
687.772950 136.592420 16.462639 0.000000
687.334720 136.582500 16.474276 0.000000
687.039610 136.575810 16.482851 0.000000
686.591740 136.565610 16.496975 0.000000
686.138240 136.555330 16.512390 0.000000
685.831790 136.548360 16.523561 0.000000
685.365110 136.537730 16.541706 0.000000
684.890870 136.526950 16.561287 0.000000
684.569210 136.519610 16.575340 0.000000
684.243040 136.512180 16.590166 0.000000
683.744140 136.500810 16.614023 0.000000
683.234680 136.489180 16.639572 0.000000
682.887450 136.481250 16.657782 0.000000
682.534180 136.473160 16.676922 0.000000
681.808110 136.459060 16.311117 0.000000
681.434080 136.450550 16.329119 0.000000
681.052310 136.441820 16.348001 0.000000
680.662170 136.432890 16.367802 0.000000
680.263240 136.423800 16.388557 0.000000
679.854980 136.414470 16.410326 0.000000
679.436710 136.404890 16.433153 0.000000
679.007870 136.395140 16.457085 0.000000
678.567750 136.385030 16.482195 0.000000
678.115660 136.374690 16.508532 0.000000
695.441960 140.433400 16.658070 0.000000
692.993840 139.812680 16.657166 0.000000
695.645870 136.767410 16.841488 0.000000
694.745300 136.748230 16.814596 0.000000
693.578860 136.721160 16.789192 0.000000
693.291870 136.714750 16.784538 0.000000
693.006350 136.708310 16.780561 0.000000
692.580570 136.698760 16.775921 0.000000
692.156860 136.689250 16.772598 0.000000
691.735050 136.679780 16.770903 0.000000
691.314270 136.670300 16.770500 0.000000
691.034120 136.663990 16.771097 0.000000
690.613950 136.654510 16.773273 0.000000
690.193420 136.645050 16.776743 0.000000
689.771790 136.635500 16.781839 0.000000
689.348750 136.625930 16.788248 0.000000
688.923280 136.616300 16.796318 0.000000
688.495420 136.606610 16.805738 0.000000
688.208190 136.600100 16.812931 0.000000
687.773740 136.589860 16.825176 0.000000
687.335510 136.580310 16.838745 0.000000
687.040280 136.573590 16.848806 0.000000
686.592350 136.563400 16.865410 0.000000
686.138790 136.553100 16.883562 0.000000
685.832280 136.546110 16.896734 0.000000
685.365480 136.535460 16.918159 0.000000
684.891110 136.524660 16.941303 0.000000
684.569400 136.517290 16.957932 0.000000
684.243100 136.509830 16.975485 0.000000
683.744080 136.498440 17.003752 0.000000
683.234500 136.486790 17.034042 0.000000
682.887270 136.478850 17.055645 0.000000
682.533810 136.470720 17.078365 0.000000
681.807620 136.456590 16.718119 0.000000
681.433470 136.448060 16.740265 0.000000
681.051570 136.439270 16.763510 0.000000
680.661320 136.430330 16.787891 0.000000
680.262330 136.421220 16.813465 0.000000
679.853640 136.411470 16.840347 0.000000
679.006590 136.392460 16.897957 0.000000
678.566280 136.382290 16.928938 0.000000
678.114010 136.371920 16.961445 0.000000
693.869810 136.725490 17.158415 0.000000
693.294070 136.712230 17.146379 0.000000
693.008360 136.706190 17.141462 0.000000
692.582520 136.696640 17.135735 0.000000
692.158690 136.687120 17.131546 0.000000
691.736820 136.677630 17.129263 0.000000
691.315920 136.668170 17.128490 0.000000
691.035710 136.661850 17.128986 0.000000
690.615420 136.652370 17.131233 0.000000
690.194820 136.642880 17.134993 0.000000
689.773070 136.633350 17.140652 0.000000
689.349980 136.623790 17.147842 0.000000
688.924440 136.614150 17.156977 0.000000
688.496400 136.604450 17.167688 0.000000
688.208980 136.597080 17.176033 0.000000
687.774720 136.588060 17.189848 0.000000
687.336300 136.578090 17.205469 0.000000
687.041020 136.571380 17.217026 0.000000
686.593020 136.561170 17.236124 0.000000
686.139280 136.550840 17.257034 0.000000
685.832700 136.543820 17.272223 0.000000
685.365840 136.533170 17.296946 0.000000
684.891360 136.522340 17.323677 0.000000
684.569520 136.514980 17.342894 0.000000
684.243230 136.507490 17.363194 0.000000
683.908690 136.491460 17.386070 0.000000
683.543030 136.415680 17.420464 0.000000
681.807070 136.454100 17.127293 0.000000
681.432920 136.445620 17.153595 0.000000
681.050840 136.436740 17.181238 0.000000
680.660460 136.427760 17.210232 0.000000
680.261350 136.418610 17.240648 0.000000
679.852840 136.409230 17.272568 0.000000
679.434270 136.399550 17.306065 0.000000
678.564820 136.379560 17.378086 0.000000
671.502810 157.892970 12.592936 0.000000
670.933040 157.712140 12.539736 0.000000
674.409240 157.044110 12.574943 0.000000
673.851140 156.914840 12.510237 0.000000
678.587890 156.657610 12.592600 0.000000
678.034420 156.638890 12.503101 0.000000
677.551640 156.577850 12.427104 0.000000
676.833010 156.815580 12.590269 0.000000
676.372380 156.717800 12.528477 0.000000
675.662050 156.677930 12.427160 0.000000
674.881530 156.632950 12.315187 0.000000
673.223210 156.785170 12.436183 0.000000
672.184750 156.731630 12.307384 0.000000
671.553280 156.553910 12.233088 0.000000
677.472110 156.262160 12.431005 0.000000
674.949950 156.345440 12.336894 0.000000
671.558530 156.228740 12.242923 0.000000
677.384030 155.837600 12.437176 0.000000
674.912960 156.087720 12.341230 0.000000
674.881040 155.829730 12.345635 0.000000
671.786740 155.865630 12.281371 0.000000
677.332340 155.516850 12.442669 0.000000
674.944700 155.553530 12.364138 0.000000
671.916080 155.528880 12.305855 0.000000
677.300660 155.303190 12.445905 0.000000
675.135010 155.131670 12.404869 0.000000
672.072270 155.194630 12.333001 0.000000
677.359860 154.639590 12.478813 0.000000
677.297360 154.866410 12.460992 0.000000
675.230470 154.735140 12.429371 0.000000
672.333620 154.703030 12.375601 0.000000
677.460390 154.305310 12.505231 0.000000
675.386720 154.341050 12.461271 0.000000
672.569030 154.231140 12.413156 0.000000
677.604610 153.869800 12.539822 0.000000
675.549930 153.955730 12.492725 0.000000
672.740480 153.923390 12.439074 0.000000
677.720640 153.550810 12.565392 0.000000
675.661380 153.704860 12.513133 0.000000
672.990910 153.331680 12.476699 0.000000
677.753360 153.142150 12.575746 0.000000
677.740230 152.939830 12.574837 0.000000
675.760860 153.102660 12.533834 0.000000
672.971680 153.046310 12.475759 0.000000
677.730590 152.737200 12.573916 0.000000
675.740050 152.746890 12.532213 0.000000
673.046200 152.760030 12.486303 0.000000
677.724550 152.432770 12.572754 0.000000
675.731380 152.390290 12.530851 0.000000
673.167970 152.336070 12.502101 0.000000
677.730590 152.026610 12.571576 0.000000
675.809810 151.918820 12.540567 0.000000
673.298160 151.917740 12.517697 0.000000
677.770510 151.520420 12.572309 0.000000
677.745300 151.722150 12.570903 0.000000
675.954830 151.456770 12.557900 0.000000
673.440860 151.506790 12.533340 0.000000
677.865420 151.225540 12.583198 0.000000
676.073060 151.115920 12.570827 0.000000
673.590940 151.101810 12.548710 0.000000
678.043150 150.743940 12.601821 0.000000
676.243590 150.670030 12.587847 0.000000
676.156560 150.891770 12.579363 0.000000
673.701660 150.697810 12.557426 0.000000
678.235110 150.273190 12.619606 0.000000
676.381100 150.342360 12.600491 0.000000
678.336670 149.889250 12.621861 0.000000
676.492550 149.895610 12.604301 0.000000
673.995060 149.911900 12.580343 0.000000
678.430600 149.503590 12.620296 0.000000
676.606690 149.332280 12.601780 0.000000
676.555660 149.556530 12.602455 0.000000
674.052920 149.506790 12.578171 0.000000
678.538570 149.121260 12.618811 0.000000
676.659180 149.108140 12.600705 0.000000
674.149600 149.109450 12.579556 0.000000
678.661380 148.743130 12.617556 0.000000
676.747070 148.774000 12.599278 0.000000
674.265620 148.717250 12.582272 0.000000
670.802060 148.493500 12.560817 0.000000
678.798520 148.369690 12.616467 0.000000
676.896910 148.338640 12.600503 0.000000
674.392460 148.328980 12.584896 0.000000
670.902100 148.176300 12.563756 0.000000
678.950740 148.001970 12.615746 0.000000
677.074160 147.913670 12.603685 0.000000
674.529110 147.944470 12.587633 0.000000
670.999940 147.859330 12.565823 0.000000
679.179690 147.560390 12.618679 0.000000
677.265810 147.495760 12.606820 0.000000
674.676510 147.564580 12.590309 0.000000
671.251340 147.586110 12.584366 0.000000
679.481870 147.046570 12.623043 0.000000
679.377500 147.215520 12.621517 0.000000
677.420530 147.187970 12.609495 0.000000
674.833010 147.188770 12.593029 0.000000
671.302060 147.086880 12.574677 0.000000
677.711550 146.821300 12.625230 0.000000
675.274540 146.642000 12.619717 0.000000
671.518740 146.637680 12.582289 0.000000
672.012210 146.294950 12.620058 0.000000
676.852420 160.576890 12.995138 0.000000
676.691470 160.372700 12.992551 0.000000
676.353390 160.270660 12.967319 0.000000
676.123170 160.098530 12.955523 0.000000
675.681090 159.730960 12.933385 0.000000
675.276250 159.631380 12.899717 0.000000
675.109250 159.407260 12.894576 0.000000
674.616210 159.173480 12.857388 0.000000
674.055360 158.948010 12.812082 0.000000
673.829160 158.726460 12.798862 0.000000
673.593930 158.503430 12.784244 0.000000
678.547850 158.252690 13.013425 0.000000
678.269710 158.153370 12.987351 0.000000
673.006350 158.398250 12.728987 0.000000
672.580750 158.220500 12.692269 0.000000
671.956420 158.091810 12.632972 0.000000
680.170410 157.829210 12.990759 0.000000
677.978090 158.052470 12.959316 0.000000
677.346500 157.846180 12.896312 0.000000
676.981870 157.749020 12.857914 0.000000
681.748900 157.671480 13.004156 0.000000
681.462710 157.568010 12.972103 0.000000
681.068120 157.420490 12.926675 0.000000
679.929440 157.750170 12.964735 0.000000
679.555730 157.624070 12.923596 0.000000
679.034910 157.442490 12.864915 0.000000
676.601990 157.646530 12.817430 0.000000
676.207820 157.537510 12.774998 0.000000
675.794980 157.422730 12.730009 0.000000
680.657230 157.260310 12.877856 0.000000
680.336910 157.132220 12.838735 0.000000
679.843690 156.969600 12.773619 0.000000
678.626220 157.295390 12.817825 0.000000
678.343440 157.190960 12.784667 0.000000
677.685420 156.991350 12.703113 0.000000
675.366700 157.300160 12.682906 0.000000
674.918270 157.170380 12.633043 0.000000
679.544620 156.900040 12.731041 0.000000
679.070010 156.787290 12.662458 0.000000
677.270870 156.906270 12.648520 0.000000
679.950200 146.640520 12.656096 0.000000
679.700130 146.831390 12.636720 0.000000
677.898190 146.662460 12.639401 0.000000
680.640930 146.183320 12.709443 0.000000
680.367550 146.338880 12.686844 0.000000
680.116760 146.517230 12.668563 0.000000
678.378910 146.289830 12.675748 0.000000
678.089970 146.510060 12.654102 0.000000
675.699280 146.251170 12.649225 0.000000
681.307620 145.878810 12.766998 0.000000
680.928160 146.047940 12.734606 0.000000
679.051330 145.806150 12.723427 0.000000
678.763980 146.008680 12.703558 0.000000
676.127690 145.879300 12.677779 0.000000
672.649900 145.687450 12.660229 0.000000
682.460210 145.489850 12.866316 0.000000
682.026550 145.676880 12.836081 0.000000
679.618710 145.420870 12.759884 0.000000
679.340580 145.614030 12.742964 0.000000
676.668580 145.440660 12.712356 0.000000
676.452390 145.612820 12.698817 0.000000
672.641780 145.338730 12.644846 0.000000
695.653630 145.360520 12.891351 0.000000
695.209110 145.243000 12.926411 0.000000
683.517520 145.016740 12.922580 0.000000
683.209960 145.172440 12.910809 0.000000
682.799260 145.347530 12.887961 0.000000
680.065920 145.102550 12.783405 0.000000
679.796200 145.290210 12.769261 0.000000
677.204350 145.025880 12.744077 0.000000
676.881470 145.270690 12.725084 0.000000
672.876650 145.096210 12.657233 0.000000
694.819460 145.077900 12.945423 0.000000
694.435120 144.918730 12.961779 0.000000
694.127690 144.801280 12.973976 0.000000
684.376770 144.650920 12.953949 0.000000
684.065060 144.777940 12.943520 0.000000
683.754090 144.914000 12.932425 0.000000
681.193050 144.601590 12.859232 0.000000
680.850280 144.692570 12.831528 0.000000
680.433170 144.868210 12.802804 0.000000
677.667300 144.734800 12.773474 0.000000
673.281490 144.591380 12.672998 0.000000
672.977050 144.793210 12.653232 0.000000
693.897520 144.717710 12.982516 0.000000
693.667480 144.639190 12.990586 0.000000
693.437380 144.564670 12.998291 0.000000
685.548950 144.250500 12.986928 0.000000
685.236020 144.346480 12.979038 0.000000
684.845030 144.476520 12.968266 0.000000
684.610780 144.561050 12.961328 0.000000
682.720460 144.278090 12.976100 0.000000
682.550290 144.365130 12.970388 0.000000
682.013310 144.468340 12.929691 0.000000
681.665590 144.518830 12.899986 0.000000
681.432740 144.560300 12.880240 0.000000
678.433230 144.236040 12.815636 0.000000
678.116880 144.452680 12.799831 0.000000
673.795100 144.156850 12.700140 0.000000
686.492980 144.027160 13.008802 0.000000
685.940490 144.143390 12.995802 0.000000
685.705510 144.206010 12.990607 0.000000
683.692810 143.893300 13.013292 0.000000
683.241520 144.045590 12.994493 0.000000
682.890750 144.193360 12.981598 0.000000
679.078060 143.837940 12.847429 0.000000
678.862180 143.966170 12.836920 0.000000
678.646610 144.098360 12.826218 0.000000
674.359860 143.772340 12.732288 0.000000
674.172730 144.015950 12.728077 0.000000
683.953430 143.794970 13.021372 0.000000
679.957280 143.377810 12.890129 0.000000
679.626340 143.542280 12.874228 0.000000
679.295170 143.714570 12.857926 0.000000
675.024540 143.475980 12.776119 0.000000
674.632750 143.583240 12.746783 0.000000
681.738890 143.034270 13.009541 0.000000
681.349370 143.069980 12.981625 0.000000
680.839780 143.155230 12.947278 0.000000
680.436890 143.214080 12.917976 0.000000
680.201420 143.297650 12.904862 0.000000
675.699280 143.043910 12.810040 0.000000
675.249690 143.268950 12.784122 0.000000
676.780400 142.602230 12.873927 0.000000
676.461850 142.711350 12.854445 0.000000
676.144410 142.829360 12.835097 0.000000
678.016420 142.213670 12.946676 0.000000
677.717710 142.308090 12.929911 0.000000
677.252620 142.450180 12.902392 0.000000
679.111510 141.806610 12.998758 0.000000
678.847230 141.909010 12.987261 0.000000
678.434940 142.058110 12.967468 0.000000
679.646240 141.625550 13.022591 0.000000
679.379390 141.713710 13.010772 0.000000
673.071840 140.537510 12.872298 0.000000
673.695190 140.351910 12.904561 0.000000
675.395940 139.793910 12.983309 0.000000
675.037900 139.918850 12.968054 0.000000
674.699650 140.069290 12.954988 0.000000
676.511410 139.513790 13.034171 0.000000
676.138180 139.595900 13.016953 0.000000
675.768130 139.691130 13.000226 0.000000
678.774480 161.029110 13.133860 0.000000
691.331050 160.747270 13.304965 0.000000
691.043580 160.788240 13.309168 0.000000
690.539980 160.838760 13.316068 0.000000
690.252750 160.857710 13.319235 0.000000
689.822570 160.876790 13.322720 0.000000
689.392940 160.883830 13.324595 0.000000
689.036190 160.851530 13.329524 0.000000
688.687930 160.739180 13.344361 0.000000
680.358400 160.577470 13.296097 0.000000
678.548340 160.905640 13.123219 0.000000
678.354130 160.754230 13.116727 0.000000
677.953370 160.745990 13.082517 0.000000
677.571230 160.711460 13.051161 0.000000
677.190670 160.663510 13.020316 0.000000
674.700990 160.563640 13.163357 0.000000
692.219850 160.440830 13.308449 0.000000
691.814090 160.593220 13.307007 0.000000
691.538450 160.681670 13.306425 0.000000
690.802370 160.673550 13.334314 0.000000
690.191650 160.304730 13.233813 0.000000
689.790710 160.325070 13.236958 0.000000
689.390140 160.326250 13.239799 0.000000
689.124450 160.282530 13.247685 0.000000
688.355960 160.554900 13.368302 0.000000
692.629460 160.119780 13.330074 0.000000
692.177730 159.934590 13.210008 0.000000
691.914120 160.003590 13.215033 0.000000
691.459350 160.136110 13.217578 0.000000
690.995610 160.228820 13.222530 0.000000
690.593380 160.273680 13.228830 0.000000
688.927730 160.236710 13.254693 0.000000
688.604250 160.155850 13.265181 0.000000
688.299620 159.974300 13.291429 0.000000
693.419560 159.646040 13.338853 0.000000
693.048650 159.847890 13.339626 0.000000
692.564880 159.639950 13.230639 0.000000
692.354130 159.828900 13.215327 0.000000
688.131230 159.812970 13.315529 0.000000
687.853450 159.610150 13.341957 0.000000
683.346620 159.659480 13.389610 0.000000
683.028560 159.650340 13.363426 0.000000
682.592770 159.627110 13.327314 0.000000
682.257690 159.600250 13.299437 0.000000
681.859250 159.493620 13.271723 0.000000
693.878910 159.321610 13.342777 0.000000
693.474120 159.329220 13.291839 0.000000
693.053100 159.280590 13.247343 0.000000
692.769590 159.451710 13.244658 0.000000
687.430240 159.294300 13.378984 0.000000
684.887700 159.125210 13.392528 0.000000
684.674740 159.068190 13.381140 0.000000
684.449160 159.021450 13.366594 0.000000
681.390260 159.309980 13.242336 0.000000
681.014830 159.143430 13.218561 0.000000
680.729550 159.010770 13.199928 0.000000
694.225460 158.968190 13.355030 0.000000
693.530640 158.927660 13.255707 0.000000
686.599610 158.946840 13.388914 0.000000
686.232240 158.879850 13.372859 0.000000
685.858340 158.801970 13.354674 0.000000
685.469180 158.724980 13.331629 0.000000
685.134090 158.656810 13.309460 0.000000
684.213070 158.978300 13.349697 0.000000
683.891170 158.915160 13.325889 0.000000
683.475340 158.825780 13.293737 0.000000
683.043880 158.726260 13.258762 0.000000
682.682980 158.639720 13.227912 0.000000
680.534730 158.919860 13.186661 0.000000
680.222170 158.787950 13.163386 0.000000
679.863710 158.674970 13.132899 0.000000
679.616030 158.596190 13.111278 0.000000
695.017090 158.488850 13.329711 0.000000
694.578610 158.531540 13.285509 0.000000
694.287230 158.503230 13.234142 0.000000
693.918400 158.678280 13.251379 0.000000
684.928890 158.611950 13.295157 0.000000
684.649170 158.546830 13.274605 0.000000
684.289250 158.460490 13.246464 0.000000
683.917660 158.363200 13.215701 0.000000
683.534550 158.255920 13.182376 0.000000
682.310610 158.543460 13.195107 0.000000
681.930730 158.433200 13.161113 0.000000
681.543700 158.308070 13.125915 0.000000
681.245060 158.207320 13.098003 0.000000
679.355650 158.517940 13.087759 0.000000
679.089170 158.435700 13.063366 0.000000
678.819340 158.347610 13.038511 0.000000
695.362550 158.135650 13.239571 0.000000
695.043700 158.122620 13.190364 0.000000
694.724370 158.286350 13.210356 0.000000
683.296940 158.187300 13.160660 0.000000
683.054260 158.113130 13.137854 0.000000
682.722170 158.007480 13.105617 0.000000
682.292420 157.861630 13.062192 0.000000
681.040890 158.136380 13.078495 0.000000
680.726810 158.024060 13.047792 0.000000
680.403930 157.905650 13.015511 0.000000
695.500000 157.879390 13.158628 0.000000
681.935120 157.736660 13.024574 0.000000
695.679570 144.500410 13.003828 0.000000
695.337770 144.356640 13.018629 0.000000
693.207520 144.494840 13.005495 0.000000
692.826720 144.382600 13.015548 0.000000
686.278750 144.363590 13.151820 0.000000
695.167420 144.288420 13.025628 0.000000
694.912170 144.190660 13.035715 0.000000
694.488590 144.037520 13.051254 0.000000
692.448670 144.273350 13.023072 0.000000
692.069640 144.175750 13.029362 0.000000
691.613530 144.072690 13.035488 0.000000
691.232360 143.998350 13.039404 0.000000
690.849980 143.935500 13.042153 0.000000
687.674740 143.872480 13.032530 0.000000
687.282170 143.912490 13.025681 0.000000
686.888310 143.963410 13.017817 0.000000
694.065310 143.898250 13.065831 0.000000
693.643860 143.771790 13.078875 0.000000
693.223570 143.656970 13.090733 0.000000
692.889160 143.571320 13.098819 0.000000
690.466550 143.882950 13.043932 0.000000
690.081300 143.847270 13.045506 0.000000
689.695370 143.822800 13.046269 0.000000
689.308530 143.810150 13.045935 0.000000
688.843440 143.809450 13.044250 0.000000
688.455080 143.820720 13.041731 0.000000
688.065730 143.843570 13.038025 0.000000
684.907960 143.480220 13.047340 0.000000
684.474180 143.615220 13.036146 0.000000
684.127080 143.732540 13.026510 0.000000
695.648990 143.422640 13.123158 0.000000
695.272640 143.286990 13.136348 0.000000
694.991760 143.190280 13.145576 0.000000
692.475770 143.463380 13.105865 0.000000
692.061890 143.366120 13.111816 0.000000
691.647160 143.280880 13.116532 0.000000
691.231630 143.205930 13.120155 0.000000
690.898500 143.154240 13.122200 0.000000
690.564640 143.109730 13.123534 0.000000
687.260440 143.073040 13.102008 0.000000
686.829100 143.118940 13.094294 0.000000
686.482480 143.164900 13.087267 0.000000
686.134400 143.218930 13.079495 0.000000
685.609310 143.314540 13.066272 0.000000
685.258000 143.390210 13.056718 0.000000
682.136960 143.030640 13.040183 0.000000
694.804990 143.128860 13.151442 0.000000
694.526000 143.040300 13.159692 0.000000
694.062870 142.902590 13.172268 0.000000
693.601500 142.776580 13.183570 0.000000
690.313720 143.080730 13.124082 0.000000
690.062260 143.056150 13.124176 0.000000
689.726260 143.029170 13.123686 0.000000
689.304750 143.005810 13.122022 0.000000
688.881650 142.993130 13.119340 0.000000
688.457280 142.999420 13.116512 0.000000
688.031860 143.018680 13.112986 0.000000
687.689880 143.038380 13.108645 0.000000
683.635010 142.690750 13.108385 0.000000
683.225890 142.793460 13.093177 0.000000
682.806880 142.897190 13.075539 0.000000
693.233950 142.684110 13.191509 0.000000
692.873110 142.581970 13.196214 0.000000
692.515990 142.473300 13.198226 0.000000
692.156430 142.374100 13.199806 0.000000
685.198120 142.285130 13.147116 0.000000
684.811710 142.377230 13.139297 0.000000
684.424440 142.478990 13.130777 0.000000
684.031620 142.581800 13.120257 0.000000
691.885440 142.305300 13.200673 0.000000
691.613040 142.242250 13.201243 0.000000
691.247990 142.166210 13.201653 0.000000
690.880860 142.099490 13.201596 0.000000
690.511780 142.041960 13.201050 0.000000
690.140750 141.994130 13.200075 0.000000
689.768010 141.955430 13.198587 0.000000
689.299500 141.921100 13.196063 0.000000
688.828740 141.900860 13.192863 0.000000
688.450260 141.895680 13.189708 0.000000
688.070500 141.901000 13.186169 0.000000
687.690730 141.923980 13.183174 0.000000
687.310490 141.957990 13.179848 0.000000
686.929020 141.998690 13.175595 0.000000
686.545780 142.044620 13.170201 0.000000
686.161680 142.100660 13.164292 0.000000
685.776730 142.166670 13.157823 0.000000
695.376530 141.911040 13.248348 0.000000
694.980220 141.740050 13.253447 0.000000
694.681210 141.618420 13.256967 0.000000
