# .PCD v0.7 - Point Cloud Data file format
VERSION 0.7
FIELDS x y z intensity
SIZE 4 4 4 4
TYPE F F F F
COUNT 1 1 1 1
WIDTH 1166
HEIGHT 1
VIEWPOINT 0 0 0 1 0 0 0
POINTS 1166
DATA ascii
698.935060 252.450130 17.137169 0.000000
698.310790 252.448410 17.120213 0.000000
697.113950 252.445010 17.087702 0.000000
696.546750 252.433270 17.071693 0.000000
700.071590 260.345980 17.637589 0.000000
697.704100 252.446700 17.103735 0.000000
710.845340 260.429990 18.646955 0.000000
710.514040 259.956630 18.607441 0.000000
699.979740 260.369810 18.141973 0.000000
699.629640 260.125120 18.114769 0.000000
698.891850 252.445830 17.740362 0.000000
698.269170 252.444150 17.714737 0.000000
697.663880 252.442500 17.690010 0.000000
697.075130 252.440840 17.666130 0.000000
700.018190 260.303830 18.647783 0.000000
699.585450 260.117370 18.614187 0.000000
699.579590 259.624080 18.597162 0.000000
698.227540 252.439930 18.308069 0.000000
697.623780 252.438320 18.275135 0.000000
697.036440 252.436740 18.243448 0.000000
700.310910 260.554630 19.185242 0.000000
713.375790 259.938840 19.510639 0.000000
711.583310 260.055910 19.395008 0.000000
710.345830 259.982880 19.309090 0.000000
699.605530 260.307710 19.122431 0.000000
699.568970 259.591640 19.104311 0.000000
698.848750 252.441530 18.342319 0.000000
720.490360 260.117920 20.002432 0.000000
699.531190 260.562960 19.619057 0.000000
700.190610 257.499210 19.113375 0.000000
698.813660 252.427840 18.944092 0.000000
698.186040 252.435680 18.900785 0.000000
697.583740 252.434160 18.859678 0.000000
696.997680 252.432600 18.820210 0.000000
710.778630 260.973360 20.089451 0.000000
700.310610 260.515260 19.696186 0.000000
711.734440 259.937320 20.137999 0.000000
710.141780 260.026060 20.002346 0.000000
710.933720 259.022670 20.039021 0.000000
699.511660 259.593930 19.608805 0.000000
701.509640 258.650700 19.796743 0.000000
701.137150 257.823090 19.754374 0.000000
700.641910 257.078580 19.703394 0.000000
708.288450 256.575840 19.745979 0.000000
708.070370 256.050690 19.714991 0.000000
697.543640 252.429960 19.444195 0.000000
700.501950 260.835240 20.232491 0.000000
699.336060 260.660030 20.094620 0.000000
709.908810 260.083190 20.685911 0.000000
700.525940 260.330930 20.235468 0.000000
696.758850 260.237340 20.258114 0.000000
700.520020 259.322420 20.237431 0.000000
699.481570 259.575930 20.116081 0.000000
699.425960 259.108550 20.112751 0.000000
707.025820 258.536590 20.352312 0.000000
706.760740 258.085330 20.317976 0.000000
698.762630 252.432920 19.544859 0.000000
710.746400 260.936770 20.796822 0.000000
700.523990 260.781370 20.751757 0.000000
699.179930 260.730440 20.568481 0.000000
711.848020 259.834530 20.887669 0.000000
710.885990 258.992920 20.765465 0.000000
700.565920 259.246950 20.779325 0.000000
699.266110 259.191590 20.607685 0.000000
712.346010 256.912930 20.877060 0.000000
697.503540 252.425780 20.029217 0.000000
695.798280 252.421680 19.871086 0.000000
709.694210 260.132320 21.363972 0.000000
699.025510 260.800020 21.037718 0.000000
699.139280 259.249240 21.103146 0.000000
699.514650 257.372500 20.682465 0.000000
695.761470 252.418440 20.435015 0.000000
700.820860 261.035030 21.312380 0.000000
712.193420 260.274750 21.685303 0.000000
700.730040 260.607360 21.307560 0.000000
712.147090 259.648860 21.668968 0.000000
711.019290 258.875060 21.515060 0.000000
700.668820 259.129550 21.337524 0.000000
709.904480 256.776760 22.098827 0.000000
708.452270 256.311740 21.898142 0.000000
698.633060 252.419950 21.353762 0.000000
698.019590 252.418690 21.276741 0.000000
713.046200 259.859770 22.561600 0.000000
709.662350 256.243560 22.068083 0.000000
710.687010 256.952330 22.967556 0.000000
710.116520 255.913770 22.892677 0.000000
709.799870 253.983920 22.885599 0.000000
714.728760 258.387240 23.625626 0.000000
703.396120 252.765960 15.268925 0.000000
702.822510 252.545460 15.258791 0.000000
702.223020 252.362460 15.252382 0.000000
703.110230 250.746260 15.068492 0.000000
702.570680 250.481780 15.051239 0.000000
702.106750 250.147990 15.024712 0.000000
702.135440 249.285260 14.933289 0.000000
703.720030 260.619290 16.007992 0.000000
703.356630 260.279140 15.988537 0.000000
704.172670 259.256840 15.872509 0.000000
705.150150 258.086700 15.737833 0.000000
704.727290 257.741030 15.717900 0.000000
703.346920 256.825350 15.668937 0.000000
720.384640 255.115190 15.989422 0.000000
703.980830 255.735410 15.548201 0.000000
703.255800 255.628300 15.555879 0.000000
702.509090 255.560940 15.567367 0.000000
719.869870 254.499190 15.948983 0.000000
719.268130 253.934080 15.912860 0.000000
703.259400 254.294950 15.424858 0.000000
702.540770 254.209260 15.432686 0.000000
718.710880 253.357240 15.874731 0.000000
716.977290 253.424070 15.899081 0.000000
716.486820 252.854190 15.859608 0.000000
715.949400 252.317750 15.822699 0.000000
698.529850 252.460110 15.329526 0.000000
697.881160 252.458150 15.339399 0.000000
715.533020 251.715360 15.778767 0.000000
714.080810 251.770550 15.797037 0.000000
712.734380 250.121400 15.673962 0.000000
711.405330 250.223790 15.692851 0.000000
710.956910 249.704130 15.652710 0.000000
709.313230 249.281560 15.627958 0.000000
710.507510 249.186920 15.612257 0.000000
708.886660 248.769320 15.586746 0.000000
708.004390 247.769620 15.505081 0.000000
707.575560 247.257660 15.462372 0.000000
707.347410 246.547590 15.401000 0.000000
706.904110 246.038570 15.357578 0.000000
706.663450 245.314650 15.293994 0.000000
706.212040 244.800890 15.249138 0.000000
710.844240 260.081700 16.480202 0.000000
699.792180 260.361910 16.097569 0.000000
699.612980 259.978180 16.066313 0.000000
698.485230 252.455720 15.949848 0.000000
697.838200 252.453810 15.950409 0.000000
699.771970 260.335660 16.621998 0.000000
699.643070 259.917690 16.588955 0.000000
710.823730 260.039460 17.218683 0.000000
699.751340 260.309880 17.145147 0.000000
699.673160 259.856990 17.112947 0.000000
698.440860 252.451340 16.567179 0.000000
697.795410 252.449520 16.558498 0.000000
699.708310 260.298890 17.667696 0.000000
699.899410 259.661470 17.636484 0.000000
698.396610 252.446980 17.182112 0.000000
697.752810 252.445220 17.164251 0.000000
710.850830 260.565980 18.727194 0.000000
710.687440 259.996800 18.691685 0.000000
700.249510 260.409030 18.221064 0.000000
699.637390 260.306550 18.188314 0.000000
699.624570 259.810240 18.165394 0.000000
699.014770 252.444430 17.823269 0.000000
698.352600 252.442660 17.795256 0.000000
697.710330 252.440930 17.768272 0.000000
716.999690 260.971980 19.042934 0.000000
700.126770 260.448000 18.746929 0.000000
699.576480 260.307740 18.706890 0.000000
699.648380 259.753630 18.693321 0.000000
710.873900 260.505800 19.464033 0.000000
700.186520 260.369930 19.280754 0.000000
699.394470 260.389890 19.215746 0.000000
699.638980 259.719850 19.222046 0.000000
710.984380 259.161530 19.418034 0.000000
698.969120 252.440030 18.444761 0.000000
698.308590 252.438310 18.407198 0.000000
697.667910 252.436680 18.371134 0.000000
720.591860 258.902190 20.062576 0.000000
719.084290 258.663240 19.948898 0.000000
700.551510 258.544160 19.273272 0.000000
700.243960 257.653900 19.232393 0.000000
698.923520 252.435610 19.065601 0.000000
698.264710 252.433990 19.018528 0.000000
700.405030 260.692870 19.840483 0.000000
711.803220 260.065280 20.272135 0.000000
699.251590 260.446410 19.720959 0.000000
699.616760 259.694730 19.751366 0.000000
710.945250 259.127040 20.167662 0.000000
699.455260 259.291690 19.732525 0.000000
700.841190 257.146060 19.857365 0.000000
696.362300 252.425340 19.474176 0.000000
706.672180 260.477330 20.493317 0.000000
700.462890 260.617160 20.383682 0.000000
699.246520 260.410800 20.238014 0.000000
699.335880 259.336850 20.253830 0.000000
699.252440 260.855500 20.752571 0.000000
711.844120 259.995670 21.039968 0.000000
696.422730 260.026890 20.386833 0.000000
712.783080 258.917360 21.116901 0.000000
711.079280 259.012330 20.935486 0.000000
699.229250 259.372990 20.773899 0.000000
698.832890 252.426070 20.307762 0.000000
696.322750 252.421170 20.060291 0.000000
700.645570 260.963290 20.946295 0.000000
699.086850 260.924350 21.242527 0.000000
700.673830 259.409850 20.969925 0.000000
696.882200 252.418300 20.713556 0.000000
696.280640 252.420240 20.647160 0.000000
712.244200 260.436550 21.868380 0.000000
700.637700 260.928070 21.488920 0.000000
711.765010 259.976290 21.798969 0.000000
700.732670 259.327610 21.543139 0.000000
699.194210 259.357180 21.304609 0.000000
709.425900 260.300960 22.223949 0.000000
703.128230 260.515350 21.899426 0.000000
702.520630 259.248020 21.826767 0.000000
714.114930 257.549320 22.067722 0.000000
710.408390 257.217100 22.366913 0.000000
709.677550 256.242800 22.267643 0.000000
710.259950 255.849550 23.139267 0.000000
719.392640 259.019070 24.655731 0.000000
703.735600 255.022800 15.473650 0.000000
702.998900 254.897510 15.480455 0.000000
703.238160 253.314540 15.324423 0.000000
702.487850 253.219570 15.332548 0.000000
703.585510 251.526290 15.143620 0.000000
702.993040 251.277770 15.132010 0.000000
702.402770 251.040150 15.120766 0.000000
703.559750 249.112030 14.905467 0.000000
703.020140 248.788760 14.883309 0.000000
719.316470 260.767760 16.396317 0.000000
700.135380 260.399960 16.059658 0.000000
703.395200 260.148280 15.941382 0.000000
699.637150 260.192630 16.055386 0.000000
703.056090 259.773500 15.919428 0.000000
699.833800 259.542180 15.991524 0.000000
704.005740 258.650570 15.793840 0.000000
702.316530 257.311190 15.721699 0.000000
702.952510 256.245570 15.607140 0.000000
720.003420 254.744660 15.967294 0.000000
702.229610 254.820500 15.491994 0.000000
719.511350 254.099430 15.926603 0.000000
718.932190 253.503940 15.889988 0.000000
718.399230 252.894360 15.851190 0.000000
716.643980 252.952410 15.875367 0.000000
716.175540 252.349230 15.835138 0.000000
698.668580 252.458150 15.334876 0.000000
696.027100 252.450730 15.377051 0.000000
715.653690 251.781830 15.797611 0.000000
713.336610 250.612810 15.730084 0.000000
712.903990 250.027860 15.688064 0.000000
712.440860 249.465760 15.647552 0.000000
711.070500 249.573500 15.667217 0.000000
710.633850 249.019780 15.626066 0.000000
710.196780 248.466780 15.584438 0.000000
708.548340 248.017880 15.558333 0.000000
708.056820 247.534530 15.521158 0.000000
707.829770 246.812260 15.462181 0.000000
707.394040 246.271770 15.418900 0.000000
707.169070 245.522400 15.356581 0.000000
706.717470 244.984410 15.312511 0.000000
710.962400 260.183560 16.471504 0.000000
710.911930 259.539060 16.426355 0.000000
698.622740 252.453540 15.976068 0.000000
700.113830 260.374020 16.613386 0.000000
699.660640 260.138820 16.599669 0.000000
695.987430 252.446350 15.979921 0.000000
710.917790 260.152040 17.237331 0.000000
700.092290 260.348140 17.165733 0.000000
699.684940 260.084440 17.144871 0.000000
698.577090 252.448910 16.614237 0.000000
695.948000 252.442020 16.580051 0.000000
710.805360 260.148740 18.000969 0.000000
700.026060 260.349790 17.717480 0.000000
699.685360 260.045070 17.691732 0.000000
710.960630 259.416470 17.965687 0.000000
698.531560 252.444310 17.249998 0.000000
695.908630 252.437670 17.178019 0.000000
711.308780 259.889400 18.777855 0.000000
699.920350 260.375820 18.265831 0.000000
699.621640 260.046720 18.238192 0.000000
710.992800 259.351590 18.738440 0.000000
698.486210 252.439740 17.883982 0.000000
695.869450 252.433330 17.774414 0.000000
700.056340 260.253110 18.821032 0.000000
699.624080 260.006100 18.785599 0.000000
699.548460 259.531250 18.766453 0.000000
695.830320 252.429050 18.369806 0.000000
710.754580 260.725950 19.549723 0.000000
710.109620 259.687900 19.467403 0.000000
698.440860 252.435120 18.516790 0.000000
720.529660 260.147340 20.197292 0.000000
700.311400 260.576050 19.403978 0.000000
699.527100 260.541260 19.337746 0.000000
700.355410 259.496730 19.386450 0.000000
699.524600 259.507320 19.318232 0.000000
700.558040 258.255040 19.381079 0.000000
700.330810 257.842590 19.355944 0.000000
700.347170 257.246060 19.348087 0.000000
695.791200 252.424710 18.964766 0.000000
700.386960 260.491910 19.968742 0.000000
699.372440 260.598820 19.865810 0.000000
709.879330 259.739440 20.205814 0.000000
700.468020 259.383420 19.967976 0.000000
699.443050 259.521910 19.865570 0.000000
700.533080 260.880980 20.548481 0.000000
699.194640 260.671110 20.385838 0.000000
697.415340 260.359860 20.175453 0.000000
699.400330 259.510500 20.416275 0.000000
717.922360 258.607540 20.882193 0.000000
702.067500 257.162810 20.116083 0.000000
701.102780 256.636350 20.019358 0.000000
701.309570 255.853910 20.038507 0.000000
697.011780 252.423070 19.665735 0.000000
712.049740 260.108460 21.202843 0.000000
699.037540 260.730900 20.903053 0.000000
709.649110 259.791500 20.936335 0.000000
700.503910 259.319060 20.548962 0.000000
697.626950 252.419970 20.345154 0.000000
696.969670 252.418610 20.279146 0.000000
700.587520 260.810420 21.120375 0.000000
700.684020 259.160770 21.157005 0.000000
699.217830 259.062590 20.957737 0.000000
711.330570 256.947170 21.067831 0.000000
713.171690 256.768310 21.260366 0.000000
711.889530 260.121280 21.980953 0.000000
700.805660 260.644740 21.727598 0.000000
709.323610 259.886290 21.647837 0.000000
702.499390 259.145170 21.410805 0.000000
709.481810 257.830200 21.652372 0.000000
702.970520 260.508330 22.082659 0.000000
700.752440 259.074160 21.759142 0.000000
700.070560 257.856750 21.692734 0.000000
698.784850 256.514430 21.554117 0.000000
710.220830 256.699680 22.536699 0.000000
709.786500 256.224980 22.478060 0.000000
712.908750 260.982940 23.759747 0.000000
720.379460 259.952450 24.067902 0.000000
720.207820 255.012480 15.996941 0.000000
702.725280 255.550400 15.543121 0.000000
719.681760 254.355560 15.958722 0.000000
719.221370 253.675450 15.917466 0.000000
703.754330 254.119630 15.388950 0.000000
702.873050 254.069750 15.406633 0.000000
702.148380 253.926120 15.411292 0.000000
718.667420 253.046550 15.880286 0.000000
718.161990 252.401030 15.840750 0.000000
703.520870 252.088380 15.209788 0.000000
702.739750 251.974320 15.217193 0.000000
704.158020 249.953250 14.996267 0.000000
703.526490 249.683010 14.984318 0.000000
702.974060 249.351870 14.964197 0.000000
719.506770 260.349700 16.358088 0.000000
702.088010 260.762450 16.004219 0.000000
699.863770 260.369690 16.038929 0.000000
699.613650 259.987400 16.013926 0.000000
703.187930 259.616910 15.877268 0.000000
702.879270 259.201290 15.852331 0.000000
702.899780 257.370820 15.697287 0.000000
702.509700 256.993960 15.675591 0.000000
701.760190 256.867250 15.684884 0.000000
716.377560 252.452150 15.864597 0.000000
696.754090 252.453980 15.383430 0.000000
696.083250 252.452030 15.394423 0.000000
715.934270 251.812300 15.823552 0.000000
713.525820 250.591670 15.758955 0.000000
713.114070 249.966420 15.716323 0.000000
712.675050 249.359710 15.674756 0.000000
712.229490 248.758440 15.633083 0.000000
710.814760 248.871320 15.653153 0.000000
710.392640 248.279220 15.610862 0.000000
709.970830 247.685790 15.567909 0.000000
708.699100 247.787700 15.584399 0.000000
708.415100 247.098110 15.531913 0.000000
707.917720 246.585690 15.494145 0.000000
707.695500 245.823940 15.434492 0.000000
707.253300 245.253130 15.390681 0.000000
711.217410 260.283810 16.469458 0.000000
710.664920 259.823910 16.446009 0.000000
696.711850 252.449390 16.015053 0.000000
696.042540 252.447510 16.016228 0.000000
699.845890 260.342130 16.611568 0.000000
699.647830 259.928130 16.583338 0.000000
711.163640 260.256230 17.265413 0.000000
699.826600 260.315430 17.183041 0.000000
710.812990 259.714020 17.231113 0.000000
699.682130 259.868740 17.154202 0.000000
696.669800 252.444810 16.643858 0.000000
696.002010 252.443020 16.635281 0.000000
699.751950 260.321380 17.753912 0.000000
696.627930 252.440250 17.270447 0.000000
699.702330 259.817720 17.727110 0.000000
695.961670 252.438370 17.252176 0.000000
710.870480 260.274870 18.845568 0.000000
699.643980 260.347260 18.321041 0.000000
710.336670 259.814300 18.800682 0.000000
699.620670 259.829350 18.299629 0.000000
696.586120 252.435700 17.895441 0.000000
695.921260 252.434020 17.867533 0.000000
717.356020 260.860750 19.181561 0.000000
700.230650 260.497530 18.932833 0.000000
699.532650 260.375400 18.883860 0.000000
699.664550 259.763700 18.875277 0.000000
710.125790 259.853940 19.572317 0.000000
708.967410 258.344180 19.444998 0.000000
696.544430 252.431140 18.519434 0.000000
695.881040 252.429530 18.481924 0.000000
711.609620 259.932800 19.675678 0.000000
700.256900 260.444340 19.513897 0.000000
699.331420 260.457240 19.436272 0.000000
699.660400 259.727540 19.451563 0.000000
720.613950 258.930690 20.256002 0.000000
719.274900 258.561770 20.150688 0.000000
699.535400 259.262020 19.433878 0.000000
719.999820 257.456670 20.160961 0.000000
700.555850 258.026000 19.499626 0.000000
700.407350 257.534850 19.480717 0.000000
700.485720 256.873900 19.478561 0.000000
697.891720 252.429730 19.243601 0.000000
696.502750 252.426610 19.143028 0.000000
695.840880 252.425080 19.095945 0.000000
700.486630 260.806950 20.123247 0.000000
699.171140 260.515140 19.984882 0.000000
709.868350 259.913570 20.332855 0.000000
699.387270 259.317930 20.001268 0.000000
719.305240 255.153080 20.035196 0.000000
699.132930 260.500460 20.543434 0.000000
696.409550 260.233730 20.219442 0.000000
702.038210 258.214540 20.266001 0.000000
697.846860 252.425050 19.888010 0.000000
695.800600 252.420590 19.710184 0.000000
700.522160 260.749110 20.713081 0.000000
709.681030 259.944270 21.091473 0.000000
699.259520 259.360990 20.566477 0.000000
695.760440 252.416000 20.325214 0.000000
714.094060 261.032010 21.596113 0.000000
713.708370 260.449220 21.540802 0.000000
700.846920 261.063080 21.345673 0.000000
699.202880 260.935640 21.111877 0.000000
712.109680 260.333770 21.363062 0.000000
700.739440 260.590390 21.335629 0.000000
712.005490 259.674930 21.339102 0.000000
699.211430 259.352630 21.140665 0.000000
710.810060 258.775540 21.194386 0.000000
713.154480 256.987340 21.419525 0.000000
711.468260 256.294430 21.231249 0.000000
697.801880 252.420360 20.533155 0.000000
699.013980 261.007450 21.644564 0.000000
709.326050 260.046050 21.824106 0.000000
709.188540 257.395480 21.793423 0.000000
698.481690 252.417040 21.266823 0.000000
712.255070 259.523990 22.197241 0.000000
700.881960 259.373290 21.988258 0.000000
700.608580 258.977570 21.956129 0.000000
699.072270 258.856540 21.718513 0.000000
700.168580 257.528990 21.935724 0.000000
699.071410 257.135860 21.783577 0.000000
709.734560 256.400600 21.860998 0.000000
699.031190 256.563660 21.801680 0.000000
699.097530 255.890870 21.841354 0.000000
702.977540 260.460910 22.304352 0.000000
713.481810 259.707950 23.220551 0.000000
710.899720 257.926120 22.835125 0.000000
710.603210 257.298070 23.623480 0.000000
716.236080 259.372250 24.563406 0.000000
714.329280 258.581760 24.238459 0.000000
703.848390 249.141220 14.940575 0.000000
719.882260 259.862270 16.309956 0.000000
703.090270 259.016850 15.804219 0.000000
702.719360 257.359100 15.682133 0.000000
701.784420 257.305080 15.704380 0.000000
702.175840 256.411130 15.619045 0.000000
701.469360 256.231870 15.623240 0.000000
719.901370 254.623950 15.980827 0.000000
702.646480 254.739140 15.464779 0.000000
719.409550 253.931550 15.941963 0.000000
718.982240 253.214780 15.900046 0.000000
704.040340 253.008290 15.279567 0.000000
718.454530 252.550810 15.862237 0.000000
703.115170 252.950010 15.297916 0.000000
702.371770 252.779310 15.301210 0.000000
717.977840 251.867370 15.821878 0.000000
704.124940 250.586520 15.064551 0.000000
703.305360 250.449970 15.071301 0.000000
710.783570 259.986910 16.446068 0.000000
701.838620 260.267210 15.940681 0.000000
699.644230 260.336550 16.013216 0.000000
699.577330 259.827850 15.974362 0.000000
716.157530 251.914290 15.845972 0.000000
697.676150 252.453460 15.375425 0.000000
696.934270 252.451400 15.389561 0.000000
696.217470 252.449310 15.402624 0.000000
713.332340 249.939480 15.738271 0.000000
714.912840 249.878280 15.718204 0.000000
712.923340 249.285890 15.695587 0.000000
712.496460 248.643810 15.653309 0.000000
712.069520 248.001210 15.610401 0.000000
710.605590 248.121290 15.631274 0.000000
710.199040 247.488590 15.587760 0.000000
709.793580 246.852290 15.543398 0.000000
708.493590 246.946470 15.559385 0.000000
708.303650 246.145490 15.500052 0.000000
707.797060 245.606050 15.461944 0.000000
699.761960 259.681790 16.561232 0.000000
697.631160 252.448470 16.040531 0.000000
696.890930 252.446470 16.043190 0.000000
696.175720 252.444490 16.045366 0.000000
710.760680 259.948520 17.260929 0.000000
699.659180 260.290920 16.604565 0.000000
699.681460 260.241150 17.196159 0.000000
697.586360 252.443480 16.702719 0.000000
696.847840 252.441560 16.693981 0.000000
696.134090 252.439700 16.685341 0.000000
699.669370 260.210720 17.789091 0.000000
697.541690 252.438510 17.362625 0.000000
696.804810 252.436690 17.342558 0.000000
696.092650 252.434910 17.323162 0.000000
700.191890 260.429290 18.416115 0.000000
699.594300 260.216130 18.380632 0.000000
699.598140 259.664180 18.360661 0.000000
697.497130 252.433530 18.020901 0.000000
696.761960 252.431810 17.989559 0.000000
696.051330 252.430110 17.959459 0.000000
717.617800 260.412230 19.240166 0.000000
710.820500 260.527830 18.919979 0.000000
710.483220 259.963620 18.881603 0.000000
699.507690 260.228210 18.969196 0.000000
699.594300 259.628540 18.959490 0.000000
700.132320 260.424380 19.015171 0.000000
709.266850 258.339720 19.562349 0.000000
697.452640 252.428590 18.678171 0.000000
696.719120 252.426940 18.635599 0.000000
696.010070 252.425350 18.594837 0.000000
700.464290 260.754610 19.652096 0.000000
711.761170 260.126160 19.785673 0.000000
710.269350 260.001530 19.680334 0.000000
702.221370 260.409520 19.796432 0.000000
700.328190 260.279570 19.632626 0.000000
700.355290 259.707000 19.625980 0.000000
699.547910 259.617950 19.556896 0.000000
711.927120 258.612240 19.749378 0.000000
718.837770 258.304780 20.209309 0.000000
700.682070 256.509800 19.612717 0.000000
696.676330 252.422090 19.281301 0.000000
695.968870 252.420580 19.229908 0.000000
707.967160 260.872280 20.306797 0.000000
699.513240 259.600430 20.155672 0.000000
720.621830 258.539550 20.339273 0.000000
698.952390 252.426800 19.450384 0.000000
700.440310 260.729890 20.257437 0.000000
696.245540 260.029750 20.362654 0.000000
710.905150 258.990390 20.522388 0.000000
700.562870 259.549440 20.263584 0.000000
699.439390 259.084630 20.146948 0.000000
698.904300 252.421680 20.131721 0.000000
696.633480 252.417220 19.927280 0.000000
695.927610 252.415740 19.865282 0.000000
700.616270 260.599270 20.889935 0.000000
699.224300 260.811950 20.716516 0.000000
709.738040 260.119870 21.245430 0.000000
700.697390 259.432950 20.905708 0.000000
720.320430 258.583440 21.347342 0.000000
699.234500 259.173000 20.729956 0.000000
695.886290 252.410930 20.501535 0.000000
714.089780 260.646790 21.731339 0.000000
699.034240 260.880400 21.276716 0.000000
711.812440 260.010010 21.469732 0.000000
710.968570 258.914890 21.361250 0.000000
713.482300 257.082950 21.608126 0.000000
698.844790 252.427090 20.812374 0.000000
696.590580 252.412340 20.574129 0.000000
700.804080 261.010860 21.529995 0.000000
700.779970 259.345670 21.550711 0.000000
696.547610 252.407460 21.222509 0.000000
695.844910 252.406080 21.139328 0.000000
700.813290 260.968290 22.153660 0.000000
698.911130 260.912050 21.843264 0.000000
711.763850 259.979800 22.310200 0.000000
703.380980 259.095250 21.926556 0.000000
700.673580 259.366940 22.170898 0.000000
698.983700 259.251560 21.904222 0.000000
710.835140 258.200680 22.179258 0.000000
708.945680 256.924190 21.938742 0.000000
698.806950 252.412260 21.497412 0.000000
698.014650 252.422300 21.399265 0.000000
703.283510 260.303770 22.576473 0.000000
700.436400 257.132630 22.207392 0.000000
699.312380 256.679660 22.052315 0.000000
699.214970 256.124600 22.061481 0.000000
699.272950 255.436980 22.101326 0.000000
705.523070 259.843630 22.958450 0.000000
710.614930 256.779080 23.003178 0.000000
709.282170 260.834530 23.585035 0.000000
709.104490 256.008940 23.629667 0.000000
702.541560 257.383300 15.666338 0.000000
701.595760 257.301480 15.686763 0.000000
700.698610 257.220400 15.705249 0.000000
701.872440 255.807330 15.558674 0.000000
701.079220 255.663160 15.567946 0.000000
719.745240 254.168520 15.969818 0.000000
719.260990 253.449550 15.930313 0.000000
702.457820 254.004390 15.394466 0.000000
718.842960 252.704710 15.887722 0.000000
718.317750 252.015300 15.849286 0.000000
698.006590 252.459790 15.364164 0.000000
697.208440 252.457500 15.380086 0.000000
704.204900 251.984440 15.180707 0.000000
703.203120 251.946040 15.202106 0.000000
717.846680 251.304260 15.808186 0.000000
702.412110 251.775330 15.206378 0.000000
715.551820 250.654460 15.789528 0.000000
715.068120 249.991440 15.749834 0.000000
714.733760 249.240550 15.702112 0.000000
718.355830 260.800080 16.388290 0.000000
700.349550 260.973020 16.007120 0.000000
710.938230 260.181030 16.453007 0.000000
699.632080 260.227970 15.972569 0.000000
701.700620 259.713810 15.871087 0.000000
699.863530 259.532290 15.912038 0.000000
696.439150 252.455310 15.394824 0.000000
713.079220 249.322880 15.723085 0.000000
712.655400 248.653990 15.680580 0.000000
712.232300 247.984040 15.637390 0.000000
711.808530 247.313230 15.593540 0.000000
710.284910 247.451020 15.614856 0.000000
709.880680 246.790770 15.570413 0.000000
709.477970 246.125730 15.525024 0.000000
699.658690 260.176240 16.588795 0.000000
697.958800 252.454770 16.054806 0.000000
697.162540 252.452580 16.057962 0.000000
696.394900 252.450470 16.060600 0.000000
710.903870 260.146910 17.295580 0.000000
699.685420 260.124480 17.206018 0.000000
698.736270 252.451930 16.752111 0.000000
697.911190 252.449770 16.742435 0.000000
697.116700 252.447660 16.732914 0.000000
696.350830 252.445650 16.723532 0.000000
698.686890 252.446840 17.450693 0.000000
697.863710 252.444730 17.427715 0.000000
697.071110 252.442760 17.405588 0.000000
696.306950 252.440830 17.384256 0.000000
700.068240 260.408630 18.474920 0.000000
699.598880 260.096830 18.441883 0.000000
697.815430 252.440640 18.111305 0.000000
697.025630 252.437880 18.076653 0.000000
696.263120 252.436020 18.043427 0.000000
720.507140 259.998840 19.443993 0.000000
711.366030 259.879270 18.995687 0.000000
710.996460 259.291600 18.955843 0.000000
700.140260 260.333500 19.103495 0.000000
699.538270 259.525270 19.043873 0.000000
700.163270 257.351870 19.035166 0.000000
697.769100 252.434780 18.793903 0.000000
696.980160 252.433000 18.746740 0.000000
696.219360 252.431230 18.701666 0.000000
710.734740 260.782620 19.836452 0.000000
700.424440 260.713320 19.763039 0.000000
699.634640 260.561800 19.692539 0.000000
710.945130 259.264040 19.805378 0.000000
700.290890 259.642520 19.735514 0.000000
699.468380 259.527010 19.663874 0.000000
708.926270 257.948790 19.630842 0.000000
708.496150 257.427520 19.587856 0.000000
708.149720 256.870610 19.550051 0.000000
696.175720 252.426450 19.359608 0.000000
707.159180 258.715090 20.315372 0.000000
706.572450 258.306730 20.256977 0.000000
719.908870 256.607970 20.341898 0.000000
700.686040 256.974180 19.736938 0.000000
697.721920 252.429820 19.476118 0.000000
696.934750 252.428100 19.416496 0.000000
711.982480 260.288600 20.775963 0.000000
700.471560 260.652010 20.400537 0.000000
699.306030 260.698000 20.277384 0.000000
700.503660 259.486820 20.398314 0.000000
699.529050 258.281890 20.295490 0.000000
697.673710 252.425740 20.158516 0.000000
696.889280 252.423250 20.086563 0.000000
696.131960 252.421650 20.017883 0.000000
700.802860 261.013030 21.078365 0.000000
699.087890 260.776640 20.863153 0.000000
712.177920 260.170230 21.667112 0.000000
700.668700 259.356600 21.069048 0.000000
696.843810 252.418350 20.757553 0.000000
696.088130 252.416840 20.677092 0.000000
699.018620 260.776760 21.464571 0.000000
700.648010 259.328280 21.723707 0.000000
699.094730 259.055300 21.507637 0.000000
713.608220 258.102230 21.794207 0.000000
698.632630 258.175020 21.463650 0.000000
713.772030 257.241000 21.801346 0.000000
698.847110 257.432590 21.513012 0.000000
696.044250 252.412030 21.337908 0.000000
719.877440 260.876220 22.539009 0.000000
702.976320 260.522580 22.047159 0.000000
710.313540 257.161650 22.292835 0.000000
697.835630 256.873200 22.027689 0.000000
709.570500 256.004640 22.200857 0.000000
696.798220 252.413450 21.430151 0.000000
700.840820 260.918760 22.377184 0.000000
701.464600 259.439390 22.515478 0.000000
700.659420 259.281920 22.387754 0.000000
711.650940 260.215520 24.230774 0.000000
713.376280 257.248350 24.557283 0.000000
703.560120 248.989140 14.907495 0.000000
718.635860 259.477290 16.237986 0.000000
701.917600 258.312440 15.693909 0.000000
701.723390 257.774810 15.659962 0.000000
701.303710 257.365540 15.641885 0.000000
700.352660 257.286650 15.664204 0.000000
699.415710 257.230560 15.687229 0.000000
700.214050 256.062990 15.573041 0.000000
699.569890 255.826950 15.572351 0.000000
720.502200 254.246700 15.910156 0.000000
718.231260 254.265080 15.942582 0.000000
717.811160 253.521760 15.903460 0.000000
701.070620 254.084990 15.391737 0.000000
717.466190 252.745620 15.860698 0.000000
717.025450 252.016250 15.821399 0.000000
698.433230 252.456710 15.323406 0.000000
697.571170 252.454150 15.343085 0.000000
696.742190 252.451750 15.361385 0.000000
695.944150 252.449460 15.378385 0.000000
702.912660 251.994870 15.173165 0.000000
714.814450 251.285400 15.802877 0.000000
714.453980 250.547550 15.760144 0.000000
714.014040 249.854370 15.720568 0.000000
713.725100 249.069980 15.672768 0.000000
711.274110 247.759230 15.610941 0.000000
710.890990 247.050830 15.566667 0.000000
711.294860 260.321010 16.395763 0.000000
698.980290 261.028020 15.984897 0.000000
710.695190 259.798460 16.374531 0.000000
699.634030 260.130280 15.899071 0.000000
712.037720 249.167770 15.697128 0.000000
711.654720 248.465760 15.654502 0.000000
709.379150 247.171390 15.588381 0.000000
708.029660 245.258800 15.466436 0.000000
699.663450 260.078800 16.541092 0.000000
698.385010 252.451260 16.042173 0.000000
697.524840 252.448810 16.047632 0.000000
696.697750 252.446520 16.052469 0.000000
695.901370 252.444320 16.056713 0.000000
711.240050 260.295100 17.271124 0.000000
710.818660 259.706850 17.239267 0.000000
699.691100 260.028230 17.184210 0.000000
698.336980 252.445860 16.757889 0.000000
697.478700 252.443480 16.749222 0.000000
696.653440 252.441310 16.740685 0.000000
695.858760 252.439210 16.732256 0.000000
710.938840 260.356990 18.141384 0.000000
700.112240 260.358060 17.855444 0.000000
710.615360 259.737700 18.106556 0.000000
699.670290 260.002870 17.828691 0.000000
698.289120 252.440430 17.471243 0.000000
697.432800 252.438190 17.448528 0.000000
695.816280 252.434100 17.405655 0.000000
696.609250 252.436100 17.426687 0.000000
699.992430 260.382020 18.501875 0.000000
699.636780 259.984130 18.472628 0.000000
698.241330 252.435030 18.182938 0.000000
697.386960 252.432890 18.146240 0.000000
710.867680 260.337460 19.006702 0.000000
710.298710 259.811680 18.961618 0.000000
700.142940 260.270260 19.158504 0.000000
700.222050 259.640560 19.149479 0.000000
699.510010 259.429600 19.098583 0.000000
698.193660 252.429660 18.893648 0.000000
697.341190 252.427610 18.843018 0.000000
700.408080 260.684480 19.841547 0.000000
699.445980 260.585270 19.758045 0.000000
711.694760 259.996250 19.922413 0.000000
710.048650 259.861180 19.807587 0.000000
700.312070 259.556000 19.818607 0.000000
699.447270 259.427090 19.744179 0.000000
712.153260 258.289310 19.907074 0.000000
708.644590 257.506100 19.653336 0.000000
720.504030 258.670870 20.482660 0.000000
701.421020 257.703310 19.891365 0.000000
700.896360 257.362180 19.844440 0.000000
700.807500 256.762630 19.831955 0.000000
698.146000 252.424260 19.604057 0.000000
697.295410 252.422330 19.539536 0.000000
710.735350 261.024660 20.750065 0.000000
700.504390 260.601590 20.509388 0.000000
699.208250 260.669890 20.373367 0.000000
711.814580 259.907040 20.822102 0.000000
700.476140 259.431850 20.502623 0.000000
699.341740 259.448120 20.384958 0.000000
706.773990 258.322660 20.353754 0.000000
697.249570 252.417050 20.236454 0.000000
696.433230 252.415370 20.161879 0.000000
699.040530 260.719450 20.989145 0.000000
698.098210 252.418850 20.314846 0.000000
712.223940 260.472690 21.771748 0.000000
700.787410 261.011750 21.206799 0.000000
709.529420 259.968750 21.471294 0.000000
720.216610 258.707950 21.541458 0.000000
700.663760 259.294680 21.201250 0.000000
710.848020 258.715360 21.600304 0.000000
698.050480 252.413450 21.026665 0.000000
697.203740 252.411760 20.934414 0.000000
696.389160 252.410170 20.846710 0.000000
699.098210 260.654660 21.634922 0.000000
712.210140 259.717990 21.759811 0.000000
699.083070 258.927580 21.666643 0.000000
700.678160 259.248570 21.886929 0.000000
700.223510 257.642730 21.857239 0.000000
698.995180 257.142580 21.700100 0.000000
698.968750 256.521090 21.714808 0.000000
699.064450 255.800630 21.750389 0.000000
700.913940 260.879520 22.572197 0.000000
710.780090 257.933870 22.480543 0.000000
709.662170 256.120880 22.343138 0.000000
717.607480 260.286500 23.381493 0.000000
700.331670 256.234040 22.623890 0.000000
712.894780 260.914490 23.690186 0.000000
709.183900 256.304440 23.163963 0.000000
713.559570 257.477050 24.763382 0.000000
718.900390 254.447170 24.612751 0.000000
717.970950 258.404450 16.086264 0.000000
700.056760 258.639590 15.692396 0.000000
699.966250 258.056460 15.654036 0.000000
700.029720 257.374360 15.602912 0.000000
698.984740 257.353450 15.634811 0.000000
698.013370 257.322080 15.662982 0.000000
718.996830 256.224520 15.951861 0.000000
718.623540 255.435560 15.914861 0.000000
718.251340 254.648280 15.877272 0.000000
716.230410 254.579590 15.905746 0.000000
715.908260 253.806560 15.866853 0.000000
715.582820 253.034010 15.827398 0.000000
699.005430 252.456480 15.257978 0.000000
698.068790 252.453860 15.282809 0.000000
697.170780 252.451280 15.305954 0.000000
714.934570 251.482420 15.746149 0.000000
713.193480 251.471850 15.770516 0.000000
712.892150 250.707990 15.728694 0.000000
712.482540 250.003270 15.691329 0.000000
712.211670 249.213290 15.646255 0.000000
714.395140 260.414860 16.253965 0.000000
710.828490 260.042300 16.295662 0.000000
698.465450 260.088200 15.847261 0.000000
697.592410 256.960880 15.648896 0.000000
696.819090 256.847690 15.663624 0.000000
710.573240 249.286680 15.671844 0.000000
710.241090 248.555210 15.629969 0.000000
709.913570 247.815160 15.586886 0.000000
708.161500 246.143200 15.498077 0.000000
699.664610 260.033870 16.474627 0.000000
698.957640 252.450900 16.008274 0.000000
698.023010 252.448410 16.017200 0.000000
697.126890 252.445940 16.025316 0.000000
696.266780 252.443340 16.032663 0.000000
710.816470 260.004000 17.189465 0.000000
699.695130 259.984380 17.143301 0.000000
698.909970 252.445360 16.755486 0.000000
697.977360 252.442960 16.748606 0.000000
697.083130 252.440610 16.741787 0.000000
696.224550 252.438350 16.735023 0.000000
699.678220 259.958590 17.813385 0.000000
698.862550 252.439830 17.500328 0.000000
697.931880 252.437530 17.477724 0.000000
697.039610 252.435320 17.456049 0.000000
696.182680 252.433140 17.435232 0.000000
699.996460 260.366330 18.510874 0.000000
699.652470 259.937260 18.483185 0.000000
698.815120 252.434300 18.243534 0.000000
719.187870 260.538910 19.374578 0.000000
710.833560 260.668150 19.002131 0.000000
710.613770 259.991330 18.970709 0.000000
700.161010 260.252960 19.193726 0.000000
700.257870 259.598050 19.186920 0.000000
698.767880 252.428790 18.985807 0.000000
710.858030 260.617830 19.894907 0.000000
699.395630 260.588290 19.813908 0.000000
710.941470 259.063600 19.862524 0.000000
708.802430 257.636900 19.691904 0.000000
717.709170 260.906680 20.354691 0.000000
700.420230 260.695530 19.900795 0.000000
700.354060 259.514310 19.882704 0.000000
699.435730 259.376370 19.805576 0.000000
701.539310 257.608150 19.963926 0.000000
701.051940 257.214390 19.921400 0.000000
698.720520 252.423250 19.727863 0.000000
711.968990 260.197720 20.878736 0.000000
700.515080 260.617340 20.594074 0.000000
699.163020 260.667330 20.454168 0.000000
696.611690 260.283230 20.193747 0.000000
710.942630 259.019500 20.770393 0.000000
700.500370 259.404850 20.591162 0.000000
699.307250 259.409270 20.469242 0.000000
707.788210 258.776460 20.497892 0.000000
696.015750 252.412410 20.228260 0.000000
698.673280 252.417770 20.470413 0.000000
697.750610 252.415940 20.385454 0.000000
696.865780 252.414180 20.304840 0.000000
700.833920 261.037350 21.320335 0.000000
699.059080 260.684360 21.102678 0.000000
700.663270 259.286350 21.312447 0.000000
699.286870 259.385130 21.143671 0.000000
720.237430 258.314610 21.559824 0.000000
709.524110 258.003480 21.525349 0.000000
696.822140 252.408860 21.018349 0.000000
695.974000 252.407230 20.927876 0.000000
712.582580 259.944670 21.866287 0.000000
713.988040 257.816040 21.995920 0.000000
697.705200 252.410550 21.113642 0.000000
700.830690 261.004300 22.015566 0.000000
699.060910 258.863560 21.803778 0.000000
700.409730 257.468230 22.026815 0.000000
699.111510 256.939790 21.862957 0.000000
699.113280 256.279510 21.883694 0.000000
699.178530 255.561490 21.916143 0.000000
710.416140 258.363100 22.531427 0.000000
700.893740 260.941470 22.727098 0.000000
713.596250 257.918180 22.934187 0.000000
710.696590 257.418670 23.497120 0.000000
709.325440 256.447540 23.311579 0.000000
712.729610 257.385860 23.795174 0.000000
703.602840 249.929820 14.982834 0.000000
702.801150 249.651960 14.985585 0.000000
714.851620 260.184600 16.240597 0.000000
698.837650 259.470340 15.785735 0.000000
718.999760 257.979400 16.063883 0.000000
700.737980 257.835420 15.616129 0.000000
700.313290 257.397550 15.601901 0.000000
699.269900 257.324770 15.631563 0.000000
698.246340 257.275240 15.661468 0.000000
697.282780 257.223050 15.688625 0.000000
719.445980 255.936540 15.958235 0.000000
719.154360 255.083220 15.921362 0.000000
698.853210 255.551470 15.524161 0.000000
718.861510 254.229000 15.883779 0.000000
716.729370 254.160000 15.915234 0.000000
716.480590 253.319700 15.876276 0.000000
697.146850 252.451200 15.349361 0.000000
696.235230 252.448500 15.373351 0.000000
715.707820 250.782350 15.754976 0.000000
713.894710 250.757690 15.780415 0.000000
713.660100 249.915530 15.737858 0.000000
713.323180 249.124540 15.698913 0.000000
713.120610 248.247960 15.652700 0.000000
711.398380 248.315250 15.679327 0.000000
711.121150 247.500660 15.636318 0.000000
709.023990 245.923600 15.569329 0.000000
708.748840 245.099700 15.523214 0.000000
697.129210 260.916470 15.936115 0.000000
710.732850 259.920070 16.300545 0.000000
699.655400 260.263060 16.501436 0.000000
699.946660 259.503420 16.457048 0.000000
697.105100 252.446030 16.089672 0.000000
696.195190 252.443450 16.098335 0.000000
710.723750 259.884740 17.219692 0.000000
699.684750 260.218200 17.193184 0.000000
697.062440 252.441800 16.827255 0.000000
696.155270 252.438420 16.820642 0.000000
699.660400 260.198670 17.886044 0.000000
698.956850 252.440640 17.609112 0.000000
696.115480 252.433380 17.540955 0.000000
697.021000 252.436680 17.562710 0.000000
700.436770 260.425200 18.619553 0.000000
699.573360 260.208740 18.576515 0.000000
699.573910 259.591860 18.561708 0.000000
696.075740 252.428340 18.259987 0.000000
710.810180 260.554140 19.082281 0.000000
710.379090 259.928590 19.046478 0.000000
700.217650 260.493100 19.314919 0.000000
699.490300 260.217100 19.264460 0.000000
699.553590 259.570310 19.259060 0.000000
700.536380 258.434050 19.305170 0.000000
700.319640 257.221590 19.276081 0.000000
696.036320 252.423110 18.978428 0.000000
711.853270 260.169680 20.062088 0.000000
710.105470 259.986510 19.944378 0.000000
717.838320 260.864870 20.470381 0.000000
700.456480 260.353390 20.038900 0.000000
700.667420 259.626680 20.052114 0.000000
699.493160 259.568570 19.954346 0.000000
695.996340 252.418330 19.696930 0.000000
699.353150 260.823970 20.636436 0.000000
709.844540 260.040410 20.833364 0.000000
706.703000 260.441530 20.568703 0.000000
700.548650 260.899080 20.760777 0.000000
711.905940 260.113010 21.011700 0.000000
699.330510 258.993840 20.642435 0.000000
712.106930 257.605900 21.000496 0.000000
698.776490 252.419170 20.676058 0.000000
697.795530 252.417180 20.584747 0.000000
696.855530 252.416150 20.498129 0.000000
699.072880 260.921230 21.290279 0.000000
699.130310 259.065730 21.323574 0.000000
720.171020 258.309880 21.701744 0.000000
695.916810 252.408260 21.136940 0.000000
710.895690 258.840880 21.848509 0.000000
709.466060 257.820680 21.695742 0.000000
708.059940 256.072940 21.552410 0.000000
698.731380 252.413820 21.444599 0.000000
697.752260 252.411940 21.336428 0.000000
696.813960 252.411010 21.233860 0.000000
700.799870 260.726750 22.230648 0.000000
710.928100 257.987150 22.799820 0.000000
700.390560 257.041660 22.264080 0.000000
699.941650 256.620420 22.215401 0.000000
705.518310 260.085050 22.930223 0.000000
709.318300 260.863650 23.484577 0.000000
718.437440 256.917940 23.757383 0.000000
718.825130 254.774840 26.111961 0.000000
701.249630 254.515410 15.437347 0.000000
704.601320 249.883040 15.041986 0.000000
716.787600 259.862520 16.234709 0.000000
698.667540 260.009490 15.845827 0.000000
700.906310 258.275600 15.670705 0.000000
701.171880 257.454500 15.614800 0.000000
700.110720 257.325680 15.643272 0.000000
699.329830 257.073970 15.654448 0.000000
698.494260 256.876740 15.669993 0.000000
718.986270 254.408950 15.970709 0.000000
718.865720 253.460310 15.931373 0.000000
698.612610 252.462490 15.386311 0.000000
697.585330 252.459380 15.415231 0.000000
696.603700 252.456340 15.442180 0.000000
718.797360 252.479480 15.889063 0.000000
718.455080 250.577000 15.808237 0.000000
716.437130 250.528850 15.836759 0.000000
716.333620 249.557650 15.792624 0.000000
716.196660 248.590390 15.748471 0.000000
716.078860 247.598770 15.702169 0.000000
714.305970 247.563260 15.724914 0.000000
714.147950 246.603090 15.679314 0.000000
712.129270 244.685350 15.606998 0.000000
710.826840 260.045200 16.347204 0.000000
699.667850 260.142210 16.537436 0.000000
698.572570 252.456770 16.172195 0.000000
697.546940 252.453800 16.183187 0.000000
696.566890 252.450880 16.193232 0.000000
710.808110 260.018130 17.292681 0.000000
699.698730 260.100770 17.254736 0.000000
698.532650 252.451100 16.955439 0.000000
697.508670 252.448230 16.948586 0.000000
696.530090 252.445450 16.941805 0.000000
699.659610 260.091160 17.972834 0.000000
697.470520 252.442670 17.712151 0.000000
696.493470 252.440000 17.688610 0.000000
700.187130 260.460540 18.721752 0.000000
699.599240 260.091340 18.689135 0.000000
697.432430 252.437120 18.474634 0.000000
696.456850 252.434590 18.434380 0.000000
710.795100 260.749080 19.199524 0.000000
710.630620 260.011080 19.177053 0.000000
700.244810 260.407990 19.452177 0.000000
699.512080 259.469600 19.396902 0.000000
697.394290 252.431580 19.236752 0.000000
696.420230 252.429150 19.179817 0.000000
710.871030 260.692260 20.146547 0.000000
710.933350 259.070010 20.128986 0.000000
700.553890 260.882020 20.209654 0.000000
720.469970 258.617860 20.748552 0.000000
697.356140 252.426030 19.999241 0.000000
696.383610 252.423740 19.925638 0.000000
700.557860 260.853060 20.945549 0.000000
699.186160 260.817230 20.802187 0.000000
713.549990 260.645940 21.325979 0.000000
712.056760 260.282290 21.193430 0.000000
700.834720 259.441010 20.985367 0.000000
711.064820 258.988860 21.099564 0.000000
712.239690 257.727110 21.194254 0.000000
698.333800 252.422680 20.858215 0.000000
697.317990 252.420470 20.762827 0.000000
696.346980 252.418320 20.672558 0.000000
705.082640 259.682280 21.428537 0.000000
699.109190 258.941310 21.539707 0.000000
710.923650 258.187740 22.053101 0.000000
696.310240 252.412870 21.421263 0.000000
696.502620 258.389130 22.612890 0.000000
709.823360 254.416280 22.948107 0.000000
713.246950 258.100560 24.351326 0.000000
713.276730 257.224640 24.371426 0.000000
704.436100 250.130980 15.053854 0.000000
704.376220 249.263280 15.002606 0.000000
701.115780 253.110030 15.336123 0.000000
698.534730 252.455490 15.374530 0.000000
718.508300 250.083210 15.796249 0.000000
698.466250 259.562810 15.788159 0.000000
717.109310 259.513760 16.199228 0.000000
700.933110 257.702300 15.603048 0.000000
700.095030 257.422030 15.616680 0.000000
699.005000 257.301300 15.646940 0.000000
698.951110 256.637300 15.611378 0.000000
718.826480 254.103740 15.959855 0.000000
718.761350 253.110700 15.920316 0.000000
697.450560 252.451630 15.405806 0.000000
696.414920 252.449080 15.435049 0.000000
716.427490 250.031890 15.825677 0.000000
716.373960 249.008820 15.781081 0.000000
716.281430 247.989930 15.736527 0.000000
716.212400 246.941960 15.689592 0.000000
714.153560 244.851440 15.618877 0.000000
714.043950 243.794890 15.569185 0.000000
712.262020 243.856160 15.593918 0.000000
710.744140 259.750340 16.320154 0.000000
698.495240 252.449710 16.182213 0.000000
699.658750 260.286470 16.527519 0.000000
699.955990 259.501530 16.489601 0.000000
697.411930 252.446560 16.194324 0.000000
696.378660 252.443510 16.205406 0.000000
710.839540 259.687010 17.292513 0.000000
698.457150 252.443080 16.987267 0.000000
699.690000 260.247010 17.269764 0.000000
697.374270 252.440960 16.980267 0.000000
696.342530 252.438050 16.973331 0.000000
699.648070 260.239010 18.012642 0.000000
698.416750 252.438250 17.790527 0.000000
696.306460 252.432570 17.739546 0.000000
710.989690 260.425840 18.290501 0.000000
710.583860 259.739930 18.263803 0.000000
697.336610 252.435360 17.764435 0.000000
699.553890 260.253660 18.752439 0.000000
699.586000 259.588590 18.743309 0.000000
697.299070 252.429780 18.547598 0.000000
696.270390 252.427110 18.504803 0.000000
710.884160 260.427490 19.260790 0.000000
710.242740 259.821560 19.221096 0.000000
698.377560 252.432530 18.592709 0.000000
700.293460 260.564000 19.545275 0.000000
699.393490 260.297060 19.485268 0.000000
699.522090 259.590940 19.488548 0.000000
700.522030 257.056000 19.537724 0.000000
696.234380 252.421660 19.269819 0.000000
697.261540 252.424190 19.330494 0.000000
711.839420 260.096560 20.294197 0.000000
709.933110 259.893160 20.166618 0.000000
698.338380 252.426790 19.394592 0.000000
700.533450 260.438600 20.322643 0.000000
699.497680 259.575380 20.236368 0.000000
697.224000 252.418610 20.113876 0.000000
698.299190 252.421070 20.196947 0.000000
700.727360 260.989010 21.104282 0.000000
699.415040 260.875340 20.966766 0.000000
711.867190 260.055690 21.295479 0.000000
709.687500 259.943730 21.106197 0.000000
710.807680 258.741670 21.198589 0.000000
712.867190 257.134950 21.371532 0.000000
697.186400 252.413010 20.898497 0.000000
696.162170 252.410740 20.802080 0.000000
702.401980 258.937160 21.298098 0.000000
698.261170 252.414470 21.000681 0.000000
699.035640 261.007080 21.659201 0.000000
699.064580 259.066560 21.700932 0.000000
710.881840 258.682620 22.197109 0.000000
700.390080 257.740660 21.894430 0.000000
699.058650 257.042540 21.750481 0.000000
712.556150 257.181030 23.425871 0.000000
713.370970 260.309570 25.594219 0.000000
704.789920 250.882550 15.105517 0.000000
704.395260 250.223080 15.081235 0.000000
704.369630 249.321230 15.030958 0.000000
700.307130 257.367100 15.596413 0.000000
719.283870 253.415850 15.953656 0.000000
698.376590 252.456740 15.392689 0.000000
697.237920 252.453170 15.426172 0.000000
719.317990 250.189010 15.830373 0.000000
719.329710 249.079250 15.786440 0.000000
717.092650 249.059940 15.819405 0.000000
717.124760 247.949980 15.773645 0.000000
717.108760 246.844600 15.728028 0.000000
715.167600 244.549960 15.656313 0.000000
715.153260 243.399640 15.605742 0.000000
715.127440 242.231750 15.553779 0.000000
696.713560 261.014680 15.900475 0.000000
713.884460 260.951230 16.309462 0.000000
696.893860 260.317660 15.860886 0.000000
710.878170 260.114990 16.334715 0.000000
719.460750 258.443300 16.127556 0.000000
699.500490 258.460330 15.678722 0.000000
698.833010 257.399720 15.648571 0.000000
697.829530 257.232180 15.673769 0.000000
696.154240 252.449430 15.457299 0.000000
