# .PCD v0.7 - Point Cloud Data file format
VERSION 0.7
FIELDS x y z intensity
SIZE 4 4 4 4
TYPE F F F F
COUNT 1 1 1 1
WIDTH 1166
HEIGHT 1
VIEWPOINT 0 0 0 1 0 0 0
POINTS 1166
DATA ascii
720.593630 144.363070 12.952639 0.000000
703.772710 144.399170 13.021132 0.000000
704.130740 144.583160 12.997478 0.000000
704.419190 144.740430 12.977784 0.000000
705.382450 144.446170 13.019546 0.000000
705.634400 144.584210 13.002235 0.000000
705.889470 144.727920 12.984219 0.000000
707.273320 144.456220 13.024359 0.000000
707.688600 144.685900 12.995613 0.000000
710.136840 144.520950 12.997601 0.000000
710.528260 144.754820 12.973132 0.000000
714.114810 144.656420 12.984818 0.000000
714.606930 144.830080 12.952298 0.000000
704.564940 144.822810 12.967424 0.000000
704.859500 144.995710 12.945690 0.000000
706.149230 144.878520 12.965123 0.000000
706.499880 145.090350 12.938609 0.000000
708.116460 144.930250 12.964757 0.000000
708.443850 145.124240 12.940504 0.000000
710.930790 145.001980 12.947185 0.000000
714.976010 145.052780 12.931837 0.000000
705.157170 145.177050 12.922914 0.000000
708.666930 145.259020 12.923526 0.000000
701.608890 157.926470 13.202116 0.000000
703.930850 157.927870 13.210116 0.000000
706.364070 157.946320 13.219844 0.000000
709.203980 157.997500 13.241488 0.000000
709.536190 157.919220 13.214724 0.000000
713.542970 157.943950 13.233437 0.000000
695.973940 158.137500 13.321140 0.000000
696.338680 158.165740 13.326901 0.000000
696.774960 158.192830 13.331235 0.000000
697.138000 158.209850 13.332714 0.000000
697.501280 158.221370 13.332063 0.000000
697.938600 158.228240 13.328781 0.000000
698.378050 158.222960 13.323313 0.000000
698.746460 158.211520 13.316793 0.000000
699.117980 158.194310 13.308061 0.000000
699.568180 158.164320 13.295196 0.000000
699.947690 158.132160 13.282305 0.000000
700.332700 158.093410 13.267020 0.000000
700.723390 158.048810 13.249534 0.000000
701.121460 157.997070 13.229434 0.000000
701.444890 157.951260 13.211702 0.000000
701.901120 158.305630 13.340651 0.000000
702.344540 158.239490 13.315134 0.000000
702.796450 158.161530 13.287615 0.000000
703.165410 158.089580 13.263865 0.000000
703.543210 158.011760 13.238087 0.000000
704.738340 158.305820 13.342510 0.000000
705.182500 158.212950 13.310892 0.000000
705.523800 158.137240 13.285772 0.000000
705.878420 158.059480 13.258428 0.000000
707.668460 158.341660 13.359271 0.000000
707.961000 158.279140 13.337593 0.000000
708.259830 158.213150 13.315098 0.000000
708.723630 158.108430 13.279353 0.000000
711.326780 158.420910 13.391392 0.000000
711.742130 158.336410 13.362576 0.000000
712.172120 158.247630 13.332323 0.000000
712.614440 158.152530 13.300821 0.000000
713.069520 158.050550 13.268025 0.000000
720.245240 158.448530 13.228985 0.000000
695.985840 158.502560 13.461443 0.000000
696.366520 158.530110 13.466727 0.000000
696.745910 158.552260 13.469969 0.000000
697.124760 158.569850 13.471430 0.000000
697.503970 158.582170 13.470875 0.000000
697.960450 158.590670 13.467774 0.000000
698.343020 158.592560 13.463139 0.000000
698.728580 158.588840 13.456459 0.000000
699.195010 158.572370 13.446623 0.000000
699.587340 158.549530 13.436724 0.000000
699.984740 158.519940 13.424721 0.000000
700.387450 158.484880 13.410718 0.000000
700.714540 158.452350 13.397844 0.000000
701.130490 158.405560 13.379607 0.000000
701.554630 158.352980 13.359030 0.000000
702.423830 158.722200 13.481015 0.000000
702.699650 158.665440 13.468167 0.000000
703.085450 158.604350 13.447129 0.000000
703.484500 158.543000 13.423525 0.000000
703.890870 158.470840 13.398605 0.000000
704.308350 158.391800 13.371665 0.000000
706.124330 158.746120 13.461524 0.000000
706.343020 158.657790 13.449695 0.000000
706.833860 158.516950 13.418702 0.000000
707.106080 158.461150 13.399678 0.000000
707.384400 158.402950 13.379856 0.000000
710.315610 158.758910 13.456021 0.000000
710.601870 158.621630 13.439206 0.000000
716.112850 158.819950 13.473557 0.000000
716.799500 158.737410 13.433841 0.000000
717.579770 158.673400 13.388106 0.000000
718.410100 158.604190 13.338992 0.000000
719.417790 158.577590 13.278711 0.000000
695.893680 159.046770 13.595108 0.000000
699.896120 159.100330 13.567228 0.000000
700.319520 159.059270 13.556271 0.000000
700.747190 159.008990 13.543854 0.000000
701.093080 158.961290 13.532704 0.000000
701.530520 158.891770 13.517217 0.000000
701.973570 158.812120 13.500109 0.000000
702.241880 158.757870 13.489115 0.000000
705.148860 159.095830 13.511744 0.000000
705.587340 158.957000 13.489082 0.000000
705.914490 158.839170 13.472012 0.000000
709.479490 159.147380 13.503041 0.000000
709.895020 158.957750 13.479980 0.000000
715.835450 159.084950 13.487906 0.000000
696.053650 159.073590 13.595668 0.000000
696.374330 159.124360 13.595875 0.000000
696.777400 159.176190 13.595567 0.000000
697.101560 159.209610 13.594475 0.000000
697.508970 159.241230 13.592049 0.000000
697.918640 159.262070 13.588613 0.000000
698.330750 159.267930 13.584293 0.000000
698.740660 159.231510 13.582393 0.000000
699.147520 159.167450 13.581010 0.000000
699.560490 159.125990 13.574861 0.000000
703.558720 159.516070 13.585480 0.000000
703.874690 159.450240 13.571346 0.000000
704.294430 159.343990 13.552586 0.000000
704.718020 159.224580 13.532895 0.000000
708.362670 159.572200 13.563155 0.000000
708.788760 159.430680 13.540224 0.000000
709.206670 159.268690 13.517738 0.000000
714.750920 159.506910 13.546267 0.000000
715.422420 159.273860 13.510213 0.000000
702.432430 159.712650 13.631199 0.000000
702.836300 159.648070 13.615658 0.000000
703.143070 159.594510 13.603251 0.000000
703.350040 159.556350 13.594527 0.000000
707.266480 159.907900 13.618910 0.000000
707.537230 159.830960 13.605477 0.000000
707.945980 159.704640 13.584835 0.000000
713.838070 159.959780 13.592258 0.000000
714.226200 159.799240 13.572669 0.000000
706.743350 160.061360 13.643570 0.000000
707.004820 159.987670 13.631306 0.000000
712.797420 160.267970 13.644540 0.000000
713.440000 160.103710 13.612212 0.000000
712.477360 160.636220 13.655935 0.000000
707.886170 136.302340 13.200121 0.000000
708.261290 136.311950 13.185967 0.000000
716.009770 136.174260 13.319541 0.000000
708.586360 136.632690 13.196095 0.000000
695.845460 136.792590 13.459986 0.000000
696.193050 136.800320 13.463448 0.000000
696.423460 136.805450 13.465393 0.000000
697.338500 136.825810 13.470507 0.000000
697.680110 136.833530 13.471317 0.000000
698.706540 136.857250 13.470400 0.000000
700.570190 136.897960 13.455136 0.000000
700.930420 136.906040 13.450250 0.000000
701.417720 136.916930 13.442736 0.000000
701.789180 136.925260 13.436327 0.000000
702.167420 136.933750 13.429111 0.000000
702.551700 136.942350 13.421224 0.000000
702.944400 136.951170 13.412461 0.000000
708.828190 137.041640 13.215368 0.000000
711.666440 136.871770 13.497553 0.000000
715.954530 137.188050 13.369673 0.000000
696.466190 137.359020 13.237978 0.000000
697.674070 137.188370 13.223301 0.000000
700.936280 137.327440 13.199649 0.000000
708.853030 137.457020 13.243768 0.000000
709.212890 137.506330 13.231402 0.000000
716.303100 137.427470 13.368487 0.000000
696.165160 137.647140 13.266863 0.000000
702.177860 137.582760 13.193356 0.000000
702.435360 137.860410 13.213997 0.000000
709.205750 137.937910 13.261667 0.000000
716.314150 137.887570 13.389245 0.000000
702.902650 138.202790 13.232880 0.000000
703.270870 138.220780 13.220995 0.000000
709.310240 138.245030 13.277960 0.000000
716.489070 138.238020 13.398792 0.000000
703.403320 138.458630 13.239681 0.000000
703.580870 138.602840 13.246868 0.000000
709.423830 138.536930 13.292468 0.000000
709.650700 138.719770 13.293993 0.000000
716.501530 138.682310 13.418185 0.000000
716.995610 138.846890 13.407140 0.000000
703.836850 138.831160 13.258581 0.000000
704.079280 139.075590 13.271778 0.000000
717.092650 139.239850 13.420547 0.000000
704.235780 139.241730 13.280663 0.000000
704.386960 139.412430 13.289894 0.000000
709.513430 139.225420 13.333991 0.000000
709.697570 139.437680 13.338860 0.000000
717.309200 139.566910 13.426331 0.000000
697.536740 139.847370 13.294010 0.000000
698.509830 139.798290 13.282125 0.000000
699.314030 139.826600 13.273770 0.000000
709.854310 139.672700 13.346228 0.000000
717.349610 139.982940 13.442266 0.000000
696.157530 140.073670 13.313540 0.000000
696.583190 139.987090 13.307625 0.000000
701.047610 140.264500 13.280191 0.000000
701.220580 140.314800 13.279786 0.000000
705.046750 139.992320 13.311053 0.000000
705.364380 140.120100 13.305648 0.000000
705.789120 140.300990 13.298194 0.000000
710.197510 140.116420 13.356837 0.000000
710.431520 140.292340 13.355606 0.000000
710.834170 140.352200 13.338189 0.000000
711.247800 140.416920 13.320156 0.000000
717.890810 140.155640 13.428596 0.000000
718.147030 140.473420 13.431574 0.000000
697.698060 140.357510 13.361174 0.000000
698.335140 140.666340 13.602546 0.000000
701.393070 140.367740 13.279378 0.000000
701.737430 140.480300 13.278271 0.000000
702.166080 140.632610 13.276648 0.000000
702.422180 140.730970 13.275525 0.000000
706.218140 140.492000 13.290039 0.000000
706.542910 140.641650 13.283438 0.000000
706.758360 140.747770 13.279183 0.000000
711.489990 140.607280 13.318380 0.000000
711.725340 140.806050 13.317125 0.000000
718.803710 140.621930 13.411836 0.000000
719.404970 140.813800 13.395680 0.000000
702.592650 140.799260 13.274647 0.000000
702.932250 140.943700 13.272724 0.000000
703.270510 141.095870 13.270599 0.000000
706.979980 140.851730 13.274014 0.000000
707.310730 141.017750 13.266497 0.000000
712.169490 140.881260 13.297050 0.000000
712.518980 141.025710 13.285759 0.000000
712.874760 141.175800 13.274081 0.000000
720.079040 140.995240 13.375922 0.000000
695.886290 141.461210 13.300099 0.000000
696.110470 141.443890 13.302588 0.000000
696.479000 141.383790 13.300133 0.000000
696.848510 141.318820 13.294933 0.000000
697.523130 141.235400 13.285290 0.000000
698.515260 141.193680 13.270913 0.000000
698.897890 141.222670 13.268288 0.000000
699.356810 141.277820 13.265356 0.000000
700.272460 141.446820 13.259105 0.000000
704.040340 141.455980 13.261804 0.000000
707.757390 141.248230 13.255658 0.000000
708.095340 141.429490 13.247098 0.000000
708.323180 141.554290 13.241042 0.000000
713.374820 141.436750 13.259690 0.000000
697.660890 141.716540 13.359308 0.000000
700.957890 141.620350 13.252742 0.000000
701.330630 141.750000 13.251200 0.000000
701.704410 141.885070 13.248244 0.000000
704.308900 141.570950 13.255989 0.000000
704.577150 141.693480 13.250099 0.000000
704.846560 141.820430 13.243864 0.000000
696.645870 142.269270 13.267641 0.000000
696.913270 142.261550 13.270062 0.000000
697.379760 142.254360 13.442430 0.000000
697.579410 142.270430 13.274774 0.000000
698.113530 142.263920 13.269658 0.000000
698.515440 142.277340 13.436250 0.000000
698.718630 142.286380 13.262246 0.000000
701.927370 141.972930 13.246405 0.000000
695.773620 142.340470 13.257744 0.000000
696.176760 142.298930 13.262676 0.000000
696.445070 142.279140 13.265640 0.000000
696.985350 142.345700 13.622015 0.000000
697.183720 142.363770 13.457894 0.000000
697.816590 142.390210 13.461641 0.000000
698.702820 142.370270 13.616572 0.000000
698.919310 142.311420 13.261181 0.000000
699.120300 142.338420 13.259722 0.000000
699.654240 142.436340 13.256062 0.000000
699.033020 143.271670 13.423889 0.000000
699.237430 143.308620 13.499166 0.000000
697.790650 144.212810 13.616779 0.000000
701.412170 144.113420 13.491199 0.000000
701.622990 144.239580 13.491306 0.000000
714.384220 144.563600 13.348139 0.000000
699.362300 145.667010 13.707920 0.000000
701.066410 159.886580 13.675930 0.000000
701.449100 159.842830 13.664797 0.000000
701.936580 159.782620 13.648866 0.000000
695.975650 160.199330 13.702840 0.000000
696.335570 160.254120 13.703254 0.000000
697.153930 160.268400 13.708699 0.000000
697.516110 160.238310 13.711900 0.000000
697.966370 160.193790 13.714781 0.000000
698.324460 160.151580 13.716063 0.000000
698.681090 160.103990 13.716450 0.000000
699.125610 160.038330 13.715482 0.000000
699.576900 160.001620 13.709913 0.000000
699.944030 159.982070 13.702888 0.000000
700.314330 159.956330 13.694914 0.000000
700.688420 159.924710 13.685923 0.000000
705.729060 160.329930 13.688322 0.000000
705.978270 160.266690 13.677742 0.000000
706.357910 160.166780 13.661064 0.000000
696.697940 160.290620 13.703893 0.000000
696.971800 160.281310 13.706703 0.000000
704.058900 160.713060 13.751645 0.000000
704.404170 160.634380 13.739894 0.000000
704.757570 160.557620 13.726986 0.000000
705.117490 160.476330 13.713123 0.000000
705.482420 160.390470 13.698537 0.000000
712.026430 160.703000 13.678338 0.000000
701.933530 161.042880 13.814971 0.000000
702.370670 160.992580 13.803387 0.000000
702.812740 160.931500 13.790959 0.000000
703.147280 160.878560 13.781113 0.000000
703.486270 160.820850 13.770530 0.000000
703.826780 160.755290 13.759644 0.000000
711.400510 161.014210 13.704793 0.000000
718.877260 136.768940 13.794870 0.000000
695.845760 136.790730 13.748750 0.000000
696.193240 136.798460 13.751209 0.000000
697.338320 136.823960 13.756419 0.000000
699.396000 136.869840 13.754785 0.000000
699.744630 136.876710 13.753037 0.000000
700.213320 136.888090 13.750240 0.000000
700.568850 136.896060 13.747631 0.000000
700.928960 136.904080 13.744539 0.000000
701.416020 136.914980 13.739756 0.000000
701.787350 136.923280 13.735655 0.000000
702.165410 136.931750 13.731020 0.000000
702.549560 136.940350 13.725942 0.000000
702.810060 136.946150 13.722249 0.000000
703.341920 136.958100 13.714144 0.000000
703.613830 136.964160 13.709714 0.000000
711.658870 136.868990 13.918876 0.000000
698.984990 138.219390 13.845361 0.000000
698.600890 138.925920 13.893381 0.000000
697.721800 139.454990 13.930071 0.000000
698.545650 140.245180 13.767878 0.000000
697.531560 140.300960 13.985840 0.000000
698.675420 140.552840 13.793826 0.000000
698.837400 140.578920 13.794745 0.000000
696.163510 141.283390 13.855118 0.000000
697.806270 141.640980 13.803769 0.000000
697.379330 142.227020 13.777086 0.000000
696.988530 142.396290 13.876327 0.000000
697.185120 142.403640 13.878058 0.000000
697.899050 142.462010 13.883770 0.000000
698.028140 142.473430 13.883646 0.000000
698.945920 142.817840 13.669977 0.000000
699.677610 143.005160 13.833328 0.000000
700.552610 143.055800 13.976218 0.000000
698.606690 143.279100 14.031959 0.000000
698.920840 143.213880 14.022543 0.000000
699.313540 143.142120 13.702479 0.000000
699.823970 143.158860 13.845509 0.000000
700.493900 143.191800 13.909651 0.000000
700.792970 143.159810 13.978082 0.000000
701.211730 143.217640 13.970135 0.000000
698.128420 143.866620 13.954477 0.000000
697.892210 144.180860 13.737795 0.000000
698.060120 144.000090 13.903767 0.000000
698.467470 144.086300 13.974228 0.000000
698.943120 144.076130 13.964794 0.000000
699.154170 144.099870 13.962540 0.000000
701.422730 144.124630 13.879427 0.000000
701.618650 144.238190 13.803130 0.000000
698.072390 144.351590 13.823090 0.000000
698.476680 144.460270 14.014706 0.000000
698.702760 144.625460 14.028645 0.000000
699.387080 144.388140 13.858320 0.000000
714.356570 144.563520 13.738150 0.000000
698.575320 144.971300 13.901891 0.000000
698.899600 145.035490 13.956378 0.000000
698.913510 145.303410 13.883419 0.000000
699.312010 145.306850 13.811359 0.000000
699.257450 145.496190 13.790432 0.000000
695.846070 136.788860 14.036764 0.000000
696.193480 136.795670 14.181495 0.000000
697.338070 136.822110 14.041594 0.000000
697.679320 136.828780 14.184462 0.000000
698.705260 136.852570 14.042749 0.000000
699.106450 136.860600 14.185637 0.000000
699.395080 136.867950 14.042152 0.000000
699.743410 136.875730 14.041543 0.000000
700.270450 136.886550 14.185362 0.000000
700.566890 136.893170 14.184987 0.000000
700.927430 136.902150 14.038061 0.000000
701.474980 136.913410 14.183952 0.000000
701.785520 136.921300 14.034198 0.000000
702.163450 136.929730 14.032136 0.000000
702.547490 136.938340 14.029858 0.000000
702.939760 136.947100 14.027294 0.000000
703.338260 136.954990 14.179405 0.000000
703.611270 136.962080 14.022465 0.000000
697.179870 139.601650 14.387940 0.000000
697.534060 140.027820 14.182976 0.000000
695.788390 140.917130 14.018438 0.000000
697.815060 141.425420 14.244606 0.000000
697.962950 141.415660 14.428892 0.000000
697.812260 141.496000 14.064526 0.000000
697.959350 141.480580 14.246988 0.000000
696.883850 142.453610 14.288382 0.000000
697.165950 142.464170 14.289081 0.000000
697.898860 142.455760 14.127622 0.000000
698.020080 142.563340 14.214514 0.000000
697.082950 143.964900 14.421008 0.000000
701.469480 144.188600 14.341257 0.000000
701.613400 144.234510 14.264983 0.000000
714.349550 144.557050 14.125574 0.000000
699.603450 145.330670 14.517232 0.000000
718.875610 136.757420 14.343033 0.000000
695.904600 136.787380 14.467867 0.000000
697.110960 136.855070 14.610707 0.000000
697.337650 136.818410 14.610804 0.000000
697.735900 136.828190 14.469024 0.000000
698.020200 136.834530 14.469434 0.000000
698.990720 136.856160 14.471430 0.000000
699.394170 136.866070 14.329044 0.000000
699.858830 136.876450 14.329665 0.000000
700.327510 136.884990 14.620281 0.000000
700.564880 136.890300 14.621656 0.000000
700.925230 136.899260 14.477506 0.000000
701.350460 136.908710 14.479429 0.000000
701.782840 136.918350 14.481153 0.000000
702.097110 136.925350 14.482409 0.000000
703.002260 136.945500 14.487535 0.000000
711.651310 136.866210 14.339367 0.000000
697.357850 139.454830 14.384830 0.000000
697.969180 141.306110 14.707390 0.000000
700.339360 141.208860 14.824477 0.000000
696.969060 142.596310 14.692448 0.000000
697.124880 142.523590 14.693199 0.000000
698.082760 142.567410 14.614067 0.000000
695.819270 143.333400 14.763081 0.000000
696.914550 144.097490 14.677028 0.000000
698.286930 144.212310 14.615878 0.000000
698.345460 144.153210 14.805797 0.000000
701.431030 144.130310 14.644359 0.000000
701.609130 144.231250 14.647375 0.000000
696.589420 144.460590 14.853184 0.000000
696.755000 144.442520 14.674953 0.000000
698.490480 144.401290 14.678687 0.000000
698.710270 144.574510 14.796551 0.000000
714.349120 144.544140 14.705657 0.000000
696.541630 144.742840 14.728256 0.000000
698.904600 144.753340 14.851694 0.000000
699.242800 145.039290 14.791477 0.000000
699.318790 145.124150 14.679807 0.000000
699.672180 145.345340 14.737906 0.000000
699.934570 145.448840 14.852048 0.000000
700.086610 145.560530 14.743645 0.000000
709.558840 158.201130 15.132777 0.000000
696.576350 160.624310 15.090263 0.000000
699.228390 160.633670 15.095390 0.000000
718.866270 136.750730 14.891045 0.000000
697.111080 136.862290 14.894380 0.000000
697.337460 136.816540 14.895389 0.000000
697.678530 136.824160 14.895616 0.000000
698.019530 136.831760 14.896189 0.000000
699.047000 136.854640 14.900353 0.000000
699.856690 136.872670 14.906053 0.000000
700.326290 136.883070 14.910341 0.000000
700.923030 136.896350 14.916817 0.000000
701.409360 136.907150 14.922887 0.000000
702.030820 136.920970 14.931645 0.000000
702.932920 136.940960 14.946373 0.000000
703.330200 136.953950 14.953454 0.000000
711.643800 136.863450 14.759438 0.000000
696.373350 140.422650 15.027287 0.000000
700.387940 141.058960 15.030801 0.000000
698.008850 141.259200 15.084039 0.000000
700.097960 141.174870 15.119402 0.000000
696.811040 142.608890 15.010632 0.000000
697.124630 142.516920 14.933825 0.000000
698.208440 142.578860 15.093646 0.000000
696.910830 142.664660 15.165023 0.000000
698.881590 143.359420 15.200637 0.000000
696.496640 144.193910 14.991031 0.000000
698.414250 144.039810 15.132446 0.000000
698.806210 144.167940 15.130572 0.000000
701.422240 144.114400 15.103252 0.000000
701.604980 144.227970 15.029958 0.000000
696.158080 144.495880 15.098431 0.000000
696.453610 144.512660 14.971294 0.000000
698.668880 144.319530 14.989751 0.000000
698.902400 144.491590 15.045783 0.000000
699.298520 144.449400 15.248992 0.000000
714.358950 144.527980 15.286459 0.000000
695.759520 144.956360 15.186262 0.000000
696.142700 144.822590 15.014711 0.000000
699.047240 144.760930 14.971198 0.000000
699.292600 144.886900 15.029808 0.000000
699.639830 144.968410 15.155762 0.000000
696.029300 145.079790 14.943898 0.000000
699.712280 145.195400 15.025328 0.000000
700.062010 145.312590 15.093275 0.000000
700.412350 145.417420 15.164150 0.000000
700.683410 145.465880 15.238928 0.000000
700.208070 145.510120 14.972335 0.000000
700.493900 145.573150 15.041970 0.000000
700.769900 145.614850 15.116249 0.000000
710.499630 157.867400 15.474431 0.000000
710.750790 157.704900 15.476771 0.000000
711.346440 157.731990 15.500992 0.000000
709.971680 158.159450 15.467901 0.000000
706.648680 158.606260 15.373274 0.000000
709.511720 158.636120 15.473519 0.000000
709.052670 159.103580 15.479922 0.000000
708.806580 159.404600 15.486442 0.000000
708.395140 159.906600 15.498202 0.000000
695.813420 160.620590 15.329527 0.000000
696.291260 160.621510 15.327346 0.000000
696.670350 160.622970 15.326300 0.000000
697.424130 160.625750 15.325930 0.000000
699.228700 160.631710 15.334292 0.000000
718.864620 136.739230 15.439418 0.000000
695.847600 136.781630 15.330784 0.000000
697.109680 136.810180 15.180569 0.000000
697.337160 136.813780 15.323099 0.000000
697.678220 136.822300 15.180434 0.000000
698.019100 136.829910 15.181067 0.000000
699.160580 136.854370 15.331115 0.000000
700.325010 136.881160 15.200754 0.000000
700.800840 136.892730 15.207983 0.000000
702.028870 136.918960 15.231570 0.000000
703.062990 136.940320 15.256516 0.000000
711.636290 136.860690 15.179482 0.000000
697.356080 139.321330 15.533693 0.000000
696.095340 139.567020 15.292974 0.000000
697.716190 139.568130 15.513000 0.000000
695.970760 139.960050 15.269092 0.000000
697.020810 140.074830 15.253830 0.000000
697.189270 139.986880 15.259200 0.000000
697.703120 140.079280 15.253749 0.000000
701.778260 139.884550 15.348564 0.000000
698.938050 140.423170 15.452077 0.000000
699.346740 140.500260 15.453801 0.000000
700.751340 140.508190 15.495611 0.000000
701.169620 140.394680 15.297811 0.000000
698.804080 140.760560 15.218828 0.000000
698.045230 141.265930 15.462122 0.000000
699.761840 142.017350 15.518060 0.000000
698.206790 142.583130 15.415998 0.000000
698.432070 142.338010 15.446140 0.000000
696.628910 142.680370 15.564455 0.000000
696.883240 142.715190 15.477095 0.000000
698.381040 142.719250 15.563448 0.000000
699.047610 143.639510 15.323030 0.000000
699.102970 143.854320 15.440440 0.000000
701.340520 143.602980 15.612574 0.000000
699.304020 144.049000 15.425406 0.000000
697.305730 144.635710 15.301664 0.000000
699.569340 144.439790 15.391473 0.000000
714.366880 144.516770 15.675026 0.000000
700.119200 145.013370 15.360952 0.000000
700.237180 145.098010 15.360630 0.000000
700.551940 145.318590 15.363338 0.000000
700.770630 145.426350 15.372094 0.000000
700.906490 145.487950 15.378861 0.000000
706.576970 158.233660 15.623366 0.000000
706.614870 158.565250 15.786459 0.000000
703.893740 158.910030 15.797188 0.000000
706.676270 158.935440 15.817910 0.000000
706.864560 159.446750 16.015465 0.000000
704.897950 159.940190 15.945707 0.000000
705.272770 160.068470 15.977608 0.000000
704.078550 160.698910 15.976980 0.000000
707.342650 161.057220 15.854490 0.000000
695.847960 136.777710 15.764496 0.000000
696.995480 136.802990 15.753555 0.000000
699.159300 136.851560 15.762732 0.000000
699.853390 136.867100 15.773937 0.000000
702.280330 136.922580 15.539613 0.000000
711.628780 136.857880 15.599907 0.000000
697.346130 138.047390 15.904826 0.000000
697.544190 138.819700 15.820742 0.000000
699.682070 139.746480 15.983090 0.000000
701.502140 139.539760 15.847109 0.000000
699.104920 139.926330 15.719563 0.000000
699.325440 140.170270 15.698876 0.000000
699.591860 140.158360 15.707482 0.000000
700.112300 140.222840 15.717750 0.000000
698.044800 141.262150 15.748198 0.000000
699.376040 141.790770 15.711970 0.000000
699.505130 141.868330 15.707067 0.000000
700.064880 142.004240 15.715054 0.000000
714.318850 144.197510 16.061844 0.000000
714.316160 144.524050 16.060070 0.000000
714.313480 144.846890 16.058786 0.000000
706.490720 157.304280 16.335804 0.000000
706.517760 157.741780 16.118427 0.000000
706.573490 158.218830 16.168495 0.000000
703.542600 158.903000 16.141294 0.000000
704.005680 159.061770 16.067280 0.000000
709.122990 159.831180 16.193668 0.000000
704.952940 160.008670 16.234318 0.000000
704.066100 160.672710 16.254471 0.000000
704.323550 160.663850 16.268612 0.000000
704.604980 160.682880 16.287821 0.000000
707.297300 160.998990 16.175806 0.000000
718.862730 136.727940 15.988763 0.000000
695.964110 136.778410 16.052954 0.000000
696.995420 136.801510 16.041483 0.000000
697.790770 136.819050 16.039833 0.000000
698.017760 136.824310 16.040524 0.000000
700.558720 136.878250 16.083836 0.000000
711.621220 136.855120 16.021112 0.000000
701.700560 139.029660 16.165552 0.000000
714.317810 144.189070 16.453703 0.000000
714.315060 144.515640 16.449659 0.000000
714.312380 144.838500 16.446249 0.000000
706.509520 157.052000 16.570087 0.000000
706.537350 157.336980 16.607487 0.000000
706.601380 157.804730 16.536209 0.000000
706.709530 158.337330 16.470310 0.000000
710.348690 158.714950 16.541382 0.000000
710.557560 158.524990 16.544647 0.000000
702.996580 158.918180 16.463524 0.000000
710.026250 158.987870 16.535686 0.000000
703.340820 159.111760 16.521603 0.000000
709.571780 159.494740 16.540554 0.000000
709.748470 159.288910 16.537468 0.000000
704.333500 159.881710 16.450823 0.000000
707.440670 159.669830 16.691673 0.000000
709.393490 159.698810 16.543865 0.000000
704.795100 160.161830 16.522661 0.000000
704.055050 160.648850 16.532690 0.000000
704.336120 160.677670 16.556427 0.000000
702.064210 161.025970 16.735302 0.000000
702.682980 160.848720 16.745636 0.000000
703.851200 160.733350 16.812893 0.000000
707.234440 160.917590 16.655550 0.000000
707.408810 160.721920 16.812145 0.000000
718.860350 136.716860 16.539574 0.000000
696.881530 136.797070 16.331718 0.000000
697.336430 136.807240 16.329020 0.000000
697.676880 136.814820 16.328672 0.000000
698.017330 136.822420 16.329542 0.000000
699.387450 136.854520 16.346907 0.000000
699.734990 136.860920 16.355083 0.000000
700.084840 136.868290 16.364428 0.000000
703.053410 136.932510 16.497133 0.000000
703.319700 136.939420 16.513206 0.000000
703.590580 136.945370 16.530354 0.000000
711.613650 136.852330 16.443491 0.000000
714.316710 144.180590 16.847418 0.000000
714.314030 144.507190 16.841093 0.000000
714.311280 144.830090 16.835545 0.000000
711.412480 158.063840 16.947657 0.000000
710.758180 158.483170 16.912317 0.000000
707.344790 158.911700 16.896843 0.000000
710.356020 158.879200 16.906094 0.000000
709.999880 159.301100 16.909960 0.000000
709.800720 159.668980 16.926888 0.000000
707.341980 160.642170 17.124271 0.000000
709.837460 160.425380 17.011061 0.000000
707.168950 160.833240 17.132469 0.000000
718.861210 136.703780 17.092747 0.000000
711.606080 136.849530 16.867474 0.000000
712.359130 158.264110 17.456879 0.000000
711.718380 158.574520 17.402481 0.000000
711.980220 158.388980 17.418402 0.000000
711.465820 158.760730 17.388645 0.000000
710.826600 159.375290 17.373175 0.000000
710.643550 159.776810 17.395975 0.000000
711.964170 136.969890 17.325644 0.000000
712.483830 136.970120 17.386370 0.000000
713.023740 136.971390 17.450335 0.000000
713.608280 136.955600 17.521858 0.000000
715.462460 136.968550 17.258574 0.000000
716.123540 136.981890 17.329676 0.000000
716.836060 136.983550 17.407919 0.000000
717.586730 136.985400 17.491306 0.000000
720.650760 156.078340 12.756625 0.000000
707.952450 156.298510 12.752847 0.000000
708.076540 156.023190 12.755263 0.000000
709.811890 156.324040 12.764930 0.000000
720.698550 156.511370 12.751797 0.000000
707.820800 156.571370 12.750502 0.000000
709.585270 156.717240 12.772774 0.000000
709.734620 156.541980 12.763227 0.000000
712.158080 156.736470 12.766953 0.000000
706.453370 145.326340 12.901501 0.000000
706.837650 145.486080 12.859555 0.000000
707.926760 145.321380 12.907176 0.000000
708.400700 145.512470 12.857916 0.000000
709.997680 145.391100 12.897301 0.000000
710.321960 145.500980 12.865220 0.000000
712.792050 145.416640 12.885280 0.000000
713.237240 145.558700 12.846599 0.000000
716.400450 145.296570 12.908491 0.000000
717.053470 145.473270 12.861112 0.000000
717.914060 145.625900 12.794669 0.000000
707.129700 145.616740 12.827379 0.000000
707.421260 145.854080 12.804345 0.000000
708.779970 145.662580 12.816946 0.000000
709.059570 145.972920 12.801415 0.000000
711.018800 145.855470 12.802122 0.000000
713.693730 145.711750 12.806813 0.000000
713.773500 145.975140 12.811719 0.000000
718.405030 145.881260 12.763259 0.000000
707.615110 146.144470 12.799753 0.000000
709.219790 146.230040 12.797280 0.000000
711.268550 146.261810 12.795445 0.000000
714.035890 146.195800 12.794721 0.000000
714.185120 146.448470 12.790711 0.000000
718.726870 146.182770 12.747542 0.000000
719.203060 146.468170 12.717472 0.000000
707.888920 146.595200 12.793247 0.000000
709.423100 146.581650 12.792121 0.000000
711.448360 146.574280 12.790505 0.000000
714.332460 146.704730 12.786518 0.000000
719.665100 146.770580 12.688676 0.000000
708.305180 147.016020 12.756021 0.000000
708.832030 147.057480 12.669869 0.000000
709.753360 147.011150 12.770866 0.000000
710.455140 147.054210 12.668963 0.000000
711.734740 146.989240 12.775932 0.000000
712.599000 147.058110 12.668533 0.000000
714.513430 146.958270 12.778090 0.000000
715.641600 147.061400 12.661333 0.000000
720.380740 147.054920 12.636892 0.000000
708.909850 147.327060 12.674626 0.000000
708.959590 147.603440 12.683471 0.000000
710.530030 147.257370 12.669302 0.000000
710.560730 147.470310 12.676210 0.000000
712.714660 147.419980 12.670465 0.000000
715.788150 147.500090 12.662506 0.000000
720.434020 147.436310 12.644811 0.000000
709.000550 147.880780 12.692427 0.000000
710.599730 147.790210 12.686520 0.000000
712.751040 147.923020 12.687236 0.000000
715.795530 147.958890 12.678277 0.000000
720.373350 147.828720 12.662336 0.000000
709.044130 148.251460 12.704422 0.000000
710.638790 148.217240 12.700320 0.000000
712.764650 148.300320 12.700153 0.000000
715.794620 148.263890 12.688617 0.000000
709.074710 148.622680 12.716406 0.000000
710.658390 148.644910 12.714816 0.000000
712.767210 148.676880 12.713035 0.000000
715.780820 148.720180 12.704279 0.000000
709.088930 148.994280 12.728969 0.000000
710.661990 149.071930 12.729418 0.000000
712.760620 149.052610 12.725936 0.000000
715.638730 149.179600 12.732808 0.000000
720.713680 148.965240 12.664957 0.000000
709.089110 149.365370 12.741678 0.000000
710.650330 149.497650 12.744028 0.000000
712.743100 149.427030 12.738799 0.000000
715.600830 149.479770 12.744726 0.000000
720.641240 149.354840 12.681061 0.000000
709.076350 149.735340 12.754360 0.000000
710.632390 149.815840 12.754946 0.000000
712.716740 149.800080 12.751637 0.000000
715.562990 149.778350 12.756016 0.000000
720.569340 149.741640 12.696462 0.000000
709.046690 150.195690 12.769246 0.000000
710.605100 150.132660 12.765837 0.000000
712.681210 150.171280 12.764214 0.000000
715.528750 150.075610 12.766321 0.000000
720.482540 150.509310 12.720409 0.000000
720.505430 150.125930 12.710522 0.000000
709.042300 150.656680 12.776397 0.000000
710.601930 150.555590 12.773379 0.000000
712.689640 150.667450 12.771790 0.000000
715.518620 150.669830 12.778865 0.000000
720.516480 150.894940 12.724828 0.000000
709.036320 151.026840 12.779902 0.000000
710.607300 150.980560 12.777375 0.000000
712.695130 151.040830 12.776175 0.000000
715.538150 150.968860 12.781641 0.000000
720.550540 151.282390 12.728681 0.000000
709.017400 151.397520 12.783411 0.000000
710.596860 151.406570 12.781516 0.000000
712.682430 151.414310 12.781514 0.000000
715.650270 151.427670 12.775829 0.000000
720.584720 151.671880 12.731971 0.000000
708.984920 151.768140 12.786992 0.000000
710.561280 151.831500 12.787181 0.000000
712.650510 151.912320 12.788675 0.000000
715.636960 151.879560 12.782374 0.000000
720.618590 152.063630 12.734729 0.000000
708.934810 152.137300 12.791353 0.000000
710.507810 152.255200 12.793283 0.000000
712.615840 152.285680 12.794003 0.000000
715.619570 152.180880 12.786893 0.000000
708.827030 152.686370 12.799243 0.000000
708.885130 152.412510 12.795281 0.000000
710.439090 152.677460 12.799379 0.000000
712.569580 152.658390 12.799394 0.000000
715.585390 152.633160 12.793400 0.000000
720.154790 152.783390 12.783529 0.000000
708.739200 153.049650 12.804424 0.000000
710.355590 153.097780 12.805410 0.000000
712.515560 153.030620 12.804631 0.000000
715.679930 153.111630 12.785043 0.000000
720.186340 153.173680 12.784708 0.000000
708.639590 153.410570 12.809342 0.000000
710.284060 153.411620 12.809849 0.000000
712.472600 153.277980 12.808253 0.000000
720.313350 153.583420 12.777288 0.000000
708.591670 153.793620 12.802604 0.000000
710.267330 153.745120 12.804368 0.000000
712.463320 153.796200 12.803808 0.000000
715.491700 153.850430 12.804882 0.000000
720.375670 153.987840 12.774779 0.000000
708.550720 154.186570 12.791993 0.000000
710.263240 154.203720 12.792117 0.000000
712.485470 154.200390 12.794997 0.000000
715.501040 154.324340 12.802117 0.000000
720.433720 154.396240 12.772068 0.000000
708.494510 154.581340 12.781420 0.000000
710.241760 154.666850 12.779878 0.000000
712.455750 154.594150 12.791676 0.000000
715.355220 154.601640 12.815707 0.000000
720.639650 154.842850 12.756357 0.000000
708.423280 154.977520 12.770785 0.000000
710.189210 155.005490 12.774704 0.000000
712.406620 154.986770 12.789315 0.000000
715.490360 154.960820 12.798693 0.000000
708.330690 155.371060 12.761258 0.000000
710.108400 155.336440 12.772303 0.000000
712.326720 155.511960 12.785911 0.000000
715.543700 155.467680 12.787838 0.000000
720.398990 155.597780 12.777958 0.000000
708.192320 155.745880 12.757521 0.000000
709.986210 155.776260 12.769157 0.000000
712.255250 155.906630 12.783247 0.000000
715.429630 155.923920 12.793687 0.000000
709.885190 156.105530 12.766593 0.000000
712.171390 156.301390 12.780561 0.000000
715.398130 156.247060 12.791958 0.000000
707.062810 156.731670 12.842992 0.000000
707.358830 156.719210 12.803266 0.000000
708.825380 156.755680 12.868348 0.000000
709.191160 156.733780 12.822840 0.000000
711.113530 156.771790 12.886647 0.000000
711.606320 156.747570 12.830770 0.000000
714.265620 156.781200 12.895982 0.000000
715.104920 156.636950 12.814730 0.000000
719.034670 156.802090 12.888182 0.000000
720.235600 156.787960 12.789230 0.000000
706.176760 157.076800 12.928314 0.000000
706.563170 156.928090 12.892337 0.000000
706.837650 156.792940 12.868156 0.000000
707.926640 157.152790 12.953425 0.000000
708.270870 157.018480 12.920635 0.000000
708.604920 156.865890 12.889219 0.000000
710.303650 157.154570 12.961561 0.000000
710.587340 157.041960 12.934948 0.000000
710.854130 156.912220 12.910437 0.000000
713.166990 157.236050 12.993176 0.000000
713.531250 157.093830 12.961297 0.000000
713.879820 156.934130 12.930842 0.000000
718.066650 157.244660 12.964165 0.000000
718.609130 157.051330 12.921482 0.000000
704.650210 157.510410 13.064240 0.000000
705.021910 157.418640 13.032874 0.000000
705.402710 157.318890 12.999216 0.000000
705.790890 157.208240 12.963659 0.000000
706.659970 157.525250 13.072235 0.000000
707.109070 157.400620 13.031384 0.000000
707.455140 157.300400 12.998892 0.000000
707.691890 157.230510 12.976020 0.000000
708.994260 157.541610 13.083985 0.000000
709.417970 157.422760 13.045280 0.000000
709.858520 157.295390 13.003884 0.000000
711.992130 157.553860 13.096529 0.000000
712.370910 157.452620 13.063698 0.000000
712.762150 157.346710 13.029293 0.000000
717.031740 157.602580 13.044078 0.000000
717.763920 157.516690 12.986164 0.000000
702.997920 157.863910 13.183046 0.000000
703.416630 157.782840 13.156324 0.000000
703.846370 157.692930 13.126386 0.000000
704.287600 157.595470 13.093290 0.000000
705.388920 157.838670 13.179237 0.000000
705.799500 157.742220 13.146257 0.000000
706.222170 157.637270 13.110780 0.000000
707.796450 157.855390 13.188234 0.000000
708.185610 157.758590 13.155148 0.000000
708.583500 157.654460 13.120622 0.000000
710.922180 157.831630 13.186577 0.000000
711.446660 157.696900 13.142890 0.000000
715.142400 157.859680 13.190207 0.000000
715.739930 157.779860 13.144478 0.000000
716.368040 157.694050 13.095914 0.000000
705.966250 141.770480 13.231396 0.000000
706.327760 141.951390 13.222837 0.000000
709.543820 141.744890 13.241045 0.000000
709.909300 141.928880 13.228745 0.000000
715.172790 141.789290 13.231587 0.000000
703.283260 142.114730 13.243354 0.000000
703.573850 142.253690 13.241339 0.000000
706.504940 142.050350 13.219070 0.000000
706.779110 142.196460 13.211782 0.000000
707.049930 142.351960 13.204919 0.000000
710.418820 142.177870 13.209778 0.000000
710.812870 142.372190 13.194274 0.000000
715.514590 142.166200 13.230485 0.000000
716.004640 142.309780 13.208460 0.000000
695.905270 142.532170 13.247947 0.000000
700.795840 142.427000 13.248314 0.000000
701.128970 142.507540 13.245899 0.000000
701.526370 142.620610 13.242925 0.000000
701.789730 142.705550 13.240890 0.000000
704.016360 142.463330 13.235402 0.000000
704.396730 142.635010 13.226683 0.000000
704.623230 142.746750 13.221563 0.000000
707.230530 142.459610 13.200211 0.000000
707.500920 142.627590 13.193028 0.000000
711.223570 142.572800 13.177001 0.000000
711.641970 142.782790 13.158985 0.000000
716.454960 142.484470 13.189921 0.000000
716.920410 142.666370 13.170429 0.000000
717.531680 142.807830 13.139866 0.000000
696.419740 143.053990 13.200413 0.000000
696.731750 143.014740 13.207921 0.000000
697.165410 142.972790 13.216801 0.000000
697.596130 142.945140 13.223944 0.000000
697.963200 142.933290 13.228568 0.000000
698.389590 142.932800 13.232199 0.000000
698.815370 142.931500 13.231276 0.000000
699.181270 142.938340 13.228294 0.000000
699.548220 142.958560 13.224558 0.000000
700.412230 143.043840 13.209816 0.000000
700.786560 143.098920 13.201172 0.000000
701.922300 142.748140 13.239214 0.000000
702.477970 142.889190 13.222335 0.000000
702.763060 142.963410 13.211536 0.000000
703.196410 143.085630 13.193863 0.000000
704.862790 142.849610 13.213293 0.000000
705.203490 142.974380 13.197638 0.000000
705.549680 143.108170 13.180981 0.000000
707.770450 142.802440 13.185774 0.000000
707.976200 142.903930 13.176821 0.000000
708.313230 143.045550 13.159185 0.000000
708.656430 143.194090 13.140793 0.000000
711.929930 142.927410 13.146052 0.000000
712.397090 143.142260 13.122999 0.000000
717.874820 143.062820 13.130321 0.000000
695.979310 143.123210 13.188184 0.000000
696.231630 143.081410 13.195446 0.000000
701.163940 143.165420 13.191050 0.000000
701.544920 143.243550 13.179351 0.000000
702.319270 143.437000 13.151073 0.000000
702.581420 143.512570 13.140184 0.000000
703.563290 143.198380 13.177674 0.000000
703.934450 143.325000 13.160473 0.000000
704.307430 143.466770 13.142900 0.000000
705.903810 143.249530 13.162864 0.000000
706.354130 143.442490 13.138925 0.000000
708.889710 143.297810 13.127978 0.000000
709.245240 143.461470 13.108054 0.000000
712.874570 143.369030 13.099036 0.000000
713.202580 143.527540 13.082169 0.000000
719.105100 143.429310 13.070371 0.000000
719.553590 143.690380 13.053339 0.000000
702.779910 143.573640 13.131376 0.000000
703.113710 143.683560 13.115692 0.000000
703.519590 143.828750 13.095146 0.000000
703.793520 143.933500 13.080368 0.000000
704.533870 143.557630 13.131667 0.000000
704.761840 143.654420 13.120035 0.000000
705.149660 143.823610 13.098736 0.000000
706.814150 143.651180 13.113283 0.000000
707.190310 143.831590 13.091347 0.000000
707.477360 143.974320 13.074032 0.000000
709.609380 143.632170 13.087049 0.000000
709.968510 143.820860 13.066825 0.000000
713.536870 143.692460 13.064739 0.000000
713.878850 143.863600 13.046603 0.000000
714.339970 144.000110 13.016515 0.000000
720.528630 143.819820 12.997737 0.000000
703.998960 144.020000 13.069234 0.000000
704.342530 144.175810 13.050111 0.000000
704.621340 144.307130 13.033533 0.000000
705.543150 144.006330 13.076025 0.000000
705.945010 144.204440 13.051327 0.000000
706.271850 144.372590 13.030277 0.000000
707.670780 144.074070 13.062129 0.000000
707.965700 144.229830 13.043433 0.000000
708.264890 144.392470 13.023995 0.000000
710.333980 144.018280 13.045759 0.000000
710.705690 144.228230 13.023879 0.000000
714.585510 144.226500 13.008270 0.000000
704.832280 144.412060 13.020446 0.000000
705.188050 144.597460 12.997246 0.000000
705.476010 144.754590 12.977553 0.000000
706.437560 144.461040 13.019223 0.000000
706.774050 144.646850 12.995914 0.000000
708.466860 144.505940 13.010597 0.000000
708.774480 144.683440 12.989652 0.000000
711.215520 144.523250 12.992819 0.000000
711.607120 144.757460 12.968300 0.000000
714.356200 144.615880 13.046829 0.000000
715.180360 144.664220 12.981123 0.000000
715.640320 144.847290 12.951655 0.000000
705.621580 144.836910 12.967194 0.000000
705.915710 145.009630 12.945467 0.000000
707.203120 144.892990 12.964819 0.000000
707.553160 145.104600 12.938313 0.000000
709.193540 144.932750 12.960176 0.000000
709.512700 145.130660 12.937161 0.000000
712.009890 145.004940 12.942298 0.000000
716.016420 145.067470 12.930448 0.000000
706.212950 145.190780 12.922697 0.000000
709.726680 145.269260 12.921535 0.000000
702.668820 157.923580 13.202630 0.000000
704.990170 157.928070 13.209732 0.000000
707.420530 157.945950 13.219181 0.000000
710.256470 157.996350 13.240505 0.000000
710.585690 157.916430 13.214016 0.000000
714.109920 158.045230 13.267117 0.000000
714.582400 157.938670 13.232524 0.000000
695.847290 158.041600 13.284189 0.000000
696.222110 158.087550 13.296698 0.000000
696.667240 158.135560 13.308904 0.000000
697.035220 158.169510 13.316844 0.000000
697.401120 158.197740 13.322583 0.000000
697.838620 158.224780 13.326883 0.000000
698.275570 158.241090 13.328792 0.000000
698.639830 158.246810 13.328608 0.000000
699.004760 158.246840 13.326315 0.000000
699.444460 158.239030 13.321166 0.000000
699.812870 158.225010 13.314985 0.000000
700.184080 158.205050 13.306620 0.000000
700.634090 158.173830 13.293877 0.000000
701.013670 158.141560 13.280942 0.000000
701.398740 158.102710 13.265613 0.000000
701.789430 158.057980 13.248080 0.000000
702.185910 158.002720 13.228519 0.000000
702.506530 157.951250 13.211723 0.000000
702.966610 158.313490 13.339247 0.000000
703.405460 158.239640 13.314858 0.000000
703.854550 158.157910 13.287908 0.000000
704.223750 158.087170 13.263950 0.000000
704.602230 158.010940 13.237892 0.000000
705.796940 158.305600 13.341898 0.000000
706.240480 158.212690 13.310265 0.000000
706.699100 158.111740 13.276073 0.000000
707.054260 158.031770 13.248540 0.000000
708.723210 158.340590 13.358326 0.000000
709.015380 158.278080 13.336641 0.000000
709.466800 158.177660 13.302384 0.000000
709.933780 158.071290 13.266128 0.000000
712.376100 158.418750 13.390013 0.000000
712.790710 158.334210 13.361185 0.000000
713.217350 158.243910 13.331149 0.000000
713.655940 158.147220 13.299892 0.000000
695.806090 158.415180 13.427259 0.000000
696.198670 158.457310 13.439277 0.000000
696.586120 158.496000 13.448753 0.000000
697.047180 158.535740 13.457553 0.000000
697.429020 158.563260 13.462811 0.000000
697.809450 158.585360 13.466019 0.000000
698.265440 158.605590 13.467424 0.000000
698.645810 158.617190 13.466571 0.000000
699.027400 158.621610 13.463935 0.000000
699.410280 158.616940 13.460093 0.000000
699.795290 158.604630 13.454485 0.000000
700.261050 158.582950 13.445265 0.000000
700.653380 158.559160 13.435432 0.000000
701.050780 158.529450 13.423382 0.000000
701.453490 158.494280 13.409329 0.000000
701.780640 158.461650 13.396418 0.000000
702.196530 158.414730 13.378130 0.000000
702.620730 158.362010 13.357502 0.000000
703.786870 158.709730 13.461902 0.000000
704.155520 158.619310 13.444614 0.000000
704.544920 158.543550 13.422894 0.000000
704.950320 158.470550 13.398062 0.000000
705.367130 158.391270 13.371127 0.000000
707.193850 158.758030 13.458975 0.000000
707.412480 158.669480 13.447130 0.000000
707.889770 158.515950 13.417789 0.000000
708.161620 158.460140 13.398754 0.000000
708.439510 158.401890 13.378922 0.000000
711.383420 158.768300 13.453170 0.000000
711.669430 158.630800 13.436330 0.000000
717.205320 158.840670 13.468395 0.000000
718.027280 158.819600 13.420298 0.000000
718.813720 158.754900 13.374080 0.000000
719.651180 158.685180 13.324419 0.000000
720.665530 158.657650 13.263588 0.000000
695.907650 158.905460 13.578989 0.000000
696.226070 158.981720 13.582100 0.000000
696.545410 159.052220 13.584349 0.000000
701.484070 159.101240 13.547817 0.000000
701.828190 159.059570 13.537638 0.000000
702.175600 159.011440 13.526406 0.000000
702.614990 158.941360 13.510808 0.000000
703.059810 158.860870 13.493608 0.000000
703.421080 158.789140 13.478355 0.000000
706.231260 159.123870 13.507461 0.000000
706.665770 158.979390 13.485352 0.000000
706.984070 158.851320 13.469477 0.000000
710.547850 159.157420 13.500263 0.000000
710.963200 158.967470 13.477165 0.000000
716.882930 159.083690 13.485553 0.000000
696.786130 159.098910 13.585790 0.000000
697.027470 159.142530 13.586635 0.000000
697.431520 159.205870 13.587216 0.000000
697.837770 159.257480 13.586915 0.000000
698.246520 159.296740 13.585478 0.000000
698.656680 159.287990 13.587090 0.000000
698.983460 159.256500 13.589300 0.000000
699.391480 159.224880 13.589033 0.000000
699.803160 159.216630 13.583992 0.000000
700.218140 159.201550 13.577120 0.000000
700.636110 159.177760 13.568898 0.000000
700.973330 159.151790 13.561200 0.000000
701.227840 159.128460 13.554820 0.000000
704.957090 159.483180 13.566952 0.000000
705.375000 159.372620 13.548529 0.000000
705.799740 159.253230 13.528692 0.000000
709.450010 159.599400 13.558724 0.000000
709.869140 159.451160 13.536411 0.000000
710.275270 159.278960 13.514988 0.000000
715.801270 159.506290 13.543919 0.000000
716.470890 159.272690 13.507874 0.000000
703.330750 159.816570 13.630513 0.000000
703.733950 159.754930 13.615462 0.000000
704.139220 159.678250 13.599936 0.000000
704.545350 159.584980 13.584066 0.000000
708.352540 159.936680 13.614675 0.000000
708.623540 159.859280 13.601202 0.000000
709.032840 159.732410 13.580482 0.000000
714.900510 159.965640 13.589317 0.000000
715.282230 159.801410 13.570065 0.000000
707.828800 160.090940 13.639422 0.000000
708.090580 160.016890 13.627109 0.000000
713.816350 160.440770 13.641683 0.000000
714.026120 160.190570 13.634065 0.000000
714.522030 160.122070 13.608106 0.000000
713.632020 160.707860 13.647326 0.000000
708.859680 136.183060 13.191175 0.000000
709.278320 136.380220 13.189273 0.000000
716.123600 136.402210 13.358558 0.000000
709.351620 136.764600 13.214436 0.000000
696.563050 136.806950 13.456064 0.000000
696.796510 136.812150 13.458798 0.000000
697.041140 136.927460 13.470989 0.000000
699.314150 136.868800 13.471149 0.000000
699.599180 136.880770 13.327557 0.000000
700.114620 136.886120 13.468321 0.000000
700.460210 136.893880 13.466184 0.000000
700.808410 136.901660 13.463369 0.000000
701.201660 136.994310 13.322976 0.000000
701.618410 136.980820 13.314591 0.000000
701.991940 136.928150 13.449558 0.000000
702.355040 136.939100 13.444283 0.000000
709.704280 136.810090 13.203079 0.000000
716.390140 137.162580 13.386024 0.000000
700.196840 137.142030 13.207285 0.000000
701.344670 137.146560 13.190973 0.000000
702.009950 137.305660 13.194333 0.000000
702.243650 137.319990 13.190351 0.000000
702.898620 137.527560 13.194921 0.000000
709.744690 137.217090 13.230564 0.000000
716.570980 137.503050 13.395767 0.000000
695.831670 137.778270 13.258505 0.000000
696.884030 137.486740 13.243478 0.000000
697.107060 137.515750 13.249164 0.000000
702.647950 137.554060 13.204711 0.000000
703.233700 137.615140 13.194061 0.000000
703.498720 137.873120 13.212397 0.000000
709.763980 137.632640 13.259224 0.000000
710.068540 137.734210 13.252918 0.000000
716.909970 137.737490 13.394649 0.000000
703.753110 138.136760 13.230802 0.000000
