# .PCD v0.7 - Point Cloud Data file format
VERSION 0.7
FIELDS x y z intensity
SIZE 4 4 4 4
TYPE F F F F
COUNT 1 1 1 1
WIDTH 1166
HEIGHT 1
VIEWPOINT 0 0 0 1 0 0 0
POINTS 1166
DATA ascii
744.412840 251.933350 16.405579 0.000000
742.524290 252.210250 16.427988 0.000000
745.337100 252.243650 16.444183 0.000000
720.949280 253.731370 15.966857 0.000000
721.454900 253.675350 15.958602 0.000000
721.780700 253.887180 15.987061 0.000000
722.194520 253.983020 15.999172 0.000000
722.711610 253.955990 15.993962 0.000000
723.037780 254.183870 16.023701 0.000000
723.466430 254.290770 16.036358 0.000000
723.827820 254.485430 16.060841 0.000000
724.339720 254.517120 16.062355 0.000000
724.695740 254.732440 16.089020 0.000000
725.236270 254.760530 16.089252 0.000000
726.518070 255.264530 16.146053 0.000000
727.106020 255.305470 16.146328 0.000000
727.468510 255.561430 16.176367 0.000000
728.084530 255.609010 16.176582 0.000000
728.483890 255.852070 16.203911 0.000000
729.185360 255.865430 16.198158 0.000000
729.614010 256.108460 16.224483 0.000000
730.328740 256.151550 16.221684 0.000000
730.678280 256.474210 16.258358 0.000000
731.138310 256.726380 16.284407 0.000000
720.905880 259.730900 16.397964 0.000000
731.364750 259.797910 16.661640 0.000000
721.037290 260.020970 16.437754 0.000000
731.224180 260.370420 16.733326 0.000000
723.131590 260.650760 16.474346 0.000000
731.649660 260.650880 16.760550 0.000000
720.889400 248.867070 15.866376 0.000000
721.392090 248.897200 15.876644 0.000000
721.965820 248.818540 15.874586 0.000000
722.521240 248.794490 15.878674 0.000000
722.816410 249.209430 15.931965 0.000000
723.379700 249.196140 15.937078 0.000000
724.019530 249.088470 15.931634 0.000000
724.570560 249.135500 15.943434 0.000000
725.133670 249.182040 15.955125 0.000000
725.795290 249.113980 15.954078 0.000000
726.444270 249.087690 15.957659 0.000000
726.762570 249.495130 16.009007 0.000000
727.450260 249.453410 16.010767 0.000000
728.046690 249.542310 16.026846 0.000000
728.775020 249.500610 16.028595 0.000000
729.106020 249.913650 16.079933 0.000000
729.818970 249.924970 16.087360 0.000000
731.886290 250.166200 16.131987 0.000000
732.472470 250.381060 16.161259 0.000000
733.049740 250.616940 16.192684 0.000000
734.172240 250.405330 16.176111 0.000000
734.805850 250.636510 16.206945 0.000000
737.693730 250.698580 16.232037 0.000000
735.621770 250.739530 16.224041 0.000000
736.236270 251.020320 16.259989 0.000000
738.482120 250.906330 16.260225 0.000000
720.932980 259.657010 16.768669 0.000000
721.041140 259.971070 16.809313 0.000000
741.909000 260.287870 17.315542 0.000000
731.209840 260.315770 17.282583 0.000000
731.607300 260.609380 17.316696 0.000000
742.115970 260.861850 17.378090 0.000000
720.963750 259.579250 17.140472 0.000000
721.044980 259.921170 17.180927 0.000000
744.216550 240.731140 16.168432 0.000000
745.590450 240.643250 16.191929 0.000000
741.668760 240.873790 16.122812 0.000000
742.925960 240.794400 16.144417 0.000000
734.053890 241.430800 15.999643 0.000000
735.029110 241.355510 16.015017 0.000000
736.053100 241.261640 16.029669 0.000000
737.099850 241.181610 16.046249 0.000000
738.169070 241.116610 16.064878 0.000000
727.364010 241.780870 15.877389 0.000000
728.117070 241.751400 15.892153 0.000000
728.903380 241.698970 15.905384 0.000000
729.704770 241.654040 15.919728 0.000000
730.521240 241.617540 15.935274 0.000000
731.352600 241.590330 15.952111 0.000000
732.223690 241.541230 15.967675 0.000000
733.137880 241.470120 15.982035 0.000000
721.226560 242.095260 15.764547 0.000000
721.862550 242.050660 15.775029 0.000000
722.497010 242.033940 15.788286 0.000000
723.152590 241.995900 15.799887 0.000000
723.818600 241.961620 15.812115 0.000000
724.495180 241.931760 15.825040 0.000000
725.197750 241.879070 15.836273 0.000000
725.896790 241.859420 15.850755 0.000000
726.624020 241.817140 15.863616 0.000000
720.928830 259.544010 17.707329 0.000000
720.968020 259.927150 17.743782 0.000000
721.369320 259.933930 17.947842 0.000000
741.879820 260.214900 18.078207 0.000000
731.185180 260.266510 17.831535 0.000000
731.543330 260.578770 17.871460 0.000000
742.019840 260.810880 18.141605 0.000000
720.960820 259.440980 18.271397 0.000000
741.830630 260.149110 18.840137 0.000000
720.865660 259.958530 18.302338 0.000000
721.274780 259.977140 18.326178 0.000000
731.065610 260.266660 18.380312 0.000000
731.360530 260.607570 18.424013 0.000000
741.833860 260.790370 18.900387 0.000000
720.850160 259.070100 18.625357 0.000000
720.967650 259.386690 18.650431 0.000000
721.373600 259.836730 18.703644 0.000000
720.774050 260.003080 18.670349 0.000000
721.521360 260.111760 18.729620 0.000000
730.984070 260.247440 18.925159 0.000000
722.958740 260.503270 18.858109 0.000000
723.718690 260.772280 18.523678 0.000000
731.281370 260.585390 18.971144 0.000000
720.801030 259.073940 19.007149 0.000000
720.955990 259.351200 19.030689 0.000000
721.868590 259.316650 19.107866 0.000000
721.494380 260.090360 19.106794 0.000000
741.755620 260.092590 19.600471 0.000000
723.328250 260.616700 18.892807 0.000000
724.381040 260.647370 18.975161 0.000000
741.757570 260.733670 19.656120 0.000000
742.750120 261.052490 19.748785 0.000000
721.927860 259.210910 19.509743 0.000000
731.547490 259.380740 19.461035 0.000000
721.649480 259.900090 19.498817 0.000000
723.053960 259.966030 19.241358 0.000000
723.357120 260.136110 19.276913 0.000000
723.719180 260.266170 19.316553 0.000000
730.908020 260.225590 19.467928 0.000000
731.839900 260.242650 19.545742 0.000000
721.615110 260.339480 19.507271 0.000000
724.599000 260.441040 19.407814 0.000000
725.205080 260.432250 19.465200 0.000000
731.362000 260.970370 19.558624 0.000000
721.036560 256.811340 19.372900 0.000000
741.488100 257.470760 20.146364 0.000000
731.491820 259.346860 20.024717 0.000000
723.157410 259.830690 19.657120 0.000000
723.622920 259.872860 19.709087 0.000000
724.063900 259.948820 19.760113 0.000000
725.319270 259.869510 19.897568 0.000000
730.772220 260.235440 20.004990 0.000000
732.001220 260.097500 20.121683 0.000000
741.666930 260.041080 20.358843 0.000000
721.658140 260.254610 19.891680 0.000000
731.253110 260.961670 20.098930 0.000000
742.883540 260.925600 20.534304 0.000000
745.138850 258.077240 20.501587 0.000000
728.972350 258.267490 20.252035 0.000000
729.338130 258.533330 20.305235 0.000000
721.975220 259.115750 19.916424 0.000000
723.932190 259.131620 20.155748 0.000000
724.159670 259.388280 20.188980 0.000000
724.855830 259.279540 20.275492 0.000000
725.462950 259.264710 20.353336 0.000000
744.301330 259.787380 20.564829 0.000000
730.423710 259.872990 20.494003 0.000000
734.427060 259.969670 20.363102 0.000000
721.919130 260.378940 20.311743 0.000000
730.619320 260.254820 20.536425 0.000000
732.386900 258.247380 20.651390 0.000000
724.426450 258.662900 20.662806 0.000000
722.020630 259.021760 20.328625 0.000000
741.605100 259.979980 21.118290 0.000000
732.349610 260.366270 20.753120 0.000000
738.537480 258.609280 21.420645 0.000000
731.428040 259.252690 21.158401 0.000000
730.468440 260.273680 21.063745 0.000000
732.422970 260.265500 21.340393 0.000000
733.779970 256.788330 21.395397 0.000000
741.316830 259.357570 21.814297 0.000000
742.956670 259.404170 22.025391 0.000000
730.108760 259.924560 21.543413 0.000000
730.314450 260.294620 21.586809 0.000000
731.552370 257.517550 21.712852 0.000000
731.977720 257.804600 21.785236 0.000000
733.540950 259.111600 22.069683 0.000000
732.480650 260.171630 21.932980 0.000000
741.045350 259.378200 22.549351 0.000000
742.306640 256.842770 22.603186 0.000000
743.107060 259.261350 22.847546 0.000000
744.383060 255.817470 23.724276 0.000000
733.583920 256.800140 16.315777 0.000000
721.250370 257.048950 16.040188 0.000000
721.516300 257.228580 16.064404 0.000000
733.967160 257.126040 16.352238 0.000000
734.562740 257.329930 16.370193 0.000000
721.777160 257.415470 16.089457 0.000000
722.177120 257.431300 16.085333 0.000000
734.815920 257.748380 16.419270 0.000000
723.090700 258.354100 16.209625 0.000000
723.534420 258.359470 16.201197 0.000000
723.606200 258.751160 16.258564 0.000000
735.524350 259.032960 16.568573 0.000000
723.793880 259.020020 16.294567 0.000000
723.991210 259.277280 16.328247 0.000000
724.310730 259.423190 16.342136 0.000000
735.373660 259.651310 16.646664 0.000000
736.405880 259.699400 16.636826 0.000000
724.524410 260.090300 16.434568 0.000000
724.804380 260.274720 16.453987 0.000000
736.269650 260.305390 16.712439 0.000000
736.180480 260.877110 16.782787 0.000000
740.861330 251.200970 16.323349 0.000000
741.640320 251.454440 16.357243 0.000000
742.397710 251.742480 16.394726 0.000000
743.212830 252.015260 16.430542 0.000000
744.024170 252.312420 16.468870 0.000000
720.971370 253.622190 15.966839 0.000000
721.367550 253.677290 15.975508 0.000000
721.692140 253.857560 16.001381 0.000000
722.160710 253.816410 15.996057 0.000000
722.559570 253.896880 16.007431 0.000000
723.052190 253.852450 16.001074 0.000000
723.371400 254.066130 16.030449 0.000000
724.296330 254.128250 16.037277 0.000000
723.783260 254.157260 16.042412 0.000000
724.622860 254.348820 16.066692 0.000000
725.104980 254.385210 16.070034 0.000000
726.278560 254.874790 16.131243 0.000000
726.816710 254.899410 16.131485 0.000000
727.174620 255.122240 16.159199 0.000000
727.734310 255.154110 16.159649 0.000000
728.100520 255.384980 16.187737 0.000000
728.687260 255.421810 16.187998 0.000000
729.052310 255.670590 16.217827 0.000000
729.667600 255.713870 16.218039 0.000000
730.070190 255.949680 16.245152 0.000000
730.770510 255.959260 16.239471 0.000000
731.202700 256.195220 16.265629 0.000000
732.095210 256.391110 16.281094 0.000000
732.737430 256.793640 16.325249 0.000000
720.863280 257.042820 16.044521 0.000000
720.968140 259.375490 16.406328 0.000000
720.965270 259.812840 16.473549 0.000000
724.239260 259.914830 16.416218 0.000000
731.205630 260.317660 16.789438 0.000000
724.866270 260.834500 16.532961 0.000000
731.559750 260.595920 16.818941 0.000000
720.959660 249.188290 15.889524 0.000000
721.495240 249.084300 15.884802 0.000000
721.979430 249.107240 15.894713 0.000000
722.470210 249.132310 15.904808 0.000000
722.969060 249.157550 15.914865 0.000000
723.536680 249.077910 15.912893 0.000000
724.087280 249.050690 15.916903 0.000000
725.577700 249.325490 15.969119 0.000000
727.938230 249.370570 16.001774 0.000000
724.384950 249.451030 15.969455 0.000000
724.943730 249.434480 15.974515 0.000000
726.125610 249.367260 15.980751 0.000000
726.672850 249.426220 15.994272 0.000000
727.312740 249.377230 15.995647 0.000000
728.256710 249.767110 16.052818 0.000000
728.937680 249.722700 16.054623 0.000000
730.589230 250.157350 16.122810 0.000000
731.297550 250.163910 16.130186 0.000000
732.026000 250.174040 16.137966 0.000000
732.794490 250.169710 16.144190 0.000000
733.357850 250.384280 16.174292 0.000000
733.945500 250.589070 16.203239 0.000000
735.731570 250.523470 16.209549 0.000000
734.556340 250.787230 16.231380 0.000000
736.370970 250.744380 16.240145 0.000000
737.190670 250.839190 16.257114 0.000000
739.266420 250.785080 16.265091 0.000000
740.062870 250.982440 16.293114 0.000000
737.812680 251.109380 16.292873 0.000000
720.969120 259.762730 16.820826 0.000000
721.088070 260.048400 16.859142 0.000000
741.919980 260.241090 17.349119 0.000000
731.191530 260.265560 17.305328 0.000000
731.520080 260.557100 17.340048 0.000000
742.098450 260.794920 17.410807 0.000000
741.757630 241.337970 16.139187 0.000000
731.102360 242.102840 15.958841 0.000000
731.909970 242.060780 15.974144 0.000000
734.500310 241.896040 16.020164 0.000000
735.416200 241.840440 16.036709 0.000000
726.649110 242.358120 15.876855 0.000000
727.339170 242.333720 15.891115 0.000000
728.057250 242.286620 15.903726 0.000000
729.532410 242.210820 15.931783 0.000000
721.525700 242.658810 15.783247 0.000000
722.732910 242.600460 15.806589 0.000000
723.359680 242.551760 15.816815 0.000000
720.951420 259.714840 17.344481 0.000000
721.090880 260.000340 17.203766 0.000000
741.889040 260.171330 18.076572 0.000000
721.046080 260.005650 17.553120 0.000000
731.169680 260.217930 17.820900 0.000000
731.461790 260.528530 17.859898 0.000000
742.000980 260.748410 18.138559 0.000000
745.507080 241.078170 16.203613 0.000000
740.613950 241.412310 16.119036 0.000000
742.971560 241.238740 16.158497 0.000000
744.222410 241.150620 16.179838 0.000000
738.433960 241.575610 16.082840 0.000000
739.495120 241.503720 16.101242 0.000000
730.309750 242.153140 15.944751 0.000000
732.732600 242.027800 15.990749 0.000000
733.595090 241.972780 16.006054 0.000000
724.631350 242.488420 15.841208 0.000000
725.288150 242.449750 15.853198 0.000000
725.955630 242.415390 15.865887 0.000000
728.788330 242.245380 15.917255 0.000000
720.934020 242.691990 15.772280 0.000000
722.125180 242.628130 15.794666 0.000000
723.984920 242.530780 15.829855 0.000000
720.883610 259.725370 17.870932 0.000000
721.116520 259.881530 17.893383 0.000000
721.461430 259.917690 17.909945 0.000000
720.880550 259.246430 18.187614 0.000000
720.852970 259.715700 18.218573 0.000000
721.184020 259.970700 18.253967 0.000000
731.058960 260.220550 18.336773 0.000000
741.824650 260.114140 18.803108 0.000000
731.334660 260.537570 18.377945 0.000000
741.832700 260.727360 18.861855 0.000000
720.871090 259.211030 18.542759 0.000000
720.802550 259.729460 18.565290 0.000000
720.963680 259.964230 18.588587 0.000000
721.357790 259.940060 18.614180 0.000000
721.553650 260.140010 18.638613 0.000000
730.951970 260.221560 18.848291 0.000000
724.471310 260.658360 18.881281 0.000000
731.267820 260.514280 18.891920 0.000000
731.592590 260.807800 18.936478 0.000000
720.835880 259.206850 18.897909 0.000000
721.907780 259.289580 18.988529 0.000000
720.891480 260.001460 18.930975 0.000000
721.540770 260.108610 18.989218 0.000000
722.530580 259.913880 19.066221 0.000000
723.110170 260.177760 19.128281 0.000000
730.887270 260.198820 19.357817 0.000000
731.815120 260.154480 19.430618 0.000000
741.767880 260.054290 19.528412 0.000000
723.545040 260.391200 19.176765 0.000000
724.109440 260.507630 19.233519 0.000000
731.323850 260.889310 19.442888 0.000000
742.667110 260.974550 19.668518 0.000000
744.896120 260.882570 19.807545 0.000000
720.820980 259.177890 19.254034 0.000000
721.911010 259.238070 19.359972 0.000000
720.809200 260.050600 19.269705 0.000000
721.562620 260.040040 19.343485 0.000000
723.187320 260.059170 19.510406 0.000000
723.628780 260.065890 19.557270 0.000000
724.140750 260.026490 19.610832 0.000000
721.689270 260.311680 19.362642 0.000000
734.076480 258.846410 20.115118 0.000000
720.799740 259.156620 19.610773 0.000000
721.951420 259.145020 19.737984 0.000000
723.496950 259.295810 19.919304 0.000000
723.647640 259.582460 19.941116 0.000000
724.016970 259.668210 19.987434 0.000000
744.246030 259.697600 20.447983 0.000000
724.983400 260.149350 19.706600 0.000000
725.512390 260.145810 19.765024 0.000000
730.790830 260.194490 19.864073 0.000000
733.719060 260.073760 20.154858 0.000000
741.662350 260.012970 20.250572 0.000000
721.679990 260.276210 19.714861 0.000000
733.848390 260.512630 20.196379 0.000000
731.285580 260.850310 19.954123 0.000000
728.935790 258.478300 20.087717 0.000000
721.989440 259.053830 20.121071 0.000000
723.598080 259.147550 20.332623 0.000000
725.878110 259.374020 20.215061 0.000000
731.458440 259.260710 20.414852 0.000000
724.425480 259.729890 20.038919 0.000000
725.056640 259.616730 20.115852 0.000000
730.648130 260.217100 20.363787 0.000000
721.702330 260.207700 20.073462 0.000000
732.234190 260.286380 20.558901 0.000000
728.884030 257.456970 20.558756 0.000000
729.325930 257.629240 20.619986 0.000000
723.429320 258.870640 20.311060 0.000000
724.512760 258.722960 20.458549 0.000000
744.806460 259.407140 21.277069 0.000000
730.503420 260.241390 20.859116 0.000000
731.424130 259.218440 20.949127 0.000000
739.249760 259.025050 21.355747 0.000000
732.357480 260.157900 21.115862 0.000000
739.891480 256.862090 21.313631 0.000000
740.321110 257.288360 21.389744 0.000000
731.434270 259.148960 21.491707 0.000000
742.922610 259.364650 21.840467 0.000000
732.432130 260.054470 21.675760 0.000000
738.303590 259.945160 21.962620 0.000000
745.399660 257.711760 22.050335 0.000000
741.163510 259.345250 22.350584 0.000000
743.098140 259.210940 22.628874 0.000000
744.178890 255.216060 23.419056 0.000000
744.801090 253.513110 16.511961 0.000000
745.625670 253.806030 16.550390 0.000000
721.087220 254.235790 15.981627 0.000000
721.449890 254.290620 15.991044 0.000000
721.865540 254.257600 15.987377 0.000000
722.552490 254.481190 16.021549 0.000000
722.117550 254.527150 16.027620 0.000000
722.926880 254.550280 16.032007 0.000000
723.305360 254.621930 16.042562 0.000000
723.614990 254.805590 16.069180 0.000000
724.073240 254.775820 16.064375 0.000000
725.258730 255.029570 16.098246 0.000000
725.662660 255.121920 16.110054 0.000000
726.326900 255.209990 16.119741 0.000000
726.908080 255.418700 16.146410 0.000000
727.264470 255.601290 16.170120 0.000000
727.943360 255.737610 16.184778 0.000000
728.650940 255.871900 16.198343 0.000000
729.006230 256.087650 16.225494 0.000000
729.559940 256.128110 16.226330 0.000000
729.923950 256.352720 16.254005 0.000000
730.505370 256.398710 16.254707 0.000000
730.869870 256.640560 16.284115 0.000000
731.481450 256.693120 16.284763 0.000000
731.885070 256.923370 16.311516 0.000000
732.581910 256.946170 16.306515 0.000000
733.015560 257.178380 16.332510 0.000000
733.729920 257.228450 16.330284 0.000000
734.151980 257.493650 16.360147 0.000000
721.068970 257.328280 16.057152 0.000000
721.527340 257.444700 16.071283 0.000000
721.829100 257.536130 16.082561 0.000000
722.134580 257.627690 16.093462 0.000000
722.958440 258.056060 16.150419 0.000000
723.050540 258.431030 16.209202 0.000000
723.132690 258.805050 16.267649 0.000000
723.492370 258.845310 16.267258 0.000000
734.942320 259.142970 16.566105 0.000000
723.612300 259.163820 16.315445 0.000000
724.004520 259.180660 16.309999 0.000000
734.867680 259.697850 16.639299 0.000000
735.749450 259.746150 16.632044 0.000000
724.120910 259.497220 16.357250 0.000000
731.409300 259.766690 16.698084 0.000000
720.945800 259.795010 16.463905 0.000000
724.227600 259.816190 16.404739 0.000000
724.631650 259.839020 16.398922 0.000000
731.215820 260.346650 16.777245 0.000000
735.619570 260.323970 16.708349 0.000000
724.709840 260.180180 16.449831 0.000000
724.889340 260.421330 16.482489 0.000000
731.549500 260.599730 16.805733 0.000000
735.600520 260.834960 16.773979 0.000000
725.078310 260.652740 16.513065 0.000000
725.374820 260.792880 16.526579 0.000000
721.763120 250.018600 15.887983 0.000000
720.855220 250.039430 15.876939 0.000000
721.306210 250.027970 15.882360 0.000000
722.046810 250.403760 15.941658 0.000000
722.516110 250.382340 15.945592 0.000000
723.505430 250.292800 15.947687 0.000000
723.976440 250.320340 15.957431 0.000000
724.454280 250.349910 15.967360 0.000000
724.940310 250.379790 15.977264 0.000000
725.489070 250.322450 15.976659 0.000000
726.014340 250.323550 15.983035 0.000000
729.710270 250.758350 16.077066 0.000000
726.288760 250.719440 16.036470 0.000000
726.820980 250.730710 16.043877 0.000000
728.475950 250.790470 16.068964 0.000000
729.099370 250.755600 16.070803 0.000000
730.026180 251.125610 16.126072 0.000000
730.691530 251.095610 16.128372 0.000000
731.273990 251.179470 16.143970 0.000000
731.982240 251.147960 16.146088 0.000000
732.317570 251.519530 16.195049 0.000000
733.013310 251.536930 16.202751 0.000000
733.730100 251.557460 16.210815 0.000000
734.514400 251.540100 16.214508 0.000000
735.108090 251.718060 16.240696 0.000000
737.505680 251.851490 16.273048 0.000000
735.728760 251.887920 16.265873 0.000000
736.342900 252.079330 16.293442 0.000000
738.150150 252.065890 16.303204 0.000000
738.971130 252.166580 16.320347 0.000000
740.961670 252.205140 16.336197 0.000000
739.598080 252.430590 16.355993 0.000000
741.691650 252.449650 16.369589 0.000000
742.421630 252.713610 16.405087 0.000000
741.909360 260.218720 17.292452 0.000000
720.948360 259.745330 16.788933 0.000000
731.201350 260.296050 17.261337 0.000000
742.060790 260.753510 17.355118 0.000000
731.511110 260.562740 17.294733 0.000000
743.165040 243.526860 16.213686 0.000000
744.358280 243.446460 16.232964 0.000000
745.588810 243.377350 16.254341 0.000000
738.897220 243.779620 16.140961 0.000000
739.911740 243.710370 16.157255 0.000000
740.948910 243.655750 16.175667 0.000000
734.323430 244.110230 16.069492 0.000000
736.075680 243.964630 16.094818 0.000000
736.966370 243.924060 16.111317 0.000000
729.173830 244.232800 15.961967 0.000000
729.868840 244.196270 15.974315 0.000000
730.576780 244.165680 15.987605 0.000000
731.297610 244.141750 16.001923 0.000000
723.572940 244.472080 15.856504 0.000000
724.732240 244.431630 15.879316 0.000000
725.335690 244.392380 15.889218 0.000000
727.836980 244.294160 15.937254 0.000000
720.814880 244.593220 15.804930 0.000000
721.347530 244.580660 15.816065 0.000000
721.892760 244.551120 15.825653 0.000000
722.445250 244.522920 15.835558 0.000000
741.896000 260.142550 17.984877 0.000000
720.942930 259.683690 17.278103 0.000000
721.578980 259.692960 17.459509 0.000000
731.187010 260.245540 17.744806 0.000000
721.053590 259.974430 17.313972 0.000000
742.044560 243.582820 16.193468 0.000000
735.176450 244.048770 16.082844 0.000000
737.905640 243.862290 16.126659 0.000000
728.507510 244.247340 15.947914 0.000000
724.148560 244.450320 15.867651 0.000000
725.936830 244.380480 15.902033 0.000000
726.559750 244.347730 15.913098 0.000000
727.193050 244.318760 15.924816 0.000000
723.005250 244.496400 15.845824 0.000000
720.905700 259.666660 17.770689 0.000000
741.981570 260.702240 18.047550 0.000000
720.987430 259.996190 17.803484 0.000000
721.385560 259.899350 17.809263 0.000000
731.471250 260.526860 17.781967 0.000000
741.804750 260.097350 18.677137 0.000000
720.876710 259.661530 18.097965 0.000000
731.090640 260.245640 18.229568 0.000000
720.978210 259.963530 18.124908 0.000000
721.310240 259.952550 18.140598 0.000000
721.654790 259.937320 18.156807 0.000000
731.340880 260.544830 18.269159 0.000000
741.842470 260.674010 18.736715 0.000000
723.808780 260.797790 18.336184 0.000000
720.851140 259.189000 18.399096 0.000000
720.840030 259.667300 18.424377 0.000000
720.929380 259.985080 18.447357 0.000000
721.307920 259.910160 18.466946 0.000000
721.502080 260.085690 18.489193 0.000000
730.989870 260.248930 18.710419 0.000000
731.278320 260.523100 18.751478 0.000000
731.603390 260.780550 18.793640 0.000000
723.430910 260.734560 18.657377 0.000000
723.829770 260.731900 18.685350 0.000000
720.840330 259.157040 18.733528 0.000000
741.767640 260.030850 19.368025 0.000000
721.634400 259.432770 18.803009 0.000000
720.861570 260.010500 18.927050 0.000000
721.474120 260.076050 18.815731 0.000000
722.256530 259.954250 18.872517 0.000000
730.937380 260.222560 19.189226 0.000000
731.362730 260.413420 19.237305 0.000000
744.344670 260.899260 19.615658 0.000000
722.970460 260.377470 18.949057 0.000000
723.220700 260.511470 18.976107 0.000000
723.538150 260.582060 19.006386 0.000000
723.896480 260.621610 19.039150 0.000000
724.292910 260.636600 19.074478 0.000000
725.325740 260.496580 19.159281 0.000000
731.380310 260.849880 19.271545 0.000000
720.798160 259.171480 19.067160 0.000000
721.696350 259.302890 19.148193 0.000000
720.765690 260.074980 19.401443 0.000000
721.498600 259.999360 19.145367 0.000000
730.858460 260.212890 19.665735 0.000000
721.626100 260.234410 19.327097 0.000000
724.500670 260.395170 19.450518 0.000000
725.438110 260.349640 19.547565 0.000000
731.289430 260.843690 19.748417 0.000000
723.766600 260.700960 19.384846 0.000000
733.475460 259.080540 19.852432 0.000000
720.762700 259.127840 19.738230 0.000000
721.756350 259.174770 19.499933 0.000000
722.839230 259.163060 19.614334 0.000000
741.657290 259.993800 20.055544 0.000000
730.560300 259.893160 20.099649 0.000000
723.032590 259.806000 19.641611 0.000000
723.348940 259.876950 19.678085 0.000000
723.670410 259.950650 19.715828 0.000000
724.188350 259.834960 19.774218 0.000000
724.612240 259.832180 19.824055 0.000000
725.029850 259.849910 19.874186 0.000000
725.492250 259.840520 19.929892 0.000000
730.737670 260.229710 20.137024 0.000000
721.662350 260.121280 19.827129 0.000000
721.811220 259.052550 19.857964 0.000000
722.104000 259.126160 19.891340 0.000000
723.942080 259.186130 20.118187 0.000000
722.943180 259.431950 19.990330 0.000000
723.358030 259.392910 20.042692 0.000000
724.187380 259.361300 20.149492 0.000000
724.502750 259.467680 20.190884 0.000000
724.914980 259.486570 20.245918 0.000000
726.027160 259.783600 19.994156 0.000000
732.157170 260.279660 20.306917 0.000000
742.249450 255.182600 20.474710 0.000000
742.068600 255.953900 20.508015 0.000000
742.099240 256.596710 20.554945 0.000000
729.016780 258.160000 20.327898 0.000000
729.315120 258.402250 20.372231 0.000000
725.568360 259.291170 20.333792 0.000000
730.425110 259.922520 20.566740 0.000000
730.606450 260.253600 20.603792 0.000000
732.275210 260.148680 20.827858 0.000000
741.486330 259.900210 21.428762 0.000000
730.388610 260.111300 21.049364 0.000000
732.391780 260.017460 21.358158 0.000000
738.092350 257.921420 21.537521 0.000000
744.672360 259.246730 21.785414 0.000000
739.227420 260.198910 21.818398 0.000000
743.066040 259.166500 22.317768 0.000000
737.867190 259.642090 22.224030 0.000000
740.957460 259.367920 22.720629 0.000000
742.524840 255.436110 22.809143 0.000000
745.332150 252.980120 16.490217 0.000000
720.942570 253.936020 15.971178 0.000000
721.474240 253.988130 15.982712 0.000000
721.880800 253.917660 15.974751 0.000000
722.131530 254.200230 16.017986 0.000000
722.541380 254.144470 16.011690 0.000000
722.902590 254.201810 16.021610 0.000000
723.267030 254.261000 16.031553 0.000000
723.687010 254.228780 16.027948 0.000000
725.138430 254.602110 16.083862 0.000000
725.449710 254.789080 16.110746 0.000000
726.110110 254.802050 16.111647 0.000000
726.794980 254.812410 16.111557 0.000000
727.109010 255.021010 16.140408 0.000000
727.516540 255.115800 16.152399 0.000000
728.025760 255.099590 16.147886 0.000000
728.349060 255.314670 16.176743 0.000000
728.773190 255.420410 16.189323 0.000000
729.131900 255.606510 16.213299 0.000000
729.639710 255.643980 16.215172 0.000000
729.995180 255.849320 16.241255 0.000000
730.531920 255.885130 16.242071 0.000000
730.889280 256.104830 16.269518 0.000000
731.449220 256.147830 16.270508 0.000000
731.815190 256.376650 16.298500 0.000000
732.403440 256.424990 16.299330 0.000000
732.769780 256.671420 16.329073 0.000000
733.388550 256.726720 16.329876 0.000000
733.794800 256.961400 16.356941 0.000000
734.533140 256.963130 16.348503 0.000000
734.959900 257.207730 16.375978 0.000000
720.896730 256.903590 16.040888 0.000000
721.193540 256.962130 16.049335 0.000000
721.617980 257.100250 16.069880 0.000000
722.094420 257.153200 16.075155 0.000000
723.319030 257.452580 16.111940 0.000000
723.623230 257.545500 16.123253 0.000000
723.914490 257.662320 16.138285 0.000000
736.142460 258.054810 16.472616 0.000000
736.962520 258.096160 16.466633 0.000000
724.014530 258.044890 16.198860 0.000000
724.386600 258.053920 16.194517 0.000000
724.753600 258.081700 16.192921 0.000000
736.872500 258.689210 16.545237 0.000000
724.841610 258.463040 16.252430 0.000000
725.280700 258.886600 16.311516 0.000000
736.777830 259.269810 16.621937 0.000000
725.397280 259.210480 16.360296 0.000000
725.791200 259.230470 16.355181 0.000000
736.703490 259.825230 16.694721 0.000000
737.575810 259.886260 16.689102 0.000000
725.955570 259.714230 16.427017 0.000000
726.412720 259.902250 16.445549 0.000000
720.930050 259.751620 16.516567 0.000000
721.553040 259.691350 16.500198 0.000000
726.486820 260.248350 16.496977 0.000000
731.178470 260.293090 16.834074 0.000000
737.439940 260.467160 16.765406 0.000000
726.663820 260.493870 16.530090 0.000000
731.435420 260.559910 16.866026 0.000000
737.420350 260.979430 16.830759 0.000000
726.999150 260.800720 16.567921 0.000000
720.950620 249.960560 15.890052 0.000000
721.375670 249.971180 15.898483 0.000000
721.804440 249.984220 15.907135 0.000000
722.275760 249.898740 15.903646 0.000000
722.727050 249.886200 15.909048 0.000000
723.647770 249.866880 15.920391 0.000000
725.412230 250.150470 15.981218 0.000000
725.880740 250.196090 15.993161 0.000000
727.917240 250.250790 16.025063 0.000000
723.932130 250.259540 15.974737 0.000000
724.408260 250.238720 15.978807 0.000000
724.882570 250.238980 15.985376 0.000000
728.191280 250.653410 16.079031 0.000000
728.730100 250.666140 16.086632 0.000000
729.343510 250.593690 16.084150 0.000000
729.868840 250.662260 16.098282 0.000000
730.405760 250.730770 16.112345 0.000000
731.037720 250.696840 16.114351 0.000000
731.656860 250.701080 16.120821 0.000000
731.973210 251.074940 16.170357 0.000000
732.648010 251.046080 16.172846 0.000000
733.237610 251.132710 16.188740 0.000000
733.956240 251.102480 16.191059 0.000000
735.051510 251.448270 16.242537 0.000000
735.820070 251.433960 16.246635 0.000000
736.633610 251.405780 16.249159 0.000000
737.237180 251.588960 16.275883 0.000000
734.308900 251.464170 16.238640 0.000000
737.868470 251.764070 16.301598 0.000000
738.492860 251.961150 16.329741 0.000000
739.682980 251.731120 16.309340 0.000000
740.321290 251.964840 16.341589 0.000000
741.094970 252.115620 16.364384 0.000000
741.671330 252.427630 16.405293 0.000000
744.538330 252.723300 16.455742 0.000000
741.932130 260.541840 17.367479 0.000000
720.935180 259.696900 16.823162 0.000000
721.535280 259.673680 16.820379 0.000000
731.165100 260.245880 17.289085 0.000000
731.404600 260.523900 17.323704 0.000000
743.317140 243.338040 16.212181 0.000000
745.591370 243.207310 16.251467 0.000000
739.234680 243.610210 16.145706 0.000000
741.213380 243.463590 16.176342 0.000000
742.253540 243.393330 16.193178 0.000000
735.700200 243.838070 16.087315 0.000000
736.529050 243.798920 16.102545 0.000000
732.639530 243.943560 16.026855 0.000000
734.093810 243.940580 16.060661 0.000000
726.118040 244.194500 15.900851 0.000000
727.325320 244.136570 15.922941 0.000000
727.936770 244.125110 15.936055 0.000000
728.570620 244.092300 15.947396 0.000000
721.133300 244.417530 15.807906 0.000000
722.190430 244.368700 15.827450 0.000000
722.730830 244.336610 15.836677 0.000000
723.271670 244.324490 15.848061 0.000000
723.825500 244.294890 15.857870 0.000000
721.016300 259.855160 17.312677 0.000000
721.459780 259.725980 17.305201 0.000000
744.441350 243.263990 16.230587 0.000000
740.196900 243.547610 16.161543 0.000000
737.401920 243.736620 16.116320 0.000000
738.322810 243.651090 16.128712 0.000000
731.939580 243.942090 16.010273 0.000000
733.350950 243.951970 16.044456 0.000000
734.887820 243.886380 16.073458 0.000000
725.532900 244.216030 15.889442 0.000000
726.711490 244.176030 15.912789 0.000000
729.215210 244.063370 15.959408 0.000000
721.661320 244.384310 15.816719 0.000000
724.386900 244.266690 15.868006 0.000000
724.955930 244.240260 15.878512 0.000000
741.914490 260.471800 18.025517 0.000000
720.937190 259.578220 17.593939 0.000000
721.326350 259.872740 17.790308 0.000000
731.151730 260.198730 17.743517 0.000000
720.981020 259.968540 17.786808 0.000000
731.372190 260.489040 17.779972 0.000000
741.895020 260.402590 18.683451 0.000000
720.909000 259.558500 18.060928 0.000000
731.064330 260.202210 18.199558 0.000000
742.333250 260.796080 18.741848 0.000000
720.936950 259.998110 18.092854 0.000000
721.387210 259.965000 18.111380 0.000000
731.306210 260.476440 18.235825 0.000000
731.644470 260.691680 18.270620 0.000000
720.920840 259.491330 18.370657 0.000000
721.289180 259.842860 18.409561 0.000000
730.971250 260.210020 18.651976 0.000000
720.911870 259.996060 18.395775 0.000000
721.451780 260.047180 18.429661 0.000000
731.245670 260.460450 18.689262 0.000000
723.766110 260.750150 18.614634 0.000000
731.502750 260.725680 18.727016 0.000000
723.427670 260.746400 18.591858 0.000000
720.808170 259.081630 18.984446 0.000000
720.963320 259.369690 18.683306 0.000000
721.516970 259.425660 18.722757 0.000000
741.991580 260.285160 19.344875 0.000000
730.893190 260.207920 19.101349 0.000000
731.747310 260.071470 19.158360 0.000000
720.865110 260.008580 18.848495 0.000000
721.447080 259.987550 18.892641 0.000000
721.616520 260.176850 18.909380 0.000000
722.084660 259.948520 18.781090 0.000000
741.741330 260.951930 19.389750 0.000000
722.945250 260.486940 18.866268 0.000000
723.346310 260.601560 18.902557 0.000000
731.327390 260.781950 19.176435 0.000000
741.685360 259.764280 19.945862 0.000000
720.759280 259.123780 19.300592 0.000000
721.565490 259.299260 19.046534 0.000000
721.747250 259.202910 19.388885 0.000000
722.845340 259.675540 19.495461 0.000000
730.835940 260.191620 19.549606 0.000000
720.794740 260.061710 19.297453 0.000000
721.580570 260.165130 19.370304 0.000000
722.076600 259.869720 19.418810 0.000000
723.327510 260.147670 19.381416 0.000000
741.509460 260.967710 20.030514 0.000000
723.687560 260.352970 19.253342 0.000000
724.278500 260.485530 19.313568 0.000000
724.653260 260.478850 19.350214 0.000000
725.038330 260.474490 19.388475 0.000000
731.284060 260.754330 19.626375 0.000000
720.962710 256.929570 19.338137 0.000000
733.409360 258.904850 19.721834 0.000000
721.902340 259.151400 19.735987 0.000000
722.525450 259.625700 19.794872 0.000000
722.910280 259.539640 19.840061 0.000000
723.538150 259.598510 19.912682 0.000000
721.668150 259.986630 19.693411 0.000000
723.590450 260.010010 19.574703 0.000000
724.315980 259.989560 19.653612 0.000000
724.957090 260.109070 19.726978 0.000000
725.326660 260.131230 19.769756 0.000000
725.774290 260.087460 19.821314 0.000000
730.743960 260.199620 19.994244 0.000000
732.058170 260.198880 20.145483 0.000000
742.778260 261.040440 20.144526 0.000000
721.729860 260.335020 19.693365 0.000000
741.846440 256.596040 20.411440 0.000000
728.966490 258.395660 20.173536 0.000000
729.264890 258.601470 20.214624 0.000000
741.487610 259.773250 20.594994 0.000000
742.841130 259.772090 20.736269 0.000000
726.047300 259.338010 20.229406 0.000000
723.843320 259.652530 19.948729 0.000000
724.122990 259.744870 19.982008 0.000000
724.489010 259.743990 20.027508 0.000000
724.941160 259.660000 20.085165 0.000000
725.476810 259.505190 20.154612 0.000000
730.470030 259.902040 20.402905 0.000000
730.621150 260.229430 20.433344 0.000000
743.008480 260.874300 20.837358 0.000000
741.917720 255.918290 20.374340 0.000000
730.345340 259.936370 20.839758 0.000000
732.172180 260.066470 20.634733 0.000000
730.504330 260.255460 20.869801 0.000000
728.678590 257.137240 20.579266 0.000000
728.920230 257.406740 20.611954 0.000000
729.415830 257.438930 20.679440 0.000000
742.969910 259.636690 21.438051 0.000000
741.360110 259.751800 21.244659 0.000000
732.414060 260.301510 21.162737 0.000000
738.271790 258.409730 21.404505 0.000000
738.827090 258.661410 21.493885 0.000000
741.240360 259.727110 21.893057 0.000000
743.039250 259.525390 22.142891 0.000000
738.357910 259.908390 22.096004 0.000000
743.629330 261.063720 22.322962 0.000000
741.080630 259.720550 22.534426 0.000000
742.527710 257.237610 22.664803 0.000000
721.204900 254.258010 15.986238 0.000000
721.708620 254.311050 15.999071 0.000000
722.215330 254.371340 16.012531 0.000000
722.556460 254.413470 16.021481 0.000000
722.899540 254.458740 16.030670 0.000000
724.297420 254.663570 16.068565 0.000000
724.654480 254.720110 16.078217 0.000000
725.064150 254.690400 16.074804 0.000000
725.314150 254.951830 16.114393 0.000000
725.743590 254.908620 16.108461 0.000000
726.113340 254.977550 16.118921 0.000000
726.488100 255.047440 16.129251 0.000000
727.247380 255.199840 16.150957 0.000000
727.633420 255.280730 16.162075 0.000000
728.110170 255.250980 16.156445 0.000000
728.420230 255.451140 16.184696 0.000000
728.821040 255.541410 16.196297 0.000000
729.318300 255.526930 16.191971 0.000000
729.638240 255.733080 16.220190 0.000000
730.055970 255.833850 16.232365 0.000000
730.410030 256.012940 16.255901 0.000000
730.907350 256.049620 16.257782 0.000000
731.259950 256.246150 16.283232 0.000000
731.785890 256.281130 16.284056 0.000000
732.140380 256.492130 16.310936 0.000000
732.689640 256.533780 16.311897 0.000000
733.054080 256.752900 16.339214 0.000000
733.631410 256.799930 16.340036 0.000000
734.001710 257.032260 16.368507 0.000000
734.631470 257.068850 16.366688 0.000000
720.782960 256.983610 16.042656 0.000000
721.209170 257.048650 16.054317 0.000000
721.638670 257.119480 16.066162 0.000000
736.846250 257.620480 16.415445 0.000000
722.946410 257.363920 16.102844 0.000000
723.194520 257.513310 16.126562 0.000000
723.538570 257.489590 16.119806 0.000000
723.821660 257.583740 16.133196 0.000000
736.835630 258.162050 16.488972 0.000000
723.984620 257.880280 16.181555 0.000000
724.344300 257.853000 16.173035 0.000000
724.652950 257.917330 16.180113 0.000000
736.801150 258.705870 16.562784 0.000000
737.586980 258.745700 16.557096 0.000000
724.740840 258.313450 16.245008 0.000000
725.067750 258.353790 16.247177 0.000000
725.174440 258.703980 16.303507 0.000000
725.530400 258.713040 16.299393 0.000000
737.539000 259.291350 16.630653 0.000000
726.021480 259.264130 16.380898 0.000000
726.412230 259.479580 16.408360 0.000000
737.486270 259.827090 16.702618 0.000000
726.534670 259.778380 16.453991 0.000000
726.913090 259.797640 16.449083 0.000000
737.449650 260.342100 16.771252 0.000000
738.291200 260.400390 16.765827 0.000000
720.927190 259.748050 16.521057 0.000000
721.456240 259.742370 16.517803 0.000000
727.032590 260.094940 16.493866 0.000000
731.126160 260.229680 16.842997 0.000000
727.143070 260.394780 16.538906 0.000000
727.577640 260.578400 16.557459 0.000000
731.329710 260.504180 16.878298 0.000000
731.697510 260.664120 16.895636 0.000000
738.198670 260.940700 16.837982 0.000000
727.810180 260.957310 16.610926 0.000000
720.945560 261.068820 16.471998 0.000000
723.666200 250.511640 15.946975 0.000000
724.105900 250.500310 15.952266 0.000000
724.551450 250.490780 15.957723 0.000000
721.154360 250.543000 15.909231 0.000000
721.558040 250.549770 15.917232 0.000000
721.964540 250.559300 15.925496 0.000000
722.375180 250.568420 15.933628 0.000000
722.789670 250.578690 15.941822 0.000000
723.207640 250.591950 15.950315 0.000000
726.185120 250.888520 16.032993 0.000000
726.690860 250.820940 16.030903 0.000000
727.146120 250.865810 16.042660 0.000000
727.607060 250.913280 16.054665 0.000000
728.074890 250.961760 16.066730 0.000000
728.608950 250.917340 16.067358 0.000000
729.125670 250.920140 16.073734 0.000000
730.517940 251.245560 16.131105 0.000000
732.768370 251.350160 16.166840 0.000000
729.399230 251.300490 16.126062 0.000000
729.923100 251.313350 16.133492 0.000000
731.030030 251.310960 16.144840 0.000000
731.552980 251.376680 16.158554 0.000000
732.166500 251.345410 16.160536 0.000000
733.084960 251.703310 16.214876 0.000000
733.740300 251.676930 16.217333 0.000000
734.331480 251.742690 16.230783 0.000000
735.064210 251.679410 16.228840 0.000000
737.683040 251.970000 16.285511 0.000000
735.418820 252.021550 16.275059 0.000000
736.142210 252.007780 16.278931 0.000000
736.891050 251.995300 16.282970 0.000000
738.279170 252.142640 16.311361 0.000000
738.900630 252.309330 16.336432 0.000000
740.612490 252.324800 16.349232 0.000000
739.515320 252.497790 16.363979 0.000000
743.872990 252.804530 16.427097 0.000000
744.601440 253.042570 16.460136 0.000000
745.330020 253.300090 16.495338 0.000000
741.912720 260.177730 17.316727 0.000000
720.931090 259.690950 16.812538 0.000000
721.442200 259.723510 16.819996 0.000000
731.113830 260.184110 17.270403 0.000000
742.011840 260.682740 17.377554 0.000000
731.316590 260.459110 17.305710 0.000000
731.665040 260.632020 17.329050 0.000000
743.880860 244.418900 16.252089 0.000000
738.192260 244.779420 16.159225 0.000000
729.694700 245.064620 15.992404 0.000000
733.563600 245.022830 16.078123 0.000000
734.254390 245.023860 16.094372 0.000000
725.108580 245.246220 15.905443 0.000000
721.009520 259.753330 17.121363 0.000000
721.427730 259.705690 17.121027 0.000000
731.303530 260.414060 17.732538 0.000000
741.858580 244.531460 16.217348 0.000000
742.858520 244.467910 16.233652 0.000000
744.960940 244.352080 16.269905 0.000000
739.078370 244.700680 16.171186 0.000000
739.955750 244.664830 16.187702 0.000000
740.881230 244.608340 16.203049 0.000000
735.005130 244.965320 16.105413 0.000000
735.771730 244.913910 16.117615 0.000000
736.553960 244.870510 16.131069 0.000000
737.351990 244.835980 16.145876 0.000000
729.082280 245.094380 15.981404 0.000000
730.317380 245.038600 16.004061 0.000000
730.947080 245.022670 16.017004 0.000000
731.588930 245.008650 16.030437 0.000000
732.226380 245.023990 16.047026 0.000000
732.889470 245.020400 16.062113 0.000000
724.049930 245.283290 15.884834 0.000000
724.572940 245.273130 15.895921 0.000000
725.651310 245.220630 15.915281 0.000000
726.201480 245.196810 15.925486 0.000000
726.759220 245.175110 15.936106 0.000000
721.013610 245.407490 15.827696 0.000000
721.506290 245.389540 15.837212 0.000000
722.003230 245.372540 15.846931 0.000000
722.504700 245.356690 15.856887 0.000000
723.015500 245.326230 15.865437 0.000000
723.527280 245.312650 15.875881 0.000000
741.899230 260.107390 17.945982 0.000000
720.942990 259.543330 17.544035 0.000000
721.454590 259.829320 17.736607 0.000000
731.113770 260.129240 17.696518 0.000000
741.942570 260.636660 18.005699 0.000000
721.012510 259.959720 17.587626 0.000000
731.632570 260.600010 17.760851 0.000000
720.985600 236.074620 15.592907 0.000000
741.807860 260.072300 18.575512 0.000000
720.920290 259.521910 17.990479 0.000000
731.066710 260.110140 18.124750 0.000000
741.861080 260.596130 18.631277 0.000000
720.968200 259.985960 18.025299 0.000000
721.363890 259.966370 18.040594 0.000000
731.375730 260.518550 18.177370 0.000000
742.556580 260.849760 18.687561 0.000000
720.942570 259.422270 18.285152 0.000000
731.018310 260.092220 18.551374 0.000000
720.936890 259.984340 18.457958 0.000000
721.379210 259.995540 18.483053 0.000000
721.626710 260.127930 18.649916 0.000000
731.293880 260.522740 18.604008 0.000000
723.773070 260.769350 18.517258 0.000000
720.794680 259.054960 18.872456 0.000000
721.471800 259.350040 18.769001 0.000000
741.753050 260.020900 19.202759 0.000000
742.530820 260.229400 19.271578 0.000000
730.947390 260.091800 18.976233 0.000000
744.076970 260.720860 19.416790 0.000000
720.896790 260.002320 18.889208 0.000000
721.505550 260.062680 18.933241 0.000000
722.612610 260.019440 19.017359 0.000000
722.930050 260.195890 19.046169 0.000000
731.232180 260.302610 19.012918 0.000000
742.488100 260.801390 19.322542 0.000000
723.294490 260.542110 18.932755 0.000000
723.688170 260.614040 18.965391 0.000000
724.155330 260.582520 19.160101 0.000000
731.313290 260.663270 19.045214 0.000000
723.450810 260.759370 18.799105 0.000000
720.772710 259.056880 19.177517 0.000000
721.743290 259.276980 19.251282 0.000000
742.776310 260.044250 19.925707 0.000000
722.608400 259.740940 19.323685 0.000000
730.791020 260.157530 19.394815 0.000000
720.836850 260.064420 19.316067 0.000000
721.566160 260.153660 19.231119 0.000000
722.951050 259.886690 19.354942 0.000000
724.081360 260.218080 19.465788 0.000000
731.202270 260.269990 19.439817 0.000000
724.325810 260.313750 19.491426 0.000000
724.820980 260.554530 19.220415 0.000000
731.327390 260.805760 19.483728 0.000000
724.156370 260.938660 19.478275 0.000000
722.088620 257.975950 19.288670 0.000000
721.777710 259.157930 19.569225 0.000000
722.607910 259.694760 19.636625 0.000000
723.007870 259.749150 19.676826 0.000000
725.014470 259.801820 19.901070 0.000000
731.947570 260.097110 19.947765 0.000000
721.596010 260.049840 19.529354 0.000000
723.385620 259.851560 19.715105 0.000000
723.792970 259.924220 19.758770 0.000000
730.722170 260.156310 19.813601 0.000000
731.134090 260.265870 19.864294 0.000000
733.622440 260.272950 20.148285 0.000000
721.708370 260.330900 19.533182 0.000000
731.253970 261.008180 19.912912 0.000000
721.532840 256.392790 19.629198 0.000000
741.700380 257.609500 20.295610 0.000000
741.564270 259.954830 20.450243 0.000000
742.978090 259.876590 20.591009 0.000000
725.367370 259.791840 19.943535 0.000000
725.750920 259.757780 19.990623 0.000000
726.166750 259.701020 20.042570 0.000000
730.630800 260.172790 20.228819 0.000000
742.893370 261.032840 20.671728 0.000000
741.489690 261.066830 20.527061 0.000000
731.245850 260.960080 20.335279 0.000000
728.785340 257.724000 20.380449 0.000000
729.020750 257.965480 20.411211 0.000000
729.233340 258.229340 20.439905 0.000000
732.848570 258.922490 20.474651 0.000000
733.645940 258.809170 20.574614 0.000000
739.580260 259.766570 20.829735 0.000000
741.496220 259.909880 21.073975 0.000000
730.513850 260.209530 20.638535 0.000000
732.297730 260.167450 20.901840 0.000000
743.107360 260.868900 21.340340 0.000000
739.667480 256.293120 21.280594 0.000000
743.108640 259.658330 21.928600 0.000000
741.398320 259.878810 21.694660 0.000000
738.731020 260.055910 21.905874 0.000000
742.223630 257.674190 22.370012 0.000000
743.043580 259.028290 22.562029 0.000000
741.201230 259.346160 22.275620 0.000000
722.007690 254.479420 15.994276 0.000000
723.617070 254.768080 16.054945 0.000000
723.952270 254.807500 16.063591 0.000000
724.289060 254.850940 16.072618 0.000000
724.677060 254.787260 16.065144 0.000000
725.314450 254.995160 16.100426 0.000000
724.922670 255.045960 16.106401 0.000000
725.661870 255.047880 16.109919 0.000000
726.012510 255.102480 16.119455 0.000000
726.414250 255.073520 16.116089 0.000000
727.083500 255.282780 16.149075 0.000000
727.447200 255.348880 16.159344 0.000000
727.815430 255.416720 16.169605 0.000000
728.562990 255.562530 16.190855 0.000000
729.410950 255.611070 16.196224 0.000000
728.119140 255.588520 16.195343 0.000000
728.943660 255.639470 16.201666 0.000000
729.718870 255.802990 16.223877 0.000000
730.113280 255.890530 16.235399 0.000000
730.760620 255.975270 16.244980 0.000000
731.330990 256.171940 16.270905 0.000000
731.749020 256.272770 16.283133 0.000000
732.172180 256.378690 16.295784 0.000000
732.522340 256.568020 16.320818 0.000000
733.039670 256.601960 16.321709 0.000000
733.392580 256.805080 16.348124 0.000000
733.937260 256.841770 16.348581 0.000000
734.314700 257.040560 16.373547 0.000000
721.121640 257.142000 16.054247 0.000000
721.534970 257.190370 16.065083 0.000000
736.232600 257.599030 16.432404 0.000000
736.913450 257.624080 16.427889 0.000000
722.648990 257.345920 16.095116 0.000000
723.071230 257.416050 16.107096 0.000000
723.493470 257.497100 16.120350 0.000000
723.914490 257.593410 16.135468 0.000000
724.313110 257.742890 16.159296 0.000000
736.936580 258.130370 16.498352 0.000000
737.625610 258.177980 16.496227 0.000000
724.463680 258.060640 16.213310 0.000000
724.812380 258.008450 16.201561 0.000000
725.058170 258.147920 16.223391 0.000000
737.608950 258.704380 16.569332 0.000000
725.542480 258.438960 16.268209 0.000000
725.837220 258.504300 16.275846 0.000000
725.931520 258.870850 16.336832 0.000000
726.247380 258.908290 16.338808 0.000000
737.604550 259.210820 16.639183 0.000000
738.365420 259.248050 16.633677 0.000000
726.359250 259.232940 16.391819 0.000000
726.702700 259.241390 16.387852 0.000000
738.350040 259.757080 16.703377 0.000000
727.144900 259.591000 16.438566 0.000000
738.329830 260.258030 16.771711 0.000000
720.961240 259.830230 16.531937 0.000000
721.484560 259.718840 16.513376 0.000000
727.406740 259.935760 16.490646 0.000000
727.702390 260.233430 16.533659 0.000000
728.068910 260.251370 16.528887 0.000000
731.122680 260.228640 16.860271 0.000000
738.323000 260.741640 16.837172 0.000000
739.142580 260.796450 16.831865 0.000000
728.199400 260.523530 16.570232 0.000000
731.314150 260.487090 16.895035 0.000000
731.642820 260.638180 16.912861 0.000000
720.885930 260.788420 16.432726 0.000000
728.324460 260.795650 16.611370 0.000000
728.708680 260.814670 16.605392 0.000000
721.085140 260.857090 16.445211 0.000000
