# .PCD v0.7 - Point Cloud Data file format
VERSION 0.7
FIELDS x y z intensity
SIZE 4 4 4 4
TYPE F F F F
COUNT 1 1 1 1
WIDTH 1166
HEIGHT 1
VIEWPOINT 0 0 0 1 0 0 0
POINTS 1166
DATA ascii
737.869510 263.239810 19.424793 0.000000
738.152890 263.305480 19.328920 0.000000
738.442080 263.233950 19.439886 0.000000
738.756100 263.350710 19.448210 0.000000
739.163820 263.395900 19.360815 0.000000
739.897950 263.133390 19.502672 0.000000
738.342900 263.468990 19.230825 0.000000
738.820190 263.516330 19.245613 0.000000
730.864560 264.522950 19.541264 0.000000
731.024410 264.447720 19.413073 0.000000
730.409480 264.974180 19.474337 0.000000
730.642400 264.830720 19.452044 0.000000
742.023500 265.391110 19.645493 0.000000
729.756350 265.216430 19.534609 0.000000
729.991520 265.061160 19.509607 0.000000
729.595400 280.309510 21.621853 0.000000
743.028810 280.945340 21.781673 0.000000
736.809630 281.770630 21.905144 0.000000
741.922670 282.362640 22.053144 0.000000
730.104060 282.215730 21.759712 0.000000
730.205630 282.238280 21.896612 0.000000
732.758670 282.411440 21.815969 0.000000
733.254640 282.336030 21.901300 0.000000
733.466130 282.315610 21.888285 0.000000
741.451480 282.728450 22.116619 0.000000
743.844240 282.956210 22.072588 0.000000
730.725100 282.818790 21.865915 0.000000
730.960140 282.850620 21.862625 0.000000
720.787230 282.532840 21.602886 0.000000
721.220210 282.662140 21.606596 0.000000
731.102600 283.027340 21.897169 0.000000
738.823790 283.382970 22.038607 0.000000
739.006410 283.294770 22.021629 0.000000
741.152160 283.684880 22.079018 0.000000
744.137210 283.867130 22.304180 0.000000
721.544250 283.045100 21.658587 0.000000
738.132510 283.955140 22.168341 0.000000
739.436340 284.085080 22.104952 0.000000
744.028320 284.144170 22.360847 0.000000
739.540590 284.065980 22.373766 0.000000
741.008360 284.276980 22.215343 0.000000
742.222410 284.385250 22.304119 0.000000
743.065730 284.585910 22.401539 0.000000
743.952390 284.527560 22.134289 0.000000
732.103580 284.464080 22.197409 0.000000
738.776370 284.714690 22.239876 0.000000
743.662480 285.020870 22.223824 0.000000
721.077760 284.183720 21.873363 0.000000
732.283080 284.628750 22.231258 0.000000
738.576290 284.905000 22.281628 0.000000
721.341310 284.640590 21.942495 0.000000
722.845150 284.759550 21.907274 0.000000
723.619320 284.958130 21.915199 0.000000
721.510500 284.952580 21.990669 0.000000
723.920530 285.120700 21.934050 0.000000
724.236450 285.264190 21.949341 0.000000
733.055240 285.596740 22.444546 0.000000
740.151980 286.057070 22.613686 0.000000
742.963010 285.897640 22.377481 0.000000
743.304440 286.041470 22.425476 0.000000
743.739200 286.050540 22.449623 0.000000
745.009220 261.144810 19.614597 0.000000
745.302800 261.136080 19.640215 0.000000
721.255250 261.350560 19.220692 0.000000
721.153560 261.693880 19.255524 0.000000
744.129150 262.442870 19.837034 0.000000
721.003780 262.001500 19.290665 0.000000
723.418640 262.074860 19.542803 0.000000
723.953000 262.107600 19.506100 0.000000
724.640260 262.283910 19.468458 0.000000
724.986880 262.203190 19.438873 0.000000
725.234310 262.046020 19.411894 0.000000
725.572200 261.974090 19.384537 0.000000
745.415770 262.855010 19.977404 0.000000
745.707400 263.035310 19.875305 0.000000
720.848820 262.304110 19.326204 0.000000
730.823850 264.458740 19.657997 0.000000
729.702090 264.872040 19.765377 0.000000
729.938720 264.710330 19.739561 0.000000
730.322270 264.714810 19.705076 0.000000
729.249270 264.965150 19.811501 0.000000
729.554930 264.992550 19.782576 0.000000
729.298340 280.287230 21.898281 0.000000
729.385010 280.477290 21.936577 0.000000
729.436400 280.706450 21.988457 0.000000
725.806880 281.180180 22.144426 0.000000
726.274170 281.142880 22.093599 0.000000
726.979920 281.202150 22.043579 0.000000
727.271480 281.266270 22.032450 0.000000
727.555300 281.328890 22.022207 0.000000
727.922910 281.461150 22.021482 0.000000
731.875610 281.339360 21.952318 0.000000
721.340700 281.405490 21.799683 0.000000
721.111880 281.901700 21.902523 0.000000
730.171510 282.046480 22.266720 0.000000
732.759030 282.463710 22.207972 0.000000
733.237430 282.335820 22.148705 0.000000
733.447450 282.321010 22.135044 0.000000
733.859500 282.284880 22.107771 0.000000
720.981260 282.358280 21.992662 0.000000
730.700620 282.813290 22.146473 0.000000
730.966430 282.798580 22.127596 0.000000
732.410830 282.726780 22.299551 0.000000
738.995120 283.205170 22.373714 0.000000
722.592040 282.811160 22.385040 0.000000
723.115840 282.825380 22.348171 0.000000
724.257630 282.727420 22.243771 0.000000
731.140080 282.902370 22.283588 0.000000
732.086300 282.914890 22.369583 0.000000
738.813720 283.296660 22.393921 0.000000
720.848270 282.830510 22.086298 0.000000
722.020750 282.868960 22.023306 0.000000
722.099850 283.206420 22.081142 0.000000
729.579160 283.236820 22.319420 0.000000
737.874210 283.925930 22.552494 0.000000
744.765380 283.949770 22.680662 0.000000
724.151730 283.566220 22.423431 0.000000
724.689090 283.505100 22.373203 0.000000
725.098080 283.536220 22.351652 0.000000
738.080510 283.984160 22.574211 0.000000
739.541750 284.057400 22.644506 0.000000
739.776180 284.165130 22.686268 0.000000
741.890990 284.441410 22.592102 0.000000
742.666560 284.526580 22.664553 0.000000
744.857850 284.551450 22.838907 0.000000
740.782840 284.647370 22.731817 0.000000
741.049620 284.748840 22.922091 0.000000
743.420230 284.741240 22.773314 0.000000
721.445500 284.072690 22.280228 0.000000
738.687990 284.924710 22.722160 0.000000
721.199890 284.681610 22.408382 0.000000
723.224790 284.810300 22.322937 0.000000
732.574040 285.106200 22.646982 0.000000
723.998110 284.990200 22.318243 0.000000
732.922490 285.552310 22.753166 0.000000
721.567500 285.292210 22.503786 0.000000
733.102970 285.782810 22.808897 0.000000
739.659910 286.060520 22.913744 0.000000
721.683900 285.656460 22.567221 0.000000
745.183720 261.264040 19.935095 0.000000
723.721920 262.625310 19.931263 0.000000
721.664920 281.117370 22.536102 0.000000
726.753660 281.341920 22.411324 0.000000
727.048400 281.410490 22.396828 0.000000
721.478450 281.274110 22.175615 0.000000
727.323850 281.487700 22.387045 0.000000
727.593750 281.562500 22.377903 0.000000
721.119380 281.838900 22.312178 0.000000
721.235410 282.149690 22.362249 0.000000
722.800290 282.612300 22.732121 0.000000
723.208860 282.703640 22.713083 0.000000
728.359250 282.811650 22.616562 0.000000
720.881100 282.749450 22.506393 0.000000
724.085820 283.179110 22.735966 0.000000
729.492920 283.306820 22.650702 0.000000
741.421450 284.790250 22.956766 0.000000
742.201660 284.900540 23.040480 0.000000
742.590270 284.914370 23.072598 0.000000
743.119870 284.923830 23.116190 0.000000
742.865300 284.947020 23.102686 0.000000
743.470640 285.091920 23.191526 0.000000
743.808170 285.210080 23.252571 0.000000
730.773250 284.892120 22.990570 0.000000
721.798890 285.044100 22.895027 0.000000
723.434200 285.903960 22.962391 0.000000
724.687500 286.061520 22.916885 0.000000
725.248960 285.901950 23.053171 0.000000
732.721740 286.068420 23.227829 0.000000
723.701420 262.923740 20.320711 0.000000
724.169920 263.594510 20.299551 0.000000
722.994630 280.032070 22.553709 0.000000
720.826780 280.476720 22.497026 0.000000
720.940670 280.777500 22.543648 0.000000
721.054990 281.079440 22.591208 0.000000
722.012150 280.876130 22.851503 0.000000
721.579470 281.523160 22.626343 0.000000
721.953920 281.257900 22.939667 0.000000
722.025150 281.574620 22.999157 0.000000
721.481380 281.947480 22.722359 0.000000
720.908200 282.671780 22.927814 0.000000
722.859070 282.515930 23.109739 0.000000
721.009520 283.007450 22.987387 0.000000
726.593930 284.361180 23.166864 0.000000
728.633610 285.374600 23.262989 0.000000
724.444340 285.783420 23.294704 0.000000
724.905150 285.772670 23.256496 0.000000
722.294680 261.530610 20.414303 0.000000
720.803710 280.430110 22.908777 0.000000
721.002750 280.689580 22.937069 0.000000
720.903690 282.613100 23.357845 0.000000
721.017580 282.940520 23.416370 0.000000
721.820370 282.823390 23.297417 0.000000
723.182800 283.831270 23.376434 0.000000
728.837770 283.193210 17.959517 0.000000
728.800900 283.602360 17.954651 0.000000
728.769530 284.022460 17.949718 0.000000
745.605100 285.089290 18.453297 0.000000
722.439940 284.416720 17.918650 0.000000
745.421880 285.524780 18.455629 0.000000
745.289370 285.814760 18.456911 0.000000
725.605590 285.238800 17.922182 0.000000
723.332210 274.108490 17.200302 0.000000
723.409000 274.634030 17.272703 0.000000
723.330990 274.913210 17.292940 0.000000
725.790710 275.049710 17.371607 0.000000
723.202700 275.204620 17.306620 0.000000
725.689210 275.533020 17.403566 0.000000
725.738530 275.289980 17.387520 0.000000
727.575560 275.555450 17.460012 0.000000
722.982180 275.658540 17.323662 0.000000
725.643680 275.778720 17.419863 0.000000
727.549930 275.869960 17.482084 0.000000
722.908260 276.096280 17.358818 0.000000
725.584840 276.151760 17.445066 0.000000
727.529600 276.293700 17.512358 0.000000
722.829280 276.399900 17.378355 0.000000
725.534670 276.529570 17.470840 0.000000
727.513670 276.618410 17.533916 0.000000
727.378660 280.024230 17.987143 0.000000
724.099370 281.415100 17.954084 0.000000
728.965270 282.041500 17.972141 0.000000
730.494570 283.071990 18.173229 0.000000
730.575320 283.318910 18.327183 0.000000
720.949710 267.652770 16.745836 0.000000
724.432620 268.148380 16.829075 0.000000
724.719730 267.971440 16.833736 0.000000
727.054200 268.343480 16.890263 0.000000
727.376040 268.125000 16.894909 0.000000
729.117550 268.367920 16.936230 0.000000
729.289790 268.247010 16.938753 0.000000
730.673460 268.405460 16.971292 0.000000
723.844240 268.521910 16.819788 0.000000
724.140870 268.331820 16.824438 0.000000
726.724550 268.572810 16.885218 0.000000
728.681520 268.685880 16.929867 0.000000
728.943970 268.492190 16.933664 0.000000
730.237120 268.726070 16.964996 0.000000
723.388490 268.821010 16.812723 0.000000
725.936220 269.150020 16.873718 0.000000
726.277770 268.895290 16.878656 0.000000
728.238950 269.027770 16.923754 0.000000
729.501040 269.319460 16.955067 0.000000
729.796810 269.073430 16.958996 0.000000
722.502260 269.333530 16.785343 0.000000
722.921080 269.134770 16.805492 0.000000
725.470090 269.509520 16.866961 0.000000
725.704590 269.326930 16.870363 0.000000
727.516720 269.624600 16.914265 0.000000
727.789310 269.392790 16.917683 0.000000
729.277890 269.513820 16.952217 0.000000
722.277340 269.582240 16.795868 0.000000
724.994020 269.892760 16.860445 0.000000
725.233700 269.698150 16.863745 0.000000
727.147030 269.949430 16.909391 0.000000
727.331970 269.784580 16.911699 0.000000
728.753660 269.996030 16.945749 0.000000
728.979000 269.784360 16.948500 0.000000
721.776860 269.941250 16.788498 0.000000
724.628050 270.197200 16.855412 0.000000
726.866580 270.205990 16.905848 0.000000
728.300840 270.445430 16.940559 0.000000
728.527650 270.216950 16.943134 0.000000
721.261720 270.318390 16.780872 0.000000
724.256350 270.514920 16.850451 0.000000
726.488650 270.564510 16.901224 0.000000
728.073550 270.683810 16.938143 0.000000
720.909610 270.582860 16.775833 0.000000
723.748900 270.964200 16.843815 0.000000
724.003170 270.735780 16.846949 0.000000
726.115110 270.944980 16.898491 0.000000
727.845460 270.930300 16.935747 0.000000
725.987920 271.261380 16.925339 0.000000
727.708500 271.392360 16.982927 0.000000
727.661070 271.675840 17.017122 0.000000
725.814090 273.916440 17.250465 0.000000
727.584110 273.876560 17.292542 0.000000
725.828060 274.138790 17.278557 0.000000
727.616940 274.259430 17.341196 0.000000
725.856570 274.471890 17.320704 0.000000
727.663880 274.641020 17.389997 0.000000
727.637940 275.039550 17.424347 0.000000
727.598020 275.347720 17.445641 0.000000
727.046940 276.304380 17.696604 0.000000
727.625490 276.333100 17.792358 0.000000
728.152950 276.359920 17.879189 0.000000
728.845150 276.338650 17.754644 0.000000
729.277400 276.361880 17.833912 0.000000
723.162170 276.276030 17.766182 0.000000
724.113400 276.320860 17.885803 0.000000
725.365540 276.292080 17.728569 0.000000
726.099370 276.326080 17.835514 0.000000
726.625000 276.399200 17.916227 0.000000
726.883790 276.542300 17.965374 0.000000
728.613710 276.690730 17.977737 0.000000
729.951170 276.624940 17.969778 0.000000
724.274720 276.811710 17.954948 0.000000
726.794310 276.798740 17.975508 0.000000
728.512570 277.036350 17.986715 0.000000
729.935300 277.091920 17.992771 0.000000
724.176700 277.111020 17.972765 0.000000
726.547300 277.356690 17.988695 0.000000
728.383060 277.515900 17.998922 0.000000
728.447570 277.273250 17.992851 0.000000
729.879270 277.504550 18.003307 0.000000
723.908870 277.472080 17.975883 0.000000
726.391660 277.660640 17.992170 0.000000
728.312320 277.767730 18.004116 0.000000
729.830930 277.932430 18.013706 0.000000
723.782410 277.797790 17.991856 0.000000
726.229740 277.976930 17.995256 0.000000
728.117860 278.320370 18.007812 0.000000
729.774170 278.279360 18.017799 0.000000
723.328740 278.250700 17.980677 0.000000
724.679380 278.593290 18.168280 0.000000
725.918520 278.370270 17.983583 0.000000
727.967830 278.638850 18.003338 0.000000
729.778810 278.711000 18.033056 0.000000
731.598820 278.823390 18.316534 0.000000
723.163700 278.614470 17.994585 0.000000
724.587040 278.919950 18.185726 0.000000
725.780880 278.699220 17.989841 0.000000
726.742860 279.016750 18.139513 0.000000
727.814580 278.970520 17.998552 0.000000
729.336060 279.213500 18.229362 0.000000
729.800350 279.149990 18.049364 0.000000
730.116700 279.072170 18.214291 0.000000
730.661070 279.174680 18.182512 0.000000
731.500670 279.127750 18.306219 0.000000
731.640080 279.222780 18.327345 0.000000
732.217590 279.332280 18.408827 0.000000
722.475590 279.199550 17.966965 0.000000
724.765690 279.275050 18.235693 0.000000
725.452390 279.274080 17.987772 0.000000
726.704350 279.303130 18.153645 0.000000
727.370910 279.189330 18.232166 0.000000
727.570070 279.369320 17.983267 0.000000
729.772280 279.614930 18.304871 0.000000
730.124880 279.372160 18.104969 0.000000
727.686040 279.670380 18.157187 0.000000
730.157100 279.750340 18.240107 0.000000
730.342040 279.886990 18.389299 0.000000
724.948550 279.925960 18.308426 0.000000
726.999510 279.948610 18.231850 0.000000
724.785950 280.320130 18.320881 0.000000
742.110600 281.334690 18.785086 0.000000
742.880430 281.452150 18.736420 0.000000
741.662840 282.026180 18.781357 0.000000
742.079650 282.183260 18.757113 0.000000
742.333980 282.360260 18.738516 0.000000
730.152470 282.692690 18.709167 0.000000
732.919010 265.416990 16.994463 0.000000
733.216800 265.405940 17.019672 0.000000
735.594480 265.503140 17.049656 0.000000
736.016050 265.436710 17.060558 0.000000
736.372560 265.419250 17.078012 0.000000
741.584900 265.682100 17.185162 0.000000
741.918030 265.773010 17.193600 0.000000
742.185060 265.851720 17.200438 0.000000
744.458920 265.890660 17.251518 0.000000
744.612060 265.956880 17.255659 0.000000
725.546880 265.469700 16.825928 0.000000
725.938050 265.393190 16.847885 0.000000
726.413450 265.379430 16.887951 0.000000
726.870910 265.370850 16.926949 0.000000
729.201540 265.638400 16.908937 0.000000
729.529170 265.502040 16.914795 0.000000
730.330440 265.392210 16.971125 0.000000
731.970090 265.727750 16.971731 0.000000
732.398190 265.569920 16.979263 0.000000
732.737000 265.453310 16.985565 0.000000
734.021120 265.897860 17.018829 0.000000
734.311950 265.811370 17.024376 0.000000
734.744200 265.693850 17.032770 0.000000
735.171630 265.591400 17.041218 0.000000
736.411380 265.990910 17.073322 0.000000
736.727910 265.944760 17.079849 0.000000
737.168520 265.894840 17.089119 0.000000
737.606510 265.860780 17.098501 0.000000
737.979920 265.844970 17.106659 0.000000
738.351750 265.840970 17.114908 0.000000
738.783810 265.851470 17.124640 0.000000
739.214480 265.877290 17.134563 0.000000
739.582580 265.912450 17.143227 0.000000
739.950070 265.959110 17.151930 0.000000
740.317020 266.017520 17.160751 0.000000
740.744810 266.101200 17.171221 0.000000
741.111450 266.185030 17.180323 0.000000
742.385740 265.915280 17.205633 0.000000
742.721250 266.028960 17.214394 0.000000
743.125430 266.178130 17.225105 0.000000
743.395750 266.285430 17.232424 0.000000
744.842900 266.060180 17.261948 0.000000
745.152590 266.204800 17.270504 0.000000
745.464970 266.357730 17.279190 0.000000
721.355770 265.343960 16.836060 0.000000
724.919980 265.737430 16.814709 0.000000
725.235960 265.600740 16.820276 0.000000
728.413390 265.987370 16.895164 0.000000
728.755130 265.832180 16.901041 0.000000
728.979680 265.733640 16.905010 0.000000
731.176570 266.047300 16.957203 0.000000
731.620120 265.862820 16.965071 0.000000
733.207760 266.175540 17.003744 0.000000
733.579710 266.042690 17.010571 0.000000
733.874690 265.944030 17.016052 0.000000
734.931090 266.322170 17.044012 0.000000
735.191530 266.250550 17.049030 0.000000
735.579770 266.153990 17.056601 0.000000
735.965150 266.071110 17.064260 0.000000
736.220640 266.022860 17.069439 0.000000
741.294740 266.231780 17.184944 0.000000
741.539250 266.299680 17.191172 0.000000
741.906310 266.411350 17.200592 0.000000
742.335140 266.558650 17.211819 0.000000
742.641970 266.673860 17.219952 0.000000
743.599300 266.370940 17.237978 0.000000
743.940190 266.521940 17.247290 0.000000
744.282780 266.683470 17.256756 0.000000
745.698970 266.479710 17.286383 0.000000
723.931030 266.179780 16.797176 0.000000
724.267580 266.026610 16.803125 0.000000
724.596070 265.878720 16.808783 0.000000
727.590880 266.379940 16.881092 0.000000
727.947140 266.205810 16.887020 0.000000
730.356930 266.418850 16.942963 0.000000
730.724980 266.246670 16.949289 0.000000
732.372990 266.513310 16.988754 0.000000
732.756230 266.352660 16.995899 0.000000
732.982360 266.260990 16.999611 0.000000
733.940060 266.651340 17.025331 0.000000
734.338750 266.508820 17.032650 0.000000
734.734500 266.380460 17.040188 0.000000
742.826230 266.748470 17.224953 0.000000
743.133790 266.880680 17.233372 0.000000
743.503540 267.052520 17.243700 0.000000
744.489200 266.786010 17.262535 0.000000
744.765810 266.930630 17.270412 0.000000
745.112850 267.121640 17.280518 0.000000
723.236210 266.504940 16.785007 0.000000
723.483760 266.295290 16.774113 0.000000
726.853030 266.755770 16.868488 0.000000
727.103270 266.626620 16.872892 0.000000
727.348450 266.501010 16.876944 0.000000
729.601990 266.798280 16.930223 0.000000
729.982540 266.602390 16.936554 0.000000
731.515260 266.917450 16.974163 0.000000
731.907900 266.725040 16.980690 0.000000
733.131410 266.987850 17.011196 0.000000
733.469730 266.839260 17.016846 0.000000
733.739200 266.728700 17.021673 0.000000
743.874760 267.238980 17.254032 0.000000
744.246700 267.441710 17.264730 0.000000
744.493650 267.586790 17.272526 0.000000
745.464230 267.325200 17.290340 0.000000
722.744380 266.785680 16.783464 0.000000
726.344670 267.029300 16.860168 0.000000
726.601440 266.890530 16.864494 0.000000
729.018070 267.116210 16.920654 0.000000
729.312010 266.952910 16.925377 0.000000
730.792970 267.302670 16.962093 0.000000
731.115780 267.125460 16.967350 0.000000
732.374270 267.356840 16.997894 0.000000
732.650820 267.215640 17.002562 0.000000
732.925720 267.081420 17.007256 0.000000
744.744870 267.737490 17.279182 0.000000
745.057310 267.937710 17.288399 0.000000
721.749270 267.238710 16.759445 0.000000
722.133850 267.043880 16.765966 0.000000
725.551450 267.475860 16.847132 0.000000
725.952880 267.247770 16.853838 0.000000
728.316350 267.526580 16.909512 0.000000
728.619570 267.345340 16.914225 0.000000
730.300720 267.591340 16.954226 0.000000
730.630000 267.395750 16.959463 0.000000
731.674130 267.750610 16.986481 0.000000
731.885440 267.626740 16.989889 0.000000
732.166020 267.469730 16.994640 0.000000
745.245180 268.063930 17.294014 0.000000
745.496280 268.240690 17.301620 0.000000
745.747740 268.424620 17.309313 0.000000
721.355350 267.441710 16.752838 0.000000
725.000790 267.800170 16.838102 0.000000
725.278690 267.635310 16.842697 0.000000
727.798950 267.848790 16.901348 0.000000
728.110780 267.652100 16.906185 0.000000
729.631290 268.015500 16.943913 0.000000
729.884520 267.850800 16.947826 0.000000
731.176880 268.062130 16.978800 0.000000
731.461850 267.880620 16.983194 0.000000
729.460820 268.129460 16.941263 0.000000
730.961980 268.204680 16.975552 0.000000
720.832700 276.440640 17.903725 0.000000
724.490480 276.487030 17.948196 0.000000
730.169310 278.398590 18.424639 0.000000
732.281980 278.395050 18.599010 0.000000
732.902040 278.396970 18.677092 0.000000
730.072140 278.665070 18.540083 0.000000
733.341060 278.977750 18.557611 0.000000
726.374570 278.903870 18.386644 0.000000
730.026730 279.148130 18.559782 0.000000
731.772830 279.263460 18.764774 0.000000
732.161680 279.164310 18.400400 0.000000
732.626400 279.322810 18.660671 0.000000
733.474180 279.037020 18.574070 0.000000
722.385560 279.184750 18.340996 0.000000
723.120850 279.203460 18.412624 0.000000
724.984440 279.271030 18.593687 0.000000
727.153500 279.275420 18.501404 0.000000
728.300720 279.349090 18.630194 0.000000
729.981930 279.537660 18.573469 0.000000
731.116520 279.680790 18.483358 0.000000
732.168150 279.325620 18.809454 0.000000
732.927250 279.442630 18.696934 0.000000
733.122860 279.684910 18.721102 0.000000
722.882260 279.625670 18.429985 0.000000
726.616640 279.542540 18.766867 0.000000
727.060060 279.870030 18.534687 0.000000
732.663640 280.006870 18.673563 0.000000
738.596740 280.161500 18.912653 0.000000
740.724670 280.498900 18.876043 0.000000
728.110840 279.996670 18.654337 0.000000
732.051640 280.183530 18.825136 0.000000
737.004270 280.630460 18.840992 0.000000
737.205930 280.666140 18.938028 0.000000
737.785640 280.504210 18.878096 0.000000
738.116330 280.613430 18.969261 0.000000
738.867370 280.618230 18.894300 0.000000
739.272400 280.552310 18.985296 0.000000
739.490170 280.672700 19.067642 0.000000
740.983950 280.894650 18.851357 0.000000
741.230100 280.695590 18.941124 0.000000
721.680540 280.100770 18.768278 0.000000
723.459470 280.331820 18.548450 0.000000
726.857970 280.527650 18.869755 0.000000
737.320560 280.817110 19.026678 0.000000
738.102230 280.798680 19.050901 0.000000
738.808410 281.084260 19.055220 0.000000
741.432430 281.304290 19.016121 0.000000
742.198300 281.131500 18.787052 0.000000
740.022580 281.365540 18.855553 0.000000
740.790280 281.476070 18.933281 0.000000
741.230770 281.443450 19.020199 0.000000
742.843140 281.724490 19.166603 0.000000
740.412600 281.767460 19.032967 0.000000
742.050230 282.062320 19.198683 0.000000
742.293640 281.984620 19.081100 0.000000
742.678960 282.005130 19.064629 0.000000
730.085690 282.729980 18.992405 0.000000
730.419010 282.682370 19.018240 0.000000
730.427550 283.031070 19.034061 0.000000
730.525150 283.278500 19.052391 0.000000
738.866580 283.788060 19.473360 0.000000
739.060120 283.808810 19.475658 0.000000
744.106930 261.269530 17.012951 0.000000
744.407100 261.419650 17.036629 0.000000
729.413510 261.244900 16.679581 0.000000
729.774900 261.078370 16.668732 0.000000
744.546810 261.632230 17.074297 0.000000
744.903140 261.677800 17.076284 0.000000
745.392270 261.949430 17.117027 0.000000
728.695860 261.607420 16.704779 0.000000
728.860410 261.396760 16.676298 0.000000
729.174070 261.362180 16.687630 0.000000
745.681210 262.120880 17.142311 0.000000
728.221310 261.869720 16.723970 0.000000
728.462710 261.741420 16.715273 0.000000
737.104000 262.406310 16.979364 0.000000
737.382630 262.398740 16.984684 0.000000
737.753230 262.399900 16.993242 0.000000
738.122130 262.412570 17.003132 0.000000
738.488950 262.436160 17.014233 0.000000
738.944090 262.480770 17.029713 0.000000
727.516780 262.294770 16.756481 0.000000
727.823120 262.219330 16.761951 0.000000
734.953860 262.680150 16.962996 0.000000
735.328060 262.604800 16.962648 0.000000
735.702760 262.541900 16.963814 0.000000
736.077150 262.490080 16.966187 0.000000
736.451230 262.449920 16.969894 0.000000
736.824460 262.420560 16.974760 0.000000
739.395510 262.540470 17.046791 0.000000
739.753420 262.600040 17.061693 0.000000
740.108400 262.669620 17.077642 0.000000
740.460080 262.749420 17.094696 0.000000
740.894710 262.863650 17.117533 0.000000
741.239260 262.963100 17.136456 0.000000
727.208250 262.556880 16.783028 0.000000
733.741090 263.003230 16.972754 0.000000
734.113040 262.890930 16.968220 0.000000
734.580020 262.767030 16.964634 0.000000
741.409480 263.018620 17.146711 0.000000
741.663330 263.105130 17.162258 0.000000
742.081730 263.259700 17.189075 0.000000
742.495610 263.424260 17.216473 0.000000
726.366520 263.088440 16.820789 0.000000
726.773380 262.892610 16.813515 0.000000
732.910220 263.302190 16.988274 0.000000
733.278380 263.161960 16.980518 0.000000
733.555360 263.063780 16.975451 0.000000
742.903140 263.602870 17.245123 0.000000
743.303590 263.796540 17.275496 0.000000
725.915830 263.435700 16.850014 0.000000
732.000430 263.705930 17.013880 0.000000
732.453370 263.495180 17.000034 0.000000
743.619870 263.959690 17.300322 0.000000
744.007570 264.178220 17.332991 0.000000
725.658080 263.761350 16.887403 0.000000
731.286560 264.084320 17.040922 0.000000
731.641660 263.888890 17.026644 0.000000
736.534790 264.347410 17.185740 0.000000
736.840270 264.307740 17.187946 0.000000
737.222110 264.272400 17.192366 0.000000
737.679440 264.248750 17.199759 0.000000
738.059390 264.244960 17.207750 0.000000
738.437560 264.255550 17.217209 0.000000
738.888670 264.288970 17.231159 0.000000
739.261660 264.332580 17.244602 0.000000
739.631290 264.390870 17.259621 0.000000
740.070250 264.477910 17.279423 0.000000
740.360110 264.545470 17.293575 0.000000
744.462890 264.458100 17.373922 0.000000
744.834050 264.705600 17.409372 0.000000
724.952450 264.130860 16.900526 0.000000
725.370480 264.066250 16.918665 0.000000
730.849490 264.347690 17.061193 0.000000
735.241210 264.622100 17.188261 0.000000
735.620060 264.522670 17.185369 0.000000
736.000610 264.439610 17.184378 0.000000
736.305540 264.382350 17.184578 0.000000
740.504210 264.581300 17.300663 0.000000
740.789920 264.661100 17.315842 0.000000
741.213870 264.794010 17.339790 0.000000
741.630740 264.945770 17.365736 0.000000
745.195980 264.967650 17.446264 0.000000
745.485720 265.179600 17.475105 0.000000
724.821660 264.381620 16.932667 0.000000
730.161560 264.804500 17.097494 0.000000
730.417300 264.627380 17.083179 0.000000
734.118900 265.010160 17.207394 0.000000
734.415530 264.893040 17.200699 0.000000
734.789310 264.761020 17.194021 0.000000
740.884460 265.387330 17.309519 0.000000
741.172360 265.392670 17.302841 0.000000
741.615970 265.401610 17.290424 0.000000
742.019350 265.262730 17.335560 0.000000
742.397580 265.322020 17.334431 0.000000
742.797670 265.362730 17.326193 0.000000
743.169070 265.403630 17.317787 0.000000
743.470520 265.432310 17.309254 0.000000
743.916560 265.395510 17.378708 0.000000
744.312740 265.406070 17.360210 0.000000
744.729310 265.417570 17.339533 0.000000
745.169190 265.430150 17.316446 0.000000
745.654420 265.342770 17.384596 0.000000
724.190370 265.002260 16.988823 0.000000
724.398380 264.790890 16.969540 0.000000
724.785520 264.686400 16.979959 0.000000
729.380490 265.219180 17.113297 0.000000
729.633300 265.158450 17.122520 0.000000
729.909060 264.989290 17.112728 0.000000
731.770690 265.363710 17.098484 0.000000
732.005550 265.359310 17.118191 0.000000
732.344360 265.353330 17.146017 0.000000
732.763980 265.331360 17.176264 0.000000
733.134030 265.270970 17.192780 0.000000
733.589420 265.296840 17.131321 0.000000
733.934630 265.247130 17.147892 0.000000
734.412290 265.384980 17.117397 0.000000
734.832950 265.378810 17.148268 0.000000
735.156070 265.374570 17.170523 0.000000
735.545650 265.370120 17.195560 0.000000
735.996220 265.365720 17.222101 0.000000
736.507930 265.389950 17.167376 0.000000
736.788450 265.386810 17.180645 0.000000
737.131840 265.382540 17.195000 0.000000
737.536380 265.374910 17.208521 0.000000
737.935850 265.371700 17.219978 0.000000
738.331850 265.372130 17.229275 0.000000
738.791630 265.378510 17.237713 0.000000
739.251400 265.390050 17.243612 0.000000
739.648500 265.396670 17.244457 0.000000
740.017030 265.401460 17.242149 0.000000
740.356450 265.410520 17.239136 0.000000
740.697140 265.436310 17.238699 0.000000
741.119750 265.570220 17.173429 0.000000
741.385740 265.630860 17.179852 0.000000
743.626770 265.559970 17.229240 0.000000
744.003300 265.703890 17.239248 0.000000
744.306460 265.826420 17.247412 0.000000
722.133540 265.333040 16.891832 0.000000
722.851620 265.321230 16.942696 0.000000
723.417420 265.259860 16.974247 0.000000
723.875670 265.162230 16.991867 0.000000
727.304750 265.362920 16.963591 0.000000
727.715880 265.354710 16.997831 0.000000
728.109250 265.348390 17.030535 0.000000
728.483340 265.341800 17.061178 0.000000
729.112370 265.274870 17.101559 0.000000
730.751830 265.383640 17.009501 0.000000
731.148740 265.375550 17.044727 0.000000
731.528260 265.368190 17.077789 0.000000
731.790160 278.398040 18.730976 0.000000
732.667970 278.378910 19.009296 0.000000
726.801510 278.609500 18.992523 0.000000
730.286990 278.700040 18.794092 0.000000
731.851990 278.533390 18.842573 0.000000
732.039790 278.727260 18.870676 0.000000
732.611570 278.634340 19.017479 0.000000
721.084170 278.564760 18.968615 0.000000
726.963070 278.866610 18.885263 0.000000
730.068660 278.825810 19.010904 0.000000
730.666380 279.076570 18.856024 0.000000
730.935730 279.081360 18.882891 0.000000
732.190250 279.175600 18.906218 0.000000
737.722230 279.407960 19.073603 0.000000
739.005920 279.507510 19.244442 0.000000
722.923460 278.920590 18.738449 0.000000
726.922060 279.214720 18.912445 0.000000
729.877810 279.226960 18.786055 0.000000
731.630980 279.455050 19.183104 0.000000
732.192690 279.488310 19.126423 0.000000
732.466190 279.681340 19.055845 0.000000
732.862850 279.733250 18.892498 0.000000
737.539250 279.806180 19.214905 0.000000
738.781190 279.923950 19.083771 0.000000
739.268070 279.748140 19.244595 0.000000
739.512330 279.753480 19.089270 0.000000
722.377440 279.464260 18.754339 0.000000
727.105830 279.489930 19.099890 0.000000
728.161010 279.622380 19.185432 0.000000
731.985530 279.970180 19.027740 0.000000
732.984920 279.831480 18.906826 0.000000
733.104370 279.933230 18.920631 0.000000
736.788210 280.305270 19.014757 0.000000
737.230960 280.103490 19.203714 0.000000
737.774660 279.934110 19.221920 0.000000
738.267640 280.107880 19.395159 0.000000
738.923340 280.384370 19.241478 0.000000
739.312130 280.254460 19.243608 0.000000
739.694210 280.153410 19.160686 0.000000
739.967290 280.192780 19.240784 0.000000
732.542540 280.196750 19.296766 0.000000
737.790830 280.582120 19.222662 0.000000
738.036870 280.670530 19.226885 0.000000
738.433350 280.465300 19.235411 0.000000
738.690550 280.539150 19.325048 0.000000
739.100830 280.559300 19.242798 0.000000
740.639950 280.703670 19.230989 0.000000
741.282530 280.813930 19.402634 0.000000
722.515990 280.069640 18.826622 0.000000
738.085210 280.970090 19.317612 0.000000
739.377260 280.960600 19.423073 0.000000
740.272220 281.050990 19.236862 0.000000
741.604740 281.306430 19.208864 0.000000
742.461550 281.253630 19.587980 0.000000
739.557860 281.284640 19.429796 0.000000
740.914550 281.456540 19.325493 0.000000
741.156860 281.450740 19.321999 0.000000
741.443970 281.322140 19.213562 0.000000
741.965390 281.346010 19.399956 0.000000
742.830630 281.676210 19.383167 0.000000
740.943660 281.886780 19.433430 0.000000
742.658630 282.147890 19.402168 0.000000
742.097470 282.702610 19.431522 0.000000
730.501220 283.267400 19.341818 0.000000
738.768010 283.816470 19.715561 0.000000
739.059080 283.833190 19.719460 0.000000
738.475590 284.002930 19.719337 0.000000
729.558470 278.255830 19.154318 0.000000
731.862120 278.090670 19.105042 0.000000
731.989200 278.276820 19.128967 0.000000
723.458740 278.360260 19.075483 0.000000
724.847900 278.391420 19.154415 0.000000
725.350460 278.454250 19.188494 0.000000
729.690550 278.687320 19.439547 0.000000
731.725100 278.783020 19.345625 0.000000
732.165890 278.557710 19.256926 0.000000
733.329830 278.887910 19.271511 0.000000
725.911380 278.741420 19.250181 0.000000
727.426760 279.004360 19.358082 0.000000
727.984010 278.935180 19.379362 0.000000
729.524840 278.947750 19.216236 0.000000
732.280030 279.030910 19.301186 0.000000
732.493960 279.127440 19.420826 0.000000
733.094060 279.039890 19.357321 0.000000
722.883420 278.887360 19.103750 0.000000
725.301150 279.316710 19.280886 0.000000
726.458130 279.141450 19.322521 0.000000
729.843510 279.170380 19.377275 0.000000
730.053280 279.365260 19.408726 0.000000
730.909850 279.471980 19.578159 0.000000
731.532470 279.403840 19.385933 0.000000
732.443970 279.409820 19.441681 0.000000
733.330440 279.311800 19.482777 0.000000
738.527160 279.923460 19.395943 0.000000
739.569520 279.707370 19.398619 0.000000
720.865910 279.274140 19.453764 0.000000
723.574460 279.536650 19.213425 0.000000
730.150210 279.775700 19.452803 0.000000
739.447880 280.285680 19.576759 0.000000
726.833440 279.887390 19.421642 0.000000
727.083070 280.012050 19.447430 0.000000
739.213750 280.714080 19.593157 0.000000
730.098270 280.451600 19.638052 0.000000
730.470760 283.222500 19.920511 0.000000
738.763850 283.821810 20.080889 0.000000
739.055540 283.844600 20.208622 0.000000
738.470030 284.005980 20.090612 0.000000
729.585880 278.176270 19.612673 0.000000
732.692440 278.160190 19.706963 0.000000
732.850280 278.323640 19.553162 0.000000
725.087950 278.207210 19.789036 0.000000
725.720460 278.252780 19.494534 0.000000
727.665950 278.464020 19.584244 0.000000
732.921690 278.653500 19.588421 0.000000
733.286130 278.662140 19.692837 0.000000
721.450380 278.390050 19.366343 0.000000
725.764650 278.634520 19.541695 0.000000
729.735900 278.966490 19.709547 0.000000
732.122920 279.020200 19.688129 0.000000
733.044310 279.168820 19.643129 0.000000
733.373960 279.116270 19.651804 0.000000
722.872740 278.842530 19.469603 0.000000
727.023560 279.192440 19.649355 0.000000
729.761170 279.181730 19.735254 0.000000
729.910160 279.307740 19.754412 0.000000
732.185120 279.280360 19.819107 0.000000
732.382930 279.419680 19.840437 0.000000
722.751400 279.208590 19.509623 0.000000
725.268620 279.289250 19.603291 0.000000
727.086300 279.422420 19.678467 0.000000
729.969300 279.626040 19.792850 0.000000
730.738950 279.590360 19.811979 0.000000
732.338930 279.958440 19.899656 0.000000
727.235290 280.014920 19.752644 0.000000
727.191160 280.469880 19.804258 0.000000
730.296260 282.667940 20.146488 0.000000
730.484560 282.794560 20.165743 0.000000
730.479740 283.168880 20.207289 0.000000
738.805110 283.714420 20.558563 0.000000
739.051210 283.784360 20.447758 0.000000
738.465210 283.952580 20.458063 0.000000
740.750850 285.736240 20.967104 0.000000
725.417790 278.341400 19.810713 0.000000
726.956050 278.169070 19.809040 0.000000
729.616270 278.562130 19.895119 0.000000
732.104060 278.369140 19.903450 0.000000
729.743530 278.928590 19.943989 0.000000
733.019650 279.143890 20.015396 0.000000
729.794560 279.362210 20.000486 0.000000
725.214420 279.563080 19.965261 0.000000
730.653260 279.880710 20.078678 0.000000
730.049130 282.526400 20.699654 0.000000
730.310790 282.589600 20.565582 0.000000
730.383480 282.858090 20.603479 0.000000
730.644040 282.895840 20.609514 0.000000
738.753050 283.681270 20.797188 0.000000
739.045530 283.716250 20.806728 0.000000
730.447200 283.532750 20.696218 0.000000
738.458310 283.913910 20.951452 0.000000
738.656250 283.923160 20.955475 0.000000
739.259280 284.039370 20.728779 0.000000
739.258670 284.054200 20.983715 0.000000
745.512080 284.396580 21.159796 0.000000
743.517400 284.562900 21.138361 0.000000
745.182560 284.791110 21.210287 0.000000
745.364380 284.620790 21.189398 0.000000
742.090940 285.336090 21.225000 0.000000
740.966920 285.625580 20.955742 0.000000
741.470580 285.744690 21.274883 0.000000
741.680790 285.610110 21.258471 0.000000
740.194090 285.977570 20.990744 0.000000
741.260500 285.895360 21.293804 0.000000
737.931030 263.627840 18.883703 0.000000
730.095340 282.432770 20.973587 0.000000
730.306340 282.533910 20.986839 0.000000
730.738890 282.895840 21.039967 0.000000
743.372190 283.367130 21.347759 0.000000
720.763180 282.579770 20.744171 0.000000
738.841250 283.488710 21.255573 0.000000
739.035100 283.551670 21.269737 0.000000
738.352480 283.941190 21.332897 0.000000
738.653440 284.012660 21.222298 0.000000
739.359990 284.087490 21.374657 0.000000
745.529360 284.394260 21.463520 0.000000
738.651980 284.520870 21.577127 0.000000
745.128970 285.180790 21.581657 0.000000
745.306210 284.986660 21.555025 0.000000
742.095400 285.781860 21.595186 0.000000
745.350520 261.306300 18.902308 0.000000
738.080510 263.490330 19.080622 0.000000
738.403810 263.628850 19.086130 0.000000
730.015930 265.378810 19.195715 0.000000
730.364380 265.296660 19.171463 0.000000
732.508120 281.296600 21.228317 0.000000
743.207950 281.824160 21.648088 0.000000
743.067810 281.975310 21.438295 0.000000
730.277710 282.420260 21.399021 0.000000
740.469480 282.844120 21.518930 0.000000
740.685790 282.749270 21.623640 0.000000
743.928710 282.829770 21.662743 0.000000
730.721370 282.855740 21.466732 0.000000
743.909060 283.242980 21.748058 0.000000
731.025630 282.995450 21.627657 0.000000
738.836300 283.436950 21.611835 0.000000
739.023680 283.360350 21.720266 0.000000
720.769710 282.924160 21.247345 0.000000
738.145940 283.949680 21.715248 0.000000
738.445310 284.036160 21.737455 0.000000
739.357420 284.079830 21.761471 0.000000
742.878050 284.093410 21.601089 0.000000
743.630680 284.174410 21.929893 0.000000
743.828250 284.071620 21.917963 0.000000
731.876280 283.987700 21.800343 0.000000
741.593750 284.267030 21.863710 0.000000
742.059330 284.342900 21.897264 0.000000
743.537660 284.529880 22.000671 0.000000
743.815490 284.625240 21.738497 0.000000
738.648990 284.645750 21.873432 0.000000
745.438600 285.197050 21.915558 0.000000
745.718140 284.926570 21.877668 0.000000
733.051940 284.808040 21.637583 0.000000
745.250000 285.380070 21.941612 0.000000
733.289730 285.148220 21.699162 0.000000
742.707150 285.704380 21.905043 0.000000
724.101680 285.224150 21.528109 0.000000
740.560790 286.010650 21.904099 0.000000
742.510860 285.893310 21.935112 0.000000
724.360720 285.441500 21.557463 0.000000
724.605770 285.669800 21.589083 0.000000
744.920780 261.306120 19.307581 0.000000
721.264710 262.328770 19.027033 0.000000
738.065120 263.243380 19.386904 0.000000
738.470580 263.151310 19.494629 0.000000
738.878480 263.300260 19.496988 0.000000
739.285950 263.326510 19.402929 0.000000
739.624020 263.220610 19.413548 0.000000
739.884340 263.106780 19.527376 0.000000
721.102660 262.639430 19.063696 0.000000
738.477600 263.467010 19.285410 0.000000
738.797300 263.478520 19.289759 0.000000
739.037600 263.460850 19.294016 0.000000
720.824950 263.283690 19.138395 0.000000
731.158810 264.111330 19.552580 0.000000
730.794620 264.581510 19.595081 0.000000
731.032960 264.264920 19.566536 0.000000
730.014100 264.788360 19.666084 0.000000
730.447570 264.786650 19.630123 0.000000
730.710330 264.800200 19.364906 0.000000
742.030150 265.479000 19.602997 0.000000
729.666930 265.020810 19.705387 0.000000
729.862980 265.218870 19.444586 0.000000
730.311100 265.090420 19.406479 0.000000
729.541930 280.380950 21.725941 0.000000
729.599430 280.608400 21.770710 0.000000
736.971740 281.860410 21.901787 0.000000
741.513490 282.460820 21.941658 0.000000
728.943790 282.174530 21.864460 0.000000
730.229250 282.159270 21.781197 0.000000
732.648130 282.419340 21.974945 0.000000
732.926330 282.383610 21.692553 0.000000
741.205810 282.726290 21.995621 0.000000
741.360720 282.591610 21.967972 0.000000
730.865660 282.792600 21.882408 0.000000
720.759340 282.461240 21.629864 0.000000
721.228940 282.601500 21.631817 0.000000
729.661070 283.166200 22.030523 0.000000
731.046390 282.925870 21.902164 0.000000
738.831420 283.383210 21.969278 0.000000
739.017400 283.274510 22.068192 0.000000
743.941470 283.766600 22.141155 0.000000
721.438350 282.882390 21.668442 0.000000
721.669920 283.148350 21.702072 0.000000
738.040040 283.914490 22.094788 0.000000
738.242000 283.944120 21.973446 0.000000
739.405270 284.061400 22.152386 0.000000
724.870360 283.640260 22.048532 0.000000
738.234500 284.036800 22.259109 0.000000
739.676450 284.231720 22.200800 0.000000
741.371340 284.231320 22.120667 0.000000
741.825200 284.285000 22.152103 0.000000
742.185420 284.360870 22.186140 0.000000
742.555540 284.439850 22.222223 0.000000
744.005620 284.429530 22.298306 0.000000
732.024410 284.389070 22.184885 0.000000
738.645870 284.767270 22.177231 0.000000
721.055970 284.171200 21.896996 0.000000
732.382080 284.731930 22.249418 0.000000
745.705320 285.383210 22.292461 0.000000
721.332580 284.647030 21.964798 0.000000
723.395080 284.874390 21.921852 0.000000
742.233400 285.781160 22.213486 0.000000
721.519230 284.964320 22.010489 0.000000
723.758970 285.015080 21.932281 0.000000
724.071110 285.191710 21.951218 0.000000
724.411680 285.337460 21.964165 0.000000
742.902100 285.884550 22.261717 0.000000
743.321660 285.962710 22.295921 0.000000
743.744450 286.016330 22.326006 0.000000
724.689880 285.533450 21.988455 0.000000
733.234250 285.817570 22.473175 0.000000
744.623230 261.100650 19.567341 0.000000
744.985600 261.145170 19.595385 0.000000
745.389770 261.129940 19.626886 0.000000
745.669430 261.115600 19.649347 0.000000
743.934270 262.390810 19.785736 0.000000
744.106260 262.492890 19.799721 0.000000
723.440000 262.089420 19.319317 0.000000
745.500490 262.934200 19.931150 0.000000
723.755920 262.641910 19.737682 0.000000
730.939210 264.131960 19.821444 0.000000
731.211730 263.840450 19.793814 0.000000
729.850520 264.465820 19.930763 0.000000
730.397400 264.429140 19.876745 0.000000
730.717470 264.329930 19.844872 0.000000
729.645080 264.558870 19.953640 0.000000
729.209960 280.344730 22.025808 0.000000
729.258300 280.582760 22.075947 0.000000
732.031070 280.899350 21.890718 0.000000
729.659480 280.838750 21.816395 0.000000
725.829530 281.119290 21.878469 0.000000
726.286440 281.131040 21.845119 0.000000
727.167660 281.241490 22.124456 0.000000
727.620060 281.364500 22.109203 0.000000
727.874150 281.474210 22.110041 0.000000
721.397280 281.291320 21.842840 0.000000
724.863460 281.414890 22.011248 0.000000
742.111820 282.491210 22.226227 0.000000
721.222050 281.760440 21.934132 0.000000
730.218140 282.110960 22.205833 0.000000
733.489500 282.305240 22.156683 0.000000
733.828060 282.279420 22.130352 0.000000
741.980160 282.684390 22.271805 0.000000
744.600160 282.684690 22.478607 0.000000
720.991030 282.274870 22.037300 0.000000
730.847350 282.754090 22.313635 0.000000
731.082150 282.815310 22.311256 0.000000
739.013000 283.211760 22.298641 0.000000
720.829040 282.768280 22.132982 0.000000
722.076540 282.839320 22.067581 0.000000
724.495480 282.723270 22.291985 0.000000
731.241330 282.955660 22.481764 0.000000
738.825740 283.295140 22.319229 0.000000
744.489500 283.840060 22.484167 0.000000
722.161250 283.186800 22.123926 0.000000
729.565060 283.233730 22.368652 0.000000
737.930850 283.923100 22.490776 0.000000
724.474120 283.502500 22.446802 0.000000
724.986270 283.494480 22.407631 0.000000
725.418150 283.534150 22.384420 0.000000
738.223140 284.239040 22.583715 0.000000
739.454220 284.054870 22.551542 0.000000
739.660400 284.063540 22.559528 0.000000
741.090270 284.419280 22.433189 0.000000
742.320010 284.403660 22.487328 0.000000
742.570620 284.459930 22.515574 0.000000
742.831910 284.531920 22.548988 0.000000
731.852110 284.404510 22.506721 0.000000
740.808780 284.651310 22.768417 0.000000
741.493470 284.701080 22.813984 0.000000
741.939880 284.653170 22.823864 0.000000
742.271850 284.596100 22.826824 0.000000
743.128050 284.680970 22.604790 0.000000
744.717350 284.789860 22.738724 0.000000
732.218080 284.738980 22.571390 0.000000
738.640810 284.905880 22.637945 0.000000
720.958740 284.391880 22.411463 0.000000
721.200320 284.674560 22.447891 0.000000
723.840030 284.889100 22.337265 0.000000
732.489140 285.008910 22.626249 0.000000
724.167180 285.050660 22.349880 0.000000
732.923220 285.538850 22.741671 0.000000
721.610600 285.289790 22.535770 0.000000
733.179870 285.898590 22.823296 0.000000
721.700260 285.687410 22.603640 0.000000
745.077820 261.168330 19.892410 0.000000
720.869690 261.561520 19.890690 0.000000
720.773010 261.925690 19.924473 0.000000
723.334470 261.967190 19.725288 0.000000
723.940800 263.086430 20.138704 0.000000
721.523560 281.171480 22.242298 0.000000
726.115230 281.201970 22.215282 0.000000
726.870790 281.579900 22.561214 0.000000
727.131040 281.704530 22.561253 0.000000
721.155520 281.736480 22.375690 0.000000
721.287110 282.055050 22.422804 0.000000
728.060000 282.591830 22.672680 0.000000
720.864500 282.687130 22.574366 0.000000
728.215390 282.796450 22.706591 0.000000
744.992070 283.782590 22.807930 0.000000
729.474300 283.294130 22.712864 0.000000
723.614140 283.749080 22.559580 0.000000
743.162720 284.745730 22.925526 0.000000
743.445430 284.831730 22.969103 0.000000
743.737730 284.923710 23.015684 0.000000
731.033510 285.001950 23.033794 0.000000
731.424440 285.095580 23.033283 0.000000
732.457580 285.593840 23.107937 0.000000
732.621030 285.849460 23.169559 0.000000
723.560420 285.970640 23.008976 0.000000
723.417360 262.364780 20.148798 0.000000
723.212400 262.936370 20.602709 0.000000
724.061950 263.822170 20.545488 0.000000
722.985290 280.006990 22.690666 0.000000
720.853880 280.501830 22.618938 0.000000
722.762450 280.451230 22.807461 0.000000
721.058230 280.966400 22.683668 0.000000
721.766660 280.994780 22.614056 0.000000
721.669190 281.413360 22.704395 0.000000
721.682190 281.783940 22.774761 0.000000
722.717040 282.334110 22.778452 0.000000
720.897030 282.607600 23.016439 0.000000
722.888430 282.610440 22.817194 0.000000
723.355290 282.693480 22.788437 0.000000
721.006840 282.954190 23.073792 0.000000
726.922610 283.277310 22.949751 0.000000
724.784550 285.722720 23.308624 0.000000
725.215940 285.768920 23.283672 0.000000
725.661250 285.787600 23.252174 0.000000
722.638310 262.182830 20.634735 0.000000
721.443180 280.009520 22.888397 0.000000
721.613100 280.290070 22.921177 0.000000
722.125850 281.122590 23.022686 0.000000
722.136230 281.483760 23.095285 0.000000
722.961610 282.507810 23.211557 0.000000
723.285640 282.682980 23.211628 0.000000
721.015750 282.887150 23.523888 0.000000
721.936890 282.747590 23.384087 0.000000
723.315610 283.852110 23.466679 0.000000
721.419860 284.332860 23.787689 0.000000
721.705690 284.577030 23.809143 0.000000
730.234130 285.855040 17.936050 0.000000
730.508420 283.054960 17.999647 0.000000
730.597290 283.315770 18.010204 0.000000
727.645390 283.670840 17.956413 0.000000
730.301940 284.041990 17.966303 0.000000
730.382140 284.345340 17.973902 0.000000
730.295470 284.872470 17.957150 0.000000
730.302190 285.302460 17.952456 0.000000
721.420040 275.033080 17.240576 0.000000
724.731200 275.463320 17.362604 0.000000
721.169800 275.392060 17.249550 0.000000
721.316350 275.698060 17.301783 0.000000
724.757870 275.727630 17.393744 0.000000
720.999450 276.082890 17.303993 0.000000
724.689510 276.013340 17.412521 0.000000
727.184200 276.202820 17.501253 0.000000
720.869870 276.444400 17.326452 0.000000
724.648500 276.435360 17.447781 0.000000
727.159060 276.445160 17.517918 0.000000
730.479920 281.452480 17.993843 0.000000
725.637080 281.580380 17.972775 0.000000
725.121400 282.620820 17.964081 0.000000
730.487300 283.034700 18.302719 0.000000
730.579770 283.291560 18.316626 0.000000
721.845580 267.959350 16.755363 0.000000
725.758730 268.246150 16.862177 0.000000
726.033080 268.067870 16.866390 0.000000
728.314150 268.424440 16.921297 0.000000
728.521910 268.276090 16.924145 0.000000
730.337400 268.437320 16.966385 0.000000
730.504760 268.315160 16.968735 0.000000
731.800840 268.518620 17.000345 0.000000
721.163090 268.465730 16.761089 0.000000
721.474610 268.200350 16.753647 0.000000
725.196350 268.621150 16.853577 0.000000
