# .PCD v0.7 - Point Cloud Data file format
VERSION 0.7
FIELDS x y z intensity
SIZE 4 4 4 4
TYPE F F F F
COUNT 1 1 1 1
WIDTH 1166
HEIGHT 1
VIEWPOINT 0 0 0 1 0 0 0
POINTS 1166
DATA ascii
767.541440 223.346250 16.075932 0.000000
764.041870 225.373810 16.066439 0.000000
762.351380 226.402470 16.062368 0.000000
757.036500 229.079830 16.043737 0.000000
752.091370 231.935610 16.030226 0.000000
770.108280 213.428530 15.786535 0.000000
768.998170 214.830720 15.813675 0.000000
768.046080 216.368360 15.843323 0.000000
767.095830 217.920150 15.873237 0.000000
766.132080 219.474400 15.903204 0.000000
765.168520 221.044880 15.933481 0.000000
764.218810 222.647220 15.964357 0.000000
763.281490 224.283910 15.995881 0.000000
762.323910 225.925110 16.027500 0.000000
761.276980 227.496280 16.057825 0.000000
759.184200 230.713470 16.119898 0.000000
758.116210 232.339140 16.151268 0.000000
757.120060 234.086550 16.184923 0.000000
769.972530 232.975450 16.448215 0.000000
768.911800 234.752140 16.486799 0.000000
747.877690 211.150050 15.275970 0.000000
751.471980 211.899950 15.315002 0.000000
750.612370 213.517400 15.355207 0.000000
748.138730 223.065400 15.603628 0.000000
752.171750 215.643330 15.422854 0.000000
751.220830 217.253390 15.463709 0.000000
750.227720 218.942460 15.506047 0.000000
749.188420 220.716890 15.550001 0.000000
748.195560 226.552670 15.701933 0.000000
746.988710 229.358890 15.768626 0.000000
749.218630 222.678650 15.618055 0.000000
755.903630 211.281100 15.355252 0.000000
755.130130 213.215470 15.402310 0.000000
754.357120 215.561980 15.456587 0.000000
753.497990 217.844910 15.510429 0.000000
752.509160 219.668880 15.557083 0.000000
750.275760 225.653080 15.725073 0.000000
749.080630 228.404690 15.789737 0.000000
755.959720 211.855440 15.395553 0.000000
755.198790 214.126950 15.448672 0.000000
754.358220 216.363680 15.501773 0.000000
753.462400 218.759580 15.558131 0.000000
752.443600 220.724060 15.607514 0.000000
751.363100 222.727100 15.657899 0.000000
750.772090 223.682720 15.684824 0.000000
749.599670 227.562230 15.774033 0.000000
748.281430 230.517200 15.847376 0.000000
746.857540 234.115510 15.933667 0.000000
755.598270 211.381740 15.380322 0.000000
754.790950 213.778200 15.438495 0.000000
753.924870 216.388460 15.501204 0.000000
752.958620 218.851300 15.562216 0.000000
751.901000 221.185760 15.621712 0.000000
751.229370 223.288540 15.657782 0.000000
749.990540 226.724640 15.737497 0.000000
747.150090 233.763640 15.903047 0.000000
755.336430 212.885070 15.407603 0.000000
754.445500 215.526180 15.469664 0.000000
753.480040 218.396880 15.536620 0.000000
752.393860 220.787060 15.595875 0.000000
751.813420 224.791790 15.703390 0.000000
750.486690 228.592350 15.791742 0.000000
749.028200 232.340090 15.880202 0.000000
756.081730 212.948990 15.422189 0.000000
755.160220 215.807160 15.489247 0.000000
753.048280 222.336240 15.641083 0.000000
753.699890 225.529020 15.768192 0.000000
750.862430 234.282230 15.977456 0.000000
761.849790 225.309780 15.958044 0.000000
764.838320 215.387480 15.708889 0.000000
758.734380 214.407350 15.545249 0.000000
757.456540 218.140080 15.632290 0.000000
754.383180 227.209300 15.843471 0.000000
752.719180 213.463910 15.450216 0.000000
751.198790 215.790560 15.506249 0.000000
763.524480 220.988370 15.819004 0.000000
765.197810 214.328430 15.644730 0.000000
761.336240 230.556370 16.065588 0.000000
768.039430 213.506440 15.680847 0.000000
766.441280 220.997100 15.885207 0.000000
764.305480 232.025280 16.182011 0.000000
763.621460 213.977780 15.462208 0.000000
758.364690 211.407330 15.355593 0.000000
758.332950 220.514010 15.522516 0.000000
752.839900 217.227810 15.402462 0.000000
749.888000 218.741760 15.399463 0.000000
746.711790 220.399190 15.397390 0.000000
768.719540 224.651890 15.956468 0.000000
769.034610 228.157410 16.039371 0.000000
769.312870 232.078120 16.131744 0.000000
756.625920 235.438980 15.920270 0.000000
748.654910 234.814450 15.858574 0.000000
747.718080 232.822200 15.818085 0.000000
746.834110 230.825000 15.778487 0.000000
762.466130 227.107360 15.851381 0.000000
769.970340 218.638490 15.816938 0.000000
767.703190 231.478120 16.057568 0.000000
748.105470 212.569210 15.212641 0.000000
768.228820 225.846070 15.907799 0.000000
769.857790 218.570470 15.722454 0.000000
749.721740 216.728270 15.414715 0.000000
752.455930 212.031510 15.298593 0.000000
768.894710 214.511030 15.633533 0.000000
767.733460 221.804530 15.829636 0.000000
766.240780 231.403720 16.088179 0.000000
769.928040 223.337740 15.892208 0.000000
767.547550 236.051700 16.236408 0.000000
768.815310 227.979810 16.019964 0.000000
770.281430 232.877810 16.188951 0.000000
768.859010 231.558530 16.170980 0.000000
767.626220 216.020100 15.613082 0.000000
768.008360 213.150770 15.550257 0.000000
760.528630 233.076390 16.032059 0.000000
761.410580 228.852620 15.929189 0.000000
764.193850 223.354400 15.866012 0.000000
768.741090 221.504230 15.812778 0.000000
764.771300 220.136440 15.789692 0.000000
763.591920 227.061130 15.954674 0.000000
766.636050 215.343280 15.604897 0.000000
767.004330 212.753050 15.549887 0.000000
760.690190 227.144590 15.887635 0.000000
761.369080 223.544040 15.803223 0.000000
765.754460 220.988560 15.727595 0.000000
761.963750 220.142300 15.724652 0.000000
766.174930 217.909060 15.660365 0.000000
759.111080 235.561720 16.088160 0.000000
759.953860 231.218540 15.983970 0.000000
761.810490 216.160960 15.620379 0.000000
765.931950 214.620990 15.583270 0.000000
766.351200 212.349880 15.537731 0.000000
764.530270 222.667400 15.750231 0.000000
760.650570 221.839080 15.744843 0.000000
764.995670 219.639470 15.686567 0.000000
761.252200 218.875640 15.679461 0.000000
765.510070 217.147200 15.634810 0.000000
759.240300 228.350100 15.891800 0.000000
769.052670 211.937440 15.537168 0.000000
765.605710 211.803800 15.529510 0.000000
763.488950 225.240840 15.808090 0.000000
759.533020 224.758820 15.815187 0.000000
763.878660 221.747960 15.734061 0.000000
760.149960 221.619810 15.744927 0.000000
764.392520 219.116730 15.678543 0.000000
760.659120 218.470580 15.675870 0.000000
764.817990 216.481460 15.623988 0.000000
757.292180 235.934360 16.072084 0.000000
758.030580 231.336820 15.966586 0.000000
758.822390 227.963040 15.888309 0.000000
766.979060 214.569810 15.668184 0.000000
760.083010 224.426300 15.833982 0.000000
764.972170 223.385350 15.825340 0.000000
765.513550 220.973540 15.780917 0.000000
770.662960 220.796200 15.809064 0.000000
766.008360 218.655840 15.739015 0.000000
766.503050 216.548020 15.702003 0.000000
757.736820 232.846500 16.007063 0.000000
763.193360 231.897860 15.989030 0.000000
758.588070 229.917420 15.945833 0.000000
763.821960 228.841340 15.929209 0.000000
759.401180 227.270030 15.891438 0.000000
764.481870 226.255620 15.879857 0.000000
764.499630 222.741490 15.816567 0.000000
769.723140 222.363400 15.843409 0.000000
770.114690 220.028020 15.805295 0.000000
770.563350 217.992610 15.773882 0.000000
765.537290 218.296450 15.739635 0.000000
766.044680 216.324490 15.707089 0.000000
756.499880 234.661730 16.035934 0.000000
763.410340 227.995670 15.912341 0.000000
762.941960 213.375210 15.543085 0.000000
767.461060 212.726070 15.569949 0.000000
755.121950 223.808990 15.697903 0.000000
760.045530 223.142720 15.694374 0.000000
755.882570 221.620670 15.658635 0.000000
760.683900 220.980190 15.659025 0.000000
756.557620 219.371770 15.619103 0.000000
761.235530 218.762920 15.623310 0.000000
752.603390 231.561340 15.843304 0.000000
759.435850 225.670960 15.737160 0.000000
759.884160 213.549610 15.474319 0.000000
764.327150 212.839050 15.495214 0.000000
760.455630 211.988240 15.453933 0.000000
764.828920 211.288300 15.477776 0.000000
750.880130 225.053560 15.647664 0.000000
758.145140 219.083510 15.553646 0.000000
754.199100 217.739960 15.522156 0.000000
763.863400 214.590040 15.516673 0.000000
768.784970 211.815090 15.525240 0.000000
750.020870 227.625120 15.694179 0.000000
756.043700 215.950670 15.483022 0.000000
765.004700 211.460950 15.483871 0.000000
747.289310 225.348880 15.630362 0.000000
759.816470 216.483630 15.510096 0.000000
768.760440 211.391530 15.525655 0.000000
746.331180 227.655820 15.672245 0.000000
758.460450 229.777160 15.946312 0.000000
763.373410 227.285930 15.919059 0.000000
768.315490 221.968670 15.862781 0.000000
757.261780 235.787140 16.058186 0.000000
746.482850 216.124130 15.310306 0.000000
747.312130 215.056850 15.299444 0.000000
748.148860 214.081740 15.290079 0.000000
748.950990 213.077790 15.280735 0.000000
749.741210 212.103450 15.272111 0.000000
755.723940 211.769120 15.291271 0.000000
750.520570 211.156070 15.264167 0.000000
749.002810 223.169220 15.526257 0.000000
749.841980 221.768830 15.509377 0.000000
750.692630 220.493670 15.494641 0.000000
751.528320 219.262080 15.480909 0.000000
752.350400 218.070300 15.468120 0.000000
757.480530 217.389590 15.479178 0.000000
753.133240 216.857040 15.455398 0.000000
758.058410 215.848660 15.463480 0.000000
753.880980 215.633130 15.442881 0.000000
758.612850 214.342560 15.448549 0.000000
754.491390 214.195620 15.427655 0.000000
759.151670 212.881160 15.434519 0.000000
759.784420 211.638210 15.423960 0.000000
763.964110 211.482940 15.448519 0.000000
748.397950 225.380890 15.554755 0.000000
762.336360 215.164080 15.599716 0.000000
762.861330 213.668580 15.583776 0.000000
750.425840 234.745180 15.836708 0.000000
751.288510 232.739870 15.807495 0.000000
752.174680 230.956270 15.782215 0.000000
752.906980 228.912250 15.753301 0.000000
746.667540 227.793640 15.726953 0.000000
753.599790 226.921690 15.725625 0.000000
754.321660 225.134770 15.701534 0.000000
759.631590 223.626250 15.699355 0.000000
754.950680 223.258270 15.676387 0.000000
760.192690 221.794830 15.676641 0.000000
755.615970 221.574370 15.654631 0.000000
756.222840 219.869690 15.632864 0.000000
760.697510 219.958890 15.654117 0.000000
761.202150 218.215350 15.633341 0.000000
761.771060 216.659150 15.615893 0.000000
766.769710 214.845570 15.624217 0.000000
767.217470 213.262020 15.608124 0.000000
756.025020 235.497440 16.025761 0.000000
756.697330 233.188200 15.989740 0.000000
762.514280 231.313320 15.981736 0.000000
757.307740 230.898930 15.954428 0.000000
763.113280 229.232030 15.951988 0.000000
758.027470 228.985810 15.926157 0.000000
763.648500 227.147250 15.922449 0.000000
758.680910 227.050370 15.897828 0.000000
764.154660 225.119640 15.894196 0.000000
764.614930 223.116520 15.866612 0.000000
769.842530 223.223770 15.901070 0.000000
765.128850 221.292420 15.842558 0.000000
770.318300 221.368070 15.877943 0.000000
770.750060 219.525280 15.855239 0.000000
765.623230 219.518480 15.819656 0.000000
760.278140 236.068850 16.184532 0.000000
760.897400 233.755310 16.146893 0.000000
766.876950 231.642900 16.141167 0.000000
767.390810 229.471560 16.108395 0.000000
767.912170 227.414430 16.078127 0.000000
768.479740 225.518770 16.051346 0.000000
766.370730 233.941470 16.176691 0.000000
745.912170 222.977450 15.639582 0.000000
747.164120 222.222210 15.637848 0.000000
758.026000 216.874420 15.636344 0.000000
759.208920 215.937260 15.632192 0.000000
760.426880 215.030360 15.628568 0.000000
761.647640 214.116840 15.624887 0.000000
762.869750 213.194030 15.621105 0.000000
764.103450 212.270870 15.617385 0.000000
746.669190 213.141140 15.383368 0.000000
762.338440 213.100010 15.588982 0.000000
753.700130 216.492780 15.515466 0.000000
751.392400 216.476140 15.492236 0.000000
749.098750 216.391330 15.468882 0.000000
746.868410 216.289110 15.446095 0.000000
756.959900 215.080320 15.542695 0.000000
758.693360 214.412310 15.557497 0.000000
760.513310 213.776210 15.573292 0.000000
764.285340 212.473800 15.606091 0.000000
766.241820 211.804310 15.623126 0.000000
768.198060 211.084470 15.639963 0.000000
756.157900 235.785100 16.183187 0.000000
758.196350 235.224150 16.209787 0.000000
760.267210 234.651020 16.236788 0.000000
762.505620 234.206420 16.267132 0.000000
767.046330 233.200530 16.327995 0.000000
769.494020 232.776810 16.361588 0.000000
753.124330 230.781390 15.940955 0.000000
750.948970 231.022220 15.912848 0.000000
748.529300 230.896910 15.879357 0.000000
746.218690 230.817890 15.847606 0.000000
759.069150 229.080470 16.011868 0.000000
761.144710 228.512590 16.036774 0.000000
763.237920 227.909650 16.061720 0.000000
765.350220 227.272160 16.086729 0.000000
770.373050 226.528270 16.150566 0.000000
767.532960 226.645200 16.112751 0.000000
757.005370 229.607850 15.986894 0.000000
749.242920 225.117780 15.714318 0.000000
747.007570 225.164310 15.686601 0.000000
755.731630 224.324110 15.791707 0.000000
759.555240 223.012700 15.833378 0.000000
763.576840 221.694990 15.877494 0.000000
765.750430 221.097500 15.901872 0.000000
751.577270 225.101560 15.743416 0.000000
753.844730 224.937230 15.770985 0.000000
757.636050 223.683780 15.812522 0.000000
761.532960 222.349210 15.855000 0.000000
767.961180 220.472180 15.926585 0.000000
753.870420 231.557890 15.994270 0.000000
756.002750 231.106410 16.026346 0.000000
758.228030 230.693710 16.060057 0.000000
762.866760 229.864500 16.130453 0.000000
767.709230 228.957090 16.203773 0.000000
751.692810 231.899410 15.961030 0.000000
748.995540 231.563750 15.916782 0.000000
746.361820 231.195530 15.873413 0.000000
760.532840 230.297970 16.095100 0.000000
751.188840 228.409940 15.839497 0.000000
759.092960 228.172390 15.990770 0.000000
756.468750 228.350460 15.940527 0.000000
767.730590 227.776950 16.156111 0.000000
764.754330 227.921200 16.099138 0.000000
761.849120 228.027710 16.043531 0.000000
748.066410 227.786420 15.779879 0.000000
745.929990 227.758330 15.737381 0.000000
757.907410 234.158630 16.042858 0.000000
763.591130 233.716280 16.239456 0.000000
752.546630 231.741030 15.899545 0.000000
766.784730 211.848310 15.476544 0.000000
755.305970 216.118410 15.500617 0.000000
748.336730 213.292710 15.365313 0.000000
760.694820 217.539060 15.620789 0.000000
748.236450 222.206560 15.726216 0.000000
746.776310 223.614440 15.740223 0.000000
748.090880 227.361420 15.878427 0.000000
746.188720 219.322710 15.631590 0.000000
749.230350 233.196910 16.003504 0.000000
755.609620 234.833150 16.203794 0.000000
758.823060 223.961980 15.825623 0.000000
753.147090 228.675230 15.874470 0.000000
746.655880 233.485610 15.944593 0.000000
752.954410 219.479230 15.622578 0.000000
759.567750 221.171280 15.739439 0.000000
753.319820 221.158160 15.705772 0.000000
759.809880 222.981080 15.826363 0.000000
760.076350 224.750320 15.910849 0.000000
760.287840 226.524170 15.994656 0.000000
760.408940 228.318570 16.078375 0.000000
760.514950 230.093220 16.160490 0.000000
768.482180 232.071320 16.281582 0.000000
768.703860 233.861980 16.362295 0.000000
768.876830 235.654140 16.442240 0.000000
753.552550 222.894270 15.790384 0.000000
768.573730 216.673870 15.942785 0.000000
765.359440 216.969940 15.886614 0.000000
762.239750 217.314760 15.836250 0.000000
756.657290 217.827850 15.738615 0.000000
759.301270 217.635600 15.788525 0.000000
754.187190 217.971410 15.689381 0.000000
751.000550 218.836300 15.674984 0.000000
747.648560 219.991360 15.677561 0.000000
767.422790 217.518430 15.933190 0.000000
764.316410 217.840790 15.880162 0.000000
761.301940 218.209370 15.832823 0.000000
758.540830 218.488910 15.785172 0.000000
753.585940 218.874180 15.691055 0.000000
755.979430 218.706180 15.737858 0.000000
750.322940 219.915470 15.687308 0.000000
747.162960 221.009320 15.689993 0.000000
751.084170 222.506420 15.754417 0.000000
761.864810 220.929600 15.904785 0.000000
756.522890 221.468890 15.811554 0.000000
759.034550 221.273960 15.859924 0.000000
754.071960 221.706910 15.768051 0.000000
748.224670 223.320240 15.745138 0.000000
745.841800 223.815670 15.723263 0.000000
747.256100 225.054490 15.799897 0.000000
769.824830 221.497960 16.102676 0.000000
766.165950 222.156660 16.060099 0.000000
763.185490 222.465590 16.007374 0.000000
755.190860 223.313600 15.867495 0.000000
752.782650 223.585800 15.826687 0.000000
749.740910 224.503920 15.820639 0.000000
770.754030 225.239430 16.233036 0.000000
763.987670 226.131930 16.142054 0.000000
766.881900 225.940900 16.196283 0.000000
756.355770 226.559660 15.992956 0.000000
758.804690 226.394040 16.038521 0.000000
761.303830 226.281280 16.089539 0.000000
746.766420 227.977690 15.876319 0.000000
770.237790 227.965320 16.332142 0.000000
763.945010 228.536500 16.229815 0.000000
766.830440 228.356980 16.283508 0.000000
754.252930 228.939330 16.033007 0.000000
756.481200 228.849530 16.078487 0.000000
758.795170 228.778170 16.127514 0.000000
761.275510 228.675250 16.177893 0.000000
749.653380 229.480260 15.968358 0.000000
752.048160 229.091610 15.993219 0.000000
763.410640 231.751080 16.295942 0.000000
752.085270 232.080340 16.061041 0.000000
754.090090 232.041500 16.104296 0.000000
756.127560 232.049550 16.152332 0.000000
758.327880 232.017000 16.200670 0.000000
760.771360 231.902190 16.247593 0.000000
749.630070 232.543790 16.043804 0.000000
747.476200 232.861800 16.021076 0.000000
766.099490 231.664020 16.350948 0.000000
770.421880 231.838420 16.435005 0.000000
761.814760 232.479920 16.282799 0.000000
753.027890 232.832410 16.100624 0.000000
755.045290 232.756270 16.142876 0.000000
757.098510 232.726040 16.190065 0.000000
750.818180 233.132350 16.073528 0.000000
746.573730 233.846130 16.033680 0.000000
748.661130 233.475620 16.051552 0.000000
759.340760 232.639010 16.236811 0.000000
770.358220 234.492450 16.504484 0.000000
764.530270 234.892260 16.403862 0.000000
767.250310 234.752290 16.455091 0.000000
759.641850 235.110110 16.308708 0.000000
749.464480 235.660680 16.119486 0.000000
747.508180 235.934300 16.098465 0.000000
751.692930 235.255680 16.134890 0.000000
753.572080 235.192340 16.173334 0.000000
762.049260 234.980620 16.353540 0.000000
747.702090 214.607910 15.493713 0.000000
749.920780 213.762500 15.508595 0.000000
748.765140 217.737760 15.617748 0.000000
746.740050 218.466030 15.602185 0.000000
759.816530 212.461520 15.603537 0.000000
757.724120 212.776250 15.550139 0.000000
753.980900 213.118710 15.438210 0.000000
755.783080 212.995270 15.495193 0.000000
754.043400 217.195340 15.584713 0.000000
755.807370 217.037260 15.637836 0.000000
752.052310 217.706740 15.553183 0.000000
747.512080 221.615690 15.711481 0.000000
745.858700 221.986690 15.681629 0.000000
764.665890 213.208300 15.652883 0.000000
762.504460 213.474760 15.592242 0.000000
757.667110 216.837490 15.691561 0.000000
754.304570 218.903630 15.648830 0.000000
752.496700 219.250820 15.609697 0.000000
748.255190 222.836000 15.755504 0.000000
746.636960 223.207670 15.726490 0.000000
769.068660 214.462690 15.842444 0.000000
766.750060 214.783520 15.778135 0.000000
764.509400 215.115890 15.718455 0.000000
764.960510 221.628850 15.951838 0.000000
762.925600 221.857240 15.893368 0.000000
761.036930 222.015840 15.834602 0.000000
757.091430 224.422450 15.904799 0.000000
753.766970 224.757290 15.808605 0.000000
755.382320 224.609300 15.856485 0.000000
752.108280 225.019300 15.769973 0.000000
748.596370 227.606660 15.875000 0.000000
747.042300 227.961090 15.849538 0.000000
767.101990 221.379240 16.013006 0.000000
764.356930 220.964190 15.871504 0.000000
760.194150 223.509960 15.944382 0.000000
756.752010 223.865160 15.845016 0.000000
758.423770 223.707840 15.894445 0.000000
755.171690 223.981700 15.795771 0.000000
751.760130 226.361220 15.883877 0.000000
750.134090 226.738370 15.857430 0.000000
748.614010 227.053160 15.829655 0.000000
747.095280 227.434330 15.808310 0.000000
768.634460 220.363630 15.983458 0.000000
766.403440 220.711760 15.928043 0.000000
748.059270 229.924210 15.912515 0.000000
749.464780 229.654690 15.939146 0.000000
746.655400 230.253810 15.891914 0.000000
768.273990 224.010540 16.126270 0.000000
766.179320 224.277620 16.069298 0.000000
762.453550 224.595750 15.954233 0.000000
764.262570 224.454190 16.011108 0.000000
758.738040 226.796510 16.020046 0.000000
755.539790 227.108780 15.927412 0.000000
757.093440 226.971210 15.973544 0.000000
754.070430 227.209030 15.881350 0.000000
750.965760 229.329560 15.964464 0.000000
750.712650 231.523940 16.025232 0.000000
749.301090 231.815670 16.000805 0.000000
747.977840 232.056230 15.975065 0.000000
746.656680 232.351940 15.955055 0.000000
770.423340 225.166610 16.166620 0.000000
764.904300 226.966310 16.125870 0.000000
766.689700 226.889340 16.188850 0.000000
761.334230 227.318250 16.020773 0.000000
763.037230 227.188310 16.074427 0.000000
756.362000 229.467740 16.039314 0.000000
757.910100 229.309770 16.083399 0.000000
753.573970 229.611130 15.947243 0.000000
754.921330 229.566190 15.993917 0.000000
754.203740 230.633540 15.981126 0.000000
751.531010 232.354510 16.048988 0.000000
750.125920 232.666350 16.025799 0.000000
748.810910 232.925540 16.001173 0.000000
746.291870 233.468670 15.959591 0.000000
747.500730 233.236820 15.982231 0.000000
763.592160 228.127620 16.102488 0.000000
761.881650 228.296780 16.050634 0.000000
758.535460 230.239460 16.112638 0.000000
755.548770 230.557510 16.026237 0.000000
756.984620 230.431780 16.070316 0.000000
747.570920 211.610470 15.345217 0.000000
745.904170 212.435090 15.336308 0.000000
755.027830 231.368440 16.028503 0.000000
756.356020 231.286210 16.072903 0.000000
751.165890 233.187550 16.060534 0.000000
752.490540 232.954410 16.088837 0.000000
749.865480 233.446690 16.036123 0.000000
748.570190 233.756850 16.017368 0.000000
747.374630 233.989200 15.994958 0.000000
746.182860 234.269970 15.977852 0.000000
766.120910 228.622160 16.196993 0.000000
767.929750 228.468260 16.255964 0.000000
757.779850 231.148610 16.115868 0.000000
746.612240 214.021880 15.399729 0.000000
751.586670 211.730160 15.441679 0.000000
749.818480 212.603390 15.430472 0.000000
748.228150 213.232710 15.408976 0.000000
758.096920 232.400540 16.157377 0.000000
751.792540 234.246290 16.095886 0.000000
750.525760 234.500690 16.072235 0.000000
748.099730 235.032930 16.032499 0.000000
749.264950 234.803650 16.054142 0.000000
746.939030 235.308200 16.016066 0.000000
745.848510 235.533690 15.997522 0.000000
767.929570 229.802920 16.291943 0.000000
766.157040 229.971050 16.235331 0.000000
762.704770 230.419820 16.139067 0.000000
764.351560 230.239120 16.188301 0.000000
759.591430 232.199050 16.197395 0.000000
749.778020 215.578540 15.508823 0.000000
748.275880 216.159000 15.488089 0.000000
746.751040 216.886340 15.479047 0.000000
753.145390 214.012540 15.536504 0.000000
751.442140 214.777790 15.519878 0.000000
761.654660 233.196870 16.214142 0.000000
758.916020 234.681430 16.264460 0.000000
755.154110 234.901260 16.141685 0.000000
756.341980 234.855650 16.182644 0.000000
757.594300 234.782240 16.223484 0.000000
769.089230 231.736620 16.355488 0.000000
764.752380 232.898320 16.305498 0.000000
766.313290 232.823910 16.360254 0.000000
763.136290 233.083860 16.260839 0.000000
752.516910 218.232440 15.661476 0.000000
750.998720 218.823060 15.642900 0.000000
749.510620 219.448490 15.629368 0.000000
748.156680 219.892520 15.607439 0.000000
746.781740 220.464290 15.595937 0.000000
760.163510 214.222660 15.677775 0.000000
758.559750 214.542180 15.628974 0.000000
757.069950 214.744980 15.576530 0.000000
755.584170 215.005840 15.530071 0.000000
763.551640 235.671370 16.380535 0.000000
764.975520 235.629390 16.431797 0.000000
760.731450 235.883640 16.294281 0.000000
762.080260 235.811100 16.338545 0.000000
770.101930 233.760280 16.427990 0.000000
767.464900 234.701070 16.427465 0.000000
749.114990 223.640750 15.759478 0.000000
747.966060 223.843380 15.728113 0.000000
746.798160 224.143600 15.705023 0.000000
757.104550 219.694060 15.772318 0.000000
758.492370 219.519450 15.821405 0.000000
766.682190 215.800720 15.883901 0.000000
763.297970 216.396060 15.772455 0.000000
764.968080 216.092590 15.826128 0.000000
761.720150 216.635570 15.718429 0.000000
770.339970 234.979720 16.473774 0.000000
767.793700 235.882320 16.472980 0.000000
752.073490 225.180970 15.870411 0.000000
749.669430 225.799740 15.818947 0.000000
750.860290 225.480700 15.842966 0.000000
748.563780 226.006850 15.789390 0.000000
761.295530 219.750240 15.809458 0.000000
757.041560 222.465070 15.854231 0.000000
758.366820 222.285170 15.900655 0.000000
754.511050 222.790440 15.766217 0.000000
755.780210 222.594570 15.807018 0.000000
770.010010 215.631970 15.860917 0.000000
765.983340 218.962740 15.967943 0.000000
762.765380 219.554520 15.863017 0.000000
764.353090 219.253330 15.913500 0.000000
754.970580 224.821640 15.836467 0.000000
752.743710 226.907470 15.925669 0.000000
751.567320 227.207980 15.898790 0.000000
750.394650 227.563660 15.877879 0.000000
748.211000 228.131590 15.832169 0.000000
749.310850 227.801880 15.850846 0.000000
746.397830 230.151990 15.937546 0.000000
766.067930 221.038510 16.031965 0.000000
764.469360 221.359740 15.980090 0.000000
761.514400 221.860110 15.877665 0.000000
762.942260 221.649870 15.929759 0.000000
757.441040 224.443480 15.920167 0.000000
758.737790 224.235520 15.964361 0.000000
756.209470 224.599520 15.875026 0.000000
769.890260 217.903260 15.929446 0.000000
746.459660 231.512820 15.959619 0.000000
747.401180 231.289790 15.978755 0.000000
756.695800 226.319720 15.930860 0.000000
757.875430 226.182820 15.974113 0.000000
755.509090 226.519320 15.893965 0.000000
752.355470 228.574230 15.943011 0.000000
753.403990 228.452930 15.979532 0.000000
751.229430 228.895610 15.922484 0.000000
750.186160 229.107890 15.896070 0.000000
749.127750 229.406460 15.877707 0.000000
765.998960 223.161040 16.085594 0.000000
764.512020 223.404630 16.033613 0.000000
761.720460 223.815440 15.933837 0.000000
763.077820 223.636370 15.983964 0.000000
759.116270 225.997340 16.016386 0.000000
769.537960 220.317570 15.989005 0.000000
750.623050 231.267880 15.967690 0.000000
749.635190 231.511200 15.949189 0.000000
748.044740 233.183870 16.042515 0.000000
746.292180 233.546390 16.005863 0.000000
747.159360 233.364270 16.023455 0.000000
761.153260 226.891280 16.020645 0.000000
758.781680 228.828950 16.098787 0.000000
756.553100 229.054370 16.016848 0.000000
757.640750 228.962490 16.058275 0.000000
755.458620 229.202440 15.981264 0.000000
752.609070 230.906920 16.019035 0.000000
753.579160 230.834790 16.055090 0.000000
751.596680 231.102660 15.993683 0.000000
769.669560 223.839290 16.137880 0.000000
768.012450 224.219210 16.092054 0.000000
763.708980 226.591060 16.115093 0.000000
765.051030 226.429320 16.165428 0.000000
762.397710 226.763760 16.068115 0.000000
749.095890 211.172270 15.416191 0.000000
747.782040 211.737730 15.401972 0.000000
746.478450 212.386700 15.395447 0.000000
753.361820 232.221420 16.079216 0.000000
751.521000 232.395680 16.017282 0.000000
752.431460 232.309600 16.047625 0.000000
750.567630 232.614230 15.998629 0.000000
748.188600 234.341570 16.068668 0.000000
749.046330 234.180310 16.087791 0.000000
746.523500 234.669850 16.034645 0.000000
747.347900 234.504760 16.050972 0.000000
763.913270 228.327330 16.180248 0.000000
761.479860 228.574680 16.087950 0.000000
762.665590 228.471790 16.134346 0.000000
758.157960 230.468290 16.121529 0.000000
759.248960 230.357090 16.161242 0.000000
756.077510 230.650590 16.044758 0.000000
757.116520 230.540880 16.080923 0.000000
754.295290 232.164310 16.114597 0.000000
767.959720 226.169170 16.160669 0.000000
765.189150 228.193700 16.229353 0.000000
748.565120 214.042970 15.479195 0.000000
747.323430 214.616670 15.471234 0.000000
746.134890 215.098500 15.459858 0.000000
752.446110 212.442570 15.525814 0.000000
751.127560 212.952300 15.506209 0.000000
749.815730 213.546400 15.494406 0.000000
754.715580 233.878950 16.171095 0.000000
752.097720 234.014370 16.071571 0.000000
752.933110 234.010040 16.106663 0.000000
753.822330 233.930800 16.137119 0.000000
751.200070 234.184660 16.051035 0.000000
749.766420 235.622960 16.135403 0.000000
748.135990 235.920620 16.099571 0.000000
748.943180 235.770770 16.116798 0.000000
747.344120 236.072540 16.083683 0.000000
757.368100 232.410680 16.141090 0.000000
758.349370 232.365260 16.181498 0.000000
759.388850 232.264330 16.219538 0.000000
756.386050 232.495000 16.105240 0.000000
770.487240 227.956970 16.316135 0.000000
768.904910 228.328080 16.274755 0.000000
767.534120 228.496980 16.223530 0.000000
752.587220 216.042040 15.621850 0.000000
751.357730 216.486540 15.602521 0.000000
750.134090 217.008030 15.590536 0.000000
748.965090 217.442690 15.575357 0.000000
747.803960 217.947660 15.567003 0.000000
746.690430 218.370760 15.555454 0.000000
758.783690 211.935790 15.588533 0.000000
760.137570 211.686830 15.635136 0.000000
757.441710 212.225130 15.547002 0.000000
756.155940 212.439500 15.503551 0.000000
754.900510 212.635470 15.461354 0.000000
752.559750 234.141570 16.075352 0.000000
753.397160 234.100780 16.104921 0.000000
754.219540 234.120160 16.140450 0.000000
755.094480 234.065400 16.171314 0.000000
755.971740 234.039030 16.205700 0.000000
750.356870 235.590410 16.132347 0.000000
751.175170 235.464290 16.151617 0.000000
747.990600 235.981050 16.082304 0.000000
748.764890 235.849640 16.097805 0.000000
749.553650 235.718980 16.114433 0.000000
766.020750 230.732150 16.323227 0.000000
762.603030 230.962250 16.187000 0.000000
763.698490 230.905580 16.231747 0.000000
764.847660 230.813480 16.276022 0.000000
769.908020 228.767940 16.306339 0.000000
768.525450 228.966400 16.259827 0.000000
754.096070 215.525510 15.628428 0.000000
752.910950 215.796100 15.599432 0.000000
751.686340 216.273730 15.585773 0.000000
750.513430 216.670010 15.569198 0.000000
749.347660 217.134350 15.559204 0.000000
748.226930 217.521880 15.546290 0.000000
747.129760 217.905690 15.535099 0.000000
760.157900 211.849790 15.614813 0.000000
761.488220 211.660950 15.662907 0.000000
757.567750 212.239230 15.526745 0.000000
758.836910 212.079350 15.571651 0.000000
756.306520 212.437870 15.486477 0.000000
758.724610 233.106980 16.180826 0.000000
757.121220 234.387280 16.244392 0.000000
750.156310 235.680800 16.115469 0.000000
750.934750 235.587740 16.133039 0.000000
751.726260 235.496830 16.151804 0.000000
752.485470 235.513000 16.180372 0.000000
747.904240 235.939580 16.066719 0.000000
748.636660 235.872440 16.083687 0.000000
749.390320 235.776090 16.099064 0.000000
747.172790 236.038160 16.053305 0.000000
769.150570 229.922590 16.304152 0.000000
770.452700 229.794680 16.350124 0.000000
766.750790 231.576870 16.366482 0.000000
763.518740 231.616790 16.229631 0.000000
764.558650 231.619570 16.274586 0.000000
765.644710 231.592680 16.319195 0.000000
759.662350 233.078190 16.215797 0.000000
760.593750 233.092580 16.255442 0.000000
761.562810 233.078700 16.294430 0.000000
747.074040 219.801820 15.691326 0.000000
746.058110 220.118500 15.682996 0.000000
754.401180 215.322080 15.616209 0.000000
755.508300 215.314790 15.658537 0.000000
753.261290 215.480420 15.585140 0.000000
752.092160 215.804350 15.566522 0.000000
750.928890 216.191310 15.553974 0.000000
749.805850 216.510820 15.539003 0.000000
748.703550 216.828550 15.525759 0.000000
761.462520 211.958340 15.650306 0.000000
762.746700 211.874100 15.700449 0.000000
757.721920 212.239400 15.514698 0.000000
758.950680 212.141940 15.557558 0.000000
760.183590 212.082550 15.604783 0.000000
755.678160 233.101580 16.117254 0.000000
756.492000 233.162750 16.149895 0.000000
757.288150 233.281630 16.187971 0.000000
758.134700 233.323300 16.221054 0.000000
758.977970 233.396350 16.257597 0.000000
748.989620 234.288280 16.027035 0.000000
749.742610 234.231660 16.042421 0.000000
750.496220 234.203740 16.061005 0.000000
754.309140 234.326750 16.187733 0.000000
747.896670 235.585170 16.116693 0.000000
746.489930 235.670810 16.088638 0.000000
747.186520 235.638720 16.103216 0.000000
765.433720 230.740540 16.241919 0.000000
766.447450 230.817750 16.289013 0.000000
767.511780 230.854780 16.334862 0.000000
768.610900 230.879180 16.381550 0.000000
760.658140 232.028150 16.187180 0.000000
761.582890 232.067840 16.224678 0.000000
762.501340 232.146180 16.266289 0.000000
763.451900 232.201190 16.307489 0.000000
749.298030 215.358020 15.594698 0.000000
748.207950 215.632130 15.584106 0.000000
746.091980 216.081300 15.561243 0.000000
747.142880 215.857330 15.571962 0.000000
754.656800 211.352400 15.475809 0.000000
756.952760 211.453930 15.559229 0.000000
758.114200 211.512020 15.603838 0.000000
753.480960 211.461730 15.446377 0.000000
755.791630 211.430360 15.518363 0.000000
751.104740 211.977360 15.411288 0.000000
752.283390 211.719510 15.427923 0.000000
753.721560 230.632930 16.017937 0.000000
754.522340 230.721340 16.048424 0.000000
755.326660 230.819370 16.080456 0.000000
756.138790 230.916960 16.113283 0.000000
756.958310 231.016830 16.147141 0.000000
746.297120 232.219350 15.970035 0.000000
747.042480 232.172360 15.982281 0.000000
747.790470 232.144350 15.996762 0.000000
748.544980 232.117740 16.012066 0.000000
764.037410 228.211910 16.130669 0.000000
765.032470 228.284940 16.172462 0.000000
766.020870 228.397670 16.218321 0.000000
767.041630 228.487170 16.263927 0.000000
758.533940 229.496700 16.061949 0.000000
759.421880 229.565030 16.096405 0.000000
760.287780 229.702120 16.136894 0.000000
761.214290 229.743390 16.171482 0.000000
762.132690 229.827850 16.210310 0.000000
769.441590 226.541120 16.174898 0.000000
770.649900 226.493730 16.216389 0.000000
750.548770 228.696120 15.926938 0.000000
751.386410 228.625350 15.943443 0.000000
746.480350 229.119370 15.862193 0.000000
761.671880 225.230910 15.975178 0.000000
762.672790 225.254730 16.011873 0.000000
763.647710 225.361790 16.055511 0.000000
764.696660 225.353360 16.092541 0.000000
765.737370 225.395450 16.134357 0.000000
753.591060 226.826720 15.855204 0.000000
754.461240 226.854100 15.882650 0.000000
755.331600 226.906520 15.912841 0.000000
756.217710 226.938190 15.942412 0.000000
757.114260 226.968490 15.972840 0.000000
758.017330 227.009340 16.005014 0.000000
758.931400 227.050140 16.038200 0.000000
759.855410 227.095410 16.072750 0.000000
752.242430 228.525010 15.958607 0.000000
769.254640 223.158840 16.071663 0.000000
770.498900 223.055980 16.110750 0.000000
768.002320 223.326020 16.038687 0.000000
755.463930 221.830060 15.831333 0.000000
752.572140 222.055160 15.759787 0.000000
753.540710 221.916640 15.778192 0.000000
754.493530 221.887190 15.805207 0.000000
751.588620 222.325670 15.751747 0.000000
750.612790 222.642010 15.748125 0.000000
748.735050 223.126080 15.733643 0.000000
749.675290 222.835630 15.736889 0.000000
747.832520 223.249510 15.719357 0.000000
768.447750 216.029270 15.838571 0.000000
769.751950 215.878220 15.877767 0.000000
767.175170 216.169560 15.800588 0.000000
764.738770 219.018800 15.934507 0.000000
761.365480 219.260040 15.830258 0.000000
762.465390 219.194990 15.864552 0.000000
763.593320 219.104520 15.898630 0.000000
757.138980 219.461910 15.702126 0.000000
758.178470 219.400100 15.731573 0.000000
759.218810 219.376620 15.764767 0.000000
760.284060 219.319470 15.796944 0.000000
769.418150 233.388580 16.390678 0.000000
770.376040 233.463410 16.422241 0.000000
760.908750 234.066970 16.246897 0.000000
761.705020 234.136470 16.271309 0.000000
762.498290 234.233610 16.298441 0.000000
763.311890 234.312320 16.324661 0.000000
764.088130 234.481050 16.358475 0.000000
748.217100 234.390380 16.026743 0.000000
748.907780 234.374630 16.036787 0.000000
749.602720 234.359310 16.047195 0.000000
750.302190 234.344590 16.057999 0.000000
751.010130 234.313670 16.067780 0.000000
751.720460 234.299640 16.079363 0.000000
752.416990 234.366360 16.098137 0.000000
753.797180 234.584950 16.143818 0.000000
754.516850 234.610200 16.160135 0.000000
755.243770 234.633680 16.176710 0.000000
746.165890 234.438350 15.998576 0.000000
746.846560 234.422380 16.007658 0.000000
747.530150 234.406340 16.017040 0.000000
755.924680 234.813480 16.206596 0.000000
756.640990 234.899810 16.229111 0.000000
757.362670 234.987920 16.252165 0.000000
758.089720 235.078280 16.275812 0.000000
759.561460 235.268160 16.325123 0.000000
753.493960 211.584670 15.460204 0.000000
754.586980 211.650480 15.487767 0.000000
755.671020 211.783000 15.520448 0.000000
756.765380 211.883740 15.552052 0.000000
757.864320 211.986570 15.584736 0.000000
751.235050 212.073270 15.447588 0.000000
752.340450 211.937640 15.460271 0.000000
758.968200 212.091930 15.618547 0.000000
750.132510 212.267820 15.439713 0.000000
747.960880 212.652530 15.426720 0.000000
746.890200 212.842410 15.421533 0.000000
745.828740 213.030520 15.417177 0.000000
753.251770 224.734800 15.809494 0.000000
754.118960 224.758070 15.830883 0.000000
754.990840 224.782970 15.852832 0.000000
755.867860 224.809860 15.875385 0.000000
757.654110 224.814450 15.918390 0.000000
758.546510 224.861270 15.943867 0.000000
750.621890 225.091050 15.779914 0.000000
751.486690 224.995210 15.790977 0.000000
752.370120 224.829790 15.797344 0.000000
759.449400 224.897720 15.969122 0.000000
760.367490 224.913010 15.993429 0.000000
761.294740 224.930590 16.018482 0.000000
762.231380 224.951020 16.044346 0.000000
763.177920 224.975100 16.071093 0.000000
764.134520 225.003510 16.098795 0.000000
747.227540 225.472790 15.740089 0.000000
748.067500 225.377980 15.749437 0.000000
749.764160 225.186950 15.769322 0.000000
746.392400 225.567060 15.731110 0.000000
770.413330 222.623900 16.082781 0.000000
769.122740 223.682740 16.084343 0.000000
770.216860 223.594960 16.105471 0.000000
767.048030 223.731700 16.036018 0.000000
768.065860 223.732730 16.061525 0.000000
750.368100 225.052460 15.778138 0.000000
751.218510 224.993850 15.789204 0.000000
752.078860 224.894010 15.797585 0.000000
753.796690 224.852330 15.827492 0.000000
754.650090 224.908160 15.848768 0.000000
755.505000 224.972320 15.871045 0.000000
756.362980 225.037980 15.893826 0.000000
757.224490 225.105450 15.917149 0.000000
746.172730 225.336060 15.727890 0.000000
747.006040 225.284820 15.737626 0.000000
747.841670 225.227220 15.747229 0.000000
748.680180 225.169250 15.757170 0.000000
749.522160 225.110950 15.767467 0.000000
758.075930 225.231990 15.945179 0.000000
758.972780 225.196980 15.961939 0.000000
763.422610 225.550870 16.091236 0.000000
764.337340 225.619020 16.118469 0.000000
765.260130 225.691190 16.146553 0.000000
753.317630 220.985920 15.687638 0.000000
754.228760 221.055360 15.709996 0.000000
750.554140 221.442500 15.671337 0.000000
751.468690 221.275670 15.675221 0.000000
752.391240 221.107640 15.679504 0.000000
759.742190 221.474730 15.852640 0.000000
761.623050 221.573850 15.900879 0.000000
748.746580 221.772220 15.664681 0.000000
749.646910 221.608030 15.667830 0.000000
760.656860 221.616580 15.882910 0.000000
762.558590 221.676210 15.929362 0.000000
763.505370 221.759870 15.957060 0.000000
764.467960 221.816310 15.983429 0.000000
765.446290 221.852140 16.008980 0.000000
767.431030 221.933670 16.062567 0.000000
746.070920 222.033290 15.640589 0.000000
746.960630 221.963350 15.649508 0.000000
770.598270 219.316760 15.942831 0.000000
768.457640 221.932010 16.087538 0.000000
768.990050 213.608180 15.831654 0.000000
770.228820 213.343720 15.847759 0.000000
764.432190 213.935240 15.731014 0.000000
765.562320 213.811070 15.752337 0.000000
766.684690 213.766330 15.779417 0.000000
767.824400 213.705960 15.806285 0.000000
759.003300 214.359890 15.622493 0.000000
760.071900 214.257930 15.641779 0.000000
761.145320 214.183040 15.663463 0.000000
762.228030 214.109850 15.685900 0.000000
753.804320 214.566130 15.514374 0.000000
754.833440 214.533070 15.535528 0.000000
755.866580 214.500030 15.557172 0.000000
756.904420 214.467250 15.579334 0.000000
757.947570 214.434950 15.602049 0.000000
747.746030 216.435520 15.513798 0.000000
746.772830 216.743620 15.515563 0.000000
745.808230 217.048340 15.517639 0.000000
748.223450 232.502000 16.028444 0.000000
748.935060 232.474870 16.037144 0.000000
749.645690 232.447890 16.045843 0.000000
751.066040 232.393770 16.063208 0.000000
753.194890 232.490390 16.104254 0.000000
753.900630 232.574940 16.122301 0.000000
756.009030 232.826490 16.176121 0.000000
756.710270 232.909970 16.194006 0.000000
757.411560 232.993590 16.211901 0.000000
763.106510 233.545270 16.346481 0.000000
763.832460 233.620930 16.364084 0.000000
765.307370 233.749560 16.397736 0.000000
768.351500 233.981450 16.464348 0.000000
769.145750 234.013470 16.479321 0.000000
747.510560 232.529390 16.019751 0.000000
750.355830 232.420850 16.054529 0.000000
751.776490 232.366460 16.071878 0.000000
752.486940 232.405330 16.086136 0.000000
754.604610 232.659070 16.140284 0.000000
755.307190 232.742890 16.158218 0.000000
758.113100 233.077420 16.229822 0.000000
758.817020 233.152450 16.247036 0.000000
759.524290 233.218350 16.263527 0.000000
760.233700 233.285420 16.280151 0.000000
760.945560 233.353940 16.296938 0.000000
761.662900 233.413410 16.313042 0.000000
762.381100 233.484680 16.330158 0.000000
764.567140 233.684400 16.380798 0.000000
766.053340 233.816860 16.414944 0.000000
766.806820 233.882660 16.432144 0.000000
767.575440 233.930020 16.448017 0.000000
770.750310 234.114640 16.512655 0.000000
746.724610 223.195500 15.765321 0.000000
748.500730 223.245130 15.790134 0.000000
751.998050 223.111210 15.821838 0.000000
753.745000 223.211350 15.850045 0.000000
754.614010 223.353450 15.870911 0.000000
755.477910 223.512500 15.892967 0.000000
758.893800 224.138260 15.979958 0.000000
762.271730 224.755620 16.065870 0.000000
765.646000 225.367710 16.151352 0.000000
766.491940 225.524430 16.173025 0.000000
768.217650 225.751970 16.210409 0.000000
769.115970 225.778720 16.223082 0.000000
745.830080 223.178590 15.753426 0.000000
749.381530 223.263150 15.801951 0.000000
750.255190 223.229680 15.809872 0.000000
751.126400 223.170500 15.815857 0.000000
756.337280 223.670360 15.914886 0.000000
757.192690 223.827240 15.936682 0.000000
758.044620 223.983120 15.958365 0.000000
759.740540 224.292760 16.001474 0.000000
760.585450 224.446820 16.022938 0.000000
761.429080 224.600740 16.044374 0.000000
763.114320 224.908450 16.087217 0.000000
763.957150 225.062040 16.108620 0.000000
764.800420 225.216780 16.130114 0.000000
770.022770 225.807620 16.236017 0.000000
747.330140 233.349930 16.008656 0.000000
748.059140 233.373030 16.025167 0.000000
748.772580 233.340710 16.036367 0.000000
749.482730 233.309880 16.047363 0.000000
750.190190 233.280210 16.058142 0.000000
750.896120 233.258010 16.069260 0.000000
751.598880 233.228700 16.079443 0.000000
752.305110 233.255770 16.094246 0.000000
753.011960 233.334960 16.113258 0.000000
753.714170 233.414060 16.131918 0.000000
754.412290 233.492970 16.150225 0.000000
746.622920 233.447360 16.002586 0.000000
755.106690 233.571530 16.168179 0.000000
755.797850 233.649730 16.185785 0.000000
756.486330 233.719920 16.202398 0.000000
757.172420 233.798660 16.219446 0.000000
757.856510 233.877030 16.236168 0.000000
758.539060 233.955020 16.252577 0.000000
759.220520 234.032710 16.268681 0.000000
759.902590 234.097630 16.283436 0.000000
760.585450 234.157670 16.297522 0.000000
761.269040 234.217970 16.311378 0.000000
761.953740 234.278730 16.325022 0.000000
762.640930 234.333920 16.337963 0.000000
763.329280 234.395020 16.351156 0.000000
764.019840 234.457310 16.364214 0.000000
764.712890 234.521040 16.377161 0.000000
765.422910 234.530460 16.385391 0.000000
766.106450 234.660230 16.403332 0.000000
766.794740 234.779790 16.420183 0.000000
767.535030 234.737460 16.423521 0.000000
768.260130 234.770810 16.432869 0.000000
768.991760 234.805970 16.442154 0.000000
769.730040 234.843380 16.451422 0.000000
747.660220 229.808560 15.902691 0.000000
746.070740 229.838500 15.876952 0.000000
748.463870 229.882000 15.922463 0.000000
749.247380 229.887120 15.936033 0.000000
750.026000 229.893920 15.949366 0.000000
750.800230 229.902080 15.962448 0.000000
751.571900 229.922820 15.976223 0.000000
753.113950 230.083300 16.012600 0.000000
753.880980 230.219710 16.034887 0.000000
754.641240 230.355510 16.056740 0.000000
755.395260 230.490570 16.078159 0.000000
756.143550 230.624830 16.099150 0.000000
757.625610 230.851880 16.136694 0.000000
758.360960 230.965410 16.154972 0.000000
759.093260 231.078220 16.172876 0.000000
759.822880 231.190430 16.190416 0.000000
760.550350 231.302090 16.207607 0.000000
761.276120 231.413330 16.224466 0.000000
762.000670 231.524320 16.241009 0.000000
762.724370 231.635190 16.257256 0.000000
763.447630 231.746220 16.273228 0.000000
764.171200 231.856000 16.288824 0.000000
764.895140 231.966610 16.304213 0.000000
765.619870 232.078120 16.319401 0.000000
766.345760 232.190860 16.334417 0.000000
767.089600 232.238490 16.344007 0.000000
767.813110 232.380450 16.360817 0.000000
748.554990 228.988710 15.891296 0.000000
749.366580 229.025040 15.910114 0.000000
750.159180 228.993410 15.922831 0.000000
750.948120 228.963420 15.935314 0.000000
751.733890 228.934780 15.947544 0.000000
752.521970 228.947590 15.962839 0.000000
753.315920 229.052250 15.985310 0.000000
746.143490 229.138600 15.854153 0.000000
746.955140 229.099060 15.867826 0.000000
754.103270 229.157040 16.007378 0.000000
754.884520 229.261750 16.029041 0.000000
755.659790 229.360990 16.049871 0.000000
756.429500 229.443420 16.068964 0.000000
757.195250 229.525540 16.087679 0.000000
757.957640 229.607250 16.106018 0.000000
758.717160 229.680680 16.123356 0.000000
759.474240 229.763060 16.141088 0.000000
760.229310 229.845060 16.158470 0.000000
760.982850 229.926670 16.175510 0.000000
761.735350 230.008040 16.192226 0.000000
762.487180 230.089260 16.208633 0.000000
763.238890 230.170470 16.224749 0.000000
763.990970 230.251890 16.240595 0.000000
764.743650 230.333710 16.256193 0.000000
770.116210 230.761840 16.346821 0.000000
751.452640 230.260710 15.974916 0.000000
752.986450 230.232510 16.006226 0.000000
753.758730 230.303340 16.028452 0.000000
747.611330 230.621780 15.914933 0.000000
748.385130 230.541700 15.927010 0.000000
749.163150 230.496750 15.941731 0.000000
749.913760 230.346440 15.946999 0.000000
750.691040 230.333980 15.963745 0.000000
754.523250 230.356980 16.048834 0.000000
755.283080 230.411090 16.068867 0.000000
756.038700 230.465420 16.088545 0.000000
757.537660 230.541520 16.124151 0.000000
758.283260 230.573640 16.140970 0.000000
759.027280 230.605620 16.157463 0.000000
759.770140 230.635040 16.173441 0.000000
760.512210 230.668090 16.189417 0.000000
761.253970 230.700990 16.205091 0.000000
761.995850 230.733730 16.220474 0.000000
769.563420 230.906710 16.348331 0.000000
746.043030 230.761110 15.887716 0.000000
746.829710 230.690720 15.901476 0.000000
766.476930 230.924550 16.306805 0.000000
767.234190 230.950880 16.319908 0.000000
767.999330 230.959180 16.331379 0.000000
768.769410 230.969240 16.342773 0.000000
770.334780 230.962630 16.362867 0.000000
750.757870 229.340230 15.932673 0.000000
751.551880 229.318330 15.949592 0.000000
753.126830 229.278170 15.982525 0.000000
753.918030 229.325350 16.003992 0.000000
754.705810 229.389510 16.026447 0.000000
755.486080 229.437000 16.047108 0.000000
756.259890 229.463810 16.065685 0.000000
757.030210 229.488860 16.083757 0.000000
757.797730 229.514130 16.101492 0.000000
758.562870 229.539440 16.118895 0.000000
759.326050 229.564680 16.135960 0.000000
747.612670 229.734500 15.887112 0.000000
748.409180 229.653460 15.900597 0.000000
749.198430 229.562010 15.912771 0.000000
749.992190 229.506000 15.927572 0.000000
763.891660 229.717450 16.232084 0.000000
764.654600 229.743560 16.247171 0.000000
765.419310 229.769870 16.262016 0.000000
766.186220 229.796650 16.276642 0.000000
766.955810 229.824050 16.291069 0.000000
767.734620 229.817410 16.302631 0.000000
768.517330 229.816240 16.314396 0.000000
770.112980 229.753660 16.332691 0.000000
746.004700 229.901410 15.859245 0.000000
746.811280 229.816960 15.873316 0.000000
770.643130 228.463550 16.305187 0.000000
750.831850 228.611770 15.918915 0.000000
751.609920 228.426610 15.923582 0.000000
752.418580 228.393680 15.940618 0.000000
753.234620 228.426620 15.962691 0.000000
754.044620 228.461270 15.984452 0.000000
754.849060 228.497300 16.005890 0.000000
755.646850 228.522060 16.025988 0.000000
761.136720 228.609570 16.149452 0.000000
761.915100 228.621870 16.165756 0.000000
