# .PCD v0.7 - Point Cloud Data file format
VERSION 0.7
FIELDS x y z intensity
SIZE 4 4 4 4
TYPE F F F F
COUNT 1 1 1 1
WIDTH 1166
HEIGHT 1
VIEWPOINT 0 0 0 1 0 0 0
POINTS 1166
DATA ascii
783.661380 146.749600 13.412115 0.000000
779.345950 147.829540 13.313820 0.000000
778.854310 147.769990 13.270785 0.000000
778.320740 148.147550 13.236064 0.000000
773.928100 149.225040 13.190711 0.000000
791.210020 144.646480 13.194605 0.000000
789.168640 145.302980 13.142557 0.000000
787.398380 145.613690 13.333009 0.000000
786.107970 146.023680 13.494442 0.000000
790.098820 144.750380 13.421497 0.000000
788.785710 144.818440 13.256021 0.000000
788.361330 145.045680 13.281230 0.000000
786.486690 145.450060 13.455210 0.000000
785.867190 145.520320 13.351481 0.000000
785.358580 145.543760 13.238835 0.000000
792.002870 143.880480 13.294128 0.000000
790.525270 143.492510 13.507671 0.000000
790.123410 143.806140 13.535118 0.000000
789.795530 143.802540 13.537195 0.000000
795.628660 142.067540 13.552898 0.000000
789.841060 143.503490 13.304084 0.000000
773.665470 137.430880 13.367306 0.000000
786.369810 161.006440 13.403068 0.000000
786.093630 160.917570 13.403230 0.000000
785.819090 160.825710 13.402697 0.000000
785.466310 160.735290 13.398284 0.000000
785.161740 160.709730 13.388501 0.000000
784.929750 160.688350 13.380664 0.000000
784.614140 160.656490 13.369334 0.000000
784.211120 160.611530 13.354084 0.000000
783.879700 160.571010 13.340756 0.000000
781.898680 161.058560 13.415128 0.000000
783.626650 160.536820 13.330265 0.000000
783.366390 160.502140 13.318828 0.000000
781.465820 161.003140 13.397209 0.000000
781.014950 160.942320 13.377865 0.000000
780.664370 160.893140 13.362381 0.000000
780.423710 160.857970 13.351540 0.000000
780.177190 160.821440 13.340231 0.000000
779.795780 160.762530 13.322405 0.000000
779.264470 160.678250 13.296895 0.000000
775.291810 161.041200 13.376545 0.000000
774.861570 160.982480 13.359349 0.000000
774.413090 160.920440 13.341235 0.000000
773.959350 160.846890 13.323050 0.000000
773.488590 160.767960 13.304041 0.000000
772.996580 160.684800 13.283965 0.000000
772.479000 160.598300 13.262580 0.000000
771.938230 160.505840 13.240058 0.000000
789.758000 149.462880 13.832526 0.000000
789.541990 149.488140 13.721609 0.000000
789.079040 149.646740 13.718596 0.000000
788.826110 149.686400 13.729876 0.000000
786.647890 150.108460 13.735410 0.000000
786.541690 150.161180 13.731931 0.000000
791.322450 148.856720 13.807373 0.000000
790.999510 148.770340 13.708387 0.000000
790.648620 148.850630 13.786092 0.000000
789.695620 149.394390 13.869226 0.000000
789.509830 149.267840 13.731897 0.000000
789.213500 149.364060 13.755405 0.000000
788.719480 149.474550 13.817016 0.000000
788.265380 149.431400 13.808878 0.000000
786.616210 149.876860 13.784266 0.000000
786.333130 149.970520 13.686507 0.000000
786.072750 149.942250 13.575379 0.000000
793.264220 147.863010 13.557746 0.000000
791.207760 148.514880 13.789686 0.000000
790.895080 148.608340 13.753480 0.000000
790.494020 148.702510 13.673934 0.000000
790.359380 148.731750 13.684238 0.000000
789.397770 149.017430 13.704861 0.000000
789.149350 149.093020 13.765173 0.000000
788.464540 149.183580 13.863283 0.000000
788.112490 149.100690 13.635761 0.000000
787.894960 149.131240 13.635490 0.000000
787.392880 149.215150 13.627214 0.000000
786.570430 149.566450 13.663109 0.000000
786.293820 149.570570 13.689811 0.000000
785.808840 149.597640 13.644377 0.000000
785.637820 149.689820 13.492121 0.000000
793.873050 147.511730 13.747345 0.000000
793.549620 147.562450 13.844458 0.000000
793.204410 147.654790 13.704765 0.000000
792.791260 147.572800 13.720603 0.000000
790.759580 148.078220 13.832890 0.000000
790.326230 148.226850 13.684161 0.000000
789.894960 148.319120 13.764200 0.000000
789.187070 148.442540 13.889802 0.000000
788.795470 148.519070 13.700967 0.000000
788.503420 148.733670 13.726770 0.000000
788.123720 148.815120 13.777203 0.000000
787.724430 148.881350 13.730681 0.000000
787.423280 148.916950 13.771100 0.000000
786.878230 148.993000 13.658129 0.000000
786.603270 149.012180 13.642961 0.000000
786.191280 149.233260 13.652987 0.000000
785.905150 149.283910 13.470578 0.000000
795.469420 146.670150 13.839095 0.000000
792.781070 147.287050 13.627350 0.000000
791.715820 147.381030 13.896432 0.000000
791.590760 147.427780 13.691022 0.000000
791.087340 147.744600 13.800142 0.000000
790.766540 147.719240 13.743910 0.000000
790.387820 147.725400 13.818420 0.000000
789.518980 148.058930 13.524932 0.000000
789.241210 148.115690 13.701167 0.000000
788.841490 148.243060 13.824619 0.000000
788.150630 148.392110 13.883175 0.000000
787.081240 148.614810 13.724722 0.000000
786.834530 148.738330 13.674650 0.000000
786.518070 148.861820 13.721267 0.000000
785.990300 148.653920 13.832008 0.000000
783.346740 149.204190 13.547507 0.000000
783.039490 149.331390 13.596452 0.000000
776.990050 150.649930 13.668975 0.000000
795.370000 146.132770 13.723142 0.000000
793.617070 146.662840 13.629066 0.000000
793.414370 146.576740 13.811271 0.000000
790.956360 147.149870 13.763580 0.000000
789.939880 147.609530 13.757948 0.000000
788.474910 147.806590 13.841639 0.000000
787.867740 148.013580 13.630413 0.000000
787.102170 148.276860 13.706858 0.000000
786.717290 148.381470 13.737884 0.000000
786.082340 148.546510 13.607588 0.000000
783.629150 148.974780 13.768759 0.000000
783.246460 149.027370 13.601664 0.000000
783.001340 149.096070 13.729658 0.000000
782.111330 149.096310 13.584234 0.000000
777.725400 150.406860 13.706042 0.000000
776.990360 150.439650 13.540357 0.000000
795.449890 145.809310 13.927730 0.000000
794.174380 146.227910 13.577510 0.000000
792.822940 146.564540 13.829428 0.000000
792.609190 146.521160 13.665485 0.000000
783.900330 148.319580 13.758771 0.000000
783.638000 148.422710 13.818342 0.000000
783.291630 148.729540 13.515705 0.000000
782.943970 148.683470 13.787055 0.000000
779.287660 149.374330 13.780510 0.000000
777.986570 149.683790 13.718612 0.000000
777.842290 149.838870 13.591131 0.000000
777.084410 149.827500 13.416698 0.000000
774.726140 150.686020 13.555397 0.000000
793.970090 145.988720 13.573915 0.000000
793.647090 145.903660 13.776155 0.000000
783.129090 148.023330 13.537760 0.000000
781.295410 148.426220 13.680010 0.000000
779.766170 148.841370 13.694626 0.000000
779.669800 148.983090 13.796342 0.000000
779.102910 149.109240 13.549307 0.000000
778.779050 148.978500 13.754242 0.000000
778.587770 149.296280 13.746608 0.000000
777.470460 149.309980 13.692635 0.000000
777.081540 149.395650 13.413331 0.000000
774.254270 150.352260 13.532947 0.000000
783.712650 147.638110 13.794049 0.000000
783.433720 147.794280 13.625950 0.000000
782.513920 147.736890 13.733265 0.000000
782.352230 147.777130 13.549930 0.000000
781.285890 148.151670 13.672625 0.000000
781.145630 148.327880 13.478660 0.000000
780.757020 148.449010 13.451028 0.000000
780.320800 148.290740 13.615258 0.000000
779.746520 148.549480 13.796548 0.000000
778.933780 148.645020 13.531021 0.000000
778.667360 148.731280 13.747519 0.000000
777.399050 149.067310 13.432228 0.000000
785.186520 146.989940 13.533838 0.000000
784.283630 147.157790 13.802280 0.000000
784.200200 147.254410 13.802498 0.000000
783.857240 147.423450 13.793012 0.000000
782.647340 147.669100 13.566358 0.000000
781.737370 147.741300 13.502212 0.000000
780.109680 148.074340 13.808442 0.000000
779.884520 148.239120 13.799989 0.000000
778.785400 148.164150 13.513025 0.000000
778.188600 148.520020 13.479112 0.000000
777.270570 148.801280 13.420427 0.000000
793.032290 144.817050 13.847644 0.000000
787.549130 146.056810 13.773809 0.000000
787.062070 145.940370 13.834578 0.000000
786.630250 146.258580 13.841840 0.000000
783.513000 146.786270 13.577732 0.000000
778.617190 147.864670 13.496454 0.000000
773.867310 149.213650 13.515714 0.000000
789.899600 145.014920 13.804626 0.000000
786.795350 145.598010 13.645490 0.000000
786.186520 145.853790 13.646028 0.000000
789.642820 144.823430 13.795313 0.000000
786.638670 145.509890 13.634755 0.000000
788.069270 144.784740 13.787233 0.000000
787.490110 144.746980 13.778017 0.000000
787.185120 144.659930 13.768524 0.000000
786.853760 144.865040 13.592411 0.000000
790.635560 143.751220 13.940212 0.000000
790.431210 143.909910 13.945718 0.000000
791.641110 142.097600 13.637126 0.000000
774.110410 137.371280 13.844986 0.000000
791.451230 149.025770 14.083883 0.000000
789.852230 149.446590 14.118694 0.000000
789.597410 149.525480 14.163412 0.000000
788.964840 149.779690 13.920642 0.000000
788.401250 149.698620 14.199873 0.000000
787.240540 150.014430 14.015878 0.000000
786.686400 150.122310 14.071954 0.000000
786.552980 150.289430 14.179955 0.000000
791.432620 148.906310 14.191616 0.000000
790.638790 148.895660 14.043117 0.000000
789.742370 149.360700 14.074973 0.000000
789.501460 149.132510 14.068502 0.000000
788.903020 149.384350 13.882833 0.000000
788.588990 149.350950 14.020013 0.000000
788.296690 149.568890 14.029176 0.000000
787.082890 149.830830 14.074543 0.000000
786.754760 149.888240 14.028394 0.000000
786.241640 150.012210 14.050879 0.000000
785.930660 149.912370 14.121907 0.000000
792.198180 148.223790 14.182772 0.000000
791.710210 148.276210 14.123900 0.000000
791.337890 148.483290 14.071146 0.000000
790.628480 148.553360 14.084784 0.000000
789.732060 148.773360 14.148242 0.000000
789.456360 148.854420 13.965495 0.000000
788.817320 148.933320 14.194333 0.000000
788.750430 149.098770 14.153756 0.000000
788.189940 149.038390 14.019120 0.000000
787.646910 149.121310 14.100871 0.000000
787.371640 149.207750 14.099292 0.000000
787.156250 149.160260 14.005147 0.000000
786.611150 149.497090 14.002772 0.000000
786.174800 149.528150 13.942868 0.000000
785.835270 149.555940 14.003558 0.000000
785.548400 149.592670 13.863524 0.000000
794.802610 147.116420 13.968456 0.000000
794.262080 147.423280 14.163132 0.000000
794.078190 147.406660 13.991661 0.000000
793.093870 147.497670 14.015794 0.000000
792.841800 147.559920 14.099196 0.000000
791.551760 148.028310 14.058856 0.000000
790.745240 148.106980 14.188377 0.000000
790.448120 148.322800 14.136509 0.000000
790.086730 148.473660 14.086967 0.000000
789.552490 148.372500 14.085636 0.000000
789.240420 148.368850 14.190502 0.000000
788.924800 148.447780 14.040805 0.000000
788.019410 148.708710 14.000413 0.000000
787.720950 148.877750 14.093836 0.000000
787.404480 148.892290 14.041536 0.000000
787.004520 148.999020 14.039390 0.000000
786.632450 149.055590 14.046328 0.000000
786.119630 149.143160 14.018633 0.000000
795.626530 146.588090 14.147996 0.000000
794.870060 146.627140 14.154787 0.000000
794.030820 146.950040 14.072793 0.000000
791.463130 147.598560 14.182139 0.000000
791.129460 147.700130 14.054276 0.000000
790.801330 147.756530 14.123080 0.000000
790.194950 147.977570 13.956638 0.000000
789.517880 148.054490 13.967978 0.000000
789.133540 148.257170 14.137475 0.000000
788.823730 148.225520 14.135283 0.000000
788.460210 148.221130 14.080438 0.000000
786.868290 148.630000 14.024904 0.000000
785.722840 148.881040 14.047088 0.000000
782.928040 149.331050 13.948044 0.000000
794.166930 146.471240 14.065706 0.000000
793.688780 146.799700 14.164730 0.000000
792.890560 146.929170 14.006776 0.000000
792.364380 146.781480 14.012335 0.000000
790.830440 147.438450 14.050860 0.000000
790.225220 147.594890 13.936789 0.000000
789.309750 147.701510 13.950319 0.000000
788.213750 148.047610 14.073359 0.000000
787.997740 148.041380 14.124195 0.000000
783.772220 148.780580 14.112317 0.000000
783.229190 148.835830 13.953705 0.000000
795.457820 145.802110 14.146434 0.000000
794.904790 145.888210 14.151172 0.000000
783.599180 148.623440 14.035355 0.000000
782.864320 148.854610 13.938729 0.000000
782.337220 148.669460 13.995365 0.000000
782.009890 148.886280 14.066671 0.000000
779.448120 149.258060 13.999950 0.000000
779.354920 149.406720 14.209776 0.000000
777.674870 149.997360 13.947547 0.000000
777.233760 150.084950 13.934599 0.000000
776.039790 150.007100 13.901226 0.000000
775.837950 150.190310 13.894331 0.000000
774.838930 150.463960 13.863925 0.000000
770.777890 151.287450 13.740254 0.000000
793.196170 146.020130 13.979080 0.000000
783.734740 148.195010 13.962224 0.000000
782.884460 148.239820 14.089002 0.000000
782.535030 148.284320 13.997637 0.000000
782.278690 148.296590 13.989244 0.000000
779.431340 149.065860 14.000012 0.000000
776.669490 149.497570 13.921859 0.000000
774.295720 150.107830 13.850914 0.000000
771.008910 150.848360 13.750793 0.000000
783.626770 147.544680 13.944771 0.000000
783.416020 147.599610 14.019432 0.000000
780.646850 148.299220 13.933467 0.000000
777.454350 148.986740 13.945992 0.000000
776.797850 149.313520 13.926350 0.000000
771.235900 150.416960 13.760918 0.000000
784.021120 147.231490 14.109592 0.000000
783.713620 147.451610 13.945862 0.000000
783.092040 147.545070 14.091255 0.000000
782.656010 147.686170 14.081837 0.000000
779.743590 148.064410 14.009837 0.000000
778.715090 148.345920 13.982220 0.000000
778.340450 148.381940 13.972054 0.000000
776.192990 148.887440 13.911373 0.000000
771.384700 150.134110 13.767402 0.000000
787.506470 145.989560 14.152761 0.000000
786.014220 146.156590 13.978259 0.000000
778.744930 147.938220 13.983624 0.000000
778.742250 148.149660 13.983274 0.000000
790.204650 144.929870 14.337561 0.000000
787.326110 145.617020 14.147042 0.000000
783.579410 146.420140 13.917573 0.000000
778.503230 147.590640 13.977575 0.000000
789.971440 144.617550 13.968716 0.000000
788.355900 145.004960 13.975861 0.000000
787.941650 145.056720 13.973920 0.000000
787.493350 145.379040 14.062716 0.000000
785.797420 145.551330 14.127295 0.000000
790.382750 144.125410 14.150264 0.000000
786.247310 145.113770 13.951260 0.000000
794.755800 142.204410 14.128286 0.000000
790.175780 143.504580 14.143353 0.000000
791.680660 142.625790 14.137405 0.000000
792.730830 142.019490 14.131603 0.000000
789.318480 149.528900 14.279702 0.000000
788.756530 149.767990 14.483181 0.000000
786.504210 150.170060 14.252382 0.000000
791.822940 148.540600 14.430436 0.000000
791.335750 148.735410 14.303025 0.000000
790.960330 148.751790 14.300156 0.000000
790.288150 148.884900 14.489853 0.000000
789.689820 149.194290 14.330264 0.000000
789.482240 149.231080 14.326779 0.000000
789.085330 149.175030 14.450243 0.000000
788.525630 149.265700 14.276977 0.000000
788.325260 149.429840 14.313416 0.000000
786.580570 149.952560 14.255364 0.000000
786.536320 150.111150 14.253272 0.000000
785.853090 149.902210 14.250724 0.000000
793.567870 147.732450 14.650670 0.000000
793.340640 147.785640 14.483829 0.000000
792.189210 148.061770 14.316679 0.000000
791.732300 148.331850 14.498144 0.000000
791.332890 148.405360 14.424755 0.000000
790.932800 148.475200 14.415340 0.000000
790.496520 148.817730 14.397300 0.000000
789.787110 148.702610 14.538065 0.000000
789.525020 148.722900 14.481775 0.000000
788.968200 148.855620 14.330751 0.000000
788.554020 149.047740 14.409522 0.000000
788.205440 149.132200 14.444251 0.000000
786.504580 149.499280 14.259899 0.000000
785.950500 149.620380 14.301347 0.000000
793.557190 147.463530 14.581206 0.000000
791.822200 147.835220 14.585375 0.000000
791.714170 147.805050 14.517441 0.000000
791.330810 147.832320 14.700064 0.000000
790.904240 148.105940 14.306989 0.000000
790.450380 148.143040 14.360412 0.000000
790.135380 148.399480 14.298200 0.000000
789.657840 148.332410 14.454230 0.000000
789.242550 148.464980 14.341038 0.000000
788.932370 148.399280 14.441830 0.000000
788.490050 148.564000 14.476799 0.000000
788.043760 148.609070 14.616765 0.000000
787.814450 148.624510 14.566965 0.000000
787.271550 148.997070 14.315212 0.000000
786.842650 148.949400 14.315903 0.000000
786.487730 148.949710 14.314534 0.000000
786.287540 149.034210 14.459332 0.000000
785.634030 149.266280 14.357598 0.000000
785.535950 149.338520 14.356150 0.000000
793.883300 146.937480 14.519032 0.000000
793.166260 147.004040 14.501746 0.000000
791.492550 147.471830 14.456607 0.000000
791.087650 147.627030 14.444119 0.000000
790.738530 147.775670 14.433549 0.000000
790.428830 147.880260 14.544976 0.000000
789.570010 148.202100 14.617897 0.000000
789.132080 148.091130 14.511930 0.000000
788.764590 148.321690 14.492791 0.000000
788.301210 148.159190 14.287766 0.000000
787.999570 148.555600 14.669655 0.000000
787.703920 148.586260 14.619187 0.000000
787.087160 148.446240 14.275864 0.000000
786.423890 148.835330 14.266759 0.000000
786.219790 148.907460 14.365456 0.000000
783.267880 149.431200 14.374137 0.000000
782.646970 149.438320 14.528975 0.000000
777.113950 150.684630 14.431402 0.000000
794.684020 146.593190 14.545895 0.000000
793.739010 146.669360 14.523329 0.000000
793.412230 146.637700 14.517118 0.000000
792.615480 147.090850 14.645819 0.000000
791.350590 147.347150 14.595432 0.000000
790.707400 147.174590 14.316013 0.000000
790.244690 147.421660 14.629420 0.000000
789.104310 147.816620 14.410779 0.000000
788.731380 147.968430 14.511857 0.000000
788.212040 148.064540 14.395363 0.000000
787.979250 147.876250 14.399393 0.000000
787.142150 148.336750 14.277484 0.000000
786.472900 148.479460 14.378030 0.000000
786.092470 148.489550 14.378582 0.000000
783.670170 148.911870 14.246198 0.000000
782.924440 149.055390 14.534348 0.000000
782.692750 149.327240 14.531415 0.000000
777.807620 150.235860 14.189417 0.000000
777.289730 150.312290 14.434833 0.000000
795.626710 145.883380 14.586096 0.000000
790.509950 146.909650 14.457406 0.000000
783.457640 148.578720 14.248409 0.000000
783.178650 148.691380 14.467835 0.000000
782.209350 148.863940 14.398993 0.000000
782.001340 149.002330 14.315161 0.000000
779.535400 149.297090 14.212296 0.000000
777.829710 149.644230 14.438693 0.000000
777.397830 150.029860 14.314238 0.000000
776.137700 150.206050 14.316146 0.000000
774.357910 150.379230 14.163126 0.000000
770.773380 151.291610 14.127256 0.000000
795.168950 145.599950 14.365576 0.000000
783.537290 148.088320 14.405356 0.000000
782.610840 148.352860 14.407034 0.000000
782.314030 148.428820 14.409232 0.000000
781.905940 148.496950 14.238222 0.000000
779.784730 148.860900 14.427907 0.000000
779.194890 149.016450 14.323943 0.000000
778.954100 149.252530 14.430819 0.000000
777.488890 149.326420 14.449026 0.000000
777.154420 149.644090 14.191371 0.000000
776.668460 149.726390 14.453266 0.000000
774.465700 150.146180 14.166508 0.000000
771.004460 150.852430 14.133830 0.000000
792.848330 145.451740 14.731556 0.000000
783.437560 147.627520 14.338770 0.000000
782.564940 147.931630 14.501044 0.000000
780.584900 148.359910 14.230304 0.000000
779.650940 148.415130 14.438887 0.000000
779.067500 148.668030 14.327806 0.000000
777.673030 148.961990 14.202724 0.000000
776.486760 149.335010 14.325736 0.000000
771.231510 150.420960 14.140287 0.000000
793.131350 145.280580 14.748269 0.000000
784.735230 147.184520 14.423020 0.000000
784.588260 147.067490 14.506200 0.000000
783.969910 147.174700 14.587257 0.000000
783.873900 147.259140 14.585306 0.000000
782.943050 147.351200 14.430575 0.000000
782.580510 147.529510 14.516402 0.000000
779.773800 148.136670 14.336648 0.000000
778.783200 148.173510 14.219500 0.000000
776.693360 148.888570 14.332403 0.000000
771.380370 150.138060 14.144522 0.000000
787.500060 145.956510 14.460997 0.000000
785.326840 146.482530 14.442245 0.000000
784.612730 146.760280 14.595467 0.000000
784.117680 146.829130 14.600535 0.000000
778.850160 147.888570 14.223170 0.000000
778.716000 148.143600 14.456114 0.000000
787.824710 145.380040 14.481682 0.000000
787.336910 145.698270 14.308434 0.000000
787.177550 145.725420 14.388258 0.000000
786.055970 145.900340 14.459791 0.000000
785.936040 145.951570 14.458158 0.000000
785.276120 146.070020 14.455128 0.000000
784.588200 146.197880 14.453126 0.000000
784.308110 146.128420 14.456302 0.000000
783.883480 146.371640 14.451094 0.000000
779.178100 147.537350 14.463638 0.000000
787.140500 145.323850 14.649963 0.000000
787.015080 145.381240 14.478596 0.000000
786.567020 145.240550 14.308052 0.000000
786.047850 145.443830 14.474376 0.000000
785.649660 145.564290 14.643428 0.000000
785.521240 145.615140 14.641883 0.000000
785.050110 145.580920 14.648337 0.000000
784.476620 146.005620 14.634356 0.000000
783.926700 146.187710 14.634186 0.000000
786.545840 145.001800 14.399879 0.000000
786.110050 144.917110 14.582937 0.000000
784.670780 145.456940 14.659053 0.000000
787.892880 144.367130 14.703875 0.000000
786.447630 144.761170 14.681480 0.000000
790.250670 143.091640 14.358481 0.000000
777.348750 140.911470 14.648031 0.000000
777.319760 140.448150 14.660943 0.000000
774.181580 136.903610 14.312818 0.000000
793.863460 147.805510 14.823158 0.000000
793.877200 147.608920 15.003099 0.000000
793.720580 147.577330 14.828522 0.000000
792.872740 147.758440 14.774170 0.000000
789.115660 148.348420 14.700635 0.000000
794.507690 146.987290 14.904644 0.000000
794.112430 146.972260 15.066179 0.000000
793.961430 147.131070 14.867295 0.000000
792.807010 147.255620 14.960482 0.000000
792.463750 147.509020 14.919373 0.000000
788.630680 148.246630 14.703170 0.000000
787.723570 148.552730 14.769752 0.000000
782.622620 149.425770 14.679083 0.000000
795.419860 146.088070 14.790360 0.000000
794.099910 146.771840 14.987833 0.000000
793.681950 146.753800 14.966390 0.000000
793.284240 146.746050 14.856973 0.000000
793.045040 146.721080 14.847342 0.000000
792.642760 146.943560 14.976406 0.000000
792.394350 146.968630 14.960277 0.000000
790.984990 147.078090 14.740304 0.000000
782.615910 149.134520 14.692976 0.000000
776.617860 150.587840 14.703165 0.000000
792.813600 146.578960 14.846075 0.000000
778.273740 149.192260 14.677680 0.000000
778.145080 149.347470 14.677991 0.000000
778.372130 148.925810 14.681583 0.000000
776.597050 149.261350 14.733199 0.000000
792.538820 145.383590 14.915104 0.000000
791.560850 145.387790 14.880223 0.000000
788.842410 146.069140 14.920509 0.000000
783.854250 147.237780 14.747297 0.000000
792.449280 144.886660 14.946269 0.000000
791.778630 144.858870 15.118187 0.000000
791.404850 144.984160 15.091928 0.000000
792.936580 144.289700 15.005844 0.000000
792.359920 144.707430 14.955649 0.000000
792.156620 144.373700 14.767046 0.000000
791.093570 144.976790 15.081318 0.000000
778.418880 147.779920 14.713788 0.000000
792.488710 144.037030 15.007532 0.000000
791.927060 144.061710 14.987384 0.000000
791.710690 144.163970 14.973353 0.000000
791.077450 144.536100 15.122439 0.000000
790.932250 144.482560 15.122786 0.000000
776.937010 141.714430 14.981235 0.000000
777.001160 140.540300 15.029750 0.000000
777.020450 140.118190 15.047733 0.000000
776.734680 139.323960 15.088936 0.000000
774.351810 136.535400 14.790471 0.000000
793.409910 145.709270 15.317295 0.000000
793.022340 144.123810 15.239736 0.000000
792.863340 144.052570 15.238652 0.000000
791.867740 144.211500 15.181602 0.000000
791.107360 144.438490 15.330162 0.000000
790.941350 144.449220 15.322427 0.000000
791.649110 143.842930 15.207745 0.000000
795.706730 141.294070 15.320210 0.000000
795.114990 141.360240 15.438936 0.000000
794.824280 141.159820 15.589199 0.000000
776.225220 141.231190 15.389343 0.000000
776.400570 139.894760 15.460202 0.000000
776.098140 140.027040 15.463760 0.000000
776.321170 139.338470 15.496428 0.000000
777.584290 138.373210 15.513205 0.000000
773.355650 137.683960 15.235798 0.000000
773.386900 137.724330 15.702271 0.000000
771.531010 137.548770 15.786610 0.000000
771.312500 137.888410 15.777025 0.000000
770.838130 138.007800 15.790664 0.000000
774.315370 136.511460 15.739887 0.000000
774.535030 137.876310 16.100212 0.000000
773.395260 137.741420 16.170891 0.000000
773.061460 137.937560 16.174866 0.000000
774.577940 136.244520 16.224035 0.000000
774.181820 136.365170 16.234085 0.000000
777.603030 141.625340 16.350311 0.000000
776.962460 141.366850 16.431780 0.000000
773.305420 139.659390 16.483135 0.000000
771.698360 139.251460 16.639231 0.000000
772.704410 138.635880 16.614212 0.000000
774.543760 137.894360 16.550293 0.000000
773.166020 138.048340 16.631620 0.000000
774.709780 137.542600 16.571842 0.000000
774.586430 136.264270 16.700481 0.000000
777.400330 141.419660 16.745136 0.000000
776.435300 140.840710 16.912149 0.000000
772.329220 141.128910 16.884336 0.000000
772.654660 140.496890 16.910294 0.000000
772.640870 140.031720 16.955313 0.000000
774.799380 137.652050 17.010122 0.000000
774.478640 137.832350 17.016489 0.000000
773.229370 138.118820 17.091721 0.000000
772.685180 136.464940 16.806492 0.000000
773.813110 139.661710 17.323519 0.000000
774.875490 137.746250 17.448009 0.000000
774.550660 136.230620 17.187830 0.000000
773.204650 138.103290 17.569668 0.000000
772.826660 138.257600 17.590668 0.000000
774.528020 136.212940 17.676924 0.000000
780.374080 144.195340 12.281506 0.000000
781.097720 143.487690 12.269894 0.000000
781.252320 143.354800 12.267877 0.000000
778.190860 143.305020 12.208867 0.000000
779.027650 142.072080 12.170150 0.000000
780.142700 141.344380 12.193216 0.000000
779.841310 141.546570 12.189619 0.000000
781.533630 140.613920 12.217006 0.000000
786.663820 139.355240 12.279018 0.000000
777.730220 141.240740 12.288874 0.000000
791.544130 137.670670 12.358700 0.000000
779.027040 140.293200 12.312007 0.000000
778.610780 140.632720 12.310314 0.000000
778.336430 140.708890 12.294234 0.000000
779.250670 140.145650 12.315314 0.000000
779.340940 157.437940 12.492319 0.000000
779.094420 157.204130 12.473274 0.000000
777.759770 157.345660 12.470965 0.000000
778.850950 156.961290 12.453919 0.000000
778.415830 156.785170 12.394114 0.000000
777.542180 157.137880 12.453545 0.000000
775.857060 157.356020 12.455116 0.000000
778.258180 156.664860 12.376348 0.000000
777.685300 156.593990 12.281839 0.000000
777.018620 156.831380 12.394626 0.000000
776.441100 156.715820 12.312894 0.000000
775.660770 157.197190 12.438290 0.000000
775.427490 157.045350 12.415646 0.000000
777.438290 156.296620 12.259192 0.000000
776.067080 156.511980 12.266794 0.000000
774.621770 156.818730 12.319253 0.000000
773.179260 157.232250 12.430988 0.000000
777.316890 155.953050 12.259625 0.000000
775.922970 156.124220 12.265549 0.000000
774.248050 156.678410 12.275577 0.000000
774.155400 156.457120 12.273352 0.000000
772.932500 157.031300 12.411554 0.000000
772.452450 156.881160 12.362839 0.000000
777.206240 155.605120 12.259986 0.000000
775.822080 155.829880 12.264538 0.000000
774.067260 156.233440 12.271318 0.000000
771.673770 156.783860 12.277224 0.000000
777.083310 155.164340 12.260256 0.000000
775.728520 155.532140 12.263470 0.000000
773.940860 155.894180 12.268123 0.000000
771.499150 156.388340 12.271708 0.000000
776.970700 154.718890 12.259331 0.000000
775.613710 155.130830 12.261959 0.000000
773.784000 155.435290 12.263889 0.000000
771.354310 155.983760 12.268878 0.000000
776.890990 154.358440 12.258015 0.000000
775.510990 154.724590 12.260335 0.000000
773.675110 155.086490 12.260710 0.000000
771.275700 155.565030 12.272861 0.000000
776.823000 153.994400 12.256706 0.000000
775.420780 154.313740 12.258640 0.000000
773.575130 154.733150 12.257535 0.000000
771.204650 155.144590 12.276679 0.000000
776.767400 153.627080 12.255487 0.000000
775.343020 153.898530 12.256837 0.000000
773.455140 154.256320 12.253440 0.000000
771.142580 154.722140 12.280257 0.000000
776.723630 153.256850 12.254239 0.000000
775.277280 153.479370 12.254794 0.000000
773.378480 153.894420 12.250942 0.000000
771.087830 154.298170 12.283640 0.000000
776.681700 152.696960 12.252506 0.000000
776.698610 152.977580 12.253331 0.000000
775.218510 153.056380 12.251682 0.000000
773.308900 153.529020 12.248093 0.000000
771.055730 154.014540 12.285701 0.000000
776.669370 152.321210 12.251382 0.000000
775.171200 152.629520 12.248199 0.000000
773.239930 153.037230 12.245829 0.000000
771.016660 153.587650 12.288807 0.000000
778.090270 151.531690 12.505559 0.000000
777.793520 151.821230 12.455357 0.000000
777.090030 151.902420 12.327206 0.000000
776.859250 152.059200 12.285795 0.000000
775.963810 151.965650 12.378251 0.000000
775.486080 152.123340 12.301203 0.000000
775.243230 152.314360 12.261563 0.000000
773.197330 152.665560 12.244019 0.000000
770.985960 153.159360 12.291825 0.000000
795.346070 147.501890 12.639827 0.000000
778.268740 151.234160 12.531873 0.000000
776.931700 151.420990 12.530201 0.000000
776.736080 151.672350 12.501280 0.000000
774.910460 151.855610 12.487252 0.000000
774.421390 152.030930 12.418859 0.000000
773.427730 152.309080 12.278882 0.000000
771.014470 152.731450 12.300451 0.000000
794.908390 147.302700 12.679724 0.000000
778.419800 150.770320 12.546350 0.000000
777.030880 151.063670 12.540959 0.000000
772.541080 151.865740 12.486861 0.000000
772.052920 152.090810 12.428320 0.000000
771.155700 152.309890 12.321194 0.000000
795.497990 146.611080 12.771157 0.000000
778.627750 150.157940 12.560195 0.000000
778.551270 150.387700 12.556198 0.000000
777.063290 150.597210 12.536762 0.000000
777.047910 150.784070 12.538457 0.000000
795.497130 146.373750 12.751410 0.000000
778.749880 149.859240 12.567386 0.000000
777.109740 150.224300 12.534187 0.000000
775.520390 150.430280 12.560393 0.000000
778.956480 149.421920 12.579279 0.000000
777.296810 149.698060 12.546280 0.000000
777.215760 149.867190 12.539702 0.000000
779.172730 148.808650 12.576546 0.000000
779.091430 149.039890 12.578551 0.000000
777.721190 149.170720 12.589355 0.000000
777.370420 149.427900 12.547176 0.000000
779.297000 148.505660 12.574857 0.000000
777.626770 148.828110 12.559221 0.000000
779.545040 148.277470 12.596972 0.000000
793.894530 144.845730 12.762134 0.000000
792.034850 145.118710 12.729956 0.000000
779.666560 147.771800 12.573609 0.000000
795.006350 143.066640 12.756916 0.000000
790.338500 144.075880 12.684507 0.000000
773.808040 147.399960 12.249302 0.000000
771.585020 144.036960 12.221315 0.000000
772.552860 143.529040 12.297616 0.000000
776.091310 139.460430 12.375298 0.000000
776.940920 138.786470 12.390264 0.000000
777.719790 138.278260 12.406118 0.000000
777.394960 138.350130 12.389414 0.000000
777.087100 138.453690 12.375725 0.000000
778.989260 137.369950 12.413942 0.000000
778.526310 137.502690 12.396618 0.000000
778.173580 137.830110 12.400773 0.000000
777.910160 137.997770 12.396883 0.000000
779.291870 137.276340 12.423904 0.000000
774.055850 137.275510 12.519574 0.000000
771.448730 137.766630 12.367206 0.000000
794.390690 160.340790 12.858081 0.000000
794.050230 160.487380 12.870058 0.000000
793.710330 160.621540 12.881789 0.000000
793.278140 160.760060 12.898068 0.000000
792.787540 160.795210 12.928560 0.000000
792.491940 160.795550 12.948310 0.000000
795.502620 159.779460 12.816321 0.000000
795.074580 160.011600 12.832875 0.000000
794.732360 160.182420 12.845665 0.000000
791.513490 160.095730 12.917392 0.000000
791.090940 160.199800 12.930519 0.000000
790.795230 160.227130 12.944736 0.000000
793.641300 159.250460 12.844112 0.000000
793.357540 159.394470 12.854804 0.000000
793.002620 159.562000 12.867747 0.000000
792.646970 159.712450 12.880297 0.000000
792.220890 159.873890 12.894716 0.000000
791.866520 159.992490 12.906284 0.000000
794.485050 158.750820 12.810377 0.000000
794.135190 158.971070 12.824721 0.000000
793.853270 159.134450 12.835917 0.000000
795.446900 158.044310 12.767932 0.000000
795.174380 158.259060 12.780548 0.000000
794.832280 158.514660 12.795592 0.000000
792.633300 158.643710 12.850052 0.000000
792.390260 158.768910 12.859221 0.000000
792.023800 158.941360 12.872601 0.000000
791.655880 159.094530 12.885467 0.000000
791.287230 159.228840 12.897827 0.000000
790.918700 159.344990 12.909633 0.000000
790.550900 159.443190 12.920936 0.000000
790.184510 159.524090 12.931704 0.000000
789.759580 159.596660 12.943584 0.000000
795.581050 157.931690 12.761639 0.000000
794.202820 157.885510 12.748219 0.000000
793.860230 157.992710 12.782077 0.000000
793.478940 158.137660 12.814312 0.000000
793.114930 158.364410 12.830953 0.000000
792.814880 158.543400 12.842941 0.000000
794.892760 157.445370 12.698047 0.000000
794.652040 157.739490 12.701918 0.000000
794.467590 157.798750 12.721370 0.000000
794.929990 157.124830 12.724094 0.000000
794.960330 156.729390 12.755905 0.000000
794.975040 156.262070 12.793281 0.000000
794.973020 156.416670 12.780971 0.000000
783.286870 158.687820 12.901884 0.000000
783.023620 158.634320 12.879589 0.000000
795.376460 155.636750 12.775514 0.000000
795.162960 155.871950 12.793255 0.000000
782.821660 158.591350 12.861827 0.000000
782.544310 158.529310 12.836340 0.000000
782.186650 158.445330 12.802067 0.000000
781.745970 158.697390 12.885281 0.000000
781.419490 158.623280 12.854913 0.000000
795.726140 155.270870 12.741260 0.000000
795.492740 155.517930 12.764458 0.000000
781.964970 158.390730 12.779984 0.000000
781.658810 158.312100 12.748267 0.000000
781.214050 158.384780 12.768118 0.000000
780.904540 158.500180 12.804812 0.000000
780.542110 158.409420 12.768003 0.000000
780.007450 158.719130 12.870265 0.000000
779.691770 158.646850 12.840659 0.000000
779.365170 158.569920 12.809441 0.000000
780.844970 158.086060 12.658895 0.000000
780.517700 157.968320 12.623374 0.000000
780.064390 158.284030 12.717675 0.000000
779.662960 158.175030 12.674042 0.000000
779.138980 158.515620 12.787392 0.000000
778.786130 158.429290 12.752323 0.000000
777.960880 158.823640 12.863280 0.000000
777.701420 158.752000 12.841599 0.000000
777.434270 158.677020 12.818974 0.000000
780.274900 157.865680 12.597441 0.000000
779.941890 157.721070 12.560753 0.000000
779.464600 158.109620 12.652918 0.000000
779.179200 157.993590 12.623741 0.000000
778.885380 157.872220 12.592983 0.000000
778.418950 158.337420 12.715178 0.000000
778.045780 158.230870 12.677424 0.000000
777.692750 158.099370 12.643251 0.000000
777.144710 158.606060 12.793365 0.000000
776.834230 158.537080 12.765039 0.000000
776.511410 158.464490 12.735243 0.000000
774.598940 158.853560 12.814125 0.000000
779.597660 157.566010 12.521514 0.000000
778.683840 157.787340 12.571415 0.000000
778.373170 157.653310 12.537501 0.000000
777.450380 158.006410 12.619390 0.000000
777.202210 157.909230 12.594662 0.000000
776.037110 158.331300 12.692300 0.000000
775.577820 158.172560 12.651662 0.000000
774.027220 158.692110 12.771171 0.000000
778.053040 157.512470 12.501818 0.000000
776.947200 157.808060 12.568886 0.000000
776.685610 157.702360 12.542107 0.000000
776.416260 157.592240 12.514148 0.000000
775.092710 158.001280 12.607843 0.000000
773.440190 158.513210 12.726909 0.000000
773.050170 158.377530 12.697742 0.000000
776.138920 157.477390 12.484969 0.000000
774.585630 157.818680 12.561334 0.000000
774.237610 157.686830 12.529140 0.000000
772.630920 158.240020 12.665601 0.000000
772.188170 158.097110 12.631137 0.000000
773.879270 157.547790 12.495678 0.000000
773.507870 157.401790 12.460611 0.000000
771.728580 157.945590 12.595057 0.000000
771.245480 157.786390 12.556678 0.000000
793.780760 147.812150 12.874123 0.000000
793.387630 147.868670 13.019114 0.000000
795.507510 147.060530 12.806246 0.000000
794.209590 147.246060 12.763567 0.000000
793.319150 147.596040 13.000129 0.000000
793.152710 147.799290 12.950478 0.000000
775.402590 151.377760 12.554258 0.000000
795.197330 146.856170 13.048439 0.000000
794.081670 146.935910 13.155837 0.000000
793.333740 147.280560 12.967513 0.000000
792.736880 147.233000 13.114482 0.000000
791.938720 147.550700 13.058083 0.000000
776.836240 150.543660 12.741656 0.000000
775.462710 150.851620 12.558185 0.000000
775.436770 151.062100 12.556738 0.000000
773.032410 151.530870 12.545401 0.000000
795.433350 146.185710 12.979395 0.000000
793.751590 146.586720 13.156849 0.000000
793.494810 146.851260 13.003725 0.000000
792.763670 146.988270 12.903625 0.000000
792.543950 147.026960 12.931572 0.000000
791.473880 147.332170 13.075922 0.000000
777.552120 150.076350 12.828048 0.000000
776.771790 150.329850 12.728829 0.000000
776.321350 150.417660 12.921613 0.000000
775.492250 150.641390 12.559630 0.000000
773.226870 151.051180 12.567944 0.000000
793.708250 146.156200 13.125060 0.000000
793.566890 146.548660 12.967245 0.000000
791.416630 146.962720 13.032425 0.000000
790.864750 146.890050 13.068054 0.000000
781.985840 148.817180 13.015637 0.000000
779.285400 149.229170 12.824758 0.000000
779.100220 149.319230 13.005490 0.000000
777.714360 149.561840 12.834659 0.000000
776.609310 149.882920 12.946166 0.000000
776.049990 150.029280 12.754192 0.000000
775.032840 150.320630 12.772617 0.000000
774.677310 150.470120 12.733129 0.000000
773.358460 150.694080 12.581991 0.000000
792.557370 146.310530 12.841678 0.000000
779.622990 148.699550 12.842476 0.000000
779.391910 149.018390 12.828542 0.000000
778.709720 148.949800 12.940066 0.000000
778.605220 149.082690 12.717024 0.000000
776.509580 149.428280 12.671403 0.000000
775.829960 149.861600 12.857528 0.000000
773.243470 150.418290 12.566982 0.000000
782.734130 148.027910 13.032549 0.000000
782.250920 147.965910 12.963142 0.000000
780.766970 148.107450 12.864282 0.000000
780.556460 148.403640 12.950974 0.000000
779.978450 148.276630 12.664636 0.000000
779.810850 148.630740 12.864498 0.000000
777.090820 149.015910 12.734587 0.000000
776.241270 149.229220 12.891442 0.000000
787.740840 146.192700 13.087159 0.000000
782.557680 147.438190 12.940495 0.000000
780.245000 147.895550 12.672048 0.000000
779.940550 148.160720 12.850044 0.000000
779.592770 148.120130 12.799687 0.000000
778.668880 148.349380 12.906784 0.000000
778.455440 148.225980 12.647203 0.000000
777.092530 148.592480 12.718899 0.000000
776.129880 148.855770 12.870156 0.000000
792.430050 145.100310 13.119788 0.000000
787.872500 146.066530 13.066413 0.000000
784.053960 146.663150 12.995161 0.000000
783.718750 146.848110 12.990213 0.000000
779.585690 147.513320 12.754231 0.000000
778.677310 147.843290 12.768618 0.000000
778.296880 147.932170 12.839859 0.000000
791.153630 144.702930 13.147755 0.000000
787.242800 145.555740 12.981493 0.000000
786.850520 145.672850 12.994288 0.000000
778.527890 147.645420 12.852356 0.000000
790.392090 144.427920 13.148511 0.000000
787.376340 145.379730 12.954271 0.000000
784.230530 145.773360 13.060138 0.000000
783.570070 146.019320 12.860312 0.000000
790.306030 144.170590 13.122947 0.000000
789.578920 144.354780 12.961919 0.000000
788.422060 144.669070 13.028176 0.000000
787.746150 144.758330 12.951161 0.000000
786.524350 145.066710 12.888876 0.000000
784.394290 145.407550 12.837561 0.000000
790.062260 143.172100 12.787971 0.000000
792.299930 160.794040 12.960873 0.000000
792.111690 160.791660 12.972932 0.000000
791.926940 160.788130 12.984564 0.000000
791.656490 160.780820 13.001162 0.000000
791.221310 160.764040 13.026814 0.000000
790.802920 160.742140 13.050282 0.000000
790.559690 160.726430 13.063328 0.000000
788.888730 161.063540 13.244526 0.000000
790.322630 160.708820 13.075546 0.000000
789.938660 160.675550 13.094394 0.000000
789.494260 160.630040 13.114690 0.000000
789.206670 160.596250 13.126988 0.000000
788.742250 161.038990 13.249228 0.000000
788.454650 160.987780 13.257950 0.000000
788.033810 160.907290 13.269583 0.000000
790.567570 160.221500 12.958626 0.000000
790.270510 160.209750 12.976236 0.000000
789.910950 160.190490 12.996301 0.000000
789.493650 160.160520 13.018046 0.000000
788.996030 160.568830 13.135465 0.000000
788.652830 160.520080 13.148368 0.000000
788.252380 160.456470 13.162036 0.000000
787.558290 160.807770 13.280813 0.000000
787.096010 160.701900 13.289925 0.000000
789.025450 160.116270 13.040253 0.000000
788.573730 160.063550 13.059478 0.000000
788.198850 160.010480 13.073736 0.000000
787.863220 160.387130 13.173793 0.000000
787.422000 160.299130 13.185156 0.000000
787.113340 160.232130 13.192005 0.000000
786.709410 160.605800 13.295993 0.000000
786.267640 160.487260 13.301128 0.000000
789.338010 159.648090 12.954790 0.000000
788.920470 159.675520 12.965542 0.000000
788.503300 159.657170 12.980610 0.000000
788.151250 159.613360 12.995137 0.000000
787.774290 159.940810 13.087779 0.000000
787.360780 159.863040 13.099451 0.000000
787.030090 160.002140 13.150309 0.000000
786.572020 160.100780 13.201151 0.000000
786.218200 160.006730 13.205450 0.000000
785.833370 160.362080 13.304379 0.000000
785.390870 160.279530 13.299036 0.000000
785.061950 160.254650 13.289007 0.000000
787.921140 159.580690 13.003780 0.000000
787.695130 159.544460 13.011455 0.000000
787.307070 159.474440 13.022965 0.000000
786.967770 159.591750 13.069848 0.000000
786.507320 159.668240 13.116380 0.000000
786.136780 159.776460 13.163441 0.000000
785.753780 159.874940 13.208107 0.000000
785.333860 159.810760 13.199174 0.000000
784.861760 160.236760 13.282361 0.000000
784.523190 160.202790 13.270287 0.000000
784.108280 160.154890 13.254163 0.000000
783.826540 160.117600 13.242549 0.000000
786.820370 159.371930 13.034405 0.000000
786.398380 159.267810 13.041292 0.000000
786.048830 159.358550 13.083257 0.000000
785.627440 159.433690 13.120720 0.000000
785.185490 159.588300 13.150033 0.000000
784.836180 159.758330 13.180902 0.000000
784.454410 159.709410 13.165079 0.000000
784.129880 159.662380 13.150434 0.000000
783.610350 160.088330 13.232925 0.000000
783.243290 160.032810 13.215891 0.000000
782.866940 159.970260 13.197455 0.000000
782.635190 159.930160 13.185446 0.000000
781.627560 160.387330 13.267449 0.000000
781.258120 160.324780 13.248896 0.000000
780.972960 160.274400 13.234112 0.000000
785.880860 159.123170 13.046021 0.000000
785.513490 159.043870 13.039811 0.000000
785.118710 159.181430 13.063122 0.000000
784.755740 159.320300 13.087204 0.000000
784.334170 159.252490 13.066788 0.000000
783.932010 159.631090 13.140973 0.000000
783.663510 159.585190 13.127397 0.000000
783.181640 159.494030 13.101314 0.000000
782.398680 159.886510 13.172781 0.000000
781.993840 159.807100 13.150152 0.000000
781.660520 159.738010 13.130742 0.000000
780.778320 160.238690 13.223783 0.000000
780.478760 160.182130 13.207488 0.000000
780.066280 160.100770 13.184425 0.000000
785.020690 158.977490 13.018395 0.000000
784.739560 158.935320 13.003634 0.000000
784.277220 158.861800 12.975909 0.000000
783.940120 158.993330 12.999515 0.000000
783.521610 159.093770 13.021269 0.000000
783.192440 159.025920 12.999594 0.000000
782.755070 159.405590 13.076412 0.000000
782.387080 159.322250 13.053402 0.000000
782.085390 159.249740 13.033749 0.000000
781.489620 159.701050 13.120450 0.000000
781.138730 159.621720 13.098645 0.000000
780.777770 159.536880 13.075509 0.000000
779.635740 160.012650 13.159487 0.000000
779.186220 159.916200 13.132646 0.000000
777.194090 160.427750 13.217558 0.000000
776.735290 160.343570 13.193389 0.000000
783.794010 158.781970 12.941916 0.000000
783.543400 158.737110 12.922592 0.000000
782.990480 158.981870 12.985614 0.000000
782.714660 158.918180 12.965624 0.000000
782.361080 158.832050 12.938825 0.000000
781.850830 159.193370 13.017480 0.000000
781.442930 159.096650 12.987357 0.000000
781.105290 159.013110 12.961433 0.000000
780.592100 159.491470 13.063253 0.000000
780.306150 159.419980 13.043888 0.000000
779.908450 159.321180 13.015823 0.000000
778.715150 159.811050 13.103643 0.000000
778.346980 159.726300 13.080415 0.000000
778.093200 159.666370 13.064096 0.000000
776.415710 160.284010 13.176253 0.000000
776.084780 160.221820 13.158273 0.000000
775.743650 160.155650 13.139564 0.000000
782.137630 158.782090 12.920227 0.000000
781.984130 158.748380 12.906884 0.000000
780.931950 158.968050 12.947776 0.000000
780.574100 158.872040 12.918690 0.000000
779.485840 159.220000 12.984344 0.000000
779.042300 159.110120 12.950250 0.000000
777.832340 159.603790 13.047084 0.000000
777.418460 159.509080 13.019164 0.000000
775.388980 160.086900 13.119835 0.000000
775.021970 160.014010 13.099220 0.000000
780.204350 158.769530 12.887761 0.000000
778.577450 158.989400 12.913544 0.000000
778.212830 158.892320 12.884040 0.000000
776.980960 159.412400 12.988795 0.000000
776.675480 159.344250 12.967195 0.000000
776.359920 159.272490 12.944622 0.000000
774.638670 159.938420 13.077381 0.000000
774.247620 159.854980 13.055087 0.000000
773.843810 159.765550 13.031915 0.000000
776.033200 159.197040 12.920976 0.000000
775.694950 159.117580 12.896217 0.000000
775.343260 159.034260 12.870163 0.000000
773.413090 159.676210 13.006624 0.000000
772.971680 159.578110 12.980671 0.000000
774.978580 158.946240 12.842861 0.000000
772.510800 159.474410 12.953302 0.000000
772.031190 159.363800 12.924597 0.000000
771.529720 159.246410 12.894317 0.000000
770.904970 159.157870 12.854047 0.000000
791.611760 148.798980 13.240553 0.000000
791.790100 148.451600 13.180982 0.000000
791.494320 148.449630 13.351404 0.000000
791.169070 148.415450 13.447862 0.000000
790.536010 148.669800 13.460220 0.000000
790.316160 148.566700 13.465455 0.000000
789.587400 148.834850 13.437757 0.000000
789.303710 149.041660 13.487257 0.000000
795.558590 147.025530 13.251734 0.000000
791.336360 148.115260 13.188912 0.000000
790.983830 148.122330 13.292435 0.000000
790.394900 148.157390 13.412066 0.000000
788.918150 148.692030 13.457415 0.000000
795.292300 147.006560 13.271678 0.000000
794.307740 147.164960 13.355558 0.000000
793.994510 147.229720 13.185523 0.000000
793.320980 147.243470 13.245324 0.000000
791.369080 147.688670 13.285024 0.000000
791.026920 147.771100 13.320400 0.000000
789.260560 148.137130 13.355724 0.000000
788.956670 148.080990 13.422085 0.000000
786.951230 148.410900 13.438487 0.000000
782.997800 149.248350 13.334688 0.000000
776.518010 150.671630 13.192624 0.000000
794.256160 146.547130 13.322174 0.000000
793.943910 146.846980 13.262736 0.000000
791.638980 147.317760 13.220778 0.000000
791.335940 147.199980 13.391199 0.000000
790.788020 147.449170 13.226047 0.000000
790.366520 147.312900 13.164899 0.000000
788.962340 147.638440 13.422561 0.000000
787.858760 148.110900 13.396247 0.000000
787.195800 148.209640 13.410539 0.000000
787.111820 148.269650 13.418926 0.000000
783.620060 148.869350 13.242503 0.000000
783.457580 148.837950 13.284222 0.000000
783.013240 149.083890 13.254360 0.000000
782.633730 149.137310 13.210682 0.000000
782.283870 149.100420 13.305784 0.000000
777.591370 150.094270 13.173770 0.000000
777.047490 150.412290 13.240060 0.000000
776.653810 150.505420 13.204214 0.000000
793.927550 146.405790 13.336129 0.000000
793.569460 146.547490 13.269208 0.000000
790.016420 147.250290 13.179531 0.000000
783.025880 148.763610 13.293145 0.000000
782.518860 148.659880 13.297441 0.000000
776.503480 150.060810 13.186386 0.000000
774.392400 150.413380 12.992234 0.000000
783.142270 148.143430 13.244120 0.000000
779.391480 149.021730 13.029024 0.000000
778.611020 149.094790 13.253707 0.000000
777.519170 149.194600 13.032035 0.000000
776.593380 149.675190 13.190149 0.000000
775.406980 149.972980 13.355968 0.000000
774.701110 150.018280 13.305476 0.000000
784.959530 147.215090 13.293548 0.000000
783.558470 147.734410 13.093204 0.000000
783.120610 147.693680 13.271423 0.000000
782.620000 147.905730 13.241649 0.000000
782.502620 148.054200 13.321688 0.000000
780.728030 148.263340 13.147060 0.000000
780.418580 148.310170 13.114476 0.000000
779.998840 148.297420 13.064562 0.000000
778.669680 148.744130 13.142015 0.000000
778.386900 148.795100 13.113769 0.000000
777.165470 149.054780 13.231968 0.000000
776.544620 149.236190 13.179317 0.000000
775.884220 149.219850 13.119173 0.000000
774.968260 149.385760 13.322282 0.000000
784.296260 147.147430 13.312282 0.000000
783.840270 147.067020 13.269660 0.000000
783.370540 147.306300 13.254274 0.000000
783.243960 147.500350 13.185541 0.000000
782.625490 147.527400 13.289080 0.000000
781.774290 147.583820 13.211119 0.000000
781.668400 147.673520 13.207343 0.000000
781.127930 147.944810 13.350513 0.000000
780.328860 147.776490 13.169582 0.000000
779.550660 147.906020 13.301402 0.000000
779.207520 148.177200 13.280202 0.000000
778.657710 148.351330 13.345503 0.000000
778.036320 148.211850 13.055787 0.000000
784.379460 146.769000 13.354020 0.000000
784.090640 146.736920 13.252875 0.000000
783.791200 146.854710 13.241371 0.000000
