# .PCD v0.7 - Point Cloud Data file format
VERSION 0.7
FIELDS x y z intensity
SIZE 4 4 4 4
TYPE F F F F
COUNT 1 1 1 1
WIDTH 1166
HEIGHT 1
VIEWPOINT 0 0 0 1 0 0 0
POINTS 1166
DATA ascii
771.023010 298.322200 19.490332 0.000000
774.484560 302.635350 19.705353 0.000000
773.125490 300.357090 19.600878 0.000000
772.966610 300.149200 19.589628 0.000000
772.746580 299.879240 19.574942 0.000000
772.451900 299.559810 19.558458 0.000000
772.143920 299.255070 19.542738 0.000000
774.423340 302.467470 19.696388 0.000000
774.291690 302.135500 19.678375 0.000000
774.086610 301.738250 19.660328 0.000000
773.884700 301.440220 19.650431 0.000000
773.676330 301.149870 19.640293 0.000000
773.425290 300.787600 19.623848 0.000000
773.228030 300.498540 19.608501 0.000000
771.168950 296.474670 19.411381 0.000000
770.826050 296.278720 19.397823 0.000000
771.998960 297.017030 19.447119 0.000000
771.671880 296.791230 19.432522 0.000000
771.422550 296.629030 19.421780 0.000000
774.148740 298.976900 19.560829 0.000000
773.940920 298.753360 19.549522 0.000000
773.587590 298.390750 19.530245 0.000000
773.303160 298.105410 19.513742 0.000000
770.971250 293.894470 19.295307 0.000000
775.733220 301.255980 19.672752 0.000000
775.552550 300.882570 19.652407 0.000000
775.336910 300.527070 19.635513 0.000000
775.105960 300.182590 19.619406 0.000000
774.864380 299.847530 19.603487 0.000000
774.676640 299.602420 19.591698 0.000000
774.482970 299.363340 19.580006 0.000000
774.284360 299.129390 19.568445 0.000000
771.718870 294.240390 19.321327 0.000000
771.400700 294.086270 19.309883 0.000000
772.551510 294.691070 19.353041 0.000000
772.242190 294.515410 19.340876 0.000000
771.929690 294.347020 19.328968 0.000000
773.057430 295.003450 19.374054 0.000000
772.755740 294.812560 19.361246 0.000000
773.453860 295.269290 19.391447 0.000000
770.879580 290.724610 19.179420 0.000000
775.041870 296.554630 19.470676 0.000000
771.454350 290.830260 19.185474 0.000000
771.187380 290.727570 19.175816 0.000000
776.728090 298.618800 19.595850 0.000000
776.578190 298.425110 19.585878 0.000000
776.363400 297.984680 19.552614 0.000000
776.207950 297.795380 19.542122 0.000000
775.969360 297.517150 19.526470 0.000000
775.641420 297.156370 19.505896 0.000000
775.388850 296.893430 19.490643 0.000000
775.297360 296.653780 19.467171 0.000000
772.246640 291.163640 19.215254 0.000000
771.983280 291.049710 19.205391 0.000000
777.169980 299.073270 19.610550 0.000000
776.881530 298.811770 19.605019 0.000000
776.515260 298.177280 19.563259 0.000000
772.767330 291.406520 19.235720 0.000000
772.506960 291.284480 19.225632 0.000000
773.536190 291.801240 19.267254 0.000000
773.153080 291.600520 19.251471 0.000000
774.210330 292.342830 19.315680 0.000000
774.040160 292.084410 19.288803 0.000000
773.789730 291.939940 19.277849 0.000000
774.783510 292.537170 19.321619 0.000000
774.537780 292.382110 19.310555 0.000000
775.508790 293.025630 19.355324 0.000000
775.269290 292.858640 19.343962 0.000000
775.116090 292.584560 19.316425 0.000000
777.781430 294.902440 19.472864 0.000000
777.564580 294.698360 19.460873 0.000000
777.269530 294.367310 19.437899 0.000000
782.586730 302.364110 19.848190 0.000000
778.052550 295.253600 19.497288 0.000000
772.692020 286.298070 19.035366 0.000000
779.288270 296.031040 19.515228 0.000000
778.990970 295.680690 19.495178 0.000000
773.118530 286.236480 19.026598 0.000000
774.031800 286.897090 19.093763 0.000000
773.797730 286.534640 19.055592 0.000000
774.716310 287.173830 19.117807 0.000000
774.467160 286.854920 19.085386 0.000000
775.649230 287.763890 19.170708 0.000000
775.452450 287.373930 19.131285 0.000000
775.185300 287.091740 19.103899 0.000000
776.412780 287.940030 19.178715 0.000000
776.095280 287.746610 19.162794 0.000000
777.104550 288.249820 19.200260 0.000000
777.550110 288.897740 19.259657 0.000000
777.345460 288.553130 19.227701 0.000000
778.765260 289.752140 19.321638 0.000000
778.549500 289.432950 19.294212 0.000000
778.327580 289.115540 19.266670 0.000000
778.103330 288.795230 19.238449 0.000000
780.546880 291.134250 19.412766 0.000000
780.958800 291.271120 19.414389 0.000000
781.516480 291.293300 19.400631 0.000000
782.316770 291.133760 19.362389 0.000000
786.223140 296.741030 19.701202 0.000000
786.368100 296.234650 19.656607 0.000000
792.346740 305.846190 20.614973 0.000000
792.625180 305.361210 20.583887 0.000000
786.650390 295.652620 19.600315 0.000000
792.910280 304.866180 20.551756 0.000000
793.199580 304.360440 20.518599 0.000000
793.496340 303.843380 20.484291 0.000000
793.800110 303.314210 20.448790 0.000000
794.111270 302.772250 20.412037 0.000000
793.283330 301.336030 20.349590 0.000000
794.430240 302.216610 20.373960 0.000000
794.757450 301.646450 20.334484 0.000000
794.544490 293.849760 19.854959 0.000000
794.517150 293.254940 19.815372 0.000000
795.336610 294.149600 19.859301 0.000000
792.239750 286.673800 19.381237 0.000000
771.075010 299.703310 20.005110 0.000000
789.350460 311.066470 20.923517 0.000000
789.581360 310.664280 20.901609 0.000000
789.814880 310.257320 20.879103 0.000000
790.051390 309.845340 20.855976 0.000000
790.290890 309.427950 20.832201 0.000000
790.533750 309.004790 20.807753 0.000000
790.780210 308.575470 20.782598 0.000000
791.030400 308.139590 20.756708 0.000000
791.284610 307.696750 20.730049 0.000000
791.543090 307.246460 20.702585 0.000000
791.806030 306.788270 20.674278 0.000000
792.073850 306.321690 20.645088 0.000000
791.445500 301.137240 20.378820 0.000000
791.627320 300.622040 20.344593 0.000000
771.012270 299.688870 20.297874 0.000000
789.359920 311.043030 21.473705 0.000000
789.591060 310.640350 21.454918 0.000000
789.824890 310.232940 21.435736 0.000000
790.061650 309.820430 21.416145 0.000000
790.301150 309.402500 21.396124 0.000000
790.544620 308.978820 21.375654 0.000000
790.791320 308.548890 21.354712 0.000000
791.041870 308.112430 21.333271 0.000000
791.296330 307.668950 21.311308 0.000000
791.555110 307.218020 21.288799 0.000000
791.818480 306.759160 21.265711 0.000000
789.006650 301.957150 21.018068 0.000000
792.086610 306.291870 21.242020 0.000000
792.359990 305.815640 21.217690 0.000000
789.674010 301.408080 20.987808 0.000000
792.638790 305.329930 21.192686 0.000000
792.924260 304.834050 21.166973 0.000000
791.697570 302.979680 21.071011 0.000000
791.512390 302.525270 21.046947 0.000000
791.455750 302.058070 21.021927 0.000000
789.913210 299.532810 20.883942 0.000000
793.214050 304.327510 21.140520 0.000000
791.017940 300.227690 20.922274 0.000000
793.511170 303.809540 21.113277 0.000000
790.745360 298.846800 20.845175 0.000000
793.815490 303.279450 21.085203 0.000000
794.552920 293.804960 20.554758 0.000000
795.377990 294.091950 20.572136 0.000000
794.525390 293.209410 20.519505 0.000000
770.997440 299.655670 20.965353 0.000000
789.369450 311.019620 22.024302 0.000000
789.600830 310.616460 22.008638 0.000000
789.834900 310.208530 21.992792 0.000000
790.071900 309.795500 21.976748 0.000000
790.312010 309.377040 21.960489 0.000000
790.555480 308.952790 21.944008 0.000000
790.802490 308.522340 21.927286 0.000000
791.053280 308.085240 21.910305 0.000000
791.308040 307.641140 21.893051 0.000000
791.567200 307.189540 21.875509 0.000000
791.830930 306.730010 21.857656 0.000000
792.099430 306.262020 21.839476 0.000000
792.373110 305.785060 21.820946 0.000000
792.652340 305.298580 21.802048 0.000000
789.385560 299.630430 21.445110 0.000000
792.937320 304.801940 21.782755 0.000000
790.757080 301.191410 21.553307 0.000000
793.228520 304.294530 21.763041 0.000000
791.621280 301.524440 21.588379 0.000000
790.971190 300.205080 21.507610 0.000000
793.526120 303.775700 21.742884 0.000000
793.830870 303.244690 21.722256 0.000000
794.142940 302.700740 21.701124 0.000000
792.295650 299.425140 21.495703 0.000000
794.478210 302.141270 21.679688 0.000000
794.791380 301.570800 21.657225 0.000000
794.561160 293.760160 21.254963 0.000000
795.419620 294.034150 21.286909 0.000000
794.533750 293.163910 21.224047 0.000000
770.972230 299.652950 21.345194 0.000000
770.881650 299.713230 21.719105 0.000000
771.100280 299.714230 21.735853 0.000000
789.378970 310.996150 22.575840 0.000000
789.610530 310.592500 22.563316 0.000000
789.844910 310.184080 22.550814 0.000000
790.082150 309.770540 22.538326 0.000000
790.322510 309.351530 22.525846 0.000000
790.566280 308.926730 22.513365 0.000000
790.813600 308.495700 22.500879 0.000000
791.064760 308.058010 22.488377 0.000000
791.319820 307.613280 22.475849 0.000000
791.579350 307.161040 22.463291 0.000000
791.843380 306.700840 22.450693 0.000000
792.113650 306.232180 22.438101 0.000000
792.386350 305.754430 22.425339 0.000000
790.660400 302.564730 22.193020 0.000000
792.665950 305.267180 22.412565 0.000000
792.951350 304.769710 22.399712 0.000000
790.903810 301.134490 22.135099 0.000000
793.242920 304.261470 22.386768 0.000000
793.541020 303.741760 22.373724 0.000000
792.401860 301.864410 22.233610 0.000000
793.846250 303.209810 22.360573 0.000000
791.922610 300.467160 22.147020 0.000000
794.158870 302.664920 22.347296 0.000000
792.222050 299.407560 22.110512 0.000000
792.388790 298.859590 22.092413 0.000000
795.146360 300.943790 22.306595 0.000000
794.583500 293.709690 21.956591 0.000000
794.555050 293.112820 21.929987 0.000000
770.812620 299.753140 22.088757 0.000000
771.000670 299.780210 22.108109 0.000000
789.388490 310.972600 23.128845 0.000000
789.620360 310.568480 23.119473 0.000000
789.854980 310.159580 23.110332 0.000000
790.092470 309.745480 23.101416 0.000000
790.333130 309.325990 23.092730 0.000000
790.577150 308.900600 23.084269 0.000000
790.824770 308.468990 23.076038 0.000000
791.076230 308.030700 23.068035 0.000000
791.331670 307.585360 23.060253 0.000000
791.591490 307.132480 23.052706 0.000000
791.855900 306.671540 23.045383 0.000000
789.602290 302.662510 22.702093 0.000000
792.125120 306.202150 23.038292 0.000000
790.719360 303.444980 22.810564 0.000000
791.233280 302.933620 22.819763 0.000000
791.576350 301.946290 22.796700 0.000000
790.188170 299.369540 22.597754 0.000000
790.888730 299.678830 22.654919 0.000000
770.851070 299.799100 22.374498 0.000000
788.045350 310.873900 23.563753 0.000000
788.373470 310.299410 23.554583 0.000000
788.595640 309.910460 23.549026 0.000000
792.399660 305.723720 23.031437 0.000000
792.679630 305.235690 23.024817 0.000000
792.965450 304.737430 23.018435 0.000000
793.257450 304.228330 23.012293 0.000000
793.556030 303.707730 23.006397 0.000000
792.073790 301.389160 22.803816 0.000000
792.010190 298.410710 22.674751 0.000000
794.483760 300.477420 22.918459 0.000000
794.458560 299.945160 22.893906 0.000000
794.370360 299.423520 22.866173 0.000000
794.605770 293.659090 22.660624 0.000000
794.577640 293.061040 22.638371 0.000000
793.990660 289.518100 22.490051 0.000000
788.820620 309.516660 23.543890 0.000000
789.048460 309.117650 23.539173 0.000000
789.279540 308.713100 23.534893 0.000000
789.513980 308.302640 23.531052 0.000000
789.752010 307.885860 23.527660 0.000000
789.993900 307.462400 23.524712 0.000000
790.239870 307.031770 23.522236 0.000000
790.490110 306.593540 23.520229 0.000000
790.745000 306.147250 23.518709 0.000000
791.004700 305.692350 23.517689 0.000000
791.270080 305.228390 23.517208 0.000000
791.540220 304.754730 23.517200 0.000000
791.467770 303.819890 23.466278 0.000000
791.816650 304.270810 23.517763 0.000000
791.496220 303.347200 23.446978 0.000000
791.568730 302.867490 23.431717 0.000000
791.422360 301.935910 23.378868 0.000000
792.086550 302.329070 23.452850 0.000000
790.629880 299.705720 23.223553 0.000000
790.512150 299.256710 23.197462 0.000000
791.265080 300.045530 23.290209 0.000000
792.397770 301.305080 23.436596 0.000000
791.543950 298.500460 23.258535 0.000000
793.329770 300.644320 23.489933 0.000000
790.950620 293.459380 23.065058 0.000000
790.793460 292.974580 23.041342 0.000000
787.945560 311.041870 24.093616 0.000000
788.162960 310.661250 24.090044 0.000000
788.382810 310.276400 24.087078 0.000000
788.605220 309.886960 24.084726 0.000000
788.830440 309.492680 24.083006 0.000000
789.058590 309.093170 24.081917 0.000000
789.289860 308.688080 24.081474 0.000000
789.524660 308.277070 24.081705 0.000000
789.762940 307.859710 24.082605 0.000000
790.005130 307.435640 24.084198 0.000000
790.251400 307.004360 24.086514 0.000000
790.502010 306.565520 24.089554 0.000000
790.757200 306.118530 24.093351 0.000000
791.017330 305.662960 24.097925 0.000000
791.553650 304.723820 24.109522 0.000000
791.830440 304.239070 24.116594 0.000000
791.576970 303.781310 24.068037 0.000000
791.608280 303.306150 24.050335 0.000000
791.745360 302.817320 24.044231 0.000000
791.617070 301.876530 23.992165 0.000000
790.657710 300.614040 23.842495 0.000000
790.617860 298.714870 23.778376 0.000000
789.554990 297.102510 23.625517 0.000000
795.088990 299.786500 23.606937 0.000000
794.315920 297.202970 23.448704 0.000000
794.039060 296.725770 23.409929 0.000000
793.806640 296.238830 23.375181 0.000000
792.860230 293.162990 23.212296 0.000000
794.628170 293.608220 23.367758 0.000000
795.572080 294.462250 23.469093 0.000000
794.600340 293.009060 23.349894 0.000000
794.686340 290.427340 23.296465 0.000000
794.491390 289.867070 23.269341 0.000000
794.346010 289.275820 23.246181 0.000000
794.253780 288.647610 23.227152 0.000000
794.087340 288.054470 23.203661 0.000000
793.922060 287.453920 23.180820 0.000000
793.686520 286.891540 23.153900 0.000000
793.470760 286.311370 23.128904 0.000000
793.837220 302.080350 24.240101 0.000000
791.889950 298.879360 23.917984 0.000000
790.728090 296.186680 23.727055 0.000000
789.359440 292.552610 23.532009 0.000000
792.196410 296.724520 23.891945 0.000000
791.799440 295.257110 23.818516 0.000000
790.663450 292.433900 23.659615 0.000000
792.752010 294.325560 23.898485 0.000000
791.666440 292.509430 23.760349 0.000000
792.315860 292.783420 23.829121 0.000000
794.916020 296.418460 24.169062 0.000000
793.099790 293.604460 23.921227 0.000000
792.872500 293.116850 23.890221 0.000000
790.805970 301.959870 24.491550 0.000000
791.839720 302.294980 24.638315 0.000000
789.531430 297.559230 24.210859 0.000000
792.638120 301.199680 24.702457 0.000000
792.136170 300.291630 24.608250 0.000000
792.584900 300.707370 24.679201 0.000000
792.090390 299.802310 24.587938 0.000000
792.069700 299.305110 24.571560 0.000000
787.729680 292.333280 23.957487 0.000000
791.400090 296.429690 24.426140 0.000000
795.438600 296.841710 24.235161 0.000000
795.329650 288.683690 24.081369 0.000000
795.297360 287.997530 24.072691 0.000000
791.217470 303.278590 25.189352 0.000000
791.236270 302.808560 25.173971 0.000000
791.299500 300.903930 25.120558 0.000000
793.112730 295.277980 24.622540 0.000000
792.165470 293.392180 24.486870 0.000000
790.833920 291.136840 24.322649 0.000000
793.319030 294.632930 24.639772 0.000000
791.596680 291.320280 24.412109 0.000000
793.124150 292.364070 24.596834 0.000000
792.567630 291.420260 24.527155 0.000000
794.459780 293.592380 24.768766 0.000000
793.290830 291.673340 24.614040 0.000000
794.612180 292.918700 24.781136 0.000000
791.654170 301.324710 25.186718 0.000000
792.221620 301.724880 25.285603 0.000000
791.612790 299.377440 25.129343 0.000000
794.171020 287.201020 24.725857 0.000000
791.686580 300.801060 25.789925 0.000000
792.982420 294.152280 25.270372 0.000000
792.510800 292.013550 25.208382 0.000000
792.296450 291.516720 25.182245 0.000000
791.112120 289.074520 25.054337 0.000000
792.295780 290.904210 25.187956 0.000000
792.108950 290.384030 25.168344 0.000000
791.818120 289.920750 25.135088 0.000000
791.467100 289.494690 25.094402 0.000000
793.692570 292.054840 25.373816 0.000000
795.250310 293.844820 25.595722 0.000000
790.405520 290.699830 25.594843 0.000000
791.181760 290.859160 25.711527 0.000000
791.985600 291.027470 25.833719 0.000000
794.600950 293.449980 26.221737 0.000000
793.145750 291.037140 26.016712 0.000000
794.616700 292.830380 26.228962 0.000000
781.812070 310.257230 19.822004 0.000000
782.234860 310.744660 19.794281 0.000000
788.313110 309.617950 19.821814 0.000000
788.060420 309.130310 19.823021 0.000000
789.245610 310.736110 19.795197 0.000000
788.785280 310.168090 19.808233 0.000000
788.009830 308.689730 19.812510 0.000000
787.580690 307.776250 19.808910 0.000000
788.204830 308.291810 19.787445 0.000000
787.748960 307.170680 19.776545 0.000000
787.278140 306.506320 19.780924 0.000000
787.515010 305.910430 19.741783 0.000000
787.045230 305.281340 19.744722 0.000000
787.222840 304.883580 19.715710 0.000000
794.700130 301.757080 19.759338 0.000000
795.023860 301.183040 19.715523 0.000000
794.779720 300.666870 19.697544 0.000000
794.658080 299.593810 19.642475 0.000000
794.193180 299.128480 19.634510 0.000000
772.566590 311.037690 19.796289 0.000000
772.730960 310.812680 19.790121 0.000000
772.839290 310.661800 19.785446 0.000000
773.038880 310.348570 19.776871 0.000000
773.221010 310.024870 19.769068 0.000000
773.306580 309.860260 19.765038 0.000000
773.428590 309.610470 19.758783 0.000000
773.544310 309.358090 19.752316 0.000000
774.778930 310.823520 19.812607 0.000000
773.684570 309.016110 19.743475 0.000000
774.927430 310.535610 19.804762 0.000000
775.021670 310.341550 19.799341 0.000000
773.873110 308.496150 19.729404 0.000000
775.152830 310.045900 19.791315 0.000000
774.065920 307.979610 19.709608 0.000000
776.246340 310.979860 19.951069 0.000000
775.355710 309.547670 19.776962 0.000000
774.244080 307.457370 19.686880 0.000000
776.472290 310.690430 19.933783 0.000000
775.533630 309.040950 19.762291 0.000000
774.352230 307.105130 19.670641 0.000000
774.423650 306.837830 19.658178 0.000000
776.700010 310.398070 19.915251 0.000000
776.853270 310.201020 19.902040 0.000000
775.627990 308.733400 19.753277 0.000000
775.711490 308.423220 19.744141 0.000000
774.489500 306.568850 19.645386 0.000000
774.548030 306.297850 19.632242 0.000000
777.007750 310.002230 19.888170 0.000000
775.819400 307.899350 19.729889 0.000000
774.631100 305.842650 19.609591 0.000000
773.201480 303.347080 19.708605 0.000000
773.134830 302.951600 19.689157 0.000000
773.059750 302.639560 19.675211 0.000000
777.242190 309.700070 19.865993 0.000000
775.906370 307.373690 19.714899 0.000000
775.944150 307.056950 19.705984 0.000000
774.707210 305.291440 19.581284 0.000000
774.748470 304.921720 19.561102 0.000000
773.003600 302.488070 19.670553 0.000000
772.882260 302.189880 19.661354 0.000000
772.752440 301.896610 19.652210 0.000000
777.559810 309.290070 19.834044 0.000000
775.964480 306.845760 19.699902 0.000000
775.985900 306.528840 19.690800 0.000000
774.767330 304.736110 19.550306 0.000000
774.794620 304.363070 19.528297 0.000000
777.802370 308.976560 19.808216 0.000000
776.007930 306.213410 19.680519 0.000000
776.061280 305.902770 19.664944 0.000000
774.813230 303.894560 19.500168 0.000000
774.845030 303.609830 19.478220 0.000000
774.459230 302.709960 19.708946 0.000000
777.966370 308.763980 19.789968 0.000000
776.140750 305.381990 19.637295 0.000000
776.187260 304.962310 19.615005 0.000000
774.423100 302.529660 19.699965 0.000000
774.362300 302.260710 19.686445 0.000000
774.266540 301.905880 19.668926 0.000000
774.121030 301.566010 19.656927 0.000000
773.955020 301.235960 19.646389 0.000000
778.195190 308.301910 19.761511 0.000000
778.234010 308.049440 19.753912 0.000000
776.205140 304.751560 19.603582 0.000000
776.225220 304.434360 19.586132 0.000000
778.267760 307.796630 19.746250 0.000000
778.307560 307.416840 19.734711 0.000000
776.240300 304.010070 19.562412 0.000000
776.242920 303.584380 19.537966 0.000000
778.842470 307.915010 20.022480 0.000000
778.983090 307.674930 20.005236 0.000000
778.342900 306.910190 19.719248 0.000000
778.356260 306.530520 19.707596 0.000000
776.234680 303.157320 19.512548 0.000000
776.224490 302.835880 19.492496 0.000000
779.194520 307.308590 19.978148 0.000000
778.358520 306.277800 19.699783 0.000000
778.352230 305.899750 19.687967 0.000000
778.335510 305.522920 19.676167 0.000000
775.901610 301.139710 19.672777 0.000000
779.408140 306.935910 19.949688 0.000000
778.299440 305.147710 19.665068 0.000000
778.235840 304.651210 19.650204 0.000000
775.837520 300.934810 19.661993 0.000000
775.727970 300.632080 19.646582 0.000000
775.548400 300.241390 19.628914 0.000000
775.351560 299.860080 19.611860 0.000000
775.141600 299.487430 19.594967 0.000000
781.467710 309.813660 19.843405 0.000000
781.024050 309.358400 19.872040 0.000000
781.205750 309.089170 19.852451 0.000000
779.663270 306.559540 19.916336 0.000000
778.174990 304.281980 19.639189 0.000000
778.112240 303.915950 19.627123 0.000000
778.089230 303.549350 19.609642 0.000000
779.938230 306.175690 19.880018 0.000000
778.092900 303.303280 19.595110 0.000000
778.086120 302.933780 19.573465 0.000000
778.068300 302.564120 19.551865 0.000000
780.128170 305.913180 19.854301 0.000000
778.052120 302.317290 19.537136 0.000000
778.031620 302.070400 19.522299 0.000000
777.993160 301.699980 19.499706 0.000000
780.321960 305.645110 19.827522 0.000000
780.519780 305.371150 19.799618 0.000000
777.955140 301.199650 19.465816 0.000000
780.721920 305.090910 19.770536 0.000000
780.905030 304.803680 19.742231 0.000000
777.576780 298.644840 19.603018 0.000000
777.411740 298.296300 19.583477 0.000000
777.207210 297.967680 19.567530 0.000000
781.174990 304.360290 19.698467 0.000000
781.415530 303.905270 19.655521 0.000000
781.468380 303.599670 19.635180 0.000000
781.528630 303.291110 19.613476 0.000000
781.151060 302.416290 19.595186 0.000000
780.904970 302.148130 19.599508 0.000000
781.387020 302.692930 19.591658 0.000000
780.946230 301.841580 19.576660 0.000000
780.854370 301.403870 19.555567 0.000000
780.597600 301.002620 19.549561 0.000000
780.472530 300.729190 19.540562 0.000000
780.312680 300.164370 19.512144 0.000000
780.265810 299.872740 19.493700 0.000000
780.187810 299.435030 19.465508 0.000000
780.034970 298.706790 19.417820 0.000000
780.206850 298.961030 19.425491 0.000000
779.965700 298.415920 19.398403 0.000000
782.898930 301.845860 19.831387 0.000000
783.062260 301.483980 19.799532 0.000000
779.396120 294.539370 19.468306 0.000000
783.257930 301.108610 19.764328 0.000000
779.886840 294.989200 19.485760 0.000000
779.725040 294.710110 19.468042 0.000000
789.518980 310.780180 20.353436 0.000000
783.490170 300.716860 19.725315 0.000000
789.756840 310.365910 20.330935 0.000000
783.735050 300.311650 19.684143 0.000000
789.997250 309.947170 20.307663 0.000000
786.715450 304.481200 19.729303 0.000000
786.428280 303.702330 19.709763 0.000000
785.725160 302.591430 19.696167 0.000000
783.987980 299.892910 19.641056 0.000000
790.240480 309.523650 20.283592 0.000000
786.934080 304.082340 19.696419 0.000000
786.643190 303.300260 19.675756 0.000000
786.239380 302.934330 19.682158 0.000000
785.965520 302.184750 19.658533 0.000000
784.249270 299.459780 19.595955 0.000000
784.520020 299.011170 19.548668 0.000000
783.416200 296.675660 19.439144 0.000000
790.486510 309.095000 20.258698 0.000000
784.742490 298.562770 19.503746 0.000000
784.529540 297.843170 19.464231 0.000000
784.305540 297.523500 19.453524 0.000000
784.079280 297.208590 19.442734 0.000000
783.700930 296.956150 19.445011 0.000000
783.347600 295.908720 19.380772 0.000000
783.180540 295.580140 19.362680 0.000000
783.061040 295.228880 19.339499 0.000000
790.735780 308.660860 20.232946 0.000000
784.899600 298.122100 19.462721 0.000000
782.941040 294.875920 19.315636 0.000000
782.759580 294.342830 19.278465 0.000000
782.568910 293.809840 19.240652 0.000000
790.988400 308.220860 20.206305 0.000000
791.244690 307.774600 20.178738 0.000000
791.504700 307.321720 20.150211 0.000000
791.768860 306.861690 20.120680 0.000000
792.037350 306.394100 20.090107 0.000000
792.310420 305.918520 20.058443 0.000000
792.588380 305.434360 20.025642 0.000000
787.132810 295.138400 19.652210 0.000000
792.871640 304.941160 19.991652 0.000000
793.160400 304.438320 19.956415 0.000000
791.146240 300.642760 19.844845 0.000000
787.397400 294.553160 19.600477 0.000000
793.455020 303.925230 19.919876 0.000000
787.729430 293.919560 19.542288 0.000000
793.755860 303.401280 19.881973 0.000000
788.153380 293.221280 19.475540 0.000000
794.063420 302.865720 19.842628 0.000000
794.377990 302.317930 19.801779 0.000000
788.596920 292.486910 19.404877 0.000000
787.724060 289.664150 19.211813 0.000000
787.326170 289.341770 19.197731 0.000000
791.501460 295.533660 19.515734 0.000000
791.107600 295.137570 19.503927 0.000000
789.056210 291.716220 19.330376 0.000000
788.482300 290.351010 19.242905 0.000000
788.057430 290.032230 19.231091 0.000000
793.737060 298.674740 19.626249 0.000000
793.286800 298.232540 19.617832 0.000000
792.683900 296.777190 19.551310 0.000000
792.368470 296.330470 19.534880 0.000000
791.900150 295.937410 19.527294 0.000000
791.157290 294.048460 19.426632 0.000000
789.332210 291.013340 19.266787 0.000000
788.907410 290.677920 19.254791 0.000000
793.609250 297.622250 19.567730 0.000000
793.188780 297.182860 19.557095 0.000000
791.526920 294.452330 19.441042 0.000000
770.767270 299.677670 19.732285 0.000000
771.230410 299.714080 19.686167 0.000000
772.683650 301.752410 19.647625 0.000000
772.537540 301.469640 19.638630 0.000000
772.346680 301.123140 19.626892 0.000000
772.169250 300.774810 19.609850 0.000000
771.942080 300.365910 19.588598 0.000000
771.736270 300.035580 19.571213 0.000000
771.515560 299.715850 19.554144 0.000000
770.916690 297.194640 19.439651 0.000000
771.635560 297.846740 19.478830 0.000000
771.315550 297.542050 19.460812 0.000000
771.050720 297.308840 19.446890 0.000000
773.824400 300.993070 19.638449 0.000000
773.715450 300.744140 19.626080 0.000000
773.561890 300.416470 19.609383 0.000000
773.395080 300.095860 19.593060 0.000000
773.158450 299.711330 19.574898 0.000000
772.904420 299.339480 19.557373 0.000000
772.689700 299.051700 19.543564 0.000000
771.107790 295.177670 19.354025 0.000000
770.845580 295.015930 19.343143 0.000000
771.950260 295.771300 19.392416 0.000000
771.702150 295.585570 19.380676 0.000000
771.365110 295.348050 19.365307 0.000000
772.664000 296.371610 19.429173 0.000000
772.352360 296.097350 19.412569 0.000000
772.112850 295.899290 19.400396 0.000000
772.966800 296.657140 19.446045 0.000000
770.822270 292.295990 19.223900 0.000000
774.919190 299.123720 19.578222 0.000000
774.684750 298.769350 19.561644 0.000000
774.501590 298.509670 19.549332 0.000000
774.320430 298.250700 19.535715 0.000000
774.135860 297.994900 19.521793 0.000000
771.375610 292.563390 19.244741 0.000000
771.047120 292.395750 19.231482 0.000000
772.127200 292.986480 19.276722 0.000000
771.808040 292.799290 19.262768 0.000000
772.855830 293.454680 19.309847 0.000000
772.442570 293.181670 19.290733 0.000000
773.560240 293.964940 19.343927 0.000000
773.261410 293.741270 19.329205 0.000000
774.611690 294.851040 19.399055 0.000000
774.201420 294.552250 19.385069 0.000000
773.950560 294.275670 19.363811 0.000000
771.147950 288.888370 19.102486 0.000000
770.797970 288.556950 19.064194 0.000000
774.886290 295.109340 19.414364 0.000000
771.587830 289.013240 19.112614 0.000000
776.832950 297.587650 19.557713 0.000000
776.618100 297.272280 19.541370 0.000000
776.479430 296.912140 19.513868 0.000000
776.245060 296.609470 19.498009 0.000000
772.401250 289.411930 19.149282 0.000000
772.131710 289.275510 19.137056 0.000000
773.062500 289.777400 19.181005 0.000000
772.667300 289.555150 19.161947 0.000000
773.708740 290.170010 19.213564 0.000000
773.452210 290.009610 19.200460 0.000000
774.221740 290.492860 19.238626 0.000000
774.026000 290.244140 19.214390 0.000000
774.992310 290.984530 19.273569 0.000000
774.737610 290.816310 19.261820 0.000000
775.618530 291.424010 19.303337 0.000000
775.346310 291.035520 19.268303 0.000000
776.855470 292.562320 19.382759 0.000000
776.706790 292.280460 19.358360 0.000000
776.390140 291.944000 19.333746 0.000000
777.479800 292.829900 19.385542 0.000000
777.297970 292.575200 19.366306 0.000000
777.337340 286.156560 19.143362 0.000000
778.366880 286.771610 19.188072 0.000000
778.163330 286.384580 19.153442 0.000000
779.869630 288.078030 19.284615 0.000000
779.654790 287.723940 19.255667 0.000000
779.437810 287.366330 19.225967 0.000000
779.214050 287.009980 19.196058 0.000000
778.988400 286.649110 19.165287 0.000000
791.514890 307.296170 20.752125 0.000000
781.550480 289.251190 19.353298 0.000000
781.245240 288.980680 19.336464 0.000000
780.932310 288.719450 19.320198 0.000000
780.757690 288.326600 19.288130 0.000000
780.534910 287.974700 19.260487 0.000000
791.779360 306.835540 20.727396 0.000000
792.048220 306.367340 20.701889 0.000000
782.134090 289.289490 19.341759 0.000000
792.321590 305.891050 20.675566 0.000000
792.599980 305.406220 20.648390 0.000000
792.883610 304.912260 20.620321 0.000000
793.172790 304.408660 20.591314 0.000000
793.467770 303.894780 20.561323 0.000000
791.457760 301.054260 20.459312 0.000000
791.544250 300.555420 20.431501 0.000000
791.405090 299.596950 20.382832 0.000000
793.769040 303.369960 20.530304 0.000000
794.077090 302.833560 20.498196 0.000000
794.392090 302.284850 20.464947 0.000000
794.714720 301.723020 20.430492 0.000000
795.045230 301.147280 20.394772 0.000000
794.553470 293.903230 19.996681 0.000000
794.525330 293.313810 19.961027 0.000000
770.765930 299.655030 20.100294 0.000000
771.222960 299.694980 20.070950 0.000000
789.526980 310.758910 20.925480 0.000000
789.765140 310.344180 20.905945 0.000000
790.005740 309.924930 20.885847 0.000000
790.249570 309.501010 20.865160 0.000000
790.495610 309.071750 20.843874 0.000000
790.745060 308.637080 20.821953 0.000000
790.998050 308.196530 20.799374 0.000000
791.254580 307.749690 20.776106 0.000000
771.215580 299.676030 20.451893 0.000000
789.535030 310.737670 21.497412 0.000000
789.773380 310.322450 21.480848 0.000000
790.014340 309.902740 21.463930 0.000000
790.258000 309.478210 21.446638 0.000000
790.504640 309.048520 21.428959 0.000000
790.754390 308.613280 21.410873 0.000000
791.007630 308.172180 21.392361 0.000000
791.264530 307.724790 21.373402 0.000000
791.525090 307.270660 21.353975 0.000000
791.789920 306.809420 21.334059 0.000000
792.059080 306.340550 21.313625 0.000000
789.921690 303.040950 21.155857 0.000000
789.860230 302.592560 21.134224 0.000000
789.286380 301.748110 21.091944 0.000000
792.332820 305.863620 21.292652 0.000000
792.611570 305.378050 21.271111 0.000000
792.895570 304.883390 21.248974 0.000000
790.873290 301.099120 21.063852 0.000000
789.933170 299.365540 20.974802 0.000000
793.185120 304.379030 21.226208 0.000000
793.480530 303.864290 21.202780 0.000000
791.724670 300.498900 21.036224 0.000000
793.782290 303.338680 21.178656 0.000000
794.745000 301.687530 21.101681 0.000000
794.561950 293.861570 20.700706 0.000000
794.533690 293.271480 20.668804 0.000000
771.210080 299.661930 20.736019 0.000000
770.940250 299.649840 21.015478 0.000000
789.543030 310.716340 22.069767 0.000000
789.781680 310.300690 22.056183 0.000000
790.022830 309.880490 22.042452 0.000000
790.266780 309.455440 22.028563 0.000000
790.513670 309.025270 22.014503 0.000000
790.763790 308.589540 22.000261 0.000000
791.017270 308.147860 21.985828 0.000000
791.274410 307.699860 21.971188 0.000000
791.535340 307.245150 21.956327 0.000000
791.800540 306.783260 21.941235 0.000000
792.069950 306.313750 21.925890 0.000000
792.344060 305.836120 21.910280 0.000000
792.623170 305.349880 21.894390 0.000000
792.907590 304.854460 21.878201 0.000000
793.197510 304.349330 21.861692 0.000000
791.611940 301.462280 21.689333 0.000000
790.793950 300.127260 21.607590 0.000000
793.493350 303.833830 21.844847 0.000000
791.847720 300.450350 21.647963 0.000000
793.795410 303.307340 21.827639 0.000000
794.104430 302.769200 21.810053 0.000000
794.420350 302.218660 21.792059 0.000000
792.718750 298.777400 21.591145 0.000000
794.743960 301.654880 21.773636 0.000000
795.428830 300.482760 21.735622 0.000000
794.572200 293.819340 21.405241 0.000000
794.544010 293.228490 21.377092 0.000000
771.134640 299.666050 21.488947 0.000000
770.934270 299.636510 21.291588 0.000000
771.038880 299.714200 21.762980 0.000000
789.551090 310.695040 22.643110 0.000000
789.789920 310.278870 22.632511 0.000000
790.031370 309.858220 22.621981 0.000000
790.275570 309.432680 22.611504 0.000000
790.522710 309.001950 22.601074 0.000000
790.773130 308.565670 22.590694 0.000000
791.026920 308.123470 22.580355 0.000000
791.285830 307.675050 22.570126 0.000000
791.545590 307.219570 22.559769 0.000000
791.811040 306.757080 22.549515 0.000000
792.080870 306.286900 22.539280 0.000000
792.355350 305.808590 22.529055 0.000000
792.634830 305.321660 22.518835 0.000000
790.490780 301.558440 22.248646 0.000000
792.919560 304.825500 22.508617 0.000000
789.728580 299.347750 22.118452 0.000000
793.209900 304.319610 22.498390 0.000000
791.588130 301.920810 22.314960 0.000000
793.506160 303.803280 22.488150 0.000000
791.922240 300.408720 22.263868 0.000000
793.809810 303.275940 22.477934 0.000000
794.118100 302.736940 22.467602 0.000000
793.184330 300.740260 22.336002 0.000000
792.340210 299.332790 22.236729 0.000000
794.443420 302.184750 22.457653 0.000000
794.594670 293.772670 22.111412 0.000000
794.566590 293.180790 22.087030 0.000000
770.913760 299.777160 22.120369 0.000000
789.559140 310.673680 23.217976 0.000000
789.798220 310.257020 23.210384 0.000000
790.039920 309.835850 23.203064 0.000000
790.284360 309.409820 23.196012 0.000000
790.531800 308.978580 23.189236 0.000000
790.782470 308.541780 23.182730 0.000000
791.036560 308.099000 23.176500 0.000000
791.294370 307.649870 23.170551 0.000000
789.378110 302.992650 22.817638 0.000000
791.215090 303.356870 22.958302 0.000000
790.187070 299.225370 22.718153 0.000000
790.936340 299.560150 22.781200 0.000000
770.942260 299.829010 22.401331 0.000000
791.555850 307.193940 23.164871 0.000000
791.821660 306.730800 23.159485 0.000000
792.091800 306.259980 23.154379 0.000000
792.366580 305.780980 23.149559 0.000000
792.646480 305.293330 23.145041 0.000000
792.931640 304.796450 23.140821 0.000000
793.222290 304.289730 23.136906 0.000000
791.692690 301.881350 22.926336 0.000000
793.519040 303.772670 23.133303 0.000000
792.158630 301.340790 22.935095 0.000000
792.207760 300.836430 22.917572 0.000000
794.448730 302.152160 23.124451 0.000000
794.525880 299.990330 23.039539 0.000000
794.466980 299.455110 23.014277 0.000000
792.257690 293.438690 22.657541 0.000000
794.617190 293.725860 22.820087 0.000000
794.589420 293.132870 22.799498 0.000000
794.107120 289.571170 22.664646 0.000000
793.768130 288.423890 22.613005 0.000000
788.114500 310.750730 23.673468 0.000000
788.339230 310.357510 23.668570 0.000000
788.566100 309.960300 23.664125 0.000000
788.795530 309.558780 23.660141 0.000000
789.027650 309.152620 23.656624 0.000000
789.262450 308.741520 23.653570 0.000000
789.500310 308.325100 23.650997 0.000000
789.741460 307.903080 23.648911 0.000000
789.986020 307.474950 23.647320 0.000000
790.234250 307.040410 23.646225 0.000000
790.486450 306.599030 23.645653 0.000000
790.742740 306.150300 23.645603 0.000000
791.003480 305.693850 23.646095 0.000000
791.268920 305.229130 23.647142 0.000000
789.580380 302.505430 23.372786 0.000000
791.539430 304.755650 23.648766 0.000000
791.815250 304.272860 23.650974 0.000000
792.096680 303.780150 23.653788 0.000000
791.724000 301.848660 23.537849 0.000000
790.623110 299.587890 23.354687 0.000000
791.750850 301.356990 23.520653 0.000000
790.512940 299.128940 23.329237 0.000000
790.752620 298.592900 23.332697 0.000000
793.845460 303.212460 23.785559 0.000000
793.514040 302.711030 23.734116 0.000000
791.103150 295.460940 23.272137 0.000000
790.855220 292.858860 23.190737 0.000000
791.507570 293.697420 23.264130 0.000000
791.655210 293.078980 23.263021 0.000000
788.121950 310.730650 24.222511 0.000000
788.346860 310.336980 24.220289 0.000000
788.574040 309.939300 24.218716 0.000000
788.803710 309.537320 24.217806 0.000000
789.036010 309.130680 24.217571 0.000000
789.271180 308.719120 24.218012 0.000000
789.509280 308.302150 24.219151 0.000000
789.750670 307.879580 24.221001 0.000000
789.995610 307.450930 24.223579 0.000000
790.244020 307.015780 24.226896 0.000000
790.496580 306.573820 24.230988 0.000000
790.753170 306.124450 24.235855 0.000000
791.014280 305.667360 24.241533 0.000000
789.381530 302.939030 23.933046 0.000000
791.280090 305.201970 24.248045 0.000000
789.177060 297.514710 23.735460 0.000000
795.479610 300.373170 23.815624 0.000000
795.335270 299.835140 23.782543 0.000000
795.229000 299.293120 23.753328 0.000000
794.441220 297.214450 23.613729 0.000000
794.185000 296.717440 23.575903 0.000000
793.952030 296.218510 23.540680 0.000000
794.639830 293.678860 23.531960 0.000000
794.601260 293.088900 23.514349 0.000000
794.785220 290.506070 23.474302 0.000000
794.491390 289.993710 23.440023 0.000000
794.542360 289.311070 23.432045 0.000000
794.403140 288.713780 23.410461 0.000000
794.241330 288.122800 23.387804 0.000000
794.087950 287.521480 23.366362 0.000000
793.871640 286.950650 23.340937 0.000000
793.668330 286.367710 23.317089 0.000000
791.550960 304.727780 24.255419 0.000000
791.827090 304.244230 24.263680 0.000000
791.679690 303.762660 24.225376 0.000000
791.646300 303.280640 24.200563 0.000000
792.163940 301.775790 24.197149 0.000000
791.784850 299.340390 24.070837 0.000000
790.350100 296.690220 23.844025 0.000000
792.026790 298.277100 24.066320 0.000000
789.335570 292.419220 23.671103 0.000000
791.424070 295.847410 23.942204 0.000000
792.313420 295.019710 24.021557 0.000000
790.752380 292.308590 23.816795 0.000000
793.037720 294.209810 24.084335 0.000000
791.806400 292.407070 23.927761 0.000000
792.808650 292.562160 24.034779 0.000000
793.537720 292.857850 24.115767 0.000000
788.922790 298.021420 24.288559 0.000000
792.822020 301.171570 24.889317 0.000000
792.670410 300.681300 24.852703 0.000000
792.250370 299.221130 24.753628 0.000000
791.066530 296.954560 24.548067 0.000000
795.548830 296.326350 24.400421 0.000000
794.278320 293.170440 24.199070 0.000000
795.662050 288.707060 24.291397 0.000000
793.191160 294.117710 24.782822 0.000000
791.929750 291.731080 24.610291 0.000000
792.606930 292.018430 24.695185 0.000000
792.426270 290.899350 24.671301 0.000000
794.615910 293.003720 24.953863 0.000000
791.348690 303.236570 25.380404 0.000000
792.040590 302.220580 25.448891 0.000000
791.723510 301.269260 25.366888 0.000000
791.359380 300.827090 25.296692 0.000000
792.380860 301.693050 25.483204 0.000000
792.399780 294.363650 25.353161 0.000000
794.461300 287.217770 24.932930 0.000000
794.007630 286.777740 24.882401 0.000000
793.840150 286.168300 24.868505 0.000000
791.921630 300.719730 26.011257 0.000000
791.642820 291.236240 25.253895 0.000000
792.426760 291.463260 25.364584 0.000000
790.514280 288.175510 25.144981 0.000000
791.018430 288.506410 25.207212 0.000000
793.143250 291.743500 25.466375 0.000000
792.562810 290.175480 25.396832 0.000000
792.274660 289.698300 25.362200 0.000000
791.903560 289.267970 25.316471 0.000000
791.528260 288.844910 25.271309 0.000000
794.600710 292.969300 25.676888 0.000000
793.919070 292.019500 25.578089 0.000000
790.414430 290.636350 25.750813 0.000000
791.236570 290.803250 25.879848 0.000000
793.433110 293.372070 26.206621 0.000000
794.584110 293.540860 26.400414 0.000000
792.569640 290.748930 26.098045 0.000000
786.669740 308.347110 19.828028 0.000000
787.754940 309.923830 19.796047 0.000000
787.529720 309.416140 19.799568 0.000000
787.092470 308.870210 19.814306 0.000000
787.001890 307.995420 19.799524 0.000000
787.211550 307.612090 19.777046 0.000000
786.798220 307.120300 19.789070 0.000000
786.692320 306.282170 19.771154 0.000000
788.650760 310.641910 19.756063 0.000000
787.111690 306.753660 19.759436 0.000000
787.044490 305.914610 19.737858 0.000000
786.619450 305.462070 19.749279 0.000000
786.972290 305.086430 19.714434 0.000000
786.646180 304.658450 19.719320 0.000000
786.579710 303.853940 19.692684 0.000000
786.579960 303.054870 19.659664 0.000000
794.316590 302.421050 19.821568 0.000000
794.632080 301.871700 19.784470 0.000000
794.949770 301.310330 19.746120 0.000000
795.182130 300.743500 19.710344 0.000000
794.151860 298.125060 19.620691 0.000000
793.796630 297.642880 19.608976 0.000000
795.306760 299.619480 19.651051 0.000000
794.836910 299.121610 19.644957 0.000000
794.584720 298.605130 19.628603 0.000000
793.932800 296.517520 19.541653 0.000000
793.565550 296.049740 19.529354 0.000000
793.299070 295.564670 19.511551 0.000000
770.823360 310.950160 19.756990 0.000000
771.009700 310.749420 19.756004 0.000000
771.134090 310.616240 19.754541 0.000000
771.378300 310.346340 19.750486 0.000000
771.616700 310.071530 19.745565 0.000000
771.738160 309.936000 19.741789 0.000000
771.977720 309.660980 19.733053 0.000000
772.939940 311.055020 19.799828 0.000000
772.263730 309.305210 19.721640 0.000000
773.151920 310.820040 19.792852 0.000000
773.284550 310.655980 19.788679 0.000000
772.477660 309.008640 19.712370 0.000000
772.632320 308.781770 19.704971 0.000000
773.530880 310.313600 19.781000 0.000000
772.828980 308.472410 19.694393 0.000000
773.821530 309.873960 19.770853 0.000000
773.106750 307.996830 19.677311 0.000000
773.985720 309.603760 19.764408 0.000000
774.140500 309.328310 19.757740 0.000000
773.360290 307.506500 19.658897 0.000000
774.289370 309.049740 19.750698 0.000000
774.385800 308.862670 19.745605 0.000000
773.522520 307.174930 19.645058 0.000000
773.601200 307.007390 19.637569 0.000000
774.524290 308.579070 19.737606 0.000000
774.654240 308.291560 19.729536 0.000000
773.712100 306.752530 19.626266 0.000000
773.845210 306.406310 19.611488 0.000000
775.880250 311.050170 19.828648 0.000000
776.014220 310.836640 19.822906 0.000000
774.726440 308.093660 19.725212 0.000000
774.841920 307.800570 19.716677 0.000000
773.938110 306.143620 19.599998 0.000000
774.024170 305.878020 19.588091 0.000000
772.924070 303.699190 19.715647 0.000000
772.937190 303.295320 19.698305 0.000000
772.936340 302.971890 19.683744 0.000000
776.398190 311.062590 20.111992 0.000000
776.206670 310.511110 19.814028 0.000000
774.943300 307.502260 19.708761 0.000000
775.005370 307.301790 19.703403 0.000000
774.153500 305.429990 19.567450 0.000000
774.245420 305.067570 19.550320 0.000000
772.919370 302.729830 19.674070 0.000000
772.875670 302.490200 19.667305 0.000000
772.788940 302.095090 19.655897 0.000000
772.686160 301.705600 19.644375 0.000000
772.564580 301.323430 19.632904 0.000000
772.444460 300.943790 19.618551 0.000000
772.331240 300.563900 19.599932 0.000000
772.172790 300.115480 19.577614 0.000000
772.021790 299.749150 19.559172 0.000000
771.922240 299.533290 19.548315 0.000000
776.647950 310.756100 20.098906 0.000000
776.448060 310.068540 19.801813 0.000000
775.081240 307.106230 19.695795 0.000000
775.194760 306.812040 19.683292 0.000000
774.307980 304.793270 19.536665 0.000000
774.369870 304.517820 19.521936 0.000000
776.961240 310.331180 20.081377 0.000000
776.670780 309.616360 19.789185 0.000000
775.302490 306.515110 19.670382 0.000000
775.402220 306.214720 19.657042 0.000000
774.407710 304.332950 19.511831 0.000000
774.443120 304.147190 19.501507 0.000000
771.840330 296.901670 19.437820 0.000000
777.195430 310.008420 20.067070 0.000000
777.351070 309.790800 20.056925 0.000000
776.919310 309.037810 19.773014 0.000000
775.553650 305.708010 19.633787 0.000000
774.300900 302.732910 19.704256 0.000000
774.281430 302.361820 19.687082 0.000000
774.247680 301.991550 19.669788 0.000000
774.167300 301.627810 19.656843 0.000000
772.444090 297.697300 19.481592 0.000000
772.287110 297.474240 19.469505 0.000000
772.068910 297.183720 19.453566 0.000000
777.506710 309.571380 20.046276 0.000000
777.660280 309.349150 20.035286 0.000000
777.142760 308.449770 19.755972 0.000000
775.697630 305.196110 19.608095 0.000000
775.794800 304.780460 19.587061 0.000000
774.086360 301.359680 19.648821 0.000000
773.997860 301.094970 19.640741 0.000000
773.899480 300.739530 19.625679 0.000000
773.803650 300.384220 19.608334 0.000000
773.686340 300.035370 19.592196 0.000000
773.547240 299.694640 19.577450 0.000000
773.355530 299.277530 19.559105 0.000000
773.190120 298.950350 19.544529 0.000000
771.463680 293.980620 19.303816 0.000000
771.205990 293.792940 19.291756 0.000000
777.817690 309.126460 20.023510 0.000000
777.288150 307.968050 19.742968 0.000000
777.385130 307.603880 19.732973 0.000000
775.873230 304.359950 19.566025 0.000000
775.924800 304.042360 19.549679 0.000000
772.127750 294.514400 19.336895 0.000000
771.800540 294.241000 19.320120 0.000000
777.972960 308.900760 20.011374 0.000000
778.128050 308.672640 19.998745 0.000000
777.446350 307.360690 19.725889 0.000000
777.529300 306.994140 19.715004 0.000000
775.967220 303.722560 19.532999 0.000000
776.014280 303.293640 19.509968 0.000000
772.752010 295.098080 19.371592 0.000000
772.445190 294.800080 19.354031 0.000000
778.360660 308.325470 19.978750 0.000000
777.602290 306.625920 19.703970 0.000000
777.662900 306.255920 19.692764 0.000000
773.604550 296.060880 19.426332 0.000000
773.332400 295.728790 19.407736 0.000000
773.047970 295.407710 19.389488 0.000000
778.606320 307.977290 19.956694 0.000000
777.725400 305.760650 19.677782 0.000000
777.756350 305.387880 19.666756 0.000000
775.996340 301.220460 19.676113 0.000000
775.941960 300.897770 19.660545 0.000000
775.854130 300.470340 19.639906 0.000000
775.104130 298.546140 19.556711 0.000000
774.963930 298.253750 19.542538 0.000000
774.051760 296.666170 19.459427 0.000000
773.864690 296.403200 19.445154 0.000000
778.775760 307.742710 19.940823 0.000000
778.949040 307.505740 19.924093 0.000000
777.767640 305.138950 19.659615 0.000000
777.775090 304.765930 19.648777 0.000000
775.729000 300.052030 19.621759 0.000000
775.582090 299.641170 19.604397 0.000000
775.420650 299.236850 19.587032 0.000000
775.290410 298.937960 19.574032 0.000000
775.199340 298.740970 19.565327 0.000000
772.630430 291.784880 19.243172 0.000000
779.213500 307.143800 19.897497 0.000000
777.878420 304.402010 19.626926 0.000000
777.796630 304.024320 19.622843 0.000000
777.861820 303.532230 19.597395 0.000000
773.449340 292.397770 19.283480 0.000000
773.044430 292.084410 19.263224 0.000000
779.482730 306.774930 19.869337 0.000000
777.920410 303.036250 19.570229 0.000000
777.948850 302.662080 19.549976 0.000000
774.037230 292.894650 19.314430 0.000000
773.746830 292.641600 19.298832 0.000000
779.665650 306.523960 19.849472 0.000000
779.851380 306.268950 19.828756 0.000000
777.961730 302.411620 19.536312 0.000000
777.970640 302.160490 19.522463 0.000000
777.976810 301.782530 19.501236 0.000000
774.783630 293.604220 19.356403 0.000000
774.378170 293.277370 19.341446 0.000000
780.040040 306.009640 19.807152 0.000000
777.974730 301.403440 19.479666 0.000000
775.480040 294.528630 19.416912 0.000000
775.312870 294.170680 19.388371 0.000000
780.329530 305.611360 19.772873 0.000000
776.132020 295.176610 19.442362 0.000000
775.814760 294.764830 19.420595 0.000000
772.950500 287.462040 19.062647 0.000000
780.625920 305.203060 19.736628 0.000000
777.803960 298.267580 19.600227 0.000000
777.713200 298.022030 19.587738 0.000000
777.522890 297.675450 19.573948 0.000000
777.341310 297.184780 19.546001 0.000000
780.818660 304.922730 19.711878 0.000000
774.549440 288.529050 19.148590 0.000000
780.994870 304.635350 19.687716 0.000000
781.131840 304.340180 19.666016 0.000000
781.388180 303.736850 19.621866 0.000000
781.207280 303.426150 19.624628 0.000000
781.015560 303.121920 19.627979 0.000000
781.105530 302.665010 19.599976 0.000000
780.958740 301.913570 19.576078 0.000000
780.772830 301.477750 19.568878 0.000000
780.641970 300.738370 19.538506 0.000000
780.549500 300.450290 19.529104 0.000000
776.045100 289.736360 19.235426 0.000000
780.830750 301.015530 19.538677 0.000000
780.583190 299.834380 19.488077 0.000000
780.438660 299.403990 19.471699 0.000000
780.395570 298.950200 19.444332 0.000000
776.906560 290.684840 19.303452 0.000000
780.362300 298.646730 19.425623 0.000000
780.302120 298.190920 19.397184 0.000000
777.601680 291.349820 19.342688 0.000000
777.373660 291.123840 19.329517 0.000000
