# .PCD v0.7 - Point Cloud Data file format
VERSION 0.7
FIELDS x y z intensity
SIZE 4 4 4 4
TYPE F F F F
COUNT 1 1 1 1
WIDTH 1166
HEIGHT 1
VIEWPOINT 0 0 0 1 0 0 0
POINTS 1166
DATA ascii
784.315490 161.495040 13.539681 0.000000
784.004700 161.565140 13.550244 0.000000
781.372860 161.142030 13.424097 0.000000
781.023190 161.205980 13.439716 0.000000
780.574770 161.284790 13.459193 0.000000
780.146970 161.357560 13.477079 0.000000
779.837710 161.408510 13.489594 0.000000
777.808290 161.133360 13.409000 0.000000
777.421390 161.194560 13.423964 0.000000
777.047060 161.249590 13.437321 0.000000
774.255920 161.088390 13.385769 0.000000
773.893860 161.100740 13.390519 0.000000
787.160340 161.384580 13.427364 0.000000
786.412050 161.297450 13.459607 0.000000
785.830440 161.274580 13.483703 0.000000
781.598510 161.084350 13.414390 0.000000
788.006290 173.223890 14.144669 0.000000
790.510440 172.831540 14.137691 0.000000
792.144590 172.560520 14.133095 0.000000
791.583860 172.650600 14.134663 0.000000
791.043820 172.745380 14.136197 0.000000
793.915470 172.271100 14.128125 0.000000
793.319760 172.380130 14.129831 0.000000
792.728640 172.475830 14.131486 0.000000
771.133180 170.986800 14.177651 0.000000
770.822750 171.083920 14.178656 0.000000
795.208980 172.084210 14.124567 0.000000
794.558840 172.184770 14.126375 0.000000
772.036320 170.702910 14.174726 0.000000
771.739690 170.796300 14.175687 0.000000
771.438660 170.890910 14.176662 0.000000
773.185120 170.351750 14.171032 0.000000
772.902950 170.440810 14.171947 0.000000
772.617430 170.531100 14.172874 0.000000
772.328980 170.610810 14.173778 0.000000
776.838990 170.093170 14.161755 0.000000
776.551570 170.104600 14.162458 0.000000
776.122560 170.115050 14.163491 0.000000
775.696780 170.125270 14.164515 0.000000
775.414980 170.134230 14.165199 0.000000
774.994320 170.146710 14.166217 0.000000
774.575130 170.156650 14.167225 0.000000
774.157590 170.168660 14.168235 0.000000
773.464290 170.263850 14.170128 0.000000
780.816160 169.909030 14.151935 0.000000
780.494450 169.938290 14.152770 0.000000
780.171940 169.956300 14.153576 0.000000
779.856690 169.981140 14.154383 0.000000
779.389710 170.014390 14.155569 0.000000
778.926510 170.038910 14.156722 0.000000
778.617920 170.042880 14.157454 0.000000
778.165160 170.058820 14.158558 0.000000
777.717590 170.072240 14.159642 0.000000
777.422420 170.079860 14.160353 0.000000
777.129640 170.086780 14.161057 0.000000
783.792110 169.692470 14.144361 0.000000
783.229060 169.727620 14.145777 0.000000
782.869510 169.759800 14.146709 0.000000
782.514100 169.787860 14.147620 0.000000
782.163020 169.812230 14.148510 0.000000
781.816220 169.833340 14.149381 0.000000
781.479130 169.861400 14.150249 0.000000
781.145750 169.886520 14.151100 0.000000
784.758540 169.618480 14.141891 0.000000
784.364750 169.647780 14.142894 0.000000
771.114750 166.619320 13.891943 0.000000
772.761780 166.281690 13.898061 0.000000
772.341860 166.273320 13.898727 0.000000
772.013310 166.392870 13.896641 0.000000
771.566890 166.531680 13.893978 0.000000
774.306270 165.955120 13.899583 0.000000
773.899110 166.011340 13.900178 0.000000
773.491030 166.111530 13.899631 0.000000
773.076720 166.209340 13.898830 0.000000
772.554570 166.227040 13.899385 0.000000
782.997860 166.382430 14.136701 0.000000
776.843260 165.881030 13.883895 0.000000
776.381410 165.807110 13.889178 0.000000
775.960630 165.845030 13.891776 0.000000
775.543210 165.877850 13.894125 0.000000
775.128910 165.907960 13.896188 0.000000
774.716860 165.933980 13.898001 0.000000
783.531860 165.755620 14.133651 0.000000
783.256590 165.850600 14.134566 0.000000
782.955140 165.908450 14.135437 0.000000
778.674440 165.528990 13.870891 0.000000
778.335450 165.575730 13.874045 0.000000
778.000790 165.620990 13.877010 0.000000
777.670720 165.663710 13.879764 0.000000
777.308350 165.606740 13.884426 0.000000
781.067870 165.119550 13.844770 0.000000
780.730530 165.249300 13.847863 0.000000
780.321170 165.259600 13.853642 0.000000
779.957580 165.322570 13.857738 0.000000
779.600280 165.383650 13.861607 0.000000
779.192690 165.336700 13.867660 0.000000
782.657530 164.787860 13.823851 0.000000
782.382630 164.848530 13.827656 0.000000
782.111630 164.906590 13.831336 0.000000
781.583250 165.018230 13.838264 0.000000
781.323670 165.069720 13.841578 0.000000
783.798890 164.515850 13.807347 0.000000
783.221800 164.660260 13.815796 0.000000
782.937810 164.725770 13.819880 0.000000
785.144100 164.299500 13.784898 0.000000
784.493290 164.269840 13.797508 0.000000
784.090580 164.435470 13.803020 0.000000
783.011540 166.397310 14.477502 0.000000
783.540830 165.763760 14.471447 0.000000
783.255860 165.847850 14.469603 0.000000
782.971370 165.925930 14.467751 0.000000
783.440370 185.776630 14.914548 0.000000
786.476440 185.534820 14.925090 0.000000
789.585940 185.072680 14.936679 0.000000
786.711360 184.606140 14.905341 0.000000
789.777400 184.162830 14.918172 0.000000
786.915100 183.672670 14.885499 0.000000
789.941530 183.254710 14.899705 0.000000
787.167850 182.899720 14.869846 0.000000
792.874820 182.353840 14.908143 0.000000
790.067320 182.330610 14.880783 0.000000
787.395450 182.122440 14.854128 0.000000
792.977420 181.477390 14.891125 0.000000
790.273990 181.583360 14.866614 0.000000
790.441890 180.810150 14.851748 0.000000
793.060420 180.612520 14.874361 0.000000
790.589170 180.041030 14.836981 0.000000
793.127380 179.763400 14.857963 0.000000
783.025270 166.412280 14.819523 0.000000
783.549930 165.771940 14.810102 0.000000
783.121400 165.894270 14.803143 0.000000
783.065670 166.460110 15.165906 0.000000
783.581910 165.805570 15.152209 0.000000
783.128540 165.900920 15.138661 0.000000
783.031370 166.415820 15.505562 0.000000
783.544310 165.762050 15.488188 0.000000
782.986630 165.938400 15.469588 0.000000
782.998290 166.373120 15.844292 0.000000
783.495180 165.705730 15.821038 0.000000
783.169620 165.740520 15.969161 0.000000
782.908870 165.843110 15.959139 0.000000
782.949340 166.309830 16.351252 0.000000
783.476990 165.682800 16.329655 0.000000
783.103940 165.662320 16.461010 0.000000
782.864810 165.787870 16.452688 0.000000
783.713620 165.541950 16.508345 0.000000
794.051150 166.504780 13.378198 0.000000
793.548580 166.718570 13.392137 0.000000
795.064450 166.041630 13.349804 0.000000
794.498840 166.248310 13.366069 0.000000
795.648990 165.828310 13.332817 0.000000
772.394470 163.932740 13.747781 0.000000
771.971680 164.034740 13.748677 0.000000
771.540340 164.129930 13.749183 0.000000
771.187810 164.201490 13.749226 0.000000
770.828430 164.268830 13.748957 0.000000
773.529790 163.581210 13.744246 0.000000
773.131650 163.712860 13.745836 0.000000
772.725890 163.840150 13.746988 0.000000
775.012700 163.134900 13.729485 0.000000
774.776430 163.192750 13.733077 0.000000
774.383360 163.287260 13.738509 0.000000
773.919860 163.443700 13.742199 0.000000
776.354430 162.752930 13.705665 0.000000
775.958620 162.874880 13.713257 0.000000
775.563960 162.988920 13.720373 0.000000
775.249020 163.074650 13.725668 0.000000
777.473270 162.361910 13.681517 0.000000
777.151610 162.481370 13.688857 0.000000
776.751950 162.621350 13.697520 0.000000
771.444400 162.309390 13.646241 0.000000
771.156490 162.346330 13.645272 0.000000
779.133970 161.942460 13.630306 0.000000
778.713810 162.005260 13.645537 0.000000
778.313420 162.067960 13.659439 0.000000
777.961550 162.173250 13.669640 0.000000
777.716060 162.268780 13.675752 0.000000
774.692570 161.917420 13.607729 0.000000
774.338930 161.952700 13.616581 0.000000
773.919130 161.984190 13.626443 0.000000
773.507630 162.026430 13.634021 0.000000
773.101320 162.085040 13.639074 0.000000
772.693480 162.136660 13.643175 0.000000
772.351750 162.176040 13.645800 0.000000
772.006960 162.219890 13.647140 0.000000
771.657170 162.278120 13.646720 0.000000
781.423580 161.571790 13.539621 0.000000
781.154480 161.617520 13.550881 0.000000
780.765930 161.682740 13.566860 0.000000
780.270450 161.764020 13.586793 0.000000
779.914610 161.821400 13.600770 0.000000
779.572450 161.874790 13.613909 0.000000
777.392940 161.535630 13.515585 0.000000
777.139400 161.578060 13.525980 0.000000
776.728270 161.643880 13.542124 0.000000
776.329590 161.705020 13.556928 0.000000
775.942870 161.760570 13.570371 0.000000
775.565370 161.811830 13.582689 0.000000
775.196960 161.858470 13.593818 0.000000
774.906980 161.893260 13.602038 0.000000
773.547420 161.514940 13.502874 0.000000
773.162720 161.539220 13.510850 0.000000
772.780580 161.558330 13.517439 0.000000
772.399600 161.572330 13.522680 0.000000
771.954830 161.583330 13.526982 0.000000
771.506160 161.605330 13.528128 0.000000
771.115170 161.627780 13.526880 0.000000
783.465940 161.130370 13.451449 0.000000
783.164370 161.212920 13.464624 0.000000
782.728150 161.329960 13.483387 0.000000
782.281190 161.422350 13.502833 0.000000
781.986270 161.474200 13.515637 0.000000
781.700620 161.523990 13.527887 0.000000
779.465820 161.145190 13.418883 0.000000
779.156800 161.207350 13.434493 0.000000
778.759700 161.286210 13.453960 0.000000
778.377500 161.359250 13.472067 0.000000
778.009030 161.427320 13.488892 0.000000
777.652950 161.490770 13.504537 0.000000
776.337830 161.152310 13.409565 0.000000
775.973880 161.215820 13.425205 0.000000
775.548280 161.284940 13.442204 0.000000
775.133850 161.347340 13.457286 0.000000
774.728520 161.402920 13.470638 0.000000
774.329960 161.450000 13.482565 0.000000
773.936040 161.485350 13.493461 0.000000
773.041870 161.112850 13.397738 0.000000
772.742610 161.128400 13.403048 0.000000
772.384280 161.142150 13.408090 0.000000
771.965940 161.150920 13.412078 0.000000
771.545780 161.152470 13.414173 0.000000
771.182740 161.147670 13.414325 0.000000
779.677310 161.101170 13.407990 0.000000
776.712830 161.082570 13.392311 0.000000
773.584530 161.074690 13.385389 0.000000
773.282230 161.097560 13.392694 0.000000
771.592290 166.771330 13.916475 0.000000
771.137880 166.977780 13.917468 0.000000
772.982600 166.376970 13.906978 0.000000
772.669920 166.492250 13.908934 0.000000
772.352480 166.608080 13.910777 0.000000
772.029790 166.617170 13.914392 0.000000
774.189210 165.930190 13.897666 0.000000
773.890930 166.027360 13.900461 0.000000
773.492070 166.183580 13.903469 0.000000
773.188050 166.299680 13.905615 0.000000
776.354310 165.581380 13.865975 0.000000
775.907170 165.567410 13.874676 0.000000
775.502260 165.659000 13.880500 0.000000
775.098080 165.746020 13.886073 0.000000
774.694460 165.830410 13.891368 0.000000
774.391600 165.891850 13.895177 0.000000
777.544130 165.149840 13.848722 0.000000
777.130860 165.261540 13.855653 0.000000
776.784180 165.250210 13.862932 0.000000
778.810240 164.783360 13.825893 0.000000
778.331360 165.036990 13.833154 0.000000
777.961790 165.033970 13.841440 0.000000
780.242490 164.322420 13.797315 0.000000
779.944340 164.487430 13.802616 0.000000
779.462650 164.580490 13.813211 0.000000
779.133610 164.682770 13.819714 0.000000
781.166810 163.998840 13.777378 0.000000
780.700810 164.165770 13.787556 0.000000
780.470210 164.244800 13.792504 0.000000
782.011600 163.687850 13.758152 0.000000
781.524600 163.868770 13.769343 0.000000
783.826900 163.132080 13.712406 0.000000
783.155400 163.243560 13.730723 0.000000
782.766910 163.398060 13.740202 0.000000
784.239810 162.798520 13.703293 0.000000
784.054320 162.982100 13.707132 0.000000
783.332150 163.068010 13.727352 0.000000
784.991580 162.358430 13.684443 0.000000
784.808840 162.554780 13.688393 0.000000
784.520810 162.677810 13.695987 0.000000
790.618770 171.588210 13.984962 0.000000
790.111330 171.710600 13.991377 0.000000
771.225890 171.523800 14.211677 0.000000
792.216980 171.205220 13.964770 0.000000
791.663570 171.329410 13.971729 0.000000
791.131590 171.457240 13.978452 0.000000
771.833920 171.230420 14.203422 0.000000
771.532710 171.375820 14.207512 0.000000
793.945310 170.792740 13.942940 0.000000
793.338320 170.922210 13.950546 0.000000
792.776060 171.070140 13.957703 0.000000
772.707400 170.823360 14.191617 0.000000
772.420900 170.962170 14.195509 0.000000
772.129760 171.087540 14.199404 0.000000
795.171080 170.489790 13.927418 0.000000
794.557370 170.649410 13.935221 0.000000
773.541500 170.420720 14.180291 0.000000
773.128480 170.619860 14.185899 0.000000
775.742130 169.943020 14.152680 0.000000
775.467040 169.995850 14.156104 0.000000
775.192260 170.049240 14.159529 0.000000
774.779910 170.128810 14.164663 0.000000
774.367190 170.209850 14.169808 0.000000
774.091310 170.263340 14.173244 0.000000
777.544980 169.594210 14.130226 0.000000
777.125060 169.675290 14.135454 0.000000
776.707950 169.755160 14.140646 0.000000
776.293210 169.836590 14.145818 0.000000
776.017270 169.889190 14.149252 0.000000
779.555600 169.201860 14.105169 0.000000
779.115170 169.287670 14.110658 0.000000
778.681090 169.372470 14.116067 0.000000
778.250790 169.454830 14.121424 0.000000
777.967410 169.511460 14.124960 0.000000
781.511470 168.760640 14.080565 0.000000
781.200930 168.830090 14.084471 0.000000
780.746340 168.939290 14.090214 0.000000
780.296330 169.043690 14.095886 0.000000
780.002500 169.116530 14.099607 0.000000
783.121520 168.387160 14.060272 0.000000
782.785890 168.458590 14.064478 0.000000
782.299930 168.573320 14.070610 0.000000
781.824770 168.688320 14.076618 0.000000
784.147580 168.146000 14.047326 0.000000
783.795840 168.223250 14.051743 0.000000
783.454040 168.303600 14.056055 0.000000
783.005000 166.388810 14.231071 0.000000
782.972600 165.934600 14.398909 0.000000
783.567440 165.746860 14.397258 0.000000
783.190000 165.863600 14.224366 0.000000
780.313110 184.955670 14.849695 0.000000
780.614690 183.992390 14.823895 0.000000
783.991150 183.742190 14.802081 0.000000
780.877870 183.004090 14.797899 0.000000
784.120420 182.623960 14.774730 0.000000
781.129520 182.078610 14.773721 0.000000
784.279540 181.658110 14.751143 0.000000
781.370730 181.209610 14.751181 0.000000
784.403930 180.685000 14.727681 0.000000
781.602780 180.391620 14.730124 0.000000
784.527100 179.775850 14.705931 0.000000
781.826660 179.619720 14.710413 0.000000
784.654170 178.933470 14.685932 0.000000
786.481140 178.235600 14.667747 0.000000
787.197880 177.551640 14.652280 0.000000
786.760500 177.763230 14.657012 0.000000
785.576230 177.637180 14.654765 0.000000
785.113770 177.771220 14.658300 0.000000
790.034360 177.268970 14.648801 0.000000
788.713990 177.175870 14.644983 0.000000
788.258970 177.384550 14.649086 0.000000
787.723570 177.467970 14.650586 0.000000
791.625790 176.781070 14.642076 0.000000
791.109990 176.972890 14.644759 0.000000
790.515140 177.056300 14.645220 0.000000
789.217960 177.026760 14.642405 0.000000
795.032170 176.475950 14.647258 0.000000
783.025630 166.402830 14.763446 0.000000
782.988890 165.946410 14.746299 0.000000
783.645020 165.819240 14.753973 0.000000
783.270810 165.839400 14.747638 0.000000
783.039430 166.412170 15.119997 0.000000
783.767940 165.937060 15.119768 0.000000
783.004150 165.957110 15.095049 0.000000
783.272950 165.836040 15.097758 0.000000
783.036740 166.403150 15.476166 0.000000
782.994750 165.941210 15.442530 0.000000
783.689760 165.853000 15.470614 0.000000
783.258480 165.815400 15.446794 0.000000
783.002620 166.359090 15.828313 0.000000
783.539980 165.697240 15.807158 0.000000
783.212520 165.761990 15.791248 0.000000
782.928100 165.863800 15.781698 0.000000
782.968200 166.314680 16.179592 0.000000
783.494630 165.646190 16.154436 0.000000
783.165650 165.707730 16.134050 0.000000
782.894470 165.821910 16.124096 0.000000
782.933720 166.270310 16.530363 0.000000
783.647950 165.595080 16.520046 0.000000
783.118960 165.653630 16.475636 0.000000
782.864320 165.783750 16.466782 0.000000
795.718260 164.783570 13.216223 0.000000
795.169130 165.048720 13.229355 0.000000
777.148500 161.882950 13.606881 0.000000
776.768920 161.933670 13.619165 0.000000
776.403020 161.981510 13.630557 0.000000
771.166320 161.982250 13.593714 0.000000
770.765080 162.018600 13.594923 0.000000
780.199890 161.421170 13.494514 0.000000
779.935490 161.464460 13.505075 0.000000
779.552800 161.525150 13.520126 0.000000
779.067020 161.602100 13.538767 0.000000
778.717350 161.655240 13.551912 0.000000
778.383240 161.706450 13.564116 0.000000
777.953610 161.769470 13.579468 0.000000
777.542850 161.828290 13.593681 0.000000
775.460570 161.509770 13.501289 0.000000
775.076230 161.564900 13.514668 0.000000
774.703490 161.615230 13.526767 0.000000
774.266660 161.666780 13.540164 0.000000
773.839420 161.707060 13.552531 0.000000
773.491030 161.736510 13.561814 0.000000
773.149110 161.762420 13.570112 0.000000
772.745670 161.792940 13.578690 0.000000
772.351070 161.843260 13.584278 0.000000
771.957950 161.894620 13.588398 0.000000
771.563480 161.940920 13.591540 0.000000
781.943480 161.097530 13.422630 0.000000
781.499270 161.201290 13.440807 0.000000
781.044680 161.280210 13.459907 0.000000
780.754090 161.329250 13.471951 0.000000
780.472780 161.376240 13.483473 0.000000
777.799440 161.113370 13.403671 0.000000
777.416560 161.184480 13.421431 0.000000
777.048710 161.250960 13.437869 0.000000
776.693970 161.312850 13.453131 0.000000
776.267640 161.384090 13.470646 0.000000
775.856510 161.449870 13.486713 0.000000
774.679690 161.114870 13.393166 0.000000
774.336790 161.164520 13.406045 0.000000
773.932800 161.213120 13.420491 0.000000
773.538390 161.255310 13.433301 0.000000
773.088440 161.297090 13.446240 0.000000
772.646480 161.331920 13.457289 0.000000
772.272770 161.356140 13.465222 0.000000
771.902280 161.376190 13.471764 0.000000
771.533450 161.390880 13.477073 0.000000
771.103580 161.402630 13.481578 0.000000
791.301390 170.092620 13.813241 0.000000
790.743530 170.214610 13.818723 0.000000
791.863040 169.957610 13.807802 0.000000
795.031980 169.274840 13.776594 0.000000
795.747070 169.131620 13.769481 0.000000
772.399350 168.393840 14.037225 0.000000
772.159730 168.490310 14.039289 0.000000
771.672240 168.687160 14.043489 0.000000
773.219060 168.065340 14.030148 0.000000
772.753720 168.251500 14.034166 0.000000
775.572880 167.519150 14.007223 0.000000
775.210140 167.574940 14.010942 0.000000
774.851140 167.632830 14.014606 0.000000
774.374940 167.707550 14.019477 0.000000
773.789550 167.832780 14.025249 0.000000
778.364750 167.079120 13.978671 0.000000
777.442260 167.222850 13.988115 0.000000
777.185120 167.262080 13.990754 0.000000
776.806340 167.324160 13.994613 0.000000
775.938350 167.462330 14.003480 0.000000
781.432920 166.595140 13.947293 0.000000
780.802000 166.692490 13.953760 0.000000
779.614070 166.882630 13.965891 0.000000
778.771480 167.014420 13.974514 0.000000
782.421020 166.429640 13.937253 0.000000
784.543030 165.989590 13.916244 0.000000
770.973630 165.582080 13.826911 0.000000
772.303710 165.157750 13.822713 0.000000
772.025820 165.249500 13.823794 0.000000
771.649720 165.371020 13.825086 0.000000
771.266240 165.492650 13.826172 0.000000
773.383970 164.784090 13.817369 0.000000
773.117800 164.878570 13.818849 0.000000
772.759220 165.004270 13.820648 0.000000
772.487000 165.096330 13.821931 0.000000
775.101810 164.347000 13.799200 0.000000
774.714540 164.376370 13.805730 0.000000
774.349060 164.449770 13.810377 0.000000
773.995910 164.557750 13.813577 0.000000
773.647460 164.687560 13.815812 0.000000
776.786560 163.901080 13.775752 0.000000
776.398740 163.996340 13.781856 0.000000
776.016850 164.087650 13.787639 0.000000
775.640380 164.175840 13.793102 0.000000
778.364010 163.574170 13.746630 0.000000
777.987300 163.578810 13.755729 0.000000
777.578920 163.690950 13.762776 0.000000
777.278440 163.772690 13.767795 0.000000
779.830380 163.026350 13.721429 0.000000
779.602780 163.098400 13.725880 0.000000
779.047910 163.269840 13.736472 0.000000
778.722110 163.366460 13.742560 0.000000
778.508970 163.429120 13.746453 0.000000
771.475520 163.178470 13.696730 0.000000
771.167360 163.245730 13.697018 0.000000
781.024840 162.634930 13.697079 0.000000
780.534670 162.797840 13.707273 0.000000
780.295900 162.875900 13.712144 0.000000
780.060490 162.951350 13.716893 0.000000
773.030820 162.768510 13.691112 0.000000
772.668090 162.874390 13.693034 0.000000
772.301270 162.975080 13.694620 0.000000
771.929140 163.070470 13.695789 0.000000
771.627870 163.143830 13.696463 0.000000
782.253660 162.271330 13.669248 0.000000
781.791440 162.369420 13.680695 0.000000
781.530580 162.460220 13.686348 0.000000
781.275330 162.548830 13.691799 0.000000
774.236690 162.359360 13.682164 0.000000
773.956300 162.463150 13.684532 0.000000
773.531370 162.607640 13.687934 0.000000
773.246700 162.702670 13.689764 0.000000
787.299870 161.886080 13.523653 0.000000
786.250240 161.719880 13.558807 0.000000
784.569890 161.792740 13.609067 0.000000
784.126100 161.845340 13.621587 0.000000
783.702450 161.895490 13.633440 0.000000
783.303340 161.947040 13.644440 0.000000
782.911560 161.990430 13.655271 0.000000
782.615420 162.085460 13.662229 0.000000
776.136050 162.015320 13.638609 0.000000
775.875980 162.047270 13.646198 0.000000
775.537410 162.087490 13.655744 0.000000
775.127990 162.135680 13.666629 0.000000
774.667480 162.224320 13.676407 0.000000
774.376400 162.306320 13.680857 0.000000
785.432500 161.631970 13.585425 0.000000
784.998900 161.717940 13.597275 0.000000
793.088130 169.711530 13.795621 0.000000
792.472660 169.841570 13.801698 0.000000
794.352910 169.419370 13.783295 0.000000
793.705990 169.564990 13.789623 0.000000
771.297970 168.827560 14.046783 0.000000
770.787720 169.032960 14.051183 0.000000
771.917480 168.588070 14.041378 0.000000
774.019590 167.763460 14.023113 0.000000
773.562320 167.922680 14.027218 0.000000
777.963500 167.139710 13.982792 0.000000
777.701720 167.182160 13.985461 0.000000
776.431090 167.383580 13.998448 0.000000
776.183960 167.423450 14.000971 0.000000
781.119140 166.650310 13.950466 0.000000
780.346920 166.764880 13.958411 0.000000
779.904660 166.838240 13.962911 0.000000
779.187320 166.947340 13.970273 0.000000
782.992860 166.185650 14.297106 0.000000
782.866700 166.266940 13.933302 0.000000
782.090640 166.492900 13.940559 0.000000
781.757630 166.543930 13.943974 0.000000
784.928160 165.909120 13.912434 0.000000
784.173030 166.072600 13.919866 0.000000
783.442750 165.807690 14.295852 0.000000
783.099300 165.883760 14.114044 0.000000
770.790890 176.540590 14.485803 0.000000
771.367190 176.194670 14.473997 0.000000
790.679020 175.281160 14.410200 0.000000
789.336910 175.258510 14.405497 0.000000
788.763610 175.326830 14.404513 0.000000
788.295410 175.507370 14.405143 0.000000
787.527770 175.295990 14.401135 0.000000
787.041080 175.420350 14.401488 0.000000
786.600830 175.597000 14.402671 0.000000
786.049560 175.608230 14.402020 0.000000
772.293400 175.661770 14.456038 0.000000
771.928770 175.881290 14.463141 0.000000
794.746460 174.856370 14.424665 0.000000
793.926760 174.851730 14.420464 0.000000
791.155150 175.055820 14.409902 0.000000
789.842040 175.097550 14.405537 0.000000
773.002930 175.235630 14.442647 0.000000
772.651250 175.446590 14.449210 0.000000
795.187870 174.515290 14.424422 0.000000
774.763790 174.710170 14.419909 0.000000
774.412110 174.793820 14.423854 0.000000
774.059200 174.875550 14.427917 0.000000
773.705200 174.957570 14.432131 0.000000
779.609560 174.234710 14.388682 0.000000
776.512940 174.282960 14.402177 0.000000
776.156430 174.340450 14.405080 0.000000
775.802190 174.402800 14.408178 0.000000
775.115300 174.629330 14.416145 0.000000
783.832030 173.855680 14.379715 0.000000
783.432190 173.981090 14.381015 0.000000
780.524290 173.965360 14.383008 0.000000
779.975100 174.129680 14.386334 0.000000
777.721440 173.928300 14.391103 0.000000
777.201600 174.074690 14.395563 0.000000
776.870850 174.225890 14.399409 0.000000
784.239690 173.734770 14.378627 0.000000
782.205440 173.470720 14.374839 0.000000
781.829100 173.585850 14.376464 0.000000
781.468510 173.724350 14.378517 0.000000
781.054020 173.753660 14.379383 0.000000
778.590940 173.683210 14.384281 0.000000
778.242550 173.781630 14.386909 0.000000
783.007260 166.198300 14.662534 0.000000
783.453370 165.816130 14.662437 0.000000
783.097170 165.879360 14.656656 0.000000
783.021730 166.211010 15.029298 0.000000
783.455020 165.816190 15.029464 0.000000
783.095830 165.876480 15.018763 0.000000
783.026490 166.214130 15.396740 0.000000
783.443730 165.804200 15.396070 0.000000
783.088260 165.867630 15.380937 0.000000
783.032960 165.812680 15.737356 0.000000
782.956970 166.142880 15.755435 0.000000
783.381470 165.744740 15.756415 0.000000
783.063540 166.669080 16.177656 0.000000
782.888000 166.072250 16.111408 0.000000
783.678650 165.619510 16.139915 0.000000
783.345030 165.709370 16.118729 0.000000
782.991460 165.771090 16.094173 0.000000
782.927000 166.525890 16.529331 0.000000
782.965390 166.147810 16.494078 0.000000
783.651120 165.593460 16.507809 0.000000
783.307130 165.672620 16.480408 0.000000
782.955200 165.734560 16.451290 0.000000
790.512630 161.793750 13.269428 0.000000
788.282590 161.344740 13.358461 0.000000
777.265260 161.500020 13.506120 0.000000
776.949950 161.549150 13.518198 0.000000
776.545040 161.611080 13.533330 0.000000
776.156620 161.668670 13.547427 0.000000
775.783450 161.722760 13.560543 0.000000
772.422550 161.570600 13.523350 0.000000
772.090760 161.598750 13.532216 0.000000
771.701420 161.644170 13.540468 0.000000
771.318300 161.703080 13.546143 0.000000
770.934810 161.756900 13.550901 0.000000
779.719970 161.087400 13.404465 0.000000
779.305660 161.160130 13.422439 0.000000
778.908200 161.228820 13.439425 0.000000
778.529850 161.292850 13.455296 0.000000
778.049070 161.373230 13.475032 0.000000
777.704280 161.429730 13.488891 0.000000
777.481380 161.464860 13.497732 0.000000
775.710020 161.128220 13.401523 0.000000
775.289730 161.202190 13.419991 0.000000
774.885440 161.271420 13.436909 0.000000
774.495730 161.333720 13.452427 0.000000
774.040410 161.395490 13.470050 0.000000
773.672610 161.441150 13.483530 0.000000
773.315060 161.481290 13.495914 0.000000
772.897280 161.525410 13.509372 0.000000
772.624270 161.552140 13.517614 0.000000
771.665220 161.188510 13.424500 0.000000
771.240170 161.220280 13.434700 0.000000
770.878970 161.242280 13.442034 0.000000
772.471560 161.112010 13.400791 0.000000
772.095890 161.150380 13.412579 0.000000
771.312190 164.456850 13.769847 0.000000
770.966370 164.562380 13.771917 0.000000
772.568850 164.038480 13.761236 0.000000
772.157170 164.186580 13.764084 0.000000
771.737730 164.323360 13.767046 0.000000
773.617190 163.631680 13.753192 0.000000
773.297180 163.759080 13.755833 0.000000
772.975160 163.884400 13.758329 0.000000
775.198670 163.117860 13.732417 0.000000
774.936520 163.186940 13.736808 0.000000
774.505620 163.297760 13.743789 0.000000
774.094730 163.436600 13.748933 0.000000
773.856450 163.535340 13.751089 0.000000
776.559330 162.731980 13.708138 0.000000
776.186890 162.841190 13.715044 0.000000
775.731990 162.970550 13.723212 0.000000
775.375240 163.070600 13.729394 0.000000
778.034610 162.268300 13.679166 0.000000
777.727970 162.367940 13.685409 0.000000
777.328980 162.495850 13.693342 0.000000
776.939510 162.616790 13.700925 0.000000
771.649960 162.420470 13.659292 0.000000
771.304690 162.520510 13.661097 0.000000
770.883910 162.634890 13.662849 0.000000
780.773010 161.824660 13.604886 0.000000
780.443850 161.865140 13.614566 0.000000
780.126530 161.903920 13.623819 0.000000
779.672060 161.958790 13.636930 0.000000
779.237670 162.010880 13.649316 0.000000
778.831300 162.064610 13.660568 0.000000
778.242000 162.198520 13.674915 0.000000
774.088070 161.938750 13.614802 0.000000
773.696960 161.976530 13.626179 0.000000
773.253230 162.047040 13.636714 0.000000
772.894650 162.112850 13.644020 0.000000
772.541690 162.178600 13.650435 0.000000
772.127500 162.277620 13.655869 0.000000
771.854980 162.358090 13.658068 0.000000
783.882320 161.383560 13.511381 0.000000
783.468930 161.468440 13.523481 0.000000
783.050840 161.537700 13.536038 0.000000
782.628910 161.591370 13.549016 0.000000
782.225460 161.642320 13.561344 0.000000
781.840270 161.691500 13.573008 0.000000
781.292360 161.760060 13.589457 0.000000
775.512020 161.761140 13.569825 0.000000
775.248110 161.797320 13.578606 0.000000
774.905820 161.843260 13.589657 0.000000
774.491940 161.895720 13.602502 0.000000
786.905400 161.155000 13.411373 0.000000
785.235840 161.103000 13.471160 0.000000
784.763850 161.201020 13.485287 0.000000
784.313290 161.294460 13.498672 0.000000
771.767090 172.548100 14.262672 0.000000
772.657290 172.038380 14.247969 0.000000
772.364930 172.205350 14.252676 0.000000
772.068240 172.375170 14.257574 0.000000
773.078310 171.738340 14.241006 0.000000
777.283750 171.145140 14.200105 0.000000
775.289060 171.123060 14.214914 0.000000
774.984680 171.168240 14.217865 0.000000
774.682190 171.215090 14.220925 0.000000
774.231750 171.289280 14.225742 0.000000
773.784240 171.370030 14.230803 0.000000
777.904540 170.974750 14.195426 0.000000
777.594420 171.062640 14.197718 0.000000
776.299740 170.779080 14.204829 0.000000
775.855900 170.895860 14.208870 0.000000
775.561100 170.973210 14.211706 0.000000
793.797550 168.031300 13.601547 0.000000
793.139280 168.191650 13.609057 0.000000
795.219240 167.708010 13.584991 0.000000
794.489620 167.870130 13.593543 0.000000
771.294190 167.236310 13.950235 0.000000
770.964360 167.370510 13.953209 0.000000
772.252930 166.846010 13.941593 0.000000
771.831730 167.018510 13.945374 0.000000
771.510860 167.148330 13.948278 0.000000
782.998050 166.360550 14.170413 0.000000
773.382140 166.389050 13.931376 0.000000
773.077580 166.512040 13.934135 0.000000
772.667850 166.677310 13.937852 0.000000
783.340520 165.847580 14.170872 0.000000
782.958500 165.913500 14.170333 0.000000
774.950740 165.943540 13.914410 0.000000
774.516360 166.026700 13.919697 0.000000
774.089360 166.115780 13.924786 0.000000
773.684390 166.266200 13.928649 0.000000
777.368770 165.487110 13.884880 0.000000
777.006470 165.557450 13.889277 0.000000
776.532410 165.647140 13.895061 0.000000
776.182800 165.710740 13.899367 0.000000
775.840940 165.775910 13.903532 0.000000
775.392090 165.860760 13.909011 0.000000
779.754640 165.045650 13.855615 0.000000
779.326900 165.121480 13.860910 0.000000
778.917300 165.203280 13.865847 0.000000
778.512080 165.272250 13.870905 0.000000
778.123290 165.348460 13.875612 0.000000
777.743410 165.420440 13.880246 0.000000
781.757870 164.650670 13.831397 0.000000
781.270940 164.751800 13.837210 0.000000
780.952510 164.812740 13.841086 0.000000
780.645020 164.875380 13.844772 0.000000
780.193360 164.961990 13.850270 0.000000
784.123410 164.168490 13.803034 0.000000
783.737790 164.256040 13.807527 0.000000
783.342770 164.325120 13.812429 0.000000
782.979490 164.406800 13.816674 0.000000
782.618900 164.480090 13.821002 0.000000
782.262570 164.546280 13.825369 0.000000
785.338990 163.876070 13.789111 0.000000
784.510190 164.070570 13.798675 0.000000
788.195620 173.719180 14.178581 0.000000
789.725710 173.274370 14.178685 0.000000
789.216430 173.435850 14.178484 0.000000
788.636290 173.511750 14.178363 0.000000
794.722720 172.891050 14.187128 0.000000
793.841980 172.884020 14.185076 0.000000
793.109680 172.965700 14.183444 0.000000
792.285460 172.946780 14.181919 0.000000
795.180480 172.560620 14.188861 0.000000
771.149780 172.903590 14.273499 0.000000
770.833010 173.086520 14.279244 0.000000
771.461060 172.724170 14.267978 0.000000
780.768860 170.712520 14.181765 0.000000
780.437740 170.823150 14.183252 0.000000
779.206910 170.693480 14.187498 0.000000
778.687260 170.750000 14.190180 0.000000
778.218200 170.890030 14.193252 0.000000
784.019230 170.325040 14.174818 0.000000
783.558470 170.349000 14.175231 0.000000
783.244320 170.538420 14.175985 0.000000
782.130740 170.265590 14.176997 0.000000
781.838380 170.452910 14.178117 0.000000
781.436650 170.482930 14.179132 0.000000
781.105960 170.605350 14.180401 0.000000
779.477050 170.511400 14.185570 0.000000
784.364070 170.157730 14.174361 0.000000
783.013240 166.374970 14.553543 0.000000
783.336670 165.844880 14.551491 0.000000
782.975520 165.929210 14.546290 0.000000
783.028500 166.389480 14.937976 0.000000
783.332820 165.842180 14.932286 0.000000
782.993710 165.946010 14.923706 0.000000
791.059330 184.200580 14.993673 0.000000
783.043820 166.404020 15.324083 0.000000
783.328980 165.839430 15.313622 0.000000
783.009700 165.960880 15.302748 0.000000
789.186040 186.006940 15.016790 0.000000
791.251830 185.619050 15.025764 0.000000
795.027470 185.066530 15.056108 0.000000
793.252440 184.999790 15.033640 0.000000
794.785640 183.708620 15.027204 0.000000
792.953740 183.533390 15.000910 0.000000
783.012880 166.375430 15.706631 0.000000
782.949400 165.907100 15.674766 0.000000
783.263310 165.783070 15.688614 0.000000
782.976620 166.341980 16.088041 0.000000
782.889530 165.853670 16.044754 0.000000
783.576290 165.651960 16.088177 0.000000
783.201480 165.730000 16.061844 0.000000
782.940490 166.308560 16.469131 0.000000
782.848880 165.817600 16.416451 0.000000
783.570310 165.647810 16.474670 0.000000
783.136170 165.673890 16.432688 0.000000
792.564150 161.674760 13.115934 0.000000
790.218630 161.373250 13.209745 0.000000
775.411620 161.537160 13.508585 0.000000
775.112790 161.582890 13.519737 0.000000
774.728210 161.640730 13.533728 0.000000
774.448670 161.681180 13.543674 0.000000
788.294310 161.130160 13.286463 0.000000
777.849910 161.134190 13.409534 0.000000
777.456480 161.203000 13.426349 0.000000
777.080930 161.266420 13.442138 0.000000
776.719910 161.326930 13.457058 0.000000
776.374940 161.383800 13.471017 0.000000
775.933960 161.454790 13.488504 0.000000
775.616760 161.505200 13.500783 0.000000
773.948550 161.162380 13.406988 0.000000
773.539790 161.223480 13.424918 0.000000
773.069270 161.289980 13.444548 0.000000
772.691650 161.340210 13.459470 0.000000
772.326600 161.385740 13.473085 0.000000
771.901430 161.435200 13.487996 0.000000
771.488590 161.479340 13.501415 0.000000
771.092710 161.539510 13.511516 0.000000
770.834840 161.586700 13.516746 0.000000
774.288940 161.109300 13.391405 0.000000
771.069460 161.076310 13.395684 0.000000
770.841800 166.659330 13.906283 0.000000
772.449710 166.027420 13.893044 0.000000
772.052980 166.182920 13.896319 0.000000
771.653500 166.340190 13.899603 0.000000
773.533570 165.600910 13.884130 0.000000
773.238280 165.717160 13.886558 0.000000
772.844360 165.871870 13.889804 0.000000
775.122070 165.177950 13.867161 0.000000
774.785280 165.244320 13.871208 0.000000
774.451840 165.303910 13.875335 0.000000
773.730830 165.523760 13.882500 0.000000
777.442200 164.740860 13.838880 0.000000
776.667970 164.884020 13.848369 0.000000
776.421940 164.934050 13.851295 0.000000
776.057740 165.003360 13.855722 0.000000
779.595210 164.328550 13.812767 0.000000
779.134580 164.418460 13.818320 0.000000
778.839780 164.478760 13.821822 0.000000
778.406680 164.562090 13.827067 0.000000
777.986080 164.642640 13.832169 0.000000
781.428470 163.950880 13.791045 0.000000
780.391660 164.162950 13.803359 0.000000
780.064450 164.228940 13.807263 0.000000
771.000610 164.009450 13.740647 0.000000
784.297910 163.377760 13.756700 0.000000
783.403080 163.556490 13.767410 0.000000
782.979000 163.640080 13.772508 0.000000
782.575560 163.724520 13.777262 0.000000
771.971620 163.676590 13.732801 0.000000
771.569030 163.817580 13.736226 0.000000
771.244930 163.927700 13.738811 0.000000
784.757510 163.274720 13.751415 0.000000
773.173770 163.229340 13.721244 0.000000
772.773250 163.383160 13.725305 0.000000
772.372800 163.532260 13.729166 0.000000
774.213130 162.787700 13.710407 0.000000
773.972410 162.893620 13.713019 0.000000
773.573180 163.065670 13.717159 0.000000
775.565860 162.368480 13.686685 0.000000
775.191040 162.482640 13.693706 0.000000
774.733580 162.615720 13.702110 0.000000
774.375790 162.717990 13.708483 0.000000
778.647950 161.859570 13.606000 0.000000
778.344790 161.896580 13.614851 0.000000
777.910280 161.949330 13.627389 0.000000
777.494140 161.999280 13.639264 0.000000
777.098570 162.045880 13.650393 0.000000
776.718440 162.090450 13.660950 0.000000
776.363160 162.140300 13.670354 0.000000
775.951350 162.249770 13.679227 0.000000
772.230900 161.993740 13.611751 0.000000
771.868350 162.063050 13.619624 0.000000
771.510800 162.128830 13.626911 0.000000
771.157960 162.191740 13.633500 0.000000
781.977600 161.437550 13.504827 0.000000
781.540410 161.494000 13.518467 0.000000
781.123110 161.547580 13.531401 0.000000
780.724910 161.598910 13.543644 0.000000
780.343020 161.647480 13.555316 0.000000
779.976750 161.693710 13.566432 0.000000
779.625430 161.738130 13.577005 0.000000
779.125120 161.801040 13.591903 0.000000
774.264650 161.703950 13.550264 0.000000
773.906980 161.745710 13.562819 0.000000
773.475220 161.794280 13.577491 0.000000
773.142820 161.830370 13.588326 0.000000
772.750310 161.889480 13.599529 0.000000
772.451480 161.950290 13.606703 0.000000
783.790830 161.101290 13.450193 0.000000
783.321410 161.199400 13.464177 0.000000
782.873290 161.292950 13.477426 0.000000
782.434390 161.376970 13.490519 0.000000
771.326050 171.294330 14.180768 0.000000
770.905580 171.521580 14.186681 0.000000
771.995120 170.843280 14.171675 0.000000
772.802550 170.469970 14.161995 0.000000
772.535220 170.592480 14.165088 0.000000
772.266240 170.717450 14.168312 0.000000
776.024600 169.921950 14.133934 0.000000
775.734130 170.002460 14.135937 0.000000
775.443120 170.077730 14.138054 0.000000
773.737790 170.084180 14.152128 0.000000
773.334660 170.235350 14.156184 0.000000
773.069210 170.352010 14.159027 0.000000
778.879640 169.658580 14.119418 0.000000
778.425350 169.833330 14.121047 0.000000
777.514710 169.524960 14.125401 0.000000
777.254090 169.681670 14.126664 0.000000
776.922850 169.706800 14.128446 0.000000
776.438780 169.749530 14.131275 0.000000
774.677610 169.739620 14.143590 0.000000
774.399480 169.811460 14.145938 0.000000
774.122190 169.882800 14.148388 0.000000
794.951480 167.166610 13.514809 0.000000
794.149230 167.328840 13.524373 0.000000
795.749690 166.977430 13.505831 0.000000
771.250060 166.498200 13.902936 0.000000
782.976320 165.913070 14.126712 0.000000
774.026980 165.406690 13.880075 0.000000
777.709660 164.690370 13.835623 0.000000
777.183230 164.794340 13.841947 0.000000
776.921510 164.837480 13.845256 0.000000
775.582400 165.090480 13.861565 0.000000
782.190730 163.809720 13.781708 0.000000
781.807680 163.884660 13.786324 0.000000
781.079770 164.029240 13.795052 0.000000
780.733700 164.099490 13.799172 0.000000
783.850280 163.473890 13.761928 0.000000
785.236330 163.167910 13.745901 0.000000
792.734920 172.451420 14.101551 0.000000
789.959170 172.810180 14.096331 0.000000
789.185550 172.772690 14.096103 0.000000
795.024290 172.102140 14.108361 0.000000
794.068600 172.107770 14.106249 0.000000
793.192440 172.137360 14.104341 0.000000
783.279360 169.421660 14.110735 0.000000
782.904360 169.552950 14.110568 0.000000
781.228270 169.505420 14.113094 0.000000
779.773380 169.533480 14.116573 0.000000
779.391050 169.555600 14.117737 0.000000
784.699040 169.253050 14.111074 0.000000
784.050540 169.154940 14.111487 0.000000
783.677060 169.304760 14.110972 0.000000
782.138610 169.243090 14.112395 0.000000
781.808590 169.393630 14.112389 0.000000
780.054570 169.365480 14.116080 0.000000
782.990840 166.340360 14.124390 0.000000
783.389710 165.831670 14.127704 0.000000
782.972960 165.912960 14.524702 0.000000
775.453740 181.013430 14.751083 0.000000
778.925720 179.440430 14.708249 0.000000
783.006960 166.356290 14.529029 0.000000
783.395750 165.839220 14.531889 0.000000
782.987430 165.927280 14.923852 0.000000
774.380070 185.872670 14.871836 0.000000
777.600590 185.009350 14.832647 0.000000
774.665470 184.435820 14.835735 0.000000
781.330630 183.882660 14.803619 0.000000
777.869750 183.997570 14.808975 0.000000
784.057310 183.073900 14.795648 0.000000
781.440190 182.760530 14.780604 0.000000
778.098820 182.962800 14.785318 0.000000
774.928960 183.122620 14.803110 0.000000
784.102600 181.991350 14.775312 0.000000
778.330930 182.034040 14.764404 0.000000
785.835690 181.653140 14.780191 0.000000
781.582760 181.789610 14.761169 0.000000
775.173710 181.917500 14.773523 0.000000
784.188110 181.042570 14.758130 0.000000
778.528020 181.091080 14.743620 0.000000
785.870850 180.681270 14.763506 0.000000
781.690190 180.811780 14.741903 0.000000
787.551450 180.207820 14.770670 0.000000
794.198670 179.802230 14.849060 0.000000
792.521610 179.841370 14.825164 0.000000
790.861450 179.781480 14.802109 0.000000
784.243230 180.095790 14.741209 0.000000
781.797550 179.897610 14.724290 0.000000
778.730350 180.240910 14.725218 0.000000
789.154660 179.538280 14.777746 0.000000
785.882750 179.724530 14.747311 0.000000
787.533510 179.262220 14.755626 0.000000
795.587950 178.526790 14.857492 0.000000
793.864870 178.611480 14.830582 0.000000
792.278020 178.718340 14.807893 0.000000
790.663940 178.688130 14.784953 0.000000
789.076780 178.570340 14.762964 0.000000
785.903810 178.828630 14.732624 0.000000
787.494200 178.332660 14.741017 0.000000
783.023070 166.372250 14.934996 0.000000
783.388980 165.836760 14.936158 0.000000
783.005310 165.944340 15.324881 0.000000
795.751590 179.537170 14.870392 0.000000
783.039310 166.388310 15.342688 0.000000
783.381590 165.833800 15.340810 0.000000
782.936340 165.891220 15.718604 0.000000
783.004210 166.361390 15.746807 0.000000
782.881650 165.849620 16.111961 0.000000
783.298220 165.771620 15.738045 0.000000
782.966370 166.332150 16.150126 0.000000
783.639400 165.630340 16.165001 0.000000
783.191650 165.692700 16.330841 0.000000
782.834590 165.814190 16.505404 0.000000
782.928530 166.302960 16.553230 0.000000
783.626460 165.623660 16.574429 0.000000
789.391050 161.574040 13.304073 0.000000
775.270570 161.534060 13.507942 0.000000
774.922670 161.585490 13.520592 0.000000
774.477660 161.649350 13.536419 0.000000
774.047970 161.702270 13.551605 0.000000
773.636350 161.749220 13.565834 0.000000
773.242430 161.792470 13.579033 0.000000
772.957150 161.822750 13.588341 0.000000
787.199340 161.250230 13.382673 0.000000
778.039430 161.092410 13.399111 0.000000
777.718810 161.145740 13.412350 0.000000
777.409970 161.196820 13.424961 0.000000
776.967470 161.268890 13.442762 0.000000
776.544490 161.336960 13.459507 0.000000
776.143250 161.400270 13.475075 0.000000
775.757810 161.460010 13.489787 0.000000
775.510860 161.497820 13.499050 0.000000
773.342650 161.165130 13.411329 0.000000
772.981260 161.219020 13.427198 0.000000
772.549130 161.280650 13.445370 0.000000
772.133910 161.336520 13.462090 0.000000
771.736210 161.386980 13.477234 0.000000
771.277650 161.442750 13.493594 0.000000
770.918950 161.505550 13.503900 0.000000
773.719240 161.106920 13.394203 0.000000
795.277400 168.017560 13.622114 0.000000
794.384640 168.170990 13.629433 0.000000
770.970700 166.857570 13.920383 0.000000
770.757390 166.930740 13.921454 0.000000
771.609500 166.640660 13.917132 0.000000
774.981510 165.677000 13.896611 0.000000
779.600590 165.046510 13.855712 0.000000
771.274840 164.024600 13.744368 0.000000
771.017520 164.107160 13.746122 0.000000
772.485410 163.615310 13.734815 0.000000
772.223820 163.706120 13.737064 0.000000
771.791080 163.853740 13.740543 0.000000
771.446410 163.968170 13.743156 0.000000
773.364990 163.286500 13.726927 0.000000
772.924440 163.457260 13.730875 0.000000
772.660580 163.553300 13.733258 0.000000
774.869380 162.741840 13.708996 0.000000
774.555540 162.823460 13.714233 0.000000
774.168090 162.953810 13.719427 0.000000
773.808470 163.105070 13.722888 0.000000
776.086790 162.405810 13.687803 0.000000
775.741880 162.502230 13.694003 0.000000
775.408690 162.595490 13.699802 0.000000
775.082700 162.685030 13.705382 0.000000
779.291320 161.874860 13.612207 0.000000
778.907470 161.917820 13.622355 0.000000
778.539370 161.958740 13.632005 0.000000
778.185550 161.997620 13.641207 0.000000
777.845210 162.034680 13.649982 0.000000
777.364870 162.091290 13.662066 0.000000
776.933040 162.166180 13.672009 0.000000
776.681580 162.234710 13.676893 0.000000
772.031560 162.004610 13.611769 0.000000
771.711730 162.066970 13.619020 0.000000
771.321530 162.140760 13.627330 0.000000
770.940430 162.212520 13.634800 0.000000
783.096980 161.428160 13.508131 0.000000
782.544370 161.502120 13.523373 0.000000
782.006230 161.564870 13.538362 0.000000
781.496830 161.624330 13.552444 0.000000
781.012210 161.680020 13.565762 0.000000
780.551640 161.732940 13.578319 0.000000
780.112000 161.782670 13.590233 0.000000
779.692990 161.830260 13.601484 0.000000
772.778870 161.851410 13.593478 0.000000
772.525150 161.904390 13.599895 0.000000
772.275820 161.955630 13.606008 0.000000
784.186520 161.220060 13.479441 0.000000
783.628780 161.327380 13.494164 0.000000
771.398250 171.668580 14.211486 0.000000
771.107670 171.782730 14.213726 0.000000
770.815370 171.896930 14.216097 0.000000
772.554320 171.239560 14.203804 0.000000
772.265810 171.343410 14.205538 0.000000
771.977170 171.449520 14.207394 0.000000
771.687740 171.556750 14.209375 0.000000
775.396730 170.806850 14.193542 0.000000
775.115300 170.954090 14.194263 0.000000
774.796020 171.017850 14.195082 0.000000
774.476010 171.073460 14.196012 0.000000
773.365780 170.786210 14.199237 0.000000
773.090030 170.916060 14.200622 0.000000
772.843570 171.139250 14.202190 0.000000
773.640750 170.657060 14.197972 0.000000
793.592960 168.349320 13.635140 0.000000
772.141970 166.459560 13.914429 0.000000
771.822390 166.568360 13.916051 0.000000
771.396790 166.713040 13.918214 0.000000
771.183960 166.785630 13.919291 0.000000
773.432620 166.019520 13.907896 0.000000
772.999080 166.167080 13.910095 0.000000
772.569400 166.314000 13.912263 0.000000
776.065980 165.530810 13.886976 0.000000
775.785520 165.566390 13.889509 0.000000
775.380370 165.624890 13.893038 0.000000
774.593080 165.726000 13.900126 0.000000
774.215270 165.777450 13.903474 0.000000
773.871280 165.871150 13.905652 0.000000
779.242610 165.103880 13.858725 0.000000
778.889950 165.155230 13.861788 0.000000
778.543210 165.201520 13.864877 0.000000
778.210390 165.250890 13.867750 0.000000
777.881410 165.294240 13.870692 0.000000
777.407840 165.360630 13.874853 0.000000
776.942080 165.416760 13.879114 0.000000
776.644100 165.456240 13.881776 0.000000
776.356570 165.499630 13.884245 0.000000
782.505190 164.628360 13.830397 0.000000
782.055790 164.702090 13.834146 0.000000
781.609560 164.764040 13.838078 0.000000
781.169070 164.816120 13.842127 0.000000
780.766480 164.883540 13.845460 0.000000
780.367860 164.941770 13.848919 0.000000
779.974980 164.992340 13.852455 0.000000
785.037540 164.214750 13.809234 0.000000
784.499570 164.310910 13.813575 0.000000
783.990300 164.407260 13.817588 0.000000
783.478450 164.486100 13.821952 0.000000
782.978450 164.556270 13.826344 0.000000
791.133480 173.639600 14.230640 0.000000
789.801450 173.893400 14.222361 0.000000
788.952820 173.826580 14.218413 0.000000
788.274050 173.885470 14.214983 0.000000
795.410830 173.313450 14.258927 0.000000
790.254090 173.597750 14.226027 0.000000
783.386840 170.982150 14.203931 0.000000
782.946960 171.098740 14.202003 0.000000
784.296690 170.745300 14.208372 0.000000
783.855830 170.883640 14.206069 0.000000
782.043760 170.691020 14.199963 0.000000
781.660340 170.831360 14.198464 0.000000
781.161620 170.826690 14.197073 0.000000
780.814940 170.991380 14.195915 0.000000
779.474430 170.741580 14.193580 0.000000
778.708860 170.875930 14.192468 0.000000
778.160710 170.990550 14.191984 0.000000
777.799930 171.062700 14.191841 0.000000
776.480220 170.797410 14.192148 0.000000
775.930110 170.798540 14.192730 0.000000
776.770450 170.648270 14.191905 0.000000
783.260560 166.830460 14.219637 0.000000
782.989070 166.187640 14.221421 0.000000
783.142640 165.878780 14.224095 0.000000
783.560910 165.757220 14.227488 0.000000
783.330200 166.888960 14.660434 0.000000
783.006160 166.204730 14.647433 0.000000
783.133610 165.876630 14.648042 0.000000
783.023250 166.221850 15.074931 0.000000
783.124630 165.874470 15.072055 0.000000
783.007020 166.213900 15.501527 0.000000
783.086000 165.850810 15.494076 0.000000
