# .PCD v0.7 - Point Cloud Data file format
VERSION 0.7
FIELDS x y z intensity
SIZE 4 4 4 4
TYPE F F F F
COUNT 1 1 1 1
WIDTH 1195
HEIGHT 1
VIEWPOINT 0 0 0 1 0 0 0
POINTS 1195
DATA ascii
34.453808 298.777100 11.420409 0.000000
37.267460 298.896060 11.410968 0.000000
41.242725 299.005130 11.409750 0.000000
30.393290 299.367430 11.422220 0.000000
30.489279 299.216770 11.422184 0.000000
32.155861 299.236630 11.421382 0.000000
34.280128 299.216610 11.420415 0.000000
41.226933 299.365390 11.403522 0.000000
30.294857 299.516630 11.422216 0.000000
32.248993 299.894410 11.359165 0.000000
34.221100 299.716740 11.400707 0.000000
37.003056 299.550570 11.416698 0.000000
41.533867 299.833710 11.365428 0.000000
30.305820 300.215240 11.348129 0.000000
30.421366 300.069180 11.346981 0.000000
32.143898 300.203800 11.348700 0.000000
34.458374 300.113800 11.348850 0.000000
37.549049 300.088810 11.337524 0.000000
41.561638 300.222110 11.353579 0.000000
29.944283 300.641300 11.351575 0.000000
30.127489 300.430330 11.349855 0.000000
31.903284 300.553040 11.351513 0.000000
34.279037 300.436280 11.351321 0.000000
37.205124 300.578430 11.353990 0.000000
37.329948 300.313720 11.351854 0.000000
41.433594 300.559540 11.356279 0.000000
29.558556 301.045560 11.355670 0.000000
29.755478 300.847320 11.353193 0.000000
31.586885 300.978330 11.354912 0.000000
31.715790 300.810000 11.353548 0.000000
33.961433 300.962740 11.355732 0.000000
34.091667 300.754150 11.353914 0.000000
37.076004 300.840940 11.356112 0.000000
41.475571 300.961980 11.341711 0.000000
28.588863 301.476320 11.421911 0.000000
28.996231 301.392400 11.383707 0.000000
29.429958 301.180540 11.355865 0.000000
30.570377 301.478120 11.432012 0.000000
30.942478 301.397580 11.395312 0.000000
31.455067 301.144470 11.356280 0.000000
32.973892 301.459990 11.434773 0.000000
33.289635 301.392490 11.403923 0.000000
33.828995 301.169950 11.357338 0.000000
35.827927 301.470310 11.454354 0.000000
36.231186 301.375520 11.418234 0.000000
36.649025 301.276340 11.380301 0.000000
37.033203 301.147400 11.346701 0.000000
39.689499 301.361390 11.485006 0.000000
40.248024 301.231540 11.440873 0.000000
40.849464 301.101500 11.392499 0.000000
27.406445 301.803890 11.507053 0.000000
27.814388 301.632200 11.488585 0.000000
28.193884 301.554080 11.457241 0.000000
29.530548 301.846980 11.511446 0.000000
29.703428 301.744960 11.503626 0.000000
30.210434 301.552890 11.466478 0.000000
31.974087 301.854640 11.514074 0.000000
32.269344 301.654170 11.498077 0.000000
32.666847 301.524690 11.464310 0.000000
35.060287 301.805730 11.512996 0.000000
39.058601 301.805050 11.524056 0.000000
45.679806 301.635960 11.502339 0.000000
26.285219 302.257930 11.543458 0.000000
26.607044 302.138430 11.533891 0.000000
27.007763 301.978330 11.521077 0.000000
29.009716 302.137240 11.533602 0.000000
29.357323 301.946500 11.519059 0.000000
31.485485 302.175750 11.538641 0.000000
31.778900 301.985600 11.524080 0.000000
34.598400 302.143340 11.538802 0.000000
38.634857 302.143400 11.547565 0.000000
45.329376 301.973360 11.519941 0.000000
24.986900 302.649170 11.574486 0.000000
25.394369 302.541260 11.565985 0.000000
25.800228 302.419770 11.556334 0.000000
26.123840 302.314150 11.547948 0.000000
27.950073 302.639400 11.575441 0.000000
28.216217 302.522740 11.565501 0.000000
28.570320 302.358950 11.551621 0.000000
30.799351 302.594420 11.570651 0.000000
31.092167 302.417720 11.557547 0.000000
34.137573 302.465300 11.563382 0.000000
37.933479 302.683010 11.584924 0.000000
38.213417 302.471370 11.570265 0.000000
44.994946 302.308840 11.536001 0.000000
21.344727 303.089570 11.599757 0.000000
21.765020 303.052640 11.607039 0.000000
22.181614 303.050630 11.605050 0.000000
22.597546 303.028290 11.603593 0.000000
23.012363 302.992650 11.601022 0.000000
23.426104 302.945250 11.597509 0.000000
23.838621 302.884700 11.592863 0.000000
24.249975 302.812440 11.587260 0.000000
24.578047 302.745000 11.582034 0.000000
26.973513 303.025050 11.607202 0.000000
27.417517 302.856900 11.593596 0.000000
27.773100 302.715090 11.581605 0.000000
30.013802 303.030520 11.603559 0.000000
30.308144 302.871310 11.591713 0.000000
30.602951 302.707430 11.579263 0.000000
33.446930 302.918790 11.598252 0.000000
33.792511 302.697170 11.581091 0.000000
21.062735 303.389280 11.545727 0.000000
25.455982 303.492800 11.644335 0.000000
25.814201 303.396330 11.636728 0.000000
26.261066 303.264920 11.626307 0.000000
26.617683 303.149480 11.617121 0.000000
29.322395 303.372830 11.629914 0.000000
29.717188 303.180510 11.615260 0.000000
32.989265 303.204250 11.619877 0.000000
23.381779 303.876400 11.674087 0.000000
23.834665 303.816310 11.669542 0.000000
24.286470 303.743740 11.664014 0.000000
24.647095 303.675960 11.658756 0.000000
25.007032 303.599790 11.652780 0.000000
25.276566 303.537350 11.647846 0.000000
28.926960 303.554320 11.643758 0.000000
21.371370 304.031920 11.673729 0.000000
21.742050 303.971680 11.683000 0.000000
22.198746 303.969730 11.680714 0.000000
22.654713 303.944550 11.679054 0.000000
23.018614 303.914670 11.676915 0.000000
20.873466 304.375030 11.619101 0.000000
29.746014 286.278410 11.790040 0.000000
21.763346 286.557530 12.007157 0.000000
22.005768 286.499910 11.996107 0.000000
24.102419 286.642760 11.954212 0.000000
26.730015 286.494570 11.902010 0.000000
29.354176 286.400480 11.841336 0.000000
29.824434 286.456480 11.798453 0.000000
25.003492 287.072200 11.964272 0.000000
29.879253 286.890140 11.831753 0.000000
25.202940 287.226140 11.972645 0.000000
30.791416 287.113070 11.750467 0.000000
30.842369 287.308870 11.760392 0.000000
32.155537 287.153110 11.861502 0.000000
25.865713 287.556820 11.961983 0.000000
27.416563 287.697050 11.981714 0.000000
29.287033 287.809140 11.975503 0.000000
30.598976 287.700530 11.818939 0.000000
33.211548 287.785310 11.790827 0.000000
27.818613 288.173400 11.988709 0.000000
28.070395 288.227170 11.964030 0.000000
29.006958 288.029910 11.826808 0.000000
29.217354 288.063390 11.600678 0.000000
30.522503 288.175110 11.639839 0.000000
30.925169 287.923160 11.797732 0.000000
29.823286 288.420870 11.859495 0.000000
36.900402 288.652980 11.779041 0.000000
27.625338 288.949070 11.931158 0.000000
29.824890 288.799560 11.788204 0.000000
32.227276 288.838780 11.699020 0.000000
32.580650 289.006870 11.918367 0.000000
34.527031 288.937040 11.705132 0.000000
36.617760 289.025420 11.815488 0.000000
45.399067 288.939790 11.537201 0.000000
27.562767 289.310640 11.980690 0.000000
29.694590 289.409820 11.855013 0.000000
36.995182 289.194400 11.786365 0.000000
38.680332 289.334200 11.637441 0.000000
27.607433 289.577580 12.002921 0.000000
29.391975 289.734920 11.736531 0.000000
29.641098 289.690610 11.883457 0.000000
29.594318 289.959530 11.909271 0.000000
42.894203 297.547210 11.750699 0.000000
44.201656 302.451930 11.586246 0.000000
37.377121 303.091800 11.613074 0.000000
37.654381 302.889590 11.599226 0.000000
43.577404 303.088230 11.613679 0.000000
43.901031 302.778050 11.599261 0.000000
32.645851 303.408910 11.635534 0.000000
36.960228 303.383880 11.633446 0.000000
42.906467 303.230070 11.654402 0.000000
28.227528 303.836790 11.667642 0.000000
28.527592 303.719910 11.657628 0.000000
31.961382 303.795140 11.664909 0.000000
32.185921 303.666290 11.655910 0.000000
32.417713 303.541230 11.645546 0.000000
36.272831 303.851380 11.665462 0.000000
36.547253 303.668060 11.652905 0.000000
42.317734 303.833010 11.677489 0.000000
42.698265 303.576080 11.659458 0.000000
27.026947 304.244780 11.703230 0.000000
27.327106 304.150970 11.694961 0.000000
27.727196 304.017360 11.683324 0.000000
28.027493 303.911250 11.674047 0.000000
31.050751 304.263460 11.700760 0.000000
31.392208 304.093780 11.687684 0.000000
31.733284 303.916870 11.674258 0.000000
35.860027 304.115450 11.683971 0.000000
41.773605 303.994170 11.708113 0.000000
25.326710 304.674040 11.741593 0.000000
25.726631 304.587590 11.733870 0.000000
26.126768 304.492740 11.725278 0.000000
26.526848 304.388370 11.715947 0.000000
26.826935 304.304230 11.708460 0.000000
30.258083 304.634250 11.728716 0.000000
30.597910 304.480530 11.717030 0.000000
30.823874 304.373020 11.709078 0.000000
33.175568 304.652680 11.848120 0.000000
35.018917 304.598050 11.721435 0.000000
35.439331 304.363190 11.702959 0.000000
41.197262 304.563200 11.728601 0.000000
41.567436 304.326390 11.712040 0.000000
21.613552 305.069430 11.775866 0.000000
21.815262 305.085750 11.773245 0.000000
22.118437 305.080510 11.772189 0.000000
22.522032 305.060730 11.770868 0.000000
22.924780 305.032070 11.768842 0.000000
23.326740 304.994600 11.766103 0.000000
23.727978 304.948240 11.762646 0.000000
24.128536 304.893010 11.758475 0.000000
24.528437 304.828830 11.753595 0.000000
24.927914 304.756230 11.747920 0.000000
29.353849 305.013520 11.757446 0.000000
29.805538 304.829410 11.743549 0.000000
34.323685 304.970180 11.750749 0.000000
34.600960 304.824680 11.739260 0.000000
40.594372 304.873440 11.756870 0.000000
21.186447 305.387390 11.734871 0.000000
24.769926 305.417330 11.942374 0.000000
24.977251 305.366610 11.941035 0.000000
28.219429 305.411380 11.790174 0.000000
28.674721 305.264250 11.777246 0.000000
29.015200 305.144230 11.767372 0.000000
33.498814 305.383760 11.783354 0.000000
34.047970 305.112180 11.761876 0.000000
39.856178 305.297060 11.788746 0.000000
20.963615 305.548830 11.713327 0.000000
26.633492 305.843020 11.828866 0.000000
27.086052 305.733730 11.818693 0.000000
27.425314 305.643860 11.810742 0.000000
27.765499 305.548400 11.802176 0.000000
32.411846 305.881900 11.822991 0.000000
32.682213 305.762790 11.813487 0.000000
32.952827 305.639370 11.803804 0.000000
33.224831 305.512880 11.793783 0.000000
39.033806 305.853120 11.819285 0.000000
39.507706 305.736720 11.795147 0.000000
24.156403 306.274290 11.870161 0.000000
24.606182 306.217990 11.864313 0.000000
25.731459 306.034330 11.846515 0.000000
26.182373 305.944120 11.838023 0.000000
31.605844 306.218410 11.849947 0.000000
31.873886 306.109890 11.841189 0.000000
32.142151 305.997280 11.832260 0.000000
38.334625 306.238370 11.846298 0.000000
21.338295 306.493320 11.881629 0.000000
21.793142 306.446620 11.885548 0.000000
22.131943 306.441500 11.884142 0.000000
22.582935 306.418240 11.882572 0.000000
23.032917 306.385130 11.880332 0.000000
23.482073 306.343230 11.877307 0.000000
23.819109 306.310520 11.874092 0.000000
30.674747 306.573120 11.878490 0.000000
31.072586 306.426120 11.866646 0.000000
31.338943 306.324040 11.858402 0.000000
37.817295 306.513550 11.865518 0.000000
20.959379 306.968570 11.830935 0.000000
29.362949 307.021450 11.913559 0.000000
29.884321 306.848330 11.900499 0.000000
30.278709 306.714510 11.889791 0.000000
36.963951 306.947850 11.896080 0.000000
37.302788 306.777340 11.884193 0.000000
27.798445 307.447720 11.949866 0.000000
28.188957 307.353550 11.941296 0.000000
28.580788 307.252380 11.932197 0.000000
28.973255 307.144440 11.922765 0.000000
36.628181 307.114620 11.907549 0.000000
26.246931 307.766720 11.979438 0.000000
26.633358 307.696010 11.972776 0.000000
27.020708 307.618770 11.965609 0.000000
27.409122 307.536930 11.957969 0.000000
34.948326 307.850800 11.963139 0.000000
35.285191 307.717590 11.952146 0.000000
35.624176 307.579930 11.940854 0.000000
21.765257 308.160400 12.027020 0.000000
22.149027 308.162600 12.024608 0.000000
22.660486 308.146580 12.021680 0.000000
23.043900 308.128780 12.018992 0.000000
23.427242 308.105040 12.015831 0.000000
23.810654 308.076600 12.012276 0.000000
24.194159 308.041630 12.008286 0.000000
24.577972 308.002380 12.003860 0.000000
24.962257 307.957310 11.998925 0.000000
33.948994 308.223510 11.994484 0.000000
34.279419 308.102630 11.984391 0.000000
34.612469 307.978420 11.973947 0.000000
45.444969 308.122530 11.961496 0.000000
21.239521 308.417480 12.007043 0.000000
32.968079 308.561070 12.023213 0.000000
33.619926 308.339630 12.004358 0.000000
20.953466 308.773070 11.977471 0.000000
32.324520 308.769290 12.040865 0.000000
32.706947 308.754760 12.025091 0.000000
24.832047 286.141330 12.349471 0.000000
26.089485 286.427150 12.131028 0.000000
20.757698 287.067380 12.377373 0.000000
25.246922 287.210020 12.203986 0.000000
25.928694 287.461400 12.263033 0.000000
30.814768 287.096470 12.227715 0.000000
33.072311 287.360440 12.338425 0.000000
20.979353 287.669920 12.196880 0.000000
25.518383 287.882200 12.342800 0.000000
25.901150 287.503020 12.110620 0.000000
26.512863 287.733150 12.407060 0.000000
29.284891 287.811040 12.180498 0.000000
31.487478 287.571290 12.199828 0.000000
25.948387 288.269470 12.058837 0.000000
28.775719 288.016300 12.049024 0.000000
31.410690 288.283110 12.003304 0.000000
42.995987 288.253810 12.166807 0.000000
25.089832 288.371150 12.231163 0.000000
26.030079 288.351780 12.353501 0.000000
29.787865 288.444030 12.277484 0.000000
30.093794 288.637730 12.156899 0.000000
30.777784 288.432340 12.299276 0.000000
21.929596 288.892820 12.427189 0.000000
25.139452 288.943970 12.307576 0.000000
28.148941 288.699650 12.002273 0.000000
29.854799 288.966130 12.100004 0.000000
34.557899 288.925380 11.995730 0.000000
35.643936 289.061490 12.218515 0.000000
38.930088 288.955840 11.989811 0.000000
24.090717 289.233520 12.391196 0.000000
24.972914 289.343050 12.323149 0.000000
25.251326 289.422820 12.303469 0.000000
27.677330 289.226230 12.272212 0.000000
28.036480 289.276730 12.071897 0.000000
28.715033 289.467500 12.171205 0.000000
29.761093 289.374270 12.137531 0.000000
30.118397 289.183870 12.388336 0.000000
34.685326 289.127780 12.137904 0.000000
38.776157 289.309450 12.007591 0.000000
27.864750 289.547760 12.119371 0.000000
29.592365 289.632450 12.075949 0.000000
29.851564 289.713320 12.145945 0.000000
34.948395 289.536320 12.277258 0.000000
38.684246 289.640320 12.020263 0.000000
38.978065 289.883090 12.004016 0.000000
25.218327 289.936070 12.378527 0.000000
29.603867 290.114900 12.287820 0.000000
42.892670 297.544710 12.216403 0.000000
33.436943 304.519010 12.186316 0.000000
24.779861 305.452420 12.208630 0.000000
25.104290 305.419100 12.338188 0.000000
24.793261 305.502410 12.474512 0.000000
40.638439 305.578640 12.217972 0.000000
40.603069 306.022000 12.210382 0.000000
43.727745 308.685360 12.022834 0.000000
31.371803 309.055940 12.065359 0.000000
31.815994 308.868900 12.057063 0.000000
43.310890 308.954160 12.034311 0.000000
29.812878 309.468870 12.101252 0.000000
30.251198 309.303770 12.094699 0.000000
30.743839 309.229860 12.080484 0.000000
31.057350 309.144960 12.073011 0.000000
42.323982 309.348790 12.065719 0.000000
43.003609 309.297700 12.039259 0.000000
27.817329 309.859410 12.141682 0.000000
28.313240 309.884030 12.126053 0.000000
28.583166 309.734440 12.126523 0.000000
29.044931 309.646060 12.117010 0.000000
41.932449 309.610380 12.075286 0.000000
24.233467 310.285000 12.192727 0.000000
24.971664 310.219180 12.184976 0.000000
25.415541 310.171200 12.179743 0.000000
26.757212 310.007570 12.160601 0.000000
27.058231 309.966950 12.155584 0.000000
27.361176 309.926730 12.150155 0.000000
39.980717 310.234380 12.135748 0.000000
40.313251 309.957120 12.130221 0.000000
40.894760 309.893310 12.109322 0.000000
21.729012 310.389160 12.210775 0.000000
22.171143 310.391200 12.208062 0.000000
22.613108 310.378360 12.205597 0.000000
23.054840 310.359340 12.202674 0.000000
23.496590 310.335910 12.199347 0.000000
23.791241 310.317630 12.196842 0.000000
24.693213 310.354920 12.181382 0.000000
21.107363 310.992490 12.175748 0.000000
37.715679 310.917420 12.199932 0.000000
38.230278 310.868960 12.183039 0.000000
27.344168 286.668520 12.631524 0.000000
36.021141 286.350860 12.459607 0.000000
20.854319 286.940980 12.802773 0.000000
21.498829 287.000370 12.808338 0.000000
22.576578 287.034480 12.804002 0.000000
25.349756 286.943730 12.730281 0.000000
32.567062 286.895690 12.625389 0.000000
33.433361 286.896580 12.587792 0.000000
22.721226 287.259830 12.749008 0.000000
22.899796 287.370510 12.755510 0.000000
23.441656 287.302550 12.808316 0.000000
23.930674 287.219390 12.791533 0.000000
25.396837 287.197140 12.588129 0.000000
25.956463 287.419430 12.416655 0.000000
27.424061 287.377080 12.665964 0.000000
30.306507 287.466520 12.512325 0.000000
31.998379 287.251590 12.401523 0.000000
35.466026 287.215970 12.504404 0.000000
21.192724 287.684170 12.596662 0.000000
21.299505 287.705690 12.728617 0.000000
22.851006 287.515080 12.567529 0.000000
23.434464 287.653050 12.658252 0.000000
23.699150 287.612760 12.823365 0.000000
24.525410 287.574980 12.797850 0.000000
25.511349 287.894350 12.491123 0.000000
25.891140 287.689120 12.677307 0.000000
26.085800 287.784060 12.596949 0.000000
26.718956 287.682530 12.716464 0.000000
27.597553 287.504640 12.663953 0.000000
27.733053 287.570070 12.660377 0.000000
28.047512 287.665890 12.648706 0.000000
30.386257 287.629210 12.514375 0.000000
30.591322 287.761050 12.621138 0.000000
39.973236 287.650600 12.715084 0.000000
24.374285 288.189450 12.585718 0.000000
25.498693 287.915990 12.711246 0.000000
25.902824 288.141050 12.779431 0.000000
30.606848 287.911440 12.512432 0.000000
39.648094 288.095000 12.728311 0.000000
21.756132 288.651890 12.492681 0.000000
23.088322 288.646240 12.797144 0.000000
23.403498 288.644010 12.676989 0.000000
25.096506 288.361300 12.429907 0.000000
25.427015 288.618900 12.565583 0.000000
26.200108 288.415370 12.708483 0.000000
30.660347 288.296780 12.744818 0.000000
30.969383 288.527950 12.737160 0.000000
21.372850 288.965640 12.590458 0.000000
21.694954 289.002930 12.497681 0.000000
22.737854 288.917270 12.778718 0.000000
23.026583 288.917480 12.668226 0.000000
23.320950 288.864590 12.597914 0.000000
23.757507 288.858280 12.630557 0.000000
25.163549 288.995360 12.497108 0.000000
40.297401 288.927550 12.718602 0.000000
21.559206 289.206570 12.481793 0.000000
21.670523 289.179690 12.478086 0.000000
23.488480 289.444000 12.664202 0.000000
23.755875 289.285220 12.606891 0.000000
24.132753 289.330410 12.661045 0.000000
25.184059 289.131100 12.630044 0.000000
25.440855 289.262760 12.623311 0.000000
27.857347 289.402590 12.424396 0.000000
29.904766 289.296390 12.411037 0.000000
30.703863 289.254270 12.766304 0.000000
31.094528 289.258210 12.529263 0.000000
31.294306 289.360410 12.741737 0.000000
35.925472 289.236390 12.521847 0.000000
40.403423 289.240600 12.718434 0.000000
42.867485 289.431090 12.652602 0.000000
23.416718 289.534060 12.584270 0.000000
25.027431 289.769870 12.538706 0.000000
25.378607 289.667880 12.623686 0.000000
26.178192 289.810000 12.547164 0.000000
27.938801 289.497960 12.580444 0.000000
29.780773 289.705510 12.439320 0.000000
30.151114 289.524440 12.599223 0.000000
34.863266 289.805910 12.581809 0.000000
39.162727 289.685360 12.372206 0.000000
40.073807 289.647710 12.730816 0.000000
43.950977 289.615880 12.624253 0.000000
25.004004 290.160830 12.586575 0.000000
25.348883 290.159700 12.654004 0.000000
26.304941 289.989870 12.671655 0.000000
26.426598 290.170530 12.733916 0.000000
29.807123 290.105590 12.547576 0.000000
30.025150 289.926670 12.620068 0.000000
34.754837 290.076630 12.591157 0.000000
39.003113 290.185760 12.386271 0.000000
25.061623 290.448760 12.707077 0.000000
29.748665 290.408260 12.561860 0.000000
42.891113 297.542240 12.681028 0.000000
34.443527 303.915160 12.510413 0.000000
33.109215 304.579800 12.544205 0.000000
33.330479 304.413020 12.540487 0.000000
33.170380 305.036830 12.529373 0.000000
40.974834 305.328370 12.696690 0.000000
24.823009 305.623140 12.738900 0.000000
25.241150 305.505620 12.736521 0.000000
40.557053 305.522280 12.705310 0.000000
21.101828 286.087100 13.071852 0.000000
21.301321 286.104550 13.071568 0.000000
34.843376 286.081150 12.829025 0.000000
21.062490 286.517580 13.003988 0.000000
22.735205 286.612270 12.924558 0.000000
23.539608 286.310820 13.060659 0.000000
25.161858 286.421750 13.042665 0.000000
25.414982 286.519230 13.041092 0.000000
26.637283 286.371830 12.831723 0.000000
30.447224 286.414490 12.939630 0.000000
20.855009 286.936740 13.021214 0.000000
21.657097 286.735380 12.938058 0.000000
22.895056 286.785060 12.930883 0.000000
23.383198 287.046140 12.936548 0.000000
25.459187 286.732210 12.879415 0.000000
25.821430 286.901340 13.043200 0.000000
27.651796 287.006530 12.823405 0.000000
31.155529 287.090000 12.934516 0.000000
34.143585 287.039760 12.860158 0.000000
23.182573 287.477260 12.959485 0.000000
23.459877 287.471070 13.090361 0.000000
24.150248 287.289460 13.077556 0.000000
25.786524 287.336760 12.974572 0.000000
30.368711 287.195770 12.954858 0.000000
33.344887 287.208950 12.882630 0.000000
37.200287 287.351840 12.785302 0.000000
21.405188 287.728210 12.858466 0.000000
23.518301 287.567840 13.024956 0.000000
23.783083 287.614810 13.022578 0.000000
24.179733 287.544010 13.083311 0.000000
25.890865 287.746310 12.983541 0.000000
26.162174 287.784940 12.979900 0.000000
27.329384 287.590180 13.029441 0.000000
30.718567 287.730260 12.955167 0.000000
35.456108 287.503850 12.832639 0.000000
37.484921 287.548680 12.780096 0.000000
25.482462 287.943300 12.929247 0.000000
25.932673 288.099950 12.994969 0.000000
26.130440 288.226070 13.066362 0.000000
30.913105 288.037080 12.955118 0.000000
20.959909 288.539920 13.133782 0.000000
22.965427 288.605560 12.959570 0.000000
23.860159 288.686370 13.002533 0.000000
26.078848 288.384120 12.927946 0.000000
26.677498 288.665340 12.917377 0.000000
20.864161 289.052920 13.096361 0.000000
22.847143 288.767270 12.919012 0.000000
23.526220 288.977200 13.074773 0.000000
23.836340 288.873290 12.902511 0.000000
26.534199 288.895320 13.001342 0.000000
26.926355 289.071690 12.921862 0.000000
31.182056 289.020480 12.962225 0.000000
35.899101 288.707820 12.834936 0.000000
23.165886 289.478180 12.868622 0.000000
23.485779 289.268040 12.939988 0.000000
25.222933 289.237180 12.871729 0.000000
26.153881 289.208770 13.020560 0.000000
26.554770 289.185940 13.008457 0.000000
30.016171 289.415680 12.997247 0.000000
30.913355 289.342500 12.973308 0.000000
36.255348 289.405180 12.832462 0.000000
26.276613 289.657040 13.091343 0.000000
26.578793 289.799590 12.959825 0.000000
26.865465 289.566740 13.076451 0.000000
30.949553 289.699490 12.976819 0.000000
36.319595 289.655670 12.833085 0.000000
25.516056 290.110170 12.903324 0.000000
26.614807 290.070980 12.966481 0.000000
30.235798 290.086700 12.805676 0.000000
31.371252 290.086460 12.970210 0.000000
25.378229 290.519930 12.882108 0.000000
30.140354 290.454740 12.817346 0.000000
25.318344 290.724180 12.848664 0.000000
30.136887 290.775420 12.823339 0.000000
31.959965 301.256260 12.948652 0.000000
34.863518 303.887880 12.855300 0.000000
34.423302 304.269290 12.861320 0.000000
34.592937 304.037320 12.859942 0.000000
33.308514 304.388610 12.884627 0.000000
33.165253 305.028110 12.880121 0.000000
24.943048 305.653230 13.008824 0.000000
33.195892 306.341890 12.863047 0.000000
21.374533 286.169460 13.396255 0.000000
25.482616 286.222230 13.209006 0.000000
26.770327 286.170900 13.582305 0.000000
21.103050 286.586910 13.236577 0.000000
21.341946 286.497770 13.541859 0.000000
22.556946 286.615360 13.529342 0.000000
24.165897 286.460330 13.458385 0.000000
25.903173 286.478580 13.382439 0.000000
26.247784 286.448940 13.476098 0.000000
26.627007 286.655430 13.383684 0.000000
35.508385 286.612240 13.150265 0.000000
35.941467 286.391020 13.487935 0.000000
21.179384 286.698700 13.385998 0.000000
21.431650 286.849090 13.308305 0.000000
21.801977 286.861790 13.379412 0.000000
22.133116 286.769470 13.524867 0.000000
22.709097 286.894320 13.517889 0.000000
22.919092 287.065220 13.510944 0.000000
23.809536 287.024440 13.368460 0.000000
24.137741 286.956760 13.369740 0.000000
25.750423 286.888430 13.209779 0.000000
26.045231 287.044980 13.540594 0.000000
20.773438 287.113650 13.382360 0.000000
20.922251 287.298070 13.515065 0.000000
23.113585 287.256470 13.366531 0.000000
23.407003 287.341310 13.432790 0.000000
23.668993 287.321960 13.366528 0.000000
24.081894 287.494290 13.499071 0.000000
24.461971 287.436800 13.219465 0.000000
25.893761 287.285920 13.290359 0.000000
26.148161 287.481020 13.369772 0.000000
27.552423 287.122890 13.383995 0.000000
27.924999 287.372960 13.384116 0.000000
30.631672 287.457520 13.182533 0.000000
21.084242 287.708530 13.432012 0.000000
21.344765 287.815430 13.425348 0.000000
21.810034 287.601100 13.494152 0.000000
23.502586 287.526030 13.225538 0.000000
23.818604 287.595580 13.223891 0.000000
26.264111 287.573430 13.369330 0.000000
26.574062 287.659360 13.530852 0.000000
27.303143 287.823300 13.542285 0.000000
28.188534 287.531160 13.384721 0.000000
30.796085 287.568020 13.181942 0.000000
31.008438 287.651700 13.297355 0.000000
32.307278 287.785000 13.173653 0.000000
21.384087 287.952820 13.544164 0.000000
25.580919 288.003140 13.214776 0.000000
25.826353 287.950500 13.358150 0.000000
26.200695 288.074070 13.358433 0.000000
26.576780 288.247250 13.513191 0.000000
30.344025 288.082610 13.186491 0.000000
30.592991 288.133240 13.405890 0.000000
25.926540 288.426700 13.353342 0.000000
26.552082 288.455720 13.360300 0.000000
30.657600 288.551850 13.295051 0.000000
32.661079 288.525850 13.174176 0.000000
36.332890 288.557650 13.152266 0.000000
23.044418 288.856230 13.233036 0.000000
26.683567 289.011840 13.352674 0.000000
29.498955 288.995760 13.194819 0.000000
31.419121 289.006260 13.297725 0.000000
36.463676 288.792720 13.318272 0.000000
40.587608 288.854130 13.127805 0.000000
25.345497 289.407500 13.336243 0.000000
26.757973 289.248470 13.352126 0.000000
26.916426 289.308720 13.492772 0.000000
28.475475 289.456570 13.368803 0.000000
31.480673 289.325780 13.297670 0.000000
31.639214 289.405730 13.411553 0.000000
36.302509 289.255100 13.154938 0.000000
37.563927 289.320680 13.147607 0.000000
40.648743 289.182860 13.128613 0.000000
40.876839 289.475490 13.128288 0.000000
44.298347 289.150820 13.106607 0.000000
26.548931 289.690310 13.280504 0.000000
26.970858 289.715420 13.346999 0.000000
27.250347 289.794590 13.421339 0.000000
31.189350 289.784940 13.187499 0.000000
31.553505 289.829620 13.408377 0.000000
31.991522 289.859590 13.414577 0.000000
34.854557 289.563020 13.457646 0.000000
35.268658 289.687740 13.463495 0.000000
44.567673 289.505490 13.106258 0.000000
25.166529 290.175080 13.475239 0.000000
25.495171 290.016720 13.544833 0.000000
26.546032 289.956270 13.279193 0.000000
29.922709 290.135620 13.571293 0.000000
30.073418 289.904300 13.579628 0.000000
31.214993 289.960110 13.187971 0.000000
31.889427 289.897160 13.183701 0.000000
39.070938 290.169830 13.520673 0.000000
25.176249 290.336270 13.616279 0.000000
29.897417 290.347470 13.474920 0.000000
39.062981 290.479130 13.520420 0.000000
42.889587 297.539730 13.145012 0.000000
31.699013 302.202180 13.228782 0.000000
32.472176 301.951140 13.223248 0.000000
30.899281 302.681490 13.235290 0.000000
31.786491 302.594090 13.229657 0.000000
30.240129 302.942630 13.240176 0.000000
30.436607 302.834170 13.238610 0.000000
31.226152 302.692840 13.233370 0.000000
31.959282 303.084350 13.230371 0.000000
30.679346 303.100490 13.520270 0.000000
34.529533 303.255800 13.561767 0.000000
30.389809 303.817780 13.532359 0.000000
30.660868 303.779880 13.533726 0.000000
31.004498 303.817540 13.537297 0.000000
33.368984 304.064610 13.563792 0.000000
35.538029 304.045410 13.212337 0.000000
35.878971 303.927430 13.209871 0.000000
32.673599 304.513030 13.565587 0.000000
35.304504 304.630490 13.215828 0.000000
43.416794 304.382140 13.166283 0.000000
33.806942 304.862730 13.582932 0.000000
35.262218 304.994350 13.217380 0.000000
35.066483 305.226530 13.602203 0.000000
35.497963 305.195590 13.606112 0.000000
40.782974 305.205110 13.185019 0.000000
25.000732 305.648620 13.418555 0.000000
25.268822 305.591030 13.416175 0.000000
40.553783 305.516570 13.187506 0.000000
20.844538 286.101650 13.727165 0.000000
21.447954 286.270450 13.867327 0.000000
21.857098 286.131040 13.955019 0.000000
23.898785 286.213010 13.711477 0.000000
24.287003 286.179600 13.802403 0.000000
21.526928 286.496490 13.769880 0.000000
21.686787 286.414950 13.854002 0.000000
22.198809 286.505980 13.688129 0.000000
22.507360 286.467830 13.689510 0.000000
23.597878 286.643400 13.682727 0.000000
24.270941 286.559570 14.015966 0.000000
25.485332 286.380740 13.728266 0.000000
25.962040 286.660310 13.897942 0.000000
26.383575 286.503910 13.744783 0.000000
29.172543 286.334380 13.629196 0.000000
30.705341 286.453860 13.911254 0.000000
23.109852 286.960540 13.660190 0.000000
23.395514 286.716400 13.676739 0.000000
24.725119 286.793060 14.007015 0.000000
24.827530 286.874600 14.002728 0.000000
25.361427 286.929380 13.777008 0.000000
25.746992 286.764430 13.882427 0.000000
27.516432 286.938480 13.947783 0.000000
27.680412 286.977360 13.953657 0.000000
29.421595 286.823460 13.840590 0.000000
36.519909 286.722560 13.843263 0.000000
21.050676 287.395080 13.780267 0.000000
21.276001 287.453950 13.905338 0.000000
23.569193 287.269590 13.785549 0.000000
23.782091 287.336210 13.713840 0.000000
24.341442 287.108220 13.813586 0.000000
26.293795 287.384090 13.697144 0.000000
30.985806 287.440090 13.652719 0.000000
40.484558 287.124180 13.548464 0.000000
44.884361 287.352630 13.613263 0.000000
21.177849 287.521940 13.834007 0.000000
21.380014 287.752470 13.872544 0.000000
24.075129 287.519740 13.914083 0.000000
25.857470 287.801240 13.813993 0.000000
26.481716 287.567900 13.694104 0.000000
26.916273 287.756230 13.700369 0.000000
30.716991 287.730530 13.866817 0.000000
31.234932 287.729610 13.654485 0.000000
21.480623 287.921140 13.790731 0.000000
25.900932 288.047790 13.798186 0.000000
30.523663 287.965910 13.627873 0.000000
31.617188 288.168060 13.658405 0.000000
22.375624 288.398560 14.021743 0.000000
25.945353 288.374690 13.778433 0.000000
26.071682 288.485960 13.847390 0.000000
30.693285 288.430300 13.734077 0.000000
30.885483 288.369900 13.855372 0.000000
31.588428 288.400420 13.653458 0.000000
36.287853 288.291810 13.814610 0.000000
26.179506 288.706240 13.908260 0.000000
26.668461 288.920930 13.711247 0.000000
31.356775 288.934660 13.637144 0.000000
36.571705 288.756710 13.819661 0.000000
40.480595 288.880000 13.543756 0.000000
43.248581 288.968540 13.585877 0.000000
20.852831 289.433350 13.711238 0.000000
24.172035 289.443210 13.629856 0.000000
26.929928 289.247740 13.778918 0.000000
31.587997 289.228420 13.869669 0.000000
34.734688 289.108340 13.751028 0.000000
35.110786 289.483950 13.760647 0.000000
39.379616 289.154600 13.917302 0.000000
40.695370 289.171170 13.546576 0.000000
20.898272 289.830410 13.839463 0.000000
23.948191 289.538670 13.809501 0.000000
25.268688 289.883970 13.648389 0.000000
26.093945 289.823670 13.698017 0.000000
27.155323 289.550690 13.635320 0.000000
27.321409 289.709900 13.637424 0.000000
28.855768 289.855870 13.709307 0.000000
34.991245 289.766940 13.753856 0.000000
25.183571 290.216670 13.724023 0.000000
25.373329 290.048920 13.911654 0.000000
25.629162 290.066830 13.657421 0.000000
29.991190 290.269380 13.759979 0.000000
30.171881 290.071200 13.871586 0.000000
34.941948 290.024080 13.749988 0.000000
25.195278 290.372130 13.713336 0.000000
25.275686 290.482090 13.859255 0.000000
25.952106 290.420040 13.767870 0.000000
29.971369 290.517000 13.753901 0.000000
30.132044 290.375730 13.956138 0.000000
39.298302 290.436490 13.907214 0.000000
30.014292 290.737490 13.752167 0.000000
42.888046 297.537260 13.608809 0.000000
22.299511 301.272770 13.962721 0.000000
45.641640 302.074250 13.693045 0.000000
45.677921 302.557770 13.698982 0.000000
34.048916 303.220460 13.893624 0.000000
33.288368 303.986450 13.897766 0.000000
43.034470 304.184270 13.682297 0.000000
43.881859 304.139130 13.693167 0.000000
30.234058 304.377750 13.840578 0.000000
30.550756 304.396300 13.847815 0.000000
31.082832 304.668700 13.869372 0.000000
32.662891 304.498660 13.899517 0.000000
33.133865 305.393980 13.942390 0.000000
34.441410 305.470890 13.977270 0.000000
36.153435 305.338350 13.615595 0.000000
40.608154 305.092560 13.663710 0.000000
44.362823 305.354950 13.716007 0.000000
25.041475 305.571500 13.824225 0.000000
25.280514 305.623900 13.827814 0.000000
35.448723 305.566560 14.006607 0.000000
40.532120 305.498900 13.668976 0.000000
43.726826 305.507570 13.709753 0.000000
24.902227 305.932710 13.840261 0.000000
32.609688 306.094480 13.955753 0.000000
33.076698 306.193390 13.969840 0.000000
45.032715 307.300230 13.752547 0.000000
32.304676 307.625890 14.007529 0.000000
43.319233 307.839600 13.739511 0.000000
43.067451 308.210360 13.742393 0.000000
21.053047 286.154970 14.374832 0.000000
21.502817 286.116670 14.206248 0.000000
24.359638 286.291380 14.381352 0.000000
26.014025 286.284880 14.290815 0.000000
32.455208 286.179440 14.281641 0.000000
21.011902 286.330870 14.188709 0.000000
24.594696 286.602630 14.184819 0.000000
25.155340 286.446470 14.056506 0.000000
25.425634 286.659670 14.047170 0.000000
25.760555 286.600520 14.067599 0.000000
30.600960 286.538820 14.145608 0.000000
24.333900 286.770940 14.233250 0.000000
24.741486 286.755250 14.253324 0.000000
25.001118 286.948360 14.241475 0.000000
25.482334 286.978970 14.182867 0.000000
26.866127 286.819460 14.106040 0.000000
27.416126 286.826570 14.328437 0.000000
27.706535 286.948550 14.339368 0.000000
29.439211 286.810000 14.280844 0.000000
30.210857 287.088680 14.093271 0.000000
32.371464 287.018370 13.970728 0.000000
35.440193 286.793950 14.134310 0.000000
22.544731 287.490170 14.158821 0.000000
23.926542 287.444210 14.128390 0.000000
25.879681 287.315120 14.331470 0.000000
30.541403 287.297060 14.336012 0.000000
35.432377 287.230440 14.122973 0.000000
21.408716 287.684450 14.137957 0.000000
21.714838 287.654940 14.136912 0.000000
22.694920 287.565280 14.149025 0.000000
25.736668 287.768460 14.187754 0.000000
30.507219 287.763610 14.080127 0.000000
30.889442 287.728150 14.107278 0.000000
26.121357 288.048980 14.186403 0.000000
30.344952 288.082370 14.273531 0.000000
30.811066 288.206120 14.081470 0.000000
30.903210 288.044340 14.209063 0.000000
22.291750 288.295680 14.036896 0.000000
26.011211 288.383030 14.067140 0.000000
26.119894 288.472080 14.139491 0.000000
30.244167 288.349790 14.250049 0.000000
30.785950 288.427430 14.070686 0.000000
30.876188 288.375210 14.304185 0.000000
31.495441 288.968350 14.101251 0.000000
36.657295 288.728300 14.159662 0.000000
36.881580 288.940460 14.168897 0.000000
44.724007 289.065340 14.113569 0.000000
27.108135 289.371670 14.145619 0.000000
30.248465 289.205960 14.206940 0.000000
31.617268 289.215120 14.101988 0.000000
31.769085 289.249020 14.346193 0.000000
32.036945 289.440460 14.364138 0.000000
39.751602 289.388060 14.327372 0.000000
40.994934 289.276060 13.975487 0.000000
27.399319 289.583130 14.084827 0.000000
35.226406 289.698760 14.063429 0.000000
35.141113 290.091920 14.053193 0.000000
30.254690 290.490750 14.155326 0.000000
42.886513 297.534760 14.072852 0.000000
31.787228 301.390350 14.048394 0.000000
32.039639 301.309270 14.056238 0.000000
32.447044 301.338200 14.076244 0.000000
22.174650 301.800320 14.194271 0.000000
22.527786 301.644130 14.176074 0.000000
31.608591 301.813080 14.338265 0.000000
22.702795 302.030430 14.409603 0.000000
33.962788 302.155640 14.181801 0.000000
43.347153 302.527710 14.171184 0.000000
35.188950 302.698210 14.262465 0.000000
42.921394 302.780820 14.161989 0.000000
33.481346 303.795650 14.233648 0.000000
44.198284 303.814940 14.227456 0.000000
29.018661 304.246490 14.374401 0.000000
29.882229 304.095920 14.401032 0.000000
30.221195 303.968840 14.407623 0.000000
30.468803 303.905550 14.415078 0.000000
33.268723 303.965120 14.232746 0.000000
32.697113 304.530760 14.237420 0.000000
34.902191 304.672030 14.336070 0.000000
25.798958 305.082030 14.340718 0.000000
31.762833 305.083770 14.230903 0.000000
33.983284 305.025940 14.314064 0.000000
40.455769 304.994050 14.134783 0.000000
24.117886 305.316470 14.335814 0.000000
24.674700 305.406650 14.350120 0.000000
25.442390 305.380740 14.359773 0.000000
26.379251 305.430820 14.383907 0.000000
33.140549 305.397580 14.299058 0.000000
25.062473 305.644070 14.239679 0.000000
25.338678 305.615750 14.239732 0.000000
25.759674 305.678500 14.391817 0.000000
26.230499 305.685150 14.119278 0.000000
26.466681 305.675750 14.122426 0.000000
29.191429 305.888730 14.195426 0.000000
31.877995 305.644840 14.265379 0.000000
36.274902 305.866180 14.038415 0.000000
43.978981 305.643310 14.262968 0.000000
24.914680 305.978090 14.122832 0.000000
29.486034 305.893620 14.203761 0.000000
29.808821 305.933110 14.215242 0.000000
32.964882 306.061190 14.327075 0.000000
26.484156 306.412720 14.470826 0.000000
32.662251 307.089050 14.371898 0.000000
44.439598 308.027470 14.339548 0.000000
44.108635 308.366700 14.338855 0.000000
43.889725 308.780580 14.343989 0.000000
43.756042 309.258760 14.353856 0.000000
29.367718 286.141720 14.784300 0.000000
25.959026 286.669130 14.420166 0.000000
34.781013 286.411190 14.430377 0.000000
35.193115 286.480160 14.456926 0.000000
35.577263 286.576420 14.480860 0.000000
30.231350 287.073180 14.555182 0.000000
30.583775 287.035030 14.592750 0.000000
30.909412 287.263670 14.608555 0.000000
30.622475 287.685970 14.549195 0.000000
34.762051 287.543150 14.697487 0.000000
38.688812 287.742280 14.677344 0.000000
30.066366 288.061740 14.681384 0.000000
30.504738 288.186800 14.725224 0.000000
30.020998 288.681640 14.626698 0.000000
30.333347 288.394200 14.471066 0.000000
31.087357 288.461980 14.778385 0.000000
35.250862 288.669310 14.390849 0.000000
39.400967 288.497280 14.715261 0.000000
29.991285 288.886930 14.607633 0.000000
30.217880 288.850070 14.429824 0.000000
30.442963 289.010130 14.656893 0.000000
35.703011 289.038450 14.575406 0.000000
38.467079 289.075070 14.630709 0.000000
43.737411 288.862030 14.563990 0.000000
30.237793 289.119510 14.415842 0.000000
30.530582 289.338100 14.646833 0.000000
32.025616 289.240170 14.611089 0.000000
42.884964 297.532260 14.537592 0.000000
25.362846 301.338470 14.575919 0.000000
37.769867 301.848480 14.750432 0.000000
32.625778 302.062770 14.715500 0.000000
43.163952 302.015170 14.653149 0.000000
22.810163 302.377040 14.655458 0.000000
32.787983 302.508670 14.760860 0.000000
35.437370 303.221590 14.659535 0.000000
43.906021 303.214840 14.728431 0.000000
31.039555 303.848360 14.439747 0.000000
33.335880 303.661990 14.554832 0.000000
27.493042 304.199680 14.843857 0.000000
28.775225 304.275940 14.646905 0.000000
29.028545 304.055480 14.639380 0.000000
29.870224 304.271880 14.707125 0.000000
30.239346 304.178530 14.720658 0.000000
30.651245 304.126920 14.741463 0.000000
31.401594 303.891850 14.461583 0.000000
23.189747 304.479830 14.742559 0.000000
25.404310 304.509860 14.791892 0.000000
27.139557 304.434080 14.854116 0.000000
27.520857 304.494230 14.608845 0.000000
28.612816 304.436550 14.654140 0.000000
29.636261 304.343570 14.700276 0.000000
31.508877 304.383510 14.819180 0.000000
32.364845 304.564330 14.558530 0.000000
34.019825 304.660610 14.657409 0.000000
35.424133 304.325470 14.721382 0.000000
23.414804 304.733640 14.653544 0.000000
23.662420 305.071290 14.697371 0.000000
25.315239 304.929900 14.710431 0.000000
28.510414 304.704470 14.675283 0.000000
35.698891 304.947510 14.775093 0.000000
40.410919 304.962620 14.606667 0.000000
23.879704 305.137700 14.708110 0.000000
24.216324 305.255400 14.727234 0.000000
24.705666 305.290370 14.740108 0.000000
25.028816 305.273830 14.744822 0.000000
26.014027 305.734830 14.685566 0.000000
26.212521 305.621280 14.679093 0.000000
26.465662 305.661590 14.691153 0.000000
28.605070 305.841950 14.792747 0.000000
28.882561 305.842930 14.494518 0.000000
29.409115 305.761660 14.507979 0.000000
29.678841 305.721500 14.515568 0.000000
32.374294 305.806980 14.644852 0.000000
28.394218 305.970700 14.487681 0.000000
28.635036 305.902710 14.490463 0.000000
25.990847 306.424260 14.759413 0.000000
34.437618 306.325130 14.788959 0.000000
27.163410 306.842930 14.839180 0.000000
22.037710 307.631930 14.854697 0.000000
35.117207 286.224430 14.790938 0.000000
30.096516 286.711940 14.805278 0.000000
30.648821 286.986210 14.843106 0.000000
30.949558 287.000490 14.877194 0.000000
31.155010 287.091610 14.893849 0.000000
34.601856 287.348210 15.000651 0.000000
35.075176 287.396610 15.051417 0.000000
35.850365 287.325900 15.143138 0.000000
35.921337 287.866970 15.125378 0.000000
39.806213 288.043000 14.756487 0.000000
34.538303 288.679470 14.928106 0.000000
35.960072 288.546940 15.100656 0.000000
36.447933 289.071720 15.138805 0.000000
36.018524 289.203980 14.759117 0.000000
38.619942 289.342290 15.014338 0.000000
40.148407 289.295200 14.759388 0.000000
44.316673 289.142460 15.093144 0.000000
42.883423 297.529720 15.003474 0.000000
32.595295 300.879790 14.916189 0.000000
32.570477 301.139650 14.934446 0.000000
32.685207 301.805110 15.000867 0.000000
31.475805 302.286590 15.217026 0.000000
28.402090 303.289890 15.051544 0.000000
33.398689 303.362240 14.871774 0.000000
24.602253 303.785280 14.910116 0.000000
27.788727 303.864440 15.084379 0.000000
28.711231 303.767580 14.866093 0.000000
28.903032 303.669310 14.867762 0.000000
33.184555 303.520170 15.199465 0.000000
33.281338 303.610050 14.881698 0.000000
24.971649 304.071350 14.966097 0.000000
25.277527 304.091830 14.980513 0.000000
27.385824 304.215520 15.107016 0.000000
27.656048 304.055600 15.101950 0.000000
28.475540 304.205110 14.901442 0.000000
23.212896 304.681820 15.020529 0.000000
27.091455 304.327060 15.104851 0.000000
28.338427 304.403690 14.916319 0.000000
29.858000 304.450380 15.021084 0.000000
30.233170 304.362760 15.038391 0.000000
30.540756 304.369870 15.061987 0.000000
30.917250 304.450990 15.099252 0.000000
31.914541 304.453400 15.178879 0.000000
32.152599 304.525730 14.874479 0.000000
34.024464 304.661650 15.018764 0.000000
36.296913 304.621120 15.191605 0.000000
23.763046 305.034970 15.083266 0.000000
28.192364 304.826630 14.957932 0.000000
40.327679 304.907290 15.073641 0.000000
24.195383 305.130830 15.106608 0.000000
24.612959 305.106170 15.113160 0.000000
26.880373 305.476140 14.971586 0.000000
27.266346 305.229060 15.244525 0.000000
33.240540 305.085270 14.996188 0.000000
40.040981 305.170010 15.067473 0.000000
22.252567 305.804110 15.057412 0.000000
22.520330 305.774440 15.052350 0.000000
25.268326 305.550140 14.923153 0.000000
26.676702 305.575070 14.975435 0.000000
39.432045 305.658570 15.052558 0.000000
22.038628 305.896700 15.209385 0.000000
26.302671 306.612030 15.093627 0.000000
26.560633 306.621090 15.104044 0.000000
32.957569 306.496280 15.096981 0.000000
26.866364 306.751280 15.132298 0.000000
22.763922 307.320800 15.123954 0.000000
45.662224 307.669130 14.970954 0.000000
23.403774 309.081760 15.017162 0.000000
23.669710 308.999660 15.009133 0.000000
34.805885 287.248290 15.345196 0.000000
36.175510 287.474240 15.514987 0.000000
44.511593 287.868620 15.128265 0.000000
35.742764 288.488460 15.402014 0.000000
42.881859 297.527220 15.470930 0.000000
33.016964 301.316160 15.293930 0.000000
38.732628 301.264860 15.200947 0.000000
32.215240 301.726410 15.240028 0.000000
33.095722 301.815950 15.350371 0.000000
38.357925 301.795680 15.193643 0.000000
39.058907 301.780980 15.257373 0.000000
40.867069 301.860050 15.429952 0.000000
32.428509 302.202760 15.312366 0.000000
34.953903 302.191680 15.607054 0.000000
38.355484 302.156220 15.212909 0.000000
38.267281 302.476010 15.222773 0.000000
34.485916 302.862640 15.266627 0.000000
38.585106 303.032620 15.283122 0.000000
43.530788 303.045040 15.219292 0.000000
45.410500 302.916750 15.354581 0.000000
36.432068 303.188050 15.489666 0.000000
45.245232 303.324520 15.357294 0.000000
30.209793 303.944400 15.286956 0.000000
30.874516 304.014590 15.356056 0.000000
34.291519 304.133000 15.357614 0.000000
35.267525 304.192690 15.455498 0.000000
29.472160 304.506440 15.296540 0.000000
31.775274 304.682190 15.521219 0.000000
40.411118 304.955750 15.558823 0.000000
30.683451 305.380070 15.509551 0.000000
39.779991 305.442410 15.535350 0.000000
40.118736 305.216860 15.549840 0.000000
30.477287 305.533020 15.512044 0.000000
31.127174 305.541290 15.568064 0.000000
31.836014 305.578060 15.635632 0.000000
39.469021 305.680730 15.524756 0.000000
42.510818 305.776550 15.266224 0.000000
29.207062 305.898130 15.463124 0.000000
32.921001 305.999360 15.418544 0.000000
38.745171 306.065610 15.491061 0.000000
39.112106 305.880680 15.508482 0.000000
26.700327 306.643920 15.423079 0.000000
27.148977 306.793400 15.466381 0.000000
27.402863 306.757450 15.473932 0.000000
33.162014 306.735110 15.513952 0.000000
26.823256 308.198000 15.660422 0.000000
44.497566 308.619420 15.544635 0.000000
44.176556 287.122530 15.623521 0.000000
42.880299 297.524720 15.940447 0.000000
40.659763 300.998570 15.814776 0.000000
40.769657 301.425540 15.850470 0.000000
39.175697 301.834990 15.692819 0.000000
40.901352 301.872410 15.890582 0.000000
44.353649 301.594670 15.751425 0.000000
44.905739 302.249480 15.832134 0.000000
41.003345 302.317110 15.928003 0.000000
43.989120 302.341310 15.748247 0.000000
38.895309 302.820070 15.725060 0.000000
40.297485 302.777650 15.876888 0.000000
44.620720 303.057010 15.840847 0.000000
34.467621 303.190340 15.643218 0.000000
36.841621 303.089260 15.917377 0.000000
37.552872 303.172240 15.605536 0.000000
40.628014 303.357480 15.950757 0.000000
39.934910 303.806240 15.905297 0.000000
35.242302 305.363530 15.952633 0.000000
43.171349 306.168430 15.873674 0.000000
34.866009 306.300870 16.015434 0.000000
39.015846 300.681580 16.017986 0.000000
40.403000 300.892580 16.220016 0.000000
38.954472 302.093050 16.106504 0.000000
39.508423 301.993840 16.172319 0.000000
38.996655 302.490300 16.141605 0.000000
39.033691 302.893550 16.177395 0.000000
40.313416 304.453190 15.991433 0.000000
40.063248 305.177370 16.018036 0.000000
35.205235 306.188140 16.038109 0.000000
34.695396 306.579530 16.029604 0.000000
34.561005 306.901120 16.053185 0.000000
38.609287 307.375120 16.052616 0.000000
42.878723 297.522160 16.412451 0.000000
42.938229 301.491330 16.603588 0.000000
44.856056 302.227330 16.367050 0.000000
40.958488 304.391720 16.542383 0.000000
40.899509 304.800630 16.568264 0.000000
44.311913 303.850560 16.940102 0.000000
44.600872 303.509740 16.955904 0.000000
43.967705 307.162960 17.150625 0.000000
34.101685 286.358550 11.143818 0.000000
35.755493 287.592740 11.007013 0.000000
29.948277 286.434660 11.455903 0.000000
31.226360 286.934480 11.342699 0.000000
35.610775 287.392940 11.323195 0.000000
44.085346 287.455990 11.187151 0.000000
30.484196 287.747010 11.542709 0.000000
32.909924 288.064760 11.201013 0.000000
34.733932 288.070650 11.474455 0.000000
34.516197 288.412630 11.244675 0.000000
35.099815 288.644680 11.172968 0.000000
35.320423 288.554870 11.427110 0.000000
36.777256 288.510310 11.235966 0.000000
38.921333 288.342530 11.314293 0.000000
39.725754 288.398250 11.226949 0.000000
32.081806 289.024320 11.418638 0.000000
33.283237 288.856720 11.205841 0.000000
34.331696 288.727390 11.292587 0.000000
35.023087 288.915440 11.200872 0.000000
37.334747 288.860930 11.179283 0.000000
43.174721 288.838010 11.306221 0.000000
33.207325 289.309420 11.252379 0.000000
34.903587 289.310640 11.241560 0.000000
35.450245 289.237090 11.444490 0.000000
37.103676 289.204320 11.224853 0.000000
37.690044 289.299800 11.486053 0.000000
38.305569 289.407440 11.420554 0.000000
43.332523 289.171140 11.299331 0.000000
45.476845 289.118440 11.100023 0.000000
33.288113 289.686550 11.264536 0.000000
34.902298 289.655240 11.260315 0.000000
35.337639 289.747250 11.198104 0.000000
37.003700 289.498200 11.250340 0.000000
37.516125 289.620760 11.186694 0.000000
38.308254 289.689120 11.429117 0.000000
39.709938 289.643590 11.269097 0.000000
40.705162 289.734130 11.158520 0.000000
45.373901 289.539980 11.117977 0.000000
33.674656 290.157410 11.226456 0.000000
35.349903 290.089970 11.212317 0.000000
37.568420 290.008330 11.193744 0.000000
40.512047 290.091160 11.189782 0.000000
45.264854 289.956300 11.135798 0.000000
33.694336 290.551820 11.244406 0.000000
35.340668 290.546810 11.233259 0.000000
37.526608 290.414700 11.212941 0.000000
