# .PCD v0.7 - Point Cloud Data file format
VERSION 0.7
FIELDS x y z intensity
SIZE 4 4 4 4
TYPE F F F F
COUNT 1 1 1 1
WIDTH 1243
HEIGHT 1
VIEWPOINT 0 0 0 1 0 0 0
POINTS 1243
DATA ascii
42.463856 59.944359 1.423199 0.000000
36.749332 54.129250 0.875029 0.000000
37.348892 54.739357 0.932542 0.000000
37.929207 55.329861 0.988207 0.000000
38.491539 55.902054 1.042147 0.000000
39.566689 56.996140 1.145283 0.000000
40.081589 57.520142 1.194677 0.000000
40.582603 58.029991 1.242738 0.000000
41.070560 58.526501 1.289544 0.000000
32.662376 49.970329 0.482983 0.000000
33.410713 50.731869 0.554770 0.000000
34.820961 52.166786 0.690040 0.000000
35.486916 52.844505 0.753924 0.000000
30.091728 55.824749 0.734663 0.000000
41.519695 58.980247 2.021358 0.000000
41.984077 59.452858 2.057675 0.000000
42.437592 59.914463 2.093350 0.000000
42.880959 60.365578 2.128423 0.000000
43.314697 60.807045 2.162939 0.000000
36.720810 54.096546 1.656783 0.000000
37.320614 54.707165 1.701417 0.000000
37.901180 55.297764 1.744834 0.000000
38.463737 55.870270 1.787141 0.000000
39.539337 56.964882 1.868693 0.000000
40.054424 57.489151 1.908077 0.000000
40.555641 57.999245 1.946613 0.000000
41.043789 58.495987 1.984354 0.000000
30.076925 55.854382 1.492445 0.000000
32.632149 49.935432 1.358180 0.000000
33.380795 50.697365 1.412201 0.000000
34.099892 51.429180 1.464344 0.000000
34.791618 52.133064 1.514752 0.000000
35.457855 52.811134 1.563554 0.000000
44.727970 59.602535 2.867827 0.000000
43.944397 60.372375 2.843095 0.000000
41.493095 58.949959 2.707747 0.000000
41.957645 59.422760 2.735854 0.000000
42.411320 59.884567 2.763713 0.000000
42.854836 60.335869 2.791350 0.000000
43.288715 60.777512 2.818790 0.000000
36.692287 54.063828 2.438701 0.000000
37.292355 54.674561 2.470449 0.000000
37.873154 55.265656 2.501639 0.000000
38.435932 55.838467 2.532316 0.000000
39.511967 56.933624 2.592295 0.000000
40.027264 57.458145 2.621672 0.000000
40.528667 57.968491 2.650686 0.000000
41.017014 58.465454 2.679367 0.000000
30.059746 55.869537 2.247371 0.000000
42.828682 60.306118 3.455131 0.000000
32.601917 49.900524 2.233483 0.000000
33.350864 50.662868 2.269751 0.000000
34.070267 51.395073 2.305099 0.000000
34.762280 52.099312 2.339603 0.000000
35.428799 52.777744 2.373331 0.000000
45.508324 58.831062 3.604989 0.000000
41.466461 58.919605 3.395004 0.000000
41.931183 59.392632 3.414895 0.000000
42.385006 59.854645 3.434934 0.000000
36.663723 54.031063 3.221536 0.000000
37.264042 54.642117 3.240400 0.000000
37.845089 55.233498 3.259350 0.000000
38.408108 55.806625 3.278393 0.000000
39.484570 56.902332 3.316787 0.000000
40.000072 57.427101 3.336152 0.000000
40.501675 57.937687 3.355638 0.000000
40.990196 58.434895 3.375253 0.000000
30.042595 55.884636 3.001108 0.000000
41.441845 58.877785 4.084205 0.000000
40.962761 58.407677 4.072558 0.000000
32.571644 49.865597 3.109737 0.000000
33.320908 50.628334 3.128246 0.000000
34.040607 51.360905 3.146793 0.000000
34.732914 52.065502 3.165389 0.000000
35.399708 52.744301 3.184039 0.000000
41.779243 59.990025 4.071897 0.000000
36.635113 53.998230 4.006042 0.000000
37.235668 54.609600 4.012003 0.000000
37.816963 55.201237 4.018696 0.000000
40.474606 57.906837 4.062145 0.000000
30.025459 55.899731 3.754380 0.000000
32.541317 49.830574 3.987782 0.000000
33.290886 50.593723 3.988510 0.000000
34.011799 51.346447 3.989702 0.000000
34.703491 52.031845 3.992898 0.000000
35.370564 52.710800 3.996453 0.000000
29.170916 60.396660 4.278289 0.000000
44.989731 59.352707 -0.170117 0.000000
44.231995 60.072968 -0.110135 0.000000
41.570068 59.090225 -0.284538 0.000000
42.066872 59.546528 -0.221577 0.000000
42.545010 60.032730 -0.156297 0.000000
43.011406 60.507179 -0.093017 0.000000
41.000523 59.095097 -0.299847 0.000000
40.419571 59.227135 -0.302086 0.000000
39.813465 59.702995 -0.268077 0.000000
39.270580 59.585819 -0.297175 0.000000
38.701931 59.867439 -0.284038 0.000000
38.158226 59.801006 -0.308474 0.000000
37.604465 60.107399 -0.293005 0.000000
37.063633 60.058411 -0.316278 0.000000
36.525486 60.360825 -0.301556 0.000000
33.881859 60.861710 -0.342713 0.000000
32.834656 61.037193 -0.364360 0.000000
34.325504 51.732227 -0.453515 0.000000
35.047112 52.403042 -0.369979 0.000000
36.417255 53.796722 -0.201680 0.000000
33.619240 51.548306 -0.494432 0.000000
32.968025 51.994373 -0.478893 0.000000
32.364220 52.727303 -0.436985 0.000000
31.670424 52.631710 -0.470563 0.000000
31.088673 53.305191 -0.433533 0.000000
30.481213 53.710880 -0.420941 0.000000
29.843439 53.902313 -0.428311 0.000000
29.221046 54.155758 -0.429982 0.000000
28.599648 54.394588 -0.433130 0.000000
27.175619 54.149235 -0.509688 0.000000
26.547821 54.381466 -0.514416 0.000000
25.912518 54.582676 -0.522371 0.000000
25.281889 54.797413 -0.529229 0.000000
24.616447 54.908859 -0.546626 0.000000
23.992538 55.146839 -0.551725 0.000000
23.353401 55.343609 -0.561238 0.000000
22.719128 55.556721 -0.569405 0.000000
21.121082 55.248241 -0.663064 0.000000
44.181828 60.141499 0.593333 0.000000
37.065140 54.455605 -0.122476 0.000000
37.690495 55.091675 -0.046258 0.000000
38.294823 55.706364 0.027162 0.000000
38.879520 56.301132 0.097968 0.000000
39.445900 56.877270 0.166327 0.000000
39.995113 57.435955 0.232389 0.000000
40.528236 57.978188 0.296288 0.000000
41.046310 58.505093 0.358161 0.000000
41.550251 59.017715 0.418137 0.000000
42.040901 59.516876 0.476324 0.000000
42.519127 60.003223 0.532811 0.000000
42.985615 60.477791 0.587718 0.000000
43.446327 60.917061 0.639191 0.000000
28.432196 36.289852 -0.792650 0.000000
26.859678 38.372314 -0.710019 0.000000
45.701035 58.644478 1.241891 0.000000
24.524557 40.638802 -0.641042 0.000000
23.680696 40.994385 -0.646267 0.000000
32.748421 50.060764 0.248240 0.000000
33.537384 50.863220 0.326954 0.000000
35.019909 52.371468 0.474889 0.000000
36.390274 53.765480 0.611624 0.000000
37.038200 54.442028 0.677408 0.000000
37.663731 55.060814 0.738682 0.000000
38.268177 55.675682 0.798993 0.000000
38.852989 56.270615 0.857347 0.000000
39.419472 56.846931 0.913874 0.000000
39.968792 57.405766 0.968687 0.000000
40.502026 57.948143 1.021890 0.000000
41.020206 58.475212 1.073590 0.000000
41.524246 58.987991 1.123885 0.000000
42.014988 59.487278 1.172856 0.000000
42.493305 59.973755 1.220576 0.000000
43.421528 60.883759 1.310967 0.000000
22.004141 41.698456 -0.656802 0.000000
21.172653 42.054626 -0.661572 0.000000
27.597404 37.141743 -0.765282 0.000000
26.155214 39.579147 -0.655182 0.000000
34.293747 51.632660 0.402426 0.000000
22.841604 41.350483 -0.651297 0.000000
45.651867 58.687908 1.974988 0.000000
44.852242 59.473526 1.978182 0.000000
37.011379 54.411621 1.474899 0.000000
37.637005 55.030010 1.522751 0.000000
38.241554 55.645054 1.569981 0.000000
38.826492 56.240128 1.615910 0.000000
39.393074 56.816631 1.660630 0.000000
39.942509 57.375622 1.704219 0.000000
40.475838 57.918175 1.746749 0.000000
40.994125 58.445381 1.788296 0.000000
41.498260 58.958294 1.828928 0.000000
41.989098 59.457733 1.868703 0.000000
32.720974 50.028667 1.146353 0.000000
33.510021 50.831295 1.205956 0.000000
34.266468 51.600933 1.263366 0.000000
34.992744 52.339890 1.318745 0.000000
36.363331 53.734291 1.423993 0.000000
44.054913 60.252380 2.670600 0.000000
37.610275 54.999187 2.306685 0.000000
38.214943 55.614414 2.340852 0.000000
38.799984 56.209663 2.374373 0.000000
39.366680 56.786312 2.407299 0.000000
39.916222 57.345486 2.439676 0.000000
40.449661 57.888168 2.471545 0.000000
40.968044 58.415554 2.502950 0.000000
41.472279 58.928596 2.533930 0.000000
41.963203 59.428185 2.564518 0.000000
42.441708 59.914898 2.594747 0.000000
42.908451 60.389854 2.624651 0.000000
43.364166 60.853523 2.654256 0.000000
32.693520 49.996571 2.044167 0.000000
33.482658 50.799381 2.084689 0.000000
34.239204 51.569210 2.124066 0.000000
34.965580 52.308342 2.162387 0.000000
36.336380 53.703110 2.236190 0.000000
37.583538 54.968361 3.091241 0.000000
38.188316 55.583729 3.112348 0.000000
38.773460 56.179180 3.133463 0.000000
39.340260 56.755997 3.154599 0.000000
39.889919 57.315311 3.175766 0.000000
40.423454 57.858166 3.196976 0.000000
40.941929 58.385700 3.218241 0.000000
41.934990 59.413029 3.260875 0.000000
32.666061 49.964470 2.942547 0.000000
33.455280 50.767456 2.964000 0.000000
34.211926 51.537457 2.985354 0.000000
34.938396 52.276779 3.006627 0.000000
36.309414 53.671913 3.048999 0.000000
42.858040 60.325394 3.984898 0.000000
38.746895 56.148632 3.893909 0.000000
39.313797 56.725620 3.903245 0.000000
39.863548 57.285088 3.913196 0.000000
40.397205 57.828098 3.923738 0.000000
32.638546 49.932312 3.842352 0.000000
33.427883 50.735676 3.844727 0.000000
34.184601 51.505665 3.848054 0.000000
34.911175 52.245178 3.852272 0.000000
28.605980 59.822624 4.265109 0.000000
29.377106 60.607635 4.238091 0.000000
45.146523 59.212837 -0.051255 0.000000
44.400410 59.945446 0.009806 0.000000
43.691750 60.640717 0.067318 0.000000
39.947388 57.739094 -0.306418 0.000000
40.533554 57.973175 -0.268910 0.000000
41.083019 58.532444 -0.199617 0.000000
41.616364 59.075226 -0.132809 0.000000
42.134644 59.602676 -0.068327 0.000000
43.129593 60.615440 0.054200 0.000000
39.344540 57.748169 -0.320027 0.000000
38.734406 58.139957 -0.295301 0.000000
38.140610 58.035450 -0.321170 0.000000
37.548660 58.347492 -0.305013 0.000000
36.954716 58.247528 -0.331334 0.000000
36.376831 58.568073 -0.314835 0.000000
34.609909 58.605721 -0.363067 0.000000
35.215340 58.775978 -0.327454 0.000000
34.144691 59.684135 -0.267911 0.000000
33.550961 59.559090 -0.299457 0.000000
33.021599 59.897671 -0.282330 0.000000
31.716681 59.143318 -0.402601 0.000000
32.350163 59.360569 -0.359071 0.000000
31.192692 59.507252 -0.384056 0.000000
30.608067 59.564972 -0.399001 0.000000
29.385067 59.509041 -0.449442 0.000000
30.083626 59.878506 -0.386450 0.000000
28.845455 59.769653 -0.443669 0.000000
28.288105 59.959148 -0.446151 0.000000
27.743748 60.186760 -0.444767 0.000000
26.987856 59.788654 -0.514638 0.000000
26.453653 60.069336 -0.508466 0.000000
25.952217 60.427929 -0.493670 0.000000
25.428337 60.715839 -0.487266 0.000000
24.030998 60.483189 -0.570503 0.000000
24.896976 60.979431 -0.484033 0.000000
23.485580 60.745838 -0.568892 0.000000
22.940628 61.008720 -0.567699 0.000000
31.824722 47.056538 -0.623721 0.000000
31.152254 47.909027 -0.575537 0.000000
33.013935 50.315559 -0.329634 0.000000
33.838646 51.154995 -0.239170 0.000000
34.628082 51.958416 -0.152852 0.000000
36.111401 53.468369 0.008590 0.000000
36.809937 54.179405 0.084234 0.000000
37.482399 54.863895 0.156805 0.000000
30.507221 48.768311 -0.526301 0.000000
29.880434 49.585922 -0.480130 0.000000
29.275223 50.389477 -0.434713 0.000000
26.913548 50.200947 -0.523287 0.000000
27.860104 50.875488 -0.440015 0.000000
26.188072 50.421219 -0.529020 0.000000
25.462914 50.640961 -0.535074 0.000000
24.749275 50.896404 -0.538226 0.000000
29.768589 55.916908 0.019137 0.000000
23.989616 51.014359 -0.554015 0.000000
23.285812 51.300957 -0.554969 0.000000
22.552181 51.506138 -0.563610 0.000000
21.804272 51.682365 -0.575296 0.000000
38.130657 55.523708 0.226517 0.000000
38.756355 56.160648 0.293568 0.000000
39.361015 56.776073 0.358123 0.000000
39.946018 57.371578 0.420352 0.000000
40.512669 57.948402 0.480402 0.000000
41.062141 58.507744 0.538406 0.000000
41.595509 59.050613 0.594481 0.000000
42.113815 59.578129 0.648753 0.000000
45.077637 59.268917 1.425796 0.000000
32.993309 50.290268 0.590250 0.000000
33.817936 51.129684 0.660402 0.000000
36.090546 53.443184 0.853742 0.000000
37.461510 54.838821 0.970376 0.000000
38.109764 55.498726 1.025525 0.000000
38.735474 56.135681 1.078756 0.000000
43.631840 60.690353 1.470410 0.000000
34.607307 51.933128 0.727550 0.000000
36.789051 54.154289 0.913169 0.000000
39.340141 56.751202 1.130195 0.000000
39.925156 57.346760 1.179966 0.000000
40.491821 57.923668 1.228178 0.000000
41.041321 58.483086 1.274927 0.000000
43.088078 60.566643 1.449052 0.000000
29.754555 55.901115 0.830776 0.000000
43.602081 60.715019 2.167273 0.000000
38.088902 55.473743 1.823612 0.000000
38.714603 56.110790 1.863057 0.000000
39.319279 56.726376 1.901411 0.000000
39.904316 57.321995 1.938751 0.000000
40.471001 57.898991 1.975149 0.000000
41.020504 58.458485 2.010668 0.000000
32.972710 50.264980 1.508916 0.000000
33.797253 51.104420 1.558810 0.000000
34.586559 51.907890 1.606836 0.000000
36.069717 53.418022 1.697865 0.000000
36.768204 54.129185 1.741113 0.000000
37.440651 54.813770 1.782994 0.000000
45.008312 59.329315 2.890266 0.000000
38.068039 55.448765 2.621531 0.000000
38.693745 56.085880 2.647209 0.000000
39.298431 56.701530 2.672493 0.000000
39.883472 57.297226 2.697418 0.000000
32.952114 50.239738 2.427229 0.000000
33.776573 51.079163 2.456897 0.000000
34.565823 51.882652 2.485834 0.000000
36.048897 53.392864 2.541755 0.000000
36.747353 54.104092 2.568847 0.000000
37.419800 54.788742 2.595424 0.000000
29.726542 55.869640 2.450654 0.000000
45.747532 58.598423 3.655235 0.000000
38.047165 55.423740 3.420051 0.000000
38.672867 56.060963 3.431966 0.000000
39.277565 56.676678 3.444186 0.000000
43.542812 60.764126 3.555025 0.000000
32.931519 50.214451 3.346071 0.000000
33.755894 51.053898 3.355531 0.000000
34.545067 51.857414 3.365389 0.000000
36.028057 53.367729 3.386223 0.000000
36.726490 54.078976 3.397169 0.000000
37.398922 54.763695 3.408449 0.000000
45.290695 60.447861 4.334298 0.000000
38.022655 59.067459 4.111848 0.000000
38.587784 59.529869 4.113503 0.000000
36.851421 58.366585 4.103517 0.000000
37.443275 58.715145 4.107450 0.000000
36.242569 57.936962 4.102466 0.000000
32.350399 56.081104 4.089814 0.000000
33.087208 56.782894 4.079656 0.000000
31.093752 56.251266 4.071075 0.000000
31.563314 55.254646 4.103842 0.000000
30.267372 55.404507 4.087220 0.000000
28.945404 55.484108 4.076295 0.000000
28.818726 57.832150 -0.473151 0.000000
28.221386 58.073391 -0.469997 0.000000
27.602734 58.243801 -0.474801 0.000000
26.155048 58.023087 -0.546500 0.000000
26.995300 58.449654 -0.476341 0.000000
25.533394 58.227089 -0.549710 0.000000
24.907310 58.423428 -0.554305 0.000000
24.300842 58.670433 -0.553909 0.000000
23.683743 58.894760 -0.556540 0.000000
22.752689 58.456367 -0.633700 0.000000
22.118752 58.684185 -0.637676 0.000000
21.482029 58.912342 -0.642248 0.000000
20.842712 59.142235 -0.647278 0.000000
39.583210 57.001827 -0.267744 0.000000
40.193810 57.621937 -0.195455 0.000000
43.502277 60.792995 0.168729 0.000000
38.952370 56.977325 -0.283009 0.000000
40.784306 58.223217 -0.125857 0.000000
41.910217 59.369526 0.005473 0.000000
42.447983 59.916996 0.067527 0.000000
38.313877 56.608494 -0.332398 0.000000
37.682011 56.780231 -0.329571 0.000000
37.036327 56.604141 -0.361351 0.000000
36.423016 56.979656 -0.339270 0.000000
35.773369 56.821526 -0.370372 0.000000
34.497787 56.880814 -0.397002 0.000000
33.248718 57.149109 -0.404636 0.000000
32.814484 58.335144 -0.302218 0.000000
32.240620 58.615681 -0.291673 0.000000
30.807716 57.883732 -0.404999 0.000000
31.562202 58.383923 -0.334040 0.000000
30.168098 57.932968 -0.420122 0.000000
29.590788 58.226521 -0.410340 0.000000
31.183290 44.404095 -0.611132 0.000000
30.222815 43.929749 -0.670045 0.000000
29.496590 44.756886 -0.626053 0.000000
28.813055 45.670883 -0.574826 0.000000
33.756050 51.062946 -0.050373 0.000000
35.391712 52.728596 0.112387 0.000000
36.157917 53.508842 0.188233 0.000000
36.893158 54.257511 0.260750 0.000000
37.599678 54.976898 0.330177 0.000000
38.279541 55.669086 0.396732 0.000000
38.934643 56.336124 0.460621 0.000000
28.168898 46.637894 -0.518966 0.000000
27.444546 47.173996 -0.497659 0.000000
25.535866 46.534081 -0.595673 0.000000
26.684666 47.533382 -0.490773 0.000000
24.753593 46.871605 -0.591649 0.000000
23.938955 47.100487 -0.596895 0.000000
23.138821 47.374844 -0.598693 0.000000
22.270885 47.465309 -0.616317 0.000000
21.483015 47.783012 -0.615211 0.000000
39.566647 56.979633 0.522016 0.000000
40.177151 57.601280 0.581089 0.000000
40.767574 58.202549 0.637990 0.000000
41.338966 58.789017 0.693173 0.000000
43.476463 60.835464 0.886345 0.000000
33.740669 51.042862 0.874839 0.000000
35.375912 52.708290 0.997401 0.000000
36.141949 53.488457 1.054814 0.000000
36.877045 54.237076 1.109907 0.000000
37.583435 54.956390 1.162845 0.000000
38.263191 55.648552 1.213785 0.000000
38.918175 56.315536 1.262871 0.000000
39.550106 56.958885 1.310221 0.000000
41.876575 59.328247 1.484587 0.000000
43.458130 60.824535 1.597019 0.000000
42.399029 59.839123 2.251543 0.000000
42.919628 60.387009 2.280842 0.000000
34.560078 51.866905 1.840552 0.000000
35.360138 52.688030 1.881246 0.000000
36.125999 53.468113 1.920276 0.000000
36.860954 54.216640 1.957987 0.000000
37.567207 54.935913 1.994478 0.000000
38.246845 55.628029 2.029841 0.000000
38.901733 56.294987 2.064162 0.000000
41.843002 59.287064 2.960414 0.000000
42.902752 60.366413 2.997569 0.000000
43.413181 60.863903 3.015890 0.000000
33.709965 51.002815 2.722304 0.000000
34.544483 51.846550 2.743641 0.000000
35.344368 52.667770 2.764754 0.000000
36.110065 53.447754 2.785431 0.000000
36.844864 54.196255 2.805789 0.000000
40.700867 58.120155 3.684610 0.000000
42.363724 59.813927 3.706661 0.000000
42.885853 60.345814 3.714894 0.000000
43.393616 60.862560 3.723550 0.000000
35.328594 52.647514 3.648777 0.000000
36.094116 53.427441 3.651114 0.000000
36.828766 54.175827 3.654131 0.000000
38.214581 55.606300 3.661829 0.000000
27.853704 59.051903 4.303094 0.000000
28.796337 59.993301 4.269386 0.000000
29.686140 60.899872 4.237916 0.000000
39.870800 57.301071 -0.292641 0.000000
39.227844 57.238731 -0.312357 0.000000
37.943382 57.291721 -0.335872 0.000000
36.672108 57.505314 -0.345363 0.000000
34.113449 57.727131 -0.390673 0.000000
29.660120 58.485027 -0.452348 0.000000
29.059219 58.731461 -0.448703 0.000000
28.439486 58.914486 -0.452256 0.000000
26.974075 58.675797 -0.526399 0.000000
27.835491 59.144672 -0.451260 0.000000
26.346933 58.880123 -0.529681 0.000000
25.716852 59.080692 -0.533933 0.000000
25.131638 59.390301 -0.526718 0.000000
24.532200 59.663826 -0.523945 0.000000
23.535149 59.095413 -0.616066 0.000000
22.894875 59.323544 -0.620159 0.000000
22.262589 59.573132 -0.622450 0.000000
21.642971 59.851353 -0.622086 0.000000
21.018196 60.123779 -0.622990 0.000000
38.593422 57.469753 -0.303714 0.000000
37.326466 57.667744 -0.313646 0.000000
36.064777 57.847324 -0.327202 0.000000
34.784214 57.876263 -0.357871 0.000000
33.681446 58.952427 -0.283810 0.000000
32.403477 58.935223 -0.322758 0.000000
31.691010 58.646416 -0.372256 0.000000
31.023735 58.599045 -0.397537 0.000000
30.449039 58.919456 -0.384948 0.000000
31.031040 44.322025 -0.670117 0.000000
29.591295 46.006306 -0.579053 0.000000
32.878429 50.188389 -0.182743 0.000000
33.797176 51.123032 -0.090206 0.000000
35.509613 52.864872 0.081427 0.000000
36.309826 53.678967 0.161235 0.000000
37.076485 54.458950 0.237434 0.000000
37.812111 55.207306 0.310286 0.000000
38.518951 55.926346 0.380029 0.000000
28.937271 46.973434 -0.522954 0.000000
28.302235 47.902855 -0.469524 0.000000
27.542671 48.276505 -0.461370 0.000000
26.390156 47.282154 -0.566453 0.000000
25.597080 47.595776 -0.564328 0.000000
24.777737 47.822693 -0.569720 0.000000
23.972588 48.094521 -0.571696 0.000000
23.099594 48.183514 -0.589507 0.000000
22.306410 48.498688 -0.588571 0.000000
21.476770 48.724270 -0.595653 0.000000
45.415031 58.914104 0.739963 0.000000
45.389626 58.933933 1.516697 0.000000
44.668766 59.641899 1.539969 0.000000
32.863853 50.169121 0.787153 0.000000
33.782272 51.103531 0.856349 0.000000
35.494186 52.845039 0.985317 0.000000
36.294189 53.658985 1.045591 0.000000
37.060646 54.438866 1.103342 0.000000
37.796116 55.187141 1.158755 0.000000
41.671909 59.113552 1.449857 0.000000
42.242599 59.714596 1.493954 0.000000
45.364307 58.953712 2.290719 0.000000
44.645252 59.660019 2.296416 0.000000
41.064133 58.508350 2.179439 0.000000
41.654518 59.109108 2.211296 0.000000
35.478786 52.825226 1.887952 0.000000
36.278564 53.639050 1.928749 0.000000
39.821674 57.244156 2.113132 0.000000
45.339046 58.973454 3.062767 0.000000
44.621792 59.678108 3.050994 0.000000
40.437237 57.865017 2.933038 0.000000
41.637901 59.088749 2.971717 0.000000
32.834755 50.130627 2.723521 0.000000
33.752533 51.064610 2.746221 0.000000
45.313831 58.993134 3.833588 0.000000
44.598366 59.696167 3.804432 0.000000
41.031048 58.467632 3.726061 0.000000
41.621269 59.068363 3.732696 0.000000
35.447990 52.785622 3.692879 0.000000
38.454472 55.845497 3.704671 0.000000
33.737663 51.045155 3.691338 0.000000
39.487560 58.017265 -0.288243 0.000000
38.833511 57.868366 -0.316667 0.000000
37.552361 58.085712 -0.323813 0.000000
36.934319 58.375477 -0.309841 0.000000
36.255875 58.127144 -0.350557 0.000000
35.639626 58.390266 -0.340138 0.000000
34.956856 58.206470 -0.375632 0.000000
34.363373 58.574833 -0.355325 0.000000
31.843983 59.126530 -0.372912 0.000000
31.276787 59.497623 -0.354066 0.000000
30.469296 59.018543 -0.425319 0.000000
29.865883 59.277363 -0.419437 0.000000
29.237865 59.454102 -0.422751 0.000000
28.623314 59.672314 -0.422135 0.000000
27.736565 59.153343 -0.501792 0.000000
27.106083 59.369129 -0.502957 0.000000
26.465477 59.562683 -0.507102 0.000000
25.902943 59.943390 -0.491193 0.000000
24.246851 59.550644 -0.589555 0.000000
25.296246 60.215332 -0.487700 0.000000
23.613813 59.811420 -0.589130 0.000000
22.979174 60.072598 -0.589254 0.000000
22.343739 60.336685 -0.589661 0.000000
21.702574 60.595398 -0.591319 0.000000
21.096977 60.921047 -0.585861 0.000000
43.179619 60.670544 0.040715 0.000000
33.934406 59.725098 -0.254779 0.000000
33.225285 59.411587 -0.305109 0.000000
32.594124 59.499054 -0.314695 0.000000
31.061493 45.309196 -0.629343 0.000000
30.326763 46.087013 -0.587548 0.000000
29.654417 47.037319 -0.531535 0.000000
32.830154 50.131187 -0.222415 0.000000
33.794781 51.114120 -0.125836 0.000000
34.712498 52.048023 -0.034338 0.000000
35.587387 52.938259 0.052604 0.000000
36.422951 53.788406 0.135356 0.000000
29.000937 47.952335 -0.478070 0.000000
27.159271 47.678936 -0.544261 0.000000
28.329683 48.705673 -0.437591 0.000000
26.356247 47.989357 -0.541155 0.000000
25.521378 48.196884 -0.546938 0.000000
24.699467 48.448250 -0.549419 0.000000
23.808290 48.515530 -0.567864 0.000000
22.996799 48.811157 -0.567406 0.000000
22.147545 49.016289 -0.575066 0.000000
21.297991 49.232510 -0.582237 0.000000
43.774998 60.527199 0.791883 0.000000
44.423363 59.911015 1.524047 0.000000
32.818111 50.114586 0.771182 0.000000
33.782265 51.097126 0.842906 0.000000
34.699547 52.030678 0.911075 0.000000
35.573013 52.912418 0.975596 0.000000
43.755768 60.546379 1.545962 0.000000
43.148624 60.629318 1.538970 0.000000
43.737076 60.559784 2.297237 0.000000
40.732254 58.166580 2.159910 0.000000
37.194302 54.565620 1.979451 0.000000
37.959499 55.344505 2.017956 0.000000
39.399258 56.809898 2.091161 0.000000
40.078144 57.500824 2.126050 0.000000
43.718872 60.567654 3.046801 0.000000
40.717239 58.147793 2.958994 0.000000
43.117516 60.591103 3.033737 0.000000
33.753288 51.038765 2.776276 0.000000
43.699791 60.586479 3.795529 0.000000
43.101955 60.571964 3.781494 0.000000
37.166424 54.529480 3.742778 0.000000
39.369949 56.772755 3.750324 0.000000
40.048447 57.463425 3.754133 0.000000
32.774910 50.025295 3.746187 0.000000
37.717918 58.819942 -0.299458 0.000000
36.408092 58.812260 -0.330014 0.000000
35.716297 58.612267 -0.366202 0.000000
35.109928 58.946350 -0.348339 0.000000
33.961891 59.805222 -0.293763 0.000000
32.581902 59.581299 -0.353264 0.000000
31.198164 59.483944 -0.402518 0.000000
32.001087 59.924553 -0.336320 0.000000
30.585354 59.731606 -0.396796 0.000000
29.947319 59.896839 -0.400326 0.000000
28.421337 59.564888 -0.480653 0.000000
29.322044 60.103012 -0.400007 0.000000
27.779034 59.769047 -0.482093 0.000000
27.125843 59.950565 -0.486578 0.000000
26.528629 60.269245 -0.476579 0.000000
25.962666 60.652287 -0.459885 0.000000
24.893866 59.961857 -0.563356 0.000000
24.246120 60.208813 -0.563515 0.000000
23.596027 60.456135 -0.564255 0.000000
22.944275 60.706188 -0.565330 0.000000
22.286171 60.951214 -0.567647 0.000000
42.228260 59.690121 -0.126277 0.000000
42.837460 60.310314 -0.055088 0.000000
34.681061 60.133926 -0.242777 0.000000
33.389458 60.172161 -0.273291 0.000000
45.445950 58.892593 0.652739 0.000000
30.993574 46.152981 -0.595872 0.000000
30.290535 47.028538 -0.544559 0.000000
32.647533 49.932575 -0.271378 0.000000
33.654404 50.925034 -0.174074 0.000000
29.618668 47.928486 -0.491026 0.000000
28.955456 48.766251 -0.442364 0.000000
27.023869 48.272076 -0.524959 0.000000
26.173565 48.461678 -0.530887 0.000000
25.333700 48.690205 -0.533948 0.000000
24.423826 48.735416 -0.552912 0.000000
23.593075 49.010139 -0.552924 0.000000
22.723167 49.193413 -0.561145 0.000000
30.121672 55.796638 0.119028 0.000000
21.852806 49.389874 -0.568722 0.000000
45.426220 58.906673 1.460897 0.000000
38.038120 55.436909 1.143382 0.000000
39.533997 56.940002 1.251635 0.000000
42.809414 60.274986 1.491073 0.000000
32.638432 49.918800 0.747546 0.000000
34.614494 51.930779 0.891998 0.000000
38.802284 56.216831 1.199346 0.000000
30.118454 55.789192 1.026630 0.000000
42.186802 59.637566 2.230937 0.000000
42.795425 60.257355 2.262166 0.000000
35.519749 52.848442 1.901743 0.000000
38.026035 55.421478 2.023764 0.000000
38.788002 56.176575 2.060484 0.000000
39.521183 56.923237 2.096741 0.000000
42.173035 59.618233 3.014918 0.000000
39.508507 56.908863 2.941384 0.000000
42.159218 59.602596 3.799326 0.000000
42.767456 60.222118 3.804059 0.000000
37.202831 54.554298 3.783689 0.000000
38.762997 56.143536 3.784673 0.000000
32.611221 49.877686 3.796985 0.000000
33.615128 50.866573 3.792603 0.000000
41.751507 59.247898 -0.282765 0.000000
40.457344 59.382961 -0.291113 0.000000
37.243786 59.789116 -0.313369 0.000000
36.542286 59.506176 -0.357140 0.000000
35.934620 59.820641 -0.339404 0.000000
33.412415 60.447819 -0.338709 0.000000
32.828014 60.771179 -0.322002 0.000000
32.045658 60.395729 -0.380495 0.000000
30.800278 60.808239 -0.374894 0.000000
29.270447 60.450226 -0.455578 0.000000
30.171103 60.995171 -0.374940 0.000000
28.623276 60.635712 -0.457324 0.000000
27.964874 60.799480 -0.462059 0.000000
25.787123 60.914158 -0.522604 0.000000
34.793251 60.692768 -0.279349 0.000000
34.216663 61.032806 -0.259794 0.000000
31.151497 48.015656 -0.542991 0.000000
34.482918 51.802967 -0.180418 0.000000
36.364319 53.747040 0.007632 0.000000
38.064346 55.444469 0.171800 0.000000
30.470562 48.864319 -0.490522 0.000000
29.794357 49.643108 -0.443747 0.000000
28.755495 49.106171 -0.507653 0.000000
27.086319 49.542576 -0.509946 0.000000
26.235971 49.723465 -0.514836 0.000000
25.318815 49.734467 -0.534746 0.000000
24.474476 49.962177 -0.536530 0.000000
23.590771 50.102386 -0.546330 0.000000
22.706280 50.258968 -0.555217 0.000000
21.804642 50.395004 -0.566433 0.000000
44.299057 60.032833 0.633085 0.000000
44.964787 59.374214 1.402260 0.000000
44.284336 60.041897 1.429908 0.000000
37.222878 54.589256 1.011906 0.000000
41.727634 59.195427 1.342769 0.000000
44.948784 59.384468 2.212148 0.000000
34.461414 51.738060 1.798418 0.000000
37.212955 54.568840 1.931129 0.000000
38.045841 55.423141 1.971758 0.000000
41.715549 59.161369 2.153564 0.000000
37.203876 54.555191 2.849923 0.000000
41.703869 59.145672 2.964850 0.000000
37.194771 54.541176 3.768778 0.000000
38.025913 55.388660 3.768135 0.000000
41.016346 58.441441 3.773324 0.000000
37.303925 60.406490 -0.340519 0.000000
36.709587 60.773815 -0.315396 0.000000
40.590725 60.827839 -0.236567 0.000000
31.968071 49.092358 -0.525876 0.000000
33.147923 50.463005 -0.394668 0.000000
34.211414 51.533878 -0.289892 0.000000
36.179337 53.518257 -0.096673 0.000000
40.358864 57.791031 0.313772 0.000000
31.272743 49.855755 -0.477688 0.000000
30.583984 50.567600 -0.433824 0.000000
29.551161 50.037304 -0.496055 0.000000
28.777790 50.435577 -0.479500 0.000000
27.065613 50.712765 -0.492019 0.000000
26.148457 50.708267 -0.511386 0.000000
25.296331 50.901714 -0.514032 0.000000
29.665548 55.847019 -0.031044 0.000000
24.407032 51.016323 -0.524038 0.000000
23.516750 51.149120 -0.532962 0.000000
22.607176 51.258663 -0.544477 0.000000
21.129827 50.189350 -0.661780 0.000000
43.759747 60.546379 0.583584 0.000000
43.121567 60.603081 0.579709 0.000000
44.406105 59.906513 1.354293 0.000000
43.748436 60.552208 1.383439 0.000000
40.351952 57.801651 1.176724 0.000000
29.670383 55.844261 0.919535 0.000000
43.737148 60.558029 2.180999 0.000000
45.073627 59.263340 2.151976 0.000000
37.084873 54.449860 1.877119 0.000000
38.785461 56.181057 1.959133 0.000000
40.341579 57.765499 2.035239 0.000000
42.450188 59.930813 2.140892 0.000000
45.060837 59.252789 2.976865 0.000000
44.381226 59.920235 2.976698 0.000000
38.778011 56.169361 2.855815 0.000000
40.332954 57.752769 2.894318 0.000000
38.769840 56.151104 3.752454 0.000000
35.218422 52.549458 -0.265747 0.000000
36.221157 53.538158 -0.168654 0.000000
40.596371 58.025162 0.265093 0.000000
42.088425 59.544514 0.410323 0.000000
32.226360 50.647999 -0.471841 0.000000
30.489639 50.797829 -0.491002 0.000000
29.772642 51.388729 -0.456432 0.000000
28.929453 51.558517 -0.458671 0.000000
28.072159 51.698837 -0.463890 0.000000
27.151197 51.682095 -0.483364 0.000000
26.293999 51.861233 -0.486106 0.000000
25.399281 51.962105 -0.496238 0.000000
24.503435 52.082157 -0.505186 0.000000
23.585436 52.173801 -0.517210 0.000000
22.105028 51.100048 -0.634832 0.000000
21.119656 51.154099 -0.651990 0.000000
35.216862 52.543221 0.749274 0.000000
42.781719 60.246681 1.304755 0.000000
43.454430 60.833042 1.348225 0.000000
41.344608 58.802670 2.059186 0.000000
42.773067 60.234131 2.129636 0.000000
44.081245 60.207294 2.968320 0.000000
37.176434 54.529903 2.815871 0.000000
38.954132 56.340591 2.856924 0.000000
45.426090 58.881584 3.816905 0.000000
38.948673 56.330872 3.772340 0.000000
37.172745 54.521770 3.775965 0.000000
38.067719 55.465519 -0.073684 0.000000
41.474110 58.931656 0.265712 0.000000
32.441986 52.356430 -0.425551 0.000000
31.408760 51.827824 -0.487795 0.000000
30.721081 52.501415 -0.444631 0.000000
29.896484 52.712612 -0.442533 0.000000
28.137129 52.856529 -0.464367 0.000000
27.281916 53.024734 -0.467377 0.000000
30.082565 55.812279 -0.183374 0.000000
26.389906 53.117485 -0.477645 0.000000
25.496708 53.229866 -0.486658 0.000000
23.105724 52.240501 -0.617520 0.000000
24.572155 53.294121 -0.500587 0.000000
22.118816 52.279770 -0.635483 0.000000
21.129467 52.344898 -0.651743 0.000000
33.911461 51.231575 0.578808 0.000000
36.099197 53.458099 0.742241 0.000000
39.844662 57.269638 1.022022 0.000000
41.467724 58.921284 1.143259 0.000000
42.227913 59.694954 1.200049 0.000000
30.084322 55.789700 0.814476 0.000000
38.061722 55.450180 1.849478 0.000000
43.623039 60.664371 2.944852 0.000000
42.942081 60.416569 2.933732 0.000000
33.916107 51.227123 2.715422 0.000000
36.098038 53.448071 2.763259 0.000000
36.097439 53.443008 3.772358 0.000000
35.834602 53.181973 -0.346671 0.000000
33.909794 52.354870 -0.449205 0.000000
30.620911 53.262135 -0.434264 0.000000
29.799726 53.499161 -0.430474 0.000000
28.028233 53.657379 -0.452612 0.000000
29.782652 55.913651 -0.230616 0.000000
27.136511 53.755436 -0.462725 0.000000
26.243647 53.872795 -0.471600 0.000000
25.318691 53.939926 -0.485620 0.000000
23.856874 52.898758 -0.602596 0.000000
22.871527 52.944004 -0.620391 0.000000
21.877010 53.001602 -0.637726 0.000000
20.874531 53.074326 -0.654350 0.000000
33.510223 50.770744 0.515262 0.000000
35.837738 53.190384 0.694552 0.000000
38.854225 56.229950 0.920917 0.000000
40.635139 58.065300 1.057103 0.000000
41.463188 58.908333 1.119780 0.000000
34.716446 52.028774 2.742107 0.000000
45.709953 58.612141 3.835308 0.000000
42.235226 59.683491 3.800210 0.000000
34.718315 52.025948 3.807068 0.000000
37.717442 55.092777 -0.171993 0.000000
34.575493 52.558323 -0.438447 0.000000
32.647648 52.108971 -0.511247 0.000000
27.739902 54.013966 -0.450619 0.000000
26.838451 54.134727 -0.459651 0.000000
25.910776 54.218231 -0.472641 0.000000
24.435068 53.168049 -0.590913 0.000000
23.440586 53.215584 -0.608997 0.000000
22.429890 53.261959 -0.627886 0.000000
21.418856 53.338894 -0.644643 0.000000
34.349926 51.657970 0.583169 0.000000
39.674248 57.081161 0.987067 0.000000
40.582031 58.005802 1.055931 0.000000
40.582413 58.031170 1.991629 0.000000
38.715126 56.095097 2.876980 0.000000
42.261341 59.707581 2.967325 0.000000
34.355728 51.653000 2.776552 0.000000
41.431015 58.857937 3.856527 0.000000
43.043488 60.500786 3.860284 0.000000
32.518333 52.776024 -0.479447 0.000000
30.174335 54.092648 -0.417270 0.000000
28.372768 54.320488 -0.436095 0.000000
29.949928 55.930683 -0.270214 0.000000
27.463644 54.445690 -0.445260 0.000000
25.045944 53.489929 -0.576687 0.000000
26.533884 54.545971 -0.457258 0.000000
24.043922 53.541901 -0.594937 0.000000
23.024532 53.590446 -0.614212 0.000000
21.999269 53.659412 -0.632316 0.000000
20.961679 53.736771 -0.650385 0.000000
39.558140 56.960869 0.980359 0.000000
37.497585 54.857967 1.857641 0.000000
45.147018 59.162231 3.023542 0.000000
41.411427 58.868652 2.986292 0.000000
37.500191 54.867245 2.890297 0.000000
42.262829 59.703041 3.917517 0.000000
32.293011 56.054688 -0.389647 0.000000
28.888510 56.720100 -0.414153 0.000000
27.978601 56.792126 -0.430513 0.000000
26.576355 55.848404 -0.545218 0.000000
25.624445 55.929981 -0.562494 0.000000
24.657557 56.009052 -0.580704 0.000000
23.680920 56.097599 -0.598717 0.000000
22.699400 56.204876 -0.615636 0.000000
21.700609 56.309395 -0.633594 0.000000
35.943794 53.221836 0.548409 0.000000
38.257732 55.619232 0.739528 0.000000
35.956436 53.269157 1.646674 0.000000
40.302410 57.664650 1.884440 0.000000
37.135971 54.466385 2.772262 0.000000
45.097149 59.201756 3.876174 0.000000
42.149014 59.571865 3.850389 0.000000
40.297920 57.684673 3.841140 0.000000
41.242321 58.626919 3.845430 0.000000
45.234768 59.107414 0.123735 0.000000
37.202900 55.395462 -0.356643 0.000000
32.090179 56.324215 -0.394991 0.000000
30.702971 57.502220 -0.329244 0.000000
29.551075 56.990128 -0.401122 0.000000
28.632759 57.073429 -0.417316 0.000000
27.211868 56.119640 -0.533836 0.000000
26.249348 56.207977 -0.551421 0.000000
25.271931 56.293884 -0.569943 0.000000
24.278200 56.377037 -0.589478 0.000000
23.284992 56.489449 -0.606910 0.000000
22.275778 56.601418 -0.625169 0.000000
21.309185 56.811142 -0.634496 0.000000
36.910690 54.248657 0.635634 0.000000
38.093147 55.453548 0.732260 0.000000
35.650181 52.947330 1.659506 0.000000
42.203915 59.616859 2.021116 0.000000
30.051954 55.863247 1.733397 0.000000
43.839607 60.458157 3.007896 0.000000
35.654453 52.958450 2.785550 0.000000
39.203186 56.586620 2.885187 0.000000
43.832653 60.463413 3.936356 0.000000
45.195988 59.121258 3.950380 0.000000
44.504795 59.799824 3.942843 0.000000
41.244926 58.650536 3.921124 0.000000
42.192818 59.618065 3.925618 0.000000
23.976677 55.050694 -0.585824 0.000000
22.917782 55.135353 -0.605500 0.000000
21.849113 55.234104 -0.624652 0.000000
20.826454 55.438953 -0.634420 0.000000
45.247623 59.077263 0.199613 0.000000
31.326796 55.356098 -0.386424 0.000000
30.747065 56.327747 -0.319570 0.000000
29.903627 56.628429 -0.314268 0.000000
28.576420 55.864880 -0.407903 0.000000
27.069492 54.823631 -0.528876 0.000000
26.059906 54.911308 -0.545996 0.000000
25.027369 54.982681 -0.565368 0.000000
36.559830 53.919243 0.735034 0.000000
44.533428 59.764896 2.178165 0.000000
33.804649 51.107185 1.722112 0.000000
45.224895 59.074741 3.135336 0.000000
43.096039 60.546028 3.144519 0.000000
45.218063 59.080402 4.111146 0.000000
44.683758 61.032810 4.101458 0.000000
43.838398 60.408543 4.098587 0.000000
41.151958 58.581524 4.094464 0.000000
42.230495 60.049301 4.093298 0.000000
34.401413 60.956547 4.114280 0.000000
35.838055 54.613995 4.107492 0.000000
25.864784 55.606262 -0.552279 0.000000
24.810341 55.682362 -0.572940 0.000000
23.738995 55.759274 -0.594338 0.000000
22.666891 55.866539 -0.613663 0.000000
21.641010 56.079842 -0.623551 0.000000
33.723846 54.784603 -0.431718 0.000000
32.159473 55.850368 -0.379324 0.000000
30.740194 57.177158 -0.303399 0.000000
26.901339 55.526993 -0.532699 0.000000
34.843689 52.164253 0.578470 0.000000
45.329029 58.983578 2.166130 0.000000
33.326683 50.614616 1.700952 0.000000
44.614662 59.678116 3.174735 0.000000
42.190422 59.636936 3.155092 0.000000
43.186256 60.650928 3.181569 0.000000
45.321823 58.983974 3.168227 0.000000
33.333828 50.616226 2.940640 0.000000
45.478523 60.256805 4.166981 0.000000
44.788837 60.907936 4.160818 0.000000
40.481361 59.346535 4.151807 0.000000
41.535870 60.386684 4.150714 0.000000
27.579231 55.783352 -0.515728 0.000000
26.525757 55.862659 -0.535492 0.000000
25.454050 55.938683 -0.556355 0.000000
23.265236 56.106102 -0.599123 0.000000
22.221874 56.321365 -0.609091 0.000000
21.064838 56.380810 -0.635037 0.000000
44.004166 60.286461 0.219406 0.000000
43.280197 60.771183 0.246075 0.000000
35.351646 54.594521 -0.432104 0.000000
31.983778 56.277721 -0.369234 0.000000
30.346798 57.182114 -0.333677 0.000000
34.410061 51.735565 0.553374 0.000000
45.414585 58.888340 2.193456 0.000000
44.696480 59.593349 2.213602 0.000000
43.991638 60.278732 3.237629 0.000000
39.922001 57.299850 3.157019 0.000000
42.221291 59.689800 3.214977 0.000000
32.772102 50.012108 2.993264 0.000000
44.890640 60.832256 4.243000 0.000000
40.437031 59.311520 4.239357 0.000000
41.562271 60.457577 4.236800 0.000000
39.242172 58.094532 4.243049 0.000000
29.649052 56.482029 -0.406280 0.000000
27.101460 55.793442 -0.524617 0.000000
26.001564 55.868641 -0.546101 0.000000
24.881235 55.940018 -0.568797 0.000000
23.744331 56.016811 -0.591868 0.000000
22.674143 56.237106 -0.602081 0.000000
21.486462 56.296257 -0.628680 0.000000
45.591274 58.742599 0.121769 0.000000
42.356083 59.835915 0.150480 0.000000
32.653717 56.117222 -0.364832 0.000000
44.850571 59.443478 1.219502 0.000000
44.135033 60.145695 1.251996 0.000000
38.600342 55.991009 2.070611 0.000000
39.927601 57.341686 2.136826 0.000000
34.052460 51.364677 3.126327 0.000000
31.030167 57.839668 -0.377096 0.000000
29.570265 57.079323 -0.477373 0.000000
28.502392 57.176979 -0.497604 0.000000
26.312057 57.363026 -0.541428 0.000000
25.186378 57.450665 -0.565187 0.000000
24.124138 57.675488 -0.576474 0.000000
22.954199 57.753975 -0.602986 0.000000
21.760445 57.831886 -0.630615 0.000000
43.588791 60.713364 0.160243 0.000000
41.270859 58.682812 -0.059861 0.000000
42.518116 59.953632 0.073591 0.000000
44.296764 60.004547 2.264390 0.000000
33.621033 50.849445 1.778300 0.000000
30.095510 55.800674 1.957446 0.000000
45.021526 59.286224 3.326602 0.000000
44.292870 60.001087 3.334897 0.000000
41.262672 58.646713 3.289993 0.000000
30.100912 55.777916 3.215791 0.000000
38.746712 56.743862 -0.312622 0.000000
30.551184 57.605385 -0.451859 0.000000
28.382612 57.838181 -0.492222 0.000000
24.999538 58.184814 -0.559532 0.000000
23.864876 58.351505 -0.578844 0.000000
22.658020 58.438377 -0.607053 0.000000
21.499130 58.631927 -0.625731 0.000000
45.203415 59.108147 0.032172 0.000000
44.455654 59.849529 0.077189 0.000000
39.954628 57.360901 -0.232732 0.000000
43.719299 60.564297 1.222298 0.000000
29.689640 55.834335 0.688688 0.000000
45.188911 59.099361 3.401415 0.000000
44.444344 59.838436 3.409886 0.000000
41.367645 58.784767 3.370897 0.000000
39.242615 56.683052 -0.292117 0.000000
38.043625 56.235428 -0.357574 0.000000
28.610588 57.573750 -0.492576 0.000000
26.309801 57.770779 -0.540473 0.000000
23.972656 58.040241 -0.585211 0.000000
22.759285 58.155140 -0.611055 0.000000
21.575619 58.348846 -0.630195 0.000000
42.133617 59.554523 0.011381 0.000000
43.439083 60.835644 0.146643 0.000000
45.676796 58.609123 3.462735 0.000000
43.433861 60.818550 3.489438 0.000000
37.199982 55.508636 -0.373650 0.000000
27.387209 56.901794 -0.509639 0.000000
24.989700 57.120522 -0.557203 0.000000
23.761162 57.234230 -0.582083 0.000000
22.504478 57.340919 -0.608716 0.000000
21.278805 57.530205 -0.628446 0.000000
45.401031 58.909435 0.084679 0.000000
44.628712 59.653221 2.435252 0.000000
43.878162 60.389744 3.594403 0.000000
32.095341 55.889530 -0.449079 0.000000
27.591604 56.649418 -0.503758 0.000000
25.143791 56.859158 -0.552082 0.000000
23.881805 56.956959 -0.578451 0.000000
22.596306 57.056717 -0.605735 0.000000
21.342365 57.241241 -0.625999 0.000000
45.083824 59.229610 0.115557 0.000000
44.314083 59.984577 0.160257 0.000000
43.559227 60.725098 0.203753 0.000000
40.780922 58.174679 3.616484 0.000000
44.362354 59.928909 0.036808 0.000000
40.635155 58.043720 -0.205614 0.000000
42.252525 59.691761 -0.032506 0.000000
28.075748 58.573097 -0.494741 0.000000
26.877995 58.721741 -0.516963 0.000000
21.880466 59.336563 -0.614488 0.000000
43.589539 60.686764 0.080384 0.000000
44.361549 59.923653 1.243923 0.000000
45.603008 58.713486 -0.002954 0.000000
39.701347 57.085556 -0.271152 0.000000
41.441013 58.857468 -0.087180 0.000000
43.055962 60.503735 0.083340 0.000000
30.549200 57.815292 -0.446735 0.000000
28.103195 58.023338 -0.496929 0.000000
26.873100 58.168468 -0.519629 0.000000
21.734837 58.765404 -0.619667 0.000000
43.072861 60.542332 1.309996 0.000000
45.263481 59.059685 0.046158 0.000000
44.454098 59.843266 0.090178 0.000000
40.546417 57.906635 -0.156057 0.000000
38.969749 56.761257 -0.285192 0.000000
42.258595 59.609280 0.020170 0.000000
37.742653 56.616673 -0.326893 0.000000
27.047874 57.847095 -0.513021 0.000000
25.760429 57.974648 -0.539272 0.000000
21.802628 58.438240 -0.617180 0.000000
45.260124 59.045105 1.305543 0.000000
39.624809 59.083076 -0.273033 0.000000
38.586208 59.378918 -0.277761 0.000000
28.138199 60.866020 -0.464791 0.000000
44.399582 59.876820 1.206792 0.000000
40.159023 57.495392 0.982562 0.000000
38.696167 58.523701 -0.279171 0.000000
29.120094 59.749748 -0.452686 0.000000
27.846695 59.914181 -0.477668 0.000000
26.558044 60.089970 -0.502671 0.000000
41.035458 58.419495 1.141079 0.000000
42.927574 60.382141 1.291459 0.000000
41.875946 59.247906 -0.091898 0.000000
27.648106 59.053333 -0.492467 0.000000
26.241192 59.109177 -0.529022 0.000000
20.816826 60.028793 -0.620722 0.000000
41.884140 59.249130 1.272588 0.000000
20.845654 59.771091 -0.622047 0.000000
26.413807 58.911579 -0.522531 0.000000
21.319111 60.121651 -0.606766 0.000000
34.495102 57.673038 -0.414119 0.000000
29.653954 58.959099 -0.449765 0.000000
26.863434 59.171112 -0.513874 0.000000
25.565487 59.481625 -0.528242 0.000000
36.829391 54.063568 0.922149 0.000000
44.715195 59.609726 -0.027009 0.000000
27.455559 59.549049 -0.508277 0.000000
26.190792 59.920799 -0.517814 0.000000
42.308517 59.602791 1.327673 0.000000
45.106255 60.623539 4.173994 0.000000
40.671227 60.637512 -0.214085 0.000000
38.775360 59.308495 -0.374030 0.000000
37.674683 58.894581 -0.380730 0.000000
45.215126 59.051582 -0.119922 0.000000
43.389366 60.826614 -0.032128 0.000000
45.578941 58.682274 -0.273978 0.000000
44.645317 59.597603 -0.228093 0.000000
45.579430 58.671623 1.243608 0.000000
43.443794 60.775650 1.049812 0.000000
24.528069 38.468323 -0.636324 0.000000
21.437168 55.681320 -0.615011 0.000000
21.721035 58.286064 -0.622334 0.000000
26.108879 60.863686 -0.486046 0.000000
41.387745 49.694092 4.266703 0.000000
45.246067 59.275558 -0.415051 0.000000
45.599220 58.687958 3.304745 0.000000
45.450699 58.861862 1.193956 0.000000
45.444363 58.850212 3.347002 0.000000
44.178955 60.091522 3.364073 0.000000
44.624580 59.687431 0.989368 0.000000
44.628197 59.665588 3.172315 0.000000
44.941700 59.391014 0.811879 0.000000
43.639214 60.666588 0.853900 0.000000
44.948425 59.363708 3.036891 0.000000
43.647522 60.639717 3.069862 0.000000
45.278057 59.044937 1.014066 0.000000
39.707741 57.032425 0.776474 0.000000
43.964375 60.333931 1.057028 0.000000
45.286827 59.016998 3.260081 0.000000
39.772205 57.084641 3.127674 0.000000
43.973938 60.305283 3.293848 0.000000
33.464439 50.855003 0.934560 0.000000
45.522465 58.795364 1.523001 0.000000
40.950180 58.474564 1.451647 0.000000
44.194344 60.098953 1.581196 0.000000
33.644653 51.021248 3.507347 0.000000
45.548203 58.751434 3.798913 0.000000
41.104755 58.620667 3.794169 0.000000
44.220520 60.054443 3.848207 0.000000
34.501854 51.913605 0.489561 0.000000
41.943993 59.402588 1.030642 0.000000
44.432884 59.845619 1.080378 0.000000
34.770645 52.175240 3.050025 0.000000
44.470482 59.789528 3.362463 0.000000
42.162197 59.614059 3.362084 0.000000
34.215706 51.576393 0.566503 0.000000
42.239960 59.743958 1.153048 0.000000
44.499214 59.803528 1.182973 0.000000
42.431129 59.926987 3.487572 0.000000
34.454353 51.806107 3.149623 0.000000
44.530140 59.752937 3.479338 0.000000
33.369568 54.549477 -0.584085 0.000000
29.930145 56.767052 -0.469811 0.000000
32.765953 57.094017 -0.406886 0.000000
45.689198 58.658493 -0.125333 0.000000
41.048641 58.474617 -0.196549 0.000000
44.342060 59.979630 -0.044457 0.000000
45.731556 58.597237 2.194025 0.000000
41.328728 58.748253 2.201088 0.000000
44.385269 59.917564 2.266759 0.000000
44.896271 49.801872 4.198490 0.000000
40.241039 49.912209 4.254553 0.000000
42.604485 49.876152 4.226441 0.000000
36.077263 56.835976 -0.523859 0.000000
39.105072 57.637894 -0.436787 0.000000
35.096382 58.813988 -0.377646 0.000000
32.999321 59.349159 -0.354106 0.000000
44.949543 59.379776 -0.255663 0.000000
43.601234 60.702080 -0.161548 0.000000
36.463860 53.803230 1.781619 0.000000
45.005947 59.306351 2.073256 0.000000
43.657646 60.626678 2.159845 0.000000
32.607788 48.263687 4.147083 0.000000
35.585403 48.806137 4.118224 0.000000
38.416466 49.263069 4.089063 0.000000
20.925545 44.061661 -0.799983 0.000000
25.508102 46.122345 -0.642529 0.000000
29.128250 47.166183 -0.563594 0.000000
37.208176 54.512817 -0.003849 0.000000
45.199097 59.120384 0.343332 0.000000
43.843185 60.450485 0.447773 0.000000
45.266464 59.034470 2.687016 0.000000
37.696907 54.988747 2.550278 0.000000
43.911140 60.364052 2.784162 0.000000
28.456474 57.815514 -0.579922 0.000000
32.635483 59.576767 -0.450636 0.000000
35.480293 59.903938 -0.443819 0.000000
43.471832 60.851669 -0.426336 0.000000
34.350174 51.527832 1.431334 0.000000
29.829277 55.945595 1.864592 0.000000
44.922142 59.394905 1.791894 0.000000
43.562088 60.728088 1.922548 0.000000
45.604706 60.129219 4.173560 0.000000
43.910580 60.964546 4.280350 0.000000
34.783333 51.833740 4.071711 0.000000
26.961792 58.111351 -0.572926 0.000000
30.747330 59.259605 -0.512331 0.000000
39.115448 56.451378 1.608320 0.000000
45.572983 58.742729 1.612995 0.000000
44.201668 60.087921 1.759913 0.000000
44.918720 60.802246 4.155134 0.000000
33.882835 52.658028 4.093095 0.000000
39.553070 56.743332 4.118325 0.000000
25.936424 52.309555 -0.630252 0.000000
29.869392 53.564713 -0.581620 0.000000
33.556450 54.708046 -0.540038 0.000000
32.781273 55.575668 -0.537530 0.000000
30.317459 55.950836 -0.462199 0.000000
36.756165 57.146820 -0.452903 0.000000
45.528183 58.815628 -0.442031 0.000000
40.614929 58.779404 -0.361274 0.000000
44.132721 60.169525 -0.287866 0.000000
38.986443 56.388054 1.991561 0.000000
45.635551 58.674934 1.969667 0.000000
44.246964 60.037018 2.118300 0.000000
42.484146 53.998138 4.244389 0.000000
28.242569 55.438568 -0.534021 0.000000
34.252472 55.839569 -0.557731 0.000000
31.633408 56.029343 -0.514163 0.000000
38.463058 57.711800 -0.432218 0.000000
44.860832 59.467049 -0.342250 0.000000
43.465134 60.836044 -0.202474 0.000000
44.962418 59.346344 2.086704 0.000000
43.567406 60.714737 2.220933 0.000000
42.547630 52.394951 4.225364 0.000000
28.077980 57.142464 -0.482955 0.000000
34.595711 58.031212 -0.456648 0.000000
37.420197 58.156578 -0.469623 0.000000
41.047493 59.385506 -0.391295 0.000000
32.682320 59.025475 -0.351892 0.000000
44.169266 60.146660 -0.351293 0.000000
38.152115 55.523582 1.904851 0.000000
30.062119 55.830376 2.110778 0.000000
45.677742 58.646233 1.961717 0.000000
44.269882 60.027031 2.094314 0.000000
35.968559 45.349419 4.031194 0.000000
23.728104 43.970650 -0.768612 0.000000
27.741577 45.019333 -0.743951 0.000000
44.880333 59.442085 0.239388 0.000000
43.465355 60.828217 0.387633 0.000000
44.992226 59.311073 2.704512 0.000000
43.577721 60.696716 2.847900 0.000000
