# .PCD v0.7 - Point Cloud Data file format
VERSION 0.7
FIELDS x y z intensity
SIZE 4 4 4 4
TYPE F F F F
COUNT 1 1 1 1
WIDTH 1225
HEIGHT 1
VIEWPOINT 0 0 0 1 0 0 0
POINTS 1225
DATA ascii
69.591743 137.158220 7.805624 0.000000
70.505318 137.856320 7.648668 0.000000
70.593369 140.652210 7.766145 0.000000
66.388138 137.619640 7.349803 0.000000
66.739037 137.944210 7.697106 0.000000
67.152023 138.204880 7.728236 0.000000
67.482101 138.520630 7.614095 0.000000
67.685394 138.793120 7.810102 0.000000
69.075180 140.202970 7.687475 0.000000
69.332932 140.260800 7.697239 0.000000
66.088699 137.621170 7.510022 0.000000
66.339287 137.894670 7.698954 0.000000
66.834854 138.273410 7.744738 0.000000
64.309135 136.684220 7.589614 0.000000
65.181374 137.424970 7.344759 0.000000
65.474823 137.645540 7.528356 0.000000
68.011444 140.026840 7.659946 0.000000
69.312912 141.289550 7.840221 0.000000
64.066620 136.688980 7.439572 0.000000
64.767830 137.345000 7.343027 0.000000
69.928436 142.369060 7.998234 0.000000
62.488796 136.363680 7.285641 0.000000
63.120628 137.255190 7.371630 0.000000
66.339279 140.377730 7.712830 0.000000
67.795105 141.338230 7.838942 0.000000
66.765526 140.809020 7.768282 0.000000
63.261013 138.352890 7.500610 0.000000
63.463600 138.553770 7.520644 0.000000
66.665649 141.742840 7.894540 0.000000
67.027962 141.665510 7.883384 0.000000
61.166058 136.805330 7.378447 0.000000
64.138008 140.094880 7.701245 0.000000
69.736725 137.382750 7.844471 0.000000
69.870934 137.659090 7.893262 0.000000
69.651703 139.114440 8.158709 0.000000
66.296082 137.933760 8.021816 0.000000
66.908646 138.361710 8.074373 0.000000
67.143997 138.719880 8.129359 0.000000
64.320923 136.641600 7.901366 0.000000
64.562958 136.741270 7.904159 0.000000
65.691010 137.724810 8.010107 0.000000
67.260391 139.056050 8.184735 0.000000
67.358582 139.451900 8.251547 0.000000
67.790741 139.776110 8.299802 0.000000
67.975082 140.071290 8.006396 0.000000
70.531990 142.285280 8.367871 0.000000
64.017288 136.605710 7.912333 0.000000
67.746902 141.412830 8.219194 0.000000
67.983498 141.614400 8.249826 0.000000
66.895363 141.178450 8.189985 0.000000
61.305332 136.280640 7.672858 0.000000
61.562683 136.430850 7.678867 0.000000
63.328949 138.685760 7.905174 0.000000
62.131004 138.283920 7.896407 0.000000
69.444748 138.184370 8.285739 0.000000
69.154610 139.805690 8.618088 0.000000
65.452385 136.768570 8.171556 0.000000
69.589157 141.217620 8.542639 0.000000
64.380455 136.544430 8.200809 0.000000
64.627472 136.635510 8.199989 0.000000
65.703873 137.897430 8.362688 0.000000
66.040367 138.074480 8.378518 0.000000
66.355225 138.285190 8.403391 0.000000
66.635750 138.558880 8.443062 0.000000
66.786690 138.815460 8.486057 0.000000
67.559700 139.602020 8.612474 0.000000
67.731590 139.870380 8.660572 0.000000
67.941055 140.086240 8.525237 0.000000
70.736778 142.722000 8.825802 0.000000
63.948952 136.651950 8.249015 0.000000
66.683907 139.578460 8.636929 0.000000
69.699120 141.926470 8.672648 0.000000
69.912766 142.290360 8.740122 0.000000
70.426865 142.742870 8.826765 0.000000
67.909782 140.938690 8.504719 0.000000
65.225624 140.520160 8.495266 0.000000
62.932892 139.138150 8.363806 0.000000
66.346146 142.359770 8.783951 0.000000
63.033638 139.493130 8.415185 0.000000
69.583847 141.175000 8.892794 0.000000
68.951004 141.340820 8.932430 0.000000
69.833115 142.559660 9.176586 0.000000
70.092735 142.783920 9.222937 0.000000
67.878433 141.794080 9.040828 0.000000
70.705132 144.840730 9.219032 0.000000
66.281479 141.009320 8.928630 0.000000
62.203796 138.139220 8.624847 0.000000
59.006031 136.108340 8.573962 0.000000
61.217640 138.732130 8.796164 0.000000
62.393288 139.763760 8.891457 0.000000
69.673363 136.235050 4.729632 0.000000
69.907822 136.377930 4.745213 0.000000
70.213257 136.583910 4.762732 0.000000
70.583206 136.877270 4.778700 0.000000
67.868149 136.290560 4.778910 0.000000
68.105652 136.478270 4.797181 0.000000
68.337425 136.674420 4.813785 0.000000
68.738586 136.984480 4.841529 0.000000
69.064163 137.229720 4.862583 0.000000
69.399185 137.463870 4.883437 0.000000
69.801605 137.799160 4.903989 0.000000
70.042908 138.013110 4.914462 0.000000
70.373451 138.296110 4.927943 0.000000
70.714546 138.577160 4.940767 0.000000
70.000298 140.066450 5.114183 0.000000
70.193886 140.235810 5.122448 0.000000
70.506683 140.445110 5.136989 0.000000
69.781685 139.965610 5.101767 0.000000
65.774017 136.356140 4.831585 0.000000
65.909058 136.542850 4.843120 0.000000
66.188171 136.744140 4.868155 0.000000
66.440186 136.972840 4.889518 0.000000
66.849457 137.368190 4.922042 0.000000
67.303185 137.711260 4.957459 0.000000
67.480286 137.854570 4.970491 0.000000
67.748764 138.067150 4.989637 0.000000
68.106842 138.354340 5.013935 0.000000
68.476151 138.630050 5.038035 0.000000
68.733376 138.877720 5.052636 0.000000
68.990112 139.138340 5.065988 0.000000
69.257996 139.388350 5.079769 0.000000
69.531006 139.642550 5.092922 0.000000
68.640839 140.644320 5.325446 0.000000
63.440151 136.454540 4.916308 0.000000
66.380226 139.369200 5.171428 0.000000
67.091919 139.948640 5.222393 0.000000
67.372841 140.244920 5.241231 0.000000
67.551842 140.463960 5.252695 0.000000
67.941444 140.864790 5.277119 0.000000
68.175117 140.997310 5.291957 0.000000
69.199341 142.055040 5.348964 0.000000
69.876053 142.659900 5.383512 0.000000
70.578896 143.310640 5.416168 0.000000
62.964020 136.163450 4.870192 0.000000
63.528702 136.717090 4.926876 0.000000
63.782890 137.013610 4.951878 0.000000
64.060478 137.289030 4.978140 0.000000
64.335747 137.565260 5.003461 0.000000
64.622871 137.828890 5.029116 0.000000
65.003677 138.181150 5.062065 0.000000
65.196266 138.354800 5.078263 0.000000
65.585396 138.697910 5.110077 0.000000
65.870438 138.964970 5.132589 0.000000
66.146225 139.247940 5.153782 0.000000
67.723770 140.703510 5.263248 0.000000
68.729523 141.741230 5.322331 0.000000
68.958549 141.909840 5.335332 0.000000
69.394554 142.326750 5.358276 0.000000
69.615051 142.546480 5.369308 0.000000
70.310211 143.192640 5.402561 0.000000
68.079109 144.837570 5.668605 0.000000
67.546410 144.406010 5.634855 0.000000
67.736992 144.799680 5.649735 0.000000
68.284058 145.231960 5.683762 0.000000
68.540329 145.512920 5.700170 0.000000
68.801682 145.798360 5.716630 0.000000
69.382790 146.242490 5.750484 0.000000
69.622833 146.670550 5.766483 0.000000
69.909218 146.968700 5.783268 0.000000
70.178894 147.368120 5.799906 0.000000
70.533875 147.437560 5.817353 0.000000
68.920868 140.612200 5.666714 0.000000
68.597343 140.693020 5.649553 0.000000
63.491814 136.387040 5.244124 0.000000
60.160320 136.682300 5.007918 0.000000
59.631126 136.279850 4.956711 0.000000
59.844463 136.514980 4.979572 0.000000
60.173687 137.042530 5.018933 0.000000
60.412334 137.255800 5.042350 0.000000
60.914982 137.653870 5.089579 0.000000
61.130291 137.874880 5.110784 0.000000
61.779297 138.526250 5.172929 0.000000
62.106380 138.845290 5.203214 0.000000
62.434654 139.161290 5.233050 0.000000
62.875610 139.576830 5.272084 0.000000
63.222073 139.870820 5.301436 0.000000
63.544518 140.189790 5.329197 0.000000
64.111229 140.690800 5.375604 0.000000
64.454536 140.988890 5.402971 0.000000
65.035957 141.478880 5.447823 0.000000
65.375061 141.792040 5.473774 0.000000
65.575195 142.045470 5.489843 0.000000
65.730713 142.378650 5.504126 0.000000
66.091270 142.683720 5.529977 0.000000
66.411850 143.073910 5.554144 0.000000
66.629639 143.337190 5.570215 0.000000
68.945122 138.829190 6.220920 0.000000
70.054832 141.203110 6.059569 0.000000
68.926071 140.536710 6.147366 0.000000
68.402557 140.438420 6.121385 0.000000
68.955063 141.085600 6.337616 0.000000
63.560181 136.293670 5.727780 0.000000
63.603104 136.602170 5.581696 0.000000
68.433594 140.992020 5.978537 0.000000
69.497742 141.894670 6.399669 0.000000
69.866631 142.514850 6.445470 0.000000
63.511753 136.650480 5.904914 0.000000
66.504417 141.038480 6.243316 0.000000
65.971550 141.343520 6.239066 0.000000
69.812286 136.940460 6.398433 0.000000
69.997818 137.215420 6.423034 0.000000
70.463860 137.373990 6.447457 0.000000
68.155319 137.130740 6.368578 0.000000
67.758263 136.957260 6.346724 0.000000
68.443703 137.462360 6.399035 0.000000
68.676636 137.903980 6.436092 0.000000
65.345970 136.983410 6.292516 0.000000
63.593861 136.228230 6.205451 0.000000
63.847549 136.679780 6.240211 0.000000
62.920013 136.421390 6.204373 0.000000
64.511559 138.202510 6.355929 0.000000
64.728226 138.757690 6.398396 0.000000
67.833290 137.374770 6.651260 0.000000
68.201462 137.607850 6.676485 0.000000
68.401421 137.904460 6.705538 0.000000
67.454155 137.153460 6.627596 0.000000
68.514580 138.144260 6.728576 0.000000
68.500816 138.615740 6.770538 0.000000
65.846306 137.122970 6.609889 0.000000
65.605843 137.032490 6.600517 0.000000
69.211494 140.415080 6.946575 0.000000
63.879951 136.625760 6.557602 0.000000
68.010437 141.111790 6.987468 0.000000
69.257721 142.422360 7.132584 0.000000
69.458321 142.705280 7.163317 0.000000
69.651764 143.030730 7.198056 0.000000
70.040939 143.763870 7.275930 0.000000
70.259178 144.103440 7.313273 0.000000
67.768936 137.825870 6.973465 0.000000
67.275063 137.720670 7.108002 0.000000
67.999458 138.302990 7.024713 0.000000
66.175713 137.256550 6.918757 0.000000
66.530495 137.456830 7.084947 0.000000
69.231789 140.326250 7.255249 0.000000
65.642189 137.138920 6.910491 0.000000
66.124489 137.466670 7.240450 0.000000
66.331207 137.996150 6.993455 0.000000
66.721825 138.282910 7.022136 0.000000
65.130859 137.145520 6.915241 0.000000
68.173279 140.180860 7.229569 0.000000
69.107285 141.265950 7.359163 0.000000
63.968498 136.690730 6.883621 0.000000
67.973846 141.141050 7.333842 0.000000
66.711739 141.122910 7.324343 0.000000
67.230286 141.357010 7.352383 0.000000
69.885033 136.890590 7.367079 0.000000
70.063065 136.964720 7.375908 0.000000
69.689499 137.019150 7.639229 0.000000
70.053864 137.388370 7.693706 0.000000
70.267654 137.638750 7.732887 0.000000
70.502090 140.439040 7.595516 0.000000
67.031754 138.205780 7.616505 0.000000
67.357002 138.363140 7.630618 0.000000
69.261375 140.195620 7.713290 0.000000
65.852379 137.581500 7.413864 0.000000
66.484993 137.937410 7.594701 0.000000
64.191772 136.611830 7.507842 0.000000
64.341850 136.814000 7.526432 0.000000
64.934509 137.314530 7.248945 0.000000
65.251350 137.511370 7.422678 0.000000
65.590088 137.676360 7.588711 0.000000
67.349121 139.527510 7.475671 0.000000
68.143105 140.198230 7.556796 0.000000
69.058258 141.334590 7.706090 0.000000
70.708618 142.391190 7.862849 0.000000
64.118408 136.702270 7.201970 0.000000
64.641251 137.250760 7.248956 0.000000
64.940048 137.639310 7.607826 0.000000
69.262840 141.545730 7.735083 0.000000
69.605080 142.189580 7.823544 0.000000
67.914734 141.214160 7.689274 0.000000
63.072792 137.250400 7.291846 0.000000
66.473831 140.409230 7.594827 0.000000
67.116844 140.946750 7.657891 0.000000
63.259163 138.195010 7.390662 0.000000
64.049362 138.996310 7.462912 0.000000
66.617325 141.239490 7.698542 0.000000
70.199043 148.414050 8.197402 0.000000
70.561249 148.543010 8.220940 0.000000
69.655334 137.697250 8.020611 0.000000
67.004036 138.212660 7.922563 0.000000
67.255852 138.478160 7.955535 0.000000
66.138824 137.760410 7.889302 0.000000
66.384705 137.840870 7.890406 0.000000
67.453918 138.832240 8.005866 0.000000
64.269447 136.517940 7.809503 0.000000
64.459976 136.681060 7.820689 0.000000
67.665390 139.920270 8.178785 0.000000
67.915756 140.038710 7.863504 0.000000
69.377647 141.212970 8.027749 0.000000
69.038742 141.333130 8.047563 0.000000
69.444412 141.777100 8.114698 0.000000
62.414272 136.354920 7.562360 0.000000
61.520691 136.300920 7.602642 0.000000
66.243553 140.725020 7.995048 0.000000
66.881348 141.031650 8.027111 0.000000
63.256527 138.557010 7.793758 0.000000
61.591991 137.685840 7.760538 0.000000
70.158440 146.900890 8.471241 0.000000
69.528175 138.939670 8.262124 0.000000
70.692528 140.490490 8.545463 0.000000
70.382927 140.633180 8.577195 0.000000
69.230415 140.157730 8.505026 0.000000
66.747620 138.531480 8.298960 0.000000
64.337341 136.432790 8.109804 0.000000
64.693520 136.775620 8.135861 0.000000
65.577667 137.815980 8.243904 0.000000
66.896019 138.747420 8.329780 0.000000
67.024704 138.998090 8.368477 0.000000
67.669342 139.625260 8.454864 0.000000
67.843300 140.090790 8.534946 0.000000
70.644539 142.486310 8.586245 0.000000
64.228989 136.860500 8.184318 0.000000
68.079338 140.806110 8.317657 0.000000
69.004341 141.342190 8.567057 0.000000
69.413795 141.804840 8.469727 0.000000
66.969208 140.574750 8.307643 0.000000
62.979782 138.791170 8.207489 0.000000
61.780830 137.884860 8.153909 0.000000
62.578278 138.765300 8.226973 0.000000
63.122723 139.482590 8.300234 0.000000
61.287991 137.891720 8.187012 0.000000
70.654160 142.388700 8.926071 0.000000
69.633690 141.948580 8.847883 0.000000
67.680359 140.942110 8.700979 0.000000
68.976837 142.099370 8.888799 0.000000
64.198936 138.342580 8.423069 0.000000
67.911552 141.710070 8.839626 0.000000
70.002937 143.556520 9.164137 0.000000
64.362686 138.564990 8.448456 0.000000
61.953701 138.096180 8.552459 0.000000
62.358902 139.353440 8.717081 0.000000
62.462379 139.682890 8.762516 0.000000
70.386429 147.300050 9.453040 0.000000
60.678982 138.332570 8.692123 0.000000
60.846256 138.604780 8.718677 0.000000
69.509918 136.085280 4.720727 0.000000
69.776054 136.324230 4.743176 0.000000
70.073616 136.524580 4.769855 0.000000
70.389084 136.849500 4.790106 0.000000
70.646805 137.111880 4.804764 0.000000
68.042778 136.218750 4.771293 0.000000
68.382690 136.580490 4.802688 0.000000
68.816704 136.988360 4.841373 0.000000
69.061485 137.159810 4.863456 0.000000
69.339531 137.447310 4.884301 0.000000
69.629219 137.725660 4.905210 0.000000
69.840630 137.946750 4.918856 0.000000
69.954300 138.139180 4.922861 0.000000
70.345131 138.471570 4.947947 0.000000
70.571777 138.691100 4.960285 0.000000
66.319664 136.434480 4.836053 0.000000
66.442390 136.623200 4.848711 0.000000
66.830391 137.027100 4.887953 0.000000
68.039871 138.184140 4.998267 0.000000
68.290863 138.406140 5.019009 0.000000
68.614609 138.719010 5.044184 0.000000
67.145996 137.343490 4.918443 0.000000
67.547264 137.731020 4.955454 0.000000
67.874268 138.034530 4.984178 0.000000
69.073013 139.241970 5.075795 0.000000
69.390808 139.590070 5.096247 0.000000
69.802940 140.023740 5.121219 0.000000
70.232208 140.458570 5.145300 0.000000
70.523659 140.665330 5.162945 0.000000
70.679634 140.892350 5.168719 0.000000
68.847595 140.662510 5.338805 0.000000
63.644615 136.224750 4.861569 0.000000
63.901443 136.522340 4.891150 0.000000
64.245857 136.912840 4.929692 0.000000
64.504745 137.202010 4.957863 0.000000
64.854836 137.579760 4.994708 0.000000
65.286293 138.052520 5.038509 0.000000
65.567940 138.313980 5.065854 0.000000
65.749008 138.493420 5.083128 0.000000
66.202843 138.939640 5.125088 0.000000
66.484291 139.197390 5.150200 0.000000
66.761078 139.460490 5.174198 0.000000
67.399590 140.091280 5.227158 0.000000
67.565201 140.297970 5.240232 0.000000
67.818542 140.609280 5.259641 0.000000
68.122543 140.853200 5.282627 0.000000
68.622955 141.537170 5.317458 0.000000
68.804893 141.753750 5.329658 0.000000
69.150764 142.244260 5.351463 0.000000
69.383087 142.386260 5.366879 0.000000
69.684059 142.706010 5.385217 0.000000
69.974480 143.069000 5.401836 0.000000
70.203522 143.242610 5.415499 0.000000
70.542221 143.531400 5.434756 0.000000
68.127991 144.852080 5.661726 0.000000
68.336937 145.156770 5.677885 0.000000
68.567085 145.430530 5.694709 0.000000
68.801971 145.706790 5.711594 0.000000
68.992485 146.104320 5.726956 0.000000
69.537964 146.549190 5.762695 0.000000
69.793640 146.836850 5.779875 0.000000
70.054710 147.128770 5.797137 0.000000
70.635368 147.587740 5.832889 0.000000
70.289085 147.527280 5.813689 0.000000
68.572395 140.593120 5.634474 0.000000
68.844482 140.630690 5.652475 0.000000
68.855835 141.102540 5.659596 0.000000
63.475182 136.458590 5.182161 0.000000
63.520077 136.904970 5.197925 0.000000
60.181900 136.130340 4.910539 0.000000
60.487534 136.326710 4.941382 0.000000
60.692299 136.568330 4.965323 0.000000
60.927307 136.790710 4.990851 0.000000
61.102356 137.043000 5.012279 0.000000
61.362648 137.243870 5.038703 0.000000
62.231628 138.298070 5.135256 0.000000
62.501930 138.658340 5.165179 0.000000
63.060135 139.170870 5.219839 0.000000
63.374794 139.489520 5.250735 0.000000
63.596523 139.689940 5.271647 0.000000
63.901230 140.013580 5.301008 0.000000
64.218819 140.324520 5.330588 0.000000
64.539902 140.631070 5.359765 0.000000
64.863243 140.934970 5.388598 0.000000
65.407578 141.436450 5.435735 0.000000
65.696686 141.786220 5.461647 0.000000
65.879349 142.037000 5.478227 0.000000
66.065559 142.288070 5.494823 0.000000
66.254234 142.541140 5.511387 0.000000
66.423950 142.827670 5.526976 0.000000
66.641685 143.050570 5.544537 0.000000
67.888885 144.618680 5.644343 0.000000
68.934677 138.727940 6.186047 0.000000
70.197670 141.223690 6.054394 0.000000
70.698975 141.578230 6.403697 0.000000
68.982552 140.586720 6.126371 0.000000
69.937355 141.190610 6.040183 0.000000
68.360291 140.404740 6.090110 0.000000
68.813667 140.607330 6.276924 0.000000
68.850082 141.073670 5.980516 0.000000
69.589470 141.318300 6.026486 0.000000
63.538521 136.394060 5.515816 0.000000
63.777962 136.695740 5.706329 0.000000
69.578003 141.863720 6.372315 0.000000
69.996628 137.064700 6.379572 0.000000
70.340401 137.223160 6.400250 0.000000
70.626862 137.643460 6.437736 0.000000
70.528244 138.179060 6.472156 0.000000
68.238235 137.179120 6.339719 0.000000
68.442963 137.419110 6.361276 0.000000
68.707611 137.922740 6.402534 0.000000
70.280823 141.591840 6.387256 0.000000
63.627781 136.136260 6.161729 0.000000
69.043213 141.173610 6.636992 0.000000
63.550205 136.208150 5.836886 0.000000
63.806335 136.638820 6.197251 0.000000
68.222290 141.047450 6.439934 0.000000
64.635048 138.326890 6.324935 0.000000
64.715683 138.611630 6.345498 0.000000
64.825035 138.876300 6.365555 0.000000
64.696053 139.758700 6.420567 0.000000
67.619774 137.187190 6.595266 0.000000
67.912865 137.347500 6.611633 0.000000
68.379196 137.626600 6.640421 0.000000
67.401863 137.098300 6.585819 0.000000
68.674515 138.284190 6.700234 0.000000
68.607101 138.737590 6.738203 0.000000
66.231384 137.256760 6.588215 0.000000
65.712494 137.075930 6.569914 0.000000
68.240326 139.629360 6.809661 0.000000
69.176155 140.412840 6.894314 0.000000
69.279350 142.366970 7.071232 0.000000
69.457619 142.625030 7.098414 0.000000
69.634933 142.898030 7.127138 0.000000
69.811668 143.187350 7.157546 0.000000
70.021873 143.414720 7.183306 0.000000
70.215164 143.696330 7.213837 0.000000
70.383667 144.061680 7.251654 0.000000
67.790939 142.180450 7.025338 0.000000
69.968529 136.847240 7.295365 0.000000
70.602867 137.571080 7.385067 0.000000
70.376648 139.176800 7.349976 0.000000
67.730942 137.675130 6.914507 0.000000
67.934021 137.945480 6.940966 0.000000
70.630066 140.391370 7.507569 0.000000
68.142754 138.567990 7.003841 0.000000
70.248734 140.374710 7.504355 0.000000
65.934196 137.175950 6.877950 0.000000
66.635521 137.480330 7.047960 0.000000
66.956169 138.161900 6.965746 0.000000
68.118622 138.969310 7.045055 0.000000
69.200653 140.335460 7.193592 0.000000
65.434929 137.117940 6.877411 0.000000
66.019012 137.390500 7.198443 0.000000
66.440613 138.004620 6.953054 0.000000
66.687546 138.097240 6.960686 0.000000
67.522377 138.954680 7.043603 0.000000
68.141014 140.159840 7.169074 0.000000
68.969139 141.223830 7.287615 0.000000
69.170639 141.392680 7.307738 0.000000
64.059700 136.731140 6.858719 0.000000
68.078278 141.176240 7.276302 0.000000
69.447182 143.253390 7.515367 0.000000
64.408279 138.821170 7.045833 0.000000
64.479439 139.128660 7.074426 0.000000
67.512901 141.541380 7.312192 0.000000
69.614456 143.581150 7.554136 0.000000
69.765976 143.967060 7.599480 0.000000
66.714554 141.702500 7.326254 0.000000
69.892426 137.079150 7.570334 0.000000
70.152199 137.201830 7.580522 0.000000
70.410988 137.492370 7.618994 0.000000
70.468918 137.756290 7.660329 0.000000
70.532158 138.039090 7.581263 0.000000
70.678223 141.095980 7.908783 0.000000
66.900040 137.995130 7.543496 0.000000
67.226250 138.162120 7.554031 0.000000
67.545151 138.504710 7.589424 0.000000
69.213905 140.277070 7.493018 0.000000
65.596687 137.433810 7.213845 0.000000
66.378632 137.842270 7.543098 0.000000
64.965714 137.306690 7.217231 0.000000
65.290039 137.367680 7.214836 0.000000
65.517288 137.634460 7.551754 0.000000
67.409912 139.443740 7.406466 0.000000
68.099823 140.166890 7.645747 0.000000
64.108574 136.672590 7.177375 0.000000
64.989166 137.584410 7.568311 0.000000
68.938461 141.237400 7.615848 0.000000
69.322655 141.616560 7.664013 0.000000
68.035858 141.203510 7.615583 0.000000
62.743050 136.594790 7.214329 0.000000
66.904816 140.712130 7.565639 0.000000
63.342308 138.215770 7.358347 0.000000
64.310875 139.249690 7.443633 0.000000
66.853195 141.473050 7.658767 0.000000
64.391136 139.956650 7.520428 0.000000
64.275154 140.482220 7.582211 0.000000
70.573608 148.650500 8.146025 0.000000
70.186630 148.658400 8.138141 0.000000
69.654877 137.372120 7.876094 0.000000
69.814240 137.654010 7.918220 0.000000
69.736870 138.119030 8.005045 0.000000
69.640564 139.041020 8.176355 0.000000
66.817932 138.051070 7.854920 0.000000
67.113586 138.254290 7.870007 0.000000
67.349281 138.520290 7.898670 0.000000
65.994133 137.679870 7.846186 0.000000
66.251534 137.771360 7.844701 0.000000
67.546143 138.836150 7.937716 0.000000
67.635239 139.103670 7.975006 0.000000
64.230911 136.552150 7.644342 0.000000
64.398422 136.745090 7.657439 0.000000
67.613655 139.520610 8.040505 0.000000
69.480667 141.237050 8.262880 0.000000
70.206230 142.104890 8.399033 0.000000
70.661682 142.379200 8.442048 0.000000
70.752419 142.930820 8.189695 0.000000
68.911407 141.224380 8.108276 0.000000
68.987625 141.640430 8.003178 0.000000
69.285820 141.643480 8.000377 0.000000
69.492592 141.771190 8.352861 0.000000
67.948997 141.298550 7.969034 0.000000
66.233223 140.426220 7.888063 0.000000
66.370415 140.691800 7.920357 0.000000
66.516838 141.896440 8.083703 0.000000
61.466415 137.689800 7.750012 0.000000
63.814285 139.664370 7.873219 0.000000
70.386574 146.762440 8.353355 0.000000
70.010292 146.818730 8.355805 0.000000
69.570679 147.031270 8.378960 0.000000
69.320389 139.992490 8.363483 0.000000
66.827972 138.529540 8.235414 0.000000
64.351105 136.433690 8.105140 0.000000
64.712212 136.792450 8.124807 0.000000
65.475204 137.780930 8.210441 0.000000
65.765594 137.856870 8.200646 0.000000
67.096008 138.958850 8.290352 0.000000
67.216278 139.195660 8.323356 0.000000
67.622246 139.477310 8.349186 0.000000
69.478477 141.199810 8.583019 0.000000
69.697449 141.904690 8.710401 0.000000
64.195633 136.847340 8.175954 0.000000
70.154938 142.500640 8.814549 0.000000
67.910988 141.278990 8.655343 0.000000
68.900368 141.755080 8.362238 0.000000
60.957939 136.551270 8.041367 0.000000
60.993942 136.877140 8.076000 0.000000
63.028275 138.759490 8.170467 0.000000
61.662689 137.896320 8.149918 0.000000
62.304169 138.558330 8.190391 0.000000
62.568447 138.737150 8.196584 0.000000
63.158348 139.415920 8.250915 0.000000
61.055897 137.915390 8.194603 0.000000
70.602478 147.130970 8.842124 0.000000
70.457840 142.827380 8.872528 0.000000
64.320572 138.416430 8.394441 0.000000
63.606102 138.280820 8.430230 0.000000
66.453201 140.519450 8.592774 0.000000
62.466461 139.555850 8.708811 0.000000
70.699379 146.657930 9.627655 0.000000
60.833618 138.400180 8.680319 0.000000
66.952934 144.524250 9.288513 0.000000
69.624512 136.168260 4.728725 0.000000
69.815071 136.359700 4.747110 0.000000
70.072929 136.609620 4.770966 0.000000
70.268799 136.793460 4.788308 0.000000
70.626701 137.196690 4.813967 0.000000
67.963058 136.087650 4.754731 0.000000
68.237610 136.387770 4.784065 0.000000
68.657425 136.824160 4.826413 0.000000
68.951057 137.098690 4.854747 0.000000
69.331726 137.423780 4.890130 0.000000
69.516594 137.659350 4.903980 0.000000
69.864410 138.014660 4.930783 0.000000
70.385345 138.637540 4.963190 0.000000
70.596710 138.859100 4.975795 0.000000
66.180084 136.304950 4.816386 0.000000
66.345116 136.474040 4.834767 0.000000
66.598755 136.719730 4.862301 0.000000
66.971527 137.153900 4.901110 0.000000
67.130241 137.318730 4.917066 0.000000
67.652550 137.767670 4.967995 0.000000
66.781059 137.009600 4.881338 0.000000
67.289642 137.481720 4.932758 0.000000
67.450089 137.642670 4.948228 0.000000
67.773338 137.959230 4.978421 0.000000
68.018608 138.191420 5.000461 0.000000
68.348701 138.495270 5.029083 0.000000
68.580635 138.737430 5.047955 0.000000
68.868942 139.084430 5.069454 0.000000
69.090530 139.342910 5.085171 0.000000
69.469414 139.770680 5.110696 0.000000
69.624619 139.940890 5.120632 0.000000
69.942017 140.279020 5.140124 0.000000
70.186256 140.531130 5.154350 0.000000
70.508652 140.883640 5.171438 0.000000
68.822334 140.759320 5.342333 0.000000
63.601460 136.244480 4.866835 0.000000
63.965912 136.662810 4.908122 0.000000
64.329926 137.070890 4.947976 0.000000
64.513023 137.270680 4.967485 0.000000
64.788414 137.565290 4.996145 0.000000
65.071701 137.850340 5.024808 0.000000
65.365570 138.122070 5.053534 0.000000
65.682175 138.372510 5.083497 0.000000
65.872498 138.714430 5.102311 0.000000
66.180939 138.962480 5.130211 0.000000
66.464073 139.227040 5.155283 0.000000
66.730446 139.504440 5.178393 0.000000
67.023430 139.755110 5.202932 0.000000
67.378838 140.122300 5.231805 0.000000
67.621788 140.424040 5.250803 0.000000
67.860367 140.735990 5.268699 0.000000
68.643562 141.624240 5.323920 0.000000
68.886650 141.961140 5.339349 0.000000
69.187851 142.220630 5.358967 0.000000
69.480042 142.500990 5.377010 0.000000
69.756149 142.816730 5.392995 0.000000
69.943672 143.028990 5.403461 0.000000
70.236748 143.338410 5.419430 0.000000
70.554306 143.613950 5.436779 0.000000
59.993629 136.135600 4.932086 0.000000
60.189514 136.409930 4.955327 0.000000
60.471741 136.645360 4.983666 0.000000
69.059937 145.848650 5.714671 0.000000
69.292419 146.099080 5.729225 0.000000
69.527374 146.354030 5.743700 0.000000
69.768806 146.605580 5.758252 0.000000
70.013092 146.861790 5.772736 0.000000
70.560242 147.265590 5.803342 0.000000
68.983665 140.722980 5.662682 0.000000
68.564247 140.856220 5.638347 0.000000
63.517174 136.874950 5.217091 0.000000
61.014046 137.106840 5.037665 0.000000
61.037140 137.447080 5.048862 0.000000
61.934219 138.225560 5.135479 0.000000
62.270561 138.569870 5.168487 0.000000
62.495171 138.794910 5.190094 0.000000
62.819881 138.953080 5.217121 0.000000
63.005714 139.377730 5.239856 0.000000
63.388306 139.669300 5.273211 0.000000
63.611633 139.881290 5.293268 0.000000
63.946899 140.194400 5.322813 0.000000
64.282623 140.502820 5.351839 0.000000
64.730675 140.906560 5.389590 0.000000
65.067863 141.203670 5.417256 0.000000
65.405579 141.497410 5.444446 0.000000
65.599258 141.723590 5.460667 0.000000
65.781883 141.962680 5.476131 0.000000
66.153610 142.441280 5.506801 0.000000
66.343513 142.680210 5.522046 0.000000
67.126343 143.641570 5.582249 0.000000
67.533684 144.126020 5.611973 0.000000
67.741882 144.369190 5.626763 0.000000
67.953255 144.613050 5.641512 0.000000
68.167313 144.858660 5.656196 0.000000
68.670044 145.239270 5.688156 0.000000
68.831749 145.598690 5.700112 0.000000
70.114166 141.196370 6.037260 0.000000
69.048805 140.610350 5.970178 0.000000
63.455269 136.271610 5.538252 0.000000
63.758289 136.727540 5.571388 0.000000
68.445892 140.976230 5.951687 0.000000
68.903229 141.213780 5.980572 0.000000
69.991554 137.067790 6.376912 0.000000
70.256317 137.193660 6.389852 0.000000
68.088585 137.034770 6.339828 0.000000
68.302322 137.266970 6.357585 0.000000
68.511559 137.502120 6.375599 0.000000
67.547684 136.910510 6.323012 0.000000
68.926628 138.835160 6.327702 0.000000
70.456718 141.530520 6.366413 0.000000
69.095421 140.508530 6.422613 0.000000
70.172882 141.528560 6.356446 0.000000
68.325783 140.280980 6.543786 0.000000
68.921684 141.144990 6.453042 0.000000
69.704620 141.804610 6.352912 0.000000
63.576920 136.192570 5.880262 0.000000
63.804909 136.681640 5.910804 0.000000
68.362343 141.052080 6.271418 0.000000
69.312950 141.919160 6.508447 0.000000
69.538376 142.273670 6.697523 0.000000
69.825172 142.560390 6.722834 0.000000
64.573227 138.250320 6.351497 0.000000
64.712929 138.651370 6.377348 0.000000
68.249008 142.528720 6.335733 0.000000
67.083717 136.162430 6.542195 0.000000
67.165756 136.366490 6.556309 0.000000
67.750732 137.281330 6.621654 0.000000
68.055405 137.451830 6.634520 0.000000
68.354568 137.619430 6.647494 0.000000
68.556328 138.014710 6.677918 0.000000
67.539597 137.168610 6.613362 0.000000
68.653824 138.220090 6.693954 0.000000
68.623489 138.557800 6.719874 0.000000
68.564392 138.938660 6.749185 0.000000
66.236900 137.259700 6.620768 0.000000
68.238556 139.623730 6.801138 0.000000
69.147026 140.400790 6.869050 0.000000
63.603210 136.137940 6.552976 0.000000
64.014374 136.831670 6.597003 0.000000
69.044899 141.359970 6.946204 0.000000
69.390457 142.475080 7.041920 0.000000
69.816383 143.070950 7.097094 0.000000
70.105263 143.395140 7.128485 0.000000
70.347557 143.826320 7.168717 0.000000
67.896164 142.471420 7.026550 0.000000
70.197365 136.917480 7.286645 0.000000
70.619179 137.537930 7.348777 0.000000
67.737961 137.694790 6.931733 0.000000
67.928566 137.970980 6.953403 0.000000
70.317726 140.315670 7.443536 0.000000
67.143860 137.716400 7.234002 0.000000
68.027580 138.181820 6.970994 0.000000
68.122482 138.556870 7.003952 0.000000
65.886307 137.183200 6.921309 0.000000
66.467247 137.368070 6.925429 0.000000
66.611679 137.533910 7.234422 0.000000
69.189705 140.305080 7.310367 0.000000
65.516624 137.128740 6.924375 0.000000
66.221252 137.840240 6.969941 0.000000
66.393578 138.016510 6.981974 0.000000
66.669479 138.110120 6.985370 0.000000
67.914391 139.247500 7.070200 0.000000
68.253433 140.311190 7.167522 0.000000
69.084846 141.274750 7.257094 0.000000
64.086258 136.771420 6.927292 0.000000
62.826767 136.481550 6.935240 0.000000
68.138481 141.243640 7.258648 0.000000
69.098320 142.647220 7.395239 0.000000
69.295242 142.845500 7.415417 0.000000
69.609520 143.394610 7.472292 0.000000
64.285217 138.562230 7.067049 0.000000
67.468735 141.637020 7.301359 0.000000
69.747177 143.721690 7.506592 0.000000
69.886597 144.061970 7.542595 0.000000
66.678322 141.696620 7.313408 0.000000
69.980835 137.114690 7.558012 0.000000
70.320564 137.298030 7.565021 0.000000
70.481880 137.675200 7.611012 0.000000
70.448845 138.311740 7.706856 0.000000
70.217644 139.295100 7.594533 0.000000
66.570221 137.838930 7.569544 0.000000
66.896072 138.038820 7.575581 0.000000
67.260506 138.198170 7.575909 0.000000
67.583717 138.537490 7.600824 0.000000
69.254242 140.181780 7.743605 0.000000
65.859489 137.473140 7.256123 0.000000
66.102180 137.731260 7.582520 0.000000
70.424515 141.942720 7.639297 0.000000
65.297134 137.393220 7.270075 0.000000
65.531227 137.672880 7.607449 0.000000
67.387627 139.401690 7.402092 0.000000
68.061752 140.113820 7.620033 0.000000
69.121964 141.285100 7.735933 0.000000
69.407516 141.636170 7.936393 0.000000
64.147942 136.716840 7.255315 0.000000
64.726715 137.294650 7.283371 0.000000
69.214066 141.499710 7.600278 0.000000
68.087524 141.277300 7.594138 0.000000
62.770817 136.485470 7.295184 0.000000
66.658920 140.480970 7.538695 0.000000
66.961029 140.748950 7.560219 0.000000
64.048965 139.044560 7.474631 0.000000
67.029907 141.694240 7.663986 0.000000
64.282387 139.588790 7.519708 0.000000
64.250397 140.361270 7.598522 0.000000
69.910507 148.608310 8.025270 0.000000
70.242653 148.743820 8.043542 0.000000
69.613762 137.323240 7.856857 0.000000
69.926247 137.699340 7.893727 0.000000
66.932816 138.139630 7.888221 0.000000
67.132301 138.283040 7.893714 0.000000
67.383514 138.535250 7.911089 0.000000
69.333252 140.053940 8.020705 0.000000
66.209465 137.782620 7.892994 0.000000
66.485092 137.880870 7.885815 0.000000
66.716682 138.006360 7.885712 0.000000
67.584999 138.832370 7.938745 0.000000
64.300575 136.603320 7.735347 0.000000
64.494865 136.794460 7.740789 0.000000
69.357880 141.233410 8.200146 0.000000
65.067635 137.672680 7.633521 0.000000
69.000877 141.300170 8.225183 0.000000
69.323975 141.728120 8.278503 0.000000
69.510979 141.911300 8.300259 0.000000
68.024017 141.326080 7.936086 0.000000
62.613262 136.536590 7.669521 0.000000
66.090744 140.248580 7.875880 0.000000
66.271706 140.453770 7.892946 0.000000
66.626480 140.873720 7.930151 0.000000
63.352978 138.438290 7.812745 0.000000
61.324669 137.484850 7.840884 0.000000
61.551796 137.721940 7.849268 0.000000
69.412987 139.925610 8.292908 0.000000
69.147041 139.887590 8.302647 0.000000
66.606781 138.379610 8.255002 0.000000
66.801674 138.536130 8.261417 0.000000
64.388062 136.524810 8.217392 0.000000
64.663490 136.668990 8.207199 0.000000
65.795425 137.903790 8.259234 0.000000
66.187004 138.081970 8.248922 0.000000
67.075928 138.946040 8.299942 0.000000
67.202316 139.163390 8.322909 0.000000
67.896034 139.863080 8.381018 0.000000
70.652138 142.746770 8.733652 0.000000
68.975304 141.304810 8.552933 0.000000
69.521614 141.862350 8.621719 0.000000
69.909058 142.214480 8.666452 0.000000
67.898003 141.006910 8.566893 0.000000
62.413200 136.606930 8.058226 0.000000
62.331013 138.685820 8.291172 0.000000
63.065960 139.126660 8.286895 0.000000
63.109837 139.648880 8.346809 0.000000
70.485306 147.066120 8.701994 0.000000
62.392872 136.593250 8.430039 0.000000
61.967735 136.463520 8.460242 0.000000
63.131950 137.843610 8.502823 0.000000
64.242386 138.492570 8.480361 0.000000
70.729851 144.801210 9.113726 0.000000
60.626396 136.732650 8.223072 0.000000
67.155167 143.285310 8.994354 0.000000
60.985600 137.984330 8.321226 0.000000
62.293915 139.418380 8.784203 0.000000
69.608627 136.114290 4.724285 0.000000
69.796448 136.324110 4.745050 0.000000
70.049461 136.597750 4.771858 0.000000
70.358047 136.938780 4.801886 0.000000
70.584488 137.224380 4.821022 0.000000
68.167366 136.348300 4.778962 0.000000
68.465477 136.658390 4.812315 0.000000
68.679718 136.891630 4.835179 0.000000
69.132126 137.330020 4.881496 0.000000
69.313530 137.575780 4.897441 0.000000
69.597054 137.870410 4.923010 0.000000
69.920349 138.260160 4.948725 0.000000
70.125046 138.484790 4.964377 0.000000
70.449944 138.874790 4.986382 0.000000
70.586517 139.025390 4.995375 0.000000
66.027115 136.243760 4.814854 0.000000
66.274307 136.528460 4.843061 0.000000
66.605530 136.898300 4.879579 0.000000
66.854500 137.168980 4.906099 0.000000
67.021317 137.345700 4.923385 0.000000
67.440559 137.775760 4.965234 0.000000
67.691338 138.028140 4.989291 0.000000
67.946136 138.272710 5.012921 0.000000
68.293648 138.586300 5.044139 0.000000
68.519287 138.844560 5.063000 0.000000
68.806046 139.198940 5.085377 0.000000
69.004654 139.480650 5.099403 0.000000
69.307686 139.823410 5.121048 0.000000
69.552116 140.063870 5.138283 0.000000
69.784279 140.318010 5.153266 0.000000
70.019981 140.570100 5.167903 0.000000
70.422203 140.985400 5.191344 0.000000
70.670273 141.230040 5.205102 0.000000
70.146873 140.775180 5.173711 0.000000
68.626572 140.634090 5.354964 0.000000
68.881897 140.726810 5.373464 0.000000
63.216106 136.200500 4.869444 0.000000
63.635799 136.652590 4.915358 0.000000
63.827518 136.879700 4.936232 0.000000
64.030632 137.098390 4.957651 0.000000
64.232658 137.313750 4.978601 0.000000
65.352814 138.275240 5.086674 0.000000
66.527878 139.410320 5.191644 0.000000
64.353836 137.564150 4.992659 0.000000
64.635269 137.734340 5.019278 0.000000
64.837708 137.938840 5.039166 0.000000
65.374207 138.574200 5.091119 0.000000
65.641731 138.727420 5.114807 0.000000
66.043800 139.103670 5.150636 0.000000
66.244446 139.287890 5.168039 0.000000
66.645683 139.648620 5.201899 0.000000
67.047096 139.999570 5.234545 0.000000
67.445595 140.515700 5.265512 0.000000
67.883148 140.999660 5.297754 0.000000
68.482460 141.695400 5.338588 0.000000
68.756760 141.978650 5.356381 0.000000
69.119400 142.364270 5.378719 0.000000
69.386093 142.665130 5.394169 0.000000
69.678238 142.937910 5.411032 0.000000
69.944603 143.251480 5.424958 0.000000
70.455139 143.693080 5.452078 0.000000
59.282204 136.082170 4.954130 0.000000
59.344673 136.431080 4.968800 0.000000
59.979256 136.962770 5.028021 0.000000
60.370861 137.190090 5.061310 0.000000
61.670914 138.462680 5.182247 0.000000
62.166664 139.126530 5.230512 0.000000
62.584053 139.454360 5.265248 0.000000
61.708427 138.807170 5.192737 0.000000
69.417213 146.479200 5.748726 0.000000
69.953064 146.831420 5.776383 0.000000
70.227516 146.997830 5.790133 0.000000
70.686592 147.524000 5.813120 0.000000
68.949623 140.636520 5.684494 0.000000
68.613678 140.625470 5.664659 0.000000
68.856567 141.087750 5.683650 0.000000
63.689739 136.612720 5.274281 0.000000
63.474403 137.007310 5.269518 0.000000
62.834938 139.680630 5.286424 0.000000
63.084557 139.903310 5.307202 0.000000
63.707161 140.443630 5.357653 0.000000
64.074417 140.759000 5.386687 0.000000
64.319366 140.965210 5.405667 0.000000
64.924324 141.471300 5.451440 0.000000
65.484589 141.997160 5.493318 0.000000
65.780685 142.343660 5.515663 0.000000
66.068192 142.698790 5.537132 0.000000
66.869537 143.624370 5.593559 0.000000
67.098526 143.827320 5.608461 0.000000
67.281685 144.083860 5.621001 0.000000
67.960724 144.712100 5.663313 0.000000
67.596504 144.427510 5.641251 0.000000
68.131630 144.999220 5.674467 0.000000
68.349655 145.228090 5.687543 0.000000
68.793274 145.685990 5.713385 0.000000
69.248123 146.143800 5.738851 0.000000
69.778343 146.490140 5.766692 0.000000
70.303383 141.252810 6.062285 0.000000
70.631905 141.577670 6.380262 0.000000
69.006287 140.547320 6.140834 0.000000
68.469048 140.745940 5.971703 0.000000
68.850555 141.071980 5.996594 0.000000
63.606106 136.475600 5.619622 0.000000
68.950516 141.310060 6.322537 0.000000
63.398232 137.019680 5.627848 0.000000
69.878624 136.957150 6.404839 0.000000
70.037231 137.192890 6.419265 0.000000
68.142776 137.127750 6.397530 0.000000
67.543327 136.968580 6.383847 0.000000
68.506165 137.534520 6.422599 0.000000
68.968613 138.986420 6.226615 0.000000
65.514160 136.129040 6.012263 0.000000
65.385780 136.999880 6.367523 0.000000
70.352127 141.552670 6.371468 0.000000
68.416946 140.429260 6.271193 0.000000
68.840271 141.060700 6.309133 0.000000
69.840614 141.809050 6.367924 0.000000
63.594891 136.461870 5.972860 0.000000
69.490501 141.842250 6.359594 0.000000
64.544197 138.330340 6.428942 0.000000
67.044151 140.978610 6.255928 0.000000
64.665039 138.910680 6.460291 0.000000
68.215111 142.516080 6.352194 0.000000
66.800812 136.314670 6.632500 0.000000
68.050018 137.556210 6.697335 0.000000
68.324326 137.772050 6.709114 0.000000
68.483582 137.928440 6.718216 0.000000
66.304825 136.285890 6.636693 0.000000
67.522255 137.223790 6.680915 0.000000
68.549339 138.151630 6.732690 0.000000
68.597961 138.391330 6.748572 0.000000
68.554344 138.708440 6.770542 0.000000
66.071335 137.207900 6.695248 0.000000
69.112350 140.387910 6.886626 0.000000
68.236977 140.217150 6.877692 0.000000
68.996613 141.215180 6.947439 0.000000
64.008148 136.712600 6.690269 0.000000
68.027718 141.111250 6.942507 0.000000
69.428741 142.484300 7.042197 0.000000
64.337784 138.421450 6.789316 0.000000
70.335594 143.736690 7.141045 0.000000
67.830132 142.897060 7.073686 0.000000
69.908920 136.877940 7.348140 0.000000
70.598442 137.525390 7.378013 0.000000
70.627655 137.998600 7.430386 0.000000
70.252861 139.504040 7.357020 0.000000
67.780830 137.848690 7.005681 0.000000
70.393089 140.320710 7.439697 0.000000
67.039154 137.746770 7.318638 0.000000
67.930336 138.161770 7.026255 0.000000
68.072777 138.483120 7.048193 0.000000
65.956779 137.249390 7.013734 0.000000
66.473587 137.393650 7.008636 0.000000
68.086998 138.761470 7.070356 0.000000
69.182632 140.275850 7.473288 0.000000
66.293648 138.067930 7.063902 0.000000
66.537239 138.361760 7.079309 0.000000
67.778244 139.300780 7.121907 0.000000
69.148560 140.330730 7.180760 0.000000
68.226555 140.205930 7.187986 0.000000
69.158569 141.386730 7.275057 0.000000
64.067848 136.669880 7.033843 0.000000
67.980621 141.134660 7.273338 0.000000
62.795620 136.549930 7.068444 0.000000
63.353233 137.276500 7.097849 0.000000
66.683464 140.506590 7.247224 0.000000
68.835808 142.556370 7.386783 0.000000
69.308594 142.827270 7.405658 0.000000
69.606560 143.331410 7.449759 0.000000
69.741539 143.614270 7.475346 0.000000
63.382446 137.907270 7.140156 0.000000
63.744999 138.058440 7.139406 0.000000
69.973984 144.268540 7.536304 0.000000
67.043961 141.654720 7.336956 0.000000
67.312180 142.586620 7.413781 0.000000
67.186371 143.145830 7.465957 0.000000
69.975288 137.164320 7.616270 0.000000
70.391762 137.439030 7.618318 0.000000
70.451889 137.633070 7.638363 0.000000
69.714432 136.999570 7.617122 0.000000
70.505798 137.836200 7.660449 0.000000
70.537361 138.203140 7.581956 0.000000
70.409843 138.445880 7.746676 0.000000
70.370262 139.065440 7.569093 0.000000
70.726852 140.594440 7.742099 0.000000
66.330521 137.596450 7.339648 0.000000
67.243378 138.307360 7.663247 0.000000
67.731560 138.695740 7.673552 0.000000
66.142189 137.683350 7.673753 0.000000
66.465935 137.930250 7.675918 0.000000
66.787987 138.167430 7.678197 0.000000
64.160225 136.613980 7.372408 0.000000
65.022308 137.411610 7.389439 0.000000
65.446091 137.493550 7.374729 0.000000
67.390366 139.585750 7.471684 0.000000
67.981613 140.050310 7.808685 0.000000
68.187141 140.220860 7.502985 0.000000
69.233482 141.269060 7.733508 0.000000
64.278999 136.861330 7.384797 0.000000
68.934898 141.225460 7.740299 0.000000
69.233711 141.636220 7.936672 0.000000
69.416748 141.812030 7.950861 0.000000
62.684597 136.571430 7.448670 0.000000
66.794083 140.569210 7.590945 0.000000
67.045822 140.887710 7.612522 0.000000
67.761017 141.325070 7.630644 0.000000
63.609772 138.770360 7.571204 0.000000
63.954388 139.261470 7.595929 0.000000
64.124893 139.857800 7.639840 0.000000
64.189545 140.174710 7.665094 0.000000
70.349922 148.820400 7.987137 0.000000
69.684975 137.486880 7.930408 0.000000
69.782066 137.661620 7.945076 0.000000
69.689323 138.255710 8.036352 0.000000
69.662132 139.124270 8.164255 0.000000
69.353882 140.063280 8.033468 0.000000
66.395004 137.952190 8.000074 0.000000
66.791382 138.146990 7.988046 0.000000
67.114418 138.374590 7.987249 0.000000
64.356964 136.661800 7.708522 0.000000
65.519691 137.712110 8.050419 0.000000
65.913895 137.791790 8.024240 0.000000
67.514412 139.448680 8.083763 0.000000
65.361534 137.815060 7.739478 0.000000
69.099518 141.383680 8.231468 0.000000
69.001884 141.879240 8.307113 0.000000
62.357685 136.350220 7.832185 0.000000
62.518631 136.612700 7.840724 0.000000
66.061272 140.254350 7.941075 0.000000
66.238358 140.467500 7.953851 0.000000
66.325981 140.752900 7.980293 0.000000
67.667503 142.167070 8.073901 0.000000
63.114014 138.326770 7.942954 0.000000
63.273628 138.585480 7.955322 0.000000
62.311195 138.367870 8.003527 0.000000
69.465637 139.931380 8.301115 0.000000
69.167946 139.900670 8.320796 0.000000
69.556625 141.218440 8.493867 0.000000
64.385994 136.477080 8.204682 0.000000
64.599884 136.688110 8.032651 0.000000
65.839539 137.960920 8.378609 0.000000
66.244736 138.170210 8.361139 0.000000
66.563019 138.418620 8.359172 0.000000
66.843437 138.684890 8.364648 0.000000
66.978859 138.895160 8.378533 0.000000
67.462471 139.789670 8.453546 0.000000
67.905037 140.075230 8.454195 0.000000
69.658150 141.868120 8.590963 0.000000
70.477356 142.453080 8.635026 0.000000
66.650635 139.441850 8.482502 0.000000
67.831200 140.477810 8.518802 0.000000
69.076416 141.386110 8.555780 0.000000
69.997536 142.254210 8.631659 0.000000
62.409012 136.632970 8.234691 0.000000
68.974350 142.736620 8.431502 0.000000
62.131626 136.408630 8.242002 0.000000
63.346962 137.539080 8.229433 0.000000
64.401604 137.050490 8.434215 0.000000
63.226883 137.898190 8.655753 0.000000
70.631317 144.695400 9.013670 0.000000
67.057655 142.960770 8.954959 0.000000
62.403961 139.007370 8.460390 0.000000
61.881943 137.820980 8.798966 0.000000
70.038139 136.146850 4.726546 0.000000
70.256607 136.466080 4.756675 0.000000
70.684181 137.094190 4.810439 0.000000
68.385513 136.104610 4.754775 0.000000
68.786507 136.644350 4.809974 0.000000
69.125771 137.076980 4.853790 0.000000
69.262680 137.245730 4.870737 0.000000
69.539253 137.575880 4.903791 0.000000
69.817078 138.017610 4.934212 0.000000
70.042206 138.368000 4.957171 0.000000
70.291550 138.701050 4.981668 0.000000
70.556488 139.021440 5.006623 0.000000
66.315414 136.142750 4.802714 0.000000
66.522606 136.341060 4.829338 0.000000
66.717194 136.668960 4.856255 0.000000
67.202202 137.274080 4.917331 0.000000
67.608589 137.757830 4.965696 0.000000
67.771706 137.946200 4.984392 0.000000
68.100067 138.314150 5.020855 0.000000
68.264420 138.494340 5.038543 0.000000
68.495300 138.769230 5.062744 0.000000
68.827812 139.252810 5.096060 0.000000
68.963364 139.443760 5.109002 0.000000
69.169350 139.727720 5.127975 0.000000
69.380463 140.007570 5.146759 0.000000
69.520569 140.194430 5.158742 0.000000
69.773346 140.440290 5.180404 0.000000
69.955231 140.744230 5.194019 0.000000
70.152893 141.037640 5.208343 0.000000
70.463058 141.390000 5.231072 0.000000
68.851173 140.849060 5.403293 0.000000
63.587250 136.315900 4.879923 0.000000
63.900467 136.690860 4.918240 0.000000
64.205986 137.058530 4.954996 0.000000
64.611191 137.533230 5.002204 0.000000
64.813713 137.764240 5.025159 0.000000
65.417976 138.434620 5.091309 0.000000
66.268585 139.253190 5.177563 0.000000
65.177963 138.231080 5.066602 0.000000
65.677734 138.776860 5.119699 0.000000
66.620155 139.680850 5.212791 0.000000
66.819145 139.877960 5.231677 0.000000
67.172775 140.291850 5.265057 0.000000
67.329315 140.509770 5.279722 0.000000
67.566772 140.833980 5.301300 0.000000
68.383125 141.893720 5.370220 0.000000
68.636368 142.205490 5.390066 0.000000
68.885963 142.522090 5.408873 0.000000
69.154152 142.822420 5.428457 0.000000
69.419617 143.127370 5.447064 0.000000
69.688782 143.430680 5.465327 0.000000
69.870949 143.631680 5.477288 0.000000
70.055344 143.831670 5.489101 0.000000
70.429985 144.229970 5.512208 0.000000
70.716225 144.527850 5.529043 0.000000
59.378540 136.241700 4.961613 0.000000
59.515846 136.589870 4.983424 0.000000
59.948280 136.864960 5.022841 0.000000
61.052017 138.034790 5.136942 0.000000
61.369095 138.296740 5.166637 0.000000
61.712646 138.541210 5.197337 0.000000
62.377937 139.372070 5.266025 0.000000
62.636986 139.624940 5.290234 0.000000
63.003643 139.823500 5.319898 0.000000
63.404686 140.357130 5.360013 0.000000
63.909836 140.824600 5.404327 0.000000
64.193192 141.034130 5.427544 0.000000
61.753448 138.889950 5.210360 0.000000
62.075886 139.130800 5.239001 0.000000
63.034714 140.172470 5.330993 0.000000
68.968918 146.551190 5.798448 0.000000
69.398941 147.048160 5.825626 0.000000
69.635033 147.272980 5.839736 0.000000
69.980331 147.630600 5.860123 0.000000
70.502853 148.340910 5.891144 0.000000
68.920174 140.617130 5.717402 0.000000
68.553436 140.581950 5.694223 0.000000
68.812241 141.017760 5.717809 0.000000
63.627075 136.595250 5.267286 0.000000
63.529060 136.936100 5.271585 0.000000
64.657997 141.498260 5.467694 0.000000
65.015083 141.645970 5.493548 0.000000
65.047043 141.999600 5.502840 0.000000
65.256012 142.238720 5.520727 0.000000
65.461174 142.478940 5.538157 0.000000
66.781509 144.032270 5.644617 0.000000
67.074692 144.401290 5.667263 0.000000
67.275955 144.643340 5.682323 0.000000
67.506073 144.857330 5.698425 0.000000
68.127884 145.575060 5.742364 0.000000
68.314453 145.842580 5.755709 0.000000
68.745026 146.319560 5.784182 0.000000
70.057899 141.223180 6.094112 0.000000
68.516609 140.589070 6.007915 0.000000
68.792770 141.012600 6.033169 0.000000
69.450073 141.442090 6.074618 0.000000
63.522469 136.449740 5.631836 0.000000
68.912575 141.240880 6.045362 0.000000
63.673317 136.873760 5.655312 0.000000
68.999527 140.516750 6.333107 0.000000
70.345909 141.586320 6.416167 0.000000
