# .PCD v0.7 - Point Cloud Data file format
VERSION 0.7
FIELDS x y z intensity
SIZE 4 4 4 4
TYPE F F F F
COUNT 1 1 1 1
WIDTH 1246
HEIGHT 1
VIEWPOINT 0 0 0 1 0 0 0
POINTS 1246
DATA ascii
79.365700 94.938118 0.833272 0.000000
76.894112 94.672501 0.817619 0.000000
74.571716 94.276459 0.805088 0.000000
72.364304 93.769585 0.795116 0.000000
95.412422 108.271090 1.908334 0.000000
94.893883 107.512100 1.913784 0.000000
93.862503 107.153560 1.923758 0.000000
92.867020 106.742260 1.933830 0.000000
91.255264 106.751190 1.949385 0.000000
84.084457 107.951800 2.018765 0.000000
87.296310 107.094780 1.988125 0.000000
89.403046 106.871280 1.967421 0.000000
83.559036 107.015300 2.027306 0.000000
81.814400 106.806580 2.046748 0.000000
79.669815 106.770680 2.070293 0.000000
77.149109 106.867830 2.097874 0.000000
74.608063 106.886760 2.126469 0.000000
72.262360 106.718930 2.154178 0.000000
70.769966 110.421460 7.019802 0.000000
95.032806 91.316086 0.077557 0.000000
94.588470 90.686424 0.079410 0.000000
94.138565 90.052147 0.080922 0.000000
93.504799 89.476677 0.075616 0.000000
93.007889 88.839912 0.075267 0.000000
92.502243 88.196198 0.074525 0.000000
92.058746 87.523399 0.075894 0.000000
91.508270 86.872406 0.073424 0.000000
90.927521 86.216637 0.069875 0.000000
95.088593 98.248360 0.914396 0.000000
94.403320 97.715164 0.916688 0.000000
93.689972 97.184219 0.918724 0.000000
89.812920 97.314560 0.885901 0.000000
92.201340 97.046936 0.908847 0.000000
87.827423 97.300346 0.870270 0.000000
86.460617 96.932159 0.864725 0.000000
84.816025 96.644867 0.855787 0.000000
83.886253 96.004967 0.857682 0.000000
82.928467 95.353348 0.859524 0.000000
80.467575 95.247566 0.841433 0.000000
78.625107 94.835587 0.832731 0.000000
75.947357 94.648682 0.814092 0.000000
73.777313 94.208328 0.803190 0.000000
71.712738 93.665787 0.794615 0.000000
94.717300 107.931820 1.903457 0.000000
94.263779 107.133970 1.908089 0.000000
93.245781 106.780110 1.917772 0.000000
91.992081 106.576820 1.929811 0.000000
90.296280 106.654160 1.945986 0.000000
85.350220 107.669010 1.993051 0.000000
83.374710 107.710890 2.013222 0.000000
88.452652 106.773800 1.963887 0.000000
82.842041 106.789760 2.021471 0.000000
80.970428 106.667450 2.041838 0.000000
78.835602 106.633670 2.065157 0.000000
76.267738 106.764600 2.093038 0.000000
73.900078 106.698850 2.119926 0.000000
71.572693 106.532100 2.147256 0.000000
95.689430 90.932182 0.042038 0.000000
95.122131 90.389000 0.040967 0.000000
94.327682 89.922173 0.031054 0.000000
93.898346 89.299446 0.035540 0.000000
93.404968 88.692146 0.037491 0.000000
92.902252 88.078178 0.039067 0.000000
92.389221 87.457001 0.040248 0.000000
91.864914 86.827988 0.041015 0.000000
91.403137 86.170105 0.044053 0.000000
95.654266 97.660324 0.809754 0.000000
94.907074 97.202759 0.812382 0.000000
94.207222 96.702080 0.816229 0.000000
93.613708 96.129753 0.822332 0.000000
91.711319 96.222023 0.804848 0.000000
89.388466 96.454346 0.781200 0.000000
88.235931 96.050003 0.779457 0.000000
87.270927 95.527809 0.781528 0.000000
85.136040 95.483315 0.764755 0.000000
84.157486 94.892136 0.768040 0.000000
82.243423 94.639465 0.757092 0.000000
80.244644 94.355156 0.746054 0.000000
78.821106 93.804092 0.744894 0.000000
76.343521 93.558212 0.729162 0.000000
74.291519 93.096893 0.721087 0.000000
71.842018 92.685249 0.708774 0.000000
94.982361 106.172520 1.724901 0.000000
93.933044 105.896040 1.735624 0.000000
93.476105 105.140010 1.744162 0.000000
89.034668 104.986240 1.787132 0.000000
92.378738 104.858150 1.756017 0.000000
90.759979 104.914470 1.770943 0.000000
83.888153 106.018840 1.831044 0.000000
82.247192 105.819000 1.849479 0.000000
86.365219 105.616500 1.809035 0.000000
81.655266 104.954180 1.862660 0.000000
79.490547 104.968200 1.885666 0.000000
77.243973 104.951200 1.910231 0.000000
74.711418 105.004300 1.937732 0.000000
72.322769 104.897830 1.965541 0.000000
95.752808 91.308502 0.056106 0.000000
95.128098 90.815704 0.053286 0.000000
94.663681 90.242218 0.056979 0.000000
94.280281 89.628922 0.063799 0.000000
93.977631 88.980507 0.073602 0.000000
93.490005 88.395615 0.076154 0.000000
92.317818 88.030304 0.053028 0.000000
91.816849 87.416679 0.055438 0.000000
91.305565 86.795441 0.057477 0.000000
90.728882 86.181030 0.057179 0.000000
94.571922 96.895409 0.810287 0.000000
79.836845 94.294525 0.750407 0.000000
78.087296 93.878098 0.745489 0.000000
71.565804 92.674721 0.720051 0.000000
95.251106 97.375473 0.805714 0.000000
88.702957 96.411499 0.775198 0.000000
93.884552 96.406303 0.814983 0.000000
90.830376 96.261230 0.794549 0.000000
92.956474 96.033936 0.815457 0.000000
88.008163 95.801018 0.782307 0.000000
86.758278 95.429993 0.780290 0.000000
84.835831 95.314598 0.767918 0.000000
83.885948 94.730682 0.772534 0.000000
81.672050 94.621170 0.757810 0.000000
75.969246 93.529678 0.736363 0.000000
73.878113 93.103333 0.729031 0.000000
95.534424 106.095700 1.686028 0.000000
94.496262 105.858350 1.696918 0.000000
94.009689 105.152400 1.706106 0.000000
86.472504 105.033230 1.782372 0.000000
93.038406 104.821730 1.717642 0.000000
91.653793 104.772860 1.731504 0.000000
90.021393 104.854650 1.747187 0.000000
89.161888 104.345830 1.759942 0.000000
76.058182 105.247040 1.895540 0.000000
84.216660 105.335330 1.803801 0.000000
82.613770 105.151890 1.822782 0.000000
80.694946 105.103520 1.844399 0.000000
78.459747 105.169270 1.868879 0.000000
75.281609 104.392320 1.913179 0.000000
72.912262 104.322310 1.941811 0.000000
95.361702 92.171402 0.154756 0.000000
94.916611 91.611526 0.158042 0.000000
94.463943 91.048737 0.160940 0.000000
93.976471 90.493942 0.162451 0.000000
93.205246 90.046265 0.153469 0.000000
92.723557 89.465912 0.155242 0.000000
92.272659 88.865356 0.158066 0.000000
91.793076 88.266808 0.159796 0.000000
90.599014 87.893600 0.136568 0.000000
90.106018 87.266357 0.138066 0.000000
89.417938 86.685333 0.132896 0.000000
88.671181 86.102242 0.125886 0.000000
95.690681 98.670998 0.916625 0.000000
94.963791 98.252617 0.919180 0.000000
88.022507 97.699051 0.884960 0.000000
94.313194 97.770546 0.923299 0.000000
90.220840 97.448456 0.903052 0.000000
86.740906 97.397705 0.882034 0.000000
85.115768 97.226456 0.874731 0.000000
93.656738 97.280060 0.927525 0.000000
92.335945 97.163902 0.921198 0.000000
84.241585 96.648438 0.879079 0.000000
83.291367 96.083725 0.882722 0.000000
81.679375 95.778633 0.877781 0.000000
79.753227 95.550476 0.869555 0.000000
77.674553 95.317940 0.860445 0.000000
75.355026 95.105118 0.849484 0.000000
73.195648 94.758774 0.841804 0.000000
71.310165 94.251617 0.838585 0.000000
95.316071 107.077210 1.826543 0.000000
94.292969 106.851380 1.837341 0.000000
93.329353 106.546880 1.848071 0.000000
92.198807 106.354330 1.860532 0.000000
88.045082 106.136600 1.906933 0.000000
89.706612 106.044980 1.888684 0.000000
91.451660 105.826400 1.870341 0.000000
85.060051 107.102940 1.936896 0.000000
76.316452 106.508190 2.045691 0.000000
73.944817 106.566350 2.075360 0.000000
71.737282 106.453350 2.104463 0.000000
84.169937 106.518090 1.949957 0.000000
82.575531 106.377490 1.969561 0.000000
80.788361 106.306540 1.991505 0.000000
78.710266 106.351760 2.016759 0.000000
71.060120 105.478910 2.119993 0.000000
95.148979 92.420250 0.201195 0.000000
94.774796 91.841972 0.206983 0.000000
94.334213 91.291832 0.210108 0.000000
93.867096 90.747284 0.212155 0.000000
92.806427 90.449242 0.192571 0.000000
92.378799 89.860756 0.196201 0.000000
91.907814 89.282555 0.198190 0.000000
91.461998 88.686554 0.200991 0.000000
90.987930 88.092529 0.202737 0.000000
89.800301 87.723572 0.180224 0.000000
89.165260 87.146759 0.176787 0.000000
88.445374 86.578674 0.170626 0.000000
82.862198 86.431488 0.025260 0.000000
86.503052 86.323036 0.124730 0.000000
95.526047 98.840439 0.953342 0.000000
94.832542 98.421341 0.956369 0.000000
87.938141 98.028313 0.924539 0.000000
86.525742 97.831299 0.919930 0.000000
85.144287 97.573181 0.916496 0.000000
94.184921 97.958145 0.960374 0.000000
90.136566 97.722008 0.941772 0.000000
93.564651 97.465836 0.965009 0.000000
92.119179 97.462555 0.957037 0.000000
84.141373 97.085587 0.918929 0.000000
83.268356 96.510498 0.923519 0.000000
81.898254 96.137894 0.922026 0.000000
80.080200 95.915657 0.915578 0.000000
78.043701 95.722862 0.907435 0.000000
75.717049 95.574722 0.896947 0.000000
73.856133 95.176567 0.893149 0.000000
71.728470 94.811844 0.887321 0.000000
95.014328 107.388570 1.857678 0.000000
94.330742 106.877720 1.865666 0.000000
93.357910 106.612630 1.876614 0.000000
92.279327 106.411440 1.888904 0.000000
90.745193 106.550720 1.905794 0.000000
88.289688 106.195510 1.935301 0.000000
89.991272 106.019100 1.915916 0.000000
83.631805 107.245900 1.987759 0.000000
74.699120 106.724610 2.104719 0.000000
72.493317 106.678670 2.134534 0.000000
85.599800 107.032330 1.964602 0.000000
77.077507 106.589130 2.074019 0.000000
82.937347 106.520520 1.999251 0.000000
81.248291 106.439370 2.020881 0.000000
79.255142 106.493350 2.046159 0.000000
95.463295 92.371384 0.227146 0.000000
94.674950 92.032669 0.216631 0.000000
94.360550 91.439529 0.224476 0.000000
93.918106 90.905869 0.227280 0.000000
92.830826 90.655281 0.206159 0.000000
92.305756 90.130058 0.206128 0.000000
91.884949 89.551926 0.209843 0.000000
91.431793 88.979919 0.212305 0.000000
90.993279 88.394501 0.215209 0.000000
90.526978 87.811020 0.217075 0.000000
89.286743 87.472748 0.192569 0.000000
88.599419 86.924225 0.187263 0.000000
87.889694 86.364220 0.181350 0.000000
85.577538 86.220352 0.123193 0.000000
82.523491 86.185097 0.042560 0.000000
95.590454 98.827293 0.947431 0.000000
94.928825 98.413322 0.950670 0.000000
88.713104 97.843536 0.925710 0.000000
86.998062 97.873428 0.915701 0.000000
85.703636 97.617851 0.912788 0.000000
94.291733 97.969910 0.954536 0.000000
90.705566 97.584457 0.941082 0.000000
84.570114 97.239517 0.912815 0.000000
93.658325 97.512527 0.958657 0.000000
92.514160 97.365372 0.954767 0.000000
83.695923 96.701050 0.916953 0.000000
82.836349 96.134613 0.921638 0.000000
81.033524 95.971725 0.914359 0.000000
79.225815 95.751068 0.908017 0.000000
77.091835 95.604263 0.898633 0.000000
74.986099 95.374603 0.890788 0.000000
73.153038 94.974640 0.887297 0.000000
71.147949 94.576157 0.882828 0.000000
95.121292 107.302510 1.830658 0.000000
94.411118 106.842620 1.838659 0.000000
89.897690 106.270630 1.889067 0.000000
87.157303 106.148550 1.921243 0.000000
93.737976 106.339550 1.846665 0.000000
92.843491 106.022960 1.856959 0.000000
91.418304 106.133960 1.872353 0.000000
89.148811 105.743380 1.899266 0.000000
84.455750 106.994670 1.950432 0.000000
83.003090 106.844600 1.968704 0.000000
74.135788 106.349490 2.084882 0.000000
71.960403 106.300210 2.114332 0.000000
78.555290 106.176040 2.027844 0.000000
76.353394 106.297490 2.055869 0.000000
82.314560 106.128330 1.980286 0.000000
80.491081 106.148470 2.003176 0.000000
95.385223 92.464081 0.230364 0.000000
94.908112 91.986328 0.231691 0.000000
94.247147 91.595306 0.225800 0.000000
93.934845 91.016975 0.233504 0.000000
92.742325 90.851471 0.207620 0.000000
92.316620 90.303078 0.211140 0.000000
91.803535 89.785919 0.211346 0.000000
91.395279 89.215927 0.215356 0.000000
90.951721 88.653503 0.217996 0.000000
90.519272 88.079193 0.220963 0.000000
88.703934 87.219254 0.194050 0.000000
82.562546 86.657974 0.043579 0.000000
88.024376 86.679115 0.188868 0.000000
85.826157 86.561630 0.133069 0.000000
95.636688 98.755028 0.932415 0.000000
94.974449 98.368690 0.935244 0.000000
87.602829 97.751389 0.903618 0.000000
94.375092 97.924942 0.939416 0.000000
89.328476 97.653419 0.915176 0.000000
86.214417 97.599304 0.898275 0.000000
84.953224 97.333984 0.895601 0.000000
93.748672 97.489685 0.943288 0.000000
92.802643 97.252121 0.941943 0.000000
91.144455 97.435623 0.929305 0.000000
84.115723 96.812294 0.899746 0.000000
83.253258 96.283157 0.903875 0.000000
81.964615 95.933685 0.902485 0.000000
80.183182 95.766655 0.895148 0.000000
78.448204 95.520668 0.889430 0.000000
76.189720 95.431770 0.878024 0.000000
74.269562 95.134659 0.872121 0.000000
72.435501 94.743301 0.868327 0.000000
95.192276 107.167480 1.792871 0.000000
83.838638 106.532270 1.918071 0.000000
94.503220 106.714160 1.800423 0.000000
85.883255 106.171190 1.895487 0.000000
93.814972 106.251590 1.808292 0.000000
89.080391 105.928050 1.859849 0.000000
93.177490 105.734220 1.816074 0.000000
92.016891 105.669110 1.828507 0.000000
90.585197 105.795200 1.843627 0.000000
88.279373 105.451460 1.870567 0.000000
82.394997 106.389740 1.936014 0.000000
75.693237 105.927150 2.022469 0.000000
73.596306 105.920010 2.049848 0.000000
71.446274 105.870230 2.078603 0.000000
79.805313 105.771880 1.970934 0.000000
77.856743 105.818560 1.995307 0.000000
81.713089 105.683070 1.947672 0.000000
93.771393 91.201706 0.239705 0.000000
92.644737 91.038475 0.215759 0.000000
92.297150 90.472725 0.222216 0.000000
91.798454 89.971985 0.222828 0.000000
91.293167 89.464622 0.223193 0.000000
90.900925 88.901184 0.227683 0.000000
90.463898 88.349464 0.230453 0.000000
82.580070 87.122513 0.052361 0.000000
89.511154 87.249908 0.233066 0.000000
88.115074 86.987541 0.202661 0.000000
85.993652 86.903961 0.148443 0.000000
82.198456 86.397697 0.059157 0.000000
95.238869 92.580948 0.237539 0.000000
94.748917 92.129890 0.238240 0.000000
94.464554 91.560478 0.247129 0.000000
87.943970 97.749413 0.896433 0.000000
81.095299 95.755783 0.892270 0.000000
79.322243 95.591019 0.885029 0.000000
95.656876 98.682625 0.924133 0.000000
94.999191 98.319969 0.926736 0.000000
94.408508 97.895142 0.930812 0.000000
89.766953 97.532761 0.910649 0.000000
86.789742 97.509377 0.894049 0.000000
85.416595 97.356606 0.888883 0.000000
93.819046 97.459808 0.935079 0.000000
91.431946 97.350319 0.923361 0.000000
84.479622 96.925484 0.891091 0.000000
93.042542 97.141838 0.936219 0.000000
83.656281 96.411552 0.895401 0.000000
82.805984 95.891525 0.899663 0.000000
77.481232 95.396584 0.877921 0.000000
75.365067 95.253517 0.868340 0.000000
73.546638 94.923637 0.863736 0.000000
71.830818 94.497398 0.861409 0.000000
95.704735 106.553220 1.759406 0.000000
94.550705 106.611250 1.770286 0.000000
84.549995 106.266130 1.878790 0.000000
83.203400 106.111250 1.895349 0.000000
81.775391 105.971360 1.913163 0.000000
93.892853 106.145030 1.777749 0.000000
93.235596 105.671250 1.785527 0.000000
89.741333 105.492020 1.823041 0.000000
88.229294 105.639850 1.839252 0.000000
87.021500 105.491990 1.853492 0.000000
92.569702 105.197990 1.793696 0.000000
91.160339 105.367720 1.808089 0.000000
75.037079 105.584110 1.999914 0.000000
73.044342 105.528050 2.026272 0.000000
70.919449 105.478170 2.054739 0.000000
79.102509 105.435050 1.948956 0.000000
77.129669 105.508150 1.973486 0.000000
80.956963 105.371140 1.926238 0.000000
92.537888 91.176346 0.225557 0.000000
92.113174 90.666168 0.228699 0.000000
91.772041 90.110725 0.234950 0.000000
91.282928 89.618889 0.235458 0.000000
90.796112 89.116783 0.236046 0.000000
90.413071 88.563004 0.240425 0.000000
89.984459 88.021385 0.243050 0.000000
82.601624 87.526810 0.059572 0.000000
86.119621 87.195961 0.161384 0.000000
88.914368 86.989105 0.240659 0.000000
82.230240 86.820015 0.066410 0.000000
81.854309 86.108719 0.072934 0.000000
95.723160 92.979340 0.253706 0.000000
95.163017 92.602386 0.250922 0.000000
94.695984 92.159851 0.252077 0.000000
94.296387 91.672440 0.255941 0.000000
95.617340 98.592453 0.920839 0.000000
94.988319 98.233490 0.923419 0.000000
94.409225 97.824692 0.927163 0.000000
90.042763 97.435890 0.908310 0.000000
88.371765 97.615799 0.895350 0.000000
87.231895 97.412674 0.892205 0.000000
85.956215 97.253418 0.887495 0.000000
93.829384 97.407181 0.931055 0.000000
91.659607 97.229614 0.921413 0.000000
84.781364 96.996948 0.885077 0.000000
93.213913 97.005356 0.934464 0.000000
83.995346 96.496521 0.889208 0.000000
83.185356 95.990494 0.893295 0.000000
81.751633 95.772072 0.888691 0.000000
80.221764 95.552963 0.883535 0.000000
78.607079 95.322510 0.878078 0.000000
76.531082 95.237289 0.867373 0.000000
74.656090 94.999443 0.860517 0.000000
72.830185 94.680939 0.855359 0.000000
71.251114 94.212685 0.854268 0.000000
95.637344 106.454380 1.739717 0.000000
94.943253 106.073390 1.746639 0.000000
93.899933 106.033780 1.756487 0.000000
86.939896 105.678490 1.829272 0.000000
83.869446 105.834010 1.863279 0.000000
82.536102 105.682010 1.879452 0.000000
81.007164 105.625870 1.897833 0.000000
85.761589 105.503330 1.843092 0.000000
80.205063 105.024490 1.910556 0.000000
93.270103 105.557790 1.763574 0.000000
90.267479 105.068160 1.795421 0.000000
88.862686 105.188030 1.810021 0.000000
92.605011 105.109160 1.771241 0.000000
91.661819 104.904250 1.781378 0.000000
76.395058 105.169620 1.956953 0.000000
74.431625 105.176890 1.981830 0.000000
72.436226 105.134820 2.007817 0.000000
78.366936 105.087360 1.932793 0.000000
95.629166 86.523621 -0.241325 0.000000
90.798111 89.300392 0.240680 0.000000
90.326797 88.804794 0.241526 0.000000
89.950378 88.261520 0.245870 0.000000
82.626938 87.942535 0.058938 0.000000
82.265854 87.252731 0.066052 0.000000
88.964226 87.244324 0.245861 0.000000
88.339981 86.765663 0.241234 0.000000
81.901024 86.558861 0.072872 0.000000
95.512825 93.083984 0.253104 0.000000
95.095169 92.637230 0.256080 0.000000
94.657753 92.197739 0.258128 0.000000
94.267944 91.724617 0.262102 0.000000
93.957436 91.203262 0.269216 0.000000
93.040756 91.006073 0.251616 0.000000
92.028481 90.829941 0.230764 0.000000
91.611031 90.329391 0.233869 0.000000
91.275436 89.784447 0.240054 0.000000
95.577034 98.530197 0.907791 0.000000
94.982864 98.167763 0.910589 0.000000
94.425026 97.766472 0.914300 0.000000
88.693390 97.557106 0.882892 0.000000
87.601074 97.367279 0.879570 0.000000
93.856346 97.365044 0.917946 0.000000
91.878014 97.128098 0.910031 0.000000
90.316910 97.351723 0.896491 0.000000
86.411087 97.203033 0.875195 0.000000
85.095093 97.074448 0.869414 0.000000
93.241364 96.988434 0.920868 0.000000
84.314590 96.603676 0.872995 0.000000
83.541382 96.111130 0.877007 0.000000
82.744629 95.613075 0.880973 0.000000
80.897079 95.613388 0.869644 0.000000
79.379021 95.394714 0.864225 0.000000
77.662170 95.216370 0.856872 0.000000
75.690292 95.090683 0.847020 0.000000
73.997314 94.784706 0.842080 0.000000
72.262993 94.440414 0.837568 0.000000
95.708649 106.247240 1.707695 0.000000
85.722900 105.734410 1.805829 0.000000
94.917473 105.999860 1.714865 0.000000
84.624313 105.493670 1.818793 0.000000
83.224731 105.450180 1.834567 0.000000
81.908714 105.298450 1.850238 0.000000
80.275856 105.328860 1.869007 0.000000
94.317810 105.534760 1.721038 0.000000
93.313919 105.472950 1.730314 0.000000
87.687622 105.210930 1.786894 0.000000
79.489258 104.726730 1.881512 0.000000
92.692245 105.007030 1.737269 0.000000
91.731796 104.853600 1.746944 0.000000
89.413589 104.811290 1.770338 0.000000
90.796494 104.649310 1.756813 0.000000
75.718399 104.868090 1.926427 0.000000
73.859512 104.823080 1.949824 0.000000
71.729538 104.872710 1.976399 0.000000
77.624786 104.817400 1.903414 0.000000
95.624710 86.551102 -0.196242 0.000000
95.243927 86.140793 -0.199288 0.000000
82.176941 87.654327 0.079231 0.000000
88.844681 87.492973 0.261022 0.000000
81.822266 86.975830 0.086275 0.000000
88.281525 87.015472 0.258274 0.000000
86.889328 86.812820 0.226272 0.000000
81.463921 86.293335 0.093028 0.000000
95.300438 93.119125 0.268349 0.000000
94.853416 92.708893 0.269777 0.000000
94.538147 92.209587 0.276840 0.000000
94.159729 91.748474 0.281003 0.000000
93.778465 91.285583 0.284922 0.000000
92.695663 91.210541 0.259934 0.000000
92.308319 90.726959 0.263833 0.000000
91.428337 90.491898 0.248029 0.000000
91.018066 89.999657 0.251118 0.000000
90.689407 89.463226 0.257277 0.000000
90.228600 88.983475 0.258245 0.000000
89.765640 88.496178 0.259119 0.000000
89.395462 87.962234 0.263411 0.000000
95.432343 98.469452 0.909227 0.000000
94.873543 98.099533 0.912405 0.000000
94.334045 97.705437 0.916131 0.000000
88.815910 97.535019 0.885528 0.000000
87.687828 97.406998 0.880930 0.000000
86.568192 97.237633 0.877120 0.000000
91.771606 97.168037 0.910077 0.000000
90.393692 97.309113 0.899167 0.000000
85.384048 97.072342 0.872843 0.000000
93.106796 97.007004 0.921082 0.000000
84.489929 96.700844 0.874006 0.000000
83.720604 96.236191 0.877587 0.000000
82.958481 95.750069 0.881594 0.000000
81.392822 95.659454 0.873663 0.000000
79.879700 95.490433 0.867448 0.000000
76.482704 95.171158 0.852424 0.000000
78.512787 95.203156 0.864229 0.000000
74.791512 94.924164 0.846511 0.000000
73.109154 94.618645 0.841695 0.000000
71.498764 94.231216 0.838774 0.000000
95.503685 106.245740 1.694873 0.000000
84.436150 105.790250 1.802334 0.000000
94.883286 105.831510 1.700608 0.000000
86.302338 105.354590 1.784063 0.000000
83.822060 105.163940 1.811650 0.000000
82.435165 105.120160 1.827334 0.000000
81.005531 105.061060 1.843911 0.000000
79.374557 105.096280 1.862689 0.000000
94.187355 105.493470 1.707146 0.000000
78.592438 104.497330 1.875172 0.000000
93.596001 105.035050 1.713270 0.000000
92.585236 104.995130 1.722599 0.000000
91.680222 104.819110 1.731549 0.000000
90.724167 104.665850 1.741220 0.000000
88.166641 104.841460 1.766421 0.000000
89.793274 104.461850 1.751084 0.000000
71.003387 104.566960 1.968680 0.000000
76.710220 104.605580 1.897249 0.000000
74.862854 104.624460 1.919794 0.000000
73.088051 104.535220 1.942488 0.000000
71.033043 111.057660 7.518782 0.000000
95.589012 87.719185 -0.196459 0.000000
95.483818 87.192238 -0.181533 0.000000
95.302948 86.706161 -0.171939 0.000000
95.232025 86.172424 -0.155993 0.000000
82.859207 87.769737 0.119238 0.000000
81.716019 87.382568 0.098226 0.000000
86.662857 87.144318 0.236161 0.000000
81.367386 86.714676 0.105114 0.000000
80.717445 86.129181 0.101617 0.000000
95.244362 93.037666 0.290903 0.000000
94.676384 92.731186 0.286495 0.000000
94.407608 92.216728 0.295320 0.000000
93.360794 91.502396 0.290582 0.000000
92.379959 91.395416 0.269303 0.000000
92.075363 90.879219 0.276399 0.000000
91.694397 90.403358 0.280203 0.000000
90.828667 90.171967 0.264661 0.000000
90.425156 89.687569 0.267667 0.000000
90.107780 89.156990 0.273912 0.000000
89.658287 88.683334 0.274974 0.000000
89.202888 88.204025 0.275796 0.000000
88.726852 87.724457 0.275849 0.000000
88.154381 87.272491 0.272411 0.000000
95.280807 98.409592 0.912081 0.000000
94.752525 98.033890 0.915527 0.000000
94.223007 97.652359 0.919068 0.000000
88.924004 97.503502 0.889563 0.000000
87.718796 97.466896 0.882901 0.000000
86.643883 97.304359 0.879259 0.000000
91.666428 97.198692 0.911592 0.000000
90.316803 97.361191 0.900530 0.000000
85.523071 97.137283 0.875418 0.000000
84.612999 96.807579 0.875733 0.000000
92.967331 97.022438 0.922601 0.000000
83.877380 96.351868 0.879338 0.000000
83.118805 95.892708 0.882864 0.000000
81.780060 95.727097 0.877675 0.000000
80.368019 95.555916 0.872140 0.000000
79.065186 95.285202 0.869030 0.000000
77.317917 95.183029 0.860241 0.000000
75.435173 95.082848 0.850595 0.000000
73.865295 94.785027 0.846344 0.000000
72.267639 94.448570 0.842609 0.000000
94.707649 105.820810 1.690441 0.000000
84.925804 105.518670 1.783997 0.000000
83.626907 105.483630 1.798058 0.000000
78.463211 104.894610 1.859193 0.000000
94.148651 105.350640 1.695717 0.000000
86.783981 105.019200 1.766261 0.000000
83.017868 104.862050 1.807258 0.000000
81.619362 104.835530 1.823038 0.000000
80.086670 104.859770 1.840444 0.000000
93.476738 105.001220 1.702056 0.000000
91.576637 104.832160 1.719563 0.000000
90.674393 104.656970 1.728497 0.000000
77.636673 104.331020 1.871983 0.000000
92.990616 104.448010 1.707390 0.000000
89.721237 104.504490 1.738154 0.000000
88.619247 104.459110 1.749275 0.000000
75.802094 104.411800 1.893709 0.000000
74.067764 104.364320 1.915318 0.000000
72.026703 104.443790 1.940336 0.000000
95.721291 88.148079 -0.177072 0.000000
95.580460 87.652222 -0.164356 0.000000
95.306129 87.229195 -0.160832 0.000000
95.131577 86.755165 -0.151237 0.000000
94.950935 86.286034 -0.142484 0.000000
82.537964 87.437881 0.120626 0.000000
81.460693 87.045296 0.100742 0.000000
85.534851 87.091942 0.210842 0.000000
81.122604 86.391304 0.107196 0.000000
95.553024 93.324684 0.297027 0.000000
95.081932 92.980972 0.296110 0.000000
94.659195 92.595612 0.297419 0.000000
94.199509 92.230118 0.297012 0.000000
93.938133 91.727646 0.305367 0.000000
93.146355 91.561295 0.290388 0.000000
92.289276 91.410736 0.273090 0.000000
91.853348 90.988785 0.274054 0.000000
91.557220 90.482162 0.280775 0.000000
91.186546 90.015045 0.284242 0.000000
90.343323 89.786423 0.268611 0.000000
89.953491 89.309784 0.271390 0.000000
89.654221 88.785194 0.277618 0.000000
89.217171 88.320633 0.278368 0.000000
88.686989 87.888062 0.275564 0.000000
88.180786 87.433762 0.273735 0.000000
86.881340 87.275681 0.242721 0.000000
95.743294 98.558395 0.901760 0.000000
95.162582 98.263458 0.903020 0.000000
94.652153 97.894341 0.906044 0.000000
89.025391 97.421921 0.876656 0.000000
87.860138 97.400139 0.869244 0.000000
94.136597 97.523689 0.909060 0.000000
91.671959 97.093826 0.900075 0.000000
90.372688 97.264908 0.888403 0.000000
86.972168 97.150269 0.867664 0.000000
85.885872 97.005386 0.862926 0.000000
84.854813 96.791519 0.859761 0.000000
92.872284 96.952652 0.910564 0.000000
84.156509 96.345200 0.862875 0.000000
83.438385 95.895645 0.865912 0.000000
82.282127 95.675125 0.862026 0.000000
80.978577 95.497879 0.856400 0.000000
79.589760 95.322647 0.850169 0.000000
78.255676 95.075531 0.845557 0.000000
76.538261 94.966843 0.835969 0.000000
74.915192 94.758026 0.828757 0.000000
73.381958 94.457787 0.823740 0.000000
71.850037 94.108337 0.819590 0.000000
95.613533 105.553740 1.659601 0.000000
94.014633 105.250890 1.671445 0.000000
85.580856 105.024800 1.745451 0.000000
84.166260 105.147920 1.758995 0.000000
82.964462 105.045200 1.771492 0.000000
77.748672 104.546780 1.829422 0.000000
87.371292 104.506830 1.729770 0.000000
82.366638 104.428600 1.780014 0.000000
80.882462 104.481110 1.795496 0.000000
79.383621 104.491870 1.811645 0.000000
75.178787 104.026570 1.861308 0.000000
93.487373 104.763270 1.676021 0.000000
90.671066 104.545000 1.699681 0.000000
89.781006 104.366320 1.707906 0.000000
88.659325 104.380640 1.718064 0.000000
76.972458 103.960140 1.841098 0.000000
92.899277 104.341960 1.681271 0.000000
92.094276 104.142360 1.688244 0.000000
73.548141 103.926900 1.880906 0.000000
71.511864 104.018870 1.904541 0.000000
70.879349 110.769210 5.943445 0.000000
95.712135 88.591911 -0.180801 0.000000
95.605392 88.085953 -0.166253 0.000000
95.414169 87.633621 -0.158036 0.000000
95.337837 87.121918 -0.142598 0.000000
95.078247 86.711098 -0.139871 0.000000
94.914391 86.251556 -0.131213 0.000000
83.314041 87.436134 0.112739 0.000000
82.682404 86.937920 0.106081 0.000000
81.667114 86.549751 0.085399 0.000000
95.428909 93.183235 0.295157 0.000000
94.986496 92.840149 0.293862 0.000000
94.603516 92.447342 0.295361 0.000000
94.259186 92.023994 0.298553 0.000000
93.818062 91.664795 0.297138 0.000000
92.948349 91.579056 0.276329 0.000000
92.358002 91.289444 0.268535 0.000000
91.949707 90.875557 0.268902 0.000000
91.536774 90.458923 0.269002 0.000000
91.258919 89.960968 0.274798 0.000000
90.909096 89.501572 0.277354 0.000000
90.109695 89.269447 0.261176 0.000000
89.755089 88.795120 0.263553 0.000000
89.475624 88.281273 0.268841 0.000000
89.020355 87.845039 0.266954 0.000000
88.458603 87.445427 0.260891 0.000000
87.981995 86.997559 0.258234 0.000000
86.224709 87.035660 0.206638 0.000000
95.618973 98.354927 0.889286 0.000000
94.592468 97.677910 0.891459 0.000000
94.099976 97.310738 0.893187 0.000000
89.352875 97.121811 0.855656 0.000000
88.161873 97.167465 0.844734 0.000000
92.881622 96.756889 0.891728 0.000000
90.619019 96.973709 0.868876 0.000000
87.648666 96.692894 0.848022 0.000000
85.621414 96.379745 0.835754 0.000000
84.664627 96.140465 0.831444 0.000000
83.325188 95.244736 0.834479 0.000000
81.876816 95.210938 0.822642 0.000000
80.630287 95.019554 0.815080 0.000000
78.195068 94.490143 0.802822 0.000000
73.791290 93.738754 0.777323 0.000000
70.802780 93.025070 0.763314 0.000000
95.084702 98.040062 0.889811 0.000000
91.791168 96.853287 0.880846 0.000000
86.641411 96.547821 0.841757 0.000000
84.003792 95.694183 0.833012 0.000000
79.461609 94.748596 0.809471 0.000000
76.587799 94.352577 0.791305 0.000000
75.216530 94.055527 0.784385 0.000000
72.222717 93.435776 0.768812 0.000000
95.409302 105.444310 1.640018 0.000000
94.850273 105.032880 1.642408 0.000000
84.748016 104.701050 1.709302 0.000000
83.649139 104.566380 1.718346 0.000000
82.512299 104.428800 1.728019 0.000000
93.408211 104.579950 1.649955 0.000000
87.580109 104.269390 1.688386 0.000000
86.360840 104.334900 1.697423 0.000000
80.461441 103.879520 1.747126 0.000000
79.023949 103.864620 1.760030 0.000000
77.451309 103.895920 1.774342 0.000000
92.946808 104.039890 1.652536 0.000000
92.060074 103.964020 1.657979 0.000000
89.887932 104.131940 1.672145 0.000000
88.848236 104.110890 1.679398 0.000000
81.919662 103.827700 1.734565 0.000000
76.739594 103.287050 1.783309 0.000000
75.046265 103.310360 1.799475 0.000000
73.322311 103.294010 1.816461 0.000000
91.274399 103.755220 1.663081 0.000000
71.431877 103.319330 1.835274 0.000000
95.673523 88.448357 -0.159987 0.000000
95.374153 88.075020 -0.159669 0.000000
83.078842 87.062988 0.095821 0.000000
95.302025 87.567062 -0.143796 0.000000
95.137268 87.118515 -0.134944 0.000000
82.638451 86.515388 0.095006 0.000000
81.665482 86.133987 0.073859 0.000000
94.676292 86.297417 -0.127451 0.000000
95.741470 93.347183 0.295769 0.000000
95.372025 92.972443 0.296990 0.000000
94.860641 92.707138 0.290971 0.000000
94.518974 92.302643 0.293415 0.000000
94.186134 91.890503 0.296118 0.000000
92.743225 91.590492 0.264500 0.000000
92.234375 91.269577 0.259116 0.000000
91.953560 90.794838 0.264207 0.000000
91.560791 90.388489 0.264039 0.000000
91.163879 89.979477 0.263613 0.000000
90.897583 89.492012 0.268830 0.000000
89.806274 88.804245 0.254857 0.000000
89.466652 88.340096 0.256686 0.000000
89.175285 87.849426 0.260396 0.000000
88.645744 87.463570 0.254196 0.000000
88.056091 87.091118 0.245652 0.000000
87.085899 86.858879 0.222059 0.000000
85.822891 86.709732 0.187420 0.000000
95.490318 98.145470 0.873157 0.000000
94.993919 97.816086 0.873386 0.000000
94.520126 97.459076 0.874272 0.000000
88.380585 96.965935 0.820950 0.000000
94.042053 97.101753 0.875120 0.000000
90.714157 96.775208 0.847146 0.000000
89.559952 96.882370 0.833988 0.000000
92.831268 96.594994 0.871026 0.000000
91.789238 96.690941 0.859159 0.000000
87.889999 96.502747 0.823334 0.000000
87.169250 96.196655 0.820966 0.000000
86.203568 96.039528 0.813827 0.000000
85.020615 95.994911 0.802763 0.000000
84.399490 95.556778 0.803455 0.000000
83.763596 95.115677 0.804049 0.000000
83.083633 94.687469 0.804001 0.000000
81.345856 94.835350 0.784401 0.000000
80.138771 94.635849 0.775525 0.000000
79.288315 94.215088 0.773665 0.000000
77.857239 94.057976 0.761898 0.000000
76.418854 93.857430 0.750738 0.000000
75.177032 93.522034 0.743648 0.000000
73.819977 93.198242 0.735230 0.000000
72.256653 92.916359 0.724103 0.000000
70.901291 92.503647 0.717097 0.000000
95.351410 105.143680 1.611042 0.000000
94.721321 104.848240 1.612613 0.000000
86.580292 104.113130 1.651204 0.000000
85.381302 104.163710 1.658463 0.000000
84.205147 104.151550 1.665943 0.000000
83.135208 104.009550 1.673209 0.000000
82.028839 103.864610 1.681033 0.000000
94.216675 104.388290 1.613756 0.000000
88.953949 103.902110 1.637771 0.000000
87.792641 104.005300 1.644200 0.000000
78.605057 103.305340 1.707418 0.000000
77.090988 103.313510 1.719167 0.000000
92.862106 103.874460 1.618651 0.000000
92.160446 103.625640 1.621602 0.000000
91.274315 103.561510 1.625774 0.000000
81.458008 103.264270 1.686301 0.000000
79.994972 103.337720 1.696839 0.000000
72.929779 102.788310 1.755223 0.000000
90.507233 103.345270 1.629582 0.000000
76.406410 102.705480 1.726621 0.000000
74.807190 102.686680 1.739816 0.000000
71.225418 102.718110 1.770210 0.000000
95.490807 89.355392 -0.124161 0.000000
82.454514 88.812866 0.132841 0.000000
95.223549 88.968849 -0.119634 0.000000
82.202469 88.197205 0.141478 0.000000
95.136719 88.465012 -0.102743 0.000000
94.964386 88.022858 -0.092486 0.000000
81.903885 87.599289 0.148132 0.000000
94.700684 87.639145 -0.088987 0.000000
81.609398 86.997475 0.154741 0.000000
79.327454 86.335205 0.106750 0.000000
94.314583 86.789734 -0.073483 0.000000
81.306107 86.396080 0.160841 0.000000
94.122742 86.366760 -0.066273 0.000000
93.585594 86.120651 -0.081913 0.000000
95.608345 93.670792 0.335217 0.000000
95.165649 93.373024 0.334071 0.000000
94.749802 93.046410 0.334269 0.000000
94.407181 92.655647 0.338023 0.000000
94.072311 92.257935 0.341980 0.000000
92.811119 91.889221 0.321788 0.000000
92.171806 91.685478 0.311750 0.000000
91.484528 91.496933 0.299847 0.000000
91.143692 91.064163 0.303680 0.000000
90.855072 90.596733 0.309646 0.000000
90.452255 90.197998 0.310485 0.000000
90.044281 89.796616 0.311056 0.000000
89.771584 89.314171 0.317228 0.000000
88.653877 88.639854 0.305786 0.000000
88.197586 88.232780 0.304374 0.000000
85.675156 88.108002 0.239137 0.000000
87.651825 87.858498 0.299460 0.000000
88.576591 97.384750 0.864644 0.000000
87.764854 97.193596 0.861900 0.000000
79.353226 95.098549 0.835410 0.000000
72.406204 94.026627 0.802377 0.000000
95.502808 98.405060 0.898398 0.000000
95.001610 98.099747 0.899879 0.000000
94.527069 97.760872 0.902124 0.000000
94.051651 97.418648 0.904419 0.000000
90.830215 97.148956 0.885248 0.000000
89.722176 97.272491 0.874988 0.000000
86.932571 96.995094 0.859130 0.000000
85.991852 96.851883 0.854624 0.000000
84.984222 96.726685 0.849320 0.000000
92.888870 96.917915 0.904335 0.000000
91.898087 97.018509 0.895328 0.000000
84.336990 96.326637 0.851329 0.000000
83.689758 95.913559 0.853559 0.000000
83.045609 95.485504 0.856065 0.000000
81.714478 95.457260 0.846734 0.000000
80.517242 95.306297 0.840469 0.000000
78.133331 94.884270 0.830051 0.000000
76.575554 94.803909 0.819932 0.000000
75.214638 94.575027 0.813781 0.000000
73.903198 94.279854 0.809118 0.000000
71.096741 93.645882 0.799178 0.000000
95.450729 105.483350 1.618365 0.000000
94.908707 105.086150 1.620911 0.000000
94.305710 104.770050 1.624103 0.000000
86.951721 104.528450 1.675516 0.000000
85.766640 104.623830 1.685065 0.000000
84.671295 104.591650 1.694388 0.000000
83.889465 104.240460 1.701974 0.000000
80.322342 104.081020 1.735321 0.000000
93.702553 104.447920 1.627550 0.000000
82.781265 104.157110 1.712122 0.000000
81.672943 104.038260 1.722669 0.000000
78.086258 103.674160 1.758715 0.000000
76.594040 103.693190 1.773811 0.000000
75.017975 103.719090 1.790079 0.000000
72.382736 103.271330 1.820449 0.000000
93.263977 103.915960 1.630203 0.000000
91.425735 103.979370 1.642421 0.000000
88.710449 103.793330 1.662599 0.000000
79.655136 103.541930 1.743606 0.000000
74.370651 103.063190 1.799953 0.000000
90.699799 103.747720 1.647704 0.000000
89.781380 103.706500 1.654507 0.000000
70.842194 103.126510 1.838197 0.000000
83.374390 89.760818 0.212387 0.000000
82.115883 89.634979 0.185389 0.000000
95.628334 89.921249 -0.083034 0.000000
81.574127 89.152725 0.185699 0.000000
95.300797 89.592651 -0.080935 0.000000
81.282455 88.554329 0.195135 0.000000
95.088425 89.178429 -0.070752 0.000000
94.905861 88.746529 -0.058936 0.000000
80.894440 87.992912 0.200919 0.000000
94.725479 88.317215 -0.047493 0.000000
80.622086 87.382065 0.210668 0.000000
79.650269 87.020401 0.195997 0.000000
94.285980 87.517738 -0.031440 0.000000
78.966682 86.531906 0.191667 0.000000
93.959717 87.182823 -0.031109 0.000000
93.506378 86.916000 -0.039303 0.000000
93.316277 86.494659 -0.030353 0.000000
92.993332 86.144470 -0.030306 0.000000
95.627968 93.735977 0.364521 0.000000
95.115433 93.525162 0.361228 0.000000
94.697388 93.219177 0.362919 0.000000
94.362274 92.836800 0.368719 0.000000
94.027840 92.453667 0.374364 0.000000
91.819199 92.198593 0.334760 0.000000
92.918655 92.025955 0.364462 0.000000
91.506714 91.763008 0.341800 0.000000
91.097824 91.394264 0.344356 0.000000
90.802200 90.944656 0.351809 0.000000
90.093018 90.760864 0.341351 0.000000
89.738907 90.337234 0.346248 0.000000
89.438980 89.878235 0.353273 0.000000
89.020157 89.486145 0.355287 0.000000
88.603027 89.086426 0.357361 0.000000
88.294098 88.622978 0.363676 0.000000
95.604416 98.430161 0.903065 0.000000
95.093346 98.159805 0.905916 0.000000
88.938217 97.517639 0.890202 0.000000
87.847916 97.600441 0.883654 0.000000
87.074654 97.389038 0.884184 0.000000
94.151657 97.512688 0.914023 0.000000
91.105728 97.239197 0.905398 0.000000
90.038300 97.384941 0.897749 0.000000
85.173935 97.168625 0.879755 0.000000
84.480377 96.829002 0.883102 0.000000
93.684845 97.178711 0.918294 0.000000
92.104706 97.116295 0.912298 0.000000
83.832260 96.442413 0.887555 0.000000
83.184959 96.042183 0.892274 0.000000
82.139534 95.884758 0.890531 0.000000
80.975403 95.768158 0.887466 0.000000
79.798119 95.621666 0.884913 0.000000
77.105255 95.401794 0.876868 0.000000
75.554535 95.332817 0.871132 0.000000
78.635315 95.429245 0.883306 0.000000
74.255913 95.084488 0.869978 0.000000
72.876198 94.834648 0.868483 0.000000
71.490822 94.543800 0.867748 0.000000
86.149544 97.274391 0.882169 0.000000
94.621170 97.839722 0.909897 0.000000
71.560944 103.823520 1.867896 0.000000
84.159561 104.732540 1.705066 0.000000
83.345963 104.423150 1.715595 0.000000
78.882065 103.976940 1.771303 0.000000
77.361252 104.092070 1.789794 0.000000
74.922745 103.723300 1.823585 0.000000
73.377075 103.709530 1.844186 0.000000
94.484253 104.890200 1.603904 0.000000
86.781288 104.275150 1.678094 0.000000
85.618149 104.384250 1.690272 0.000000
82.494934 104.129040 1.726786 0.000000
81.675728 103.787260 1.738126 0.000000
80.286362 103.901660 1.754365 0.000000
76.627594 103.563950 1.802338 0.000000
70.797028 103.195360 1.882875 0.000000
93.925941 104.529660 1.609002 0.000000
89.096268 103.931560 1.655131 0.000000
88.056152 104.001980 1.665584 0.000000
93.468262 104.034530 1.613721 0.000000
92.910767 103.672590 1.619319 0.000000
92.141029 103.567050 1.626555 0.000000
91.372398 103.438320 1.634089 0.000000
90.574165 103.322240 1.642131 0.000000
81.747665 89.887001 0.219401 0.000000
81.200653 89.422256 0.219019 0.000000
95.486038 90.205055 -0.042331 0.000000
95.181793 89.871758 -0.038688 0.000000
80.763138 88.898018 0.222633 0.000000
94.893646 89.524765 -0.034152 0.000000
94.698654 89.107788 -0.023216 0.000000
80.480255 88.302040 0.231656 0.000000
94.518707 88.683998 -0.011730 0.000000
79.914001 87.817390 0.230591 0.000000
79.160728 87.390244 0.223197 0.000000
94.038109 87.929100 0.001392 0.000000
78.459381 86.924011 0.217829 0.000000
93.595093 87.682190 -0.006297 0.000000
77.778122 86.432457 0.213341 0.000000
74.144882 86.074532 0.131453 0.000000
93.247208 87.101631 0.003204 0.000000
92.640739 86.669319 -0.004763 0.000000
92.455345 86.250946 0.003857 0.000000
95.467499 94.090515 0.393433 0.000000
95.057144 93.798073 0.395214 0.000000
94.724831 93.426987 0.400971 0.000000
94.314926 93.128151 0.402595 0.000000
93.446976 92.557762 0.403399 0.000000
92.732445 92.495552 0.390500 0.000000
91.987808 92.434593 0.376733 0.000000
91.551697 92.111649 0.377619 0.000000
90.911499 91.934113 0.369360 0.000000
90.604965 91.499733 0.376120 0.000000
90.201805 91.132324 0.378499 0.000000
89.911629 90.684570 0.385622 0.000000
89.208130 90.501923 0.375314 0.000000
88.860107 90.079926 0.379956 0.000000
83.636536 89.666946 0.270374 0.000000
88.566574 89.622589 0.386674 0.000000
85.927322 89.165909 0.338454 0.000000
88.156349 89.230919 0.388591 0.000000
87.696136 88.860100 0.388541 0.000000
95.113373 98.442413 0.934219 0.000000
88.198105 97.912498 0.914959 0.000000
87.234360 97.904373 0.911089 0.000000
85.524933 97.615829 0.909172 0.000000
89.302078 97.757439 0.922360 0.000000
84.745857 97.375267 0.910267 0.000000
93.725128 97.485748 0.945702 0.000000
92.309929 97.331093 0.942595 0.000000
91.337128 97.483818 0.935783 0.000000
84.081055 97.029190 0.913744 0.000000
83.437447 96.653854 0.917837 0.000000
81.776230 96.113602 0.920665 0.000000
80.615295 96.021835 0.917482 0.000000
79.433556 95.904861 0.914668 0.000000
78.176865 95.794022 0.911430 0.000000
76.831223 95.692703 0.907650 0.000000
75.417099 95.584305 0.903712 0.000000
74.109314 95.373322 0.902070 0.000000
72.791382 95.126022 0.901040 0.000000
71.400711 94.872375 0.899822 0.000000
95.614471 98.706810 0.931535 0.000000
86.387619 97.766335 0.910051 0.000000
94.654152 98.122589 0.938078 0.000000
90.334602 97.626343 0.929031 0.000000
94.191772 97.803513 0.941911 0.000000
82.792122 96.266830 0.922133 0.000000
84.962021 104.865300 1.724702 0.000000
82.898361 104.738230 1.748467 0.000000
77.283035 104.226720 1.819246 0.000000
75.757957 104.329820 1.838578 0.000000
71.652740 103.988170 1.895559 0.000000
95.385994 105.294650 1.625978 0.000000
87.280663 104.572330 1.700288 0.000000
86.242172 104.613650 1.711277 0.000000
84.181580 104.570090 1.734213 0.000000
82.078041 104.429980 1.759063 0.000000
81.135834 104.211830 1.771113 0.000000
78.760696 104.106060 1.800926 0.000000
75.030502 103.783550 1.850852 0.000000
73.419556 103.860630 1.872112 0.000000
94.850365 104.923980 1.629975 0.000000
93.465866 104.626780 1.641249 0.000000
80.180145 103.979550 1.783681 0.000000
92.985031 104.166300 1.645552 0.000000
92.262650 104.027590 1.652069 0.000000
91.515251 103.902080 1.659057 0.000000
90.732231 103.800000 1.666612 0.000000
89.952728 103.671260 1.674422 0.000000
88.956848 103.767140 1.684329 0.000000
70.897728 110.722120 8.209606 0.000000
95.694031 90.148117 -0.066339 0.000000
95.076912 89.535332 -0.061859 0.000000
94.886765 89.131592 -0.050744 0.000000
94.710159 88.721992 -0.039134 0.000000
94.536880 88.314735 -0.027821 0.000000
94.345627 87.924835 -0.018372 0.000000
79.650169 86.708397 0.166324 0.000000
78.995712 86.257545 0.160437 0.000000
93.738403 87.303406 -0.017032 0.000000
93.318756 87.062172 -0.024879 0.000000
93.137039 86.665154 -0.016022 0.000000
92.836067 86.340973 -0.015811 0.000000
92.411316 86.083488 -0.024190 0.000000
95.366409 93.652206 0.348094 0.000000
94.976494 93.365158 0.349532 0.000000
94.606262 93.055359 0.352012 0.000000
94.290726 92.691162 0.357406 0.000000
92.695328 92.160881 0.338566 0.000000
92.024269 92.073967 0.325662 0.000000
93.512169 92.096924 0.359720 0.000000
91.645340 91.732681 0.327878 0.000000
91.400017 91.284630 0.336589 0.000000
90.796288 91.106865 0.327694 0.000000
90.504929 90.688660 0.333938 0.000000
90.123291 90.333206 0.335773 0.000000
89.847687 89.902466 0.342415 0.000000
89.185822 89.719734 0.331462 0.000000
83.226700 89.233871 0.192023 0.000000
81.847321 89.225098 0.155808 0.000000
88.857849 89.312271 0.335673 0.000000
81.536972 88.677887 0.163082 0.000000
88.590988 88.865952 0.342427 0.000000
86.039680 88.442780 0.288901 0.000000
81.335930 88.080757 0.174440 0.000000
88.147636 88.520065 0.341424 0.000000
87.603912 88.220535 0.336244 0.000000
80.980667 87.550102 0.179570 0.000000
80.544556 87.046944 0.181520 0.000000
95.569901 98.128555 0.863692 0.000000
95.096588 97.861923 0.865541 0.000000
94.656174 97.550491 0.868471 0.000000
88.768829 97.136665 0.836073 0.000000
88.022766 96.992188 0.833724 0.000000
94.215523 97.237274 0.871432 0.000000
90.709335 96.916428 0.853558 0.000000
89.752571 97.032433 0.844796 0.000000
87.467911 96.662109 0.836226 0.000000
86.633392 96.554756 0.832563 0.000000
85.781868 96.435341 0.829014 0.000000
84.872238 96.334793 0.824707 0.000000
93.772148 96.924713 0.874363 0.000000
92.512093 96.686157 0.870292 0.000000
91.639313 96.789795 0.862340 0.000000
84.282646 95.967232 0.827686 0.000000
83.677963 95.599602 0.830564 0.000000
83.071869 95.221230 0.833637 0.000000
81.797684 95.276192 0.823867 0.000000
80.705353 95.169250 0.818432 0.000000
79.595383 95.037857 0.813342 0.000000
78.746216 94.716217 0.813669 0.000000
77.410301 94.649239 0.805803 0.000000
76.049133 94.551224 0.798357 0.000000
74.863716 94.315788 0.794737 0.000000
73.630188 94.067818 0.791027 0.000000
72.306061 93.825035 0.786598 0.000000
71.069870 93.500038 0.784339 0.000000
95.480743 104.465290 1.528441 0.000000
94.885582 104.230000 1.531341 0.000000
94.401550 103.818020 1.534059 0.000000
93.156471 103.398700 1.541298 0.000000
92.541183 103.162810 1.545270 0.000000
86.822853 103.764470 1.583975 0.000000
85.832108 103.780600 1.591835 0.000000
84.800125 103.804440 1.600281 0.000000
82.865265 103.621350 1.617741 0.000000
76.296494 102.972370 1.684749 0.000000
72.172714 102.778290 1.730370 0.000000
70.795731 102.624320 1.746850 0.000000
84.077477 103.486050 1.607596 0.000000
82.104187 103.294460 1.625997 0.000000
81.270203 103.016730 1.635002 0.000000
79.055344 102.854970 1.657278 0.000000
77.714935 102.907300 1.670495 0.000000
73.967346 102.587360 1.711894 0.000000
88.403564 103.041110 1.573840 0.000000
80.372879 102.773280 1.644743 0.000000
75.604897 102.445250 1.695145 0.000000
91.825714 103.048320 1.549913 0.000000
91.113831 102.910030 1.554819 0.000000
90.358574 102.806390 1.560194 0.000000
89.410828 102.908160 1.566712 0.000000
88.821259 110.887340 2.539827 0.000000
95.209442 89.530266 -0.079823 0.000000
95.025154 89.136635 -0.068405 0.000000
94.848633 88.741867 -0.056920 0.000000
94.678070 88.347527 -0.045517 0.000000
94.511101 87.955421 -0.034377 0.000000
93.828842 87.180740 -0.029165 0.000000
93.397636 86.725716 -0.028342 0.000000
92.998352 86.490166 -0.036318 0.000000
92.824043 86.107376 -0.027827 0.000000
95.533936 93.593903 0.308333 0.000000
95.222900 93.244919 0.313563 0.000000
94.848709 92.965378 0.314594 0.000000
94.528320 92.628090 0.318824 0.000000
94.223755 92.276016 0.323791 0.000000
93.384262 91.788269 0.319832 0.000000
92.695206 91.774254 0.302766 0.000000
92.137360 91.624222 0.293570 0.000000
91.776947 91.295700 0.295399 0.000000
91.417503 90.963356 0.297197 0.000000
91.183456 90.531029 0.305476 0.000000
90.611542 90.353683 0.296095 0.000000
90.334160 89.949768 0.301903 0.000000
89.971756 89.605103 0.303288 0.000000
89.713516 89.186790 0.309710 0.000000
88.942284 88.801712 0.300648 0.000000
82.136261 88.484268 0.116881 0.000000
88.474609 88.209839 0.306174 0.000000
84.050964 88.194237 0.180770 0.000000
81.861633 87.950089 0.124534 0.000000
88.001724 87.903587 0.302333 0.000000
87.204109 87.764549 0.283975 0.000000
85.890030 87.871284 0.243245 0.000000
81.669693 87.378677 0.135449 0.000000
81.334030 86.869293 0.140144 0.000000
80.903320 86.393425 0.140860 0.000000
95.023491 97.333702 0.810374 0.000000
93.776459 96.388931 0.817652 0.000000
90.910721 96.339066 0.792028 0.000000
88.026779 95.938080 0.773245 0.000000
85.939690 95.356682 0.765466 0.000000
84.357491 95.020180 0.757486 0.000000
83.786438 94.659714 0.759379 0.000000
83.021362 94.422760 0.757003 0.000000
79.752594 94.189323 0.731300 0.000000
79.048889 93.811226 0.732312 0.000000
75.577881 93.290985 0.710456 0.000000
73.015137 92.881798 0.694820 0.000000
95.463257 97.614975 0.808844 0.000000
94.600166 97.029213 0.812521 0.000000
94.176544 96.723801 0.814683 0.000000
90.015503 96.444199 0.781614 0.000000
89.095825 96.538391 0.771190 0.000000
88.474731 96.322571 0.769730 0.000000
92.544991 96.191872 0.810148 0.000000
91.752518 96.254944 0.801527 0.000000
87.503990 95.614281 0.774853 0.000000
86.729065 95.491280 0.770111 0.000000
84.914856 95.380501 0.755471 0.000000
81.681984 94.547821 0.742065 0.000000
80.647858 94.427940 0.734852 0.000000
77.809402 93.721939 0.722581 0.000000
76.579788 93.586166 0.713870 0.000000
74.440491 93.034607 0.705010 0.000000
71.864120 92.556114 0.690631 0.000000
95.485191 103.754070 1.448627 0.000000
94.918045 103.513750 1.449991 0.000000
94.381699 103.218890 1.451598 0.000000
93.942780 102.773400 1.453434 0.000000
92.672821 102.459140 1.457869 0.000000
92.008057 102.321740 1.460493 0.000000
91.321983 102.196010 1.463404 0.000000
90.564346 102.143090 1.466645 0.000000
86.273773 103.088360 1.484258 0.000000
85.420334 102.979490 1.489416 0.000000
84.569351 102.842800 1.494942 0.000000
82.722321 102.635540 1.507397 0.000000
83.877945 102.523860 1.500582 0.000000
82.072487 102.237290 1.513702 0.000000
