# .PCD v0.7 - Point Cloud Data file format
VERSION 0.7
FIELDS x y z intensity
SIZE 4 4 4 4
TYPE F F F F
COUNT 1 1 1 1
WIDTH 1225
HEIGHT 1
VIEWPOINT 0 0 0 1 0 0 0
POINTS 1225
DATA ascii
72.247887 114.724200 6.774172 0.000000
72.688538 112.581520 6.568671 0.000000
71.983856 112.098140 6.576333 0.000000
70.952164 112.037600 6.641878 0.000000
77.368652 118.326770 6.785677 0.000000
72.049690 116.628880 6.945991 0.000000
76.774643 117.555710 7.876134 0.000000
73.687508 115.784130 7.901627 0.000000
74.850777 115.592210 7.797673 0.000000
72.501465 114.367920 7.845401 0.000000
72.235947 113.224780 7.751088 0.000000
71.663170 112.540830 7.728880 0.000000
75.004112 118.872020 8.135405 0.000000
74.516174 117.880690 8.062835 0.000000
72.283752 116.288440 8.057638 0.000000
76.074661 115.256470 8.773358 0.000000
76.602287 117.884430 9.065020 0.000000
71.735054 112.454930 8.813312 0.000000
75.445839 118.106810 9.182420 0.000000
73.799324 117.314040 9.215655 0.000000
90.916145 117.463170 3.148929 0.000000
90.236038 116.853700 3.134922 0.000000
87.078026 116.407360 3.161815 0.000000
89.563522 116.278900 3.122670 0.000000
88.892738 115.752760 3.112733 0.000000
95.345291 121.185380 3.244833 0.000000
84.104904 120.248130 3.342872 0.000000
78.483658 119.934370 3.436932 0.000000
77.499641 119.890700 3.456215 0.000000
76.503174 119.841750 3.476288 0.000000
75.446548 119.877480 3.501132 0.000000
74.387177 119.880170 3.525688 0.000000
94.610168 120.151470 3.212111 0.000000
83.314270 119.860260 3.342755 0.000000
93.803925 119.895950 3.209141 0.000000
82.523933 119.481380 3.343609 0.000000
93.059814 119.265050 3.192540 0.000000
81.740112 119.093320 3.344696 0.000000
80.954056 118.717160 3.346892 0.000000
80.046181 118.623300 3.361602 0.000000
92.328781 118.663910 3.177533 0.000000
85.614738 118.385990 3.253695 0.000000
74.511292 117.765710 3.456171 0.000000
91.586746 118.210390 3.168625 0.000000
74.742531 117.371520 4.561517 0.000000
74.080925 116.730210 4.552867 0.000000
73.603439 115.804120 4.524461 0.000000
77.597809 117.683940 5.584815 0.000000
75.816307 115.494650 5.508451 0.000000
74.189507 114.863780 5.541766 0.000000
75.597443 114.179240 5.427864 0.000000
72.133255 113.286070 5.540180 0.000000
71.325294 112.937650 5.560277 0.000000
75.276680 118.276000 5.726766 0.000000
76.729492 117.451390 5.605082 0.000000
72.195999 116.378040 5.741600 0.000000
77.289452 118.312470 6.764732 0.000000
76.681671 117.555570 6.727906 0.000000
75.081024 116.800750 6.748401 0.000000
76.670197 115.733490 6.564753 0.000000
72.209778 114.735680 6.741732 0.000000
75.283226 114.722050 6.553803 0.000000
74.416565 114.506440 6.586270 0.000000
72.645599 112.554600 6.530730 0.000000
71.888962 112.161440 6.547720 0.000000
70.902077 112.071210 6.606538 0.000000
72.005829 116.687430 6.920387 0.000000
72.285034 116.262990 8.009606 0.000000
73.638519 115.782970 7.861171 0.000000
74.820518 115.516300 7.749516 0.000000
72.476097 114.346390 7.796941 0.000000
72.266693 113.114980 7.686998 0.000000
71.647026 112.510350 7.674439 0.000000
75.468727 119.888670 8.179949 0.000000
74.968887 118.866360 8.100398 0.000000
74.494301 117.846090 8.021520 0.000000
75.826370 115.513090 8.774181 0.000000
75.136963 114.993070 8.763437 0.000000
71.766548 112.354370 8.732925 0.000000
75.398895 118.090550 9.136420 0.000000
75.777832 119.310780 9.265380 0.000000
87.275063 117.088100 3.291346 0.000000
95.696632 123.958720 3.497319 0.000000
94.875778 122.738110 3.451966 0.000000
83.292648 122.050890 3.535205 0.000000
94.046745 122.120950 3.431432 0.000000
82.485481 121.618590 3.530574 0.000000
93.192581 121.952440 3.429594 0.000000
81.677849 121.205800 3.527374 0.000000
92.403893 121.247180 3.406636 0.000000
80.879097 120.782060 3.524303 0.000000
79.957985 120.695980 3.536592 0.000000
79.016594 120.637970 3.550959 0.000000
77.105629 120.508380 3.581767 0.000000
91.648018 120.457080 3.380730 0.000000
84.732193 120.248250 3.446063 0.000000
90.854683 120.071990 3.371814 0.000000
90.083931 119.608510 3.360247 0.000000
89.372261 118.892570 3.338821 0.000000
86.100990 118.423290 3.357680 0.000000
88.685768 118.153320 3.316855 0.000000
71.057907 131.505400 4.098994 0.000000
75.687088 119.256730 4.696595 0.000000
73.641922 119.271670 4.761212 0.000000
74.006584 116.686490 4.609241 0.000000
73.563522 115.693630 4.570939 0.000000
77.416054 117.660060 5.643292 0.000000
76.536369 117.495040 5.665101 0.000000
76.204720 116.219060 5.582900 0.000000
73.279922 116.199580 5.707455 0.000000
75.602127 115.535320 5.557286 0.000000
75.523071 113.916310 5.441668 0.000000
72.100906 113.176100 5.547441 0.000000
72.168793 116.359220 5.769765 0.000000
72.491386 112.572970 6.530595 0.000000
77.997421 118.496510 6.787653 0.000000
77.144218 118.261250 6.804748 0.000000
76.530502 117.515340 6.763173 0.000000
74.947197 116.794130 6.775799 0.000000
76.389519 115.858190 6.613340 0.000000
73.833824 115.233090 6.691874 0.000000
72.148705 114.707780 6.741378 0.000000
75.205856 114.504610 6.549204 0.000000
71.759087 112.179490 6.541105 0.000000
71.960236 116.718930 6.933590 0.000000
72.235855 112.978910 7.642193 0.000000
71.550278 112.500150 7.641735 0.000000
76.084656 118.453000 7.998714 0.000000
74.391769 117.863270 8.034451 0.000000
72.251198 116.234920 7.994208 0.000000
74.425072 115.942580 7.816364 0.000000
73.559479 115.722930 7.848954 0.000000
72.406914 114.295590 7.771878 0.000000
74.902748 118.831840 8.112780 0.000000
71.603119 112.427400 8.693571 0.000000
75.704155 119.254780 9.263816 0.000000
74.025864 118.570630 9.291038 0.000000
75.306305 118.034930 9.127432 0.000000
73.646294 117.377440 9.161704 0.000000
95.483521 124.570990 3.596798 0.000000
94.628593 123.413220 3.551209 0.000000
93.764008 123.016190 3.537850 0.000000
92.893799 122.834350 3.534093 0.000000
82.099358 122.335730 3.613821 0.000000
92.081558 122.106930 3.508181 0.000000
84.100380 121.849410 3.568536 0.000000
81.291916 121.883820 3.607291 0.000000
80.454453 121.540910 3.606179 0.000000
79.510109 121.503140 3.619328 0.000000
78.560646 121.450940 3.632689 0.000000
77.613029 121.367080 3.645490 0.000000
76.636162 121.328680 3.661238 0.000000
75.641655 121.300810 3.678408 0.000000
83.296982 121.422060 3.561563 0.000000
91.281921 121.465440 3.486408 0.000000
90.478271 120.996120 3.472406 0.000000
85.341270 120.507860 3.499984 0.000000
89.700394 120.440610 3.455332 0.000000
88.957611 119.768810 3.433866 0.000000
86.535042 119.121830 3.430838 0.000000
88.248688 119.018630 3.409545 0.000000
75.579369 119.216660 4.724093 0.000000
74.351181 117.671070 4.672437 0.000000
73.948135 116.543030 4.621649 0.000000
73.483070 115.587490 4.583449 0.000000
76.127647 118.027540 5.737635 0.000000
77.257126 117.624370 5.664585 0.000000
74.444519 117.490090 5.762148 0.000000
76.011131 116.254320 5.605574 0.000000
73.133461 116.231840 5.722168 0.000000
74.531494 115.434630 5.603082 0.000000
71.496864 113.925190 5.626540 0.000000
72.772217 113.436200 5.531794 0.000000
72.093605 116.303380 5.773009 0.000000
77.282585 115.516430 6.540617 0.000000
75.790451 114.813630 6.545276 0.000000
72.358253 112.532270 6.519202 0.000000
71.592178 112.209430 6.535525 0.000000
76.831810 118.600590 6.862743 0.000000
77.826492 118.493990 6.808248 0.000000
75.284859 117.771380 6.854513 0.000000
71.909027 116.632260 6.922097 0.000000
73.695892 115.207280 6.691528 0.000000
74.783081 114.959150 6.610665 0.000000
72.040657 114.674880 6.733658 0.000000
75.293243 115.808980 7.735998 0.000000
76.534943 115.173390 7.588786 0.000000
73.954659 114.738300 7.696865 0.000000
72.307861 114.228450 7.748863 0.000000
71.488022 112.376110 7.602953 0.000000
72.618393 112.114470 7.493850 0.000000
75.938278 118.450540 8.006152 0.000000
77.122147 117.943040 7.881148 0.000000
72.177582 116.165220 7.973820 0.000000
74.292885 115.899410 7.807669 0.000000
75.015236 116.367780 8.907693 0.000000
76.383751 115.493060 8.694344 0.000000
71.280762 112.703800 8.714228 0.000000
75.599808 119.193420 9.253853 0.000000
73.547943 117.326170 9.141604 0.000000
72.533417 117.344360 9.218897 0.000000
95.482719 112.979460 2.381481 0.000000
94.796272 112.289600 2.359736 0.000000
94.124649 111.784770 2.342758 0.000000
93.473495 111.218620 2.324737 0.000000
95.307404 127.354650 3.919115 0.000000
94.393951 125.844260 3.843531 0.000000
93.476212 125.537870 3.823492 0.000000
92.569672 125.200420 3.802813 0.000000
91.695831 124.582150 3.770240 0.000000
90.855598 123.817860 3.731885 0.000000
90.028366 123.146320 3.698476 0.000000
83.716774 122.813460 3.679985 0.000000
84.635719 122.843950 3.679808 0.000000
80.989326 122.479440 3.673850 0.000000
89.219063 122.490880 3.666532 0.000000
82.931381 122.246960 3.656806 0.000000
80.144875 122.132040 3.662582 0.000000
79.251038 121.938840 3.658965 0.000000
85.712166 122.082210 3.644840 0.000000
82.163406 121.663410 3.633509 0.000000
78.355499 121.739870 3.655800 0.000000
77.464371 121.517850 3.652312 0.000000
76.552017 121.339230 3.651527 0.000000
88.458748 121.639600 3.626527 0.000000
75.630440 121.167240 3.651795 0.000000
87.730072 120.753720 3.585677 0.000000
86.864609 120.735520 3.584365 0.000000
73.390167 115.527620 4.503482 0.000000
75.463837 119.232540 4.687872 0.000000
74.616798 116.886980 4.559798 0.000000
77.111465 117.574910 5.627415 0.000000
75.766159 116.421910 5.568895 0.000000
72.991867 116.267790 5.640554 0.000000
72.045311 116.201830 5.666580 0.000000
74.439026 115.308290 5.518222 0.000000
75.483109 115.065440 5.467066 0.000000
71.334198 113.996030 5.519543 0.000000
75.565041 118.978640 5.783422 0.000000
77.067276 115.533320 6.494919 0.000000
74.626190 114.916790 6.526064 0.000000
72.434677 112.125690 6.349364 0.000000
77.681107 118.423580 6.771773 0.000000
76.801369 118.292890 6.787315 0.000000
75.304176 117.405150 6.749954 0.000000
74.689163 116.695310 6.701770 0.000000
73.234764 115.785920 6.670436 0.000000
73.104912 114.247700 6.524613 0.000000
72.370682 113.859820 6.519868 0.000000
70.799416 113.244290 6.535428 0.000000
75.156647 115.703690 7.644121 0.000000
73.660820 114.955650 7.630633 0.000000
72.465759 113.675910 7.545889 0.000000
70.836784 113.167610 7.583201 0.000000
72.450638 112.082690 7.362383 0.000000
74.781906 118.518360 8.002750 0.000000
75.881111 118.212540 7.915324 0.000000
74.057800 116.027150 7.737619 0.000000
72.117645 116.032380 7.840723 0.000000
74.846367 116.327470 8.816353 0.000000
76.156555 115.510190 8.626093 0.000000
71.751152 113.243650 8.590981 0.000000
70.899628 113.049670 8.625801 0.000000
75.850113 118.260070 9.034254 0.000000
73.039841 118.029460 9.162289 0.000000
72.461327 117.219570 9.085686 0.000000
95.622948 114.605410 2.539149 0.000000
94.869583 113.904670 2.521918 0.000000
94.142273 113.374420 2.509391 0.000000
93.433533 112.852800 2.497323 0.000000
84.915665 112.412540 2.526461 0.000000
84.180489 112.408190 2.531642 0.000000
83.526360 112.070810 2.527962 0.000000
75.868286 111.691700 2.591988 0.000000
75.067383 111.616970 2.599399 0.000000
92.743011 112.320820 2.485208 0.000000
85.772484 111.800720 2.504851 0.000000
82.847427 111.842590 2.527535 0.000000
82.167641 111.621730 2.527574 0.000000
74.291924 111.469800 2.605056 0.000000
73.545898 111.250280 2.608919 0.000000
92.066483 111.872570 2.475516 0.000000
81.487442 111.404100 2.527970 0.000000
80.799019 111.210750 2.529324 0.000000
80.071945 111.121840 2.533927 0.000000
91.406151 111.398760 2.465362 0.000000
88.479599 127.107650 4.088889 0.000000
87.578743 126.552310 4.068554 0.000000
86.669197 126.178230 4.057672 0.000000
85.692039 126.305660 4.071986 0.000000
80.933067 125.767720 4.097435 0.000000
80.015373 125.489200 4.096264 0.000000
74.925354 117.863630 3.828927 0.000000
95.273010 131.105870 4.254999 0.000000
94.241631 129.958370 4.201459 0.000000
93.237534 129.933120 4.202611 0.000000
92.247665 129.434230 4.181707 0.000000
91.271568 128.992480 4.164262 0.000000
90.328568 128.250240 4.132990 0.000000
89.395874 127.673490 4.110357 0.000000
83.554901 127.373610 4.143134 0.000000
84.578285 127.178330 4.123704 0.000000
82.675919 126.803600 4.125584 0.000000
81.799995 126.280650 4.110959 0.000000
77.720184 117.705150 4.824294 0.000000
77.149353 116.839800 4.781382 0.000000
74.531342 116.621930 4.837810 0.000000
73.831360 116.127440 4.826393 0.000000
73.273621 115.349650 4.793590 0.000000
72.444901 113.349710 4.693784 0.000000
75.360184 119.098570 4.975836 0.000000
71.009781 118.004290 5.032062 0.000000
75.643486 114.085260 5.641529 0.000000
78.381554 118.372650 5.918048 0.000000
75.675529 118.306110 6.000006 0.000000
77.666290 117.857880 5.895361 0.000000
72.345329 117.281390 6.037785 0.000000
77.022552 117.177490 5.857309 0.000000
71.904503 116.222980 5.967954 0.000000
74.369835 114.955470 5.763357 0.000000
71.347107 113.675400 5.783067 0.000000
72.396111 113.442580 5.718389 0.000000
71.153183 112.357470 5.685210 0.000000
74.411476 119.095990 6.112098 0.000000
76.639801 115.880200 6.789718 0.000000
74.552322 114.558580 6.745365 0.000000
72.817833 112.638110 6.635647 0.000000
71.231781 112.218980 6.680416 0.000000
72.220436 112.077940 6.611288 0.000000
77.449234 118.467160 7.033319 0.000000
76.934929 117.411350 6.940623 0.000000
72.675430 116.594770 7.047977 0.000000
75.543076 116.387480 6.891237 0.000000
74.712677 116.209590 6.910182 0.000000
72.580360 114.877420 6.876281 0.000000
75.511681 116.463640 7.958372 0.000000
74.988899 115.580070 7.875711 0.000000
73.938843 115.894760 7.973909 0.000000
73.308868 115.276980 7.934215 0.000000
72.117851 113.972900 7.847988 0.000000
71.772598 112.896570 7.740462 0.000000
75.348228 119.132580 8.304302 0.000000
72.010277 116.012410 8.102774 0.000000
75.787857 118.027240 9.235673 0.000000
73.519585 116.808110 9.200146 0.000000
74.612816 116.438840 9.075229 0.000000
75.690399 116.036650 8.948784 0.000000
73.128357 115.652810 9.060469 0.000000
72.640671 114.317920 2.914030 0.000000
71.798866 114.207380 2.930470 0.000000
70.959473 114.071380 2.946541 0.000000
84.105949 113.849500 2.671022 0.000000
83.392090 113.659700 2.678682 0.000000
76.460983 113.324840 2.805651 0.000000
75.611183 113.392260 2.825490 0.000000
74.750755 113.451000 2.845635 0.000000
73.929062 113.387760 2.862186 0.000000
95.083755 113.984100 2.513407 0.000000
84.928322 113.413440 2.645321 0.000000
82.678497 113.475340 2.686761 0.000000
81.965790 113.290750 2.695097 0.000000
80.487564 113.112350 2.718557 0.000000
78.889442 113.258110 2.753836 0.000000
78.119209 113.195180 2.767846 0.000000
77.298210 113.255000 2.786308 0.000000
94.325371 113.502460 2.509721 0.000000
81.271561 113.037090 2.701575 0.000000
93.587425 113.073350 2.507456 0.000000
85.780769 112.648450 2.610728 0.000000
92.865158 112.628400 2.504843 0.000000
92.159111 112.203840 2.502832 0.000000
86.598190 111.912170 2.577751 0.000000
91.467659 111.810820 2.501729 0.000000
90.789436 111.424990 2.500899 0.000000
90.114799 111.236760 2.505536 0.000000
89.435677 111.204090 2.514634 0.000000
88.756142 111.171550 2.524001 0.000000
88.075798 111.139090 2.533641 0.000000
74.789017 117.789850 4.015543 0.000000
95.366043 131.062320 4.249187 0.000000
93.300201 130.566420 4.249337 0.000000
92.283821 130.642260 4.266064 0.000000
91.266624 130.575680 4.276675 0.000000
94.303139 130.208010 4.219860 0.000000
90.259598 130.222090 4.274010 0.000000
89.263016 129.887850 4.272898 0.000000
84.217247 129.720890 4.352698 0.000000
88.269089 129.669590 4.278128 0.000000
87.279900 129.459290 4.284432 0.000000
86.266655 129.537870 4.305868 0.000000
85.245667 129.629270 4.328824 0.000000
77.497993 117.704720 4.979354 0.000000
75.735855 117.695530 5.039499 0.000000
74.850082 117.660660 5.069159 0.000000
76.813263 117.133140 4.964236 0.000000
74.483154 116.291660 4.992514 0.000000
73.736320 115.936580 4.997801 0.000000
73.213722 115.072700 4.962107 0.000000
72.250015 113.314870 4.888287 0.000000
70.904854 118.151370 5.254212 0.000000
72.279449 113.276740 5.883059 0.000000
70.829559 112.625560 5.905537 0.000000
76.392502 118.418090 6.133718 0.000000
75.539673 118.280540 6.157712 0.000000
77.472862 117.823140 6.037298 0.000000
75.023895 117.231850 6.089023 0.000000
73.237587 117.161560 6.164831 0.000000
72.286316 117.219100 6.215348 0.000000
71.451965 116.985260 6.236718 0.000000
74.422897 116.473930 6.050618 0.000000
75.269440 116.611850 7.068670 0.000000
74.422226 114.347270 6.872803 0.000000
75.316162 114.249980 6.813409 0.000000
72.546219 112.743730 6.814242 0.000000
71.268883 111.806960 6.798074 0.000000
72.281784 111.523480 6.704678 0.000000
74.990196 119.858080 7.432614 0.000000
77.183655 118.773850 7.208203 0.000000
76.482758 118.187810 7.177774 0.000000
72.620445 116.483000 7.200352 0.000000
72.344353 113.188100 7.878169 0.000000
71.748268 112.610010 7.849712 0.000000
75.322952 116.501980 8.101164 0.000000
73.853531 115.741130 8.095681 0.000000
74.838913 115.484550 8.000804 0.000000
73.200485 115.183310 8.068098 0.000000
75.222466 119.242650 8.459331 0.000000
71.669327 112.789890 8.887991 0.000000
75.664398 118.037160 9.361377 0.000000
76.641312 117.791980 9.261860 0.000000
72.352974 117.151290 9.463503 0.000000
75.368210 116.414170 9.138519 0.000000
74.404694 116.612220 9.234592 0.000000
70.875580 113.682170 2.904730 0.000000
95.277267 113.895920 2.501002 0.000000
84.346870 113.603260 2.639988 0.000000
83.638092 113.418260 2.646846 0.000000
82.931854 113.234100 2.653962 0.000000
77.735046 112.914960 2.741074 0.000000
76.921265 113.026810 2.760008 0.000000
76.139946 113.004030 2.775190 0.000000
75.317833 113.071630 2.793752 0.000000
74.493484 113.111390 2.811955 0.000000
73.714996 113.004900 2.825856 0.000000
72.932732 112.890340 2.839931 0.000000
72.144257 112.772800 2.854361 0.000000
94.479729 113.352710 2.495433 0.000000
85.152115 112.992510 2.611139 0.000000
82.227730 113.050540 2.661334 0.000000
81.526100 112.863410 2.668846 0.000000
80.791862 112.827590 2.681110 0.000000
80.039978 112.845550 2.695352 0.000000
78.526779 112.837590 2.723726 0.000000
93.708717 112.858580 2.491129 0.000000
85.942581 112.283250 2.580231 0.000000
92.960526 112.405220 2.487902 0.000000
92.231033 111.967910 2.485144 0.000000
91.519661 111.566270 2.483364 0.000000
86.703514 111.599350 2.550711 0.000000
90.823479 111.171910 2.481848 0.000000
95.319160 130.002410 4.188057 0.000000
94.252014 129.319410 4.165688 0.000000
93.257469 129.427760 4.181282 0.000000
92.256523 129.423430 4.192300 0.000000
91.255402 129.343020 4.200429 0.000000
83.295609 128.952870 4.304335 0.000000
90.256233 128.973330 4.195394 0.000000
89.268776 128.722750 4.196686 0.000000
84.317886 128.745930 4.275973 0.000000
87.313629 128.320400 4.205991 0.000000
86.327766 128.379780 4.224404 0.000000
85.335762 128.461470 4.244737 0.000000
76.097054 118.461940 5.025018 0.000000
78.068756 117.582340 4.904296 0.000000
74.666084 117.433320 5.003886 0.000000
72.880569 117.446800 5.068106 0.000000
72.065552 117.212900 5.082994 0.000000
77.354637 117.097580 4.893310 0.000000
75.778389 116.685910 4.916406 0.000000
74.109474 116.515450 4.962455 0.000000
70.814499 113.864360 4.915447 0.000000
71.886818 113.410630 4.843162 0.000000
71.709579 113.841000 5.876324 0.000000
72.735428 113.442920 5.793446 0.000000
77.912277 118.229050 5.997472 0.000000
76.133011 118.384330 6.077175 0.000000
75.422836 117.841860 6.057300 0.000000
77.209625 117.659490 5.972371 0.000000
74.712158 117.333630 6.041731 0.000000
72.097260 117.164080 6.141076 0.000000
74.303169 116.007060 5.943466 0.000000
73.353333 116.225410 6.003776 0.000000
71.742310 111.891570 6.673532 0.000000
77.274857 117.471440 6.989801 0.000000
74.986885 116.555920 6.994661 0.000000
72.499390 116.181620 7.081941 0.000000
77.035896 115.405100 6.773729 0.000000
73.793709 115.088340 6.896789 0.000000
72.250275 114.633300 6.931640 0.000000
71.719772 113.843840 6.878632 0.000000
75.083473 113.854030 6.698321 0.000000
76.197029 115.483960 7.827312 0.000000
75.494171 115.086980 7.814197 0.000000
73.950119 114.704250 7.854283 0.000000
71.267609 112.950910 7.805669 0.000000
72.505280 112.074550 7.613021 0.000000
72.253571 116.832350 8.228703 0.000000
72.377975 114.355040 7.907637 0.000000
75.729843 119.820830 8.416830 0.000000
72.035019 111.300670 8.507638 0.000000
75.072739 116.374180 9.043449 0.000000
75.881203 119.357940 9.445969 0.000000
75.392784 118.056350 9.277428 0.000000
72.669174 118.141770 9.464769 0.000000
73.888077 117.274350 9.254316 0.000000
72.186447 117.033110 9.333958 0.000000
84.031960 113.753850 2.663200 0.000000
83.320000 113.566790 2.669728 0.000000
75.780495 113.333190 2.800785 0.000000
74.992584 113.308720 2.816071 0.000000
74.188560 113.305580 2.832517 0.000000
73.414825 113.195720 2.845923 0.000000
72.635498 113.083850 2.859689 0.000000
95.004532 113.917340 2.524182 0.000000
84.794983 113.466220 2.643581 0.000000
82.611046 113.380800 2.676512 0.000000
81.904648 113.195630 2.683552 0.000000
80.447777 113.068360 2.705607 0.000000
79.697609 113.081700 2.719450 0.000000
78.942268 113.089920 2.733532 0.000000
77.409859 113.109540 2.763026 0.000000
76.602028 113.219300 2.781575 0.000000
71.850433 112.968980 2.873795 0.000000
94.199570 113.425380 2.519578 0.000000
81.200104 113.012590 2.690894 0.000000
93.420288 112.978580 2.516172 0.000000
85.579994 112.758150 2.612758 0.000000
92.651924 112.449710 2.510745 0.000000
91.912018 112.020890 2.507917 0.000000
86.336418 112.075170 2.583304 0.000000
91.190170 111.612570 2.505687 0.000000
87.066177 111.415990 2.555143 0.000000
90.484344 111.213930 2.503782 0.000000
89.801636 111.180220 2.511549 0.000000
89.120628 111.146530 2.519555 0.000000
88.440926 111.112920 2.527804 0.000000
95.435280 131.102480 4.268879 0.000000
93.312500 130.466020 4.258014 0.000000
91.266472 130.359470 4.275105 0.000000
92.283730 130.346370 4.263023 0.000000
90.241730 129.999940 4.270008 0.000000
94.298050 130.046140 4.228142 0.000000
89.230377 129.649440 4.265951 0.000000
88.229881 129.428450 4.268792 0.000000
85.229790 129.382780 4.311778 0.000000
84.219101 129.464890 4.332512 0.000000
87.235909 129.232570 4.273521 0.000000
86.235298 129.301180 4.291916 0.000000
72.170921 136.048830 4.898784 0.000000
74.939995 118.839000 5.090107 0.000000
75.946548 118.400440 5.028486 0.000000
77.857841 117.636240 4.918930 0.000000
72.755081 117.374300 5.065889 0.000000
71.880898 117.316580 5.093576 0.000000
77.176346 117.014370 4.896523 0.000000
74.618523 117.047450 4.979862 0.000000
73.961609 116.423000 4.960239 0.000000
72.574913 113.291660 4.802507 0.000000
74.447632 115.020450 5.843541 0.000000
75.617119 113.951480 5.701855 0.000000
72.523102 113.450070 5.790990 0.000000
71.556679 113.751080 5.861769 0.000000
71.297012 112.383590 5.757632 0.000000
75.970383 118.360610 6.079066 0.000000
75.253922 117.833300 6.059329 0.000000
77.043976 117.567150 5.969193 0.000000
71.980522 117.085030 6.129527 0.000000
74.918137 113.661770 6.671138 0.000000
72.840622 112.678860 6.671860 0.000000
72.282265 112.040340 6.634632 0.000000
71.438950 112.084590 6.687049 0.000000
77.098282 117.407360 6.984516 0.000000
73.033546 116.663720 7.089496 0.000000
74.894241 116.258390 6.955074 0.000000
76.729538 115.697140 6.810992 0.000000
77.537086 119.060100 7.150343 0.000000
75.932213 115.648150 7.847083 0.000000
75.188156 115.372420 7.850053 0.000000
72.458366 113.669890 7.788598 0.000000
71.879280 113.032210 7.744359 0.000000
71.044785 113.009480 7.796051 0.000000
74.182915 115.874690 7.970238 0.000000
73.441162 115.556030 7.971176 0.000000
75.729546 119.311940 8.338455 0.000000
71.439575 118.585790 8.478430 0.000000
71.405350 112.211230 8.647572 0.000000
75.019447 115.940990 8.958035 0.000000
76.068176 115.233280 8.788559 0.000000
75.980194 118.462650 9.286863 0.000000
73.707657 117.320320 9.247366 0.000000
72.889015 117.137550 9.272402 0.000000
95.314049 113.964130 2.513344 0.000000
84.271889 113.460940 2.618328 0.000000
83.562065 113.263990 2.622988 0.000000
74.719513 112.834820 2.755477 0.000000
73.946716 112.812950 2.769312 0.000000
94.435173 113.292500 2.503248 0.000000
85.018379 113.000560 2.596404 0.000000
82.856911 113.068620 2.627899 0.000000
82.155945 112.874750 2.633062 0.000000
81.458656 112.682230 2.638479 0.000000
80.741394 112.641940 2.648394 0.000000
79.282631 112.647870 2.671644 0.000000
78.543434 112.663350 2.684160 0.000000
77.799759 112.672450 2.696862 0.000000
77.042793 112.710450 2.710801 0.000000
76.296959 112.676420 2.722999 0.000000
75.511383 112.763060 2.739228 0.000000
73.223946 112.620160 2.778229 0.000000
72.472229 112.503020 2.789863 0.000000
71.715553 112.384690 2.801850 0.000000
93.606972 112.754410 2.496434 0.000000
85.751160 112.421910 2.571863 0.000000
92.819496 112.335590 2.492607 0.000000
86.463699 111.787350 2.546399 0.000000
92.045731 111.878360 2.487938 0.000000
91.294762 111.452560 2.484132 0.000000
87.153847 111.173610 2.522018 0.000000
95.424019 130.161620 4.210114 0.000000
93.283470 129.433870 4.189750 0.000000
92.259239 129.293530 4.191023 0.000000
91.244316 129.167340 4.193658 0.000000
94.265709 129.176670 4.170647 0.000000
84.290001 128.534120 4.243769 0.000000
83.289452 128.719570 4.267249 0.000000
90.216209 128.688060 4.180328 0.000000
88.226601 128.225310 4.178955 0.000000
85.290726 128.072630 4.207851 0.000000
82.329834 128.303310 4.262148 0.000000
87.245384 127.996930 4.179385 0.000000
86.268944 128.034640 4.193228 0.000000
75.679626 118.380360 4.963101 0.000000
71.616951 117.423000 5.022761 0.000000
78.349770 117.687770 4.846242 0.000000
77.651169 117.065990 4.821092 0.000000
76.830315 117.060240 4.842091 0.000000
72.665886 116.886110 4.952814 0.000000
74.496063 116.443940 4.866388 0.000000
73.912949 115.588350 4.826754 0.000000
72.187454 113.353480 4.734652 0.000000
76.248734 116.093370 5.787343 0.000000
75.430939 116.093640 5.814925 0.000000
74.173141 114.757320 5.741939 0.000000
72.197121 113.355100 5.697692 0.000000
71.559227 112.877440 5.683553 0.000000
70.950638 112.347090 5.664781 0.000000
78.239815 118.331100 5.926948 0.000000
76.611557 118.081410 5.953319 0.000000
77.506096 117.821560 5.902528 0.000000
72.506088 117.421720 6.039308 0.000000
74.401672 116.819230 5.915430 0.000000
72.016388 116.276400 5.958699 0.000000
75.193863 114.038470 6.602516 0.000000
72.480652 112.591550 6.569062 0.000000
70.915718 112.460050 6.634836 0.000000
71.834694 112.175000 6.556851 0.000000
77.400513 118.388270 6.999613 0.000000
72.757622 116.668610 6.996108 0.000000
74.019920 115.304120 6.791234 0.000000
77.262177 115.242490 6.654513 0.000000
72.507576 114.856980 6.811614 0.000000
74.448685 119.883720 7.275460 0.000000
75.729477 118.271420 7.047364 0.000000
76.481728 115.227080 7.666390 0.000000
74.264847 114.522770 7.677703 0.000000
71.666618 112.646880 7.577387 0.000000
72.634697 112.189180 7.462957 0.000000
75.224403 116.967270 7.951954 0.000000
74.606140 116.170800 7.876327 0.000000
72.096237 116.105620 7.996479 0.000000
72.226959 118.369020 8.282191 0.000000
72.022881 111.729450 8.385070 0.000000
75.549561 115.767900 8.786566 0.000000
76.437233 115.455500 8.694148 0.000000
76.670998 117.973000 9.071093 0.000000
74.305161 117.284380 9.083882 0.000000
73.403091 117.438140 9.157135 0.000000
72.551773 117.385680 9.198452 0.000000
95.256287 115.083470 2.637931 0.000000
94.332985 114.478910 2.624599 0.000000
84.552734 113.967070 2.664768 0.000000
83.823654 113.827730 2.666980 0.000000
83.102455 113.608150 2.667235 0.000000
93.426994 113.820820 2.610083 0.000000
85.281670 113.261660 2.639997 0.000000
82.389175 113.366350 2.667098 0.000000
81.682518 113.127110 2.667245 0.000000
76.605347 112.832300 2.714476 0.000000
75.859482 112.830340 2.723639 0.000000
80.974426 112.966000 2.669787 0.000000
79.531540 112.909140 2.683105 0.000000
78.808495 112.868930 2.689876 0.000000
78.083069 112.828240 2.696936 0.000000
77.348976 112.818130 2.705188 0.000000
74.385132 112.691310 2.739004 0.000000
73.654762 112.575120 2.745786 0.000000
72.919380 112.465380 2.753086 0.000000
72.179909 112.356260 2.760741 0.000000
92.548943 113.155720 2.595567 0.000000
85.988426 112.656810 2.618387 0.000000
71.477386 112.124600 2.764959 0.000000
91.710472 112.556930 2.582947 0.000000
90.921799 112.123550 2.574815 0.000000
86.675362 112.070370 2.597690 0.000000
90.145172 111.634840 2.565414 0.000000
89.435234 111.563310 2.567154 0.000000
88.729019 111.475980 2.568714 0.000000
88.029381 111.404590 2.570929 0.000000
74.751991 117.781760 3.894551 0.000000
95.201225 133.755170 4.502904 0.000000
92.892883 132.936870 4.466587 0.000000
91.828751 133.073640 4.475964 0.000000
93.951195 132.760560 4.456119 0.000000
90.706314 132.593150 4.456318 0.000000
89.589706 131.919620 4.428057 0.000000
88.496155 131.187770 4.397650 0.000000
87.443573 130.782850 4.383777 0.000000
86.411942 130.606190 4.381714 0.000000
85.387581 130.479000 4.382802 0.000000
75.331673 119.060170 4.998698 0.000000
71.297043 117.922090 5.016529 0.000000
74.793358 117.627720 4.911039 0.000000
78.089577 117.669190 4.848266 0.000000
72.395325 117.106800 4.932339 0.000000
77.389328 116.974870 4.812460 0.000000
76.554520 117.101980 4.837481 0.000000
74.190155 116.651180 4.857297 0.000000
73.690948 115.388480 4.782330 0.000000
74.436958 115.662480 5.770988 0.000000
75.604500 114.046130 5.592413 0.000000
71.690102 113.947840 5.703805 0.000000
72.630844 113.486920 5.631218 0.000000
78.010048 118.237940 5.917349 0.000000
76.326103 118.352100 5.965667 0.000000
75.505516 118.251720 5.976823 0.000000
77.273972 117.693220 5.883431 0.000000
73.443077 116.360080 5.862869 0.000000
72.552605 116.568820 5.908923 0.000000
76.250748 114.670680 6.593633 0.000000
71.118301 113.254160 6.623590 0.000000
72.278984 112.116030 6.450423 0.000000
73.299950 116.932250 6.943541 0.000000
75.015015 116.700440 6.859854 0.000000
72.601341 116.417790 6.911918 0.000000
76.856133 115.570500 6.677505 0.000000
74.662422 114.760530 6.654268 0.000000
72.260239 114.745660 6.740253 0.000000
77.098160 118.768660 7.032614 0.000000
74.386497 115.923420 7.796076 0.000000
75.272247 115.583360 7.717169 0.000000
73.861115 114.809750 7.669028 0.000000
72.611649 113.590740 7.562216 0.000000
71.961479 113.131980 7.532427 0.000000
71.440216 112.317320 7.451668 0.000000
75.306747 119.284140 8.211931 0.000000
72.431702 117.046480 8.025600 0.000000
72.743530 113.169470 8.459832 0.000000
71.911560 113.307400 8.525198 0.000000
71.234200 112.944930 8.508077 0.000000
76.100967 115.461000 8.661452 0.000000
74.416077 119.432330 9.348176 0.000000
73.031380 118.011140 9.189210 0.000000
72.413589 117.134630 9.084027 0.000000
95.493576 113.782820 2.512169 0.000000
84.170822 112.865710 2.569189 0.000000
94.499733 113.041210 2.498538 0.000000
84.883110 112.781830 2.560123 0.000000
83.454292 112.656910 2.571182 0.000000
82.745216 112.449980 2.573417 0.000000
76.381088 112.033670 2.641996 0.000000
75.656792 112.041090 2.652544 0.000000
74.207649 111.988860 2.672796 0.000000
93.584450 112.468780 2.488962 0.000000
85.564041 112.196900 2.538989 0.000000
82.043060 112.242990 2.575845 0.000000
81.346519 112.056560 2.578998 0.000000
79.942101 112.017700 2.594662 0.000000
79.237534 112.004260 2.603075 0.000000
78.531029 111.990800 2.611779 0.000000
77.820923 111.986130 2.621019 0.000000
77.103294 112.010120 2.631347 0.000000
73.501160 111.859520 2.680503 0.000000
72.812576 111.655980 2.686376 0.000000
72.092430 111.568100 2.695866 0.000000
71.366150 111.487500 2.705907 0.000000
92.690758 111.869110 2.478885 0.000000
86.227203 111.629100 2.518719 0.000000
91.865013 111.450670 2.473181 0.000000
86.873810 111.077530 2.499268 0.000000
85.471664 126.707090 4.104108 0.000000
80.693611 126.526560 4.146124 0.000000
88.341797 126.562780 4.075724 0.000000
87.357773 126.262890 4.068308 0.000000
86.400764 126.199230 4.072520 0.000000
74.593948 117.755840 3.829464 0.000000
95.439606 132.739840 4.334917 0.000000
83.564323 127.798220 4.173470 0.000000
93.462921 127.960560 4.118033 0.000000
92.419899 127.749600 4.111353 0.000000
91.395699 127.576070 4.107103 0.000000
84.532730 127.484910 4.149216 0.000000
82.593414 127.353580 4.162798 0.000000
90.358681 127.215990 4.094957 0.000000
81.637459 126.915420 4.153005 0.000000
89.344940 126.910260 4.085979 0.000000
76.905350 118.973550 4.885771 0.000000
76.151283 118.415710 4.862551 0.000000
77.889946 117.678710 4.778767 0.000000
74.726723 117.100460 4.803579 0.000000
75.595551 116.777920 4.762531 0.000000
74.021805 116.542250 4.782069 0.000000
73.457237 115.421360 4.720076 0.000000
72.387711 113.351880 4.608848 0.000000
73.316673 116.092830 5.763500 0.000000
75.066399 115.337790 5.646942 0.000000
74.345650 115.011690 5.637558 0.000000
71.460754 113.922820 5.630954 0.000000
72.356483 113.506330 5.564475 0.000000
73.244682 113.027420 5.493885 0.000000
71.179573 112.199360 5.489920 0.000000
77.846458 118.142970 5.833742 0.000000
75.357285 118.245710 5.899930 0.000000
76.233368 117.940600 5.851158 0.000000
77.100868 117.585490 5.799336 0.000000
75.921036 114.967410 6.554828 0.000000
75.225258 114.538800 6.527840 0.000000
74.435341 114.620350 6.561887 0.000000
72.312996 113.708310 6.536529 0.000000
70.871330 113.263530 6.545769 0.000000
72.089241 111.702670 6.326234 0.000000
77.759323 118.987590 6.957033 0.000000
72.478180 116.236370 6.807695 0.000000
76.557846 115.858410 6.636521 0.000000
73.387726 115.817960 6.729419 0.000000
77.391953 115.475200 6.571959 0.000000
71.782249 112.835210 7.404022 0.000000
74.170570 115.959410 7.715699 0.000000
75.003174 115.779310 7.661878 0.000000
73.453720 115.565380 7.690971 0.000000
75.209091 119.246290 8.116454 0.000000
77.072586 117.951630 7.886956 0.000000
76.290512 117.697230 7.875692 0.000000
72.288795 117.061080 7.935103 0.000000
75.144485 115.073650 8.542401 0.000000
72.296684 113.841830 8.478821 0.000000
71.658966 113.310180 8.430280 0.000000
70.934319 113.112660 8.439007 0.000000
75.856041 115.467270 8.576681 0.000000
72.910881 118.045090 9.093821 0.000000
95.307304 113.963280 2.556330 0.000000
84.497185 113.494130 2.627817 0.000000
83.754410 113.289440 2.630317 0.000000
74.364822 112.761150 2.741030 0.000000
94.275749 113.261400 2.544144 0.000000
85.175514 112.916060 2.605709 0.000000
83.020287 113.085450 2.633017 0.000000
82.294388 112.883040 2.635943 0.000000
81.576164 112.682270 2.639095 0.000000
79.437874 112.622700 2.664275 0.000000
78.723587 112.621770 2.673730 0.000000
78.007713 112.620970 2.683481 0.000000
77.286316 112.655990 2.694521 0.000000
76.560699 112.695360 2.706008 0.000000
75.830757 112.734660 2.717831 0.000000
75.097992 112.760930 2.729630 0.000000
73.649475 112.643200 2.749352 0.000000
72.932976 112.527950 2.758038 0.000000
72.215942 112.410130 2.766944 0.000000
71.497597 112.291470 2.776126 0.000000
80.863609 112.619090 2.646074 0.000000
93.315140 112.680010 2.534904 0.000000
85.830025 112.285540 2.582739 0.000000
92.379280 112.079510 2.525314 0.000000
91.491264 111.549580 2.517504 0.000000
86.462769 111.637720 2.559796 0.000000
87.093430 111.110430 2.540291 0.000000
94.971138 134.013290 4.462178 0.000000
93.708275 133.371670 4.435787 0.000000
91.879951 129.475110 4.258172 0.000000
90.793739 129.176960 4.248998 0.000000
83.686813 128.813670 4.285636 0.000000
89.708763 128.774700 4.235635 0.000000
82.682541 128.470790 4.279833 0.000000
88.660370 128.503220 4.229069 0.000000
87.626213 128.232350 4.223201 0.000000
86.622147 128.138550 4.226353 0.000000
85.634186 128.168230 4.236055 0.000000
84.652260 128.273030 4.250065 0.000000
74.957428 119.434330 5.007681 0.000000
72.401543 119.419080 5.064136 0.000000
75.920418 118.408360 4.916824 0.000000
70.984550 118.007800 5.002997 0.000000
77.664871 117.142730 4.796209 0.000000
76.887825 116.932720 4.795501 0.000000
74.532333 116.636920 4.822578 0.000000
73.888405 115.698830 4.772107 0.000000
73.767845 116.477970 5.823811 0.000000
76.193016 116.150380 5.734559 0.000000
75.400246 116.200420 5.757339 0.000000
72.798500 113.332140 5.566328 0.000000
71.373299 112.929920 5.574682 0.000000
78.393753 118.391740 5.896271 0.000000
77.621986 117.823230 5.858279 0.000000
74.407707 117.537360 5.903517 0.000000
76.843185 117.507520 5.844850 0.000000
77.062798 115.376790 6.610364 0.000000
74.809502 114.949080 6.619852 0.000000
71.464897 112.593020 6.466957 0.000000
72.319626 112.126390 6.383416 0.000000
72.734001 117.766390 7.000187 0.000000
76.063957 117.369320 6.860239 0.000000
75.363640 116.561010 6.786701 0.000000
73.970940 115.340770 6.688735 0.000000
72.482864 114.924070 6.690072 0.000000
72.133675 113.006340 7.423946 0.000000
71.533073 112.352730 7.362375 0.000000
74.745041 115.450580 7.656549 0.000000
76.325302 115.197730 7.575591 0.000000
74.073120 114.799720 7.591127 0.000000
72.596939 114.419570 7.593947 0.000000
75.059814 118.937360 8.117400 0.000000
72.565392 118.733200 8.172299 0.000000
76.296280 115.548800 8.605555 0.000000
72.679932 114.066230 8.505467 0.000000
75.464409 115.973820 8.698435 0.000000
74.211746 119.074710 9.227836 0.000000
72.692825 118.112850 9.134940 0.000000
94.975166 115.783840 2.691944 0.000000
84.181122 113.785240 2.666995 0.000000
93.398415 113.622970 2.637828 0.000000
84.881340 113.441530 2.654592 0.000000
83.412025 113.495910 2.663348 0.000000
82.658585 113.245880 2.660933 0.000000
81.916000 112.998000 2.658789 0.000000
81.185043 112.786140 2.657801 0.000000
79.750450 112.725430 2.666071 0.000000
79.035339 112.683940 2.670304 0.000000
78.321388 112.642590 2.674804 0.000000
77.607292 112.620700 2.680093 0.000000
76.891548 112.618740 2.686194 0.000000
76.174271 112.616910 2.692586 0.000000
75.455536 112.609920 2.699127 0.000000
74.027420 112.472580 2.709687 0.000000
73.325668 112.314870 2.712909 0.000000
92.370918 112.919280 2.620670 0.000000
85.531464 112.817990 2.635342 0.000000
72.625633 112.157620 2.716398 0.000000
71.926903 112.000630 2.720153 0.000000
71.229141 111.843250 2.724159 0.000000
86.180733 112.300810 2.619163 0.000000
91.402542 112.295640 2.605786 0.000000
86.817665 111.794830 2.603598 0.000000
90.470177 111.688230 2.591554 0.000000
88.911140 111.383950 2.586807 0.000000
88.178375 111.363620 2.588145 0.000000
87.444427 111.306080 2.588789 0.000000
90.430016 131.459210 4.431138 0.000000
89.225563 130.671940 4.393511 0.000000
88.093575 130.143520 4.369019 0.000000
87.004929 129.762100 4.352299 0.000000
85.962463 129.630910 4.348277 0.000000
84.926125 129.473710 4.343765 0.000000
83.914955 129.527950 4.350119 0.000000
72.433578 113.362350 4.597237 0.000000
93.609253 136.053860 4.653054 0.000000
72.314140 119.077540 4.995943 0.000000
76.532646 118.517970 4.896007 0.000000
75.720291 118.409530 4.898266 0.000000
78.192955 117.693280 4.820854 0.000000
77.426170 116.885300 4.771705 0.000000
74.264885 116.765290 4.803463 0.000000
73.628624 115.550280 4.728654 0.000000
73.515228 116.449690 5.784080 0.000000
75.902290 116.235570 5.724433 0.000000
75.213303 115.273120 5.646547 0.000000
74.456985 115.163450 5.649167 0.000000
71.577003 113.964390 5.598950 0.000000
72.413528 113.517200 5.539256 0.000000
78.183861 118.283520 5.885191 0.000000
77.394081 117.750570 5.844517 0.000000
72.556519 117.521180 5.900888 0.000000
76.606903 117.452800 5.826702 0.000000
73.696907 115.136810 6.626358 0.000000
76.018311 114.875890 6.552323 0.000000
75.273880 114.722370 6.547666 0.000000
74.514709 114.721030 6.562026 0.000000
73.107147 113.921250 6.502340 0.000000
70.910622 113.509050 6.514571 0.000000
72.652908 112.137080 6.312254 0.000000
72.006325 111.701450 6.280485 0.000000
77.375824 118.316510 6.925173 0.000000
76.720078 115.761830 6.642539 0.000000
71.925949 112.163150 7.246398 0.000000
71.345581 111.416810 7.165501 0.000000
74.378273 115.960860 7.692368 0.000000
75.186531 115.684600 7.637530 0.000000
73.727684 114.954990 7.571648 0.000000
72.444275 118.355870 8.064484 0.000000
71.795135 117.253670 7.934356 0.000000
75.981300 115.508160 8.577495 0.000000
72.977753 114.863830 8.551568 0.000000
72.366135 113.908760 8.421338 0.000000
71.708839 113.358170 8.357959 0.000000
71.081779 112.733110 8.283861 0.000000
74.973114 117.942960 8.983761 0.000000
74.224205 117.357410 8.909219 0.000000
73.136719 119.450090 9.267704 0.000000
94.690659 117.473850 2.885678 0.000000
93.456322 116.534550 2.857967 0.000000
84.086357 115.222980 2.827413 0.000000
83.271706 114.917330 2.821070 0.000000
84.793411 114.784910 2.813037 0.000000
82.473419 114.630290 2.815500 0.000000
81.684753 114.306580 2.809128 0.000000
85.436218 114.057080 2.790819 0.000000
80.920662 114.122940 2.806979 0.000000
80.173981 114.092390 2.809450 0.000000
78.686981 113.994380 2.814146 0.000000
77.947136 113.934430 2.816581 0.000000
77.209099 113.914540 2.820444 0.000000
76.471390 113.897030 2.824655 0.000000
75.733627 113.877880 2.829100 0.000000
74.995308 113.859270 2.833845 0.000000
73.534409 113.627810 2.838461 0.000000
91.809814 114.209500 2.791726 0.000000
72.814400 113.444060 2.839148 0.000000
72.097710 113.261510 2.840121 0.000000
71.383896 113.079900 2.841374 0.000000
90.769737 113.505780 2.771375 0.000000
86.099220 113.536290 2.774754 0.000000
86.750557 113.024220 2.759241 0.000000
89.770874 112.820770 2.751860 0.000000
87.393494 112.531320 2.744565 0.000000
88.915382 112.534150 2.743815 0.000000
74.750999 117.780690 3.959016 0.000000
74.744675 135.449160 4.854386 0.000000
72.094055 113.357360 4.684493 0.000000
76.348724 118.577920 5.015048 0.000000
77.981667 117.566800 4.930650 0.000000
72.397255 117.112110 4.951053 0.000000
77.185913 117.007130 4.894874 0.000000
75.603882 116.927220 4.901487 0.000000
74.813293 116.887100 4.906137 0.000000
74.049416 116.512820 4.887190 0.000000
73.379501 115.296680 4.807105 0.000000
77.191772 117.006520 5.891529 0.000000
76.425552 116.077060 5.809522 0.000000
75.655937 115.913800 5.801201 0.000000
74.189995 114.841220 5.716810 0.000000
72.852104 113.241680 5.585642 0.000000
72.113136 113.249450 5.598830 0.000000
71.412628 112.979110 5.586362 0.000000
74.696640 118.814790 6.085625 0.000000
77.992188 118.245280 6.003775 0.000000
74.942360 115.019810 6.683333 0.000000
71.476059 112.590550 6.462593 0.000000
72.268677 112.121670 6.391358 0.000000
76.360535 118.580390 7.082753 0.000000
75.539314 118.585280 7.091599 0.000000
73.228477 116.934480 6.931521 0.000000
72.505577 116.267970 6.866975 0.000000
77.212799 115.597050 6.727778 0.000000
74.147079 115.436040 6.742831 0.000000
72.178032 112.833600 7.397266 0.000000
71.513901 112.370380 7.349930 0.000000
74.112503 115.929590 7.786085 0.000000
75.666924 115.914750 7.761710 0.000000
76.460426 115.238330 7.659193 0.000000
73.380188 115.444920 7.732074 0.000000
75.007751 114.067720 7.514315 0.000000
77.195564 117.759400 8.002850 0.000000
72.418686 117.061400 7.974623 0.000000
75.682205 115.700910 8.715822 0.000000
76.459465 115.472520 8.669905 0.000000
72.110168 113.376320 8.413063 0.000000
71.392067 113.204570 8.405621 0.000000
73.129242 118.053790 9.137905 0.000000
72.413101 117.154770 9.009902 0.000000
74.877533 116.217770 8.810615 0.000000
95.353119 121.397960 3.247410 0.000000
93.949158 120.297470 3.203342 0.000000
92.575668 119.123610 3.157653 0.000000
84.251068 117.450070 3.058410 0.000000
83.343880 116.952550 3.039445 0.000000
84.943207 116.757690 3.039883 0.000000
82.483177 116.619210 3.026063 0.000000
81.632286 116.237300 3.011504 0.000000
80.807274 115.934620 2.999792 0.000000
80.013496 115.820320 2.994346 0.000000
90.666283 116.158250 3.054317 0.000000
85.604767 116.014130 3.019942 0.000000
79.227814 115.725650 2.989827 0.000000
77.670952 115.509640 2.980861 0.000000
76.900681 115.428340 2.977664 0.000000
76.133865 115.347210 2.974768 0.000000
75.369873 115.280850 2.972627 0.000000
74.607819 115.216020 2.970824 0.000000
86.250946 115.294240 3.000961 0.000000
73.851662 115.057310 2.966364 0.000000
73.106400 114.796100 2.958968 0.000000
89.526909 115.260890 3.019315 0.000000
72.368462 114.536480 2.951902 0.000000
71.637207 114.279610 2.945198 0.000000
86.871094 114.550350 2.981405 0.000000
70.911995 114.026230 2.938875 0.000000
88.440048 114.394320 2.985903 0.000000
87.553040 114.106900 2.971713 0.000000
72.467667 113.304140 4.746999 0.000000
76.150993 118.444920 5.124746 0.000000
71.271446 117.933780 5.100601 0.000000
75.339127 117.827370 5.078385 0.000000
77.755432 117.582250 5.062578 0.000000
76.940941 117.168180 5.029660 0.000000
74.563416 116.701110 4.994694 0.000000
73.799362 116.149560 4.955064 0.000000
73.087250 115.071390 4.876633 0.000000
71.110222 112.304990 5.582953 0.000000
76.938957 117.078970 6.024138 0.000000
76.137367 116.021190 5.920280 0.000000
73.809120 115.928980 5.915184 0.000000
75.373047 114.950720 5.816401 0.000000
71.672020 113.898860 5.731745 0.000000
72.453667 113.464610 5.683655 0.000000
77.771225 117.965620 6.112657 0.000000
74.538231 117.544530 6.069683 0.000000
73.843216 115.189150 6.807741 0.000000
74.622887 114.647580 6.740087 0.000000
75.381828 114.192050 6.684194 0.000000
70.999718 113.237720 6.600747 0.000000
72.528000 112.547190 6.502432 0.000000
71.839989 112.201740 6.468116 0.000000
76.147964 117.935340 7.130264 0.000000
72.983437 116.660780 6.988024 0.000000
76.901230 115.439200 6.834026 0.000000
71.773216 112.862090 7.468568 0.000000
72.555893 112.196580 7.365624 0.000000
71.186234 111.637370 7.304583 0.000000
74.584389 115.944160 7.880364 0.000000
76.134247 115.493800 7.814485 0.000000
75.368118 115.323430 7.790598 0.000000
73.863548 114.743190 7.714177 0.000000
71.054718 112.748700 8.388971 0.000000
71.730026 113.285420 8.465253 0.000000
75.335869 118.011860 9.208279 0.000000
72.892899 118.042190 9.227215 0.000000
74.481514 119.430010 9.443001 0.000000
95.724686 122.250630 3.319020 0.000000
94.057549 120.618270 3.256949 0.000000
92.753426 119.750570 3.221436 0.000000
91.423294 118.675420 3.179621 0.000000
84.180870 117.968090 3.124414 0.000000
84.892586 117.350300 3.106833 0.000000
83.247208 117.462000 3.105469 0.000000
82.340652 116.977490 3.087604 0.000000
81.483673 116.680390 3.076215 0.000000
85.554520 116.591050 3.084855 0.000000
80.649246 116.443480 3.067120 0.000000
79.844002 116.360810 3.063374 0.000000
79.043022 116.260000 3.059344 0.000000
77.460709 116.086880 3.053119 0.000000
76.677734 116.025440 3.051271 0.000000
75.898315 115.974750 3.050068 0.000000
75.121307 115.924090 3.049162 0.000000
74.346237 115.873580 3.048553 0.000000
73.577919 115.638720 3.042217 0.000000
86.161331 115.699010 3.058725 0.000000
72.816765 115.409900 3.036359 0.000000
72.063957 115.156300 3.029966 0.000000
89.471100 115.564690 3.070566 0.000000
71.318108 114.905380 3.023933 0.000000
86.777466 114.934950 3.037025 0.000000
88.349113 114.692150 3.036964 0.000000
87.435562 114.384950 3.022626 0.000000
72.181000 113.336400 4.805383 0.000000
75.136574 117.940740 5.147741 0.000000
71.066277 118.014560 5.168615 0.000000
77.556725 117.657990 5.128177 0.000000
76.731209 117.241000 5.094725 0.000000
73.528244 117.436960 5.112516 0.000000
72.728279 117.359330 5.109582 0.000000
75.914612 116.534890 5.040133 0.000000
74.340782 116.562310 5.043613 0.000000
73.563034 116.256990 6.006729 0.000000
74.345657 116.229500 6.001649 0.000000
75.120827 115.221790 5.901357 0.000000
72.180786 113.348390 5.728231 0.000000
71.483513 112.883650 5.687935 0.000000
75.959839 118.373410 6.211352 0.000000
76.737144 117.342510 6.111199 0.000000
74.367767 114.348920 6.762775 0.000000
75.113815 113.907120 6.708396 0.000000
70.789841 112.528810 6.569821 0.000000
71.531868 112.292870 6.533255 0.000000
72.260025 112.112270 6.504846 0.000000
75.957100 118.191310 7.224641 0.000000
73.515404 117.954250 7.199903 0.000000
77.540062 117.308320 7.123457 0.000000
72.762993 116.641400 7.045936 0.000000
76.669647 115.665890 6.922228 0.000000
72.211823 112.878120 7.517647 0.000000
71.530556 112.313580 7.444683 0.000000
74.351830 115.881330 7.932549 0.000000
75.897537 115.626300 7.895440 0.000000
73.581650 115.673710 7.905961 0.000000
76.653259 115.228460 7.840972 0.000000
72.698486 118.057310 8.251235 0.000000
75.139877 117.806850 8.205929 0.000000
72.822273 115.389500 8.851474 0.000000
75.123268 114.988140 8.775198 0.000000
72.174522 113.473020 8.542062 0.000000
71.460220 113.184300 8.503429 0.000000
75.954407 117.944670 9.263740 0.000000
74.337410 117.284580 9.155371 0.000000
73.533287 117.399110 9.177774 0.000000
94.211632 120.957320 3.306766 0.000000
