# .PCD v0.7 - Point Cloud Data file format
VERSION 0.7
FIELDS x y z intensity
SIZE 4 4 4 4
TYPE F F F F
COUNT 1 1 1 1
WIDTH 1170
HEIGHT 1
VIEWPOINT 0 0 0 1 0 0 0
POINTS 1170
DATA ascii
102.186050 288.671720 10.497106 0.000000
97.966309 290.828610 10.620223 0.000000
104.560000 287.075960 10.381823 0.000000
104.269340 287.103420 10.366518 0.000000
103.973350 287.129580 10.350516 0.000000
101.387000 288.560580 10.468821 0.000000
103.457750 287.012120 10.335253 0.000000
100.809770 288.614840 10.438147 0.000000
100.423970 288.632720 10.418005 0.000000
97.005516 290.555270 10.591085 0.000000
103.205520 286.936280 10.328492 0.000000
102.952820 286.857030 10.321405 0.000000
99.962791 288.476230 10.403540 0.000000
96.272232 290.546510 10.559382 0.000000
102.575140 286.727780 10.310528 0.000000
102.169500 286.403990 10.312068 0.000000
99.199776 288.182040 10.378893 0.000000
98.968910 287.967250 10.377536 0.000000
98.969490 287.259430 10.415277 0.000000
98.547470 287.039000 10.400990 0.000000
98.330482 286.603090 10.408825 0.000000
98.121819 286.170350 10.415882 0.000000
104.289560 305.812100 11.391043 0.000000
103.674450 305.989290 11.391129 0.000000
103.159740 305.700010 11.396815 0.000000
102.523710 305.905030 11.395730 0.000000
120.448620 295.611660 10.750009 0.000000
120.082610 295.798860 10.758806 0.000000
119.757310 296.086640 10.762401 0.000000
119.396100 296.296630 10.769355 0.000000
119.032810 296.507390 10.775889 0.000000
118.670040 296.726960 10.781643 0.000000
117.447420 296.999110 10.813461 0.000000
102.013600 305.606960 11.400657 0.000000
101.369030 305.783600 11.399098 0.000000
117.787070 296.697780 10.812630 0.000000
117.059840 297.153020 10.820339 0.000000
116.660140 297.266080 10.828511 0.000000
116.281530 297.468350 10.832508 0.000000
115.889460 297.627410 10.837913 0.000000
115.405450 297.347750 10.860729 0.000000
115.034840 297.607790 10.861058 0.000000
114.626010 297.679500 10.868557 0.000000
100.862400 305.479830 11.403225 0.000000
100.201030 305.655730 11.400810 0.000000
114.216960 297.750490 10.875614 0.000000
113.832340 298.008880 10.874914 0.000000
99.703415 305.327880 11.404368 0.000000
112.983050 297.924740 10.895478 0.000000
112.570200 297.975280 10.901456 0.000000
99.027328 305.493740 11.401184 0.000000
112.143600 297.813050 10.914951 0.000000
111.741840 298.063230 10.912508 0.000000
111.326240 298.098790 10.917652 0.000000
98.516678 305.200470 11.403417 0.000000
97.774460 305.476410 11.397875 0.000000
110.492180 298.173550 10.926418 0.000000
110.070440 298.317320 10.926251 0.000000
109.660100 298.069950 10.939780 0.000000
109.232530 298.240630 10.937738 0.000000
97.249466 305.203640 11.398933 0.000000
96.504684 305.418460 11.393175 0.000000
108.828240 298.024170 10.949123 0.000000
96.053062 304.975460 11.395540 0.000000
108.390720 298.223880 10.945151 0.000000
107.946670 298.406890 10.941351 0.000000
107.545180 298.201810 10.950861 0.000000
106.689880 298.201050 10.953918 0.000000
106.281150 298.078610 10.959034 0.000000
120.688390 289.927310 10.416666 0.000000
120.405360 290.098850 10.428379 0.000000
120.120350 290.265590 10.439937 0.000000
119.773930 290.343780 10.459002 0.000000
119.337770 290.863560 10.462448 0.000000
119.047700 291.019350 10.472831 0.000000
118.758330 291.174680 10.482691 0.000000
118.422230 291.249080 10.498803 0.000000
117.994620 291.485050 10.511323 0.000000
117.563730 291.714570 10.523362 0.000000
117.274140 291.863130 10.531084 0.000000
117.027400 292.102230 10.531271 0.000000
116.738170 292.256900 10.537655 0.000000
116.448230 292.411870 10.543556 0.000000
115.756610 292.445370 10.574422 0.000000
115.496310 292.674590 10.573323 0.000000
115.193850 292.797360 10.579601 0.000000
114.889430 292.915920 10.585707 0.000000
114.578330 293.015050 10.592707 0.000000
114.266300 293.111210 10.599417 0.000000
113.637100 293.286010 10.612567 0.000000
113.321010 293.367950 10.618769 0.000000
113.003930 293.446500 10.624708 0.000000
112.686200 293.523250 10.630278 0.000000
112.346130 293.481410 10.643183 0.000000
112.046030 293.657380 10.641238 0.000000
111.724400 293.718080 10.646400 0.000000
111.077200 293.818420 10.656613 0.000000
110.752530 293.863560 10.661305 0.000000
110.417100 293.777370 10.673812 0.000000
110.100700 293.940190 10.670086 0.000000
109.773730 293.974300 10.674006 0.000000
109.445930 294.002500 10.677804 0.000000
108.952790 294.038090 10.682936 0.000000
108.458160 294.066310 10.687540 0.000000
108.127480 294.078610 10.690353 0.000000
107.796060 294.087740 10.692870 0.000000
120.488850 286.717500 10.199336 0.000000
120.140080 286.970670 10.217491 0.000000
119.791560 287.219270 10.234515 0.000000
119.440320 287.461210 10.251064 0.000000
119.204350 287.618100 10.261786 0.000000
118.847200 287.846130 10.277491 0.000000
118.487380 288.067500 10.292746 0.000000
118.124420 288.280640 10.307426 0.000000
117.759140 288.487550 10.321617 0.000000
117.390910 288.686490 10.335219 0.000000
117.020100 288.878660 10.348400 0.000000
116.645870 289.061890 10.361109 0.000000
116.269550 289.239070 10.373323 0.000000
116.017290 289.353180 10.381137 0.000000
115.636190 289.516880 10.392511 0.000000
115.252780 289.673890 10.403464 0.000000
114.867080 289.823790 10.413761 0.000000
114.483540 289.978850 10.422496 0.000000
114.227170 290.081210 10.427732 0.000000
107.463640 294.096500 10.694910 0.000000
106.795040 294.113190 10.697551 0.000000
99.991905 297.934880 10.953306 0.000000
113.969410 290.180540 10.432743 0.000000
113.710020 290.276150 10.437600 0.000000
113.313750 290.397800 10.445882 0.000000
112.914390 290.509030 10.454071 0.000000
112.512500 290.611210 10.461773 0.000000
106.298520 294.062840 10.701977 0.000000
112.108590 290.705690 10.469122 0.000000
111.702630 290.792570 10.475848 0.000000
111.294730 290.871280 10.482251 0.000000
111.021730 290.919460 10.486200 0.000000
105.784480 294.107910 10.699591 0.000000
105.445820 294.096860 10.699817 0.000000
99.151375 297.727140 10.951162 0.000000
110.747800 290.963290 10.490011 0.000000
110.473210 291.004730 10.493506 0.000000
110.059310 291.053250 10.498878 0.000000
104.935580 294.073460 10.699538 0.000000
104.423610 294.040560 10.698793 0.000000
98.260773 297.601100 10.943613 0.000000
97.725540 297.703280 10.932256 0.000000
109.643620 291.083220 10.504778 0.000000
109.227000 291.094090 10.510969 0.000000
103.909070 293.997770 10.697330 0.000000
97.359207 297.455540 10.934584 0.000000
108.671360 291.092620 10.518797 0.000000
108.254860 291.079500 10.524350 0.000000
103.396650 293.932710 10.696162 0.000000
103.057000 293.874690 10.695564 0.000000
97.003830 297.191310 10.937129 0.000000
116.967290 286.218380 10.226213 0.000000
116.664980 286.409180 10.237799 0.000000
116.357430 286.590360 10.249279 0.000000
115.941360 286.819790 10.264312 0.000000
115.518420 287.034330 10.279028 0.000000
115.197160 287.185670 10.289879 0.000000
114.872340 287.327790 10.300479 0.000000
114.434600 287.504330 10.314341 0.000000
114.103200 287.627200 10.324493 0.000000
113.768710 287.739870 10.334476 0.000000
113.319470 287.877380 10.347428 0.000000
107.838770 291.056610 10.529390 0.000000
102.721530 293.799040 10.695518 0.000000
96.447540 297.287200 10.924128 0.000000
112.866650 287.999330 10.359967 0.000000
112.525610 288.082980 10.368889 0.000000
112.187840 288.177400 10.375216 0.000000
111.733950 288.290830 10.383296 0.000000
107.285060 291.010070 10.535675 0.000000
106.870670 290.965120 10.539901 0.000000
102.386150 293.719480 10.695173 0.000000
102.051190 293.635160 10.694584 0.000000
96.067558 297.058780 10.924087 0.000000
111.276020 288.388210 10.391056 0.000000
110.930450 288.451390 10.396634 0.000000
110.582940 288.504090 10.402027 0.000000
106.595100 290.928770 10.542540 0.000000
106.320020 290.888460 10.544977 0.000000
101.717000 293.545260 10.693798 0.000000
101.383530 293.450070 10.692795 0.000000
110.117610 288.561520 10.408833 0.000000
109.650140 288.600160 10.415528 0.000000
105.905730 290.834050 10.547068 0.000000
105.490240 290.779660 10.548085 0.000000
101.008020 293.448270 10.685284 0.000000
109.181330 288.617710 10.422325 0.000000
108.712180 288.617130 10.428898 0.000000
105.213680 290.736910 10.548585 0.000000
104.937480 290.689610 10.548923 0.000000
100.770130 293.131620 10.697333 0.000000
100.386460 293.136410 10.688232 0.000000
112.305290 286.169130 10.317253 0.000000
108.243340 288.600370 10.435029 0.000000
107.892130 288.578770 10.439234 0.000000
104.661430 290.638700 10.549023 0.000000
104.388390 290.574620 10.549688 0.000000
100.055890 293.021270 10.686267 0.000000
111.915220 286.262910 10.327726 0.000000
111.525220 286.354160 10.336361 0.000000
111.134780 286.443360 10.343125 0.000000
110.840010 286.501890 10.347983 0.000000
107.658330 288.559300 10.441854 0.000000
107.308390 288.521880 10.445575 0.000000
104.111240 290.521670 10.548862 0.000000
103.837430 290.455200 10.548632 0.000000
99.397369 292.776090 10.681588 0.000000
110.642520 286.536010 10.351167 0.000000
110.345140 286.580870 10.355703 0.000000
109.946880 286.628780 10.361532 0.000000
109.647140 286.656460 10.365641 0.000000
106.843150 288.460140 10.449984 0.000000
106.495430 288.404750 10.452904 0.000000
103.564030 290.385070 10.548157 0.000000
103.291380 290.310420 10.547516 0.000000
99.069344 292.646300 10.678856 0.000000
109.446820 286.669400 10.368378 0.000000
109.045500 286.685180 10.373368 0.000000
106.264460 288.362550 10.454688 0.000000
105.919320 288.291870 10.457067 0.000000
103.019820 290.230590 10.546761 0.000000
102.749020 290.146670 10.545800 0.000000
98.581314 292.438320 10.674481 0.000000
108.543230 286.687040 10.379208 0.000000
108.141420 286.672150 10.383463 0.000000
105.575740 288.213440 10.459187 0.000000
105.347740 288.156370 10.460390 0.000000
102.479480 290.057560 10.544726 0.000000
102.211260 289.963380 10.543530 0.000000
98.098297 292.216060 10.669893 0.000000
107.640040 286.633180 10.388243 0.000000
107.240010 286.588130 10.391671 0.000000
105.122310 288.089870 10.462060 0.000000
104.779580 288.003880 10.462001 0.000000
101.943780 289.865600 10.542085 0.000000
101.677930 289.762480 10.540541 0.000000
97.777649 292.061920 10.666453 0.000000
107.040660 286.559600 10.393250 0.000000
106.742650 286.509700 10.395452 0.000000
104.323730 287.880400 10.461030 0.000000
101.413090 289.655400 10.538777 0.000000
101.149120 289.544770 10.536757 0.000000
97.076599 291.828490 10.652349 0.000000
106.117510 286.518310 10.382305 0.000000
105.787150 286.566220 10.368175 0.000000
105.564000 286.593480 10.358521 0.000000
103.983880 287.778050 10.459970 0.000000
103.494420 287.718810 10.447856 0.000000
100.888600 289.425990 10.534900 0.000000
100.628590 289.304660 10.532697 0.000000
96.827652 291.564910 10.654936 0.000000
105.336350 286.624660 10.347696 0.000000
104.993440 286.654750 10.332303 0.000000
104.667040 286.621860 10.323904 0.000000
103.218850 287.748230 10.434190 0.000000
102.795920 287.789490 10.412462 0.000000
100.359850 289.195770 10.528730 0.000000
100.018660 289.197750 10.513575 0.000000
96.615227 291.257290 10.660344 0.000000
96.201416 291.209840 10.645888 0.000000
104.345630 286.563480 10.317291 0.000000
102.362360 287.828860 10.389326 0.000000
101.974220 287.758940 10.376832 0.000000
99.646744 289.234590 10.494165 0.000000
95.891159 291.024410 10.641004 0.000000
103.917530 286.471920 10.308181 0.000000
103.596350 286.394440 10.300914 0.000000
101.476190 287.613740 10.363873 0.000000
98.896027 289.275180 10.455496 0.000000
98.579285 289.195650 10.444554 0.000000
103.382100 286.338410 10.295788 0.000000
102.972980 286.180390 10.289975 0.000000
101.102170 287.495030 10.353535 0.000000
100.852620 287.410680 10.346298 0.000000
98.093849 289.074860 10.426542 0.000000
100.415890 287.141910 10.342133 0.000000
97.671555 288.863370 10.416234 0.000000
100.460080 286.650510 10.384615 0.000000
97.440125 288.658020 10.415155 0.000000
100.262300 286.499360 10.383741 0.000000
100.067380 286.344540 10.382771 0.000000
99.875435 286.186160 10.381710 0.000000
97.342972 287.847840 10.455171 0.000000
97.032059 287.740360 10.442173 0.000000
96.912781 287.430540 10.451248 0.000000
96.648064 287.062130 10.453279 0.000000
96.295555 286.777530 10.444256 0.000000
96.099152 286.551510 10.441811 0.000000
105.554090 305.116610 11.346718 0.000000
105.004270 305.262600 11.348799 0.000000
104.419890 305.589200 11.347544 0.000000
103.934380 305.237030 11.357153 0.000000
103.361740 305.407230 11.357759 0.000000
102.897250 304.997160 11.367437 0.000000
102.306710 305.206760 11.366645 0.000000
120.477390 294.724370 10.703825 0.000000
119.956590 295.010190 10.718942 0.000000
119.432240 295.289030 10.733536 0.000000
119.083950 295.477720 10.742512 0.000000
118.733260 295.662480 10.751271 0.000000
118.380800 295.844640 10.759740 0.000000
118.025700 296.022460 10.768009 0.000000
117.708150 296.293090 10.771116 0.000000
117.357210 296.491090 10.777609 0.000000
117.004450 296.689700 10.783691 0.000000
116.646710 296.880860 10.789767 0.000000
101.823080 304.920380 11.373469 0.000000
101.208980 305.162600 11.371399 0.000000
115.768910 296.769290 10.824251 0.000000
115.424570 296.998720 10.827091 0.000000
115.038880 297.094880 10.835792 0.000000
114.652610 297.187190 10.844199 0.000000
114.289630 297.375700 10.847803 0.000000
113.914330 297.524480 10.852827 0.000000
100.732380 304.857480 11.377698 0.000000
100.104540 305.084290 11.375099 0.000000
113.099030 297.510380 10.875306 0.000000
113.454730 297.269320 10.875290 0.000000
112.708520 297.579410 10.882462 0.000000
112.317670 297.647090 10.889225 0.000000
111.949150 297.887240 10.888234 0.000000
99.631729 304.772640 11.380674 0.000000
98.991020 304.980650 11.377567 0.000000
111.138850 297.815000 10.908320 0.000000
98.521790 304.661800 11.382427 0.000000
110.540890 297.790070 10.920778 0.000000
109.953400 297.960910 10.924335 0.000000
97.873077 304.838200 11.378983 0.000000
109.556330 298.007690 10.928871 0.000000
108.758550 298.056340 10.938430 0.000000
97.381088 304.578640 11.382059 0.000000
96.676102 304.839780 11.376376 0.000000
108.358490 298.074490 10.942785 0.000000
96.171150 304.595430 11.378345 0.000000
107.963500 297.953800 10.952175 0.000000
107.555500 298.105130 10.950387 0.000000
107.164880 297.957000 10.959912 0.000000
106.746220 298.142820 10.955935 0.000000
105.738670 298.082000 10.964481 0.000000
105.109910 298.167140 10.963643 0.000000
104.716650 298.055970 10.968955 0.000000
104.282110 298.154570 10.965719 0.000000
103.866090 298.139980 10.966379 0.000000
102.997040 298.221440 10.962020 0.000000
102.607040 298.072910 10.966421 0.000000
102.185870 298.034520 10.966092 0.000000
101.758930 298.004850 10.964935 0.000000
101.291250 298.086090 10.958959 0.000000
100.940690 297.812650 10.966304 0.000000
100.469580 297.876130 10.959992 0.000000
99.638939 297.671260 10.958827 0.000000
119.534390 289.938170 10.402275 0.000000
117.358970 291.320400 10.486053 0.000000
120.527250 289.102720 10.361787 0.000000
120.259250 289.293030 10.374904 0.000000
119.855410 289.571320 10.394018 0.000000
119.177630 290.018070 10.424651 0.000000
118.903820 290.189210 10.436545 0.000000
106.472440 294.370180 10.716185 0.000000
118.589490 287.210330 10.235394 0.000000
118.253330 287.460690 10.252477 0.000000
117.914120 287.704040 10.269176 0.000000
117.571620 287.939150 10.285334 0.000000
117.226810 288.168030 10.301015 0.000000
116.879170 288.389130 10.316114 0.000000
116.528020 288.602420 10.330959 0.000000
116.174100 288.807890 10.345237 0.000000
115.818180 289.007480 10.359034 0.000000
115.459850 289.199800 10.372216 0.000000
115.099460 289.386170 10.384936 0.000000
114.735570 289.563510 10.397268 0.000000
114.370610 289.736600 10.408955 0.000000
114.129020 289.854340 10.415772 0.000000
113.766530 290.030360 10.425024 0.000000
113.398040 290.193330 10.434619 0.000000
113.022190 290.338380 10.444762 0.000000
112.644340 290.477230 10.454484 0.000000
106.151260 294.390560 10.718249 0.000000
105.829000 294.406980 10.720097 0.000000
119.683200 286.317260 10.175220 0.000000
119.467820 286.502960 10.187642 0.000000
119.142640 286.775570 10.205702 0.000000
118.812770 287.039980 10.223566 0.000000
112.263850 290.607910 10.463720 0.000000
111.753000 290.770840 10.475424 0.000000
111.367150 290.884060 10.483789 0.000000
110.979100 290.989690 10.491603 0.000000
105.181180 294.428960 10.723049 0.000000
104.692320 294.434910 10.724607 0.000000
110.589030 291.088100 10.499083 0.000000
110.196700 291.178220 10.506066 0.000000
109.802570 291.261440 10.512679 0.000000
109.538240 291.309480 10.517092 0.000000
104.201220 294.433380 10.725668 0.000000
103.872540 294.426150 10.726116 0.000000
109.272760 291.351200 10.521575 0.000000
109.006660 291.389310 10.525869 0.000000
108.605380 291.428500 10.532898 0.000000
103.377100 294.408780 10.726205 0.000000
108.069110 291.465000 10.541952 0.000000
107.666350 291.482360 10.548343 0.000000
102.879520 294.383120 10.725812 0.000000
102.382220 294.336550 10.725486 0.000000
107.263240 291.488800 10.554411 0.000000
106.725650 291.484310 10.561926 0.000000
101.892660 294.249570 10.726720 0.000000
115.777300 286.236570 10.250072 0.000000
115.399390 286.504490 10.265715 0.000000
115.014490 286.760250 10.280896 0.000000
114.721510 286.944180 10.292020 0.000000
114.422750 287.117610 10.303243 0.000000
114.019480 287.338200 10.317817 0.000000
113.609840 287.544490 10.332097 0.000000
113.298930 287.690340 10.342610 0.000000
112.984780 287.827610 10.352866 0.000000
112.562620 288.000760 10.365981 0.000000
112.144200 288.180600 10.376094 0.000000
111.827900 288.309880 10.383087 0.000000
111.508000 288.430360 10.389883 0.000000
111.185330 288.543670 10.396524 0.000000
106.322060 291.478150 10.566533 0.000000
105.916870 291.478450 10.569302 0.000000
101.400070 294.161590 10.726729 0.000000
110.968660 288.614960 10.400778 0.000000
110.640750 288.712980 10.407186 0.000000
110.310100 288.801480 10.413678 0.000000
109.975530 288.873900 10.420737 0.000000
109.639130 288.936800 10.427839 0.000000
105.375560 291.464140 10.572562 0.000000
100.910040 294.056610 10.726791 0.000000
100.583500 293.980740 10.726511 0.000000
109.414100 288.974030 10.432409 0.000000
109.075550 289.022580 10.439038 0.000000
108.622740 289.075620 10.447440 0.000000
104.833340 291.432710 10.575238 0.000000
104.426390 291.398160 10.576895 0.000000
100.257410 293.899630 10.726046 0.000000
99.931786 293.813450 10.725378 0.000000
108.168570 289.114010 10.455376 0.000000
107.713460 289.138370 10.462773 0.000000
104.019390 291.352970 10.578163 0.000000
103.612440 291.299410 10.579097 0.000000
99.605942 293.723880 10.724394 0.000000
112.355130 286.098510 10.314115 0.000000
112.085400 286.216490 10.323005 0.000000
107.257780 289.148100 10.469687 0.000000
106.915880 289.147060 10.474474 0.000000
103.341380 291.257750 10.579531 0.000000
103.070210 291.212950 10.579706 0.000000
99.330200 293.519870 10.730509 0.000000
98.957741 293.525360 10.722078 0.000000
111.904240 286.291410 10.328772 0.000000
111.632680 286.403200 10.336429 0.000000
111.271780 286.554720 10.344506 0.000000
110.905880 286.694210 10.352289 0.000000
110.535030 286.820590 10.359911 0.000000
110.160110 286.935000 10.367163 0.000000
109.781270 287.036530 10.374151 0.000000
106.687990 289.141020 10.477554 0.000000
106.346340 289.124820 10.481901 0.000000
106.004960 289.102020 10.485922 0.000000
102.802310 291.153440 10.580627 0.000000
102.530000 291.105830 10.579969 0.000000
98.636147 293.415500 10.720808 0.000000
109.398990 287.125210 10.380842 0.000000
109.013670 287.200900 10.387236 0.000000
108.625730 287.263490 10.393317 0.000000
105.777740 289.081390 10.488493 0.000000
105.437300 289.044650 10.491930 0.000000
102.260670 291.045290 10.579906 0.000000
101.991560 290.981260 10.579603 0.000000
98.376945 293.181880 10.727436 0.000000
98.013115 293.148280 10.719862 0.000000
108.137720 287.322330 10.400478 0.000000
107.647330 287.361360 10.407222 0.000000
104.981530 289.000730 10.494217 0.000000
104.639430 288.961850 10.495251 0.000000
101.723010 290.912810 10.579144 0.000000
101.455300 290.839420 10.578576 0.000000
107.253730 287.377660 10.412138 0.000000
106.859510 287.379940 10.416790 0.000000
104.411680 288.930390 10.495838 0.000000
104.070420 288.876310 10.496398 0.000000
101.188130 290.762020 10.577808 0.000000
100.921750 290.680150 10.576891 0.000000
97.039825 292.794590 10.710958 0.000000
106.563710 287.373380 10.420050 0.000000
106.267990 287.358460 10.423078 0.000000
105.972550 287.336640 10.425949 0.000000
103.729460 288.815920 10.496574 0.000000
103.504880 288.763000 10.497365 0.000000
100.656510 290.593170 10.575871 0.000000
100.392040 290.502140 10.574659 0.000000
96.722923 292.656430 10.708243 0.000000
96.408470 292.511230 10.705448 0.000000
105.775840 287.317690 10.427733 0.000000
105.383410 287.268490 10.431011 0.000000
103.276630 288.720210 10.496492 0.000000
102.938670 288.637360 10.496155 0.000000
100.128970 290.405820 10.573366 0.000000
99.866577 290.305880 10.571836 0.000000
96.094200 292.362520 10.702311 0.000000
106.987980 286.101470 10.359203 0.000000
106.543630 286.198850 10.347425 0.000000
106.180490 286.271360 10.336333 0.000000
104.992260 287.208070 10.433986 0.000000
104.473110 287.244290 10.419629 0.000000
102.489720 288.515500 10.495145 0.000000
99.566658 290.272980 10.563437 0.000000
105.810520 286.337680 10.323977 0.000000
105.346370 286.366300 10.313512 0.000000
104.038860 287.304380 10.401433 0.000000
103.592390 287.362150 10.381010 0.000000
103.252800 287.394010 10.365588 0.000000
101.900520 288.416290 10.484723 0.000000
101.491170 288.461520 10.464391 0.000000
98.822769 289.872010 10.563108 0.000000
104.793080 286.329100 10.307315 0.000000
104.421680 286.295500 10.301809 0.000000
103.038750 287.369570 10.360600 0.000000
102.721980 287.312560 10.354628 0.000000
101.072380 288.503510 10.442900 0.000000
100.655120 288.515410 10.422958 0.000000
98.492760 289.866150 10.549409 0.000000
98.126373 289.904600 10.530481 0.000000
97.751266 289.941410 10.510726 0.000000
104.236590 286.270170 10.299395 0.000000
103.956050 286.234590 10.294172 0.000000
102.404630 287.249210 10.348264 0.000000
102.192710 287.202790 10.343745 0.000000
97.234688 289.905090 10.488330 0.000000
103.676380 286.189180 10.289268 0.000000
103.489600 286.155430 10.285725 0.000000
101.980640 287.152980 10.339045 0.000000
101.661820 287.072540 10.331481 0.000000
99.774162 288.312320 10.397645 0.000000
99.526367 288.236510 10.390929 0.000000
96.799240 289.740480 10.477285 0.000000
101.346690 286.978210 10.324560 0.000000
99.278137 288.157010 10.383941 0.000000
98.881432 288.063450 10.368654 0.000000
96.511597 289.620760 10.469942 0.000000
96.226288 289.493530 10.462626 0.000000
100.972210 286.348690 10.371235 0.000000
95.938873 289.364320 10.454740 0.000000
100.704120 286.183990 10.371023 0.000000
98.890778 287.407780 10.424641 0.000000
98.399902 287.039580 10.422631 0.000000
95.824425 288.587280 10.494568 0.000000
98.113266 286.808260 10.421213 0.000000
97.924690 286.650820 10.419949 0.000000
97.740181 286.488590 10.418776 0.000000
97.467972 286.239990 10.416618 0.000000
108.031070 304.107970 11.286913 0.000000
107.543810 304.320500 11.290083 0.000000
107.049690 304.481690 11.294079 0.000000
106.547760 304.726010 11.296036 0.000000
106.066570 304.265990 11.312350 0.000000
105.561070 304.470980 11.314439 0.000000
105.045970 304.693910 11.315887 0.000000
104.521840 304.915250 11.317093 0.000000
103.540650 304.621250 11.333205 0.000000
102.984270 304.949770 11.331324 0.000000
102.517160 304.652830 11.341344 0.000000
101.971500 304.825380 11.341850 0.000000
120.486270 293.917970 10.641301 0.000000
101.524480 304.461640 11.352329 0.000000
100.963200 304.660920 11.351617 0.000000
120.140820 294.101200 10.654198 0.000000
119.743740 294.206180 10.671820 0.000000
119.414090 294.404240 10.682538 0.000000
119.083320 294.599400 10.692968 0.000000
118.750560 294.790440 10.703196 0.000000
118.416590 294.978580 10.713140 0.000000
117.916050 295.260740 10.727166 0.000000
117.414020 295.540340 10.740473 0.000000
117.076430 295.721890 10.749063 0.000000
116.736450 295.899350 10.757471 0.000000
116.394420 296.073430 10.765653 0.000000
116.032000 296.202150 10.775949 0.000000
115.668530 296.325870 10.786037 0.000000
115.349500 296.559780 10.789697 0.000000
114.993040 296.703770 10.797853 0.000000
114.636800 296.849300 10.805499 0.000000
100.497980 304.409670 11.359135 0.000000
113.800270 296.755130 10.839252 0.000000
113.469790 296.971710 10.841836 0.000000
113.100880 297.064970 10.850272 0.000000
99.914391 304.638520 11.357163 0.000000
112.731410 297.154720 10.858434 0.000000
112.361310 297.240810 10.866331 0.000000
112.024400 297.475800 10.866629 0.000000
99.454659 304.369630 11.364232 0.000000
98.857269 304.585270 11.361793 0.000000
111.245480 297.471560 10.888727 0.000000
110.871890 297.539920 10.895728 0.000000
110.497830 297.606380 10.902388 0.000000
110.144930 297.835020 10.901203 0.000000
98.400169 304.309510 11.368202 0.000000
97.784637 304.523960 11.365041 0.000000
109.732990 297.605070 10.920521 0.000000
109.370850 297.787660 10.920646 0.000000
108.798200 297.772640 10.932981 0.000000
108.234420 297.923650 10.937131 0.000000
97.334831 304.226040 11.371073 0.000000
96.705093 304.425170 11.367418 0.000000
107.853840 297.965030 10.941957 0.000000
107.470600 297.845760 10.953325 0.000000
107.089220 298.047150 10.950382 0.000000
96.238495 304.169100 11.371870 0.000000
106.704860 298.082860 10.954201 0.000000
106.324150 297.995670 10.962835 0.000000
105.743740 298.074130 10.966003 0.000000
105.153140 298.184750 10.967012 0.000000
118.355770 290.523990 10.459247 0.000000
118.090150 290.699520 10.468908 0.000000
117.076400 291.470830 10.496116 0.000000
116.743450 291.537350 10.513130 0.000000
116.468630 291.694430 10.521401 0.000000
116.052620 291.922820 10.533452 0.000000
115.633160 292.144350 10.545104 0.000000
115.351390 292.287840 10.552580 0.000000
115.067670 292.427430 10.559896 0.000000
114.828440 292.664920 10.558846 0.000000
104.368240 298.212040 10.971869 0.000000
118.629490 290.357330 10.448127 0.000000
117.762830 290.787570 10.486421 0.000000
114.145230 292.678160 10.592223 0.000000
113.860250 292.810330 10.598106 0.000000
113.601020 293.013210 10.598125 0.000000
113.152740 293.165040 10.608987 0.000000
112.702420 293.310030 10.619388 0.000000
112.401100 293.402980 10.625951 0.000000
103.996320 298.064910 10.980351 0.000000
103.576710 298.224550 10.975617 0.000000
111.793790 293.573090 10.638792 0.000000
111.488180 293.651000 10.645010 0.000000
111.180850 293.721740 10.651255 0.000000
110.872790 293.789310 10.657246 0.000000
103.196800 298.124820 10.981238 0.000000
102.778430 298.220550 10.978301 0.000000
110.544900 293.751100 10.670095 0.000000
110.253510 293.909700 10.668817 0.000000
109.942980 293.966060 10.674151 0.000000
109.647250 294.136960 10.671247 0.000000
102.376710 298.212100 10.979247 0.000000
101.973090 298.199800 10.979900 0.000000
109.319190 294.065610 10.684299 0.000000
109.006200 294.110500 10.688991 0.000000
108.377800 294.188480 10.697750 0.000000
101.160130 298.163090 10.980346 0.000000
108.062450 294.222600 10.701748 0.000000
107.746320 294.253140 10.705507 0.000000
107.429450 294.285950 10.708648 0.000000
100.751690 298.135070 10.980275 0.000000
100.335370 298.121920 10.979115 0.000000
106.952030 294.332180 10.712620 0.000000
99.879570 298.214940 10.973046 0.000000
99.534920 297.968170 10.980682 0.000000
99.077286 298.036930 10.974638 0.000000
98.614639 298.097050 10.968424 0.000000
97.795990 297.911130 10.967366 0.000000
97.437248 297.697140 10.971259 0.000000
96.928841 297.802190 10.960962 0.000000
96.410057 297.903630 10.950185 0.000000
95.874596 297.552670 10.954767 0.000000
119.648670 288.976290 10.337214 0.000000
120.581910 288.063960 10.291007 0.000000
120.070830 288.488400 10.319938 0.000000
119.813930 288.694730 10.333981 0.000000
116.941830 287.751070 10.258072 0.000000
116.653510 287.850220 10.279591 0.000000
116.438850 288.017640 10.289795 0.000000
116.105450 288.253330 10.306026 0.000000
115.771120 288.484130 10.321611 0.000000
115.433680 288.706760 10.336699 0.000000
115.093440 288.922390 10.351460 0.000000
114.750180 289.129820 10.365741 0.000000
114.404870 289.331050 10.379598 0.000000
114.057440 289.525300 10.392844 0.000000
113.710390 289.717250 10.405218 0.000000
113.366370 289.911440 10.415944 0.000000
112.894560 290.145170 10.431389 0.000000
112.537560 290.311950 10.442583 0.000000
112.177930 290.471070 10.453295 0.000000
111.815770 290.622960 10.463737 0.000000
111.451140 290.767180 10.473695 0.000000
111.084430 290.904910 10.483307 0.000000
110.839020 290.993560 10.489363 0.000000
117.930960 286.796450 10.211172 0.000000
117.656680 286.926670 10.232281 0.000000
117.265010 287.308290 10.251179 0.000000
117.062470 287.491390 10.260909 0.000000
110.592520 291.078740 10.495266 0.000000
110.344760 291.159910 10.501074 0.000000
109.971410 291.275850 10.509368 0.000000
109.596010 291.384770 10.517361 0.000000
109.218240 291.484990 10.524964 0.000000
118.405910 286.122040 10.193690 0.000000
118.224310 286.329220 10.203256 0.000000
118.037670 286.531520 10.213041 0.000000
108.711230 291.605710 10.534703 0.000000
107.941290 291.740080 10.550038 0.000000
107.424930 291.808140 10.559783 0.000000
107.036770 291.851470 10.566566 0.000000
106.777230 291.872040 10.571188 0.000000
106.518060 291.898590 10.574766 0.000000
106.128600 291.941710 10.578863 0.000000
105.737720 291.977390 10.582657 0.000000
105.345150 292.003780 10.586070 0.000000
104.951540 292.018770 10.589523 0.000000
100.724620 294.639400 10.749661 0.000000
100.409320 294.579800 10.750768 0.000000
114.849050 286.084350 10.262197 0.000000
114.590100 286.304900 10.273783 0.000000
114.237170 286.588170 10.289132 0.000000
113.876270 286.859100 10.304203 0.000000
113.507180 287.116730 10.319107 0.000000
113.225740 287.301850 10.330124 0.000000
112.940000 287.478850 10.340959 0.000000
112.553300 287.703490 10.355221 0.000000
112.170350 287.931550 10.366797 0.000000
111.785290 288.155270 10.376904 0.000000
111.491910 288.315000 10.384342 0.000000
111.194350 288.466950 10.391579 0.000000
110.792070 288.658420 10.401025 0.000000
110.382420 288.833620 10.410572 0.000000
109.962200 288.981540 10.421556 0.000000
109.644040 289.082700 10.429715 0.000000
109.323790 289.175990 10.437550 0.000000
109.001760 289.262120 10.445221 0.000000
104.688740 292.019380 10.592010 0.000000
104.425680 292.015990 10.594354 0.000000
104.162450 292.008420 10.596574 0.000000
99.931259 294.498720 10.750860 0.000000
108.786060 289.315000 10.450191 0.000000
108.461230 289.388090 10.457365 0.000000
108.025920 289.473910 10.466601 0.000000
107.698070 289.529970 10.473220 0.000000
103.898990 291.997340 10.598610 0.000000
103.503400 291.973940 10.601261 0.000000
99.297523 294.364110 10.751086 0.000000
107.478830 289.562840 10.477478 0.000000
107.149060 289.604920 10.483676 0.000000
106.818600 289.640660 10.489584 0.000000
102.975650 291.929690 10.604280 0.000000
102.579790 291.886630 10.606155 0.000000
106.597830 289.659700 10.493392 0.000000
106.266190 289.681550 10.498851 0.000000
105.823390 289.699220 10.505734 0.000000
102.315790 291.853330 10.607136 0.000000
102.051910 291.815890 10.607976 0.000000
111.749860 286.120760 10.323921 0.000000
111.424450 286.324950 10.333830 0.000000
111.095760 286.523410 10.342631 0.000000
110.675510 286.755220 10.353341 0.000000
110.246520 286.970610 10.363725 0.000000
109.896820 287.129520 10.371755 0.000000
109.541900 287.276670 10.379554 0.000000
109.182260 287.412230 10.387065 0.000000
108.909510 287.505830 10.392625 0.000000
105.379840 289.718320 10.510431 0.000000
104.934810 289.731380 10.513792 0.000000
101.656190 291.752470 10.608849 0.000000
101.262560 291.675200 10.609932 0.000000
97.747208 293.880460 10.752764 0.000000
108.726360 287.564360 10.396214 0.000000
108.449760 287.646420 10.401412 0.000000
108.077870 287.745360 10.408148 0.000000
107.608290 287.851010 10.416142 0.000000
104.488450 289.730870 10.516643 0.000000
104.153130 289.721100 10.518553 0.000000
100.997280 291.629090 10.609468 0.000000
100.734340 291.572020 10.609467 0.000000
97.126968 293.669860 10.751010 0.000000
107.134540 287.937840 10.423783 0.000000
106.752110 287.985900 10.430457 0.000000
106.368150 288.019410 10.437053 0.000000
103.929360 289.709960 10.519659 0.000000
103.593470 289.686430 10.521049 0.000000
100.471410 291.511930 10.609209 0.000000
100.208780 291.447970 10.608770 0.000000
96.629440 293.560640 10.744812 0.000000
96.317184 293.445590 10.742956 0.000000
105.886960 288.043330 10.444722 0.000000
105.501540 288.050750 10.450379 0.000000
103.145530 289.643250 10.522499 0.000000
102.809750 289.601650 10.523310 0.000000
96.006676 293.323910 10.741023 0.000000
108.900350 286.084530 10.356157 0.000000
108.582480 286.197910 10.362621 0.000000
108.179660 286.323820 10.370403 0.000000
107.772010 286.433840 10.377855 0.000000
107.442560 286.509280 10.383484 0.000000
105.308750 288.049290 10.453037 0.000000
105.019580 288.041320 10.456773 0.000000
104.729930 288.035220 10.459221 0.000000
102.586110 289.569030 10.523699 0.000000
102.251130 289.512660 10.524059 0.000000
99.162804 291.151490 10.605339 0.000000
107.193820 286.558750 10.387587 0.000000
106.943700 286.601380 10.391502 0.000000
106.524440 286.658480 10.397694 0.000000
104.439670 288.026090 10.460789 0.000000
104.052390 288.003420 10.462551 0.000000
101.918290 289.443730 10.524779 0.000000
101.583080 289.376890 10.523926 0.000000
98.772324 291.024290 10.603207 0.000000
106.102970 286.698940 10.403511 0.000000
105.679750 286.774870 10.400350 0.000000
105.250080 286.874270 10.390571 0.000000
104.987820 286.931370 10.383561 0.000000
103.568410 287.956630 10.464170 0.000000
103.178510 287.920840 10.463137 0.000000
101.139730 289.268460 10.523190 0.000000
98.253380 290.841950 10.599692 0.000000
104.810870 286.968140 10.378393 0.000000
104.451340 287.037960 10.366853 0.000000
103.993370 287.117280 10.350913 0.000000
103.718240 287.133180 10.344608 0.000000
102.970690 287.951110 10.455229 0.000000
102.652890 287.998050 10.441987 0.000000
102.220540 288.054720 10.423101 0.000000
100.074520 289.139470 10.499879 0.000000
97.739876 290.638730 10.595899 0.000000
103.445720 287.118620 10.341647 0.000000
103.081060 287.090580 10.337145 0.000000
101.775790 288.108980 10.402001 0.000000
101.449170 288.106900 10.390440 0.000000
99.665100 289.182500 10.478901 0.000000
99.245705 289.222810 10.456683 0.000000
97.045044 290.453580 10.580993 0.000000
102.623590 287.039090 10.330709 0.000000
100.614330 287.947270 10.373872 0.000000
98.851028 289.191770 10.441156 0.000000
98.484222 289.097530 10.431915 0.000000
96.706657 290.461790 10.565454 0.000000
96.361038 290.468630 10.549150 0.000000
96.008118 290.473690 10.532090 0.000000
102.071400 286.959110 10.321105 0.000000
100.299740 287.874690 10.366754 0.000000
98.116920 288.992650 10.422243 0.000000
99.781235 287.725430 10.355710 0.000000
97.626190 288.839540 10.408631 0.000000
101.228910 286.373600 10.362267 0.000000
97.212440 288.778110 10.389554 0.000000
100.820650 286.182370 10.363218 0.000000
99.324005 287.053130 10.403817 0.000000
97.175781 287.996250 10.454838 0.000000
98.971573 286.837160 10.403465 0.000000
96.980629 287.853790 10.454080 0.000000
98.626358 286.609160 10.402708 0.000000
98.372261 286.430690 10.401903 0.000000
96.692810 287.633150 10.452744 0.000000
98.123169 286.244870 10.400857 0.000000
96.316391 287.328860 10.450445 0.000000
95.949890 287.011780 10.447655 0.000000
103.000040 304.412450 11.301708 0.000000
101.531730 304.488620 11.314480 0.000000
101.084340 304.221530 11.324623 0.000000
100.565160 304.381960 11.324809 0.000000
118.807880 294.169280 10.645994 0.000000
118.463760 294.340060 10.659193 0.000000
118.125850 294.515410 10.671473 0.000000
117.739300 294.616790 10.688432 0.000000
117.416650 294.806000 10.698570 0.000000
117.095520 294.996280 10.708166 0.000000
116.774520 295.185940 10.717350 0.000000
116.452600 295.373570 10.726229 0.000000
115.953890 295.625920 10.740541 0.000000
115.432430 295.833070 10.756792 0.000000
115.083970 295.965360 10.767322 0.000000
120.571230 292.736790 10.587640 0.000000
120.261670 292.960270 10.599822 0.000000
119.951000 293.180180 10.611742 0.000000
119.639560 293.396940 10.623368 0.000000
119.250580 293.517610 10.641978 0.000000
114.734810 296.093230 10.777635 0.000000
114.385600 296.217930 10.787651 0.000000
114.035670 296.338230 10.797455 0.000000
113.685590 296.455510 10.806966 0.000000
113.377080 296.675600 10.810141 0.000000
113.033680 296.811710 10.817762 0.000000
112.690510 296.949040 10.824902 0.000000
100.135730 304.053190 11.335541 0.000000
99.601639 304.238650 11.334503 0.000000
111.888850 296.864930 10.857435 0.000000
111.569930 297.068570 10.859598 0.000000
99.155006 304.012660 11.342195 0.000000
98.600029 304.224850 11.339909 0.000000
111.215260 297.157350 10.867555 0.000000
110.860090 297.242800 10.875255 0.000000
110.504330 297.324830 10.882706 0.000000
110.179600 297.545620 10.882631 0.000000
98.157829 303.982600 11.347211 0.000000
97.589394 304.183410 11.344493 0.000000
109.432730 297.548310 10.903695 0.000000
108.894360 297.647740 10.913355 0.000000
108.374860 297.893740 10.915040 0.000000
97.148972 303.934720 11.351186 0.000000
107.983290 297.708800 10.932615 0.000000
107.633430 297.870120 10.932968 0.000000
96.563156 304.134610 11.347781 0.000000
107.270780 297.926820 10.937984 0.000000
106.897350 297.825260 10.950082 0.000000
106.541830 298.027530 10.947412 0.000000
96.128838 303.865110 11.354172 0.000000
106.175560 298.073240 10.951746 0.000000
105.806530 297.963130 10.962904 0.000000
105.439170 298.152920 10.959756 0.000000
105.068950 298.188420 10.963360 0.000000
104.324420 298.246280 10.969958 0.000000
115.316930 291.934970 10.516702 0.000000
114.853040 292.071170 10.538083 0.000000
114.583690 292.222170 10.545947 0.000000
114.165500 292.422120 10.559137 0.000000
113.744250 292.613460 10.572055 0.000000
112.798370 293.132630 10.591585 0.000000
103.961450 298.122220 10.979569 0.000000
103.574040 298.290370 10.975558 0.000000
103.180780 298.447080 10.971696 0.000000
119.036580 289.289610 10.374610 0.000000
118.514770 289.668180 10.400261 0.000000
118.251080 289.850490 10.412868 0.000000
117.986460 290.029050 10.425229 0.000000
117.632350 290.339870 10.437677 0.000000
117.204830 290.563110 10.458591 0.000000
116.949590 290.743500 10.468261 0.000000
116.693210 290.921050 10.477673 0.000000
116.305500 291.180940 10.491378 0.000000
115.855900 291.351930 10.512832 0.000000
113.462160 292.736570 10.580368 0.000000
113.178760 292.855740 10.588516 0.000000
112.035290 293.298220 10.618999 0.000000
111.601710 293.448240 10.629656 0.000000
111.165380 293.588960 10.640090 0.000000
102.817600 298.319180 10.980206 0.000000
119.296860 289.095370 10.361307 0.000000
110.871770 293.673370 10.647141 0.000000
110.577650 293.755100 10.653915 0.000000
109.986690 293.906560 10.666953 0.000000
109.689940 293.976350 10.673210 0.000000
102.054500 298.334230 10.983814 0.000000
101.670240 298.336910 10.985205 0.000000
109.243800 294.076140 10.682024 0.000000
108.796120 294.168820 10.690428 0.000000
108.346410 294.252010 10.698366 0.000000
101.284580 298.333830 10.986426 0.000000
100.896510 298.329800 10.987265 0.000000
107.594050 294.379300 10.710268 0.000000
107.292290 294.430630 10.714184 0.000000
100.504750 298.329350 10.987508 0.000000
100.082700 298.433960 10.982648 0.000000
106.980540 294.365450 10.725760 0.000000
106.685720 294.523620 10.721344 0.000000
106.227910 294.584410 10.726094 0.000000
99.714233 298.317290 10.987176 0.000000
99.317474 298.298430 10.986911 0.000000
105.767970 294.637540 10.730471 0.000000
105.459920 294.669220 10.733039 0.000000
104.995660 294.708740 10.736530 0.000000
98.914650 298.287930 10.985819 0.000000
98.474510 298.377290 10.979802 0.000000
104.529240 294.741180 10.739585 0.000000
104.216900 294.757600 10.741359 0.000000
98.138794 298.146910 10.987615 0.000000
97.696457 298.213650 10.981653 0.000000
103.588810 294.781040 10.744148 0.000000
103.273150 294.786990 10.745232 0.000000
97.284706 298.181610 10.979634 0.000000
102.797330 294.789120 10.746362 0.000000
102.319360 294.783630 10.747050 0.000000
101.838540 294.768860 10.747154 0.000000
96.104233 297.901580 10.978982 0.000000
101.359500 294.729580 10.747918 0.000000
101.042060 294.686920 10.748874 0.000000
108.641720 303.351140 11.239524 0.000000
108.194620 303.536930 11.243909 0.000000
107.741520 303.709690 11.248369 0.000000
107.278340 303.797450 11.254722 0.000000
106.821930 304.080840 11.255845 0.000000
106.336340 303.638490 11.274764 0.000000
105.873130 303.835540 11.277390 0.000000
105.403560 303.985600 11.280901 0.000000
104.926730 304.211400 11.282317 0.000000
104.468710 303.795680 11.298732 0.000000
103.982790 304.079440 11.298142 0.000000
103.506230 304.100310 11.303462 0.000000
102.559270 304.030790 11.315638 0.000000
102.060590 304.183440 11.316928 0.000000
120.132690 287.358800 10.242265 0.000000
119.885800 287.590730 10.257975 0.000000
119.637180 287.817840 10.273482 0.000000
119.387180 288.040410 10.288761 0.000000
119.137380 288.259400 10.303641 0.000000
120.632230 286.886470 10.209051 0.000000
120.383300 287.125150 10.225765 0.000000
115.018320 288.320010 10.311500 0.000000
114.529780 288.579010 10.341647 0.000000
114.113620 288.900760 10.359222 0.000000
113.901080 289.054720 10.368103 0.000000
113.577670 289.277500 10.381373 0.000000
113.317390 289.576930 10.383041 0.000000
112.927700 289.710330 10.405816 0.000000
112.594440 289.911710 10.418169 0.000000
112.255180 290.101070 10.430637 0.000000
111.913700 290.284180 10.442760 0.000000
111.570120 290.460390 10.454331 0.000000
111.107990 290.684110 10.469288 0.000000
110.758870 290.844210 10.480066 0.000000
110.524960 290.947170 10.486984 0.000000
115.858110 287.465760 10.276860 0.000000
115.236780 287.981380 10.310081 0.000000
114.734420 288.412540 10.332769 0.000000
116.646830 286.555660 10.240108 0.000000
116.376990 286.856080 10.254328 0.000000
116.101540 287.149720 10.268435 0.000000
116.908650 286.246460 10.225858 0.000000
111.452740 287.942410 10.374256 0.000000
111.184360 288.130950 10.381975 0.000000
110.818700 288.370540 10.392388 0.000000
110.445820 288.598360 10.402528 0.000000
110.063320 288.809080 10.413111 0.000000
109.767090 288.949040 10.422326 0.000000
109.467890 289.081180 10.431297 0.000000
109.065350 289.247130 10.442904 0.000000
113.094410 286.652220 10.312520 0.000000
112.755380 286.936460 10.327585 0.000000
112.408080 287.208250 10.342487 0.000000
112.147370 287.409670 10.352622 0.000000
111.890500 287.614350 10.360837 0.000000
111.629580 287.813600 10.368914 0.000000
108.658800 289.400760 10.454069 0.000000
108.247390 289.539030 10.465178 0.000000
107.833540 289.667300 10.475519 0.000000
107.416400 289.782530 10.485476 0.000000
107.101460 289.859990 10.492798 0.000000
102.987170 292.461460 10.627708 0.000000
102.603640 292.453250 10.631042 0.000000
102.347660 292.442990 10.633064 0.000000
113.425190 286.356170 10.297223 0.000000
106.785030 289.929720 10.499809 0.000000
106.361340 290.012730 10.508700 0.000000
105.935540 290.082670 10.517169 0.000000
102.091400 292.429840 10.634866 0.000000
101.835040 292.412630 10.636551 0.000000
105.509980 290.156220 10.523238 0.000000
105.082360 290.222260 10.528249 0.000000
104.759990 290.264100 10.531693 0.000000
101.578610 292.391480 10.638110 0.000000
101.193710 292.353030 10.640081 0.000000
109.650700 287.098210 10.372640 0.000000
109.323660 287.286990 10.381204 0.000000
108.907530 287.509520 10.391618 0.000000
108.653620 287.634830 10.397703 0.000000
104.544310 290.289670 10.533612 0.000000
104.219480 290.316220 10.536882 0.000000
103.784810 290.343230 10.540575 0.000000
110.962720 286.173310 10.334394 0.000000
110.665820 286.407680 10.343614 0.000000
110.360920 286.631260 10.352819 0.000000
110.048610 286.844020 10.361948 0.000000
109.811930 286.999790 10.368199 0.000000
108.482780 287.715090 10.401610 0.000000
108.222630 287.826750 10.407849 0.000000
107.873460 287.970030 10.415350 0.000000
107.518230 288.097500 10.423267 0.000000
107.156830 288.205900 10.432027 0.000000
106.700540 288.323240 10.442674 0.000000
103.348480 290.356780 10.543843 0.000000
103.020360 290.358400 10.546033 0.000000
100.037710 292.194240 10.643534 0.000000
99.783249 292.140810 10.644585 0.000000
106.240750 288.424070 10.452747 0.000000
105.870490 288.491270 10.460367 0.000000
105.498460 288.546810 10.467622 0.000000
102.691580 290.351440 10.547959 0.000000
102.252590 290.330660 10.550172 0.000000
99.524895 292.097380 10.644197 0.000000
99.140518 292.015200 10.644174 0.000000
105.032030 288.606750 10.475091 0.000000
104.564250 288.663450 10.480097 0.000000
104.282150 288.688570 10.482836 0.000000
101.813100 290.296690 10.551873 0.000000
101.483420 290.262450 10.552878 0.000000
98.628601 291.893650 10.643538 0.000000
108.681170 286.156590 10.359522 0.000000
108.315100 286.352480 10.368712 0.000000
108.016490 286.497860 10.375828 0.000000
107.636570 286.665160 10.384407 0.000000
107.250400 286.817570 10.392711 0.000000
106.857930 286.953120 10.400599 0.000000
106.460400 287.073460 10.408164 0.000000
106.219440 287.137450 10.412586 0.000000
104.093540 288.701510 10.484524 0.000000
103.715120 288.719020 10.487378 0.000000
103.335700 288.726260 10.489966 0.000000
98.119301 291.753540 10.642557 0.000000
105.976880 287.195340 10.416762 0.000000
105.651250 287.263210 10.422198 0.000000
105.241050 287.332340 10.428625 0.000000
103.145600 288.724640 10.491133 0.000000
102.860350 288.714080 10.492974 0.000000
102.574650 288.700130 10.494262 0.000000
100.386950 290.086820 10.554539 0.000000
97.612877 291.595760 10.641142 0.000000
104.828080 287.384060 10.434930 0.000000
104.413190 287.427490 10.439202 0.000000
103.996280 287.510680 10.434183 0.000000
102.288860 288.678310 10.495344 0.000000
102.003230 288.649630 10.496337 0.000000
99.840103 289.970490 10.553966 0.000000
99.513451 289.889130 10.553378 0.000000
97.108681 291.422760 10.639039 0.000000
103.571210 287.606410 10.423840 0.000000
103.137360 287.696080 10.411495 0.000000
102.782730 287.762540 10.400000 0.000000
102.512640 287.808260 10.390685 0.000000
101.812820 288.626920 10.496798 0.000000
100.999850 288.696750 10.471094 0.000000
99.296371 289.830050 10.552847 0.000000
96.731659 291.284330 10.636945 0.000000
96.481346 291.186650 10.635344 0.000000
102.238940 287.846410 10.381180 0.000000
101.968870 287.846530 10.376613 0.000000
100.787800 288.723240 10.461967 0.000000
100.571590 288.753020 10.451763 0.000000
100.133980 288.794770 10.431720 0.000000
98.836739 289.763850 10.543886 0.000000
98.441978 289.807220 10.524203 0.000000
98.037399 289.848910 10.503250 0.000000
96.231880 291.084930 10.633583 0.000000
101.249330 287.787570 10.367503 0.000000
101.069660 287.762660 10.365427 0.000000
99.608810 288.749450 10.417266 0.000000
99.300011 288.691160 10.411150 0.000000
97.760941 289.875180 10.488435 0.000000
97.259903 289.803530 10.471976 0.000000
100.796640 287.729920 10.360381 0.000000
100.433030 287.672850 10.353841 0.000000
99.093491 288.648650 10.406765 0.000000
98.783073 288.578640 10.399821 0.000000
96.910324 289.689420 10.465343 0.000000
99.990356 287.554990 10.349781 0.000000
98.471901 288.502780 10.392441 0.000000
98.264183 288.447810 10.387286 0.000000
96.444550 289.524930 10.455863 0.000000
99.769325 287.159180 10.395450 0.000000
97.959961 288.138030 10.405438 0.000000
96.094643 289.393620 10.448080 0.000000
99.534576 287.031980 10.399626 0.000000
99.292847 286.919650 10.400183 0.000000
97.825974 287.764430 10.439786 0.000000
95.816650 288.950160 10.471478 0.000000
98.975754 286.758390 10.400689 0.000000
97.476944 287.555270 10.439626 0.000000
98.585815 286.543700 10.400847 0.000000
97.133568 287.335750 10.438827 0.000000
98.205414 286.311250 10.400459 0.000000
96.798691 287.102660 10.437944 0.000000
96.390724 286.795260 10.436175 0.000000
95.994110 286.471920 10.433772 0.000000
116.872700 294.612730 10.664753 0.000000
116.534680 294.775600 10.677473 0.000000
