# .PCD v0.7 - Point Cloud Data file format
VERSION 0.7
FIELDS x y z intensity
SIZE 4 4 4 4
TYPE F F F F
COUNT 1 1 1 1
WIDTH 1214
HEIGHT 1
VIEWPOINT 0 0 0 1 0 0 0
POINTS 1214
DATA ascii
102.707520 -4.691022 2.080521 0.000000
105.459400 -4.264400 2.118560 0.000000
108.073270 -4.243745 2.093721 0.000000
117.691730 -3.743647 2.072551 0.000000
118.972180 -3.163882 2.165424 0.000000
104.818150 -3.120105 1.985001 0.000000
108.555830 -2.382839 2.100100 0.000000
119.054670 -2.266508 2.174524 0.000000
104.649350 -2.219823 2.188370 0.000000
108.582450 -2.107710 2.098195 0.000000
119.667170 -1.923749 2.220899 0.000000
108.578700 -1.547268 2.089333 0.000000
119.940690 -1.506617 2.243498 0.000000
104.874200 -1.318937 2.184843 0.000000
105.377040 -1.499896 1.997435 0.000000
108.484210 -1.246143 2.074868 0.000000
113.429990 -1.155866 2.206301 0.000000
114.816250 -1.055256 2.337294 0.000000
104.302580 -0.903256 2.082806 0.000000
105.106320 -0.754189 2.202581 0.000000
114.522090 -0.632631 2.310538 0.000000
104.419120 -0.740682 2.095582 0.000000
114.358220 -0.241593 2.296586 0.000000
104.225340 -0.187278 2.050217 0.000000
105.073210 -0.115767 2.181864 0.000000
105.082900 0.189466 2.177827 0.000000
105.125690 0.485261 2.180272 0.000000
104.268800 10.689688 2.316070 0.000000
105.949130 -8.563692 2.443717 0.000000
102.909810 -8.046375 2.413596 0.000000
103.797940 -8.119453 2.518073 0.000000
105.909430 -8.139614 2.409055 0.000000
103.110200 -7.905446 2.421128 0.000000
104.012830 -7.790392 2.511081 0.000000
105.185290 -7.852169 2.654779 0.000000
104.129440 -7.548001 2.502111 0.000000
105.493480 -7.403601 2.481881 0.000000
108.243640 -7.016307 2.598523 0.000000
108.686420 -6.946846 2.646869 0.000000
104.452010 -5.268802 2.350293 0.000000
105.671710 -5.267784 2.512937 0.000000
106.557510 -5.244082 2.632878 0.000000
104.787370 -4.943414 2.370832 0.000000
116.931200 -3.546523 2.540599 0.000000
118.515140 -3.520989 2.687880 0.000000
119.384460 -2.805695 2.767380 0.000000
113.666870 -1.931703 2.675574 0.000000
114.059430 -1.655808 2.718977 0.000000
113.604380 -1.199006 2.664098 0.000000
114.854230 -1.070948 2.808807 0.000000
114.699360 -0.670220 2.790331 0.000000
114.520080 -0.273599 2.769709 0.000000
104.274430 10.690903 2.608186 0.000000
108.918840 -7.108726 3.081209 0.000000
117.216110 -3.200753 3.094175 0.000000
114.458690 -0.639409 3.222352 0.000000
114.529270 -0.283465 3.231224 0.000000
113.496110 -0.840797 3.532634 0.000000
117.041150 -0.240420 3.580336 0.000000
117.304630 0.138958 3.617788 0.000000
117.319370 0.549236 3.621601 0.000000
117.089810 -0.667552 4.108196 0.000000
116.369580 -0.163408 3.990523 0.000000
116.835680 0.181533 4.065561 0.000000
117.083050 -1.079865 4.109559 0.000000
117.543020 0.518880 4.180663 0.000000
117.618020 0.927791 4.194752 0.000000
105.438610 -13.925835 -1.924284 0.000000
114.439870 -13.817562 -1.899997 0.000000
105.711110 -13.721426 -1.914196 0.000000
114.739970 -13.495461 -1.892744 0.000000
95.844971 -13.299482 -2.004515 0.000000
96.266106 -13.291422 -2.000676 0.000000
96.686813 -13.268600 -1.996255 0.000000
97.106941 -13.235863 -1.991655 0.000000
97.386429 -13.206893 -1.988387 0.000000
105.904820 -13.397200 -1.887822 0.000000
106.314470 -13.404600 -1.908870 0.000000
106.505000 -13.083815 -1.884008 0.000000
115.033010 -13.166641 -1.885274 0.000000
97.922310 -12.997319 -1.961188 0.000000
98.351707 -13.022299 -1.969717 0.000000
98.759521 -12.918422 -1.960308 0.000000
99.053391 -12.947840 -1.969696 0.000000
106.759400 -12.860398 -1.873543 0.000000
115.320040 -12.832242 -1.877729 0.000000
115.746470 -12.602449 -1.886408 0.000000
99.296936 -12.760384 -1.947162 0.000000
99.562576 -12.672752 -1.940238 0.000000
99.942413 -12.483569 -1.922349 0.000000
100.346890 -12.379909 -1.918690 0.000000
107.009600 -12.633248 -1.863101 0.000000
100.730890 -12.216014 -1.907420 0.000000
101.109610 -12.041835 -1.895798 0.000000
107.533500 -12.212994 -1.849012 0.000000
107.744140 -11.941667 -1.833676 0.000000
115.702700 -12.021073 -1.843388 0.000000
116.143370 -11.796320 -1.854611 0.000000
108.222720 -11.725923 -1.841018 0.000000
102.613150 -11.343268 -1.863263 0.000000
108.627170 -11.419002 -1.836004 0.000000
109.067010 -11.143291 -1.837909 0.000000
102.795820 -11.098420 -1.839431 0.000000
103.028110 -10.952806 -1.832033 0.000000
109.401220 -10.759122 -1.823786 0.000000
95.785172 -10.694228 -1.917123 0.000000
96.254471 -10.663084 -1.909624 0.000000
96.721741 -10.613325 -1.901471 0.000000
97.070450 -10.564092 -1.894896 0.000000
97.416992 -10.503387 -1.887929 0.000000
97.761597 -10.434027 -1.880729 0.000000
103.205580 -10.713073 -1.809874 0.000000
103.484700 -10.651027 -1.817299 0.000000
103.816180 -10.409883 -1.805421 0.000000
109.910630 -10.306163 -1.817210 0.000000
117.028760 -10.270900 -1.810539 0.000000
97.989754 -10.381421 -1.875668 0.000000
98.329292 -10.292891 -1.867663 0.000000
98.666252 -10.196547 -1.859546 0.000000
98.999260 -10.088839 -1.850996 0.000000
99.329056 -9.973012 -1.842257 0.000000
104.266600 -10.103740 -1.794158 0.000000
104.619480 -9.895310 -1.790904 0.000000
110.274530 -9.946449 -1.810970 0.000000
99.546295 -9.889362 -1.836116 0.000000
99.868927 -9.757370 -1.826969 0.000000
104.851720 -9.750472 -1.788642 0.000000
105.081600 -9.601276 -1.786312 0.000000
110.628010 -9.575684 -1.804300 0.000000
116.924130 -9.702153 -1.768592 0.000000
117.263440 -9.395534 -1.772154 0.000000
105.421340 -9.368691 -1.782653 0.000000
105.755310 -9.126867 -1.778734 0.000000
110.773480 -9.256362 -1.787796 0.000000
111.085330 -9.066382 -1.795470 0.000000
101.210340 -9.078380 -1.783313 0.000000
101.501400 -8.891213 -1.771267 0.000000
105.973430 -8.959027 -1.775845 0.000000
106.187970 -8.786271 -1.772746 0.000000
111.302350 -8.801508 -1.790290 0.000000
117.110750 -8.820366 -1.728008 0.000000
96.141991 -8.722742 -1.836335 0.000000
96.541855 -8.680968 -1.829233 0.000000
97.038055 -8.605307 -1.819416 0.000000
97.529358 -8.505834 -1.808561 0.000000
97.821274 -8.435118 -1.801734 0.000000
101.896710 -8.659159 -1.760397 0.000000
102.296660 -8.436006 -1.753643 0.000000
106.399150 -8.609079 -1.769509 0.000000
106.607220 -8.427834 -1.766199 0.000000
111.514850 -8.532671 -1.785089 0.000000
117.418730 -8.496880 -1.729823 0.000000
98.014221 -8.382208 -1.796866 0.000000
98.301277 -8.295882 -1.789410 0.000000
98.679207 -8.167631 -1.778880 0.000000
99.051163 -8.025139 -1.767911 0.000000
102.694750 -8.207723 -1.748464 0.000000
102.991200 -8.031489 -1.745231 0.000000
106.805980 -8.236694 -1.761664 0.000000
107.112420 -7.956606 -1.757549 0.000000
117.177610 -7.899442 -1.679800 0.000000
99.325844 -7.908855 -1.759284 0.000000
103.187130 -7.910398 -1.743249 0.000000
103.477730 -7.722505 -1.740366 0.000000
103.761130 -7.523629 -1.736591 0.000000
107.500920 -7.562113 -1.750208 0.000000
117.480380 -7.575309 -1.682529 0.000000
100.606160 -7.373587 -1.739069 0.000000
100.960860 -7.195057 -1.733288 0.000000
103.948650 -7.388305 -1.734402 0.000000
104.224280 -7.177152 -1.730759 0.000000
107.782670 -7.256370 -1.744419 0.000000
111.825330 -7.121973 -1.701259 0.000000
117.314450 -7.036266 -1.642140 0.000000
101.135270 -7.099964 -1.730195 0.000000
101.393670 -6.951453 -1.725534 0.000000
101.648350 -6.796510 -1.720715 0.000000
104.582350 -6.882808 -1.725416 0.000000
107.965330 -7.047534 -1.740431 0.000000
108.109340 -6.808893 -1.730556 0.000000
112.023740 -6.851540 -1.698029 0.000000
101.898680 -6.634424 -1.715875 0.000000
102.225370 -6.407609 -1.709091 0.000000
105.012510 -6.493408 -1.717941 0.000000
108.267540 -6.412260 -1.707820 0.000000
112.091000 -6.506756 -1.679056 0.000000
117.055330 -6.471583 -1.594595 0.000000
117.418500 -6.176959 -1.604974 0.000000
102.627150 -6.113854 -1.701939 0.000000
105.429220 -6.087898 -1.710759 0.000000
112.110390 -5.954840 -1.642491 0.000000
117.551700 -5.785156 -1.594948 0.000000
103.024000 -5.811674 -1.696572 0.000000
103.255420 -5.621161 -1.693107 0.000000
105.688580 -5.699363 -1.692530 0.000000
112.373920 -5.536615 -1.637342 0.000000
118.148380 -5.563635 -1.626684 0.000000
103.481260 -5.423544 -1.689528 0.000000
103.690520 -5.208776 -1.682853 0.000000
105.900190 -5.278085 -1.667858 0.000000
108.669360 -5.211990 -1.639733 0.000000
112.285030 -5.132271 -1.603363 0.000000
118.112440 -5.105130 -1.602697 0.000000
103.864010 -4.961330 -1.668991 0.000000
104.025630 -4.705941 -1.653855 0.000000
106.095290 -4.852682 -1.643365 0.000000
108.744050 -4.944326 -1.624782 0.000000
108.813170 -4.676353 -1.609848 0.000000
112.429330 -4.841754 -1.597869 0.000000
106.230820 -4.531075 -1.625024 0.000000
112.325340 -4.444952 -1.564264 0.000000
112.414150 -4.135832 -1.553894 0.000000
118.143590 -3.808811 -1.548157 0.000000
118.019240 7.073963 -1.304933 0.000000
109.869140 7.674084 -1.376187 0.000000
118.132490 7.506980 -1.313384 0.000000
105.589420 7.994733 -1.421881 0.000000
107.458440 7.935252 -1.404062 0.000000
109.869160 7.956225 -1.383591 0.000000
113.208680 8.128058 -1.359347 0.000000
118.396620 7.981592 -1.333765 0.000000
105.513880 8.293020 -1.430429 0.000000
109.864220 8.240060 -1.391093 0.000000
118.622580 8.459814 -1.351938 0.000000
105.642320 8.835594 -1.486730 0.000000
107.597750 8.767229 -1.461289 0.000000
110.117770 8.929991 -1.441105 0.000000
113.807360 9.015787 -1.429654 0.000000
118.565380 8.874937 -1.349528 0.000000
105.784850 9.167461 -1.531213 0.000000
107.755840 9.250130 -1.506547 0.000000
110.342720 9.332657 -1.479833 0.000000
113.938660 9.422525 -1.449495 0.000000
105.845950 9.458958 -1.562008 0.000000
107.864470 9.586666 -1.538772 0.000000
110.545290 9.739098 -1.516896 0.000000
119.615200 9.606427 -1.431006 0.000000
105.905940 9.892182 -1.604882 0.000000
107.876380 9.877975 -1.557116 0.000000
110.725230 10.148283 -1.552272 0.000000
114.424920 9.974352 -1.505574 0.000000
105.957600 10.336218 -1.648875 0.000000
108.175250 10.347151 -1.621791 0.000000
114.489830 10.381506 -1.520657 0.000000
120.597470 10.361500 -1.508351 0.000000
104.468520 10.536894 -1.477721 0.000000
105.985760 10.639135 -1.678877 0.000000
108.264430 10.706336 -1.655004 0.000000
111.056160 10.647270 -1.608156 0.000000
115.155630 11.050068 -1.597087 0.000000
108.275430 11.025990 -1.677037 0.000000
111.098600 11.014214 -1.628454 0.000000
106.888920 -4.982864 -1.441305 0.000000
104.179060 -4.447311 -1.638815 0.000000
106.315730 -4.315711 -1.612879 0.000000
107.008500 -4.489693 -1.409138 0.000000
108.785680 -4.359669 -1.581492 0.000000
104.324980 -4.185540 -1.623643 0.000000
104.417150 -4.009042 -1.613435 0.000000
106.433630 -3.990621 -1.594548 0.000000
108.944170 -3.997628 -1.570169 0.000000
116.606440 -3.968445 -1.442989 0.000000
104.548360 -3.742037 -1.598129 0.000000
106.531540 -3.657725 -1.574253 0.000000
112.204150 -3.712814 -1.510382 0.000000
104.697060 -3.373256 -1.574704 0.000000
106.577260 -3.302039 -1.546918 0.000000
108.941800 -3.276168 -1.516594 0.000000
112.080740 -3.007736 -1.460229 0.000000
117.316700 -3.158982 -1.460872 0.000000
104.844550 -2.898322 -1.542056 0.000000
106.660840 -2.850107 -1.517285 0.000000
108.961110 -2.866219 -1.490258 0.000000
112.114140 -2.695908 -1.447019 0.000000
117.219510 -2.727380 -1.436687 0.000000
104.992760 -2.435032 -1.514210 0.000000
106.728880 -2.520031 -1.497983 0.000000
106.769940 -2.300763 -1.485405 0.000000
108.996110 -2.469430 -1.467725 0.000000
112.307450 -2.435617 -1.451954 0.000000
117.094440 -2.296433 -1.411062 0.000000
105.094490 -2.062792 -1.492072 0.000000
106.848460 -1.982624 -1.470758 0.000000
109.087790 -2.099378 -1.454729 0.000000
112.217130 -2.089633 -1.426616 0.000000
117.549280 -1.997755 -1.434085 0.000000
105.214700 -1.704641 -1.476323 0.000000
106.973950 -1.570339 -1.456792 0.000000
109.199010 -1.605463 -1.438050 0.000000
112.261270 -1.786481 -1.416593 0.000000
117.315540 -1.550284 -1.400948 0.000000
105.385890 -1.269623 -1.464277 0.000000
107.075200 -1.264919 -1.448981 0.000000
109.293530 -1.240266 -1.428560 0.000000
112.364940 -1.187508 -1.400083 0.000000
117.198460 -1.134794 -1.378249 0.000000
105.519400 -0.920804 -1.456348 0.000000
105.581090 -0.744564 -1.452414 0.000000
107.173800 -0.958980 -1.442217 0.000000
109.389400 -0.876121 -1.420728 0.000000
112.452220 -0.741977 -1.390361 0.000000
117.257320 -0.754192 -1.370530 0.000000
105.667230 -0.478110 -1.446511 0.000000
107.292820 -0.547403 -1.433193 0.000000
109.475940 -0.509740 -1.412845 0.000000
109.528110 -0.264308 -1.407655 0.000000
112.415850 -0.274632 -1.369010 0.000000
117.311420 -0.372998 -1.363021 0.000000
105.771640 -0.119745 -1.438693 0.000000
107.397290 -0.132044 -1.424250 0.000000
109.575370 -0.017944 -1.402421 0.000000
112.708570 -0.017311 -1.388263 0.000000
117.211590 0.027397 -1.343861 0.000000
105.863030 0.242051 -1.430883 0.000000
105.923860 0.515176 -1.425115 0.000000
107.486830 0.286623 -1.415357 0.000000
109.635860 0.353313 -1.394419 0.000000
112.630870 0.453929 -1.365071 0.000000
117.195540 0.413588 -1.332054 0.000000
105.976020 0.790008 -1.419290 0.000000
107.560520 0.708208 -1.406406 0.000000
109.688610 0.725570 -1.386609 0.000000
112.674810 0.904906 -1.355565 0.000000
106.033900 1.158334 -1.411446 0.000000
107.618930 1.131969 -1.397506 0.000000
109.729780 1.099106 -1.378808 0.000000
112.698940 1.205836 -1.349482 0.000000
117.580290 1.150187 -1.342902 0.000000
106.079030 1.528270 -1.403742 0.000000
107.662160 1.557328 -1.388691 0.000000
109.770350 1.598232 -1.368569 0.000000
112.723450 1.657785 -1.340349 0.000000
117.502340 1.541760 -1.327991 0.000000
106.112810 1.899279 -1.396422 0.000000
107.694400 1.983488 -1.380581 0.000000
109.793300 1.972942 -1.361419 0.000000
112.637520 2.113617 -1.321399 0.000000
117.441110 1.929240 -1.315038 0.000000
106.139170 2.270870 -1.390154 0.000000
107.717450 2.410242 -1.373439 0.000000
109.811750 2.347890 -1.355156 0.000000
112.639100 2.413325 -1.315425 0.000000
117.445330 2.312796 -1.307764 0.000000
106.152490 2.643240 -1.384003 0.000000
107.725540 2.837639 -1.366439 0.000000
109.822140 2.848416 -1.346993 0.000000
112.640690 2.712878 -1.310026 0.000000
117.451200 2.887991 -1.297994 0.000000
106.150090 3.109075 -1.376500 0.000000
107.722220 3.158307 -1.361279 0.000000
109.820740 3.224049 -1.341194 0.000000
112.642200 3.162346 -1.302983 0.000000
117.456440 3.463615 -1.289337 0.000000
106.128300 3.574519 -1.369137 0.000000
107.709710 3.478819 -1.356242 0.000000
109.809230 3.599678 -1.335613 0.000000
112.643770 3.612376 -1.297084 0.000000
117.462930 3.848173 -1.284566 0.000000
106.095870 3.945971 -1.363450 0.000000
107.682550 3.905759 -1.349946 0.000000
109.788790 3.975062 -1.330107 0.000000
112.644800 3.913083 -1.293904 0.000000
117.496690 4.235474 -1.282432 0.000000
106.051970 4.316361 -1.358171 0.000000
107.640330 4.331639 -1.343806 0.000000
109.757290 4.349836 -1.324713 0.000000
112.725190 4.373055 -1.297956 0.000000
117.530530 4.624860 -1.280869 0.000000
105.995030 4.685100 -1.353039 0.000000
107.583460 4.755997 -1.337884 0.000000
109.716660 4.723845 -1.319376 0.000000
112.685270 4.824918 -1.291405 0.000000
117.564400 5.016591 -1.279874 0.000000
105.927330 5.052220 -1.348429 0.000000
107.530840 5.182302 -1.334875 0.000000
109.683720 4.972577 -1.315887 0.000000
105.910470 5.433488 -1.354600 0.000000
107.550430 5.628082 -1.344528 0.000000
109.723320 5.620599 -1.324381 0.000000
112.753170 5.602856 -1.296637 0.000000
117.350410 5.769117 -1.258442 0.000000
105.895460 5.920189 -1.366927 0.000000
107.561200 5.966733 -1.352750 0.000000
109.770610 6.021175 -1.333980 0.000000
113.017360 6.119720 -1.323150 0.000000
117.561800 6.192046 -1.272507 0.000000
105.858810 6.410230 -1.379357 0.000000
107.562620 6.308498 -1.361212 0.000000
109.807720 6.427231 -1.343916 0.000000
112.808170 6.394142 -1.304123 0.000000
117.883720 6.643896 -1.295417 0.000000
105.799380 6.903260 -1.392100 0.000000
105.826140 6.705778 -1.386976 0.000000
107.551200 6.767821 -1.372744 0.000000
109.840230 6.838571 -1.354580 0.000000
113.000730 6.755145 -1.324829 0.000000
105.752010 7.200087 -1.399906 0.000000
107.534670 7.115565 -1.381899 0.000000
109.854670 7.115202 -1.361692 0.000000
113.058590 7.092480 -1.333049 0.000000
105.677640 7.596972 -1.410684 0.000000
107.508000 7.465707 -1.391281 0.000000
109.863770 7.393553 -1.368825 0.000000
113.065040 7.585644 -1.338803 0.000000
104.484180 10.548326 -1.214878 0.000000
106.863860 -4.977117 -0.981633 0.000000
107.118310 -4.569383 -0.970263 0.000000
116.487730 -4.143980 -0.956676 0.000000
116.537350 -3.755328 -0.944804 0.000000
97.923630 -3.695937 -0.917403 0.000000
98.283363 -3.467716 -0.896759 0.000000
117.512990 -2.811084 -0.962860 0.000000
104.389210 10.599329 -0.815360 0.000000
106.936810 -4.816735 -0.672416 0.000000
107.296480 -4.692117 -0.531346 0.000000
116.500120 -4.158078 -0.473377 0.000000
97.961029 -3.800649 -0.780748 0.000000
116.392470 -3.720517 -0.456718 0.000000
98.184822 -3.496561 -0.742628 0.000000
98.471901 -3.458661 -0.598004 0.000000
117.617740 -2.437965 -0.458402 0.000000
104.275020 10.633896 -0.417492 0.000000
106.981540 -4.929209 -0.226929 0.000000
98.081215 -3.629845 -0.299485 0.000000
116.319600 -3.707815 0.022817 0.000000
98.246674 -3.557966 -0.296304 0.000000
98.437546 -3.492045 -0.294969 0.000000
104.278740 10.634276 -0.029316 0.000000
107.021990 -4.963654 0.074238 0.000000
98.148117 -3.646900 0.001670 0.000000
98.258820 -3.601080 0.079459 0.000000
98.466370 -3.542733 0.081826 0.000000
104.282930 10.635080 0.358243 0.000000
115.730950 -9.058617 0.400903 0.000000
103.819450 -7.667357 0.587907 0.000000
114.349270 -7.388870 0.414762 0.000000
114.390290 -6.989372 0.422081 0.000000
116.531990 -6.730750 0.449609 0.000000
106.079350 -5.775729 0.650601 0.000000
112.436800 -5.613987 0.424712 0.000000
116.711010 -5.503314 0.472669 0.000000
106.892930 -5.329214 0.522075 0.000000
107.051810 -4.994498 0.529348 0.000000
107.493230 -4.555123 0.696889 0.000000
107.711540 -4.398056 0.704291 0.000000
107.863370 -4.199406 0.710077 0.000000
107.960820 -3.970146 0.714537 0.000000
98.266960 -3.686095 0.458875 0.000000
98.396835 -3.632721 0.614013 0.000000
116.352870 -3.727903 0.499375 0.000000
117.024320 -3.525537 0.510094 0.000000
118.176140 -3.432450 0.524106 0.000000
98.479790 -3.563069 0.462240 0.000000
112.905540 -2.995990 0.474833 0.000000
112.603050 -1.597905 0.495642 0.000000
112.854380 -1.180126 0.505543 0.000000
113.295690 -1.124049 0.909709 0.000000
112.692030 -0.671994 0.512541 0.000000
112.956730 -0.731971 0.903825 0.000000
104.288830 10.637419 0.746080 0.000000
99.842819 -7.711881 0.747786 0.000000
103.713420 -7.730048 0.876547 0.000000
104.100350 -7.466806 0.887052 0.000000
104.427740 -7.308204 0.897452 0.000000
106.264870 -6.904754 0.968604 0.000000
110.348840 -7.022295 1.155647 0.000000
106.563390 -6.495340 0.977091 0.000000
113.957020 -6.372265 0.878171 0.000000
103.122470 -6.161190 1.084897 0.000000
106.014840 -5.581439 0.943171 0.000000
113.417530 -5.720243 0.866802 0.000000
113.633800 -5.437636 0.875708 0.000000
106.636120 -5.455316 0.970318 0.000000
106.823690 -5.291676 0.977637 0.000000
113.637530 -5.060708 0.879005 0.000000
98.110939 -5.088904 1.002330 0.000000
105.782340 -5.109923 0.928159 0.000000
106.728370 -4.932931 0.970445 0.000000
113.718800 -4.720952 0.884504 0.000000
98.212021 -4.541515 0.970730 0.000000
98.625740 -4.818894 0.826710 0.000000
107.425060 -4.521047 1.000931 0.000000
107.670310 -4.381289 1.012073 0.000000
114.336800 -4.591671 0.904878 0.000000
115.067410 -4.484210 0.928689 0.000000
119.114290 -4.143867 1.059794 0.000000
98.327332 -4.113957 0.948365 0.000000
106.330670 -4.119338 0.946174 0.000000
107.855450 -4.060822 1.019768 0.000000
96.673714 -3.689728 1.004018 0.000000
98.306038 -3.795503 0.928258 0.000000
98.440430 -3.690550 0.927689 0.000000
108.135350 -3.649021 1.032336 0.000000
113.854550 -3.674882 0.898675 0.000000
116.469120 -3.773766 0.980039 0.000000
98.603142 -3.575019 0.850875 0.000000
105.957040 -3.388267 1.190384 0.000000
108.141760 -3.241275 1.031859 0.000000
117.587820 -3.282633 1.021009 0.000000
112.882870 -2.996840 0.875043 0.000000
113.344890 -1.462871 0.907079 0.000000
116.319350 0.465312 1.029340 0.000000
104.298650 10.642263 1.265318 0.000000
104.248150 10.877819 1.275307 0.000000
98.120834 -8.162100 1.207789 0.000000
98.247498 -7.874359 1.192468 0.000000
103.436560 -7.759396 1.155148 0.000000
103.742900 -7.589794 1.164954 0.000000
104.523220 -7.246480 1.195459 0.000000
106.261950 -7.254913 1.294808 0.000000
104.905240 -7.135846 1.213237 0.000000
106.480780 -6.934244 1.299265 0.000000
97.560135 -6.568477 1.082348 0.000000
97.924049 -6.656519 1.313356 0.000000
98.182060 -6.629435 1.321353 0.000000
97.397537 -6.219550 1.154093 0.000000
97.662033 -6.297020 1.271539 0.000000
102.547100 -6.106400 1.301405 0.000000
102.902370 -6.066320 1.323042 0.000000
103.289700 -6.048347 1.348549 0.000000
103.598050 -6.079661 1.371508 0.000000
107.198020 -6.194695 1.325519 0.000000
105.627640 -5.804958 1.365576 0.000000
106.187390 -5.725153 1.251475 0.000000
114.044480 -5.632270 1.332156 0.000000
103.268750 -5.432049 1.318127 0.000000
104.627580 -5.314723 1.413700 0.000000
106.766850 -5.259027 1.277940 0.000000
102.637370 -5.045429 1.488664 0.000000
106.876220 -5.041028 1.280629 0.000000
99.405891 -4.480620 1.386518 0.000000
106.302260 -4.520382 1.519669 0.000000
106.399710 -4.439848 1.237988 0.000000
112.591770 -4.620770 1.258061 0.000000
112.844450 -4.372493 1.271054 0.000000
97.817970 -4.249615 1.424824 0.000000
98.097336 -4.192516 1.271074 0.000000
98.878128 -4.069154 1.307671 0.000000
106.172220 -4.029337 1.354049 0.000000
107.791870 -4.173769 1.326639 0.000000
107.948260 -3.977669 1.334519 0.000000
113.269520 -4.186017 1.293083 0.000000
113.591090 -3.949126 1.310108 0.000000
96.617912 -3.717027 1.222528 0.000000
96.842239 -3.810162 1.242925 0.000000
98.267769 -3.989021 1.340476 0.000000
98.466438 -3.812724 1.334296 0.000000
98.760460 -3.828613 1.112895 0.000000
106.040920 -3.690696 1.336361 0.000000
106.530650 -3.729782 1.516030 0.000000
108.147660 -3.662571 1.344206 0.000000
114.198510 -3.803951 1.341994 0.000000
115.272720 -3.793403 1.398047 0.000000
116.452610 -3.778519 1.459918 0.000000
118.124980 -3.439212 1.549805 0.000000
96.054329 -3.515804 1.180453 0.000000
97.907303 -3.429257 1.326279 0.000000
97.951202 -3.533160 1.192421 0.000000
106.622190 -3.397256 1.515450 0.000000
108.206060 -3.278491 1.343835 0.000000
116.190530 -3.302407 1.448349 0.000000
118.565520 -3.127998 1.575074 0.000000
104.778750 -2.932120 1.583903 0.000000
106.710140 -3.067035 1.515293 0.000000
108.242320 -2.891523 1.342583 0.000000
118.969120 -2.795499 1.598836 0.000000
104.622800 -2.620247 1.555459 0.000000
108.125210 -2.447893 1.330508 0.000000
107.967230 -2.129939 1.316945 0.000000
101.484410 -1.698408 1.526502 0.000000
114.640690 -1.423960 1.378178 0.000000
117.598040 -1.663004 1.534555 0.000000
119.410510 -1.590381 1.632549 0.000000
101.254070 -1.374635 1.471721 0.000000
107.208600 -1.144907 1.529002 0.000000
101.212980 -0.979256 1.438879 0.000000
107.398710 -0.977802 1.545334 0.000000
116.548380 -0.693583 1.487299 0.000000
101.135460 -0.654442 1.407194 0.000000
107.425720 -0.526974 1.272049 0.000000
116.452650 -0.302759 1.486279 0.000000
116.451360 0.070749 1.490454 0.000000
116.475460 0.439779 1.496232 0.000000
116.520130 0.806364 1.503377 0.000000
104.306140 10.645988 1.657295 0.000000
104.229080 10.857322 1.667577 0.000000
107.301800 -8.035986 1.728715 0.000000
106.159190 -7.701549 1.629262 0.000000
106.170460 -7.358148 1.775825 0.000000
98.279366 -6.992899 1.805880 0.000000
98.677826 -7.064101 1.608586 0.000000
106.096180 -6.947521 1.909236 0.000000
107.688040 -6.918087 1.714777 0.000000
108.768230 -7.036906 1.805945 0.000000
97.727501 -6.584856 1.617808 0.000000
107.545810 -6.467889 1.687059 0.000000
97.796959 -6.190315 1.573762 0.000000
98.130478 -6.177274 1.485042 0.000000
104.227600 -6.128268 1.693252 0.000000
102.999240 -5.879223 1.572580 0.000000
101.610640 -5.533618 1.895448 0.000000
104.160430 -5.191606 1.892966 0.000000
104.498510 -5.211954 1.797823 0.000000
104.799650 -5.188541 1.691816 0.000000
106.684160 -5.211787 1.724853 0.000000
104.711780 -5.121036 1.948611 0.000000
104.952730 -5.037577 1.698401 0.000000
115.495270 -4.661670 1.874952 0.000000
102.313940 -4.451763 1.864587 0.000000
102.711710 -4.608062 1.926127 0.000000
106.141340 -4.554120 1.792323 0.000000
115.784120 -4.367684 1.894460 0.000000
99.446495 -4.268506 1.548027 0.000000
105.926690 -4.142774 1.752529 0.000000
116.625660 -3.842241 1.954244 0.000000
105.740390 -3.894812 1.857470 0.000000
108.213280 -3.563515 1.659999 0.000000
110.511230 -3.742426 1.871017 0.000000
117.612290 -3.727200 2.026665 0.000000
105.718620 -3.267549 1.958886 0.000000
106.540730 -3.233214 1.781777 0.000000
108.294080 -3.330497 1.818973 0.000000
118.905430 -3.224914 2.122462 0.000000
104.732650 -2.909778 1.818720 0.000000
106.666460 -3.050815 1.789177 0.000000
106.796230 -2.869314 1.797467 0.000000
108.368770 -3.024607 1.819174 0.000000
104.590850 -2.395121 1.775811 0.000000
105.909840 -2.665725 1.955326 0.000000
108.462970 -2.596314 1.820123 0.000000
118.988200 -2.378480 2.130534 0.000000
104.596790 -2.090396 1.878167 0.000000
107.559660 -1.983440 1.858561 0.000000
108.331200 -2.278177 1.647593 0.000000
115.367130 -1.955950 1.861006 0.000000
104.632830 -1.707317 1.865585 0.000000
105.468360 -1.580703 1.855708 0.000000
107.494770 -1.717509 1.845486 0.000000
107.654280 -1.535957 1.860082 0.000000
108.489970 -1.575048 1.956544 0.000000
104.626940 -1.408774 1.739001 0.000000
104.746980 -1.468133 1.984206 0.000000
105.349640 -1.326041 1.831438 0.000000
114.640620 -1.082849 1.809525 0.000000
105.223330 -1.076142 1.806743 0.000000
114.279370 -0.670264 1.784429 0.000000
104.047500 -0.489763 1.734798 0.000000
104.933360 -0.586237 1.753902 0.000000
114.171860 -0.314295 1.778515 0.000000
117.799640 -0.507414 2.051425 0.000000
104.145430 -0.229116 1.842893 0.000000
104.919200 -0.038443 1.959402 0.000000
104.834350 0.210019 1.832657 0.000000
105.067210 0.457354 1.972209 0.000000
105.099380 0.626958 1.974567 0.000000
114.720140 1.640708 1.840021 0.000000
104.313710 10.649754 2.052935 0.000000
104.221050 10.847029 2.063031 0.000000
100.892810 -8.090095 2.120671 0.000000
102.594160 -8.183124 2.134647 0.000000
103.081720 -8.285681 2.041659 0.000000
103.403950 -8.333853 2.073966 0.000000
104.059100 -8.011941 2.105107 0.000000
105.475420 -7.759255 2.222815 0.000000
108.828870 -7.828779 2.214529 0.000000
104.156690 -7.388591 2.062083 0.000000
105.939640 -7.496245 1.926745 0.000000
107.863250 -6.718469 2.065199 0.000000
104.768450 -6.360361 2.043058 0.000000
104.135360 -6.042666 1.953075 0.000000
104.937230 -6.207385 2.049658 0.000000
107.566630 -6.162484 2.009133 0.000000
104.459960 -5.188714 2.192345 0.000000
106.587040 -5.301780 2.175222 0.000000
103.174840 -4.809221 2.000065 0.000000
104.886810 -4.994124 2.095040 0.000000
115.557630 -4.694687 2.350401 0.000000
105.609700 -4.197751 1.994869 0.000000
106.053000 -3.970627 2.036025 0.000000
115.128010 -4.147786 2.303639 0.000000
104.813800 -3.659921 2.121483 0.000000
116.899750 -3.529122 2.464726 0.000000
104.626250 -2.420486 2.015844 0.000000
104.645040 -2.221892 2.007320 0.000000
105.335190 -1.427176 2.071920 0.000000
108.641990 -1.377672 2.277107 0.000000
113.381680 -1.166257 2.117921 0.000000
114.924150 -1.147829 2.266794 0.000000
108.522260 -1.091154 2.254787 0.000000
114.550160 -0.727525 2.230987 0.000000
114.394450 -0.358647 2.216778 0.000000
114.295650 -0.005581 2.208563 0.000000
104.321910 10.654064 2.452446 0.000000
104.214350 10.837934 2.461278 0.000000
105.947930 -8.645681 2.340189 0.000000
102.683940 -8.119719 2.282553 0.000000
102.945880 -8.098832 2.305776 0.000000
103.187740 -8.042052 2.323720 0.000000
103.838680 -8.128823 2.399890 0.000000
104.048070 -7.818085 2.390260 0.000000
105.217220 -7.861795 2.525234 0.000000
104.148310 -7.387649 2.357906 0.000000
108.350490 -7.459964 2.513414 0.000000
108.068290 -6.883753 2.444507 0.000000
118.472280 -3.555009 2.614384 0.000000
119.681800 -3.433442 2.729246 0.000000
116.366980 -3.383082 2.893765 0.000000
112.900990 -2.700199 2.482783 0.000000
119.303230 -2.895419 2.691068 0.000000
113.626500 -1.897962 2.557194 0.000000
114.154080 -1.686403 2.617217 0.000000
113.631950 -1.228852 2.552602 0.000000
113.481370 -0.867349 2.533002 0.000000
105.867830 -8.972097 2.706812 0.000000
107.511100 -8.647209 2.871011 0.000000
107.675270 -8.405487 2.870279 0.000000
108.803750 -7.454612 2.938974 0.000000
115.629100 -3.949808 3.288289 0.000000
117.207010 -3.218831 2.989417 0.000000
114.213830 -2.056524 3.056783 0.000000
113.737350 -1.595918 2.984190 0.000000
120.020400 -1.732245 3.310622 0.000000
120.498610 -1.368856 3.367001 0.000000
115.286360 -1.237520 3.196652 0.000000
113.604320 -0.571268 2.955829 0.000000
114.550830 -0.400486 3.088163 0.000000
113.402310 -0.867281 3.338093 0.000000
113.478610 -0.556142 3.346925 0.000000
116.934650 -0.408572 3.424510 0.000000
116.954830 -0.028811 3.427197 0.000000
119.535990 -2.529590 3.803237 0.000000
117.157230 -0.838824 3.947953 0.000000
117.108370 -0.443231 3.937570 0.000000
116.938580 -0.035697 3.908403 0.000000
117.542310 0.667821 4.007852 0.000000
107.502750 -13.737286 -1.899399 0.000000
116.658630 -13.603367 -1.890861 0.000000
96.070808 -13.223966 -1.998378 0.000000
96.490440 -13.258883 -1.995788 0.000000
96.911011 -13.283932 -1.993006 0.000000
97.332397 -13.294081 -1.989612 0.000000
97.754021 -13.293369 -1.985891 0.000000
98.034607 -13.275640 -1.981707 0.000000
98.454056 -13.233820 -1.974465 0.000000
98.871971 -13.181462 -1.966952 0.000000
107.696620 -13.411764 -1.872960 0.000000
108.107320 -13.419493 -1.894096 0.000000
108.299480 -13.099571 -1.869476 0.000000
95.791862 -13.193570 -1.999893 0.000000
100.809380 -12.870081 -1.941502 0.000000
108.591030 -12.926081 -1.866329 0.000000
108.883230 -12.751703 -1.863771 0.000000
101.052110 -12.683076 -1.919056 0.000000
101.316860 -12.595765 -1.912179 0.000000
101.579700 -12.503852 -1.905230 0.000000
109.314640 -12.477363 -1.859513 0.000000
101.811120 -12.310445 -1.883522 0.000000
102.098550 -12.303964 -1.890767 0.000000
102.482420 -12.143890 -1.880069 0.000000
102.865520 -11.984959 -1.870781 0.000000
110.018230 -11.993032 -1.851783 0.000000
117.621160 -12.111758 -1.840585 0.000000
117.975070 -11.822117 -1.842209 0.000000
103.243310 -11.815137 -1.861363 0.000000
103.616290 -11.635942 -1.851721 0.000000
103.861170 -11.509460 -1.845012 0.000000
110.430020 -11.685277 -1.846884 0.000000
118.144870 -11.402552 -1.824557 0.000000
104.103080 -11.377815 -1.838099 0.000000
104.487220 -11.224359 -1.835961 0.000000
110.833700 -11.365687 -1.841621 0.000000
111.188520 -11.236545 -1.852631 0.000000
104.811370 -10.955537 -1.816623 0.000000
105.293810 -10.694879 -1.808770 0.000000
111.349260 -10.911617 -1.832842 0.000000
111.707200 -10.776536 -1.844821 0.000000
118.109250 -10.852942 -1.786307 0.000000
118.457550 -10.557994 -1.789247 0.000000
96.029350 -10.588352 -1.907948 0.000000
96.380592 -10.612594 -1.904167 0.000000
96.849586 -10.628800 -1.898460 0.000000
97.318611 -10.626241 -1.892066 0.000000
97.669968 -10.612585 -1.886843 0.000000
98.020447 -10.587157 -1.881187 0.000000
98.485992 -10.537834 -1.873110 0.000000
105.662210 -10.507683 -1.806070 0.000000
106.026800 -10.311512 -1.803256 0.000000
111.987100 -10.330757 -1.823961 0.000000
118.730950 -10.212195 -1.784877 0.000000
100.087690 -10.219292 -1.839592 0.000000
100.423400 -10.123281 -1.831516 0.000000
100.755180 -10.016042 -1.823029 0.000000
106.385640 -10.103284 -1.800138 0.000000
106.739440 -9.885382 -1.796757 0.000000
112.353170 -9.963783 -1.817633 0.000000
101.192120 -9.859506 -1.811382 0.000000
101.621640 -9.685898 -1.799163 0.000000
101.938770 -9.545354 -1.789672 0.000000
106.972180 -9.734269 -1.794420 0.000000
107.202300 -9.578617 -1.791987 0.000000
118.794390 -9.491451 -1.744835 0.000000
102.146770 -9.444799 -1.782918 0.000000
102.456600 -9.291654 -1.773552 0.000000
102.771970 -9.152304 -1.767891 0.000000
107.542080 -9.336221 -1.788157 0.000000
107.875770 -9.084560 -1.784065 0.000000
102.988430 -9.071991 -1.767254 0.000000
103.201820 -8.983884 -1.765849 0.000000
103.519810 -8.845180 -1.763847 0.000000
108.093150 -8.909778 -1.780989 0.000000
108.306920 -8.730274 -1.777733 0.000000
113.171540 -8.853730 -1.785174 0.000000
118.798790 -8.758459 -1.701523 0.000000
96.106453 -8.636474 -1.831396 0.000000
96.506561 -8.667682 -1.827298 0.000000
96.907509 -8.682692 -1.822526 0.000000
97.308571 -8.681696 -1.817126 0.000000
97.609047 -8.670596 -1.812619 0.000000
98.008469 -8.639867 -1.806002 0.000000
98.406357 -8.595789 -1.798860 0.000000
103.938800 -8.647156 -1.760940 0.000000
104.350850 -8.432859 -1.757616 0.000000
108.517520 -8.546658 -1.774401 0.000000
108.718480 -8.352809 -1.769789 0.000000
113.370220 -8.572551 -1.777950 0.000000
113.468570 -8.223439 -1.758033 0.000000
119.105290 -8.436077 -1.703374 0.000000
99.677391 -8.337544 -1.771029 0.000000
100.059610 -8.226189 -1.761384 0.000000
100.441960 -8.118364 -1.754863 0.000000
100.823970 -8.008817 -1.750460 0.000000
104.755550 -8.202962 -1.753964 0.000000
105.151950 -7.957320 -1.749909 0.000000
108.928310 -8.166833 -1.767420 0.000000
109.128490 -7.970916 -1.763805 0.000000
113.558650 -7.873702 -1.738061 0.000000
118.863850 -7.840088 -1.653524 0.000000
101.201920 -7.885090 -1.745704 0.000000
101.575380 -7.747674 -1.740675 0.000000
101.944010 -7.597117 -1.735457 0.000000
105.539670 -7.696550 -1.745526 0.000000
105.824260 -7.491192 -1.741933 0.000000
109.325140 -7.771148 -1.760120 0.000000
109.517830 -7.567296 -1.756304 0.000000
113.745410 -7.589388 -1.731602 0.000000
119.165120 -7.517102 -1.656286 0.000000
102.397370 -7.390698 -1.728814 0.000000
102.850050 -7.179571 -1.724887 0.000000
106.011040 -7.349756 -1.739502 0.000000
106.194740 -7.204108 -1.736860 0.000000
109.737080 -7.384265 -1.757646 0.000000
113.596570 -7.102373 -1.683008 0.000000
119.048640 -7.001858 -1.620675 0.000000
103.207220 -6.998103 -1.722093 0.000000
103.558070 -6.803171 -1.718994 0.000000
106.465670 -6.979276 -1.732895 0.000000
106.730630 -6.746951 -1.728659 0.000000
113.786210 -6.826846 -1.678729 0.000000
119.057740 -6.552271 -1.597845 0.000000
103.986530 -6.540195 -1.714678 0.000000
104.321010 -6.315766 -1.710684 0.000000
106.898510 -6.582683 -1.724633 0.000000
107.047470 -6.400448 -1.717117 0.000000
110.094920 -6.262450 -1.682865 0.000000
113.849960 -6.480241 -1.659398 0.000000
119.547980 -6.304656 -1.619569 0.000000
104.486080 -6.199692 -1.708902 0.000000
104.728390 -6.017900 -1.705758 0.000000
107.231800 -6.094048 -1.699083 0.000000
110.191080 -5.996336 -1.667758 0.000000
113.953380 -5.787777 -1.620637 0.000000
119.683050 -5.906315 -1.609433 0.000000
104.967100 -5.830833 -1.702687 0.000000
105.167050 -5.601473 -1.690739 0.000000
107.462580 -5.679619 -1.674854 0.000000
110.323890 -5.595612 -1.645084 0.000000
114.118510 -5.503740 -1.616204 0.000000
105.350290 -5.357191 -1.676016 0.000000
105.463090 -5.187220 -1.664952 0.000000
110.445180 -5.193573 -1.622389 0.000000
114.033400 -5.101618 -1.582777 0.000000
105.636560 -4.939652 -1.651115 0.000000
105.798120 -4.684113 -1.635999 0.000000
107.915120 -4.725009 -1.619545 0.000000
110.519670 -4.925643 -1.607446 0.000000
110.588570 -4.657407 -1.592517 0.000000
114.265490 -4.850846 -1.587628 0.000000
120.472240 -4.839879 -1.616363 0.000000
108.004300 -4.510387 -1.607403 0.000000
114.255050 -4.317718 -1.554458 0.000000
120.100520 -4.278981 -1.564920 0.000000
120.236430 -3.883790 -1.558188 0.000000
119.833820 7.099548 -1.292939 0.000000
111.642450 7.694304 -1.360748 0.000000
114.948290 7.634605 -1.334315 0.000000
119.945530 7.532879 -1.301366 0.000000
107.362400 8.015856 -1.406117 0.000000
109.231370 7.955925 -1.388444 0.000000
111.642160 7.976251 -1.368163 0.000000
115.028370 8.161171 -1.348760 0.000000
120.209050 8.007899 -1.321808 0.000000
107.286640 8.313909 -1.414668 0.000000
109.181920 8.308970 -1.398048 0.000000
111.636910 8.259872 -1.375676 0.000000
120.433780 8.486369 -1.339994 0.000000
107.415250 8.856260 -1.471080 0.000000
109.310520 8.888159 -1.443307 0.000000
111.892690 8.950415 -1.426099 0.000000
120.393750 8.906680 -1.338957 0.000000
107.466930 9.131452 -1.498741 0.000000
109.427150 9.216443 -1.475504 0.000000
112.074840 9.333980 -1.459537 0.000000
115.636350 9.053424 -1.420209 0.000000
107.530450 9.550830 -1.540094 0.000000
109.544220 9.555162 -1.508969 0.000000
112.255380 9.729140 -1.493868 0.000000
115.786860 9.468030 -1.442062 0.000000
107.587270 9.981558 -1.582753 0.000000
109.556550 9.844433 -1.527300 0.000000
112.433020 10.135660 -1.528978 0.000000
116.283000 10.024790 -1.499282 0.000000
107.619460 10.275715 -1.611903 0.000000
109.832280 10.297321 -1.588276 0.000000
116.358580 10.437770 -1.515551 0.000000
107.659520 10.728102 -1.656886 0.000000
109.918480 10.806485 -1.630962 0.000000
112.777110 10.811371 -1.594016 0.000000
105.951410 -4.425282 -1.620960 0.000000
106.907490 -4.538525 -1.349551 0.000000
107.141960 -4.447437 -1.364542 0.000000
108.089000 -4.294811 -1.595253 0.000000
110.560590 -4.340287 -1.564135 0.000000
116.560970 -4.314997 -1.311214 0.000000
106.097170 -4.163310 -1.605790 0.000000
106.189240 -3.986690 -1.595583 0.000000
108.198140 -3.964340 -1.575401 0.000000
110.675020 -4.102790 -1.557662 0.000000
116.453450 -3.897619 -1.284105 0.000000
106.315050 -3.715850 -1.579150 0.000000
108.263370 -3.612641 -1.549398 0.000000
110.726810 -3.689678 -1.532024 0.000000
114.048320 -3.720744 -1.501007 0.000000
106.435040 -3.328190 -1.549717 0.000000
108.308680 -3.258035 -1.522174 0.000000
110.665250 -3.233350 -1.492150 0.000000
113.875340 -2.995478 -1.445318 0.000000
106.519820 -3.040055 -1.528723 0.000000
106.615490 -2.763808 -1.512029 0.000000
108.394060 -2.808730 -1.493084 0.000000
110.674510 -2.958312 -1.473931 0.000000
113.941220 -2.693796 -1.435715 0.000000
117.406820 -2.686045 -1.301595 0.000000
119.262280 -2.777256 -1.442212 0.000000
106.730550 -2.393762 -1.489773 0.000000
108.461590 -2.479618 -1.473856 0.000000
108.522280 -2.269918 -1.464630 0.000000
110.768870 -2.448466 -1.450373 0.000000
114.153770 -2.438408 -1.442752 0.000000
119.088230 -2.329794 -1.412409 0.000000
106.850210 -2.031817 -1.471327 0.000000
108.622160 -1.961232 -1.453566 0.000000
110.862640 -2.079119 -1.437725 0.000000
114.078000 -1.936533 -1.411579 0.000000
119.468550 -2.011179 -1.429225 0.000000
106.987630 -1.682334 -1.459000 0.000000
108.747410 -1.548774 -1.439630 0.000000
110.973430 -1.584942 -1.421075 0.000000
119.232150 -1.560381 -1.395853 0.000000
107.158630 -1.247196 -1.446991 0.000000
108.848420 -1.243239 -1.431833 0.000000
111.067510 -1.219547 -1.411594 0.000000
114.182690 -1.177980 -1.387842 0.000000
119.109130 -1.141152 -1.372662 0.000000
107.291890 -0.898267 -1.439074 0.000000
107.353430 -0.721977 -1.435147 0.000000
108.946730 -0.937184 -1.425081 0.000000
111.162810 -0.855207 -1.403753 0.000000
114.276250 -0.732478 -1.378812 0.000000
119.167510 -0.757990 -1.364902 0.000000
107.439380 -0.455469 -1.429255 0.000000
109.065350 -0.525476 -1.416069 0.000000
111.247710 -0.488415 -1.395728 0.000000
111.298770 -0.242759 -1.390442 0.000000
114.237610 -0.263304 -1.357260 0.000000
119.220740 -0.374218 -1.357325 0.000000
107.543500 -0.097043 -1.421449 0.000000
109.169040 -0.109936 -1.407081 0.000000
111.345750 0.003624 -1.385220 0.000000
114.549200 -0.008223 -1.378484 0.000000
119.106820 0.030427 -1.337049 0.000000
107.634390 0.264840 -1.413614 0.000000
107.694210 0.538142 -1.407721 0.000000
109.256860 0.309055 -1.398008 0.000000
111.405790 0.374892 -1.377234 0.000000
114.448900 0.314974 -1.357857 0.000000
114.484300 0.616132 -1.351774 0.000000
119.030680 0.425264 -1.320508 0.000000
107.745520 0.813062 -1.401801 0.000000
109.329970 0.730638 -1.389051 0.000000
111.458090 0.747138 -1.369440 0.000000
114.513470 0.917875 -1.345643 0.000000
107.803060 1.181305 -1.393968 0.000000
109.387960 1.154321 -1.380169 0.000000
111.498820 1.120628 -1.361655 0.000000
114.539290 1.219809 -1.339755 0.000000
119.389720 1.165798 -1.329453 0.000000
107.847890 1.551137 -1.386280 0.000000
109.430760 1.579577 -1.371371 0.000000
111.538760 1.619659 -1.351437 0.000000
114.537170 1.675047 -1.328004 0.000000
119.310900 1.558085 -1.314532 0.000000
107.881450 1.922001 -1.378994 0.000000
109.462680 2.005585 -1.363296 0.000000
111.561370 1.994252 -1.344315 0.000000
114.427960 2.133006 -1.306794 0.000000
119.251630 1.946138 -1.301791 0.000000
107.907530 2.293436 -1.372744 0.000000
109.485320 2.432170 -1.356174 0.000000
111.579880 2.369067 -1.338131 0.000000
114.429190 2.433012 -1.300834 0.000000
119.254960 2.330355 -1.294512 0.000000
107.921190 2.758739 -1.365119 0.000000
109.493010 2.752524 -1.350926 0.000000
111.591350 2.744249 -1.332238 0.000000
114.430420 2.732860 -1.295451 0.000000
119.258300 2.714419 -1.287824 0.000000
107.915480 3.224296 -1.357624 0.000000
109.491870 3.073047 -1.345850 0.000000
111.592590 3.119771 -1.326539 0.000000
114.431440 3.182721 -1.288439 0.000000
119.271820 3.291069 -1.279607 0.000000
107.896490 3.596404 -1.351921 0.000000
109.479620 3.500349 -1.339456 0.000000
111.579290 3.620460 -1.319052 0.000000
114.432460 3.633122 -1.282566 0.000000
119.315860 3.870377 -1.274864 0.000000
107.865610 3.967823 -1.346549 0.000000
109.452390 3.927131 -1.333224 0.000000
111.558320 3.995687 -1.313549 0.000000
114.433140 3.934050 -1.279405 0.000000
119.348980 4.258990 -1.272744 0.000000
107.821720 4.338050 -1.341330 0.000000
109.409860 4.352814 -1.327112 0.000000
111.526320 4.370279 -1.308163 0.000000
114.514310 4.394419 -1.283619 0.000000
119.382190 4.649672 -1.271196 0.000000
107.764450 4.706558 -1.336200 0.000000
109.352390 4.776889 -1.321173 0.000000
111.485180 4.744076 -1.302832 0.000000
114.478620 4.847181 -1.277562 0.000000
119.415420 5.042670 -1.270219 0.000000
107.697240 5.073605 -1.331725 0.000000
109.300160 5.203069 -1.318288 0.000000
111.451900 4.992647 -1.299346 0.000000
114.460780 5.150364 -1.274872 0.000000
107.680830 5.454779 -1.338028 0.000000
109.320100 5.648686 -1.328067 0.000000
111.493050 5.640630 -1.308141 0.000000
114.627960 5.639785 -1.290869 0.000000
119.207560 5.798779 -1.249367 0.000000
107.665370 5.941079 -1.350351 0.000000
109.330480 5.987054 -1.336288 0.000000
111.543780 6.041803 -1.318226 0.000000
114.851550 6.150946 -1.313542 0.000000
119.419040 6.223091 -1.263527 0.000000
107.628270 6.430671 -1.362774 0.000000
109.332200 6.328710 -1.344849 0.000000
111.582370 6.448130 -1.328415 0.000000
119.718870 6.672421 -1.284877 0.000000
107.582240 6.824710 -1.373012 0.000000
109.324150 6.788889 -1.356943 0.000000
111.614450 6.859276 -1.339103 0.000000
114.833530 6.788160 -1.315216 0.000000
107.524010 7.221090 -1.383866 0.000000
109.308320 7.136771 -1.366257 0.000000
111.628590 7.135765 -1.346229 0.000000
114.894060 7.127161 -1.323771 0.000000
107.450870 7.618367 -1.394914 0.000000
109.281330 7.486697 -1.375650 0.000000
111.637370 7.413944 -1.353374 0.000000
104.246960 10.785852 -1.140110 0.000000
106.999360 -5.168881 -1.006667 0.000000
106.993580 -4.613736 -0.959160 0.000000
116.329280 -3.863740 -0.830153 0.000000
116.700030 -3.614133 -0.839695 0.000000
117.424360 -2.699918 -0.844623 0.000000
104.239010 10.775092 -0.783968 0.000000
106.981090 -5.164698 -0.590051 0.000000
106.905940 -4.823367 -0.699023 0.000000
107.056580 -4.810550 -0.434441 0.000000
107.068100 -4.676911 -0.698176 0.000000
116.294740 -3.860898 -0.386713 0.000000
98.596138 -3.719064 -0.567882 0.000000
116.566470 -3.579474 -0.386308 0.000000
98.050362 -3.550073 -0.679440 0.000000
98.356834 -3.470232 -0.670045 0.000000
117.499360 -2.729369 -0.390190 0.000000
104.233040 10.766612 -0.431917 0.000000
106.877400 -5.090842 -0.170906 0.000000
107.082900 -4.837733 -0.164570 0.000000
116.279620 -3.864757 0.054154 0.000000
98.111038 -3.634926 -0.121076 0.000000
98.749809 -3.899788 -0.143319 0.000000
116.454790 -3.551867 0.059921 0.000000
98.107956 -3.585675 -0.399997 0.000000
98.341599 -3.524376 -0.252336 0.000000
98.551498 -3.521507 -0.325124 0.000000
104.251740 10.715889 0.034424 0.000000
104.331390 10.596411 0.150519 0.000000
106.897060 -5.113890 0.100146 0.000000
107.111860 -4.867024 0.106318 0.000000
98.113930 -3.669522 0.018593 0.000000
98.704956 -3.716903 0.089471 0.000000
98.379623 -3.550933 0.097058 0.000000
98.538879 -3.490125 0.100767 0.000000
104.224490 10.753008 0.381652 0.000000
104.334950 10.599144 0.381126 0.000000
116.208480 -9.192525 0.403070 0.000000
103.661130 -7.825191 0.562035 0.000000
103.904990 -7.604373 0.567131 0.000000
114.377010 -7.219714 0.416922 0.000000
110.887090 -6.881512 0.750152 0.000000
116.525670 -6.735301 0.448219 0.000000
106.306690 -5.619448 0.627187 0.000000
113.403090 -5.559914 0.831701 0.000000
116.685410 -5.579122 0.469576 0.000000
106.897110 -5.195096 0.507619 0.000000
107.081610 -4.992569 0.513484 0.000000
113.466350 -4.887909 0.838554 0.000000
107.735740 -4.383069 0.671173 0.000000
107.907790 -4.098451 0.677572 0.000000
116.411800 -3.919977 0.494824 0.000000
98.281837 -3.684131 0.518414 0.000000
98.767143 -3.745237 0.457504 0.000000
113.878170 -3.704652 0.861153 0.000000
116.478490 -3.568735 0.501507 0.000000
98.417038 -3.573243 0.448532 0.000000
98.540176 -3.520301 0.450109 0.000000
112.884950 -3.006007 0.836686 0.000000
112.924900 -3.013091 0.472794 0.000000
113.720510 -2.037237 0.872833 0.000000
112.864400 -1.194420 0.503041 0.000000
113.295590 -1.310860 0.867497 0.000000
113.042810 -0.954156 0.863636 0.000000
104.224110 10.750919 0.729077 0.000000
104.341890 10.604997 0.727576 0.000000
114.688740 -7.824035 0.855682 0.000000
103.635700 -7.792623 0.831123 0.000000
103.892850 -7.594553 0.835850 0.000000
104.072000 -7.475830 0.839748 0.000000
104.266180 -7.378739 0.844753 0.000000
114.444960 -7.269397 0.851729 0.000000
106.259090 -6.835421 0.911857 0.000000
114.637740 -6.780437 0.860534 0.000000
97.351692 -6.619427 0.859274 0.000000
106.465080 -6.552862 0.916226 0.000000
97.345398 -6.300820 1.042366 0.000000
116.614810 -5.962560 0.926332 0.000000
105.730790 -5.818997 1.139832 0.000000
106.003810 -5.635711 0.884444 0.000000
114.015660 -5.508033 0.850592 0.000000
105.721080 -5.515029 1.130420 0.000000
106.242560 -5.140159 0.888483 0.000000
105.714210 -4.942606 0.863206 0.000000
106.330960 -4.940867 0.890065 0.000000
106.735760 -5.003035 0.908685 0.000000
107.036980 -4.967812 0.921817 0.000000
111.044820 -4.660997 1.109660 0.000000
98.212906 -4.481836 0.929416 0.000000
106.660750 -4.677682 1.164903 0.000000
107.280710 -4.606090 0.929498 0.000000
107.595460 -4.426887 0.942596 0.000000
110.933260 -4.295520 1.102933 0.000000
112.664730 -4.353371 1.189675 0.000000
114.221760 -4.530681 0.864572 0.000000
114.937710 -4.474892 0.887150 0.000000
98.168205 -4.166773 1.060241 0.000000
106.273400 -4.119104 1.127747 0.000000
107.854540 -4.070795 0.952204 0.000000
113.141350 -4.074688 1.213576 0.000000
113.547850 -3.914546 1.234337 0.000000
116.639360 -4.008634 0.944489 0.000000
96.635078 -3.676095 0.994380 0.000000
98.344360 -3.742652 0.882108 0.000000
98.822212 -3.837521 0.901489 0.000000
106.119510 -3.759991 1.110034 0.000000
108.019160 -3.783666 0.958287 0.000000
113.413500 -3.531994 1.227757 0.000000
116.553490 -3.602541 0.945846 0.000000
117.703830 -3.587933 0.982266 0.000000
98.607338 -3.588353 0.806496 0.000000
108.164790 -3.360361 0.963232 0.000000
113.786450 -1.751975 1.253152 0.000000
114.565900 -1.320384 1.297232 0.000000
114.066280 -0.893525 1.273724 0.000000
116.223330 0.353045 0.983340 0.000000
116.443660 0.665082 0.994986 0.000000
104.223580 10.748128 1.193358 0.000000
104.353160 10.615027 1.191819 0.000000
97.975136 -8.677259 1.218528 0.000000
98.133987 -8.171859 1.185805 0.000000
98.270828 -7.646842 1.381551 0.000000
103.577000 -7.704669 1.095179 0.000000
103.866570 -7.562737 1.102845 0.000000
106.166510 -7.626004 1.520840 0.000000
98.436523 -7.494244 1.371312 0.000000
104.059510 -7.466041 1.108198 0.000000
104.450680 -7.274981 1.119979 0.000000
104.710820 -7.175783 1.265385 0.000000
106.203080 -7.298974 1.211627 0.000000
114.011470 -7.026476 1.264853 0.000000
104.863330 -7.111773 1.408582 0.000000
106.080280 -6.827290 1.476351 0.000000
106.400150 -6.993835 1.212951 0.000000
