# .PCD v0.7 - Point Cloud Data file format
VERSION 0.7
FIELDS x y z intensity
SIZE 4 4 4 4
TYPE F F F F
COUNT 1 1 1 1
WIDTH 1174
HEIGHT 1
VIEWPOINT 0 0 0 1 0 0 0
POINTS 1174
DATA ascii
133.472930 254.322450 11.797185 0.000000
133.850620 254.174550 11.818394 0.000000
142.335590 248.590810 11.744061 0.000000
135.897980 247.142270 12.006376 0.000000
124.116540 255.717930 12.594181 0.000000
126.771450 253.636860 12.411478 0.000000
127.805570 253.281770 12.341352 0.000000
131.295270 250.887890 12.422596 0.000000
136.433700 247.046330 12.017295 0.000000
124.914830 255.655700 12.480894 0.000000
128.063420 253.286150 12.316441 0.000000
128.410810 253.167500 12.298795 0.000000
131.481080 251.104130 12.388068 0.000000
131.763370 251.025360 12.285681 0.000000
132.577650 250.190920 12.489843 0.000000
136.303600 247.471980 12.288055 0.000000
137.157210 247.213730 12.015533 0.000000
123.279330 257.156830 12.443189 0.000000
124.516620 256.482510 12.491366 0.000000
131.499480 251.380430 12.147647 0.000000
131.970720 251.007930 12.389099 0.000000
132.134770 251.051320 12.275831 0.000000
132.825270 250.494110 12.224693 0.000000
133.794970 249.894730 12.289435 0.000000
137.389110 247.298680 12.013721 0.000000
123.488460 257.573700 12.609250 0.000000
125.193570 256.517150 12.386922 0.000000
137.860500 247.458420 12.323726 0.000000
138.706670 246.823210 12.067693 0.000000
125.275930 256.722600 12.363098 0.000000
133.835040 250.794680 12.189688 0.000000
135.438870 249.571370 12.094148 0.000000
142.300660 245.183270 11.858199 0.000000
121.340290 259.840640 12.704147 0.000000
124.169400 258.034150 12.485620 0.000000
124.967520 257.490630 12.374744 0.000000
133.888610 251.465010 12.319292 0.000000
137.897170 248.536290 12.237668 0.000000
142.924270 244.836760 11.883394 0.000000
121.275670 260.603550 12.725719 0.000000
121.649170 260.415100 12.666884 0.000000
122.450630 259.903780 12.760033 0.000000
123.139240 259.308350 12.435667 0.000000
124.407840 258.476840 12.436479 0.000000
142.396260 246.154910 12.210632 0.000000
121.235600 260.988710 12.740369 0.000000
121.344280 260.793300 12.719660 0.000000
123.183760 259.711520 12.634100 0.000000
123.478350 259.504060 12.583338 0.000000
124.395140 258.833340 12.432764 0.000000
133.858610 252.421160 12.192705 0.000000
137.563800 249.728590 12.132156 0.000000
134.697080 252.109120 12.250899 0.000000
134.866730 252.076740 12.259896 0.000000
135.244370 251.928880 12.290910 0.000000
136.489470 251.093920 12.445664 0.000000
137.664200 250.210460 12.224983 0.000000
138.868300 249.380260 12.206712 0.000000
135.615710 251.847660 12.314985 0.000000
136.313930 251.477800 12.171690 0.000000
137.803250 250.585970 12.324301 0.000000
139.261610 249.601970 12.206722 0.000000
136.200730 252.119050 12.102853 0.000000
142.483260 248.416760 12.100164 0.000000
134.047040 248.214200 12.752156 0.000000
136.206510 247.791690 12.552455 0.000000
137.664610 246.601210 12.389279 0.000000
140.725130 244.750990 12.630646 0.000000
136.644060 248.925740 12.580720 0.000000
121.337810 260.026670 12.950581 0.000000
136.908690 249.127010 12.432584 0.000000
142.341480 245.693660 12.626575 0.000000
121.186050 260.793030 12.990167 0.000000
121.290220 260.409030 12.964766 0.000000
121.568050 260.409910 12.917240 0.000000
136.478360 250.177400 12.557121 0.000000
138.063140 248.977910 12.492481 0.000000
142.570250 245.910840 12.621820 0.000000
121.065350 260.991700 13.015600 0.000000
144.547300 244.915070 12.352659 0.000000
138.846020 249.196840 12.508061 0.000000
139.138440 249.155030 12.527036 0.000000
139.564330 248.914660 12.572084 0.000000
144.405520 245.634370 12.311693 0.000000
138.176420 250.342640 12.626371 0.000000
141.353990 248.090410 12.411057 0.000000
138.268220 250.585530 12.604691 0.000000
138.891800 250.372560 12.669598 0.000000
141.468580 248.382510 12.396677 0.000000
136.596510 247.362090 12.914059 0.000000
137.931880 248.471650 12.831717 0.000000
138.163470 248.781510 12.806850 0.000000
141.499940 246.406780 12.908854 0.000000
138.794490 248.826170 12.837145 0.000000
142.107540 246.564910 12.930041 0.000000
142.014980 247.192570 12.869349 0.000000
144.612410 245.382030 12.760927 0.000000
141.422550 245.982570 13.323610 0.000000
142.685130 245.192340 13.086395 0.000000
125.410800 244.394290 8.134609 0.000000
125.825370 244.213820 8.130655 0.000000
131.302520 240.410280 8.086230 0.000000
131.623840 240.240360 8.060928 0.000000
126.261680 244.425580 8.190154 0.000000
126.646840 244.210100 8.175614 0.000000
127.039900 244.006260 8.161825 0.000000
127.560760 244.124630 8.206001 0.000000
131.988310 240.527650 8.106117 0.000000
123.781730 249.346410 8.429586 0.000000
123.340390 249.778500 8.443636 0.000000
123.619540 249.533290 8.439549 0.000000
126.723970 247.596080 8.418763 0.000000
122.309740 251.898560 8.600969 0.000000
130.936780 244.251590 8.331414 0.000000
127.706380 247.417330 8.456669 0.000000
127.900180 247.275760 8.443090 0.000000
128.185820 247.337370 8.472168 0.000000
128.425720 247.306060 8.480456 0.000000
131.924210 244.541640 8.393224 0.000000
132.323900 244.577240 8.401211 0.000000
128.703990 247.376310 8.509279 0.000000
128.906630 247.264920 8.498985 0.000000
129.259160 247.230130 8.509758 0.000000
129.579790 247.109160 8.501111 0.000000
139.218860 240.213380 8.328553 0.000000
139.483920 240.546390 8.360371 0.000000
130.985020 247.147000 8.556588 0.000000
132.125410 247.370130 8.621056 0.000000
132.345760 247.417820 8.632449 0.000000
137.678100 244.512410 8.603161 0.000000
137.894820 244.742140 8.627805 0.000000
138.105500 244.972430 8.652200 0.000000
122.299310 257.715360 9.130239 0.000000
143.940380 241.803440 8.725781 0.000000
121.878270 258.264340 9.350865 0.000000
122.411350 258.030940 9.164378 0.000000
132.800090 250.263870 9.205784 0.000000
136.030360 248.242290 8.982958 0.000000
136.753970 247.892460 8.887641 0.000000
137.039980 247.666170 8.833382 0.000000
141.782750 244.295680 8.709543 0.000000
145.593290 241.249440 8.576847 0.000000
121.918270 258.678340 9.372451 0.000000
124.056320 257.305630 9.391098 0.000000
137.259030 247.690310 8.825387 0.000000
136.199140 249.215640 9.025663 0.000000
137.596160 248.040950 8.865353 0.000000
144.883670 242.966520 8.785817 0.000000
121.052160 260.358830 9.569034 0.000000
122.912070 259.128300 9.290590 0.000000
136.423450 249.446590 8.937290 0.000000
139.521010 246.955380 8.861589 0.000000
121.761010 260.524260 9.393509 0.000000
123.113280 259.500370 9.334333 0.000000
123.073890 259.317290 9.322947 0.000000
135.758450 250.271510 9.135651 0.000000
136.726070 249.704350 8.968503 0.000000
136.900680 249.466890 9.150713 0.000000
140.071460 247.472340 8.896362 0.000000
140.791520 246.678240 9.059739 0.000000
121.995990 260.809140 9.429596 0.000000
122.642610 260.257200 9.515724 0.000000
123.140140 260.040860 9.583365 0.000000
136.944270 249.902340 8.991985 0.000000
137.085110 250.036410 9.007611 0.000000
138.113740 249.239700 9.031823 0.000000
140.158970 247.805830 8.936546 0.000000
142.375560 246.144780 8.889196 0.000000
137.289120 250.241210 9.031191 0.000000
138.468410 249.411210 9.033223 0.000000
140.293520 248.041720 8.959021 0.000000
142.146760 246.976320 9.001690 0.000000
123.709430 260.448970 9.448616 0.000000
137.646650 250.514220 9.053466 0.000000
138.942350 249.568950 9.020218 0.000000
140.553360 248.286100 8.972029 0.000000
142.233550 247.313480 9.033888 0.000000
123.914920 260.856450 9.484035 0.000000
138.168610 250.636750 9.030175 0.000000
139.464800 249.659480 8.989227 0.000000
140.832730 248.492490 8.977208 0.000000
141.193100 248.374760 8.931056 0.000000
141.454700 248.414440 8.913775 0.000000
142.348330 247.599300 9.057661 0.000000
138.720670 250.734020 8.994533 0.000000
139.895080 249.734680 8.961231 0.000000
141.718780 248.457780 8.896209 0.000000
141.990920 248.497570 8.876911 0.000000
142.594020 247.915830 9.074107 0.000000
144.093900 246.695470 8.820936 0.000000
144.543590 246.614470 8.775675 0.000000
139.294080 250.834700 8.952574 0.000000
139.643780 250.646070 8.881984 0.000000
140.447040 249.837340 8.923204 0.000000
140.810940 249.693820 8.864904 0.000000
141.170410 249.575230 8.810194 0.000000
142.332860 248.456740 8.840281 0.000000
142.828770 248.241670 8.766522 0.000000
145.202510 246.544710 8.713503 0.000000
139.961380 250.688780 8.853397 0.000000
141.385790 249.831480 8.824678 0.000000
143.072950 248.544530 8.781024 0.000000
145.389180 247.013380 8.746967 0.000000
140.288480 251.044110 8.873686 0.000000
141.593230 250.092470 8.839523 0.000000
143.306110 248.854680 8.796330 0.000000
145.730770 247.094620 8.725727 0.000000
140.597180 251.411330 8.894719 0.000000
141.793400 250.355870 8.854058 0.000000
143.517580 249.181200 8.814334 0.000000
140.831210 251.711550 8.911488 0.000000
142.046910 250.714110 8.874007 0.000000
143.721220 249.509640 8.832213 0.000000
141.052830 252.018140 8.928551 0.000000
142.286910 251.077320 8.893907 0.000000
143.913770 249.841540 8.850223 0.000000
141.264080 252.328600 8.945306 0.000000
142.566940 251.538850 8.919062 0.000000
142.457870 251.353160 8.908953 0.000000
144.215410 250.399190 8.880156 0.000000
144.098740 250.174790 8.868051 0.000000
141.473270 252.635470 8.959545 0.000000
142.729930 251.814150 8.932758 0.000000
144.342970 250.611940 8.889202 0.000000
141.693020 252.929870 8.968231 0.000000
142.987090 252.144990 8.939512 0.000000
144.580990 250.891450 8.892090 0.000000
141.922670 253.215270 8.971958 0.000000
143.181550 252.391600 8.942773 0.000000
144.810640 251.178020 8.895559 0.000000
142.195430 253.583330 8.976975 0.000000
143.368940 252.643780 8.946223 0.000000
145.030400 251.472460 8.899577 0.000000
142.453140 253.962340 8.982404 0.000000
143.667690 253.074080 8.952325 0.000000
143.550770 252.900150 8.949781 0.000000
145.311840 251.873640 8.905292 0.000000
142.647220 254.273670 8.987012 0.000000
143.837800 253.338590 8.956149 0.000000
145.514430 252.180540 8.909776 0.000000
142.827160 254.593410 8.992618 0.000000
144.054140 253.697970 8.961559 0.000000
145.708310 252.493230 8.914463 0.000000
142.988690 254.922810 9.000069 0.000000
144.258390 254.064650 8.967190 0.000000
143.186160 255.336640 9.007044 0.000000
144.465180 254.431290 8.970176 0.000000
143.373520 255.755720 9.012960 0.000000
144.663090 254.804060 8.972784 0.000000
143.519790 256.093750 9.015923 0.000000
144.848140 255.184450 8.975727 0.000000
143.686080 256.524050 9.020084 0.000000
143.622040 256.350830 9.018345 0.000000
145.020030 255.571990 8.979004 0.000000
143.804080 256.874600 9.023787 0.000000
145.178300 255.966290 8.982640 0.000000
143.936220 257.318540 9.028750 0.000000
145.322050 256.367070 8.986733 0.000000
143.988490 257.871830 9.050657 0.000000
144.005550 257.588200 9.032045 0.000000
145.417570 256.672060 8.990623 0.000000
144.048970 258.329190 9.061731 0.000000
145.404140 257.217620 9.024066 0.000000
144.065840 258.697080 9.073750 0.000000
145.518750 257.731960 9.031631 0.000000
145.519240 257.517880 9.021093 0.000000
144.022200 259.249790 9.100744 0.000000
145.497360 258.369810 9.062896 0.000000
145.511670 258.051610 9.047269 0.000000
143.946300 259.886320 9.130384 0.000000
143.979460 259.614780 9.118557 0.000000
145.474820 258.685880 9.078383 0.000000
143.910260 260.337950 9.143869 0.000000
143.926380 260.157530 9.138609 0.000000
145.436050 259.104250 9.098488 0.000000
143.829540 260.966090 9.162331 0.000000
143.879900 260.607820 9.151792 0.000000
145.415050 259.725740 9.118145 0.000000
145.424350 259.415440 9.109224 0.000000
145.319270 260.340580 9.144991 0.000000
145.396580 260.035460 9.127458 0.000000
145.241840 260.849030 9.163174 0.000000
145.249540 260.643770 9.160147 0.000000
143.229690 241.607010 9.192644 0.000000
130.867420 251.568070 9.605675 0.000000
128.909130 253.291170 9.764639 0.000000
131.140050 251.702000 9.638585 0.000000
131.966670 251.075420 9.551313 0.000000
124.237530 257.341890 9.637308 0.000000
125.915800 256.088320 9.772158 0.000000
127.732030 254.768830 9.683359 0.000000
129.015840 253.653430 9.659275 0.000000
131.391140 252.060100 9.533305 0.000000
125.878010 256.231450 9.779594 0.000000
126.962810 255.838410 9.711712 0.000000
131.863660 251.989470 9.535326 0.000000
132.247440 251.829480 9.512721 0.000000
135.320470 249.902480 9.523381 0.000000
136.198410 249.224930 9.385259 0.000000
140.578830 245.965790 9.324819 0.000000
141.280010 245.226990 9.213383 0.000000
121.687130 260.108030 9.641367 0.000000
125.550050 257.122440 9.804212 0.000000
126.165660 256.660340 9.674832 0.000000
126.668500 256.357480 9.722776 0.000000
126.882130 256.093660 9.727441 0.000000
137.579410 248.701890 9.237290 0.000000
137.726360 248.305770 9.436656 0.000000
143.220750 244.282930 9.012178 0.000000
145.126420 243.226390 9.236212 0.000000
122.502130 259.774320 9.855542 0.000000
122.996480 259.582310 9.788484 0.000000
123.135440 259.216400 9.795758 0.000000
124.224800 258.509430 9.903512 0.000000
124.620860 258.480560 9.648499 0.000000
124.886930 258.048190 9.669476 0.000000
133.082460 252.047970 9.564770 0.000000
136.898650 249.475010 9.389522 0.000000
137.876530 249.042160 9.522259 0.000000
140.672330 246.888820 9.413556 0.000000
141.584850 246.364040 9.310904 0.000000
121.751970 260.726780 9.658169 0.000000
123.503270 259.846650 9.631692 0.000000
124.465230 258.695680 9.939378 0.000000
124.719630 258.764560 9.675762 0.000000
125.535800 258.082150 9.860130 0.000000
125.814290 257.922910 9.801585 0.000000
125.992950 257.609770 9.897068 0.000000
133.938050 251.967990 9.540560 0.000000
134.434420 251.701890 9.652508 0.000000
135.017150 251.572660 9.610311 0.000000
138.306960 249.051930 9.244245 0.000000
140.666990 247.401570 9.154350 0.000000
144.894900 244.130450 9.317620 0.000000
122.636860 260.630400 10.006228 0.000000
124.737760 259.192870 9.693736 0.000000
126.603670 257.703310 9.825901 0.000000
126.953730 257.544770 9.870088 0.000000
134.817790 251.909910 9.503010 0.000000
135.113480 251.811130 9.470695 0.000000
136.695160 250.617100 9.570915 0.000000
137.740460 249.858700 9.397651 0.000000
138.733290 249.097080 9.222060 0.000000
138.927670 249.164350 9.217948 0.000000
140.992320 247.573240 9.152668 0.000000
124.742580 259.730290 9.708488 0.000000
124.840880 259.654750 9.623599 0.000000
136.666230 251.170470 9.455070 0.000000
144.991910 245.084270 9.385622 0.000000
124.786220 259.962340 9.620392 0.000000
136.781160 251.510890 9.504764 0.000000
142.010960 247.841580 9.429441 0.000000
142.722670 247.532270 9.355372 0.000000
129.532420 252.460970 9.865101 0.000000
144.312770 241.876220 9.620874 0.000000
121.829320 258.239260 10.126894 0.000000
128.890030 253.488050 9.792023 0.000000
129.223830 253.252810 10.123781 0.000000
129.451640 252.862400 10.089804 0.000000
130.631470 252.145400 10.047591 0.000000
130.783550 252.154820 10.053186 0.000000
124.151560 256.954800 10.249949 0.000000
125.385340 256.512240 9.931601 0.000000
125.493540 256.227570 9.923213 0.000000
127.353860 255.134990 10.023156 0.000000
128.332290 254.144490 10.168429 0.000000
129.132840 253.689220 10.005476 0.000000
129.394640 253.350860 9.978088 0.000000
129.587780 253.088610 9.954655 0.000000
130.847990 252.333220 9.906712 0.000000
131.048900 252.401170 9.839464 0.000000
132.593000 251.205440 9.956105 0.000000
144.057860 242.954040 9.695606 0.000000
122.912040 258.737670 9.990296 0.000000
124.729990 257.282100 10.107044 0.000000
126.278170 256.396820 10.022772 0.000000
126.452770 256.131530 10.108758 0.000000
126.857860 255.774930 9.862291 0.000000
127.022880 255.477580 10.023557 0.000000
127.386990 255.479000 9.895436 0.000000
128.410400 254.838700 10.088852 0.000000
129.026430 254.251020 10.069084 0.000000
131.278530 252.355190 9.924049 0.000000
131.579850 252.463460 9.784370 0.000000
133.048390 251.438390 9.986864 0.000000
134.781520 250.086610 9.780376 0.000000
125.555630 257.001650 10.077044 0.000000
126.420760 256.609160 9.882467 0.000000
126.689290 256.288480 9.889737 0.000000
126.770940 256.180600 9.890340 0.000000
128.437560 254.868480 9.939852 0.000000
129.776440 254.257170 9.977988 0.000000
130.240200 253.700070 9.925785 0.000000
130.651050 253.739150 9.811617 0.000000
133.080990 251.979100 9.806501 0.000000
133.753080 251.482940 9.807931 0.000000
137.853060 248.557660 9.722888 0.000000
139.790680 246.956830 9.774916 0.000000
140.113650 246.865360 9.754300 0.000000
143.228680 244.267530 9.407998 0.000000
124.744390 258.247190 10.152358 0.000000
124.933880 258.125090 9.972206 0.000000
125.598510 257.797060 10.125491 0.000000
128.179340 255.854550 10.175144 0.000000
129.444850 254.866100 9.968141 0.000000
129.717410 254.555950 9.875855 0.000000
130.135190 254.191060 9.852371 0.000000
130.406420 253.995380 9.839786 0.000000
130.575620 253.838870 9.824434 0.000000
132.444400 252.938100 10.037134 0.000000
136.829210 249.688950 9.885110 0.000000
136.985810 249.505170 9.625032 0.000000
137.123810 249.395450 9.842139 0.000000
138.050260 248.619080 9.720832 0.000000
138.560810 248.229140 9.928814 0.000000
138.996020 248.064180 9.898441 0.000000
139.265700 248.019200 9.601347 0.000000
141.587490 246.357510 9.649665 0.000000
121.988460 260.792360 10.201052 0.000000
122.571290 260.244870 10.236510 0.000000
124.253330 258.998440 10.130579 0.000000
124.859610 258.726170 10.181437 0.000000
125.835310 257.944640 10.070276 0.000000
125.889190 257.716340 10.239568 0.000000
126.306680 257.553040 9.936770 0.000000
126.864910 257.190400 9.987473 0.000000
126.951350 257.024020 9.986197 0.000000
127.364360 256.932530 9.882473 0.000000
128.464020 256.306240 10.112397 0.000000
128.929990 255.562260 10.147155 0.000000
129.655840 255.051610 10.015733 0.000000
132.326720 253.526470 9.989030 0.000000
132.613110 252.895580 9.881725 0.000000
133.309540 252.731310 9.856397 0.000000
137.173250 249.802510 9.883584 0.000000
142.635930 245.743290 9.552629 0.000000
123.180270 260.392120 10.056212 0.000000
124.139200 259.486390 10.132787 0.000000
125.360220 258.920170 10.054996 0.000000
127.252920 257.329470 9.899999 0.000000
128.793900 256.515170 10.110654 0.000000
129.188190 256.193390 10.183663 0.000000
129.159090 256.048430 10.163232 0.000000
129.533510 255.862180 10.057620 0.000000
132.224290 253.787860 10.032449 0.000000
132.447250 253.597180 9.867719 0.000000
133.470310 252.845700 9.949073 0.000000
134.213940 252.607760 9.898020 0.000000
134.512020 252.214360 10.070271 0.000000
134.912630 252.162550 10.052463 0.000000
137.138850 250.388730 9.730267 0.000000
138.033520 249.657200 9.590703 0.000000
142.670000 246.204450 9.587340 0.000000
145.404460 244.558170 9.743172 0.000000
125.205090 259.270260 10.232290 0.000000
128.769420 257.053500 10.225309 0.000000
128.831950 256.763950 10.142831 0.000000
129.166840 256.296810 10.193309 0.000000
129.764470 256.305080 10.148147 0.000000
129.707600 256.140080 10.118115 0.000000
130.728380 255.576310 10.141157 0.000000
132.278150 254.232710 9.988627 0.000000
133.395160 253.633590 9.883002 0.000000
133.825030 253.253190 10.083496 0.000000
134.472870 252.502000 9.952161 0.000000
136.805270 251.243740 9.657533 0.000000
138.487320 249.809050 9.582994 0.000000
145.373830 245.121260 9.777146 0.000000
125.036100 259.936100 10.231153 0.000000
129.770260 256.687230 10.200057 0.000000
130.917850 255.699050 10.179136 0.000000
132.362590 254.922010 10.126386 0.000000
133.625410 253.842010 9.987687 0.000000
136.885210 251.458600 9.684313 0.000000
137.187410 251.142810 9.925425 0.000000
142.851100 247.360550 9.667999 0.000000
133.924940 254.203250 10.051509 0.000000
137.227370 251.804640 9.902698 0.000000
134.137300 254.417140 10.027632 0.000000
134.290450 254.612340 10.061663 0.000000
124.428620 255.582410 10.633593 0.000000
124.824750 255.296540 10.420184 0.000000
127.335220 253.437230 10.413890 0.000000
121.150470 258.589140 10.632274 0.000000
124.902720 255.611330 10.440355 0.000000
136.998900 247.016890 10.160014 0.000000
121.200250 258.918030 10.642726 0.000000
124.362440 256.300990 10.446718 0.000000
128.038310 253.932500 10.388851 0.000000
128.147720 253.848110 10.387081 0.000000
131.125950 251.860520 10.202050 0.000000
135.147450 248.747340 10.073657 0.000000
137.048360 247.654660 10.201151 0.000000
123.189030 257.634370 10.670414 0.000000
123.790700 257.390930 10.572905 0.000000
132.720870 250.990400 10.117237 0.000000
136.179960 248.514070 10.277311 0.000000
136.958300 247.959430 9.959043 0.000000
137.171630 247.982380 9.954697 0.000000
138.988850 246.332150 10.065578 0.000000
122.207270 259.270450 10.436160 0.000000
124.468510 257.370760 10.601254 0.000000
125.359020 256.808110 10.520839 0.000000
125.689620 256.608060 10.528576 0.000000
127.930080 254.902880 10.536205 0.000000
128.388440 254.805790 10.470595 0.000000
128.889070 254.144350 10.362033 0.000000
132.146550 251.974240 10.225500 0.000000
132.964540 251.229160 10.233866 0.000000
133.031710 251.151380 10.134092 0.000000
134.986100 249.867310 10.390837 0.000000
135.699570 249.359600 10.343559 0.000000
139.299880 246.853260 10.090387 0.000000
140.141800 246.245990 10.026909 0.000000
140.680470 245.766660 9.980200 0.000000
144.915790 242.908360 10.103161 0.000000
124.235470 258.324340 10.725636 0.000000
124.756480 257.922880 10.533984 0.000000
125.517040 257.020200 10.353159 0.000000
128.309480 255.059400 10.485526 0.000000
128.490980 254.906420 10.255822 0.000000
129.813050 254.093930 10.396430 0.000000
130.245190 253.683300 10.519390 0.000000
130.554490 253.604490 10.519153 0.000000
130.827240 253.477860 10.439505 0.000000
131.692690 252.936490 10.402327 0.000000
132.197400 252.228260 10.417185 0.000000
134.021260 251.132550 10.215267 0.000000
134.340580 250.860060 10.183475 0.000000
134.755660 250.326600 10.425683 0.000000
137.435780 248.505980 9.991730 0.000000
138.201840 248.250060 9.943709 0.000000
124.977840 258.275700 10.367567 0.000000
125.539880 257.777250 10.390083 0.000000
127.602160 256.306120 10.607138 0.000000
128.148830 255.689240 10.303025 0.000000
129.503100 254.795440 10.310936 0.000000
129.637130 254.607910 10.507057 0.000000
130.490740 254.330320 10.444406 0.000000
130.787750 253.860380 10.405991 0.000000
131.001680 253.593370 10.384671 0.000000
131.434250 253.370990 10.512736 0.000000
131.627500 253.226380 10.502104 0.000000
135.892330 250.439580 10.206115 0.000000
136.799730 249.780000 10.122061 0.000000
137.305590 249.446990 10.312647 0.000000
124.192380 259.307830 10.751213 0.000000
125.961390 257.656280 10.501911 0.000000
127.141880 257.014250 10.621265 0.000000
127.361320 256.871800 10.478393 0.000000
127.823150 256.685240 10.426672 0.000000
128.196260 256.386380 10.365183 0.000000
128.374760 256.040250 10.626788 0.000000
128.658860 255.870360 10.495306 0.000000
128.999790 255.581250 10.357288 0.000000
129.685780 255.161380 10.359646 0.000000
129.929930 254.925090 10.349870 0.000000
130.417950 254.413060 10.450086 0.000000
131.662450 253.873290 10.427304 0.000000
132.561260 253.016570 10.340279 0.000000
133.371430 252.628330 10.296888 0.000000
133.613400 252.509570 10.435710 0.000000
133.860170 252.389040 10.106781 0.000000
134.873060 251.607130 10.334152 0.000000
135.224350 251.278170 10.297029 0.000000
136.763720 249.890760 10.355350 0.000000
137.246000 249.866360 10.227715 0.000000
137.988620 249.283370 10.283608 0.000000
122.974100 260.579770 10.739653 0.000000
123.254450 260.369960 10.744591 0.000000
124.242540 259.797670 10.764629 0.000000
125.193890 259.041200 10.593528 0.000000
126.211630 258.054140 10.533888 0.000000
126.964510 257.590480 10.638218 0.000000
127.468220 257.446840 10.516404 0.000000
127.700050 257.162290 10.448762 0.000000
127.867930 256.892210 10.374648 0.000000
128.506610 256.743650 10.355491 0.000000
128.501110 256.567350 10.275004 0.000000
131.579700 254.238190 10.464650 0.000000
131.936050 254.069630 10.263970 0.000000
132.134280 253.840410 10.235966 0.000000
133.263020 252.940750 10.186996 0.000000
133.540210 252.904500 10.325335 0.000000
133.986910 252.358410 10.100636 0.000000
141.801510 247.009720 10.020437 0.000000
122.839940 260.978610 10.505898 0.000000
125.240880 259.373900 10.513758 0.000000
126.787850 258.410890 10.660611 0.000000
127.105190 258.236760 10.381342 0.000000
127.538990 257.533020 10.385961 0.000000
127.705800 257.357970 10.390845 0.000000
128.605500 256.965300 10.320753 0.000000
129.180440 256.581180 10.522051 0.000000
129.705890 256.244630 10.472088 0.000000
129.652270 256.080200 10.452457 0.000000
130.804580 255.532550 10.250043 0.000000
131.485900 254.983310 10.430465 0.000000
132.313100 254.358220 10.253179 0.000000
132.395580 254.075590 10.335386 0.000000
138.110470 249.936390 10.321924 0.000000
139.150250 249.596240 10.268434 0.000000
125.203200 259.884890 10.523029 0.000000
125.296890 259.629700 10.432666 0.000000
126.094970 259.161010 10.481802 0.000000
127.169240 258.532260 10.614882 0.000000
127.348490 258.397220 10.412066 0.000000
129.785780 256.478420 10.500414 0.000000
130.523760 256.277980 10.432911 0.000000
131.058410 255.724840 10.247509 0.000000
131.357830 255.296600 10.569491 0.000000
132.277650 254.594740 10.174404 0.000000
132.729320 254.576250 10.404835 0.000000
133.966780 253.639620 10.208690 0.000000
137.250050 251.391660 10.047701 0.000000
138.761550 249.898610 10.299698 0.000000
139.126300 250.032420 10.055113 0.000000
141.242970 248.291640 10.117605 0.000000
125.119200 260.296720 10.525635 0.000000
127.295360 259.049380 10.708611 0.000000
127.382480 258.867070 10.640785 0.000000
127.515120 258.535890 10.434191 0.000000
129.202850 257.361050 10.633335 0.000000
129.978440 256.979250 10.462522 0.000000
130.561720 256.319120 10.440702 0.000000
131.323550 255.851390 10.288815 0.000000
132.935700 254.780170 10.538935 0.000000
133.988830 254.012560 10.199053 0.000000
134.184840 253.773800 10.349734 0.000000
137.285640 251.681150 10.076066 0.000000
141.246320 248.697650 10.141880 0.000000
142.521390 247.789570 10.041203 0.000000
127.431270 259.062740 10.581221 0.000000
130.048580 257.460970 10.605884 0.000000
130.042950 257.247890 10.541311 0.000000
134.250090 254.420150 10.199383 0.000000
134.426700 254.326900 10.355757 0.000000
138.190410 251.306630 10.199168 0.000000
134.379070 254.613080 10.170736 0.000000
134.679200 254.603970 10.383118 0.000000
134.841320 254.737200 10.393547 0.000000
139.586300 244.116990 10.628815 0.000000
124.329280 255.723300 10.854894 0.000000
124.311980 255.525990 10.848293 0.000000
128.643230 252.389210 10.756953 0.000000
124.127940 256.385040 11.091287 0.000000
124.332340 256.047240 10.973694 0.000000
127.757850 253.431930 10.613005 0.000000
128.707090 252.980680 10.781868 0.000000
128.942180 252.571790 10.582520 0.000000
129.247160 252.769260 10.773876 0.000000
134.479170 248.797410 10.561840 0.000000
136.414730 247.531680 10.745396 0.000000
138.560170 246.057250 10.373269 0.000000
124.114430 256.748900 10.884968 0.000000
124.348070 256.463750 10.878585 0.000000
125.934360 255.570740 10.864408 0.000000
132.483290 250.840480 10.676609 0.000000
134.748580 248.928570 10.564408 0.000000
134.929260 248.981990 10.564450 0.000000
137.186840 247.184480 10.448084 0.000000
138.828800 246.058230 10.368343 0.000000
124.194150 257.297850 10.902124 0.000000
125.605570 255.916230 10.873109 0.000000
127.681720 254.512190 10.924028 0.000000
128.718770 254.063960 10.746938 0.000000
128.922120 253.706500 10.732007 0.000000
132.730030 251.032260 10.496813 0.000000
132.856840 250.759080 10.477451 0.000000
134.464170 250.001820 10.826038 0.000000
141.808180 244.556000 10.242614 0.000000
124.294510 257.491880 10.908812 0.000000
125.353930 256.635800 10.893938 0.000000
125.728640 256.460630 10.707958 0.000000
128.358720 254.768360 10.775804 0.000000
130.238560 253.293170 10.642264 0.000000
130.530870 253.044800 10.629160 0.000000
135.156780 249.887910 10.602771 0.000000
139.405320 246.619660 10.382150 0.000000
139.781850 246.401570 10.365060 0.000000
142.327190 244.554790 10.231410 0.000000
124.315550 257.832700 10.918731 0.000000
125.542080 257.012760 10.907419 0.000000
128.124220 255.508640 10.879428 0.000000
128.191360 255.186200 10.792752 0.000000
130.792430 253.167420 10.790584 0.000000
131.154600 253.090120 10.786226 0.000000
131.356830 252.958270 10.628205 0.000000
132.318920 252.155960 10.574708 0.000000
133.067380 251.612410 10.620542 0.000000
136.104320 249.615160 10.575927 0.000000
138.605550 247.851530 10.452188 0.000000
121.069040 260.985870 10.960379 0.000000
124.389370 258.663390 10.942077 0.000000
124.843150 258.087830 10.834954 0.000000
127.337670 256.435330 10.753983 0.000000
128.282090 255.767180 10.820431 0.000000
128.413390 255.725300 10.749394 0.000000
129.364150 254.950070 10.796828 0.000000
129.697780 254.496220 10.777737 0.000000
131.832020 253.189360 10.859924 0.000000
135.143780 250.912870 10.649796 0.000000
141.757350 246.073900 10.309126 0.000000
124.387150 258.985840 10.950373 0.000000
124.684970 258.538880 10.746593 0.000000
126.046260 257.597840 10.845285 0.000000
127.412380 256.600490 10.912315 0.000000
127.737690 256.439000 10.838161 0.000000
127.998290 256.257570 10.835596 0.000000
128.927600 255.913040 10.706598 0.000000
129.149400 255.627850 10.761050 0.000000
129.704410 255.324890 10.631302 0.000000
130.112470 254.871400 10.673717 0.000000
130.219570 254.842040 10.800067 0.000000
132.603960 253.138750 10.780958 0.000000
133.256100 252.668810 10.678852 0.000000
133.614810 252.557680 10.592727 0.000000
134.892580 251.495120 10.502171 0.000000
135.090330 251.200700 10.478767 0.000000
136.714870 250.041180 10.693290 0.000000
141.874660 246.402470 10.320558 0.000000
142.739930 245.579390 10.266019 0.000000
122.476260 261.017090 10.976408 0.000000
125.772000 258.378850 10.863306 0.000000
126.395870 258.082180 10.867553 0.000000
128.661830 256.347780 10.913998 0.000000
128.925720 256.250610 10.851233 0.000000
131.465390 254.215230 10.585494 0.000000
133.390670 253.134780 10.773885 0.000000
133.387240 253.073720 10.630094 0.000000
133.816330 252.895190 10.685738 0.000000
137.451080 250.081210 10.573155 0.000000
124.876410 259.550110 10.779677 0.000000
129.400770 256.552640 11.038727 0.000000
130.953400 255.271680 10.663579 0.000000
131.989550 254.676090 10.854352 0.000000
132.205280 254.463490 10.729427 0.000000
132.388500 254.126890 10.645653 0.000000
133.959630 252.935590 10.758430 0.000000
134.595610 252.556780 10.732797 0.000000
135.020360 252.310290 10.715389 0.000000
135.328800 252.123830 10.618327 0.000000
124.934330 260.076660 10.888864 0.000000
125.006000 259.924220 10.792586 0.000000
126.936070 258.722110 10.971558 0.000000
129.119690 257.118870 10.833585 0.000000
131.429660 255.504260 10.892239 0.000000
132.141140 254.725710 10.746555 0.000000
132.975330 254.183910 10.650828 0.000000
137.046520 251.470540 10.833811 0.000000
141.759140 247.971240 10.389606 0.000000
124.916710 260.614350 10.803720 0.000000
127.271100 259.040650 10.983618 0.000000
129.781220 257.136020 10.900763 0.000000
129.923740 257.028110 10.657351 0.000000
131.412110 255.863530 10.907761 0.000000
131.591200 255.564870 10.798048 0.000000
132.753040 255.136640 10.871218 0.000000
132.865840 254.846210 10.753010 0.000000
133.335140 254.372940 10.605773 0.000000
137.625750 251.681370 10.640117 0.000000
141.488740 248.756270 10.428850 0.000000
127.301030 259.483000 10.995013 0.000000
129.959980 257.417660 10.779465 0.000000
132.610990 255.538210 10.890370 0.000000
132.715700 255.340480 10.834044 0.000000
134.551800 254.163680 10.568498 0.000000
135.371750 253.764850 10.643891 0.000000
130.038940 257.694550 10.710906 0.000000
134.731170 254.445770 10.589177 0.000000
123.667610 255.035390 11.063609 0.000000
123.747660 255.471830 11.305374 0.000000
142.497530 242.245160 10.552320 0.000000
143.863190 241.198440 10.512360 0.000000
123.971860 255.854350 11.304601 0.000000
124.192510 255.851010 11.077687 0.000000
128.476680 252.664730 10.954681 0.000000
128.495500 252.435470 10.948939 0.000000
129.251110 252.212620 11.120681 0.000000
129.203810 251.830490 11.119680 0.000000
123.177930 257.045560 11.350867 0.000000
123.765910 256.449010 11.321221 0.000000
123.926520 256.124150 11.310509 0.000000
127.136530 254.225560 11.370800 0.000000
128.527850 252.967790 11.141923 0.000000
128.961910 252.827870 11.308157 0.000000
129.465040 252.281110 11.298050 0.000000
134.396930 248.672270 10.794626 0.000000
136.255870 247.258260 11.014221 0.000000
136.512240 247.125210 11.012325 0.000000
140.688350 244.484020 10.625854 0.000000
123.076480 257.214360 11.357380 0.000000
123.959420 256.697690 11.100653 0.000000
125.213750 255.896700 11.465981 0.000000
127.233350 254.487670 11.365627 0.000000
127.670820 254.309710 11.346979 0.000000
128.179140 253.646130 11.329796 0.000000
128.358290 253.427810 11.324512 0.000000
129.118530 253.065290 11.131655 0.000000
129.358370 252.800290 11.121574 0.000000
132.125470 250.979710 11.063696 0.000000
135.792250 248.460330 11.020503 0.000000
141.908950 244.051710 10.985537 0.000000
124.053030 257.258850 11.113211 0.000000
125.274690 256.602720 11.084236 0.000000
127.435010 254.653580 11.184973 0.000000
127.776410 254.672230 11.094315 0.000000
129.875180 253.257980 11.271394 0.000000
129.913450 252.799240 11.276468 0.000000
130.695390 252.598050 11.256323 0.000000
133.320010 250.588240 11.145657 0.000000
133.632600 250.186570 11.042965 0.000000
134.473680 249.918500 11.034206 0.000000
134.654070 249.817020 11.032419 0.000000
134.883380 249.367250 11.029427 0.000000
136.440920 248.303510 11.016227 0.000000
137.848210 247.333630 10.725220 0.000000
140.495560 245.528850 10.653176 0.000000
140.723160 245.067630 10.991246 0.000000
141.774580 244.302780 10.609812 0.000000
123.911070 257.924620 11.239477 0.000000
124.117000 257.620970 11.121276 0.000000
125.749210 256.299650 11.071817 0.000000
128.323010 254.728060 11.006200 0.000000
129.792370 253.598750 11.269757 0.000000
130.437470 253.248550 11.253702 0.000000
130.592670 253.015550 10.940443 0.000000
130.843860 252.617940 11.251959 0.000000
131.758870 252.014390 11.240547 0.000000
132.298900 252.010540 10.897834 0.000000
133.062840 251.476070 10.964957 0.000000
133.932850 250.862180 11.230399 0.000000
134.102720 250.509510 11.039001 0.000000
134.638900 249.938780 10.822639 0.000000
138.574740 247.342770 10.717640 0.000000
139.616360 246.750610 11.000224 0.000000
142.214430 244.743330 10.989073 0.000000
142.632680 244.630080 10.988643 0.000000
144.884340 242.950710 10.543747 0.000000
121.605120 260.068660 11.469189 0.000000
123.835530 258.475400 11.252247 0.000000
124.039060 258.118990 11.134150 0.000000
125.534030 257.000150 11.275096 0.000000
127.955710 255.377470 11.101957 0.000000
128.157270 255.226470 11.095466 0.000000
129.712460 254.379500 11.123358 0.000000
130.602860 253.317570 11.097653 0.000000
130.869800 253.281570 11.092950 0.000000
131.230220 253.227040 11.086277 0.000000
131.536960 253.098940 11.079235 0.000000
133.224040 251.848480 11.218862 0.000000
134.087980 250.794940 11.230371 0.000000
134.243530 250.757420 11.229881 0.000000
135.230790 250.440900 10.828420 0.000000
136.092900 249.663940 10.800386 0.000000
137.176220 248.649580 11.013953 0.000000
137.777190 248.174760 10.746311 0.000000
138.408290 248.035000 11.007897 0.000000
141.956340 245.187000 10.629230 0.000000
123.833670 258.943510 11.369473 0.000000
126.128030 257.472720 11.096102 0.000000
126.560500 256.765320 11.403684 0.000000
127.249080 256.478450 11.290514 0.000000
127.690680 256.341550 11.051986 0.000000
127.673930 255.911330 11.343925 0.000000
128.108090 255.843120 11.179296 0.000000
129.298280 255.021330 11.273799 0.000000
129.576740 254.854390 11.129694 0.000000
130.239000 254.089900 11.248302 0.000000
131.462420 253.253250 10.936850 0.000000
131.767090 253.056640 11.002429 0.000000
132.558430 252.806990 11.136533 0.000000
134.741590 251.054730 11.031892 0.000000
134.986680 250.785890 11.033191 0.000000
136.742840 249.369190 11.018153 0.000000
138.846570 247.856520 11.006262 0.000000
140.032970 247.017410 11.001010 0.000000
141.862350 245.899020 10.647449 0.000000
122.246600 260.436250 11.457724 0.000000
123.547100 259.627960 11.395012 0.000000
124.150800 259.132110 11.157436 0.000000
124.601870 258.830990 11.341933 0.000000
126.139040 257.471160 11.264421 0.000000
128.352130 256.328920 11.178214 0.000000
129.199260 255.660870 11.082876 0.000000
129.835190 254.827210 11.254400 0.000000
130.418820 254.764720 11.150483 0.000000
131.975230 253.382060 11.072770 0.000000
132.341060 253.503570 11.201288 0.000000
132.701510 253.206820 10.991648 0.000000
133.258680 252.647830 10.977981 0.000000
133.745190 252.376360 11.047399 0.000000
137.208480 249.712800 11.017635 0.000000
137.531770 249.385680 11.015438 0.000000
142.073730 246.212310 10.825099 0.000000
122.595460 260.995450 11.219170 0.000000
124.631880 259.457000 11.453183 0.000000
124.658650 259.298980 11.546043 0.000000
124.995640 259.161650 11.336698 0.000000
125.820170 258.515050 11.209901 0.000000
126.567380 258.108120 11.184348 0.000000
128.969040 256.179690 11.219399 0.000000
129.957290 255.438960 11.183007 0.000000
131.594120 254.232910 11.328683 0.000000
131.826220 253.993160 11.267264 0.000000
132.079730 253.775740 11.072294 0.000000
132.738130 253.247250 11.198948 0.000000
133.393910 253.190190 10.914589 0.000000
141.846910 246.935520 10.672666 0.000000
142.365570 246.638730 11.000042 0.000000
124.675900 259.822570 11.363582 0.000000
125.890240 258.653750 11.465349 0.000000
126.695370 258.127690 11.412716 0.000000
128.434100 257.233430 11.373371 0.000000
128.561140 256.950200 11.243978 0.000000
129.239530 256.541780 11.327192 0.000000
132.221340 254.490100 11.185740 0.000000
132.318220 254.307530 11.303964 0.000000
133.508610 253.294240 11.187304 0.000000
133.506200 253.217410 11.051441 0.000000
134.075940 252.954100 11.044835 0.000000
142.538600 246.864960 11.001754 0.000000
145.100620 244.933930 10.589357 0.000000
124.657390 260.313960 11.572171 0.000000
124.786940 260.233860 11.177234 0.000000
125.869190 259.464450 11.399552 0.000000
126.793690 258.881930 11.123014 0.000000
129.396300 256.810180 11.209542 0.000000
131.063000 255.742070 11.052057 0.000000
132.502240 254.719350 11.177788 0.000000
137.204590 251.492000 10.832633 0.000000
141.454700 248.398220 10.712230 0.000000
127.032010 259.076660 11.125162 0.000000
129.581710 257.196380 11.252976 0.000000
131.210650 255.820300 11.001596 0.000000
132.648510 255.188390 11.066031 0.000000
141.962190 248.209630 10.857429 0.000000
126.965570 259.477390 11.135560 0.000000
129.614120 257.459110 11.253465 0.000000
129.781400 257.397130 11.247437 0.000000
132.601560 255.493500 10.978765 0.000000
132.636920 255.318590 11.021289 0.000000
134.769790 253.827730 10.915226 0.000000
142.164920 248.646380 11.012795 0.000000
134.650730 254.408450 11.272049 0.000000
135.038850 254.191770 11.161919 0.000000
123.245740 255.871810 11.806969 0.000000
123.571540 255.795580 11.549427 0.000000
128.894130 251.593800 11.527169 0.000000
144.105120 240.765140 10.968468 0.000000
123.578660 256.190400 11.552944 0.000000
134.830260 248.260040 11.521377 0.000000
123.009540 257.187160 11.832690 0.000000
123.278170 256.866120 11.809745 0.000000
123.221940 256.658050 11.812371 0.000000
126.527730 254.494090 11.777167 0.000000
126.742150 254.470730 11.573895 0.000000
127.201710 253.889310 11.555325 0.000000
127.658450 253.508260 11.536558 0.000000
128.182130 253.103820 11.517584 0.000000
136.326230 247.447480 11.284347 0.000000
121.706800 258.598020 11.952148 0.000000
122.516250 258.074520 11.881430 0.000000
123.587690 257.136780 11.564023 0.000000
125.035080 255.995130 11.475805 0.000000
126.354060 254.920170 11.781208 0.000000
126.971050 254.459170 11.559600 0.000000
129.861250 252.690520 11.534512 0.000000
131.947140 251.201020 11.622255 0.000000
132.563660 250.760830 11.634621 0.000000
133.312270 250.205350 11.453081 0.000000
134.708760 249.338850 11.254133 0.000000
135.785510 248.501390 11.265689 0.000000
141.314760 244.533430 11.356025 0.000000
122.399090 258.257390 11.893318 0.000000
123.594020 257.684480 11.572025 0.000000
124.532970 256.848630 11.716763 0.000000
127.238920 255.164750 11.701161 0.000000
127.456680 254.656100 11.610981 0.000000
127.808220 254.552990 11.589760 0.000000
128.053760 254.460780 11.657604 0.000000
129.176120 253.578120 11.615466 0.000000
129.627430 253.328160 11.600095 0.000000
129.832030 253.174000 11.434988 0.000000
130.200580 253.045520 11.583274 0.000000
131.929280 251.495180 11.425475 0.000000
132.811550 250.963240 11.617047 0.000000
133.171630 250.625930 11.632246 0.000000
136.468110 248.203800 11.398262 0.000000
137.640980 247.597080 11.283210 0.000000
123.332280 258.095460 11.593256 0.000000
123.565950 257.859410 11.576463 0.000000
129.126110 254.118270 11.748461 0.000000
129.698090 253.665830 11.579569 0.000000
130.354860 253.069470 11.575926 0.000000
130.575740 253.050110 11.566412 0.000000
131.152470 252.686970 11.718770 0.000000
131.351640 252.589860 11.637439 0.000000
131.594940 252.416460 11.397855 0.000000
133.633070 250.836400 11.423312 0.000000
133.948790 250.516530 11.433610 0.000000
134.182850 250.543260 11.430836 0.000000
121.584690 260.057160 11.995413 0.000000
123.367410 258.552000 11.600095 0.000000
124.349810 257.899990 11.740284 0.000000
126.351920 256.752110 11.583767 0.000000
129.708300 254.300550 11.406468 0.000000
129.839130 253.927930 11.632838 0.000000
130.904360 253.091170 11.394650 0.000000
131.313770 252.788210 11.392032 0.000000
133.226100 251.849950 11.386352 0.000000
135.249970 250.353070 11.334250 0.000000
142.194850 245.067310 11.357794 0.000000
123.605380 258.922000 11.705256 0.000000
124.519820 258.173800 11.731212 0.000000
125.312490 257.839720 11.852494 0.000000
126.222930 257.341670 11.763612 0.000000
129.298540 255.014370 11.477770 0.000000
130.479460 253.932880 11.662204 0.000000
130.606700 253.816060 11.662597 0.000000
131.168060 253.568940 11.579324 0.000000
131.712810 253.259580 11.361782 0.000000
132.555910 252.769380 11.360126 0.000000
134.932570 250.826250 11.511421 0.000000
136.743450 249.369610 11.249971 0.000000
137.449600 249.063580 11.500875 0.000000
139.089870 247.863630 11.287061 0.000000
142.406890 245.553270 11.354005 0.000000
125.014360 258.546300 11.889119 0.000000
127.913110 256.574280 11.473826 0.000000
130.055310 254.843660 11.630713 0.000000
130.389270 254.819610 11.607491 0.000000
130.720960 254.569200 11.664489 0.000000
131.275670 254.223890 11.720572 0.000000
131.382370 253.875580 11.680381 0.000000
131.688370 253.891740 11.468212 0.000000
133.146450 252.671600 11.503823 0.000000
133.880970 252.235690 11.602423 0.000000
134.627930 251.379520 11.394547 0.000000
137.987840 249.286100 11.500040 0.000000
138.120240 248.978590 11.262647 0.000000
138.346650 248.963150 11.517212 0.000000
138.892820 248.650890 11.405700 0.000000
142.324770 246.202900 11.344815 0.000000
124.651000 259.450010 11.745750 0.000000
127.179810 257.374390 11.822108 0.000000
128.200900 256.946040 11.846208 0.000000
128.273940 256.872040 11.642867 0.000000
130.051130 255.533840 11.472286 0.000000
131.214450 254.393230 11.646322 0.000000
131.506500 254.178560 11.522112 0.000000
132.274000 253.669630 11.526820 0.000000
132.742970 253.269000 11.336064 0.000000
133.682390 252.702120 11.496071 0.000000
136.750850 250.470210 11.440215 0.000000
137.403980 250.197770 11.458495 0.000000
142.428440 246.543730 11.342096 0.000000
124.647740 259.684080 11.751800 0.000000
125.998920 258.791260 11.796506 0.000000
126.795240 258.143800 11.559264 0.000000
128.250060 257.141660 11.705555 0.000000
129.198000 256.529570 11.679544 0.000000
130.222110 255.580440 11.743771 0.000000
132.332320 254.345690 11.593471 0.000000
132.363710 254.057240 11.680948 0.000000
133.548310 253.417650 11.494008 0.000000
134.252060 252.955000 11.403428 0.000000
134.423250 252.987880 11.617691 0.000000
137.740510 250.305280 11.239125 0.000000
123.564340 261.033200 11.652523 0.000000
124.584830 260.392850 11.876498 0.000000
126.690530 258.978330 11.731864 0.000000
129.422670 256.901860 11.638630 0.000000
132.341190 254.806170 11.496464 0.000000
142.033650 248.006030 11.319630 0.000000
141.983310 247.646260 11.322925 0.000000
124.545460 260.714230 11.990276 0.000000
124.619290 260.549960 11.778797 0.000000
126.902240 259.111940 11.713542 0.000000
127.058290 259.235530 11.700670 0.000000
128.053010 258.387760 11.841173 0.000000
129.570950 257.332120 11.758447 0.000000
129.563190 257.205200 11.612323 0.000000
130.658070 256.638310 11.657745 0.000000
132.339130 255.125720 11.622175 0.000000
134.093380 254.041920 11.407696 0.000000
142.091600 248.340840 11.316916 0.000000
143.548190 247.334200 11.350834 0.000000
127.116680 259.573520 11.845463 0.000000
127.171550 259.353790 11.621458 0.000000
128.212600 258.612460 11.818998 0.000000
129.718780 257.563600 11.678272 0.000000
129.722490 257.506680 11.534777 0.000000
127.348270 259.790100 11.755340 0.000000
127.337270 259.683840 11.683851 0.000000
143.956270 241.028000 11.432322 0.000000
121.376870 257.919490 12.235874 0.000000
122.850710 256.549130 12.083643 0.000000
127.030040 254.302690 12.111313 0.000000
128.084780 253.362170 11.970933 0.000000
131.039900 250.984310 11.859605 0.000000
132.369490 250.446550 11.859207 0.000000
132.663010 250.176970 11.875076 0.000000
136.068970 247.637410 11.811575 0.000000
123.452480 257.086300 12.257223 0.000000
124.431330 256.632630 12.145337 0.000000
124.623930 256.347960 12.021784 0.000000
127.359760 254.433030 11.977649 0.000000
127.528740 254.252820 12.058374 0.000000
128.008940 253.947490 11.941030 0.000000
128.226520 253.678920 11.848541 0.000000
129.557510 252.963210 11.791209 0.000000
132.532850 250.472490 11.853033 0.000000
134.345890 249.455380 11.695247 0.000000
134.961550 248.800050 11.735219 0.000000
136.380630 247.698430 11.810381 0.000000
136.798000 247.775560 11.810246 0.000000
137.703250 247.061540 11.578988 0.000000
123.867850 257.541600 12.208637 0.000000
124.314550 257.036620 12.051630 0.000000
125.244340 256.559570 12.248723 0.000000
127.749990 254.445070 12.023876 0.000000
128.067540 254.285220 11.913461 0.000000
129.280240 253.268720 11.790195 0.000000
129.783260 253.317280 12.072954 0.000000
132.017240 251.536500 11.867240 0.000000
132.901440 251.099270 11.792047 0.000000
133.027730 250.730290 12.014818 0.000000
133.173050 250.555470 12.030894 0.000000
133.971690 250.051100 11.763292 0.000000
135.255080 249.333950 11.702523 0.000000
136.511170 248.041990 11.790861 0.000000
137.240620 247.777400 11.547363 0.000000
137.322200 247.518540 11.832819 0.000000
137.848360 247.340450 11.852077 0.000000
123.753200 257.876010 12.113726 0.000000
124.040410 257.755100 11.974919 0.000000
124.534520 257.351010 11.924722 0.000000
124.772810 257.397280 12.302713 0.000000
125.338920 256.913090 12.229791 0.000000
126.923340 255.902390 11.879242 0.000000
127.116020 255.709240 11.864457 0.000000
129.262390 253.886490 11.987693 0.000000
129.709210 253.554490 11.977200 0.000000
130.175770 253.497020 12.018559 0.000000
135.363190 249.750270 11.894862 0.000000
141.258300 245.256790 11.698587 0.000000
120.939760 260.529720 12.058002 0.000000
123.904440 258.415560 12.210722 0.000000
123.955840 258.250790 12.202730 0.000000
124.255970 258.129460 11.957720 0.000000
124.862480 257.584410 12.091300 0.000000
125.461430 257.106750 12.210327 0.000000
126.075730 256.705750 12.133759 0.000000
126.434710 256.621640 12.174228 0.000000
127.884040 255.592540 12.095914 0.000000
129.883120 253.932500 11.850395 0.000000
130.163440 253.828190 11.911433 0.000000
130.920470 253.401960 11.969894 0.000000
133.492250 251.401290 11.756981 0.000000
134.550380 250.824300 11.992954 0.000000
134.727510 250.640460 12.013338 0.000000
135.290760 250.140030 11.652768 0.000000
141.907170 245.264880 11.712152 0.000000
142.185130 245.361300 11.715397 0.000000
126.469550 256.787660 11.910468 0.000000
126.785720 256.555630 12.125493 0.000000
127.049760 256.392090 12.174590 0.000000
129.888990 254.522600 11.938461 0.000000
130.425660 253.945220 11.806097 0.000000
131.381130 253.647380 11.770447 0.000000
134.120290 251.532100 11.741007 0.000000
134.377790 251.413210 11.838964 0.000000
135.797610 250.163860 11.865656 0.000000
