# .PCD v0.7 - Point Cloud Data file format
VERSION 0.7
FIELDS x y z intensity
SIZE 4 4 4 4
TYPE F F F F
COUNT 1 1 1 1
WIDTH 1166
HEIGHT 1
VIEWPOINT 0 0 0 1 0 0 0
POINTS 1166
DATA ascii
121.252490 -18.216434 -1.983481 0.000000
121.648160 -18.165751 -1.965921 0.000000
129.938510 -18.138248 -1.900227 0.000000
130.712540 -18.104219 -1.908057 0.000000
131.985350 -17.694353 -1.887071 0.000000
132.874730 -17.350780 -1.871166 0.000000
133.225830 -17.203348 -1.864866 0.000000
133.916980 -16.885126 -1.851516 0.000000
134.664730 -16.693195 -1.856849 0.000000
123.571300 -14.465607 -1.876878 0.000000
124.810280 -14.445576 -1.850837 0.000000
125.117740 -14.457983 -1.848586 0.000000
125.425430 -14.461287 -1.845758 0.000000
125.886890 -14.454472 -1.841279 0.000000
126.348130 -14.438564 -1.836938 0.000000
126.656580 -14.439846 -1.836655 0.000000
127.119910 -14.432085 -1.836291 0.000000
127.582490 -14.403927 -1.834485 0.000000
122.042020 -14.229076 -1.888351 0.000000
122.368580 -14.161648 -1.868057 0.000000
122.671400 -14.214170 -1.865869 0.000000
122.975140 -14.261192 -1.863595 0.000000
123.890460 -14.372972 -1.856826 0.000000
124.349780 -14.416264 -1.854116 0.000000
128.332470 -14.204443 -1.813798 0.000000
128.795290 -14.173841 -1.815908 0.000000
129.095170 -14.102631 -1.811092 0.000000
129.420670 -14.144777 -1.823074 0.000000
121.468620 -13.962486 -1.872818 0.000000
121.788020 -13.938126 -1.857306 0.000000
129.689900 -13.942633 -1.801072 0.000000
120.948490 -23.781374 -2.093435 0.000000
134.416050 -23.835266 -1.987599 0.000000
123.755550 -18.548523 -2.004771 0.000000
124.145260 -18.538834 -1.993452 0.000000
131.009720 -18.420494 -1.924433 0.000000
131.398070 -18.413435 -1.927518 0.000000
134.361130 -17.619827 -1.890560 0.000000
135.150680 -17.537535 -1.903083 0.000000
135.970920 -17.491358 -1.923520 0.000000
136.469150 -17.649937 -1.957856 0.000000
134.716020 -17.473143 -1.883458 0.000000
135.477140 -17.312088 -1.887791 0.000000
136.678760 -17.156881 -1.911341 0.000000
137.197950 -17.331249 -1.949661 0.000000
137.453110 -16.954714 -1.919022 0.000000
137.944030 -17.040649 -1.948213 0.000000
138.163150 -16.611425 -1.911985 0.000000
138.427470 -16.279905 -1.888787 0.000000
138.958860 -16.405848 -1.926228 0.000000
139.267810 -16.148800 -1.914345 0.000000
140.092420 -15.952698 -1.935504 0.000000
139.527300 -15.818750 -1.893337 0.000000
140.531750 -15.529640 -1.916485 0.000000
140.995650 -15.147989 -1.904420 0.000000
141.315550 -14.908379 -1.899435 0.000000
141.656340 -14.694332 -1.898878 0.000000
141.862380 -14.316364 -1.875548 0.000000
142.075120 -13.954582 -1.854903 0.000000
124.539840 -18.472399 -1.976041 0.000000
124.917790 -18.522039 -1.973486 0.000000
125.296470 -18.567139 -1.971107 0.000000
125.676160 -18.603630 -1.968416 0.000000
126.063560 -18.505688 -1.950330 0.000000
126.443280 -18.501114 -1.944207 0.000000
126.822310 -18.496498 -1.938813 0.000000
127.200910 -18.491848 -1.934146 0.000000
127.768330 -18.478233 -1.927805 0.000000
128.335540 -18.460524 -1.922426 0.000000
128.714080 -18.450989 -1.920075 0.000000
129.093490 -18.445457 -1.918923 0.000000
129.483280 -18.531988 -1.929432 0.000000
129.861530 -18.485882 -1.924914 0.000000
130.238590 -18.431273 -1.920114 0.000000
130.614810 -18.371944 -1.915481 0.000000
123.047590 -18.165775 -1.980289 0.000000
123.442410 -18.117094 -1.962779 0.000000
131.700970 -17.988092 -1.881343 0.000000
132.102570 -18.050791 -1.894212 0.000000
132.469470 -17.950880 -1.888356 0.000000
132.865450 -17.961985 -1.896592 0.000000
122.296360 -18.040987 -1.990287 0.000000
122.684170 -18.048351 -1.978100 0.000000
133.559080 -17.618338 -1.871150 0.000000
120.858240 -17.541376 -1.987677 0.000000
121.260980 -17.512793 -1.967872 0.000000
121.611760 -17.657080 -1.970735 0.000000
133.917180 -17.492893 -1.865083 0.000000
127.676770 -14.416399 -1.834632 0.000000
128.137500 -14.399130 -1.829884 0.000000
124.786500 -14.091940 -1.839158 0.000000
125.375010 -14.318672 -1.855653 0.000000
125.691770 -14.228489 -1.835790 0.000000
126.147610 -14.276016 -1.833571 0.000000
126.603930 -14.333292 -1.834127 0.000000
126.909300 -14.370665 -1.835304 0.000000
127.215780 -14.399441 -1.835956 0.000000
128.444060 -14.377359 -1.826214 0.000000
128.902940 -14.334667 -1.820707 0.000000
129.360470 -14.280565 -1.815004 0.000000
129.681320 -14.359219 -1.828356 0.000000
130.268860 -14.129780 -1.802519 0.000000
130.569020 -14.066362 -1.797899 0.000000
130.867840 -13.997572 -1.793219 0.000000
131.191930 -14.040342 -1.805146 0.000000
124.189620 -13.967686 -1.840070 0.000000
124.487370 -14.032625 -1.839678 0.000000
123.077420 -24.082228 -2.138979 0.000000
122.246150 -23.392300 -2.099554 0.000000
121.312040 -23.172714 -2.111499 0.000000
136.393890 -18.543615 -1.991550 0.000000
137.208620 -18.429296 -1.998848 0.000000
138.488160 -18.327143 -2.025010 0.000000
134.598660 -18.028585 -1.896976 0.000000
135.427870 -18.121174 -1.922361 0.000000
135.868650 -18.221136 -1.942879 0.000000
136.712200 -18.244068 -1.965008 0.000000
137.448180 -17.941107 -1.950392 0.000000
137.965530 -18.144901 -1.988439 0.000000
139.259780 -18.035521 -2.018937 0.000000
138.713260 -17.835537 -1.978056 0.000000
139.533680 -17.664700 -1.988499 0.000000
140.052400 -17.772718 -2.019916 0.000000
140.289370 -17.344906 -1.983484 0.000000
141.110750 -17.123672 -1.994795 0.000000
140.519850 -16.924074 -1.948315 0.000000
141.381670 -16.776886 -1.970735 0.000000
141.613010 -16.378592 -1.940309 0.000000
142.211440 -16.540686 -1.985589 0.000000
142.485000 -16.207685 -1.965439 0.000000
142.859300 -16.021126 -1.965895 0.000000
143.161380 -15.734257 -1.953405 0.000000
143.372160 -15.332663 -1.925532 0.000000
143.598460 -14.960848 -1.902193 0.000000
143.808640 -14.577740 -1.877635 0.000000
144.034670 -14.221497 -1.857319 0.000000
144.318940 -13.936646 -1.847913 0.000000
122.741100 -23.380638 -2.082134 0.000000
121.805630 -23.185959 -2.095038 0.000000
121.011480 -22.521175 -2.061127 0.000000
125.523630 -18.150618 -1.973092 0.000000
125.904380 -18.157625 -1.962959 0.000000
126.290330 -18.110209 -1.946915 0.000000
126.661390 -18.169172 -1.944686 0.000000
127.033550 -18.223177 -1.942555 0.000000
127.407070 -18.268400 -1.940062 0.000000
127.788730 -18.177464 -1.921778 0.000000
128.163040 -18.177149 -1.915235 0.000000
128.536770 -18.179325 -1.909716 0.000000
129.097140 -18.187300 -1.903439 0.000000
129.657970 -18.194565 -1.898500 0.000000
130.032560 -18.199547 -1.896174 0.000000
130.407970 -18.204504 -1.894554 0.000000
130.784420 -18.209391 -1.893638 0.000000
131.171400 -18.304934 -1.904282 0.000000
131.547490 -18.270121 -1.900049 0.000000
131.922560 -18.225523 -1.895369 0.000000
132.296310 -18.170986 -1.890222 0.000000
132.689790 -18.229364 -1.899328 0.000000
133.077130 -18.232676 -1.902585 0.000000
124.074510 -17.714212 -1.970054 0.000000
124.461040 -17.702442 -1.954627 0.000000
124.822840 -17.799000 -1.953560 0.000000
125.214710 -17.732937 -1.932970 0.000000
133.381060 -17.825291 -1.857257 0.000000
133.783130 -17.901230 -1.870683 0.000000
134.936830 -17.815695 -1.877845 0.000000
123.390560 -17.368597 -1.956379 0.000000
122.368080 -16.902504 -1.947161 0.000000
122.652020 -17.235870 -1.972608 0.000000
123.046240 -17.218788 -1.953390 0.000000
122.034360 -16.736364 -1.943944 0.000000
120.997860 -16.348213 -1.952836 0.000000
121.378360 -16.387566 -1.937184 0.000000
127.413810 -14.071909 -1.821428 0.000000
127.865460 -14.132326 -1.819955 0.000000
128.319400 -14.172178 -1.816908 0.000000
128.622800 -14.192286 -1.814874 0.000000
129.078810 -14.208096 -1.811164 0.000000
129.535350 -14.213442 -1.807356 0.000000
129.839920 -14.209795 -1.804723 0.000000
130.144320 -14.197670 -1.801584 0.000000
130.600590 -14.169741 -1.796895 0.000000
131.056030 -14.128851 -1.791767 0.000000
131.375460 -14.213463 -1.805178 0.000000
131.961560 -14.000263 -1.779778 0.000000
132.261080 -13.943148 -1.775157 0.000000
135.256960 -23.990713 -2.018637 0.000000
138.552410 -18.805082 -2.050288 0.000000
136.364440 -18.407753 -1.963631 0.000000
136.833820 -18.660557 -2.000512 0.000000
137.589000 -18.427128 -1.985870 0.000000
138.036240 -18.527683 -2.006610 0.000000
138.811080 -18.324762 -2.000511 0.000000
139.308240 -18.506687 -2.034175 0.000000
140.598400 -18.414896 -2.061041 0.000000
135.937350 -18.284361 -1.943512 0.000000
137.134110 -18.270800 -1.959168 0.000000
139.556550 -18.035202 -1.986699 0.000000
140.074720 -18.235441 -2.024583 0.000000
140.833280 -17.939350 -2.015036 0.000000
141.380970 -18.136297 -2.055816 0.000000
142.185350 -17.885609 -2.057643 0.000000
141.664150 -17.778515 -2.026225 0.000000
142.433040 -17.471773 -2.022118 0.000000
142.674160 -17.063519 -1.987724 0.000000
143.267460 -17.260876 -2.034244 0.000000
143.548710 -16.924614 -2.010883 0.000000
144.339900 -16.618500 -2.015712 0.000000
143.763660 -16.494505 -1.975371 0.000000
144.485700 -16.098381 -1.969088 0.000000
144.727660 -15.731873 -1.943851 0.000000
144.899060 -15.280291 -1.907106 0.000000
145.096180 -14.876511 -1.877305 0.000000
145.305630 -14.499109 -1.851567 0.000000
145.502400 -14.115376 -1.825254 0.000000
129.995440 -23.976694 -2.057075 0.000000
130.470900 -23.979738 -2.050136 0.000000
130.946140 -23.982794 -2.043927 0.000000
131.421370 -23.984936 -2.038354 0.000000
131.896910 -23.987156 -2.033510 0.000000
132.373090 -23.990080 -2.029460 0.000000
132.850110 -23.992004 -2.026029 0.000000
133.328280 -23.993868 -2.023313 0.000000
133.807910 -23.995604 -2.021305 0.000000
129.042570 -23.970449 -2.073154 0.000000
129.519410 -23.973610 -2.064748 0.000000
134.724110 -23.644732 -1.984206 0.000000
125.306730 -23.274956 -2.097806 0.000000
125.790150 -23.272144 -2.082829 0.000000
126.742790 -23.292261 -2.057998 0.000000
127.202950 -23.388920 -2.055693 0.000000
127.688450 -23.293516 -2.034351 0.000000
128.157680 -23.297276 -2.023999 0.000000
134.210680 -23.339233 -1.954519 0.000000
126.283690 -23.194042 -2.060838 0.000000
123.527600 -22.612946 -2.093814 0.000000
124.028090 -22.563974 -2.070864 0.000000
124.473750 -22.706020 -2.069180 0.000000
124.972080 -22.628038 -2.044902 0.000000
121.823230 -21.803764 -2.084276 0.000000
122.296610 -21.861500 -2.069812 0.000000
122.743610 -21.988029 -2.063726 0.000000
123.234170 -21.971693 -2.042885 0.000000
121.121120 -21.058374 -2.044961 0.000000
121.559850 -21.194658 -2.038041 0.000000
120.834910 -20.563145 -2.011888 0.000000
134.715930 -18.001268 -1.898635 0.000000
135.139760 -18.214695 -1.927349 0.000000
135.480290 -17.981268 -1.902254 0.000000
127.665500 -17.629856 -1.937772 0.000000
128.038090 -17.632025 -1.927133 0.000000
128.777190 -17.644978 -1.909183 0.000000
129.140690 -17.697208 -1.906990 0.000000
129.505450 -17.741585 -1.904511 0.000000
129.877620 -17.663122 -1.887567 0.000000
130.243090 -17.669846 -1.881873 0.000000
130.608280 -17.676531 -1.876877 0.000000
130.973430 -17.683182 -1.872577 0.000000
131.521610 -17.691616 -1.867333 0.000000
132.070570 -17.696772 -1.863077 0.000000
132.437530 -17.700954 -1.861259 0.000000
132.805600 -17.706734 -1.860331 0.000000
133.183820 -17.799299 -1.870669 0.000000
133.551680 -17.767090 -1.866513 0.000000
133.918840 -17.726837 -1.862084 0.000000
126.979230 -17.295513 -1.919411 0.000000
127.361580 -17.234489 -1.899420 0.000000
128.414890 -17.586790 -1.911325 0.000000
125.576930 -16.884722 -1.923161 0.000000
126.248270 -17.211216 -1.935499 0.000000
126.625410 -17.202366 -1.920564 0.000000
124.696880 -16.651785 -1.934244 0.000000
125.233020 -16.763294 -1.923348 0.000000
124.223600 -16.345194 -1.920749 0.000000
123.061940 -15.841824 -1.923096 0.000000
123.577390 -16.008593 -1.914448 0.000000
121.931260 -15.275520 -1.924865 0.000000
122.312200 -15.312626 -1.906058 0.000000
122.560680 -15.633152 -1.927570 0.000000
121.704740 -14.928013 -1.900394 0.000000
121.115030 -14.520807 -1.893853 0.000000
120.830920 -14.302502 -1.889298 0.000000
136.111070 -24.030909 -2.048222 0.000000
137.081650 -18.856392 -2.025173 0.000000
138.262920 -18.724276 -2.023220 0.000000
138.722440 -18.915792 -2.053487 0.000000
139.907780 -18.679996 -2.048236 0.000000
140.422870 -18.944056 -2.091329 0.000000
141.181270 -18.635262 -2.074568 0.000000
136.646100 -18.644985 -1.995796 0.000000
137.394320 -18.432121 -1.976647 0.000000
137.825410 -18.582878 -2.000086 0.000000
139.004440 -18.442932 -2.001673 0.000000
139.460080 -18.589272 -2.027968 0.000000
140.685230 -18.464983 -2.041436 0.000000
141.949550 -18.353374 -2.064352 0.000000
142.470790 -18.520472 -2.100203 0.000000
143.253880 -18.231371 -2.094370 0.000000
141.433300 -18.165310 -2.027022 0.000000
142.709550 -18.047333 -2.054226 0.000000
143.539430 -17.873041 -2.064652 0.000000
144.057710 -17.969503 -2.095558 0.000000
144.275790 -17.497387 -2.052102 0.000000
144.474610 -17.013367 -2.007326 0.000000
144.941470 -16.999928 -2.026347 0.000000
145.147380 -16.551489 -1.987327 0.000000
145.301940 -16.041023 -1.940042 0.000000
134.650090 -23.745182 -2.024095 0.000000
130.889850 -23.501209 -2.043320 0.000000
131.359330 -23.496916 -2.034864 0.000000
131.827590 -23.496012 -2.027490 0.000000
132.295200 -23.495056 -2.020834 0.000000
132.762420 -23.490747 -2.014557 0.000000
133.229420 -23.486341 -2.008987 0.000000
133.696470 -23.481218 -2.004058 0.000000
134.163960 -23.478350 -2.000069 0.000000
127.199180 -22.890322 -2.069948 0.000000
127.676930 -22.883017 -2.055269 0.000000
128.164610 -22.800900 -2.033527 0.000000
128.618870 -22.888187 -2.030408 0.000000
129.074460 -22.969416 -2.027352 0.000000
129.553910 -22.866573 -2.005857 0.000000
130.016780 -22.863235 -1.995498 0.000000
125.434580 -22.270477 -2.066583 0.000000
125.932370 -22.209421 -2.043076 0.000000
126.374500 -22.341085 -2.041221 0.000000
126.865580 -22.267160 -2.018076 0.000000
123.670030 -21.691488 -2.078629 0.000000
124.162030 -21.690866 -2.058415 0.000000
124.625470 -21.758898 -2.046711 0.000000
125.130370 -21.683580 -2.020135 0.000000
122.957210 -20.981014 -2.041239 0.000000
123.398330 -21.108397 -2.034084 0.000000
122.173320 -20.494478 -2.031169 0.000000
122.667220 -20.497168 -2.008383 0.000000
121.711690 -20.406910 -2.045133 0.000000
120.979580 -19.832792 -2.028542 0.000000
121.466900 -19.869978 -2.007224 0.000000
136.210020 -18.365789 -1.958867 0.000000
135.011430 -17.905224 -1.899204 0.000000
135.404400 -18.063314 -1.918919 0.000000
135.803880 -18.216532 -1.938763 0.000000
134.614290 -17.615805 -1.864000 0.000000
129.514860 -17.387409 -1.915561 0.000000
129.883360 -17.390989 -1.905664 0.000000
130.256550 -17.343966 -1.890125 0.000000
130.615720 -17.395445 -1.887754 0.000000
130.975750 -17.442225 -1.885480 0.000000
131.336850 -17.481285 -1.882926 0.000000
131.705050 -17.400312 -1.866087 0.000000
132.066670 -17.398716 -1.859880 0.000000
132.427660 -17.401054 -1.854862 0.000000
132.788450 -17.403370 -1.850533 0.000000
133.329790 -17.405762 -1.845288 0.000000
133.871810 -17.408192 -1.841425 0.000000
128.107420 -16.994484 -1.913796 0.000000
128.481920 -16.981621 -1.898915 0.000000
128.833570 -17.067625 -1.897525 0.000000
127.096530 -16.568642 -1.902275 0.000000
127.438010 -16.687208 -1.902432 0.000000
127.824630 -16.631027 -1.880480 0.000000
126.097400 -16.149227 -1.897252 0.000000
126.426730 -16.296894 -1.899338 0.000000
125.070240 -15.816960 -1.910038 0.000000
125.452170 -15.827708 -1.891417 0.000000
125.835490 -15.821696 -1.871458 0.000000
124.455120 -15.430026 -1.899159 0.000000
124.822170 -15.482347 -1.884765 0.000000
123.838720 -15.061463 -1.893195 0.000000
124.209700 -15.111070 -1.876902 0.000000
123.615810 -14.715083 -1.867873 0.000000
122.884750 -14.216132 -1.859331 0.000000
138.803710 -19.215506 -2.072640 0.000000
139.236920 -19.359011 -2.094891 0.000000
140.418050 -19.108356 -2.081427 0.000000
140.881030 -19.284668 -2.111198 0.000000
142.589280 -19.248253 -2.145837 0.000000
137.555180 -18.841549 -2.017840 0.000000
137.958740 -18.921083 -2.029705 0.000000
138.364210 -18.982418 -2.040083 0.000000
139.540700 -18.845472 -2.035900 0.000000
139.976560 -18.982342 -2.058899 0.000000
141.166140 -18.795977 -2.057997 0.000000
141.624370 -18.927549 -2.083825 0.000000
142.073640 -19.001793 -2.103357 0.000000
142.853530 -18.756037 -2.094846 0.000000
143.349150 -18.909044 -2.127300 0.000000
144.116210 -18.595472 -2.115161 0.000000
137.143170 -18.635237 -1.991004 0.000000
143.602660 -18.427345 -2.078810 0.000000
144.557910 -18.570240 -2.127484 0.000000
144.792080 -18.083462 -2.080123 0.000000
145.202620 -17.988720 -2.084923 0.000000
145.431210 -17.526953 -2.041778 0.000000
135.289440 -23.914089 -2.051798 0.000000
134.815510 -23.653685 -2.029129 0.000000
132.954820 -23.323109 -2.018058 0.000000
133.422450 -23.304529 -2.009369 0.000000
133.888530 -23.285875 -2.001406 0.000000
134.351200 -23.366102 -2.004310 0.000000
129.260880 -22.826984 -2.046647 0.000000
129.741760 -22.800930 -2.031221 0.000000
130.686340 -22.778021 -2.005875 0.000000
131.142580 -22.844637 -2.002534 0.000000
130.231030 -22.704884 -2.009240 0.000000
131.621030 -22.736349 -1.981678 0.000000
132.082840 -22.726240 -1.971834 0.000000
127.477820 -22.279951 -2.046257 0.000000
127.980260 -22.204752 -2.022440 0.000000
128.426740 -22.320885 -2.020106 0.000000
128.923400 -22.224190 -1.995740 0.000000
125.696360 -21.739042 -2.057821 0.000000
126.194770 -21.724537 -2.037272 0.000000
126.661380 -21.786674 -2.026099 0.000000
127.168720 -21.707256 -2.000287 0.000000
124.907230 -21.208103 -2.038635 0.000000
125.413750 -21.180674 -2.015098 0.000000
123.610980 -20.707687 -2.048269 0.000000
124.107050 -20.734438 -2.028233 0.000000
124.636390 -20.667885 -1.998579 0.000000
122.853790 -20.154694 -2.032663 0.000000
123.355520 -20.178400 -2.010668 0.000000
122.105240 -19.606941 -2.019938 0.000000
122.609360 -19.636969 -1.997008 0.000000
121.352170 -19.081781 -2.012313 0.000000
121.859150 -19.119568 -1.988544 0.000000
121.077120 -18.661547 -1.989910 0.000000
136.349660 -18.295172 -1.948579 0.000000
136.744250 -18.481829 -1.971489 0.000000
135.582760 -17.931396 -1.906059 0.000000
135.962630 -18.111712 -1.926778 0.000000
134.842850 -17.599028 -1.870141 0.000000
135.209660 -17.754169 -1.886397 0.000000
131.574280 -17.334093 -1.895724 0.000000
131.943890 -17.326975 -1.885427 0.000000
132.317750 -17.269716 -1.869536 0.000000
132.677080 -17.312050 -1.866978 0.000000
133.036930 -17.349653 -1.864514 0.000000
133.397490 -17.380247 -1.861862 0.000000
133.764910 -17.290686 -1.844867 0.000000
134.481750 -17.426750 -1.852397 0.000000
130.160600 -16.976152 -1.894625 0.000000
130.537170 -16.954712 -1.879581 0.000000
130.890460 -17.032393 -1.878068 0.000000
129.141430 -16.577297 -1.883859 0.000000
129.486530 -16.685087 -1.883516 0.000000
129.875640 -16.621172 -1.861497 0.000000
128.124540 -16.202993 -1.882189 0.000000
128.460510 -16.335251 -1.883075 0.000000
127.086560 -15.885243 -1.894392 0.000000
127.463520 -15.913917 -1.879092 0.000000
127.852520 -15.898837 -1.858776 0.000000
126.462490 -15.509509 -1.883496 0.000000
126.835210 -15.553948 -1.868862 0.000000
125.834050 -15.156186 -1.878170 0.000000
126.211980 -15.196773 -1.861436 0.000000
125.605860 -14.815064 -1.852996 0.000000
124.730330 -14.199811 -1.838651 0.000000
125.015980 -14.413177 -1.844055 0.000000
136.522250 -13.978745 -1.797499 0.000000
136.984950 -14.026645 -1.806709 0.000000
137.311450 -14.166919 -1.829694 0.000000
137.920470 -14.079806 -1.823910 0.000000
138.234570 -14.084464 -1.829191 0.000000
138.549880 -14.084090 -1.834474 0.000000
138.892560 -14.193910 -1.856822 0.000000
139.341310 -14.053279 -1.846669 0.000000
139.818080 -14.018392 -1.853698 0.000000
140.453950 -13.945258 -1.861955 0.000000
141.232180 -20.228285 -2.179071 0.000000
140.327410 -19.850981 -2.123023 0.000000
140.783220 -20.086472 -2.156410 0.000000
141.996370 -19.816849 -2.140395 0.000000
142.452760 -19.939520 -2.163233 0.000000
142.931320 -20.114975 -2.193646 0.000000
144.619860 -19.830427 -2.200372 0.000000
139.059880 -19.511600 -2.073360 0.000000
139.489610 -19.733976 -2.102609 0.000000
139.906880 -19.795315 -2.112762 0.000000
141.545300 -19.681925 -2.116957 0.000000
143.223660 -19.595295 -2.137582 0.000000
143.696640 -19.724319 -2.163914 0.000000
144.155120 -19.778612 -2.181805 0.000000
137.838240 -19.112879 -2.023445 0.000000
138.239690 -19.244255 -2.039136 0.000000
138.646770 -19.377174 -2.055770 0.000000
144.850510 -19.212034 -2.134259 0.000000
145.283230 -19.174810 -2.143057 0.000000
137.246110 -18.889832 -1.998166 0.000000
145.499830 -18.586422 -2.081629 0.000000
136.664790 -18.638910 -1.970867 0.000000
140.828980 -14.660646 -1.905550 0.000000
140.477450 -14.551022 -1.882708 0.000000
141.126170 -14.522341 -1.892585 0.000000
141.615230 -14.487043 -1.900121 0.000000
142.341670 -14.118433 -1.869946 0.000000
134.735950 -23.910881 -2.043537 0.000000
131.020610 -23.113356 -2.037949 0.000000
131.508470 -23.080210 -2.022246 0.000000
132.003050 -22.984802 -2.000872 0.000000
132.465010 -23.050098 -1.997079 0.000000
132.927490 -23.109600 -1.993404 0.000000
133.413450 -22.982109 -1.971130 0.000000
133.881550 -22.957602 -1.960294 0.000000
134.337890 -23.032284 -1.960394 0.000000
129.209520 -22.584557 -2.038378 0.000000
129.720780 -22.499369 -2.013974 0.000000
130.174390 -22.610565 -2.011406 0.000000
130.679400 -22.502728 -1.986379 0.000000
127.387720 -22.084938 -2.053567 0.000000
127.896550 -22.061266 -2.032369 0.000000
128.375170 -22.107964 -2.019798 0.000000
128.895490 -22.007912 -1.992212 0.000000
126.587680 -21.544825 -2.033339 0.000000
127.100970 -21.518541 -2.010283 0.000000
125.269790 -21.043114 -2.042539 0.000000
125.776430 -21.063063 -2.021990 0.000000
126.313250 -20.996019 -1.992669 0.000000
124.458610 -20.565004 -2.035831 0.000000
125.001190 -20.525005 -2.006639 0.000000
124.198010 -20.059578 -2.002153 0.000000
122.869960 -19.570478 -2.025878 0.000000
123.392590 -19.602045 -2.001332 0.000000
122.588520 -19.140938 -2.002954 0.000000
121.875940 -18.540745 -1.990179 0.000000
122.359410 -18.645275 -1.972069 0.000000
136.285320 -18.461470 -1.952331 0.000000
121.529190 -18.231678 -1.983534 0.000000
135.174500 -18.023888 -1.912482 0.000000
135.543410 -18.115181 -1.918319 0.000000
135.911650 -18.286921 -1.934822 0.000000
134.468090 -17.613035 -1.874265 0.000000
134.818120 -17.820024 -1.893268 0.000000
131.939100 -17.158606 -1.884882 0.000000
132.678220 -17.205473 -1.867762 0.000000
133.369770 -17.502253 -1.885234 0.000000
133.743150 -17.492262 -1.874952 0.000000
134.120860 -17.430540 -1.858928 0.000000
130.503430 -16.834095 -1.898284 0.000000
130.905320 -16.771183 -1.875041 0.000000
131.255940 -16.873423 -1.874175 0.000000
131.650380 -16.803888 -1.851817 0.000000
132.320540 -17.131838 -1.869518 0.000000
130.039260 -16.483294 -1.876094 0.000000
128.800600 -16.139626 -1.892843 0.000000
129.196180 -16.134659 -1.873188 0.000000
128.155120 -15.786255 -1.885105 0.000000
128.537290 -15.823095 -1.869540 0.000000
127.505680 -15.449884 -1.882317 0.000000
127.893160 -15.484541 -1.864826 0.000000
127.271740 -15.106657 -1.857198 0.000000
126.402370 -14.444521 -1.836673 0.000000
126.686800 -14.670980 -1.843783 0.000000
137.299550 -14.314339 -1.822888 0.000000
137.610240 -14.366272 -1.829718 0.000000
137.922760 -14.410255 -1.836097 0.000000
138.395260 -14.467064 -1.845765 0.000000
138.871030 -14.511705 -1.855114 0.000000
139.206530 -14.652407 -1.878543 0.000000
139.992920 -14.554935 -1.874837 0.000000
125.768030 -14.105082 -1.840982 0.000000
126.194560 -14.095417 -1.812089 0.000000
135.778950 -13.975546 -1.787553 0.000000
136.078400 -14.053513 -1.794757 0.000000
136.380220 -14.128283 -1.802163 0.000000
136.684460 -14.195425 -1.809131 0.000000
136.990940 -14.258331 -1.816167 0.000000
142.004810 -14.107931 -1.857854 0.000000
135.207730 -23.954279 -2.022455 0.000000
143.390700 -21.450697 -2.281305 0.000000
142.435070 -21.035143 -2.221094 0.000000
142.916530 -21.293299 -2.256906 0.000000
144.194690 -21.014353 -2.240354 0.000000
141.099110 -20.656843 -2.167439 0.000000
141.552080 -20.900320 -2.198817 0.000000
141.991760 -20.970699 -2.209894 0.000000
143.718640 -20.867052 -2.215475 0.000000
144.628070 -20.951553 -2.240236 0.000000
145.077900 -20.945299 -2.247992 0.000000
140.235820 -20.361319 -2.130530 0.000000
140.664180 -20.508204 -2.148474 0.000000
145.342650 -20.271641 -2.173655 0.000000
138.986530 -19.931473 -2.082680 0.000000
139.397350 -20.072954 -2.097648 0.000000
139.813670 -20.216236 -2.113593 0.000000
138.180500 -19.625973 -2.052201 0.000000
138.580760 -19.807028 -2.070542 0.000000
137.009920 -19.150476 -2.009690 0.000000
137.398500 -19.251093 -2.016046 0.000000
137.786560 -19.436987 -2.033590 0.000000
136.266450 -18.706827 -1.969072 0.000000
136.634690 -18.930807 -1.989334 0.000000
135.904740 -18.482048 -1.949324 0.000000
140.209750 -15.050936 -1.891307 0.000000
140.701870 -15.103504 -1.901202 0.000000
141.214480 -15.268860 -1.928940 0.000000
141.862550 -15.170155 -1.922570 0.000000
142.359970 -15.150047 -1.927726 0.000000
142.876510 -15.196302 -1.944162 0.000000
139.238770 -14.903044 -1.870554 0.000000
139.560440 -14.959253 -1.877736 0.000000
139.884050 -15.007090 -1.884440 0.000000
141.506930 -15.015963 -1.895886 0.000000
143.121510 -14.803835 -1.894221 0.000000
143.462620 -14.818670 -1.904613 0.000000
143.801850 -14.813858 -1.912956 0.000000
144.028350 -14.425673 -1.865408 0.000000
144.364170 -14.412416 -1.873979 0.000000
145.066850 -13.970009 -1.837763 0.000000
134.764530 -23.663563 -2.002350 0.000000
132.871550 -23.411081 -2.022213 0.000000
133.364880 -23.379753 -2.006333 0.000000
133.866650 -23.276762 -1.983901 0.000000
134.322490 -23.414680 -1.987108 0.000000
131.047760 -22.843596 -2.020905 0.000000
131.561970 -22.767097 -1.997093 0.000000
132.017580 -22.891802 -1.995391 0.000000
132.527390 -22.787476 -1.970447 0.000000
129.214740 -22.315042 -2.035346 0.000000
129.727310 -22.294905 -2.014107 0.000000
130.209260 -22.346628 -2.001581 0.000000
130.733990 -22.248528 -1.973888 0.000000
128.406770 -21.769255 -2.016044 0.000000
128.927660 -21.736252 -1.991812 0.000000
127.079560 -21.254429 -2.025796 0.000000
127.587160 -21.283232 -2.005727 0.000000
128.131900 -21.209415 -1.975238 0.000000
126.273220 -20.747099 -2.017260 0.000000
126.813140 -20.721510 -1.989272 0.000000
125.470330 -20.245285 -2.011953 0.000000
124.652290 -19.774599 -2.013080 0.000000
125.208070 -19.758488 -1.982268 0.000000
124.354680 -19.361879 -1.993221 0.000000
124.113900 -18.874706 -1.964499 0.000000
123.246030 -18.496099 -1.982093 0.000000
123.596240 -18.811031 -1.988438 0.000000
135.175810 -18.180864 -1.930176 0.000000
135.549820 -18.253525 -1.929707 0.000000
122.463580 -17.983103 -1.986203 0.000000
134.525440 -17.548630 -1.871853 0.000000
134.885060 -17.648926 -1.873665 0.000000
122.246090 -17.503826 -1.960343 0.000000
133.812810 -17.331928 -1.868228 0.000000
134.196330 -17.312180 -1.853473 0.000000
121.926160 -17.163200 -1.952878 0.000000
132.367660 -16.990198 -1.881127 0.000000
132.772050 -16.930365 -1.858021 0.000000
133.125760 -17.033957 -1.856877 0.000000
121.613170 -16.817654 -1.945283 0.000000
131.725850 -16.574402 -1.859772 0.000000
132.071550 -16.701635 -1.859615 0.000000
121.305030 -16.469858 -1.937901 0.000000
130.650850 -16.286385 -1.877060 0.000000
131.049350 -16.282778 -1.857220 0.000000
121.071780 -16.042723 -1.920055 0.000000
129.872940 -15.766090 -1.858520 0.000000
130.387740 -15.961168 -1.853320 0.000000
129.113400 -15.234821 -1.841975 0.000000
129.353060 -15.573338 -1.865662 0.000000
128.500530 -14.836723 -1.835234 0.000000
138.287550 -14.702362 -1.848691 0.000000
138.602250 -14.774500 -1.856027 0.000000
138.919360 -14.842237 -1.863435 0.000000
128.202560 -14.625921 -1.831113 0.000000
136.741240 -14.372553 -1.826936 0.000000
137.055190 -14.353857 -1.817552 0.000000
137.512470 -14.494495 -1.829483 0.000000
137.975450 -14.622295 -1.840904 0.000000
127.548900 -14.301552 -1.839070 0.000000
127.984180 -14.286148 -1.808783 0.000000
136.161500 -14.036022 -1.792970 0.000000
127.342450 -13.952492 -1.816354 0.000000
143.300980 -22.220366 -2.289881 0.000000
143.775860 -22.412760 -2.312943 0.000000
144.257080 -22.587719 -2.334788 0.000000
144.703170 -22.481443 -2.323761 0.000000
145.180590 -22.564125 -2.336311 0.000000
145.645490 -22.551020 -2.338252 0.000000
134.777250 -24.000158 -2.044713 0.000000
133.038760 -22.982853 -2.005449 0.000000
142.376570 -21.843742 -2.247266 0.000000
142.834690 -22.030685 -2.267995 0.000000
141.483000 -21.478039 -2.209195 0.000000
141.926150 -21.659531 -2.227673 0.000000
140.616780 -21.142349 -2.177833 0.000000
141.046710 -21.299250 -2.191816 0.000000
139.775010 -20.774351 -2.145543 0.000000
140.192640 -20.967676 -2.162453 0.000000
138.954540 -20.435486 -2.119650 0.000000
139.364790 -20.559109 -2.126676 0.000000
138.171630 -19.930523 -2.076192 0.000000
138.559080 -20.185371 -2.097899 0.000000
137.404430 -19.520426 -2.046882 0.000000
137.791660 -19.675474 -2.055067 0.000000
137.027110 -19.326006 -2.034492 0.000000
136.723860 -18.746586 -1.974765 0.000000
136.005600 -18.357882 -1.952659 0.000000
136.347920 -18.626114 -1.972659 0.000000
135.645780 -18.193111 -1.946247 0.000000
142.319920 -15.831273 -1.950824 0.000000
142.662950 -15.881877 -1.958046 0.000000
143.191120 -16.012571 -1.978247 0.000000
140.642350 -15.482415 -1.912426 0.000000
141.138900 -15.602756 -1.924324 0.000000
141.641040 -15.711251 -1.936003 0.000000
141.979170 -15.773301 -1.943323 0.000000
143.664120 -15.732755 -1.941546 0.000000
144.011140 -15.760726 -1.948684 0.000000
144.358670 -15.775392 -1.954729 0.000000
144.682570 -15.663527 -1.943480 0.000000
145.041530 -15.712607 -1.956075 0.000000
139.352460 -15.096261 -1.879436 0.000000
139.670150 -15.201407 -1.887874 0.000000
139.991120 -15.300136 -1.896079 0.000000
140.315190 -15.395362 -1.904483 0.000000
145.286990 -15.281753 -1.900527 0.000000
145.631520 -15.274425 -1.906555 0.000000
138.713550 -14.995570 -1.880485 0.000000
139.038090 -14.986001 -1.870941 0.000000
134.473560 -23.156761 -1.972907 0.000000
133.551910 -22.921682 -1.981274 0.000000
134.006000 -23.065746 -1.979496 0.000000
131.734470 -22.360447 -1.997134 0.000000
132.209120 -22.439835 -1.985543 0.000000
132.729400 -22.363510 -1.958214 0.000000
131.232060 -22.348101 -2.016869 0.000000
130.444200 -21.747229 -1.995662 0.000000
130.953080 -21.745428 -1.972884 0.000000
129.645110 -21.215122 -1.984196 0.000000
129.146510 -21.169024 -2.004278 0.000000
130.178920 -21.164827 -1.954385 0.000000
128.357790 -20.632336 -1.996227 0.000000
128.889160 -20.620260 -1.967834 0.000000
127.573770 -20.103741 -1.991533 0.000000
128.109040 -20.099802 -1.962224 0.000000
126.788090 -19.588419 -1.990965 0.000000
127.322110 -19.603247 -1.961930 0.000000
126.506210 -19.156788 -1.970446 0.000000
125.785340 -18.563656 -1.963745 0.000000
126.279460 -18.654842 -1.941420 0.000000
125.435040 -18.256807 -1.959979 0.000000
124.640980 -17.773800 -1.971202 0.000000
135.021610 -17.543026 -1.894330 0.000000
124.423170 -17.301281 -1.947582 0.000000
134.354890 -17.139299 -1.875839 0.000000
134.708190 -17.266373 -1.875177 0.000000
124.098710 -16.972231 -1.943170 0.000000
134.086460 -16.756428 -1.843834 0.000000
123.781330 -16.637457 -1.938531 0.000000
133.744480 -16.614021 -1.843637 0.000000
123.576810 -16.176783 -1.917053 0.000000
132.424730 -15.945601 -1.836251 0.000000
132.682680 -16.284040 -1.860166 0.000000
133.075260 -16.296896 -1.840953 0.000000
123.327630 -15.776219 -1.904003 0.000000
131.919250 -15.729644 -1.840941 0.000000
123.059620 -15.402205 -1.894990 0.000000
131.178280 -15.163117 -1.823292 0.000000
131.410580 -15.514600 -1.847322 0.000000
122.737830 -15.087766 -1.894992 0.000000
122.570080 -14.620826 -1.873179 0.000000
130.293990 -14.513843 -1.810984 0.000000
130.582860 -14.737428 -1.815542 0.000000
137.204590 -14.328465 -1.834538 0.000000
137.519870 -14.354274 -1.826626 0.000000
137.966170 -14.555991 -1.840099 0.000000
122.349950 -14.214089 -1.860308 0.000000
129.661480 -14.162276 -1.817737 0.000000
130.083370 -14.164496 -1.788556 0.000000
136.796910 -13.991387 -1.803513 0.000000
143.630260 -22.633072 -2.305538 0.000000
144.554890 -22.844021 -2.325744 0.000000
145.013640 -22.823627 -2.322151 0.000000
145.473010 -22.803108 -2.319422 0.000000
142.722870 -22.292229 -2.273156 0.000000
143.173340 -22.451582 -2.287622 0.000000
134.900970 -23.807863 -2.036795 0.000000
133.188020 -22.739977 -2.002595 0.000000
133.705000 -22.734447 -1.981283 0.000000
134.187230 -22.814631 -1.970019 0.000000
134.635700 -22.994677 -1.970072 0.000000
132.380170 -22.146843 -1.982552 0.000000
141.839460 -21.939732 -2.242548 0.000000
142.278290 -22.114737 -2.257315 0.000000
131.059130 -21.561430 -1.990490 0.000000
140.552840 -21.438782 -2.205701 0.000000
140.970350 -21.694622 -2.227951 0.000000
141.406020 -21.767109 -2.228832 0.000000
140.144090 -21.172619 -2.182874 0.000000
130.258640 -21.012180 -1.981443 0.000000
139.334350 -20.745665 -2.152036 0.000000
139.744740 -20.893476 -2.159118 0.000000
138.935970 -20.543154 -2.138976 0.000000
138.616640 -19.929674 -2.075937 0.000000
137.858960 -19.520260 -2.052134 0.000000
138.219330 -19.806475 -2.073806 0.000000
137.477870 -19.353060 -2.045882 0.000000
137.202270 -18.780935 -1.989401 0.000000
136.492130 -18.363651 -1.969174 0.000000
136.818980 -18.668682 -1.991173 0.000000
136.114500 -18.245899 -1.971605 0.000000
135.855090 -17.769627 -1.928588 0.000000
135.545900 -17.475235 -1.909300 0.000000
143.437290 -16.259693 -1.981070 0.000000
143.784240 -16.330366 -1.989173 0.000000
144.130570 -16.345688 -1.990233 0.000000
144.472410 -16.291534 -1.982268 0.000000
144.812260 -16.226547 -1.973565 0.000000
145.164550 -16.275137 -1.981709 0.000000
145.510060 -16.251062 -1.980382 0.000000
142.078050 -15.917751 -1.947869 0.000000
142.413350 -16.013300 -1.956477 0.000000
142.922420 -16.141796 -1.968770 0.000000
140.755110 -15.614065 -1.931967 0.000000
141.254180 -15.656345 -1.926396 0.000000
141.745850 -15.818335 -1.939440 0.000000
139.825420 -15.096048 -1.885602 0.000000
140.136290 -15.230677 -1.894925 0.000000
138.916120 -14.663002 -1.857281 0.000000
139.191100 -14.933903 -1.884614 0.000000
139.518230 -14.957502 -1.876366 0.000000
138.475450 -14.430346 -1.842955 0.000000
132.903990 -22.129017 -1.958350 0.000000
131.565310 -21.610563 -1.970937 0.000000
132.109100 -21.557768 -1.941214 0.000000
130.798000 -21.002119 -1.953553 0.000000
129.459580 -20.477650 -1.976547 0.000000
130.006270 -20.469572 -1.946999 0.000000
128.651030 -19.968966 -1.977314 0.000000
129.204650 -19.966904 -1.946454 0.000000
128.361500 -19.533894 -1.957037 0.000000
127.559860 -19.029539 -1.962140 0.000000
127.255710 -18.639376 -1.948630 0.000000
126.442570 -18.152357 -1.960185 0.000000
127.039170 -18.138309 -1.921448 0.000000
126.222120 -17.668816 -1.936091 0.000000
125.891170 -17.333782 -1.931562 0.000000
125.567110 -16.993294 -1.926870 0.000000
134.970000 -16.827444 -1.864238 0.000000
135.330020 -16.945724 -1.859712 0.000000
125.250270 -16.647234 -1.921978 0.000000
134.616780 -16.690702 -1.867077 0.000000
125.069050 -16.154730 -1.897432 0.000000
134.030330 -16.148415 -1.838710 0.000000
134.391510 -16.255550 -1.830720 0.000000
124.807270 -15.760084 -1.886503 0.000000
133.381770 -15.772032 -1.834910 0.000000
133.771120 -15.821072 -1.817538 0.000000
124.492060 -15.425610 -1.884485 0.000000
133.145540 -15.416162 -1.810721 0.000000
124.331020 -14.939476 -1.861093 0.000000
132.242280 -14.766573 -1.799117 0.000000
132.536930 -14.991432 -1.803572 0.000000
124.117780 -14.514236 -1.846554 0.000000
131.594880 -14.417305 -1.806655 0.000000
132.028170 -14.412134 -1.776497 0.000000
123.881450 -14.116947 -1.836384 0.000000
131.385880 -14.065714 -1.785380 0.000000
137.451900 -13.947620 -1.823735 0.000000
137.760700 -14.020660 -1.818647 0.000000
143.861080 -22.697090 -2.318329 0.000000
144.772890 -22.782074 -2.317482 0.000000
145.229870 -22.758434 -2.310449 0.000000
145.686140 -22.731653 -2.303921 0.000000
142.527190 -22.263014 -2.288985 0.000000
142.971690 -22.355698 -2.291695 0.000000
143.413910 -22.525312 -2.304488 0.000000
142.100920 -22.020231 -2.268892 0.000000
135.895020 -23.834307 -2.054526 0.000000
135.025380 -23.297718 -2.038340 0.000000
135.488140 -23.480230 -2.037030 0.000000
134.752170 -22.629169 -1.988060 0.000000
134.398280 -22.205961 -1.964333 0.000000
133.069640 -21.625481 -1.971740 0.000000
133.583250 -21.662352 -1.951242 0.000000
140.826260 -21.513716 -2.240000 0.000000
141.246870 -21.685612 -2.249251 0.000000
141.682830 -21.767178 -2.248257 0.000000
132.253520 -21.099066 -1.964662 0.000000
140.099700 -20.646605 -2.159012 0.000000
140.524960 -20.701736 -2.152683 0.000000
131.446320 -20.570143 -1.959866 0.000000
139.721340 -20.370684 -2.138758 0.000000
130.634060 -20.058529 -1.959767 0.000000
139.313220 -20.250118 -2.138494 0.000000
139.065960 -19.499367 -2.059900 0.000000
137.901180 -19.076887 -2.057058 0.000000
138.310300 -19.142569 -2.047716 0.000000
138.651820 -19.449314 -2.069667 0.000000
137.693190 -18.394871 -1.988015 0.000000
137.345640 -18.174110 -1.978514 0.000000
136.748180 -17.507963 -1.931815 0.000000
137.123050 -17.624235 -1.926700 0.000000
136.381740 -17.368601 -1.934676 0.000000
136.185060 -16.833466 -1.885484 0.000000
135.844100 -16.653566 -1.884000 0.000000
143.772460 -16.252314 -1.986299 0.000000
144.114180 -16.313524 -1.989492 0.000000
144.458830 -16.314514 -1.984902 0.000000
144.803310 -16.300825 -1.979024 0.000000
145.318620 -16.263445 -1.969418 0.000000
142.928830 -16.050207 -1.974730 0.000000
143.435490 -16.146910 -1.977557 0.000000
141.802630 -15.534739 -1.932409 0.000000
142.121730 -15.669603 -1.941829 0.000000
140.868710 -15.099169 -1.903673 0.000000
141.319350 -15.384253 -1.927222 0.000000
140.266450 -14.783871 -1.884113 0.000000
140.565670 -14.943184 -1.893819 0.000000
139.363920 -14.375782 -1.869320 0.000000
139.681520 -14.448309 -1.864048 0.000000
138.975100 -14.004866 -1.838825 0.000000
134.129870 -21.606775 -1.921669 0.000000
132.803910 -21.071749 -1.935237 0.000000
131.996440 -20.560678 -1.930552 0.000000
131.187880 -20.060818 -1.929808 0.000000
130.341430 -19.624022 -1.939408 0.000000
129.536060 -19.116711 -1.943673 0.000000
129.227690 -18.728426 -1.930251 0.000000
128.399920 -18.252584 -1.942789 0.000000
129.004780 -18.231976 -1.903596 0.000000
128.172870 -17.773020 -1.919189 0.000000
127.833840 -17.443338 -1.915261 0.000000
127.501020 -17.108490 -1.911247 0.000000
127.177970 -16.764656 -1.906613 0.000000
126.976970 -16.289003 -1.884479 0.000000
135.260740 -16.099180 -1.856441 0.000000
135.617420 -16.233528 -1.850598 0.000000
126.710500 -15.893883 -1.873565 0.000000
135.047150 -15.684454 -1.824320 0.000000
126.389690 -15.559700 -1.871637 0.000000
134.500310 -15.125986 -1.798502 0.000000
126.225850 -15.070917 -1.848074 0.000000
134.236860 -14.841356 -1.785464 0.000000
126.008670 -14.644089 -1.833479 0.000000
133.593260 -14.478535 -1.790695 0.000000
134.029680 -14.471672 -1.760575 0.000000
125.768010 -14.245499 -1.823287 0.000000
133.381240 -14.128317 -1.769548 0.000000
144.677030 -22.626932 -2.330200 0.000000
143.347290 -22.248074 -2.314335 0.000000
143.794050 -22.326880 -2.313003 0.000000
144.223920 -22.566999 -2.332185 0.000000
145.144420 -22.503124 -2.306803 0.000000
145.600910 -22.473980 -2.295820 0.000000
142.914030 -22.089458 -2.306691 0.000000
136.561160 -23.572058 -2.083329 0.000000
121.692640 -23.514643 -2.109389 0.000000
136.192370 -23.137394 -2.058739 0.000000
121.414810 -22.873863 -2.087418 0.000000
135.926220 -22.487314 -2.010827 0.000000
120.956340 -22.424843 -2.087146 0.000000
135.072330 -21.988358 -2.004290 0.000000
135.483670 -22.270216 -2.010815 0.000000
134.859050 -21.311466 -1.953818 0.000000
142.188610 -21.107805 -2.211211 0.000000
142.605820 -21.256163 -2.216381 0.000000
134.440660 -21.071550 -1.952866 0.000000
141.361710 -20.807417 -2.202712 0.000000
141.780840 -20.926638 -2.202713 0.000000
140.705470 -19.908451 -2.121414 0.000000
141.106160 -20.047096 -2.122699 0.000000
139.908390 -19.626465 -2.120560 0.000000
140.329070 -19.690083 -2.110734 0.000000
139.334630 -18.712290 -2.040674 0.000000
139.692670 -18.934471 -2.050169 0.000000
138.340100 -17.899164 -1.996495 0.000000
138.717800 -18.038500 -1.993325 0.000000
139.103970 -18.154236 -1.987850 0.000000
137.959960 -17.264572 -1.945615 0.000000
137.236920 -16.499086 -1.901522 0.000000
137.590090 -16.660240 -1.899057 0.000000
137.016890 -16.078844 -1.868819 0.000000
145.108510 -16.084690 -1.973472 0.000000
145.632250 -15.972155 -1.946537 0.000000
143.268880 -15.692030 -1.970859 0.000000
143.625030 -15.635998 -1.950955 0.000000
143.950640 -15.741776 -1.955538 0.000000
144.297420 -15.713980 -1.941459 0.000000
144.642330 -15.679607 -1.927283 0.000000
142.335160 -15.220070 -1.940964 0.000000
142.670580 -15.261885 -1.933148 0.000000
143.013080 -15.265089 -1.920458 0.000000
141.432600 -14.728077 -1.913962 0.000000
141.757480 -14.800308 -1.908497 0.000000
140.893940 -14.256292 -1.877111 0.000000
141.176160 -14.445314 -1.888140 0.000000
140.613450 -14.071226 -1.867279 0.000000
133.697810 -20.428072 -1.934056 0.000000
134.236600 -20.434767 -1.906981 0.000000
132.882610 -19.930363 -1.934619 0.000000
132.584960 -19.507792 -1.915144 0.000000
131.768910 -19.022858 -1.921207 0.000000
132.344450 -19.010857 -1.886901 0.000000
131.458370 -18.640196 -1.907991 0.000000
130.627290 -18.173191 -1.920771 0.000000
131.232740 -18.149771 -1.881576 0.000000
130.397320 -17.699270 -1.897396 0.000000
130.056640 -17.373356 -1.893509 0.000000
129.722400 -17.041769 -1.889477 0.000000
129.395940 -16.703281 -1.885117 0.000000
129.183140 -16.241909 -1.864471 0.000000
128.894710 -15.870876 -1.856497 0.000000
136.455230 -15.513134 -1.842526 0.000000
128.554110 -15.556911 -1.857084 0.000000
136.185270 -15.223316 -1.829054 0.000000
128.362380 -15.094995 -1.837067 0.000000
135.599580 -14.738020 -1.817155 0.000000
135.987900 -14.821676 -1.799846 0.000000
128.119860 -14.690746 -1.825546 0.000000
135.409820 -14.343216 -1.789580 0.000000
127.782810 -14.378628 -1.828127 0.000000
135.164520 -14.043892 -1.776335 0.000000
127.549810 -13.972166 -1.817155 0.000000
144.867660 -22.119236 -2.321942 0.000000
145.329280 -22.088837 -2.306538 0.000000
137.862700 -23.827023 -2.143852 0.000000
123.672890 -23.471874 -2.107863 0.000000
137.586000 -23.167549 -2.094678 0.000000
137.129410 -22.949039 -2.094714 0.000000
123.393600 -22.833290 -2.085266 0.000000
136.704570 -22.664219 -2.088033 0.000000
122.930850 -22.389084 -2.084805 0.000000
136.481640 -21.976536 -2.036187 0.000000
122.438690 -21.972183 -2.088285 0.000000
136.049300 -21.734409 -2.035255 0.000000
144.085020 -21.415981 -2.259961 0.000000
144.534010 -21.421803 -2.247530 0.000000
143.244570 -21.121666 -2.251911 0.000000
143.670520 -21.237999 -2.251666 0.000000
135.456850 -20.767693 -1.979127 0.000000
135.835820 -21.086784 -1.988071 0.000000
142.574540 -20.227562 -2.170381 0.000000
142.982210 -20.363880 -2.171470 0.000000
134.779850 -20.014629 -1.949160 0.000000
135.202730 -20.241348 -1.946230 0.000000
141.762850 -19.950760 -2.170037 0.000000
142.190960 -20.011681 -2.159858 0.000000
141.174850 -19.039013 -2.089768 0.000000
141.540280 -19.259483 -2.099150 0.000000
140.543330 -18.367435 -2.042334 0.000000
140.937300 -18.481136 -2.036555 0.000000
140.157750 -18.229908 -2.045774 0.000000
139.586850 -17.505337 -1.994020 0.000000
139.946700 -17.684937 -1.995092 0.000000
139.029300 -16.820946 -1.949115 0.000000
139.386050 -16.990273 -1.947688 0.000000
138.834400 -16.337391 -1.907444 0.000000
137.984070 -15.481069 -1.867420 0.000000
138.260010 -15.771821 -1.881059 0.000000
145.285610 -15.397210 -1.932386 0.000000
144.330020 -15.070579 -1.922772 0.000000
144.677380 -15.051688 -1.906186 0.000000
145.025420 -15.013604 -1.887650 0.000000
145.644000 -15.301614 -1.906915 0.000000
143.747300 -14.684480 -1.894470 0.000000
144.089000 -14.685639 -1.879393 0.000000
143.158450 -14.363223 -1.878463 0.000000
142.870990 -14.192538 -1.869869 0.000000
122.532300 -21.011677 -2.028627 0.000000
122.012050 -20.631645 -2.037240 0.000000
121.501710 -20.236813 -2.045187 0.000000
121.607520 -19.324753 -1.989679 0.000000
134.558620 -19.467037 -1.914118 0.000000
121.100310 -18.933350 -1.999066 0.000000
133.557510 -18.424114 -1.883473 0.000000
133.925450 -18.715256 -1.886230 0.000000
121.158500 -18.098503 -1.951929 0.000000
132.725070 -17.972488 -1.896709 0.000000
133.327700 -17.946426 -1.857718 0.000000
132.318760 -17.352413 -1.872237 0.000000
131.809420 -16.871899 -1.866905 0.000000
131.487340 -16.533531 -1.861743 0.000000
131.277370 -16.074154 -1.840454 0.000000
130.984950 -15.712338 -1.832911 0.000000
130.641300 -15.406159 -1.833793 0.000000
137.781250 -15.077523 -1.837829 0.000000
130.443270 -14.954902 -1.814410 0.000000
137.385470 -14.994948 -1.855481 0.000000
130.195330 -14.559863 -1.803389 0.000000
137.064390 -14.447900 -1.820866 0.000000
129.854660 -14.254790 -1.806240 0.000000
136.692140 -13.996491 -1.801100 0.000000
138.913670 -23.468065 -2.178285 0.000000
139.381330 -23.687416 -2.178332 0.000000
138.477740 -23.182129 -2.171414 0.000000
138.245120 -22.490232 -2.118466 0.000000
137.801440 -22.247040 -2.117459 0.000000
137.578460 -21.594625 -2.069209 0.000000
137.188160 -21.273975 -2.060073 0.000000
136.924470 -20.742783 -2.026322 0.000000
145.346160 -20.793211 -2.234242 0.000000
136.490080 -20.514317 -2.029218 0.000000
144.607350 -20.191957 -2.188534 0.000000
136.259160 -19.961918 -1.993343 0.000000
143.743000 -20.085382 -2.209745 0.000000
144.177120 -20.136339 -2.198374 0.000000
145.054690 -20.171722 -2.169841 0.000000
143.514190 -19.403425 -2.139039 0.000000
143.144490 -19.185558 -2.129682 0.000000
142.900790 -18.634939 -2.076628 0.000000
142.112340 -18.387493 -2.086068 0.000000
142.502490 -18.523005 -2.082511 0.000000
141.895020 -17.848194 -2.035418 0.000000
141.530210 -17.670696 -2.034446 0.000000
141.322880 -17.160769 -1.988163 0.000000
140.961140 -16.992859 -1.989648 0.000000
140.779880 -16.474375 -1.942470 0.000000
140.196460 -15.911602 -1.915855 0.000000
139.915330 -15.623070 -1.902233 0.000000
139.307010 -15.139420 -1.890232 0.000000
145.305540 -13.981606 -1.833694 0.000000
126.544360 -23.480883 -2.083888 0.000000
127.407680 -23.462482 -2.037759 0.000000
126.266770 -22.847551 -2.059689 0.000000
125.961940 -22.255644 -2.040195 0.000000
125.448480 -21.880508 -2.045788 0.000000
124.899700 -21.534237 -2.055760 0.000000
124.984810 -20.595734 -1.996366 0.000000
124.401130 -20.285582 -2.011836 0.000000
123.826570 -19.957020 -2.026450 0.000000
136.069310 -19.368889 -1.952393 0.000000
123.924810 -19.060064 -1.970811 0.000000
135.679780 -19.092882 -1.950879 0.000000
123.378170 -18.708559 -1.983940 0.000000
135.402560 -18.658775 -1.930065 0.000000
135.225020 -18.100426 -1.893558 0.000000
123.414670 -17.897478 -1.938076 0.000000
134.792660 -17.896454 -1.902850 0.000000
122.803560 -17.591675 -1.958941 0.000000
134.615890 -17.363253 -1.869829 0.000000
122.203080 -17.265030 -1.978768 0.000000
134.367890 -16.934126 -1.850520 0.000000
134.108110 -16.528328 -1.834559 0.000000
122.268690 -16.464828 -1.933815 0.000000
122.341920 -15.680977 -1.889916 0.000000
133.591920 -15.734676 -1.805949 0.000000
121.755250 -15.341005 -1.910310 0.000000
133.297010 -15.386263 -1.798949 0.000000
139.707430 -15.221249 -1.872447 0.000000
132.952260 -15.091478 -1.800186 0.000000
139.106340 -14.744282 -1.862147 0.000000
121.917510 -14.526155 -1.860638 0.000000
132.749110 -14.655146 -1.781507 0.000000
138.849750 -14.444771 -1.848671 0.000000
121.181140 -14.267401 -1.895900 0.000000
132.325590 -14.126360 -1.772678 0.000000
138.598450 -14.143997 -1.835417 0.000000
140.166440 -23.898165 -2.256905 0.000000
139.924260 -23.193314 -2.202492 0.000000
139.466080 -22.947037 -2.201507 0.000000
139.233810 -22.281816 -2.151875 0.000000
138.780690 -22.044033 -2.152998 0.000000
138.107180 -21.182388 -2.110765 0.000000
138.556080 -21.414351 -2.107781 0.000000
137.866490 -20.618830 -2.073854 0.000000
137.667980 -20.013275 -2.031689 0.000000
137.264770 -19.732269 -2.030126 0.000000
136.976620 -19.289150 -2.008681 0.000000
145.131410 -19.313747 -2.148747 0.000000
145.586070 -19.283752 -2.125495 0.000000
136.790770 -18.718355 -1.971046 0.000000
143.990890 -18.757195 -2.137329 0.000000
144.424620 -18.801659 -2.121348 0.000000
144.886900 -18.757200 -2.094451 0.000000
