# .PCD v0.7 - Point Cloud Data file format
VERSION 0.7
FIELDS x y z intensity
SIZE 4 4 4 4
TYPE F F F F
COUNT 1 1 1 1
WIDTH 1203
HEIGHT 1
VIEWPOINT 0 0 0 1 0 0 0
POINTS 1203
DATA ascii
125.454150 -13.738726 -1.798145 0.000000
125.865930 -13.728140 -1.818681 0.000000
133.191190 -13.796080 -1.746879 0.000000
126.069740 -13.405418 -1.795538 0.000000
133.515060 -13.499252 -1.743755 0.000000
126.344920 -13.190344 -1.788337 0.000000
126.616620 -12.971400 -1.781203 0.000000
133.860980 -12.934234 -1.723496 0.000000
145.577970 -12.889646 -1.729746 0.000000
126.818820 -12.663752 -1.761545 0.000000
127.075110 -12.429886 -1.753303 0.000000
134.198240 -12.367964 -1.703960 0.000000
120.831670 -12.417722 -1.818565 0.000000
121.086730 -12.275718 -1.809881 0.000000
121.338430 -12.128875 -1.801054 0.000000
127.307430 -12.168492 -1.741480 0.000000
134.653690 -12.168684 -1.718338 0.000000
121.586560 -11.977014 -1.792048 0.000000
121.831010 -11.820326 -1.782878 0.000000
127.616360 -11.998460 -1.744216 0.000000
127.845830 -11.735891 -1.733420 0.000000
134.512800 -11.523076 -1.665815 0.000000
145.542570 -11.532432 -1.667790 0.000000
122.543400 -11.325789 -1.754996 0.000000
128.177750 -11.333310 -1.716893 0.000000
134.915310 -11.281401 -1.675330 0.000000
122.720780 -11.060971 -1.730572 0.000000
122.999930 -10.976109 -1.736056 0.000000
135.356110 -11.057699 -1.689140 0.000000
145.056350 -10.661150 -1.605235 0.000000
123.221190 -10.793476 -1.726148 0.000000
123.438710 -10.607536 -1.716240 0.000000
128.695310 -10.637115 -1.687600 0.000000
129.000120 -10.454474 -1.692809 0.000000
135.241580 -10.461194 -1.643525 0.000000
145.558470 -10.243518 -1.614179 0.000000
123.762040 -10.328921 -1.702526 0.000000
129.096330 -10.078479 -1.666099 0.000000
135.737730 -10.266088 -1.664103 0.000000
124.189030 -9.957806 -1.686174 0.000000
124.508180 -9.681649 -1.675717 0.000000
129.283170 -9.790091 -1.654515 0.000000
135.936570 -9.878310 -1.653614 0.000000
145.152040 -9.444232 -1.560155 0.000000
124.710840 -9.486177 -1.667507 0.000000
124.909480 -9.287283 -1.659237 0.000000
129.464200 -9.499044 -1.642909 0.000000
129.638490 -9.204742 -1.631158 0.000000
135.643400 -9.205889 -1.593376 0.000000
121.273220 -9.012431 -1.687254 0.000000
125.168740 -9.159779 -1.664593 0.000000
125.302960 -8.888977 -1.644269 0.000000
135.959080 -8.896833 -1.596841 0.000000
144.729600 -8.664141 -1.506707 0.000000
121.460930 -8.858174 -1.676874 0.000000
121.731890 -8.614773 -1.660062 0.000000
125.503460 -8.695337 -1.638678 0.000000
125.700100 -8.497982 -1.632993 0.000000
130.014340 -8.643240 -1.613993 0.000000
135.864520 -8.363220 -1.559663 0.000000
145.360690 -8.296475 -1.526495 0.000000
121.998310 -8.370074 -1.644009 0.000000
122.309140 -8.196129 -1.643182 0.000000
125.893110 -8.297291 -1.627278 0.000000
126.076480 -8.087554 -1.620394 0.000000
130.281070 -8.213780 -1.600999 0.000000
136.256100 -8.092222 -1.571864 0.000000
122.622820 -8.023689 -1.644069 0.000000
122.932510 -7.841863 -1.644908 0.000000
126.267710 -7.885873 -1.615696 0.000000
126.449200 -7.675328 -1.609841 0.000000
130.525990 -7.771332 -1.586484 0.000000
136.151730 -7.568848 -1.535862 0.000000
145.137600 -7.614428 -1.488853 0.000000
123.339280 -7.586518 -1.645857 0.000000
123.631710 -7.376460 -1.644538 0.000000
126.713550 -7.353333 -1.600983 0.000000
130.682400 -7.473657 -1.576884 0.000000
130.925080 -7.231497 -1.579365 0.000000
136.547040 -7.292734 -1.549331 0.000000
120.969180 -6.960890 -1.626811 0.000000
123.900820 -7.138174 -1.638929 0.000000
124.165150 -6.894557 -1.633459 0.000000
127.060200 -6.920077 -1.590364 0.000000
136.500850 -6.809372 -1.520899 0.000000
144.913820 -6.948125 -1.452400 0.000000
121.335870 -6.767112 -1.627984 0.000000
121.696500 -6.559609 -1.628936 0.000000
124.337470 -6.727988 -1.629761 0.000000
124.502940 -6.554613 -1.625165 0.000000
127.321080 -6.595975 -1.584161 0.000000
131.120410 -6.569307 -1.548419 0.000000
136.367570 -6.297869 -1.485366 0.000000
144.693660 -6.298330 -1.417372 0.000000
121.963100 -6.395791 -1.629579 0.000000
122.225590 -6.223863 -1.630154 0.000000
124.674290 -6.386822 -1.622504 0.000000
124.838780 -6.212365 -1.618965 0.000000
127.491100 -6.376667 -1.580190 0.000000
127.657660 -6.154601 -1.576256 0.000000
131.258910 -6.266026 -1.539424 0.000000
136.702670 -5.989353 -1.494731 0.000000
122.569700 -5.983911 -1.630823 0.000000
122.906170 -5.731103 -1.631333 0.000000
125.079270 -5.944858 -1.613587 0.000000
125.314470 -5.672523 -1.608362 0.000000
127.900870 -5.816339 -1.570499 0.000000
131.396970 -5.776064 -1.518647 0.000000
136.652070 -5.524290 -1.468800 0.000000
144.473650 -5.663200 -1.383491 0.000000
123.153580 -5.533708 -1.631649 0.000000
123.311620 -5.393973 -1.630772 0.000000
125.467010 -5.487281 -1.604847 0.000000
125.616940 -5.299834 -1.601437 0.000000
128.212590 -5.356116 -1.562855 0.000000
131.750640 -5.398960 -1.525910 0.000000
137.024540 -5.222566 -1.482510 0.000000
145.083740 -5.267423 -1.404303 0.000000
123.475850 -5.259260 -1.631975 0.000000
123.696320 -5.031767 -1.628483 0.000000
125.835490 -5.013522 -1.596324 0.000000
128.437590 -5.004723 -1.557274 0.000000
131.787900 -5.049301 -1.507314 0.000000
132.029110 -4.795455 -1.513974 0.000000
136.811070 -4.708170 -1.443449 0.000000
144.928800 -4.660823 -1.376234 0.000000
123.906850 -4.795018 -1.623829 0.000000
126.035620 -4.427683 -1.560067 0.000000
128.576900 -4.763934 -1.552737 0.000000
131.862590 -4.362943 -1.472825 0.000000
136.869370 -4.296534 -1.429963 0.000000
124.035680 -4.228821 -1.569048 0.000000
126.006260 -4.129278 -1.527057 0.000000
128.425640 -4.214407 -1.493495 0.000000
131.999370 -4.066027 -1.468494 0.000000
144.732930 -4.055345 -1.346529 0.000000
124.060490 -3.862490 -1.527762 0.000000
125.974350 -3.836822 -1.494943 0.000000
128.479640 -3.787225 -1.467269 0.000000
131.848690 -3.657416 -1.431458 0.000000
136.601490 -3.786849 -1.388254 0.000000
144.736220 -3.504627 -1.330318 0.000000
124.077510 -3.504630 -1.488008 0.000000
126.028580 -3.469993 -1.467523 0.000000
128.612640 -3.552774 -1.465044 0.000000
136.934220 -3.466012 -1.400633 0.000000
124.639400 8.723268 -1.302480 0.000000
126.475180 8.466839 -1.268579 0.000000
128.962330 8.726667 -1.270887 0.000000
132.207050 8.637830 -1.238602 0.000000
124.702790 8.994623 -1.331536 0.000000
126.672020 9.075023 -1.325639 0.000000
129.232270 9.131772 -1.315675 0.000000
132.913190 9.218142 -1.317675 0.000000
144.718150 9.273617 -1.129888 0.000000
124.790730 9.413131 -1.376220 0.000000
126.803650 9.409874 -1.361061 0.000000
129.561310 9.578458 -1.369296 0.000000
132.897740 9.570027 -1.323503 0.000000
137.575160 9.484751 -1.250767 0.000000
124.877430 9.847471 -1.423257 0.000000
126.987820 9.784487 -1.406111 0.000000
133.019410 9.977968 -1.344281 0.000000
124.958150 10.164752 -1.460950 0.000000
127.061100 10.109234 -1.434792 0.000000
129.903950 10.049910 -1.426036 0.000000
133.135890 10.393539 -1.365403 0.000000
138.631530 10.237856 -1.338404 0.000000
124.992800 10.598295 -1.503396 0.000000
127.361210 10.578501 -1.501504 0.000000
124.967120 11.001551 -1.536420 0.000000
127.424060 10.920902 -1.531336 0.000000
130.480680 10.997704 -1.529636 0.000000
128.497540 -3.206467 -1.427752 0.000000
124.155960 -2.963718 -1.437921 0.000000
126.081850 -2.855725 -1.419715 0.000000
128.495060 -2.917596 -1.407732 0.000000
131.793330 -2.957285 -1.388923 0.000000
136.651750 -2.970125 -1.359599 0.000000
144.302190 -2.871452 -1.287576 0.000000
124.254220 -2.680904 -1.421640 0.000000
126.129970 -2.629804 -1.406857 0.000000
128.520340 -2.644377 -1.392517 0.000000
131.780690 -2.620019 -1.370671 0.000000
136.507930 -2.523720 -1.331733 0.000000
124.373090 -2.302389 -1.400024 0.000000
126.194640 -2.291784 -1.387855 0.000000
128.548840 -2.236906 -1.369970 0.000000
131.832290 -2.144432 -1.352805 0.000000
143.437010 -2.180255 -1.219323 0.000000
124.476840 -1.922345 -1.378409 0.000000
126.267140 -1.842175 -1.362768 0.000000
128.573840 -1.833975 -1.348489 0.000000
131.720540 -1.626873 -1.318256 0.000000
136.478820 -1.713046 -1.300807 0.000000
124.596630 -1.451237 -1.353718 0.000000
126.315490 -1.507681 -1.344824 0.000000
126.367550 -1.294482 -1.337038 0.000000
128.601000 -1.438256 -1.329163 0.000000
136.298520 -1.280444 -1.272389 0.000000
143.247800 -1.122287 -1.181157 0.000000
124.708840 -1.086308 -1.339872 0.000000
124.763570 -0.904493 -1.333763 0.000000
126.443800 -0.975831 -1.326354 0.000000
128.681000 -0.930463 -1.311610 0.000000
131.760880 -1.002894 -1.295865 0.000000
136.185530 -0.869157 -1.250519 0.000000
124.837710 -0.629992 -1.324373 0.000000
126.530790 -0.548901 -1.311886 0.000000
128.732350 -0.550243 -1.298907 0.000000
131.761700 -0.534101 -1.277734 0.000000
136.133330 -0.474189 -1.234514 0.000000
143.138580 -0.600540 -1.162286 0.000000
124.925110 -0.262107 -1.311830 0.000000
126.587750 -0.228266 -1.301306 0.000000
128.772460 -0.170115 -1.286314 0.000000
131.615110 -0.043223 -1.245235 0.000000
136.067200 -0.081267 -1.218049 0.000000
143.047550 -0.086873 -1.145223 0.000000
125.000050 0.107206 -1.299504 0.000000
126.631550 0.093773 -1.290238 0.000000
128.799320 0.210538 -1.273255 0.000000
131.838900 0.225179 -1.258620 0.000000
135.857530 0.325440 -1.190427 0.000000
142.956700 0.421678 -1.128856 0.000000
125.060750 0.477981 -1.287081 0.000000
125.098140 0.756487 -1.277848 0.000000
126.680360 0.522563 -1.276074 0.000000
128.785260 0.595230 -1.256501 0.000000
131.670530 0.555995 -1.231090 0.000000
135.733110 0.713847 -1.170613 0.000000
142.866120 0.925406 -1.113174 0.000000
125.126820 1.035291 -1.268593 0.000000
126.704060 0.952781 -1.260548 0.000000
128.763670 0.977324 -1.240071 0.000000
131.609950 1.015486 -1.211440 0.000000
125.148050 1.407789 -1.255305 0.000000
126.684890 1.492176 -1.237184 0.000000
126.695850 1.277044 -1.246525 0.000000
128.730990 1.356250 -1.223814 0.000000
131.541320 1.470416 -1.192241 0.000000
135.954970 1.439178 -1.171367 0.000000
142.775920 1.424675 -1.098169 0.000000
125.139980 1.781270 -1.239366 0.000000
126.668660 1.812305 -1.224421 0.000000
128.691220 1.855462 -1.204684 0.000000
131.489620 1.770668 -1.179673 0.000000
135.828640 1.819288 -1.153297 0.000000
125.172170 2.148065 -1.232682 0.000000
126.703290 2.232066 -1.217701 0.000000
128.718280 2.222991 -1.198964 0.000000
131.431400 2.361978 -1.161026 0.000000
131.502910 2.064783 -1.174419 0.000000
135.841960 2.188952 -1.147152 0.000000
142.569090 2.411700 -1.068525 0.000000
125.209010 2.514663 -1.229050 0.000000
126.740230 2.652150 -1.213574 0.000000
128.750700 2.590679 -1.195318 0.000000
131.444410 2.654569 -1.156897 0.000000
135.853410 2.558616 -1.141420 0.000000
142.613160 2.898604 -1.063210 0.000000
125.236780 2.975026 -1.224687 0.000000
126.762840 3.073849 -1.209581 0.000000
128.774890 2.959406 -1.191758 0.000000
131.443410 2.947450 -1.151892 0.000000
135.853150 2.928446 -1.135315 0.000000
125.245780 3.436806 -1.220443 0.000000
126.770760 3.390879 -1.206669 0.000000
128.788850 3.329193 -1.188327 0.000000
131.441330 3.386699 -1.145447 0.000000
135.852010 3.483181 -1.127227 0.000000
142.648090 3.386865 -1.057902 0.000000
125.238160 3.806796 -1.217195 0.000000
126.769520 3.708392 -1.203831 0.000000
128.780210 3.822452 -1.182256 0.000000
131.438980 3.826303 -1.140090 0.000000
135.850710 4.038436 -1.120249 0.000000
142.676930 3.876376 -1.052781 0.000000
125.217730 4.176781 -1.214069 0.000000
126.754070 4.131850 -1.199925 0.000000
128.758480 4.191971 -1.177234 0.000000
131.437410 4.119914 -1.137258 0.000000
131.520260 4.421294 -1.143512 0.000000
135.849880 4.409333 -1.116345 0.000000
142.696550 4.366986 -1.047670 0.000000
125.184360 4.546291 -1.211050 0.000000
126.713170 4.553689 -1.194587 0.000000
128.726140 4.560813 -1.172319 0.000000
131.496060 4.715509 -1.139500 0.000000
135.849000 4.781054 -1.112993 0.000000
125.130190 4.913426 -1.206819 0.000000
126.656160 4.973821 -1.189183 0.000000
128.668470 5.051244 -1.165865 0.000000
131.466950 5.009327 -1.135556 0.000000
135.848040 5.153834 -1.110194 0.000000
142.825680 5.360599 -1.044193 0.000000
125.077220 5.281883 -1.205090 0.000000
126.626210 5.400444 -1.190022 0.000000
128.670120 5.427422 -1.167979 0.000000
131.517430 5.614675 -1.140320 0.000000
125.061100 5.758739 -1.214882 0.000000
126.636630 5.840344 -1.199129 0.000000
128.705310 5.814167 -1.175690 0.000000
131.570950 5.925941 -1.146412 0.000000
135.563020 5.864599 -1.084006 0.000000
142.992570 5.873229 -1.049056 0.000000
125.019260 6.335839 -1.227539 0.000000
125.038160 6.143313 -1.223471 0.000000
126.634530 6.172610 -1.206033 0.000000
128.733260 6.204542 -1.183705 0.000000
131.801560 6.274854 -1.170968 0.000000
135.758090 6.267324 -1.098312 0.000000
143.161330 6.393718 -1.054527 0.000000
124.985500 6.625789 -1.233991 0.000000
126.625130 6.507734 -1.213422 0.000000
128.748900 6.598558 -1.191729 0.000000
131.616820 6.547146 -1.154172 0.000000
136.043180 6.694618 -1.120243 0.000000
143.331880 6.922528 -1.060610 0.000000
124.929010 7.013304 -1.242767 0.000000
126.597060 6.956446 -1.223101 0.000000
128.772930 7.000406 -1.202057 0.000000
131.862950 7.071904 -1.183093 0.000000
136.189410 7.107938 -1.131830 0.000000
124.858450 7.401440 -1.251733 0.000000
126.554520 7.408290 -1.233232 0.000000
128.813170 7.415399 -1.216052 0.000000
131.976940 7.579797 -1.199941 0.000000
136.333860 7.528773 -1.143870 0.000000
143.504120 7.460090 -1.067312 0.000000
124.773290 7.789499 -1.260824 0.000000
126.530160 7.755639 -1.243660 0.000000
136.604080 7.986340 -1.166417 0.000000
143.707060 8.011875 -1.076277 0.000000
124.680060 8.180418 -1.271257 0.000000
126.507160 8.110251 -1.256072 0.000000
128.864930 8.261373 -1.244934 0.000000
132.108430 8.272201 -1.222771 0.000000
136.850800 8.451233 -1.187763 0.000000
143.033250 8.406846 -1.036447 0.000000
136.634550 8.806322 -1.173267 0.000000
128.147060 9.522889 -1.043416 0.000000
128.147260 9.517190 -0.548381 0.000000
128.147400 9.513415 -0.219972 0.000000
128.147540 9.509649 0.107625 0.000000
128.147920 9.504093 0.598182 0.000000
128.148510 9.498638 1.088693 0.000000
128.148910 9.495005 1.416197 0.000000
128.500980 9.369064 1.428473 0.000000
128.467800 9.948471 1.446796 0.000000
120.774540 0.215350 1.599190 0.000000
128.149310 9.491356 1.744467 0.000000
128.500350 9.364815 1.762449 0.000000
128.467880 9.944604 1.785702 0.000000
128.149720 9.487693 2.073820 0.000000
128.499730 9.360550 2.097477 0.000000
128.466190 9.939822 2.125509 0.000000
128.150330 9.482175 2.570807 0.000000
128.150940 9.476608 3.071581 0.000000
127.287650 -13.741652 -1.800647 0.000000
127.711800 -13.748650 -1.824029 0.000000
135.286580 -13.729691 -1.764621 0.000000
127.910960 -13.417637 -1.799935 0.000000
135.856550 -13.348110 -1.770624 0.000000
120.886410 -13.085716 -1.849324 0.000000
128.173720 -13.184124 -1.790323 0.000000
128.432980 -12.948027 -1.780911 0.000000
136.157650 -13.022190 -1.765652 0.000000
121.263370 -12.819410 -1.822576 0.000000
121.561540 -12.801886 -1.829748 0.000000
122.088730 -12.551620 -1.813468 0.000000
128.683900 -12.703094 -1.770764 0.000000
136.451070 -12.689039 -1.760378 0.000000
136.928800 -12.494577 -1.776837 0.000000
122.475530 -12.349783 -1.800794 0.000000
122.856210 -12.139021 -1.787964 0.000000
128.866780 -12.375895 -1.748788 0.000000
129.098330 -12.114685 -1.737133 0.000000
123.228290 -11.915956 -1.774722 0.000000
123.593440 -11.683943 -1.761260 0.000000
129.402450 -11.940224 -1.739368 0.000000
129.631090 -11.677980 -1.728743 0.000000
136.784730 -11.834139 -1.723064 0.000000
137.192930 -11.584484 -1.732739 0.000000
123.983720 -11.507978 -1.758222 0.000000
129.853580 -11.411310 -1.717941 0.000000
137.525070 -11.275198 -1.734245 0.000000
124.311230 -11.212912 -1.737353 0.000000
124.783700 -10.896938 -1.724090 0.000000
130.070920 -11.141556 -1.707153 0.000000
125.020880 -10.742125 -1.718903 0.000000
125.251140 -10.576990 -1.712619 0.000000
130.479830 -10.583164 -1.683976 0.000000
130.780350 -10.397640 -1.688855 0.000000
137.212250 -10.540154 -1.666661 0.000000
120.839820 -10.151693 -1.742512 0.000000
125.582600 -10.310665 -1.701245 0.000000
125.905830 -10.035549 -1.689522 0.000000
130.881990 -10.027740 -1.663199 0.000000
137.484890 -10.200762 -1.663654 0.000000
121.280910 -9.946131 -1.728895 0.000000
121.605820 -9.782017 -1.718445 0.000000
126.115850 -9.846693 -1.681521 0.000000
126.321900 -9.654167 -1.673438 0.000000
131.069990 -9.741350 -1.652040 0.000000
137.657500 -9.798817 -1.650707 0.000000
121.819380 -9.668020 -1.711465 0.000000
122.133900 -9.487844 -1.700534 0.000000
122.443300 -9.300816 -1.689538 0.000000
126.523790 -9.457912 -1.665245 0.000000
126.721630 -9.258264 -1.656990 0.000000
131.251710 -9.451830 -1.640782 0.000000
137.366880 -9.130062 -1.590706 0.000000
122.645310 -9.170128 -1.681886 0.000000
122.939500 -8.961567 -1.669221 0.000000
126.916540 -9.056650 -1.648920 0.000000
127.116240 -8.861704 -1.642639 0.000000
131.424870 -9.157486 -1.629095 0.000000
137.700410 -8.833176 -1.596385 0.000000
123.240750 -8.769218 -1.660755 0.000000
123.561530 -8.610931 -1.660330 0.000000
127.316000 -8.667438 -1.637082 0.000000
127.511870 -8.469480 -1.631430 0.000000
131.785580 -8.586286 -1.610254 0.000000
137.606410 -8.301554 -1.559338 0.000000
123.963060 -8.355448 -1.653447 0.000000
124.257260 -8.153364 -1.647836 0.000000
127.704120 -8.268246 -1.625749 0.000000
127.886660 -8.057941 -1.618887 0.000000
132.042340 -8.151568 -1.596264 0.000000
137.993960 -8.030205 -1.571550 0.000000
121.133660 -7.768432 -1.640629 0.000000
124.450190 -8.014174 -1.644054 0.000000
124.735210 -7.799606 -1.638487 0.000000
128.076980 -7.855684 -1.614208 0.000000
128.255280 -7.642531 -1.607946 0.000000
132.287290 -7.711350 -1.582148 0.000000
137.890200 -7.508835 -1.535670 0.000000
121.426670 -7.668042 -1.641893 0.000000
121.717450 -7.559047 -1.643084 0.000000
122.102020 -7.402615 -1.644642 0.000000
122.387590 -7.276488 -1.645681 0.000000
125.015400 -7.578844 -1.632926 0.000000
125.289390 -7.350518 -1.627384 0.000000
128.504700 -7.308369 -1.596692 0.000000
132.443700 -7.415093 -1.572797 0.000000
132.689130 -7.176088 -1.575953 0.000000
138.281250 -7.232479 -1.549143 0.000000
122.576500 -7.188040 -1.646372 0.000000
122.857150 -7.048336 -1.647289 0.000000
123.135380 -6.902297 -1.648237 0.000000
125.646320 -7.036371 -1.620058 0.000000
128.745760 -6.969079 -1.585414 0.000000
138.235230 -6.750926 -1.520824 0.000000
123.318970 -6.800467 -1.648828 0.000000
123.585080 -6.632725 -1.647729 0.000000
125.993120 -6.711097 -1.612871 0.000000
126.242060 -6.455797 -1.606528 0.000000
128.902500 -6.740924 -1.578172 0.000000
129.054500 -6.509975 -1.570836 0.000000
132.883910 -6.516125 -1.545323 0.000000
123.999150 -6.312184 -1.639787 0.000000
126.492890 -6.202189 -1.602188 0.000000
129.281890 -6.164522 -1.561130 0.000000
133.020720 -6.213160 -1.536330 0.000000
138.076780 -6.230351 -1.482935 0.000000
138.357800 -5.902070 -1.487611 0.000000
124.399830 -5.975146 -1.631700 0.000000
124.633350 -5.764992 -1.626855 0.000000
126.812050 -5.849507 -1.595165 0.000000
129.601300 -5.716213 -1.553059 0.000000
133.154430 -5.722810 -1.515284 0.000000
124.861280 -5.548799 -1.622117 0.000000
125.080520 -5.323844 -1.616415 0.000000
127.120000 -5.486789 -1.588307 0.000000
129.834050 -5.374917 -1.547439 0.000000
133.488140 -5.337953 -1.520530 0.000000
138.290040 -5.433624 -1.460243 0.000000
138.656590 -5.133359 -1.473883 0.000000
125.301350 -5.100304 -1.612714 0.000000
125.513290 -4.868284 -1.608066 0.000000
127.343610 -5.208500 -1.583231 0.000000
127.488690 -5.019721 -1.579884 0.000000
130.057420 -5.027089 -1.541864 0.000000
133.475510 -4.966596 -1.496043 0.000000
125.681850 -4.465468 -1.577558 0.000000
127.699810 -4.587766 -1.560038 0.000000
130.213750 -4.641117 -1.527268 0.000000
138.455350 -4.626834 -1.435986 0.000000
125.704800 -4.220205 -1.549734 0.000000
127.675520 -4.289333 -1.527013 0.000000
130.046650 -4.240476 -1.477625 0.000000
130.182860 -4.008441 -1.474820 0.000000
133.632220 -4.144244 -1.461585 0.000000
138.522400 -4.221452 -1.423519 0.000000
125.732880 -3.859107 -1.509257 0.000000
127.685460 -3.884642 -1.488664 0.000000
130.220980 -3.727681 -1.458129 0.000000
133.553190 -3.591982 -1.422950 0.000000
125.843120 -3.445705 -1.475378 0.000000
127.774950 -3.537709 -1.466996 0.000000
138.639210 -3.412305 -1.399183 0.000000
126.435300 8.731268 -1.298579 0.000000
128.324390 8.754782 -1.287818 0.000000
133.907680 8.620552 -1.232577 0.000000
126.497610 9.001397 -1.327464 0.000000
128.452990 9.076896 -1.321662 0.000000
131.048680 9.151640 -1.319325 0.000000
134.223880 9.065575 -1.271776 0.000000
126.590320 9.422064 -1.373106 0.000000
128.167220 9.453415 -1.305940 0.000000
128.632140 9.435949 -1.364722 0.000000
131.363710 9.592009 -1.371409 0.000000
134.208630 9.407544 -1.277437 0.000000
139.153790 9.436947 -1.241922 0.000000
126.716450 9.881978 -1.427866 0.000000
128.165530 9.720462 -1.321709 0.000000
131.576400 10.002934 -1.411408 0.000000
134.355130 9.814806 -1.300712 0.000000
126.794880 10.198122 -1.465237 0.000000
131.757600 10.412750 -1.448478 0.000000
134.473910 10.221542 -1.321962 0.000000
140.253020 10.198301 -1.333813 0.000000
126.813220 10.620124 -1.504522 0.000000
129.186400 10.603100 -1.505196 0.000000
126.755070 10.998346 -1.530952 0.000000
129.248580 10.945175 -1.535003 0.000000
132.216160 10.976151 -1.523641 0.000000
141.424910 11.029579 -1.432655 0.000000
138.310790 -3.732282 -1.386823 0.000000
127.813810 -3.298346 -1.449995 0.000000
133.412920 -3.200124 -1.388359 0.000000
125.923050 -3.025059 -1.438918 0.000000
127.842370 -2.930098 -1.421080 0.000000
130.253450 -3.013336 -1.411225 0.000000
133.535710 -2.909485 -1.385007 0.000000
138.353120 -2.917520 -1.357745 0.000000
145.612920 -2.750931 -1.269767 0.000000
126.051840 -2.646317 -1.416438 0.000000
127.916370 -2.592053 -1.401880 0.000000
130.289180 -2.602447 -1.387844 0.000000
133.525880 -2.574614 -1.367169 0.000000
138.209730 -2.473384 -1.329930 0.000000
126.142270 -2.363035 -1.400266 0.000000
126.197340 -2.173518 -1.389447 0.000000
127.980630 -2.254869 -1.382968 0.000000
130.321620 -2.197946 -1.365998 0.000000
133.663010 -2.289267 -1.366678 0.000000
144.750320 -2.069266 -1.201340 0.000000
126.273440 -1.889137 -1.373420 0.000000
128.056300 -1.807933 -1.358604 0.000000
130.346070 -1.796175 -1.344574 0.000000
133.478900 -1.749313 -1.323648 0.000000
138.011510 -1.630518 -1.284659 0.000000
143.992680 -1.438870 -1.140926 0.000000
126.398940 -1.421731 -1.350063 0.000000
128.109440 -1.476179 -1.341573 0.000000
128.162540 -1.263857 -1.334048 0.000000
130.378520 -1.403448 -1.326096 0.000000
137.847020 -1.206214 -1.257665 0.000000
144.720030 -1.052260 -1.173395 0.000000
126.512220 -1.057964 -1.336596 0.000000
126.566270 -0.876192 -1.330437 0.000000
128.237720 -0.945559 -1.323323 0.000000
130.442290 -1.024293 -1.313257 0.000000
133.476100 -0.957376 -1.289527 0.000000
137.739780 -0.800828 -1.236390 0.000000
126.640290 -0.602138 -1.321140 0.000000
128.324450 -0.519511 -1.308974 0.000000
130.495910 -0.645190 -1.300663 0.000000
133.463260 -0.643023 -1.275860 0.000000
137.749390 -0.420586 -1.225736 0.000000
144.603580 -0.535739 -1.154195 0.000000
126.727810 -0.234922 -1.308759 0.000000
128.379030 -0.198948 -1.298131 0.000000
130.527370 -0.263009 -1.286411 0.000000
130.528870 -0.005841 -1.275208 0.000000
133.309540 0.000390 -1.236852 0.000000
133.446350 -0.330686 -1.262445 0.000000
137.708330 -0.034874 -1.211460 0.000000
144.506070 -0.027616 -1.136862 0.000000
126.801510 0.134105 -1.296337 0.000000
128.424650 0.121875 -1.287448 0.000000
130.526260 0.250256 -1.264128 0.000000
133.530260 0.267025 -1.250178 0.000000
137.500780 0.368434 -1.183979 0.000000
144.408810 0.475174 -1.120224 0.000000
126.861790 0.504322 -1.283953 0.000000
128.450820 0.554291 -1.269931 0.000000
130.512080 0.632481 -1.247476 0.000000
133.362900 0.595439 -1.222730 0.000000
137.377720 0.753595 -1.164299 0.000000
144.311940 0.972927 -1.104276 0.000000
126.903760 0.970574 -1.266123 0.000000
128.451860 0.986659 -1.251090 0.000000
130.490450 1.012104 -1.231146 0.000000
133.281880 1.202730 -1.196844 0.000000
133.325060 0.900126 -1.209747 0.000000
126.910030 1.438382 -1.245612 0.000000
128.438030 1.415962 -1.232501 0.000000
130.458450 1.388502 -1.215064 0.000000
133.235640 1.502972 -1.184258 0.000000
137.595470 1.473060 -1.165093 0.000000
144.215550 1.466009 -1.089007 0.000000
126.904840 1.809528 -1.230270 0.000000
128.420260 1.840776 -1.215755 0.000000
130.422910 1.884181 -1.196570 0.000000
133.183980 1.801031 -1.171733 0.000000
137.476780 1.849621 -1.147650 0.000000
126.940220 2.174111 -1.224249 0.000000
128.458360 2.257893 -1.209679 0.000000
130.454220 2.249121 -1.191495 0.000000
133.166350 2.240186 -1.160377 0.000000
137.493520 2.216162 -1.141884 0.000000
144.112110 2.437622 -1.065649 0.000000
126.976630 2.538923 -1.220651 0.000000
128.487270 2.571063 -1.206569 0.000000
128.502300 2.780413 -1.204610 0.000000
130.476350 2.492631 -1.189013 0.000000
130.495900 2.736632 -1.186759 0.000000
133.123550 2.678682 -1.147566 0.000000
137.510270 2.582783 -1.136679 0.000000
144.154220 2.919702 -1.060376 0.000000
127.000540 2.905212 -1.217157 0.000000
128.513280 2.990138 -1.202610 0.000000
130.508530 2.981149 -1.184192 0.000000
133.122360 2.969107 -1.142609 0.000000
137.527080 2.949720 -1.132032 0.000000
127.012160 3.364541 -1.212961 0.000000
128.522740 3.305326 -1.199699 0.000000
130.507390 3.348291 -1.178958 0.000000
133.120060 3.404672 -1.136231 0.000000
137.528520 3.500695 -1.124257 0.000000
144.187380 3.403069 -1.055109 0.000000
127.005070 3.824634 -1.208886 0.000000
128.518050 3.725901 -1.195151 0.000000
130.491940 3.837654 -1.172113 0.000000
133.117480 3.840569 -1.130930 0.000000
137.526760 4.052175 -1.117338 0.000000
144.214550 3.887624 -1.050026 0.000000
126.980530 4.192268 -1.205080 0.000000
128.490080 4.145696 -1.189448 0.000000
130.470290 4.204332 -1.167134 0.000000
133.156490 4.281076 -1.131242 0.000000
137.525630 4.420534 -1.113468 0.000000
144.232710 4.373228 -1.044953 0.000000
126.936930 4.558254 -1.200323 0.000000
128.447630 4.564394 -1.183886 0.000000
130.438550 4.570403 -1.162309 0.000000
133.173220 4.722182 -1.130380 0.000000
137.524430 4.789697 -1.110147 0.000000
126.880560 4.922599 -1.195677 0.000000
128.391050 4.981555 -1.178515 0.000000
130.380870 5.057004 -1.155846 0.000000
133.144640 5.013547 -1.126503 0.000000
137.523180 5.159898 -1.107376 0.000000
144.378010 5.358231 -1.042709 0.000000
126.826380 5.383279 -1.195979 0.000000
128.362400 5.405368 -1.179522 0.000000
130.383360 5.430440 -1.158084 0.000000
133.213120 5.616624 -1.133193 0.000000
126.808550 5.857692 -1.205929 0.000000
128.372420 5.842099 -1.188563 0.000000
130.417820 5.814140 -1.165739 0.000000
133.306210 5.932504 -1.143370 0.000000
137.212490 5.862035 -1.079025 0.000000
144.535430 5.865170 -1.047246 0.000000
126.779590 6.239876 -1.214248 0.000000
128.367750 6.282762 -1.197872 0.000000
130.445110 6.201416 -1.173694 0.000000
133.543490 6.281137 -1.168804 0.000000
137.300320 6.245061 -1.085012 0.000000
144.694530 6.379588 -1.052378 0.000000
126.738200 6.624029 -1.222944 0.000000
128.356690 6.616014 -1.205290 0.000000
130.490920 6.600272 -1.185494 0.000000
133.360410 6.552375 -1.152056 0.000000
137.542050 6.659846 -1.103762 0.000000
144.855220 6.901937 -1.058110 0.000000
126.681430 7.008763 -1.231540 0.000000
128.336810 6.951590 -1.212988 0.000000
130.541720 7.007380 -1.199195 0.000000
133.565550 6.907573 -1.175450 0.000000
133.641910 7.241084 -1.186358 0.000000
137.684370 7.066618 -1.115187 0.000000
126.611890 7.394583 -1.240527 0.000000
128.327820 7.412776 -1.228101 0.000000
130.581390 7.420711 -1.213153 0.000000
133.715070 7.579290 -1.197589 0.000000
137.825030 7.480728 -1.127063 0.000000
145.017380 7.432625 -1.064446 0.000000
126.546800 7.789410 -1.253058 0.000000
128.308290 7.880995 -1.244397 0.000000
130.613070 7.839225 -1.227468 0.000000
138.089540 7.930954 -1.149382 0.000000
145.208770 7.976887 -1.072982 0.000000
126.475410 8.189531 -1.267333 0.000000
128.282760 8.234905 -1.256750 0.000000
130.632250 8.263294 -1.241955 0.000000
133.842860 8.267458 -1.220157 0.000000
138.330550 8.388246 -1.170474 0.000000
144.525510 8.364372 -1.032163 0.000000
128.260190 8.472305 -1.265111 0.000000
138.200380 8.759775 -1.162665 0.000000
128.167770 9.450305 -1.009713 0.000000
128.164980 9.716755 -1.022473 0.000000
128.168320 9.447212 -0.715054 0.000000
128.169110 9.442595 -0.275481 0.000000
128.163100 9.707260 -0.280989 0.000000
128.169940 9.437994 0.162391 0.000000
128.162090 9.701664 0.161025 0.000000
128.170610 9.435011 0.453637 0.000000
128.161620 9.698048 0.454945 0.000000
128.171840 9.430664 0.890355 0.000000
128.160950 9.692665 0.895553 0.000000
128.173070 9.426308 1.327630 0.000000
128.480910 9.324856 1.337914 0.000000
128.160340 9.687311 1.336603 0.000000
128.174320 9.421930 1.766650 0.000000
128.480120 9.319237 1.784057 0.000000
128.160140 9.682159 1.779302 0.000000
128.175570 9.417536 2.207906 0.000000
128.160030 9.677050 2.224175 0.000000
128.176410 9.414585 2.504062 0.000000
128.159900 9.673573 2.522685 0.000000
128.177230 9.411614 2.802056 0.000000
128.159550 9.669970 2.822962 0.000000
129.176410 -13.810999 -1.785342 0.000000
129.590190 -13.799160 -1.806439 0.000000
138.323090 -13.863949 -1.825116 0.000000
138.626300 -13.520927 -1.819666 0.000000
120.877170 -13.564344 -1.850219 0.000000
121.183730 -13.612814 -1.861834 0.000000
121.468870 -13.530542 -1.854953 0.000000
121.905110 -13.452688 -1.852689 0.000000
129.920380 -13.346754 -1.777793 0.000000
138.921280 -13.170671 -1.813907 0.000000
122.310920 -13.250439 -1.833338 0.000000
122.723080 -13.090445 -1.821842 0.000000
130.308440 -12.986645 -1.763360 0.000000
139.407230 -12.964632 -1.830649 0.000000
123.547150 -12.788141 -1.805711 0.000000
123.928450 -12.557558 -1.787684 0.000000
130.683610 -12.615574 -1.748717 0.000000
124.319830 -12.364979 -1.776964 0.000000
124.705380 -12.162947 -1.766037 0.000000
131.126280 -12.059139 -1.721681 0.000000
139.022050 -12.110039 -1.749252 0.000000
125.086180 -11.955555 -1.755829 0.000000
125.470910 -11.759922 -1.748714 0.000000
125.780430 -11.735088 -1.761587 0.000000
131.504260 -11.703741 -1.712093 0.000000
139.210070 -11.694395 -1.734382 0.000000
125.976490 -11.486563 -1.739611 0.000000
126.217500 -11.329021 -1.732674 0.000000
131.836910 -11.301189 -1.696605 0.000000
139.439530 -11.310528 -1.724956 0.000000
126.689370 -11.001080 -1.718527 0.000000
126.918610 -10.828495 -1.710934 0.000000
121.059690 -10.718880 -1.757475 0.000000
121.529270 -10.571966 -1.745766 0.000000
127.143810 -10.651323 -1.703164 0.000000
127.366020 -10.471378 -1.695507 0.000000
132.359210 -10.608383 -1.669584 0.000000
132.663910 -10.425117 -1.675391 0.000000
139.116210 -10.566254 -1.656777 0.000000
121.876370 -10.448801 -1.736353 0.000000
122.219250 -10.317602 -1.727132 0.000000
122.668480 -10.125731 -1.713977 0.000000
127.583950 -10.286865 -1.687652 0.000000
127.797330 -10.097696 -1.679568 0.000000
132.764360 -10.052319 -1.649904 0.000000
139.381770 -10.220568 -1.653496 0.000000
123.108210 -9.916573 -1.700260 0.000000
123.431930 -9.749773 -1.689737 0.000000
128.006870 -9.905079 -1.671445 0.000000
128.212430 -9.708956 -1.663264 0.000000
132.953610 -9.765325 -1.639257 0.000000
139.546480 -9.812170 -1.640218 0.000000
123.646070 -9.637480 -1.683330 0.000000
123.967870 -9.473623 -1.675761 0.000000
124.286050 -9.304159 -1.668411 0.000000
128.413730 -9.509172 -1.654980 0.000000
128.610700 -9.305817 -1.646597 0.000000
133.137150 -9.475658 -1.628594 0.000000
133.314120 -9.182726 -1.617791 0.000000
139.246750 -9.136526 -1.579801 0.000000
124.595940 -9.120506 -1.660000 0.000000
124.905210 -8.937744 -1.652972 0.000000
128.868610 -9.174543 -1.651939 0.000000
129.000950 -8.899450 -1.631517 0.000000
139.570100 -8.832821 -1.584954 0.000000
121.056400 -8.564730 -1.670995 0.000000
125.110420 -8.815012 -1.648947 0.000000
125.414030 -8.624569 -1.642960 0.000000
129.199750 -8.702023 -1.625892 0.000000
129.394580 -8.500948 -1.620176 0.000000
133.668700 -8.603460 -1.598725 0.000000
139.469270 -8.296515 -1.547742 0.000000
121.447490 -8.413229 -1.657537 0.000000
121.836210 -8.263735 -1.646920 0.000000
122.238350 -8.158386 -1.647556 0.000000
122.540080 -8.075931 -1.649018 0.000000
125.810590 -8.358620 -1.634754 0.000000
126.101680 -8.150515 -1.628474 0.000000
129.585600 -8.296560 -1.614416 0.000000
129.759810 -8.076365 -1.606142 0.000000
133.921940 -8.164064 -1.584769 0.000000
139.851210 -8.021597 -1.559941 0.000000
122.740300 -8.016203 -1.649941 0.000000
123.039180 -7.919836 -1.651319 0.000000
123.434210 -7.778453 -1.652811 0.000000
126.291920 -8.006802 -1.624130 0.000000
126.571980 -7.784862 -1.617564 0.000000
129.940140 -7.863276 -1.599802 0.000000
130.110290 -7.641639 -1.592296 0.000000
134.144120 -7.706347 -1.568093 0.000000
139.740520 -7.496119 -1.523905 0.000000
123.810040 -7.593921 -1.648052 0.000000
124.174620 -7.388024 -1.641378 0.000000
126.846240 -7.556191 -1.610854 0.000000
127.112210 -7.318396 -1.603768 0.000000
130.356860 -7.303827 -1.580973 0.000000
134.291700 -7.403617 -1.557968 0.000000
134.527690 -7.158237 -1.560292 0.000000
140.112820 -7.210546 -1.536123 0.000000
124.443470 -7.226086 -1.636353 0.000000
124.707570 -7.056881 -1.631336 0.000000
124.968040 -6.882384 -1.626423 0.000000
127.449780 -6.983573 -1.592517 0.000000
130.594420 -6.960637 -1.569543 0.000000
140.008220 -6.702570 -1.502720 0.000000
125.139040 -6.762318 -1.623163 0.000000
125.391140 -6.576327 -1.618206 0.000000
127.784140 -6.647418 -1.583335 0.000000
130.748570 -6.729889 -1.562178 0.000000
130.898440 -6.496849 -1.554813 0.000000
134.699140 -6.484224 -1.527546 0.000000
125.639110 -6.385045 -1.613303 0.000000
125.881710 -6.187172 -1.608448 0.000000
128.030090 -6.391210 -1.577042 0.000000
128.277850 -6.136839 -1.572754 0.000000
131.114590 -6.142868 -1.543763 0.000000
134.825120 -6.175523 -1.517652 0.000000
139.815960 -6.168596 -1.462193 0.000000
126.274820 -5.844428 -1.600431 0.000000
128.592800 -5.783335 -1.565809 0.000000
131.321910 -5.784620 -1.532699 0.000000
134.827700 -5.802372 -1.492992 0.000000
135.052890 -5.550279 -1.497059 0.000000
140.089610 -5.839185 -1.466845 0.000000
126.654420 -5.487038 -1.592524 0.000000
126.871190 -5.261579 -1.586871 0.000000
128.822110 -5.512168 -1.560736 0.000000
128.970700 -5.327849 -1.557323 0.000000
131.521240 -5.423325 -1.522124 0.000000
135.277220 -5.294456 -1.501437 0.000000
140.016040 -5.370399 -1.439546 0.000000
140.374220 -5.069184 -1.453113 0.000000
127.089470 -5.037643 -1.583217 0.000000
129.116680 -5.141425 -1.554016 0.000000
129.259490 -4.952516 -1.550711 0.000000
131.733020 -5.071052 -1.514882 0.000000
135.230470 -4.907882 -1.473294 0.000000
127.388320 -4.608119 -1.564556 0.000000
129.401520 -4.476770 -1.518745 0.000000
131.897920 -4.535992 -1.489633 0.000000
140.175630 -4.565682 -1.416027 0.000000
127.423620 -4.238947 -1.522601 0.000000
129.395220 -4.193229 -1.489741 0.000000
131.913760 -4.084300 -1.456729 0.000000
135.407520 -4.097810 -1.442561 0.000000
140.235930 -4.160191 -1.403570 0.000000
127.519010 -3.801678 -1.481945 0.000000
129.494170 -3.847305 -1.468592 0.000000
132.015180 -3.686143 -1.438548 0.000000
135.348750 -3.555023 -1.406995 0.000000
127.667200 -3.417059 -1.457211 0.000000
129.584610 -3.501641 -1.447636 0.000000
132.146040 -3.453128 -1.436675 0.000000
140.407870 -3.371448 -1.385372 0.000000
128.181090 8.706650 -1.280709 0.000000
128.239240 8.972245 -1.309021 0.000000
130.208100 9.062527 -1.309579 0.000000
132.711840 9.104774 -1.299207 0.000000
135.697600 8.967360 -1.238186 0.000000
140.412840 9.298083 -1.203258 0.000000
128.203800 9.428793 -1.339816 0.000000
128.309400 9.252899 -1.340839 0.000000
130.385070 9.418663 -1.352748 0.000000
132.828120 9.453838 -1.325774 0.000000
135.678220 9.300821 -1.243659 0.000000
130.565340 9.789434 -1.397825 0.000000
132.875690 9.780624 -1.344256 0.000000
136.148040 9.823696 -1.301505 0.000000
141.649170 10.089718 -1.307792 0.000000
128.565670 10.180115 -1.453500 0.000000
130.634120 10.109823 -1.426195 0.000000
132.919850 10.112726 -1.363213 0.000000
136.355880 10.265224 -1.332758 0.000000
128.582820 10.598757 -1.492851 0.000000
130.929120 10.574039 -1.492989 0.000000
133.304370 10.624031 -1.428788 0.000000
142.833770 10.916478 -1.409352 0.000000
128.585140 11.021332 -1.531909 0.000000
130.984330 10.909605 -1.521951 0.000000
133.516240 11.066875 -1.472717 0.000000
140.087860 -3.692812 -1.373118 0.000000
129.631590 -3.267234 -1.432434 0.000000
135.206600 -3.163075 -1.372598 0.000000
127.755860 -3.002254 -1.423192 0.000000
129.670530 -2.904786 -1.405829 0.000000
132.067460 -2.982243 -1.395495 0.000000
135.311750 -2.867022 -1.367690 0.000000
140.111890 -2.875033 -1.343509 0.000000
127.884650 -2.623369 -1.401235 0.000000
129.741590 -2.565311 -1.386577 0.000000
132.106000 -2.572968 -1.373061 0.000000
135.260940 -2.519717 -1.345635 0.000000
139.964660 -2.431191 -1.315845 0.000000
127.972940 -2.338764 -1.385012 0.000000
128.027040 -2.148694 -1.374257 0.000000
129.805940 -2.228288 -1.368137 0.000000
132.135240 -2.167621 -1.351294 0.000000
135.362820 -2.225318 -1.341686 0.000000
128.103700 -1.864582 -1.358730 0.000000
129.878950 -1.780407 -1.343926 0.000000
132.155610 -1.764877 -1.329833 0.000000
135.171050 -1.527991 -1.291545 0.000000
135.195630 -1.852548 -1.308183 0.000000
139.527910 -1.539479 -1.250933 0.000000
145.622860 -1.383711 -1.126000 0.000000
128.229020 -1.397036 -1.335973 0.000000
129.934490 -1.449775 -1.327738 0.000000
129.986040 -1.236975 -1.320254 0.000000
132.190930 -1.373641 -1.312273 0.000000
139.432190 -1.134421 -1.230426 0.000000
128.341020 -1.032749 -1.322773 0.000000
128.393680 -0.850467 -1.316609 0.000000
130.058440 -0.917929 -1.309524 0.000000
132.251370 -0.994003 -1.299506 0.000000
135.204700 -0.909771 -1.269581 0.000000
139.322110 -0.732904 -1.209459 0.000000
128.465610 -0.575749 -1.307305 0.000000
130.141460 -0.491125 -1.295175 0.000000
132.270900 -0.606686 -1.282880 0.000000
135.187710 -0.596366 -1.255904 0.000000
139.326190 -0.356200 -1.198927 0.000000
128.550340 -0.207827 -1.294920 0.000000
130.184430 -0.167778 -1.282948 0.000000
132.277240 -0.092018 -1.260331 0.000000
135.028430 0.044286 -1.217101 0.000000
135.167040 -0.285187 -1.242514 0.000000
139.326130 0.019106 -1.188669 0.000000
128.619480 0.162176 -1.282180 0.000000
130.202730 0.158906 -1.268466 0.000000
132.271940 0.291150 -1.243752 0.000000
135.244320 0.309652 -1.230443 0.000000
139.159710 0.413512 -1.165080 0.000000
128.656920 0.537425 -1.266230 0.000000
130.215090 0.592343 -1.249445 0.000000
132.254500 0.671656 -1.227211 0.000000
135.074890 0.636342 -1.203121 0.000000
139.033450 0.796026 -1.145590 0.000000
128.679260 1.005986 -1.245603 0.000000
130.212830 1.022909 -1.230721 0.000000
132.229720 1.049408 -1.210997 0.000000
135.011150 1.089706 -1.183827 0.000000
128.682390 1.471836 -1.225214 0.000000
130.195880 1.450176 -1.212253 0.000000
132.194080 1.423821 -1.194953 0.000000
134.939180 1.538418 -1.164933 0.000000
139.238100 1.510275 -1.146446 0.000000
128.678340 1.840834 -1.210587 0.000000
130.179180 1.872365 -1.196251 0.000000
132.159520 1.916133 -1.177244 0.000000
134.887220 1.834289 -1.152753 0.000000
139.127720 1.883117 -1.130127 0.000000
128.714550 2.203303 -1.205231 0.000000
130.217910 2.286887 -1.190858 0.000000
132.192660 2.278469 -1.172919 0.000000
134.868960 2.270118 -1.141916 0.000000
139.139330 2.246712 -1.124452 0.000000
145.626620 2.467067 -1.049135 0.000000
128.748210 2.566261 -1.201672 0.000000
130.250790 2.702341 -1.186821 0.000000
132.211900 2.641866 -1.168222 0.000000
134.820790 2.705408 -1.129106 0.000000
139.150940 2.610214 -1.119333 0.000000
145.661000 2.943655 -1.044094 0.000000
128.772280 3.021765 -1.197395 0.000000
130.266040 3.119081 -1.182392 0.000000
132.216510 3.127037 -1.161164 0.000000
134.814470 3.137480 -1.122055 0.000000
139.167540 3.155840 -1.112693 0.000000
145.683840 3.421225 -1.038899 0.000000
128.776720 3.478337 -1.193036 0.000000
130.260770 3.431854 -1.177998 0.000000
132.209790 3.490848 -1.155988 0.000000
134.807630 3.569333 -1.116052 0.000000
139.179530 3.702223 -1.106779 0.000000
128.757370 3.843221 -1.188279 0.000000
130.246370 3.744345 -1.173660 0.000000
132.193390 3.854345 -1.150994 0.000000
134.802860 3.857387 -1.112761 0.000000
139.173290 4.066617 -1.102417 0.000000
145.702070 3.899662 -1.033965 0.000000
128.724110 4.207138 -1.183410 0.000000
130.215580 4.160272 -1.168033 0.000000
132.168670 4.217374 -1.146073 0.000000
134.837840 4.293741 -1.113242 0.000000
139.167050 4.431408 -1.098608 0.000000
145.711470 4.378832 -1.029044 0.000000
128.678600 4.569743 -1.178711 0.000000
130.170490 4.574903 -1.162545 0.000000
132.133700 4.579566 -1.141268 0.000000
134.850190 4.730451 -1.112491 0.000000
139.160800 4.796809 -1.095349 0.000000
128.603580 5.020365 -1.173034 0.000000
130.111500 4.987816 -1.157250 0.000000
132.090360 4.940859 -1.136531 0.000000
134.818180 5.018683 -1.108600 0.000000
139.154430 5.163061 -1.092633 0.000000
128.561550 5.479944 -1.176319 0.000000
130.080320 5.407121 -1.158320 0.000000
132.071660 5.429949 -1.137146 0.000000
134.837860 5.608557 -1.111055 0.000000
128.543700 5.855939 -1.184409 0.000000
130.086870 5.838862 -1.167298 0.000000
132.110320 5.810650 -1.145773 0.000000
134.918300 5.918529 -1.120366 0.000000
138.840150 5.857688 -1.064659 0.000000
128.512940 6.233892 -1.192722 0.000000
130.078960 6.274270 -1.176543 0.000000
132.168780 6.201156 -1.158076 0.000000
135.124480 6.257203 -1.143165 0.000000
138.921170 6.236013 -1.070625 0.000000
128.468520 6.613179 -1.201163 0.000000
130.079480 6.607617 -1.186001 0.000000
132.222640 6.599035 -1.171350 0.000000
134.958300 6.527462 -1.128321 0.000000
135.136540 6.872213 -1.149472 0.000000
139.081790 6.632950 -1.083527 0.000000
128.415820 6.995529 -1.210719 0.000000
130.084500 6.948348 -1.197752 0.000000
132.268890 7.002040 -1.184943 0.000000
135.200550 7.197865 -1.159506 0.000000
139.117920 7.014171 -1.087009 0.000000
128.370860 7.387993 -1.224330 0.000000
130.077380 7.406852 -1.213575 0.000000
132.304600 7.411113 -1.198851 0.000000
135.261460 7.527732 -1.169860 0.000000
139.249820 7.419197 -1.098753 0.000000
128.312410 7.782826 -1.238318 0.000000
130.054290 7.870277 -1.229732 0.000000
132.332230 7.825103 -1.213090 0.000000
135.190960 7.825566 -1.167245 0.000000
139.501210 7.858943 -1.120702 0.000000
128.218800 8.278198 -1.256031 0.000000
128.259250 8.079840 -1.248911 0.000000
130.026180 8.220398 -1.241973 0.000000
132.346150 8.243853 -1.227320 0.000000
135.368300 8.198759 -1.190995 0.000000
139.729430 8.305288 -1.141429 0.000000
128.174760 8.476847 -1.263236 0.000000
130.001970 8.455166 -1.250255 0.000000
139.496020 8.641524 -1.125595 0.000000
128.204210 9.426405 -1.076747 0.000000
128.122130 9.618367 -1.080180 0.000000
128.204620 9.424028 -0.815330 0.000000
128.122150 9.614479 -0.687465 0.000000
128.205410 9.419311 -0.296416 0.000000
128.122180 9.610620 -0.297326 0.000000
128.206010 9.415793 0.090274 0.000000
128.122190 9.606784 0.090546 0.000000
128.206620 9.412287 0.475940 0.000000
128.122220 9.602964 0.477355 0.000000
128.207210 9.408785 0.861246 0.000000
128.122250 9.599138 0.863754 0.000000
128.208010 9.404110 1.375941 0.000000
128.482270 9.331924 1.387172 0.000000
128.122280 9.594036 1.379848 0.000000
120.856900 -4.505358 1.365060 0.000000
128.208620 9.400592 1.763608 0.000000
128.481960 9.327704 1.781098 0.000000
128.122300 9.590189 1.768518 0.000000
128.209230 9.397039 2.154004 0.000000
128.481490 9.324709 2.045024 0.000000
128.122340 9.586322 2.159879 0.000000
128.209840 9.393472 2.547363 0.000000
128.122360 9.582424 2.554168 0.000000
123.019760 -13.764898 -1.844165 0.000000
123.307380 -13.679310 -1.837084 0.000000
131.745640 -13.656614 -1.772233 0.000000
141.331850 -13.617647 -1.844699 0.000000
123.749150 -13.605234 -1.835723 0.000000
124.161570 -13.410706 -1.818104 0.000000
124.442510 -13.313038 -1.811911 0.000000
132.133870 -13.283968 -1.756992 0.000000
141.600680 -13.230040 -1.836273 0.000000
124.721020 -13.209663 -1.805535 0.000000
125.269890 -12.985151 -1.792109 0.000000
125.575230 -12.967440 -1.800489 0.000000
132.512920 -12.904835 -1.741916 0.000000
125.817370 -12.766239 -1.782119 0.000000
126.091370 -12.659254 -1.778487 0.000000
126.497340 -12.486895 -1.772578 0.000000
132.696180 -12.569267 -1.720340 0.000000
141.181340 -12.340208 -1.752000 0.000000
126.897150 -12.301176 -1.765959 0.000000
127.154150 -12.157490 -1.759359 0.000000
133.233180 -12.118483 -1.711388 0.000000
141.359920 -11.908577 -1.736353 0.000000
127.407490 -12.008060 -1.752495 0.000000
127.810070 -11.832396 -1.751048 0.000000
133.462660 -11.849277 -1.701188 0.000000
133.685650 -11.575556 -1.690800 0.000000
141.581700 -11.510593 -1.726338 0.000000
128.146870 -11.531359 -1.731154 0.000000
133.902910 -11.298336 -1.680361 0.000000
120.933720 -11.211481 -1.778899 0.000000
121.675160 -11.093319 -1.764424 0.000000
122.163380 -10.989410 -1.753908 0.000000
122.526050 -10.899813 -1.745716 0.000000
128.621660 -11.190771 -1.716329 0.000000
128.965910 -10.921288 -1.704558 0.000000
134.210020 -11.113926 -1.685337 0.000000
134.342120 -10.755421 -1.662855 0.000000
141.233800 -10.741968 -1.656425 0.000000
122.884510 -10.797333 -1.736991 0.000000
123.356510 -10.645302 -1.724916 0.000000
123.707050 -10.525143 -1.716423 0.000000
129.302610 -10.644150 -1.692687 0.000000
129.521450 -10.453732 -1.684591 0.000000
141.492370 -10.384150 -1.652676 0.000000
124.054480 -10.400021 -1.708680 0.000000
124.517940 -10.238802 -1.701462 0.000000
124.861370 -10.107742 -1.695914 0.000000
129.735460 -10.258482 -1.676239 0.000000
129.945340 -10.059689 -1.667835 0.000000
134.956280 -10.142780 -1.655367 0.000000
141.646710 -9.962131 -1.638725 0.000000
125.086110 -10.009953 -1.691262 0.000000
125.307920 -9.905945 -1.686154 0.000000
125.636880 -9.743694 -1.678643 0.000000
130.150940 -9.857264 -1.659349 0.000000
130.352110 -9.651260 -1.650775 0.000000
135.263530 -9.721071 -1.643481 0.000000
126.066340 -9.511128 -1.667815 0.000000
126.381430 -9.325615 -1.659234 0.000000
130.549270 -9.442297 -1.642208 0.000000
130.808010 -9.306368 -1.647404 0.000000
135.273820 -9.282951 -1.608303 0.000000
141.325320 -9.267090 -1.576963 0.000000
120.813160 -9.104509 -1.703057 0.000000
121.235890 -9.045177 -1.694940 0.000000
121.654530 -8.965149 -1.685512 0.000000
121.965210 -8.891504 -1.677472 0.000000
126.587970 -9.196896 -1.653405 0.000000
126.894420 -9.000191 -1.645205 0.000000
130.930710 -9.015150 -1.624980 0.000000
131.127090 -8.810259 -1.618766 0.000000
135.384020 -8.935270 -1.589031 0.000000
135.637440 -8.701738 -1.591011 0.000000
141.597820 -8.928604 -1.577277 0.000000
122.170250 -8.835197 -1.671593 0.000000
122.474790 -8.742874 -1.662539 0.000000
122.883120 -8.638615 -1.656189 0.000000
123.298710 -8.563339 -1.658028 0.000000
123.607140 -8.490704 -1.657944 0.000000
127.302710 -8.740463 -1.636794 0.000000
127.603070 -8.537477 -1.630499 0.000000
131.313020 -8.595354 -1.611242 0.000000
131.494720 -8.377512 -1.603691 0.000000
135.799850 -8.399090 -1.580822 0.000000
141.483430 -8.380058 -1.539468 0.000000
123.806390 -8.420605 -1.654540 0.000000
124.102490 -8.308628 -1.649370 0.000000
124.492590 -8.148786 -1.642512 0.000000
127.799740 -8.397341 -1.626209 0.000000
128.089260 -8.180225 -1.619667 0.000000
131.666000 -8.150831 -1.594950 0.000000
135.956710 -8.094564 -1.570679 0.000000
141.861760 -8.098526 -1.551669 0.000000
124.876730 -7.976375 -1.635683 0.000000
125.254390 -7.791328 -1.628828 0.000000
125.533450 -7.644944 -1.623712 0.000000
128.465210 -7.878622 -1.610595 0.000000
128.734380 -7.637426 -1.602271 0.000000
131.844990 -7.933068 -1.588465 0.000000
132.014420 -7.707524 -1.580970 0.000000
136.106410 -7.787192 -1.560372 0.000000
141.685820 -7.536551 -1.510044 0.000000
125.717170 -7.543372 -1.620317 0.000000
125.989200 -7.385216 -1.615269 0.000000
128.907750 -7.470327 -1.596198 0.000000
129.078110 -7.300690 -1.590163 0.000000
132.179870 -7.479713 -1.573525 0.000000
132.340530 -7.249028 -1.565994 0.000000
136.250920 -7.478449 -1.550168 0.000000
142.013720 -7.226995 -1.518452 0.000000
126.432870 -7.106621 -1.606812 0.000000
126.780130 -6.872642 -1.600158 0.000000
