# .PCD v0.7 - Point Cloud Data file format
VERSION 0.7
FIELDS x y z intensity
SIZE 4 4 4 4
TYPE F F F F
COUNT 1 1 1 1
WIDTH 1202
HEIGHT 1
VIEWPOINT 0 0 0 1 0 0 0
POINTS 1202
DATA ascii
164.160920 2.149322 -0.898278 0.000000
168.465610 2.200637 -0.856649 0.000000
157.647130 2.546019 -0.947335 0.000000
159.206620 2.627925 -0.933049 0.000000
161.271900 2.615130 -0.915241 0.000000
164.106030 2.600285 -0.885035 0.000000
168.394670 2.577487 -0.845512 0.000000
157.670120 2.915289 -0.942960 0.000000
159.228300 3.051487 -0.928530 0.000000
161.288860 2.986817 -0.911289 0.000000
164.058720 3.047986 -0.873742 0.000000
168.408920 2.949494 -0.841676 0.000000
157.673310 3.377584 -0.936530 0.000000
159.231290 3.475537 -0.923578 0.000000
161.297160 3.482861 -0.906157 0.000000
164.055150 3.492443 -0.868294 0.000000
168.429350 3.508024 -0.836979 0.000000
157.657270 3.839259 -0.930211 0.000000
159.219470 3.793336 -0.919252 0.000000
161.292400 3.854959 -0.902386 0.000000
164.051010 3.936803 -0.863923 0.000000
168.449200 4.067602 -0.833364 0.000000
157.629380 4.207501 -0.925296 0.000000
159.198270 4.110452 -0.914998 0.000000
161.270130 4.226381 -0.897901 0.000000
164.048130 4.233272 -0.861749 0.000000
168.462970 4.441752 -0.831744 0.000000
157.588590 4.574290 -0.920501 0.000000
159.157780 4.531981 -0.909457 0.000000
161.235340 4.596748 -0.893029 0.000000
164.087550 4.682494 -0.863982 0.000000
168.480320 4.817236 -0.830967 0.000000
157.535110 4.939186 -0.915850 0.000000
159.102290 4.951471 -0.904022 0.000000
161.189770 4.965662 -0.888265 0.000000
164.095580 5.131429 -0.864212 0.000000
168.508040 5.195035 -0.831560 0.000000
157.450530 5.391993 -0.910173 0.000000
157.486630 5.211353 -0.912373 0.000000
159.032260 5.368438 -0.898748 0.000000
161.114320 5.455116 -0.882011 0.000000
164.053970 5.426966 -0.860437 0.000000
168.535770 5.574907 -0.832718 0.000000
157.413680 5.761626 -0.913644 0.000000
158.999360 5.792871 -0.901145 0.000000
161.104800 5.830051 -0.884500 0.000000
164.042970 5.877765 -0.861051 0.000000
157.383790 6.232066 -0.923697 0.000000
158.996080 6.227698 -0.910218 0.000000
161.126630 6.214373 -0.892306 0.000000
164.107730 6.343634 -0.870400 0.000000
168.167710 6.284166 -0.803863 0.000000
157.344120 6.609865 -0.931922 0.000000
158.977140 6.665213 -0.919449 0.000000
161.140810 6.601568 -0.900383 0.000000
168.231400 6.669669 -0.809528 0.000000
157.291230 6.988501 -0.940383 0.000000
158.955660 6.995501 -0.926860 0.000000
161.142150 6.991409 -0.908423 0.000000
163.994490 6.935759 -0.865036 0.000000
168.372510 7.072762 -0.821792 0.000000
157.222700 7.366668 -0.948682 0.000000
158.920900 7.325940 -0.933895 0.000000
161.120700 7.379531 -0.914890 0.000000
164.083970 7.421523 -0.880179 0.000000
168.377530 7.457390 -0.824070 0.000000
157.141330 7.744834 -0.957324 0.000000
158.860350 7.767153 -0.943305 0.000000
161.064010 7.761787 -0.918530 0.000000
164.050290 7.885126 -0.884172 0.000000
168.377490 7.843696 -0.826547 0.000000
157.019230 8.215764 -0.968142 0.000000
157.070980 8.027700 -0.963804 0.000000
158.759030 8.198843 -0.949148 0.000000
160.972600 8.270895 -0.923480 0.000000
163.891970 8.158556 -0.873859 0.000000
168.505310 8.261723 -0.839607 0.000000
156.925420 8.492243 -0.973045 0.000000
158.600390 8.731313 -0.955102 0.000000
158.666840 8.518820 -0.952667 0.000000
160.893830 8.652605 -0.927485 0.000000
163.984710 8.504702 -0.889664 0.000000
168.604870 8.680618 -0.851110 0.000000
156.816350 8.762723 -0.976469 0.000000
164.319690 9.268728 -0.938863 0.000000
168.437760 9.436734 -0.847292 0.000000
149.765880 9.385499 -0.011650 0.000000
149.890900 9.380803 -0.237998 0.000000
149.678360 9.470097 -0.091015 0.000000
149.763580 9.383879 0.349733 0.000000
149.886180 9.375940 0.347073 0.000000
149.676160 9.469648 0.345991 0.000000
149.761340 9.382378 0.708150 0.000000
149.883850 9.373537 0.635811 0.000000
149.673980 9.469196 0.778788 0.000000
149.759140 9.380959 1.065524 0.000000
149.879790 9.369347 1.139294 0.000000
149.673140 9.469526 0.994622 0.000000
149.756480 9.379244 1.496037 0.000000
149.671230 9.470504 1.500541 0.000000
149.754260 9.377800 1.858577 0.000000
149.873930 9.363306 1.864812 0.000000
149.669880 9.471205 1.866157 0.000000
154.228040 -13.789710 -1.675007 0.000000
154.549290 -13.762141 -1.680948 0.000000
160.123930 -13.787807 -1.497328 0.000000
160.474350 -13.668326 -1.502963 0.000000
155.090350 -13.402471 -1.650007 0.000000
167.062240 -13.514876 -1.354542 0.000000
155.461500 -13.066134 -1.618497 0.000000
160.567840 -13.173240 -1.457253 0.000000
167.221020 -13.075744 -1.332121 0.000000
155.844670 -12.778117 -1.595384 0.000000
156.071370 -12.530913 -1.572353 0.000000
160.948210 -12.503087 -1.410806 0.000000
167.374010 -12.639796 -1.310256 0.000000
156.291730 -12.281269 -1.549419 0.000000
161.194990 -12.254414 -1.400406 0.000000
161.436800 -12.002079 -1.390017 0.000000
167.520320 -12.206088 -1.288813 0.000000
156.641820 -11.965928 -1.525083 0.000000
161.602950 -11.661394 -1.367173 0.000000
167.660320 -11.774812 -1.267818 0.000000
147.004820 -11.484756 -1.661508 0.000000
147.396670 -11.533846 -1.658688 0.000000
147.794190 -11.512194 -1.645817 0.000000
148.577030 -11.637778 -1.652877 0.000000
149.104250 -11.553741 -1.633220 0.000000
149.496370 -11.516551 -1.624562 0.000000
149.889760 -11.519233 -1.624274 0.000000
157.009950 -11.385611 -1.469258 0.000000
161.902730 -11.483868 -1.368843 0.000000
162.127820 -11.219611 -1.358264 0.000000
167.793550 -11.345513 -1.247194 0.000000
145.822560 -11.351760 -1.681759 0.000000
146.228200 -11.342931 -1.664360 0.000000
150.650940 -11.259313 -1.584295 0.000000
151.035950 -11.216825 -1.581051 0.000000
151.410510 -11.106196 -1.568208 0.000000
162.346790 -10.951134 -1.347552 0.000000
168.018910 -10.993297 -1.237819 0.000000
152.023180 -10.890964 -1.544784 0.000000
152.263720 -10.795336 -1.535006 0.000000
152.618850 -10.640884 -1.519780 0.000000
157.478180 -10.735275 -1.413215 0.000000
157.653290 -10.471052 -1.390781 0.000000
162.560580 -10.679742 -1.336887 0.000000
152.967560 -10.474294 -1.503778 0.000000
153.420790 -10.233773 -1.481597 0.000000
153.642520 -10.106783 -1.470269 0.000000
157.861790 -10.267180 -1.378499 0.000000
158.083270 -10.086390 -1.370513 0.000000
162.962390 -10.118602 -1.314112 0.000000
168.158080 -10.072889 -1.187995 0.000000
153.860290 -9.973845 -1.458514 0.000000
154.179410 -9.764999 -1.440411 0.000000
158.300630 -9.901324 -1.362396 0.000000
158.513610 -9.711874 -1.354114 0.000000
163.257890 -9.930761 -1.318478 0.000000
168.267760 -9.653344 -1.169075 0.000000
154.693440 -9.396995 -1.409398 0.000000
158.722920 -9.519218 -1.345851 0.000000
158.928360 -9.323246 -1.337579 0.000000
163.449550 -9.417438 -1.288341 0.000000
168.251360 -9.157276 -1.138087 0.000000
154.989030 -9.163121 -1.390227 0.000000
155.277020 -8.922977 -1.370984 0.000000
159.129730 -9.123833 -1.329263 0.000000
159.326920 -8.921012 -1.320897 0.000000
163.721240 -8.984766 -1.272167 0.000000
168.469670 -8.820961 -1.132381 0.000000
145.976150 -8.603125 -1.509755 0.000000
146.187210 -8.654642 -1.508471 0.000000
146.505940 -8.722201 -1.505992 0.000000
146.933550 -8.798005 -1.502164 0.000000
147.363980 -8.854174 -1.497256 0.000000
147.795880 -8.893922 -1.491909 0.000000
148.228840 -8.913250 -1.485376 0.000000
148.661590 -8.917834 -1.478746 0.000000
149.093640 -8.902883 -1.471113 0.000000
149.416670 -8.879129 -1.464696 0.000000
149.738220 -8.843964 -1.457798 0.000000
150.164410 -8.783142 -1.448184 0.000000
150.587010 -8.706088 -1.438143 0.000000
151.005000 -8.611080 -1.427322 0.000000
151.315400 -8.529894 -1.418945 0.000000
155.472080 -8.774415 -1.360934 0.000000
155.772260 -8.570624 -1.350455 0.000000
159.518370 -8.713148 -1.312173 0.000000
159.703570 -8.499979 -1.303017 0.000000
163.893050 -8.691691 -1.261164 0.000000
145.765730 -8.549027 -1.511205 0.000000
151.520450 -8.470272 -1.413173 0.000000
151.824800 -8.372168 -1.404134 0.000000
152.224990 -8.228119 -1.391649 0.000000
152.520690 -8.110518 -1.382006 0.000000
156.163880 -8.289206 -1.336645 0.000000
156.449980 -8.069419 -1.326108 0.000000
159.884160 -8.283670 -1.293796 0.000000
160.060030 -8.064281 -1.284501 0.000000
164.209990 -8.091918 -1.237936 0.000000
152.715230 -8.026979 -1.375408 0.000000
153.003950 -7.896997 -1.365825 0.000000
153.291180 -7.766697 -1.357406 0.000000
156.636470 -7.918327 -1.318980 0.000000
156.819930 -7.764184 -1.311833 0.000000
160.231480 -7.842247 -1.275197 0.000000
160.392300 -7.611698 -1.264744 0.000000
164.358090 -7.788154 -1.226163 0.000000
153.480330 -7.675752 -1.351808 0.000000
153.760070 -7.532600 -1.343290 0.000000
154.035490 -7.382373 -1.334563 0.000000
157.088060 -7.525957 -1.300865 0.000000
157.349700 -7.281860 -1.289842 0.000000
160.560650 -7.390406 -1.256531 0.000000
164.566250 -7.327885 -1.208300 0.000000
154.216130 -7.277642 -1.328619 0.000000
154.569890 -7.057700 -1.316564 0.000000
157.519410 -7.114945 -1.282381 0.000000
157.685420 -6.944909 -1.274821 0.000000
160.718260 -7.160717 -1.247158 0.000000
160.871290 -6.928797 -1.237788 0.000000
164.762570 -6.864898 -1.190534 0.000000
154.999880 -6.766715 -1.301091 0.000000
155.250290 -6.582881 -1.291594 0.000000
157.848280 -6.772541 -1.267308 0.000000
158.007030 -6.596834 -1.259623 0.000000
161.090840 -6.575995 -1.223607 0.000000
164.977040 -6.612256 -1.190479 0.000000
155.413710 -6.456327 -1.285166 0.000000
155.733000 -6.195828 -1.272578 0.000000
158.238600 -6.328854 -1.248181 0.000000
158.462340 -6.055378 -1.236560 0.000000
161.300430 -6.218672 -1.209326 0.000000
164.894520 -6.177793 -1.153368 0.000000
156.119600 -5.858125 -1.256953 0.000000
158.674390 -5.773669 -1.224346 0.000000
161.496140 -5.855167 -1.194721 0.000000
165.111180 -5.929456 -1.155044 0.000000
165.216950 -5.616653 -1.143502 0.000000
156.343200 -5.647632 -1.247451 0.000000
156.559780 -5.431088 -1.237900 0.000000
158.949420 -5.395507 -1.209052 0.000000
161.741840 -5.365519 -1.175396 0.000000
156.905040 -5.057271 -1.221554 0.000000
159.143540 -5.104315 -1.196987 0.000000
159.269180 -4.908732 -1.189200 0.000000
161.914960 -4.995080 -1.161069 0.000000
165.406160 -4.986464 -1.120028 0.000000
157.229170 -4.667078 -1.204178 0.000000
159.446260 -4.608888 -1.176792 0.000000
162.075350 -4.620803 -1.146671 0.000000
165.589860 -4.541079 -1.109506 0.000000
157.419660 -4.431881 -1.195007 0.000000
157.604420 -4.193380 -1.186254 0.000000
159.679920 -4.211334 -1.162264 0.000000
162.283860 -4.123936 -1.129146 0.000000
165.755050 -4.087163 -1.098038 0.000000
157.840500 -3.868897 -1.174542 0.000000
159.848940 -3.911274 -1.151991 0.000000
159.956730 -3.709166 -1.145178 0.000000
162.434480 -3.751560 -1.116946 0.000000
158.117130 -3.452470 -1.159791 0.000000
160.107120 -3.400724 -1.134318 0.000000
158.321380 -3.109499 -1.147031 0.000000
158.834230 9.266752 -1.001576 0.000000
160.711750 9.322309 -0.987275 0.000000
159.030670 9.621947 -1.057665 0.000000
161.016040 9.739946 -1.050673 0.000000
163.433910 9.771439 -1.017221 0.000000
166.488560 9.700701 -0.951977 0.000000
159.240690 10.000534 -1.118188 0.000000
161.335950 10.184576 -1.118305 0.000000
163.897600 10.287163 -1.090569 0.000000
167.000840 10.240516 -1.014216 0.000000
159.473400 10.543512 -1.196744 0.000000
161.575940 10.603346 -1.174907 0.000000
164.176040 10.738171 -1.141252 0.000000
167.268340 10.707837 -1.052210 0.000000
159.430600 11.057186 -1.237075 0.000000
161.571550 11.043032 -1.203554 0.000000
168.558180 -8.405742 -1.114204 0.000000
168.634340 -7.988975 -1.095730 0.000000
168.707280 -7.576175 -1.077867 0.000000
168.774250 -7.165631 -1.060323 0.000000
168.835170 -6.757301 -1.043081 0.000000
168.892360 -6.352291 -1.026347 0.000000
169.035260 -5.992613 -1.018469 0.000000
168.989780 -5.549075 -0.993798 0.000000
168.979540 -4.923675 -0.963978 0.000000
169.148330 -4.382286 -0.952027 0.000000
169.372510 -4.063649 -0.954797 0.000000
165.724580 -3.726039 -1.075077 0.000000
169.294650 -3.635957 -0.931398 0.000000
162.558700 -3.368835 -1.102672 0.000000
165.908280 -3.458793 -1.077566 0.000000
169.359880 -3.263279 -0.921379 0.000000
158.414830 -2.933302 -1.139963 0.000000
160.242360 -3.085245 -1.122173 0.000000
160.326890 -2.873321 -1.114047 0.000000
162.673290 -2.984695 -1.088463 0.000000
165.843170 -3.092408 -1.052338 0.000000
158.517820 -2.647131 -1.123052 0.000000
160.397980 -2.528752 -1.093751 0.000000
162.743380 -2.585180 -1.069808 0.000000
165.910630 -2.449760 -1.026766 0.000000
169.744510 -2.597657 -0.925080 0.000000
158.625840 -2.254173 -1.097202 0.000000
160.446230 -2.177874 -1.071219 0.000000
162.749180 -2.163917 -1.043760 0.000000
165.951320 -2.134902 -1.015847 0.000000
169.767120 -2.213797 -0.913165 0.000000
158.697620 -1.959730 -1.078024 0.000000
158.740140 -1.763480 -1.065268 0.000000
160.501310 -1.837139 -1.051870 0.000000
162.829350 -1.780049 -1.029912 0.000000
166.129290 -1.864780 -1.020660 0.000000
169.921890 -1.866310 -0.913089 0.000000
158.832580 -1.487604 -1.053274 0.000000
160.619090 -1.409139 -1.035858 0.000000
162.903120 -1.396941 -1.016563 0.000000
166.029020 -1.350377 -0.989036 0.000000
169.930270 -1.482087 -0.901227 0.000000
170.424910 -1.206155 -0.930554 0.000000
158.991090 -1.034818 -1.037519 0.000000
160.703000 -1.089164 -1.024806 0.000000
160.756450 -0.876220 -1.017912 0.000000
162.966950 -1.014121 -1.003550 0.000000
170.469700 -0.825759 -0.922756 0.000000
159.134250 -0.579540 -1.022638 0.000000
160.830110 -0.556300 -1.007821 0.000000
163.046250 -0.506481 -0.987618 0.000000
166.086670 -0.572964 -0.964113 0.000000
170.316640 -0.410718 -0.899289 0.000000
159.232620 -0.212130 -1.010711 0.000000
160.913680 -0.127924 -0.994190 0.000000
163.094070 -0.125621 -0.975749 0.000000
166.109280 -0.109828 -0.949983 0.000000
170.280760 -0.022670 -0.886202 0.000000
159.317760 0.157217 -0.998889 0.000000
160.968110 0.193607 -0.984265 0.000000
163.130770 0.254895 -0.964026 0.000000
166.005570 0.372686 -0.923913 0.000000
170.246890 0.361633 -0.873943 0.000000
159.387310 0.528644 -0.986766 0.000000
161.009060 0.516454 -0.973836 0.000000
163.159060 0.634820 -0.952480 0.000000
166.258770 0.636321 -0.941038 0.000000
170.071270 0.760822 -0.850854 0.000000
159.443940 0.900798 -0.974829 0.000000
159.478300 1.180139 -0.965985 0.000000
161.052640 0.946369 -0.960329 0.000000
163.174610 1.014156 -0.940862 0.000000
166.118230 0.964145 -0.917740 0.000000
169.984440 1.142422 -0.835661 0.000000
159.503970 1.459585 -0.957146 0.000000
161.080520 1.375804 -0.946910 0.000000
163.181200 1.392503 -0.929345 0.000000
166.098890 1.420888 -0.903983 0.000000
159.527110 1.831841 -0.945457 0.000000
161.093030 1.804124 -0.933628 0.000000
163.174990 1.769530 -0.917744 0.000000
166.071530 1.875004 -0.890631 0.000000
170.292270 1.856735 -0.845689 0.000000
159.543980 2.202531 -0.935069 0.000000
161.097780 2.230120 -0.921585 0.000000
163.161510 2.268924 -0.903630 0.000000
166.045670 2.176099 -0.881764 0.000000
170.202900 2.234206 -0.832074 0.000000
159.579960 2.569771 -0.930241 0.000000
161.130460 2.651657 -0.915968 0.000000
163.181300 2.639238 -0.898222 0.000000
165.991470 2.624963 -0.868104 0.000000
170.114170 2.607784 -0.819138 0.000000
159.607480 2.937762 -0.926250 0.000000
161.155060 3.073734 -0.911436 0.000000
163.201050 3.009424 -0.894232 0.000000
165.949160 3.070475 -0.856829 0.000000
170.142930 2.975207 -0.816105 0.000000
159.622160 3.306588 -0.922367 0.000000
161.164380 3.390787 -0.908125 0.000000
163.212330 3.380043 -0.890328 0.000000
165.949800 3.365525 -0.852999 0.000000
170.190490 3.527915 -0.813006 0.000000
159.614880 3.767861 -0.916523 0.000000
161.164440 3.708074 -0.904888 0.000000
163.213210 3.750971 -0.886563 0.000000
165.950070 3.808132 -0.848313 0.000000
170.236310 4.082908 -0.810872 0.000000
159.585650 4.228134 -0.910320 0.000000
161.147600 4.130755 -0.900010 0.000000
163.199840 4.245503 -0.881648 0.000000
165.950240 4.251193 -0.844738 0.000000
170.264760 4.454676 -0.810019 0.000000
159.547330 4.594923 -0.905509 0.000000
161.110340 4.552070 -0.894450 0.000000
163.178830 4.616081 -0.878038 0.000000
165.993930 4.699123 -0.846926 0.000000
170.293320 4.828054 -0.809729 0.000000
159.496320 4.959993 -0.900840 0.000000
161.058120 4.971573 -0.888993 0.000000
163.136410 4.984813 -0.873227 0.000000
166.014310 5.147775 -0.847901 0.000000
170.321930 5.203282 -0.809999 0.000000
159.414830 5.413259 -0.895138 0.000000
159.449690 5.232401 -0.897347 0.000000
160.991360 5.388782 -0.883696 0.000000
163.065460 5.474299 -0.866942 0.000000
165.986370 5.444138 -0.845149 0.000000
170.350540 5.580605 -0.810828 0.000000
159.375630 5.782395 -0.897786 0.000000
160.955950 5.812546 -0.885239 0.000000
163.052190 5.848242 -0.868548 0.000000
165.966480 5.892754 -0.844364 0.000000
159.348890 6.253605 -0.907837 0.000000
160.955930 6.247886 -0.894300 0.000000
163.077290 6.232782 -0.876335 0.000000
165.990340 6.350558 -0.849117 0.000000
169.967940 6.282583 -0.779891 0.000000
159.311770 6.632251 -0.916065 0.000000
160.940370 6.686174 -0.903529 0.000000
163.094820 6.620375 -0.884397 0.000000
170.045120 6.667251 -0.786207 0.000000
159.261440 7.011940 -0.924533 0.000000
160.921420 7.017213 -0.910940 0.000000
163.069790 7.003130 -0.888727 0.000000
165.872590 6.938796 -0.842565 0.000000
170.205410 7.070962 -0.799581 0.000000
159.196200 7.391635 -0.932971 0.000000
160.882710 7.346350 -0.917002 0.000000
163.027660 7.384509 -0.892155 0.000000
165.966200 7.423211 -0.857600 0.000000
170.221250 7.455278 -0.802269 0.000000
159.113720 7.769699 -0.940978 0.000000
160.794430 7.777241 -0.921710 0.000000
162.974610 7.766289 -0.895761 0.000000
165.937480 7.885833 -0.861531 0.000000
170.274290 7.850444 -0.808456 0.000000
158.967320 8.229380 -0.946844 0.000000
159.029940 8.046661 -0.944714 0.000000
160.688540 8.205934 -0.926279 0.000000
162.888110 8.275059 -0.900666 0.000000
165.783430 8.159023 -0.851253 0.000000
170.474060 8.283527 -0.826738 0.000000
158.831160 8.592197 -0.951275 0.000000
160.534530 8.738757 -0.932201 0.000000
160.599140 8.526075 -0.929780 0.000000
162.812420 8.656492 -0.904556 0.000000
165.878750 8.504585 -0.866955 0.000000
170.635270 8.717596 -0.842658 0.000000
166.130650 9.237764 -0.906856 0.000000
162.979640 9.283544 -0.946700 0.000000
170.414780 9.461136 -0.833743 0.000000
170.486630 9.887275 -0.844571 0.000000
149.699520 9.430903 -0.066392 0.000000
149.904800 9.382023 -0.061499 0.000000
149.697130 9.431595 0.267854 0.000000
149.831090 9.374732 0.272557 0.000000
149.694290 9.432420 0.664764 0.000000
149.818510 9.371040 0.732318 0.000000
149.855150 9.369789 1.125360 0.000000
149.838170 9.365985 1.585848 0.000000
149.836010 9.364077 1.852059 0.000000
149.685730 9.434892 1.859543 0.000000
155.283400 -13.741020 -1.659140 0.000000
155.597090 -13.716654 -1.663226 0.000000
161.374770 -13.846670 -1.482580 0.000000
167.925400 -13.534502 -1.310789 0.000000
155.891680 -13.617586 -1.657028 0.000000
161.515700 -13.406315 -1.442277 0.000000
168.087890 -13.109528 -1.287679 0.000000
156.085490 -13.186516 -1.602238 0.000000
156.377060 -13.100756 -1.599229 0.000000
162.075760 -12.997334 -1.427613 0.000000
156.866150 -12.665291 -1.555654 0.000000
157.101970 -12.442884 -1.533950 0.000000
162.270200 -12.671194 -1.404077 0.000000
162.524870 -12.437958 -1.394056 0.000000
168.257640 -12.700005 -1.266746 0.000000
157.330840 -12.214828 -1.511893 0.000000
162.775680 -12.201918 -1.384189 0.000000
168.412860 -12.284689 -1.245214 0.000000
157.554730 -11.986383 -1.490261 0.000000
157.772230 -11.754194 -1.468525 0.000000
163.140080 -11.837225 -1.368942 0.000000
168.563230 -11.872780 -1.224280 0.000000
157.983860 -11.519667 -1.446882 0.000000
158.188510 -11.280743 -1.424993 0.000000
163.427540 -11.384581 -1.341682 0.000000
163.723460 -11.211201 -1.343331 0.000000
168.708040 -11.463427 -1.203829 0.000000
147.927840 -10.978281 -1.628103 0.000000
148.451130 -10.988405 -1.609574 0.000000
149.084900 -11.090593 -1.605906 0.000000
149.467910 -11.131697 -1.602205 0.000000
149.856030 -11.104038 -1.588639 0.000000
150.619190 -11.221588 -1.595147 0.000000
151.132840 -11.139969 -1.576070 0.000000
151.514890 -11.103914 -1.567728 0.000000
151.898150 -11.106089 -1.567502 0.000000
158.450680 -11.165379 -1.422884 0.000000
158.609940 -10.853836 -1.390495 0.000000
163.947800 -10.954510 -1.333081 0.000000
168.845790 -11.055233 -1.183663 0.000000
146.967180 -10.583023 -1.608390 0.000000
147.454330 -10.743385 -1.610479 0.000000
147.701050 -10.813890 -1.610835 0.000000
148.199710 -10.935947 -1.610297 0.000000
152.640120 -10.856016 -1.528911 0.000000
153.015350 -10.814846 -1.525844 0.000000
153.380490 -10.707783 -1.513397 0.000000
153.978350 -10.501690 -1.491045 0.000000
158.846470 -10.697359 -1.382998 0.000000
164.272870 -10.561562 -1.317504 0.000000
146.021990 -10.190336 -1.599338 0.000000
146.253980 -10.298008 -1.602333 0.000000
146.607680 -10.447523 -1.605957 0.000000
154.329030 -10.360458 -1.476716 0.000000
154.674180 -10.208645 -1.461844 0.000000
154.900270 -10.100142 -1.451510 0.000000
159.423870 -10.289673 -1.364281 0.000000
159.759480 -10.032011 -1.352570 0.000000
155.451660 -9.807598 -1.424738 0.000000
159.979050 -9.856064 -1.344845 0.000000
160.194600 -9.675810 -1.336973 0.000000
164.781740 -9.883717 -1.290207 0.000000
165.074140 -9.700010 -1.294521 0.000000
155.863570 -9.514048 -1.395542 0.000000
156.156660 -9.269587 -1.370728 0.000000
160.405850 -9.491119 -1.328918 0.000000
160.613460 -9.303114 -1.320858 0.000000
165.176220 -9.339632 -1.270270 0.000000
156.371550 -9.162537 -1.364750 0.000000
156.690350 -8.996689 -1.356069 0.000000
160.817310 -9.111723 -1.312768 0.000000
161.017180 -8.916887 -1.304626 0.000000
165.451570 -8.918787 -1.254464 0.000000
149.110240 -8.545424 -1.456814 0.000000
149.427050 -8.584187 -1.453212 0.000000
149.850590 -8.621847 -1.447916 0.000000
150.274960 -8.641169 -1.441750 0.000000
150.699250 -8.643452 -1.434973 0.000000
151.122710 -8.628412 -1.427530 0.000000
151.439320 -8.605864 -1.421445 0.000000
151.754550 -8.572491 -1.414937 0.000000
152.068330 -8.530525 -1.408097 0.000000
157.106800 -8.761444 -1.343989 0.000000
157.511640 -8.508621 -1.331116 0.000000
161.212660 -8.718262 -1.296358 0.000000
161.401400 -8.513290 -1.287488 0.000000
165.711870 -8.489586 -1.238094 0.000000
147.450240 -8.169008 -1.468450 0.000000
147.756580 -8.260113 -1.467193 0.000000
148.169020 -8.367071 -1.464822 0.000000
148.585390 -8.457085 -1.461745 0.000000
148.899730 -8.513798 -1.458978 0.000000
152.276460 -8.497156 -1.403374 0.000000
152.586730 -8.438824 -1.396004 0.000000
152.996640 -8.346472 -1.385530 0.000000
153.401630 -8.238451 -1.374597 0.000000
153.802110 -8.119476 -1.364077 0.000000
157.905360 -8.241062 -1.317884 0.000000
158.193250 -8.031248 -1.307703 0.000000
161.585780 -8.305138 -1.278555 0.000000
161.765730 -8.093851 -1.269554 0.000000
146.551410 -7.837092 -1.469514 0.000000
146.947080 -7.994612 -1.469492 0.000000
147.247850 -8.102432 -1.468989 0.000000
154.198610 -7.992364 -1.354488 0.000000
154.589310 -7.850956 -1.344613 0.000000
154.878220 -7.735556 -1.336923 0.000000
158.381260 -7.886926 -1.300838 0.000000
158.566160 -7.739179 -1.293886 0.000000
161.941120 -7.879492 -1.260478 0.000000
162.112660 -7.662911 -1.251474 0.000000
166.102520 -7.752567 -1.209072 0.000000
145.782300 -7.473349 -1.467141 0.000000
146.162960 -7.663073 -1.468700 0.000000
155.068480 -7.653687 -1.331642 0.000000
155.350300 -7.524125 -1.323597 0.000000
155.720180 -7.341163 -1.312843 0.000000
158.748110 -7.588413 -1.286911 0.000000
159.014220 -7.355354 -1.276205 0.000000
162.272860 -7.436918 -1.241137 0.000000
162.441350 -7.220755 -1.233175 0.000000
166.320130 -7.304813 -1.191650 0.000000
155.993610 -7.197706 -1.305023 0.000000
156.261780 -7.045798 -1.296975 0.000000
156.525680 -6.887488 -1.288792 0.000000
159.358400 -7.034770 -1.261795 0.000000
162.597470 -6.994582 -1.223721 0.000000
166.456590 -7.003545 -1.179957 0.000000
156.698790 -6.778000 -1.283300 0.000000
156.953320 -6.606688 -1.274736 0.000000
159.768490 -6.616647 -1.243358 0.000000
162.751130 -6.767948 -1.214624 0.000000
162.897890 -6.537045 -1.205098 0.000000
166.640870 -6.543323 -1.161358 0.000000
157.365630 -6.306584 -1.260220 0.000000
157.686140 -6.055953 -1.248593 0.000000
160.158650 -6.183045 -1.224716 0.000000
163.110340 -6.187768 -1.191055 0.000000
166.793240 -6.068684 -1.140275 0.000000
157.840260 -5.923442 -1.242117 0.000000
158.068080 -5.722245 -1.232949 0.000000
160.380840 -5.914015 -1.213136 0.000000
160.519240 -5.726736 -1.204298 0.000000
163.377210 -5.714849 -1.172155 0.000000
166.874560 -5.744685 -1.124781 0.000000
158.290570 -5.516005 -1.223723 0.000000
158.505170 -5.302475 -1.214143 0.000000
160.663740 -5.546706 -1.197578 0.000000
160.800000 -5.360042 -1.189831 0.000000
163.565720 -5.355683 -1.157979 0.000000
158.713900 -5.084029 -1.204451 0.000000
158.848940 -4.935096 -1.197885 0.000000
160.995590 -5.074714 -1.177889 0.000000
163.742920 -4.992755 -1.143882 0.000000
159.045790 -4.707608 -1.188049 0.000000
159.232420 -4.471803 -1.177107 0.000000
161.305070 -4.591529 -1.158394 0.000000
159.424710 -4.243596 -1.169401 0.000000
159.607530 -4.007894 -1.160773 0.000000
160.908250 9.322332 -0.987533 0.000000
162.738070 9.349863 -0.964815 0.000000
161.101240 9.676605 -1.042559 0.000000
163.036800 9.764666 -1.026773 0.000000
165.438190 9.789747 -0.992116 0.000000
168.503680 10.070539 -0.938165 0.000000
161.299120 10.048532 -1.100304 0.000000
163.331670 10.195522 -1.089802 0.000000
165.819320 10.267052 -1.054026 0.000000
168.694430 10.496769 -0.967241 0.000000
161.505840 10.575102 -1.173102 0.000000
163.592710 10.625715 -1.149169 0.000000
166.100390 10.717176 -1.104338 0.000000
163.593660 11.068277 -1.177973 0.000000
169.047550 11.003767 -1.014289 0.000000
169.086820 -10.482178 -1.159370 0.000000
169.339110 -9.443483 -1.107017 0.000000
169.448060 -9.045422 -1.088781 0.000000
169.436450 -8.574011 -1.058840 0.000000
169.641400 -8.250122 -1.052556 0.000000
169.726590 -7.853641 -1.034645 0.000000
169.803970 -7.457975 -1.016843 0.000000
169.878370 -7.065951 -0.999630 0.000000
169.947050 -6.675855 -0.982709 0.000000
170.010590 -6.288005 -0.966131 0.000000
170.069290 -5.902470 -0.949908 0.000000
170.233600 -5.571223 -0.944474 0.000000
166.952420 -5.422484 -1.109726 0.000000
170.237490 -5.167548 -0.924589 0.000000
167.058520 -4.940532 -1.087508 0.000000
163.910390 -4.626641 -1.129746 0.000000
164.015120 -4.380379 -1.120242 0.000000
167.157940 -4.462047 -1.066128 0.000000
170.417250 -4.448531 -0.903122 0.000000
161.542600 -4.201516 -1.143740 0.000000
161.658160 -4.005779 -1.136983 0.000000
164.123640 -4.137864 -1.112046 0.000000
167.215970 -4.143438 -1.051958 0.000000
170.593510 -4.125651 -0.901197 0.000000
159.783070 -3.767534 -1.152160 0.000000
161.823150 -3.708139 -1.126672 0.000000
164.272160 -3.768547 -1.099017 0.000000
167.271550 -3.826918 -1.038287 0.000000
159.952330 -3.523322 -1.143483 0.000000
160.057890 -3.355742 -1.136977 0.000000
162.019900 -3.299404 -1.110985 0.000000
164.402770 -3.392422 -1.084759 0.000000
167.348180 -3.355226 -1.018525 0.000000
160.254470 -3.012726 -1.123117 0.000000
162.198550 -2.884171 -1.094884 0.000000
164.522610 -3.014755 -1.070719 0.000000
167.448000 -2.898106 -1.002902 0.000000
160.448750 -2.554822 -1.098467 0.000000
162.290480 -2.552786 -1.077255 0.000000
164.631000 -2.493547 -1.047078 0.000000
167.520680 -2.598129 -0.994095 0.000000
160.559140 -2.168080 -1.073027 0.000000
162.328200 -2.322381 -1.062485 0.000000
162.364400 -2.094010 -1.048282 0.000000
164.701280 -2.103060 -1.029634 0.000000
167.620150 -2.147505 -0.981121 0.000000
160.674840 -1.792230 -1.051848 0.000000
162.468800 -1.779484 -1.036939 0.000000
164.788240 -1.724114 -1.016286 0.000000
160.816930 -1.435955 -1.038806 0.000000
162.594880 -1.357614 -1.021851 0.000000
164.866470 -1.344698 -1.003086 0.000000
167.764500 -1.395609 -0.960127 0.000000
160.978240 -0.986866 -1.023140 0.000000
162.682310 -1.040675 -1.011011 0.000000
162.736270 -0.828943 -1.003950 0.000000
164.934570 -0.965190 -0.990171 0.000000
167.763930 -0.925726 -0.940128 0.000000
161.096450 -0.625504 -1.011115 0.000000
161.150920 -0.443961 -1.005290 0.000000
162.812380 -0.511326 -0.993863 0.000000
164.999760 -0.587305 -0.978169 0.000000
167.860200 -0.483548 -0.931867 0.000000
161.225660 -0.170237 -0.996514 0.000000
162.900440 -0.086146 -0.980401 0.000000
165.054860 -0.209398 -0.966432 0.000000
167.880370 -0.179998 -0.922469 0.000000
161.314210 0.196575 -0.984857 0.000000
162.956590 0.233676 -0.970323 0.000000
165.100160 0.168792 -0.954674 0.000000
165.124860 0.420716 -0.946958 0.000000
167.856490 0.281978 -0.903934 0.000000
161.388930 0.565274 -0.973179 0.000000
163.002900 0.554066 -0.960281 0.000000
165.145360 0.672430 -0.939321 0.000000
161.449140 0.935491 -0.961367 0.000000
163.052410 0.981420 -0.947073 0.000000
165.165530 1.049796 -0.927746 0.000000
167.921940 1.025958 -0.887015 0.000000
161.485930 1.213618 -0.952556 0.000000
161.514100 1.491981 -0.943751 0.000000
163.085740 1.408819 -0.933853 0.000000
165.177900 1.426238 -0.916405 0.000000
167.917070 1.475011 -0.874194 0.000000
161.540620 1.863003 -0.932098 0.000000
163.102780 1.835631 -0.920609 0.000000
165.178560 1.801582 -0.905099 0.000000
167.907330 1.921851 -0.862074 0.000000
161.559160 2.232896 -0.921441 0.000000
163.110080 2.260632 -0.908297 0.000000
165.169690 2.299626 -0.890797 0.000000
167.892880 2.218686 -0.853970 0.000000
161.596710 2.599509 -0.916330 0.000000
163.145140 2.681419 -0.902395 0.000000
165.191700 2.669250 -0.885103 0.000000
167.879330 2.514213 -0.846547 0.000000
167.904100 2.807199 -0.843601 0.000000
161.627530 2.966892 -0.912342 0.000000
163.174120 3.102844 -0.897860 0.000000
165.215960 3.038808 -0.881104 0.000000
167.817930 3.102992 -0.829963 0.000000
161.645580 3.335347 -0.908456 0.000000
163.186750 3.419599 -0.894542 0.000000
165.231770 3.409014 -0.877188 0.000000
167.840640 3.541510 -0.826061 0.000000
161.649490 3.796762 -0.903765 0.000000
163.190160 3.736781 -0.891295 0.000000
165.237210 3.779790 -0.873405 0.000000
167.862870 3.981174 -0.823215 0.000000
161.631030 4.258010 -0.898634 0.000000
163.182450 4.159877 -0.887075 0.000000
165.229920 4.274477 -0.868459 0.000000
167.878250 4.275359 -0.822111 0.000000
161.596050 4.625726 -0.893797 0.000000
163.158940 4.582643 -0.882833 0.000000
165.213930 4.645474 -0.864875 0.000000
167.941930 4.722175 -0.825631 0.000000
161.548310 4.991951 -0.889094 0.000000
163.112560 5.003552 -0.877553 0.000000
165.186860 5.016085 -0.861352 0.000000
167.984040 5.170849 -0.828097 0.000000
161.487440 5.356170 -0.884460 0.000000
163.032790 5.526784 -0.870917 0.000000
163.067340 5.317911 -0.873500 0.000000
165.128690 5.508144 -0.855850 0.000000
167.974210 5.468306 -0.826687 0.000000
161.431180 5.817012 -0.885355 0.000000
163.014570 5.847159 -0.873080 0.000000
165.114730 5.882869 -0.856787 0.000000
167.958020 5.916199 -0.825562 0.000000
161.408580 6.290585 -0.895402 0.000000
163.019260 6.284703 -0.882168 0.000000
165.132830 6.266844 -0.863125 0.000000
167.965880 6.370408 -0.827994 0.000000
161.374660 6.671407 -0.903619 0.000000
163.012620 6.614860 -0.889028 0.000000
165.117650 6.647841 -0.866558 0.000000
161.327960 7.053682 -0.912161 0.000000
162.981060 6.942326 -0.893763 0.000000
165.088500 7.029404 -0.869769 0.000000
167.903820 7.122520 -0.827597 0.000000
161.248960 7.429455 -0.917643 0.000000
162.910520 7.374682 -0.897927 0.000000
165.051100 7.411824 -0.873170 0.000000
167.936740 7.593854 -0.836077 0.000000
161.147490 7.800357 -0.921717 0.000000
162.824140 7.806255 -0.902217 0.000000
165.002760 7.794932 -0.876746 0.000000
167.917720 7.902070 -0.838412 0.000000
161.001770 8.260651 -0.926957 0.000000
161.062810 8.077078 -0.924840 0.000000
162.722670 8.236804 -0.906758 0.000000
164.922500 8.305860 -0.881614 0.000000
167.772370 8.176775 -0.828526 0.000000
160.903590 8.534573 -0.930233 0.000000
162.574050 8.772381 -0.912644 0.000000
162.636520 8.558533 -0.910236 0.000000
164.852400 8.689569 -0.885598 0.000000
167.845580 8.675215 -0.844511 0.000000
160.798920 8.806967 -0.933627 0.000000
164.987530 9.303700 -0.922701 0.000000
168.030350 9.554980 -0.880887 0.000000
149.729450 9.406045 -0.000521 0.000000
149.944950 9.412994 -0.060339 0.000000
149.725660 9.405894 0.336549 0.000000
149.942020 9.409197 0.275629 0.000000
149.888550 9.385746 0.673749 0.000000
149.884370 9.381175 1.135451 0.000000
149.880160 9.376656 1.599609 0.000000
150.013380 9.538961 1.549328 0.000000
149.877660 9.374342 1.867890 0.000000
150.011550 9.532648 1.822454 0.000000
148.032240 -13.902763 -1.788684 0.000000
148.370760 -13.865591 -1.768569 0.000000
155.939060 -13.850203 -1.651514 0.000000
156.374970 -13.678551 -1.633146 0.000000
162.548870 -13.699917 -1.429569 0.000000
168.844920 -13.525602 -1.255786 0.000000
147.154010 -13.536297 -1.779896 0.000000
147.443370 -13.665751 -1.783281 0.000000
156.650670 -13.504642 -1.613043 0.000000
156.953660 -13.469103 -1.613982 0.000000
163.105880 -13.296860 -1.411286 0.000000
169.021000 -13.124630 -1.233669 0.000000
146.310640 -13.100143 -1.766175 0.000000
146.747710 -13.272724 -1.765211 0.000000
157.444990 -12.949745 -1.551499 0.000000
163.473790 -12.922527 -1.389163 0.000000
145.903410 -12.858757 -1.757832 0.000000
157.699050 -12.756475 -1.530920 0.000000
157.911300 -12.438753 -1.492300 0.000000
163.968770 -12.746769 -1.395986 0.000000
164.161540 -12.426488 -1.372753 0.000000
158.327910 -12.309982 -1.487506 0.000000
164.413500 -12.197431 -1.362901 0.000000
164.661250 -11.965034 -1.353117 0.000000
158.771820 -11.835881 -1.437451 0.000000
164.903900 -11.728196 -1.343227 0.000000
159.471300 -11.295080 -1.392041 0.000000
165.141540 -11.487312 -1.333280 0.000000
165.307570 -11.162591 -1.311278 0.000000
152.543610 -10.968107 -1.552602 0.000000
159.964430 -11.022731 -1.378143 0.000000
160.378020 -10.908641 -1.383478 0.000000
165.600330 -10.992359 -1.312990 0.000000
165.822390 -10.739818 -1.302849 0.000000
149.917110 -10.607037 -1.566577 0.000000
150.295680 -10.644797 -1.557503 0.000000
150.542800 -10.694621 -1.556641 0.000000
151.165540 -10.790401 -1.552583 0.000000
151.541500 -10.829702 -1.548946 0.000000
151.922450 -10.801310 -1.535536 0.000000
152.799070 -10.855218 -1.530314 0.000000
153.049990 -10.840959 -1.525366 0.000000
153.425050 -10.807400 -1.517253 0.000000
153.925540 -10.794785 -1.514093 0.000000
154.652980 -10.548732 -1.476152 0.000000
155.020740 -10.507215 -1.473050 0.000000
160.681260 -10.580801 -1.356570 0.000000
166.038680 -10.483120 -1.292570 0.000000
148.846890 -10.220192 -1.554792 0.000000
149.083630 -10.305292 -1.556118 0.000000
149.563000 -10.459349 -1.557877 0.000000
155.259990 -10.438626 -1.464958 0.000000
155.497420 -10.365833 -1.456800 0.000000
155.830410 -10.150309 -1.427793 0.000000
161.257230 -10.184632 -1.338131 0.000000
161.481060 -10.018120 -1.330496 0.000000
166.249830 -10.223172 -1.282278 0.000000
148.267060 -9.978312 -1.549165 0.000000
148.612880 -10.128072 -1.552863 0.000000
156.283040 -9.954075 -1.406563 0.000000
156.713910 -9.699245 -1.377708 0.000000
161.809810 -9.760613 -1.318912 0.000000
166.644230 -9.681958 -1.259711 0.000000
147.225660 -9.550031 -1.550415 0.000000
147.483700 -9.583389 -1.537466 0.000000
147.703670 -9.703034 -1.541267 0.000000
157.159640 -9.523052 -1.364733 0.000000
157.493100 -9.394022 -1.357079 0.000000
157.712780 -9.302176 -1.351788 0.000000
162.236370 -9.405176 -1.303326 0.000000
166.814450 -9.389590 -1.245503 0.000000
146.741360 -9.122069 -1.520953 0.000000
147.054180 -9.327270 -1.528525 0.000000
157.930360 -9.206039 -1.346361 0.000000
158.252780 -9.054422 -1.338137 0.000000
158.570540 -8.894334 -1.329626 0.000000
162.647480 -9.034553 -1.287378 0.000000
167.023800 -8.917283 -1.219125 0.000000
146.013020 -8.655019 -1.510482 0.000000
146.325130 -8.853336 -1.513747 0.000000
158.779160 -8.782097 -1.323771 0.000000
159.086350 -8.604393 -1.314493 0.000000
159.387950 -8.418359 -1.304877 0.000000
163.042680 -8.649600 -1.271110 0.000000
167.221340 -8.444636 -1.193091 0.000000
145.808150 -8.518408 -1.508264 0.000000
150.254900 -8.168398 -1.421435 0.000000
150.665600 -8.255438 -1.418301 0.000000
151.079380 -8.325316 -1.414409 0.000000
151.495420 -8.377584 -1.409700 0.000000
151.912830 -8.413274 -1.404394 0.000000
152.330950 -8.430996 -1.398236 0.000000
152.748870 -8.432037 -1.391483 0.000000
153.061810 -8.422173 -1.386001 0.000000
153.373810 -8.401616 -1.380094 0.000000
153.787990 -8.359611 -1.371576 0.000000
154.199630 -8.303943 -1.363009 0.000000
154.608950 -8.240148 -1.355435 0.000000
155.014760 -8.160036 -1.347270 0.000000
155.316680 -8.090674 -1.340939 0.000000
159.585910 -8.290329 -1.298509 0.000000
159.876690 -8.090052 -1.288583 0.000000
163.417310 -8.246356 -1.253687 0.000000
167.342650 -8.127318 -1.175588 0.000000
149.048650 -7.806642 -1.426372 0.000000
149.445620 -7.943905 -1.425496 0.000000
149.847920 -8.064710 -1.423879 0.000000
155.516510 -8.039396 -1.336585 0.000000
155.814320 -7.957058 -1.330254 0.000000
156.207580 -7.836552 -1.321805 0.000000
156.595370 -7.701474 -1.312987 0.000000
160.254840 -7.811584 -1.275097 0.000000
163.773650 -7.829388 -1.235775 0.000000
167.459490 -7.811229 -1.158456 0.000000
148.273790 -7.483541 -1.425828 0.000000
148.657730 -7.653214 -1.426509 0.000000
156.976900 -7.551529 -1.303700 0.000000
157.443970 -7.343625 -1.291565 0.000000
160.621220 -7.520029 -1.261359 0.000000
160.888140 -7.293162 -1.250844 0.000000
164.030240 -7.509689 -1.222260 0.000000
164.188830 -7.286490 -1.211938 0.000000
147.529040 -7.098249 -1.422302 0.000000
147.897350 -7.298366 -1.424411 0.000000
157.900450 -7.116047 -1.278983 0.000000
158.255810 -6.917383 -1.268302 0.000000
161.147420 -7.058999 -1.240247 0.000000
161.398850 -6.817242 -1.229189 0.000000
164.355390 -7.072814 -1.203938 0.000000
164.511260 -6.850615 -1.194726 0.000000
146.733810 -6.594461 -1.414744 0.000000
146.993820 -6.769798 -1.417594 0.000000
147.258420 -6.938640 -1.420203 0.000000
158.602390 -6.705470 -1.257220 0.000000
158.940460 -6.482191 -1.246061 0.000000
161.563310 -6.653845 -1.222067 0.000000
161.724260 -6.487474 -1.214853 0.000000
164.736220 -6.512810 -1.180886 0.000000
146.314730 -6.283489 -1.408899 0.000000
146.563890 -6.472982 -1.412604 0.000000
159.188140 -6.307189 -1.237515 0.000000
159.429890 -6.125157 -1.228863 0.000000
161.955890 -6.229302 -1.203236 0.000000
164.951860 -6.170363 -1.166958 0.000000
145.834340 -5.883970 -1.400433 0.000000
146.070950 -6.087680 -1.404886 0.000000
159.819210 -5.806553 -1.213862 0.000000
162.255720 -5.879643 -1.188242 0.000000
162.466320 -5.606086 -1.175707 0.000000
165.155910 -5.822683 -1.152964 0.000000
160.264300 -5.401982 -1.195188 0.000000
162.677610 -5.336312 -1.165234 0.000000
160.684230 -4.975096 -1.176074 0.000000
167.132220 9.659114 -0.927460 0.000000
163.149170 9.826053 -1.031970 0.000000
164.954790 9.721935 -0.986467 0.000000
163.418900 10.377719 -1.114551 0.000000
165.229060 10.138572 -1.045767 0.000000
167.425780 10.088583 -0.977387 0.000000
170.115740 10.271266 -0.883745 0.000000
163.503080 10.699033 -1.153358 0.000000
165.353200 10.487008 -1.082609 0.000000
165.468960 10.841854 -1.119457 0.000000
167.700160 10.526066 -1.026133 0.000000
170.367860 10.723122 -0.919554 0.000000
163.464940 10.943045 -1.169470 0.000000
169.191440 -12.726328 -1.212077 0.000000
169.348020 -12.322448 -1.189925 0.000000
169.511600 -11.933302 -1.169870 0.000000
169.662700 -11.539781 -1.149396 0.000000
169.808140 -11.148383 -1.129351 0.000000
169.947850 -10.758976 -1.109711 0.000000
170.081390 -10.371033 -1.090400 0.000000
170.208980 -9.984744 -1.071433 0.000000
170.419050 -9.667212 -1.062757 0.000000
170.348450 -9.145158 -1.023616 0.000000
170.560670 -8.838416 -1.016943 0.000000
170.663390 -8.457347 -0.999079 0.000000
167.571430 -7.495995 -1.141623 0.000000
167.678120 -7.181302 -1.125025 0.000000
167.779950 -6.867476 -1.108708 0.000000
167.877370 -6.554765 -1.092716 0.000000
167.970610 -6.243313 -1.077072 0.000000
168.059370 -5.932875 -1.061722 0.000000
168.143230 -5.623157 -1.046599 0.000000
165.412550 -5.352778 -1.134254 0.000000
168.222440 -5.314324 -1.031726 0.000000
162.940370 -4.963036 -1.149699 0.000000
165.593810 -4.996282 -1.120264 0.000000
165.708880 -4.756786 -1.111002 0.000000
168.298400 -5.007165 -1.017272 0.000000
161.014820 -4.603964 -1.159857 0.000000
163.128540 -4.678369 -1.138063 0.000000
163.248600 -4.485768 -1.130202 0.000000
165.818680 -4.515426 -1.101647 0.000000
168.368900 -4.700388 -1.002947 0.000000
168.435320 -4.394790 -0.988917 0.000000
161.200780 -4.371475 -1.149151 0.000000
161.392460 -4.146486 -1.141669 0.000000
163.426280 -4.197173 -1.119383 0.000000
165.923660 -4.272604 -1.092272 0.000000
166.028670 -4.031258 -1.083622 0.000000
168.512270 -4.097506 -0.976939 0.000000
161.574170 -3.913473 -1.133114 0.000000
161.747730 -3.675031 -1.124345 0.000000
163.600880 -3.908106 -1.109361 0.000000
163.706450 -3.709009 -1.101553 0.000000
166.169710 -3.662674 -1.069574 0.000000
168.646910 -3.665062 -0.962693 0.000000
161.910310 -3.429025 -1.114420 0.000000
162.013400 -3.262010 -1.107545 0.000000
163.855970 -3.406724 -1.089620 0.000000
166.300920 -3.291809 -1.055488 0.000000
168.773530 -3.232144 -0.948826 0.000000
162.161870 -3.008633 -1.097268 0.000000
163.997650 -3.101703 -1.077664 0.000000
164.086980 -2.896754 -1.069708 0.000000
166.383210 -3.043894 -1.046277 0.000000
166.461650 -2.795560 -1.037204 0.000000
168.853730 -2.943690 -0.939960 0.000000
162.336200 -2.657696 -1.080827 0.000000
164.193080 -2.576315 -1.054280 0.000000
166.526900 -2.542638 -1.026936 0.000000
168.928120 -2.654292 -0.931065 0.000000
162.489650 -2.185784 -1.051068 0.000000
164.308910 -2.141007 -1.031710 0.000000
166.628430 -2.168062 -1.013449 0.000000
169.141330 -2.101694 -0.922449 0.000000
162.672030 -1.740183 -1.031663 0.000000
164.452910 -1.725922 -1.016833 0.000000
166.743070 -1.664902 -0.994826 0.000000
169.403030 -1.718131 -0.928813 0.000000
162.781020 -1.475457 -1.021984 0.000000
162.848710 -1.297405 -1.015423 0.000000
164.580110 -1.307077 -1.001787 0.000000
166.814640 -1.285840 -0.980560 0.000000
169.538970 -1.292342 -0.922195 0.000000
162.945630 -1.029544 -1.005979 0.000000
164.695010 -0.886892 -0.987328 0.000000
166.876820 -0.907288 -0.966686 0.000000
169.669720 -0.864116 -0.916386 0.000000
163.095660 -0.581224 -0.991219 0.000000
164.799330 -0.466174 -0.973714 0.000000
166.936220 -0.530664 -0.953752 0.000000
169.807560 -0.436021 -0.912418 0.000000
163.226990 -0.128811 -0.976607 0.000000
164.869020 -0.149705 -0.963714 0.000000
166.986690 -0.154629 -0.941234 0.000000
169.814010 -0.131305 -0.901354 0.000000
163.316470 0.235975 -0.964938 0.000000
164.928310 0.168010 -0.953637 0.000000
167.040220 0.346246 -0.924836 0.000000
169.764480 0.332414 -0.879781 0.000000
163.392790 0.602566 -0.953346 0.000000
164.995120 0.592371 -0.940360 0.000000
167.071210 0.721066 -0.912905 0.000000
163.455610 0.970586 -0.941772 0.000000
165.046780 1.017313 -0.927202 0.000000
167.091290 1.095203 -0.901106 0.000000
169.797330 1.074973 -0.858999 0.000000
163.514620 1.431808 -0.927381 0.000000
165.083570 1.442264 -0.914204 0.000000
167.105590 1.468143 -0.889784 0.000000
169.774060 1.521620 -0.843986 0.000000
163.552870 1.893630 -0.912856 0.000000
165.104900 1.866778 -0.901280 0.000000
167.112700 1.839608 -0.879047 0.000000
169.752350 1.964586 -0.830349 0.000000
163.571590 2.262285 -0.901945 0.000000
165.113080 2.290115 -0.888765 0.000000
167.111600 2.333037 -0.865370 0.000000
169.731990 2.258328 -0.821446 0.000000
163.609210 2.627718 -0.896562 0.000000
165.148620 2.709369 -0.882601 0.000000
167.132160 2.700008 -0.859232 0.000000
169.706990 2.550870 -0.812654 0.000000
163.641830 2.993834 -0.892581 0.000000
165.179960 3.129227 -0.878072 0.000000
167.156130 3.066801 -0.854926 0.000000
169.665220 3.131599 -0.797653 0.000000
163.661740 3.361149 -0.888703 0.000000
165.194470 3.444909 -0.874761 0.000000
167.172580 3.434226 -0.850806 0.000000
169.691390 3.420269 -0.795783 0.000000
163.668120 3.821332 -0.884018 0.000000
165.199780 3.761130 -0.871516 0.000000
167.179840 3.802283 -0.846947 0.000000
169.727280 3.855028 -0.793718 0.000000
163.655550 4.281818 -0.879450 0.000000
165.194700 4.183090 -0.867298 0.000000
167.176670 4.293580 -0.842086 0.000000
169.766100 4.292025 -0.793031 0.000000
163.630600 4.649870 -0.875943 0.000000
165.175030 4.605019 -0.863222 0.000000
167.168490 4.662600 -0.839132 0.000000
169.847790 4.736077 -0.798019 0.000000
163.587100 5.016273 -0.871596 0.000000
165.140430 5.026376 -0.859246 0.000000
167.156680 5.032505 -0.837139 0.000000
169.904910 5.182484 -0.801621 0.000000
163.528320 5.380592 -0.866951 0.000000
165.069340 5.550236 -0.853357 0.000000
165.102520 5.341335 -0.855949 0.000000
167.125810 5.525849 -0.834514 0.000000
169.901370 5.478468 -0.800577 0.000000
163.470500 5.840802 -0.867133 0.000000
165.046810 5.869477 -0.854588 0.000000
167.103680 5.897756 -0.834094 0.000000
169.885990 5.923235 -0.799121 0.000000
163.449330 6.314430 -0.876970 0.000000
165.044110 6.304662 -0.862187 0.000000
167.097340 6.275276 -0.837061 0.000000
169.886380 6.373023 -0.800385 0.000000
163.411620 6.693783 -0.884164 0.000000
164.999540 6.735485 -0.866054 0.000000
167.083540 6.654338 -0.840285 0.000000
163.341370 7.067417 -0.888235 0.000000
164.958420 7.059439 -0.869332 0.000000
167.057590 7.034474 -0.843495 0.000000
169.792970 6.959812 -0.794708 0.000000
169.900420 7.288799 -0.808294 0.000000
163.254760 7.438966 -0.891947 0.000000
164.904690 7.382494 -0.872275 0.000000
167.009580 7.543038 -0.848129 0.000000
169.896070 7.596760 -0.811206 0.000000
163.156020 7.809359 -0.896038 0.000000
164.821960 7.813351 -0.876611 0.000000
166.962080 7.925117 -0.851704 0.000000
169.887160 7.905995 -0.814257 0.000000
163.013350 8.269096 -0.901234 0.000000
163.073180 8.085718 -0.899135 0.000000
164.723040 8.242959 -0.881026 0.000000
166.903550 8.307687 -0.855452 0.000000
169.746960 8.180709 -0.804568 0.000000
162.882770 8.633580 -0.905608 0.000000
164.608760 8.671083 -0.885661 0.000000
166.836380 8.690535 -0.859374 0.000000
169.856460 8.688484 -0.823807 0.000000
166.783200 8.944791 -0.861771 0.000000
169.997310 9.220180 -0.847679 0.000000
162.875260 9.300226 -0.952127 0.000000
164.665850 9.314937 -0.926464 0.000000
169.956730 9.869658 -0.858588 0.000000
149.752610 9.398348 -0.252847 0.000000
149.954730 9.434384 -0.089010 0.000000
149.741460 9.400950 0.349323 0.000000
149.919130 9.405008 0.357825 0.000000
149.734560 9.402564 0.721572 0.000000
149.931530 9.412541 0.726097 0.000000
149.727680 9.404173 1.093465 0.000000
149.928100 9.408278 1.093048 0.000000
149.718260 9.408057 1.542532 0.000000
149.923970 9.403142 1.534943 0.000000
149.708160 9.417235 1.846066 0.000000
149.921190 9.399693 1.831936 0.000000
156.799650 -13.844756 -1.629067 0.000000
157.248050 -13.742185 -1.616733 0.000000
157.541110 -13.644031 -1.605074 0.000000
164.473680 -13.728887 -1.415653 0.000000
149.301300 -13.358260 -1.738968 0.000000
149.588580 -13.484754 -1.742140 0.000000
150.172440 -13.717805 -1.747410 0.000000
150.508070 -13.679809 -1.727396 0.000000
165.133480 -13.165462 -1.384227 0.000000
148.739140 -13.079980 -1.730632 0.000000
149.057080 -13.117663 -1.718466 0.000000
157.776050 -13.182988 -1.540921 0.000000
158.074710 -13.177819 -1.544169 0.000000
158.477280 -12.929557 -1.515037 0.000000
165.401180 -12.953975 -1.374521 0.000000
147.592830 -12.593453 -1.733404 0.000000
148.060270 -12.691518 -1.717428 0.000000
148.464370 -12.929481 -1.725631 0.000000
158.901380 -12.810708 -1.506234 0.000000
165.596120 -12.632047 -1.349955 0.000000
165.989520 -12.616998 -1.368942 0.000000
147.408080 -12.264280 -1.701639 0.000000
159.236300 -12.348656 -1.448155 0.000000
159.618530 -12.124105 -1.426317 0.000000
166.180820 -12.298563 -1.345846 0.000000
166.430760 -12.070526 -1.336037 0.000000
146.614320 -11.793626 -1.694961 0.000000
147.156040 -12.081867 -1.694493 0.000000
160.122740 -11.837519 -1.401250 0.000000
160.383880 -11.730713 -1.395091 0.000000
160.642430 -11.618517 -1.388738 0.000000
166.867950 -11.540015 -1.307124 0.000000
146.429920 -11.501060 -1.670804 0.000000
160.898480 -11.501592 -1.382287 0.000000
161.151670 -11.379199 -1.375617 0.000000
161.402480 -11.252932 -1.368965 0.000000
167.050670 -11.236636 -1.287647 0.000000
