# .PCD v0.7 - Point Cloud Data file format
VERSION 0.7
FIELDS x y z intensity
SIZE 4 4 4 4
TYPE F F F F
COUNT 1 1 1 1
WIDTH 1195
HEIGHT 1
VIEWPOINT 0 0 0 1 0 0 0
POINTS 1195
DATA ascii
146.263550 134.936040 3.295573 0.000000
152.724660 134.989110 3.246628 0.000000
146.097750 135.272720 3.324890 0.000000
152.096730 135.333390 3.278393 0.000000
152.395610 135.332350 3.289897 0.000000
145.936660 135.606050 3.353354 0.000000
151.946560 135.718370 3.333015 0.000000
151.771850 136.017170 3.372259 0.000000
169.793490 132.257900 3.087659 0.000000
170.450940 132.971010 3.111895 0.000000
170.684510 133.597550 3.157473 0.000000
165.260510 133.977050 3.180044 0.000000
165.566120 134.430630 3.219172 0.000000
165.929930 134.744380 3.234114 0.000000
159.756870 135.232640 3.294105 0.000000
166.076370 135.123050 3.272561 0.000000
166.308620 135.330900 3.281470 0.000000
160.002640 135.402860 3.313898 0.000000
160.382400 135.543090 3.322546 0.000000
166.758540 135.757420 3.299751 0.000000
160.729770 135.826830 3.354940 0.000000
161.126570 135.843320 3.339149 0.000000
161.620360 136.020720 3.343048 0.000000
166.109130 135.714290 6.314749 0.000000
166.259890 136.039020 6.308303 0.000000
168.508760 135.935270 7.517535 0.000000
167.479020 135.790860 8.253307 0.000000
149.922350 117.262390 1.805370 0.000000
146.729060 117.409180 1.745621 0.000000
148.757130 117.595050 1.819285 0.000000
150.683440 117.736660 1.875020 0.000000
152.528980 117.830680 1.913498 0.000000
147.567810 117.874760 1.821870 0.000000
149.534410 118.040910 1.888245 0.000000
151.411100 118.174430 1.938657 0.000000
153.216900 118.275670 1.974086 0.000000
146.374940 118.174190 1.821961 0.000000
148.374850 118.327330 1.894621 0.000000
152.096590 118.527950 1.990580 0.000000
154.948610 118.210040 1.978942 0.000000
153.865650 118.620190 2.021200 0.000000
155.558150 118.467660 2.012114 0.000000
156.159620 118.757290 2.048043 0.000000
154.499210 118.970780 2.067828 0.000000
156.742950 118.989750 2.075990 0.000000
157.318730 119.253940 2.106724 0.000000
157.882400 119.497360 2.133933 0.000000
158.436190 119.737440 2.159747 0.000000
158.980640 119.974170 2.184191 0.000000
160.044050 120.371380 2.221003 0.000000
160.567230 120.495400 2.228938 0.000000
161.085940 120.633240 2.237611 0.000000
161.596270 120.844250 2.254304 0.000000
162.100330 121.054660 2.270048 0.000000
162.598630 121.262440 2.284599 0.000000
163.091640 121.467670 2.297981 0.000000
163.579710 121.670520 2.310218 0.000000
164.063030 121.872510 2.321500 0.000000
164.542570 122.069820 2.331358 0.000000
165.013180 122.293300 2.343658 0.000000
165.456510 122.628130 2.369187 0.000000
165.718350 123.747760 2.493474 0.000000
166.137450 124.052430 2.514379 0.000000
166.538600 124.399060 2.540015 0.000000
166.966460 124.617900 2.548624 0.000000
167.189930 125.517890 2.644762 0.000000
167.599820 125.730820 2.651662 0.000000
167.976840 126.033530 2.669618 0.000000
168.407170 126.167530 2.664687 0.000000
154.216340 127.315170 2.531430 0.000000
154.675030 127.458180 2.559715 0.000000
155.485090 127.306690 2.550183 0.000000
155.948410 127.575430 2.593420 0.000000
153.028500 127.700520 2.558393 0.000000
153.501020 127.848350 2.590505 0.000000
155.144470 127.694950 2.600408 0.000000
156.396120 127.821010 2.632285 0.000000
157.620740 128.005370 2.663948 0.000000
152.324840 128.212160 2.609068 0.000000
153.970460 128.021640 2.625130 0.000000
156.839800 128.117980 2.677502 0.000000
157.271060 128.414760 2.721717 0.000000
158.038090 128.271550 2.701956 0.000000
152.803530 128.363400 2.643701 0.000000
158.450610 128.626650 2.751813 0.000000
158.842540 128.822310 2.778001 0.000000
151.634660 128.707890 2.654194 0.000000
152.116170 128.848510 2.689333 0.000000
159.227260 129.026550 2.804590 0.000000
159.604540 129.235290 2.831025 0.000000
150.944310 129.162960 2.690072 0.000000
151.429700 129.292980 2.725772 0.000000
150.248780 129.580760 2.717061 0.000000
150.751280 129.727710 2.757532 0.000000
150.108580 130.216400 2.794271 0.000000
149.873890 130.623670 2.836476 0.000000
149.202090 131.011460 2.853337 0.000000
149.698060 131.123830 2.892608 0.000000
149.137950 131.681660 2.935088 0.000000
148.971740 132.141780 2.983988 0.000000
168.588500 126.971400 2.748105 0.000000
168.979630 127.175030 2.751405 0.000000
169.117780 127.986980 2.836270 0.000000
169.490230 128.197270 2.839659 0.000000
169.879000 128.367870 2.836868 0.000000
170.102330 128.886700 2.881603 0.000000
170.474660 129.076690 2.880310 0.000000
160.525450 129.458740 2.850656 0.000000
161.073060 129.539730 2.852514 0.000000
161.432830 129.642640 2.859746 0.000000
161.789380 129.751980 2.867129 0.000000
170.657010 129.632130 2.929936 0.000000
162.141940 129.873350 2.875495 0.000000
162.509830 129.854740 2.862620 0.000000
162.866820 129.925690 2.861991 0.000000
163.308750 130.561250 2.937582 0.000000
163.834900 130.634120 2.928883 0.000000
164.157900 130.813000 2.941431 0.000000
164.523150 130.798890 2.924341 0.000000
164.745710 131.353790 2.992196 0.000000
165.079100 131.443390 2.989384 0.000000
165.390210 131.608900 2.997370 0.000000
165.574070 132.171810 3.065776 0.000000
166.033250 132.383330 3.070330 0.000000
148.815280 132.597030 3.031954 0.000000
166.376620 132.899250 3.121243 0.000000
166.611980 133.197250 3.147577 0.000000
148.738940 133.157520 3.096715 0.000000
167.252760 133.752700 3.181428 0.000000
148.616810 133.622040 3.146154 0.000000
167.647520 134.040740 3.193003 0.000000
168.230000 134.300140 3.185580 0.000000
148.494520 134.066710 3.192358 0.000000
156.484340 134.233000 3.171217 0.000000
156.797000 134.327620 3.192191 0.000000
157.235410 134.346830 3.201559 0.000000
157.630130 134.061770 3.158927 0.000000
158.076750 134.155200 3.177107 0.000000
158.517010 134.259550 3.195520 0.000000
158.808000 134.354540 3.210976 0.000000
159.225880 134.212420 3.185523 0.000000
159.655610 134.425280 3.217367 0.000000
148.323150 134.425140 3.224296 0.000000
155.124400 134.735950 3.217561 0.000000
155.429900 134.762480 3.231210 0.000000
155.967100 134.558610 3.212842 0.000000
156.267270 134.589230 3.224700 0.000000
160.073930 134.585880 3.238759 0.000000
160.489360 134.629680 3.239307 0.000000
160.765840 134.651810 3.237511 0.000000
161.180220 134.685100 3.233347 0.000000
148.229420 134.876720 3.271559 0.000000
154.756100 134.995900 3.246254 0.000000
161.971980 135.024490 3.266286 0.000000
148.075420 135.232650 3.302771 0.000000
154.083940 135.227810 3.256522 0.000000
154.398540 135.262410 3.274843 0.000000
147.926330 135.584170 3.333033 0.000000
153.571850 135.841220 3.328184 0.000000
153.908100 135.556230 3.299973 0.000000
167.903350 134.241070 3.201329 0.000000
168.399730 134.656040 3.218737 0.000000
168.639070 134.872130 3.228112 0.000000
162.367200 135.143280 3.271992 0.000000
162.627520 135.230530 3.276257 0.000000
168.801820 135.213680 3.258527 0.000000
162.853840 135.479510 3.307582 0.000000
163.263170 135.488740 3.290807 0.000000
163.665450 135.544740 3.280492 0.000000
163.878860 135.785200 3.308143 0.000000
164.117970 135.916730 3.316234 0.000000
169.751100 136.017670 3.279075 0.000000
166.192310 135.840470 6.328942 0.000000
170.501070 136.050860 7.152310 0.000000
168.404880 135.922240 7.454550 0.000000
147.846310 117.649700 1.787347 0.000000
149.860640 117.833330 1.860449 0.000000
151.015730 117.495070 1.846065 0.000000
146.626790 117.939950 1.782904 0.000000
148.673030 118.094570 1.860619 0.000000
150.627110 118.257970 1.926435 0.000000
151.773220 117.970460 1.915463 0.000000
153.604870 118.055730 1.952819 0.000000
147.489820 118.397770 1.861045 0.000000
149.476850 118.548800 1.933181 0.000000
152.492020 118.389070 1.976427 0.000000
146.277650 118.666990 1.852129 0.000000
155.963120 118.128280 1.981234 0.000000
156.575040 118.390090 2.014767 0.000000
154.286360 118.487090 2.011430 0.000000
157.178800 118.684280 2.051072 0.000000
153.174440 118.744490 2.028307 0.000000
154.939120 118.871290 2.063068 0.000000
155.559680 119.169360 2.103131 0.000000
157.764130 118.920360 2.079324 0.000000
158.341830 119.188690 2.110395 0.000000
158.907230 119.435830 2.137905 0.000000
160.006680 119.855300 2.180970 0.000000
160.543750 119.997750 2.192948 0.000000
161.075270 120.195110 2.210592 0.000000
161.600020 120.392520 2.227310 0.000000
162.117460 120.611130 2.245686 0.000000
162.628190 120.826780 2.262814 0.000000
163.132660 121.039620 2.278722 0.000000
163.631320 121.249690 2.293429 0.000000
164.124570 121.457210 2.306964 0.000000
164.612810 121.662280 2.319349 0.000000
165.090910 121.902580 2.335242 0.000000
165.546020 122.245830 2.363106 0.000000
165.986600 122.617110 2.393782 0.000000
166.424350 122.952070 2.419286 0.000000
166.680690 124.072460 2.542976 0.000000
167.105440 124.329630 2.557875 0.000000
167.520800 124.602160 2.574035 0.000000
167.950350 124.802020 2.580225 0.000000
168.169850 125.705400 2.676223 0.000000
168.576370 125.918530 2.683166 0.000000
168.949720 126.222180 2.701193 0.000000
169.376770 126.355720 2.696304 0.000000
155.294860 127.522800 2.565524 0.000000
154.061370 127.719410 2.564912 0.000000
154.534360 127.868810 2.597177 0.000000
155.783540 127.814830 2.615055 0.000000
156.591320 127.717340 2.613266 0.000000
157.049180 127.995120 2.657544 0.000000
153.360900 128.240070 2.616407 0.000000
154.999970 128.027400 2.629593 0.000000
156.259950 128.115220 2.664608 0.000000
157.489070 128.236400 2.695577 0.000000
158.692500 128.420680 2.727118 0.000000
153.839950 128.392850 2.651187 0.000000
157.925800 128.533840 2.740620 0.000000
158.349790 128.828370 2.784285 0.000000
159.102720 128.684920 2.764678 0.000000
152.674300 128.743970 2.662268 0.000000
153.155990 128.885990 2.697535 0.000000
159.508220 129.037640 2.813966 0.000000
159.892670 129.220150 2.838197 0.000000
160.264830 129.215420 2.834923 0.000000
160.636840 129.216400 2.831609 0.000000
161.008470 129.251660 2.832339 0.000000
151.987790 129.206380 2.698818 0.000000
152.473250 129.337630 2.734627 0.000000
151.296400 129.630810 2.726428 0.000000
151.798860 129.778960 2.766983 0.000000
151.118210 130.185610 2.790880 0.000000
150.929870 130.687150 2.847055 0.000000
150.246540 131.050090 2.859783 0.000000
150.758130 131.192990 2.903678 0.000000
150.110980 131.593780 2.921275 0.000000
149.927250 132.028380 2.965630 0.000000
169.554120 127.161610 2.779524 0.000000
169.941680 127.365260 2.782884 0.000000
170.105450 128.106980 2.857849 0.000000
170.508000 128.242680 2.851117 0.000000
161.378230 129.317230 2.836568 0.000000
161.745440 129.396760 2.841978 0.000000
162.109890 129.485170 2.847849 0.000000
162.470900 129.588200 2.855030 0.000000
162.828490 129.699540 2.862627 0.000000
163.182110 129.822140 2.871079 0.000000
163.551250 129.802610 2.858099 0.000000
163.909360 129.873990 2.857482 0.000000
164.351760 130.518070 2.933791 0.000000
164.879270 130.591720 2.925155 0.000000
165.187440 130.842960 2.948304 0.000000
165.530440 130.920850 2.945018 0.000000
165.893490 131.607500 3.024258 0.000000
166.359630 131.839490 3.034265 0.000000
166.843840 132.537580 3.104951 0.000000
149.773540 132.493040 3.014522 0.000000
167.142520 132.685530 3.108738 0.000000
167.373490 133.011430 3.139621 0.000000
167.657070 133.181590 3.145757 0.000000
167.892650 133.463170 3.168917 0.000000
149.701930 133.065370 3.080533 0.000000
168.208070 133.545390 3.159891 0.000000
168.475970 133.736500 3.167543 0.000000
149.583220 133.539030 3.130886 0.000000
168.739060 133.932600 3.175429 0.000000
168.996150 134.135710 3.183896 0.000000
169.325100 134.195220 3.168030 0.000000
149.464220 133.992070 3.177914 0.000000
157.523360 134.272310 3.176225 0.000000
157.835720 134.367450 3.197233 0.000000
158.116620 134.309040 3.191995 0.000000
158.670100 134.120730 3.167429 0.000000
158.982380 134.306140 3.200082 0.000000
159.276460 134.385930 3.214526 0.000000
160.269040 134.452530 3.223939 0.000000
160.690380 134.484890 3.225919 0.000000
160.970090 134.506500 3.226251 0.000000
149.295320 134.357270 3.210498 0.000000
156.167480 134.781650 3.223124 0.000000
157.007900 134.601650 3.218159 0.000000
157.307620 134.632170 3.230001 0.000000
158.430300 134.463530 3.221142 0.000000
159.575490 134.573300 3.245913 0.000000
159.864140 134.713010 3.268698 0.000000
161.249150 134.526500 3.225573 0.000000
161.527650 134.548690 3.224515 0.000000
161.805800 134.570890 3.222713 0.000000
162.222700 134.604310 3.218535 0.000000
162.885680 134.910640 3.250158 0.000000
149.205310 134.816860 3.258558 0.000000
155.802980 135.050310 3.253068 0.000000
156.472530 134.808400 3.236806 0.000000
163.152330 134.985600 3.253616 0.000000
163.416440 135.068330 3.257699 0.000000
163.678180 135.156630 3.262041 0.000000
149.053960 135.178940 3.290348 0.000000
155.452500 135.333570 3.284288 0.000000
148.907550 135.536330 3.321162 0.000000
154.610050 135.866970 3.329334 0.000000
154.972730 135.648790 3.312893 0.000000
169.897640 135.121600 3.241880 0.000000
170.253300 135.137500 3.215559 0.000000
164.190430 135.365740 3.274262 0.000000
170.397050 135.498080 3.248155 0.000000
163.905470 135.409070 3.293713 0.000000
164.439120 135.490600 3.282892 0.000000
164.922490 135.766620 3.302884 0.000000
170.580340 135.784350 3.267687 0.000000
165.145230 135.955920 3.320984 0.000000
165.408460 136.002170 3.313397 0.000000
165.854250 133.644840 6.391614 0.000000
166.110310 135.676670 6.329948 0.000000
166.271410 136.028750 6.319884 0.000000
168.256210 135.674880 7.429654 0.000000
169.370820 136.054430 7.442441 0.000000
169.123250 135.290860 7.877910 0.000000
152.137440 117.749260 1.887232 0.000000
147.758730 118.145070 1.820034 0.000000
148.982070 117.882880 1.827484 0.000000
150.984120 118.066880 1.899466 0.000000
152.885860 118.207920 1.953932 0.000000
154.711490 118.318850 1.993479 0.000000
146.490110 118.353040 1.800415 0.000000
148.621570 118.611520 1.898505 0.000000
149.799320 118.314000 1.898344 0.000000
151.746050 118.490140 1.964627 0.000000
153.602460 118.633590 2.015135 0.000000
147.382450 118.804920 1.880586 0.000000
150.601900 118.775760 1.971129 0.000000
146.239010 119.242080 1.888030 0.000000
146.052670 120.203480 1.984708 0.000000
157.007770 118.095050 1.985496 0.000000
157.621860 118.365100 2.019618 0.000000
155.372040 118.669750 2.041867 0.000000
158.227540 118.668180 2.056565 0.000000
154.282260 118.995110 2.067198 0.000000
155.992540 118.897140 2.074234 0.000000
156.605710 119.151780 2.108682 0.000000
158.814330 118.911580 2.085315 0.000000
159.393280 119.187820 2.116937 0.000000
159.955930 119.383490 2.137928 0.000000
160.509230 119.551050 2.154556 0.000000
161.057740 119.787150 2.178397 0.000000
161.597430 120.019930 2.200893 0.000000
162.128830 120.249440 2.222065 0.000000
162.653000 120.452160 2.239107 0.000000
163.169650 120.676610 2.257859 0.000000
163.679380 120.897950 2.275354 0.000000
164.182690 121.116290 2.291617 0.000000
164.679990 121.331730 2.306670 0.000000
165.165360 121.601230 2.327468 0.000000
165.630280 121.970200 2.359656 0.000000
166.084470 122.338570 2.391086 0.000000
166.532090 122.683000 2.418909 0.000000
166.965070 123.055630 2.449568 0.000000
167.399310 123.371210 2.472511 0.000000
167.673110 124.379390 2.581530 0.000000
168.097850 124.615250 2.593604 0.000000
168.507950 124.889800 2.609865 0.000000
168.932170 125.091500 2.616193 0.000000
169.146500 125.995530 2.711777 0.000000
155.126390 127.790200 2.576729 0.000000
156.452470 127.985080 2.632951 0.000000
154.414780 128.273130 2.622681 0.000000
155.643300 128.099470 2.631684 0.000000
156.932850 128.276020 2.681802 0.000000
157.726170 128.185270 2.680524 0.000000
154.892730 128.422900 2.656742 0.000000
156.149220 128.427110 2.687966 0.000000
157.401700 128.578310 2.731126 0.000000
158.176090 128.463350 2.724396 0.000000
158.608140 128.704990 2.762086 0.000000
153.729250 128.779560 2.668818 0.000000
154.212510 128.926470 2.704521 0.000000
159.036940 129.002180 2.806678 0.000000
159.788600 128.894040 2.793642 0.000000
160.175670 128.969240 2.804112 0.000000
160.556670 129.006790 2.808388 0.000000
160.938400 129.106980 2.820683 0.000000
161.314180 129.141490 2.822826 0.000000
161.688450 129.184050 2.825264 0.000000
162.061000 129.243190 2.829220 0.000000
153.043760 129.243790 2.705578 0.000000
153.530840 129.379710 2.741799 0.000000
159.453060 129.296400 2.849909 0.000000
152.353290 129.669430 2.733343 0.000000
152.857590 129.822450 2.774330 0.000000
152.177990 130.230000 2.798356 0.000000
151.992320 130.736330 2.854994 0.000000
151.310010 131.099470 2.867795 0.000000
151.823390 131.246830 2.912059 0.000000
151.177260 131.647380 2.929641 0.000000
150.948670 132.005360 2.961819 0.000000
150.728870 132.364900 2.993809 0.000000
169.547670 126.209970 2.718815 0.000000
169.915700 126.514490 2.736842 0.000000
170.330840 126.667310 2.734474 0.000000
170.507690 127.459460 2.815534 0.000000
162.431370 129.311610 2.833666 0.000000
162.799100 129.393550 2.839222 0.000000
163.163970 129.484740 2.845287 0.000000
163.525190 129.591690 2.852818 0.000000
163.883060 129.704970 2.860475 0.000000
164.606140 129.812500 2.856237 0.000000
164.236790 129.830570 2.869138 0.000000
164.963680 129.890200 2.856351 0.000000
165.219010 130.580570 2.945057 0.000000
165.546400 130.754240 2.957993 0.000000
165.878460 130.885030 2.963945 0.000000
166.178380 131.151920 2.989316 0.000000
166.516170 131.230210 2.986124 0.000000
166.715700 131.847310 3.062699 0.000000
167.028340 131.981700 3.066797 0.000000
167.330250 132.146820 3.074847 0.000000
167.877730 132.622770 3.111369 0.000000
168.219380 132.645830 3.095726 0.000000
168.459460 132.950930 3.122985 0.000000
150.655410 132.940430 3.059740 0.000000
168.861220 133.267730 3.141096 0.000000
169.294940 133.495710 3.143963 0.000000
150.538770 133.423070 3.111021 0.000000
170.083690 134.095110 3.168409 0.000000
170.390880 134.199680 3.159707 0.000000
150.421750 133.884410 3.158897 0.000000
158.581540 134.334700 3.181733 0.000000
161.317470 134.402010 3.209754 0.000000
161.740970 134.436370 3.211866 0.000000
162.162230 134.469880 3.211972 0.000000
162.582200 134.503980 3.210679 0.000000
162.861590 134.527480 3.208950 0.000000
163.280270 134.562840 3.204872 0.000000
150.253660 134.255750 3.192070 0.000000
158.067340 134.664320 3.223700 0.000000
158.366760 134.696460 3.235661 0.000000
158.901630 134.474170 3.209858 0.000000
159.198990 134.520740 3.221812 0.000000
159.646120 134.636460 3.245683 0.000000
160.073870 134.679720 3.256052 0.000000
160.488450 134.621440 3.247873 0.000000
164.077440 134.927310 3.241048 0.000000
150.166180 134.723510 3.240968 0.000000
156.864560 135.111070 3.258501 0.000000
157.228070 134.841950 3.228505 0.000000
157.532930 134.870180 3.242286 0.000000
164.471650 135.075970 3.251378 0.000000
164.730420 135.182710 3.258668 0.000000
150.015910 135.091420 3.273312 0.000000
156.515180 135.394910 3.289785 0.000000
149.870700 135.454440 3.304660 0.000000
155.679730 135.939360 3.336781 0.000000
156.036740 135.710330 3.318437 0.000000
170.535600 134.607930 3.200776 0.000000
170.741260 134.887500 3.220303 0.000000
164.953410 135.456770 3.293756 0.000000
165.221150 135.490650 3.287432 0.000000
165.728930 135.677250 3.292994 0.000000
166.076800 135.923110 3.313758 0.000000
166.479390 135.970550 3.298638 0.000000
166.537280 134.937610 6.704739 0.000000
166.735320 135.252150 6.689676 0.000000
164.690640 135.619900 7.327435 0.000000
153.362700 118.278570 1.946005 0.000000
150.245150 118.384020 1.884258 0.000000
152.219270 118.568140 1.955273 0.000000
154.094680 118.711860 2.009274 0.000000
147.787120 118.842960 1.857171 0.000000
149.038130 118.639180 1.876577 0.000000
151.052030 118.812340 1.954314 0.000000
152.971570 118.989460 2.019806 0.000000
148.669010 119.293050 1.936563 0.000000
149.890700 119.103670 1.954291 0.000000
151.844160 119.270480 2.026211 0.000000
147.409520 119.459420 1.910451 0.000000
146.365480 120.080800 1.936819 0.000000
147.196120 120.360730 1.999399 0.000000
146.185040 120.988980 2.025500 0.000000
146.004970 121.849820 2.108075 0.000000
158.117900 118.351360 2.010282 0.000000
155.840640 118.585600 2.019833 0.000000
158.728260 118.623630 2.044517 0.000000
154.808120 119.159100 2.072730 0.000000
156.493580 118.920230 2.066067 0.000000
157.110460 119.149680 2.098515 0.000000
159.330150 118.929000 2.081584 0.000000
159.908230 119.125430 2.104620 0.000000
157.719990 119.406400 2.133050 0.000000
160.478260 119.331500 2.127761 0.000000
161.041900 119.575100 2.154358 0.000000
155.495010 119.587620 2.132520 0.000000
161.595640 119.815390 2.179571 0.000000
162.140030 120.052280 2.203419 0.000000
162.675580 120.285830 2.225929 0.000000
163.202800 120.516040 2.247119 0.000000
163.722780 120.719320 2.264177 0.000000
164.235170 120.944370 2.282954 0.000000
164.740650 121.166260 2.300478 0.000000
165.233490 121.465740 2.326525 0.000000
165.709320 121.848390 2.361876 0.000000
166.174410 122.221650 2.395386 0.000000
166.629410 122.585940 2.427123 0.000000
167.073820 122.949580 2.458117 0.000000
167.515670 123.265660 2.482616 0.000000
167.956090 123.543290 2.501686 0.000000
168.394380 123.797120 2.517101 0.000000
168.663220 124.795600 2.624866 0.000000
169.081180 125.029620 2.636868 0.000000
169.484620 125.301960 2.653014 0.000000
169.901980 125.502130 2.659344 0.000000
155.569320 128.526410 2.650593 0.000000
156.389310 128.435380 2.660859 0.000000
156.892970 128.738800 2.714554 0.000000
157.680210 128.628400 2.715858 0.000000
158.919720 128.826510 2.762428 0.000000
154.879810 128.998320 2.691902 0.000000
155.349290 129.117160 2.723302 0.000000
156.094130 128.837070 2.707674 0.000000
157.385880 129.060300 2.769563 0.000000
158.148070 128.913860 2.763601 0.000000
158.604630 129.210330 2.811795 0.000000
159.357730 129.099210 2.805302 0.000000
160.868330 128.937150 2.790294 0.000000
161.255360 129.015470 2.801150 0.000000
161.644500 129.187040 2.824320 0.000000
162.019930 129.209370 2.825551 0.000000
162.394380 129.245510 2.827886 0.000000
162.767290 129.288880 2.830403 0.000000
154.204220 129.467470 2.729616 0.000000
159.778200 129.336240 2.842136 0.000000
160.173520 129.463940 2.862572 0.000000
153.520680 129.890230 2.757240 0.000000
154.687650 129.604140 2.765710 0.000000
154.021300 130.043950 2.798067 0.000000
153.348590 130.448590 2.821969 0.000000
153.166110 130.952740 2.878350 0.000000
152.490690 131.313030 2.891098 0.000000
153.000260 131.460920 2.935144 0.000000
152.360960 131.858490 2.952654 0.000000
152.135560 132.214510 2.984685 0.000000
170.111950 126.396810 2.753779 0.000000
170.495670 126.643840 2.765236 0.000000
163.138440 129.348860 2.834441 0.000000
160.552980 129.509090 2.870454 0.000000
163.507370 129.417820 2.838927 0.000000
163.873630 129.500870 2.844608 0.000000
164.236980 129.593030 2.850780 0.000000
164.596710 129.700640 2.858370 0.000000
164.952590 129.819210 2.866759 0.000000
165.293460 130.045790 2.889939 0.000000
165.646120 130.130110 2.891902 0.000000
165.984330 130.303620 2.906020 0.000000
166.234440 130.984220 2.993325 0.000000
166.555390 131.155820 3.006116 0.000000
166.880950 131.284880 3.012003 0.000000
167.174910 131.547790 3.036955 0.000000
167.505910 131.625810 3.033955 0.000000
167.720600 132.157420 3.097887 0.000000
168.062610 132.165620 3.083216 0.000000
168.401630 132.194270 3.070727 0.000000
168.625440 132.598750 3.114478 0.000000
168.968610 132.608920 3.097732 0.000000
151.918720 132.571690 3.016472 0.000000
151.779800 133.038040 3.065186 0.000000
170.070530 133.402530 3.139600 0.000000
170.369430 133.528310 3.137127 0.000000
151.613510 133.443300 3.104063 0.000000
170.604230 133.795670 3.156608 0.000000
151.498090 133.907070 3.152209 0.000000
162.396480 134.418050 3.200782 0.000000
162.820210 134.453120 3.202964 0.000000
163.241650 134.487350 3.203133 0.000000
163.661790 134.522130 3.201901 0.000000
163.940230 134.563280 3.203052 0.000000
151.331220 134.280170 3.185578 0.000000
159.748900 134.785870 3.244778 0.000000
160.333560 134.869550 3.267684 0.000000
160.863850 134.643420 3.236649 0.000000
161.152240 134.695340 3.247059 0.000000
161.567080 134.637330 3.238903 0.000000
161.993060 134.737560 3.255149 0.000000
164.355650 134.632190 3.204501 0.000000
165.010880 135.008500 3.247175 0.000000
151.245480 134.750240 3.234739 0.000000
158.345700 134.994570 3.242619 0.000000
158.648270 135.023150 3.256348 0.000000
159.193370 134.881030 3.248199 0.000000
159.510450 135.007230 3.275587 0.000000
160.064960 134.944820 3.275906 0.000000
164.733220 135.026690 3.258704 0.000000
151.096500 135.119720 3.267263 0.000000
157.639210 135.544530 3.303574 0.000000
157.985430 135.262210 3.272455 0.000000
150.952580 135.484240 3.298782 0.000000
157.164920 135.857760 3.332023 0.000000
156.648030 136.053590 3.337595 0.000000
165.265500 135.160030 3.263309 0.000000
165.515210 135.317030 3.279768 0.000000
165.767410 135.438370 3.289626 0.000000
166.410280 135.638000 3.293757 0.000000
166.814590 135.676760 3.280355 0.000000
167.162720 135.924100 3.301241 0.000000
167.565730 135.972140 3.286141 0.000000
166.225630 135.989580 6.309441 0.000000
170.075410 135.720250 7.406002 0.000000
169.212920 135.565920 7.749890 0.000000
150.602860 119.774200 1.984192 0.000000
151.754850 119.495820 1.989396 0.000000
149.411710 120.004180 1.967852 0.000000
151.415340 120.198250 2.057400 0.000000
149.051510 120.606120 2.019618 0.000000
150.250500 120.413770 2.042594 0.000000
147.948930 121.028240 2.020693 0.000000
148.740450 121.273590 2.079227 0.000000
147.775730 121.912030 2.106794 0.000000
146.788910 122.504080 2.124110 0.000000
159.296750 119.050350 2.073236 0.000000
159.885860 119.255150 2.100279 0.000000
154.744860 119.322580 2.044932 0.000000
157.083680 119.351140 2.087790 0.000000
160.462650 119.438470 2.123671 0.000000
161.033520 119.650650 2.149437 0.000000
152.525710 119.887210 2.055472 0.000000
153.643230 119.619100 2.054197 0.000000
155.469730 119.800380 2.114277 0.000000
157.716900 119.656890 2.131365 0.000000
158.315860 119.860630 2.161525 0.000000
161.597430 119.892180 2.177662 0.000000
162.150180 120.114940 2.202640 0.000000
153.283130 120.307170 2.123295 0.000000
154.364380 120.005640 2.115146 0.000000
156.128880 120.116970 2.162690 0.000000
156.748170 120.339050 2.198407 0.000000
158.908630 120.092660 2.193914 0.000000
162.693790 120.334930 2.226300 0.000000
163.228810 120.552060 2.248656 0.000000
163.755680 120.766310 2.269730 0.000000
164.274920 120.977770 2.289543 0.000000
164.787480 121.164760 2.305518 0.000000
147.602810 122.749520 2.186935 0.000000
146.602220 123.279450 2.194985 0.000000
146.384890 123.973950 2.255020 0.000000
146.227220 124.726650 2.322863 0.000000
146.012600 125.368090 2.375574 0.000000
145.770550 125.949450 2.419839 0.000000
165.288820 121.474350 2.335322 0.000000
165.776020 121.852630 2.372579 0.000000
166.251720 122.221570 2.407959 0.000000
166.716640 122.581610 2.441531 0.000000
167.171460 122.933130 2.473360 0.000000
167.634460 123.140820 2.486964 0.000000
168.071170 123.491520 2.517273 0.000000
168.515560 123.735340 2.533802 0.000000
168.950740 123.996930 2.551787 0.000000
169.383960 124.236660 2.566349 0.000000
169.649840 125.212620 2.671920 0.000000
170.063460 125.434010 2.683219 0.000000
170.454120 125.728100 2.702963 0.000000
161.966080 129.197630 2.809979 0.000000
162.348040 129.266310 2.820044 0.000000
156.966610 129.502290 2.767358 0.000000
157.744930 129.395200 2.775474 0.000000
158.973040 129.548290 2.825448 0.000000
160.125400 129.546280 2.844607 0.000000
160.508730 129.571850 2.852914 0.000000
156.179600 129.615340 2.756203 0.000000
156.693570 129.892300 2.810993 0.000000
157.464310 129.786270 2.820792 0.000000
158.223420 129.672820 2.825741 0.000000
158.692210 129.968150 2.877320 0.000000
159.418840 129.809940 2.870166 0.000000
155.510740 130.042680 2.787593 0.000000
155.965700 130.136350 2.817627 0.000000
154.871600 130.511730 2.822088 0.000000
155.339260 130.619290 2.856234 0.000000
154.749390 131.147430 2.898792 0.000000
145.905350 131.508730 2.950413 0.000000
154.533720 131.556260 2.941080 0.000000
160.884190 129.566530 2.855952 0.000000
161.269380 129.647050 2.870270 0.000000
161.649640 129.724700 2.883301 0.000000
162.732390 129.427410 2.842318 0.000000
163.103530 129.441100 2.842905 0.000000
163.473980 129.468480 2.844585 0.000000
163.843200 129.502900 2.846422 0.000000
164.393890 129.584950 2.851831 0.000000
165.294740 129.881470 2.879808 0.000000
165.642380 130.084440 2.901667 0.000000
159.854480 130.083220 2.915465 0.000000
165.983540 130.290760 2.923309 0.000000
166.317600 130.506010 2.945558 0.000000
166.663570 130.581510 2.946987 0.000000
166.995610 130.744370 2.960284 0.000000
167.241260 131.405180 3.045291 0.000000
167.556870 131.566240 3.057260 0.000000
167.883610 131.654110 3.057846 0.000000
168.205920 131.758680 3.060142 0.000000
168.564450 131.706270 3.038466 0.000000
153.887340 131.921980 2.954944 0.000000
168.809130 132.116150 3.084625 0.000000
154.374300 132.052220 2.996365 0.000000
170.068130 132.548280 3.083155 0.000000
170.393570 132.623700 3.075907 0.000000
153.763080 132.453490 3.014830 0.000000
170.610180 132.995240 3.113615 0.000000
145.991700 132.878480 3.076727 0.000000
153.547270 132.803040 3.046238 0.000000
153.340160 133.154020 3.077483 0.000000
153.206970 133.608000 3.124806 0.000000
146.271160 133.749660 3.170706 0.000000
153.032780 133.980800 3.159028 0.000000
163.471850 134.500600 3.198800 0.000000
163.893950 134.544420 3.203062 0.000000
164.173770 134.585240 3.206815 0.000000
152.669190 134.667140 3.217046 0.000000
152.859660 134.342060 3.191130 0.000000
161.948840 134.751680 3.236582 0.000000
162.234970 134.798080 3.246505 0.000000
162.646960 134.733120 3.237826 0.000000
164.452300 134.622180 3.209195 0.000000
164.729610 134.663280 3.211528 0.000000
165.004730 134.724660 3.216474 0.000000
165.408800 134.879240 3.232821 0.000000
146.537080 134.570590 3.258649 0.000000
160.632430 135.244310 3.294921 0.000000
161.011920 135.043780 3.270490 0.000000
161.422960 134.985090 3.268046 0.000000
161.715990 135.075150 3.286632 0.000000
152.586470 135.128080 3.265201 0.000000
159.011810 135.580570 3.298499 0.000000
159.416280 135.484160 3.298043 0.000000
159.851530 135.506550 3.315854 0.000000
160.081570 135.306260 3.290800 0.000000
146.809690 135.362560 3.343839 0.000000
152.304200 135.850420 3.328184 0.000000
152.442830 135.491730 3.297183 0.000000
158.819240 135.862750 3.334779 0.000000
147.014680 136.063690 3.415936 0.000000
166.186250 135.284620 3.277238 0.000000
166.582520 135.368380 3.277460 0.000000
166.844670 135.432020 3.277981 0.000000
167.079830 135.626970 3.300043 0.000000
167.490630 135.623030 3.281552 0.000000
167.897290 135.656250 3.267757 0.000000
170.025270 135.451450 7.394204 0.000000
168.747180 135.749540 7.676288 0.000000
169.041350 135.723620 7.688076 0.000000
160.479130 119.949760 2.141411 0.000000
161.041550 120.071720 2.161929 0.000000
161.604580 120.258270 2.189099 0.000000
162.154940 120.405070 2.210414 0.000000
158.419200 120.655400 2.192801 0.000000
162.700320 120.576830 2.233662 0.000000
163.237320 120.734340 2.254168 0.000000
163.767580 120.890590 2.273505 0.000000
156.328350 121.139040 2.201089 0.000000
159.010620 120.872210 2.229056 0.000000
159.572680 120.994580 2.252684 0.000000
160.119110 121.071150 2.269660 0.000000
164.291550 121.045450 2.291682 0.000000
164.809570 121.198910 2.308712 0.000000
153.562040 121.434490 2.148420 0.000000
155.293790 121.430770 2.205115 0.000000
156.937130 121.323470 2.238035 0.000000
157.530910 121.497630 2.272406 0.000000
158.105930 121.641300 2.301795 0.000000
152.528560 121.804920 2.151002 0.000000
154.256000 121.724350 2.205141 0.000000
155.972340 121.793010 2.266468 0.000000
151.469060 122.132870 2.143662 0.000000
153.254290 122.120970 2.213891 0.000000
154.952680 122.075610 2.267849 0.000000
152.213100 122.434300 2.207757 0.000000
151.149870 122.726650 2.194272 0.000000
150.162720 123.189830 2.198493 0.000000
150.852340 123.332570 2.246118 0.000000
149.961700 123.939770 2.268197 0.000000
149.153820 124.669690 2.303227 0.000000
149.856310 124.813510 2.354669 0.000000
148.990950 125.401760 2.369947 0.000000
148.801610 126.060550 2.426717 0.000000
165.321090 121.481950 2.340307 0.000000
165.822490 121.777970 2.372535 0.000000
166.312760 122.103550 2.407425 0.000000
166.792790 122.422170 2.440622 0.000000
167.728130 123.002400 2.497667 0.000000
168.191530 123.215250 2.515633 0.000000
168.662140 123.329730 2.520839 0.000000
169.102720 123.633900 2.548240 0.000000
169.551640 123.837840 2.562665 0.000000
169.993870 124.053480 2.577723 0.000000
148.662730 126.765240 2.489985 0.000000
148.505190 127.413650 2.545559 0.000000
148.425610 128.141620 2.612694 0.000000
148.362520 128.860210 2.678974 0.000000
148.271530 129.514080 2.736320 0.000000
148.216600 130.186690 2.796858 0.000000
148.198380 130.876170 2.860502 0.000000
163.041470 129.530550 2.834470 0.000000
163.415300 129.565410 2.842012 0.000000
163.792630 129.692210 2.861743 0.000000
164.158220 129.673920 2.860021 0.000000
164.524230 129.669160 2.859380 0.000000
164.890140 129.671630 2.858921 0.000000
161.238430 129.937260 2.866753 0.000000
161.808980 130.016050 2.887848 0.000000
162.362180 130.033290 2.898347 0.000000
162.731860 130.074720 2.908460 0.000000
165.615300 129.925480 2.890863 0.000000
165.970610 130.075290 2.908886 0.000000
166.320820 130.232010 2.927115 0.000000
160.611540 130.499620 2.931448 0.000000
160.980970 130.510190 2.941378 0.000000
166.665210 130.402500 2.946546 0.000000
167.004140 130.577360 2.965866 0.000000
159.167710 130.689700 2.916478 0.000000
160.246380 130.520280 2.925132 0.000000
167.336960 130.762210 2.985891 0.000000
167.682690 130.808880 2.985359 0.000000
168.015400 130.942810 2.996597 0.000000
157.018520 131.182080 2.897729 0.000000
157.748400 131.036070 2.910311 0.000000
158.459730 130.861130 2.914894 0.000000
158.911210 131.081530 2.961104 0.000000
159.604710 130.905620 2.959929 0.000000
160.017440 131.073550 2.995226 0.000000
168.284390 131.441860 3.059894 0.000000
168.632720 131.424510 3.047920 0.000000
169.689530 131.398710 3.010581 0.000000
157.494810 131.387270 2.946246 0.000000
158.211610 131.248900 2.957615 0.000000
169.943150 131.797090 3.056364 0.000000
170.293980 131.801530 3.043416 0.000000
170.615710 131.915470 3.045870 0.000000
148.211910 131.574460 2.926220 0.000000
156.418120 131.635360 2.928258 0.000000
156.804660 131.610230 2.943954 0.000000
156.308550 132.249880 3.002262 0.000000
148.179350 132.195220 2.980800 0.000000
156.077580 132.582240 3.032690 0.000000
155.555310 133.094470 3.068325 0.000000
155.977360 133.150180 3.099576 0.000000
148.662490 133.335570 3.117622 0.000000
148.446200 133.708860 3.135333 0.000000
155.353490 133.785750 3.142617 0.000000
155.081500 134.316890 3.191140 0.000000
148.728840 134.565280 3.230953 0.000000
154.966510 134.756700 3.237220 0.000000
163.290970 134.944320 3.249681 0.000000
163.697710 134.853390 3.239173 0.000000
164.117650 134.931640 3.254998 0.000000
164.518370 134.630630 3.206659 0.000000
164.937820 134.673190 3.213270 0.000000
165.215530 134.759980 3.226279 0.000000
165.626620 134.880050 3.242682 0.000000
166.447650 134.959370 3.244276 0.000000
154.814960 135.122040 3.271093 0.000000
162.092590 135.268280 3.279533 0.000000
162.493820 135.183270 3.275069 0.000000
163.022450 135.014140 3.257236 0.000000
167.249560 135.165270 3.260308 0.000000
167.653230 135.228330 3.259364 0.000000
169.001310 135.447660 3.245381 0.000000
148.956220 135.330870 3.313849 0.000000
154.604900 135.388960 3.288421 0.000000
169.782240 135.698380 3.248384 0.000000
154.464420 135.747010 3.320699 0.000000
166.831700 135.224950 3.280145 0.000000
161.598040 135.549100 3.311095 0.000000
169.234130 135.631940 3.264361 0.000000
169.490890 135.720870 3.266377 0.000000
169.996510 135.918810 3.271776 0.000000
160.849260 135.876020 3.337668 0.000000
170.244740 136.028340 3.275281 0.000000
149.099090 135.986600 3.380271 0.000000
170.037520 135.810580 7.361960 0.000000
168.681460 135.648590 7.682108 0.000000
161.732410 120.891780 2.212890 0.000000
162.274290 120.983560 2.233106 0.000000
162.812450 121.092400 2.254295 0.000000
163.341950 121.173550 2.271062 0.000000
163.868410 121.274710 2.289195 0.000000
164.389280 121.365680 2.305064 0.000000
159.812710 121.927460 2.293315 0.000000
160.345670 121.970770 2.311573 0.000000
155.443910 123.395230 2.314102 0.000000
154.489350 123.764310 2.313443 0.000000
153.549840 124.171910 2.313825 0.000000
165.422990 121.719060 2.354357 0.000000
160.856170 121.922040 2.317472 0.000000
161.372240 121.915830 2.327546 0.000000
165.930600 121.993150 2.389186 0.000000
166.428530 122.262310 2.422440 0.000000
166.918010 122.498860 2.450824 0.000000
157.893430 122.673650 2.323932 0.000000
158.447620 122.765290 2.352340 0.000000
167.398570 122.760000 2.481226 0.000000
167.874630 122.957080 2.503026 0.000000
158.993390 122.857580 2.379597 0.000000
159.526060 122.929200 2.403100 0.000000
168.347240 123.122970 2.520178 0.000000
168.815480 123.287150 2.536231 0.000000
157.034470 123.314830 2.367671 0.000000
157.646590 123.581530 2.420144 0.000000
156.088870 123.658620 2.370357 0.000000
156.726300 123.950200 2.428530 0.000000
170.641080 123.993290 2.597704 0.000000
155.155880 124.034580 2.373338 0.000000
154.207950 124.379640 2.368357 0.000000
153.268340 124.753910 2.363132 0.000000
152.362900 125.203400 2.363938 0.000000
152.994090 125.320000 2.410116 0.000000
152.186840 125.917300 2.430082 0.000000
151.486080 126.671680 2.468824 0.000000
152.092290 126.732470 2.510542 0.000000
151.363080 127.390950 2.535749 0.000000
151.322650 128.200490 2.616055 0.000000
151.331220 129.041000 2.701672 0.000000
151.288240 129.767530 2.771636 0.000000
164.185840 129.858990 2.856820 0.000000
164.551410 129.859310 2.861771 0.000000
164.921780 129.953610 2.879268 0.000000
165.286330 130.009080 2.890364 0.000000
165.648820 130.080730 2.902913 0.000000
166.008500 130.158890 2.915546 0.000000
162.439030 130.418670 2.900323 0.000000
162.817670 130.505490 2.921889 0.000000
163.160140 130.386700 2.912912 0.000000
163.704040 130.418180 2.927963 0.000000
166.541890 130.303100 2.936674 0.000000
167.068080 130.468630 2.959202 0.000000
167.413680 130.590710 2.974823 0.000000
151.222630 130.430420 2.832921 0.000000
167.754650 130.726910 2.991670 0.000000
168.091460 130.866270 3.008200 0.000000
170.165890 131.083280 3.002296 0.000000
161.466290 130.977050 2.949594 0.000000
161.817500 130.930180 2.954179 0.000000
162.180180 130.944810 2.966856 0.000000
169.442860 131.185530 3.032601 0.000000
169.801390 131.139400 3.018611 0.000000
170.487840 131.240070 3.015939 0.000000
151.167600 131.078810 2.892652 0.000000
160.548720 131.605070 3.003016 0.000000
160.896260 131.561230 3.010303 0.000000
161.246370 131.534440 3.019231 0.000000
151.091220 131.673490 2.944862 0.000000
150.993730 132.219820 2.990136 0.000000
159.377590 132.426710 3.063034 0.000000
160.004260 132.160580 3.055989 0.000000
160.349760 132.124890 3.065883 0.000000
158.059920 132.807590 3.044347 0.000000
158.726640 132.629100 3.057252 0.000000
159.151000 132.776870 3.098612 0.000000
159.793050 132.582030 3.103411 0.000000
150.905180 132.757260 3.034409 0.000000
158.474870 132.903090 3.079882 0.000000
150.914350 133.386340 3.093624 0.000000
157.916260 133.299990 3.099988 0.000000
157.708100 133.633500 3.130524 0.000000
150.885940 133.949940 3.143214 0.000000
157.239930 134.160890 3.168252 0.000000
157.616700 134.175140 3.194096 0.000000
157.142500 134.652420 3.223586 0.000000
165.780980 134.976060 3.250316 0.000000
166.600110 135.016660 3.258590 0.000000
166.873890 134.997440 3.254488 0.000000
167.148360 134.984620 3.250701 0.000000
167.571730 134.856550 3.225573 0.000000
168.798390 135.054520 3.236517 0.000000
169.072400 135.088880 3.235289 0.000000
164.155520 135.175740 3.260271 0.000000
164.422260 135.112660 3.255494 0.000000
164.826350 135.038010 3.250205 0.000000
166.327210 135.042270 3.263007 0.000000
169.319140 135.260270 3.256230 0.000000
169.617140 135.180940 3.234467 0.000000
170.035890 135.216030 3.226023 0.000000
170.411560 135.416050 3.243998 0.000000
151.279860 134.937120 3.262735 0.000000
156.975450 135.000060 3.255534 0.000000
165.245510 135.175380 3.278450 0.000000
166.055330 135.074170 3.267731 0.000000
151.102010 135.295200 3.280785 0.000000
156.816150 135.346040 3.287080 0.000000
162.885710 135.727050 3.313275 0.000000
163.382680 135.484090 3.290288 0.000000
163.636670 135.372440 3.279474 0.000000
163.917210 135.421400 3.294749 0.000000
156.667250 135.694520 3.318948 0.000000
162.368500 135.856220 3.314356 0.000000
162.643370 135.859220 3.325622 0.000000
151.332890 136.047260 3.365166 0.000000
156.528470 136.044780 3.351059 0.000000
168.689300 135.616070 7.672343 0.000000
170.002880 135.826480 7.348434 0.000000
169.675700 136.050840 7.317718 0.000000
169.679350 134.814580 7.794055 0.000000
161.654050 117.539760 1.983673 0.000000
162.261290 117.591770 2.003404 0.000000
162.865710 117.660780 2.023857 0.000000
163.460160 117.701230 2.039787 0.000000
164.053270 117.765850 2.057306 0.000000
164.640270 117.818820 2.072305 0.000000
165.218000 117.814680 2.079611 0.000000
159.564610 118.820480 2.067975 0.000000
165.831010 118.315050 2.143399 0.000000
166.413010 118.600500 2.181404 0.000000
160.162430 118.839080 2.088186 0.000000
160.748370 118.832150 2.104133 0.000000
161.339740 118.871280 2.124247 0.000000
168.093700 119.396160 2.281649 0.000000
157.550700 120.026060 2.128742 0.000000
168.634810 119.663180 2.313090 0.000000
158.157440 120.061550 2.155450 0.000000
158.756440 120.098500 2.180957 0.000000
159.342420 120.117130 2.202949 0.000000
169.166990 119.925480 2.342952 0.000000
169.695740 120.083210 2.359909 0.000000
170.219820 120.241820 2.375956 0.000000
170.733610 120.471130 2.399058 0.000000
156.796660 121.208110 2.224719 0.000000
155.190350 121.660920 2.200295 0.000000
157.393540 121.236180 2.252367 0.000000
155.900510 121.911530 2.259581 0.000000
154.245010 122.248990 2.214489 0.000000
154.963120 122.479160 2.274139 0.000000
156.605620 122.196880 2.321237 0.000000
153.313550 122.846700 2.226160 0.000000
154.023990 123.025960 2.282306 0.000000
153.093520 123.580100 2.287532 0.000000
152.144490 124.099590 2.284119 0.000000
152.878650 124.285390 2.345355 0.000000
151.955470 124.814640 2.342364 0.000000
151.338150 125.799300 2.398089 0.000000
151.960420 125.793850 2.437005 0.000000
151.283740 126.630470 2.472861 0.000000
151.227840 127.421330 2.542782 0.000000
151.356480 128.420270 2.643421 0.000000
164.939330 127.970230 2.716157 0.000000
165.353500 128.063540 2.737102 0.000000
165.762560 128.156360 2.756968 0.000000
164.648670 128.673480 2.804096 0.000000
166.170720 128.292110 2.781715 0.000000
166.566120 128.335720 2.792907 0.000000
151.425690 129.294400 2.727631 0.000000
163.094380 128.835890 2.781971 0.000000
163.484590 128.793470 2.788650 0.000000
163.866560 128.716870 2.789642 0.000000
164.261340 128.711210 2.799557 0.000000
168.507220 128.743500 2.860924 0.000000
168.885150 128.868470 2.877742 0.000000
170.029770 128.843580 2.868628 0.000000
170.413020 128.843280 2.864911 0.000000
162.468920 129.511410 2.849215 0.000000
162.856990 129.489490 2.860303 0.000000
169.259080 128.993850 2.893746 0.000000
169.637130 129.001630 2.892909 0.000000
151.464900 130.091460 2.801870 0.000000
162.088030 129.568180 2.842089 0.000000
170.730270 129.406330 2.937186 0.000000
161.126170 130.293700 2.895154 0.000000
161.495940 130.216110 2.901719 0.000000
161.879710 130.188780 2.914535 0.000000
151.506670 130.856780 2.872581 0.000000
160.776930 130.963530 2.964164 0.000000
151.521560 131.558980 2.934914 0.000000
160.084560 131.673290 3.018054 0.000000
160.440930 131.594790 3.027225 0.000000
151.510640 132.204770 2.989590 0.000000
158.831300 132.379100 3.031583 0.000000
159.486370 132.090970 3.036125 0.000000
159.934950 132.217670 3.077660 0.000000
151.472440 132.797500 3.036830 0.000000
159.261780 132.443650 3.066037 0.000000
158.419800 133.109280 3.092699 0.000000
158.691890 132.876250 3.082725 0.000000
151.507140 133.444820 3.093497 0.000000
157.904770 133.609650 3.116283 0.000000
158.290220 133.582280 3.139987 0.000000
151.558930 134.085080 3.150131 0.000000
168.437990 133.671050 3.152865 0.000000
168.885040 133.598080 3.140519 0.000000
169.620620 133.710450 3.153236 0.000000
169.917980 133.711990 3.150014 0.000000
157.859470 134.188610 3.180313 0.000000
165.695790 134.237490 3.206177 0.000000
166.830290 133.932370 3.181539 0.000000
169.315110 133.843120 3.176901 0.000000
170.501690 133.818500 3.157602 0.000000
157.729140 134.608000 3.218924 0.000000
164.135880 134.544200 3.202125 0.000000
164.432710 134.543150 3.213557 0.000000
164.855290 134.456180 3.215141 0.000000
166.142960 134.317290 3.229458 0.000000
166.430070 134.306270 3.233625 0.000000
152.067860 135.139970 3.276432 0.000000
157.606520 135.021380 3.256658 0.000000
163.661010 134.982960 3.248756 0.000000
163.909240 134.813310 3.233888 0.000000
151.949600 135.562090 3.300161 0.000000
157.495740 135.434950 3.294564 0.000000
162.913570 135.426500 3.278752 0.000000
163.183320 135.348560 3.281076 0.000000
162.468050 135.829640 3.313852 0.000000
162.728040 135.734970 3.314648 0.000000
145.924220 135.698270 3.365632 0.000000
157.454940 135.927930 3.346097 0.000000
169.665830 136.071840 7.372042 0.000000
168.400250 135.517970 7.752681 0.000000
169.188580 135.554110 7.754258 0.000000
170.257350 135.505220 7.440491 0.000000
169.953060 135.813600 7.403264 0.000000
169.472820 135.305010 7.959873 0.000000
160.917210 118.015560 2.015659 0.000000
161.512510 117.991100 2.029629 0.000000
162.106510 117.979030 2.043821 0.000000
162.692140 117.945770 2.054336 0.000000
163.278610 117.933240 2.066075 0.000000
163.860310 117.911320 2.075555 0.000000
164.439480 117.889850 2.083935 0.000000
158.960620 119.544590 2.118810 0.000000
160.097550 119.379060 2.140001 0.000000
160.665560 119.311070 2.150568 0.000000
166.797150 118.591080 2.195924 0.000000
167.369170 118.812400 2.226230 0.000000
159.562040 119.562230 2.141988 0.000000
167.932190 119.030080 2.254991 0.000000
168.486720 119.244230 2.282244 0.000000
169.033330 119.454940 2.308032 0.000000
169.572950 119.625630 2.328218 0.000000
170.108950 119.724450 2.339212 0.000000
157.090150 120.975970 2.197074 0.000000
157.674040 120.940550 2.218177 0.000000
158.251940 120.907010 2.238172 0.000000
158.818830 120.859880 2.255224 0.000000
170.638210 119.904860 2.358450 0.000000
156.340380 122.020600 2.272487 0.000000
154.736330 122.478040 2.239940 0.000000
157.007200 122.190110 2.320886 0.000000
155.441310 122.662170 2.294827 0.000000
156.146120 122.884860 2.352609 0.000000
153.884030 123.207520 2.267366 0.000000
154.574740 123.338020 2.318166 0.000000
153.024410 123.895630 2.286088 0.000000
153.720830 124.010110 2.337688 0.000000
152.860780 124.653050 2.349889 0.000000
152.155360 125.512170 2.388245 0.000000
152.735500 125.433740 2.417235 0.000000
152.119600 126.374450 2.466963 0.000000
151.627120 127.429690 2.531495 0.000000
152.183650 127.332270 2.560124 0.000000
151.810610 128.477740 2.639073 0.000000
164.725390 128.104920 2.728445 0.000000
165.127490 128.089450 2.737061 0.000000
165.538570 128.140790 2.753920 0.000000
165.952010 128.236760 2.775903 0.000000
151.937000 129.404590 2.730824 0.000000
167.531680 128.323900 2.813479 0.000000
167.923610 128.382460 2.825569 0.000000
168.313160 128.451710 2.838194 0.000000
162.958710 129.151440 2.807753 0.000000
163.339070 129.071300 2.811630 0.000000
163.709980 128.957500 2.809859 0.000000
164.098020 128.913270 2.816944 0.000000
164.477110 128.835490 2.818418 0.000000
168.700160 128.539660 2.852455 0.000000
169.083830 128.634920 2.866809 0.000000
169.464140 128.726090 2.879722 0.000000
169.849030 128.559970 2.856837 0.000000
170.236820 128.463850 2.842569 0.000000
152.108570 130.341640 2.825791 0.000000
170.587050 129.011350 2.914854 0.000000
162.014430 129.974980 2.874557 0.000000
162.383070 129.881420 2.878859 0.000000
162.761460 129.822300 2.887155 0.000000
152.215740 131.161800 2.904956 0.000000
161.127780 130.810670 2.937687 0.000000
161.477390 130.685410 2.939624 0.000000
161.843840 130.606740 2.947451 0.000000
152.293240 131.913800 2.975179 0.000000
160.996430 131.443700 3.010134 0.000000
