# .PCD v0.7 - Point Cloud Data file format
VERSION 0.7
FIELDS x y z intensity
SIZE 4 4 4 4
TYPE F F F F
COUNT 1 1 1 1
WIDTH 1205
HEIGHT 1
VIEWPOINT 0 0 0 1 0 0 0
POINTS 1205
DATA ascii
183.966490 29.023823 -0.166245 0.000000
183.761980 33.625828 -0.058665 0.000000
183.627980 22.677744 -0.253079 0.000000
183.438020 28.566631 -0.229089 0.000000
183.353970 33.799370 -0.054440 0.000000
182.942930 33.962437 -0.052777 0.000000
182.985170 22.086176 -0.315163 0.000000
182.696930 29.859520 -0.114237 0.000000
182.601640 33.930298 -0.072854 0.000000
182.368390 34.131836 -0.059769 0.000000
182.455540 22.010983 -0.331242 0.000000
181.792250 34.313213 -0.067663 0.000000
181.403880 34.535324 -0.062534 0.000000
181.311630 21.662025 -0.383789 0.000000
180.973360 34.689346 -0.068946 0.000000
180.772710 21.644367 -0.396841 0.000000
180.557650 34.874931 -0.072251 0.000000
180.129390 35.047516 -0.078969 0.000000
180.256480 21.711792 -0.402740 0.000000
179.704250 35.234100 -0.085351 0.000000
179.265350 35.409973 -0.095000 0.000000
179.499130 22.589415 -0.347033 0.000000
178.988850 35.553810 -0.098190 0.000000
178.979460 22.643425 -0.355890 0.000000
178.522280 35.714413 -0.113765 0.000000
178.523360 22.859077 -0.350161 0.000000
178.202590 31.539597 -0.128298 0.000000
177.942250 22.794245 -0.371717 0.000000
178.019900 31.933115 -0.099806 0.000000
177.915650 32.424370 -0.058589 0.000000
177.654370 35.910091 -0.156707 0.000000
177.372510 33.200935 -0.015320 0.000000
177.420910 22.881159 -0.379629 0.000000
177.048020 33.651169 0.007733 0.000000
176.819460 33.929527 0.019705 0.000000
176.958390 23.099152 -0.375635 0.000000
176.588350 34.201508 0.030415 0.000000
176.338530 34.450100 0.037404 0.000000
176.096770 34.706432 0.045022 0.000000
176.317200 22.969389 -0.406047 0.000000
175.782330 35.137627 0.062381 0.000000
175.681240 22.879646 -0.433643 0.000000
175.186740 35.293102 0.037469 0.000000
175.098300 22.912107 -0.450272 0.000000
174.485930 35.128143 -0.021925 0.000000
173.343380 35.108788 -0.099830 0.000000
172.735660 35.098530 -0.142158 0.000000
172.101330 35.088097 -0.186926 0.000000
172.618790 12.635735 -0.471863 0.000000
194.632840 26.691357 0.132809 0.000000
183.322680 26.790361 0.095899 0.000000
182.698880 29.856455 0.343069 0.000000
173.816220 31.656593 0.166102 0.000000
173.643310 32.082230 0.188347 0.000000
173.467510 32.495235 0.209093 0.000000
173.300510 32.908421 0.229795 0.000000
173.134690 33.314354 0.249588 0.000000
172.949910 33.695007 0.266268 0.000000
172.582900 34.441753 0.297396 0.000000
172.414760 34.820576 0.313415 0.000000
172.110410 35.084698 0.314483 0.000000
194.630370 26.687889 0.640957 0.000000
183.327350 26.797640 0.611999 0.000000
182.700840 29.853407 0.798729 0.000000
172.650450 12.686104 0.418212 0.000000
194.627900 26.684433 1.147780 0.000000
183.328990 26.794491 1.125779 0.000000
182.702770 29.850372 1.253184 0.000000
194.625430 26.680981 1.653757 0.000000
183.330320 26.790226 1.638652 0.000000
183.110930 29.911833 1.708956 0.000000
182.719360 29.887287 1.707791 0.000000
182.321730 29.862410 1.706609 0.000000
172.673320 12.717800 1.303595 0.000000
194.622960 26.677540 2.159381 0.000000
183.331970 26.787113 2.151196 0.000000
183.112760 29.908962 2.158003 0.000000
182.721340 29.884405 2.160210 0.000000
182.323880 29.859518 2.162589 0.000000
194.620480 26.674091 2.665128 0.000000
183.333500 26.783556 2.663851 0.000000
183.114590 29.906082 2.607141 0.000000
182.723330 29.881516 2.612717 0.000000
182.326030 29.856609 2.618656 0.000000
172.692060 12.740753 2.186500 0.000000
195.038420 26.644798 3.179112 0.000000
183.775410 26.839788 3.167629 0.000000
183.334900 26.779591 3.177140 0.000000
182.918660 26.819572 3.182680 0.000000
182.717480 29.857203 3.066745 0.000000
183.106840 29.867353 3.509699 0.000000
182.719440 29.854200 3.521240 0.000000
182.326540 29.840889 3.533500 0.000000
172.710530 12.763126 3.068188 0.000000
195.022000 26.701670 3.685027 0.000000
183.354320 26.838015 3.687321 0.000000
182.721410 29.851192 3.977120 0.000000
195.719560 21.409487 4.031030 0.000000
183.771790 26.809078 4.192384 0.000000
172.724690 12.776306 3.949973 0.000000
172.738590 12.788914 4.832732 0.000000
172.750630 12.797516 5.717653 0.000000
172.759720 12.799786 6.606224 0.000000
182.594590 28.881897 -0.307041 0.000000
181.518220 27.017155 -0.531539 0.000000
181.083920 27.114256 -0.533445 0.000000
180.613420 27.123562 -0.546228 0.000000
180.207320 27.305775 -0.539800 0.000000
179.609300 27.038361 -0.586531 0.000000
179.235470 35.874695 -0.131588 0.000000
179.149000 27.118713 -0.593711 0.000000
178.882830 35.935501 -0.146782 0.000000
178.649110 27.124329 -0.610574 0.000000
178.532880 36.009056 -0.161012 0.000000
178.156600 36.057823 -0.180284 0.000000
178.140750 27.129118 -0.628524 0.000000
177.699600 36.018440 -0.215083 0.000000
177.656310 27.197309 -0.639902 0.000000
177.221440 35.971321 -0.252784 0.000000
176.776690 35.980598 -0.282849 0.000000
176.806610 23.188995 -0.402530 0.000000
176.972200 26.904837 -0.695758 0.000000
176.262560 23.292770 -0.408642 0.000000
175.524640 23.030134 -0.450348 0.000000
174.857850 22.942522 -0.476575 0.000000
174.249310 22.987295 -0.491138 0.000000
173.504730 22.816019 -0.527627 0.000000
172.780560 22.713711 -0.558686 0.000000
172.183120 35.101318 -0.196029 0.000000
171.997890 22.548769 -0.597196 0.000000
171.538850 35.090813 -0.238165 0.000000
171.232910 22.446346 -0.630930 0.000000
170.867000 35.079815 -0.282766 0.000000
195.564380 25.673491 -0.068064 0.000000
195.342530 30.027327 -0.165003 0.000000
195.627370 30.402628 -0.132070 0.000000
195.423600 34.444546 -0.082452 0.000000
195.492940 14.437000 -0.231580 0.000000
195.125670 25.565968 -0.070439 0.000000
194.939380 30.088001 -0.149066 0.000000
194.947190 34.445545 -0.065335 0.000000
194.748550 25.135647 -0.102141 0.000000
194.539470 30.158953 -0.132674 0.000000
194.526820 34.272133 -0.073441 0.000000
194.964890 13.555504 -0.284946 0.000000
194.279820 25.159477 -0.093759 0.000000
194.161060 30.154680 -0.125399 0.000000
194.222780 34.242130 -0.067927 0.000000
194.341380 13.231609 -0.301616 0.000000
193.784410 30.154909 -0.118239 0.000000
193.919450 34.216293 -0.062476 0.000000
193.592580 34.300842 -0.042730 0.000000
193.816390 25.172865 -0.086874 0.000000
193.388050 30.282804 -0.097467 0.000000
193.708760 12.912090 -0.318443 0.000000
193.343830 25.273817 -0.072787 0.000000
193.009920 30.338049 -0.085442 0.000000
193.012760 34.170967 -0.045499 0.000000
192.889950 25.267967 -0.068722 0.000000
192.711650 34.167973 -0.039436 0.000000
192.411440 34.170403 -0.033253 0.000000
192.437300 25.266788 -0.064778 0.000000
192.316890 30.021397 -0.110476 0.000000
192.112490 34.176136 -0.027228 0.000000
191.942080 30.079649 -0.099845 0.000000
191.814510 34.187420 -0.021057 0.000000
188.134250 33.973198 -0.039016 0.000000
187.684570 33.962364 -0.045107 0.000000
187.569380 30.098156 -0.091424 0.000000
187.353650 33.752090 -0.076917 0.000000
187.436110 24.524796 -0.119701 0.000000
187.167740 29.828598 -0.124259 0.000000
186.950580 24.330677 -0.138998 0.000000
186.774140 29.693388 -0.142927 0.000000
186.575060 33.701088 -0.096290 0.000000
186.452560 24.105864 -0.161577 0.000000
186.374210 29.560482 -0.161984 0.000000
186.093050 33.635139 -0.114418 0.000000
185.945500 29.305622 -0.195226 0.000000
185.812640 33.788803 -0.100822 0.000000
185.516740 24.219767 -0.158796 0.000000
185.510300 29.076885 -0.226310 0.000000
185.469800 33.682953 -0.122760 0.000000
185.172420 29.350967 -0.202126 0.000000
184.980970 33.663399 -0.138315 0.000000
185.002750 24.023888 -0.180598 0.000000
184.716220 29.088844 -0.238335 0.000000
184.532730 33.796143 -0.134457 0.000000
184.467740 23.772610 -0.207959 0.000000
184.317310 29.104996 -0.244182 0.000000
184.120210 29.876675 -0.165698 0.000000
184.251160 33.939369 -0.125199 0.000000
184.139830 34.566750 -0.049773 0.000000
183.934510 23.587618 -0.230118 0.000000
183.826510 30.228056 -0.134714 0.000000
183.640590 34.947044 -0.020193 0.000000
183.334690 29.907860 -0.180214 0.000000
183.391910 35.127102 -0.007488 0.000000
183.301620 23.021189 -0.286961 0.000000
183.294110 26.813555 0.038216 0.000000
182.922610 35.165543 -0.022074 0.000000
182.443160 35.202286 -0.038447 0.000000
182.611010 22.325333 -0.356278 0.000000
182.196760 35.386459 -0.027437 0.000000
181.725750 35.462502 -0.040979 0.000000
181.593700 22.508530 -0.356367 0.000000
181.257720 35.558624 -0.053143 0.000000
180.939250 35.620392 -0.062638 0.000000
181.112550 22.698143 -0.348492 0.000000
180.612810 35.676189 -0.073848 0.000000
180.609190 22.815680 -0.347716 0.000000
180.284160 35.736446 -0.085258 0.000000
179.945190 35.788845 -0.098754 0.000000
180.047910 22.771299 -0.362299 0.000000
179.593170 35.830837 -0.114804 0.000000
179.594820 23.044409 -0.348619 0.000000
178.999500 31.507021 -0.158153 0.000000
178.997300 22.934793 -0.370607 0.000000
178.667220 31.706001 -0.152442 0.000000
178.488070 32.157478 -0.116114 0.000000
178.451050 22.980492 -0.379122 0.000000
178.188100 32.750210 -0.072355 0.000000
177.973790 23.201862 -0.372081 0.000000
177.827420 33.222836 -0.044039 0.000000
177.337750 33.814762 -0.012407 0.000000
177.355160 23.106907 -0.395144 0.000000
176.965790 34.237762 0.007580 0.000000
176.595810 34.655262 0.026044 0.000000
176.328700 34.904919 0.033925 0.000000
176.110950 35.209969 0.048891 0.000000
175.244080 35.347992 0.011385 0.000000
174.694630 35.316109 -0.023654 0.000000
173.970900 35.131237 -0.082622 0.000000
173.868930 31.982082 0.182040 0.000000
173.536480 32.257282 0.188171 0.000000
173.397430 35.121536 -0.118401 0.000000
172.688660 12.685310 -0.449763 0.000000
170.877500 35.075867 0.259481 0.000000
173.240510 33.202728 0.242544 0.000000
173.037140 33.599998 0.261321 0.000000
172.831680 33.988121 0.278892 0.000000
172.629240 34.372948 0.295894 0.000000
172.192520 35.097488 0.323972 0.000000
171.548980 35.087093 0.292665 0.000000
183.297290 26.809877 0.584337 0.000000
172.709000 12.707157 0.466308 0.000000
183.300430 26.806206 1.129040 0.000000
172.729250 12.728832 1.379480 0.000000
183.303590 26.802540 1.672840 0.000000
182.950060 29.912586 1.742103 0.000000
182.534090 29.886570 1.742215 0.000000
183.306750 26.798889 2.216267 0.000000
182.953350 29.909651 2.222688 0.000000
182.537570 29.883612 2.226234 0.000000
183.309890 26.795225 2.759832 0.000000
182.956670 29.906702 2.703377 0.000000
182.541050 29.880655 2.710356 0.000000
172.745040 12.740631 2.290685 0.000000
182.950650 29.875277 3.185981 0.000000
182.538860 29.861366 3.195827 0.000000
183.776490 26.853832 3.293065 0.000000
183.313050 26.791550 3.304061 0.000000
182.953930 29.872202 3.668931 0.000000
182.872010 26.829668 3.311003 0.000000
182.542310 29.858257 3.681940 0.000000
182.126850 29.848799 3.695384 0.000000
172.760330 12.751320 3.201259 0.000000
194.873830 26.708595 3.806376 0.000000
183.325970 26.824093 3.846981 0.000000
182.882170 26.849674 3.856566 0.000000
172.773010 12.756149 4.112397 0.000000
172.783040 12.755024 5.025399 0.000000
172.789220 12.745213 5.941803 0.000000
172.786160 12.714607 6.864668 0.000000
179.695370 23.404715 -0.404700 0.000000
179.229830 23.688702 -0.389238 0.000000
178.625460 23.604605 -0.408108 0.000000
178.054730 23.630358 -0.417687 0.000000
177.540600 23.805071 -0.414235 0.000000
176.896420 23.694084 -0.438053 0.000000
176.276750 23.665125 -0.455144 0.000000
175.682240 23.710199 -0.466170 0.000000
174.908580 23.423809 -0.509461 0.000000
174.160770 35.135773 -0.140403 0.000000
174.206990 23.316706 -0.536943 0.000000
173.475690 23.186943 -0.567723 0.000000
173.010480 35.116837 -0.206785 0.000000
172.404820 35.107033 -0.242702 0.000000
172.612590 22.863499 -0.618429 0.000000
171.955260 22.927692 -0.632935 0.000000
171.776790 35.096931 -0.280605 0.000000
171.161730 22.794479 -0.667850 0.000000
195.666520 26.432554 -0.127475 0.000000
195.250140 31.625305 -0.141354 0.000000
195.539640 31.976023 -0.111467 0.000000
195.162230 26.575977 -0.106076 0.000000
194.843580 31.710314 -0.121870 0.000000
194.853810 36.032837 -0.035918 0.000000
194.445390 31.786989 -0.104060 0.000000
194.443500 35.837288 -0.046520 0.000000
194.309810 26.111393 -0.132993 0.000000
194.071400 31.776146 -0.096856 0.000000
194.142270 35.803852 -0.040967 0.000000
193.838130 26.118935 -0.125577 0.000000
193.698940 31.769678 -0.089771 0.000000
193.679700 35.814373 -0.025609 0.000000
193.307040 31.888176 -0.069237 0.000000
193.369230 26.126926 -0.118692 0.000000
192.932660 31.935946 -0.057312 0.000000
192.941790 35.720840 -0.018031 0.000000
192.888790 26.251896 -0.101910 0.000000
192.493970 35.712582 -0.008922 0.000000
192.422620 26.299816 -0.092601 0.000000
192.244810 31.614305 -0.081847 0.000000
192.047970 35.712978 0.000155 0.000000
191.872740 31.668432 -0.070926 0.000000
191.751830 35.719849 0.006304 0.000000
188.077930 35.425964 -0.015275 0.000000
187.625720 35.398308 -0.022739 0.000000
187.511930 31.559526 -0.068091 0.000000
187.344650 25.638657 -0.130706 0.000000
187.109300 31.284695 -0.100919 0.000000
187.012770 35.344707 -0.037094 0.000000
186.850110 25.420614 -0.151320 0.000000
186.714490 31.143423 -0.119588 0.000000
186.520160 35.168537 -0.067751 0.000000
186.341750 25.168314 -0.175540 0.000000
186.313080 31.004229 -0.138659 0.000000
186.054500 35.180405 -0.074536 0.000000
185.905550 25.494864 -0.149057 0.000000
185.882680 30.743732 -0.171878 0.000000
185.774090 35.327698 -0.061110 0.000000
186.175030 12.675285 -0.403444 0.000000
185.445340 30.508062 -0.203054 0.000000
185.275270 35.231510 -0.084971 0.000000
185.390440 25.276096 -0.171455 0.000000
185.118100 30.833874 -0.172237 0.000000
184.765430 35.137032 -0.110061 0.000000
185.396480 11.943699 -0.452470 0.000000
184.864300 25.054970 -0.194684 0.000000
184.685350 30.671658 -0.196546 0.000000
184.493120 35.315430 -0.094793 0.000000
184.313750 24.766293 -0.224568 0.000000
184.289340 30.691141 -0.201189 0.000000
184.111360 31.523279 -0.114902 0.000000
184.228910 35.508339 -0.078035 0.000000
184.588880 11.208344 -0.502319 0.000000
183.854170 31.988110 -0.070192 0.000000
183.765380 24.552252 -0.248484 0.000000
183.394730 31.755638 -0.104889 0.000000
183.086200 23.829800 -0.318539 0.000000
183.309910 26.799999 -0.058604 0.000000
183.001950 31.765842 -0.112810 0.000000
182.515410 31.518972 -0.150816 0.000000
182.240920 31.887695 -0.119045 0.000000
181.912480 23.409370 -0.369455 0.000000
181.801450 31.807205 -0.139467 0.000000
181.511670 32.114788 -0.115698 0.000000
181.333400 23.292450 -0.387655 0.000000
181.056320 32.020866 -0.139150 0.000000
180.811630 23.392981 -0.386947 0.000000
180.628780 32.011375 -0.153602 0.000000
180.398410 32.435539 -0.117707 0.000000
180.299820 23.530342 -0.383537 0.000000
179.668380 32.695488 -0.116857 0.000000
179.182800 32.606354 -0.143792 0.000000
178.930300 32.955715 -0.118634 0.000000
178.682740 33.300934 -0.094288 0.000000
178.414930 33.601036 -0.075798 0.000000
178.194080 33.967869 -0.049406 0.000000
177.864690 34.156773 -0.045527 0.000000
177.595760 34.435890 -0.030871 0.000000
177.331280 34.716480 -0.016450 0.000000
177.075440 35.004292 -0.001520 0.000000
176.817750 35.284988 0.012083 0.000000
176.014140 35.482666 -0.010354 0.000000
175.493640 35.455475 -0.040013 0.000000
174.953260 35.424568 -0.071647 0.000000
174.365220 32.043571 0.150999 0.000000
173.871400 32.844696 0.192411 0.000000
173.664690 33.280029 0.216440 0.000000
173.372130 33.606831 0.228730 0.000000
173.213360 34.078274 0.256260 0.000000
172.415800 35.103748 0.295139 0.000000
172.775910 12.661652 -0.500365 0.000000
171.788070 35.093357 0.267263 0.000000
171.136230 35.082558 0.237807 0.000000
195.550140 18.965752 -0.033967 0.000000
195.015030 18.558411 -0.055078 0.000000
194.494400 17.963860 -0.089155 0.000000
193.877000 18.023651 -0.079489 0.000000
193.271040 18.017315 -0.074766 0.000000
172.775730 34.861664 0.293599 0.000000
194.671480 26.692001 0.484725 0.000000
183.310440 26.780642 0.517569 0.000000
172.793120 12.672279 0.443899 0.000000
194.671800 26.688236 1.055440 0.000000
183.310970 26.761282 1.092923 0.000000
194.672100 26.684488 1.625192 0.000000
182.403660 29.877331 1.742827 0.000000
183.311490 26.741894 1.668002 0.000000
182.843380 29.904631 1.741843 0.000000
172.804980 12.670509 1.385462 0.000000
194.672410 26.680738 2.194539 0.000000
182.847930 29.901615 2.253476 0.000000
182.408400 29.874290 2.257935 0.000000
195.125640 26.734865 2.765094 0.000000
194.672710 26.676996 2.764016 0.000000
194.204070 26.715466 2.761280 0.000000
182.851590 29.895779 2.765268 0.000000
182.412510 29.869322 2.773179 0.000000
172.816070 12.666939 2.326102 0.000000
182.849140 29.870008 3.278706 0.000000
182.413710 29.855486 3.289516 0.000000
183.354720 26.849186 3.389586 0.000000
182.874820 26.827614 3.400161 0.000000
172.819000 12.644321 3.267286 0.000000
195.130910 26.703629 3.909601 0.000000
183.354170 26.825542 3.965658 0.000000
182.885850 26.847500 3.976361 0.000000
182.853450 29.866217 3.792728 0.000000
182.418410 29.852257 3.806685 0.000000
185.655410 31.178898 -0.181647 0.000000
185.226850 36.028057 -0.072758 0.000000
185.199570 30.941917 -0.209623 0.000000
184.870330 31.341438 -0.169404 0.000000
184.897660 36.036087 -0.077443 0.000000
184.522750 35.897270 -0.102194 0.000000
184.408740 31.129559 -0.195980 0.000000
182.558040 31.993587 -0.129506 0.000000
182.542330 23.153349 -0.368611 0.000000
182.058330 31.776924 -0.160799 0.000000
181.912140 22.902121 -0.393049 0.000000
181.775770 32.185997 -0.123905 0.000000
181.279860 32.018993 -0.151228 0.000000
181.428410 23.241976 -0.367381 0.000000
181.030300 32.484909 -0.109051 0.000000
180.530440 32.338547 -0.135588 0.000000
180.285260 23.285028 -0.372717 0.000000
180.057160 32.279392 -0.153267 0.000000
179.774380 32.644287 -0.124002 0.000000
179.697270 23.280993 -0.378621 0.000000
179.245760 32.494305 -0.153505 0.000000
178.999420 32.920204 -0.118404 0.000000
179.030670 23.071486 -0.403045 0.000000
178.679090 33.188854 -0.101650 0.000000
178.392700 33.511955 -0.079129 0.000000
178.541870 23.386509 -0.382709 0.000000
178.089190 33.795856 -0.061597 0.000000
177.890010 23.269644 -0.400604 0.000000
177.788510 34.078178 -0.044739 0.000000
177.200150 34.646713 -0.012035 0.000000
177.281100 23.289608 -0.407362 0.000000
176.745570 23.499271 -0.398250 0.000000
175.972140 23.181938 -0.436221 0.000000
175.794140 35.432606 0.004346 0.000000
175.252120 35.394539 -0.022433 0.000000
175.247040 23.016844 -0.461784 0.000000
174.599870 23.046095 -0.471078 0.000000
173.960360 35.132729 -0.103631 0.000000
173.803360 22.804974 -0.505371 0.000000
173.385090 35.123150 -0.131289 0.000000
172.791320 35.113289 -0.160506 0.000000
173.007290 22.607433 -0.536901 0.000000
172.177990 35.103317 -0.191351 0.000000
172.207720 22.442936 -0.566610 0.000000
171.543670 35.093216 -0.223929 0.000000
171.463810 22.410944 -0.585487 0.000000
170.886600 35.082657 -0.258392 0.000000
195.675140 27.618004 -0.109579 0.000000
195.255250 32.858894 -0.131425 0.000000
195.529310 33.278053 -0.096474 0.000000
194.850400 32.922615 -0.111663 0.000000
194.893450 26.717167 -0.167526 0.000000
194.448320 32.999237 -0.091194 0.000000
194.418370 26.641235 -0.163449 0.000000
194.076200 32.960499 -0.084457 0.000000
193.934420 26.624001 -0.154712 0.000000
193.704670 32.925957 -0.077858 0.000000
193.446140 26.653051 -0.142470 0.000000
193.312330 33.019089 -0.057611 0.000000
192.936580 33.041466 -0.045937 0.000000
192.949460 26.780430 -0.122170 0.000000
192.470080 26.801853 -0.111844 0.000000
192.244190 32.658924 -0.071615 0.000000
191.868000 32.687119 -0.060999 0.000000
187.377230 32.184113 -0.070000 0.000000
187.177430 25.755274 -0.145296 0.000000
186.953510 31.857550 -0.105113 0.000000
186.653660 25.483192 -0.166653 0.000000
186.537250 31.674662 -0.125324 0.000000
186.530790 36.057167 -0.052483 0.000000
186.112660 31.492832 -0.146034 0.000000
186.044370 36.036064 -0.060297 0.000000
186.112980 25.168550 -0.192185 0.000000
185.650420 25.487797 -0.163988 0.000000
185.100220 25.212339 -0.187288 0.000000
184.535390 24.926626 -0.212045 0.000000
184.160060 31.800714 -0.127398 0.000000
183.937350 24.541939 -0.245882 0.000000
183.820720 32.060753 -0.103920 0.000000
183.516130 32.419807 -0.070170 0.000000
183.296310 24.040176 -0.290389 0.000000
183.023070 32.141209 -0.106599 0.000000
182.746630 29.748156 0.188778 0.000000
177.553730 34.459263 -0.016737 0.000000
176.686000 35.301605 0.029144 0.000000
176.276760 35.410908 0.022572 0.000000
173.673930 31.842789 0.185840 0.000000
173.505870 32.405315 0.222319 0.000000
173.136470 32.692875 0.232286 0.000000
172.797330 33.740955 0.296897 0.000000
172.406980 33.989906 0.301855 0.000000
172.237000 34.485092 0.330787 0.000000
172.043030 34.941910 0.355729 0.000000
171.557310 35.089180 0.348855 0.000000
170.900530 35.078339 0.324699 0.000000
195.657670 19.504417 -0.037801 0.000000
195.100890 19.132511 -0.051816 0.000000
194.576600 18.451393 -0.086648 0.000000
193.955340 18.403873 -0.079740 0.000000
193.339710 18.310345 -0.076349 0.000000
182.818450 29.902752 1.831991 0.000000
182.356060 29.873962 1.836218 0.000000
182.826480 29.899691 2.373590 0.000000
182.364300 29.870880 2.381307 0.000000
183.465160 26.844866 3.570769 0.000000
182.965180 26.831051 3.584310 0.000000
182.835310 29.868492 3.458997 0.000000
182.377240 29.853153 3.473020 0.000000
182.843310 29.865170 4.003175 0.000000
172.866940 22.563961 -0.530856 0.000000
172.066620 22.430256 -0.556330 0.000000
171.348010 22.477722 -0.567159 0.000000
186.381470 32.394531 -0.116488 0.000000
185.940730 32.196526 -0.138068 0.000000
185.475590 31.915976 -0.168986 0.000000
185.019470 31.744871 -0.189057 0.000000
184.682650 32.163876 -0.147571 0.000000
184.239070 25.041897 -0.217871 0.000000
184.245320 32.105717 -0.157032 0.000000
184.055590 33.042320 -0.061928 0.000000
183.610840 32.931549 -0.078148 0.000000
183.589610 24.523396 -0.261284 0.000000
182.801360 33.046852 -0.076873 0.000000
182.862080 23.750051 -0.326496 0.000000
182.325200 32.898842 -0.099177 0.000000
182.115420 23.034229 -0.387657 0.000000
181.811000 32.672775 -0.130641 0.000000
181.519180 23.033089 -0.390204 0.000000
181.526890 33.107635 -0.091959 0.000000
181.073100 33.077267 -0.103869 0.000000
181.037510 23.471342 -0.356884 0.000000
180.753770 33.392651 -0.079121 0.000000
180.405880 23.358702 -0.370058 0.000000
180.221440 33.198139 -0.110313 0.000000
179.717290 33.099072 -0.132062 0.000000
179.803330 23.373102 -0.373366 0.000000
179.431340 33.486023 -0.101386 0.000000
179.174760 23.327044 -0.382444 0.000000
178.981870 33.524109 -0.109620 0.000000
178.655590 33.813377 -0.090804 0.000000
178.487920 23.139652 -0.404120 0.000000
178.173490 34.245148 -0.063857 0.000000
177.977710 23.471277 -0.383022 0.000000
177.646910 34.587471 -0.048064 0.000000
177.185970 35.419785 0.013876 0.000000
177.293910 23.343971 -0.401210 0.000000
176.745180 35.493660 0.004853 0.000000
176.659560 23.371164 -0.407195 0.000000
176.259920 35.513550 -0.011369 0.000000
176.021740 23.409283 -0.413051 0.000000
175.745480 35.507729 -0.031664 0.000000
175.185910 35.458244 -0.058289 0.000000
175.188050 23.031391 -0.455127 0.000000
174.599730 35.395203 -0.087847 0.000000
174.443190 22.897881 -0.477437 0.000000
173.854160 35.153175 -0.140451 0.000000
173.775990 22.956234 -0.484279 0.000000
173.269450 35.143593 -0.166612 0.000000
172.667250 35.133751 -0.194257 0.000000
172.046620 35.123898 -0.223436 0.000000
171.406040 35.113758 -0.254276 0.000000
195.600860 34.318024 -0.069465 0.000000
195.417340 27.775728 -0.123281 0.000000
195.330780 33.852943 -0.107968 0.000000
194.917790 33.915195 -0.087875 0.000000
194.520970 33.931221 -0.073674 0.000000
194.751560 18.218098 -0.082491 0.000000
194.565050 26.952211 -0.171230 0.000000
194.140490 33.886414 -0.066876 0.000000
194.100400 18.169617 -0.074422 0.000000
194.058350 26.949305 -0.160304 0.000000
193.760350 33.846352 -0.060175 0.000000
193.548220 26.990803 -0.146183 0.000000
193.358460 33.939194 -0.039575 0.000000
193.457090 18.053322 -0.071165 0.000000
193.041930 27.032494 -0.132695 0.000000
192.973160 33.961163 -0.027407 0.000000
192.531940 27.146099 -0.113701 0.000000
192.264500 33.551628 -0.053939 0.000000
191.878540 33.577423 -0.043094 0.000000
187.252780 32.944565 -0.058983 0.000000
187.011760 25.976395 -0.147226 0.000000
186.813170 32.593330 -0.095451 0.000000
186.463100 25.679291 -0.169371 0.000000
185.896000 25.335634 -0.195919 0.000000
185.411640 25.662350 -0.167416 0.000000
184.832860 25.354654 -0.192138 0.000000
183.310550 33.343124 -0.039587 0.000000
173.779360 31.855698 0.184381 0.000000
173.633240 32.503761 0.227398 0.000000
173.274570 32.835949 0.241538 0.000000
173.103000 33.410694 0.277511 0.000000
172.504650 34.190125 0.314510 0.000000
172.320190 34.705849 0.344347 0.000000
172.001140 35.053722 0.358007 0.000000
171.419050 35.109665 0.343023 0.000000
170.757450 35.098980 0.320445 0.000000
195.275920 19.097095 -0.037696 0.000000
194.612010 26.709848 0.442207 0.000000
194.617950 26.705742 1.074804 0.000000
194.623870 26.701643 1.706459 0.000000
182.826230 29.922649 1.900095 0.000000
182.341160 29.892582 1.905086 0.000000
194.629790 26.697565 2.337789 0.000000
182.834780 29.919575 2.471864 0.000000
182.349900 29.889507 2.480345 0.000000
182.836640 29.891901 3.044580 0.000000
183.589140 26.871452 3.101117 0.000000
182.542160 26.855431 3.123893 0.000000
183.079190 26.868864 3.748035 0.000000
182.845030 29.888220 3.617907 0.000000
182.364170 29.872267 3.632633 0.000000
172.480930 12.844704 5.704187 0.000000
174.396990 22.794796 -0.452209 0.000000
173.623440 22.674435 -0.471089 0.000000
172.837200 22.562935 -0.490215 0.000000
172.032680 35.107735 -0.215450 0.000000
171.960240 22.309479 -0.522069 0.000000
171.387180 35.097298 -0.242845 0.000000
187.139370 33.769669 -0.041823 0.000000
186.863540 26.285955 -0.144759 0.000000
186.685000 33.385368 -0.079473 0.000000
186.291340 25.952496 -0.167246 0.000000
186.238330 33.160248 -0.101330 0.000000
185.793760 33.010277 -0.116073 0.000000
185.698610 25.566738 -0.194462 0.000000
185.324190 32.765343 -0.141209 0.000000
185.190510 25.875433 -0.166253 0.000000
184.852220 32.566322 -0.162281 0.000000
184.505830 32.991379 -0.119852 0.000000
184.584050 25.529913 -0.191357 0.000000
184.173720 33.424934 -0.077150 0.000000
183.956420 25.153437 -0.219514 0.000000
183.913060 34.090141 -0.011153 0.000000
183.414370 33.807236 -0.043454 0.000000
183.212420 24.278454 -0.288314 0.000000
183.174670 26.819288 -0.083310 0.000000
183.099560 34.204178 -0.006254 0.000000
182.573990 33.889297 -0.043273 0.000000
182.080110 33.721153 -0.065888 0.000000
181.759780 23.138271 -0.378752 0.000000
181.546260 33.472061 -0.097713 0.000000
181.252270 33.913193 -0.058414 0.000000
181.136410 23.125916 -0.380183 0.000000
180.722470 33.719086 -0.086045 0.000000
180.437680 34.157036 -0.048213 0.000000
180.621720 23.533844 -0.348535 0.000000
179.964140 23.419651 -0.359543 0.000000
179.873060 33.918625 -0.082096 0.000000
179.326020 33.756660 -0.108884 0.000000
179.313600 23.362614 -0.366679 0.000000
179.011020 34.116211 -0.081228 0.000000
178.623440 34.313805 -0.071362 0.000000
178.340040 34.712837 -0.040540 0.000000
178.629810 23.232311 -0.380459 0.000000
177.938930 23.117481 -0.393764 0.000000
177.624730 35.198563 -0.014069 0.000000
177.270600 35.443314 -0.001545 0.000000
177.403150 23.456615 -0.371155 0.000000
176.821660 35.529869 -0.007018 0.000000
176.690410 23.328243 -0.387096 0.000000
176.323000 35.548138 -0.020903 0.000000
175.939870 23.142250 -0.408560 0.000000
175.785350 35.522976 -0.040626 0.000000
175.216340 35.471386 -0.064432 0.000000
175.256210 23.152195 -0.414963 0.000000
174.613300 35.393635 -0.092417 0.000000
173.861540 35.137680 -0.142071 0.000000
173.268740 35.127892 -0.165142 0.000000
172.659450 35.117874 -0.189582 0.000000
172.543810 12.616135 -0.219931 0.000000
195.588260 35.613255 -0.036107 0.000000
195.320450 35.130318 -0.074693 0.000000
195.368900 19.634129 -0.016070 0.000000
195.167450 27.644287 -0.182645 0.000000
194.918720 35.135704 -0.059484 0.000000
194.840160 18.672073 -0.062282 0.000000
194.660690 27.547663 -0.177003 0.000000
194.530440 35.097633 -0.049762 0.000000
194.148350 35.038261 -0.043013 0.000000
194.178440 18.568058 -0.055010 0.000000
194.131420 27.595041 -0.159690 0.000000
193.766080 34.983543 -0.036372 0.000000
193.610260 27.616016 -0.145312 0.000000
193.360660 35.067253 -0.015407 0.000000
193.522280 18.400410 -0.052166 0.000000
193.093610 27.626070 -0.132519 0.000000
192.971760 35.078476 -0.002969 0.000000
192.579420 27.636332 -0.120348 0.000000
192.256770 34.630714 -0.030082 0.000000
191.866090 34.643585 -0.019192 0.000000
173.420120 31.896118 0.205995 0.000000
173.269360 32.592247 0.252151 0.000000
173.124220 33.266666 0.296314 0.000000
172.733510 33.578766 0.308897 0.000000
172.516590 34.118092 0.340820 0.000000
172.098710 34.385857 0.348545 0.000000
171.401580 35.093307 0.377548 0.000000
183.186050 26.815159 0.585316 0.000000
172.601320 12.708042 0.815605 0.000000
183.197400 26.811052 1.252365 0.000000
183.208720 26.806919 1.918465 0.000000
182.895650 29.913605 1.974037 0.000000
182.388600 29.882048 1.981029 0.000000
172.639450 12.750240 1.844519 0.000000
183.220060 26.802824 2.584267 0.000000
182.906310 29.910675 2.575388 0.000000
182.399440 29.879089 2.585846 0.000000
172.673420 12.781864 2.870813 0.000000
183.785320 26.856144 3.235787 0.000000
183.231400 26.798697 3.250398 0.000000
182.693730 26.837408 3.262497 0.000000
182.910110 29.880541 3.177879 0.000000
182.406940 29.863758 3.191329 0.000000
183.250030 26.828485 3.915676 0.000000
182.920720 29.877268 3.780960 0.000000
182.417720 29.860472 3.797546 0.000000
172.702090 12.799885 3.896307 0.000000
172.727720 12.809959 4.922604 0.000000
172.749450 12.809868 5.951434 0.000000
175.588560 23.829857 -0.488517 0.000000
174.892350 23.845840 -0.495354 0.000000
173.966450 23.374809 -0.543496 0.000000
173.073790 23.040321 -0.581434 0.000000
171.406800 22.757748 -0.628375 0.000000
187.110950 35.357483 -0.022199 0.000000
186.795470 27.509739 -0.165402 0.000000
186.661360 34.987717 -0.059194 0.000000
186.218750 27.167044 -0.189546 0.000000
186.236890 34.892677 -0.068251 0.000000
185.809070 34.810730 -0.076567 0.000000
185.622590 26.783447 -0.217557 0.000000
185.348590 34.578346 -0.101133 0.000000
185.110890 27.091204 -0.189715 0.000000
184.886020 34.390755 -0.121703 0.000000
185.380870 12.005043 -0.421294 0.000000
184.545380 34.807533 -0.080134 0.000000
184.501860 26.752874 -0.215193 0.000000
184.187390 35.100014 -0.052073 0.000000
183.889210 26.479017 -0.236006 0.000000
183.497480 35.700729 0.003951 0.000000
183.145260 35.938560 0.024592 0.000000
183.096250 25.368458 -0.325566 0.000000
182.642850 35.679131 -0.007413 0.000000
182.292430 24.412350 -0.403174 0.000000
182.190060 35.613785 -0.019846 0.000000
181.693450 35.444885 -0.043914 0.000000
181.601550 24.102760 -0.428827 0.000000
181.295700 35.575661 -0.037165 0.000000
180.841320 35.562737 -0.046286 0.000000
180.937640 23.964329 -0.441255 0.000000
180.446610 35.711483 -0.038987 0.000000
180.443680 24.487442 -0.400480 0.000000
179.917160 35.548492 -0.065607 0.000000
179.793610 24.429329 -0.407783 0.000000
179.448530 35.550629 -0.075472 0.000000
179.099760 24.258354 -0.425046 0.000000
178.993740 35.597610 -0.081334 0.000000
178.396900 24.101231 -0.441962 0.000000
178.081910 35.722305 -0.092145 0.000000
177.600450 35.753941 -0.102146 0.000000
177.671300 23.918098 -0.461817 0.000000
177.112840 35.788849 -0.112685 0.000000
177.096370 24.184177 -0.445625 0.000000
176.353100 24.013233 -0.466110 0.000000
176.011660 35.694042 -0.154915 0.000000
175.442140 35.648422 -0.177499 0.000000
174.869350 35.619621 -0.199362 0.000000
174.409190 35.776749 -0.201254 0.000000
172.834010 12.593109 -0.335393 0.000000
195.211110 21.723263 0.025684 0.000000
195.082050 29.242809 -0.161235 0.000000
194.569580 29.199015 -0.151775 0.000000
194.628020 21.246620 0.008520 0.000000
193.981720 21.186501 0.017329 0.000000
194.047960 29.224842 -0.136970 0.000000
193.529980 29.251104 -0.122798 0.000000
193.351100 20.976654 0.016265 0.000000
193.015370 29.277632 -0.109263 0.000000
192.503770 29.304340 -0.096358 0.000000
183.998720 36.028088 0.041611 0.000000
174.956040 31.920086 0.120787 0.000000
174.370000 32.969818 0.187107 0.000000
173.966550 33.290550 0.202164 0.000000
173.559360 33.601974 0.215877 0.000000
173.356950 34.211441 0.255054 0.000000
173.163010 34.809311 0.293021 0.000000
172.754940 35.093353 0.303026 0.000000
172.147370 35.116116 0.289131 0.000000
171.498060 35.105698 0.271271 0.000000
170.830020 35.094990 0.252303 0.000000
183.009320 29.925940 1.941324 0.000000
182.480970 29.893351 1.948007 0.000000
183.019790 29.922873 2.571548 0.000000
182.491670 29.890316 2.581648 0.000000
183.453490 26.861843 3.270059 0.000000
182.881770 26.841005 3.283490 0.000000
182.498460 29.871849 3.216017 0.000000
183.032670 29.882074 3.835194 0.000000
182.509060 29.868414 3.851131 0.000000
183.459880 26.833916 3.966047 0.000000
182.898130 26.860453 3.979967 0.000000
177.399230 24.630142 -0.535594 0.000000
176.814160 24.906094 -0.519521 0.000000
176.041230 24.693768 -0.545006 0.000000
175.278530 24.550499 -0.565656 0.000000
174.573670 24.578957 -0.572810 0.000000
172.586820 23.475700 -0.688203 0.000000
186.200160 28.682314 -0.179770 0.000000
185.585910 28.140566 -0.222118 0.000000
185.095960 28.605862 -0.181947 0.000000
184.465770 28.125069 -0.220441 0.000000
184.063420 29.017178 -0.146367 0.000000
183.069560 26.791672 -0.329931 0.000000
182.763240 12.410210 -0.475415 0.000000
182.206190 25.558121 -0.432427 0.000000
181.446820 24.977726 -0.481822 0.000000
181.749540 11.348766 -0.534820 0.000000
180.800200 24.945873 -0.486711 0.000000
180.298510 25.470661 -0.446329 0.000000
179.629700 25.375530 -0.457891 0.000000
178.914660 25.164326 -0.479850 0.000000
178.117680 24.750854 -0.519437 0.000000
177.476700 36.021248 -0.221797 0.000000
176.399120 35.983208 -0.257084 0.000000
171.027880 35.095299 0.140992 0.000000
195.418410 31.407284 -0.090685 0.000000
195.042040 30.705858 -0.139043 0.000000
194.524080 30.698942 -0.127315 0.000000
194.614990 22.546227 0.013092 0.000000
193.985440 22.328007 0.010773 0.000000
194.001940 30.737879 -0.112287 0.000000
193.483900 30.777147 -0.097903 0.000000
193.351350 22.105511 0.007772 0.000000
192.969700 30.816629 -0.084162 0.000000
192.458980 30.856194 -0.071061 0.000000
186.786240 29.148666 -0.144176 0.000000
185.872100 19.059513 -0.089059 0.000000
185.047810 18.038143 -0.145458 0.000000
184.207030 17.193539 -0.191445 0.000000
176.291720 32.554260 0.072102 0.000000
175.912870 32.962917 0.096754 0.000000
175.153370 33.736931 0.140945 0.000000
174.715500 34.008209 0.152287 0.000000
174.468930 34.593555 0.190493 0.000000
174.050510 34.882332 0.202383 0.000000
173.610960 35.137581 0.210744 0.000000
172.989400 35.127350 0.194839 0.000000
172.352400 35.116982 0.177951 0.000000
171.698900 35.106255 0.160016 0.000000
194.631560 26.701263 0.266920 0.000000
194.638920 26.696892 0.991884 0.000000
182.620500 29.869190 1.253068 0.000000
194.646260 26.692509 1.715767 0.000000
182.639020 29.902409 1.917150 0.000000
194.653590 26.688152 2.439278 0.000000
182.648970 29.899166 2.579484 0.000000
183.728410 26.860447 3.295231 0.000000
182.654340 29.876266 3.242645 0.000000
182.664230 29.872639 3.906563 0.000000
195.249480 26.712822 3.885555 0.000000
183.734890 26.835236 4.020044 0.000000
172.461060 12.784733 4.989374 0.000000
178.540020 25.537186 -0.517137 0.000000
177.720000 25.116169 -0.558027 0.000000
176.978300 24.988960 -0.575676 0.000000
176.362950 25.241020 -0.562865 0.000000
175.554900 24.995285 -0.592097 0.000000
186.693890 30.047783 -0.133027 0.000000
186.097780 29.577293 -0.169090 0.000000
185.473250 29.030844 -0.211908 0.000000
184.977010 29.521639 -0.170789 0.000000
184.368760 29.233572 -0.193782 0.000000
184.006840 30.384235 -0.100187 0.000000
183.293550 29.575445 -0.166886 0.000000
182.549840 12.658459 -0.476008 0.000000
181.930970 25.927395 -0.465835 0.000000
181.511200 11.574341 -0.536671 0.000000
181.165590 25.404957 -0.510821 0.000000
180.535830 25.513802 -0.505062 0.000000
179.997960 25.966377 -0.471919 0.000000
179.312070 25.874077 -0.484084 0.000000
177.335420 32.548958 0.018265 0.000000
176.910930 32.919250 0.040090 0.000000
173.240750 35.114243 0.129543 0.000000
172.597110 35.104000 0.112930 0.000000
172.699480 12.681149 -0.471019 0.000000
171.937940 35.093376 0.095282 0.000000
171.262160 35.082207 0.076536 0.000000
195.506790 32.229202 -0.080622 0.000000
195.405120 22.874950 0.005048 0.000000
195.122760 31.508705 -0.129981 0.000000
194.734530 22.816185 0.012975 0.000000
194.583340 31.558584 -0.113781 0.000000
194.048810 31.609053 -0.098238 0.000000
194.084080 22.598011 0.010481 0.000000
193.518890 31.659819 -0.083359 0.000000
193.429030 22.376713 0.007358 0.000000
192.993260 31.710707 -0.069145 0.000000
192.471500 31.762346 -0.055532 0.000000
185.734990 19.458088 -0.085021 0.000000
184.967960 19.130455 -0.099823 0.000000
184.041660 17.659187 -0.183058 0.000000
176.540440 33.390610 0.069913 0.000000
175.662840 34.007378 0.100582 0.000000
175.217990 34.295990 0.113406 0.000000
175.024950 35.031044 0.164010 0.000000
174.486100 35.135292 0.159987 0.000000
173.870390 35.125084 0.145252 0.000000
172.726520 12.705650 0.646657 0.000000
182.822110 29.897005 1.940278 0.000000
182.244950 29.861187 1.945884 0.000000
172.750310 12.720940 1.761137 0.000000
182.831340 29.893648 2.632515 0.000000
182.254360 29.857822 2.641644 0.000000
172.772050 12.730457 2.874118 0.000000
183.419560 26.845081 3.393373 0.000000
182.800190 26.824337 3.405583 0.000000
182.835210 29.865379 3.325795 0.000000
182.261890 29.846355 3.337942 0.000000
182.814650 26.843578 4.163672 0.000000
182.844380 29.861696 4.019854 0.000000
172.788480 12.724625 3.987365 0.000000
172.798680 12.700813 5.103163 0.000000
186.123110 31.580070 -0.142549 0.000000
185.513230 31.062347 -0.184167 0.000000
185.061020 31.773861 -0.124106 0.000000
184.476000 31.532288 -0.143968 0.000000
182.984210 32.352451 -0.078724 0.000000
182.308300 31.816994 -0.125598 0.000000
181.325940 32.369537 -0.085931 0.000000
180.708270 32.186119 -0.105462 0.000000
180.493730 26.899948 -0.538883 0.000000
180.065370 31.962614 -0.129084 0.000000
179.429980 31.806883 -0.147779 0.000000
178.854610 31.859428 -0.149694 0.000000
178.648270 32.925079 -0.066705 0.000000
178.200230 33.280655 -0.044098 0.000000
177.743010 33.598183 -0.025264 0.000000
176.945100 34.461624 0.030316 0.000000
175.862610 18.393589 -0.259657 0.000000
174.986760 35.316971 0.059931 0.000000
174.292040 35.171040 0.034157 0.000000
173.657680 35.160828 0.019336 0.000000
173.588650 19.181686 -0.220866 0.000000
173.009830 35.150444 0.003568 0.000000
172.347730 35.140076 -0.013171 0.000000
172.403640 18.347736 -0.276310 0.000000
171.670330 35.129433 -0.030947 0.000000
170.976650 35.118469 -0.049814 0.000000
195.332260 34.223183 -0.043782 0.000000
195.332890 24.399181 -0.018318 0.000000
194.971510 33.439178 -0.100288 0.000000
194.685650 24.190323 -0.020403 0.000000
194.444820 33.474865 -0.085690 0.000000
194.034030 23.983097 -0.022828 0.000000
193.920210 33.525650 -0.070468 0.000000
193.400160 33.576683 -0.055901 0.000000
193.368700 23.866669 -0.019944 0.000000
192.884000 33.630814 -0.041730 0.000000
192.371380 33.689659 -0.027808 0.000000
186.705990 32.026051 -0.107461 0.000000
185.737200 21.382648 -0.093871 0.000000
184.976230 21.022118 -0.111597 0.000000
184.105060 32.538086 -0.060676 0.000000
184.179080 20.499302 -0.139708 0.000000
183.573640 32.573051 -0.058752 0.000000
183.374540 20.076164 -0.162189 0.000000
182.390490 18.666473 -0.245308 0.000000
181.562870 18.426231 -0.257595 0.000000
180.767440 18.416500 -0.256408 0.000000
180.292450 19.909637 -0.164364 0.000000
179.265090 18.849945 -0.228244 0.000000
178.402100 18.617123 -0.242403 0.000000
177.445590 34.276489 0.023808 0.000000
177.535340 18.428635 -0.254469 0.000000
176.524290 34.818481 0.050965 0.000000
176.709750 18.432434 -0.255453 0.000000
175.603970 35.347458 0.074695 0.000000
183.094310 26.837681 1.042344 0.000000
183.104170 26.832806 1.828431 0.000000
183.080930 29.947529 1.885890 0.000000
182.484480 29.910839 1.891394 0.000000
183.114150 26.828575 2.614097 0.000000
183.090300 29.944019 2.604873 0.000000
182.494080 29.907303 2.613797 0.000000
183.127060 26.840702 3.399601 0.000000
182.500370 29.888508 3.336887 0.000000
183.774800 26.848412 4.172051 0.000000
182.504840 26.874939 4.198717 0.000000
182.510470 29.887241 4.060715 0.000000
176.839860 35.687462 -0.062862 0.000000
176.238050 35.667305 -0.075138 0.000000
175.597760 35.590870 -0.093318 0.000000
174.950680 35.528046 -0.111153 0.000000
174.126050 35.161221 -0.157674 0.000000
173.472730 35.150795 -0.172716 0.000000
172.805920 35.140038 -0.188738 0.000000
172.725620 20.648026 -0.358446 0.000000
172.125140 35.129440 -0.205732 0.000000
171.817960 20.556854 -0.369967 0.000000
171.429210 35.118599 -0.223780 0.000000
195.229690 26.163429 -0.098253 0.000000
194.561160 26.162674 -0.087555 0.000000
193.902450 26.105717 -0.081191 0.000000
193.242400 26.069462 -0.073955 0.000000
186.803540 34.911106 -0.059000 0.000000
186.263490 34.610962 -0.083486 0.000000
185.717910 34.366180 -0.103704 0.000000
185.829040 24.203636 -0.123006 0.000000
185.294850 35.041054 -0.044481 0.000000
185.091110 23.818993 -0.144230 0.000000
184.749560 34.834476 -0.062540 0.000000
184.317490 23.281570 -0.175821 0.000000
184.221530 34.780418 -0.067917 0.000000
183.431320 35.969147 0.032537 0.000000
183.496410 22.570141 -0.219141 0.000000
182.838590 35.610954 -0.001080 0.000000
182.633970 21.783226 -0.267802 0.000000
182.274430 35.433777 -0.019555 0.000000
181.829620 35.735054 0.003162 0.000000
181.864090 21.688148 -0.272151 0.000000
181.261110 35.590775 -0.013689 0.000000
180.679530 35.439507 -0.031832 0.000000
180.055250 35.194149 -0.058957 0.000000
180.297940 21.492290 -0.282882 0.000000
179.501770 21.397449 -0.288898 0.000000
179.044190 35.476852 -0.047144 0.000000
178.518780 35.572826 -0.046191 0.000000
178.696200 21.304577 -0.295367 0.000000
177.985790 35.659569 -0.046717 0.000000
177.880310 21.212097 -0.302403 0.000000
177.054660 21.123959 -0.309762 0.000000
176.210630 21.013832 -0.319165 0.000000
175.357650 20.916092 -0.328400 0.000000
174.492430 20.821423 -0.338086 0.000000
173.689090 20.932148 -0.335078 0.000000
182.734760 29.885044 0.259487 0.000000
172.141250 32.745953 0.383029 0.000000
171.676500 33.176117 0.403329 0.000000
171.327240 33.787231 0.435402 0.000000
170.893310 34.241898 0.456616 0.000000
172.678850 12.732880 0.313068 0.000000
182.744250 29.879219 1.012005 0.000000
182.763260 29.921593 1.764287 0.000000
182.773160 29.918068 2.514050 0.000000
182.778410 29.891068 3.264516 0.000000
183.505520 26.871727 3.314874 0.000000
182.842130 26.851501 3.326650 0.000000
182.788270 29.887222 4.015804 0.000000
183.511660 26.842537 4.129432 0.000000
182.856750 26.870541 4.141859 0.000000
172.774960 12.783257 4.988292 0.000000
179.238080 35.902584 -0.141566 0.000000
178.700420 36.001259 -0.139461 0.000000
178.126680 36.015869 -0.145641 0.000000
177.520610 35.969231 -0.158114 0.000000
176.882220 35.871300 -0.176048 0.000000
176.234510 35.781700 -0.194058 0.000000
175.592960 35.733624 -0.209114 0.000000
175.047820 35.906387 -0.204636 0.000000
174.443190 35.969967 -0.211002 0.000000
174.281940 21.622456 -0.421335 0.000000
172.635570 21.814934 -0.416792 0.000000
171.591090 21.396645 -0.450118 0.000000
194.597850 27.138279 -0.158094 0.000000
193.921590 27.165905 -0.145551 0.000000
193.246440 27.219765 -0.131761 0.000000
185.804900 25.516163 -0.169999 0.000000
185.062530 25.096088 -0.194078 0.000000
184.282790 24.518330 -0.229159 0.000000
183.457840 23.790310 -0.274729 0.000000
183.213870 26.843014 -0.067976 0.000000
181.654370 21.978291 -0.390990 0.000000
180.849910 21.847561 -0.398074 0.000000
180.343190 23.143326 -0.310523 0.000000
179.540310 22.996647 -0.319836 0.000000
178.727970 22.858860 -0.329129 0.000000
177.918030 22.774273 -0.335457 0.000000
177.105640 22.717976 -0.340491 0.000000
176.262630 22.595852 -0.350532 0.000000
173.682450 31.639290 0.223549 0.000000
173.632110 22.180447 -0.387782 0.000000
173.243790 32.206718 0.255819 0.000000
172.821110 32.781071 0.288185 0.000000
172.368560 33.276272 0.314783 0.000000
172.201660 34.266674 0.374959 0.000000
171.740140 34.696358 0.396409 0.000000
194.660160 26.728043 0.659202 0.000000
183.224870 26.837414 0.777839 0.000000
194.666700 26.722462 1.503254 0.000000
183.235840 26.831795 1.622181 0.000000
183.107960 29.950642 1.698963 0.000000
182.466400 29.910313 1.704513 0.000000
183.118440 29.946247 2.476027 0.000000
182.477200 29.905960 2.485019 0.000000
194.673220 26.716896 2.346659 0.000000
183.246800 26.826214 2.465874 0.000000
182.485200 29.887314 3.265938 0.000000
183.257770 26.820614 3.309714 0.000000
182.495940 29.882626 4.047718 0.000000
183.953950 26.844913 4.139602 0.000000
182.595700 26.881084 4.166060 0.000000
177.558440 36.043140 -0.224043 0.000000
176.917100 35.976368 -0.238559 0.000000
176.327450 36.057053 -0.240487 0.000000
175.684360 36.032326 -0.252790 0.000000
174.860210 22.331463 -0.415314 0.000000
173.900050 22.036301 -0.438024 0.000000
173.124420 22.302921 -0.423964 0.000000
172.121660 21.985439 -0.449563 0.000000
171.142500 21.786663 -0.467983 0.000000
195.309840 27.940884 -0.168214 0.000000
194.636490 27.848118 -0.163151 0.000000
193.944690 27.909092 -0.147957 0.000000
185.676300 26.022686 -0.184461 0.000000
184.916640 25.582802 -0.209493 0.000000
184.116290 24.964958 -0.246844 0.000000
183.244670 24.026451 -0.305997 0.000000
182.292710 22.821266 -0.383320 0.000000
181.517010 22.862556 -0.378142 0.000000
180.730580 22.866875 -0.376002 0.000000
180.069140 23.474358 -0.334362 0.000000
179.235720 23.278255 -0.346714 0.000000
178.410130 23.167305 -0.353993 0.000000
177.552640 22.980228 -0.366927 0.000000
176.737270 22.988842 -0.367467 0.000000
173.524510 32.773457 0.252489 0.000000
173.081740 33.342480 0.284798 0.000000
172.616580 33.843792 0.312137 0.000000
172.120070 34.269375 0.333928 0.000000
171.867260 35.120888 0.384350 0.000000
171.135240 35.105988 0.375234 0.000000
182.810710 29.932339 1.710846 0.000000
182.821780 29.927803 2.518506 0.000000
183.702620 26.876247 3.369475 0.000000
182.995010 26.857323 3.381845 0.000000
182.828480 29.898724 3.326822 0.000000
183.710750 26.848591 4.241842 0.000000
172.839320 12.706181 5.078822 0.000000
177.234310 23.313519 -0.394342 0.000000
175.389760 22.790127 -0.431376 0.000000
174.425800 22.488434 -0.453540 0.000000
173.448170 22.209808 -0.474865 0.000000
172.594450 22.327267 -0.470557 0.000000
171.604220 22.110401 -0.489199 0.000000
195.310780 29.019974 -0.153781 0.000000
194.634630 28.911682 -0.149467 0.000000
193.938980 28.961506 -0.134717 0.000000
185.564320 26.600693 -0.199147 0.000000
184.789720 26.149071 -0.224580 0.000000
183.973400 25.514877 -0.262621 0.000000
183.040190 24.246689 -0.343283 0.000000
182.109770 23.299755 -0.402949 0.000000
181.297620 23.225613 -0.405108 0.000000
180.500490 23.266354 -0.400221 0.000000
179.812650 23.832184 -0.361103 0.000000
178.963750 23.647846 -0.372344 0.000000
178.118960 23.532913 -0.379577 0.000000
174.002000 32.045971 0.164524 0.000000
173.530360 32.650436 0.200011 0.000000
173.368350 33.883690 0.277313 0.000000
172.883390 34.377586 0.304649 0.000000
172.409700 34.875843 0.331862 0.000000
171.058650 35.101986 0.332703 0.000000
182.523900 29.913895 1.718649 0.000000
182.535480 29.908199 2.556712 0.000000
183.469420 26.877628 3.436634 0.000000
182.544370 29.887367 3.395273 0.000000
180.766480 24.039856 -0.438678 0.000000
179.965990 24.123608 -0.434585 0.000000
179.094410 23.904964 -0.451428 0.000000
178.362290 24.317444 -0.426488 0.000000
177.501800 24.209797 -0.437150 0.000000
176.638900 24.135178 -0.446257 0.000000
175.666520 23.733017 -0.478163 0.000000
174.698550 23.420990 -0.504745 0.000000
172.618900 22.581135 -0.574958 0.000000
195.033650 29.732559 -0.131746 0.000000
194.331880 29.741928 -0.122305 0.000000
193.623260 29.844612 -0.107036 0.000000
192.919630 29.961376 -0.091402 0.000000
184.324910 26.893082 -0.247214 0.000000
