# .PCD v0.7 - Point Cloud Data file format
VERSION 0.7
FIELDS x y z intensity
SIZE 4 4 4 4
TYPE F F F F
COUNT 1 1 1 1
WIDTH 1225
HEIGHT 1
VIEWPOINT 0 0 0 1 0 0 0
POINTS 1225
DATA ascii
190.888870 71.697479 0.764702 0.000000
190.826520 75.731369 0.850652 0.000000
190.681750 81.251656 1.042403 0.000000
190.717760 65.645302 0.619963 0.000000
190.656980 67.129173 0.655327 0.000000
190.574870 69.079224 0.702024 0.000000
190.601700 71.718079 0.768133 0.000000
190.468000 75.726242 0.856573 0.000000
190.229000 81.330353 1.044736 0.000000
190.445450 65.672050 0.623071 0.000000
190.263500 65.685684 0.625066 0.000000
190.241960 67.161316 0.659832 0.000000
190.212600 69.100922 0.706224 0.000000
190.170290 71.740341 0.772976 0.000000
190.110530 75.740982 0.860560 0.000000
189.990140 65.700226 0.627878 0.000000
189.825880 67.178711 0.664119 0.000000
189.849780 69.112434 0.710196 0.000000
189.738140 71.644699 0.787467 0.000000
189.752850 75.773605 0.862769 0.000000
189.316210 81.473999 1.048579 0.000000
189.533800 65.709030 0.632205 0.000000
189.409300 67.180138 0.668341 0.000000
189.365660 69.114342 0.715168 0.000000
189.308930 71.636993 0.792546 0.000000
189.214080 75.820427 0.865160 0.000000
188.856120 81.536713 1.050187 0.000000
189.077270 65.698738 0.636274 0.000000
189.096860 67.172356 0.671308 0.000000
189.002550 69.105705 0.718648 0.000000
188.879640 71.628754 0.796582 0.000000
188.672530 75.866920 0.866504 0.000000
188.712570 65.674767 0.639387 0.000000
188.784670 67.155777 0.674067 0.000000
188.639650 69.087448 0.721824 0.000000
188.593090 71.623207 0.798551 0.000000
188.309200 75.899536 0.866573 0.000000
188.393570 81.595192 1.051493 0.000000
188.348740 65.638481 0.642193 0.000000
188.369050 67.122116 0.677442 0.000000
188.277150 69.060928 0.724822 0.000000
188.006270 71.730545 0.790142 0.000000
187.943880 75.932304 0.866091 0.000000
187.929020 81.640923 1.052890 0.000000
187.895770 65.576187 0.645277 0.000000
188.076610 65.603790 0.644070 0.000000
187.954650 67.074242 0.680499 0.000000
187.915370 69.024223 0.727576 0.000000
187.715440 71.726974 0.790293 0.000000
187.573390 75.993683 0.863111 0.000000
187.460130 81.706177 1.052870 0.000000
187.621480 65.547508 0.643938 0.000000
187.423070 67.078049 0.672581 0.000000
187.287890 69.096359 0.714491 0.000000
187.412570 71.802811 0.782702 0.000000
187.181430 76.205276 0.849316 0.000000
187.332820 65.577164 0.632150 0.000000
187.136400 65.601501 0.622729 0.000000
187.198490 67.124634 0.662227 0.000000
186.971440 67.167702 0.651720 0.000000
187.027540 69.151512 0.705226 0.000000
187.102100 71.901047 0.772513 0.000000
186.786830 71.997391 0.761906 0.000000
186.463230 82.236229 1.032802 0.000000
186.838320 65.631821 0.608288 0.000000
186.625560 67.226868 0.635403 0.000000
186.632480 69.221336 0.691558 0.000000
186.466980 72.090256 0.751012 0.000000
186.453860 76.089806 0.856875 0.000000
186.435000 65.662766 0.588332 0.000000
186.279220 67.263367 0.620877 0.000000
186.231630 69.284950 0.677333 0.000000
186.052410 76.250351 0.844880 0.000000
185.950520 82.482124 1.022910 0.000000
186.025330 65.680389 0.567772 0.000000
185.931380 67.279488 0.607483 0.000000
185.824360 69.337563 0.662737 0.000000
185.841870 72.139900 0.739761 0.000000
185.626070 76.498924 0.826260 0.000000
185.425480 82.736298 1.012115 0.000000
185.613940 65.673492 0.548385 0.000000
185.462070 67.288635 0.589047 0.000000
185.411270 69.383926 0.647514 0.000000
185.314440 72.369698 0.711973 0.000000
185.217710 76.606567 0.816673 0.000000
184.876540 83.060593 0.997542 0.000000
185.204500 65.636772 0.531045 0.000000
185.106080 67.286118 0.574766 0.000000
184.992030 69.418694 0.631897 0.000000
184.814730 72.438568 0.697549 0.000000
184.803220 76.711426 0.806655 0.000000
184.866910 67.278801 0.565073 0.000000
184.567490 69.445587 0.615766 0.000000
184.519070 72.339088 0.700471 0.000000
184.350620 76.942810 0.787279 0.000000
184.302370 83.440224 0.979853 0.000000
184.142670 72.491653 0.679396 0.000000
183.924090 77.030411 0.777126 0.000000
183.746080 83.652649 0.969307 0.000000
183.829300 72.431335 0.677373 0.000000
183.619520 76.663025 0.797824 0.000000
183.195560 83.789169 0.961672 0.000000
183.122190 76.965607 0.771463 0.000000
182.705140 76.969208 0.765154 0.000000
182.741530 83.496231 0.973328 0.000000
182.025760 84.216446 0.937387 0.000000
180.310780 81.271965 1.053964 0.000000
180.140750 63.895813 0.712801 0.000000
195.602250 78.631462 1.062924 0.000000
195.424130 84.207916 1.458845 0.000000
195.220980 78.850250 1.063266 0.000000
180.319090 81.257019 1.659300 0.000000
180.054900 85.235107 1.566968 0.000000
180.139890 63.893196 1.140369 0.000000
180.139040 63.890598 1.565107 0.000000
195.429890 84.188011 2.103840 0.000000
180.323430 81.253075 2.263296 0.000000
180.138200 63.888008 1.988406 0.000000
195.446780 84.224396 2.748753 0.000000
180.325620 81.255081 2.867171 0.000000
180.137360 63.885422 2.410917 0.000000
180.136520 63.882828 2.833603 0.000000
180.327610 81.257698 3.471684 0.000000
180.058490 63.799061 3.115488 0.000000
179.906770 63.479584 3.670624 0.000000
180.096370 63.837452 3.540961 0.000000
180.148880 64.254288 3.567032 0.000000
195.455120 84.168533 4.037848 0.000000
194.947080 84.256348 4.044908 0.000000
180.347720 81.234528 5.903027 0.000000
179.874070 81.119156 5.912495 0.000000
178.182280 67.411270 0.243706 0.000000
177.911510 67.287254 0.228035 0.000000
177.611560 67.183357 0.206999 0.000000
177.386260 70.351509 0.302320 0.000000
177.127080 70.160065 0.298694 0.000000
176.725810 65.598740 0.236404 0.000000
176.599580 70.010498 0.270443 0.000000
176.419710 74.311592 0.384626 0.000000
176.294130 65.391678 0.202260 0.000000
176.040310 69.874870 0.237172 0.000000
175.952130 74.286911 0.362306 0.000000
176.131320 65.165848 0.198655 0.000000
175.670180 69.769073 0.215363 0.000000
175.614200 74.086258 0.358325 0.000000
175.404970 64.616585 0.147540 0.000000
175.486330 64.898026 0.140404 0.000000
175.672420 65.118858 0.148535 0.000000
175.367220 69.593124 0.203380 0.000000
175.129320 74.058823 0.333793 0.000000
175.051880 63.999275 0.139064 0.000000
175.167600 64.421577 0.130265 0.000000
175.077970 69.400208 0.192979 0.000000
174.705630 73.945122 0.317714 0.000000
174.727970 63.365292 0.130461 0.000000
174.853530 63.621029 0.133913 0.000000
174.502430 68.999527 0.171139 0.000000
174.790660 69.201546 0.182372 0.000000
174.385740 62.581791 0.120607 0.000000
174.493130 62.845879 0.123684 0.000000
174.606610 63.107380 0.126879 0.000000
174.106290 68.878220 0.144361 0.000000
174.250720 73.856354 0.297453 0.000000
173.933550 81.959824 0.356372 0.000000
173.928670 61.231949 0.105177 0.000000
174.180530 62.353642 0.102806 0.000000
173.675490 68.340065 0.139559 0.000000
173.718950 73.838394 0.267352 0.000000
173.476200 81.710907 0.356080 0.000000
173.404140 68.109665 0.128505 0.000000
173.268400 73.718254 0.247822 0.000000
172.878630 67.626236 0.106940 0.000000
173.138310 67.871750 0.117612 0.000000
172.808790 73.596092 0.227081 0.000000
172.623290 67.374580 0.096217 0.000000
172.337300 82.476456 0.274951 0.000000
172.166150 66.426170 0.099382 0.000000
172.357930 66.718163 0.104218 0.000000
172.471340 67.056900 0.098196 0.000000
171.890030 73.317009 0.185349 0.000000
172.201540 73.605942 0.188283 0.000000
171.788700 82.316101 0.264995 0.000000
171.869400 66.189568 0.080621 0.000000
171.242680 82.141350 0.255095 0.000000
171.449460 65.222534 0.078754 0.000000
171.618520 65.529808 0.083804 0.000000
171.265110 73.310852 0.144743 0.000000
171.137080 64.594177 0.069466 0.000000
171.115370 64.988731 0.052820 0.000000
171.029680 72.942474 0.149750 0.000000
170.956850 63.911514 0.072888 0.000000
170.896090 64.313705 0.053439 0.000000
184.668520 66.917076 0.546985 0.000000
184.356220 66.871620 0.533381 0.000000
184.250600 68.564934 0.578151 0.000000
183.955260 66.767433 0.520294 0.000000
183.660690 68.470337 0.559421 0.000000
183.904310 68.496758 0.569192 0.000000
183.521970 66.701180 0.497229 0.000000
183.395260 68.478745 0.543645 0.000000
183.423080 70.722786 0.612584 0.000000
183.282440 73.804695 0.686281 0.000000
183.051960 66.669968 0.464141 0.000000
182.992080 68.481384 0.519628 0.000000
182.969420 70.739273 0.592745 0.000000
182.792110 73.742195 0.679697 0.000000
182.684750 66.650330 0.436043 0.000000
182.577710 68.484970 0.493557 0.000000
182.503910 70.758514 0.570886 0.000000
182.486770 73.640335 0.680172 0.000000
182.214970 78.421066 0.768429 0.000000
182.337020 66.585518 0.413763 0.000000
182.188480 68.425690 0.474742 0.000000
182.153440 70.832108 0.547566 0.000000
182.071900 73.784027 0.656291 0.000000
181.873050 78.187157 0.779059 0.000000
181.780170 66.422173 0.382494 0.000000
181.987840 66.510765 0.391285 0.000000
181.803530 68.346977 0.457118 0.000000
181.747700 70.697517 0.541325 0.000000
181.631900 73.957169 0.628588 0.000000
181.511430 66.232567 0.378884 0.000000
181.444050 68.217194 0.445326 0.000000
181.319370 73.839935 0.628266 0.000000
181.267060 78.656670 0.738872 0.000000
181.001020 65.978989 0.356191 0.000000
181.213580 66.073425 0.367468 0.000000
181.045170 68.132790 0.424359 0.000000
180.950970 70.651428 0.504430 0.000000
180.878680 73.973534 0.602531 0.000000
180.693850 78.983154 0.707930 0.000000
180.692670 65.054695 0.422679 0.000000
180.684910 65.827003 0.339360 0.000000
180.522200 67.985825 0.398294 0.000000
180.785600 68.059761 0.411767 0.000000
180.631410 70.617104 0.489968 0.000000
180.561550 73.849480 0.601332 0.000000
180.128220 79.245331 0.680644 0.000000
180.410420 64.876472 0.408376 0.000000
180.241960 67.926262 0.381289 0.000000
180.304780 70.584312 0.474301 0.000000
180.104390 73.976906 0.574221 0.000000
179.780010 78.975922 0.690955 0.000000
180.127880 63.875942 0.469633 0.000000
179.962420 64.547134 0.387076 0.000000
179.827510 67.816170 0.357003 0.000000
179.806850 70.527618 0.449683 0.000000
179.751570 73.899216 0.566690 0.000000
179.450120 64.114594 0.363005 0.000000
179.428420 67.676270 0.335603 0.000000
179.292570 70.473984 0.422428 0.000000
179.412460 73.791214 0.561419 0.000000
179.133540 79.359390 0.653023 0.000000
179.125410 63.803528 0.347574 0.000000
179.285920 63.961273 0.355203 0.000000
179.128570 67.610733 0.314718 0.000000
178.942310 70.434563 0.403197 0.000000
178.856930 74.026352 0.519976 0.000000
178.767960 79.113434 0.660167 0.000000
178.703250 63.413532 0.322337 0.000000
178.962740 63.645359 0.339020 0.000000
178.739910 67.626686 0.277311 0.000000
178.582750 70.396477 0.382541 0.000000
178.394230 74.086075 0.495248 0.000000
178.230610 79.211693 0.641225 0.000000
178.267300 63.016533 0.291648 0.000000
178.445560 63.175316 0.305008 0.000000
178.234570 66.292107 0.344840 0.000000
178.441450 67.541107 0.256995 0.000000
178.223690 70.347153 0.362181 0.000000
178.032520 73.976242 0.487118 0.000000
177.793380 79.095734 0.637268 0.000000
177.919780 62.685020 0.265042 0.000000
178.091840 62.853165 0.278298 0.000000
177.865880 66.086815 0.323153 0.000000
177.867020 70.284843 0.342372 0.000000
177.323350 79.032021 0.628602 0.000000
177.457870 62.138103 0.231407 0.000000
177.673170 62.421425 0.246097 0.000000
177.388990 74.264694 0.435674 0.000000
177.173950 61.751579 0.210148 0.000000
177.321320 61.943539 0.222000 0.000000
177.158250 65.791641 0.270168 0.000000
177.015030 74.143860 0.426376 0.000000
176.847090 78.967171 0.619156 0.000000
176.867290 61.364819 0.182657 0.000000
177.018220 61.560497 0.196298 0.000000
176.355530 78.915695 0.607793 0.000000
195.613540 71.344612 0.728621 0.000000
195.624980 75.475212 0.804914 0.000000
195.670090 64.780907 0.572405 0.000000
195.461580 64.944557 0.576453 0.000000
195.481950 66.534340 0.621826 0.000000
195.362690 68.591476 0.681160 0.000000
195.159440 65.127815 0.586949 0.000000
195.128660 66.722588 0.631893 0.000000
195.051060 68.742874 0.687541 0.000000
194.856810 68.876266 0.686797 0.000000
195.113980 71.588913 0.734845 0.000000
194.843230 71.654716 0.743129 0.000000
194.960910 76.315262 0.774546 0.000000
194.727200 65.437309 0.592010 0.000000
194.705840 66.995972 0.635159 0.000000
194.655080 68.995522 0.687496 0.000000
194.484660 71.898499 0.739464 0.000000
194.587110 76.285370 0.790399 0.000000
194.258530 76.431236 0.792058 0.000000
194.412030 80.842522 1.022672 0.000000
194.247130 82.365555 0.954040 0.000000
194.418820 65.610794 0.599406 0.000000
194.261890 65.692711 0.603134 0.000000
194.342940 67.167816 0.643357 0.000000
194.159520 67.249641 0.647219 0.000000
194.322620 69.101295 0.697112 0.000000
194.134720 72.194740 0.729707 0.000000
193.885820 76.382401 0.808093 0.000000
193.760650 82.210007 0.974095 0.000000
193.943830 65.848160 0.610354 0.000000
193.881330 67.365417 0.653034 0.000000
193.895630 69.286766 0.702417 0.000000
193.711380 72.248871 0.743409 0.000000
193.594240 76.724350 0.793901 0.000000
193.286300 82.082306 0.991983 0.000000
193.621600 65.994766 0.617401 0.000000
193.458570 66.063812 0.620796 0.000000
193.507130 67.512001 0.660209 0.000000
193.464940 69.469162 0.706129 0.000000
193.289350 72.294365 0.756753 0.000000
193.218230 76.647858 0.810876 0.000000
192.890870 82.531418 0.979506 0.000000
193.128800 66.192917 0.627395 0.000000
193.134350 67.666191 0.664153 0.000000
193.027150 69.638573 0.709495 0.000000
192.916890 72.570221 0.746019 0.000000
192.841060 76.533012 0.830017 0.000000
192.797730 66.319717 0.632620 0.000000
192.632490 66.385521 0.633941 0.000000
192.757260 67.813568 0.667086 0.000000
192.582500 69.794281 0.712563 0.000000
192.511380 72.716461 0.747189 0.000000
192.485370 76.526047 0.840463 0.000000
192.416960 82.379082 0.997547 0.000000
192.297900 66.508537 0.636342 0.000000
192.471240 67.918388 0.668865 0.000000
192.180860 68.011948 0.671009 0.000000
192.245650 69.906136 0.714216 0.000000
192.019290 69.978233 0.714948 0.000000
192.214720 72.663086 0.761918 0.000000
192.131100 76.514526 0.850655 0.000000
191.951750 82.244781 1.014003 0.000000
191.873630 66.648643 0.639073 0.000000
191.790180 68.130165 0.673091 0.000000
191.791180 70.046318 0.715660 0.000000
191.657700 72.765465 0.769426 0.000000
191.413060 76.322052 0.881615 0.000000
191.766140 76.384735 0.868909 0.000000
191.489910 82.072289 1.031742 0.000000
191.615750 66.724792 0.640475 0.000000
191.442370 66.771545 0.641377 0.000000
191.394270 68.234528 0.675082 0.000000
191.446110 70.143242 0.716334 0.000000
191.372340 72.759819 0.777801 0.000000
191.030290 81.808952 1.053375 0.000000
191.092010 66.852829 0.643424 0.000000
191.094530 68.305222 0.676341 0.000000
190.891890 68.335220 0.678875 0.000000
190.976410 70.214050 0.722384 0.000000
190.948010 72.768974 0.787560 0.000000
190.742580 76.676163 0.870744 0.000000
190.591200 81.827538 1.060310 0.000000
190.648030 66.922516 0.648505 0.000000
190.586750 68.372879 0.682617 0.000000
190.622090 70.254288 0.727089 0.000000
190.526920 72.811974 0.793031 0.000000
190.394120 76.716888 0.874439 0.000000
190.153440 81.916809 1.063249 0.000000
190.290180 66.961296 0.652773 0.000000
190.178220 68.410408 0.687552 0.000000
190.385180 70.275757 0.730130 0.000000
190.147840 70.293610 0.733050 0.000000
190.104400 72.845177 0.798092 0.000000
190.044750 76.760109 0.877439 0.000000
189.930860 66.988182 0.656761 0.000000
189.768230 68.433090 0.692354 0.000000
189.791080 70.312561 0.737253 0.000000
189.680690 72.763969 0.812733 0.000000
189.694120 76.803574 0.879908 0.000000
189.269450 82.082748 1.068369 0.000000
189.570500 67.001762 0.660679 0.000000
189.460130 68.441673 0.695748 0.000000
189.433730 70.323669 0.741274 0.000000
189.259120 72.767090 0.818156 0.000000
189.165180 76.866241 0.882760 0.000000
189.119260 67.000282 0.665302 0.000000
189.151630 68.441650 0.698948 0.000000
189.075840 70.325417 0.745013 0.000000
188.836580 72.777519 0.821841 0.000000
188.632710 76.928757 0.884593 0.000000
188.823170 82.157288 1.070644 0.000000
188.667950 66.980896 0.669544 0.000000
188.740110 68.430222 0.702944 0.000000
188.598270 70.314590 0.749689 0.000000
188.552670 72.803299 0.821852 0.000000
188.274900 76.972626 0.884971 0.000000
188.374180 82.224274 1.072815 0.000000
188.307330 66.951324 0.672583 0.000000
188.328720 68.405128 0.706600 0.000000
188.120650 70.288193 0.753960 0.000000
188.115130 72.932648 0.812469 0.000000
187.914700 77.016724 0.884812 0.000000
187.922680 82.281792 1.074969 0.000000
187.947510 66.909714 0.675311 0.000000
187.917940 68.366074 0.709951 0.000000
187.548420 77.094635 0.881764 0.000000
187.467010 82.352592 1.076004 0.000000
187.584090 66.878632 0.674108 0.000000
187.388310 68.389587 0.701160 0.000000
187.388400 70.318153 0.748291 0.000000
187.382220 73.032089 0.805039 0.000000
187.165560 77.276520 0.870933 0.000000
186.992080 82.573761 1.069354 0.000000
187.099400 66.943924 0.652473 0.000000
187.052520 68.460335 0.686237 0.000000
187.002610 70.409195 0.734922 0.000000
186.917540 73.188019 0.789971 0.000000
186.602200 67.000374 0.628555 0.000000
186.602740 68.518616 0.669227 0.000000
186.609070 70.491730 0.721033 0.000000
186.443080 73.338326 0.774274 0.000000
186.448620 77.172905 0.880294 0.000000
185.996150 83.142471 1.048689 0.000000
186.199570 67.020805 0.610345 0.000000
186.261610 68.548943 0.656732 0.000000
186.209320 70.567390 0.706702 0.000000
186.090700 73.574684 0.750462 0.000000
186.051730 77.341446 0.868782 0.000000
185.898240 67.015495 0.598367 0.000000
185.915220 68.572357 0.643559 0.000000
185.802490 70.631943 0.692055 0.000000
185.820160 73.405548 0.763449 0.000000
185.630720 77.592369 0.850967 0.000000
185.479930 83.426041 1.037712 0.000000
185.594020 67.002159 0.585983 0.000000
185.447660 68.590240 0.625601 0.000000
185.389570 70.689301 0.676922 0.000000
185.305190 73.602829 0.740053 0.000000
185.227810 77.701859 0.842435 0.000000
184.942790 83.756866 1.024011 0.000000
185.185000 66.972885 0.569010 0.000000
184.973040 68.593361 0.606923 0.000000
184.969510 70.736076 0.661315 0.000000
184.809560 73.675339 0.726907 0.000000
184.816210 77.819756 0.832722 0.000000
184.380000 84.144165 1.007136 0.000000
184.875600 66.942696 0.555835 0.000000
184.612930 68.585945 0.592492 0.000000
184.545490 70.769646 0.645848 0.000000
184.513820 73.587570 0.729970 0.000000
184.363160 78.075500 0.812756 0.000000
184.129620 70.754951 0.634302 0.000000
184.138380 73.746880 0.709293 0.000000
183.935960 78.185410 0.802344 0.000000
183.798830 84.536469 0.989508 0.000000
183.830220 73.680595 0.709058 0.000000
183.636320 77.818794 0.824748 0.000000
183.364290 84.207138 1.005542 0.000000
183.136690 78.144714 0.797891 0.000000
182.834700 84.295998 1.001186 0.000000
182.723860 78.149323 0.792955 0.000000
182.143050 84.967148 0.968640 0.000000
181.462170 85.494949 0.942256 0.000000
180.284760 81.248512 1.130044 0.000000
180.127560 63.874813 0.735997 0.000000
178.557360 84.324562 0.977273 0.000000
195.597410 78.639229 1.091905 0.000000
195.374130 79.380402 1.064097 0.000000
195.025240 79.684708 1.060286 0.000000
194.705380 80.160233 1.047025 0.000000
180.127080 63.873135 1.132589 0.000000
180.291820 81.242897 1.705358 0.000000
180.126590 63.871468 1.526873 0.000000
180.298870 81.237289 2.279755 0.000000
180.126110 63.869812 1.919234 0.000000
180.308030 81.226181 2.853653 0.000000
180.125630 63.868149 2.310809 0.000000
180.125150 63.866489 2.702331 0.000000
180.311050 81.231163 3.428207 0.000000
180.049410 63.789742 3.226501 0.000000
180.107820 64.142593 3.373815 0.000000
180.313950 81.236526 4.004007 0.000000
179.908110 63.503185 3.614285 0.000000
180.048900 63.787998 3.621571 0.000000
180.107510 64.141556 3.641228 0.000000
180.175700 64.359886 3.651099 0.000000
195.613860 84.127556 3.903674 0.000000
195.129760 84.211136 3.911509 0.000000
180.300370 81.311691 5.752650 0.000000
177.780300 68.423531 0.262035 0.000000
177.504150 68.298599 0.244043 0.000000
177.178270 71.487183 0.333716 0.000000
177.041760 67.960342 0.222377 0.000000
177.244060 68.154701 0.228528 0.000000
176.776080 71.446335 0.306208 0.000000
176.614230 67.583267 0.204469 0.000000
176.796280 67.797150 0.208439 0.000000
176.449630 71.316841 0.290684 0.000000
176.271670 61.460224 0.156145 0.000000
176.357960 61.684994 0.163477 0.000000
176.586010 62.239311 0.180655 0.000000
176.142610 71.161728 0.277892 0.000000
176.076220 75.504913 0.408117 0.000000
175.763060 82.225182 0.508663 0.000000
176.108090 61.128628 0.138176 0.000000
175.727510 66.155815 0.198150 0.000000
175.778630 71.054840 0.256181 0.000000
175.685820 75.376610 0.395819 0.000000
175.316010 82.027100 0.506616 0.000000
175.423460 70.930908 0.235676 0.000000
175.193710 75.362595 0.369444 0.000000
175.022400 65.575516 0.145655 0.000000
175.070330 65.874107 0.135345 0.000000
175.228240 66.114990 0.140832 0.000000
174.946820 70.680351 0.212663 0.000000
174.776250 75.245842 0.353377 0.000000
174.638310 64.808998 0.135626 0.000000
174.761920 65.066795 0.139071 0.000000
174.889510 65.322548 0.142347 0.000000
174.469220 70.418732 0.188780 0.000000
174.317640 75.165482 0.331798 0.000000
174.390850 82.596069 0.444652 0.000000
174.355450 64.152534 0.127419 0.000000
174.518970 64.549110 0.132050 0.000000
173.784730 82.607651 0.424014 0.000000
173.854870 62.662560 0.110334 0.000000
173.933670 62.937321 0.113449 0.000000
174.061600 63.346664 0.117961 0.000000
173.840940 70.041458 0.156691 0.000000
173.776370 75.161850 0.299635 0.000000
173.582060 61.407043 0.098196 0.000000
173.659610 61.828087 0.102165 0.000000
173.697970 62.260208 0.098699 0.000000
173.398130 69.722435 0.135281 0.000000
173.322250 75.048889 0.278862 0.000000
173.161380 82.623756 0.401767 0.000000
173.004700 69.359673 0.119468 0.000000
172.865710 74.926888 0.257714 0.000000
172.520540 82.643021 0.377949 0.000000
172.626010 68.979156 0.104055 0.000000
172.265270 74.933487 0.218906 0.000000
171.960750 74.641182 0.216057 0.000000
171.907290 82.601318 0.357657 0.000000
171.947880 68.152527 0.079170 0.000000
171.385990 67.048080 0.070759 0.000000
171.615400 67.327942 0.082836 0.000000
171.561750 67.756996 0.058522 0.000000
171.334930 74.639473 0.174464 0.000000
171.162140 82.717056 0.323185 0.000000
170.967860 66.072731 0.063339 0.000000
171.273620 66.709816 0.072446 0.000000
171.024840 74.339661 0.170046 0.000000
170.792760 65.382576 0.066818 0.000000
184.346850 68.237663 0.568435 0.000000
184.119930 69.918289 0.608807 0.000000
183.950810 68.128777 0.555840 0.000000
183.776180 69.842758 0.599846 0.000000
183.528030 68.049683 0.534787 0.000000
183.404040 69.813011 0.582605 0.000000
183.406400 72.100662 0.645877 0.000000
183.399480 75.276398 0.716320 0.000000
183.076860 67.995010 0.505781 0.000000
183.014010 69.797432 0.561096 0.000000
182.971880 72.080017 0.630155 0.000000
182.764880 75.145638 0.711494 0.000000
182.590360 79.885284 0.804776 0.000000
182.607600 67.941963 0.472527 0.000000
182.615950 69.779671 0.538095 0.000000
182.521390 72.074120 0.611019 0.000000
182.476260 75.004662 0.715308 0.000000
182.278110 67.855331 0.453867 0.000000
182.240110 69.706444 0.521302 0.000000
182.174910 72.144608 0.587889 0.000000
182.051220 75.174164 0.688663 0.000000
181.885890 80.085251 0.781661 0.000000
181.947530 67.758202 0.434774 0.000000
181.862990 69.623535 0.504228 0.000000
181.775830 72.004517 0.581978 0.000000
181.607850 75.356194 0.659803 0.000000
181.566090 67.543297 0.423070 0.000000
181.473510 69.543785 0.484293 0.000000
181.271880 75.288162 0.654266 0.000000
181.147920 80.306732 0.755394 0.000000
181.145070 67.362869 0.400724 0.000000
181.074100 69.465073 0.462189 0.000000
181.002200 71.931900 0.547976 0.000000
180.831340 75.420433 0.628290 0.000000
180.662550 80.402817 0.740481 0.000000
180.726650 67.165115 0.377917 0.000000
180.685350 69.356476 0.442420 0.000000
180.547990 71.845512 0.530100 0.000000
180.506010 75.310715 0.625207 0.000000
180.276840 80.237816 0.743477 0.000000
180.182680 66.917671 0.343406 0.000000
180.405460 67.014915 0.358522 0.000000
180.287780 69.247162 0.420662 0.000000
180.057100 71.797729 0.505190 0.000000
180.048290 75.437675 0.597734 0.000000
179.918110 80.011978 0.750227 0.000000
179.841130 66.769470 0.318742 0.000000
179.891110 69.121956 0.398883 0.000000
179.726010 71.758629 0.488123 0.000000
179.723080 75.310143 0.594757 0.000000
179.553100 79.804756 0.755038 0.000000
179.482250 65.617989 0.382931 0.000000
179.320180 66.460602 0.286198 0.000000
179.526630 66.588661 0.299109 0.000000
179.495680 68.983917 0.377098 0.000000
179.377730 71.733086 0.468086 0.000000
179.386400 75.198418 0.589425 0.000000
179.183620 79.609634 0.758357 0.000000
178.992480 65.287117 0.347636 0.000000
179.179400 65.428658 0.360356 0.000000
179.056440 68.876320 0.346704 0.000000
179.029130 71.697304 0.448245 0.000000
178.874110 75.364723 0.554694 0.000000
178.742340 65.049210 0.333253 0.000000
178.597470 68.773727 0.312592 0.000000
178.672730 71.660889 0.427249 0.000000
178.410340 75.429352 0.529110 0.000000
178.491060 80.054855 0.713853 0.000000
178.178800 64.463745 0.298954 0.000000
178.338680 64.634422 0.309244 0.000000
178.194500 68.599190 0.288545 0.000000
178.140200 71.582886 0.396485 0.000000
178.046770 75.325172 0.520001 0.000000
177.873140 64.108398 0.279192 0.000000
178.023440 64.288437 0.288910 0.000000
177.445190 63.545597 0.250489 0.000000
177.656480 63.830124 0.264977 0.000000
177.531270 71.570381 0.353426 0.000000
177.218540 75.554375 0.463241 0.000000
176.892960 82.163666 0.544377 0.000000
177.101580 63.057671 0.224531 0.000000
177.306350 63.352547 0.240362 0.000000
177.019940 66.628365 0.317843 0.000000
177.062670 66.922821 0.301990 0.000000
176.454350 81.975540 0.543453 0.000000
176.826370 62.658531 0.200976 0.000000
176.738950 66.495636 0.294835 0.000000
176.571490 75.484962 0.435519 0.000000
176.442920 66.365730 0.269194 0.000000
195.663190 69.896011 0.707663 0.000000
195.488560 76.008072 0.913172 0.000000
195.633530 66.190063 0.609781 0.000000
195.417690 66.343246 0.615927 0.000000
195.443910 67.939651 0.661083 0.000000
195.357210 70.062172 0.713017 0.000000
195.319240 73.238220 0.744286 0.000000
195.251050 76.355873 0.899772 0.000000
195.011410 76.729134 0.884260 0.000000
195.119870 66.532433 0.625021 0.000000
195.095990 68.137398 0.669359 0.000000
195.048600 70.224472 0.717882 0.000000
194.859360 70.373062 0.715148 0.000000
194.890610 73.297676 0.761144 0.000000
194.787930 77.201210 0.861022 0.000000
194.581100 77.796242 0.828393 0.000000
194.690220 66.845123 0.629211 0.000000
194.673430 68.411461 0.672323 0.000000
194.538990 70.514725 0.720788 0.000000
194.528340 73.550819 0.756680 0.000000
194.284120 78.085434 0.819039 0.000000
194.404450 82.364906 1.066132 0.000000
194.221020 83.792023 1.003629 0.000000
194.379030 67.013382 0.637433 0.000000
194.222110 67.094963 0.641116 0.000000
194.307170 68.576469 0.681391 0.000000
194.123580 68.657837 0.685202 0.000000
194.115720 70.718597 0.724703 0.000000
193.878070 77.902519 0.844854 0.000000
193.723370 83.569534 1.026474 0.000000
193.904100 67.249657 0.648246 0.000000
193.849550 68.784081 0.689219 0.000000
193.797350 70.875069 0.725968 0.000000
193.742160 73.904037 0.760431 0.000000
193.596850 78.306526 0.826080 0.000000
193.248950 83.435638 1.044040 0.000000
193.581890 67.395447 0.655201 0.000000
193.419510 67.465546 0.658284 0.000000
193.483400 68.954109 0.692619 0.000000
193.582020 70.974419 0.726797 0.000000
193.364530 71.070328 0.727572 0.000000
193.312820 73.947319 0.773860 0.000000
193.207980 78.175766 0.846699 0.000000
192.854690 83.884460 1.031512 0.000000
193.097080 67.614059 0.661235 0.000000
193.110810 69.112450 0.695765 0.000000
193.034150 71.207031 0.728639 0.000000
193.071330 74.177513 0.762383 0.000000
192.783080 74.201065 0.770613 0.000000
192.821870 78.018845 0.868493 0.000000
192.770020 67.753944 0.663991 0.000000
192.604280 67.819511 0.665271 0.000000
192.636630 69.294289 0.699121 0.000000
192.699630 71.336075 0.729655 0.000000
192.474040 71.417252 0.730257 0.000000
192.493770 74.212151 0.779454 0.000000
192.464570 78.010155 0.878717 0.000000
192.378080 83.698639 1.050573 0.000000
192.268690 67.941925 0.667587 0.000000
192.153760 69.456734 0.702315 0.000000
192.132050 71.532059 0.730989 0.000000
192.189000 74.118011 0.797777 0.000000
192.108960 77.998375 0.888574 0.000000
191.910260 83.518326 1.068674 0.000000
191.843250 68.081123 0.670208 0.000000
191.761630 69.573502 0.704353 0.000000
191.782470 71.614120 0.734580 0.000000
191.630070 74.217422 0.805111 0.000000
191.565250 77.835503 0.912640 0.000000
191.450320 83.340057 1.086012 0.000000
191.497790 68.179787 0.671971 0.000000
191.364440 69.676666 0.706234 0.000000
191.421750 71.622803 0.745446 0.000000
191.343770 74.209618 0.813403 0.000000
190.992750 83.070824 1.107175 0.000000
191.059480 68.281548 0.674619 0.000000
190.961780 69.757408 0.709143 0.000000
190.944640 71.644958 0.756794 0.000000
190.918810 74.223442 0.822309 0.000000
190.715590 78.163948 0.907157 0.000000
190.557140 83.112267 1.112495 0.000000
190.614500 68.348526 0.679763 0.000000
190.554080 69.805519 0.714428 0.000000
190.589710 71.683586 0.761361 0.000000
190.496440 74.263763 0.827645 0.000000
190.365740 78.202713 0.910679 0.000000
190.121570 83.198029 1.115177 0.000000
190.256030 68.384918 0.684092 0.000000
190.144700 69.839989 0.719410 0.000000
190.352450 71.703766 0.764328 0.000000
190.114790 71.720291 0.767173 0.000000
190.072800 74.293205 0.832658 0.000000
190.015010 78.241631 0.913668 0.000000
189.896240 68.408257 0.688307 0.000000
189.734100 69.860580 0.724102 0.000000
189.757640 71.737175 0.771261 0.000000
189.648100 74.208900 0.847083 0.000000
189.663190 78.280731 0.916125 0.000000
189.242310 83.356743 1.119775 0.000000
189.445370 68.419876 0.693152 0.000000
189.322720 69.867538 0.728463 0.000000
189.280690 71.746765 0.776378 0.000000
189.224930 74.240730 0.849441 0.000000
189.132750 78.337051 0.918935 0.000000
188.994030 68.413544 0.697619 0.000000
189.013950 69.864182 0.731525 0.000000
188.922590 71.744041 0.779983 0.000000
188.799680 74.274879 0.850532 0.000000
188.599110 78.393143 0.920718 0.000000
188.798770 83.422432 1.122029 0.000000
188.633090 68.394318 0.700847 0.000000
188.705140 69.852188 0.734386 0.000000
188.564270 71.733177 0.783149 0.000000
188.514470 74.298813 0.850447 0.000000
188.240720 78.432480 0.921075 0.000000
188.352750 83.482025 1.124100 0.000000
188.272690 68.362946 0.703777 0.000000
188.293700 69.824791 0.737907 0.000000
188.083860 71.729591 0.784312 0.000000
187.930790 74.429855 0.841088 0.000000
187.880130 78.472031 0.920893 0.000000
187.904270 83.535774 1.125971 0.000000
187.913250 68.319481 0.706394 0.000000
187.883040 69.783409 0.741114 0.000000
187.641050 74.437157 0.840916 0.000000
187.515610 78.525986 0.919184 0.000000
187.450880 83.612907 1.126253 0.000000
187.548690 68.294495 0.703822 0.000000
187.462840 69.785240 0.736202 0.000000
187.344820 71.792435 0.774161 0.000000
187.336380 74.542000 0.831298 0.000000
187.131150 78.719505 0.907298 0.000000
187.063390 68.362778 0.681270 0.000000
187.023680 69.849808 0.720400 0.000000
186.957460 71.883591 0.760439 0.000000
186.869510 74.696358 0.816010 0.000000
186.498310 84.046295 1.112242 0.000000
186.672290 68.390320 0.665050 0.000000
186.475710 68.394318 0.657441 0.000000
186.576570 69.901276 0.703934 0.000000
186.563110 71.962730 0.746579 0.000000
186.394040 74.839287 0.800603 0.000000
186.412350 78.621132 0.915449 0.000000
185.987550 84.410248 1.097629 0.000000
186.177920 68.395622 0.645472 0.000000
186.236590 69.930923 0.691231 0.000000
186.162350 72.036507 0.732086 0.000000
186.010220 78.816917 0.901778 0.000000
185.777770 68.384323 0.629389 0.000000
185.891010 69.954910 0.677668 0.000000
185.754650 72.098953 0.717285 0.000000
185.781160 74.849075 0.794424 0.000000
185.578370 79.119545 0.880154 0.000000
185.468570 84.729500 1.084655 0.000000
185.271670 68.352341 0.608401 0.000000
185.474870 68.367943 0.616899 0.000000
185.425740 69.970055 0.659672 0.000000
185.340990 72.154152 0.701988 0.000000
185.267150 75.040085 0.771223 0.000000
185.162610 79.281021 0.867684 0.000000
184.934250 85.056503 1.070831 0.000000
185.067610 68.333145 0.599784 0.000000
184.953520 69.970795 0.640904 0.000000
184.928210 72.175247 0.688943 0.000000
184.771940 75.109207 0.757921 0.000000
184.738020 79.443146 0.854558 0.000000
184.374620 85.439301 1.053888 0.000000
184.759580 68.297806 0.586478 0.000000
184.595630 69.961014 0.626485 0.000000
184.513890 72.179909 0.676438 0.000000
184.476870 75.018059 0.760906 0.000000
184.281100 79.699715 0.834247 0.000000
184.354950 69.949348 0.616618 0.000000
184.101580 72.156807 0.665448 0.000000
184.107730 75.157318 0.741834 0.000000
183.876110 79.711472 0.830267 0.000000
183.835160 85.643829 1.044755 0.000000
183.705980 72.078110 0.659664 0.000000
183.803600 75.079483 0.742301 0.000000
183.579790 79.325371 0.853380 0.000000
183.450680 85.118744 1.069206 0.000000
183.104570 75.154701 0.719558 0.000000
183.034500 79.797272 0.816049 0.000000
182.820660 85.653793 1.043480 0.000000
180.320770 81.265678 1.226188 0.000000
180.114930 63.819939 0.736122 0.000000
179.440550 84.807602 1.062300 0.000000
178.559010 84.329880 1.073760 0.000000
195.621700 80.252045 1.129617 0.000000
195.355290 80.835823 1.110775 0.000000
195.005720 81.140472 1.106855 0.000000
194.681560 81.599060 1.094570 0.000000
180.113720 63.816265 1.228383 0.000000
180.327390 81.258408 1.772538 0.000000
180.112840 63.813534 1.594716 0.000000
180.329560 81.262299 2.317940 0.000000
180.111940 63.810814 1.959228 0.000000
180.332090 81.265289 2.863420 0.000000
180.110750 63.807201 2.444175 0.000000
180.109860 63.804489 2.807950 0.000000
180.334470 81.268631 3.409504 0.000000
179.961590 63.661781 3.297905 0.000000
180.095670 63.924809 3.179266 0.000000
180.216890 64.193977 3.307691 0.000000
195.750090 84.105087 3.870726 0.000000
195.289120 84.184883 3.877397 0.000000
179.931200 63.564716 3.540606 0.000000
180.094790 63.922115 3.548200 0.000000
180.142610 64.240479 3.564445 0.000000
179.930560 63.562759 3.787074 0.000000
180.080700 64.043564 3.806287 0.000000
180.313320 81.359192 5.621220 0.000000
180.883410 81.104080 6.108820 0.000000
180.419100 81.103531 6.137386 0.000000
179.948580 81.102203 6.167232 0.000000
178.268910 67.160316 0.233045 0.000000
178.076140 67.002335 0.219738 0.000000
176.934710 69.067947 0.250448 0.000000
177.195740 69.213867 0.267945 0.000000
176.637010 68.770691 0.238940 0.000000
176.534470 72.595581 0.324267 0.000000
176.249130 62.617935 0.171607 0.000000
176.331470 62.842796 0.179352 0.000000
176.212310 68.557846 0.205582 0.000000
175.956560 72.254761 0.301866 0.000000
176.236400 72.436165 0.311879 0.000000
175.943420 61.339100 0.140162 0.000000
176.072920 62.045345 0.153892 0.000000
175.952390 68.392021 0.186651 0.000000
175.620040 72.121010 0.282926 0.000000
175.776500 76.615799 0.429690 0.000000
175.456540 67.697464 0.171404 0.000000
175.607530 67.938469 0.174954 0.000000
175.291260 71.973106 0.264892 0.000000
175.255280 76.642548 0.398057 0.000000
174.993470 82.956223 0.543183 0.000000
174.994250 66.976379 0.154923 0.000000
175.020660 67.286217 0.141638 0.000000
175.207550 67.511040 0.152018 0.000000
174.982350 71.801575 0.249445 0.000000
174.847410 76.519066 0.382183 0.000000
174.427350 82.945274 0.524142 0.000000
174.621890 66.205437 0.145386 0.000000
174.860790 66.723984 0.151106 0.000000
174.675280 71.622902 0.233878 0.000000
174.406110 76.423927 0.361736 0.000000
174.307280 65.409439 0.137494 0.000000
174.406370 65.676949 0.140048 0.000000
174.415270 65.983635 0.128524 0.000000
174.066680 71.244705 0.202281 0.000000
173.876240 76.413040 0.329781 0.000000
173.814880 82.984863 0.499913 0.000000
173.820040 63.772175 0.121453 0.000000
173.886760 64.048820 0.123980 0.000000
174.002320 64.459854 0.128436 0.000000
174.128270 64.868011 0.132847 0.000000
174.106800 65.179573 0.119454 0.000000
173.767070 71.043991 0.186475 0.000000
173.446330 76.280136 0.310889 0.000000
173.478130 61.530285 0.100787 0.000000
173.529140 62.094395 0.105679 0.000000
173.562530 62.375999 0.108093 0.000000
173.624440 62.797195 0.111848 0.000000
173.699050 63.216637 0.115866 0.000000
173.468930 70.837021 0.170395 0.000000
173.015950 76.137764 0.291770 0.000000
173.170320 83.047806 0.472479 0.000000
173.462890 61.247730 0.098645 0.000000
172.880370 70.402229 0.137806 0.000000
173.173260 70.623108 0.154168 0.000000
172.604460 82.976669 0.454483 0.000000
172.590680 70.174225 0.121348 0.000000
172.246190 75.738167 0.263950 0.000000
172.402970 76.163208 0.249977 0.000000
172.068680 69.669556 0.094240 0.000000
172.305980 69.938148 0.105002 0.000000
171.830570 83.167625 0.413695 0.000000
171.654530 68.692993 0.095594 0.000000
171.876160 69.373100 0.088561 0.000000
171.525150 75.833405 0.209301 0.000000
171.348300 68.452797 0.073195 0.000000
171.595920 69.122864 0.070926 0.000000
171.290770 75.474586 0.212643 0.000000
171.147900 83.205978 0.383746 0.000000
170.871190 67.891876 0.043515 0.000000
170.844770 75.297501 0.190470 0.000000
170.805530 66.768120 0.073207 0.000000
170.877110 67.500565 0.057812 0.000000
184.149140 69.514526 0.601093 0.000000
183.761470 69.390503 0.589166 0.000000
183.773500 71.170166 0.637244 0.000000
183.234470 69.285728 0.560885 0.000000
183.443360 69.334625 0.571618 0.000000
183.412080 71.125015 0.621773 0.000000
183.269090 73.390564 0.680245 0.000000
182.935790 81.377907 0.834637 0.000000
183.007100 69.259926 0.544992 0.000000
183.046800 71.071632 0.605506 0.000000
182.852970 73.334976 0.667772 0.000000
182.757390 76.460632 0.747461 0.000000
182.464630 81.539597 0.817439 0.000000
182.670460 69.202454 0.522670 0.000000
182.539490 71.014229 0.578859 0.000000
182.559070 73.321594 0.655518 0.000000
182.248700 69.071129 0.500073 0.000000
182.173890 70.930656 0.562904 0.000000
181.977910 73.256287 0.633281 0.000000
182.221390 73.382133 0.633232 0.000000
182.065110 76.449448 0.727338 0.000000
181.654210 81.404739 0.813053 0.000000
181.964000 81.755447 0.795655 0.000000
181.837310 68.910713 0.479426 0.000000
181.684040 70.803497 0.540874 0.000000
181.929030 70.869591 0.551938 0.000000
181.684250 73.217430 0.621671 0.000000
181.625210 76.629929 0.698062 0.000000
181.324130 81.129349 0.824631 0.000000
181.432130 68.728432 0.459374 0.000000
181.427990 70.747627 0.527224 0.000000
181.284380 76.577911 0.690424 0.000000
180.993440 80.868561 0.834649 0.000000
181.009350 68.551941 0.434196 0.000000
181.040680 70.656158 0.506011 0.000000
180.942580 73.098740 0.591436 0.000000
180.827670 76.747192 0.660210 0.000000
180.599400 68.346802 0.410899 0.000000
180.532060 70.504433 0.479261 0.000000
180.504940 72.995888 0.574882 0.000000
180.506010 76.633919 0.656904 0.000000
180.166340 81.797714 0.758659 0.000000
180.284530 68.191223 0.391096 0.000000
180.141160 70.388138 0.456992 0.000000
180.196530 72.942787 0.560554 0.000000
180.047010 76.766624 0.628213 0.000000
179.969500 81.198227 0.791579 0.000000
179.856050 67.977448 0.361837 0.000000
180.060760 68.095039 0.374610 0.000000
179.752640 70.254868 0.434921 0.000000
179.700700 72.892403 0.533016 0.000000
179.573260 76.554420 0.624635 0.000000
179.553300 67.790543 0.342841 0.000000
179.355440 70.119743 0.410872 0.000000
179.180790 72.853897 0.501518 0.000000
178.965590 67.526497 0.293177 0.000000
179.245470 67.600899 0.322087 0.000000
178.814510 69.929482 0.376150 0.000000
179.087080 70.025536 0.393976 0.000000
178.830020 72.819305 0.480107 0.000000
178.925660 76.617401 0.591180 0.000000
178.755480 82.836296 0.661363 0.000000
178.570720 66.142487 0.352546 0.000000
178.678920 67.449394 0.262925 0.000000
178.545930 69.823578 0.358891 0.000000
178.480240 72.773064 0.459065 0.000000
178.488360 76.646805 0.568678 0.000000
178.379210 82.583649 0.667246 0.000000
178.236150 65.816895 0.328671 0.000000
178.393330 65.986855 0.339035 0.000000
178.463680 67.313873 0.246249 0.000000
178.266190 69.721992 0.339438 0.000000
178.132140 72.714828 0.438448 0.000000
178.128310 76.544472 0.558894 0.000000
177.762790 82.810898 0.637032 0.000000
177.855500 65.504654 0.294592 0.000000
178.051940 65.659332 0.312949 0.000000
177.728440 69.481216 0.303793 0.000000
177.996510 69.605148 0.321595 0.000000
177.711180 72.728539 0.405886 0.000000
177.465930 76.869919 0.502459 0.000000
177.376170 64.966583 0.255764 0.000000
177.661000 65.344986 0.276121 0.000000
177.460940 69.351227 0.285818 0.000000
177.441890 72.563477 0.398382 0.000000
177.097610 76.749344 0.492197 0.000000
177.166110 82.964798 0.611071 0.000000
177.060040 64.466331 0.233603 0.000000
177.244310 64.769951 0.246484 0.000000
176.989690 72.586166 0.361295 0.000000
176.626770 76.758957 0.466686 0.000000
176.735310 82.787247 0.608861 0.000000
176.788910 63.692417 0.224691 0.000000
176.842070 64.046616 0.218923 0.000000
176.226530 76.661102 0.451718 0.000000
176.074280 83.007744 0.575659 0.000000
176.261340 62.371395 0.178672 0.000000
176.412980 63.067001 0.186255 0.000000
176.595860 63.507225 0.201241 0.000000
175.635210 82.820778 0.572314 0.000000
195.730940 74.650002 0.768195 0.000000
195.521590 74.901031 0.758140 0.000000
195.595400 76.856491 0.993292 0.000000
195.595540 67.609863 0.651775 0.000000
195.375840 67.757927 0.658718 0.000000
195.408920 69.367149 0.702873 0.000000
195.507400 71.608429 0.731657 0.000000
195.298650 71.718201 0.735012 0.000000
195.222460 74.922668 0.771455 0.000000
195.337080 77.098938 0.987885 0.000000
195.081560 77.368286 0.980121 0.000000
195.083680 67.956017 0.665635 0.000000
195.063320 69.570389 0.709819 0.000000
194.993100 71.902695 0.736440 0.000000
194.814000 75.059731 0.779462 0.000000
194.620710 78.166565 0.944140 0.000000
194.651760 68.265839 0.669876 0.000000
194.637910 69.840607 0.712903 0.000000
194.569400 72.116440 0.740896 0.000000
194.430370 75.273651 0.778612 0.000000
194.442090 78.841057 0.905280 0.000000
194.284760 79.700645 0.852804 0.000000
194.378890 83.892487 1.112157 0.000000
194.144530 85.048134 1.064116 0.000000
194.337070 68.428360 0.678774 0.000000
194.179530 68.508850 0.682439 0.000000
194.278380 70.022507 0.718861 0.000000
194.101850 70.122078 0.719642 0.000000
194.138490 72.319939 0.744681 0.000000
193.897420 75.511124 0.780550 0.000000
193.905520 79.659668 0.867388 0.000000
193.662220 84.903152 1.081975 0.000000
193.863780 68.668709 0.688175 0.000000
193.832440 70.264076 0.720973 0.000000
193.704590 72.524445 0.746342 0.000000
193.623030 75.607719 0.782953 0.000000
193.596100 79.952423 0.856755 0.000000
193.187730 84.758759 1.099117 0.000000
193.468480 68.869720 0.692509 0.000000
193.560170 70.402718 0.721833 0.000000
193.375050 70.488068 0.722812 0.000000
193.261920 72.713898 0.747885 0.000000
193.303180 75.512894 0.803442 0.000000
193.206440 79.840652 0.875336 0.000000
192.788640 85.157166 1.088666 0.000000
193.064210 69.055031 0.696195 0.000000
193.000350 70.652565 0.724015 0.000000
192.924910 72.847237 0.748858 0.000000
192.892200 75.651535 0.805650 0.000000
192.816310 79.686745 0.896251 0.000000
192.735320 69.192749 0.698911 0.000000
192.568710 69.257133 0.700171 0.000000
192.522920 70.840370 0.725598 0.000000
192.581790 72.965286 0.750398 0.000000
192.455440 75.663757 0.818918 0.000000
192.449480 79.643097 0.908477 0.000000
192.310840 84.936813 1.108424 0.000000
192.231520 69.377090 0.702439 0.000000
192.133730 70.975845 0.726607 0.000000
192.102570 73.022980 0.762504 0.000000
192.148990 75.563461 0.837247 0.000000
192.082730 79.573624 0.921931 0.000000
191.845210 84.746544 1.126019 0.000000
191.804260 69.512993 0.704997 0.000000
191.738340 71.095879 0.727735 0.000000
191.739610 73.036446 0.773648 0.000000
191.587880 75.654861 0.844447 0.000000
191.527390 79.334312 0.950458 0.000000
191.387820 84.558594 1.142850 0.000000
191.457550 69.608810 0.706708 0.000000
191.328060 71.137230 0.737730 0.000000
191.377990 73.040375 0.784443 0.000000
191.300630 75.642456 0.852670 0.000000
190.933170 84.279663 1.163449 0.000000
191.017670 69.704552 0.709644 0.000000
190.917800 71.168510 0.746870 0.000000
190.900760 73.063225 0.794888 0.000000
190.875260 75.657715 0.860717 0.000000
190.671360 79.620300 0.946764 0.000000
190.501850 84.341331 1.167010 0.000000
190.571460 69.764229 0.715227 0.000000
190.509700 71.211632 0.752148 0.000000
190.545320 73.097404 0.799369 0.000000
190.451930 75.691750 0.865928 0.000000
190.320940 79.664993 0.949296 0.000000
190.069260 84.418602 1.169350 0.000000
190.212540 69.796051 0.719672 0.000000
190.100310 71.241249 0.757083 0.000000
190.307850 73.114563 0.802275 0.000000
190.070080 73.128052 0.805058 0.000000
190.028200 75.736427 0.868824 0.000000
189.969280 79.702072 0.951837 0.000000
189.852680 69.815811 0.723829 0.000000
189.690020 71.257034 0.761708 0.000000
189.713000 73.140320 0.809050 0.000000
189.602810 75.677872 0.880100 0.000000
189.616590 79.739334 0.953842 0.000000
189.196960 84.554138 1.173536 0.000000
189.402070 69.822868 0.728597 0.000000
189.279280 71.259247 0.765980 0.000000
189.236470 73.144096 0.813985 0.000000
189.319990 75.697693 0.881506 0.000000
189.084960 79.792946 0.955960 0.000000
188.757460 84.608925 1.175535 0.000000
188.951350 69.811958 0.732976 0.000000
188.971180 71.252388 0.768965 0.000000
188.878130 73.153206 0.815616 0.000000
188.894150 75.724121 0.882851 0.000000
188.550260 79.846313 0.957045 0.000000
188.591200 69.789093 0.736124 0.000000
188.663250 71.236931 0.771737 0.000000
188.518370 73.161148 0.816018 0.000000
188.466090 75.753334 0.882877 0.000000
188.191250 79.883736 0.956937 0.000000
188.315780 84.659882 1.177237 0.000000
188.231860 69.754044 0.738977 0.000000
188.252910 71.207779 0.774751 0.000000
188.037370 73.157951 0.816286 0.000000
187.881650 75.876717 0.873279 0.000000
187.830090 79.921371 0.956284 0.000000
187.871930 84.704880 1.178737 0.000000
187.873730 69.706902 0.741519 0.000000
187.840850 71.182388 0.775042 0.000000
187.590070 75.893974 0.871699 0.000000
187.465070 79.973534 0.954098 0.000000
187.422790 84.781586 1.178270 0.000000
187.414370 69.694321 0.734042 0.000000
187.417590 71.203522 0.766769 0.000000
187.296600 73.225533 0.804331 0.000000
187.284770 75.997360 0.861746 0.000000
187.085530 80.120377 0.944873 0.000000
186.937070 69.727234 0.715855 0.000000
186.978820 71.264954 0.750657 0.000000
186.909710 73.310867 0.790643 0.000000
186.820630 76.128662 0.847832 0.000000
186.480320 85.200790 1.163499 0.000000
186.549670 69.738274 0.700831 0.000000
186.532560 71.312469 0.733974 0.000000
186.648130 73.361862 0.781378 0.000000
186.383580 73.409660 0.771857 0.000000
186.353520 76.223976 0.836019 0.000000
186.363820 80.042915 0.950265 0.000000
185.969350 85.598564 1.146644 0.000000
186.157750 69.736473 0.685290 0.000000
186.193540 71.338615 0.721172 0.000000
186.116030 73.454208 0.762071 0.000000
185.969850 80.190216 0.939350 0.000000
185.761230 69.722786 0.669011 0.000000
185.849380 71.358345 0.707612 0.000000
185.712620 73.500648 0.748431 0.000000
185.744420 76.221191 0.829929 0.000000
185.554150 80.411659 0.922755 0.000000
185.455960 85.906540 1.133491 0.000000
185.361500 69.693985 0.652460 0.000000
185.503070 71.366905 0.694252 0.000000
185.269620 71.368904 0.684944 0.000000
185.309740 73.520668 0.736516 0.000000
185.233440 76.404419 0.806681 0.000000
185.152470 80.516068 0.913606 0.000000
184.958190 69.651970 0.635264 0.000000
184.917800 71.360558 0.671165 0.000000
184.902860 73.527740 0.724430 0.000000
184.741730 76.465538 0.793314 0.000000
184.744690 80.618210 0.904002 0.000000
184.552150 69.595444 0.617581 0.000000
184.569080 71.330376 0.659063 0.000000
184.492220 73.526817 0.711902 0.000000
184.449310 76.369026 0.796238 0.000000
184.296510 80.856644 0.884350 0.000000
184.222430 71.280602 0.647982 0.000000
184.087750 73.488716 0.702014 0.000000
184.085080 76.496368 0.777740 0.000000
183.830520 81.116226 0.862538 0.000000
183.701920 73.392197 0.697697 0.000000
183.782840 76.417053 0.777791 0.000000
183.506390 80.828537 0.878036 0.000000
183.085650 76.494774 0.753705 0.000000
183.380620 76.612473 0.751406 0.000000
182.481460 76.294090 0.753175 0.000000
180.241990 85.329056 1.137637 0.000000
180.145950 63.915112 0.723467 0.000000
179.429820 84.778793 1.152304 0.000000
178.534520 85.680557 1.102289 0.000000
195.598360 81.755081 1.177447 0.000000
195.392820 82.587769 1.145466 0.000000
195.060270 82.992348 1.136097 0.000000
194.636700 83.026459 1.145696 0.000000
