# .PCD v0.7 - Point Cloud Data file format
VERSION 0.7
FIELDS x y z
SIZE 4 4 4
TYPE F F F
COUNT 1 1 1
WIDTH 772
HEIGHT 1
VIEWPOINT 0 0 0 1 0 0 0
POINTS 772
DATA ascii
29.68 -454.99 8.18 
29.09 -454.92 7.15 
29.25 -455.06 8.24 
29.45 -455.29 9.36 
28.66 -455.17 7.19 
28.84 -455.33 8.31 
28.57 -456.47 8.38 
29.12 -455.21 9.41 
28.32 -455.51 7.23 
28.49 -455.68 8.37 
28.90 -455.61 9.51 
28.39 -455.89 8.43 
28.45 -455.94 9.58 
27.73 -456.15 6.13 
28.27 -455.66 8.50 
28.47 -455.87 9.73 
27.42 -456.72 6.11 
27.51 -456.74 7.34 
27.95 -456.23 8.55 
30.85 -455.64 5.79 
30.91 -455.39 5.78 
30.71 -456.07 5.88 
30.75 -455.75 5.86 
30.86 -455.34 5.84 
30.90 -454.95 5.82 
31.48 -454.71 9.76 
30.69 -455.05 5.89 
30.97 -454.78 7.86 
31.12 -455.21 8.90 
31.20 -454.74 8.86 
31.35 -455.16 9.92 
31.89 -455.11 12.03 
30.24 -456.61 5.96 
30.55 -455.26 6.90 
30.56 -454.93 6.88 
30.68 -455.37 7.92 
30.70 -455.00 7.89 
30.85 -455.49 8.94 
30.84 -455.27 8.93 
30.89 -454.90 8.90 
30.96 -455.48 9.97 
31.03 -455.18 9.95 
31.06 -454.84 9.92 
31.24 -455.65 11.05 
31.28 -455.34 11.02 
31.29 -454.98 10.98 
31.59 -454.78 12.03 
30.34 -454.97 5.95 
28.03 -454.71 5.90 
30.36 -455.74 6.99 
30.39 -455.39 6.97 
30.42 -455.00 6.95 
30.44 -455.76 8.02 
30.52 -455.36 8.00 
30.60 -454.89 7.97 
30.73 -455.23 9.02 
30.77 -454.88 8.99 
30.61 -455.68 9.05 
30.89 -455.28 10.06 
30.94 -454.94 10.03 
30.82 -455.62 10.09 
31.18 -455.10 11.11 
31.21 -454.75 11.08 
31.33 -456.02 12.30 
29.98 -455.61 5.99 
30.03 -455.20 5.97 
30.13 -454.77 5.95 
30.65 -454.95 6.18 
30.59 -455.25 6.19 
30.61 -454.89 6.18 
30.27 -454.90 6.98 
30.04 -456.00 7.03 
30.15 -455.50 7.01 
30.20 -454.76 6.97 
30.25 -455.57 8.05 
30.32 -455.24 8.03 
30.40 -454.82 8.00 
30.17 -455.89 8.07 
30.36 -456.03 9.13 
30.40 -455.68 9.10 
30.45 -455.33 9.08 
30.51 -454.79 9.03 
30.60 -455.81 10.17 
30.70 -455.09 10.11 
30.75 -454.75 10.08 
30.48 -456.10 10.19 
30.63 -455.44 10.14 
30.97 -455.36 11.22 
31.10 -455.97 12.38 
31.26 -455.16 12.30 
31.34 -454.87 12.47 
29.55 -456.38 6.04 
29.61 -456.03 6.02 
29.66 -455.64 6.01 
29.73 -455.29 5.99 
29.72 -454.89 5.97 
30.29 -455.98 6.23 
30.34 -455.58 6.22 
30.39 -455.22 6.20 
29.94 -455.51 7.04 
29.73 -456.08 7.07 
29.82 -455.78 7.05 
29.86 -455.38 7.03 
29.89 -454.81 7.00 
30.09 -454.76 8.04 
29.94 -455.91 8.11 
29.98 -455.62 8.09 
30.06 -455.16 8.07 
29.78 -456.52 8.15 
29.85 -456.17 8.13 
30.07 -456.40 9.21 
30.07 -455.93 9.17 
30.15 -455.59 9.15 
30.22 -455.27 9.12 
30.26 -454.91 9.10 
30.79 -454.71 9.31 
30.35 -455.73 10.23 
30.37 -455.35 10.19 
30.46 -454.83 10.15 
30.19 -456.41 10.29 
30.27 -456.08 10.26 
30.72 -454.82 11.24 
30.64 -455.15 11.27 
30.77 -456.52 12.53 
30.85 -456.18 12.50 
29.36 -456.18 6.10 
29.44 -455.82 6.08 
29.39 -455.71 6.08 
29.52 -455.00 6.05 
29.17 -456.80 6.12 
29.26 -456.48 6.11 
29.31 -456.07 6.09 
29.39 -455.31 6.06 
37.08 -454.99 6.17 
35.50 -454.72 6.13 
29.32 -456.91 7.19 
29.39 -456.54 7.17 
29.47 -456.22 7.16 
29.56 -455.87 7.14 
29.58 -455.48 7.12 
29.63 -455.08 7.09 
29.71 -454.73 7.08 
29.89 -454.94 8.15 
29.51 -456.64 8.25 
29.59 -456.28 8.23 
29.67 -455.96 8.21 
29.73 -455.60 8.19 
29.77 -455.22 8.16 
29.85 -454.84 8.14 
29.80 -456.02 9.29 
29.93 -455.47 9.25 
30.03 -455.01 9.21 
29.75 -456.41 9.32 
29.67 -456.77 9.35 
29.86 -456.92 10.46 
29.93 -456.55 10.43 
30.02 -456.20 10.40 
30.06 -455.82 10.36 
30.10 -455.43 10.32 
30.20 -455.10 10.30 
30.25 -454.74 10.26 
30.29 -456.51 11.55 
30.44 -455.09 11.40 
30.80 -454.76 12.48 
30.62 -456.33 12.67 
30.34 -457.33 12.77 
30.42 -456.96 12.73 
29.37 -455.24 6.06 
29.40 -455.02 6.05 
29.06 -456.62 6.12 
29.13 -456.25 6.10 
29.23 -455.90 6.09 
29.25 -455.49 6.07 
36.21 -455.18 6.15 
35.36 -454.99 6.13 
34.63 -454.85 6.12 
33.88 -454.71 6.10 
29.98 -455.33 6.26 
30.05 -454.99 6.25 
28.98 -456.99 6.13 
29.25 -456.86 7.21 
29.22 -456.75 7.20 
29.31 -456.17 7.17 
29.40 -455.39 7.12 
29.55 -454.92 7.10 
29.12 -457.10 7.22 
29.78 -454.73 8.16 
29.27 -457.23 8.33 
29.35 -456.90 8.31 
29.42 -456.52 8.28 
29.47 -456.09 8.25 
29.52 -455.70 8.22 
29.59 -455.34 8.20 
29.83 -455.11 9.26 
33.98 -454.74 9.51 
29.69 -456.34 9.37 
29.77 -455.49 9.29 
29.48 -456.97 9.41 
29.58 -456.65 9.39 
29.63 -456.22 9.35 
29.68 -455.84 9.32 
29.78 -456.78 10.52 
29.83 -456.38 10.48 
29.89 -456.01 10.44 
29.94 -455.61 10.40 
30.01 -455.25 10.37 
30.08 -454.89 10.34 
34.06 -454.78 10.67 
29.68 -457.14 10.55 
30.75 -454.70 11.60 
30.11 -456.20 11.59 
30.26 -455.54 11.52 
34.70 -454.90 11.91 
30.60 -455.37 12.65 
30.68 -455.02 12.61 
30.30 -456.79 12.81 
30.40 -456.00 12.71 
29.76 -454.69 6.08 
28.81 -455.56 6.11 
28.97 -454.83 6.08 
34.95 -455.66 6.20 
34.53 -455.70 6.19 
34.17 -455.49 6.18 
33.72 -455.50 6.17 
33.03 -455.36 6.16 
32.33 -455.21 6.14 
31.66 -455.08 6.12 
31.00 -454.94 6.11 
30.56 -454.80 6.10 
30.01 -454.89 6.28 
29.94 -455.23 6.29 
28.77 -456.00 6.12 
28.41 -457.44 6.18 
28.55 -456.89 6.16 
28.68 -456.38 6.14 
31.66 -455.06 7.24 
30.90 -454.87 7.20 
30.39 -454.82 7.18 
28.74 -456.84 7.25 
28.80 -456.43 7.23 
28.84 -456.05 7.21 
28.96 -455.72 7.19 
29.07 -455.41 7.18 
28.57 -457.58 7.29 
28.63 -457.17 7.27 
33.28 -455.10 7.29 
33.34 -454.70 7.27 
33.03 -455.34 7.30 
32.35 -455.21 7.27 
33.49 -454.81 8.43 
33.04 -455.33 8.45 
32.32 -455.17 8.40 
31.68 -455.06 8.36 
31.02 -454.93 8.32 
30.57 -454.78 8.29 
29.19 -455.52 8.28 
28.77 -457.30 8.39 
28.86 -456.95 8.37 
28.92 -456.54 8.34 
29.06 -456.03 8.31 
29.09 -455.79 8.29 
29.15 -455.41 8.26 
28.67 -457.67 8.42 
33.42 -455.22 8.46 
33.60 -455.35 9.64 
33.72 -455.03 9.62 
33.49 -455.32 9.63 
33.07 -455.34 9.60 
32.38 -455.22 9.54 
31.71 -455.08 9.49 
31.06 -454.95 9.43 
30.42 -454.82 9.38 
29.81 -454.69 9.32 
29.25 -455.94 9.40 
29.35 -455.62 9.38 
29.40 -455.19 9.34 
29.49 -454.83 9.32 
28.86 -457.85 9.56 
28.97 -457.52 9.53 
28.99 -457.07 9.49 
29.10 -456.70 9.46 
29.13 -456.27 9.43 
29.75 -454.84 10.42 
29.51 -455.71 10.50 
29.59 -455.34 10.46 
33.80 -455.50 10.83 
33.88 -455.10 10.80 
33.95 -454.74 10.77 
33.14 -455.38 10.77 
32.43 -455.24 10.69 
31.77 -455.11 10.62 
31.11 -454.97 10.55 
30.52 -454.84 10.55 
29.20 -457.25 10.64 
29.30 -456.87 10.61 
29.43 -456.08 10.53 
29.12 -457.62 10.67 
29.82 -455.54 11.62 
29.89 -455.16 11.58 
34.17 -455.33 12.04 
29.61 -456.75 11.75 
29.41 -457.90 11.88 
29.45 -457.50 11.83 
34.00 -455.65 12.06 
30.23 -455.03 12.71 
29.97 -456.64 12.91 
34.58 -454.75 13.21 
33.34 -455.52 13.15 
32.40 -455.25 13.00 
29.79 -457.33 12.99 
34.49 -455.15 13.25 
32.80 -454.95 6.15 
32.61 -455.68 6.18 
32.67 -455.27 6.16 
32.33 -455.89 6.19 
31.67 -455.75 6.17 
31.01 -455.59 6.16 
30.77 -455.45 6.15 
30.38 -455.47 6.14 
29.79 -455.32 6.22 
29.82 -455.05 6.29 
29.13 -455.19 6.11 
28.41 -455.89 6.14 
28.46 -455.46 6.12 
28.57 -455.10 6.10 
28.05 -457.38 6.19 
28.13 -456.99 6.18 
28.32 -456.27 6.15 
27.87 -458.18 6.23 
27.95 -457.78 6.21 
30.79 -455.45 7.27 
30.26 -455.38 7.25 
29.77 -455.33 7.23 
29.15 -455.20 7.21 
28.42 -456.87 7.29 
28.42 -456.32 7.25 
28.52 -455.99 7.24 
28.60 -455.57 7.21 
28.11 -457.93 7.34 
28.25 -457.58 7.32 
28.28 -457.12 7.30 
32.86 -455.41 7.33 
32.95 -455.02 7.31 
33.05 -454.69 7.30 
32.79 -455.82 7.35 
32.22 -455.81 7.34 
31.67 -455.72 7.31 
31.03 -455.59 7.29 
28.03 -458.33 7.36 
31.02 -455.57 8.43 
30.26 -455.36 8.38 
29.74 -455.29 8.35 
29.51 -455.15 8.33 
28.86 -455.43 8.32 
29.12 -455.16 8.31 
28.47 -456.82 8.40 
28.69 -456.15 8.36 
28.76 -455.76 8.34 
28.25 -458.11 8.49 
28.34 -457.76 8.47 
28.35 -457.43 8.45 
32.92 -455.93 8.54 
33.01 -455.53 8.52 
33.13 -454.94 8.48 
32.33 -455.86 8.51 
31.67 -455.71 8.47 
31.70 -455.73 9.62 
31.06 -455.60 9.57 
30.40 -455.45 9.52 
29.79 -455.34 9.47 
29.56 -455.18 9.44 
28.92 -455.87 9.46 
29.02 -455.54 9.44 
29.17 -455.19 9.41 
28.51 -457.88 9.62 
28.56 -457.40 9.58 
28.66 -457.02 9.55 
28.75 -456.64 9.52 
28.83 -456.24 9.49 
28.41 -458.26 9.65 
33.24 -455.80 9.73 
33.29 -455.29 9.69 
33.37 -454.91 9.66 
33.06 -456.04 9.74 
33.21 -455.70 9.72 
32.37 -455.89 9.68 
31.75 -455.76 10.79 
31.11 -455.62 10.72 
30.47 -455.49 10.66 
30.32 -455.14 10.69 
29.83 -455.35 10.59 
29.29 -455.28 10.54 
28.93 -456.80 10.68 
29.03 -456.42 10.64 
29.11 -456.03 10.61 
29.19 -455.65 10.57 
28.58 -458.40 10.83 
28.81 -457.64 10.76 
28.87 -457.21 10.72 
33.68 -454.69 10.84 
33.46 -455.98 10.95 
33.50 -455.74 10.93 
33.49 -455.45 10.90 
33.60 -455.08 10.87 
33.12 -456.07 10.93 
32.44 -455.93 10.86 
32.32 -455.88 12.04 
30.53 -454.88 11.80 
29.99 -455.49 11.76 
29.51 -455.49 11.71 
29.00 -458.32 12.02 
29.24 -457.18 11.90 
33.89 -455.40 12.14 
34.03 -455.05 12.11 
33.29 -456.21 12.17 
29.34 -457.68 13.14 
29.55 -457.00 13.06 
29.27 -458.09 13.19 
34.30 -454.73 13.31 
32.51 -454.83 6.15 
32.28 -456.12 6.20 
32.30 -455.87 6.19 
32.39 -455.38 6.17 
32.08 -456.34 6.20 
31.41 -456.20 6.19 
31.17 -456.04 6.18 
30.75 -456.03 6.17 
30.12 -455.89 6.16 
29.66 -455.15 6.29 
29.71 -454.73 6.28 
29.48 -455.75 6.15 
29.63 -455.06 6.29 
28.87 -455.61 6.13 
28.27 -455.47 6.12 
27.81 -456.96 6.18 
27.92 -456.56 6.16 
28.00 -456.16 6.15 
28.09 -455.76 6.13 
27.54 -458.15 6.23 
27.69 -457.88 6.22 
27.73 -457.35 6.19 
27.43 -458.55 6.24 
28.90 -455.62 7.26 
28.24 -455.90 7.25 
28.10 -456.53 7.29 
28.14 -456.28 7.27 
32.56 -455.89 7.38 
32.62 -455.43 7.35 
32.72 -455.04 7.34 
32.47 -456.21 7.39 
32.49 -455.75 7.37 
31.96 -456.26 7.38 
31.41 -456.18 7.36 
30.65 -455.95 7.32 
30.11 -455.86 7.30 
29.79 -454.75 7.37 
29.59 -455.67 7.35 
27.94 -457.34 7.33 
28.03 -456.92 7.31 
27.78 -458.19 7.38 
29.88 -455.72 8.44 
29.48 -455.72 8.42 
28.87 -455.58 8.38 
28.22 -456.85 8.45 
28.33 -456.52 8.43 
28.42 -456.12 8.40 
28.03 -457.64 8.50 
28.10 -457.20 8.47 
32.99 -454.84 8.52 
32.68 -455.91 8.58 
32.82 -455.36 8.55 
32.87 -455.12 8.53 
32.57 -456.30 8.60 
32.08 -456.31 8.58 
31.40 -456.17 8.54 
30.75 -456.01 8.50 
30.51 -455.85 8.48 
30.12 -455.86 8.46 
29.98 -454.90 8.49 
27.95 -458.07 8.53 
27.88 -458.55 8.57 
30.14 -455.88 9.62 
29.92 -455.74 9.59 
29.51 -455.74 9.56 
28.62 -456.36 9.57 
28.66 -456.11 9.55 
28.67 -455.85 9.52 
28.31 -457.42 9.65 
28.41 -457.05 9.62 
28.49 -456.64 9.58 
28.12 -458.25 9.71 
28.20 -457.82 9.68 
32.99 -455.70 9.78 
33.07 -455.29 9.75 
33.18 -454.96 9.73 
32.88 -456.09 9.81 
32.54 -456.32 9.81 
32.11 -456.33 9.78 
31.44 -456.19 9.72 
30.79 -456.04 9.67 
28.10 -458.52 9.74 
30.84 -456.07 10.85 
30.21 -455.92 10.78 
30.18 -455.47 10.78 
30.23 -455.08 10.75 
29.56 -455.77 10.72 
28.98 -455.67 10.66 
28.70 -456.84 10.77 
28.79 -456.43 10.73 
28.87 -456.03 10.69 
28.47 -458.10 10.89 
28.55 -457.66 10.85 
28.60 -457.23 10.80 
33.42 -455.11 10.96 
32.17 -456.37 10.99 
31.48 -456.21 10.91 
28.23 -458.87 10.96 
28.35 -458.48 10.92 
30.32 -456.02 11.98 
29.73 -455.93 11.92 
29.13 -456.30 11.90 
28.64 -458.80 12.18 
29.50 -456.17 13.09 
29.23 -457.46 13.25 
29.20 -457.91 13.31 
28.95 -458.61 13.38 
29.10 -458.32 13.36 
31.98 -456.15 6.18 
32.04 -455.63 6.16 
32.13 -455.23 6.15 
31.84 -456.44 6.19 
31.94 -456.02 6.18 
31.48 -456.61 6.19 
30.69 -456.39 6.18 
30.16 -456.31 6.17 
29.64 -456.24 6.16 
29.50 -455.44 6.28 
29.42 -455.75 6.29 
28.99 -456.08 6.14 
28.39 -455.92 6.13 
27.91 -457.56 6.19 
27.61 -456.63 6.15 
27.70 -456.19 6.13 
27.81 -455.80 6.12 
27.45 -457.24 6.17 
27.30 -457.82 6.20 
32.37 -455.51 7.36 
32.30 -455.36 7.35 
32.24 -455.84 7.38 
31.50 -456.62 7.40 
30.95 -456.53 7.38 
30.70 -456.40 7.37 
30.17 -456.31 7.35 
29.65 -456.23 7.33 
29.41 -456.08 7.31 
29.03 -456.10 7.30 
28.42 -455.92 7.27 
28.18 -457.63 7.37 
27.94 -455.93 7.26 
27.76 -456.79 7.31 
27.86 -456.38 7.29 
27.46 -457.98 7.37 
27.50 -457.49 7.34 
27.64 -457.13 7.32 
28.10 -456.10 8.43 
32.61 -455.25 8.57 
31.35 -456.51 8.60 
30.93 -456.51 8.58 
30.28 -456.37 8.54 
29.63 -456.20 8.50 
29.77 -454.70 8.49 
29.39 -456.05 8.48 
29.01 -456.07 8.47 
28.32 -457.78 8.57 
28.04 -456.57 8.46 
28.15 -456.24 8.44 
27.91 -456.90 8.48 
27.65 -457.93 8.55 
28.83 -455.92 9.61 
28.45 -456.03 9.59 
28.27 -456.56 9.63 
28.30 -456.30 9.61 
31.40 -456.53 9.82 
30.98 -456.54 9.79 
30.30 -456.39 9.74 
29.92 -454.82 9.62 
29.67 -456.24 9.68 
29.44 -456.09 9.66 
29.04 -456.09 9.63 
28.11 -457.11 9.67 
27.91 -457.95 9.74 
27.99 -457.51 9.70 
27.78 -458.34 9.77 
30.25 -454.72 10.77 
30.11 -454.96 10.78 
29.09 -456.13 10.81 
28.51 -456.51 10.81 
28.61 -456.10 10.77 
31.03 -456.57 11.01 
30.36 -456.43 10.94 
30.11 -455.93 10.87 
30.12 -455.42 10.82 
30.23 -455.14 10.81 
29.87 -456.28 10.89 
28.33 -457.33 10.89 
28.41 -456.91 10.85 
28.03 -458.61 11.01 
28.13 -458.18 10.97 
28.21 -457.73 10.92 
28.88 -456.37 12.01 
30.30 -455.65 12.02 
28.60 -457.73 12.16 
28.79 -458.38 13.48 
29.01 -457.62 13.39 
30.07 -456.82 6.16 
29.32 -455.32 6.24 
29.32 -455.04 6.23 
29.29 -454.75 6.22 
29.06 -456.39 6.28 
29.19 -455.59 6.25 
28.79 -456.48 6.14 
28.16 -456.31 6.12 
28.15 -455.55 6.09 
27.83 -456.69 6.14 
27.93 -456.27 6.12 
28.02 -455.85 6.11 
27.68 -457.67 6.17 
27.63 -457.53 6.17 
27.75 -457.13 6.15 
27.56 -456.17 6.11 
30.05 -456.77 7.37 
29.29 -455.67 7.39 
29.38 -455.27 7.37 
29.42 -454.85 7.35 
29.35 -456.19 7.42 
28.79 -456.46 7.32 
28.17 -456.31 7.30 
28.17 -456.00 7.28 
28.29 -455.70 7.26 
27.99 -456.84 7.32 
28.08 -456.41 7.30 
27.94 -457.42 7.35 
27.59 -456.18 7.27 
30.03 -456.74 8.59 
29.56 -454.97 8.50 
29.80 -456.58 8.57 
29.57 -455.43 8.53 
29.41 -456.60 8.55 
28.78 -456.44 8.52 
28.42 -456.05 8.47 
28.15 -457.65 8.58 
28.19 -457.15 8.54 
28.18 -457.05 8.54 
28.21 -456.55 8.50 
28.14 -456.27 8.48 
27.96 -457.88 8.59 
27.75 -456.36 8.47 
29.76 -455.14 9.66 
29.81 -454.73 9.63 
29.86 -456.62 9.79 
29.42 -456.60 9.76 
28.80 -456.46 9.71 
28.68 -456.09 9.67 
28.47 -456.87 9.73 
28.54 -456.38 9.69 
28.27 -457.68 9.79 
28.38 -457.31 9.76 
28.19 -456.31 9.66 
28.17 -458.12 9.83 
30.03 -454.91 10.81 
29.85 -456.15 10.92 
29.94 -455.75 10.89 
29.94 -455.28 10.84 
29.88 -456.64 11.01 
29.48 -456.65 10.98 
28.78 -456.67 10.93 
28.90 -456.32 10.90 
28.63 -457.62 11.02 
28.71 -457.12 10.97 
28.48 -457.91 11.04 
29.14 -456.58 12.17 
28.41 -457.06 12.16 
30.18 -455.62 6.13 
29.54 -455.47 6.12 
29.11 -455.24 6.24 
29.17 -454.82 6.23 
28.97 -456.06 6.27 
29.03 -455.62 6.25 
28.91 -455.33 6.11 
28.89 -456.44 6.28 
28.29 -455.18 6.09 
27.93 -455.31 6.10 
27.77 -456.28 6.13 
27.83 -455.74 6.11 
27.53 -457.02 6.16 
27.62 -456.62 6.14 
27.35 -457.91 6.19 
27.43 -457.43 6.17 
27.22 -458.31 6.20 
30.17 -455.59 7.35 
29.55 -455.46 7.32 
29.22 -455.32 7.39 
29.29 -454.91 7.37 
29.06 -456.13 7.43 
29.17 -455.73 7.41 
28.92 -455.32 7.30 
29.07 -456.69 7.46 
28.29 -455.17 7.27 
28.08 -455.46 7.28 
27.91 -456.38 7.33 
27.99 -455.94 7.31 
27.68 -457.17 7.37 
27.77 -456.72 7.35 
27.52 -458.10 7.42 
29.91 -455.40 8.55 
29.44 -455.44 8.55 
29.44 -455.05 8.54 
28.89 -455.28 8.50 
28.37 -455.24 8.48 
28.19 -456.16 8.53 
28.31 -455.81 8.51 
27.95 -456.93 8.58 
28.07 -456.51 8.56 
27.77 -457.80 8.64 
27.87 -457.39 8.61 
29.94 -455.41 9.77 
29.65 -455.00 9.71 
29.55 -455.53 9.75 
28.89 -455.28 9.70 
28.62 -455.58 9.71 
28.57 -455.46 9.70 
28.43 -456.15 9.75 
28.15 -457.14 9.83 
28.27 -456.73 9.80 
29.91 -454.97 10.89 
29.83 -455.38 10.92 
29.56 -455.44 10.97 
29.34 -455.30 10.94 
28.94 -455.35 10.92 
28.71 -456.12 10.98 
28.80 -455.68 10.94 
28.59 -456.54 11.02 
29.04 -455.94 12.22 
28.86 -455.56 6.21 
28.78 -455.54 6.08 
28.37 -455.55 6.08 
27.76 -455.40 6.07 
27.48 -456.17 6.09 
27.57 -455.74 6.08 
27.30 -457.16 6.13 
27.37 -456.60 6.11 
27.21 -456.95 6.12 
29.16 -454.85 7.35 
29.08 -455.27 7.37 
28.77 -455.53 7.30 
28.38 -455.54 7.29 
27.74 -455.91 7.30 
27.82 -455.46 7.27 
27.66 -456.40 7.32 
29.32 -455.00 8.53 
28.72 -455.47 8.53 
28.32 -455.48 8.52 
27.96 -455.88 8.53 
28.20 -455.88 9.77 
28.34 -455.49 9.74 
27.46 -455.69 6.09 
16.76 -456.06 7.49 
16.58 -455.71 8.59 
16.74 -456.52 8.66 
16.88 -457.34 8.73 
16.84 -456.07 9.76 
16.55 -456.31 7.59 
