# .PCD v0.7 - Point Cloud Data file format
VERSION 0.7
FIELDS x y z
SIZE 4 4 4
TYPE F F F
COUNT 1 1 1
WIDTH 2494
HEIGHT 1
VIEWPOINT 0 0 0 1 0 0 0
POINTS 2494
DATA ascii
19.51 -63.61 8.29 
35.05 -63.94 10.15 
31.53 -64.10 9.53 
26.24 -63.82 9.49 
25.65 -63.83 9.38 
25.04 -63.80 9.27 
24.64 -63.79 9.20 
23.94 -63.73 9.07 
24.24 -63.78 9.12 
23.49 -63.75 8.99 
23.12 -63.73 8.92 
19.45 -63.56 8.99 
18.92 -63.55 8.88 
18.40 -63.50 8.79 
18.63 -63.54 8.83 
17.80 -63.49 8.68 
18.06 -63.51 8.72 
17.29 -63.46 8.59 
17.51 -63.49 8.62 
16.72 -63.45 8.48 
16.99 -63.46 8.53 
38.58 -64.38 10.71 
38.15 -64.27 10.64 
37.79 -64.35 10.57 
37.28 -64.27 10.49 
35.79 -64.25 10.24 
35.08 -63.59 10.19 
35.05 -63.14 10.23 
35.08 -62.94 10.26 
35.06 -62.64 10.29 
35.03 -62.34 10.32 
29.34 -63.96 10.05 
28.84 -63.95 9.96 
28.05 -63.94 9.81 
28.51 -63.97 9.89 
27.08 -63.94 9.63 
26.71 -63.87 9.57 
22.77 -63.73 9.62 
21.42 -63.65 9.36 
21.71 -63.70 9.41 
20.88 -63.58 9.26 
21.14 -63.63 9.31 
20.44 -63.61 9.17 
19.97 -63.59 9.08 
39.68 -64.32 10.90 
31.50 -64.14 10.44 
30.71 -64.00 10.31 
31.01 -64.09 10.35 
26.28 -63.89 10.31 
25.67 -63.84 10.19 
24.39 -63.75 9.94 
23.89 -63.77 9.84 
24.28 -63.78 9.92 
23.51 -63.76 9.77 
23.15 -63.73 9.70 
36.46 -64.31 11.38 
35.82 -64.27 11.26 
35.14 -63.93 11.17 
35.14 -63.44 11.22 
35.12 -62.88 11.29 
35.13 -62.47 11.34 
29.22 -63.94 10.92 
28.54 -63.98 10.77 
28.98 -64.02 10.86 
27.12 -63.95 10.48 
26.72 -63.90 10.40 
26.46 -63.82 10.36 
39.71 -64.36 12.00 
39.35 -64.43 11.93 
38.60 -64.41 11.78 
38.93 -64.31 11.86 
38.19 -64.30 11.71 
37.47 -64.25 11.58 
37.87 -64.36 11.64 
37.16 -64.34 11.51 
31.47 -64.19 11.36 
31.05 -64.11 11.29 
30.50 -64.08 11.17 
30.00 -64.06 11.07 
29.51 -64.03 10.97 
25.96 -63.83 11.08 
25.14 -63.79 10.90 
24.75 -63.77 10.82 
23.97 -63.74 10.65 
28.66 -63.95 11.69 
28.17 -63.93 11.58 
27.71 -63.91 11.47 
27.01 -63.80 11.33 
22.61 -63.76 11.24 
37.91 -64.39 12.73 
37.27 -64.34 12.59 
35.73 -64.35 12.26 
35.28 -64.23 12.18 
35.26 -63.92 12.21 
35.27 -63.58 12.26 
35.25 -63.29 12.29 
35.28 -62.92 12.35 
35.30 -62.57 12.40 
29.82 -63.94 11.96 
38.66 -64.44 12.88 
38.91 -64.38 12.95 
38.22 -64.34 12.80 
35.36 -63.64 13.31 
38.60 -65.19 13.87 
38.26 -65.01 13.81 
36.63 -64.33 13.51 
16.86 -72.30 3.58 
16.87 -71.67 3.62 
16.90 -70.18 3.71 
29.13 -63.86 5.68 
28.74 -63.81 5.65 
28.17 -63.82 5.61 
27.96 -63.70 5.60 
26.78 -63.78 5.49 
26.13 -63.67 5.44 
26.38 -63.74 5.46 
25.83 -63.69 5.41 
25.28 -63.60 5.37 
24.30 -63.70 5.28 
23.94 -63.67 5.26 
23.45 -63.62 5.22 
23.00 -63.61 5.18 
22.61 -63.53 5.15 
21.12 -63.58 5.03 
21.25 -63.52 5.04 
20.49 -63.55 4.97 
20.82 -63.55 5.00 
20.07 -63.50 4.94 
18.53 -63.43 4.82 
18.19 -63.45 4.79 
18.43 -63.47 4.81 
17.58 -63.46 4.74 
17.86 -63.46 4.76 
17.27 -63.39 4.72 
41.45 -64.31 6.70 
40.67 -64.26 6.64 
40.19 -64.16 6.61 
39.84 -64.24 6.57 
39.40 -64.13 6.54 
33.55 -66.36 5.89 
33.47 -66.15 5.90 
32.81 -66.36 5.83 
32.79 -66.14 5.84 
32.64 -66.15 5.83 
32.58 -65.61 5.86 
32.07 -66.13 5.78 
32.61 -65.30 5.88 
31.61 -65.46 5.79 
31.70 -65.02 5.82 
32.18 -64.33 5.91 
31.57 -64.90 5.82 
31.76 -64.23 5.88 
31.76 -63.96 5.90 
31.22 -63.92 5.86 
30.64 -63.80 5.82 
29.63 -63.87 5.73 
29.35 -63.79 5.71 
28.06 -63.91 6.39 
27.61 -63.88 6.35 
27.14 -63.87 6.30 
26.71 -63.84 6.25 
26.27 -63.83 6.21 
25.83 -63.77 6.17 
25.44 -63.80 6.12 
24.63 -63.76 6.04 
25.02 -63.79 6.08 
23.25 -63.67 5.91 
22.93 -63.70 5.87 
22.41 -63.68 5.82 
22.05 -63.68 5.78 
21.42 -63.64 5.72 
21.07 -63.63 5.68 
21.18 -63.59 5.70 
20.41 -63.63 5.62 
20.73 -63.63 5.65 
19.90 -63.56 5.57 
19.62 -63.59 5.54 
18.89 -63.60 5.46 
19.19 -63.59 5.49 
18.53 -63.54 5.43 
18.19 -63.56 5.39 
17.50 -63.54 5.33 
17.78 -63.54 5.35 
17.23 -63.44 5.31 
40.92 -64.27 7.74 
40.56 -64.36 7.69 
39.78 -64.31 7.61 
40.11 -64.24 7.65 
38.95 -64.29 7.52 
39.32 -64.21 7.57 
34.69 -65.66 6.96 
33.92 -65.67 6.88 
33.21 -65.67 6.80 
32.39 -65.73 6.71 
32.01 -65.60 6.68 
32.22 -65.23 6.73 
32.47 -64.85 6.79 
31.73 -64.90 6.70 
31.59 -64.65 6.71 
31.55 -64.37 6.73 
31.65 -64.05 6.76 
31.08 -64.02 6.70 
30.53 -64.01 6.64 
30.04 -63.97 6.60 
29.63 -63.92 6.56 
29.03 -63.94 6.49 
29.23 -63.88 6.52 
28.53 -63.93 6.44 
19.82 -63.62 6.20 
19.44 -63.64 6.15 
19.14 -63.64 6.12 
18.55 -63.58 6.05 
18.02 -63.59 5.99 
18.30 -63.60 6.02 
17.74 -63.58 5.96 
17.14 -63.53 5.89 
16.60 -63.52 5.83 
41.40 -64.38 7.78 
28.06 -63.93 7.20 
27.57 -63.92 7.13 
27.14 -63.90 7.08 
26.67 -63.89 7.02 
26.11 -63.84 6.96 
25.70 -63.82 6.91 
25.20 -63.83 6.85 
24.59 -63.81 6.77 
24.20 -63.80 6.72 
23.52 -63.74 6.65 
22.71 -63.74 6.54 
20.69 -63.67 6.30 
20.07 -63.65 6.23 
33.75 -65.78 7.76 
33.03 -65.78 7.67 
34.95 -62.79 8.17 
34.91 -62.55 8.19 
32.17 -65.57 7.58 
31.95 -65.21 7.58 
32.66 -64.18 7.76 
31.87 -64.87 7.60 
31.63 -64.09 7.64 
31.06 -64.06 7.57 
30.67 -63.97 7.52 
29.59 -63.97 7.39 
29.00 -63.99 7.31 
29.21 -63.92 7.34 
28.52 -63.96 7.25 
21.42 -63.68 7.08 
21.02 -63.70 7.02 
20.15 -63.65 6.90 
19.43 -63.66 6.80 
17.63 -63.57 6.56 
17.18 -63.53 6.50 
16.59 -63.53 6.42 
41.38 -64.43 8.86 
40.90 -64.33 8.81 
40.53 -64.41 8.75 
39.71 -64.39 8.65 
40.07 -64.31 8.70 
38.49 -64.24 8.50 
38.16 -64.32 8.45 
27.94 -63.81 8.01 
26.55 -63.88 7.80 
26.00 -63.82 7.72 
26.25 -63.90 7.75 
25.82 -63.88 7.69 
25.42 -63.86 7.63 
25.30 -63.71 7.63 
23.71 -63.77 7.40 
23.97 -63.76 7.44 
23.08 -63.77 7.31 
23.35 -63.75 7.35 
22.72 -63.76 7.25 
22.61 -63.62 7.25 
18.46 -63.61 7.30 
33.02 -65.54 8.59 
32.87 -65.34 8.59 
32.56 -65.09 8.57 
32.28 -64.99 8.54 
32.40 -64.64 8.59 
32.77 -64.17 8.69 
31.62 -64.13 8.52 
31.25 -64.07 8.47 
30.85 -64.03 8.42 
29.58 -64.01 8.23 
29.02 -64.01 8.15 
28.52 -64.00 8.08 
28.07 -63.96 8.01 
23.07 -63.80 8.02 
23.23 -63.74 8.05 
22.73 -63.77 7.97 
22.62 -63.63 7.97 
21.41 -63.71 7.76 
20.70 -63.70 7.65 
21.03 -63.71 7.70 
20.39 -63.69 7.60 
20.01 -63.62 7.55 
20.20 -63.62 7.58 
18.89 -63.63 7.37 
18.70 -63.58 7.34 
38.34 -64.30 9.52 
38.70 -64.21 9.58 
37.61 -64.26 9.41 
34.98 -62.82 9.15 
34.94 -62.58 9.17 
27.50 -64.02 8.73 
26.84 -63.90 8.63 
26.52 -63.92 8.58 
25.97 -63.86 8.49 
26.21 -63.95 8.52 
25.37 -63.91 8.39 
25.80 -63.92 8.46 
24.94 -63.91 8.32 
24.55 -63.88 8.25 
23.69 -63.81 8.12 
23.93 -63.80 8.16 
23.45 -63.82 8.08 
20.19 -63.65 8.24 
19.92 -63.69 8.19 
19.47 -63.66 8.11 
18.93 -63.63 8.02 
18.45 -63.63 7.94 
18.70 -63.59 7.98 
18.02 -63.62 7.86 
17.62 -63.57 7.80 
17.32 -63.51 7.75 
40.90 -64.36 9.90 
40.26 -64.29 9.81 
39.92 -64.36 9.75 
39.47 -64.25 9.69 
39.11 -64.33 9.63 
31.76 -64.11 9.44 
31.25 -64.07 9.36 
30.79 -64.01 9.29 
30.16 -64.02 9.18 
30.38 -63.94 9.23 
29.65 -63.99 9.09 
29.15 -63.98 9.01 
28.65 -63.96 8.93 
28.18 -63.93 8.85 
23.56 -63.76 8.84 
23.83 -63.73 8.89 
23.21 -63.72 8.78 
22.83 -63.72 8.71 
22.13 -63.69 8.59 
22.49 -63.70 8.65 
21.86 -63.65 8.54 
21.30 -63.78 8.42 
20.70 -63.71 8.32 
20.38 -63.71 8.27 
17.61 -63.49 8.44 
17.71 -63.45 8.47 
17.22 -63.47 8.37 
16.70 -63.43 8.28 
36.04 -64.32 10.16 
35.11 -64.08 10.02 
35.12 -63.76 10.06 
35.14 -63.44 10.09 
35.11 -63.15 10.12 
35.12 -62.83 10.16 
35.10 -62.54 10.19 
26.90 -63.87 9.45 
26.39 -63.87 9.35 
26.56 -63.81 9.39 
25.97 -63.85 9.28 
25.55 -63.83 9.20 
25.14 -63.80 9.13 
24.73 -63.79 9.05 
24.24 -63.74 8.97 
21.17 -63.64 9.12 
20.83 -63.63 9.05 
20.37 -63.61 8.96 
19.89 -63.60 8.87 
19.45 -63.57 8.79 
19.06 -63.54 8.71 
18.43 -63.54 8.59 
18.72 -63.55 8.65 
18.02 -63.51 8.52 
39.86 -64.44 10.81 
38.35 -64.34 10.55 
37.59 -64.32 10.42 
37.17 -64.22 10.36 
30.90 -64.01 10.19 
29.67 -64.01 9.96 
29.15 -64.00 9.86 
28.68 -63.97 9.77 
28.17 -63.96 9.68 
23.97 -63.78 9.67 
24.37 -63.79 9.75 
23.61 -63.75 9.60 
23.22 -63.74 9.52 
22.85 -63.73 9.45 
21.79 -63.70 9.24 
21.48 -63.67 9.18 
40.66 -64.47 10.94 
31.77 -64.13 10.35 
31.30 -64.09 10.26 
27.02 -63.94 10.28 
26.37 -63.91 10.15 
25.97 -63.87 10.07 
25.56 -63.85 9.99 
24.47 -63.77 9.77 
21.85 -63.68 9.97 
20.71 -63.53 9.74 
37.62 -64.35 11.46 
36.88 -64.33 11.32 
36.19 -64.29 11.19 
35.20 -63.92 11.03 
35.19 -63.48 11.08 
35.19 -63.16 11.12 
35.22 -62.79 11.17 
35.17 -62.55 11.19 
30.19 -64.06 10.94 
29.67 -64.04 10.83 
29.13 -64.05 10.71 
28.68 -64.01 10.62 
28.24 -63.96 10.54 
24.06 -63.75 10.45 
40.68 -64.51 12.04 
39.92 -64.46 11.90 
39.14 -64.41 11.75 
38.35 -64.39 11.60 
31.82 -64.15 11.28 
31.25 -64.11 11.16 
30.69 -64.10 11.04 
30.94 -64.03 11.10 
26.94 -63.88 11.09 
25.24 -63.80 10.72 
24.83 -63.79 10.62 
36.21 -64.33 12.20 
35.34 -64.07 12.05 
35.32 -63.79 12.08 
35.30 -63.51 12.11 
35.35 -63.26 12.15 
35.35 -62.77 12.22 
28.52 -63.89 11.46 
27.94 -63.90 11.32 
27.57 -63.84 11.25 
38.40 -64.42 12.67 
37.64 -64.39 12.51 
31.38 -64.09 12.11 
37.05 -64.36 13.42 
38.33 -65.16 13.63 
38.11 -64.91 13.61 
16.87 -71.03 3.61 
16.84 -63.35 4.03 
17.10 -63.37 4.05 
16.58 -63.35 4.01 
29.44 -63.80 5.65 
28.79 -63.74 5.60 
29.07 -63.82 5.61 
28.59 -63.79 5.57 
28.12 -63.71 5.54 
26.71 -63.73 5.42 
26.26 -63.72 5.38 
25.83 -63.70 5.34 
25.41 -63.69 5.31 
23.96 -63.58 5.19 
23.43 -63.63 5.14 
23.70 -63.61 5.17 
23.14 -63.59 5.12 
22.71 -63.59 5.08 
22.61 -63.46 5.08 
21.31 -63.55 4.97 
21.06 -63.51 4.95 
20.51 -63.52 4.90 
20.80 -63.48 4.93 
20.05 -63.50 4.86 
19.85 -63.41 4.85 
18.57 -63.46 4.74 
18.30 -63.45 4.72 
17.81 -63.41 4.68 
18.03 -63.44 4.70 
17.44 -63.41 4.65 
17.17 -63.29 4.63 
41.09 -64.22 6.63 
40.23 -64.20 6.55 
39.81 -64.08 6.52 
33.87 -66.17 5.87 
33.45 -66.09 5.84 
33.04 -66.20 5.80 
33.14 -65.88 5.83 
34.86 -62.89 6.18 
33.15 -65.59 5.85 
33.22 -65.28 5.87 
32.75 -65.19 5.84 
31.91 -65.09 5.77 
31.60 -64.85 5.76 
31.87 -64.30 5.82 
31.78 -63.92 5.84 
31.21 -63.89 5.79 
30.69 -63.86 5.75 
30.59 -63.68 5.75 
29.19 -63.84 6.43 
28.97 -63.90 6.40 
28.56 -63.86 6.36 
27.99 -63.86 6.30 
28.19 -63.80 6.33 
27.62 -63.82 6.26 
27.06 -63.83 6.20 
27.23 -63.78 6.23 
26.60 -63.81 6.16 
24.93 -63.74 5.98 
24.09 -63.68 5.90 
23.41 -63.70 5.83 
23.70 -63.73 5.85 
23.17 -63.69 5.80 
22.61 -63.67 5.75 
22.25 -63.67 5.71 
21.92 -63.64 5.68 
21.31 -63.60 5.61 
20.98 -63.58 5.58 
20.29 -63.58 5.51 
20.70 -63.56 5.55 
19.94 -63.60 5.47 
19.65 -63.57 5.44 
19.19 -63.56 5.40 
18.78 -63.54 5.36 
18.34 -63.54 5.31 
17.78 -63.51 5.25 
17.32 -63.46 5.21 
40.99 -64.31 7.67 
40.10 -64.30 7.58 
39.30 -64.25 7.49 
34.72 -65.62 6.89 
34.63 -65.41 6.90 
33.96 -65.61 6.81 
33.53 -65.49 6.77 
32.21 -65.28 6.65 
31.92 -64.89 6.64 
32.32 -64.00 6.76 
31.58 -64.61 6.63 
31.67 -64.01 6.68 
31.06 -64.00 6.62 
30.53 -63.97 6.57 
29.98 -63.96 6.51 
29.69 -63.87 6.48 
20.86 -63.66 6.21 
20.40 -63.63 6.15 
19.93 -63.61 6.10 
19.41 -63.57 6.04 
19.15 -63.60 6.00 
18.72 -63.60 5.95 
18.45 -63.58 5.92 
17.77 -63.53 5.84 
17.99 -63.53 5.87 
17.36 -63.55 5.79 
17.12 -63.52 5.76 
16.54 -63.48 5.70 
29.13 -63.90 7.23 
28.66 -63.86 7.17 
28.95 -63.93 7.21 
28.45 -63.92 7.14 
27.96 -63.90 7.08 
28.17 -63.84 7.11 
27.59 -63.86 7.04 
27.02 -63.87 6.96 
26.57 -63.86 6.91 
26.14 -63.83 6.85 
25.69 -63.83 6.80 
25.28 -63.81 6.75 
24.86 -63.80 6.69 
22.23 -63.70 6.37 
21.88 -63.69 6.33 
21.28 -63.63 6.26 
17.13 -63.53 6.35 
16.78 -63.50 6.30 
34.02 -65.92 7.69 
33.68 -65.75 7.66 
34.92 -62.63 8.09 
32.99 -65.74 7.57 
33.90 -63.39 7.89 
32.35 -65.70 7.49 
32.78 -65.25 7.59 
33.79 -63.39 7.88 
31.97 -65.33 7.47 
31.86 -65.10 7.48 
31.81 -64.81 7.50 
32.37 -64.30 7.61 
31.62 -64.06 7.54 
31.07 -64.03 7.47 
30.72 -63.94 7.43 
29.62 -63.93 7.29 
22.93 -63.75 7.15 
22.67 -63.67 7.12 
20.85 -63.68 6.86 
19.38 -63.59 6.66 
19.03 -63.61 6.61 
18.60 -63.59 6.55 
18.02 -63.52 6.47 
17.64 -63.55 6.41 
17.92 -63.56 6.45 
17.38 -63.54 6.38 
41.38 -64.29 8.79 
40.92 -64.38 8.72 
40.07 -64.36 8.61 
39.67 -64.23 8.57 
28.66 -63.89 7.99 
28.43 -63.96 7.94 
28.03 -63.90 7.89 
26.99 -63.92 7.73 
26.58 -63.88 7.68 
26.12 -63.88 7.61 
25.70 -63.85 7.55 
25.34 -63.80 7.50 
24.23 -63.74 7.34 
23.95 -63.76 7.30 
23.31 -63.76 7.21 
23.69 -63.78 7.26 
17.64 -63.56 7.01 
32.99 -65.44 8.49 
32.78 -65.30 8.47 
32.61 -65.09 8.47 
32.27 -64.94 8.43 
32.45 -64.58 8.49 
32.75 -64.17 8.57 
31.23 -64.05 8.36 
31.59 -64.11 8.40 
31.06 -64.07 8.33 
30.73 -63.97 8.29 
29.54 -63.98 8.11 
29.17 -63.91 8.06 
28.96 -63.97 8.02 
24.30 -63.83 8.07 
23.86 -63.82 7.99 
23.30 -63.79 7.90 
22.94 -63.77 7.85 
22.69 -63.68 7.81 
21.53 -63.72 7.62 
21.19 -63.71 7.56 
21.34 -63.65 7.59 
20.87 -63.69 7.51 
20.23 -63.67 7.41 
20.56 -63.67 7.47 
20.00 -63.60 7.38 
17.34 -63.50 7.56 
39.42 -64.30 9.58 
39.02 -64.18 9.53 
38.63 -64.27 9.46 
38.20 -64.17 9.40 
37.83 -64.24 9.34 
34.99 -62.90 9.03 
34.95 -62.66 9.05 
28.58 -63.92 8.78 
28.06 -63.92 8.69 
27.36 -64.01 8.56 
26.99 -63.95 8.51 
26.53 -63.93 8.43 
26.10 -63.91 8.36 
25.68 -63.89 8.29 
24.69 -63.84 8.13 
24.98 -63.82 8.18 
21.18 -63.72 8.23 
20.87 -63.70 8.17 
20.22 -63.68 8.06 
20.55 -63.68 8.12 
19.71 -63.63 7.97 
19.31 -63.66 7.89 
19.58 -63.68 7.94 
19.01 -63.65 7.84 
18.72 -63.63 7.79 
18.10 -63.56 7.69 
17.65 -63.56 7.61 
41.13 -64.37 9.84 
40.65 -64.25 9.77 
40.27 -64.34 9.71 
39.80 -64.23 9.64 
31.74 -64.09 9.31 
31.20 -64.04 9.22 
30.88 -63.95 9.17 
30.49 -63.97 9.10 
30.11 -63.99 9.04 
29.71 -63.93 8.97 
29.06 -63.95 8.86 
25.00 -63.79 8.93 
24.61 -63.77 8.86 
24.76 -63.72 8.89 
24.20 -63.75 8.79 
23.81 -63.75 8.71 
23.43 -63.73 8.64 
23.05 -63.72 8.57 
22.70 -63.69 8.51 
22.21 -63.67 8.42 
21.55 -63.74 8.29 
18.85 -63.55 8.46 
18.56 -63.54 8.40 
18.02 -63.51 8.30 
18.31 -63.51 8.36 
17.75 -63.50 8.25 
17.11 -63.57 8.11 
17.49 -63.47 8.20 
16.62 -63.53 8.02 
16.84 -63.57 8.06 
35.93 -64.13 10.03 
35.26 -64.10 9.92 
35.09 -63.99 9.90 
35.13 -63.64 9.94 
35.13 -63.19 9.99 
35.13 -62.75 10.04 
28.59 -63.94 9.60 
28.13 -63.91 9.52 
27.10 -63.91 9.32 
26.71 -63.86 9.25 
26.26 -63.85 9.16 
25.60 -63.75 9.05 
25.30 -63.77 8.99 
21.98 -63.70 9.07 
21.66 -63.66 9.01 
21.33 -63.64 8.95 
20.83 -63.63 8.85 
20.27 -63.57 8.74 
19.88 -63.57 8.66 
19.44 -63.57 8.58 
19.15 -63.56 8.52 
17.02 -63.43 8.72 
41.11 -64.43 10.91 
40.57 -64.33 10.83 
40.23 -64.41 10.76 
39.79 -64.28 10.69 
38.59 -64.34 10.48 
38.00 -64.26 10.38 
37.41 -64.18 10.29 
37.11 -64.25 10.23 
31.77 -64.10 10.20 
31.30 -64.05 10.11 
30.85 -64.00 10.03 
29.59 -64.00 9.79 
29.05 -63.98 9.68 
24.55 -63.83 9.59 
24.19 -63.78 9.52 
23.80 -63.77 9.44 
23.44 -63.75 9.37 
22.96 -63.69 9.28 
18.73 -63.46 9.09 
18.32 -63.52 8.99 
17.34 -63.42 8.79 
41.38 -64.39 10.96 
35.22 -64.11 10.87 
35.21 -63.80 10.91 
27.15 -63.92 10.13 
26.71 -63.89 10.04 
26.27 -63.87 9.95 
25.94 -63.82 9.88 
25.55 -63.80 9.81 
22.90 -63.65 9.99 
20.55 -63.52 9.48 
38.61 -64.37 11.52 
38.00 -64.30 11.40 
37.41 -64.23 11.29 
37.07 -64.31 11.22 
36.69 -64.19 11.15 
36.36 -64.26 11.08 
35.58 -64.26 10.93 
35.95 -64.17 11.01 
35.23 -63.33 10.96 
35.20 -62.75 11.02 
31.22 -64.10 10.98 
30.66 -64.08 10.86 
30.11 -64.06 10.75 
29.59 -64.03 10.64 
29.06 -64.01 10.53 
28.58 -63.98 10.43 
25.50 -63.81 10.56 
25.06 -63.81 10.46 
41.12 -64.47 12.00 
40.62 -64.37 11.92 
40.27 -64.44 11.84 
39.81 -64.33 11.76 
39.41 -64.40 11.67 
38.96 -64.30 11.59 
31.80 -64.13 11.10 
27.74 -63.91 11.07 
26.98 -63.82 10.91 
26.52 -63.81 10.80 
36.27 -64.35 12.06 
35.67 -64.28 11.93 
35.35 -63.78 11.92 
35.37 -63.46 11.97 
35.36 -62.98 12.02 
35.34 -62.61 12.07 
28.20 -63.94 11.18 
38.64 -64.41 12.57 
37.85 -64.37 12.40 
41.16 -64.52 13.12 
40.25 -64.50 12.92 
38.26 -64.97 13.47 
38.25 -64.92 13.48 
38.01 -64.37 13.48 
37.19 -64.36 13.29 
36.46 -64.32 13.11 
35.83 -64.26 12.97 
38.53 -65.15 13.52 
16.85 -71.49 3.77 
18.04 -63.38 4.26 
17.66 -63.39 4.23 
17.26 -63.38 4.20 
16.84 -63.40 4.17 
30.64 -63.72 6.00 
29.39 -63.75 5.88 
29.17 -63.81 5.85 
28.76 -63.77 5.81 
28.15 -63.77 5.76 
28.36 -63.72 5.78 
26.87 -63.69 5.64 
26.58 -63.69 5.61 
26.12 -63.68 5.57 
25.69 -63.66 5.53 
25.32 -63.62 5.50 
24.14 -63.64 5.39 
23.56 -63.62 5.33 
22.97 -63.62 5.28 
22.64 -63.58 5.25 
22.55 -63.44 5.25 
21.29 -63.53 5.12 
20.97 -63.52 5.10 
20.56 -63.53 5.06 
20.71 -63.48 5.07 
20.12 -63.50 5.02 
19.88 -63.37 5.00 
18.76 -63.48 4.89 
18.52 -63.45 4.87 
18.06 -63.45 4.83 
17.51 -63.42 4.78 
17.23 -63.36 4.75 
41.00 -64.19 6.95 
40.53 -64.07 6.91 
33.79 -66.25 6.14 
33.24 -66.16 6.10 
32.79 -66.05 6.06 
32.43 -65.64 6.05 
32.64 -65.32 6.09 
32.27 -65.19 6.06 
32.41 -64.89 6.09 
31.81 -65.07 6.03 
31.89 -64.76 6.05 
31.95 -64.47 6.07 
31.94 -64.20 6.09 
31.64 -63.94 6.08 
31.15 -63.88 6.03 
30.83 -63.86 6.01 
30.09 -63.95 6.74 
29.79 -63.85 6.71 
29.40 -63.88 6.67 
29.01 -63.91 6.62 
28.51 -63.89 6.56 
28.71 -63.83 6.59 
28.13 -63.83 6.52 
27.63 -63.81 6.47 
27.27 -63.76 6.43 
27.05 -63.83 6.40 
25.89 -63.71 6.27 
25.70 -63.77 6.25 
25.27 -63.76 6.20 
24.89 -63.72 6.16 
24.42 -63.74 6.10 
24.05 -63.71 6.06 
23.65 -63.70 6.01 
23.08 -63.68 5.95 
22.53 -63.66 5.89 
22.17 -63.65 5.85 
21.61 -63.59 5.79 
21.29 -63.61 5.75 
20.86 -63.59 5.70 
20.48 -63.59 5.66 
20.15 -63.59 5.62 
19.53 -63.58 5.55 
19.83 -63.60 5.59 
19.05 -63.51 5.50 
18.80 -63.54 5.47 
18.37 -63.54 5.43 
17.95 -63.54 5.38 
17.47 -63.50 5.33 
17.29 -63.51 5.31 
17.18 -63.40 5.30 
41.25 -64.20 8.03 
40.85 -64.28 7.98 
39.96 -64.24 7.88 
39.08 -64.22 7.77 
38.63 -64.10 7.73 
34.85 -65.37 7.20 
33.85 -65.45 7.08 
34.02 -65.15 7.12 
32.31 -65.47 6.89 
32.10 -65.30 6.88 
31.98 -65.31 6.87 
31.97 -65.04 6.88 
31.87 -64.80 6.89 
31.62 -64.63 6.87 
31.87 -64.09 6.94 
31.54 -63.89 6.91 
31.08 -63.93 6.86 
30.66 -63.96 6.81 
30.33 -63.88 6.77 
21.56 -63.63 6.42 
21.83 -63.66 6.46 
21.32 -63.64 6.39 
20.76 -63.65 6.31 
20.42 -63.64 6.27 
20.10 -63.63 6.23 
19.46 -63.63 6.14 
19.78 -63.64 6.18 
18.99 -63.56 6.09 
18.75 -63.61 6.05 
18.33 -63.58 6.00 
17.93 -63.56 5.95 
17.34 -63.51 5.87 
17.11 -63.52 5.84 
16.62 -63.51 5.78 
29.49 -63.97 7.47 
28.96 -63.95 7.40 
28.61 -63.88 7.36 
28.06 -63.89 7.28 
27.57 -63.86 7.22 
27.22 -63.80 7.17 
26.88 -63.83 7.13 
26.42 -63.81 7.06 
26.09 -63.83 7.02 
24.00 -63.75 6.74 
23.40 -63.74 6.66 
22.47 -63.71 6.54 
22.12 -63.69 6.49 
18.06 -63.57 6.54 
17.44 -63.53 6.45 
16.98 -63.55 6.38 
16.62 -63.52 6.33 
33.83 -65.78 7.94 
34.92 -62.73 8.32 
33.60 -65.28 7.94 
32.95 -65.84 7.81 
33.01 -65.77 7.82 
33.93 -63.43 8.13 
32.19 -65.54 7.72 
32.02 -65.32 7.72 
31.85 -65.11 7.71 
31.89 -64.82 7.74 
32.27 -64.39 7.82 
31.10 -64.00 7.69 
30.70 -63.97 7.64 
22.64 -63.67 7.24 
21.22 -63.70 7.01 
20.72 -63.68 6.94 
20.42 -63.65 6.89 
19.95 -63.64 6.82 
19.19 -63.61 6.71 
19.32 -63.56 6.73 
18.76 -63.60 6.65 
18.32 -63.59 6.58 
41.18 -64.27 9.07 
40.76 -64.35 9.01 
40.28 -64.24 8.95 
39.85 -64.31 8.89 
39.61 -64.13 8.87 
29.52 -63.99 8.29 
29.22 -63.90 8.25 
28.83 -63.93 8.19 
28.46 -63.95 8.12 
28.02 -63.91 8.06 
26.95 -63.92 7.89 
26.53 -63.88 7.83 
26.09 -63.86 7.76 
25.48 -63.80 7.67 
18.90 -63.62 7.26 
17.77 -63.58 7.08 
17.47 -63.53 7.03 
17.19 -63.42 7.00 
33.00 -65.40 8.73 
32.71 -65.09 8.71 
32.37 -64.95 8.66 
32.43 -64.39 8.72 
32.69 -63.98 8.80 
32.13 -64.76 8.64 
31.72 -64.10 8.63 
31.20 -64.09 8.55 
31.02 -64.01 8.53 
30.71 -63.99 8.48 
25.12 -63.89 8.32 
24.72 -63.87 8.26 
24.14 -63.83 8.16 
23.56 -63.80 8.06 
23.19 -63.77 7.99 
22.81 -63.78 7.93 
22.67 -63.66 7.91 
18.31 -63.60 7.76 
17.87 -63.54 7.68 
40.07 -64.29 9.97 
39.59 -64.18 9.90 
39.19 -64.26 9.83 
38.36 -64.23 9.69 
37.94 -64.11 9.64 
34.89 -62.83 9.25 
29.10 -63.94 9.04 
28.59 -63.92 8.95 
28.04 -63.92 8.84 
27.33 -64.00 8.71 
26.94 -63.94 8.65 
26.47 -63.93 8.56 
26.03 -63.91 8.49 
25.58 -63.89 8.41 
21.98 -63.76 8.45 
21.37 -63.74 8.33 
21.03 -63.73 8.27 
20.71 -63.71 8.21 
20.38 -63.70 8.14 
19.89 -63.69 8.05 
19.46 -63.61 7.98 
18.88 -63.64 7.86 
19.26 -63.57 7.94 
18.60 -63.62 7.81 
16.72 -63.55 8.04 
41.18 -64.29 10.15 
40.48 -64.22 10.04 
31.28 -64.05 9.42 
30.73 -64.01 9.32 
30.19 -63.98 9.23 
29.64 -63.96 9.13 
25.76 -63.81 9.19 
25.33 -63.80 9.11 
24.90 -63.78 9.02 
24.49 -63.76 8.94 
24.09 -63.75 8.86 
23.30 -63.72 8.71 
23.47 -63.67 8.75 
22.91 -63.67 8.64 
22.55 -63.70 8.57 
19.79 -63.57 8.68 
20.01 -63.55 8.73 
19.42 -63.58 8.60 
19.00 -63.56 8.51 
18.56 -63.54 8.42 
18.20 -63.50 8.35 
17.71 -63.64 8.23 
17.34 -63.60 8.16 
16.97 -63.57 8.08 
37.49 -64.27 10.54 
37.06 -64.16 10.47 
35.94 -64.21 10.26 
35.09 -63.93 10.13 
35.08 -63.50 10.17 
35.10 -63.14 10.21 
35.11 -62.72 10.25 
29.05 -63.99 9.84 
28.57 -63.94 9.74 
28.10 -63.91 9.65 
27.55 -63.91 9.54 
27.06 -63.90 9.44 
26.66 -63.85 9.37 
26.19 -63.84 9.27 
22.90 -63.75 9.32 
22.50 -63.74 9.24 
22.01 -63.70 9.14 
21.50 -63.67 9.03 
21.18 -63.65 8.96 
20.83 -63.64 8.89 
20.26 -63.58 8.78 
17.78 -63.48 8.86 
16.70 -63.39 8.63 
41.10 -64.36 11.20 
40.42 -64.28 11.08 
39.97 -64.36 10.99 
38.64 -64.22 10.76 
38.30 -64.29 10.69 
31.29 -64.06 10.28 
30.95 -63.98 10.22 
29.61 -63.99 9.95 
25.75 -63.83 9.94 
24.16 -63.75 9.60 
23.74 -63.75 9.51 
23.30 -63.74 9.42 
23.46 -63.69 9.46 
20.70 -63.55 9.53 
18.58 -63.47 9.05 
35.97 -64.23 11.23 
35.17 -63.75 11.12 
35.17 -63.35 11.16 
35.19 -62.86 11.21 
29.03 -64.02 10.66 
28.56 -63.98 10.56 
27.10 -63.90 10.24 
26.62 -63.89 10.13 
26.19 -63.86 10.04 
22.95 -63.73 10.04 
39.13 -64.36 11.88 
38.48 -64.29 11.75 
37.66 -64.26 11.58 
37.06 -64.20 11.46 
36.71 -64.26 11.38 
31.88 -64.12 11.29 
31.30 -64.09 11.16 
30.70 -64.08 11.03 
30.09 -64.07 10.89 
29.61 -64.02 10.79 
25.33 -63.84 10.60 
25.00 -63.79 10.53 
40.88 -64.44 12.23 
40.40 -64.33 12.14 
39.99 -64.40 12.05 
39.52 -64.28 11.96 
28.13 -63.94 11.28 
27.66 -63.91 11.16 
37.43 -64.36 12.54 
36.20 -64.23 12.27 
35.81 -64.32 12.17 
35.31 -64.21 12.07 
35.31 -63.94 12.10 
35.33 -63.45 12.16 
35.34 -62.99 12.21 
35.31 -62.75 12.23 
40.05 -64.42 13.14 
39.00 -64.44 12.89 
38.65 -64.30 12.83 
38.24 -64.39 12.72 
37.84 -64.26 12.64 
40.81 -64.51 13.31 
35.67 -64.16 13.14 
35.47 -63.58 13.16 
38.45 -65.04 13.74 
38.11 -64.83 13.68 
37.13 -64.25 13.50 
36.77 -64.32 13.40 
18.83 -63.40 4.21 
18.54 -63.39 4.18 
18.08 -63.39 4.15 
17.55 -63.37 4.11 
16.80 -63.35 4.06 
31.00 -63.82 5.90 
30.65 -63.71 5.87 
29.30 -63.77 5.74 
28.20 -63.74 5.64 
27.94 -63.62 5.62 
26.74 -63.69 5.50 
26.28 -63.67 5.46 
25.84 -63.65 5.42 
25.37 -63.64 5.38 
25.28 -63.50 5.38 
24.13 -63.58 5.26 
23.71 -63.59 5.22 
23.30 -63.59 5.18 
22.93 -63.57 5.15 
22.58 -63.46 5.12 
21.47 -63.54 5.01 
20.87 -63.48 4.96 
20.30 -63.44 4.91 
20.55 -63.47 4.93 
20.03 -63.44 4.88 
18.65 -63.45 4.75 
17.82 -63.42 4.68 
18.01 -63.40 4.70 
17.53 -63.38 4.65 
17.26 -63.35 4.63 
41.47 -64.02 6.89 
33.87 -66.28 6.03 
34.92 -63.11 6.32 
33.69 -66.06 6.02 
32.71 -65.89 5.94 
32.20 -65.75 5.90 
32.51 -65.37 5.95 
32.26 -65.19 5.94 
32.29 -64.86 5.96 
32.03 -64.75 5.94 
31.96 -64.41 5.96 
31.66 -64.10 5.95 
31.62 -63.84 5.96 
17.50 -63.47 5.18 
17.21 -63.38 5.16 
30.33 -63.87 6.63 
29.70 -63.87 6.56 
29.16 -63.85 6.50 
28.61 -63.83 6.44 
27.33 -63.71 6.29 
27.09 -63.79 6.26 
26.65 -63.76 6.21 
26.17 -63.75 6.16 
25.72 -63.73 6.11 
25.27 -63.71 6.06 
24.85 -63.70 6.01 
24.41 -63.68 5.96 
24.01 -63.66 5.91 
23.60 -63.67 5.87 
23.24 -63.64 5.83 
22.83 -63.64 5.78 
22.48 -63.62 5.74 
22.09 -63.62 5.70 
21.75 -63.60 5.66 
21.41 -63.59 5.62 
20.79 -63.55 5.55 
20.40 -63.57 5.51 
20.53 -63.51 5.52 
20.04 -63.53 5.47 
19.58 -63.55 5.41 
19.14 -63.54 5.36 
18.70 -63.53 5.31 
18.29 -63.49 5.27 
17.77 -63.48 5.21 
40.83 -64.21 7.85 
40.34 -64.08 7.80 
39.91 -64.16 7.74 
39.01 -64.13 7.64 
39.40 -64.06 7.69 
34.81 -65.23 7.07 
33.88 -65.48 6.94 
34.09 -65.15 6.99 
32.40 -65.47 6.77 
32.07 -65.23 6.75 
32.42 -63.61 6.90 
31.85 -65.11 6.73 
31.82 -64.73 6.75 
31.83 -64.33 6.78 
31.99 -64.00 6.82 
31.31 -64.00 6.74 
30.92 -63.89 6.70 
22.80 -63.67 6.42 
22.41 -63.67 6.37 
22.04 -63.66 6.32 
21.69 -63.65 6.27 
21.07 -63.60 6.19 
20.74 -63.59 6.15 
20.33 -63.62 6.09 
20.47 -63.56 6.11 
19.99 -63.57 6.05 
19.39 -63.58 5.97 
19.08 -63.58 5.93 
18.64 -63.57 5.87 
18.22 -63.55 5.82 
17.69 -63.52 5.75 
17.79 -63.49 5.76 
17.46 -63.50 5.72 
17.03 -63.50 5.66 
16.65 -63.49 5.61 
29.68 -63.91 7.35 
29.09 -63.90 7.27 
28.54 -63.89 7.19 
28.05 -63.86 7.12 
27.51 -63.86 7.05 
25.21 -63.76 6.74 
24.80 -63.74 6.69 
24.38 -63.71 6.63 
23.94 -63.71 6.57 
23.56 -63.70 6.52 
23.16 -63.70 6.47 
19.09 -63.58 6.51 
18.81 -63.57 6.47 
18.21 -63.52 6.38 
17.68 -63.54 6.30 
17.87 -63.52 6.33 
17.41 -63.53 6.26 
17.03 -63.51 6.20 
16.64 -63.50 6.15 
34.91 -62.65 8.17 
33.69 -65.09 7.82 
33.04 -65.73 7.68 
33.16 -65.49 7.71 
33.77 -63.34 7.96 
32.21 -65.53 7.57 
32.62 -65.17 7.66 
31.96 -65.20 7.56 
31.94 -64.85 7.59 
32.25 -64.19 7.68 
31.81 -64.63 7.59 
31.22 -64.05 7.55 
30.75 -63.87 7.50 
23.54 -63.73 7.19 
23.16 -63.72 7.13 
22.78 -63.70 7.07 
22.63 -63.61 7.06 
21.12 -63.66 6.82 
20.71 -63.62 6.76 
20.33 -63.63 6.70 
20.46 -63.57 6.72 
19.85 -63.61 6.62 
19.39 -63.59 6.55 
40.72 -64.28 8.86 
40.24 -64.16 8.80 
39.79 -64.24 8.73 
39.63 -64.03 8.73 
29.64 -63.95 8.14 
29.10 -63.93 8.06 
28.58 -63.90 7.97 
28.05 -63.88 7.89 
27.95 -63.72 7.89 
26.98 -63.88 7.72 
26.57 -63.83 7.66 
26.10 -63.82 7.59 
25.64 -63.81 7.51 
21.66 -63.69 7.53 
20.31 -63.65 7.30 
20.03 -63.62 7.25 
18.51 -63.57 6.99 
18.20 -63.54 6.94 
17.80 -63.55 6.87 
17.32 -63.50 6.80 
34.92 -62.95 9.08 
33.38 -65.46 8.62 
32.75 -65.12 8.54 
32.46 -64.95 8.51 
32.48 -64.41 8.56 
32.18 -64.79 8.48 
32.29 -64.26 8.54 
31.66 -63.97 8.46 
31.17 -64.00 8.38 
30.81 -63.99 8.32 
30.67 -63.82 8.32 
26.05 -63.87 8.30 
25.60 -63.85 8.22 
25.12 -63.84 8.13 
24.82 -63.77 8.09 
24.30 -63.79 7.99 
23.91 -63.77 7.92 
22.66 -63.60 7.72 
19.05 -63.63 7.67 
18.61 -63.55 7.59 
17.65 -63.56 7.41 
39.99 -64.22 9.80 
39.52 -64.11 9.73 
39.11 -64.18 9.66 
38.63 -64.08 9.59 
38.23 -64.14 9.52 
29.92 -63.88 9.00 
29.24 -63.89 8.87 
29.49 -63.83 8.93 
28.94 -63.81 8.83 
28.70 -63.87 8.78 
28.12 -63.88 8.67 
27.41 -63.95 8.54 
26.98 -63.90 8.46 
26.52 -63.88 8.38 
23.05 -63.62 8.46 
22.78 -63.73 8.39 
22.21 -63.74 8.27 
21.88 -63.71 8.21 
21.35 -63.69 8.11 
21.63 -63.72 8.16 
21.03 -63.67 8.05 
20.67 -63.66 7.98 
19.76 -63.58 7.81 
19.60 -63.51 7.79 
17.92 -63.58 8.03 
17.65 -63.57 7.97 
17.25 -63.56 7.89 
16.78 -63.52 7.80 
40.94 -64.26 9.95 
31.08 -63.93 9.21 
30.63 -63.87 9.13 
30.37 -63.93 9.08 
26.43 -63.74 9.12 
26.10 -63.76 9.05 
25.64 -63.75 8.96 
25.32 -63.76 8.89 
24.77 -63.71 8.79 
24.46 -63.72 8.72 
24.06 -63.70 8.65 
23.53 -63.68 8.54 
23.25 -63.70 8.49 
20.59 -63.60 8.60 
20.11 -63.58 8.50 
19.80 -63.56 8.43 
19.19 -63.55 8.30 
18.95 -63.52 8.26 
18.56 -63.55 8.17 
18.15 -63.63 8.07 
16.52 -63.41 8.31 
38.18 -64.20 10.50 
37.72 -64.08 10.42 
37.32 -64.19 10.34 
35.56 -64.18 10.01 
35.13 -63.76 9.97 
35.11 -63.49 9.99 
35.11 -63.20 10.02 
35.12 -62.76 10.06 
29.21 -63.93 9.67 
29.47 -63.86 9.73 
28.90 -63.85 9.61 
28.55 -63.85 9.54 
28.06 -63.82 9.44 
27.60 -63.88 9.34 
27.23 -63.83 9.27 
26.79 -63.79 9.19 
23.90 -63.71 9.31 
23.53 -63.70 9.23 
23.26 -63.71 9.17 
22.71 -63.69 9.05 
22.29 -63.66 8.96 
21.77 -63.65 8.85 
21.44 -63.63 8.78 
21.08 -63.63 8.70 
18.50 -63.50 8.75 
17.12 -63.39 8.45 
40.85 -64.33 10.98 
39.90 -64.29 10.81 
38.56 -64.13 10.57 
31.41 -64.07 10.10 
31.05 -63.96 10.04 
26.76 -63.83 9.94 
26.28 -63.81 9.83 
25.94 -63.76 9.76 
25.64 -63.77 9.69 
24.22 -63.68 9.39 
21.83 -63.64 9.52 
36.52 -64.18 11.15 
35.58 -64.20 10.96 
35.19 -63.70 10.93 
35.21 -63.46 10.95 
35.23 -63.15 10.99 
35.22 -62.87 11.02 
35.18 -62.64 11.03 
29.72 -64.00 10.59 
28.92 -63.87 10.42 
28.50 -63.90 10.32 
24.60 -63.73 10.19 
22.94 -63.67 9.79 
39.93 -64.32 11.85 
39.01 -64.29 11.66 
38.54 -64.18 11.58 
38.10 -64.26 11.48 
37.67 -64.14 11.40 
37.30 -64.23 11.31 
36.87 -64.12 11.23 
31.52 -64.05 11.00 
30.90 -64.03 10.86 
30.27 -64.03 10.71 
25.22 -63.75 10.33 
40.82 -64.38 12.03 
35.34 -64.08 11.87 
35.35 -64.03 11.88 
29.25 -63.97 11.31 
28.24 -63.90 11.06 
27.94 -63.82 11.00 
27.56 -63.85 10.90 
38.08 -64.30 12.49 
35.70 -64.20 11.94 
36.04 -64.13 12.03 
35.37 -63.74 11.92 
35.37 -63.44 11.95 
35.38 -62.99 12.00 
30.43 -63.99 11.60 
29.86 -63.97 11.46 
40.81 -64.43 13.11 
40.33 -64.31 13.01 
38.95 -64.36 12.68 
36.48 -64.27 13.10 
35.51 -63.72 12.92 
38.63 -65.13 13.56 
38.29 -64.91 13.49 
38.17 -64.32 13.53 
37.36 -64.29 13.32 
36.89 -64.19 13.22 
20.11 -63.50 4.17 
19.92 -63.42 4.16 
19.84 -63.31 4.16 
18.61 -63.45 4.06 
18.74 -63.41 4.08 
18.27 -63.43 4.04 
17.76 -63.43 4.00 
17.36 -63.42 3.97 
17.17 -63.30 3.97 
32.75 -66.01 5.80 
31.78 -65.75 5.72 
31.77 -65.52 5.73 
32.01 -65.16 5.78 
31.97 -64.40 5.82 
31.20 -63.90 5.78 
31.47 -63.85 5.80 
30.88 -63.81 5.75 
30.56 -63.89 5.72 
29.94 -63.88 5.66 
29.40 -63.84 5.61 
28.82 -63.82 5.55 
28.08 -63.76 5.49 
27.64 -63.64 5.45 
26.23 -63.74 5.31 
26.45 -63.68 5.34 
25.98 -63.66 5.29 
25.63 -63.69 5.26 
25.27 -63.63 5.23 
23.99 -63.67 5.10 
23.66 -63.63 5.07 
23.15 -63.65 5.03 
23.32 -63.60 5.04 
22.71 -63.58 4.99 
21.30 -63.58 4.85 
21.03 -63.55 4.83 
20.69 -63.54 4.80 
20.28 -63.51 4.76 
19.98 -63.53 4.73 
19.89 -63.42 4.73 
18.45 -63.50 4.59 
18.75 -63.51 4.62 
18.17 -63.48 4.57 
17.68 -63.45 4.52 
17.30 -63.42 4.49 
41.48 -64.13 6.74 
34.05 -66.11 5.91 
34.02 -65.90 5.92 
34.83 -63.74 6.13 
34.84 -62.90 6.18 
33.23 -66.09 5.84 
33.77 -64.37 5.99 
32.84 -65.93 5.81 
32.97 -63.79 5.95 
32.90 -63.54 5.96 
18.50 -63.58 5.13 
18.08 -63.55 5.08 
17.57 -63.53 5.03 
17.26 -63.54 4.99 
17.36 -63.49 5.01 
16.98 -63.48 4.96 
31.69 -64.79 6.58 
31.65 -64.54 6.59 
31.14 -63.98 6.57 
30.77 -63.88 6.53 
30.48 -63.95 6.49 
30.03 -63.89 6.44 
28.15 -63.88 6.23 
27.57 -63.89 6.16 
27.06 -63.87 6.10 
26.27 -63.78 6.01 
25.95 -63.79 5.97 
25.50 -63.77 5.92 
25.16 -63.80 5.88 
24.75 -63.77 5.84 
24.92 -63.72 5.86 
24.39 -63.73 5.80 
23.97 -63.71 5.75 
23.47 -63.73 5.69 
23.64 -63.68 5.72 
23.14 -63.69 5.66 
22.77 -63.67 5.61 
22.26 -63.66 5.56 
21.83 -63.64 5.51 
21.46 -63.63 5.47 
21.04 -63.62 5.42 
20.61 -63.60 5.37 
20.11 -63.58 5.31 
20.33 -63.57 5.34 
19.73 -63.60 5.27 
19.27 -63.59 5.22 
18.92 -63.60 5.18 
40.88 -64.28 7.70 
40.34 -64.16 7.64 
39.88 -64.25 7.58 
39.57 -64.08 7.56 
38.33 -64.12 7.41 
34.35 -65.27 6.86 
33.46 -64.50 6.81 
32.74 -65.49 6.65 
33.03 -64.61 6.75 
32.75 -65.22 6.67 
31.96 -63.92 6.67 
31.81 -64.24 6.63 
23.42 -63.76 6.33 
23.59 -63.72 6.35 
23.12 -63.72 6.29 
22.62 -63.70 6.22 
22.15 -63.69 6.16 
21.67 -63.65 6.10 
21.88 -63.71 6.12 
21.41 -63.67 6.06 
20.98 -63.67 6.00 
20.56 -63.64 5.94 
20.30 -63.61 5.91 
19.69 -63.63 5.83 
19.21 -63.63 5.76 
18.88 -63.63 5.72 
18.44 -63.62 5.66 
18.03 -63.59 5.61 
17.53 -63.57 5.54 
17.28 -63.54 5.51 
16.89 -63.53 5.46 
31.05 -64.02 7.36 
31.19 -64.01 7.38 
30.71 -63.91 7.32 
29.22 -63.96 7.11 
28.65 -63.95 7.03 
27.01 -63.91 6.81 
26.56 -63.87 6.75 
26.08 -63.85 6.69 
25.35 -63.76 6.59 
25.03 -63.78 6.55 
24.69 -63.81 6.50 
24.35 -63.77 6.45 
23.95 -63.74 6.40 
20.15 -63.67 6.47 
19.79 -63.68 6.41 
19.34 -63.66 6.35 
18.91 -63.62 6.28 
18.61 -63.63 6.24 
18.01 -63.58 6.15 
17.62 -63.57 6.09 
17.32 -63.54 6.05 
16.83 -63.56 5.97 
34.93 -63.17 7.97 
34.89 -62.95 7.98 
33.53 -65.80 7.58 
33.91 -65.22 7.67 
33.29 -65.62 7.55 
32.93 -65.46 7.52 
33.39 -64.03 7.69 
32.50 -65.33 7.47 
32.59 -65.04 7.50 
32.33 -64.87 7.48 
32.34 -64.63 7.50 
32.34 -64.12 7.53 
31.68 -64.05 7.45 
25.44 -63.82 7.29 
24.26 -63.82 7.11 
23.30 -63.76 6.96 
22.90 -63.75 6.90 
22.63 -63.67 6.86 
21.33 -63.69 6.65 
20.79 -63.71 6.57 
20.44 -63.71 6.51 
18.01 -63.59 6.69 
17.60 -63.59 6.62 
17.26 -63.48 6.57 
41.23 -64.29 8.77 
40.73 -64.36 8.70 
40.19 -64.25 8.63 
39.71 -64.34 8.55 
30.97 -64.08 8.16 
30.67 -63.98 8.12 
30.38 -63.94 8.08 
29.77 -64.03 7.97 
29.47 -63.94 7.93 
29.20 -64.00 7.88 
28.76 -63.95 7.82 
28.10 -63.95 7.71 
27.97 -63.81 7.70 
21.15 -63.73 7.23 
20.81 -63.72 7.17 
20.46 -63.71 7.11 
20.04 -63.64 7.04 
18.88 -63.65 6.83 
18.36 -63.62 6.75 
35.04 -63.05 8.91 
33.25 -65.68 8.40 
32.71 -65.30 8.34 
32.41 -65.03 8.32 
32.33 -64.90 8.31 
32.18 -64.64 8.31 
31.30 -64.22 8.20 
31.23 -64.03 8.21 
26.48 -63.95 8.17 
26.01 -63.93 8.08 
24.60 -63.90 7.83 
23.39 -63.82 7.62 
22.99 -63.80 7.55 
22.71 -63.74 7.50 
19.51 -63.59 7.53 
18.74 -63.65 7.37 
18.31 -63.64 7.29 
18.02 -63.63 7.23 
17.61 -63.62 7.15 
17.31 -63.53 7.11 
40.98 -64.34 9.78 
40.42 -64.24 9.69 
39.95 -64.32 9.61 
39.47 -64.20 9.54 
39.03 -64.26 9.46 
30.21 -63.93 8.85 
29.94 -63.99 8.80 
29.48 -63.94 8.72 
29.03 -63.89 8.64 
28.64 -63.91 8.57 
28.24 -63.92 8.49 
27.72 -63.90 8.40 
26.88 -64.02 8.23 
23.95 -63.78 8.40 
23.54 -63.76 8.32 
22.14 -63.83 8.02 
21.82 -63.79 7.97 
17.74 -63.64 7.73 
16.92 -63.62 7.55 
16.66 -63.61 7.50 
31.15 -64.05 9.01 
27.01 -63.89 9.01 
26.68 -63.89 8.94 
26.19 -63.87 8.84 
25.73 -63.84 8.75 
25.26 -63.83 8.66 
24.81 -63.82 8.57 
24.39 -63.79 8.48 
21.63 -63.70 8.57 
21.27 -63.69 8.49 
20.93 -63.68 8.42 
20.42 -63.66 8.31 
19.93 -63.64 8.20 
19.53 -63.60 8.12 
19.22 -63.59 8.05 
16.95 -63.45 8.13 
16.70 -63.43 8.07 
38.75 -64.39 10.40 
37.99 -64.32 10.26 
37.14 -64.27 10.11 
36.08 -64.30 9.91 
35.12 -63.89 9.77 
35.13 -63.46 9.81 
35.12 -63.06 9.84 
35.15 -62.88 9.86 
29.80 -64.07 9.56 
29.47 -63.97 9.51 
28.97 -63.94 9.40 
28.62 -63.94 9.33 
28.21 -63.96 9.25 
27.40 -63.86 9.09 
24.37 -63.83 9.17 
23.94 -63.81 9.07 
23.52 -63.79 8.98 
23.12 -63.77 8.89 
22.69 -63.78 8.80 
22.32 -63.76 8.72 
21.99 -63.72 8.65 
20.15 -63.55 8.87 
18.76 -63.58 8.53 
18.33 -63.55 8.43 
40.90 -64.41 10.80 
39.89 -64.39 10.61 
31.78 -64.11 9.97 
31.15 -64.08 9.84 
30.82 -63.99 9.78 
27.15 -63.95 9.78 
26.88 -63.87 9.73 
26.65 -63.93 9.67 
26.17 -63.91 9.56 
25.67 -63.90 9.45 
20.78 -63.61 9.01 
20.45 -63.59 8.94 
37.14 -64.31 11.07 
36.30 -64.26 10.90 
35.49 -64.23 10.73 
35.23 -64.03 10.70 
35.22 -63.60 10.74 
35.24 -63.17 10.78 
35.21 -62.95 10.80 
30.49 -64.10 10.53 
29.84 -64.09 10.38 
29.30 -64.05 10.26 
28.74 -64.02 10.14 
28.44 -63.94 10.08 
28.32 -63.94 10.05 
25.16 -63.83 10.06 
39.91 -64.42 11.64 
39.38 -64.31 11.54 
38.95 -64.37 11.44 
38.45 -64.26 11.35 
38.00 -64.35 11.25 
37.55 -64.24 11.16 
31.59 -64.21 10.77 
31.12 -64.12 10.67 
27.76 -63.96 10.69 
27.46 -63.88 10.63 
26.43 -63.85 10.37 
25.97 -63.82 10.26 
25.46 -63.82 10.13 
40.86 -64.47 11.84 
35.41 -64.15 11.67 
35.37 -63.74 11.70 
35.38 -63.37 11.74 
35.35 -62.93 11.78 
28.85 -64.01 10.96 
27.99 -63.90 10.76 
38.40 -64.32 12.35 
38.01 -64.40 12.25 
37.49 -64.31 12.13 
36.22 -64.33 11.83 
40.84 -64.52 12.90 
40.34 -64.40 12.79 
38.91 -64.43 12.45 
37.26 -64.36 13.06 
36.72 -64.27 12.94 
35.55 -63.14 12.76 
38.04 -65.07 13.19 
21.02 -63.47 4.14 
20.59 -63.49 4.11 
20.25 -63.47 4.08 
19.93 -63.40 4.06 
18.66 -63.43 3.97 
18.37 -63.41 3.95 
17.88 -63.42 3.91 
17.35 -63.40 3.87 
17.16 -63.28 3.87 
33.08 -65.96 5.71 
32.73 -64.75 5.75 
32.91 -64.44 5.78 
31.83 -66.01 5.58 
31.80 -65.78 5.59 
31.86 -65.51 5.62 
31.91 -65.25 5.64 
32.00 -64.47 5.69 
31.19 -63.98 5.65 
30.73 -63.88 5.61 
30.05 -63.87 5.55 
29.59 -63.81 5.51 
29.14 -63.76 5.47 
28.86 -63.82 5.44 
28.39 -63.78 5.39 
27.87 -63.72 5.35 
27.35 -63.69 5.30 
26.60 -63.76 5.23 
26.08 -63.74 5.18 
25.50 -63.68 5.13 
25.31 -63.63 5.11 
24.23 -63.67 5.01 
23.88 -63.63 4.98 
23.37 -63.64 4.93 
22.96 -63.63 4.89 
22.57 -63.53 4.86 
21.41 -63.58 4.75 
21.04 -63.58 4.71 
20.69 -63.57 4.68 
20.35 -63.55 4.65 
20.01 -63.54 4.62 
19.85 -63.44 4.61 
18.43 -63.50 4.47 
18.17 -63.47 4.45 
17.74 -63.47 4.41 
17.27 -63.42 4.37 
17.19 -63.37 4.36 
34.83 -63.91 6.00 
34.04 -65.95 5.80 
34.28 -63.15 6.00 
19.61 -63.59 5.12 
19.28 -63.58 5.08 
18.98 -63.56 5.05 
18.51 -63.56 4.99 
18.08 -63.54 4.95 
17.79 -63.54 4.91 
17.51 -63.53 4.88 
16.94 -63.49 4.82 
16.57 -63.43 4.78 
31.70 -64.84 6.44 
31.71 -64.34 6.47 
31.91 -63.91 6.53 
31.60 -64.63 6.44 
31.19 -64.02 6.44 
30.67 -63.94 6.38 
29.39 -63.90 6.23 
29.05 -63.82 6.20 
28.78 -63.88 6.16 
28.31 -63.83 6.11 
27.57 -63.86 6.02 
27.02 -63.85 5.96 
26.48 -63.84 5.90 
25.98 -63.81 5.84 
25.13 -63.75 5.75 
24.69 -63.72 5.70 
24.22 -63.71 5.64 
23.70 -63.72 5.58 
23.88 -63.67 5.61 
23.36 -63.68 5.55 
22.86 -63.69 5.49 
22.44 -63.69 5.44 
22.06 -63.67 5.40 
21.69 -63.66 5.35 
21.31 -63.65 5.31 
20.97 -63.63 5.27 
20.62 -63.62 5.23 
20.25 -63.62 5.19 
19.94 -63.59 5.16 
16.69 -63.53 5.28 
41.00 -64.27 7.58 
40.44 -64.15 7.52 
39.75 -64.15 7.44 
33.55 -64.58 6.68 
32.72 -65.57 6.51 
32.57 -65.35 6.51 
32.65 -65.08 6.53 
24.55 -63.78 6.33 
24.19 -63.74 6.28 
23.65 -63.76 6.20 
23.87 -63.70 6.24 
23.33 -63.72 6.16 
22.93 -63.70 6.11 
22.52 -63.69 6.05 
22.05 -63.69 5.99 
21.65 -63.69 5.93 
21.30 -63.67 5.89 
20.92 -63.67 5.84 
20.57 -63.66 5.79 
20.23 -63.65 5.74 
19.73 -63.63 5.68 
19.26 -63.61 5.62 
18.90 -63.62 5.57 
18.62 -63.60 5.53 
18.01 -63.59 5.45 
18.30 -63.60 5.49 
17.74 -63.58 5.41 
17.27 -63.53 5.35 
16.92 -63.52 5.31 
31.22 -64.04 7.24 
30.70 -63.96 7.17 
28.73 -63.93 6.90 
28.28 -63.88 6.84 
27.96 -63.78 6.80 
27.01 -63.88 6.66 
26.50 -63.85 6.59 
25.99 -63.83 6.52 
25.37 -63.78 6.44 
24.75 -63.73 6.36 
20.88 -63.71 6.41 
20.54 -63.69 6.36 
20.23 -63.66 6.31 
19.71 -63.66 6.23 
19.24 -63.63 6.16 
18.94 -63.61 6.11 
18.39 -63.58 6.03 
17.97 -63.55 5.97 
17.61 -63.56 5.91 
17.27 -63.54 5.86 
16.87 -63.53 5.80 
34.93 -63.07 7.83 
33.90 -65.29 7.52 
33.58 -65.89 7.43 
33.59 -65.63 7.45 
33.18 -64.75 7.46 
33.46 -64.09 7.55 
32.87 -65.30 7.37 
32.46 -65.17 7.32 
32.35 -64.94 7.32 
32.36 -64.57 7.35 
32.41 -64.20 7.39 
25.99 -63.86 7.21 
25.41 -63.79 7.12 
24.10 -63.79 6.91 
23.76 -63.75 6.86 
23.26 -63.76 6.78 
23.44 -63.71 6.82 
22.91 -63.73 6.73 
22.63 -63.66 6.69 
21.38 -63.67 6.49 
18.92 -63.63 6.65 
18.40 -63.59 6.56 
18.02 -63.57 6.50 
17.61 -63.57 6.42 
17.30 -63.52 6.37 
17.27 -63.39 6.38 
40.90 -64.34 8.57 
40.32 -64.23 8.50 
31.24 -64.10 8.04 
31.23 -64.07 8.04 
30.77 -63.99 7.97 
30.42 -63.88 7.93 
29.33 -63.98 7.74 
28.72 -63.96 7.64 
26.97 -63.92 7.36 
26.51 -63.88 7.29 
23.23 -63.79 7.41 
22.82 -63.77 7.33 
22.70 -63.66 7.32 
21.17 -63.69 7.04 
21.44 -63.67 7.09 
20.83 -63.67 6.98 
20.47 -63.67 6.92 
20.09 -63.63 6.86 
17.63 -63.59 6.94 
17.32 -63.51 6.89 
35.06 -63.22 8.74 
33.38 -65.73 8.25 
32.83 -65.49 8.18 
32.48 -65.07 8.16 
32.19 -64.77 8.14 
32.13 -64.33 8.17 
27.12 -63.93 8.10 
26.69 -63.87 8.03 
25.42 -63.90 7.79 
24.96 -63.87 7.71 
24.54 -63.84 7.64 
24.05 -63.84 7.55 
23.66 -63.80 7.48 
21.27 -63.74 7.65 
20.91 -63.73 7.58 
20.54 -63.72 7.51 
20.02 -63.63 7.41 
18.79 -63.63 7.17 
18.33 -63.62 7.08 
18.06 -63.60 7.03 
16.67 -63.58 7.27 
41.19 -64.33 9.65 
40.12 -64.28 9.48 
39.55 -64.17 9.40 
31.32 -64.08 8.87 
31.07 -63.95 8.83 
30.60 -63.96 8.74 
30.13 -63.98 8.65 
29.51 -63.95 8.54 
28.90 -63.93 8.43 
28.16 -63.86 8.30 
27.67 -63.91 8.21 
23.83 -63.75 8.17 
23.40 -63.73 8.08 
22.93 -63.74 7.99 
22.33 -63.82 7.86 
22.01 -63.77 7.80 
21.61 -63.77 7.72 
19.55 -63.60 7.89 
17.48 -63.61 7.44 
16.93 -63.59 7.32 
35.35 -64.15 9.61 
35.13 -63.93 9.59 
35.13 -63.66 9.61 
35.13 -63.38 9.64 
35.14 -63.09 9.67 
27.15 -63.91 8.83 
26.69 -63.86 8.75 
26.93 -63.81 8.80 
26.40 -63.79 8.69 
26.17 -63.84 8.64 
25.89 -63.77 8.59 
22.58 -63.72 8.56 
22.00 -63.70 8.43 
21.44 -63.68 8.30 
21.07 -63.67 8.22 
20.73 -63.64 8.15 
18.38 -63.53 8.19 
17.95 -63.51 8.09 
16.72 -63.41 7.82 
38.65 -64.28 10.22 
37.98 -64.29 10.09 
37.54 -64.16 10.02 
37.11 -64.23 9.93 
36.05 -64.24 9.73 
35.11 -62.86 9.68 
30.97 -63.99 9.62 
29.75 -63.94 9.37 
29.51 -63.98 9.32 
28.89 -63.96 9.19 
28.30 -63.93 9.07 
28.11 -63.81 9.04 
25.61 -63.87 9.22 
24.26 -63.79 8.93 
23.79 -63.79 8.82 
23.40 -63.75 8.74 
22.93 -63.76 8.63 
20.44 -63.62 8.68 
19.57 -63.61 8.47 
19.13 -63.56 8.37 
18.84 -63.55 8.30 
41.17 -64.38 10.68 
40.01 -64.36 10.46 
31.40 -64.08 9.70 
28.29 -63.97 9.83 
27.17 -63.93 9.58 
26.65 -63.91 9.46 
26.34 -63.84 9.39 
26.03 -63.83 9.33 
37.56 -64.20 10.98 
37.11 -64.27 10.88 
36.20 -64.23 10.69 
35.36 -64.18 10.52 
35.22 -63.81 10.53 
35.23 -63.38 10.57 
35.21 -63.13 10.59 
30.76 -64.08 10.39 
30.04 -64.07 10.22 
29.62 -64.00 10.13 
28.90 -63.99 9.97 
25.48 -63.77 9.91 
40.09 -64.39 11.50 
39.05 -64.35 11.28 
38.52 -64.24 11.18 
38.01 -64.32 11.06 
31.44 -64.11 10.54 
27.84 -63.94 10.48 
26.76 -63.89 10.22 
41.16 -64.43 11.72 
36.21 -64.28 11.64 
35.38 -64.23 11.45 
35.37 -63.94 11.47 
35.37 -63.50 11.52 
35.39 -63.09 11.57 
30.86 -64.08 11.24 
30.23 -64.04 11.08 
29.23 -63.94 10.84 
28.67 -63.91 10.70 
38.99 -64.42 12.27 
38.07 -64.36 12.06 
37.50 -64.27 11.94 
41.15 -64.49 12.78 
40.58 -64.37 12.65 
40.10 -64.44 12.53 
35.49 -63.71 12.47 
38.12 -64.98 13.01 
37.20 -64.34 12.84 
36.73 -64.22 12.73 
35.53 -63.09 12.55 
21.34 -63.51 4.08 
20.97 -63.49 4.05 
20.34 -63.50 4.00 
20.70 -63.52 4.03 
20.00 -63.49 3.98 
19.84 -63.39 3.97 
18.37 -63.46 3.86 
18.07 -63.45 3.84 
17.63 -63.43 3.81 
17.20 -63.36 3.78 
33.26 -66.12 5.62 
33.03 -65.93 5.61 
32.99 -64.20 5.71 
32.54 -64.53 5.65 
31.79 -65.83 5.49 
31.84 -65.21 5.54 
31.63 -65.51 5.50 
31.73 -64.79 5.55 
31.80 -64.29 5.59 
31.16 -63.93 5.55 
30.67 -63.85 5.51 
29.93 -63.84 5.44 
29.26 -63.81 5.38 
29.55 -63.77 5.41 
28.92 -63.74 5.35 
28.63 -63.80 5.32 
27.96 -63.79 5.26 
27.36 -63.78 5.20 
26.81 -63.75 5.15 
27.05 -63.71 5.17 
26.52 -63.68 5.13 
26.28 -63.72 5.10 
25.74 -63.72 5.05 
25.27 -63.69 5.01 
24.93 -63.61 4.98 
24.68 -63.54 4.96 
23.94 -63.63 4.88 
23.62 -63.64 4.85 
23.33 -63.64 4.82 
22.98 -63.61 4.79 
22.59 -63.56 4.76 
21.28 -63.58 4.63 
20.54 -63.56 4.57 
20.34 -63.50 4.55 
20.02 -63.51 4.52 
19.83 -63.39 4.51 
18.67 -63.46 4.39 
18.44 -63.48 4.37 
18.06 -63.48 4.34 
17.62 -63.45 4.30 
17.26 -63.42 4.26 
34.87 -63.36 5.95 
34.83 -62.88 5.97 
20.25 -63.56 5.08 
20.00 -63.58 5.05 
19.57 -63.58 5.00 
19.15 -63.55 4.95 
18.84 -63.54 4.92 
18.44 -63.57 4.87 
18.42 -63.52 4.87 
18.00 -63.53 4.82 
17.54 -63.50 4.77 
17.10 -63.53 4.72 
16.77 -63.50 4.68 
32.75 -65.02 6.45 
32.39 -65.60 6.36 
31.93 -64.49 6.38 
31.96 -63.99 6.42 
31.92 -63.79 6.43 
30.56 -63.92 6.26 
29.86 -63.90 6.18 
29.20 -63.87 6.11 
29.50 -63.81 6.15 
28.84 -63.79 6.07 
28.54 -63.86 6.03 
27.94 -63.84 5.96 
27.34 -63.82 5.89 
26.73 -63.81 5.82 
27.01 -63.75 5.86 
26.45 -63.73 5.79 
26.15 -63.80 5.75 
25.60 -63.80 5.69 
25.09 -63.78 5.63 
24.59 -63.77 5.57 
23.89 -63.67 5.50 
23.70 -63.72 5.47 
23.33 -63.68 5.43 
22.90 -63.66 5.38 
22.38 -63.67 5.32 
21.98 -63.66 5.27 
21.57 -63.66 5.23 
21.23 -63.62 5.19 
20.81 -63.62 5.14 
17.42 -63.55 5.24 
17.09 -63.54 5.19 
16.69 -63.51 5.14 
33.28 -65.77 6.46 
33.24 -64.51 6.54 
32.92 -63.74 6.55 
32.66 -64.04 6.50 
25.11 -63.80 6.28 
24.63 -63.78 6.21 
24.16 -63.75 6.15 
23.43 -63.68 6.05 
23.22 -63.73 6.02 
22.89 -63.69 5.98 
22.37 -63.70 5.91 
22.55 -63.66 5.93 
21.98 -63.68 5.85 
21.57 -63.67 5.80 
21.18 -63.66 5.74 
20.79 -63.65 5.69 
20.43 -63.64 5.64 
19.88 -63.58 5.57 
19.55 -63.60 5.52 
19.14 -63.58 5.47 
18.73 -63.56 5.42 
18.23 -63.55 5.35 
18.44 -63.58 5.37 
17.94 -63.57 5.31 
17.64 -63.53 5.27 
32.72 -65.32 7.23 
32.43 -65.14 7.20 
32.20 -64.82 7.19 
32.21 -64.49 7.22 
32.37 -64.05 7.28 
31.21 -64.02 7.12 
29.13 -63.92 6.83 
29.45 -63.87 6.88 
28.80 -63.84 6.79 
28.51 -63.90 6.75 
28.09 -63.83 6.69 
26.36 -63.79 6.45 
26.00 -63.79 6.40 
25.65 -63.80 6.35 
25.34 -63.75 6.32 
21.57 -63.70 6.38 
21.19 -63.68 6.32 
20.80 -63.67 6.26 
20.40 -63.68 6.19 
20.04 -63.67 6.13 
19.52 -63.65 6.05 
19.07 -63.62 5.98 
18.57 -63.55 5.91 
18.16 -63.57 5.85 
18.35 -63.57 5.88 
17.90 -63.56 5.81 
17.53 -63.54 5.75 
17.12 -63.54 5.69 
16.78 -63.52 5.63 
34.92 -63.16 7.71 
33.19 -65.45 7.29 
33.60 -63.85 7.47 
33.11 -65.72 7.26 
26.31 -63.82 7.13 
25.90 -63.77 7.07 
25.52 -63.80 7.00 
25.31 -63.75 6.97 
24.15 -63.78 6.78 
23.45 -63.70 6.68 
23.12 -63.72 6.62 
22.68 -63.67 6.56 
18.29 -63.60 6.38 
17.84 -63.59 6.30 
17.42 -63.57 6.22 
17.22 -63.45 6.20 
41.21 -64.21 8.52 
40.74 -64.26 8.45 
32.18 -64.75 8.01 
32.17 -64.55 8.03 
31.20 -64.06 7.91 
30.78 -63.96 7.85 
30.44 -64.03 7.79 
29.82 -63.98 7.69 
29.16 -63.95 7.58 
28.52 -63.93 7.48 
28.09 -63.87 7.42 
23.66 -63.80 7.33 
23.12 -63.74 7.24 
22.75 -63.69 7.17 
21.58 -63.72 6.96 
21.18 -63.70 6.89 
20.81 -63.68 6.82 
20.09 -63.66 6.69 
20.44 -63.68 6.75 
20.01 -63.52 6.69 
18.45 -63.62 6.92 
18.14 -63.61 6.86 
17.86 -63.59 6.81 
17.45 -63.56 6.73 
35.05 -63.44 8.59 
35.04 -63.19 8.61 
33.30 -65.72 8.12 
33.18 -65.54 8.11 
32.98 -65.32 8.10 
32.96 -64.98 8.12 
32.90 -64.59 8.14 
32.63 -64.93 8.07 
27.79 -63.79 8.09 
27.52 -63.85 8.04 
26.60 -63.94 7.86 
25.86 -63.81 7.73 
25.47 -63.84 7.66 
25.10 -63.86 7.59 
24.57 -63.86 7.49 
24.81 -63.79 7.54 
24.10 -63.82 7.41 
21.97 -63.75 7.62 
21.55 -63.74 7.54 
21.07 -63.69 7.44 
20.79 -63.71 7.38 
20.06 -63.69 7.24 
20.43 -63.70 7.31 
19.86 -63.61 7.21 
18.77 -63.62 6.99 
16.98 -63.59 7.13 
16.66 -63.53 7.07 
40.97 -64.26 9.50 
40.38 -64.15 9.41 
31.35 -64.03 8.73 
31.05 -63.91 8.69 
30.72 -63.98 8.62 
30.35 -63.89 8.56 
30.05 -63.94 8.50 
28.73 -63.90 8.26 
25.35 -63.79 8.31 
25.08 -63.72 8.27 
24.86 -63.77 8.21 
24.37 -63.74 8.11 
23.89 -63.73 8.02 
23.45 -63.71 7.93 
23.00 -63.69 7.84 
22.29 -63.80 7.68 
20.25 -63.56 7.86 
19.72 -63.55 7.74 
19.25 -63.57 7.64 
19.56 -63.59 7.70 
16.64 -63.41 7.57 
35.50 -64.17 9.50 
35.13 -63.74 9.47 
35.12 -63.48 9.49 
35.11 -63.13 9.52 
28.13 -63.89 8.88 
27.14 -63.83 8.68 
25.88 -63.80 8.42 
22.57 -63.70 8.37 
22.15 -63.69 8.28 
21.77 -63.67 8.19 
18.81 -63.49 8.09 
19.11 -63.51 8.16 
18.50 -63.48 8.02 
18.18 -63.48 7.94 
17.75 -63.45 7.84 
17.33 -63.43 7.74 
17.05 -63.42 7.67 
39.80 -64.28 10.30 
38.66 -64.25 10.09 
37.64 -64.21 9.90 
37.09 -64.10 9.80 
36.00 -64.10 9.60 
31.40 -64.05 9.55 
30.85 -63.97 9.44 
29.39 -63.94 9.14 
28.76 -63.92 9.01 
24.11 -63.71 8.72 
23.63 -63.70 8.61 
21.45 -63.64 8.72 
20.70 -63.62 8.54 
19.44 -63.52 8.24 
40.97 -64.32 10.52 
40.34 -64.20 10.41 
28.75 -63.96 9.76 
27.06 -63.87 9.38 
26.66 -63.80 9.30 
26.36 -63.87 9.22 
23.30 -63.65 9.18 
37.69 -64.24 10.86 
36.68 -64.20 10.65 
36.17 -64.10 10.55 
35.23 -64.02 10.36 
35.22 -63.64 10.39 
35.24 -63.19 10.44 
35.20 -62.98 10.45 
31.50 -64.06 10.39 
30.74 -64.05 10.22 
29.84 -63.98 10.02 
29.40 -63.97 9.91 
24.47 -63.76 9.46 
40.99 -64.37 11.55 
40.41 -64.24 11.44 
39.87 -64.31 11.32 
39.28 -64.20 11.20 
38.73 -64.28 11.08 
28.26 -63.92 10.41 
27.65 -63.90 10.25 
36.18 -64.15 11.48 
35.71 -64.21 11.37 
35.36 -64.05 11.30 
35.37 -63.76 11.33 
35.39 -63.47 11.37 
35.37 -63.20 11.39 
30.21 -64.00 10.90 
29.15 -63.89 10.64 
38.77 -64.33 12.08 
37.72 -64.28 11.83 
40.97 -64.43 12.59 
40.42 -64.30 12.47 
35.55 -63.76 12.30 
38.16 -65.10 12.84 
37.81 -64.89 12.77 
36.82 -64.27 12.58 
21.42 -63.46 3.95 
21.09 -63.44 3.93 
20.61 -63.45 3.89 
20.23 -63.45 3.87 
19.90 -63.35 3.85 
18.57 -63.38 3.75 
18.27 -63.36 3.72 
17.74 -63.37 3.68 
17.22 -63.32 3.65 
33.08 -65.98 5.48 
32.88 -64.45 5.56 
32.87 -64.40 5.56 
32.58 -64.27 5.54 
31.83 -65.72 5.38 
31.92 -64.40 5.47 
31.71 -65.40 5.38 
31.81 -64.06 5.48 
31.18 -63.88 5.43 
30.60 -63.79 5.38 
30.20 -63.71 5.34 
29.85 -63.77 5.30 
29.43 -63.70 5.27 
29.11 -63.76 5.23 
28.40 -63.75 5.17 
28.08 -63.66 5.14 
27.73 -63.73 5.10 
27.40 -63.66 5.07 
27.11 -63.72 5.04 
26.55 -63.69 4.99 
25.77 -63.64 4.92 
25.32 -63.59 4.88 
23.87 -63.60 4.74 
23.38 -63.59 4.69 
23.01 -63.55 4.66 
22.63 -63.51 4.62 
20.90 -63.49 4.46 
20.52 -63.47 4.42 
20.16 -63.46 4.39 
19.89 -63.40 4.37 
18.68 -63.44 4.25 
18.11 -63.40 4.20 
17.73 -63.38 4.16 
17.28 -63.35 4.12 
34.81 -62.93 5.84 
20.80 -63.55 4.98 
20.43 -63.53 4.94 
20.04 -63.53 4.90 
19.60 -63.53 4.84 
19.25 -63.52 4.80 
18.92 -63.51 4.77 
18.58 -63.50 4.73 
18.01 -63.46 4.66 
17.70 -63.46 4.63 
17.31 -63.45 4.58 
16.89 -63.45 4.53 
33.32 -65.83 6.32 
33.42 -65.56 6.35 
32.58 -65.49 6.26 
32.59 -65.01 6.29 
32.79 -64.71 6.33 
32.45 -65.28 6.25 
32.62 -64.02 6.36 
31.86 -64.69 6.22 
32.10 -63.95 6.30 
31.63 -64.51 6.21 
31.19 -63.91 6.20 
30.46 -63.86 6.11 
30.08 -63.77 6.07 
29.74 -63.84 6.03 
29.35 -63.75 5.99 
29.02 -63.83 5.94 
28.32 -63.81 5.86 
27.67 -63.79 5.78 
27.31 -63.72 5.75 
26.99 -63.79 5.70 
26.39 -63.77 5.63 
25.79 -63.75 5.56 
25.37 -63.70 5.52 
24.88 -63.67 5.46 
24.23 -63.69 5.38 
23.77 -63.66 5.33 
23.27 -63.66 5.27 
22.91 -63.62 5.23 
22.46 -63.60 5.18 
21.91 -63.62 5.11 
21.50 -63.60 5.06 
18.20 -63.53 5.17 
17.58 -63.48 5.09 
17.22 -63.48 5.04 
16.87 -63.48 4.99 
33.79 -64.53 6.46 
33.30 -64.38 6.42 
25.54 -63.69 6.18 
25.26 -63.74 6.14 
24.85 -63.71 6.08 
24.46 -63.67 6.03 
24.22 -63.71 6.00 
23.72 -63.70 5.92 
23.24 -63.69 5.86 
22.89 -63.65 5.81 
22.43 -63.63 5.75 
