# .PCD v0.7 - Point Cloud Data file format
VERSION 0.7
FIELDS x y z
SIZE 4 4 4
TYPE F F F
COUNT 1 1 1
WIDTH 2657
HEIGHT 1
VIEWPOINT 0 0 0 1 0 0 0
POINTS 2657
DATA ascii
25.77 32.91 4.47 
26.37 32.67 4.35 
26.94 33.26 4.30 
26.92 33.46 4.31 
41.14 29.62 3.81 
28.35 31.20 4.82 
29.78 31.45 4.57 
29.75 31.66 4.59 
28.51 32.41 4.85 
28.77 32.22 4.80 
28.95 32.69 4.79 
28.28 33.12 4.91 
28.38 33.58 4.92 
28.43 34.02 4.93 
29.08 34.04 4.78 
29.63 33.96 4.69 
28.41 34.26 4.94 
28.18 34.74 5.00 
28.50 34.49 4.94 
28.92 34.75 4.89 
29.63 34.64 4.72 
28.24 34.94 5.00 
29.01 35.21 4.90 
29.37 35.45 4.85 
27.47 35.86 5.17 
29.07 35.66 4.91 
38.36 29.73 4.37 
39.19 29.66 4.20 
39.41 29.70 4.16 
39.84 29.67 4.07 
40.28 29.65 3.98 
40.71 29.64 3.90 
27.66 31.85 4.96 
25.99 36.06 5.41 
36.62 29.77 4.72 
39.70 29.59 4.66 
40.17 29.58 4.55 
35.84 29.94 4.88 
28.84 34.02 5.65 
36.52 29.70 5.37 
37.69 29.67 5.11 
40.39 29.46 5.05 
40.84 29.45 4.94 
41.22 29.35 4.84 
35.93 29.74 5.50 
38.00 29.55 5.64 
38.52 29.53 5.51 
39.28 29.45 5.32 
39.81 29.45 5.19 
35.69 29.47 6.21 
36.57 29.50 5.99 
37.16 29.48 5.84 
41.50 29.49 1.08 
41.32 30.02 1.12 
31.76 31.74 1.82 
32.16 31.68 1.79 
32.48 31.72 1.78 
33.15 31.70 1.73 
34.98 31.63 1.61 
35.50 31.60 1.58 
36.07 31.59 1.54 
37.20 31.53 1.47 
37.57 31.54 1.44 
38.47 31.51 1.39 
39.71 31.48 1.31 
40.28 31.41 1.27 
40.83 31.45 1.23 
38.36 32.16 1.18 
39.72 31.99 1.09 
40.04 31.92 1.06 
40.45 31.98 1.04 
26.00 32.73 2.24 
26.31 32.59 2.21 
38.38 32.53 1.20 
26.00 33.10 2.26 
25.59 33.63 2.31 
27.58 33.60 2.18 
25.37 34.09 2.35 
25.64 33.88 2.32 
25.29 34.32 2.37 
26.08 34.65 2.33 
27.29 34.83 2.27 
28.04 34.69 2.21 
26.10 35.23 2.36 
28.34 35.13 2.22 
26.41 35.61 2.36 
26.16 35.83 2.39 
19.49 37.57 2.90 
31.74 42.51 2.37 
32.00 42.63 2.36 
32.39 42.77 2.34 
34.04 42.72 2.24 
32.64 42.92 2.33 
34.19 42.84 2.23 
34.88 42.90 2.19 
34.43 43.16 2.23 
34.78 43.36 2.22 
34.50 43.86 2.26 
34.76 43.63 2.23 
40.77 29.97 1.45 
40.95 29.93 1.43 
40.80 30.38 1.46 
40.81 30.72 1.48 
40.84 31.15 1.50 
40.86 31.48 1.51 
31.14 32.38 2.39 
31.59 32.26 2.35 
32.13 32.30 2.30 
32.72 32.20 2.25 
33.31 32.25 2.20 
34.22 32.19 2.12 
35.19 32.15 2.03 
36.06 32.10 1.95 
36.90 32.06 1.88 
37.30 31.98 1.84 
37.68 32.02 1.81 
38.05 31.95 1.77 
38.39 31.98 1.75 
39.61 31.90 1.64 
40.09 31.85 1.59 
40.40 31.89 1.57 
40.81 31.83 1.53 
40.70 29.35 1.96 
41.30 29.62 1.74 
41.50 29.43 1.54 
40.86 29.96 1.97 
41.34 29.89 1.75 
40.80 30.30 1.99 
41.32 30.31 1.60 
28.42 31.07 2.74 
40.84 30.68 2.00 
41.33 30.62 1.61 
27.01 31.44 2.88 
37.34 31.40 1.99 
37.73 31.37 1.95 
40.86 31.13 2.02 
41.35 31.00 1.63 
32.67 31.67 2.40 
33.05 31.61 2.37 
34.64 31.63 2.23 
36.25 31.55 2.09 
37.13 31.50 2.01 
38.65 31.49 1.88 
39.05 31.48 1.85 
40.24 31.45 1.74 
40.84 31.47 1.86 
41.24 31.40 1.66 
28.69 32.44 2.78 
29.26 32.38 2.73 
29.50 32.17 2.70 
40.04 31.81 2.13 
40.33 31.85 2.10 
40.77 31.80 2.05 
27.19 32.83 2.93 
27.66 32.69 2.88 
29.69 32.85 2.72 
25.06 33.66 2.98 
25.27 33.46 2.95 
29.45 33.27 2.76 
29.87 33.56 2.73 
30.05 33.55 2.72 
27.62 34.05 2.95 
28.96 33.81 2.83 
29.48 33.67 2.77 
27.19 34.31 2.83 
29.76 34.70 2.80 
30.10 34.81 2.78 
29.03 35.10 2.88 
29.29 34.92 2.85 
26.24 35.53 2.97 
29.29 35.43 2.88 
28.74 35.76 2.94 
28.91 35.97 2.94 
28.99 36.17 2.94 
41.30 29.50 2.03 
41.29 29.82 2.04 
41.32 30.81 2.07 
37.26 31.36 2.53 
41.32 30.96 2.08 
28.36 32.00 3.42 
33.35 31.62 2.97 
34.38 31.55 2.85 
36.34 31.55 2.64 
36.80 31.52 2.59 
37.14 31.47 2.55 
37.51 31.40 2.51 
38.19 31.47 2.44 
31.42 32.19 3.09 
31.93 32.23 3.04 
33.02 32.08 2.91 
34.19 32.16 2.79 
34.61 32.05 2.74 
35.05 32.10 2.69 
35.52 32.01 2.64 
35.95 32.05 2.59 
36.39 31.96 2.54 
36.78 31.93 2.50 
37.98 31.90 2.36 
38.31 31.94 2.33 
39.69 31.88 2.18 
28.95 32.75 3.39 
28.66 33.91 3.48 
29.09 33.74 3.42 
29.78 34.17 3.37 
29.25 34.65 3.45 
30.13 34.47 3.34 
29.18 35.02 3.47 
29.21 35.10 3.47 
28.25 35.53 3.60 
29.01 35.33 3.51 
28.17 36.25 3.65 
41.31 29.51 2.48 
40.79 29.94 2.51 
41.09 29.78 2.46 
40.80 30.29 2.52 
26.57 31.06 3.68 
40.82 30.77 2.53 
41.29 30.70 2.53 
40.84 31.07 2.54 
25.90 31.89 3.68 
26.67 32.02 3.61 
27.24 31.92 3.64 
28.24 31.95 3.43 
36.50 31.49 3.17 
37.38 31.50 3.06 
38.84 31.43 2.87 
40.87 31.51 2.55 
26.58 32.22 3.63 
27.20 32.37 3.67 
35.81 31.99 3.24 
36.79 31.82 3.11 
38.20 31.88 2.92 
38.62 31.82 2.86 
40.23 31.79 2.65 
40.82 31.77 2.57 
26.01 32.58 3.81 
26.81 32.76 3.62 
28.52 32.81 3.54 
26.87 33.14 3.64 
26.28 34.26 3.75 
28.57 34.37 3.61 
25.48 34.68 3.86 
26.60 34.52 3.73 
28.80 35.48 3.63 
29.21 35.31 3.58 
26.14 35.72 3.84 
27.70 36.01 3.68 
28.99 35.71 3.62 
29.78 35.91 3.55 
26.49 36.49 3.84 
29.10 36.18 3.63 
26.46 36.63 3.85 
41.25 29.50 2.98 
40.81 29.85 3.04 
41.28 29.71 2.97 
40.77 30.27 3.06 
41.23 30.34 2.99 
40.79 30.61 3.07 
41.25 30.64 3.00 
29.11 31.60 4.15 
40.83 31.02 3.07 
34.93 31.56 3.38 
39.99 31.41 3.20 
40.85 31.49 3.09 
29.07 32.04 4.17 
29.27 32.26 4.16 
31.80 32.18 3.78 
32.96 32.13 3.63 
33.49 32.04 3.55 
33.93 32.08 3.49 
34.41 31.99 3.43 
34.86 32.03 3.37 
39.99 31.71 3.23 
29.09 33.01 4.21 
28.80 33.26 4.26 
28.80 33.92 4.28 
28.86 33.98 4.28 
28.80 34.15 4.27 
28.99 34.36 4.25 
28.26 34.92 4.38 
29.17 34.83 4.25 
28.43 35.27 4.37 
29.16 35.53 4.29 
29.52 35.52 4.26 
28.69 35.89 4.37 
29.05 35.73 4.32 
28.95 36.13 4.34 
29.44 36.47 4.30 
41.11 29.69 3.53 
26.24 31.91 4.54 
26.11 32.12 4.55 
37.98 31.81 3.54 
27.72 32.81 4.35 
28.67 33.47 4.28 
28.64 33.72 4.30 
27.30 34.50 4.48 
28.55 34.55 4.34 
26.50 34.99 4.62 
27.47 34.90 4.50 
28.00 36.70 4.50 
38.03 29.81 4.08 
38.62 29.80 3.97 
40.16 29.73 3.70 
40.62 29.71 3.62 
28.91 33.51 4.98 
28.47 34.32 5.13 
28.52 34.10 5.12 
28.49 34.54 5.14 
28.70 34.58 5.11 
28.90 34.79 5.09 
29.37 35.28 5.04 
29.13 35.99 5.11 
35.79 29.99 4.48 
39.00 29.68 4.49 
39.53 29.67 4.38 
40.03 29.65 4.28 
41.44 29.60 4.00 
27.53 32.02 5.18 
28.03 34.98 5.23 
28.23 34.79 5.19 
27.18 35.43 5.39 
27.74 35.25 5.29 
27.75 35.70 5.31 
41.21 29.42 4.59 
36.02 29.80 5.09 
36.54 29.75 4.98 
38.86 29.61 5.12 
39.38 29.59 5.00 
39.67 29.54 4.93 
39.02 29.47 5.68 
40.15 29.45 5.40 
40.62 29.44 5.28 
40.92 29.39 5.21 
35.84 29.72 5.79 
36.70 29.44 6.25 
37.16 29.46 6.14 
37.44 29.38 6.07 
37.75 29.44 5.99 
40.87 29.51 1.20 
40.84 30.78 1.27 
40.84 31.09 1.29 
26.03 31.95 2.27 
27.20 31.93 2.20 
31.63 31.75 1.91 
32.49 31.75 1.85 
32.90 31.66 1.82 
33.98 31.72 1.76 
34.56 31.68 1.72 
35.15 31.65 1.68 
35.89 31.59 1.63 
36.32 31.60 1.60 
36.93 31.60 1.56 
37.43 31.57 1.53 
37.92 31.54 1.50 
38.41 31.53 1.47 
25.51 32.14 2.31 
39.53 31.96 1.17 
39.95 31.90 1.14 
40.31 31.94 1.12 
40.91 31.76 1.08 
25.45 32.71 2.35 
25.03 33.02 2.39 
28.17 32.85 2.18 
25.50 33.34 2.38 
25.13 34.04 2.44 
25.90 33.90 2.38 
27.89 33.97 2.26 
28.19 33.88 2.24 
24.94 34.31 2.46 
27.69 34.39 2.29 
27.55 34.81 2.33 
26.95 35.21 2.38 
27.60 35.08 2.34 
27.96 34.98 2.31 
25.85 35.47 2.47 
27.08 35.27 2.38 
26.53 35.88 2.44 
31.07 42.51 2.49 
31.44 42.58 2.48 
31.76 42.80 2.47 
33.55 42.82 2.35 
33.72 42.98 2.35 
34.34 42.91 2.31 
34.40 42.71 2.30 
34.22 43.19 2.33 
34.45 43.41 2.33 
34.38 43.58 2.34 
40.79 29.95 1.54 
41.07 29.88 1.52 
41.41 29.83 1.48 
40.82 30.22 1.55 
40.81 30.46 1.56 
40.84 30.65 1.57 
40.86 31.07 1.59 
40.88 31.38 1.60 
32.36 32.27 2.38 
32.86 32.16 2.33 
33.51 32.21 2.28 
34.04 32.12 2.23 
34.54 32.15 2.19 
35.01 32.05 2.14 
35.48 32.09 2.10 
36.41 32.05 2.02 
37.28 32.01 1.94 
38.09 31.96 1.87 
39.26 31.85 1.77 
39.60 31.89 1.74 
39.95 31.81 1.70 
40.33 31.86 1.67 
40.65 31.79 1.64 
40.91 31.73 1.62 
31.20 32.33 2.48 
40.77 29.54 1.71 
41.03 29.50 1.68 
41.40 29.43 1.65 
40.79 29.80 1.72 
41.43 29.77 2.02 
40.81 30.26 1.74 
40.82 30.63 1.75 
27.70 31.23 2.91 
40.83 30.98 1.77 
25.90 31.94 3.10 
28.54 31.61 2.85 
31.60 31.68 2.59 
34.17 31.67 2.37 
34.76 31.63 2.32 
35.08 31.56 2.29 
36.73 31.49 2.14 
37.89 31.48 2.04 
38.34 31.45 2.01 
39.08 31.50 1.94 
39.85 31.45 1.88 
26.85 32.26 3.03 
28.69 32.22 2.87 
40.90 31.79 2.16 
40.92 31.63 2.15 
26.80 32.98 3.07 
26.97 32.96 3.06 
28.76 32.94 2.90 
25.57 33.46 3.03 
25.27 33.73 3.06 
27.02 33.70 3.09 
29.33 33.58 2.88 
29.57 33.83 2.87 
25.23 34.28 3.10 
27.21 34.24 2.92 
24.90 34.48 3.13 
29.48 34.51 2.92 
25.07 35.02 3.15 
28.27 35.00 3.04 
26.26 35.38 3.06 
28.05 35.89 3.11 
28.28 35.68 3.08 
27.92 36.22 3.14 
40.74 29.39 2.08 
41.34 29.45 2.14 
40.80 29.89 2.15 
41.02 29.83 2.07 
40.81 30.22 2.17 
40.83 30.62 2.19 
40.87 30.63 2.12 
40.85 31.05 2.20 
34.14 31.63 3.00 
34.77 31.60 2.93 
35.71 31.51 2.83 
37.37 31.43 2.64 
39.89 31.42 2.37 
40.91 31.36 2.14 
31.51 32.14 3.21 
32.10 32.20 3.14 
32.71 32.10 3.07 
33.16 32.04 3.02 
34.33 32.08 2.89 
35.36 32.04 2.78 
36.25 31.99 2.68 
36.74 31.91 2.62 
38.06 31.93 2.48 
38.36 31.83 2.44 
39.54 31.85 2.31 
39.90 31.77 2.27 
40.23 31.82 2.24 
40.60 31.75 2.19 
29.19 33.96 3.55 
29.11 35.39 3.63 
29.54 35.17 3.57 
40.79 29.86 2.67 
41.05 29.79 2.61 
41.42 29.66 2.56 
40.80 30.17 2.67 
40.82 30.57 2.69 
26.01 31.53 3.88 
40.85 31.02 2.70 
26.40 31.65 3.85 
31.95 31.69 3.24 
40.89 31.42 2.69 
27.66 32.10 3.73 
28.45 32.19 3.54 
36.61 31.86 3.28 
40.09 31.76 2.81 
40.66 31.70 2.74 
26.01 32.46 3.82 
26.28 32.60 3.90 
28.39 32.46 3.61 
25.85 32.96 3.86 
27.99 33.13 3.64 
28.88 32.79 3.63 
29.02 32.74 3.51 
28.29 33.38 3.72 
27.38 33.94 3.84 
28.87 33.69 3.67 
27.04 34.13 3.89 
27.17 34.10 3.77 
27.21 34.52 3.82 
28.35 34.38 3.66 
28.03 34.90 3.72 
27.80 35.39 3.77 
28.22 35.23 3.81 
28.92 35.72 3.66 
26.41 36.33 3.97 
27.68 36.10 3.82 
28.60 36.35 3.82 
41.43 29.42 3.11 
40.76 29.77 3.22 
41.06 29.69 3.17 
40.78 30.17 3.22 
40.81 30.52 3.23 
35.91 31.54 3.40 
40.89 31.49 3.25 
31.30 32.08 3.99 
32.53 32.04 3.83 
33.67 31.99 3.67 
35.53 32.03 3.43 
36.17 31.95 3.34 
39.99 31.71 3.40 
40.26 31.62 3.35 
40.88 31.59 3.25 
29.47 34.44 4.34 
29.50 36.35 4.43 
28.68 31.84 4.36 
28.51 32.23 4.40 
28.04 32.63 4.48 
26.68 32.96 4.65 
28.38 32.93 4.45 
26.46 33.20 4.69 
28.40 33.76 4.45 
28.71 33.62 4.43 
28.24 34.06 4.51 
28.83 34.06 4.41 
27.37 34.57 4.64 
29.01 34.56 4.43 
26.52 35.05 4.77 
27.40 34.82 4.64 
28.84 35.37 4.47 
28.57 35.72 4.53 
29.00 35.66 4.47 
27.88 36.06 4.63 
38.01 29.77 4.27 
38.62 29.74 4.16 
39.21 29.72 4.06 
39.77 29.70 3.96 
40.29 29.67 3.86 
40.82 29.66 3.77 
41.31 29.64 3.68 
41.33 29.45 4.23 
37.51 29.82 4.36 
41.18 29.56 4.27 
28.56 34.09 5.28 
27.81 34.62 5.37 
28.52 34.45 5.31 
27.74 34.94 5.45 
29.11 34.85 5.23 
27.77 35.28 5.47 
27.86 35.78 5.48 
28.53 35.56 5.36 
40.80 29.44 4.92 
35.83 29.77 5.34 
36.51 29.74 5.21 
40.02 29.52 5.09 
40.53 29.50 4.98 
40.18 29.39 5.65 
37.69 29.60 5.62 
38.33 29.59 5.47 
37.68 29.37 6.27 
38.32 29.36 6.12 
38.64 29.29 6.04 
38.90 29.34 5.97 
39.20 29.27 5.90 
35.68 29.45 6.77 
36.04 29.37 6.68 
36.61 29.39 6.54 
41.39 29.40 1.25 
40.77 29.80 1.31 
40.76 30.21 1.33 
40.78 30.62 1.35 
40.80 30.96 1.37 
26.05 31.90 2.34 
27.13 31.84 2.27 
31.24 31.72 2.01 
32.08 31.69 1.95 
32.88 31.58 1.90 
34.53 31.64 1.80 
35.22 31.62 1.75 
35.84 31.58 1.71 
36.46 31.55 1.67 
36.98 31.53 1.64 
37.69 31.53 1.60 
38.73 31.48 1.53 
39.27 31.47 1.49 
39.64 31.43 1.47 
40.81 31.30 1.39 
25.44 32.09 2.39 
25.32 32.55 2.42 
27.23 32.60 2.30 
24.92 33.01 2.47 
25.56 32.84 2.42 
25.08 33.82 2.50 
27.00 33.56 2.37 
28.13 33.75 2.31 
25.02 34.07 2.52 
27.87 34.21 2.35 
28.07 33.94 2.32 
27.87 34.54 2.36 
26.97 35.08 2.45 
27.92 34.88 2.38 
25.79 35.43 2.54 
26.90 35.28 2.46 
25.58 35.92 2.58 
25.92 35.69 2.54 
31.27 42.54 2.55 
31.72 42.69 2.53 
31.93 42.88 2.53 
33.54 42.81 2.42 
34.28 42.89 2.38 
34.02 43.16 2.41 
34.35 43.17 2.39 
34.32 43.48 2.41 
40.89 29.85 1.65 
41.29 29.86 1.62 
40.76 30.14 1.67 
40.78 30.52 1.69 
40.80 30.96 1.71 
40.83 31.35 1.72 
35.54 32.01 2.21 
36.57 31.97 2.12 
37.07 32.01 2.08 
37.51 31.92 2.04 
38.84 31.92 1.92 
39.28 31.84 1.88 
39.67 31.89 1.85 
40.11 31.82 1.81 
40.47 31.85 1.78 
40.85 31.66 1.74 
31.38 32.30 2.58 
32.08 32.20 2.51 
32.75 32.24 2.46 
33.33 32.13 2.40 
33.94 32.18 2.35 
35.00 32.11 2.26 
36.09 32.06 2.16 
40.98 29.44 1.80 
41.36 29.37 1.77 
40.74 29.86 1.84 
40.76 30.12 1.85 
40.78 31.07 1.90 
36.62 31.50 2.27 
38.40 31.47 2.12 
40.18 31.36 1.96 
40.81 31.24 1.90 
25.82 31.99 3.21 
27.91 32.12 3.04 
28.98 32.07 2.95 
26.99 32.44 3.14 
28.79 32.55 2.99 
26.02 32.84 3.24 
26.95 32.94 3.16 
27.42 32.76 3.11 
29.34 32.89 2.96 
25.42 33.50 3.15 
24.74 33.74 3.22 
25.20 33.54 3.17 
28.60 33.66 3.06 
29.50 33.57 2.98 
25.17 34.32 3.21 
27.16 34.16 3.03 
29.19 34.45 3.04 
29.21 34.90 3.07 
26.23 35.45 3.17 
27.96 35.26 3.19 
29.25 35.14 3.07 
26.23 35.50 3.18 
27.97 35.73 3.21 
27.90 35.96 3.23 
40.71 29.46 2.36 
40.99 29.41 2.33 
41.31 29.38 2.29 
40.72 29.65 2.36 
40.86 29.84 2.30 
41.37 29.75 2.18 
40.74 30.16 2.38 
40.77 30.12 2.26 
40.74 30.33 2.39 
40.81 30.50 2.27 
40.76 31.00 2.41 
40.83 30.93 2.29 
36.73 31.50 2.86 
37.33 31.49 2.80 
39.18 31.35 2.59 
40.78 31.20 2.42 
40.85 31.32 2.30 
32.96 32.04 3.19 
34.78 32.04 2.99 
35.91 32.01 2.87 
36.60 31.92 2.79 
36.88 31.78 2.75 
37.84 31.92 2.65 
39.58 31.84 2.46 
40.35 31.80 2.37 
40.87 31.64 2.31 
32.40 32.16 3.25 
41.03 29.39 2.85 
41.24 29.34 2.82 
40.67 29.67 2.90 
41.00 29.79 2.81 
41.34 29.70 2.76 
40.75 30.05 2.86 
40.79 30.45 2.86 
27.90 31.33 3.81 
40.76 30.89 2.90 
40.82 30.99 2.87 
31.45 31.63 3.44 
31.90 31.54 3.39 
33.17 31.59 3.25 
40.81 31.15 2.88 
40.84 31.26 2.88 
25.37 32.17 4.12 
26.83 32.13 3.96 
27.77 32.05 3.86 
28.63 32.17 3.67 
40.70 31.67 2.91 
40.85 31.52 2.89 
25.69 32.38 3.99 
28.86 32.49 3.65 
28.10 33.32 3.88 
28.99 33.23 3.67 
28.88 33.73 3.71 
28.99 33.77 3.70 
27.21 34.18 4.01 
27.53 33.97 3.97 
29.46 34.05 3.66 
29.73 34.04 3.63 
27.16 34.43 3.93 
28.32 34.45 3.81 
28.83 34.23 3.74 
27.25 34.66 3.93 
28.78 34.99 3.78 
28.16 35.00 3.95 
29.24 35.29 3.75 
29.37 35.25 3.73 
28.59 35.63 3.83 
29.23 35.50 3.76 
28.98 35.99 3.81 
25.69 36.38 4.19 
28.57 36.45 3.97 
28.69 36.24 3.85 
32.05 32.08 4.07 
32.80 31.99 3.97 
33.47 32.04 3.88 
34.04 31.94 3.80 
35.68 31.94 3.59 
36.26 31.85 3.51 
37.67 29.46 3.89 
38.40 29.39 3.78 
39.71 29.36 3.58 
40.28 29.39 3.49 
41.41 29.35 3.32 
40.77 29.78 3.43 
41.09 29.63 3.38 
41.34 29.67 3.34 
40.75 30.06 3.45 
40.77 30.50 3.46 
40.81 30.88 3.46 
40.82 31.21 3.47 
27.99 31.97 4.60 
39.59 31.63 3.68 
39.98 31.66 3.62 
40.31 31.58 3.56 
40.79 31.56 3.49 
27.00 32.53 4.76 
28.39 32.37 4.57 
26.90 32.78 4.78 
27.97 32.58 4.63 
28.01 33.12 4.65 
28.56 33.35 4.61 
28.41 33.65 4.64 
28.35 33.91 4.67 
27.53 34.39 4.77 
28.21 34.26 4.70 
28.82 34.23 4.60 
27.30 34.89 4.83 
28.05 34.70 4.72 
26.81 35.08 4.92 
27.21 35.67 4.88 
28.20 35.44 4.74 
28.00 35.96 4.79 
27.43 36.19 4.87 
27.48 36.24 4.87 
39.50 29.68 4.25 
40.12 29.66 4.14 
40.70 29.64 4.04 
35.58 29.47 4.86 
35.97 29.82 4.88 
36.54 29.74 4.78 
37.61 29.79 4.59 
38.27 29.75 4.47 
38.85 29.70 4.37 
28.65 33.93 5.47 
28.59 34.44 5.51 
28.71 34.40 5.49 
28.52 34.67 5.53 
28.94 34.94 5.47 
29.38 35.19 5.42 
27.03 35.50 5.80 
27.15 35.42 5.78 
40.55 29.56 4.68 
41.08 29.53 4.57 
41.19 29.34 5.15 
37.98 29.64 5.19 
39.77 29.49 5.47 
36.34 29.44 6.24 
39.76 29.26 6.11 
40.36 29.25 5.96 
40.66 29.18 5.89 
35.96 29.52 6.32 
36.73 29.50 6.15 
37.79 29.31 6.60 
38.15 29.24 6.51 
38.48 29.30 6.43 
38.82 29.22 6.34 
41.44 29.39 1.33 
41.22 29.71 1.36 
41.23 30.06 1.38 
26.66 30.92 2.33 
41.24 30.51 1.40 
41.26 30.78 1.41 
41.29 30.95 1.42 
26.79 31.57 2.35 
27.55 31.76 2.31 
31.59 31.61 2.06 
31.97 31.65 2.03 
32.83 31.62 1.98 
33.35 31.51 1.94 
34.47 31.57 1.88 
35.28 31.56 1.83 
35.68 31.50 1.80 
35.99 31.53 1.78 
36.68 31.51 1.74 
38.35 31.42 1.63 
39.03 31.43 1.59 
39.60 31.41 1.55 
40.23 31.36 1.51 
27.89 32.28 2.32 
26.92 32.63 2.40 
28.52 32.63 2.30 
28.60 32.94 2.31 
26.36 33.05 2.45 
26.70 33.15 2.43 
28.57 33.14 2.32 
27.45 33.46 2.40 
28.49 33.86 2.36 
28.89 34.15 2.35 
28.55 34.57 2.39 
28.64 34.34 2.37 
28.04 34.77 2.43 
27.15 35.18 2.51 
28.25 35.03 2.43 
28.47 35.66 2.45 
31.49 42.36 2.58 
31.59 42.58 2.59 
32.22 42.71 2.56 
34.19 42.83 2.44 
34.73 42.58 2.39 
32.44 42.89 2.55 
34.39 43.21 2.44 
34.67 42.96 2.42 
34.74 43.34 2.43 
40.72 30.08 1.78 
41.16 29.90 1.73 
40.73 30.44 1.79 
40.76 30.86 1.81 
40.78 31.23 1.83 
38.79 31.88 2.02 
39.68 31.84 1.95 
40.10 31.88 1.91 
40.52 31.80 1.87 
40.80 31.73 1.85 
31.31 32.31 2.68 
31.94 32.19 2.62 
32.80 32.15 2.55 
34.10 32.19 2.44 
34.68 32.08 2.38 
35.28 32.13 2.33 
36.31 32.06 2.24 
36.92 31.98 2.19 
39.23 31.92 1.99 
41.20 29.44 1.89 
41.32 29.35 1.88 
41.21 29.65 1.90 
41.22 30.00 1.91 
41.23 30.32 1.93 
28.98 31.42 3.01 
33.17 31.59 2.67 
34.75 31.54 2.53 
36.18 31.48 2.41 
38.67 31.40 2.19 
39.57 31.35 2.11 
40.05 31.32 2.07 
41.24 31.16 1.96 
28.59 32.04 3.07 
27.21 32.41 3.03 
28.29 32.36 3.11 
29.26 32.45 3.04 
25.44 32.79 3.20 
25.48 33.26 3.22 
28.24 32.97 3.15 
29.83 32.98 3.01 
25.23 33.60 3.26 
30.45 33.53 2.99 
25.27 34.04 3.27 
29.42 34.10 3.10 
29.55 33.93 3.08 
25.14 34.43 3.30 
27.12 34.25 3.13 
24.93 34.71 3.34 
25.16 34.77 3.32 
29.58 34.72 3.12 
25.68 35.16 3.29 
28.39 35.23 3.24 
25.62 35.59 3.32 
28.40 35.55 3.25 
25.34 35.86 3.36 
25.90 36.14 3.32 
28.17 36.01 3.30 
40.69 29.40 2.36 
41.24 29.35 2.42 
41.48 29.35 2.40 
41.21 29.61 2.44 
41.33 29.74 2.31 
40.73 30.01 2.38 
41.15 29.96 2.40 
40.74 30.41 2.40 
41.21 30.45 2.47 
40.77 30.83 2.41 
41.24 30.96 2.48 
35.45 31.47 3.12 
36.16 31.44 3.04 
38.69 31.37 2.77 
40.79 31.25 2.43 
41.26 31.16 2.49 
36.70 31.89 2.90 
39.13 31.87 2.63 
39.52 31.78 2.59 
40.35 31.74 2.50 
40.79 31.70 2.45 
32.91 32.03 3.31 
36.12 32.00 2.96 
41.15 29.35 2.98 
41.36 29.30 2.95 
40.84 29.77 2.97 
41.22 29.66 2.95 
40.70 29.99 3.00 
41.15 30.05 3.00 
40.73 30.38 3.01 
40.77 30.77 3.02 
26.94 31.44 4.04 
28.33 31.45 3.89 
31.44 31.62 3.56 
40.80 31.12 3.03 
41.21 31.11 3.02 
26.76 31.97 4.08 
28.69 32.01 3.77 
39.39 31.73 3.23 
40.82 31.54 3.04 
31.18 32.26 3.51 
28.30 32.71 3.84 
28.31 33.18 3.96 
28.91 33.04 3.89 
26.37 33.54 4.09 
27.23 33.42 3.99 
29.54 33.38 3.74 
27.62 34.08 4.08 
28.38 33.73 3.98 
27.19 34.27 4.03 
29.63 34.24 3.77 
25.82 34.71 4.20 
28.99 34.65 3.89 
29.25 35.15 3.85 
29.75 35.13 3.80 
27.65 35.63 4.05 
28.20 35.51 4.03 
29.44 35.38 3.84 
27.71 35.87 4.15 
28.32 35.87 3.99 
28.41 36.23 3.99 
28.61 36.64 3.99 
27.88 36.92 4.08 
37.00 31.89 3.55 
32.21 32.10 4.19 
34.68 31.98 3.86 
39.01 29.38 3.85 
40.79 29.72 3.60 
41.20 29.66 3.54 
41.49 29.71 3.49 
40.70 29.96 3.62 
40.74 30.39 3.63 
40.75 30.70 3.63 
40.79 31.18 3.64 
40.80 31.56 3.65 
27.84 32.36 4.78 
31.55 32.06 4.28 
28.19 32.65 4.75 
28.45 32.48 4.73 
27.88 33.20 4.81 
28.16 32.92 4.76 
28.27 33.52 4.77 
28.08 33.82 4.81 
28.19 34.24 4.82 
27.95 34.50 4.86 
29.13 34.56 4.73 
28.38 35.05 4.83 
29.26 35.19 4.74 
28.13 35.59 4.88 
28.74 35.32 4.79 
26.14 36.07 5.17 
28.01 35.87 4.91 
27.29 36.35 5.03 
27.37 36.64 5.04 
40.65 29.63 4.24 
41.24 29.61 4.14 
36.36 29.38 4.91 
37.93 29.75 4.73 
38.67 29.71 4.59 
39.37 29.69 4.47 
28.67 33.73 5.62 
29.13 34.31 5.57 
28.92 34.82 5.63 
36.37 29.81 5.00 
39.83 29.58 5.03 
36.73 29.63 5.66 
41.25 29.36 5.37 
38.26 29.37 6.04 
39.09 29.54 5.86 
35.65 29.83 5.88 
40.28 29.24 6.24 
40.61 29.17 6.16 
41.47 29.20 5.95 
37.11 29.48 6.30 
37.51 29.40 6.21 
37.87 29.44 6.13 
38.95 29.27 6.57 
39.31 29.20 6.48 
39.79 29.22 6.36 
35.51 29.54 6.66 
36.24 29.26 7.24 
35.94 29.38 7.32 
41.32 29.36 1.43 
41.21 29.59 1.45 
41.22 30.00 1.48 
41.24 30.47 1.50 
27.32 31.25 2.41 
41.25 30.82 1.52 
26.97 31.71 2.46 
27.69 31.36 2.40 
31.71 31.62 2.16 
32.20 31.54 2.12 
32.66 31.59 2.10 
33.24 31.51 2.06 
34.44 31.55 1.98 
35.20 31.51 1.94 
35.93 31.47 1.89 
37.06 31.39 1.81 
38.17 31.46 1.75 
38.78 31.43 1.71 
39.37 31.41 1.67 
39.67 31.35 1.65 
40.10 31.36 1.62 
41.25 31.17 1.54 
28.96 31.81 2.34 
27.79 32.23 2.44 
28.26 32.44 2.42 
28.82 32.80 2.40 
28.31 33.22 2.46 
28.81 33.04 2.41 
28.18 33.70 2.49 
28.47 33.49 2.46 
28.41 33.99 2.49 
28.88 33.84 2.45 
28.45 34.24 2.50 
29.07 34.79 2.49 
29.23 34.57 2.47 
27.84 34.93 2.57 
28.27 35.22 2.56 
28.11 35.46 2.59 
31.68 42.32 2.71 
31.48 42.54 2.73 
32.11 42.67 2.70 
34.37 42.61 2.56 
32.01 42.93 2.72 
34.62 42.94 2.56 
34.43 43.30 2.59 
40.83 29.99 1.89 
40.73 30.36 1.91 
40.73 30.72 1.93 
40.77 31.21 1.95 
40.80 31.60 1.97 
32.39 32.26 2.72 
33.08 32.11 2.65 
34.47 32.09 2.53 
35.16 32.14 2.48 
36.39 32.10 2.37 
36.82 31.98 2.33 
38.44 31.97 2.19 
38.90 31.88 2.14 
39.40 31.93 2.10 
39.86 31.84 2.06 
40.33 31.88 2.02 
41.20 29.39 2.01 
41.20 30.01 2.04 
41.19 30.28 2.05 
26.33 30.93 3.35 
41.25 30.86 2.07 
34.76 31.51 2.66 
35.13 31.43 2.62 
35.49 31.48 2.59 
39.18 31.30 2.27 
40.12 31.35 2.19 
41.23 31.02 2.08 
33.06 31.56 2.81 
27.18 32.49 3.18 
28.26 32.07 3.24 
31.17 32.38 2.83 
31.62 32.22 2.78 
25.46 32.90 3.35 
26.79 32.61 3.39 
25.41 33.19 3.36 
29.28 33.04 3.20 
29.64 32.84 3.16 
24.98 33.50 3.42 
25.58 33.49 3.37 
27.36 33.47 3.39 
29.57 33.28 3.19 
25.16 33.75 3.41 
25.44 34.06 3.41 
25.18 34.34 3.44 
29.28 34.26 3.26 
25.44 34.77 3.44 
27.95 34.51 3.21 
25.69 35.23 3.44 
28.77 35.19 3.35 
25.55 35.55 3.47 
27.22 35.53 3.50 
25.45 35.93 3.50 
25.77 35.84 3.47 
27.87 36.33 3.49 
28.46 36.11 3.42 
41.23 29.58 2.52 
40.71 30.03 2.53 
40.89 29.87 2.51 
41.23 29.88 2.53 
40.73 30.29 2.54 
40.75 30.70 2.56 
41.24 30.82 2.62 
36.21 31.41 3.19 
38.26 31.35 2.96 
40.37 31.24 2.73 
40.78 31.18 2.57 
38.70 31.81 2.83 
40.81 31.57 2.59 
34.98 32.08 3.25 
35.47 31.96 3.19 
36.11 32.02 3.12 
36.70 31.91 3.05 
40.23 31.84 2.66 
41.14 29.74 3.10 
40.68 29.99 3.17 
40.97 29.87 3.15 
41.48 29.79 3.06 
40.72 30.25 3.17 
41.16 30.32 3.17 
40.75 30.67 3.19 
41.17 30.69 3.18 
33.91 31.49 3.44 
35.48 31.44 3.27 
40.77 31.09 3.20 
40.80 31.62 3.22 
27.54 32.16 4.16 
28.54 32.05 3.95 
31.43 32.16 3.64 
32.04 32.19 3.57 
39.99 31.76 3.33 
29.21 32.73 4.01 
27.72 33.10 4.09 
28.71 32.99 4.02 
29.52 33.47 3.91 
28.48 33.84 4.14 
28.69 33.76 4.11 
29.83 33.81 3.99 
28.74 34.23 4.10 
27.41 34.47 4.28 
28.54 34.46 4.06 
28.96 34.74 4.03 
29.10 35.11 4.10 
28.39 35.27 4.12 
29.38 35.54 4.02 
28.25 35.79 4.16 
28.01 36.21 4.21 
28.25 36.22 4.18 
28.08 36.61 4.22 
41.27 29.34 3.12 
39.59 31.73 3.38 
34.60 31.99 4.05 
38.98 31.79 3.46 
39.62 29.25 3.94 
40.10 29.24 3.87 
41.21 29.28 3.70 
40.36 29.70 3.85 
41.27 29.71 3.71 
40.71 30.24 3.82 
40.77 30.65 3.82 
40.77 31.20 3.84 
27.44 31.76 4.99 
28.22 32.55 4.92 
28.07 33.31 4.98 
28.13 33.86 5.00 
28.18 33.59 4.98 
28.28 34.20 5.00 
28.35 34.45 5.00 
29.67 34.48 4.82 
27.21 34.90 5.17 
27.27 35.46 5.19 
28.58 35.23 5.00 
26.16 35.72 5.35 
28.20 36.02 5.09 
40.73 29.23 4.36 
36.80 29.22 5.04 
40.42 29.65 4.50 
41.10 29.63 4.37 
37.55 29.78 5.01 
41.21 29.42 4.99 
35.71 29.83 5.34 
36.46 29.77 5.20 
41.38 29.09 5.40 
37.27 29.68 5.79 
38.08 29.66 5.62 
38.75 29.60 5.49 
39.50 29.58 5.34 
36.31 29.69 5.98 
37.39 29.46 6.50 
38.00 29.40 6.36 
41.33 29.18 6.26 
39.68 29.17 6.67 
40.35 29.15 6.50 
39.31 29.25 6.76 
40.00 29.23 6.59 
38.56 29.27 6.95 
36.17 29.35 7.55 
41.18 29.48 1.57 
41.17 29.86 1.59 
41.19 30.23 1.61 
41.22 30.70 1.63 
29.16 31.52 2.45 
37.18 31.33 1.93 
41.23 31.16 1.66 
29.07 31.71 2.47 
31.52 31.67 2.31 
32.41 31.60 2.25 
33.27 31.54 2.19 
34.39 31.55 2.12 
35.21 31.51 2.06 
35.64 31.43 2.03 
38.34 31.42 1.86 
38.69 31.35 1.83 
38.99 31.39 1.81 
39.76 31.40 1.76 
40.97 31.36 1.69 
28.60 32.16 2.52 
29.09 31.97 2.48 
28.86 32.59 2.53 
28.22 33.15 2.60 
28.49 32.93 2.57 
28.54 33.46 2.59 
27.48 33.59 2.67 
27.38 34.10 2.70 
28.55 33.98 2.62 
29.19 34.61 2.61 
29.56 34.50 2.58 
27.87 34.95 2.71 
29.27 34.84 2.62 
27.82 35.20 2.73 
28.02 35.49 2.73 
31.83 42.46 2.84 
33.61 42.59 2.73 
31.88 42.79 2.85 
34.43 42.65 2.68 
34.60 42.85 2.68 
34.01 43.16 2.74 
34.22 43.30 2.73 
40.70 29.98 2.05 
41.01 29.94 2.02 
40.69 30.37 2.07 
40.72 30.69 2.08 
40.75 31.18 2.10 
40.77 31.58 2.12 
34.88 32.13 2.66 
35.57 32.02 2.60 
36.23 32.07 2.54 
38.18 31.92 2.36 
38.69 31.96 2.32 
39.27 31.87 2.27 
39.69 31.90 2.23 
40.71 31.78 2.14 
41.15 29.66 2.18 
41.14 29.84 2.19 
41.18 30.26 2.20 
28.06 31.14 3.39 
33.92 31.37 2.89 
37.14 31.25 2.60 
41.19 30.97 2.23 
33.31 31.43 2.94 
34.72 31.51 2.82 
35.53 31.48 2.75 
39.94 31.35 2.36 
26.65 32.04 3.38 
26.71 32.28 3.39 
31.24 32.24 2.99 
32.91 32.13 2.84 
26.45 32.58 3.42 
29.07 32.68 3.37 
29.61 32.46 3.32 
31.94 32.28 2.93 
27.43 32.97 3.36 
27.40 33.35 3.47 
28.27 33.27 3.30 
29.67 33.23 3.35 
27.29 33.82 3.41 
28.13 33.70 3.33 
26.22 34.00 3.51 
28.05 34.05 3.53 
27.72 34.51 3.41 
27.97 34.95 3.41 
28.54 34.88 3.53 
27.16 35.53 3.51 
27.63 35.38 3.46 
28.05 35.23 3.42 
28.65 35.15 3.53 
26.60 35.76 3.57 
28.75 35.73 3.55 
28.33 35.95 3.60 
41.18 29.60 2.71 
40.79 29.95 2.71 
41.21 29.79 2.71 
40.71 30.34 2.73 
41.16 30.31 2.79 
40.73 30.65 2.74 
41.15 30.74 2.81 
40.75 31.14 2.76 
41.13 30.92 2.82 
40.78 31.52 2.78 
36.03 32.01 3.32 
38.50 31.90 3.04 
39.52 31.85 2.93 
40.00 31.75 2.87 
40.59 31.81 2.81 
40.80 31.68 2.78 
25.92 31.87 4.44 
34.67 31.46 3.55 
35.49 31.43 3.46 
28.69 32.05 4.24 
28.75 32.02 4.23 
32.89 32.09 3.67 
27.69 32.37 4.26 
28.05 32.65 4.24 
28.40 32.53 4.29 
28.59 32.82 4.28 
29.00 33.02 4.15 
28.72 33.36 4.30 
28.77 33.59 4.30 
28.92 33.72 4.24 
27.10 34.06 4.41 
27.82 34.50 4.35 
27.81 34.92 4.47 
28.80 34.94 4.27 
28.72 35.23 4.29 
27.08 35.53 4.58 
27.97 35.78 4.40 
29.03 35.49 4.27 
29.45 35.76 4.24 
27.90 36.03 4.42 
27.93 36.40 4.53 
28.14 36.31 4.41 
41.10 29.56 3.37 
40.67 29.99 3.39 
40.73 29.80 3.37 
41.29 29.75 3.30 
40.68 30.19 3.40 
40.69 30.31 3.40 
41.13 30.25 3.39 
40.71 30.61 3.41 
40.73 31.10 3.43 
40.77 31.42 3.43 
38.79 31.73 3.71 
39.79 31.77 3.58 
40.92 29.27 3.99 
41.31 29.24 3.93 
40.15 29.66 4.14 
40.52 29.71 4.08 
40.91 29.63 4.02 
41.25 29.69 3.97 
28.33 34.08 5.22 
28.27 34.46 5.25 
28.74 35.45 5.23 
36.84 29.31 4.62 
35.71 30.01 4.85 
36.29 29.88 4.75 
36.90 29.82 4.65 
37.24 29.85 4.60 
37.68 29.76 4.53 
38.16 29.82 4.46 
38.98 29.78 4.33 
39.76 29.74 4.20 
27.06 35.12 5.44 
27.18 35.57 5.45 
38.79 29.28 4.98 
39.57 29.66 4.94 
41.06 29.60 4.67 
37.06 29.34 5.29 
37.46 29.26 5.21 
37.93 29.23 5.13 
35.83 29.87 5.62 
36.48 29.66 5.49 
37.88 29.72 5.24 
38.75 29.69 5.08 
41.16 29.39 5.32 
40.11 29.53 5.53 
35.58 29.66 6.46 
36.94 29.70 6.18 
38.33 29.33 6.65 
38.73 29.39 6.55 
40.33 29.34 6.19 
35.59 29.42 7.27 
36.15 29.50 7.15 
37.89 29.42 6.75 
40.33 29.13 6.90 
39.15 29.23 7.19 
39.57 29.15 7.09 
36.14 29.25 7.95 
40.70 29.53 1.64 
40.93 29.48 1.62 
41.27 29.40 1.60 
40.71 29.83 1.65 
40.72 30.32 1.68 
26.75 31.05 2.59 
40.73 30.71 1.70 
27.67 31.49 2.55 
40.73 31.10 1.72 
28.27 31.87 2.54 
31.01 31.75 2.36 
32.04 31.69 2.29 
32.81 31.59 2.24 
34.20 31.61 2.15 
34.72 31.52 2.12 
35.22 31.59 2.09 
36.12 31.55 2.03 
36.65 31.45 1.99 
37.86 31.50 1.92 
38.29 31.43 1.89 
38.95 31.37 1.85 
40.09 31.42 1.78 
40.74 31.39 1.74 
28.54 32.14 2.53 
28.43 32.67 2.57 
25.25 33.10 2.79 
28.68 33.83 2.62 
28.21 34.05 2.66 
28.51 34.52 2.66 
29.11 34.91 2.65 
25.80 35.19 2.86 
28.80 35.15 2.68 
31.66 42.49 2.87 
31.44 42.78 2.90 
31.79 42.98 2.89 
33.50 42.78 2.77 
33.72 42.94 2.77 
33.81 43.18 2.78 
33.85 43.52 2.79 
41.06 29.92 2.09 
41.37 29.88 2.06 
40.74 30.19 2.13 
40.77 30.55 2.14 
40.79 30.99 2.16 
40.81 31.43 2.18 
37.93 32.00 2.46 
38.46 32.04 2.41 
39.67 31.97 2.31 
40.73 31.81 2.21 
35.61 32.14 2.66 
41.30 29.31 2.22 
40.65 29.89 2.30 
40.68 30.10 2.31 
40.70 30.73 2.33 
25.91 31.29 3.62 
40.72 31.03 2.35 
25.73 31.86 3.66 
33.13 31.57 3.02 
34.52 31.56 2.90 
38.34 31.42 2.57 
26.87 32.02 3.40 
32.95 32.14 2.89 
34.92 32.11 2.72 
26.49 32.46 3.54 
26.69 32.31 3.43 
28.58 32.53 3.28 
32.51 32.31 2.93 
34.19 32.23 2.79 
26.54 32.90 3.56 
28.26 33.35 3.35 
26.63 33.51 3.50 
28.17 33.65 3.37 
26.28 34.09 3.55 
27.34 33.89 3.45 
28.12 33.89 3.39 
28.94 34.22 3.51 
27.92 34.46 3.43 
27.53 34.77 3.48 
28.16 35.23 3.51 
28.30 35.06 3.43 
27.72 35.63 3.51 
28.58 35.66 3.61 
25.68 35.91 3.87 
27.02 36.03 3.76 
28.23 36.27 3.50 
40.63 29.45 2.92 
40.65 29.77 2.93 
41.29 29.82 2.75 
40.70 30.12 2.85 
40.73 30.56 2.90 
40.74 30.97 2.91 
40.81 31.36 2.87 
36.14 31.96 3.41 
38.17 31.97 3.19 
38.81 31.86 3.11 
39.35 31.89 3.05 
40.04 31.81 2.97 
40.54 31.86 2.92 
40.82 31.69 2.88 
37.27 31.44 3.36 
28.46 31.95 4.34 
34.83 32.06 3.55 
26.41 32.29 4.48 
32.15 32.24 3.85 
35.42 32.08 3.49 
27.68 32.65 4.36 
28.10 32.86 4.32 
29.01 33.36 4.25 
28.96 33.65 4.27 
27.07 34.13 4.50 
28.43 33.86 4.34 
27.03 34.41 4.52 
27.52 34.71 4.48 
28.06 34.77 4.42 
27.47 35.22 4.56 
28.99 35.07 4.33 
27.03 35.67 4.67 
29.01 35.56 4.40 
26.96 36.18 4.61 
27.78 35.88 4.51 
27.99 36.49 4.52 
37.52 29.49 3.96 
39.43 29.43 3.71 
40.70 29.95 3.52 
41.10 29.83 3.47 
40.72 30.12 3.53 
40.72 30.49 3.54 
40.77 30.92 3.55 
40.78 31.32 3.57 
38.61 31.80 3.87 
39.21 31.84 3.80 
39.86 31.75 3.71 
40.41 31.80 3.64 
40.81 31.69 3.58 
36.18 29.56 4.14 
36.86 29.52 4.05 
37.86 29.37 4.63 
38.12 29.41 4.59 
40.01 29.37 4.30 
40.85 29.28 4.17 
41.12 29.24 4.13 
36.55 29.80 4.87 
37.82 29.80 4.68 
38.27 29.86 4.61 
39.19 29.81 4.47 
40.07 29.78 4.33 
40.47 29.68 4.26 
40.90 29.74 4.20 
41.31 29.66 4.13 
28.29 34.40 5.36 
28.52 34.46 5.33 
27.53 34.87 5.50 
28.68 34.73 5.33 
27.83 35.12 5.46 
27.73 35.55 5.49 
36.06 29.48 4.91 
39.94 29.31 4.98 
40.91 29.23 4.81 
36.27 29.94 4.92 
40.69 29.66 4.94 
41.21 29.57 4.85 
35.75 30.10 5.01 
37.10 29.32 5.47 
37.45 29.38 5.41 
38.75 29.34 5.18 
39.39 29.34 5.07 
38.03 29.77 5.42 
38.99 29.73 5.25 
39.86 29.69 5.09 
36.01 29.86 5.78 
36.46 29.72 5.70 
40.47 29.57 5.70 
35.57 30.03 5.87 
36.54 29.30 6.32 
37.36 29.59 6.33 
41.48 29.34 6.21 
35.60 29.73 6.69 
36.37 29.63 6.53 
39.00 29.42 6.77 
38.09 29.46 6.97 
39.45 29.26 7.43 
40.28 29.23 7.22 
40.75 29.16 7.11 
40.70 29.43 1.71 
41.29 29.33 1.67 
40.70 29.85 1.74 
40.70 29.63 1.73 
40.71 30.16 1.75 
40.74 30.57 1.77 
26.29 31.34 2.71 
26.92 31.11 2.66 
27.51 31.26 2.63 
40.76 31.00 1.79 
26.24 31.64 2.73 
31.73 31.65 2.39 
32.40 31.56 2.34 
32.84 31.60 2.32 
34.05 31.58 2.24 
35.17 31.55 2.17 
36.09 31.51 2.11 
36.66 31.40 2.07 
37.94 31.45 1.99 
39.63 31.41 1.89 
40.51 31.34 1.83 
40.76 31.28 1.81 
26.40 31.90 2.73 
27.19 34.03 2.79 
27.93 34.39 2.77 
27.29 34.89 2.83 
29.06 34.81 2.72 
27.34 35.18 2.84 
31.70 42.71 2.95 
33.66 42.82 2.83 
33.69 43.05 2.84 
33.73 43.29 2.85 
33.93 43.51 2.85 
41.35 29.80 2.16 
40.74 30.07 2.22 
40.77 30.21 2.23 
41.26 29.96 2.17 
40.77 30.51 2.24 
40.80 30.85 2.26 
40.84 31.30 2.27 
36.80 31.96 2.65 
38.17 31.93 2.53 
39.48 31.88 2.42 
40.86 31.71 2.29 
38.76 31.97 2.48 
40.15 31.94 2.36 
40.68 29.36 2.37 
41.28 29.31 2.32 
40.67 29.63 2.39 
40.71 30.07 2.41 
40.72 30.40 2.42 
27.73 31.16 3.56 
40.73 30.89 2.44 
32.23 31.61 3.20 
33.34 31.57 3.10 
25.79 32.02 3.77 
26.91 31.99 3.50 
25.43 32.22 3.81 
28.73 32.45 3.36 
31.81 32.22 3.09 
32.72 32.26 3.01 
34.40 32.19 2.87 
35.27 32.07 2.79 
26.65 32.66 3.64 
28.72 32.75 3.38 
27.48 33.12 3.59 
27.37 33.35 3.70 
28.18 33.60 3.47 
28.56 33.89 3.54 
27.94 34.40 3.61 
28.26 34.21 3.49 
28.87 34.12 3.61 
28.90 34.35 3.62 
28.19 34.72 3.61 
28.53 34.68 3.49 
28.66 35.06 3.67 
28.89 35.10 3.48 
25.74 35.40 3.77 
27.92 35.70 3.59 
28.23 35.38 3.55 
28.72 35.45 3.69 
28.05 36.00 3.60 
40.66 29.39 3.04 
40.91 29.35 3.01 
41.33 29.30 2.96 
40.71 29.78 2.99 
41.36 29.73 2.86 
40.73 30.12 2.98 
41.08 29.89 2.90 
40.73 30.40 3.02 
40.77 30.82 3.00 
40.80 31.13 2.99 
40.82 31.26 2.99 
38.60 31.92 3.26 
39.83 31.86 3.12 
40.84 31.67 3.01 
26.04 31.86 4.62 
25.91 32.21 4.65 
35.22 32.02 3.63 
25.62 32.52 4.70 
28.21 32.98 4.44 
26.48 33.50 4.65 
28.19 33.38 4.51 
26.91 33.79 4.62 
28.21 34.01 4.59 
27.21 34.16 4.61 
27.90 34.26 4.63 
28.98 34.78 4.44 
28.78 35.06 4.48 
27.48 35.64 4.65 
29.01 35.36 4.47 
28.38 35.96 4.57 
27.97 36.24 4.62 
39.78 29.39 3.82 
40.43 29.36 3.73 
40.72 29.29 3.69 
40.99 29.34 3.66 
40.73 29.81 3.66 
40.73 30.11 3.67 
40.75 30.43 3.68 
40.78 30.79 3.69 
40.81 31.18 3.71 
39.68 31.80 3.88 
40.31 31.71 3.79 
40.81 31.63 3.73 
27.57 34.47 4.68 
26.87 35.60 4.81 
36.30 29.49 4.27 
37.76 29.40 4.82 
38.45 29.38 4.71 
39.12 29.35 4.61 
39.47 29.28 4.55 
40.24 29.29 4.43 
40.70 29.24 4.36 
41.06 29.24 4.31 
38.86 29.82 4.69 
37.91 29.86 4.84 
28.50 34.72 5.49 
28.09 35.00 5.56 
36.31 29.35 5.04 
40.95 29.25 4.99 
35.54 29.49 5.16 
36.25 29.85 5.09 
35.77 29.97 5.17 
37.81 29.38 5.54 
38.41 29.33 5.44 
39.73 29.29 5.21 
40.11 29.23 5.14 
40.37 29.27 5.09 
37.64 29.77 5.69 
38.14 29.66 5.59 
38.62 29.73 5.51 
39.12 29.63 5.42 
39.60 29.69 5.33 
40.47 29.64 5.18 
41.23 29.59 5.04 
40.64 29.10 5.72 
36.52 29.71 5.88 
38.09 29.19 6.23 
37.93 29.55 6.43 
35.82 29.64 6.86 
36.92 29.58 6.64 
40.51 29.35 6.67 
39.63 29.38 6.87 
40.93 29.18 7.33 
41.44 29.35 1.70 
41.06 29.55 1.74 
41.09 29.98 1.76 
41.10 30.40 1.78 
27.88 31.20 2.63 
41.11 30.82 1.80 
27.59 31.46 2.66 
32.51 31.48 2.36 
33.14 31.55 2.33 
34.38 31.52 2.25 
35.46 31.48 2.18 
36.48 31.43 2.12 
37.08 31.32 2.07 
38.08 31.34 2.01 
38.85 31.29 1.96 
40.15 31.32 1.89 
41.04 31.21 1.83 
26.76 31.69 2.72 
31.85 31.59 2.41 
26.63 35.56 2.93 
28.05 35.29 2.83 
26.70 35.81 2.94 
26.71 36.16 2.96 
32.04 42.63 2.96 
32.10 42.83 2.97 
34.01 42.95 2.86 
34.25 43.30 2.86 
41.27 29.73 2.23 
40.63 30.02 2.30 
41.06 29.90 2.26 
40.64 30.36 2.31 
40.69 30.84 2.33 
40.71 31.28 2.35 
40.73 31.62 2.37 
38.32 31.99 2.59 
39.73 31.93 2.47 
40.51 31.84 2.40 
40.75 31.83 2.38 
41.05 29.36 2.41 
41.03 29.65 2.42 
41.09 30.01 2.44 
41.09 30.33 2.45 
41.11 30.65 2.47 
26.51 31.46 3.73 
35.94 31.45 2.94 
26.24 32.02 3.79 
27.10 31.91 3.62 
32.38 31.55 3.24 
25.58 32.24 3.85 
28.67 32.38 3.42 
31.41 32.33 3.19 
32.84 32.17 3.06 
34.26 32.09 2.94 
35.04 32.12 2.87 
36.61 32.05 2.74 
28.52 32.72 3.45 
28.69 32.55 3.43 
25.95 32.89 3.85 
27.39 32.89 3.56 
27.88 32.88 3.69 
27.95 33.40 3.53 
28.40 33.89 3.52 
29.00 33.73 3.64 
29.02 33.83 3.64 
28.15 34.18 3.56 
28.40 34.33 3.72 
29.29 34.16 3.63 
27.68 34.47 3.61 
28.49 34.59 3.64 
28.88 34.70 3.70 
28.07 34.83 3.60 
28.44 34.80 3.56 
28.91 35.06 3.63 
29.14 34.95 3.69 
25.74 35.37 3.82 
28.99 35.34 3.72 
27.80 35.71 3.67 
27.84 36.01 3.68 
28.20 36.33 3.66 
40.68 29.90 3.04 
41.13 29.85 2.99 
40.64 30.33 3.07 
40.69 30.80 3.08 
40.70 31.24 3.10 
40.18 31.76 3.18 
40.72 31.58 3.11 
38.80 31.81 3.33 
39.46 31.86 3.26 
40.73 31.80 3.12 
41.06 29.32 3.09 
41.39 29.22 3.05 
41.03 29.58 3.10 
41.05 29.96 3.12 
41.05 30.37 3.13 
40.43 31.24 3.24 
31.18 32.26 4.17 
32.16 32.11 4.06 
33.16 32.16 3.96 
34.13 32.03 3.84 
26.54 32.47 4.68 
26.52 33.42 4.73 
27.29 33.79 4.67 
28.85 34.17 4.52 
29.01 34.48 4.52 
29.31 34.37 4.57 
28.28 35.05 4.62 
28.68 34.79 4.57 
29.06 35.38 4.56 
28.22 35.68 4.66 
28.04 36.13 4.70 
39.86 29.33 3.93 
40.53 29.31 3.84 
40.86 29.23 3.79 
41.17 29.29 3.76 
40.63 29.98 3.81 
40.59 30.16 3.82 
40.63 30.41 3.83 
40.65 30.71 3.84 
40.68 31.20 3.85 
39.95 31.69 3.97 
40.70 31.54 3.87 
39.29 31.80 4.06 
40.62 31.74 3.89 
26.07 33.08 4.76 
28.54 34.02 4.64 
38.81 29.28 4.06 
39.14 29.29 4.76 
39.85 29.28 4.65 
40.22 29.21 4.59 
40.49 29.26 4.55 
41.17 29.25 4.45 
28.34 34.46 5.62 
28.37 34.41 5.62 
28.56 34.72 5.61 
36.70 29.33 5.13 
38.04 29.26 4.92 
35.94 29.37 5.25 
35.64 29.99 5.35 
36.42 29.86 5.22 
37.74 29.84 5.02 
38.31 29.74 4.93 
38.07 29.18 5.68 
39.12 29.25 5.49 
39.80 29.23 5.37 
40.15 29.14 5.31 
40.49 29.21 5.25 
39.63 29.67 5.52 
40.14 29.57 5.42 
40.59 29.62 5.34 
41.12 29.50 5.25 
38.06 29.65 5.79 
35.57 29.93 6.25 
36.44 29.82 6.09 
37.56 29.77 5.89 
38.57 29.71 5.70 
38.01 29.11 6.45 
39.83 29.01 6.09 
40.79 29.05 5.90 
36.74 29.57 6.89 
37.88 29.53 6.66 
38.94 29.49 6.45 
35.55 29.62 7.13 
39.69 29.35 7.11 
40.18 29.26 6.99 
41.08 29.50 1.75 
41.09 29.94 1.77 
41.10 30.38 1.80 
41.13 30.93 1.83 
37.07 31.25 2.09 
38.53 31.30 2.00 
40.03 31.35 1.91 
41.04 31.24 1.85 
41.14 31.19 1.84 
28.97 31.70 2.59 
31.48 31.55 2.44 
32.04 31.59 2.41 
33.19 31.52 2.33 
34.66 31.50 2.24 
35.85 31.46 2.17 
36.93 31.42 2.10 
28.42 32.20 2.66 
29.02 31.99 2.61 
28.58 32.53 2.66 
28.74 32.84 2.67 
34.14 43.23 2.92 
34.32 43.25 2.91 
40.64 30.04 2.35 
41.24 29.91 2.29 
40.64 30.36 2.36 
40.66 30.64 2.38 
40.67 31.10 2.40 
40.70 31.57 2.42 
39.04 31.96 2.58 
40.57 31.81 2.45 
41.04 29.44 2.46 
41.27 29.33 2.44 
41.06 29.86 2.48 
41.07 30.20 2.50 
28.12 31.17 3.62 
26.17 31.75 3.81 
32.54 31.54 3.27 
26.13 32.07 3.83 
26.61 32.17 3.62 
32.76 32.15 3.11 
34.53 32.04 2.96 
36.58 31.96 2.79 
38.30 31.92 2.64 
26.32 32.48 3.66 
31.69 32.30 3.21 
33.97 32.21 3.02 
26.69 32.81 3.83 
27.38 32.95 3.60 
27.52 33.22 3.69 
28.15 33.26 3.55 
28.99 33.37 3.66 
27.70 33.54 3.61 
28.78 33.64 3.70 
28.98 33.61 3.68 
26.97 34.15 3.70 
28.65 34.05 3.73 
29.12 34.20 3.70 
29.29 33.98 3.67 
28.09 34.52 3.63 
28.60 34.49 3.76 
28.21 34.84 3.63 
28.69 34.90 3.77 
28.91 34.82 3.75 
27.63 35.47 3.72 
28.05 35.18 3.67 
28.65 35.11 3.79 
29.10 35.37 3.76 
26.04 35.82 4.04 
29.08 35.67 3.78 
27.08 36.05 3.97 
40.62 30.01 3.14 
40.65 30.32 3.15 
40.66 30.70 3.17 
40.68 31.06 3.18 
40.72 31.50 3.20 
40.23 31.83 3.27 
40.73 31.69 3.21 
41.03 29.26 3.17 
41.01 29.52 3.18 
41.02 29.79 3.19 
36.64 31.91 3.65 
31.50 32.24 4.22 
29.19 33.01 4.50 
28.31 33.53 4.62 
28.90 34.50 4.61 
28.88 34.81 4.63 
28.79 35.15 4.66 
28.30 35.74 4.74 
28.81 35.44 4.67 
28.27 36.05 4.76 
40.74 29.31 3.92 
41.12 29.24 3.87 
41.41 29.28 3.84 
40.61 30.30 3.94 
40.65 30.65 3.95 
40.67 31.02 3.97 
40.69 31.46 3.99 
40.06 31.76 4.08 
40.70 31.65 3.99 
25.71 32.39 4.84 
26.78 33.78 4.80 
27.01 34.16 4.79 
28.00 34.37 4.80 
27.23 34.91 4.91 
27.32 35.58 4.93 
27.41 35.46 4.82 
27.25 36.38 4.89 
36.83 29.25 4.42 
38.13 29.34 4.26 
39.27 29.36 4.11 
39.98 29.33 4.02 
40.39 29.25 3.96 
39.36 31.71 4.17 
40.01 29.29 4.76 
40.41 29.22 4.70 
41.41 29.24 4.55 
28.23 34.48 5.76 
35.94 29.44 5.39 
38.47 29.33 5.00 
39.21 29.30 4.89 
39.63 29.22 4.82 
36.19 29.89 5.40 
37.52 29.85 5.20 
35.64 30.08 5.49 
39.63 29.17 5.58 
40.69 29.21 5.39 
41.42 29.20 5.27 
37.27 29.22 5.99 
38.09 29.18 5.84 
39.33 29.29 5.63 
36.69 29.70 6.21 
37.33 29.78 6.10 
38.40 29.71 5.91 
40.11 29.56 5.61 
40.40 29.08 6.19 
40.68 29.38 6.31 
35.91 29.80 6.35 
38.06 29.12 6.65 
38.87 29.11 6.49 
37.68 29.53 6.91 
38.86 29.49 6.67 
39.97 29.45 6.45 
35.64 29.26 7.13 
41.11 29.39 1.81 
41.03 29.88 1.84 
41.06 30.32 1.87 
41.07 30.65 1.88 
33.19 31.36 2.39 
40.29 31.19 1.96 
40.74 31.24 1.94 
41.09 31.04 1.91 
32.35 31.50 2.45 
35.15 31.42 2.28 
35.87 31.33 2.23 
36.39 31.37 2.20 
39.78 31.28 2.00 
34.30 43.24 2.99 
40.61 29.86 2.44 
41.08 29.90 2.41 
40.59 30.06 2.46 
40.62 30.21 2.46 
40.65 30.68 2.48 
40.68 31.05 2.50 
40.70 31.45 2.52 
40.73 31.80 2.54 
40.99 29.47 2.57 
41.02 30.29 2.61 
41.03 30.74 2.63 
41.04 30.51 2.62 
41.04 31.19 2.66 
41.05 30.97 2.64 
27.14 31.92 3.67 
32.70 32.08 3.22 
35.78 32.03 2.96 
36.57 31.88 2.89 
37.82 31.96 2.79 
38.46 31.82 2.73 
39.26 31.87 2.66 
27.80 32.26 3.81 
27.92 32.53 3.81 
28.64 32.31 3.56 
31.50 32.23 3.32 
33.88 32.14 3.12 
26.00 32.95 3.99 
27.37 32.88 3.70 
28.61 32.63 3.58 
27.18 33.19 3.73 
28.20 33.59 3.67 
28.38 33.65 3.66 
28.82 33.56 3.79 
27.07 33.87 3.78 
29.48 33.91 3.76 
26.98 34.19 3.81 
27.93 34.88 3.77 
28.34 34.58 3.72 
28.83 34.77 3.86 
28.16 35.21 3.77 
25.60 35.52 3.99 
27.81 35.87 3.83 
40.96 29.42 3.31 
41.48 29.21 3.25 
40.98 29.77 3.33 
40.62 30.17 3.28 
40.98 30.12 3.35 
40.65 30.64 3.30 
41.00 30.45 3.36 
40.67 31.01 3.32 
41.01 31.14 3.39 
40.68 31.36 3.33 
38.39 31.76 3.60 
39.14 31.82 3.52 
40.64 31.75 3.36 
31.18 32.15 4.38 
26.01 32.75 4.96 
28.69 33.24 4.80 
26.73 33.47 4.92 
28.83 33.51 4.80 
27.40 33.83 4.87 
28.72 33.80 4.83 
27.99 34.36 4.93 
28.69 34.21 4.76 
29.00 34.28 4.73 
26.98 34.66 5.06 
28.39 34.53 4.81 
28.63 34.85 4.80 
27.06 34.93 5.06 
29.13 35.18 4.76 
28.17 35.49 4.88 
28.06 35.83 4.91 
28.32 36.16 4.90 
37.98 29.25 4.44 
38.87 29.22 4.32 
39.27 29.28 4.28 
39.74 29.20 4.21 
40.16 29.27 4.16 
40.61 30.22 4.11 
40.63 30.59 4.12 
40.67 30.99 4.14 
40.70 31.46 4.16 
40.65 31.70 4.17 
28.42 34.21 5.89 
36.54 29.30 5.49 
37.56 29.30 5.33 
38.38 29.26 5.21 
38.84 29.17 5.13 
39.28 29.23 5.07 
40.11 29.22 4.94 
35.84 29.41 5.60 
40.98 29.17 5.57 
38.51 29.03 6.00 
37.12 29.15 6.24 
38.03 29.12 6.08 
38.91 29.09 5.93 
39.76 29.07 5.78 
38.40 29.54 6.14 
41.36 28.98 6.26 
36.16 29.16 6.41 
36.60 29.74 6.47 
37.07 29.58 6.38 
37.71 29.65 6.27 
39.71 29.01 6.58 
40.49 28.98 6.43 
39.48 29.38 6.82 
40.59 29.34 6.59 
36.26 29.40 7.46 
38.24 29.42 7.07 
40.90 29.14 7.38 
35.55 29.52 7.61 
40.65 29.45 1.96 
41.24 29.23 1.91 
40.63 29.80 1.99 
40.66 30.16 2.01 
40.67 30.65 2.03 
40.69 31.02 2.05 
32.78 31.47 2.56 
38.52 31.33 2.20 
39.66 31.29 2.13 
40.65 31.24 2.07 
40.63 29.38 2.75 
41.04 29.30 2.71 
40.68 29.83 2.68 
40.65 30.17 2.71 
40.70 30.51 2.69 
40.76 30.96 2.65 
40.79 31.40 2.67 
27.25 31.98 3.84 
35.42 32.04 3.16 
38.37 31.99 2.91 
40.09 31.91 2.76 
40.82 31.75 2.69 
28.14 32.27 3.96 
28.51 32.42 3.76 
28.71 32.37 3.74 
31.91 32.29 3.47 
32.89 32.12 3.38 
36.40 32.08 3.08 
27.46 32.96 3.88 
28.78 32.72 3.76 
27.24 33.31 3.92 
28.14 33.18 4.01 
28.44 33.64 3.92 
26.98 33.88 4.06 
27.13 34.32 3.99 
28.34 34.76 3.91 
27.62 35.36 4.00 
28.01 35.04 3.95 
25.74 35.41 4.16 
40.63 29.42 3.54 
40.60 29.76 3.56 
40.62 30.35 3.59 
40.73 30.18 3.47 
40.73 30.53 3.48 
40.75 30.92 3.50 
40.78 31.36 3.52 
38.30 31.94 3.82 
39.03 31.79 3.73 
39.91 31.84 3.64 
40.81 31.68 3.54 
26.30 32.50 5.14 
26.74 33.27 5.13 
26.77 33.57 5.15 
27.51 33.95 5.09 
28.90 33.84 5.03 
27.70 34.41 5.19 
28.61 34.37 4.99 
28.53 34.65 5.02 
28.37 35.00 5.06 
28.40 35.03 5.05 
28.37 35.37 5.08 
28.43 35.66 5.09 
29.12 35.32 4.99 
37.56 29.34 4.73 
38.50 29.30 4.61 
39.47 29.29 4.48 
39.93 29.20 4.42 
40.37 29.27 4.36 
41.10 29.21 4.27 
40.74 30.14 4.32 
40.73 30.48 4.34 
40.78 30.92 4.35 
40.80 31.28 4.37 
35.53 29.44 5.00 
35.98 29.31 4.93 
38.60 29.28 5.44 
39.12 29.19 5.36 
41.21 29.63 5.09 
35.44 29.37 5.93 
36.46 29.31 5.77 
37.55 29.29 5.61 
36.15 29.90 5.89 
39.12 29.11 6.20 
40.05 29.09 6.03 
40.89 29.06 5.88 
39.98 29.02 6.87 
36.07 29.11 7.65 
39.27 29.45 7.20 
41.26 29.14 1.93 
40.67 29.37 1.97 
40.65 29.74 2.00 
40.65 30.13 2.02 
40.69 30.50 2.04 
40.69 30.88 2.06 
32.83 31.30 2.56 
35.17 31.37 2.42 
39.26 31.24 2.17 
40.44 31.21 2.10 
40.64 29.36 2.80 
40.64 29.72 2.82 
40.69 30.09 2.72 
40.71 30.50 2.77 
40.73 30.95 2.76 
40.78 31.37 2.72 
35.32 31.97 3.21 
36.73 31.80 3.08 
40.45 31.85 2.78 
40.80 31.64 2.74 
27.51 32.37 4.05 
31.58 32.24 3.53 
32.84 32.07 3.42 
36.47 32.02 3.12 
38.69 31.95 2.93 
27.45 33.00 3.92 
28.03 33.42 3.89 
26.20 33.85 4.07 
28.18 33.72 3.90 
26.11 34.28 4.28 
28.20 34.41 3.94 
28.02 34.77 3.97 
28.03 35.12 3.99 
26.85 35.80 4.13 
40.63 29.33 3.62 
40.64 29.61 3.64 
40.65 30.02 3.65 
40.71 30.45 3.62 
40.77 30.92 3.58 
40.73 31.20 3.66 
40.25 31.79 3.69 
40.81 31.60 3.62 
28.86 31.49 4.98 
26.04 32.90 5.25 
26.40 33.23 5.23 
28.85 33.78 5.10 
28.85 34.06 5.02 
28.55 34.43 5.07 
28.75 34.73 5.07 
28.48 35.07 5.12 
28.37 35.46 5.15 
28.30 35.75 5.18 
28.14 36.09 5.21 
28.35 36.14 5.19 
38.39 29.26 4.73 
39.41 29.22 4.60 
40.38 29.19 4.47 
41.10 29.12 4.38 
40.77 30.24 4.44 
40.79 31.21 4.48 
40.81 31.55 4.50 
39.50 29.19 5.45 
39.96 29.08 5.38 
40.35 29.13 5.32 
40.86 29.05 5.24 
41.03 29.05 5.21 
35.74 29.17 6.02 
37.31 29.23 5.78 
38.36 29.20 5.62 
36.58 29.58 5.95 
40.95 28.98 6.05 
38.00 29.07 6.57 
39.05 29.03 6.38 
39.55 28.93 6.29 
35.79 29.12 6.96 
40.53 29.26 7.16 
39.01 29.22 8.43 
41.02 29.23 1.96 
41.01 29.61 1.98 
41.04 30.03 2.00 
41.05 30.42 2.03 
41.06 30.93 2.06 
36.94 31.17 2.31 
39.08 31.21 2.19 
40.41 31.18 2.11 
41.03 31.08 2.07 
41.01 29.61 2.82 
40.58 30.12 2.71 
41.01 29.87 2.84 
40.61 30.42 2.72 
40.63 30.78 2.74 
41.06 30.91 2.89 
31.78 31.39 3.68 
39.64 31.17 3.02 
40.66 31.22 2.77 
41.00 31.16 2.91 
27.11 31.95 3.91 
40.68 31.63 2.79 
28.49 32.34 3.82 
31.97 32.23 3.53 
34.74 32.12 3.30 
35.90 31.95 3.20 
36.60 31.96 3.14 
38.26 31.86 3.00 
39.26 31.91 2.92 
28.25 32.75 3.87 
28.47 32.69 3.85 
28.15 33.07 3.89 
28.36 33.43 3.90 
27.96 33.68 4.03 
28.07 34.09 3.96 
28.40 34.56 4.05 
27.17 34.92 4.25 
27.95 34.80 4.01 
29.06 35.19 3.94 
27.47 35.59 4.09 
27.82 35.89 4.08 
38.25 29.22 3.93 
39.37 29.19 3.82 
40.80 29.98 3.60 
40.63 30.37 3.64 
40.65 30.74 3.66 
40.65 31.17 3.68 
40.68 31.59 3.70 
39.21 31.85 3.87 
36.02 29.33 4.17 
27.78 33.37 5.16 
28.59 34.10 5.11 
28.69 34.41 5.12 
28.99 34.76 5.11 
28.57 35.32 5.18 
28.71 35.85 5.20 
28.81 35.53 5.17 
28.75 36.17 5.21 
39.54 29.17 4.68 
37.94 29.15 4.88 
38.48 29.21 4.82 
36.92 29.10 5.96 
37.50 28.99 5.87 
36.37 29.65 6.11 
38.12 29.65 5.85 
35.63 29.86 6.24 
37.58 28.95 6.80 
38.05 29.01 6.72 
40.16 28.95 6.35 
38.82 29.41 6.71 
41.37 29.33 1.99 
41.39 29.49 2.00 
41.40 29.99 2.03 
41.42 30.78 2.08 
36.62 31.22 2.38 
37.23 31.08 2.34 
38.88 31.06 2.24 
39.57 31.13 2.20 
40.92 31.09 2.12 
40.48 30.09 2.80 
41.36 29.98 2.90 
40.46 30.32 2.81 
40.51 30.75 2.83 
40.54 31.18 2.85 
40.56 31.47 2.87 
34.11 32.11 3.43 
36.44 31.97 3.23 
37.93 31.84 3.11 
38.99 31.88 3.02 
40.09 31.74 2.92 
40.57 31.74 2.88 
31.17 32.23 3.68 
28.48 32.93 4.11 
28.31 33.13 3.96 
28.55 33.32 4.13 
28.32 33.51 3.98 
28.51 34.04 4.17 
27.93 34.28 4.06 
28.22 34.66 4.06 
28.44 34.97 4.06 
28.40 35.06 4.24 
28.87 35.37 4.05 
40.52 30.32 3.76 
40.50 30.56 3.78 
40.54 30.99 3.79 
40.57 31.42 3.82 
38.79 31.82 4.02 
39.89 31.67 3.90 
40.61 31.69 3.83 
36.41 29.21 4.24 
27.95 33.50 5.26 
28.48 34.23 5.24 
29.09 34.56 5.20 
41.28 29.06 4.59 
36.27 29.16 5.23 
36.66 29.20 5.19 
37.08 29.04 5.13 
40.25 29.10 4.73 
37.55 29.03 6.04 
38.72 28.99 5.86 
38.34 29.63 5.99 
36.21 29.07 6.24 
39.10 29.38 6.86 
41.44 29.06 2.01 
41.41 29.44 2.04 
41.44 29.85 2.06 
41.44 30.25 2.08 
41.43 30.63 2.11 
36.16 31.19 2.44 
37.05 31.07 2.38 
39.42 31.11 2.25 
40.14 30.99 2.20 
40.89 31.08 2.16 
41.45 30.93 2.12 
41.37 29.13 2.91 
41.36 29.40 2.93 
41.38 29.81 2.95 
40.54 30.26 2.87 
41.40 30.27 2.97 
40.55 30.65 2.89 
41.39 30.49 2.99 
39.35 31.00 3.18 
40.59 31.08 2.91 
41.33 31.02 3.02 
40.61 31.40 2.92 
34.24 32.06 3.47 
35.58 31.89 3.36 
36.52 31.91 3.28 
39.38 31.85 3.05 
40.47 31.70 2.95 
40.62 31.67 2.94 
31.34 32.21 3.72 
28.79 33.52 4.17 
30.00 33.55 4.07 
28.83 33.81 4.18 
40.57 30.46 3.85 
40.59 30.75 3.86 
40.60 31.04 3.88 
40.64 31.36 3.89 
39.21 31.78 4.06 
40.55 31.65 3.91 
40.66 31.63 3.90 
36.42 29.20 4.32 
38.58 29.04 5.04 
41.44 29.04 4.68 
36.60 29.18 5.30 
38.76 28.97 5.98 
41.49 29.00 5.57 
36.22 29.05 6.37 
36.91 28.93 6.26 
37.54 29.02 6.17 
41.34 29.18 2.13 
41.01 29.40 2.16 
41.04 29.82 2.19 
41.04 30.25 2.21 
38.29 31.22 2.43 
40.99 29.54 3.10 
41.01 29.81 3.11 
40.61 30.19 2.99 
41.03 30.16 3.13 
40.64 30.57 3.00 
41.02 30.49 3.15 
40.56 31.04 3.12 
40.69 31.38 3.05 
36.63 31.85 3.40 
38.59 31.95 3.25 
39.79 31.79 3.14 
40.71 31.83 3.07 
34.58 32.01 3.57 
35.93 32.07 3.47 
40.66 30.52 4.00 
40.66 30.88 4.02 
40.72 31.36 4.03 
40.64 31.78 4.07 
36.80 29.26 4.44 
36.72 29.19 5.46 
39.31 29.03 6.10 
36.64 29.12 6.51 
37.99 29.06 6.30 
35.63 29.89 6.74 
40.49 28.94 6.87 
40.66 29.39 2.26 
41.16 29.20 2.22 
40.67 29.67 2.27 
40.64 29.52 3.22 
40.65 30.10 3.25 
40.71 29.97 3.15 
40.72 30.43 3.18 
40.73 30.80 3.20 
40.32 31.21 3.34 
40.83 31.26 3.13 
40.81 31.71 3.15 
34.27 32.17 3.71 
35.60 31.98 3.59 
36.74 31.99 3.50 
39.65 31.89 3.26 
40.84 31.20 4.14 
40.84 31.64 4.16 
39.50 31.83 4.31 
38.04 29.20 5.44 
39.44 29.17 5.26 
40.08 29.05 5.17 
35.55 29.40 5.77 
36.29 29.15 6.73 
37.68 29.08 6.52 
40.70 29.17 2.22 
41.26 29.11 2.19 
40.70 29.53 2.25 
40.72 29.93 2.27 
40.72 30.38 2.30 
40.72 30.79 2.32 
40.71 31.09 2.34 
40.71 30.04 3.17 
40.73 30.34 3.19 
40.74 30.65 3.20 
40.76 30.96 3.22 
40.84 31.46 3.15 
35.69 31.92 3.59 
36.75 31.93 3.50 
39.92 31.83 3.25 
34.23 32.11 3.71 
35.66 29.18 4.71 
36.17 29.21 4.66 
39.87 28.97 4.27 
39.46 29.09 5.33 
38.08 29.16 5.51 
35.57 29.38 5.83 
37.57 29.01 6.64 
40.46 28.87 7.21 
41.09 30.05 2.26 
41.09 30.48 2.28 
41.03 30.81 2.30 
41.02 29.60 3.24 
41.05 30.05 3.26 
40.72 30.46 3.14 
41.05 30.39 3.28 
40.79 30.90 3.33 
41.04 30.64 3.30 
