# .PCD v0.7 - Point Cloud Data file format
VERSION 0.7
FIELDS x y z
SIZE 4 4 4
TYPE F F F
COUNT 1 1 1
WIDTH 850
HEIGHT 1
VIEWPOINT 0 0 0 1 0 0 0
POINTS 850
DATA ascii
80.45 75.62 9.45 
79.97 70.76 8.02 
79.79 71.47 9.24 
80.28 70.89 7.08 
80.02 70.80 8.20 
79.82 72.06 9.54 
90.84 81.89 3.27 
83.58 79.02 4.56 
83.88 79.11 4.55 
83.33 79.49 4.63 
89.60 82.07 3.50 
82.29 79.04 4.71 
83.24 79.00 4.65 
82.66 79.19 4.71 
83.43 79.58 6.80 
83.19 79.85 6.86 
89.52 82.06 3.56 
82.07 78.83 4.77 
83.29 78.99 4.71 
83.55 79.24 4.72 
81.25 73.26 8.72 
81.18 70.98 3.97 
83.02 79.73 6.96 
81.52 75.82 3.67 
83.49 79.97 3.91 
81.55 77.54 4.82 
81.78 78.02 4.85 
82.86 78.92 6.95 
81.62 78.16 10.03 
83.47 79.84 4.07 
83.09 78.53 4.99 
83.53 78.78 4.98 
83.78 78.83 6.01 
81.68 74.87 6.55 
81.63 72.22 7.00 
81.81 77.53 6.97 
82.94 78.97 7.13 
82.63 79.29 7.20 
83.24 79.54 7.20 
83.54 79.42 7.16 
81.58 71.31 8.59 
90.74 73.86 3.09 
83.21 78.60 5.05 
83.65 78.84 5.05 
82.89 78.52 6.09 
83.14 78.48 6.07 
83.73 78.83 6.08 
83.67 79.88 6.29 
84.00 79.88 6.21 
83.38 80.04 6.27 
81.73 75.03 6.64 
81.80 77.54 7.05 
82.94 78.92 7.19 
82.31 79.34 7.30 
82.59 79.15 7.25 
83.36 79.38 7.23 
83.78 79.82 7.27 
83.13 80.33 7.40 
81.38 70.55 8.52 
81.85 81.83 8.87 
81.52 71.25 8.68 
82.76 78.60 6.15 
83.35 78.79 6.13 
82.49 79.02 7.28 
82.80 79.05 7.26 
82.15 79.38 7.36 
82.21 79.19 7.32 
83.07 79.39 7.29 
81.30 81.76 7.81 
81.58 81.77 7.79 
81.31 81.89 8.96 
81.63 81.93 8.94 
89.56 81.95 3.96 
82.52 78.72 5.27 
82.52 79.37 6.35 
82.86 79.56 6.35 
83.64 79.62 6.31 
83.93 80.07 6.35 
81.78 78.34 7.25 
81.83 82.17 7.86 
81.58 77.92 8.18 
81.59 82.26 8.98 
81.88 82.63 9.03 
81.22 71.70 8.76 
81.67 72.88 3.01 
81.80 73.61 3.05 
81.69 74.96 3.15 
81.86 75.40 3.16 
81.82 76.27 3.22 
82.48 79.07 4.35 
83.05 79.06 4.31 
83.33 78.93 4.28 
82.70 79.47 4.37 
82.75 79.41 4.37 
83.61 79.19 4.29 
82.38 79.72 4.42 
83.89 79.67 4.31 
89.50 82.04 4.01 
82.54 78.68 5.30 
82.58 78.72 5.30 
83.11 79.15 5.31 
83.36 79.46 5.33 
82.74 79.85 5.42 
82.81 79.61 5.38 
83.66 79.50 5.31 
81.53 73.43 5.65 
82.58 79.33 6.38 
82.24 79.59 6.44 
82.83 79.74 6.42 
83.01 79.61 6.39 
83.16 79.87 6.41 
83.40 80.05 6.42 
81.58 75.47 6.85 
81.64 77.37 7.15 
81.40 72.94 7.33 
81.52 74.13 7.54 
81.78 82.11 7.90 
81.45 82.17 7.93 
81.21 71.41 7.91 
81.56 76.19 7.91 
81.61 78.25 8.29 
81.52 82.24 9.03 
81.80 82.62 9.08 
81.51 71.06 2.95 
81.37 72.25 3.04 
81.56 72.37 3.03 
81.52 72.93 3.07 
81.64 73.58 3.10 
81.58 75.01 3.20 
81.65 75.73 3.24 
81.78 76.45 3.28 
81.59 74.31 4.04 
81.53 74.95 4.10 
81.66 75.71 4.16 
81.60 76.50 4.23 
81.74 77.29 4.29 
81.68 78.05 4.36 
82.03 79.60 4.48 
82.64 79.63 4.44 
89.82 81.95 4.03 
81.44 72.16 4.70 
81.52 73.40 4.83 
81.58 74.81 4.98 
81.51 75.56 5.07 
81.64 76.26 5.14 
81.74 78.13 5.34 
81.87 79.04 5.43 
82.17 78.98 5.41 
82.50 78.72 5.36 
81.91 79.10 5.44 
83.04 79.12 5.36 
82.67 79.97 5.48 
81.30 70.35 5.32 
81.42 72.70 5.63 
91.18 73.29 4.98 
81.49 74.01 5.80 
81.54 75.49 5.99 
81.48 76.25 6.10 
81.54 77.74 6.30 
81.28 70.80 6.20 
81.34 72.02 6.39 
81.75 78.20 6.34 
82.21 79.30 6.46 
82.65 79.61 6.47 
81.39 73.31 6.59 
91.20 73.05 5.85 
90.41 73.38 5.95 
90.68 73.41 5.94 
81.18 71.70 7.20 
81.45 76.61 7.10 
81.52 78.16 7.34 
81.23 73.05 7.44 
81.32 74.13 7.63 
81.33 82.12 7.99 
81.65 82.30 7.99 
81.09 71.14 7.95 
81.05 82.26 9.13 
81.67 82.59 9.14 
81.11 82.37 10.26 
81.53 71.11 2.98 
81.54 72.33 3.05 
81.63 73.29 3.11 
81.59 74.97 3.22 
81.38 71.08 3.80 
81.41 70.98 4.61 
81.45 72.03 4.72 
81.50 73.13 4.84 
81.55 74.30 4.97 
81.61 75.54 5.10 
82.16 79.37 5.48 
81.18 70.39 6.19 
81.29 70.88 6.26 
81.27 72.44 6.51 
81.08 71.13 7.16 
81.12 72.16 7.34 
80.99 70.67 8.78 
81.34 82.17 9.13 
81.68 71.20 3.00 
81.68 72.32 3.07 
81.74 73.26 3.12 
81.70 74.97 3.23 
81.60 71.76 3.87 
91.39 72.83 4.19 
81.65 74.24 4.98 
82.64 79.94 5.54 
81.37 72.31 5.66 
81.29 70.65 6.27 
82.51 79.26 6.50 
81.16 81.88 6.95 
81.47 82.05 8.04 
81.53 72.18 4.03 
81.63 72.67 4.07 
81.67 73.60 4.15 
91.18 72.74 4.29 
91.42 74.01 4.42 
90.90 74.32 4.48 
90.68 75.76 4.66 
83.15 79.16 5.55 
90.45 73.66 5.31 
90.96 73.56 5.27 
81.23 72.93 6.78 
81.19 82.07 8.22 
80.96 71.41 9.19 
81.65 72.69 3.19 
81.75 73.13 3.21 
81.81 74.97 3.32 
81.85 75.93 3.38 
81.46 70.75 3.91 
81.62 75.05 5.20 
81.35 72.40 5.82 
89.49 74.03 5.40 
81.30 70.79 6.46 
82.11 79.68 6.71 
82.44 79.61 6.67 
81.25 82.05 8.20 
81.80 75.01 3.38 
81.77 76.32 3.47 
81.65 75.87 4.40 
81.76 76.39 4.44 
81.68 76.83 4.48 
81.91 78.06 4.57 
81.34 73.42 6.03 
81.50 75.59 6.30 
81.55 76.47 6.42 
81.69 78.17 6.63 
82.33 79.60 6.76 
81.93 79.69 6.81 
81.17 71.38 6.65 
81.19 72.15 6.77 
81.15 73.28 6.95 
81.30 77.73 7.62 
81.42 78.26 7.69 
81.10 72.58 7.75 
80.71 82.09 8.35 
81.26 82.12 8.30 
81.15 75.16 8.20 
80.75 82.16 9.49 
81.10 82.13 9.45 
81.38 82.38 9.46 
81.50 72.22 3.27 
81.59 72.76 3.30 
81.69 73.16 3.32 
81.72 73.86 3.36 
81.66 74.93 3.43 
81.67 75.08 3.44 
81.48 72.38 4.17 
81.51 73.13 4.23 
81.61 73.54 4.26 
81.63 74.32 4.33 
81.55 74.67 4.36 
81.64 75.16 4.40 
81.54 75.64 4.44 
81.65 76.09 4.48 
81.59 76.46 4.51 
81.38 70.38 4.86 
81.40 71.07 4.93 
81.31 72.24 5.06 
81.59 76.46 5.49 
81.26 70.82 5.78 
81.28 72.31 5.98 
81.38 73.65 6.14 
81.43 75.23 6.34 
81.45 76.09 6.45 
81.38 76.49 6.51 
81.49 76.95 6.56 
81.42 77.39 6.63 
81.54 77.86 6.68 
81.48 78.17 6.72 
80.98 70.36 6.61 
81.03 71.71 6.81 
81.13 72.10 6.86 
81.14 72.83 6.97 
81.17 73.58 7.09 
80.60 82.00 7.30 
80.90 81.95 7.27 
81.25 75.95 7.44 
81.33 76.65 7.54 
80.93 70.50 7.51 
80.95 71.17 7.63 
80.93 71.34 7.66 
81.04 73.24 7.98 
81.07 74.01 8.11 
81.09 75.71 8.41 
80.33 82.07 8.47 
80.69 82.04 8.43 
81.02 82.04 8.40 
81.36 82.15 8.38 
81.48 82.87 8.49 
81.11 76.54 8.55 
81.16 77.36 8.69 
81.19 78.28 8.85 
80.85 72.33 8.78 
80.34 82.18 9.63 
80.73 82.12 9.58 
81.06 82.12 9.55 
81.31 82.44 9.58 
80.95 75.38 9.37 
81.08 82.28 10.73 
81.45 70.66 3.23 
81.54 71.01 3.24 
81.41 72.18 3.33 
90.73 73.86 2.84 
91.40 73.98 2.80 
90.38 73.08 3.67 
90.60 73.32 3.68 
90.79 73.90 3.71 
90.89 73.54 4.55 
91.36 73.99 4.57 
91.04 74.54 4.65 
81.22 70.76 5.87 
81.17 72.29 6.07 
90.74 73.45 5.44 
90.97 73.39 5.41 
89.61 73.68 5.55 
81.35 74.15 6.29 
90.63 74.03 5.52 
81.03 70.65 6.75 
81.05 71.29 6.85 
81.06 71.97 6.95 
81.09 72.62 7.04 
81.14 74.04 7.25 
80.86 70.55 7.64 
80.90 71.06 7.73 
80.87 71.26 7.76 
80.94 72.37 7.95 
80.96 73.07 8.07 
80.99 73.76 8.18 
80.80 72.12 8.86 
80.72 72.44 8.93 
80.61 70.63 9.50 
80.61 73.58 10.14 
90.52 73.91 2.87 
90.88 73.98 2.86 
89.82 72.76 3.70 
90.74 73.53 3.71 
89.92 73.90 3.80 
90.39 74.05 3.78 
89.77 81.98 4.51 
90.24 72.86 4.55 
90.84 73.52 4.58 
90.30 73.58 4.63 
90.00 73.78 4.67 
91.26 73.99 4.61 
89.02 74.65 4.83 
89.23 74.73 4.83 
90.97 74.45 4.68 
90.12 73.42 5.51 
90.60 73.43 5.48 
90.98 73.36 5.44 
89.54 73.64 5.58 
90.31 73.58 5.52 
80.69 70.51 8.63 
80.80 72.89 9.08 
80.81 73.58 9.21 
89.74 72.57 3.67 
88.87 73.45 3.81 
89.08 73.74 3.82 
90.11 73.49 5.51 
89.53 73.63 5.57 
80.88 75.00 8.51 
80.76 74.66 9.48 
81.05 72.24 6.31 
81.12 72.62 6.36 
81.15 73.22 6.43 
80.74 70.48 7.05 
80.81 70.91 7.10 
80.92 73.15 7.42 
80.94 73.77 7.51 
80.99 75.06 7.69 
81.01 75.75 7.79 
81.02 76.48 7.90 
80.90 77.66 8.09 
80.75 73.59 8.49 
80.79 74.18 8.59 
80.82 74.82 8.69 
80.80 75.58 8.82 
80.83 76.26 8.94 
80.85 76.99 9.06 
80.50 70.44 8.94 
80.45 71.83 9.21 
80.88 77.71 9.18 
80.89 78.50 9.31 
80.36 71.39 10.11 
81.13 72.70 5.83 
81.23 75.14 6.07 
81.26 76.51 6.21 
80.96 71.31 6.65 
80.97 71.90 6.72 
81.08 73.56 6.92 
80.95 76.00 7.24 
81.04 76.40 7.28 
80.96 76.71 7.33 
81.03 77.26 7.39 
81.11 77.78 7.44 
81.05 78.03 7.48 
80.70 70.75 7.55 
80.76 71.20 7.61 
80.67 72.32 7.79 
80.79 72.99 7.87 
80.79 73.63 7.96 
80.81 74.93 8.15 
80.85 75.54 8.23 
80.83 76.34 8.35 
80.90 77.61 8.53 
80.82 77.94 8.59 
80.91 78.40 8.65 
80.49 70.41 8.48 
80.46 70.81 8.55 
80.55 71.12 8.59 
80.59 71.63 8.67 
80.59 72.22 8.76 
80.59 72.86 8.87 
80.61 73.46 8.97 
80.63 74.08 9.07 
80.64 74.70 9.17 
80.66 75.37 9.28 
80.68 76.03 9.39 
80.70 76.70 9.50 
80.72 77.40 9.62 
80.74 78.12 9.73 
80.64 78.49 9.81 
81.19 73.59 4.97 
81.06 72.70 5.89 
81.06 73.30 5.95 
81.01 74.81 6.11 
80.83 70.33 6.62 
80.89 70.79 6.67 
80.91 71.32 6.73 
80.79 71.63 6.78 
80.72 72.32 6.87 
80.81 72.64 6.90 
80.84 73.22 6.97 
80.81 73.63 7.03 
80.87 74.45 7.12 
80.90 75.05 7.19 
80.92 75.68 7.27 
80.94 76.34 7.35 
80.97 76.99 7.43 
80.57 70.31 7.59 
80.58 70.86 7.67 
80.54 72.16 7.86 
80.63 72.51 7.90 
80.55 72.72 7.94 
80.58 73.31 8.02 
80.68 73.01 7.97 
80.67 73.67 8.06 
80.61 73.86 8.10 
80.68 74.93 8.25 
80.72 75.54 8.33 
80.75 76.17 8.42 
80.76 77.57 8.62 
80.83 78.17 8.70 
80.39 70.71 8.64 
80.41 71.23 8.72 
80.43 71.79 8.81 
80.44 72.36 8.91 
80.47 72.91 8.99 
80.46 73.51 9.09 
80.44 73.94 9.17 
80.40 74.38 9.25 
80.50 74.72 9.29 
80.42 75.00 9.35 
80.52 75.37 9.39 
80.54 76.01 9.50 
80.55 76.69 9.61 
80.57 77.36 9.72 
80.60 78.04 9.83 
80.29 73.36 10.14 
81.25 73.31 3.95 
90.56 73.89 3.20 
91.13 74.07 3.17 
89.55 82.01 3.80 
90.42 73.80 4.13 
90.64 73.88 4.12 
80.98 71.51 4.82 
91.14 75.16 4.18 
90.49 75.38 4.26 
80.95 71.03 5.75 
80.91 72.32 5.88 
80.96 72.77 5.92 
81.01 73.24 5.97 
90.64 73.32 4.98 
80.94 73.47 6.00 
81.06 73.77 6.02 
90.77 73.82 5.02 
90.87 74.46 5.08 
91.13 74.58 5.07 
80.69 70.44 6.68 
80.71 70.98 6.74 
80.73 71.49 6.80 
80.74 72.05 6.87 
80.69 72.82 6.97 
80.75 72.60 6.94 
80.78 73.16 7.00 
80.71 73.38 7.04 
80.72 73.98 7.11 
80.80 73.74 7.07 
80.82 74.31 7.14 
80.74 74.58 7.18 
80.80 75.07 7.24 
80.85 75.58 7.29 
80.77 75.84 7.34 
80.84 76.33 7.39 
80.89 76.85 7.45 
80.83 77.81 7.57 
80.51 70.83 7.72 
80.50 72.32 7.94 
80.60 72.97 8.02 
80.60 73.59 8.11 
80.55 75.04 8.32 
80.62 75.52 8.38 
80.67 76.05 8.45 
80.58 76.31 8.50 
80.63 77.62 8.69 
80.74 78.01 8.73 
80.31 70.69 8.71 
80.33 71.21 8.79 
80.35 71.77 8.88 
80.37 72.29 8.96 
80.38 72.87 9.06 
80.39 73.43 9.15 
80.41 74.03 9.24 
80.42 74.64 9.34 
80.45 75.23 9.44 
80.36 75.52 9.50 
80.47 75.86 9.54 
80.37 76.16 9.60 
80.44 76.66 9.68 
80.49 77.20 9.76 
80.40 77.48 9.82 
80.51 77.87 9.87 
80.46 78.10 9.92 
80.54 78.54 9.98 
81.28 72.25 3.81 
81.29 72.81 3.84 
90.51 73.85 3.15 
90.94 73.73 3.11 
91.36 74.09 3.10 
89.70 73.29 4.10 
81.05 71.06 4.72 
81.08 71.56 4.76 
81.10 72.09 4.80 
81.11 72.64 4.84 
80.91 70.82 5.68 
80.86 72.09 5.81 
80.97 72.38 5.83 
80.98 72.95 5.89 
81.01 73.49 5.94 
89.93 73.53 5.03 
90.22 73.54 5.00 
90.63 73.35 4.94 
89.32 73.72 5.11 
90.76 73.81 4.98 
80.97 74.80 6.08 
90.64 74.93 5.11 
90.96 75.04 5.09 
80.69 70.73 6.68 
80.69 71.26 6.74 
80.71 71.79 6.80 
80.73 72.31 6.86 
80.74 72.87 6.93 
80.76 73.43 7.00 
80.77 74.00 7.07 
80.79 74.60 7.14 
80.80 75.20 7.21 
80.82 75.80 7.28 
80.45 70.43 7.65 
80.52 71.08 7.73 
80.51 72.20 7.89 
80.53 72.74 7.96 
80.55 73.28 8.04 
80.59 73.81 8.11 
80.60 75.05 8.29 
80.62 75.64 8.37 
80.69 77.53 8.63 
80.30 70.43 8.66 
80.20 70.67 8.71 
80.29 70.98 8.75 
80.66 78.32 8.75 
80.21 71.19 8.79 
80.30 71.50 8.83 
80.31 72.04 8.92 
80.33 72.58 9.00 
80.35 73.12 9.09 
80.34 73.72 9.18 
80.36 74.30 9.28 
80.37 74.90 9.37 
80.39 75.51 9.47 
79.96 72.23 10.05 
80.30 72.35 11.07 
90.95 73.52 3.05 
91.23 73.57 3.03 
91.16 73.61 3.04 
91.00 72.71 3.90 
89.86 73.32 4.05 
90.55 73.85 4.03 
80.97 70.72 4.64 
80.99 71.22 4.68 
91.03 75.12 4.10 
80.83 70.47 5.61 
80.84 70.98 5.66 
90.54 73.36 4.92 
90.70 73.76 4.95 
90.88 74.55 5.01 
90.53 74.95 5.09 
90.85 74.91 5.06 
80.59 70.38 6.62 
80.62 70.87 6.67 
80.61 71.41 6.74 
80.63 73.11 6.94 
80.70 73.53 6.98 
80.39 70.75 7.68 
80.45 72.85 7.97 
80.47 73.41 8.04 
80.42 75.40 8.33 
80.45 75.98 8.41 
80.55 75.72 8.36 
80.56 76.35 8.45 
80.19 70.60 8.70 
80.20 71.11 8.78 
80.23 71.60 8.85 
80.20 75.23 9.44 
80.26 75.70 9.50 
80.31 76.22 9.58 
80.23 76.47 9.63 
80.29 76.98 9.71 
80.38 77.43 9.77 
80.26 77.75 9.84 
80.40 78.08 9.87 
80.30 72.31 11.07 
83.50 79.05 4.02 
89.37 72.48 4.13 
90.90 73.00 4.06 
91.26 72.83 4.02 
90.18 73.31 4.14 
90.58 73.07 4.09 
91.15 73.92 4.12 
89.51 74.22 4.27 
89.83 73.55 5.13 
90.40 73.65 5.10 
89.40 73.85 5.20 
91.10 74.33 5.12 
80.42 70.90 7.72 
80.39 72.10 7.90 
80.63 77.68 8.67 
80.29 71.14 8.80 
80.30 71.64 8.88 
80.28 72.23 8.98 
80.29 72.76 9.06 
80.32 73.28 9.14 
80.32 73.85 9.24 
80.35 74.41 9.33 
80.36 74.98 9.42 
80.37 75.57 9.51 
80.40 76.17 9.61 
80.40 76.81 9.71 
80.43 77.41 9.81 
79.99 71.18 9.90 
88.37 73.26 4.01 
89.44 73.78 3.99 
89.96 73.93 3.97 
90.30 73.86 3.95 
82.94 79.23 4.84 
89.88 73.44 4.89 
89.47 73.79 4.96 
90.31 73.37 5.81 
80.34 70.76 8.40 
80.44 71.10 8.44 
80.42 72.18 8.61 
80.43 72.70 8.69 
80.46 73.24 8.78 
80.51 74.30 8.94 
80.53 74.86 9.03 
80.51 75.49 9.13 
80.53 76.06 9.22 
80.55 76.68 9.32 
80.17 71.60 9.62 
80.25 71.92 9.66 
80.17 72.12 9.71 
80.95 75.43 3.81 
80.94 76.04 3.85 
89.42 72.98 4.08 
89.97 73.26 4.06 
90.06 73.75 4.10 
89.65 73.23 5.05 
90.19 73.44 5.03 
90.35 74.51 5.13 
89.38 73.23 6.05 
80.59 76.15 7.28 
80.68 76.53 7.31 
80.30 70.47 7.67 
80.25 72.13 7.90 
80.39 72.95 8.00 
80.32 74.80 8.26 
80.42 75.16 8.30 
80.44 75.74 8.38 
80.46 76.31 8.46 
80.05 70.40 8.74 
80.14 70.70 8.77 
80.17 71.17 8.84 
80.19 71.66 8.91 
80.21 72.16 8.99 
80.18 72.72 9.08 
80.19 73.26 9.16 
80.21 73.79 9.25 
80.22 74.34 9.33 
80.25 74.87 9.41 
80.24 75.46 9.51 
80.27 76.03 9.60 
79.88 71.16 9.96 
90.11 72.83 4.01 
89.34 73.77 4.15 
89.02 74.30 4.22 
89.13 73.64 5.15 
80.38 71.00 6.81 
80.40 71.47 6.86 
80.51 73.32 7.06 
80.53 73.84 7.12 
80.55 74.41 7.18 
80.55 75.56 7.32 
80.24 70.62 7.85 
80.19 70.76 7.87 
80.31 72.07 8.03 
80.29 72.60 8.10 
80.28 73.15 8.18 
80.34 73.62 8.23 
80.35 74.75 8.38 
80.37 75.29 8.45 
80.04 70.42 8.92 
80.06 70.89 8.98 
80.06 71.40 9.06 
80.00 71.58 9.10 
80.05 71.99 9.15 
80.09 72.41 9.21 
80.11 72.89 9.28 
80.11 73.44 9.36 
80.12 73.98 9.44 
80.13 74.52 9.53 
80.14 75.11 9.61 
79.80 72.91 10.47 
80.49 70.86 5.79 
80.47 71.93 5.88 
89.03 73.70 5.06 
80.17 70.44 6.86 
80.25 70.75 6.88 
80.24 71.24 6.93 
80.27 71.72 6.98 
80.28 72.23 7.03 
80.30 72.73 7.07 
80.31 73.25 7.12 
80.32 73.78 7.18 
80.34 74.86 7.28 
80.02 70.62 7.99 
80.07 72.05 8.15 
80.07 72.59 8.22 
80.08 73.11 8.28 
80.13 73.57 8.32 
79.80 70.47 9.10 
79.71 70.64 9.14 
79.79 70.96 9.17 
79.71 71.14 9.20 
79.80 71.94 9.30 
79.81 72.46 9.37 
79.84 72.97 9.43 
79.84 73.51 9.51 
79.83 74.05 9.58 
79.49 70.69 10.29 
79.46 72.01 10.50 
79.53 72.35 10.54 
79.52 72.68 10.59 
79.48 73.05 10.66 
79.57 73.38 10.69 
80.63 70.88 4.86 
80.51 70.58 5.92 
80.55 72.02 6.06 
80.53 72.56 6.12 
80.27 70.38 7.02 
80.19 70.58 7.05 
80.29 71.36 7.13 
80.29 71.86 7.19 
80.30 72.36 7.25 
80.32 72.86 7.30 
80.34 73.37 7.36 
80.35 73.90 7.43 
80.06 70.65 8.17 
80.12 72.11 8.36 
80.12 72.63 8.43 
80.14 73.13 8.50 
80.19 73.61 8.56 
79.83 70.50 9.30 
79.84 70.99 9.37 
79.88 71.41 9.43 
79.86 71.72 9.48 
79.91 72.39 9.57 
79.93 72.89 9.65 
80.84 73.11 3.35 
80.85 73.63 3.38 
80.59 70.39 5.35 
89.18 73.17 6.03 
80.45 70.55 6.48 
80.48 71.02 6.54 
80.48 71.51 6.59 
80.49 71.99 6.65 
80.21 70.34 7.59 
80.23 70.81 7.64 
80.25 71.29 7.70 
80.19 71.92 7.80 
80.24 72.30 7.84 
80.30 72.75 7.89 
80.05 70.52 8.74 
80.08 70.97 8.81 
80.11 71.45 8.88 
80.11 71.95 8.95 
80.09 72.48 9.03 
80.64 71.80 3.23 
80.56 71.98 3.25 
80.60 72.35 3.27 
80.67 72.80 3.30 
80.59 72.37 4.40 
80.39 70.60 7.62 
80.37 71.09 7.69 
80.34 71.63 7.76 
80.29 72.18 7.84 
80.14 70.35 8.74 
80.19 70.79 8.80 
80.54 72.19 3.26 
80.31 70.35 6.53 
80.29 70.84 6.59 
80.34 71.31 6.64 
80.06 70.59 7.73 
