# .PCD v0.7 - Point Cloud Data file format
VERSION 0.7
FIELDS x y z
SIZE 4 4 4
TYPE F F F
COUNT 1 1 1
WIDTH 2387
HEIGHT 1
VIEWPOINT 0 0 0 1 0 0 0
POINTS 2387
DATA ascii
80.38 -588.14 0.55 
80.43 -587.76 0.51 
79.44 -602.93 2.53 
79.09 -604.03 2.68 
79.23 -595.06 1.54 
78.53 -600.81 2.26 
78.11 -603.54 2.63 
78.32 -600.08 2.17 
78.58 -596.25 1.55 
78.53 -595.34 1.59 
77.82 -604.23 2.72 
77.94 -599.79 2.14 
78.08 -597.63 1.87 
77.23 -601.60 2.38 
77.25 -601.07 2.20 
76.93 -600.32 2.22 
76.74 -601.75 2.41 
76.49 -601.32 2.24 
85.00 -584.11 0.86 
84.35 -593.30 1.82 
84.58 -592.54 1.73 
84.35 -592.03 1.68 
84.69 -585.24 0.97 
84.84 -583.49 0.80 
84.13 -593.68 2.03 
84.19 -593.07 1.80 
84.16 -592.18 1.70 
84.35 -585.57 1.01 
84.28 -584.78 0.94 
84.54 -582.99 0.77 
83.44 -596.09 2.18 
83.54 -594.97 2.04 
83.57 -594.61 2.07 
83.88 -587.15 1.18 
84.05 -585.66 1.03 
83.76 -584.97 0.97 
83.17 -596.43 2.23 
83.34 -595.31 2.09 
83.42 -589.86 1.47 
83.64 -586.78 1.15 
82.55 -603.36 3.17 
82.43 -602.31 3.03 
82.86 -596.80 2.29 
82.65 -595.73 2.17 
82.62 -595.46 2.13 
82.97 -594.37 2.14 
82.87 -593.61 2.06 
82.78 -593.33 1.88 
82.82 -589.12 1.41 
83.09 -587.79 1.27 
83.10 -587.53 1.24 
82.92 -586.90 1.18 
83.02 -585.81 1.07 
82.25 -602.52 3.06 
82.15 -602.10 3.01 
82.30 -597.26 2.37 
82.36 -595.45 2.14 
82.55 -595.06 2.09 
82.36 -593.68 2.08 
82.54 -593.29 2.04 
82.56 -592.83 1.91 
82.31 -592.02 1.75 
82.54 -591.86 1.72 
82.72 -588.32 1.34 
82.59 -587.93 1.30 
82.68 -586.98 1.20 
81.60 -604.11 3.36 
81.67 -603.57 3.28 
81.75 -602.75 3.11 
81.93 -601.89 2.99 
82.05 -596.27 2.25 
82.05 -593.75 2.10 
81.99 -592.39 1.80 
82.17 -590.12 1.54 
82.16 -589.86 1.52 
82.25 -588.92 1.41 
82.31 -588.55 1.37 
82.04 -588.07 1.33 
81.55 -602.94 3.15 
81.45 -597.28 2.40 
81.54 -596.82 2.34 
81.39 -595.81 2.35 
81.81 -590.95 1.64 
81.75 -589.42 1.48 
81.22 -597.67 2.46 
81.28 -597.04 2.38 
81.21 -596.21 2.40 
81.41 -593.31 1.92 
81.51 -591.05 1.67 
81.55 -589.39 1.48 
80.66 -604.39 3.43 
80.67 -603.54 3.26 
80.69 -603.12 3.26 
80.55 -602.83 3.20 
80.71 -598.51 2.58 
80.86 -597.89 2.50 
80.80 -597.65 2.47 
80.83 -597.33 2.49 
80.82 -596.07 2.34 
79.98 -603.74 3.32 
80.36 -602.88 3.24 
80.52 -597.40 2.45 
78.98 -601.65 3.07 
84.40 -592.16 2.40 
83.81 -595.85 2.84 
84.13 -593.81 2.59 
84.47 -582.13 0.69 
84.23 -581.09 0.60 
83.57 -596.01 2.88 
83.90 -583.14 0.80 
83.93 -582.68 1.00 
83.92 -582.21 0.71 
83.93 -581.13 0.61 
83.29 -596.17 2.91 
83.39 -585.02 1.22 
83.72 -583.87 0.87 
83.81 -581.39 0.64 
83.17 -584.27 1.16 
83.33 -583.35 0.83 
82.90 -583.43 0.85 
82.93 -583.14 1.06 
82.70 -582.73 0.79 
82.30 -590.75 1.78 
82.34 -586.03 1.33 
81.71 -591.82 1.91 
82.03 -585.45 1.07 
81.94 -584.57 0.98 
81.11 -592.47 2.00 
80.67 -595.37 2.32 
80.97 -588.66 1.43 
81.22 -583.89 0.94 
80.43 -595.32 2.33 
80.20 -590.77 1.85 
79.59 -594.34 2.25 
79.84 -583.69 0.96 
79.21 -593.92 2.21 
78.44 -601.41 3.05 
78.55 -597.82 2.58 
78.68 -597.42 2.63 
78.71 -592.95 1.98 
78.29 -602.05 3.21 
78.33 -600.83 2.98 
78.47 -597.86 2.59 
78.48 -597.57 2.55 
77.23 -601.69 3.14 
77.29 -600.94 3.04 
76.60 -600.28 2.97 
84.34 -585.99 1.82 
84.44 -585.82 1.80 
84.41 -585.38 1.77 
84.36 -584.73 1.72 
84.28 -584.11 1.67 
84.23 -583.54 1.62 
83.95 -586.55 1.89 
83.95 -586.34 1.87 
83.86 -585.89 1.84 
83.30 -595.53 2.84 
83.11 -595.18 2.81 
83.20 -592.99 2.56 
83.11 -591.98 2.46 
83.14 -590.13 2.27 
83.25 -587.99 2.06 
83.45 -586.55 1.92 
83.59 -585.89 1.85 
83.50 -585.04 1.78 
82.40 -602.72 3.81 
82.75 -602.20 3.72 
82.60 -596.26 2.96 
82.84 -595.41 2.85 
82.75 -594.41 2.86 
83.06 -590.34 2.29 
82.96 -587.12 1.99 
83.16 -586.44 1.92 
82.92 -586.06 1.90 
82.22 -595.74 2.92 
82.54 -592.93 2.73 
82.37 -592.63 2.71 
82.66 -590.87 2.37 
82.58 -589.89 2.27 
82.49 -589.61 2.25 
82.54 -587.43 2.04 
82.62 -581.99 0.97 
81.61 -603.49 3.97 
81.88 -594.78 2.83 
81.88 -594.55 2.81 
81.88 -593.86 2.86 
81.98 -590.77 2.40 
82.08 -588.75 2.19 
81.46 -604.18 4.08 
81.39 -602.64 3.88 
81.68 -596.30 3.02 
81.61 -593.49 2.84 
81.53 -592.76 2.63 
81.81 -590.84 2.41 
81.59 -590.29 2.37 
81.73 -588.85 2.22 
81.70 -588.34 2.17 
81.83 -587.59 2.09 
80.77 -603.02 3.97 
81.04 -597.55 3.21 
81.12 -596.46 3.08 
81.42 -593.21 2.82 
81.09 -592.77 2.66 
80.56 -604.37 4.16 
80.50 -602.97 3.98 
80.68 -597.72 3.26 
80.67 -595.51 3.09 
80.95 -592.93 2.68 
80.78 -590.75 2.46 
80.24 -603.80 4.10 
80.11 -603.50 4.06 
80.05 -602.76 3.98 
80.29 -597.90 3.30 
80.40 -597.61 3.26 
79.53 -604.01 4.18 
79.81 -603.17 4.04 
79.74 -596.71 3.19 
79.33 -598.04 3.38 
79.39 -596.89 3.23 
79.55 -596.41 3.17 
79.76 -584.05 1.22 
84.22 -583.01 1.58 
84.27 -582.02 1.50 
83.77 -583.53 1.64 
84.03 -582.57 1.56 
83.88 -582.17 1.53 
83.83 -581.30 1.47 
83.22 -594.57 3.46 
83.40 -593.30 3.31 
83.62 -583.19 1.62 
82.92 -595.12 3.54 
82.85 -594.81 3.51 
83.03 -585.01 1.80 
83.18 -583.49 1.67 
83.24 -582.68 1.60 
82.63 -585.62 1.88 
82.78 -581.35 1.52 
81.96 -591.22 2.60 
82.03 -586.63 2.00 
81.75 -587.58 2.10 
81.85 -586.85 2.03 
81.66 -581.08 1.55 
80.35 -582.11 1.69 
79.03 -604.66 4.29 
79.17 -596.59 3.21 
79.28 -596.40 3.18 
79.03 -595.52 3.19 
78.37 -602.25 4.00 
78.56 -598.19 3.45 
78.80 -597.78 3.38 
78.93 -595.72 3.22 
78.30 -602.04 3.97 
78.08 -601.91 3.97 
78.01 -601.57 3.92 
78.52 -595.86 3.25 
76.58 -600.91 3.92 
76.31 -601.06 3.96 
76.24 -600.00 3.82 
84.45 -584.91 2.51 
84.31 -585.36 2.55 
84.44 -584.64 2.49 
83.84 -586.04 2.63 
84.02 -585.50 2.58 
83.79 -585.10 2.57 
83.65 -584.77 2.55 
83.32 -586.43 2.70 
83.34 -586.18 2.68 
83.54 -585.77 2.63 
83.27 -585.31 2.62 
83.59 -584.46 2.53 
82.69 -592.40 3.28 
82.42 -596.10 3.69 
82.35 -595.43 3.62 
82.48 -591.91 3.24 
81.91 -595.79 3.70 
81.80 -594.39 3.65 
81.89 -593.77 3.59 
82.33 -587.49 2.86 
81.10 -603.00 4.69 
81.09 -592.51 3.54 
81.41 -590.33 3.18 
80.66 -595.82 3.81 
80.27 -596.22 3.89 
80.57 -592.01 3.41 
79.29 -602.61 4.79 
79.21 -602.33 4.74 
79.36 -596.78 4.03 
79.67 -595.42 3.85 
78.79 -602.79 4.83 
83.74 -582.90 2.41 
83.47 -582.97 2.44 
83.66 -582.28 2.38 
83.09 -583.00 2.46 
82.79 -581.96 2.41 
82.69 -581.47 2.39 
82.20 -584.45 2.63 
81.83 -585.90 2.76 
81.92 -582.58 2.51 
81.78 -582.55 2.52 
81.90 -581.43 2.43 
81.50 -586.32 2.82 
80.86 -586.28 2.86 
81.15 -585.84 2.81 
79.40 -593.89 3.70 
78.93 -603.29 4.92 
78.94 -596.44 4.03 
79.07 -595.98 3.96 
78.83 -596.22 4.01 
78.70 -590.94 3.45 
78.05 -602.37 4.87 
78.17 -602.13 4.82 
77.69 -602.41 4.90 
77.68 -601.93 4.84 
76.55 -601.69 4.90 
82.50 -593.59 4.17 
81.30 -593.74 4.31 
81.00 -593.43 4.31 
85.55 -592.93 -0.47 
83.86 -592.68 -0.60 
83.31 -593.68 -0.49 
79.00 -602.64 0.49 
78.91 -602.82 0.51 
78.93 -602.41 0.46 
74.10 -595.91 -0.69 
83.27 -591.75 -0.03 
83.08 -591.86 -0.02 
80.51 -603.29 1.40 
80.14 -603.94 1.48 
80.32 -603.25 1.39 
80.46 -592.64 -0.01 
80.09 -602.62 1.30 
80.04 -593.13 0.04 
79.45 -604.61 1.54 
79.42 -604.17 1.48 
79.31 -603.06 1.33 
79.74 -594.92 0.27 
79.76 -593.76 0.12 
79.81 -593.41 0.07 
79.67 -592.75 -0.02 
78.95 -603.72 1.41 
79.15 -602.90 1.31 
78.86 -602.82 1.29 
78.75 -602.14 1.19 
78.38 -602.35 1.21 
78.52 -593.75 0.07 
78.01 -601.75 1.11 
77.84 -601.27 1.05 
77.49 -600.89 0.98 
77.49 -596.53 0.41 
77.31 -600.50 0.93 
76.83 -600.11 0.86 
76.57 -599.72 0.80 
76.58 -595.36 0.22 
76.54 -594.85 0.15 
76.01 -599.25 0.72 
76.25 -595.55 0.24 
76.00 -593.66 -0.02 
75.71 -595.69 0.24 
75.69 -594.89 0.13 
75.71 -594.38 0.07 
75.19 -593.97 -0.01 
79.62 -593.88 0.73 
84.30 -593.61 0.93 
84.21 -584.90 -0.10 
83.84 -584.94 -0.10 
83.37 -585.99 0.01 
82.61 -602.86 2.09 
82.88 -602.62 2.06 
82.70 -602.22 2.01 
82.77 -601.22 1.87 
83.04 -586.33 0.05 
83.32 -585.69 -0.02 
83.04 -585.23 -0.08 
82.22 -603.61 2.19 
82.13 -603.41 2.16 
82.25 -601.38 1.89 
82.68 -587.45 0.17 
81.91 -603.20 2.13 
81.91 -602.39 2.02 
81.59 -601.96 1.96 
81.68 -601.75 1.94 
81.54 -597.31 1.36 
81.08 -602.53 2.03 
80.77 -604.04 2.23 
80.57 -603.83 2.20 
80.65 -597.34 1.35 
80.37 -604.25 2.26 
79.82 -600.53 1.76 
80.40 -587.55 0.16 
80.12 -585.11 -0.34 
79.04 -604.51 2.28 
79.03 -601.33 1.86 
77.01 -600.01 1.67 
76.74 -600.48 1.72 
75.75 -595.79 0.94 
84.95 -591.85 1.40 
84.58 -591.89 1.23 
84.55 -585.00 0.46 
84.20 -594.39 1.54 
84.06 -594.18 1.52 
83.96 -592.47 1.31 
84.23 -592.11 1.26 
84.23 -585.35 0.50 
84.44 -585.20 0.49 
84.28 -584.64 0.43 
84.51 -582.66 0.22 
83.63 -595.34 1.66 
83.71 -594.95 1.61 
83.73 -594.56 1.62 
83.82 -592.86 1.36 
83.76 -592.63 1.33 
83.77 -592.17 1.28 
83.94 -585.75 0.55 
84.01 -585.41 0.51 
83.79 -584.08 0.37 
84.02 -583.02 0.26 
83.93 -582.54 0.21 
83.10 -595.93 1.75 
83.41 -595.33 1.67 
83.33 -595.11 1.64 
83.43 -594.70 1.59 
83.45 -593.39 1.59 
83.32 -592.95 1.38 
83.36 -592.18 1.28 
83.42 -586.21 0.60 
83.63 -583.24 0.28 
82.73 -602.13 2.67 
82.48 -601.76 2.52 
82.79 -593.05 1.40 
83.20 -586.62 0.65 
83.14 -586.13 0.60 
83.05 -585.27 0.50 
82.08 -602.26 2.70 
82.56 -594.10 1.53 
82.71 -593.25 1.42 
82.69 -592.32 1.31 
82.59 -587.88 0.80 
82.57 -587.13 0.71 
82.67 -586.63 0.66 
82.55 -585.59 0.54 
82.65 -585.38 0.52 
81.87 -603.93 2.92 
81.73 -603.72 2.90 
81.85 -596.38 1.96 
82.23 -593.33 1.44 
82.20 -588.08 0.82 
82.26 -587.33 0.74 
82.32 -586.64 0.66 
81.36 -602.77 2.77 
81.91 -593.30 1.44 
81.74 -590.12 1.06 
81.82 -587.06 0.71 
81.11 -604.56 3.02 
80.85 -603.51 2.88 
81.07 -603.30 2.85 
81.24 -602.64 2.76 
81.15 -598.07 2.05 
81.10 -597.66 2.00 
81.24 -597.21 1.93 
81.29 -589.81 1.03 
81.26 -589.12 0.95 
81.34 -588.65 0.90 
81.67 -587.47 0.76 
80.73 -596.84 1.89 
80.79 -596.28 1.82 
81.12 -589.31 0.97 
81.20 -588.81 0.92 
80.42 -598.24 2.08 
80.43 -597.84 2.03 
80.44 -597.36 1.97 
80.35 -596.44 1.85 
84.73 -593.41 2.11 
84.67 -593.60 2.13 
83.94 -584.30 0.62 
84.03 -581.81 0.13 
84.05 -580.68 0.26 
83.58 -582.38 0.19 
83.51 -582.00 0.16 
83.12 -587.08 0.91 
83.06 -582.63 0.22 
83.20 -582.39 0.20 
82.78 -586.08 0.81 
82.94 -582.79 0.24 
82.03 -592.22 1.47 
82.16 -588.63 1.08 
82.42 -584.46 0.64 
82.36 -582.59 0.45 
81.56 -592.24 1.48 
82.12 -584.83 0.68 
81.02 -597.32 2.09 
81.22 -595.20 1.83 
81.36 -592.86 1.55 
81.18 -592.33 1.50 
80.65 -595.68 1.89 
80.74 -594.79 1.79 
81.24 -587.09 0.72 
80.10 -603.07 2.83 
80.16 -602.86 2.80 
80.19 -597.56 2.13 
80.26 -596.72 2.02 
80.58 -596.34 1.97 
80.52 -588.60 0.90 
80.66 -588.15 0.85 
80.61 -587.72 0.90 
80.44 -587.55 0.78 
79.89 -589.91 1.06 
80.14 -584.96 0.50 
79.19 -604.17 2.99 
79.17 -595.11 1.84 
78.32 -602.34 2.76 
78.20 -601.99 2.72 
78.46 -600.41 2.51 
78.29 -599.82 2.44 
78.57 -595.38 1.88 
77.64 -604.44 3.05 
77.78 -601.64 2.68 
77.98 -600.01 2.46 
77.80 -599.52 2.41 
77.27 -601.03 2.50 
76.75 -600.83 2.53 
76.41 -601.10 2.52 
75.84 -600.53 2.56 
85.00 -583.35 1.06 
84.45 -591.17 1.87 
84.82 -584.80 1.21 
84.87 -583.85 1.11 
84.70 -583.35 1.07 
84.00 -593.74 2.32 
84.18 -593.06 2.09 
84.33 -585.35 1.27 
84.25 -584.75 1.22 
84.28 -584.14 1.16 
84.54 -582.80 1.03 
84.52 -582.57 1.01 
84.55 -582.26 0.98 
84.41 -581.95 0.95 
83.47 -595.88 2.45 
83.49 -594.81 2.32 
83.77 -594.67 2.29 
83.56 -591.57 1.94 
83.85 -587.05 1.45 
84.01 -585.43 1.29 
84.12 -584.46 1.19 
83.77 -583.17 1.08 
83.12 -596.88 2.59 
83.27 -596.06 2.48 
83.07 -595.56 2.54 
83.24 -595.33 2.47 
83.36 -594.98 2.34 
83.15 -594.53 2.43 
83.43 -593.96 2.22 
83.20 -589.44 1.72 
83.56 -584.80 1.24 
82.80 -595.68 2.57 
83.02 -594.06 2.25 
82.99 -593.35 2.31 
83.11 -590.11 1.80 
83.15 -589.62 1.74 
82.85 -587.88 1.57 
82.99 -587.67 1.54 
82.98 -587.41 1.52 
82.89 -586.67 1.45 
82.90 -585.66 1.34 
82.21 -602.38 3.38 
82.24 -602.02 3.30 
82.17 -601.70 3.26 
82.36 -597.40 2.68 
82.38 -596.97 2.63 
82.41 -596.57 2.57 
82.51 -594.87 2.36 
82.29 -594.03 2.40 
82.67 -593.11 2.15 
82.65 -588.78 1.67 
82.71 -588.08 1.60 
82.76 -587.35 1.52 
82.62 -586.88 1.48 
82.79 -586.33 1.42 
82.73 -586.09 1.39 
82.75 -585.28 1.31 
82.64 -585.01 1.29 
81.67 -603.82 3.62 
81.84 -603.51 3.57 
82.00 -596.10 2.53 
82.28 -590.74 1.89 
82.07 -590.23 1.85 
82.14 -589.65 1.78 
82.19 -588.81 1.69 
82.37 -588.43 1.64 
82.35 -588.17 1.62 
82.44 -586.71 1.46 
81.20 -604.25 3.69 
81.56 -604.03 3.65 
81.47 -602.57 3.46 
81.67 -596.28 2.57 
81.66 -592.64 2.13 
81.70 -591.77 2.03 
81.84 -590.41 1.87 
81.63 -589.86 1.82 
81.76 -589.18 1.74 
80.92 -603.09 3.55 
81.27 -597.52 2.74 
81.37 -593.07 2.19 
81.41 -590.51 1.90 
80.43 -602.76 3.52 
80.87 -597.97 2.81 
80.97 -595.93 2.55 
80.93 -595.68 2.58 
80.52 -597.27 2.73 
80.45 -596.88 2.79 
80.27 -593.27 2.26 
79.24 -601.14 3.29 
79.06 -598.04 2.89 
84.14 -592.29 2.71 
84.39 -580.94 0.86 
83.82 -593.94 2.91 
83.80 -593.06 2.82 
83.97 -581.95 0.96 
83.83 -580.96 0.88 
83.06 -596.11 3.21 
83.65 -581.94 1.22 
83.16 -585.63 1.55 
83.10 -584.25 1.43 
82.98 -582.94 1.32 
82.79 -584.88 1.49 
82.09 -586.33 1.64 
81.65 -591.98 2.21 
81.74 -591.50 2.15 
81.79 -587.55 1.76 
82.01 -585.50 1.36 
82.02 -585.46 1.35 
81.52 -587.63 1.78 
81.73 -582.34 1.29 
80.65 -592.03 2.24 
80.52 -588.48 1.89 
79.09 -596.36 2.78 
79.57 -583.78 1.26 
78.59 -601.35 3.35 
78.85 -596.06 2.75 
78.13 -601.77 3.48 
78.49 -597.92 2.89 
78.53 -597.34 2.82 
78.23 -594.70 2.62 
77.94 -602.00 3.52 
77.90 -601.05 3.40 
77.57 -601.51 3.47 
77.31 -600.70 3.31 
77.11 -601.16 3.38 
76.99 -600.46 3.29 
76.69 -600.20 3.26 
76.09 -600.68 3.42 
76.34 -599.93 3.24 
84.58 -584.37 1.94 
84.33 -585.75 2.07 
84.25 -585.21 2.03 
84.20 -583.89 1.92 
84.21 -583.33 1.87 
84.19 -582.81 1.83 
84.34 -581.78 1.74 
83.54 -592.38 2.76 
83.91 -586.14 2.13 
83.72 -585.66 2.09 
83.76 -584.66 2.00 
83.91 -584.25 1.96 
83.91 -583.43 1.89 
84.07 -583.29 1.88 
84.02 -582.40 1.81 
83.06 -595.15 3.10 
83.28 -587.72 2.30 
82.59 -602.00 4.01 
82.95 -594.15 3.10 
82.70 -593.89 2.98 
83.02 -591.79 2.73 
83.16 -587.88 2.32 
82.90 -587.03 2.26 
83.29 -584.18 1.99 
82.31 -593.85 2.99 
82.69 -590.30 2.59 
82.53 -590.05 2.57 
82.51 -589.34 2.50 
82.43 -588.10 2.39 
82.43 -587.32 2.31 
82.61 -586.19 2.20 
82.75 -585.96 2.17 
82.76 -585.75 2.15 
82.74 -584.80 2.07 
81.79 -595.33 3.29 
81.85 -594.39 3.08 
82.04 -594.02 3.03 
82.23 -593.21 3.04 
82.13 -590.74 2.67 
82.08 -590.13 2.61 
82.01 -588.65 2.46 
81.67 -596.14 3.30 
81.78 -595.30 3.28 
81.60 -595.04 3.27 
81.50 -592.54 2.90 
81.63 -592.11 2.84 
81.87 -590.98 2.85 
81.59 -590.18 2.64 
81.58 -588.76 2.50 
81.62 -588.25 2.44 
81.91 -587.62 2.37 
81.73 -587.33 2.35 
81.87 -586.73 2.29 
82.02 -586.43 2.25 
80.99 -603.90 4.37 
80.80 -602.46 4.19 
81.18 -602.26 4.14 
81.04 -597.40 3.50 
81.03 -596.29 3.36 
80.54 -604.15 4.43 
80.39 -603.48 4.35 
80.39 -602.95 4.28 
80.56 -597.51 3.54 
80.85 -597.19 3.48 
80.85 -595.30 3.34 
81.03 -592.65 2.94 
80.89 -591.45 2.81 
80.27 -597.82 3.60 
79.71 -603.73 4.43 
79.39 -603.28 4.39 
79.43 -596.82 3.52 
79.42 -596.13 3.44 
79.22 -597.94 3.68 
79.27 -596.58 3.50 
83.46 -592.88 3.54 
84.13 -581.91 1.76 
83.04 -593.21 3.61 
83.53 -584.16 2.20 
83.69 -582.23 2.06 
83.70 -581.12 1.72 
82.59 -595.51 3.90 
83.12 -583.24 1.92 
82.42 -595.92 3.97 
82.58 -583.22 1.94 
82.92 -581.20 1.76 
82.67 -580.14 1.69 
82.41 -584.22 2.03 
81.85 -585.59 2.39 
81.29 -585.21 2.38 
81.02 -591.63 2.96 
81.04 -588.33 2.48 
81.19 -585.81 2.24 
80.75 -585.45 2.43 
80.15 -590.51 2.76 
79.88 -587.33 2.45 
79.16 -596.32 3.48 
79.27 -593.69 3.16 
78.73 -597.82 3.69 
78.95 -595.83 3.43 
78.37 -602.00 4.27 
77.70 -602.49 4.38 
77.42 -601.66 4.28 
76.52 -600.79 4.22 
76.49 -600.58 4.19 
76.29 -600.84 4.24 
76.13 -600.07 4.15 
75.78 -601.10 4.31 
84.45 -584.67 2.74 
84.54 -584.50 2.72 
84.58 -583.74 2.66 
84.20 -584.83 2.77 
84.21 -584.07 2.71 
83.89 -586.15 2.89 
83.86 -585.67 2.86 
83.91 -585.19 2.82 
83.92 -583.64 2.70 
83.77 -582.75 2.65 
83.29 -586.24 2.94 
83.58 -585.74 2.88 
83.45 -584.39 2.79 
82.78 -593.60 3.67 
83.19 -585.09 2.86 
82.34 -593.53 3.70 
82.42 -591.72 3.51 
82.43 -591.31 3.47 
82.51 -586.05 2.99 
81.87 -595.62 3.98 
81.91 -595.45 3.95 
82.22 -590.75 3.43 
82.18 -587.41 3.12 
81.67 -595.19 3.94 
81.12 -588.21 3.28 
80.53 -593.22 3.91 
79.31 -596.67 4.32 
83.45 -582.79 2.67 
83.63 -582.12 2.62 
83.51 -581.99 2.62 
83.08 -582.85 2.70 
82.91 -581.95 2.65 
81.67 -586.18 3.06 
81.16 -586.47 3.12 
81.05 -586.17 3.10 
81.14 -585.69 3.06 
81.20 -584.64 2.97 
80.59 -586.45 3.16 
80.73 -583.30 2.90 
80.05 -590.84 3.61 
79.62 -587.12 3.29 
79.08 -595.94 4.25 
79.24 -593.32 3.93 
78.09 -602.14 5.15 
78.22 -592.35 3.91 
78.69 -588.11 3.46 
77.62 -602.37 5.22 
78.05 -596.33 4.38 
83.21 -584.95 3.65 
80.35 -593.19 4.63 
79.36 -581.34 2.85 
87.85 -591.23 -0.26 
87.58 -591.26 -0.28 
86.87 -591.34 -0.30 
86.19 -591.44 -0.33 
86.39 -591.35 -0.33 
85.36 -591.29 -0.39 
84.16 -591.05 -0.49 
83.82 -591.10 -0.50 
83.21 -593.43 -0.22 
83.23 -593.29 -0.24 
83.27 -592.80 -0.30 
83.32 -592.49 -0.34 
83.38 -591.41 -0.49 
83.53 -591.13 -0.52 
83.17 -593.50 -0.21 
79.60 -593.35 -0.43 
79.69 -593.18 -0.45 
78.98 -602.46 0.75 
78.90 -602.65 0.77 
74.06 -595.79 -0.41 
83.32 -591.01 0.18 
83.49 -590.76 0.15 
81.23 -604.52 1.87 
80.68 -597.03 0.87 
80.39 -604.32 1.82 
80.35 -603.06 1.65 
80.46 -592.44 0.27 
79.81 -604.59 1.84 
79.79 -604.18 1.78 
80.04 -603.73 1.73 
80.09 -602.42 1.56 
80.28 -593.27 0.37 
80.32 -593.09 0.35 
79.48 -604.06 1.75 
79.64 -602.64 1.57 
79.73 -594.90 0.56 
79.71 -593.61 0.39 
79.87 -593.45 0.38 
79.66 -593.14 0.33 
79.59 -592.60 0.26 
79.21 -604.44 1.80 
79.25 -602.87 1.59 
79.42 -593.27 0.34 
79.44 -592.60 0.25 
78.80 -603.33 1.64 
78.72 -601.97 1.45 
78.34 -602.20 1.47 
78.62 -593.56 0.35 
77.97 -601.62 1.38 
77.82 -601.24 1.33 
77.85 -601.03 1.30 
78.20 -593.72 0.36 
77.66 -600.88 1.27 
77.41 -600.52 1.22 
77.31 -600.30 1.19 
77.30 -596.66 0.71 
76.95 -600.03 1.14 
76.73 -594.61 0.42 
76.43 -599.61 1.07 
76.68 -595.10 0.49 
76.35 -594.78 0.43 
76.16 -599.73 1.07 
76.11 -595.50 0.52 
75.98 -595.22 0.48 
75.66 -595.62 0.52 
75.87 -593.65 0.27 
84.43 -594.21 1.29 
79.51 -593.94 1.03 
79.61 -593.71 1.00 
79.27 -594.13 1.06 
83.55 -595.38 1.43 
84.16 -581.55 -0.18 
83.46 -594.36 1.30 
83.59 -584.81 0.17 
83.58 -584.55 0.15 
82.82 -602.50 2.33 
82.65 -602.01 2.26 
82.65 -601.09 2.14 
82.72 -600.80 2.10 
82.83 -595.42 1.42 
82.85 -593.96 1.24 
83.42 -581.30 -0.22 
82.17 -603.22 2.42 
82.62 -596.02 1.50 
81.71 -602.93 2.38 
82.03 -602.31 2.30 
81.73 -601.70 2.21 
81.49 -601.48 2.18 
81.48 -597.16 1.63 
81.59 -596.01 1.48 
81.21 -603.77 2.49 
81.31 -597.47 1.66 
80.64 -604.66 2.60 
80.49 -603.60 2.46 
80.62 -597.14 1.62 
80.29 -604.23 2.54 
80.29 -604.02 2.51 
80.44 -597.52 1.66 
80.58 -597.32 1.64 
80.46 -596.67 1.56 
80.39 -596.44 1.53 
80.61 -587.68 0.47 
80.70 -587.46 0.44 
79.92 -602.75 2.34 
79.82 -600.30 2.01 
79.70 -600.33 2.02 
79.55 -595.82 1.44 
79.15 -604.34 2.54 
79.38 -596.02 1.46 
78.70 -604.59 2.57 
78.64 -600.72 2.06 
78.42 -597.58 1.65 
77.98 -604.61 2.57 
77.52 -603.69 2.44 
77.08 -601.12 2.10 
76.91 -599.87 1.93 
76.50 -600.34 1.99 
75.68 -595.73 1.23 
84.96 -591.79 1.67 
84.44 -591.88 1.52 
83.88 -594.68 1.87 
84.05 -594.14 1.80 
84.03 -592.38 1.59 
84.32 -592.02 1.54 
84.26 -591.30 1.63 
84.26 -584.77 0.72 
84.16 -584.49 0.70 
84.32 -581.68 0.40 
83.72 -595.37 1.96 
83.64 -594.84 1.89 
83.53 -594.43 1.84 
83.83 -594.27 1.82 
83.68 -592.76 1.64 
83.62 -592.52 1.61 
83.73 -591.92 1.54 
83.84 -585.58 0.81 
83.95 -585.13 0.77 
84.00 -583.13 0.55 
83.95 -582.32 0.47 
83.23 -595.85 2.02 
83.24 -594.98 1.91 
83.28 -594.42 1.99 
83.18 -592.01 1.55 
83.38 -591.37 1.47 
83.48 -585.12 0.77 
83.56 -583.42 0.59 
83.50 -583.12 0.56 
83.49 -582.28 0.47 
83.47 -581.76 0.41 
82.61 -602.02 2.94 
82.77 -601.42 2.86 
82.68 -595.98 2.05 
82.87 -595.57 1.99 
83.02 -595.41 1.97 
82.67 -594.94 1.92 
82.77 -592.54 1.78 
83.13 -586.46 0.92 
83.08 -586.09 0.88 
83.25 -582.46 0.49 
82.51 -596.08 2.06 
82.59 -594.66 2.03 
82.66 -593.30 1.72 
82.68 -593.00 1.68 
82.51 -586.98 0.98 
82.58 -585.26 0.79 
82.90 -584.90 0.75 
81.72 -603.82 3.20 
81.90 -603.62 3.17 
82.23 -593.14 1.70 
82.11 -588.04 1.10 
82.09 -587.27 1.02 
82.42 -586.69 0.95 
82.21 -586.35 0.91 
82.41 -585.40 0.81 
81.56 -603.87 3.21 
81.51 -603.25 3.12 
81.82 -593.25 1.72 
81.82 -592.79 1.66 
81.68 -590.05 1.34 
81.78 -587.44 1.04 
81.86 -586.96 0.99 
81.77 -586.65 0.95 
80.86 -604.54 3.31 
81.22 -603.05 3.10 
81.09 -597.86 2.31 
81.13 -596.98 2.20 
81.32 -596.52 2.27 
81.22 -588.68 1.19 
81.59 -587.33 1.03 
80.66 -603.45 3.16 
80.58 -597.62 2.29 
80.64 -596.69 2.17 
80.78 -596.24 2.11 
80.85 -596.06 2.08 
81.11 -589.66 1.30 
81.10 -589.27 1.26 
81.12 -588.92 1.22 
81.07 -586.93 0.99 
80.35 -598.39 2.39 
80.28 -597.93 2.33 
84.43 -594.35 2.51 
84.43 -581.97 0.66 
84.34 -580.39 0.51 
83.74 -584.82 0.95 
83.83 -581.16 0.59 
83.36 -588.89 1.37 
83.59 -580.36 0.51 
83.80 -580.27 0.50 
83.07 -586.52 1.13 
83.09 -582.10 0.45 
83.29 -580.44 0.52 
82.59 -585.73 1.05 
82.51 -584.88 0.96 
82.75 -581.62 0.63 
82.08 -588.53 1.35 
82.20 -585.77 1.05 
81.77 -593.79 1.94 
81.82 -589.59 1.46 
81.89 -587.69 1.26 
82.07 -584.84 0.96 
82.02 -582.15 0.69 
80.99 -597.18 2.35 
81.53 -584.80 0.96 
80.63 -604.32 3.28 
80.35 -603.51 3.17 
80.39 -602.85 3.09 
80.35 -597.40 2.39 
80.31 -596.73 2.31 
80.42 -588.46 1.17 
80.61 -588.03 1.12 
80.60 -587.77 1.09 
80.15 -597.41 2.39 
80.17 -597.19 2.36 
80.03 -589.64 1.49 
80.22 -588.15 1.14 
79.30 -604.44 3.32 
79.48 -602.65 3.07 
79.60 -590.17 1.38 
79.78 -589.73 1.33 
79.93 -589.07 1.25 
79.19 -604.18 3.28 
79.04 -603.77 3.23 
79.15 -595.40 2.16 
78.56 -602.43 3.06 
78.14 -602.21 3.03 
78.16 -601.74 2.97 
78.36 -600.28 2.78 
78.28 -599.67 2.70 
78.53 -595.71 2.20 
77.96 -600.07 2.76 
78.01 -599.42 2.67 
77.33 -604.34 3.33 
77.47 -599.80 2.73 
76.73 -600.76 2.86 
76.46 -599.49 2.70 
76.03 -601.47 2.97 
76.00 -600.97 2.90 
75.73 -600.42 2.83 
84.36 -591.76 2.21 
84.60 -584.86 1.49 
84.69 -584.61 1.46 
84.76 -583.69 1.37 
84.68 -583.14 1.32 
84.09 -592.85 2.35 
84.07 -591.91 2.24 
84.26 -585.18 1.53 
84.50 -583.31 1.34 
84.43 -582.70 1.29 
84.43 -581.95 1.22 
84.26 -581.58 1.19 
83.53 -594.74 2.59 
83.65 -594.10 2.51 
83.71 -592.43 2.31 
83.63 -591.37 2.20 
83.97 -585.28 1.55 
84.08 -584.10 1.43 
84.08 -582.01 1.23 
83.25 -595.95 2.75 
83.04 -594.68 2.72 
83.41 -594.31 2.55 
83.14 -593.84 2.50 
83.63 -586.79 1.71 
83.43 -586.48 1.68 
83.35 -584.71 1.51 
83.60 -584.62 1.49 
83.68 -582.01 1.24 
82.95 -595.50 2.82 
83.00 -595.30 2.79 
82.93 -594.83 2.74 
82.85 -594.30 2.63 
82.69 -593.08 2.43 
82.94 -590.30 2.10 
82.95 -590.04 2.07 
83.03 -589.41 2.00 
82.79 -589.01 2.14 
82.87 -587.22 1.78 
82.94 -585.57 1.61 
82.33 -601.91 3.62 
82.33 -594.97 2.67 
82.48 -594.81 2.64 
82.51 -590.37 2.12 
82.64 -589.65 2.21 
82.57 -588.58 1.93 
82.55 -588.06 1.87 
82.46 -587.56 1.82 
82.65 -587.32 1.79 
82.44 -586.60 1.73 
82.79 -586.37 1.69 
82.80 -585.47 1.60 
82.66 -585.16 1.57 
81.62 -603.85 3.91 
81.72 -603.31 3.83 
81.71 -602.94 3.78 
81.90 -596.04 2.82 
82.15 -595.17 2.70 
82.01 -594.19 2.70 
81.94 -593.07 2.58 
82.24 -591.70 2.28 
82.22 -590.55 2.15 
82.06 -589.82 2.08 
82.09 -589.60 2.05 
82.09 -588.77 1.96 
82.30 -588.25 1.90 
82.30 -588.00 1.88 
82.35 -586.77 1.75 
81.39 -603.99 3.94 
81.50 -603.53 3.87 
81.58 -603.14 3.82 
81.33 -602.53 3.74 
81.49 -602.31 3.71 
81.37 -597.07 2.97 
81.55 -596.20 2.85 
81.66 -591.79 2.31 
81.85 -590.22 2.13 
81.64 -589.18 2.02 
81.83 -588.29 1.92 
81.93 -585.39 1.62 
81.16 -603.37 3.86 
80.86 -602.91 3.81 
81.19 -597.31 3.00 
81.45 -590.78 2.21 
81.27 -589.80 2.10 
80.43 -603.78 3.95 
80.46 -603.14 3.86 
80.50 -602.11 3.72 
80.78 -597.93 3.10 
80.64 -597.51 3.05 
80.77 -596.97 3.07 
79.97 -602.75 3.83 
79.22 -600.97 3.57 
84.61 -592.12 2.94 
84.04 -593.78 3.16 
84.07 -593.48 3.12 
84.20 -592.25 2.98 
84.02 -592.01 2.96 
83.41 -595.43 3.39 
83.73 -593.84 3.19 
83.56 -592.30 3.02 
84.01 -582.42 1.51 
84.17 -580.77 1.37 
83.20 -595.23 3.38 
83.29 -584.99 1.75 
83.43 -581.41 1.44 
83.25 -585.22 1.77 
83.08 -580.83 1.15 
82.61 -583.10 1.38 
82.29 -583.26 1.62 
82.36 -582.43 1.55 
82.05 -583.39 1.64 
81.50 -587.40 2.02 
81.54 -584.44 1.54 
81.50 -582.20 1.32 
80.85 -590.80 2.38 
80.87 -588.64 2.16 
80.60 -594.50 2.79 
79.51 -595.93 2.99 
79.57 -590.55 2.25 
79.86 -584.31 1.78 
79.18 -596.43 3.06 
79.56 -583.82 1.54 
78.76 -597.91 3.17 
78.73 -595.92 3.02 
78.67 -595.48 2.87 
78.11 -604.63 4.15 
78.02 -601.63 3.75 
78.44 -597.38 3.12 
77.53 -601.39 3.74 
77.26 -600.59 3.59 
77.05 -601.06 3.66 
77.12 -600.56 3.59 
76.32 -600.09 3.62 
76.23 -599.84 3.53 
75.99 -600.31 3.66 
84.25 -585.57 2.32 
84.14 -585.24 2.29 
84.16 -584.51 2.23 
84.12 -583.78 2.17 
84.12 -583.23 2.12 
84.27 -581.76 2.00 
83.85 -585.97 2.37 
83.79 -585.60 2.34 
83.73 -584.56 2.25 
83.80 -583.35 2.15 
84.06 -582.71 2.08 
83.88 -582.30 2.06 
83.75 -581.73 2.02 
84.01 -581.29 1.97 
83.16 -590.04 2.80 
83.44 -586.17 2.41 
83.42 -582.88 2.13 
83.68 -581.96 2.04 
82.73 -595.81 3.48 
83.10 -589.57 2.76 
83.13 -587.69 2.57 
82.84 -586.87 2.51 
83.25 -584.61 2.28 
83.00 -583.16 2.17 
82.24 -594.16 3.40 
82.55 -592.50 3.22 
82.48 -590.16 2.86 
82.35 -589.54 2.80 
82.42 -589.12 2.75 
82.39 -588.42 2.68 
82.41 -587.22 2.57 
82.45 -585.98 2.45 
82.64 -584.68 2.32 
82.03 -593.82 3.33 
82.17 -590.87 2.95 
82.11 -590.28 3.03 
82.02 -588.50 2.71 
82.18 -587.83 2.64 
82.23 -587.61 2.61 
82.05 -586.10 2.48 
82.39 -583.94 2.27 
82.28 -579.94 1.34 
81.71 -595.29 3.55 
81.56 -595.04 3.54 
81.61 -592.36 3.14 
81.60 -591.91 3.09 
81.85 -590.55 2.93 
81.85 -590.35 2.91 
81.63 -588.64 2.75 
81.57 -588.10 2.70 
81.82 -587.86 2.66 
81.94 -587.54 2.62 
81.73 -587.22 2.60 
81.84 -586.64 2.54 
81.97 -586.29 2.50 
80.82 -602.63 4.50 
81.02 -597.20 3.76 
81.35 -589.48 2.85 
80.43 -604.03 4.72 
80.48 -603.39 4.62 
80.51 -603.05 4.58 
80.61 -602.43 4.49 
80.51 -602.21 4.46 
80.60 -597.60 3.83 
80.73 -597.37 3.80 
81.06 -588.21 2.74 
80.33 -597.83 3.88 
80.22 -597.39 3.83 
80.36 -595.11 3.54 
80.12 -595.28 3.57 
79.42 -603.76 4.74 
79.22 -601.95 4.51 
84.10 -584.34 2.43 
83.42 -593.91 3.93 
83.59 -584.51 2.47 
83.64 -581.11 1.97 
83.43 -580.70 1.95 
82.82 -594.84 4.08 
82.79 -594.44 4.04 
83.16 -581.62 2.04 
82.49 -595.01 4.13 
82.46 -583.55 2.45 
82.75 -581.11 2.02 
82.45 -583.15 2.20 
80.85 -591.46 3.21 
81.04 -586.02 2.71 
78.99 -595.36 3.72 
78.63 -592.46 3.33 
77.25 -601.60 4.58 
84.18 -585.16 3.04 
84.21 -584.69 3.00 
83.96 -585.30 3.07 
83.95 -585.09 3.05 
83.90 -583.80 2.96 
83.80 -583.52 2.94 
83.72 -582.43 2.87 
83.55 -585.64 3.12 
83.41 -585.44 3.12 
83.62 -582.64 2.89 
83.42 -581.99 2.86 
83.15 -585.85 3.17 
83.10 -584.95 3.10 
82.45 -591.32 3.73 
82.40 -587.32 3.35 
82.77 -583.73 3.03 
81.74 -595.57 4.26 
82.07 -587.73 3.41 
82.13 -587.51 3.39 
81.62 -595.12 4.22 
81.73 -594.25 4.11 
81.68 -592.73 3.94 
81.70 -588.05 3.47 
81.65 -587.82 3.46 
81.93 -587.19 3.38 
81.61 -586.07 3.30 
81.80 -585.76 3.26 
81.28 -590.06 3.70 
80.79 -592.74 4.09 
80.94 -588.76 3.60 
80.86 -588.53 3.58 
80.89 -588.04 3.53 
80.16 -594.29 4.24 
79.52 -602.33 5.29 
83.29 -581.65 2.84 
82.94 -582.53 2.93 
82.27 -593.84 4.76 
82.61 -582.58 2.96 
82.34 -580.82 2.85 
81.60 -585.00 3.22 
81.52 -582.84 3.05 
81.13 -586.39 3.37 
80.86 -586.03 3.36 
80.65 -587.73 3.52 
78.61 -596.48 4.64 
83.15 -584.88 3.88 
81.96 -584.84 3.99 
87.90 -590.71 -0.23 
87.51 -590.81 -0.24 
86.64 -590.93 -0.27 
86.19 -590.95 -0.29 
85.35 -590.83 -0.35 
85.14 -590.92 -0.35 
83.84 -590.77 -0.44 
83.24 -593.08 -0.16 
83.27 -592.66 -0.22 
83.28 -592.45 -0.25 
83.35 -591.39 -0.39 
83.41 -591.03 -0.43 
83.52 -590.79 -0.46 
83.16 -593.35 -0.13 
83.22 -591.57 -0.37 
79.57 -593.23 -0.35 
79.63 -593.01 -0.37 
78.90 -602.53 0.85 
78.93 -602.30 0.83 
74.01 -595.88 -0.30 
83.37 -591.12 0.29 
83.50 -590.76 0.25 
82.98 -591.65 0.34 
83.17 -590.87 0.25 
81.26 -604.51 1.97 
80.73 -597.03 0.97 
80.14 -603.74 1.83 
80.47 -603.06 1.75 
80.36 -596.54 0.89 
80.44 -592.46 0.37 
80.51 -592.28 0.35 
79.86 -604.62 1.94 
79.76 -604.44 1.91 
80.07 -602.44 1.65 
80.28 -593.15 0.45 
79.41 -604.04 1.85 
79.75 -594.86 0.65 
79.65 -593.65 0.49 
79.73 -593.37 0.46 
79.75 -592.78 0.38 
78.95 -604.30 1.87 
78.99 -603.62 1.78 
79.16 -602.82 1.68 
79.48 -595.69 0.75 
79.49 -593.18 0.43 
79.61 -592.51 0.35 
78.72 -602.00 1.55 
78.34 -602.26 1.58 
78.57 -595.82 0.74 
78.64 -593.46 0.44 
78.02 -601.79 1.50 
77.96 -601.57 1.47 
77.85 -601.10 1.41 
78.16 -593.80 0.47 
77.51 -600.78 1.36 
77.41 -600.41 1.30 
76.76 -600.02 1.23 
77.02 -594.08 0.47 
76.36 -599.54 1.16 
76.67 -595.02 0.58 
76.35 -594.71 0.53 
75.60 -595.56 0.61 
75.86 -593.61 0.37 
75.55 -594.26 0.44 
84.19 -594.24 1.38 
83.01 -592.11 0.93 
79.53 -593.42 1.06 
84.42 -591.22 1.01 
84.03 -590.65 0.94 
83.41 -595.09 1.48 
83.28 -593.81 1.32 
83.49 -581.11 -0.16 
82.61 -602.63 2.44 
82.86 -602.42 2.42 
82.79 -602.02 2.36 
82.73 -601.02 2.23 
82.65 -600.80 2.20 
82.63 -600.42 2.15 
82.78 -595.78 1.56 
82.88 -595.35 1.50 
82.12 -603.28 2.53 
82.59 -594.67 1.42 
82.06 -603.07 2.50 
82.00 -602.25 2.39 
81.74 -601.64 2.30 
82.39 -584.59 0.22 
81.70 -602.88 2.47 
81.47 -601.85 2.33 
81.53 -601.53 2.29 
81.55 -595.98 1.57 
81.74 -595.38 1.50 
81.12 -603.78 2.58 
81.27 -601.41 2.27 
81.14 -596.77 1.67 
80.64 -604.67 2.70 
80.71 -597.98 1.82 
81.04 -593.01 1.20 
81.06 -589.29 0.75 
80.99 -589.01 0.71 
80.27 -604.25 2.64 
80.35 -604.05 2.62 
80.54 -597.26 1.73 
80.35 -596.22 1.59 
79.83 -604.65 2.69 
79.81 -600.13 2.09 
79.01 -603.72 2.56 
79.16 -595.81 1.53 
78.80 -604.62 2.68 
78.80 -601.24 2.23 
78.48 -597.53 1.74 
77.94 -597.24 1.70 
77.68 -596.53 1.61 
77.09 -601.21 2.21 
76.95 -599.81 2.02 
75.69 -595.78 1.34 
84.46 -591.86 1.61 
84.49 -591.38 1.71 
84.16 -594.11 1.89 
84.20 -592.05 1.63 
84.44 -584.91 0.81 
84.24 -584.49 0.77 
83.66 -595.21 2.03 
83.78 -594.67 1.96 
83.65 -594.36 1.92 
83.71 -593.93 1.94 
83.70 -593.64 1.83 
83.81 -592.50 1.69 
83.91 -591.96 1.63 
83.83 -585.52 0.89 
83.92 -585.19 0.85 
83.91 -585.03 0.83 
84.06 -583.28 0.64 
83.95 -582.82 0.60 
83.92 -582.29 0.54 
83.31 -595.85 2.12 
83.14 -595.42 2.07 
83.22 -594.82 2.08 
83.24 -592.73 1.73 
83.29 -591.97 1.63 
83.37 -591.22 1.54 
83.35 -586.01 0.94 
83.58 -583.41 0.66 
83.53 -582.13 0.53 
83.49 -581.85 0.50 
82.80 -601.33 2.95 
82.98 -595.55 2.08 
82.74 -593.47 1.83 
83.27 -586.49 1.00 
83.06 -585.93 0.94 
82.36 -601.29 2.95 
82.64 -595.84 2.13 
82.51 -593.15 1.79 
82.70 -592.85 1.75 
82.53 -587.84 1.16 
82.80 -585.59 0.91 
82.60 -585.23 0.87 
82.87 -582.46 0.57 
83.03 -582.14 0.53 
81.85 -603.48 3.25 
81.82 -603.20 3.21 
82.20 -590.78 1.51 
82.14 -587.96 1.18 
82.27 -587.68 1.15 
82.44 -586.91 1.06 
82.26 -586.47 1.01 
82.34 -585.16 0.86 
81.45 -604.02 3.33 
81.37 -603.65 3.28 
81.70 -590.21 1.45 
81.66 -589.96 1.42 
82.06 -587.22 1.10 
81.98 -587.00 1.07 
81.24 -603.03 3.20 
81.17 -602.61 3.14 
81.19 -602.40 3.12 
81.06 -597.49 2.37 
81.21 -597.06 2.31 
81.07 -596.87 2.28 
81.41 -595.00 2.17 
81.27 -588.45 1.25 
81.64 -587.32 1.11 
80.80 -596.14 2.19 
80.84 -595.96 2.17 
81.10 -589.58 1.38 
81.07 -589.11 1.33 
81.03 -588.74 1.28 
80.44 -597.30 2.35 
80.50 -596.63 2.26 
80.44 -596.28 2.22 
80.60 -587.98 1.20 
80.14 -589.07 1.33 
79.72 -592.36 1.73 
79.39 -597.05 2.33 
84.47 -593.85 2.54 
84.52 -593.21 2.46 
84.52 -592.19 2.34 
84.70 -591.43 2.25 
84.42 -581.92 0.72 
84.12 -581.74 0.71 
83.93 -581.33 0.67 
84.06 -580.41 0.58 
83.69 -583.94 0.93 
83.56 -580.78 0.62 
83.15 -586.21 1.16 
83.24 -580.80 0.62 
83.32 -580.30 0.57 
82.51 -587.37 1.29 
82.68 -585.91 1.14 
82.19 -589.15 1.49 
82.12 -585.93 1.14 
81.91 -589.28 1.51 
81.96 -584.75 1.02 
81.81 -584.40 0.99 
82.10 -582.75 0.60 
80.83 -604.34 3.39 
81.49 -589.36 1.52 
81.59 -587.94 1.36 
81.67 -586.73 1.23 
81.68 -586.17 1.17 
81.63 -583.52 0.90 
80.16 -595.65 2.27 
80.33 -587.94 1.20 
80.25 -587.66 1.17 
80.31 -585.81 1.15 
79.24 -604.46 3.43 
79.54 -602.91 3.21 
79.80 -589.72 1.41 
80.03 -588.06 1.22 
79.06 -604.18 3.39 
79.44 -593.40 2.01 
78.35 -602.06 3.11 
78.39 -600.26 2.87 
78.22 -597.62 2.54 
78.54 -596.63 2.41 
77.91 -601.72 3.07 
78.08 -599.97 2.84 
78.00 -599.47 2.78 
77.28 -600.90 2.97 
76.76 -600.66 2.95 
76.25 -600.61 2.95 
76.42 -599.88 2.86 
84.54 -584.73 1.54 
84.17 -592.96 2.44 
84.32 -592.81 2.42 
84.06 -591.89 2.32 
84.29 -591.39 2.40 
84.20 -585.10 1.59 
83.80 -595.40 2.76 
83.60 -593.94 2.59 
83.56 -592.89 2.46 
83.67 -592.45 2.40 
83.71 -591.65 2.31 
83.83 -590.39 2.16 
83.71 -586.75 1.77 
83.80 -585.61 1.65 
83.98 -585.22 1.61 
84.13 -584.35 1.52 
83.92 -584.00 1.49 
83.28 -595.86 2.84 
83.21 -595.11 2.74 
83.28 -594.64 2.68 
83.21 -589.35 2.07 
83.39 -584.71 1.58 
83.42 -584.52 1.56 
83.69 -582.89 1.39 
82.77 -594.72 2.82 
83.08 -590.39 2.19 
82.98 -589.97 2.14 
83.04 -587.90 1.92 
82.99 -587.20 1.84 
83.34 -582.07 1.32 
82.32 -596.36 2.94 
82.26 -595.25 2.80 
82.38 -594.87 2.75 
82.70 -592.97 2.50 
82.60 -588.69 2.02 
82.66 -588.52 2.00 
82.62 -587.91 1.93 
82.49 -587.53 1.89 
82.60 -587.33 1.87 
82.64 -586.72 1.80 
82.81 -586.17 1.74 
82.62 -585.90 1.72 
82.89 -585.48 1.67 
82.85 -585.27 1.65 
82.67 -584.90 1.62 
82.65 -583.38 1.47 
81.62 -603.81 4.01 
81.74 -602.89 3.88 
82.18 -595.71 2.86 
82.17 -593.77 2.73 
82.24 -591.58 2.35 
82.22 -590.45 2.23 
82.09 -589.49 2.12 
82.29 -588.17 1.97 
82.29 -587.94 1.95 
82.15 -586.22 1.77 
82.15 -585.24 1.67 
81.36 -603.96 4.04 
81.27 -603.51 3.99 
81.58 -603.11 3.92 
81.25 -602.50 3.85 
81.53 -602.28 3.81 
81.86 -593.87 2.75 
81.69 -591.70 2.39 
81.73 -590.57 2.26 
81.85 -590.14 2.20 
81.90 -589.97 2.33 
81.98 -589.25 2.10 
82.01 -588.79 2.05 
81.86 -585.33 1.69 
81.18 -604.15 4.08 
81.10 -603.35 3.97 
81.17 -597.20 3.09 
81.08 -595.70 2.99 
81.25 -593.07 2.57 
81.42 -590.70 2.28 
81.67 -586.54 1.82 
80.68 -603.69 4.03 
80.59 -602.74 3.91 
80.52 -602.10 3.82 
80.66 -596.94 3.16 
80.81 -596.71 3.12 
81.01 -590.88 2.32 
80.90 -588.24 2.03 
80.43 -597.15 3.11 
80.37 -596.68 3.14 
84.62 -591.94 3.00 
84.11 -593.67 3.23 
84.14 -592.47 3.09 
84.28 -592.09 3.04 
83.75 -593.83 3.27 
83.91 -582.36 1.56 
83.04 -596.05 3.59 
83.11 -595.67 3.53 
83.25 -595.35 3.49 
83.35 -594.85 3.42 
83.10 -594.62 3.40 
83.50 -582.63 1.59 
83.51 -581.53 1.49 
83.32 -580.76 1.43 
82.60 -585.27 1.85 
82.91 -581.35 1.49 
82.84 -580.75 1.44 
82.19 -582.64 1.41 
82.05 -582.33 1.39 
81.10 -582.17 1.40 
81.01 -581.52 1.34 
80.54 -590.31 2.41 
80.43 -588.34 2.21 
80.15 -595.09 2.95 
80.28 -587.78 2.16 
80.25 -586.30 1.84 
79.42 -604.59 4.21 
79.58 -595.86 3.07 
79.10 -604.41 4.20 
79.10 -596.14 3.12 
78.44 -597.36 3.22 
78.55 -595.50 3.06 
78.03 -601.96 3.90 
77.93 -601.72 3.87 
77.85 -601.02 3.78 
77.86 -595.93 3.05 
77.66 -600.79 3.76 
76.39 -601.51 3.90 
76.18 -601.27 3.88 
75.41 -600.47 3.80 
84.52 -583.92 2.21 
84.23 -585.49 2.37 
84.32 -584.82 2.30 
84.22 -582.80 2.13 
84.21 -581.25 2.01 
83.91 -585.83 2.42 
84.02 -584.93 2.33 
83.73 -584.53 2.31 
83.85 -584.38 2.29 
83.96 -583.93 2.24 
84.07 -582.99 2.16 
83.94 -582.15 2.09 
84.11 -581.69 2.05 
83.41 -586.07 2.47 
83.64 -585.49 2.40 
83.70 -584.05 2.27 
83.68 -583.05 2.18 
83.66 -582.27 2.12 
83.71 -581.73 2.07 
82.80 -594.98 3.47 
83.02 -590.50 2.94 
83.12 -589.87 2.86 
83.09 -587.60 2.63 
83.23 -585.77 2.45 
82.92 -585.40 2.43 
82.97 -584.72 2.37 
83.19 -581.49 2.07 
82.32 -596.04 3.63 
82.56 -594.99 3.48 
82.65 -590.00 2.90 
82.60 -589.41 2.85 
82.42 -588.35 2.75 
82.64 -586.78 2.58 
82.64 -585.81 2.48 
82.76 -582.29 2.16 
81.94 -594.48 3.46 
82.01 -593.42 3.33 
82.25 -592.18 3.27 
82.08 -590.66 3.01 
82.14 -590.07 2.94 
82.09 -587.88 2.72 
82.38 -587.16 2.63 
82.13 -586.12 2.54 
82.47 -582.68 2.21 
81.82 -594.25 3.44 
81.68 -591.01 3.07 
81.60 -588.78 2.84 
81.96 -588.41 2.78 
81.63 -587.64 2.72 
81.92 -587.44 2.68 
81.66 -587.15 2.67 
81.80 -586.23 2.57 
81.06 -602.41 4.56 
80.98 -596.86 3.82 
81.51 -591.10 3.09 
81.39 -590.16 3.00 
81.22 -589.42 2.93 
81.53 -588.56 2.82 
81.48 -587.79 2.74 
81.55 -586.64 2.63 
80.41 -603.91 4.81 
80.63 -603.48 4.74 
80.47 -603.08 4.69 
80.51 -602.21 4.57 
80.75 -596.64 3.80 
80.84 -592.49 3.29 
80.82 -591.39 3.17 
80.89 -589.10 2.91 
81.10 -588.19 2.81 
80.11 -603.31 4.75 
80.27 -597.31 3.92 
79.89 -602.90 4.70 
79.89 -593.60 3.48 
79.48 -603.78 4.85 
79.35 -602.69 4.71 
79.51 -602.02 4.61 
79.49 -596.35 3.85 
79.43 -596.09 3.82 
79.13 -596.11 3.84 
83.16 -594.91 4.15 
83.41 -593.90 4.01 
82.58 -595.29 4.25 
82.78 -594.46 4.13 
83.23 -585.01 2.57 
83.02 -580.20 2.22 
81.68 -585.47 2.68 
81.86 -583.97 2.55 
81.14 -586.27 2.78 
81.02 -585.45 2.54 
80.70 -586.59 2.83 
80.69 -585.55 2.57 
79.13 -601.82 4.60 
79.19 -594.10 3.65 
78.81 -592.47 3.41 
78.24 -595.57 3.88 
77.90 -601.37 4.62 
77.57 -601.15 4.61 
84.23 -584.55 3.03 
84.38 -584.27 3.00 
84.24 -583.96 2.99 
83.65 -585.84 3.18 
84.01 -585.27 3.11 
83.85 -585.00 3.10 
83.92 -583.57 2.98 
83.24 -585.90 3.22 
83.48 -585.43 3.16 
83.43 -584.10 3.06 
83.57 -582.86 2.95 
83.58 -582.60 2.93 
83.61 -582.15 2.90 
83.39 -581.76 2.88 
83.14 -586.11 3.25 
83.04 -585.63 3.21 
83.05 -584.91 3.15 
82.96 -583.58 3.05 
82.28 -595.69 4.33 
82.30 -594.87 4.22 
82.65 -591.89 3.85 
82.79 -581.99 2.94 
81.88 -595.45 4.33 
82.11 -590.86 3.78 
82.01 -590.54 3.76 
82.14 -587.34 3.43 
82.15 -584.75 3.21 
81.81 -588.03 3.53 
81.92 -587.86 3.50 
81.76 -585.84 3.33 
81.95 -585.45 3.28 
81.31 -590.23 3.78 
81.54 -586.24 3.38 
80.97 -589.96 3.78 
80.91 -588.52 3.64 
81.12 -588.10 3.59 
81.06 -587.36 3.52 
81.16 -586.51 3.44 
80.56 -595.62 4.46 
80.64 -590.59 3.88 
80.73 -587.74 3.58 
83.11 -584.38 3.30 
82.53 -582.39 2.99 
82.54 -581.05 2.89 
82.30 -580.65 2.88 
81.81 -581.63 3.21 
81.50 -582.16 3.05 
81.03 -585.85 3.39 
81.19 -585.42 3.34 
80.63 -586.22 3.45 
79.85 -589.20 3.80 
78.99 -595.72 4.61 
78.85 -595.99 4.66 
78.72 -588.16 3.79 
83.23 -584.14 3.86 
82.46 -584.27 3.94 
81.88 -584.78 4.04 
80.60 -585.34 4.21 
87.89 -589.93 -0.11 
87.48 -590.03 -0.12 
87.00 -590.14 -0.13 
87.27 -590.07 -0.13 
86.40 -590.13 -0.17 
85.96 -590.16 -0.19 
85.15 -590.06 -0.24 
84.84 -590.12 -0.25 
83.30 -591.01 -0.22 
83.34 -590.59 -0.27 
79.62 -593.09 -0.13 
78.90 -602.37 1.07 
83.59 -590.56 0.44 
82.96 -591.42 0.53 
83.03 -590.81 0.46 
82.78 -591.56 0.54 
81.62 -603.54 2.09 
81.59 -602.29 1.92 
80.91 -604.50 2.20 
81.04 -603.40 2.06 
81.20 -602.96 2.00 
80.63 -604.51 2.19 
80.42 -604.36 2.17 
79.92 -604.29 2.14 
79.93 -603.97 2.10 
80.05 -602.85 1.95 
80.33 -592.98 0.65 
80.38 -592.32 0.57 
79.50 -604.22 2.12 
79.46 -604.00 2.09 
79.51 -602.69 1.91 
79.54 -595.55 0.96 
79.70 -594.86 0.88 
79.51 -593.03 0.63 
79.28 -592.52 0.56 
78.70 -602.30 1.83 
78.70 -601.84 1.77 
78.64 -601.61 1.74 
78.31 -602.10 1.79 
78.44 -595.64 0.94 
78.53 -593.51 0.66 
77.98 -601.42 1.69 
78.05 -593.69 0.67 
77.73 -601.05 1.64 
77.71 -600.78 1.60 
77.44 -600.50 1.55 
77.38 -600.37 1.53 
77.22 -594.27 0.72 
76.96 -600.02 1.47 
76.88 -594.72 0.77 
77.04 -594.00 0.68 
76.28 -599.55 1.39 
76.31 -599.31 1.36 
76.50 -594.90 0.78 
76.28 -595.58 0.86 
75.75 -593.52 0.58 
83.96 -593.48 1.50 
83.48 -595.18 1.71 
79.23 -593.99 1.36 
83.97 -584.16 0.38 
83.33 -595.56 1.76 
83.40 -594.97 1.68 
83.22 -591.60 1.26 
83.45 -585.37 0.51 
82.60 -602.50 2.67 
82.86 -595.89 1.80 
82.72 -595.67 1.77 
83.04 -595.08 1.69 
83.01 -592.21 1.33 
83.15 -585.72 0.55 
82.22 -603.35 2.78 
82.19 -603.06 2.74 
82.19 -602.75 2.70 
82.50 -601.91 2.59 
82.60 -596.07 1.82 
82.66 -595.22 1.71 
82.50 -594.78 1.65 
82.62 -587.36 0.74 
82.59 -585.18 0.48 
82.30 -584.52 0.40 
81.49 -603.66 2.82 
81.67 -602.39 2.65 
81.57 -601.45 2.52 
81.14 -603.89 2.85 
81.22 -602.21 2.62 
81.15 -601.79 2.56 
81.20 -597.37 1.97 
81.25 -597.34 1.97 
81.52 -594.41 1.59 
80.58 -604.65 2.95 
80.55 -604.41 2.92 
80.77 -597.95 2.05 
81.00 -597.56 2.00 
80.22 -604.49 2.92 
80.32 -604.22 2.89 
80.39 -604.02 2.86 
80.39 -597.49 1.98 
80.52 -597.08 1.93 
80.50 -596.44 1.85 
80.60 -587.29 0.71 
79.94 -603.83 2.83 
79.72 -600.13 2.32 
79.71 -596.68 1.87 
78.73 -604.48 2.91 
78.79 -601.13 2.45 
78.66 -600.69 2.39 
78.39 -597.57 1.98 
78.19 -594.76 1.61 
77.70 -596.62 1.85 
76.83 -600.11 2.30 
76.78 -599.90 2.27 
76.28 -599.87 2.26 
75.66 -595.69 1.55 
75.64 -595.46 1.52 
75.37 -599.66 2.23 
84.45 -591.56 1.78 
84.62 -591.38 1.76 
83.95 -594.56 2.17 
84.07 -594.03 2.10 
84.05 -592.28 1.88 
84.33 -591.66 1.95 
84.34 -591.05 1.87 
84.45 -584.63 0.97 
83.78 -595.24 2.26 
83.55 -594.94 2.22 
83.69 -594.12 2.12 
83.68 -592.64 1.93 
83.81 -592.48 1.91 
83.90 -592.09 1.85 
83.86 -585.06 1.02 
83.87 -584.87 1.00 
83.17 -595.76 2.34 
83.20 -595.01 2.36 
83.16 -594.72 2.20 
83.44 -594.27 2.14 
83.46 -593.04 2.12 
83.45 -591.80 1.82 
83.53 -585.44 1.07 
83.45 -585.18 1.04 
83.60 -583.77 0.88 
83.50 -583.28 0.83 
82.71 -596.17 2.40 
82.80 -595.96 2.37 
82.85 -595.54 2.31 
83.07 -595.33 2.28 
82.86 -594.75 2.34 
83.05 -592.61 1.93 
83.02 -592.17 1.88 
83.14 -586.34 1.18 
83.12 -585.87 1.12 
83.06 -584.79 1.00 
82.67 -593.55 2.12 
82.51 -593.18 2.01 
82.50 -592.77 2.01 
82.71 -582.43 0.74 
81.88 -603.39 3.49 
81.83 -603.10 3.45 
82.14 -591.89 2.00 
82.12 -590.73 1.71 
82.29 -586.90 1.25 
82.22 -586.39 1.19 
82.35 -585.21 1.06 
81.62 -604.18 3.61 
81.42 -603.90 3.57 
81.47 -602.89 3.43 
81.71 -593.06 2.01 
81.85 -592.90 1.99 
81.83 -591.08 1.76 
81.92 -590.88 1.73 
81.66 -590.16 1.65 
81.68 -589.93 1.62 
81.65 -589.74 1.60 
81.84 -587.58 1.34 
82.05 -587.06 1.27 
82.10 -586.14 1.17 
81.79 -585.76 1.12 
81.16 -602.96 3.44 
81.27 -596.93 2.58 
81.15 -596.82 2.51 
81.09 -595.90 2.39 
81.59 -589.96 1.62 
81.69 -587.20 1.29 
81.41 -586.40 1.20 
80.90 -597.05 2.54 
80.67 -596.61 2.49 
80.85 -596.12 2.42 
81.07 -589.38 1.56 
81.08 -589.07 1.52 
81.09 -588.74 1.48 
81.19 -588.43 1.45 
80.55 -597.38 2.59 
80.61 -596.38 2.46 
80.53 -587.84 1.38 
80.52 -587.59 1.35 
80.32 -589.18 1.55 
80.41 -588.29 1.44 
80.28 -588.01 1.41 
79.91 -589.86 1.64 
84.79 -593.09 2.65 
83.95 -585.54 1.27 
84.07 -583.37 1.04 
83.89 -581.39 0.84 
83.78 -581.55 0.86 
83.16 -586.11 1.34 
83.18 -584.64 1.18 
83.14 -583.96 1.11 
83.44 -580.76 0.78 
82.91 -581.54 0.86 
82.34 -580.94 0.80 
81.74 -588.37 1.60 
81.85 -587.18 1.47 
82.01 -581.84 0.90 
82.03 -581.27 0.84 
81.53 -584.56 1.18 
80.65 -603.41 3.51 
80.50 -602.60 3.40 
80.72 -595.50 2.46 
81.13 -586.67 1.42 
80.26 -597.15 2.68 
80.57 -596.53 2.59 
80.60 -596.14 2.54 
80.82 -584.71 1.02 
79.69 -604.68 3.71 
79.43 -602.92 3.46 
79.37 -602.48 3.40 
80.12 -584.08 1.15 
79.32 -586.98 1.30 
78.58 -602.20 3.37 
78.38 -600.10 3.09 
78.25 -599.56 3.02 
78.00 -601.77 3.32 
77.89 -601.43 3.28 
77.97 -600.03 3.09 
77.92 -599.79 3.06 
78.01 -597.36 2.74 
77.48 -604.30 3.68 
77.52 -601.21 3.25 
76.72 -600.53 3.17 
76.70 -600.28 3.14 
76.44 -599.28 3.01 
76.27 -599.07 2.99 
75.86 -600.90 3.24 
76.08 -600.49 3.18 
84.04 -594.84 2.90 
84.09 -592.72 2.63 
84.02 -591.77 2.52 
84.26 -591.47 2.54 
84.46 -584.74 1.72 
83.77 -594.65 2.89 
83.58 -594.39 2.86 
83.60 -593.98 2.81 
83.70 -592.16 2.58 
83.67 -591.33 2.48 
83.93 -591.13 2.45 
83.70 -590.28 2.35 
83.86 -586.71 1.95 
83.80 -585.42 1.81 
83.90 -585.11 1.78 
84.12 -584.27 1.68 
83.31 -595.62 3.03 
83.28 -594.67 2.95 
83.32 -594.18 2.85 
83.21 -593.74 2.79 
83.33 -593.58 2.77 
83.66 -586.28 1.91 
83.40 -584.57 1.74 
83.70 -584.47 1.72 
83.47 -583.37 1.61 
83.06 -594.40 2.88 
82.91 -589.86 2.33 
83.06 -589.24 2.26 
82.97 -588.77 2.21 
82.86 -587.66 2.09 
82.99 -586.98 2.01 
83.09 -586.58 1.96 
83.31 -581.84 1.46 
82.33 -596.67 3.21 
82.40 -596.28 3.15 
82.47 -595.10 3.00 
82.31 -594.78 2.96 
82.64 -589.52 2.44 
82.50 -588.46 2.19 
82.66 -587.83 2.11 
82.65 -587.35 2.06 
82.68 -587.13 2.03 
82.51 -586.63 1.99 
82.74 -586.01 1.91 
82.85 -585.33 1.83 
82.74 -585.25 1.83 
82.87 -582.91 1.58 
81.68 -603.29 4.19 
81.75 -603.00 4.15 
82.17 -596.49 3.19 
82.01 -595.72 3.10 
82.10 -593.43 2.80 
82.19 -591.52 2.56 
82.18 -590.42 2.43 
82.09 -589.39 2.31 
82.22 -588.13 2.16 
82.22 -587.91 2.14 
82.43 -587.50 2.08 
82.36 -582.41 1.55 
81.60 -603.65 4.25 
81.26 -603.27 4.21 
81.36 -602.62 4.11 
81.43 -602.20 4.05 
81.91 -592.13 2.64 
81.87 -591.87 2.61 
81.72 -590.11 2.41 
81.81 -589.90 2.51 
81.65 -588.95 2.27 
81.94 -588.75 2.24 
81.79 -585.21 1.86 
81.19 -602.83 4.15 
81.11 -597.05 3.31 
81.35 -596.01 3.16 
81.15 -595.82 3.14 
81.35 -592.95 2.77 
81.31 -592.73 2.74 
81.25 -590.20 2.44 
81.30 -589.56 2.36 
80.74 -603.98 4.33 
80.66 -602.65 4.14 
80.74 -596.66 3.34 
80.85 -595.86 3.24 
80.41 -603.58 4.28 
80.28 -603.12 4.22 
80.29 -602.50 4.14 
80.26 -596.72 3.30 
80.54 -592.91 2.90 
79.95 -601.88 4.06 
79.94 -597.38 3.40 
80.10 -591.43 2.63 
79.62 -590.60 2.54 
83.89 -593.91 3.49 
83.97 -593.42 3.42 
84.15 -592.10 3.25 
84.17 -591.81 3.22 
84.17 -582.76 1.74 
83.43 -595.76 3.76 
83.64 -595.36 3.69 
83.75 -593.70 3.47 
83.55 -592.88 3.38 
83.85 -582.34 1.71 
83.83 -581.53 1.64 
84.06 -581.13 1.60 
83.00 -595.93 3.80 
83.09 -595.31 3.72 
83.63 -582.17 1.70 
83.50 -581.55 1.65 
82.98 -595.55 3.75 
82.99 -594.71 3.65 
82.98 -585.20 2.00 
83.03 -584.67 1.95 
83.17 -582.42 1.73 
83.39 -580.97 1.60 
82.74 -584.06 1.90 
81.99 -581.98 1.73 
80.84 -590.76 2.64 
80.88 -588.18 2.36 
80.73 -589.80 2.54 
80.11 -595.09 3.17 
80.03 -586.86 2.26 
80.08 -585.83 1.98 
79.03 -604.66 4.49 
78.97 -602.17 4.14 
79.32 -596.29 3.35 
79.28 -587.15 2.16 
78.54 -595.28 3.25 
78.02 -601.65 4.10 
77.85 -601.08 4.03 
77.96 -600.84 3.99 
77.49 -601.28 4.07 
77.55 -600.62 3.98 
75.74 -600.37 4.02 
75.95 -599.93 3.95 
84.21 -584.81 2.47 
84.43 -584.41 2.42 
84.46 -583.71 2.36 
83.75 -585.90 2.60 
83.90 -585.45 2.55 
83.92 -584.89 2.50 
83.73 -584.39 2.46 
83.98 -583.87 2.46 
83.72 -583.43 2.37 
83.94 -583.12 2.33 
83.19 -592.17 3.32 
83.27 -586.06 2.65 
83.37 -585.89 2.62 
83.36 -584.01 2.63 
83.49 -582.58 2.31 
82.93 -593.02 3.44 
82.94 -592.57 3.38 
83.02 -589.71 3.04 
83.02 -589.38 3.01 
82.99 -587.57 2.82 
82.97 -584.76 2.54 
83.30 -582.74 2.33 
82.43 -594.89 3.70 
82.54 -593.38 3.51 
82.66 -589.97 3.10 
82.57 -586.75 2.76 
82.65 -584.44 2.52 
82.86 -581.79 2.27 
81.87 -594.42 3.73 
82.15 -590.72 3.21 
82.35 -589.42 3.05 
82.04 -588.24 2.94 
82.08 -587.57 2.87 
82.35 -587.04 2.80 
82.08 -586.13 2.72 
81.76 -593.98 3.63 
81.53 -591.97 3.40 
81.78 -590.90 3.26 
81.71 -590.55 3.27 
81.85 -590.25 3.18 
81.98 -587.97 2.92 
81.88 -587.28 2.85 
81.78 -586.21 2.75 
80.95 -602.98 4.91 
81.07 -596.03 3.94 
81.57 -588.59 3.01 
81.58 -587.63 2.90 
80.70 -603.41 4.98 
80.65 -602.84 4.90 
80.60 -602.34 4.83 
80.45 -602.17 4.82 
80.70 -597.25 4.12 
80.70 -597.02 4.09 
80.90 -589.66 3.22 
81.01 -588.20 3.00 
80.93 -587.21 2.90 
81.09 -585.35 2.70 
80.02 -603.26 5.00 
80.22 -597.06 4.13 
80.31 -595.01 3.85 
80.65 -588.61 3.06 
79.75 -602.66 4.93 
80.22 -580.37 1.63 
79.39 -596.59 4.12 
79.50 -596.15 4.05 
79.30 -596.38 4.09 
79.32 -595.41 3.96 
83.44 -592.57 4.06 
83.46 -581.97 2.46 
82.90 -580.21 2.36 
81.80 -581.54 2.30 
81.04 -580.88 2.28 
80.49 -582.82 2.49 
79.37 -603.37 5.06 
79.24 -601.81 4.84 
79.05 -604.05 5.18 
79.16 -602.04 4.88 
78.85 -601.61 4.84 
79.12 -590.65 3.39 
78.94 -590.38 3.37 
78.26 -595.42 4.07 
84.08 -584.63 3.20 
84.36 -584.20 3.15 
84.30 -583.54 3.10 
83.68 -585.87 3.35 
83.88 -585.03 3.26 
83.75 -583.35 3.12 
83.29 -585.77 3.37 
83.60 -585.41 3.31 
83.64 -584.73 3.25 
83.38 -584.11 3.21 
83.66 -582.57 3.07 
83.53 -582.24 3.05 
82.80 -586.95 3.52 
83.11 -585.48 3.35 
82.97 -584.91 3.31 
83.17 -583.80 3.39 
82.98 -583.26 3.17 
83.24 -581.87 3.04 
82.41 -592.86 4.19 
82.47 -591.79 4.06 
82.33 -591.34 4.02 
82.65 -589.65 3.80 
82.86 -583.41 3.19 
82.71 -582.34 3.12 
81.93 -595.59 4.57 
81.81 -595.28 4.54 
82.20 -591.93 4.10 
82.27 -591.07 3.99 
82.00 -590.84 3.99 
81.98 -590.50 3.95 
82.21 -587.51 3.62 
82.08 -587.24 3.60 
82.11 -587.01 3.58 
81.86 -591.04 4.02 
81.86 -587.74 3.67 
81.79 -585.59 3.47 
82.03 -584.59 3.36 
81.23 -590.03 3.96 
80.86 -588.51 3.83 
80.97 -587.96 3.76 
81.10 -586.67 3.63 
81.14 -586.48 3.60 
80.89 -585.88 3.57 
81.16 -585.27 3.49 
80.46 -595.59 4.70 
80.10 -588.09 3.85 
79.91 -589.25 3.99 
82.28 -581.10 3.05 
81.98 -584.19 3.50 
81.71 -581.62 3.34 
80.77 -585.59 3.55 
79.55 -585.63 3.79 
78.61 -595.79 4.88 
79.08 -587.62 3.88 
78.54 -587.74 3.94 
83.26 -584.20 4.00 
81.60 -592.19 4.94 
81.90 -584.68 4.18 
81.30 -592.59 5.02 
81.82 -581.86 3.97 
85.02 -588.10 -0.25 
84.80 -588.19 -0.25 
83.32 -589.64 -0.13 
83.39 -588.58 -0.28 
83.44 -588.27 -0.32 
83.49 -587.95 -0.36 
83.24 -589.92 -0.10 
79.49 -593.03 0.12 
78.85 -602.41 1.33 
78.89 -602.22 1.31 
