# .PCD v0.7 - Point Cloud Data file format
VERSION 0.7
FIELDS x y z
SIZE 4 4 4
TYPE F F F
COUNT 1 1 1
WIDTH 2391
HEIGHT 1
VIEWPOINT 0 0 0 1 0 0 0
POINTS 2391
DATA ascii
76.35 -537.74 4.05 
76.69 -537.27 4.00 
74.93 -541.68 4.41 
76.28 -537.39 4.03 
67.85 -535.45 3.27 
68.17 -534.66 3.21 
67.82 -535.10 3.25 
66.99 -536.64 3.39 
67.25 -535.58 3.31 
79.07 -542.98 5.10 
79.22 -542.64 5.06 
79.62 -541.40 4.94 
79.54 -541.17 4.93 
79.60 -540.66 4.90 
78.78 -543.30 5.15 
78.97 -543.06 5.11 
79.21 -542.09 5.02 
79.23 -541.72 5.00 
79.07 -541.32 4.98 
79.38 -540.83 4.93 
79.41 -540.06 4.87 
79.40 -539.84 4.86 
79.92 -538.26 4.72 
78.58 -542.01 5.07 
79.03 -540.28 4.92 
79.39 -539.58 4.85 
79.41 -538.79 4.80 
79.64 -538.59 4.77 
79.66 -538.34 4.75 
79.07 -538.96 4.84 
77.86 -543.43 5.24 
78.55 -539.09 4.89 
78.84 -537.49 4.77 
79.04 -537.19 4.74 
78.16 -536.80 4.82 
76.61 -542.27 5.23 
75.36 -543.02 5.38 
74.85 -543.15 5.43 
79.52 -539.75 5.72 
76.36 -535.61 4.88 
79.52 -539.22 5.69 
79.06 -539.94 5.78 
79.28 -539.42 5.73 
78.02 -542.04 6.02 
78.57 -540.62 5.87 
78.51 -540.33 5.86 
78.68 -537.41 5.69 
77.96 -538.02 5.80 
77.91 -536.89 5.75 
77.28 -537.56 5.84 
79.13 -540.09 6.66 
77.80 -540.36 6.85 
80.81 -550.61 1.09 
82.50 -553.02 2.11 
82.15 -553.48 2.14 
82.35 -553.24 2.13 
82.36 -552.81 2.09 
83.19 -548.77 1.75 
82.04 -552.62 2.06 
82.95 -549.21 1.78 
82.97 -548.98 1.76 
81.43 -552.44 2.03 
81.31 -552.01 1.99 
80.96 -552.10 1.99 
80.93 -551.78 1.96 
81.37 -550.58 1.86 
79.98 -553.87 2.12 
80.29 -552.70 2.02 
80.77 -550.24 1.81 
80.92 -550.02 1.80 
80.17 -549.79 1.76 
79.12 -552.44 1.97 
79.63 -548.60 1.63 
79.86 -547.69 1.56 
80.06 -547.36 1.54 
80.18 -547.03 1.51 
79.42 -548.33 1.61 
79.55 -548.09 1.59 
78.23 -551.66 1.87 
78.38 -549.36 1.67 
83.93 -551.82 2.72 
84.09 -550.00 2.56 
84.21 -549.41 2.51 
83.25 -552.88 2.82 
83.27 -552.67 2.80 
83.09 -552.27 2.76 
83.43 -552.04 2.74 
83.55 -551.42 2.69 
83.47 -550.71 2.62 
83.71 -550.40 2.59 
83.70 -549.80 2.54 
82.61 -552.51 2.78 
82.81 -551.83 2.72 
83.08 -551.02 2.65 
83.23 -550.19 2.57 
83.70 -549.59 2.52 
83.71 -549.17 2.49 
83.81 -548.28 2.41 
83.98 -547.94 2.38 
83.46 -548.63 2.44 
83.07 -547.89 2.37 
83.33 -547.71 2.36 
81.74 -551.66 2.70 
80.54 -554.00 2.91 
80.84 -553.29 2.85 
81.31 -551.27 2.66 
79.78 -553.85 2.89 
81.68 -547.33 2.32 
79.40 -553.65 2.87 
80.59 -548.80 2.44 
80.50 -548.35 2.40 
79.77 -547.83 2.35 
79.82 -546.92 2.27 
79.54 -546.16 2.20 
78.00 -538.24 1.39 
78.20 -537.86 1.36 
75.63 -540.81 1.74 
76.39 -538.12 1.38 
76.34 -536.66 1.26 
77.81 -531.80 0.89 
76.11 -536.30 1.23 
83.36 -552.59 3.49 
84.15 -550.70 3.30 
84.19 -550.34 3.26 
83.64 -550.64 3.30 
83.86 -549.02 3.15 
82.51 -553.08 3.55 
82.45 -552.87 3.53 
83.11 -551.56 3.40 
83.46 -550.13 3.26 
83.48 -549.42 3.20 
83.79 -548.71 3.13 
83.95 -548.11 3.07 
82.30 -553.31 3.58 
82.55 -551.26 3.38 
83.02 -549.92 3.25 
82.24 -550.97 3.36 
82.57 -548.38 3.12 
82.76 -547.97 3.09 
81.56 -553.60 3.62 
81.56 -551.16 3.39 
81.78 -549.68 3.25 
80.91 -552.28 3.50 
80.03 -552.56 3.55 
80.16 -552.23 3.51 
80.25 -551.86 3.48 
79.93 -552.61 3.55 
79.82 -552.15 3.51 
79.89 -551.91 3.49 
80.76 -548.07 3.13 
80.65 -548.15 3.14 
79.28 -551.47 3.46 
79.69 -547.52 3.10 
79.21 -547.12 3.08 
78.98 -538.72 2.43 
78.70 -539.45 2.49 
78.79 -539.08 2.46 
78.82 -538.72 2.44 
78.78 -538.43 2.42 
78.22 -539.83 2.53 
76.40 -544.64 2.93 
76.48 -544.40 2.90 
76.69 -543.91 2.86 
76.61 -543.36 2.82 
76.85 -543.12 2.80 
76.92 -542.81 2.77 
76.12 -544.07 2.88 
76.54 -543.10 2.80 
77.70 -537.50 2.37 
77.72 -537.24 2.35 
77.90 -536.88 2.32 
77.98 -536.46 2.29 
76.01 -540.46 2.51 
75.62 -540.15 2.49 
83.13 -550.64 4.02 
83.43 -549.24 3.88 
82.95 -550.43 4.00 
82.71 -549.84 3.96 
82.77 -549.63 3.94 
81.73 -551.29 4.13 
81.71 -551.08 4.12 
81.82 -550.46 4.06 
82.49 -548.98 3.90 
81.55 -550.02 4.03 
81.72 -549.35 3.96 
77.94 -536.20 2.27 
74.90 -545.21 3.00 
76.10 -541.68 2.70 
76.10 -541.26 2.67 
76.10 -540.86 2.64 
76.44 -540.13 2.58 
76.31 -539.82 2.56 
74.94 -544.67 2.95 
81.16 -551.52 4.18 
81.04 -551.57 4.19 
80.26 -552.05 4.27 
80.48 -550.87 4.15 
79.95 -552.29 4.30 
80.42 -550.23 4.09 
80.79 -548.55 3.93 
80.63 -548.17 3.91 
80.53 -547.61 3.86 
80.07 -548.03 3.92 
78.88 -551.40 4.26 
79.84 -547.92 3.92 
78.48 -542.17 3.53 
79.40 -539.87 3.34 
78.08 -542.31 3.56 
78.59 -541.68 3.49 
78.91 -539.45 3.33 
77.28 -543.68 3.69 
77.46 -543.42 3.66 
77.59 -542.70 3.60 
77.66 -542.45 3.58 
78.83 -538.64 3.28 
76.84 -544.11 3.74 
77.16 -543.91 3.71 
77.17 -543.40 3.67 
78.78 -537.01 3.18 
76.66 -544.34 3.76 
78.04 -538.64 3.31 
78.17 -537.87 3.26 
76.32 -542.92 3.67 
76.34 -542.66 3.65 
76.18 -540.43 3.44 
76.23 -539.91 3.40 
77.28 -536.99 3.24 
74.92 -544.32 3.83 
75.28 -542.76 3.70 
75.91 -540.80 3.48 
76.14 -539.84 3.40 
76.64 -537.59 3.30 
76.74 -537.30 3.28 
76.77 -537.08 3.26 
76.77 -536.50 3.14 
75.04 -541.11 3.54 
75.83 -539.25 3.37 
73.95 -545.26 3.95 
73.91 -544.42 3.88 
73.12 -544.58 3.93 
75.63 -535.18 3.19 
75.24 -535.31 3.21 
79.02 -542.67 4.36 
78.98 -541.96 4.32 
79.77 -539.41 4.11 
78.53 -542.84 4.40 
78.61 -542.72 4.39 
78.65 -542.37 4.36 
78.81 -541.36 4.28 
78.97 -540.72 4.22 
79.11 -540.22 4.20 
79.49 -538.80 4.09 
79.79 -538.12 4.04 
78.26 -542.04 4.37 
78.63 -540.92 4.26 
78.50 -540.26 4.22 
78.94 -539.56 4.14 
79.00 -539.00 4.10 
79.06 -538.79 4.08 
79.09 -538.13 4.08 
77.64 -543.16 4.48 
78.17 -541.49 4.34 
78.34 -539.15 4.15 
78.49 -538.38 4.09 
67.87 -537.24 3.54 
68.17 -536.63 3.49 
67.96 -535.88 3.44 
77.32 -543.60 4.53 
77.44 -542.82 4.47 
77.28 -543.34 4.52 
77.08 -543.01 4.50 
77.11 -542.79 4.49 
78.23 -538.87 4.14 
78.34 -538.07 4.08 
78.45 -536.80 4.05 
78.63 -536.05 4.00 
77.05 -539.70 4.27 
77.37 -539.47 4.24 
76.66 -539.86 4.31 
76.98 -536.58 4.07 
77.37 -536.12 4.02 
77.45 -535.87 4.00 
76.36 -537.52 4.17 
76.68 -536.78 4.10 
76.36 -537.00 4.14 
67.74 -535.11 3.40 
67.74 -534.78 3.37 
67.36 -534.31 3.36 
79.20 -542.38 5.19 
79.60 -541.12 5.07 
79.52 -540.90 5.06 
79.31 -541.50 5.12 
79.45 -540.59 5.05 
79.61 -540.41 5.02 
79.49 -539.61 4.98 
79.96 -537.89 4.84 
78.84 -541.03 5.13 
78.93 -540.01 5.05 
79.21 -539.91 5.02 
79.39 -539.31 4.97 
79.33 -538.51 4.93 
79.71 -538.34 4.88 
79.80 -538.10 4.86 
79.09 -538.99 4.97 
79.19 -538.74 4.95 
78.65 -539.22 5.02 
78.94 -537.29 4.89 
79.07 -536.90 4.86 
78.03 -539.28 5.07 
78.87 -536.49 4.85 
76.72 -542.34 5.35 
76.75 -542.11 5.34 
77.01 -541.65 5.29 
77.29 -541.46 5.25 
78.14 -536.60 4.94 
76.37 -542.51 5.39 
76.62 -542.03 5.34 
76.76 -541.84 5.32 
76.46 -535.42 4.99 
78.74 -540.66 6.00 
79.47 -539.00 5.82 
78.31 -541.38 6.09 
78.74 -540.40 5.98 
78.54 -540.11 5.99 
78.30 -537.90 5.89 
78.56 -537.43 5.84 
78.71 -537.18 5.81 
77.45 -537.36 5.95 
77.95 -540.92 7.01 
78.29 -539.43 6.88 
80.75 -550.23 1.18 
82.28 -553.01 2.24 
82.38 -552.67 2.21 
82.47 -551.36 2.10 
82.97 -549.18 1.91 
82.09 -552.44 2.18 
82.99 -549.00 1.90 
82.94 -548.69 1.87 
81.39 -552.10 2.13 
81.07 -551.86 2.10 
81.10 -551.67 2.09 
80.82 -551.54 2.07 
81.01 -551.07 2.03 
81.03 -550.78 2.00 
81.39 -550.10 1.95 
79.86 -553.61 2.23 
80.19 -552.40 2.13 
80.76 -550.34 1.96 
80.91 -549.66 1.90 
79.74 -552.71 2.14 
80.70 -549.89 1.91 
80.11 -549.44 1.86 
79.15 -552.05 2.07 
79.58 -548.26 1.74 
79.77 -547.31 1.66 
80.11 -546.79 1.62 
79.35 -548.01 1.71 
79.50 -547.98 1.71 
79.33 -547.54 1.67 
77.61 -547.70 1.63 
83.41 -552.70 2.95 
83.38 -552.28 2.91 
83.88 -551.58 2.84 
83.73 -551.00 2.79 
84.12 -549.56 2.66 
83.26 -551.97 2.88 
83.44 -550.36 2.73 
83.53 -550.18 2.72 
84.05 -549.16 2.63 
83.00 -551.01 2.79 
82.99 -550.82 2.77 
83.41 -550.40 2.73 
83.20 -549.99 2.70 
83.61 -549.36 2.64 
83.64 -548.94 2.60 
84.01 -547.52 2.48 
82.74 -551.48 2.83 
82.87 -550.63 2.75 
83.18 -549.78 2.68 
83.40 -548.53 2.57 
83.45 -548.01 2.52 
81.97 -552.64 2.93 
83.02 -548.72 2.58 
83.17 -547.54 2.48 
83.39 -547.27 2.46 
80.96 -553.62 3.02 
81.86 -551.32 2.81 
80.86 -553.17 2.98 
81.47 -551.32 2.81 
80.92 -551.84 2.85 
79.99 -553.55 3.01 
81.30 -547.09 2.43 
80.42 -548.21 2.52 
79.36 -547.46 2.45 
79.50 -546.52 2.37 
78.79 -546.66 2.38 
78.17 -537.80 1.49 
78.23 -537.54 1.47 
78.32 -537.29 1.45 
76.69 -537.76 1.48 
76.34 -536.63 1.39 
76.42 -536.25 1.36 
76.32 -536.18 1.35 
76.18 -535.89 1.33 
84.52 -550.28 3.40 
84.63 -549.86 3.36 
84.00 -550.48 3.43 
84.11 -550.07 3.39 
84.17 -549.90 3.37 
84.14 -549.30 3.32 
83.31 -552.22 3.60 
83.01 -551.82 3.57 
83.06 -551.18 3.51 
83.09 -550.55 3.45 
83.72 -548.26 3.24 
83.82 -547.86 3.20 
82.53 -550.98 3.50 
83.06 -549.50 3.36 
83.53 -548.04 3.22 
82.60 -550.14 3.42 
82.74 -548.65 3.29 
82.60 -548.44 3.27 
82.41 -552.96 3.69 
81.69 -553.26 3.73 
81.92 -552.13 3.62 
82.22 -550.76 3.49 
81.34 -550.84 3.51 
80.57 -552.70 3.70 
81.34 -549.06 3.35 
81.68 -548.84 3.32 
80.13 -552.98 3.74 
80.15 -551.82 3.62 
80.18 -551.77 3.62 
80.16 -551.54 3.60 
79.74 -551.61 3.61 
79.80 -549.75 3.44 
79.25 -547.14 3.22 
79.29 -546.79 3.19 
78.24 -539.52 2.63 
76.41 -544.36 3.04 
76.41 -544.10 3.02 
76.80 -543.63 2.98 
76.07 -543.79 3.00 
76.27 -543.02 2.94 
76.61 -542.82 2.91 
76.63 -542.37 2.88 
76.90 -541.77 2.83 
78.04 -536.61 2.43 
77.79 -536.91 2.45 
78.03 -535.94 2.38 
83.82 -549.63 4.05 
83.95 -548.81 3.97 
83.03 -550.27 4.14 
83.40 -550.01 4.10 
82.96 -550.06 4.12 
83.04 -549.32 4.05 
83.22 -549.01 4.02 
82.66 -549.60 4.10 
81.69 -550.72 4.24 
82.57 -548.57 4.01 
82.24 -547.48 3.93 
77.94 -535.67 2.36 
75.52 -543.16 2.96 
76.11 -541.34 2.81 
76.12 -541.02 2.78 
76.09 -540.54 2.75 
76.36 -539.93 2.70 
77.60 -536.04 2.40 
74.95 -544.44 3.07 
75.85 -540.74 2.76 
71.85 -539.20 2.72 
81.14 -551.21 4.31 
80.74 -550.97 4.30 
80.27 -551.72 4.39 
80.12 -550.58 4.29 
80.82 -548.30 4.06 
80.81 -548.07 4.04 
79.93 -547.80 4.05 
79.68 -547.56 4.04 
78.57 -541.94 3.65 
78.78 -541.69 3.62 
78.66 -541.36 3.60 
78.90 -540.88 3.56 
78.10 -542.00 3.67 
78.62 -541.06 3.58 
77.38 -543.64 3.82 
77.53 -542.90 3.76 
77.66 -542.16 3.70 
78.83 -538.52 3.40 
77.29 -543.37 3.80 
77.12 -543.08 3.79 
67.62 -538.23 2.71 
78.75 -536.39 3.27 
78.25 -537.59 3.36 
76.43 -542.44 3.77 
77.01 -540.92 3.63 
76.30 -542.15 3.75 
75.40 -543.60 3.90 
76.20 -540.01 3.55 
76.27 -539.47 3.51 
77.36 -536.37 3.28 
74.98 -543.94 3.94 
76.06 -539.66 3.53 
76.78 -536.66 3.36 
76.90 -536.21 3.25 
76.84 -535.89 3.23 
75.94 -538.84 3.47 
73.92 -544.88 4.06 
73.66 -544.18 4.02 
73.14 -544.38 4.05 
75.75 -534.79 3.28 
75.24 -535.04 3.32 
72.91 -537.29 3.48 
78.88 -542.08 4.46 
78.97 -541.70 4.43 
79.52 -540.73 4.34 
79.86 -539.06 4.21 
78.54 -542.38 4.51 
78.62 -541.48 4.44 
78.88 -541.05 4.40 
78.82 -540.88 4.39 
79.00 -540.38 4.34 
79.40 -539.69 4.28 
78.25 -541.79 4.49 
78.29 -541.15 4.44 
79.06 -538.56 4.21 
79.54 -537.42 4.14 
78.18 -541.16 4.45 
78.49 -540.02 4.35 
78.66 -538.21 4.21 
78.58 -538.16 4.21 
67.83 -536.95 3.66 
68.19 -536.34 3.60 
68.02 -535.55 3.55 
68.60 -533.61 3.40 
77.13 -542.87 4.63 
77.20 -542.50 4.60 
78.27 -538.89 4.28 
78.22 -538.64 4.27 
78.42 -537.86 4.20 
78.43 -537.61 4.18 
78.68 -536.52 4.14 
77.38 -540.34 4.44 
77.81 -538.88 4.32 
78.54 -536.53 4.15 
78.69 -535.86 4.11 
77.31 -539.13 4.36 
76.80 -539.43 4.41 
77.06 -539.25 4.38 
77.13 -536.42 4.19 
77.37 -535.91 4.14 
77.44 -535.67 4.12 
76.75 -536.36 4.21 
76.99 -536.14 4.18 
76.37 -536.83 4.26 
76.44 -536.57 4.24 
76.23 -534.73 4.19 
76.23 -534.47 4.18 
67.97 -535.25 3.54 
68.00 -534.56 3.49 
68.13 -534.25 3.46 
67.70 -534.43 3.49 
67.15 -535.77 3.61 
67.43 -534.71 3.52 
66.80 -534.61 3.54 
79.67 -540.68 5.18 
79.21 -541.11 5.25 
79.51 -540.60 5.19 
79.54 -540.12 5.15 
79.71 -539.91 5.12 
79.98 -537.64 4.96 
79.28 -539.58 5.14 
79.43 -539.21 5.10 
79.28 -538.79 5.09 
79.29 -538.53 5.07 
79.66 -538.07 5.01 
79.78 -537.83 4.98 
79.31 -538.27 5.05 
78.05 -541.06 5.30 
78.14 -540.56 5.26 
78.97 -536.72 4.99 
78.97 -536.17 4.96 
76.81 -541.82 5.45 
76.93 -541.46 5.42 
77.31 -541.14 5.36 
78.29 -536.36 5.03 
76.62 -542.05 5.48 
76.71 -539.05 5.33 
79.59 -538.73 5.94 
78.67 -540.16 6.12 
78.34 -539.19 6.03 
78.60 -537.17 5.96 
78.66 -536.96 5.94 
79.57 -539.20 6.84 
79.74 -538.98 6.81 
80.69 -550.14 1.26 
80.71 -549.93 1.25 
90.30 -535.59 0.85 
82.26 -552.60 2.31 
82.38 -552.08 2.26 
82.54 -550.90 2.16 
81.98 -551.84 2.23 
82.24 -551.28 2.19 
82.34 -551.12 2.17 
82.54 -549.18 2.01 
82.65 -548.97 1.99 
82.87 -548.53 1.96 
83.00 -548.32 1.94 
81.42 -551.70 2.20 
82.35 -549.63 2.04 
82.24 -549.41 2.02 
82.85 -547.66 1.88 
81.32 -551.55 2.18 
81.50 -550.79 2.12 
81.05 -550.59 2.09 
81.26 -550.24 2.06 
81.20 -549.90 2.03 
81.93 -547.44 1.83 
79.65 -553.57 2.32 
79.65 -553.32 2.30 
79.92 -552.56 2.23 
80.05 -548.09 1.84 
79.54 -548.05 1.82 
79.69 -547.34 1.76 
80.03 -546.46 1.69 
80.00 -546.22 1.67 
79.50 -547.83 1.80 
79.60 -547.14 1.74 
79.57 -546.99 1.73 
79.71 -546.67 1.70 
83.72 -551.80 2.98 
83.80 -550.83 2.89 
84.24 -550.06 2.82 
84.03 -549.78 2.79 
84.26 -548.97 2.72 
84.46 -548.65 2.69 
83.52 -551.15 2.92 
83.73 -550.02 2.81 
83.99 -549.49 2.77 
83.99 -549.28 2.75 
82.30 -552.85 3.07 
82.72 -552.57 3.04 
82.79 -552.34 3.02 
82.84 -551.69 2.96 
82.93 -551.46 2.94 
83.59 -548.04 2.63 
83.93 -547.40 2.58 
82.47 -552.16 3.00 
82.49 -551.28 2.92 
82.81 -550.82 2.88 
82.59 -550.41 2.84 
83.21 -548.25 2.65 
83.41 -547.16 2.56 
82.38 -550.61 2.86 
82.85 -548.46 2.67 
83.07 -546.97 2.54 
82.67 -547.82 2.61 
83.02 -546.94 2.53 
81.50 -546.68 2.50 
79.41 -553.51 3.11 
80.08 -547.51 2.57 
79.87 -547.42 2.56 
78.57 -550.93 2.87 
78.28 -537.40 1.57 
78.33 -537.02 1.54 
84.54 -549.77 3.47 
84.26 -549.70 3.47 
83.92 -549.01 3.42 
83.82 -548.81 3.40 
83.05 -550.91 3.61 
83.15 -550.72 3.59 
83.43 -549.55 3.47 
83.63 -547.77 3.31 
83.76 -547.56 3.29 
82.84 -549.25 3.46 
82.31 -552.85 3.81 
81.99 -552.60 3.79 
82.26 -552.33 3.76 
82.65 -550.53 3.58 
81.94 -551.93 3.72 
81.63 -551.71 3.71 
82.04 -548.17 3.37 
82.12 -547.95 3.35 
80.56 -551.86 3.74 
80.11 -552.37 3.80 
80.15 -551.62 3.73 
80.67 -550.44 3.61 
81.27 -548.39 3.41 
79.82 -551.42 3.71 
79.99 -551.21 3.69 
80.42 -550.25 3.59 
79.55 -551.73 3.75 
79.61 -551.48 3.72 
80.21 -548.63 3.45 
80.58 -547.23 3.32 
79.56 -546.94 3.31 
79.17 -546.69 3.30 
78.87 -539.30 2.71 
79.13 -538.29 2.63 
78.68 -538.97 2.69 
78.92 -538.79 2.67 
78.86 -538.25 2.63 
78.85 -537.97 2.61 
78.91 -537.74 2.59 
78.70 -537.52 2.58 
76.68 -543.77 3.09 
76.75 -543.00 3.03 
76.68 -542.72 3.01 
76.04 -544.22 3.14 
76.15 -543.97 3.12 
76.21 -543.45 3.08 
76.31 -543.20 3.05 
78.04 -536.12 2.49 
78.30 -535.79 2.46 
78.24 -535.35 2.43 
77.68 -536.80 2.54 
77.83 -536.49 2.52 
83.22 -549.12 4.15 
83.49 -548.70 4.10 
82.77 -548.96 4.16 
81.89 -549.38 4.23 
82.49 -548.32 4.11 
82.49 -548.10 4.09 
82.06 -548.50 4.14 
76.52 -539.49 2.76 
77.31 -536.93 2.56 
74.10 -544.57 3.21 
74.20 -544.30 3.18 
76.22 -537.77 2.64 
74.19 -538.36 2.71 
71.99 -539.03 2.80 
71.41 -539.15 2.82 
71.46 -538.60 2.77 
81.61 -549.43 4.25 
80.80 -549.65 4.30 
80.79 -547.86 4.14 
80.82 -547.64 4.12 
80.35 -547.40 4.12 
80.38 -547.13 4.09 
79.56 -539.76 3.55 
79.87 -539.35 3.51 
78.69 -541.93 3.74 
78.71 -541.53 3.71 
78.82 -540.98 3.67 
78.86 -540.84 3.66 
78.44 -541.61 3.73 
78.54 -541.13 3.69 
78.81 -540.47 3.63 
78.92 -538.71 3.51 
77.61 -542.78 3.85 
77.93 -542.23 3.80 
78.19 -540.07 3.63 
78.79 -538.56 3.45 
78.74 -538.21 3.45 
79.01 -536.86 3.38 
79.23 -536.18 3.33 
77.22 -543.24 3.90 
78.98 -536.63 3.37 
77.25 -542.47 3.84 
76.58 -543.67 3.96 
76.74 -543.43 3.94 
76.85 -542.93 3.89 
77.73 -537.00 3.37 
76.08 -541.70 3.83 
77.62 -537.21 3.39 
77.43 -536.61 3.43 
77.66 -536.14 3.32 
77.88 -535.63 3.27 
77.28 -535.72 3.30 
74.99 -543.88 4.05 
75.92 -539.27 3.66 
76.53 -537.21 3.50 
77.19 -535.74 3.31 
77.31 -535.20 3.26 
75.93 -538.32 3.54 
76.32 -536.64 3.40 
76.30 -536.40 3.39 
76.54 -536.17 3.36 
76.09 -534.61 3.35 
73.28 -544.11 4.13 
72.95 -536.56 3.53 
79.27 -540.49 4.44 
79.55 -539.87 4.38 
79.60 -539.63 4.36 
80.03 -538.44 4.26 
78.82 -541.51 4.54 
78.92 -540.77 4.48 
79.23 -540.23 4.42 
78.99 -539.92 4.42 
79.47 -539.39 4.35 
78.49 -541.58 4.56 
78.34 -541.03 4.53 
78.99 -539.04 4.36 
79.13 -538.67 4.32 
79.27 -538.48 4.31 
79.10 -538.00 4.28 
79.52 -537.23 4.22 
78.66 -538.81 4.37 
78.96 -538.24 4.30 
79.12 -536.95 4.20 
77.53 -542.43 4.68 
78.38 -537.55 4.29 
78.43 -537.33 4.27 
78.81 -536.57 4.20 
76.96 -542.08 4.69 
77.05 -541.55 4.65 
78.09 -538.31 4.36 
78.33 -537.57 4.30 
76.74 -541.78 4.69 
78.05 -535.96 4.24 
77.57 -536.32 4.26 
76.80 -538.59 4.47 
77.50 -536.02 4.24 
77.61 -535.48 4.20 
77.52 -535.17 4.19 
76.81 -536.69 4.33 
76.67 -534.91 4.26 
76.23 -535.03 4.29 
76.58 -534.58 4.25 
76.11 -534.36 4.27 
68.03 -534.48 3.58 
80.08 -538.89 5.14 
79.86 -539.09 5.17 
79.74 -538.57 5.15 
79.66 -538.36 5.14 
79.85 -537.66 5.08 
78.60 -539.97 5.29 
79.26 -537.82 5.14 
79.25 -537.17 5.10 
78.26 -540.40 5.34 
78.30 -540.05 5.32 
78.43 -539.71 5.29 
79.10 -536.87 5.09 
78.99 -536.53 5.08 
77.66 -540.55 5.40 
77.69 -540.32 5.39 
77.96 -540.12 5.35 
78.91 -536.14 5.06 
78.79 -535.70 5.05 
77.31 -540.98 5.46 
77.14 -540.73 5.46 
78.41 -536.82 5.13 
76.65 -541.28 5.54 
76.71 -540.90 5.51 
76.73 -540.60 5.48 
78.19 -535.88 5.10 
76.41 -534.49 5.18 
76.24 -534.16 5.18 
78.41 -537.16 6.08 
78.32 -536.33 6.05 
78.46 -536.09 6.02 
78.00 -539.37 7.18 
80.56 -550.17 1.29 
80.64 -549.94 1.28 
89.92 -535.49 0.90 
90.01 -535.20 0.87 
90.26 -534.91 0.86 
89.83 -535.67 0.91 
89.89 -535.29 0.88 
83.14 -551.45 2.27 
83.29 -551.22 2.25 
83.29 -549.49 2.10 
83.48 -549.25 2.08 
82.16 -552.95 2.37 
82.29 -552.59 2.35 
82.23 -552.14 2.30 
82.38 -551.79 2.28 
83.07 -548.74 2.03 
82.11 -550.92 2.19 
82.59 -548.89 2.02 
82.86 -548.45 1.99 
82.12 -550.25 2.13 
82.09 -549.55 2.07 
82.31 -549.12 2.04 
82.45 -549.08 2.04 
82.74 -547.69 1.92 
82.65 -547.37 1.89 
81.59 -550.75 2.16 
81.44 -550.05 2.09 
80.90 -550.56 2.12 
81.32 -550.10 2.09 
81.29 -549.88 2.07 
81.38 -548.28 1.94 
79.96 -551.41 2.17 
79.94 -548.09 1.88 
78.45 -550.85 2.08 
83.58 -551.97 3.04 
84.09 -549.36 2.81 
84.28 -548.73 2.75 
83.10 -552.26 3.07 
83.21 -551.80 3.03 
83.59 -550.04 2.87 
83.82 -549.70 2.84 
84.20 -548.70 2.75 
82.73 -552.55 3.09 
82.65 -551.44 2.99 
83.53 -548.32 2.71 
83.96 -547.50 2.64 
82.14 -552.97 3.13 
82.48 -550.58 2.91 
82.88 -549.24 2.79 
83.16 -549.05 2.77 
83.31 -548.25 2.70 
83.34 -547.93 2.68 
81.88 -551.32 2.97 
82.38 -550.81 2.93 
82.31 -550.37 2.89 
82.70 -548.56 2.73 
82.91 -547.72 2.65 
83.12 -547.07 2.60 
81.28 -551.86 3.02 
81.39 -551.16 2.96 
81.33 -548.65 2.73 
81.46 -547.30 2.61 
77.98 -554.65 3.26 
76.63 -543.93 2.29 
76.59 -543.40 2.25 
76.26 -543.10 2.22 
76.48 -542.86 2.20 
76.11 -538.49 1.84 
83.71 -549.54 3.53 
83.87 -548.85 3.46 
83.42 -549.34 3.51 
83.00 -547.65 3.37 
82.94 -550.24 3.61 
81.98 -552.82 3.87 
82.19 -552.43 3.83 
82.53 -550.50 3.64 
82.93 -549.81 3.57 
81.36 -553.13 3.91 
82.47 -549.19 3.52 
82.69 -548.96 3.49 
82.92 -548.05 3.41 
81.57 -551.51 3.75 
80.95 -551.83 3.79 
81.85 -548.65 3.48 
82.15 -547.89 3.41 
81.45 -548.31 3.46 
79.70 -552.49 3.88 
79.70 -552.24 3.85 
80.09 -551.47 3.77 
79.94 -551.21 3.75 
80.16 -550.28 3.66 
80.24 -548.59 3.50 
80.46 -548.39 3.48 
79.81 -548.88 3.54 
80.02 -547.22 3.38 
79.66 -548.17 3.47 
79.29 -547.46 3.42 
79.02 -539.58 2.78 
79.12 -538.35 2.69 
79.32 -538.13 2.67 
77.82 -542.17 3.00 
77.93 -541.81 2.97 
78.68 -538.75 2.72 
78.97 -538.57 2.70 
77.76 -541.40 2.94 
77.64 -541.12 2.92 
78.74 -537.72 2.65 
78.77 -537.46 2.63 
76.34 -543.82 3.16 
76.30 -543.02 3.09 
76.63 -542.27 3.03 
78.14 -535.95 2.53 
78.29 -535.70 2.51 
77.65 -536.35 2.56 
77.75 -536.10 2.54 
78.17 -535.39 2.49 
83.06 -548.64 4.18 
82.20 -548.23 4.18 
76.21 -543.41 3.13 
76.20 -542.75 3.07 
77.49 -536.57 2.58 
76.46 -539.59 2.82 
76.45 -539.42 2.81 
76.56 -538.52 2.74 
77.58 -534.89 2.46 
75.49 -542.34 3.05 
76.00 -540.30 2.88 
76.97 -536.70 2.60 
74.23 -544.44 3.25 
75.66 -540.20 2.88 
74.16 -544.15 3.22 
74.16 -543.85 3.20 
72.43 -539.30 2.87 
72.59 -537.89 2.76 
72.06 -538.96 2.84 
81.68 -548.45 4.22 
80.60 -548.03 4.23 
80.51 -548.07 4.24 
80.51 -547.74 4.21 
80.27 -547.10 4.16 
79.70 -547.38 4.21 
78.71 -549.05 4.40 
79.12 -540.28 3.66 
79.28 -540.06 3.64 
79.30 -539.74 3.62 
79.54 -539.26 3.57 
79.44 -538.86 3.55 
78.28 -541.78 3.81 
78.22 -541.39 3.78 
78.31 -541.15 3.76 
78.76 -540.73 3.71 
79.10 -539.49 3.61 
79.15 -538.41 3.53 
77.31 -543.31 3.96 
77.51 -543.08 3.94 
77.67 -542.58 3.89 
77.82 -542.22 3.86 
78.24 -540.89 3.74 
78.95 -538.16 3.47 
78.96 -537.83 3.47 
79.23 -537.52 3.47 
79.06 -536.69 3.42 
79.16 -536.46 3.40 
79.09 -536.17 3.39 
76.73 -543.49 4.00 
78.28 -535.64 3.38 
75.76 -543.90 4.07 
75.77 -543.66 4.05 
77.68 -536.74 3.42 
77.90 -535.85 3.35 
77.91 -535.27 3.31 
74.87 -544.09 4.13 
74.92 -543.87 4.11 
75.24 -542.54 3.99 
77.18 -535.40 3.34 
77.41 -534.89 3.30 
76.53 -535.97 3.41 
75.90 -534.28 3.39 
73.01 -536.27 3.57 
73.15 -536.04 3.55 
79.31 -540.51 4.49 
78.61 -541.63 4.62 
78.75 -540.90 4.56 
79.04 -540.70 4.52 
78.94 -540.18 4.49 
78.98 -539.90 4.47 
78.51 -541.36 4.60 
78.77 -539.90 4.49 
78.90 -539.57 4.46 
78.95 -538.64 4.40 
79.16 -538.33 4.36 
79.24 -537.92 4.33 
79.19 -537.65 4.31 
79.52 -537.02 4.26 
78.19 -541.05 4.60 
79.21 -536.57 4.24 
78.41 -539.26 4.47 
78.48 -539.04 4.45 
77.33 -542.20 4.74 
77.20 -541.92 4.73 
78.19 -538.74 4.45 
78.48 -537.20 4.32 
78.46 -536.97 4.31 
76.92 -538.40 4.50 
77.68 -535.96 4.29 
77.50 -535.67 4.28 
77.74 -535.13 4.23 
76.79 -536.36 4.37 
76.12 -534.28 4.31 
79.95 -538.73 5.21 
80.06 -538.49 5.18 
79.81 -538.19 5.18 
79.50 -538.98 5.21 
79.34 -538.90 5.22 
79.50 -538.48 5.18 
79.56 -537.85 5.18 
79.92 -537.28 5.11 
78.95 -539.10 5.26 
79.06 -538.62 5.22 
79.14 -538.13 5.19 
75.01 -534.67 4.37 
78.83 -539.03 5.27 
79.43 -537.61 5.18 
78.43 -540.01 5.36 
78.66 -539.24 5.29 
79.06 -537.42 5.17 
79.21 -536.58 5.13 
79.22 -535.93 5.09 
77.57 -540.35 5.46 
77.82 -540.15 5.42 
79.07 -536.17 5.11 
78.98 -535.76 5.10 
78.39 -536.61 5.17 
78.86 -535.35 5.08 
76.75 -540.85 5.56 
77.04 -540.52 5.51 
77.31 -539.25 5.41 
76.82 -539.42 5.46 
76.95 -538.91 5.42 
76.84 -534.58 5.21 
76.53 -534.21 5.21 
76.33 -533.87 5.21 
78.57 -536.83 6.11 
78.47 -535.99 6.08 
80.58 -549.45 1.35 
80.48 -549.24 1.32 
82.27 -552.14 2.43 
82.24 -551.54 2.38 
82.10 -551.82 2.40 
82.22 -551.33 2.36 
82.14 -550.74 2.30 
82.29 -550.40 2.28 
81.81 -551.37 2.35 
81.77 -551.18 2.33 
82.21 -549.07 2.16 
81.26 -551.23 2.32 
81.20 -550.92 2.29 
80.93 -550.02 2.20 
81.68 -546.81 1.94 
79.54 -552.99 2.43 
80.13 -550.48 2.22 
80.65 -549.45 2.14 
79.56 -546.66 1.86 
79.63 -546.43 1.85 
79.78 -546.07 1.82 
79.87 -545.70 1.79 
84.06 -549.45 2.95 
84.11 -549.20 2.93 
83.25 -551.31 3.12 
83.53 -550.58 3.05 
83.84 -549.27 2.93 
84.08 -548.81 2.89 
82.77 -552.04 3.18 
82.54 -551.66 3.15 
82.77 -550.95 3.08 
83.39 -549.72 2.97 
83.57 -549.08 2.91 
82.41 -551.91 3.17 
82.67 -551.18 3.10 
82.62 -550.84 3.07 
82.69 -550.29 3.02 
82.69 -550.25 3.02 
82.97 -549.80 2.98 
82.42 -550.10 3.00 
81.71 -550.63 3.04 
82.98 -546.44 2.67 
81.47 -546.78 2.70 
81.76 -546.06 2.63 
79.35 -552.73 3.22 
81.46 -546.10 2.63 
79.10 -553.03 3.25 
78.05 -554.56 3.39 
80.38 -545.86 2.61 
77.96 -554.17 3.35 
79.64 -546.78 2.68 
79.74 -546.31 2.64 
76.55 -542.44 2.29 
76.20 -538.32 1.95 
76.21 -538.08 1.93 
75.57 -538.50 1.96 
83.93 -549.37 3.65 
83.96 -549.19 3.64 
83.88 -548.55 3.58 
83.48 -548.91 3.62 
83.78 -548.14 3.54 
83.56 -547.52 3.49 
82.00 -552.37 3.98 
82.24 -551.98 3.93 
82.47 -550.43 3.78 
82.64 -549.97 3.73 
82.79 -549.64 3.70 
82.74 -549.27 3.66 
83.15 -549.01 3.63 
83.07 -548.40 3.58 
81.92 -551.69 3.91 
81.75 -551.44 3.89 
83.00 -547.11 3.46 
83.00 -546.90 3.44 
81.62 -551.24 3.87 
81.38 -551.04 3.86 
80.43 -551.23 3.89 
79.68 -551.58 3.94 
80.11 -551.00 3.87 
79.52 -551.87 3.97 
79.45 -551.14 3.90 
79.40 -550.90 3.87 
80.16 -546.74 3.48 
80.43 -546.68 3.47 
78.55 -550.76 3.88 
79.07 -546.28 3.45 
77.79 -546.51 3.50 
79.17 -537.87 2.77 
79.27 -537.63 2.75 
78.11 -541.22 3.05 
78.90 -538.19 2.80 
78.86 -537.88 2.78 
79.17 -537.57 2.75 
77.93 -540.70 3.01 
77.93 -540.44 2.99 
78.78 -537.23 2.73 
78.75 -536.96 2.71 
78.81 -536.74 2.69 
76.50 -543.15 3.23 
76.56 -542.63 3.19 
76.55 -542.33 3.16 
76.65 -541.82 3.12 
76.93 -540.82 3.03 
77.05 -540.79 3.03 
78.42 -535.17 2.58 
77.69 -536.15 2.67 
77.83 -535.92 2.65 
77.98 -535.58 2.62 
83.49 -548.90 4.34 
82.98 -548.46 4.32 
83.13 -548.11 4.28 
76.22 -542.87 3.21 
76.40 -542.56 3.18 
76.49 -542.08 3.14 
76.58 -541.52 3.10 
76.25 -541.54 3.10 
76.44 -541.27 3.08 
75.50 -543.60 3.28 
75.68 -541.95 3.14 
77.30 -536.30 2.68 
76.42 -538.32 2.85 
76.59 -538.09 2.83 
75.77 -539.57 2.95 
74.15 -543.81 3.32 
74.28 -543.25 3.28 
72.97 -537.91 2.87 
75.05 -531.58 2.27 
72.11 -538.60 2.94 
71.82 -537.99 2.89 
71.49 -538.24 2.92 
80.69 -548.97 4.46 
80.80 -546.88 4.26 
80.38 -546.60 4.26 
79.79 -538.81 3.66 
78.67 -541.48 3.90 
78.82 -540.73 3.83 
79.27 -539.82 3.75 
79.58 -539.13 3.69 
78.56 -541.33 3.89 
78.60 -541.03 3.87 
78.45 -540.44 3.83 
78.79 -540.25 3.80 
78.90 -539.97 3.77 
79.26 -538.32 3.64 
79.38 -537.84 3.60 
77.83 -541.88 3.96 
77.81 -541.61 3.94 
78.96 -538.00 3.63 
79.20 -537.28 3.57 
79.23 -537.24 3.57 
79.29 -536.69 3.53 
79.20 -536.24 3.50 
79.21 -535.98 3.49 
77.58 -542.11 3.99 
77.32 -542.61 4.04 
76.70 -542.82 4.08 
76.73 -542.29 4.04 
75.98 -543.03 4.13 
76.77 -539.11 3.80 
77.44 -535.98 3.55 
77.34 -535.26 3.45 
74.78 -543.19 4.19 
77.30 -534.81 3.42 
75.89 -538.68 3.80 
76.65 -535.41 3.49 
77.00 -534.90 3.44 
76.14 -533.96 3.47 
73.25 -543.37 4.27 
78.80 -540.88 4.68 
78.99 -540.18 4.62 
79.25 -539.74 4.57 
79.85 -537.87 4.41 
78.61 -541.00 4.70 
78.59 -540.37 4.66 
78.83 -539.16 4.56 
79.31 -538.00 4.45 
79.60 -537.31 4.39 
79.60 -537.04 4.37 
79.55 -536.65 4.35 
79.57 -536.25 4.33 
78.59 -539.37 4.59 
78.76 -538.89 4.54 
79.39 -536.44 4.35 
78.03 -540.52 4.70 
78.59 -538.44 4.53 
78.70 -538.12 4.50 
78.82 -537.31 4.44 
77.27 -541.86 4.85 
77.83 -540.52 4.72 
76.92 -542.22 4.90 
77.11 -541.45 4.83 
78.60 -535.73 4.36 
76.94 -540.92 4.80 
77.88 -535.28 4.36 
75.36 -542.89 5.05 
75.38 -542.62 5.03 
77.72 -534.55 4.32 
76.36 -534.49 4.42 
76.29 -533.63 4.37 
68.19 -534.14 3.73 
68.60 -532.79 3.61 
79.43 -538.46 5.31 
79.46 -537.96 5.27 
79.81 -536.87 5.23 
79.08 -538.64 5.35 
79.13 -538.14 5.31 
79.36 -537.69 5.27 
73.87 -540.78 4.98 
79.61 -536.88 5.24 
79.68 -536.62 5.22 
78.38 -539.49 5.46 
78.54 -539.29 5.43 
78.62 -538.79 5.40 
79.16 -536.11 5.23 
79.35 -535.50 5.18 
77.73 -539.76 5.53 
78.74 -535.96 5.22 
79.16 -535.73 5.21 
77.24 -540.10 5.60 
77.58 -539.58 5.53 
78.56 -535.65 5.22 
78.86 -535.12 5.19 
76.77 -540.39 5.66 
77.07 -540.03 5.61 
76.69 -539.75 5.62 
76.98 -538.72 5.53 
76.68 -534.62 5.35 
76.80 -534.25 5.31 
77.59 -538.98 6.38 
77.23 -538.64 6.39 
78.17 -535.17 6.19 
78.17 -536.72 7.21 
80.47 -549.14 1.41 
74.63 -545.02 0.74 
83.46 -548.44 2.25 
81.91 -551.90 2.51 
82.08 -551.51 2.48 
82.75 -547.91 2.18 
82.80 -547.59 2.15 
82.41 -548.12 2.19 
82.66 -547.65 2.16 
82.60 -547.05 2.10 
82.75 -546.86 2.09 
81.02 -549.09 2.23 
79.44 -552.65 2.50 
80.46 -549.23 2.23 
80.54 -548.56 2.17 
78.70 -554.18 2.62 
77.98 -554.65 2.64 
79.79 -547.66 2.07 
77.61 -554.19 2.59 
79.46 -547.44 2.04 
79.63 -546.46 1.96 
79.62 -545.72 1.89 
79.86 -545.48 1.88 
79.84 -545.23 1.86 
79.30 -546.71 1.97 
79.41 -546.23 1.93 
79.36 -545.98 1.91 
76.18 -538.54 1.17 
83.50 -551.03 3.22 
83.19 -551.28 3.24 
84.00 -548.93 3.03 
83.98 -548.52 2.99 
84.03 -548.10 2.95 
84.26 -547.64 2.91 
82.55 -551.68 3.27 
83.44 -548.82 3.01 
83.82 -547.90 2.93 
84.00 -547.01 2.85 
82.30 -551.97 3.30 
82.26 -551.51 3.25 
83.44 -547.25 2.87 
83.72 -546.83 2.83 
83.11 -547.51 2.89 
83.22 -547.30 2.87 
82.83 -546.23 2.77 
82.86 -546.01 2.76 
79.69 -554.31 3.50 
81.43 -548.60 2.98 
81.27 -545.60 2.71 
78.79 -554.33 3.50 
78.12 -554.23 3.48 
77.90 -553.75 3.43 
79.75 -546.72 2.80 
77.48 -554.12 3.47 
79.66 -545.88 2.72 
76.17 -538.46 2.07 
76.20 -537.91 2.02 
76.20 -537.65 2.00 
75.60 -538.09 2.03 
83.72 -547.84 3.65 
82.99 -551.05 3.97 
83.44 -548.74 3.74 
82.10 -551.66 4.04 
82.86 -549.04 3.77 
83.26 -548.53 3.72 
83.50 -547.21 3.59 
83.40 -546.96 3.57 
81.68 -552.02 4.08 
81.78 -551.48 4.03 
82.85 -548.15 3.69 
82.96 -547.21 3.60 
81.27 -551.87 4.07 
82.38 -548.41 3.72 
82.62 -546.83 3.57 
82.89 -546.59 3.54 
81.34 -550.66 3.95 
82.17 -546.81 3.58 
81.95 -547.10 3.61 
82.06 -546.60 3.56 
81.15 -547.83 3.69 
81.41 -547.56 3.66 
78.92 -554.45 4.37 
80.49 -549.59 3.86 
79.48 -551.49 4.06 
79.30 -551.27 4.04 
80.04 -547.72 3.69 
80.29 -546.27 3.56 
79.32 -546.55 3.60 
78.98 -546.03 3.56 
78.95 -545.57 3.52 
78.11 -540.79 3.13 
78.81 -538.18 2.91 
78.95 -537.82 2.88 
79.04 -537.46 2.85 
79.07 -537.10 2.82 
77.90 -540.24 3.09 
77.74 -539.96 3.07 
78.26 -538.18 2.92 
78.76 -537.54 2.86 
78.93 -536.81 2.80 
78.84 -536.53 2.79 
78.12 -538.47 2.94 
77.00 -540.40 3.11 
78.42 -535.10 2.69 
78.40 -534.56 2.65 
77.78 -535.74 2.74 
77.96 -535.38 2.71 
78.20 -534.77 2.67 
83.02 -548.26 4.44 
83.12 -547.82 4.40 
77.67 -554.53 4.40 
76.20 -542.66 3.31 
76.51 -542.46 3.29 
76.61 -542.08 3.26 
76.57 -541.67 3.22 
76.64 -541.41 3.20 
75.91 -542.94 3.34 
76.18 -541.10 3.18 
76.40 -540.86 3.16 
75.53 -543.19 3.37 
76.56 -538.44 2.97 
77.44 -535.88 2.76 
76.37 -538.11 2.94 
76.62 -537.65 2.90 
77.64 -534.06 2.62 
75.76 -539.14 3.03 
74.08 -543.41 3.41 
75.14 -531.26 2.35 
72.52 -538.38 3.02 
71.45 -537.91 3.00 
82.75 -548.75 4.50 
81.81 -548.18 4.48 
82.18 -547.28 4.38 
80.47 -548.78 4.59 
80.49 -547.09 4.43 
80.43 -546.86 4.41 
80.74 -546.53 4.37 
79.56 -549.51 4.70 
80.29 -546.19 4.36 
79.87 -538.65 3.76 
79.81 -538.41 3.74 
79.19 -539.32 3.83 
79.61 -538.77 3.77 
79.67 -538.15 3.73 
78.57 -540.88 3.97 
78.52 -540.50 3.95 
78.75 -540.27 3.92 
78.89 -539.77 3.88 
78.78 -539.51 3.86 
79.21 -538.03 3.74 
79.30 -537.55 3.70 
78.44 -539.97 3.91 
78.98 -537.75 3.72 
79.18 -536.84 3.65 
79.37 -536.57 3.63 
79.19 -536.26 3.61 
78.70 -537.18 3.69 
79.04 -535.71 3.58 
77.60 -541.89 4.09 
77.74 -541.57 4.06 
77.78 -541.17 4.03 
77.18 -542.42 4.15 
77.25 -542.38 4.15 
77.33 -541.39 4.06 
76.56 -542.65 4.20 
76.59 -542.60 4.19 
76.73 -542.03 4.14 
76.71 -538.67 3.88 
77.45 -535.58 3.63 
74.86 -542.78 4.28 
77.39 -534.46 3.56 
74.71 -543.04 4.30 
74.76 -542.82 4.28 
76.95 -534.70 3.54 
76.66 -533.98 3.55 
76.17 -533.54 3.54 
79.99 -537.61 4.50 
78.76 -540.44 4.77 
79.16 -539.73 4.70 
79.15 -539.36 4.67 
79.63 -538.57 4.58 
79.62 -537.56 4.52 
78.57 -540.67 4.80 
78.71 -539.93 4.74 
79.00 -538.96 4.65 
79.37 -537.73 4.54 
79.47 -537.26 4.51 
79.57 -536.95 4.48 
79.58 -536.65 4.46 
79.56 -536.28 4.44 
78.76 -538.67 4.65 
79.33 -536.44 4.46 
79.56 -535.77 4.41 
78.33 -540.09 4.77 
77.01 -542.30 5.03 
77.17 -542.08 5.00 
77.20 -541.67 4.97 
77.32 -541.28 4.93 
78.56 -537.86 4.60 
79.11 -535.13 4.39 
77.04 -541.01 4.92 
78.68 -535.28 4.43 
76.80 -540.69 4.91 
77.60 -537.90 4.66 
75.82 -541.94 5.07 
75.33 -542.49 5.15 
77.74 -534.35 4.42 
77.29 -534.83 4.48 
76.79 -533.93 4.46 
76.21 -535.22 4.57 
76.35 -534.09 4.50 
76.79 -533.64 4.44 
76.30 -533.22 4.45 
79.49 -537.72 5.37 
79.60 -537.34 5.34 
79.73 -537.02 5.31 
79.30 -537.93 5.40 
79.42 -537.31 5.35 
79.09 -538.40 5.45 
79.13 -538.16 5.43 
78.39 -539.04 5.55 
78.35 -538.78 5.53 
79.28 -535.11 5.28 
77.95 -539.35 5.61 
79.14 -535.35 5.30 
79.08 -534.81 5.27 
78.40 -536.56 5.39 
78.42 -536.14 5.36 
78.43 -535.78 5.34 
76.71 -540.25 5.78 
76.79 -539.85 5.74 
77.12 -539.63 5.70 
77.23 -538.33 5.60 
78.10 -536.34 5.40 
75.53 -534.65 5.52 
75.63 -533.27 5.47 
75.37 -533.51 5.50 
77.18 -537.17 6.43 
80.43 -548.96 1.29 
80.39 -548.76 1.28 
83.12 -550.40 2.33 
82.15 -551.52 2.39 
82.71 -550.72 2.34 
82.85 -550.22 2.30 
82.62 -550.04 2.28 
83.22 -548.41 2.16 
83.39 -548.09 2.13 
81.83 -551.39 2.37 
82.21 -551.07 2.36 
82.24 -549.64 2.23 
82.94 -547.69 2.08 
81.71 -550.18 2.26 
81.88 -549.90 2.24 
81.95 -549.20 2.18 
82.69 -547.39 2.05 
82.87 -546.81 2.00 
81.47 -549.74 2.21 
82.15 -548.03 2.09 
82.49 -546.62 1.98 
81.09 -550.10 2.23 
81.08 -549.61 2.19 
81.33 -548.85 2.13 
79.25 -554.67 2.58 
80.92 -549.60 2.18 
80.90 -549.16 2.15 
81.18 -548.64 2.11 
81.59 -546.47 1.93 
80.92 -547.24 1.98 
81.05 -546.28 1.90 
79.48 -546.15 1.84 
79.56 -545.86 1.81 
79.76 -545.48 1.79 
79.27 -545.67 1.79 
79.62 -545.40 1.78 
79.71 -545.13 1.76 
78.50 -546.18 1.81 
78.61 -545.96 1.79 
83.19 -550.87 3.13 
84.01 -548.80 2.94 
83.89 -548.58 2.92 
83.92 -548.34 2.90 
84.10 -547.67 2.84 
82.57 -551.57 3.19 
83.00 -550.57 3.10 
83.63 -548.19 2.88 
83.94 -546.84 2.77 
82.21 -551.46 3.17 
82.47 -550.32 3.07 
83.86 -546.42 2.73 
82.24 -549.79 3.02 
82.45 -549.43 2.99 
82.73 -548.19 2.88 
82.97 -548.03 2.86 
82.92 -547.39 2.81 
82.67 -547.65 2.83 
82.84 -546.73 2.75 
82.96 -546.05 2.69 
82.91 -545.83 2.67 
81.30 -550.19 3.05 
79.87 -554.65 3.45 
81.97 -547.28 2.79 
81.35 -545.47 2.62 
81.14 -545.72 2.64 
79.54 -546.56 2.70 
79.07 -545.31 2.58 
76.50 -542.79 2.34 
76.47 -541.74 2.25 
76.20 -538.23 1.96 
76.06 -538.44 1.98 
76.25 -537.40 1.90 
75.66 -537.71 1.92 
83.40 -548.38 3.64 
83.70 -547.85 3.59 
83.67 -547.63 3.57 
82.66 -549.41 3.75 
82.85 -549.14 3.72 
83.01 -548.62 3.67 
83.16 -548.37 3.64 
83.08 -547.97 3.61 
83.42 -546.60 3.47 
81.63 -551.96 4.01 
82.55 -548.83 3.69 
82.57 -548.23 3.64 
81.24 -551.61 3.98 
81.42 -551.08 3.93 
82.23 -548.32 3.65 
82.46 -547.56 3.58 
80.89 -551.44 3.97 
82.12 -547.52 3.58 
80.73 -550.73 3.90 
81.53 -547.95 3.62 
81.99 -546.39 3.48 
80.87 -549.24 3.76 
81.41 -547.26 3.56 
79.89 -550.41 3.88 
79.51 -551.24 3.97 
79.71 -550.14 3.86 
79.24 -550.79 3.93 
79.30 -550.73 3.92 
79.94 -547.18 3.57 
79.24 -546.25 3.50 
79.21 -545.96 3.47 
78.85 -545.74 3.46 
77.97 -540.70 3.04 
78.00 -540.47 3.02 
78.89 -538.02 2.82 
79.03 -537.53 2.78 
79.12 -537.29 2.76 
79.25 -537.05 2.74 
77.81 -540.92 3.06 
77.87 -540.18 3.00 
77.84 -539.91 2.98 
78.38 -538.18 2.84 
78.85 -536.73 2.72 
78.80 -536.36 2.69 
77.69 -539.66 2.96 
78.55 -534.82 2.59 
78.47 -534.27 2.55 
77.98 -535.20 2.62 
78.10 -534.96 2.60 
78.20 -534.47 2.56 
76.36 -542.33 3.20 
76.41 -541.94 3.17 
76.64 -541.12 3.10 
76.84 -540.32 3.03 
76.31 -541.65 3.14 
77.80 -535.43 2.64 
76.55 -538.20 2.86 
77.51 -535.62 2.66 
77.74 -533.81 2.52 
75.50 -541.30 3.13 
76.13 -539.17 2.95 
76.61 -537.38 2.80 
75.51 -539.37 2.97 
75.72 -538.89 2.93 
74.15 -543.24 3.31 
74.31 -542.97 3.28 
74.01 -542.67 3.26 
75.25 -530.85 2.24 
72.47 -538.21 2.92 
72.36 -537.89 2.90 
83.06 -547.74 4.34 
81.95 -548.70 4.47 
80.49 -548.71 4.53 
80.66 -548.42 4.49 
80.08 -548.30 4.50 
80.40 -547.00 4.37 
79.40 -549.35 4.63 
80.29 -546.69 4.34 
79.25 -548.66 4.57 
79.84 -538.33 3.66 
79.23 -539.20 3.75 
79.39 -538.62 3.70 
79.72 -538.07 3.65 
78.41 -540.67 3.89 
78.49 -540.41 3.87 
78.63 -540.06 3.84 
78.71 -539.66 3.80 
79.26 -537.74 3.64 
79.43 -537.27 3.60 
78.48 -539.87 3.83 
79.02 -537.45 3.63 
79.21 -536.46 3.55 
79.28 -536.03 3.52 
78.71 -536.83 3.59 
79.17 -535.48 3.48 
79.26 -535.16 3.46 
77.82 -540.88 3.93 
77.29 -542.14 4.05 
77.52 -541.90 4.02 
77.54 -541.39 3.98 
77.71 -541.13 3.95 
77.97 -539.32 3.80 
78.12 -539.10 3.78 
76.65 -542.39 4.10 
75.78 -542.62 4.15 
76.69 -538.61 3.80 
77.47 -535.30 3.53 
74.81 -542.88 4.21 
75.27 -541.51 4.08 
77.40 -534.30 3.47 
75.94 -536.08 3.64 
76.67 -533.96 3.47 
76.68 -533.73 3.45 
78.66 -540.61 4.72 
79.07 -539.62 4.62 
79.09 -539.25 4.60 
79.60 -537.22 4.42 
78.78 -539.85 4.66 
79.01 -539.10 4.59 
78.97 -538.38 4.54 
79.47 -537.45 4.45 
79.55 -536.83 4.40 
79.47 -536.44 4.38 
79.74 -535.99 4.33 
79.64 -535.69 4.32 
79.42 -536.17 4.36 
78.46 -540.34 4.72 
78.19 -540.04 4.71 
78.68 -538.74 4.58 
78.74 -538.08 4.53 
78.67 -537.56 4.50 
77.50 -541.30 4.85 
77.43 -541.03 4.83 
79.13 -535.03 4.31 
77.07 -541.52 4.89 
77.12 -540.74 4.83 
78.69 -535.19 4.34 
77.64 -537.66 4.57 
78.24 -534.86 4.35 
75.80 -541.68 4.98 
77.78 -533.83 4.31 
75.27 -541.97 5.04 
76.86 -533.69 4.36 
76.85 -533.39 4.34 
76.33 -533.82 4.40 
76.33 -532.99 4.35 
79.43 -537.87 5.32 
79.61 -537.40 5.27 
79.77 -536.92 5.23 
75.76 -533.98 4.44 
79.01 -538.05 5.36 
79.13 -537.57 5.32 
79.33 -537.10 5.27 
78.37 -538.96 5.48 
78.43 -538.71 5.45 
78.60 -538.19 5.41 
79.35 -534.88 5.19 
77.66 -539.36 5.56 
78.42 -536.41 5.30 
78.40 -535.88 5.27 
78.58 -535.66 5.25 
78.62 -535.28 5.22 
76.80 -539.58 5.65 
76.98 -539.44 5.63 
77.24 -539.10 5.58 
77.26 -538.16 5.51 
78.02 -536.07 5.32 
78.35 -534.79 5.22 
77.10 -538.28 5.54 
75.71 -533.09 5.38 
77.06 -537.35 6.38 
80.31 -548.57 1.31 
82.45 -550.95 2.42 
82.58 -550.31 2.37 
82.59 -549.95 2.34 
82.94 -548.24 2.20 
83.33 -547.91 2.19 
83.27 -547.73 2.17 
81.72 -551.59 2.46 
81.64 -551.40 2.44 
82.11 -550.79 2.40 
82.30 -549.77 2.32 
82.95 -547.44 2.13 
83.05 -546.63 2.07 
82.15 -549.33 2.27 
82.74 -547.31 2.12 
82.60 -547.12 2.10 
82.87 -546.61 2.06 
82.85 -546.40 2.04 
81.87 -548.91 2.23 
82.53 -546.14 2.01 
80.99 -549.32 2.23 
80.65 -549.89 2.27 
80.79 -548.87 2.19 
80.84 -548.37 2.14 
79.06 -554.26 2.60 
80.37 -547.17 2.02 
80.93 -545.93 1.94 
78.19 -554.12 2.56 
77.85 -553.80 2.52 
78.13 -553.45 2.50 
79.53 -547.32 2.01 
79.72 -545.06 1.82 
77.30 -553.41 2.47 
79.09 -545.86 1.87 
79.42 -544.57 1.77 
79.10 -545.35 1.82 
79.30 -544.83 1.79 
78.37 -545.66 1.83 
84.31 -547.92 2.95 
83.09 -550.70 3.19 
83.92 -548.55 3.00 
83.90 -548.22 2.97 
83.98 -547.32 2.89 
82.83 -550.48 3.17 
83.79 -546.65 2.83 
82.13 -551.18 3.23 
82.55 -550.35 3.15 
83.33 -546.74 2.83 
82.60 -549.15 3.04 
82.98 -547.12 2.86 
82.96 -546.56 2.81 
81.53 -550.10 3.12 
82.50 -547.77 2.92 
82.54 -546.57 2.81 
81.28 -550.40 3.15 
81.77 -548.12 2.94 
82.53 -546.38 2.79 
82.63 -545.46 2.71 
80.92 -549.87 3.09 
79.98 -551.23 3.21 
81.53 -545.08 2.67 
80.04 -546.63 2.79 
80.16 -546.40 2.77 
80.11 -544.90 2.64 
79.45 -546.24 2.75 
79.57 -545.44 2.68 
76.97 -553.68 3.40 
79.00 -544.76 2.61 
78.01 -546.13 2.72 
76.43 -542.46 2.39 
76.43 -541.43 2.30 
76.18 -537.86 2.01 
76.28 -537.31 1.96 
76.21 -537.06 1.94 
75.59 -537.49 1.97 
75.63 -537.25 1.95 
83.16 -548.28 3.73 
83.24 -547.81 3.68 
83.60 -546.37 3.54 
81.92 -551.36 4.04 
82.59 -547.68 3.68 
81.44 -551.54 4.07 
82.20 -548.92 3.80 
82.83 -546.04 3.52 
81.04 -551.38 4.05 
80.78 -551.15 4.03 
81.98 -547.54 3.67 
82.18 -547.16 3.63 
82.26 -546.78 3.60 
81.73 -546.64 3.59 
80.07 -551.07 4.03 
80.95 -548.43 3.77 
81.53 -546.42 3.57 
80.04 -550.60 3.99 
79.91 -550.38 3.97 
80.51 -548.99 3.83 
79.36 -551.02 4.04 
79.73 -550.12 3.94 
79.36 -549.72 3.91 
80.07 -546.54 3.60 
80.32 -546.18 3.57 
80.02 -545.86 3.54 
79.76 -545.64 3.52 
78.85 -537.83 2.88 
78.95 -537.23 2.83 
79.11 -536.87 2.81 
79.23 -536.63 2.79 
77.87 -540.36 3.10 
77.83 -539.84 3.05 
77.82 -539.58 3.03 
78.32 -537.81 2.89 
78.68 -537.19 2.84 
78.87 -536.32 2.77 
78.86 -536.03 2.75 
77.59 -539.30 3.01 
78.24 -537.53 2.87 
78.78 -535.80 2.73 
78.59 -534.44 2.63 
77.87 -535.90 2.75 
78.01 -534.86 2.67 
78.18 -534.63 2.65 
78.19 -534.09 2.61 
78.49 -533.89 2.59 
77.96 -554.65 4.42 
76.23 -542.37 3.28 
76.47 -541.89 3.24 
76.44 -541.35 3.20 
76.12 -542.11 3.26 
76.08 -541.83 3.24 
76.32 -541.59 3.22 
76.13 -541.07 3.18 
76.49 -540.82 3.15 
76.42 -540.00 3.09 
77.86 -535.09 2.69 
77.60 -535.26 2.70 
76.47 -538.07 2.93 
77.77 -533.45 2.57 
75.71 -538.58 2.98 
74.06 -542.93 3.36 
74.13 -542.67 3.34 
73.95 -542.41 3.32 
72.51 -540.34 3.16 
72.98 -538.60 3.02 
75.36 -530.27 2.27 
72.43 -537.95 2.97 
72.85 -536.75 2.87 
80.13 -546.49 4.42 
80.27 -546.28 4.40 
79.48 -546.77 4.47 
80.13 -545.72 4.35 
79.15 -538.85 3.81 
79.43 -538.38 3.76 
79.38 -538.12 3.74 
79.79 -537.92 3.71 
78.68 -539.31 3.86 
78.34 -540.05 3.93 
79.06 -537.16 3.68 
79.27 -536.31 3.61 
79.37 -535.99 3.59 
79.26 -535.66 3.57 
79.27 -535.17 3.53 
79.25 -534.78 3.51 
77.79 -540.90 4.02 
78.29 -540.30 3.95 
78.32 -539.79 3.91 
78.30 -539.53 3.89 
77.32 -541.69 4.10 
77.59 -540.89 4.02 
77.67 -540.53 3.99 
77.98 -538.99 3.86 
78.52 -537.49 3.73 
78.71 -536.48 3.65 
76.71 -542.02 4.15 
77.17 -541.29 4.07 
78.47 -536.66 3.67 
75.77 -542.33 4.21 
75.87 -542.28 4.20 
77.32 -537.06 3.74 
75.74 -542.05 4.19 
76.64 -538.32 3.86 
77.39 -535.14 3.60 
77.40 -534.10 3.53 
77.38 -533.82 3.51 
74.76 -542.55 4.27 
74.95 -541.72 4.19 
76.73 -533.39 3.50 
79.08 -539.14 4.67 
79.56 -536.93 4.49 
79.55 -536.41 4.45 
79.57 -536.05 4.43 
79.67 -535.80 4.40 
79.42 -535.98 4.43 
79.56 -535.50 4.39 
79.60 -535.27 4.37 
78.56 -540.24 4.79 
78.49 -539.98 4.77 
78.79 -539.49 4.72 
78.95 -538.75 4.65 
78.16 -539.70 4.77 
78.67 -538.34 4.64 
78.62 -537.69 4.60 
79.41 -535.51 4.40 
77.41 -540.93 4.91 
78.43 -537.92 4.62 
78.64 -537.18 4.56 
77.24 -540.66 4.90 
77.13 -540.41 4.89 
77.74 -537.30 4.62 
78.26 -534.75 4.42 
78.25 -534.49 4.40 
77.56 -535.95 4.54 
76.87 -533.20 4.40 
75.94 -533.68 4.48 
76.31 -533.49 4.45 
76.40 -532.66 4.40 
79.19 -537.56 5.40 
79.36 -537.21 5.36 
79.43 -536.84 5.33 
78.47 -538.62 5.53 
78.63 -537.87 5.47 
79.07 -536.39 5.33 
77.77 -539.07 5.62 
78.33 -538.35 5.52 
78.81 -535.30 5.28 
78.38 -535.55 5.34 
76.77 -539.78 5.76 
76.82 -539.51 5.73 
77.02 -538.73 5.66 
77.30 -537.97 5.58 
77.98 -535.68 5.38 
78.41 -534.78 5.29 
78.34 -534.41 5.27 
76.74 -539.24 5.72 
77.73 -535.90 5.41 
75.85 -534.39 5.47 
80.02 -548.67 1.35 
80.22 -548.12 1.31 
77.93 -531.75 -0.19 
82.47 -550.81 2.46 
82.49 -550.35 2.42 
82.47 -550.07 2.40 
81.78 -551.29 2.48 
82.29 -550.66 2.44 
82.40 -550.13 2.40 
82.46 -549.60 2.36 
82.38 -549.40 2.34 
82.54 -548.62 2.28 
82.81 -548.09 2.24 
83.00 -547.69 2.21 
83.02 -547.46 2.19 
83.12 -547.11 2.17 
83.23 -546.18 2.09 
81.68 -551.08 2.46 
82.20 -549.39 2.33 
81.88 -549.22 2.31 
82.43 -548.42 2.26 
82.77 -546.94 2.14 
82.72 -546.49 2.10 
82.91 -545.99 2.06 
81.78 -549.29 2.31 
81.96 -548.04 2.21 
82.32 -546.78 2.11 
82.70 -545.78 2.04 
80.92 -550.26 2.36 
81.06 -550.17 2.36 
81.30 -549.13 2.28 
78.99 -554.63 2.67 
78.57 -553.91 2.60 
78.25 -553.40 2.54 
78.07 -553.74 2.57 
78.01 -553.22 2.52 
77.94 -552.98 2.50 
80.25 -545.11 1.90 
80.26 -545.07 1.90 
77.54 -553.67 2.54 
79.79 -545.40 1.91 
77.16 -553.15 2.48 
79.45 -544.94 1.86 
79.68 -544.77 1.85 
78.95 -545.75 1.91 
79.32 -544.65 1.83 
79.41 -544.39 1.81 
79.22 -543.90 1.76 
78.93 -544.22 1.78 
79.19 -543.82 1.76 
78.61 -544.50 1.79 
76.21 -537.58 1.14 
76.14 -537.29 1.11 
83.78 -548.52 3.06 
84.00 -548.24 3.04 
83.82 -548.05 3.02 
84.25 -547.74 3.00 
82.87 -550.16 3.20 
83.46 -548.09 3.02 
83.86 -547.32 2.96 
83.84 -547.12 2.94 
82.15 -550.86 3.26 
82.24 -549.94 3.18 
82.70 -548.96 3.09 
82.78 -547.65 2.98 
83.28 -546.55 2.88 
83.49 -545.83 2.82 
82.61 -546.89 2.90 
82.61 -546.42 2.86 
83.07 -546.12 2.84 
81.21 -551.36 3.30 
81.34 -549.81 3.15 
82.22 -547.18 2.93 
82.78 -545.46 2.78 
81.06 -549.83 3.15 
80.90 -549.62 3.13 
81.46 -548.05 3.00 
82.48 -545.27 2.76 
80.88 -549.41 3.11 
79.98 -549.87 3.14 
78.51 -554.24 3.53 
78.72 -553.48 3.46 
80.87 -545.20 2.74 
78.34 -553.89 3.50 
77.83 -554.36 3.54 
77.73 -553.51 3.46 
79.84 -546.06 2.80 
77.64 -553.50 3.45 
77.28 -553.05 3.41 
79.32 -545.12 2.71 
79.10 -544.85 2.69 
78.67 -544.92 2.69 
76.47 -541.87 2.41 
76.23 -541.59 2.38 
76.58 -541.06 2.34 
75.69 -538.55 2.13 
76.22 -537.49 2.05 
76.35 -536.95 2.01 
76.26 -536.67 1.98 
75.58 -538.50 2.12 
75.55 -537.14 2.01 
76.96 -553.44 3.44 
83.69 -547.32 3.71 
83.28 -547.86 3.76 
83.52 -547.10 3.69 
83.01 -547.40 3.72 
83.25 -546.48 3.63 
82.81 -546.09 3.60 
81.37 -550.43 4.03 
82.06 -547.81 3.77 
81.96 -547.15 3.71 
82.14 -546.89 3.68 
80.81 -549.05 3.90 
81.12 -548.23 3.82 
80.06 -550.25 4.03 
80.30 -549.20 3.92 
80.79 -548.09 3.81 
79.70 -549.83 3.99 
80.22 -548.71 3.88 
79.16 -550.65 4.08 
79.40 -549.61 3.97 
80.09 -546.71 3.69 
80.37 -545.92 3.62 
80.34 -545.67 3.60 
79.65 -546.26 3.66 
79.78 -545.44 3.58 
79.14 -537.94 2.96 
78.90 -538.17 2.98 
79.07 -537.97 2.97 
79.04 -537.45 2.93 
79.03 -537.20 2.91 
79.22 -536.58 2.86 
78.03 -540.09 3.15 
78.84 -536.92 2.89 
79.04 -536.17 2.83 
78.91 -535.64 2.79 
77.78 -539.38 3.09 
78.23 -537.58 2.95 
78.19 -535.25 2.77 
78.27 -534.20 2.70 
78.37 -533.93 2.67 
78.45 -533.55 2.65 
77.29 -554.38 4.47 
77.33 -540.99 3.23 
77.41 -540.45 3.19 
76.40 -542.32 3.35 
76.50 -542.05 3.33 
76.47 -541.65 3.30 
77.17 -539.08 3.08 
76.32 -541.24 3.26 
78.27 -533.61 2.65 
75.98 -540.69 3.22 
76.36 -539.61 3.13 
77.78 -534.91 2.75 
77.73 -534.64 2.73 
77.95 -534.40 2.71 
75.93 -539.04 3.09 
76.12 -538.67 3.06 
76.65 -537.46 2.96 
77.83 -533.29 2.64 
77.85 -533.02 2.62 
75.69 -538.42 3.05 
75.64 -538.19 3.03 
73.99 -542.60 3.41 
72.68 -537.75 3.03 
80.17 -546.10 4.47 
80.05 -545.87 4.45 
80.01 -545.38 4.41 
79.19 -539.93 3.97 
79.44 -539.04 3.89 
79.48 -538.67 3.86 
79.47 -538.32 3.84 
79.75 -537.96 3.80 
79.73 -537.56 3.77 
79.80 -537.21 3.74 
78.69 -539.64 3.97 
79.36 -538.17 3.83 
79.35 -537.01 3.74 
79.72 -536.45 3.69 
79.28 -536.64 3.72 
79.49 -535.65 3.64 
79.13 -535.85 3.67 
79.23 -534.96 3.60 
79.28 -534.58 3.57 
78.20 -540.39 4.04 
78.49 -539.38 3.95 
77.43 -541.01 4.12 
77.63 -540.64 4.09 
79.06 -535.32 3.63 
77.46 -540.11 4.05 
76.40 -541.70 4.22 
78.17 -534.05 3.58 
78.49 -533.90 3.56 
75.67 -541.97 4.27 
75.13 -542.20 4.31 
75.53 -541.41 4.23 
76.70 -533.25 3.57 
76.35 -532.60 3.54 
76.00 -532.81 3.57 
76.15 -532.50 3.54 
79.74 -536.84 4.55 
79.62 -536.87 4.56 
79.75 -536.63 4.54 
79.50 -536.34 4.53 
79.59 -535.85 4.50 
79.82 -535.50 4.46 
79.12 -538.94 4.74 
78.58 -539.69 4.83 
78.68 -539.31 4.80 
79.13 -538.58 4.72 
78.72 -538.25 4.72 
78.73 -538.03 4.70 
79.48 -535.06 4.45 
78.54 -537.46 4.67 
78.59 -537.24 4.65 
78.14 -537.02 4.66 
78.87 -534.69 4.46 
79.03 -534.33 4.43 
77.69 -536.87 4.68 
77.64 -535.76 4.60 
76.63 -533.15 4.49 
76.37 -532.52 4.47 
75.96 -533.29 4.54 
75.69 -532.65 4.52 
79.29 -537.21 5.46 
79.33 -536.86 5.43 
79.46 -536.72 5.41 
79.46 -536.27 5.38 
78.89 -537.52 5.51 
79.01 -537.22 5.48 
78.94 -536.95 5.47 
79.14 -536.45 5.42 
79.28 -536.19 5.39 
78.25 -538.17 5.61 
79.03 -535.94 5.39 
79.04 -535.69 5.38 
77.74 -538.65 5.69 
78.04 -537.76 5.60 
77.19 -538.34 5.71 
78.34 -534.91 5.39 
78.36 -534.25 5.35 
76.83 -538.85 5.78 
76.67 -535.03 5.53 
76.79 -534.22 5.47 
75.53 -533.41 5.52 
80.10 -548.65 1.37 
80.23 -548.38 1.36 
80.48 -548.09 1.35 
80.09 -547.81 1.31 
81.65 -554.63 2.80 
82.53 -550.35 2.46 
82.64 -549.77 2.42 
82.81 -549.27 2.38 
83.45 -547.20 2.22 
82.22 -550.80 2.49 
82.31 -550.37 2.46 
82.34 -550.15 2.44 
82.23 -549.68 2.39 
82.30 -549.37 2.37 
82.62 -548.10 2.27 
82.95 -547.55 2.24 
83.14 -547.03 2.20 
81.68 -551.12 2.50 
82.01 -549.24 2.35 
82.29 -548.42 2.29 
82.85 -546.85 2.17 
82.81 -546.38 2.13 
83.11 -546.10 2.12 
81.93 -546.79 2.14 
82.33 -545.87 2.07 
79.79 -554.20 2.70 
80.40 -551.21 2.46 
81.08 -548.97 2.29 
81.11 -548.20 2.23 
82.10 -545.07 2.00 
80.48 -549.37 2.31 
81.51 -545.35 2.00 
78.99 -553.96 2.65 
78.78 -553.73 2.63 
81.11 -545.45 2.00 
78.54 -554.43 2.68 
78.56 -553.55 2.60 
78.16 -554.21 2.65 
80.23 -545.28 1.95 
80.22 -545.07 1.93 
77.77 -553.22 2.55 
79.80 -544.36 1.86 
79.64 -544.13 1.84 
79.17 -544.96 1.89 
79.30 -543.91 1.81 
79.40 -543.49 1.77 
78.63 -544.71 1.85 
76.28 -537.33 1.16 
75.99 -537.54 1.17 
76.18 -537.00 1.13 
83.98 -548.22 3.09 
82.93 -550.12 3.25 
83.70 -547.87 3.06 
83.59 -547.56 3.03 
82.92 -548.88 3.14 
82.10 -550.90 3.32 
82.23 -549.55 3.19 
82.51 -549.23 3.17 
82.82 -548.21 3.08 
83.00 -547.22 2.99 
82.94 -546.98 2.97 
83.23 -546.46 2.92 
83.43 -545.92 2.88 
81.78 -550.96 3.32 
81.68 -550.75 3.30 
81.69 -550.25 3.25 
82.27 -549.08 3.15 
82.84 -545.82 2.86 
81.29 -550.08 3.23 
82.28 -546.87 2.95 
82.43 -546.37 2.91 
82.50 -545.13 2.80 
81.02 -550.40 3.26 
80.86 -549.96 3.21 
79.52 -554.54 3.63 
79.68 -554.19 3.60 
78.64 -554.26 3.59 
78.70 -553.97 3.56 
79.85 -549.96 3.20 
79.99 -549.40 3.15 
80.40 -548.01 3.03 
81.13 -545.10 2.78 
78.73 -553.34 3.50 
78.11 -554.13 3.57 
78.18 -553.84 3.54 
79.83 -546.01 2.85 
79.69 -546.09 2.85 
79.67 -545.70 2.82 
79.19 -545.12 2.76 
78.99 -544.58 2.71 
79.02 -544.33 2.69 
78.81 -544.92 2.74 
78.83 -544.65 2.72 
78.13 -545.22 2.76 
77.03 -540.76 2.37 
76.63 -541.62 2.44 
76.55 -541.17 2.40 
76.59 -540.81 2.37 
77.03 -540.50 2.35 
76.15 -541.91 2.46 
76.41 -541.36 2.41 
