# .PCD v0.7 - Point Cloud Data file format
VERSION 0.7
FIELDS x y z
SIZE 4 4 4
TYPE F F F
COUNT 1 1 1
WIDTH 838
HEIGHT 1
VIEWPOINT 0 0 0 1 0 0 0
POINTS 838
DATA ascii
105.97 -738.18 7.96 
108.33 -738.32 8.23 
109.55 -739.75 8.34 
105.43 -735.80 7.76 
107.06 -737.09 7.98 
105.24 -735.81 7.82 
107.12 -737.12 8.03 
95.52 -732.59 6.68 
105.90 -736.98 8.11 
93.44 -732.22 7.46 
96.00 -732.79 6.82 
104.13 -735.74 7.24 
105.20 -736.13 8.06 
98.40 -733.58 7.69 
106.81 -737.48 8.30 
107.67 -738.35 8.45 
92.00 -732.21 7.58 
104.85 -736.29 8.58 
102.13 -734.91 7.36 
105.42 -736.31 8.34 
94.85 -732.84 7.84 
108.45 -738.58 8.76 
98.95 -730.04 8.17 
99.59 -734.08 8.03 
98.44 -733.86 8.00 
104.31 -735.82 8.33 
107.23 -737.63 8.67 
106.21 -737.24 8.60 
103.92 -734.82 7.06 
102.94 -736.16 7.71 
103.17 -736.91 7.82 
103.01 -736.68 7.79 
105.75 -738.01 7.94 
106.64 -738.90 8.07 
105.60 -738.74 8.06 
106.82 -739.22 8.12 
107.00 -739.60 8.17 
103.56 -734.88 6.87 
104.32 -735.21 6.92 
105.81 -736.13 7.06 
106.19 -736.64 7.14 
106.05 -736.34 7.09 
109.50 -740.55 7.74 
109.68 -741.43 7.88 
109.87 -741.74 7.92 
110.15 -742.46 7.83 
110.40 -743.40 7.97 
111.03 -744.39 8.14 
110.74 -744.23 8.11 
111.22 -744.69 8.18 
104.54 -735.60 7.80 
104.77 -736.33 7.92 
103.39 -736.98 8.05 
107.59 -737.67 8.13 
107.38 -737.52 8.10 
107.49 -737.90 8.17 
106.64 -738.06 8.20 
104.96 -737.67 8.15 
104.47 -735.48 6.58 
102.85 -734.47 6.66 
110.94 -743.17 8.04 
110.92 -743.90 8.15 
94.61 -732.10 7.17 
94.80 -732.38 7.21 
98.98 -733.15 7.27 
98.79 -732.97 7.25 
98.06 -732.83 7.23 
95.42 -732.61 7.24 
94.99 -732.58 7.24 
100.61 -734.17 7.42 
100.24 -734.19 7.43 
103.72 -735.03 7.54 
103.35 -734.94 7.53 
102.82 -734.96 7.54 
104.83 -735.56 7.62 
104.33 -735.49 7.62 
105.36 -735.62 7.63 
103.86 -735.52 7.62 
106.05 -736.41 7.76 
105.71 -736.15 7.72 
105.36 -736.14 7.72 
106.69 -736.82 7.83 
106.38 -736.57 7.79 
107.17 -737.18 7.89 
106.88 -737.08 7.88 
107.92 -737.75 7.99 
107.55 -737.47 7.94 
108.07 -738.00 8.03 
108.49 -738.59 8.13 
108.25 -738.37 8.10 
108.01 -738.19 8.07 
108.96 -738.99 8.21 
108.70 -738.85 8.18 
109.12 -739.34 8.27 
109.35 -739.57 8.31 
109.76 -740.11 8.40 
109.54 -739.88 8.36 
109.88 -740.58 8.49 
110.14 -740.90 8.54 
109.77 -740.68 8.50 
110.41 -741.59 8.67 
110.11 -741.54 8.66 
110.62 -741.96 8.73 
110.72 -742.49 8.83 
110.90 -742.87 8.90 
111.10 -743.26 8.97 
102.78 -734.48 6.78 
103.06 -734.78 6.83 
103.54 -735.13 6.88 
106.30 -736.42 7.08 
105.85 -736.31 7.06 
110.68 -742.62 8.06 
111.50 -744.77 8.21 
112.13 -745.97 8.41 
95.24 -732.25 7.30 
94.82 -732.22 7.30 
94.25 -732.30 7.33 
93.59 -732.21 7.33 
98.44 -733.02 7.37 
98.12 -732.92 7.36 
95.22 -732.68 7.37 
95.00 -732.41 7.33 
99.36 -733.29 7.41 
99.16 -733.14 7.38 
95.52 -733.00 7.42 
100.40 -733.56 7.44 
100.95 -734.26 7.55 
100.72 -734.14 7.53 
103.50 -734.96 7.64 
103.16 -734.91 7.63 
101.78 -734.66 7.61 
95.61 -734.18 7.62 
104.30 -735.27 7.68 
103.90 -735.16 7.67 
95.47 -734.72 7.71 
104.95 -735.60 7.73 
104.42 -735.71 7.76 
104.13 -735.60 7.74 
95.46 -734.80 7.72 
105.75 -736.14 7.82 
106.52 -736.56 7.89 
105.95 -736.65 7.91 
107.36 -737.20 8.00 
106.84 -736.88 7.95 
107.69 -737.51 8.05 
108.27 -737.98 8.13 
108.04 -737.79 8.10 
108.69 -738.48 8.22 
108.38 -738.41 8.21 
108.90 -738.72 8.26 
109.33 -739.22 8.35 
109.74 -739.74 8.44 
109.52 -739.54 8.40 
108.91 -739.38 8.38 
109.92 -740.09 8.50 
110.09 -740.47 8.57 
110.25 -740.86 8.64 
110.50 -741.05 8.68 
110.63 -741.54 8.76 
110.90 -742.03 8.85 
110.93 -742.46 8.93 
111.13 -742.67 8.97 
102.61 -734.68 6.65 
102.58 -734.56 6.85 
105.64 -736.25 7.12 
106.13 -736.56 7.16 
105.77 -736.57 7.16 
108.32 -738.66 7.50 
109.44 -740.26 7.75 
109.51 -740.79 7.83 
109.69 -741.10 7.88 
109.89 -741.39 7.93 
111.15 -743.33 8.05 
111.27 -743.97 8.16 
110.98 -744.04 8.35 
95.30 -732.46 7.38 
94.92 -732.39 7.37 
94.19 -732.24 7.36 
93.72 -732.20 7.36 
92.44 -732.12 7.38 
92.17 -731.95 7.35 
91.74 -731.86 7.35 
98.06 -733.06 7.43 
97.73 -733.02 7.43 
96.50 -732.79 7.41 
95.72 -732.57 7.39 
94.44 -732.45 7.39 
99.22 -733.61 7.50 
99.05 -733.34 7.46 
98.41 -733.31 7.47 
97.08 -733.29 7.48 
101.28 -734.11 7.56 
100.74 -734.05 7.56 
100.47 -733.91 7.54 
100.03 -733.79 7.52 
99.36 -733.91 7.55 
102.30 -734.46 7.61 
101.87 -734.56 7.63 
101.69 -734.30 7.59 
103.49 -735.05 7.70 
103.16 -734.96 7.69 
102.69 -734.88 7.68 
102.47 -734.72 7.65 
95.58 -734.47 7.71 
104.70 -735.59 7.78 
104.25 -735.48 7.77 
103.79 -735.39 7.75 
105.50 -735.94 7.84 
104.87 -735.89 7.83 
105.92 -736.39 7.91 
106.63 -736.80 7.98 
106.27 -736.70 7.96 
105.48 -736.56 7.95 
106.91 -737.17 8.04 
106.54 -737.06 8.03 
107.66 -737.76 8.15 
108.03 -738.15 8.21 
107.66 -737.95 8.18 
108.50 -738.73 8.32 
108.15 -738.44 8.26 
109.08 -739.24 8.41 
108.84 -739.05 8.37 
109.25 -739.52 8.46 
109.51 -739.76 8.50 
109.92 -740.32 8.60 
109.68 -740.09 8.56 
110.03 -740.85 8.69 
110.20 -741.24 8.76 
110.53 -741.62 8.83 
110.56 -742.05 8.91 
110.77 -742.22 8.94 
110.70 -742.51 8.99 
110.92 -742.75 9.04 
111.09 -743.21 9.12 
111.27 -743.73 9.22 
111.45 -744.20 9.30 
95.16 -732.49 6.67 
102.55 -734.81 7.00 
103.96 -735.59 7.12 
104.43 -735.85 7.16 
105.61 -736.71 7.29 
105.32 -736.61 7.28 
107.69 -738.27 7.54 
108.08 -738.75 7.62 
110.22 -742.82 8.28 
110.43 -743.52 8.39 
110.60 -743.89 8.45 
111.49 -746.75 8.91 
111.15 -746.85 8.92 
110.74 -747.01 8.94 
111.29 -747.35 8.82 
110.98 -747.20 8.80 
110.29 -747.22 8.98 
103.08 -734.96 7.78 
103.58 -735.23 7.82 
104.31 -735.69 7.90 
96.29 -732.77 7.49 
95.93 -732.68 7.49 
95.62 -732.62 7.48 
95.24 -732.56 7.48 
94.95 -732.43 7.46 
94.57 -732.39 7.46 
93.99 -732.32 7.46 
93.69 -732.34 7.47 
93.08 -732.14 7.45 
92.65 -732.12 7.45 
92.22 -732.11 7.46 
91.89 -731.98 7.45 
91.59 -732.01 7.46 
99.20 -733.43 7.56 
98.85 -733.42 7.56 
97.92 -733.17 7.53 
97.61 -733.07 7.52 
97.29 -733.00 7.52 
96.58 -732.89 7.51 
96.20 -732.80 7.50 
100.02 -733.81 7.61 
99.62 -733.87 7.63 
99.17 -733.88 7.64 
98.28 -733.47 7.58 
98.06 -733.38 7.57 
96.60 -733.32 7.58 
101.61 -734.49 7.71 
101.35 -734.36 7.69 
101.00 -734.18 7.66 
100.52 -734.07 7.65 
102.79 -734.90 7.77 
102.42 -734.94 7.78 
102.20 -734.74 7.75 
101.92 -734.63 7.73 
101.16 -734.71 7.76 
99.89 -734.48 7.73 
103.75 -735.47 7.86 
103.31 -735.35 7.84 
103.12 -735.34 7.84 
104.44 -735.95 7.94 
105.30 -736.27 7.99 
104.84 -736.17 7.98 
104.43 -736.07 7.96 
103.70 -736.08 7.97 
105.55 -736.70 8.07 
104.83 -736.52 8.04 
106.69 -737.33 8.17 
106.44 -737.18 8.15 
106.15 -737.11 8.14 
107.20 -737.58 8.21 
106.90 -737.55 8.21 
107.47 -738.04 8.30 
107.89 -738.53 8.38 
108.21 -738.86 8.44 
108.27 -739.48 8.55 
109.71 -740.71 8.78 
109.97 -741.06 8.84 
110.30 -741.61 8.94 
110.10 -741.41 8.90 
110.28 -741.78 8.97 
110.47 -742.18 9.04 
110.57 -742.86 9.17 
110.83 -743.12 9.22 
111.00 -743.55 9.30 
111.31 -744.70 9.51 
111.50 -745.23 9.61 
111.65 -745.89 9.73 
111.82 -746.41 9.82 
98.82 -729.79 9.79 
98.57 -729.73 9.80 
94.93 -732.57 6.79 
95.60 -732.75 6.81 
95.29 -732.64 6.80 
107.38 -738.61 7.70 
108.89 -740.04 7.93 
109.25 -740.65 8.03 
109.35 -741.23 8.12 
109.55 -741.51 8.17 
109.62 -742.10 8.27 
111.12 -744.22 8.44 
110.83 -744.21 8.43 
111.43 -746.36 8.78 
111.05 -747.02 9.06 
101.85 -734.69 7.84 
101.39 -734.52 7.81 
103.73 -735.39 7.94 
103.45 -735.32 7.93 
103.02 -735.20 7.92 
102.56 -735.16 7.91 
102.20 -734.94 7.88 
104.41 -735.80 8.01 
104.17 -735.75 8.00 
103.88 -735.59 7.98 
105.17 -736.31 8.10 
104.90 -736.14 8.07 
104.53 -736.07 8.06 
105.59 -736.68 8.16 
105.29 -736.65 8.16 
106.60 -737.25 8.26 
106.31 -737.14 8.24 
105.97 -736.93 8.20 
105.80 -736.85 8.19 
91.70 -732.06 7.56 
97.62 -733.17 7.63 
96.62 -733.00 7.62 
96.25 -732.94 7.62 
96.01 -732.80 7.60 
95.68 -732.73 7.59 
95.33 -732.68 7.59 
94.81 -732.57 7.58 
94.28 -732.49 7.58 
94.06 -732.47 7.58 
93.55 -732.39 7.57 
93.21 -732.31 7.57 
92.82 -732.27 7.57 
92.33 -732.28 7.58 
91.92 -732.20 7.58 
99.06 -733.60 7.68 
98.76 -733.56 7.68 
97.94 -733.47 7.68 
97.17 -733.26 7.65 
96.71 -733.37 7.68 
96.45 -733.12 7.64 
100.66 -734.15 7.76 
100.16 -734.12 7.76 
99.86 -734.04 7.75 
99.56 -733.97 7.74 
99.07 -733.92 7.74 
96.52 -733.52 7.71 
101.47 -734.73 7.85 
100.92 -734.49 7.81 
99.00 -734.18 7.79 
101.12 -734.77 7.86 
107.06 -737.63 8.32 
106.72 -737.57 8.31 
106.49 -737.37 8.28 
107.44 -738.13 8.41 
107.24 -737.86 8.36 
107.84 -738.58 8.49 
108.03 -738.98 8.57 
107.85 -738.68 8.51 
108.78 -739.45 8.65 
108.51 -739.29 8.62 
108.28 -739.08 8.58 
108.97 -739.85 8.72 
108.45 -739.57 8.67 
108.09 -739.67 8.69 
109.19 -740.03 8.76 
109.58 -740.77 8.89 
109.36 -740.49 8.84 
109.74 -741.29 8.99 
110.14 -741.92 9.10 
109.95 -741.62 9.05 
110.33 -742.36 9.19 
110.46 -743.02 9.31 
110.66 -743.46 9.39 
110.90 -743.76 9.45 
111.06 -744.37 9.56 
111.27 -744.61 9.60 
111.46 -745.16 9.71 
111.23 -744.95 9.67 
98.74 -729.77 7.95 
111.40 -746.85 10.02 
110.97 -747.17 10.07 
98.64 -729.95 7.99 
110.86 -744.75 8.16 
111.18 -745.96 8.34 
111.25 -746.78 8.47 
111.47 -747.14 8.52 
103.17 -735.32 7.46 
103.39 -735.48 7.48 
104.67 -736.17 7.59 
104.19 -735.88 7.55 
95.01 -732.72 7.32 
94.46 -732.64 7.31 
93.72 -732.48 7.29 
92.42 -732.24 7.27 
91.77 -732.20 7.27 
98.31 -733.47 7.40 
97.61 -733.39 7.40 
97.34 -733.27 7.38 
95.98 -732.97 7.35 
95.58 -732.96 7.35 
95.27 -732.89 7.34 
98.51 -733.61 7.42 
96.48 -733.70 7.46 
97.36 -734.05 7.51 
99.97 -734.61 7.57 
102.22 -735.83 7.76 
103.41 -737.69 8.06 
106.71 -738.94 8.25 
111.41 -744.96 9.10 
111.63 -745.22 9.14 
111.07 -744.97 9.10 
111.76 -746.34 9.33 
111.95 -746.80 9.42 
104.89 -736.08 8.54 
105.09 -736.39 8.59 
105.14 -736.93 8.69 
98.22 -730.14 7.79 
98.03 -729.96 7.76 
94.66 -732.80 8.12 
94.73 -733.20 8.19 
102.51 -735.84 8.52 
105.26 -737.28 8.76 
103.96 -737.43 8.81 
107.91 -738.49 8.97 
108.03 -739.00 9.06 
107.33 -739.08 9.08 
107.14 -738.87 9.05 
106.69 -739.23 9.12 
108.74 -740.55 9.36 
98.46 -729.97 9.63 
98.66 -730.14 9.66 
97.02 -733.54 6.93 
104.84 -736.26 7.57 
106.13 -736.99 7.50 
105.89 -736.81 7.47 
108.80 -739.60 7.95 
108.82 -740.57 8.11 
108.50 -740.72 8.14 
110.44 -741.61 8.30 
110.65 -742.06 8.38 
110.84 -742.37 8.43 
111.06 -742.97 8.53 
111.25 -743.54 8.63 
111.49 -743.93 8.69 
96.61 -733.04 7.08 
98.93 -733.70 7.17 
97.57 -733.46 7.14 
97.08 -733.16 7.10 
100.61 -734.16 7.24 
100.26 -734.18 7.24 
99.78 -734.10 7.23 
99.28 -734.02 7.22 
101.84 -734.85 7.35 
101.51 -734.83 7.35 
100.71 -734.51 7.30 
103.05 -735.47 7.45 
102.76 -735.44 7.44 
102.41 -735.23 7.41 
101.04 -735.01 7.37 
103.49 -735.82 7.50 
103.27 -735.63 7.47 
105.10 -736.95 7.69 
105.23 -737.21 7.73 
103.69 -737.71 7.81 
105.45 -738.63 7.96 
107.11 -738.99 8.02 
97.99 -733.48 7.90 
100.25 -734.16 7.99 
99.17 -733.76 7.93 
98.44 -733.76 7.94 
98.22 -733.62 7.92 
102.44 -734.83 8.09 
101.47 -734.76 8.09 
100.75 -734.66 8.07 
99.79 -734.37 8.04 
99.23 -734.19 8.01 
102.50 -735.30 8.18 
102.04 -734.99 8.12 
100.88 -734.77 8.09 
104.11 -735.84 8.26 
103.79 -735.85 8.27 
103.44 -735.63 8.23 
102.72 -735.40 8.19 
105.37 -736.36 8.35 
105.15 -736.27 8.34 
102.80 -735.95 8.29 
105.70 -736.99 8.47 
105.54 -736.76 8.42 
105.66 -737.20 8.51 
108.25 -738.42 8.73 
93.62 -730.39 7.68 
96.49 -733.11 7.86 
96.06 -733.21 7.88 
95.77 -733.06 7.86 
95.42 -733.04 7.86 
95.09 -732.98 7.86 
94.54 -732.77 7.83 
94.19 -732.74 7.83 
93.84 -732.69 7.83 
93.42 -732.67 7.83 
93.10 -732.59 7.83 
92.57 -732.56 7.83 
91.85 -732.46 7.83 
97.85 -733.60 7.92 
97.38 -733.86 7.98 
96.64 -733.40 7.91 
99.31 -734.50 8.06 
96.98 -733.94 8.00 
95.54 -735.45 8.29 
104.14 -737.78 8.62 
109.15 -739.23 8.88 
107.68 -739.06 8.85 
107.49 -738.89 8.82 
105.96 -738.67 8.78 
107.03 -739.30 8.90 
106.76 -739.17 8.87 
109.10 -740.60 9.14 
98.60 -729.85 8.14 
98.92 -730.01 8.16 
98.96 -730.49 8.26 
111.35 -747.50 10.46 
111.27 -747.63 10.48 
106.62 -739.18 7.16 
100.77 -734.57 7.36 
100.21 -734.27 7.11 
100.96 -734.77 7.39 
100.35 -734.61 7.17 
105.07 -736.32 7.47 
104.85 -736.13 7.44 
104.45 -736.00 7.42 
105.79 -736.80 7.56 
105.55 -736.63 7.53 
105.30 -736.48 7.50 
106.22 -737.10 7.61 
106.02 -736.96 7.59 
103.77 -736.55 7.50 
107.92 -738.40 7.84 
107.63 -738.22 7.81 
109.20 -740.13 8.14 
108.34 -740.07 8.13 
109.69 -740.73 8.25 
109.95 -740.92 8.29 
110.60 -742.22 8.51 
110.81 -742.50 8.56 
111.03 -742.89 8.63 
110.77 -742.85 8.62 
111.26 -743.68 8.77 
98.84 -733.75 7.23 
97.80 -733.50 7.19 
97.03 -733.49 7.19 
95.26 -732.92 7.10 
93.67 -732.57 7.05 
99.77 -734.11 7.28 
99.47 -734.06 7.28 
100.27 -734.62 7.37 
99.82 -734.54 7.35 
98.95 -734.32 7.32 
101.72 -735.62 7.53 
101.29 -735.77 7.55 
102.39 -736.21 7.63 
102.08 -736.18 7.62 
103.70 -737.86 7.90 
111.48 -744.23 8.86 
99.11 -733.93 8.01 
98.28 -733.76 7.99 
97.91 -733.60 7.97 
100.55 -734.95 8.19 
102.93 -736.06 8.38 
105.47 -736.92 8.54 
102.53 -736.37 8.44 
105.53 -737.30 8.61 
108.37 -738.50 8.84 
97.86 -729.87 7.50 
97.95 -730.18 7.55 
93.91 -730.52 7.70 
96.39 -733.24 7.92 
96.66 -733.35 7.94 
96.01 -733.32 7.94 
95.61 -733.17 7.92 
95.08 -733.17 7.93 
94.85 -732.99 7.90 
94.47 -733.02 7.91 
94.05 -732.89 7.89 
93.65 -732.84 7.89 
93.15 -732.81 7.89 
92.83 -732.72 7.88 
92.45 -732.70 7.88 
92.12 -732.65 7.88 
91.73 -732.60 7.88 
95.67 -734.89 8.23 
104.40 -737.83 8.71 
104.07 -737.85 8.72 
107.34 -739.06 8.94 
107.56 -739.16 8.96 
107.22 -739.26 7.16 
109.46 -741.24 7.48 
108.88 -741.64 7.52 
108.62 -741.44 7.49 
110.45 -743.64 7.83 
111.00 -743.98 7.89 
102.21 -734.96 7.31 
100.46 -734.56 7.33 
100.24 -734.28 7.20 
99.29 -734.14 7.08 
104.68 -736.14 7.52 
104.30 -736.05 7.58 
104.06 -735.88 7.39 
99.75 -734.47 7.14 
99.47 -734.44 7.13 
99.18 -734.43 7.13 
96.68 -733.66 7.00 
105.44 -736.60 7.52 
103.38 -736.08 7.42 
100.58 -735.46 7.30 
100.35 -735.27 7.27 
106.44 -737.33 7.75 
106.09 -737.28 7.63 
101.33 -735.84 7.37 
100.75 -735.67 7.34 
107.96 -738.44 7.84 
107.05 -737.81 7.88 
106.78 -737.86 7.89 
101.40 -736.39 7.46 
107.69 -738.47 7.84 
101.88 -736.72 7.51 
107.27 -738.77 7.89 
106.68 -738.73 7.88 
106.45 -738.61 7.86 
106.12 -738.56 7.84 
98.08 -733.64 7.19 
97.56 -733.41 7.15 
95.31 -733.02 7.09 
108.34 -739.29 8.14 
108.67 -739.65 8.20 
109.19 -740.38 8.32 
108.97 -740.12 8.28 
109.39 -740.72 8.38 
109.57 -741.16 8.45 
109.98 -741.67 8.54 
109.76 -741.53 8.52 
111.91 -747.06 9.45 
111.62 -747.09 9.45 
110.94 -747.03 9.43 
111.08 -747.73 9.55 
101.69 -734.88 8.17 
101.34 -734.66 8.13 
100.57 -734.54 8.11 
100.10 -734.32 8.07 
99.29 -734.05 8.03 
99.09 -734.08 8.04 
98.14 -733.81 8.00 
105.04 -736.25 8.41 
104.48 -736.05 8.37 
104.05 -735.73 8.32 
103.61 -735.70 8.31 
103.21 -735.58 8.29 
102.80 -735.40 8.26 
102.47 -735.17 8.22 
102.05 -735.04 8.19 
100.82 -734.78 8.15 
100.31 -734.53 8.11 
99.74 -734.36 8.08 
98.90 -734.09 8.04 
98.63 -734.08 8.04 
97.73 -733.94 8.02 
97.49 -733.80 8.00 
97.26 -733.63 7.97 
106.01 -736.90 8.53 
105.79 -736.68 8.49 
105.40 -736.52 8.46 
104.72 -736.23 8.41 
100.39 -735.01 8.20 
107.01 -737.54 8.65 
106.81 -737.41 8.63 
106.46 -737.34 8.62 
106.19 -737.12 8.57 
107.44 -737.91 8.72 
96.72 -733.42 7.94 
96.90 -733.66 7.98 
96.39 -733.40 7.94 
95.91 -733.31 7.93 
95.49 -733.22 7.92 
95.19 -733.15 7.91 
94.76 -733.14 8.01 
94.38 -733.04 7.90 
93.87 -732.98 7.90 
93.55 -732.94 7.89 
93.15 -732.94 7.90 
92.68 -732.87 7.90 
92.18 -732.80 7.89 
91.85 -732.74 7.89 
107.69 -738.06 8.75 
107.46 -737.99 8.74 
107.18 -737.94 8.73 
98.54 -729.76 8.15 
98.32 -730.18 8.24 
93.78 -730.09 8.35 
94.74 -731.03 8.51 
93.92 -730.81 8.49 
92.91 -730.50 8.46 
93.25 -730.69 8.48 
106.34 -736.12 7.32 
106.00 -735.80 7.26 
105.65 -735.60 7.22 
105.24 -735.59 7.21 
104.86 -735.30 7.15 
104.40 -735.04 7.10 
104.17 -734.93 7.08 
103.41 -734.63 7.01 
110.40 -739.08 7.89 
110.16 -738.85 7.85 
104.56 -735.38 7.16 
104.06 -735.04 7.09 
103.72 -734.89 7.06 
103.13 -734.59 7.00 
102.55 -734.55 6.98 
111.24 -740.11 8.08 
111.13 -739.85 8.03 
110.40 -739.28 7.92 
104.83 -736.22 7.30 
102.74 -734.77 7.02 
111.35 -740.47 8.13 
111.66 -741.10 8.24 
110.74 -740.58 8.14 
109.94 -740.01 8.03 
96.40 -733.50 7.50 
94.23 -732.69 7.33 
94.60 -733.61 7.50 
92.29 -732.42 7.26 
91.89 -732.47 7.27 
96.48 -733.17 7.59 
96.18 -733.11 7.58 
95.53 -733.06 7.56 
95.30 -732.87 7.53 
94.62 -732.83 7.52 
94.37 -732.69 7.49 
95.41 -733.72 7.68 
94.63 -733.29 7.60 
93.77 -732.76 7.50 
93.29 -732.65 7.47 
92.90 -732.68 7.48 
92.64 -732.54 7.45 
92.23 -732.56 7.45 
91.82 -732.57 7.45 
93.33 -730.58 8.08 
97.06 -733.29 8.48 
96.36 -733.37 8.49 
96.31 -733.34 8.49 
94.91 -732.52 8.33 
95.37 -733.23 8.47 
94.57 -732.54 8.33 
94.29 -732.41 8.31 
93.92 -732.44 8.31 
94.96 -733.27 8.48 
94.76 -733.12 8.45 
93.45 -732.38 8.30 
92.97 -732.32 8.29 
92.60 -732.32 8.29 
92.23 -732.31 8.29 
91.87 -732.28 8.29 
91.58 -732.16 8.27 
99.40 -730.23 8.87 
95.75 -730.48 8.90 
94.94 -730.14 8.84 
95.99 -730.86 8.99 
95.61 -730.95 9.01 
95.15 -730.35 8.89 
94.57 -730.20 8.86 
94.15 -730.33 8.90 
104.18 -734.87 6.63 
104.52 -735.63 6.75 
103.47 -734.38 6.54 
102.89 -734.20 6.49 
102.96 -734.11 7.43 
105.18 -736.87 7.94 
103.43 -735.31 7.64 
103.13 -734.48 7.49 
104.92 -737.11 7.98 
103.76 -735.95 7.75 
103.56 -735.80 7.72 
101.62 -733.74 7.33 
100.87 -734.04 7.36 
100.18 -733.38 7.23 
99.03 -733.23 7.18 
98.78 -732.93 7.12 
96.32 -732.33 6.96 
96.04 -732.23 6.93 
95.54 -732.25 6.92 
95.11 -732.11 6.89 
94.78 -732.10 6.88 
94.46 -732.06 6.86 
94.13 -732.05 6.86 
93.83 -731.96 6.83 
94.05 -730.60 7.58 
98.44 -730.21 9.40 
93.69 -730.07 7.49 
96.01 -731.92 7.15 
97.00 -730.74 7.50 
92.65 -730.08 8.65 
