# .PCD v0.7 - Point Cloud Data file format
VERSION 0.7
FIELDS x y z
SIZE 4 4 4
TYPE F F F
COUNT 1 1 1
WIDTH 2276
HEIGHT 1
VIEWPOINT 0 0 0 1 0 0 0
POINTS 2276
DATA ascii
107.43 -533.16 3.05 
107.64 -532.77 2.43 
103.98 -532.46 2.23 
107.59 -532.84 3.50 
103.97 -532.52 1.98 
100.37 -531.11 2.17 
100.37 -531.07 2.57 
100.24 -531.23 1.94 
103.96 -532.43 2.43 
100.34 -531.08 2.32 
103.94 -532.41 2.74 
97.79 -535.52 1.85 
98.09 -536.41 1.93 
96.01 -533.58 1.62 
104.05 -532.33 1.88 
104.31 -545.71 2.74 
110.69 -539.27 2.65 
104.04 -532.44 1.88 
110.46 -539.22 3.09 
110.33 -539.16 3.31 
97.93 -534.95 1.55 
97.93 -535.43 1.58 
99.24 -537.55 1.80 
98.27 -536.45 1.67 
110.75 -539.19 2.52 
110.93 -539.30 2.78 
110.34 -539.06 3.47 
99.08 -538.61 1.98 
97.46 -537.83 1.84 
111.01 -538.98 2.60 
110.55 -538.87 2.57 
110.76 -538.94 2.84 
104.10 -532.06 2.08 
110.68 -538.90 3.34 
110.76 -538.88 2.61 
110.74 -538.89 2.88 
110.66 -538.88 3.14 
111.02 -538.94 3.42 
110.56 -538.87 3.40 
104.24 -532.04 2.67 
110.37 -537.91 1.96 
110.35 -537.91 2.24 
110.46 -537.91 2.52 
110.76 -537.93 2.82 
110.09 -537.90 2.78 
102.99 -532.01 2.39 
110.64 -537.90 2.35 
110.65 -537.92 2.65 
103.11 -532.03 2.50 
110.37 -538.12 2.46 
110.67 -538.14 2.79 
103.02 -531.95 2.34 
110.64 -537.93 2.58 
110.46 -537.92 2.89 
103.19 -532.00 3.24 
110.94 -537.94 2.66 
110.38 -537.94 2.96 
103.09 -532.09 3.35 
110.65 -538.00 2.75 
110.67 -538.03 3.09 
103.38 -532.09 3.96 
110.45 -538.07 2.82 
107.02 -532.75 3.09 
103.31 -532.24 3.76 
92.50 -541.66 2.01 
99.71 -542.97 2.40 
111.45 -536.76 3.17 
106.58 -532.17 3.24 
99.42 -533.71 3.00 
102.84 -532.71 3.73 
97.64 -541.45 2.28 
100.11 -542.83 2.45 
99.19 -533.92 2.23 
111.20 -536.92 2.85 
99.17 -533.76 2.46 
111.47 -536.86 3.23 
111.10 -536.92 3.22 
106.66 -532.26 3.13 
102.94 -532.71 3.79 
92.17 -544.29 2.35 
106.68 -531.76 2.34 
99.21 -533.73 2.14 
106.71 -532.28 2.59 
111.18 -536.97 3.37 
106.71 -532.14 3.05 
106.72 -532.15 3.28 
106.77 -532.24 2.38 
106.80 -532.12 3.11 
103.12 -532.76 3.82 
97.36 -541.11 2.53 
106.91 -532.31 3.22 
106.88 -532.50 3.50 
96.36 -541.11 2.58 
103.19 -532.62 2.66 
103.20 -532.60 2.89 
103.28 -532.62 3.13 
107.04 -532.13 3.32 
107.06 -532.35 3.62 
107.09 -532.01 2.54 
103.33 -532.65 2.51 
103.32 -532.64 2.75 
99.52 -533.70 2.68 
107.11 -532.31 3.15 
111.41 -537.21 3.68 
107.11 -532.08 3.44 
107.09 -532.17 3.75 
103.26 -532.65 3.49 
107.12 -532.24 2.51 
93.73 -541.41 2.61 
99.51 -533.21 2.44 
111.65 -537.23 3.21 
107.10 -532.11 2.83 
99.51 -533.41 2.67 
103.35 -532.68 3.02 
107.16 -532.58 3.18 
99.58 -533.73 2.93 
103.36 -532.69 3.28 
107.16 -532.22 3.48 
92.95 -541.56 2.64 
99.65 -532.54 2.45 
99.63 -533.44 2.48 
111.81 -537.17 3.25 
99.61 -532.48 2.67 
107.28 -532.41 2.88 
103.43 -532.70 2.79 
99.63 -533.29 2.71 
99.58 -532.51 2.89 
107.28 -532.47 3.23 
103.45 -532.68 3.07 
103.50 -532.69 2.57 
99.75 -532.50 2.52 
99.72 -533.42 2.55 
99.74 -532.50 2.75 
107.34 -532.21 2.95 
103.50 -532.68 2.87 
99.72 -533.41 2.80 
107.35 -532.27 3.33 
103.54 -532.67 3.18 
107.28 -532.88 3.36 
99.74 -533.55 3.07 
107.34 -532.38 3.71 
103.59 -532.71 2.59 
99.90 -532.56 2.55 
99.83 -532.49 2.80 
103.60 -532.71 2.91 
99.83 -533.39 2.85 
99.94 -532.56 3.07 
103.64 -532.70 3.24 
99.84 -533.25 3.11 
107.49 -532.76 3.42 
107.50 -532.48 3.80 
99.98 -532.55 2.61 
99.94 -533.45 2.64 
99.96 -532.52 2.88 
103.66 -532.72 2.98 
99.96 -533.36 2.93 
103.76 -532.64 3.33 
107.51 -532.86 3.52 
100.02 -532.50 2.66 
100.05 -533.45 2.69 
107.64 -532.13 3.12 
99.99 -532.47 2.95 
103.78 -532.71 3.06 
103.84 -532.68 3.43 
107.72 -532.57 3.60 
100.11 -532.64 2.60 
107.67 -532.27 3.07 
103.84 -532.72 3.01 
100.09 -532.72 2.93 
103.82 -532.77 3.42 
107.63 -532.84 3.59 
107.78 -532.48 3.11 
103.91 -532.79 3.04 
100.15 -532.71 2.96 
100.16 -533.25 2.99 
107.77 -532.57 3.62 
107.90 -532.42 3.12 
104.02 -532.79 3.06 
100.23 -532.94 2.99 
107.86 -532.17 3.64 
108.11 -532.68 3.77 
108.17 -532.74 3.15 
108.40 -532.86 3.18 
108.43 -533.06 3.13 
104.60 -551.43 -2.07 
104.66 -551.30 -1.90 
109.52 -542.72 -1.54 
104.52 -551.64 -1.63 
104.63 -551.10 -1.68 
109.51 -542.27 -0.30 
109.25 -542.36 -0.30 
109.34 -541.92 -0.29 
108.96 -541.93 -0.30 
109.29 -541.94 -1.10 
109.08 -541.71 -0.11 
104.25 -551.97 -1.06 
109.28 -542.37 -0.90 
109.21 -542.17 0.06 
103.86 -554.30 -0.65 
103.92 -553.77 -0.70 
103.96 -553.16 -0.77 
103.98 -552.45 -0.84 
103.97 -552.27 -0.86 
104.05 -551.80 -0.91 
104.92 -549.73 -0.63 
109.30 -542.05 -1.12 
101.56 -536.72 -0.80 
105.20 -536.18 -0.34 
101.52 -536.54 0.22 
101.44 -536.29 1.24 
103.42 -553.64 -0.52 
103.55 -552.02 -0.68 
109.52 -541.74 -0.78 
109.18 -541.76 -0.79 
101.53 -536.51 -0.65 
105.26 -536.10 -0.19 
101.54 -536.36 0.34 
101.47 -536.13 1.33 
101.40 -535.85 2.33 
104.98 -549.73 -0.64 
103.54 -551.85 -0.47 
103.23 -554.48 -0.20 
103.26 -554.02 -0.25 
103.29 -553.54 -0.30 
103.33 -553.11 -0.34 
103.34 -552.46 -0.41 
103.44 -552.13 -0.44 
109.36 -541.71 -0.75 
109.51 -541.80 -0.41 
109.62 -541.76 0.47 
109.34 -541.75 0.46 
101.64 -536.33 -0.48 
105.47 -536.35 0.01 
101.60 -536.14 0.48 
101.48 -536.36 0.93 
101.51 -535.66 2.40 
105.25 -552.92 -0.96 
105.46 -552.57 -1.00 
104.87 -553.67 -0.88 
105.00 -553.37 -0.92 
105.16 -553.12 -0.94 
104.59 -554.18 -0.83 
104.69 -553.97 -0.86 
104.37 -554.38 -0.82 
109.39 -542.50 -1.08 
103.19 -553.55 -0.18 
103.21 -553.06 -0.23 
103.23 -552.59 -0.28 
103.28 -552.18 -0.32 
103.12 -554.11 -0.12 
109.58 -541.79 -0.63 
104.82 -549.13 0.12 
101.74 -536.36 -0.39 
101.52 -536.42 -0.39 
101.70 -536.20 0.54 
101.45 -536.16 0.53 
101.65 -536.01 1.47 
105.43 -553.11 -0.72 
105.04 -553.86 -0.65 
105.20 -553.51 -0.69 
104.64 -554.69 -0.57 
104.81 -554.31 -0.60 
104.92 -554.11 -0.62 
103.28 -552.30 -0.38 
103.31 -552.00 -0.41 
103.18 -554.34 -0.17 
103.21 -553.95 -0.21 
103.23 -553.52 -0.25 
103.25 -553.07 -0.30 
103.28 -552.63 -0.35 
104.49 -544.64 -0.88 
104.01 -549.93 -0.35 
103.84 -550.51 -0.30 
103.94 -550.28 -0.32 
103.47 -553.23 -0.03 
103.60 -552.17 -0.14 
103.22 -554.48 0.09 
103.29 -554.16 0.06 
104.88 -549.17 0.54 
101.55 -536.18 -0.88 
109.13 -541.21 0.60 
101.67 -536.30 -0.29 
105.30 -535.87 0.17 
101.71 -536.03 0.60 
101.46 -535.86 1.04 
101.78 -535.86 1.50 
105.38 -551.55 -0.67 
105.06 -552.13 -0.61 
105.23 -551.82 -0.65 
104.69 -552.88 -0.54 
104.84 -552.58 -0.57 
104.28 -554.42 -0.37 
104.34 -554.15 -0.40 
104.34 -553.84 -0.44 
104.44 -553.32 -0.50 
104.56 -553.06 -0.52 
103.32 -550.89 -0.31 
103.14 -554.60 0.07 
103.15 -554.13 0.02 
103.18 -553.72 -0.02 
103.20 -553.29 -0.06 
103.23 -552.98 -0.09 
103.24 -552.57 -0.14 
103.26 -552.09 -0.19 
103.30 -551.71 -0.22 
103.30 -551.34 -0.26 
110.17 -543.56 -0.55 
109.93 -543.15 -0.60 
109.71 -543.18 -0.61 
107.28 -543.52 -0.67 
106.47 -544.17 -0.63 
106.01 -544.16 -0.65 
105.67 -544.16 -0.66 
105.33 -544.12 -0.68 
104.88 -544.09 -0.70 
104.43 -544.10 -0.72 
103.94 -544.39 -0.70 
103.75 -550.39 -0.10 
103.82 -550.06 -0.13 
103.92 -549.86 -0.15 
103.08 -554.60 0.31 
103.12 -554.14 0.26 
103.03 -554.44 0.29 
104.89 -549.16 0.13 
104.99 -549.01 0.68 
104.73 -548.73 1.03 
109.40 -541.15 0.75 
109.09 -541.17 0.74 
101.80 -536.10 -0.14 
105.33 -535.74 0.32 
101.77 -535.97 0.72 
101.40 -535.82 1.16 
101.71 -535.76 1.58 
104.39 -553.01 -0.28 
104.41 -552.75 -0.31 
104.44 -552.37 -0.35 
104.46 -551.97 -0.40 
104.51 -550.76 -0.55 
104.55 -550.52 -0.57 
104.57 -550.00 -0.64 
104.31 -554.30 -0.12 
104.33 -553.95 -0.16 
104.33 -553.69 -0.20 
104.38 -553.26 -0.25 
103.22 -553.58 0.20 
103.17 -554.46 0.29 
103.18 -553.96 0.23 
109.50 -541.73 -0.52 
109.24 -542.02 -0.50 
106.84 -543.08 -0.48 
106.50 -543.37 -0.47 
106.11 -543.56 -0.46 
105.61 -543.68 -0.47 
105.72 -543.60 -0.47 
105.26 -543.61 -0.49 
104.99 -549.01 0.18 
104.85 -543.33 -0.53 
104.48 -543.18 -0.56 
103.83 -549.45 0.04 
103.78 -549.27 0.02 
103.81 -548.89 -0.01 
103.46 -542.97 -0.62 
103.53 -550.68 0.16 
103.54 -550.38 0.13 
103.73 -549.66 0.06 
103.18 -553.17 0.40 
103.22 -552.50 0.33 
103.26 -551.96 0.28 
103.29 -551.40 0.22 
103.37 -551.16 0.20 
103.43 -550.86 0.17 
103.12 -553.90 0.47 
103.14 -553.53 0.43 
104.89 -548.74 0.61 
104.99 -548.93 0.84 
101.80 -536.18 -0.78 
104.87 -548.68 1.20 
109.76 -541.05 0.94 
109.40 -541.09 0.93 
109.12 -541.06 0.92 
101.81 -536.04 0.05 
101.76 -535.86 0.88 
101.71 -535.71 1.71 
101.86 -535.45 2.55 
106.02 -552.81 0.08 
105.59 -552.91 0.08 
105.37 -552.97 0.08 
104.79 -553.09 0.06 
104.53 -550.34 -0.46 
104.58 -549.85 -0.51 
104.31 -554.42 0.20 
104.40 -553.41 0.09 
104.35 -553.09 -0.05 
104.23 -552.65 -0.20 
104.25 -552.25 -0.24 
104.29 -551.82 -0.29 
104.09 -554.67 0.04 
104.11 -554.24 -0.01 
104.14 -553.85 -0.06 
104.18 -553.39 -0.11 
95.05 -545.85 -0.73 
94.48 -545.82 -0.75 
105.08 -549.05 0.41 
103.73 -549.04 0.11 
103.31 -551.48 0.34 
103.35 -551.18 0.31 
103.34 -550.72 0.26 
103.41 -550.27 0.22 
103.45 -549.73 0.17 
103.54 -549.46 0.15 
105.86 -535.88 -0.55 
104.88 -548.68 0.69 
101.97 -536.07 -0.65 
105.03 -548.86 0.89 
101.72 -535.82 -0.36 
104.87 -548.63 1.25 
101.93 -535.93 0.14 
109.59 -540.98 1.00 
109.37 -540.98 0.99 
105.60 -535.58 0.60 
101.88 -535.78 0.94 
101.64 -535.58 1.39 
101.87 -535.59 1.75 
101.59 -535.38 2.26 
106.38 -545.91 -0.66 
106.09 -546.04 -0.66 
105.72 -546.15 -0.66 
105.07 -551.67 0.15 
104.44 -551.96 0.16 
104.39 -551.68 0.03 
104.28 -551.38 -0.10 
104.30 -550.97 -0.15 
104.33 -550.42 -0.21 
104.36 -550.19 -0.24 
104.38 -549.81 -0.28 
104.07 -554.08 0.21 
104.09 -553.84 0.18 
104.13 -553.39 0.13 
104.17 -552.93 0.08 
104.18 -552.60 0.04 
104.21 -552.09 -0.02 
104.25 -551.81 -0.05 
104.02 -554.56 0.31 
104.03 -554.24 0.32 
105.05 -548.88 0.11 
95.24 -545.73 -0.51 
105.04 -548.82 0.57 
103.36 -549.81 0.39 
105.00 -548.72 1.03 
101.98 -535.92 -0.48 
109.99 -541.13 0.75 
104.91 -548.51 1.40 
101.66 -535.77 -0.18 
109.51 -540.94 1.14 
109.31 -540.92 1.13 
101.95 -535.80 0.29 
101.60 -535.53 1.51 
101.96 -535.48 1.84 
101.90 -535.30 2.62 
109.53 -542.47 -0.73 
109.72 -542.05 -0.77 
109.09 -541.92 -0.81 
109.17 -541.77 -0.83 
108.77 -542.45 -0.76 
108.96 -542.12 -0.79 
106.28 -545.85 -0.46 
106.47 -545.67 -0.48 
105.93 -545.96 -0.47 
105.91 -550.30 0.23 
105.55 -546.07 -0.47 
105.40 -550.32 0.21 
105.08 -546.07 -0.49 
105.21 -550.36 0.20 
104.83 -546.52 -0.45 
104.88 -546.08 -0.50 
104.56 -550.97 0.25 
104.23 -552.37 0.21 
104.33 -552.01 0.27 
104.37 -551.67 0.23 
104.40 -551.26 0.18 
104.35 -550.84 0.04 
104.37 -550.40 -0.01 
104.40 -550.08 -0.05 
104.41 -549.83 -0.08 
104.04 -554.52 0.46 
104.08 -554.07 0.40 
104.12 -553.71 0.36 
104.15 -553.31 0.32 
104.19 -552.90 0.27 
104.21 -552.64 0.24 
105.03 -548.81 0.28 
105.12 -548.72 0.71 
105.02 -548.76 0.71 
103.31 -548.32 0.42 
98.34 -537.50 -0.80 
98.04 -537.42 -0.82 
97.64 -537.39 -0.84 
94.17 -545.14 -0.20 
104.98 -548.47 1.00 
110.10 -541.05 0.87 
109.85 -541.06 0.87 
109.60 -541.06 0.86 
104.96 -548.42 1.51 
102.02 -535.74 0.41 
105.66 -535.37 0.87 
101.73 -535.40 1.60 
101.97 -535.43 1.90 
101.68 -535.26 2.42 
101.92 -535.27 2.65 
101.63 -535.06 3.24 
102.01 -534.96 3.42 
110.47 -541.89 -0.65 
110.08 -542.62 -0.58 
110.18 -542.26 -0.62 
110.31 -542.05 -0.63 
109.70 -543.07 -0.54 
109.87 -542.80 -0.56 
109.54 -543.57 -0.49 
107.20 -545.67 -0.33 
106.84 -545.91 -0.32 
106.35 -546.05 -0.32 
106.57 -545.99 -0.32 
106.07 -546.04 -0.34 
105.85 -546.05 -0.35 
105.91 -549.88 0.29 
105.66 -546.04 -0.36 
105.43 -549.93 0.27 
105.23 -546.01 -0.38 
105.12 -550.04 0.27 
104.88 -546.39 -0.35 
104.93 -546.03 -0.39 
104.59 -551.15 0.38 
104.61 -550.74 0.33 
104.63 -550.33 0.29 
104.35 -551.92 0.34 
104.40 -551.48 0.29 
104.36 -551.11 0.18 
104.39 -550.74 0.14 
104.41 -550.34 0.09 
104.45 -549.95 0.05 
104.08 -554.30 0.54 
104.11 -553.95 0.50 
104.16 -553.55 0.46 
104.19 -553.12 0.41 
104.23 -552.76 0.37 
104.26 -552.37 0.32 
104.24 -551.97 0.28 
105.07 -548.75 0.36 
103.24 -554.05 0.81 
103.26 -553.66 0.78 
103.30 -553.20 0.73 
103.33 -552.60 0.67 
103.35 -552.28 0.64 
103.21 -554.44 0.85 
105.33 -539.89 -0.23 
105.10 -540.13 -0.22 
104.80 -540.18 -0.22 
104.54 -540.03 -0.25 
105.06 -548.71 0.77 
105.09 -548.41 0.57 
103.62 -548.59 0.54 
103.62 -548.37 0.52 
103.59 -548.90 0.57 
102.94 -548.34 0.49 
102.60 -548.30 0.48 
94.17 -544.99 -0.11 
105.98 -535.74 -0.16 
105.14 -548.83 1.19 
105.09 -548.39 1.05 
102.10 -535.81 -0.27 
109.95 -541.04 0.89 
109.70 -541.03 0.88 
105.10 -548.43 1.54 
109.97 -540.81 1.29 
109.56 -540.80 1.28 
105.92 -535.31 0.90 
102.02 -535.41 1.88 
109.92 -542.04 -0.46 
110.03 -541.80 -0.49 
109.63 -542.59 -0.41 
109.79 -542.24 -0.44 
109.17 -542.61 -0.43 
109.37 -542.36 -0.45 
107.73 -544.75 -0.24 
107.39 -545.12 -0.21 
106.95 -545.50 -0.18 
107.12 -545.35 -0.19 
106.63 -545.76 -0.17 
106.19 -545.92 -0.17 
105.80 -545.94 -0.18 
105.45 -545.94 -0.20 
105.16 -548.98 0.23 
104.91 -546.49 -0.16 
105.02 -546.03 -0.20 
104.73 -549.71 0.39 
104.77 -549.30 0.35 
104.87 -549.02 0.23 
104.71 -548.71 0.09 
104.37 -550.92 0.33 
104.52 -550.54 0.39 
104.47 -550.11 0.27 
104.47 -549.72 0.20 
104.53 -549.35 0.16 
104.16 -553.39 0.60 
104.19 -553.01 0.56 
104.22 -552.60 0.52 
104.26 -552.19 0.47 
104.28 -551.77 0.42 
104.34 -551.32 0.38 
104.34 -551.11 0.35 
104.03 -554.62 0.74 
104.07 -554.20 0.69 
104.11 -553.76 0.64 
105.12 -548.64 0.49 
103.92 -554.26 0.88 
103.51 -550.07 0.58 
103.56 -549.14 0.49 
103.31 -553.21 0.87 
103.31 -552.96 0.85 
103.34 -552.53 0.81 
103.36 -552.14 0.77 
103.39 -551.83 0.74 
103.43 -551.38 0.70 
103.45 -550.90 0.66 
102.21 -535.74 -0.83 
103.20 -554.57 1.00 
103.23 -554.18 0.97 
103.25 -553.78 0.93 
103.28 -553.45 0.90 
102.05 -535.82 -0.83 
104.94 -539.74 -0.11 
105.11 -548.59 0.88 
104.54 -539.73 -0.12 
103.46 -548.18 0.64 
103.14 -548.17 0.63 
102.93 -548.16 0.62 
94.36 -544.84 0.02 
105.15 -548.74 1.27 
105.09 -548.32 1.16 
102.02 -535.72 -0.14 
110.15 -540.96 0.99 
109.85 -540.98 0.99 
105.12 -548.47 1.65 
105.13 -548.09 1.61 
110.21 -540.72 1.40 
110.02 -540.70 1.39 
106.00 -535.47 0.61 
105.98 -535.23 1.00 
102.08 -535.30 1.92 
109.67 -542.07 -0.23 
109.76 -541.75 -0.27 
108.84 -542.12 -0.26 
108.40 -542.82 -0.20 
108.60 -542.47 -0.23 
108.26 -547.19 0.48 
108.08 -543.23 -0.16 
108.25 -543.03 -0.18 
107.81 -547.25 0.47 
107.91 -543.30 -0.16 
107.50 -547.29 0.46 
107.34 -544.44 -0.06 
107.11 -547.34 0.45 
106.90 -544.86 -0.03 
107.07 -544.69 -0.04 
106.52 -545.24 0.00 
106.70 -545.06 -0.01 
106.14 -545.67 0.03 
106.31 -545.50 0.02 
106.03 -547.54 0.43 
105.89 -545.69 0.03 
105.44 -548.48 0.42 
105.53 -548.26 0.49 
105.71 -547.61 0.42 
105.45 -545.81 0.02 
105.15 -548.86 0.36 
105.35 -548.71 0.35 
104.90 -546.47 0.07 
104.92 -546.25 0.05 
105.03 -545.87 0.01 
104.87 -548.90 0.44 
104.87 -548.80 0.43 
104.80 -547.37 0.17 
104.31 -551.37 0.60 
104.34 -551.06 0.57 
104.38 -550.69 0.53 
104.41 -550.24 0.48 
104.44 -549.81 0.43 
104.47 -549.44 0.39 
104.50 -548.98 0.34 
104.52 -548.71 0.31 
104.56 -548.43 0.28 
104.04 -554.23 0.92 
104.07 -553.84 0.87 
104.12 -553.46 0.83 
104.16 -553.08 0.79 
104.18 -552.71 0.75 
104.23 -552.26 0.70 
104.25 -551.88 0.66 
104.26 -551.55 0.62 
104.02 -554.42 0.94 
104.00 -552.91 0.96 
103.74 -554.28 1.10 
103.87 -553.63 1.03 
103.48 -550.67 0.84 
103.50 -550.38 0.81 
103.53 -550.00 0.77 
103.58 -549.19 0.70 
103.60 -548.65 0.65 
103.22 -554.19 1.17 
103.24 -553.88 1.14 
103.27 -553.49 1.10 
103.30 -553.10 1.07 
103.33 -552.69 1.03 
103.36 -552.27 0.99 
103.39 -551.83 0.95 
103.41 -551.48 0.91 
103.45 -551.02 0.87 
103.20 -554.39 1.19 
110.23 -540.99 0.65 
110.08 -540.99 0.65 
109.80 -541.00 0.64 
105.15 -548.54 1.05 
105.20 -548.20 0.90 
103.52 -538.25 -0.09 
93.81 -544.61 0.19 
105.17 -548.22 1.36 
98.40 -535.90 -0.03 
110.36 -540.91 1.14 
110.20 -540.88 1.14 
110.07 -540.91 1.13 
109.91 -540.89 1.13 
106.06 -535.41 0.77 
105.11 -548.40 1.77 
105.15 -547.96 1.74 
109.95 -540.68 1.53 
102.19 -535.09 1.79 
110.30 -545.50 0.52 
109.91 -545.57 0.51 
109.66 -545.59 0.50 
109.09 -545.70 0.49 
108.76 -545.71 0.48 
108.63 -545.69 0.47 
108.40 -541.59 -0.18 
107.98 -545.65 0.44 
107.84 -542.79 -0.07 
107.57 -545.62 0.42 
107.38 -543.81 0.03 
107.50 -543.61 0.01 
107.64 -543.14 -0.03 
107.10 -545.65 0.41 
107.11 -543.90 0.03 
106.65 -544.33 0.06 
106.88 -544.08 0.04 
106.21 -545.85 0.39 
106.28 -544.72 0.09 
106.46 -544.52 0.07 
105.86 -545.93 0.39 
105.89 -545.19 0.12 
106.06 -544.95 0.10 
105.40 -548.62 0.48 
105.41 -548.46 0.47 
105.54 -546.01 0.38 
105.56 -545.54 0.15 
105.22 -548.75 0.49 
105.03 -546.61 0.43 
105.07 -546.34 0.40 
105.06 -545.94 0.26 
105.14 -545.66 0.14 
104.66 -548.33 0.60 
104.63 -547.15 0.28 
104.70 -546.76 0.24 
104.83 -546.42 0.21 
104.91 -546.09 0.18 
104.43 -553.63 0.89 
104.47 -553.37 0.86 
104.55 -552.66 0.77 
104.62 -552.45 0.75 
104.27 -551.43 0.74 
104.30 -551.21 0.72 
104.33 -550.87 0.68 
104.36 -550.43 0.64 
104.41 -549.93 0.58 
104.45 -549.59 0.55 
104.47 -549.21 0.51 
104.52 -548.78 0.46 
104.55 -548.39 0.42 
104.02 -554.32 1.03 
104.02 -553.97 1.01 
104.07 -553.54 0.96 
104.12 -553.19 0.93 
104.15 -552.79 0.89 
104.20 -552.39 0.84 
104.22 -552.00 0.80 
104.23 -551.65 0.76 
105.50 -548.27 0.63 
105.15 -548.47 0.80 
104.64 -548.57 0.63 
104.37 -550.28 0.81 
104.48 -549.60 0.74 
103.89 -552.51 1.04 
104.06 -551.87 0.97 
103.57 -553.65 1.15 
103.74 -553.12 1.10 
103.45 -551.10 0.99 
103.47 -550.75 0.96 
103.50 -550.40 0.93 
103.53 -550.00 0.89 
103.56 -549.58 0.85 
103.59 -549.14 0.81 
103.59 -548.89 0.79 
103.58 -548.47 0.75 
103.23 -554.38 1.28 
103.23 -553.97 1.25 
103.25 -553.62 1.22 
103.29 -553.21 1.18 
103.32 -552.80 1.14 
103.35 -552.37 1.10 
103.37 -551.99 1.07 
103.41 -551.58 1.03 
103.42 -551.26 1.00 
110.17 -540.96 0.76 
109.84 -540.97 0.75 
105.20 -548.21 1.24 
93.24 -544.21 0.27 
92.31 -544.11 0.23 
110.24 -540.88 1.22 
109.89 -540.87 1.21 
105.18 -548.62 1.49 
105.14 -548.28 1.64 
98.41 -535.97 0.11 
98.40 -535.73 0.09 
110.07 -540.65 1.61 
106.08 -535.44 0.87 
105.23 -547.89 1.80 
102.29 -535.31 1.43 
102.14 -535.36 1.43 
102.17 -534.87 3.38 
102.13 -534.65 4.00 
110.35 -544.91 0.66 
110.06 -545.19 0.68 
109.54 -545.46 0.69 
109.66 -545.42 0.69 
109.36 -545.51 0.69 
107.92 -541.79 0.03 
107.92 -541.33 -0.02 
107.91 -540.86 -0.07 
107.56 -542.77 0.13 
107.71 -542.46 0.10 
107.85 -541.95 0.05 
107.34 -545.44 0.60 
107.15 -545.43 0.59 
107.19 -543.61 0.20 
107.36 -543.27 0.17 
107.42 -542.96 0.14 
106.93 -545.40 0.58 
106.84 -543.75 0.21 
106.26 -543.95 0.20 
106.44 -543.79 0.19 
105.96 -545.34 0.53 
105.90 -544.28 0.22 
106.08 -544.11 0.21 
105.61 -545.29 0.51 
105.52 -544.81 0.26 
105.73 -544.51 0.24 
105.17 -548.68 0.68 
105.38 -548.46 0.66 
105.05 -545.93 0.55 
105.11 -545.63 0.52 
105.23 -545.28 0.40 
105.39 -545.04 0.28 
104.99 -548.69 0.67 
104.67 -546.79 0.45 
104.69 -546.44 0.41 
104.79 -546.05 0.42 
104.78 -545.56 0.31 
104.96 -545.43 0.31 
104.22 -553.28 1.06 
104.17 -552.30 1.03 
104.21 -552.05 1.00 
104.20 -551.59 0.95 
104.26 -551.23 0.91 
104.31 -550.82 0.87 
104.34 -550.42 0.83 
104.36 -550.02 0.79 
104.41 -549.57 0.74 
104.45 -549.24 0.71 
104.49 -548.84 0.66 
104.53 -548.45 0.62 
104.54 -548.15 0.59 
103.96 -554.41 1.21 
104.00 -554.03 1.20 
104.03 -553.60 1.16 
104.09 -553.17 1.12 
104.12 -552.80 1.08 
104.15 -552.51 1.05 
105.14 -548.33 0.89 
105.24 -548.02 1.17 
104.63 -548.25 0.80 
104.71 -547.63 0.73 
104.23 -550.19 0.99 
104.30 -549.66 0.94 
104.47 -549.14 0.89 
103.77 -552.09 1.18 
103.92 -551.49 1.12 
103.92 -551.31 1.10 
104.05 -550.73 1.05 
104.13 -550.39 1.01 
103.44 -553.10 1.28 
103.57 -552.80 1.25 
103.72 -552.30 1.20 
103.36 -551.97 1.24 
103.40 -551.54 1.20 
103.43 -551.20 1.17 
103.46 -550.79 1.14 
103.49 -550.39 1.10 
103.52 -549.98 1.06 
103.56 -549.56 1.02 
103.59 -549.18 0.99 
103.62 -548.81 0.96 
103.64 -548.36 0.92 
103.17 -554.35 1.46 
103.27 -554.05 1.38 
103.24 -553.48 1.38 
103.29 -553.12 1.35 
103.31 -552.73 1.31 
103.34 -552.34 1.28 
110.31 -540.88 0.90 
110.07 -540.82 0.85 
105.16 -548.14 1.59 
105.22 -547.99 1.54 
110.30 -540.79 1.33 
110.05 -540.75 1.30 
105.23 -548.15 1.92 
105.25 -547.78 1.91 
98.40 -535.80 0.25 
110.28 -540.71 1.77 
110.01 -540.71 1.76 
106.19 -535.25 0.98 
105.19 -547.91 2.29 
102.45 -535.00 1.26 
110.03 -540.44 2.23 
102.36 -535.19 1.53 
102.23 -535.25 1.53 
102.37 -534.98 2.04 
102.17 -535.12 2.14 
102.29 -534.98 2.76 
109.40 -544.27 0.75 
109.27 -544.19 0.73 
107.96 -544.39 0.70 
107.79 -542.23 0.27 
107.88 -541.94 0.25 
107.96 -541.63 0.22 
108.02 -541.05 0.15 
107.27 -544.56 0.69 
107.39 -544.54 0.70 
107.38 -543.18 0.36 
107.52 -542.78 0.32 
107.69 -542.45 0.29 
107.04 -544.59 0.69 
107.08 -543.46 0.38 
107.26 -543.34 0.37 
106.80 -544.63 0.68 
106.66 -543.50 0.37 
106.14 -543.81 0.38 
106.30 -543.62 0.36 
105.51 -549.08 0.80 
105.73 -544.24 0.40 
105.91 -544.01 0.39 
105.13 -549.21 0.80 
105.34 -548.32 0.83 
105.26 -545.00 0.47 
105.44 -544.72 0.48 
105.60 -544.41 0.42 
104.59 -550.63 0.95 
104.84 -549.31 0.79 
104.74 -546.49 0.60 
104.77 -546.19 0.57 
104.79 -545.87 0.54 
104.82 -545.46 0.50 
105.00 -545.13 0.50 
103.99 -553.79 1.35 
104.03 -553.41 1.31 
104.08 -552.90 1.23 
104.13 -552.63 1.21 
104.17 -552.23 1.18 
104.23 -551.84 1.14 
104.24 -551.44 1.10 
104.27 -551.02 1.07 
104.35 -550.64 1.02 
104.37 -550.21 0.99 
104.40 -549.80 0.95 
104.45 -549.39 0.91 
104.48 -549.03 0.87 
104.53 -548.59 0.82 
104.57 -548.20 0.78 
104.59 -547.95 0.76 
104.71 -546.91 0.65 
104.72 -546.61 0.62 
104.73 -546.37 0.59 
104.72 -545.49 0.68 
103.83 -554.60 1.42 
103.90 -554.18 1.38 
103.92 -553.70 1.31 
103.96 -553.36 1.26 
104.00 -552.96 1.21 
110.27 -544.31 0.79 
109.98 -544.39 0.79 
105.16 -548.46 1.03 
105.24 -548.25 1.21 
104.23 -549.01 1.05 
104.33 -548.58 1.01 
104.37 -547.34 0.87 
104.66 -545.93 0.73 
103.89 -550.23 1.17 
104.17 -549.26 1.08 
103.16 -554.41 1.63 
103.18 -554.09 1.60 
103.21 -553.69 1.56 
103.24 -553.43 1.54 
103.28 -552.89 1.49 
103.33 -552.53 1.39 
103.40 -551.64 1.37 
103.43 -551.35 1.33 
103.46 -550.94 1.31 
103.50 -550.49 1.27 
103.53 -550.17 1.24 
103.57 -549.79 1.21 
103.61 -549.35 1.17 
103.66 -548.95 1.13 
103.72 -548.53 1.10 
103.72 -548.14 1.06 
103.72 -547.87 1.04 
103.14 -554.60 1.65 
110.34 -540.66 1.03 
110.09 -540.66 1.02 
105.21 -548.14 1.55 
105.20 -547.85 1.68 
110.17 -540.65 1.43 
110.03 -540.86 1.35 
105.23 -547.95 1.99 
105.21 -547.78 1.98 
110.37 -540.52 1.84 
110.00 -540.51 1.83 
106.34 -535.00 1.09 
105.15 -548.06 2.32 
102.51 -535.06 1.02 
110.27 -540.69 2.31 
110.12 -540.69 2.30 
106.27 -535.01 1.65 
102.47 -534.95 1.61 
102.30 -534.93 1.61 
102.25 -535.03 2.66 
102.42 -534.73 2.79 
102.19 -534.92 3.31 
102.17 -534.75 3.97 
108.48 -547.18 0.82 
107.88 -542.12 0.37 
107.98 -541.77 0.34 
108.02 -541.26 0.28 
108.11 -540.99 0.26 
107.40 -543.16 0.46 
107.49 -542.92 0.44 
107.65 -542.61 0.41 
107.79 -542.31 0.39 
107.01 -543.54 0.48 
107.22 -543.44 0.48 
106.70 -543.56 0.47 
106.29 -543.71 0.47 
105.42 -548.28 0.92 
105.51 -548.03 0.82 
105.76 -544.24 0.50 
105.99 -543.98 0.49 
105.22 -548.43 0.92 
105.34 -544.82 0.55 
105.61 -544.41 0.52 
105.35 -543.88 0.64 
104.43 -550.59 1.04 
104.57 -549.65 0.93 
104.92 -548.44 0.80 
104.93 -548.16 0.76 
104.76 -546.21 0.67 
105.05 -545.16 0.57 
105.15 -543.97 0.64 
103.80 -554.65 1.49 
103.85 -554.28 1.46 
103.92 -553.92 1.42 
103.97 -553.48 1.38 
104.01 -553.08 1.34 
104.01 -552.68 1.29 
104.07 -552.29 1.25 
104.14 -551.92 1.21 
104.20 -551.51 1.17 
104.24 -551.09 1.13 
104.28 -550.72 1.12 
104.32 -550.32 1.08 
104.34 -549.92 1.04 
104.39 -549.54 1.00 
104.44 -549.17 0.96 
104.48 -548.77 0.92 
104.53 -548.39 0.89 
104.55 -548.09 0.85 
104.68 -546.74 0.72 
104.72 -546.38 0.68 
104.76 -545.91 0.64 
104.79 -545.57 0.60 
104.72 -544.22 0.65 
103.38 -554.60 1.46 
103.45 -554.29 1.42 
103.56 -554.04 1.40 
103.72 -553.58 1.36 
110.31 -543.55 0.81 
109.92 -543.58 0.80 
110.13 -540.82 0.71 
109.55 -543.39 0.76 
106.45 -543.76 0.67 
105.45 -547.96 1.08 
105.16 -548.20 1.18 
105.29 -547.90 1.23 
104.19 -548.55 1.09 
104.29 -548.28 1.06 
104.32 -547.90 1.02 
104.36 -547.51 0.98 
103.99 -549.17 1.14 
104.34 -545.27 0.74 
103.11 -554.59 1.70 
103.14 -554.17 1.66 
103.18 -553.82 1.63 
103.22 -553.41 1.60 
103.26 -552.96 1.55 
103.30 -552.62 1.52 
103.33 -552.17 1.48 
103.42 -551.08 1.39 
103.48 -550.59 1.34 
103.52 -550.25 1.30 
103.53 -549.88 1.28 
103.59 -549.47 1.24 
103.63 -549.05 1.21 
103.72 -548.66 1.18 
103.72 -548.28 1.14 
103.69 -547.98 1.11 
100.99 -549.47 1.03 
101.13 -549.36 1.03 
100.67 -549.56 1.03 
100.53 -544.71 0.73 
100.65 -543.62 0.63 
110.19 -540.69 1.03 
105.16 -548.14 1.59 
105.25 -547.87 1.71 
102.60 -534.89 0.17 
110.42 -540.66 1.46 
110.14 -540.63 1.44 
105.22 -547.95 2.01 
105.26 -547.58 2.00 
102.59 -534.86 0.79 
110.40 -540.59 1.84 
110.12 -540.60 1.83 
110.33 -540.38 1.84 
109.84 -540.58 1.83 
106.37 -535.05 1.14 
105.20 -547.87 2.31 
110.45 -540.31 2.30 
106.34 -534.96 1.67 
106.21 -535.47 1.68 
106.27 -535.25 1.67 
102.40 -535.04 1.64 
102.57 -534.79 1.41 
102.43 -534.93 2.21 
102.46 -534.53 2.65 
102.45 -534.49 3.28 
110.10 -545.82 0.93 
107.99 -542.18 0.56 
108.10 -541.94 0.54 
108.23 -541.46 0.50 
108.43 -541.14 0.47 
107.50 -543.32 0.66 
107.58 -543.03 0.64 
107.76 -542.63 0.60 
107.90 -542.39 0.58 
107.25 -543.47 0.67 
106.76 -543.71 0.67 
106.96 -543.51 0.66 
106.17 -544.30 0.71 
106.39 -544.08 0.70 
106.58 -543.90 0.69 
105.40 -548.26 1.09 
105.45 -548.12 1.08 
105.78 -544.82 0.75 
106.04 -544.47 0.72 
105.15 -548.35 1.09 
105.45 -545.14 0.76 
105.65 -545.00 0.76 
103.93 -553.66 1.56 
103.96 -553.45 1.54 
104.02 -553.06 1.51 
104.07 -552.67 1.47 
104.12 -552.26 1.43 
104.17 -551.88 1.40 
104.20 -551.47 1.36 
104.22 -551.11 1.32 
104.30 -550.68 1.28 
104.33 -550.29 1.22 
104.39 -549.91 1.19 
104.43 -549.52 1.16 
104.47 -549.13 1.13 
104.52 -548.73 1.08 
104.61 -548.35 1.04 
104.60 -548.09 1.03 
104.70 -546.76 0.90 
104.75 -546.34 0.86 
104.84 -545.93 0.82 
104.98 -545.57 0.79 
105.12 -545.25 0.76 
103.63 -552.86 1.46 
103.80 -552.25 1.40 
103.96 -551.73 1.34 
104.04 -551.52 1.32 
104.20 -550.61 1.23 
104.26 -550.48 1.21 
103.11 -554.60 1.62 
103.17 -554.11 1.57 
103.30 -553.70 1.53 
103.35 -553.49 1.51 
103.48 -553.17 1.48 
110.18 -542.44 0.87 
110.19 -540.78 0.86 
109.74 -542.54 0.86 
105.45 -547.86 1.25 
105.54 -547.67 1.23 
105.22 -547.95 1.42 
104.20 -547.87 1.19 
104.21 -547.47 1.15 
104.20 -547.23 1.13 
103.08 -554.54 1.86 
103.12 -554.14 1.82 
103.15 -553.77 1.79 
103.19 -553.33 1.75 
103.25 -552.93 1.71 
103.33 -552.55 1.68 
103.36 -552.20 1.65 
103.37 -551.79 1.61 
103.39 -551.40 1.57 
103.42 -551.04 1.54 
103.57 -550.14 1.43 
103.66 -549.80 1.44 
103.75 -549.39 1.40 
103.79 -548.99 1.34 
103.95 -548.59 1.32 
103.94 -548.23 1.30 
103.82 -547.83 1.26 
104.12 -546.90 1.09 
101.28 -548.28 1.10 
101.05 -548.36 1.10 
101.47 -543.18 0.78 
100.45 -548.49 1.08 
100.70 -548.43 1.09 
100.93 -545.25 0.95 
101.35 -543.58 0.81 
100.34 -548.52 1.08 
99.96 -548.61 1.07 
99.08 -538.06 0.26 
110.22 -540.72 1.21 
110.33 -540.44 1.09 
105.34 -547.70 1.82 
105.24 -547.88 1.83 
106.39 -535.05 0.75 
102.54 -535.12 0.66 
110.27 -540.63 1.56 
110.45 -540.61 1.56 
110.03 -540.62 1.55 
105.22 -547.89 2.24 
105.28 -547.48 2.10 
102.79 -534.73 0.92 
102.66 -534.80 0.92 
110.23 -540.60 1.91 
110.28 -540.49 2.09 
109.97 -540.56 1.90 
109.99 -540.48 2.26 
105.25 -547.66 2.40 
106.39 -535.01 1.25 
102.54 -535.04 1.19 
106.37 -534.96 1.75 
106.40 -534.64 1.75 
102.58 -534.93 1.73 
102.41 -534.89 2.27 
102.54 -534.84 2.27 
102.38 -534.80 2.82 
102.51 -534.76 2.82 
102.47 -534.35 3.30 
110.50 -544.68 1.03 
110.13 -544.92 1.04 
110.27 -540.69 0.71 
109.46 -545.20 1.05 
110.19 -540.71 0.71 
107.93 -545.13 0.97 
107.69 -542.33 0.77 
107.86 -541.94 0.74 
108.00 -541.54 0.70 
108.05 -541.08 0.65 
108.05 -540.71 0.61 
108.10 -540.32 0.57 
108.27 -539.90 0.54 
107.13 -543.26 0.84 
107.34 -543.01 0.82 
107.52 -542.64 0.79 
106.83 -543.33 0.84 
106.07 -545.13 0.87 
106.40 -543.35 0.82 
105.30 -548.21 1.27 
105.42 -548.01 1.25 
105.80 -543.86 0.84 
106.04 -543.63 0.83 
105.29 -544.58 0.89 
105.45 -544.33 0.88 
105.66 -544.04 0.85 
104.05 -552.15 1.60 
104.10 -551.79 1.57 
104.14 -551.39 1.53 
104.15 -551.02 1.49 
104.23 -550.62 1.46 
104.26 -550.21 1.41 
104.31 -549.86 1.39 
104.33 -549.41 1.32 
104.41 -549.03 1.28 
104.48 -548.67 1.25 
104.53 -548.30 1.23 
104.61 -547.95 1.17 
104.65 -547.09 1.12 
104.68 -546.67 1.08 
104.72 -546.31 1.05 
104.77 -545.89 1.00 
104.81 -545.47 0.96 
104.92 -545.03 0.92 
105.17 -544.80 0.91 
103.40 -552.35 1.58 
103.48 -552.22 1.57 
103.66 -551.69 1.53 
103.74 -551.39 1.50 
103.90 -550.66 1.42 
104.01 -550.34 1.39 
102.98 -554.35 1.77 
103.07 -554.12 1.76 
103.14 -553.68 1.71 
103.17 -553.48 1.69 
103.21 -553.03 1.65 
103.30 -552.60 1.61 
110.13 -541.27 0.94 
109.86 -540.92 0.90 
110.23 -540.66 1.03 
109.05 -541.10 0.88 
108.00 -541.85 0.92 
107.36 -542.36 0.95 
106.56 -542.70 0.95 
106.66 -542.63 0.95 
105.21 -547.94 1.74 
105.31 -547.61 1.41 
105.19 -542.50 0.87 
104.84 -542.55 0.86 
104.91 -542.43 0.85 
103.16 -553.17 1.91 
103.17 -552.89 1.88 
103.24 -552.49 1.85 
103.28 -552.08 1.81 
103.31 -551.67 1.78 
103.35 -551.29 1.74 
103.39 -550.92 1.71 
103.43 -550.49 1.67 
103.48 -550.11 1.64 
103.54 -549.71 1.60 
103.63 -549.38 1.57 
103.68 -548.91 1.53 
103.80 -548.61 1.51 
103.90 -548.20 1.48 
103.74 -547.63 1.42 
103.95 -547.46 1.33 
104.40 -542.68 0.85 
104.19 -542.85 0.86 
103.67 -543.21 0.87 
102.52 -544.29 0.94 
102.13 -544.51 0.94 
101.32 -547.23 1.19 
101.96 -544.55 0.94 
101.08 -547.21 1.17 
100.66 -547.17 1.15 
100.78 -545.43 1.14 
100.99 -544.56 1.07 
101.08 -544.11 1.03 
101.15 -543.77 1.00 
101.23 -543.38 0.97 
100.21 -547.13 1.12 
99.89 -547.13 1.11 
99.49 -547.16 1.09 
99.00 -547.32 1.08 
99.08 -547.26 1.08 
98.96 -537.97 0.43 
110.44 -540.52 1.68 
105.18 -547.90 1.99 
105.29 -547.58 1.95 
106.49 -534.96 0.90 
102.66 -534.94 0.81 
102.51 -534.97 0.80 
110.33 -540.50 1.84 
110.11 -540.49 1.83 
110.09 -540.24 2.03 
105.20 -547.79 2.36 
105.28 -547.48 2.36 
106.43 -535.17 1.38 
106.46 -534.87 1.37 
98.01 -534.76 0.71 
110.41 -540.41 2.33 
110.06 -540.40 2.32 
102.59 -534.92 1.32 
98.79 -534.47 1.28 
98.82 -534.22 1.26 
106.39 -535.04 1.85 
106.46 -534.65 1.85 
102.62 -534.81 1.84 
102.58 -534.72 2.36 
102.69 -534.50 2.20 
102.45 -534.77 2.36 
102.75 -534.24 2.77 
102.58 -534.26 3.34 
110.24 -540.62 0.89 
107.51 -544.57 1.09 
107.73 -541.92 0.91 
107.84 -541.52 0.88 
107.91 -541.16 0.84 
107.93 -540.78 0.80 
107.15 -542.93 0.99 
107.31 -542.66 0.97 
107.56 -542.25 0.94 
107.90 -540.42 0.77 
107.85 -539.79 0.70 
106.72 -543.19 1.00 
106.96 -543.09 1.00 
105.43 -547.91 1.42 
105.55 -547.54 1.35 
106.45 -543.22 0.99 
105.32 -548.03 1.42 
105.43 -547.72 1.38 
106.03 -543.19 0.97 
104.06 -551.22 1.67 
104.07 -551.08 1.66 
104.16 -550.58 1.62 
104.23 -550.19 1.58 
104.27 -549.90 1.56 
105.33 -543.80 1.00 
105.53 -543.55 0.98 
105.77 -543.30 0.97 
104.08 -550.85 1.64 
104.29 -549.68 1.53 
104.22 -549.38 1.50 
104.28 -548.98 1.46 
104.37 -548.56 1.41 
104.42 -548.25 1.38 
104.52 -547.83 1.34 
104.55 -547.47 1.28 
104.63 -547.06 1.29 
104.66 -546.61 1.25 
104.72 -546.24 1.21 
104.77 -545.83 1.18 
104.84 -545.45 1.12 
104.82 -545.14 1.11 
104.85 -544.68 1.06 
105.04 -544.27 1.03 
105.22 -543.94 1.00 
103.26 -551.95 1.71 
103.35 -551.52 1.67 
103.39 -551.27 1.64 
103.43 -550.91 1.61 
103.49 -550.48 1.56 
103.72 -550.00 1.52 
103.87 -549.64 1.49 
104.71 -544.88 1.08 
104.75 -544.81 1.07 
103.76 -540.84 0.82 
103.38 -540.70 0.78 
102.96 -540.71 0.77 
95.46 -545.56 0.91 
94.92 -545.61 0.88 
94.72 -545.66 0.88 
94.30 -545.67 0.86 
92.98 -545.92 0.82 
92.66 -546.01 0.81 
92.21 -545.98 0.79 
110.43 -540.31 1.05 
110.28 -540.60 1.19 
105.21 -547.84 1.77 
105.31 -547.48 1.83 
105.60 -541.21 0.94 
103.30 -551.54 1.93 
103.33 -551.20 1.90 
103.37 -550.86 1.87 
103.42 -550.45 1.83 
103.46 -550.05 1.79 
103.50 -549.69 1.76 
103.55 -549.28 1.73 
103.62 -548.86 1.69 
103.73 -548.44 1.66 
103.76 -548.17 1.63 
105.14 -541.05 0.90 
103.57 -549.06 1.71 
103.60 -548.86 1.69 
103.64 -548.63 1.67 
104.73 -540.99 0.88 
104.33 -540.96 0.86 
102.15 -542.69 0.94 
100.40 -546.88 1.28 
100.82 -544.35 1.21 
100.95 -543.95 1.09 
101.09 -543.54 1.06 
101.21 -542.85 1.09 
100.52 -545.64 1.31 
100.46 -544.75 1.15 
100.44 -544.30 1.02 
100.72 -544.08 1.01 
99.75 -546.86 1.25 
99.70 -545.80 1.14 
99.87 -545.42 1.11 
100.13 -545.06 1.08 
99.67 -545.77 1.13 
100.23 -541.91 0.98 
110.35 -540.48 1.79 
110.48 -540.47 1.79 
110.15 -540.47 1.78 
105.22 -547.80 2.13 
105.31 -547.47 2.08 
106.51 -534.88 1.04 
102.67 -534.87 0.95 
110.33 -540.44 2.09 
110.37 -540.21 2.14 
110.26 -540.47 2.09 
110.34 -540.18 2.14 
105.23 -547.78 2.37 
105.23 -547.54 2.45 
105.28 -547.24 2.32 
106.44 -535.04 1.50 
106.51 -534.75 1.49 
110.32 -540.40 2.39 
110.41 -540.37 2.39 
110.11 -540.35 2.39 
106.49 -535.02 1.95 
102.67 -534.82 1.45 
98.85 -534.59 1.42 
98.89 -534.26 1.40 
106.53 -534.38 1.94 
102.63 -534.73 1.95 
102.89 -534.34 2.29 
102.60 -534.66 2.45 
102.82 -534.16 2.83 
102.63 -534.56 2.95 
102.66 -534.18 3.38 
102.58 -533.95 4.50 
109.99 -543.00 1.11 
109.91 -543.00 1.10 
110.36 -540.51 0.94 
107.54 -543.27 1.02 
107.21 -542.56 1.01 
107.38 -542.26 0.98 
107.61 -541.85 0.95 
107.77 -541.50 0.92 
107.83 -541.08 0.88 
107.85 -540.65 0.84 
107.83 -540.38 0.81 
107.77 -540.03 0.77 
106.85 -542.91 1.03 
107.12 -542.66 1.01 
105.38 -547.86 1.45 
105.43 -547.60 1.43 
106.37 -543.18 1.00 
106.55 -543.04 1.03 
106.05 -543.03 1.00 
104.29 -549.17 1.52 
104.36 -548.92 1.50 
104.43 -548.57 1.47 
104.49 -548.17 1.44 
104.57 -547.85 1.41 
104.66 -546.82 1.31 
104.66 -546.70 1.30 
105.42 -543.29 1.00 
105.64 -543.07 0.98 
103.82 -548.69 1.44 
103.93 -548.42 1.42 
104.10 -548.06 1.39 
104.22 -547.80 1.37 
104.25 -547.32 1.31 
104.27 -546.69 1.24 
104.64 -546.51 1.28 
104.72 -546.15 1.25 
104.77 -545.80 1.22 
104.80 -545.34 1.17 
104.80 -545.02 1.14 
104.76 -544.53 1.09 
104.95 -544.16 1.06 
105.11 -543.80 1.03 
105.28 -543.47 1.01 
103.46 -550.18 1.58 
103.51 -549.90 1.56 
103.55 -549.56 1.52 
103.63 -549.09 1.47 
103.72 -548.90 1.46 
104.45 -545.16 1.07 
104.67 -544.67 1.10 
104.62 -544.24 0.97 
103.42 -539.48 0.71 
100.86 -549.66 1.34 
100.99 -549.55 1.34 
95.15 -544.24 0.80 
94.74 -544.30 0.79 
94.30 -544.34 0.77 
93.70 -544.48 0.76 
93.94 -544.39 0.76 
93.43 -544.52 0.75 
93.06 -544.60 0.74 
92.61 -544.70 0.72 
92.18 -544.77 0.71 
91.70 -544.89 0.70 
91.92 -544.82 0.70 
110.37 -540.48 1.34 
110.46 -540.18 1.43 
105.25 -547.66 1.90 
105.31 -547.36 1.62 
105.22 -547.67 1.67 
105.30 -547.31 1.84 
106.45 -538.49 0.75 
103.51 -549.48 1.78 
103.52 -549.15 1.75 
103.59 -548.76 1.72 
103.67 -548.37 1.68 
103.76 -547.99 1.65 
103.75 -547.57 1.61 
104.92 -539.56 0.79 
100.65 -544.78 1.28 
100.76 -544.42 1.25 
101.03 -543.63 1.18 
101.23 -542.95 1.13 
101.34 -542.25 0.90 
102.84 -534.72 0.47 
100.57 -543.09 0.95 
100.74 -542.87 0.94 
100.97 -542.61 0.92 
100.00 -543.81 1.00 
100.16 -543.58 0.98 
100.42 -543.25 0.96 
99.44 -544.53 1.04 
99.59 -544.27 1.03 
99.79 -543.89 1.00 
98.90 -545.30 1.10 
99.07 -545.03 1.08 
99.31 -544.66 1.05 
98.53 -545.62 1.11 
98.58 -545.25 1.08 
98.91 -537.99 0.63 
110.30 -540.38 1.74 
105.33 -547.34 2.19 
105.34 -547.19 2.06 
105.20 -547.62 2.14 
105.21 -547.61 2.14 
105.33 -547.09 2.06 
106.64 -534.75 1.03 
102.80 -534.72 0.95 
110.31 -540.33 2.01 
105.26 -547.72 2.38 
105.25 -547.44 2.57 
105.21 -547.39 2.44 
106.84 -534.43 1.30 
106.60 -534.93 1.46 
106.63 -534.57 1.45 
106.66 -534.18 1.43 
110.17 -540.26 2.42 
105.17 -547.61 2.86 
106.81 -534.34 1.77 
106.58 -534.82 1.88 
106.63 -534.54 1.88 
106.71 -534.41 1.77 
98.94 -534.65 1.41 
99.01 -534.16 1.38 
99.02 -533.91 1.37 
106.56 -534.77 2.31 
106.65 -534.48 2.29 
102.91 -534.24 2.21 
102.77 -534.48 2.37 
102.76 -534.41 2.84 
102.86 -534.15 2.72 
102.78 -534.21 3.33 
102.78 -533.95 3.76 
110.39 -540.42 1.11 
110.04 -541.43 1.11 
107.10 -541.87 1.10 
107.22 -541.62 1.08 
107.34 -541.24 1.05 
107.38 -540.79 1.01 
106.77 -542.26 1.13 
106.99 -542.05 1.12 
107.37 -540.31 0.96 
107.35 -539.95 0.92 
107.27 -539.61 0.88 
106.31 -542.60 1.14 
106.52 -542.41 1.13 
104.48 -547.76 1.55 
105.83 -542.74 1.13 
105.92 -542.61 1.08 
106.73 -538.17 0.71 
106.81 -537.84 0.68 
106.87 -537.56 0.65 
104.45 -547.69 1.54 
104.44 -547.68 1.54 
104.50 -547.00 1.48 
104.51 -546.70 1.45 
104.48 -546.29 1.41 
104.53 -545.92 1.38 
105.46 -542.75 1.11 
106.74 -538.06 0.70 
106.89 -537.33 0.63 
106.95 -537.01 0.60 
103.72 -547.75 1.50 
103.81 -547.42 1.47 
103.85 -547.02 1.43 
104.53 -545.71 1.36 
104.50 -545.44 1.33 
104.47 -545.04 1.29 
104.38 -544.76 1.26 
104.71 -543.32 1.13 
104.81 -543.12 1.12 
105.06 -542.81 1.10 
104.20 -544.45 1.22 
104.30 -544.16 1.19 
104.46 -543.81 1.17 
104.61 -543.51 1.14 
106.23 -534.69 0.53 
102.59 -544.54 1.06 
102.82 -544.08 1.02 
101.41 -547.02 1.26 
101.57 -546.95 1.26 
102.03 -544.62 1.03 
101.14 -547.16 1.25 
100.67 -547.43 1.25 
101.30 -544.89 1.01 
100.17 -547.71 1.24 
99.67 -547.99 1.24 
99.92 -547.83 1.24 
102.21 -537.26 0.61 
99.19 -548.33 1.24 
99.42 -548.15 1.23 
101.70 -537.43 0.60 
98.61 -543.11 1.03 
98.76 -542.92 1.02 
96.30 -543.41 0.95 
95.99 -543.37 0.93 
95.45 -543.31 0.89 
94.92 -543.24 0.86 
94.53 -543.19 0.84 
110.41 -540.38 1.48 
105.28 -547.24 1.87 
103.16 -547.29 1.73 
102.84 -547.34 1.72 
102.31 -547.29 1.70 
101.63 -547.21 1.68 
101.10 -547.18 1.66 
100.54 -547.09 1.64 
99.93 -547.06 1.62 
100.19 -546.41 1.56 
100.06 -546.15 1.54 
99.96 -545.88 1.51 
99.94 -545.62 1.49 
99.99 -545.26 1.46 
100.12 -544.80 1.42 
100.08 -544.39 1.38 
100.10 -544.13 1.36 
100.37 -543.63 1.32 
100.49 -543.15 1.29 
100.51 -543.01 1.27 
100.63 -542.47 1.23 
99.60 -542.01 0.97 
98.85 -542.84 1.01 
110.48 -540.30 1.85 
110.21 -540.27 1.84 
105.21 -547.48 2.28 
105.29 -547.17 2.30 
105.28 -546.98 2.18 
106.77 -534.60 1.17 
106.67 -534.63 1.17 
110.47 -540.24 2.22 
110.15 -540.19 2.35 
105.23 -547.51 2.68 
105.22 -547.29 2.56 
106.63 -535.02 1.59 
106.70 -534.82 1.58 
106.75 -534.42 1.57 
99.17 -534.40 1.25 
110.34 -540.15 2.60 
106.66 -534.71 1.98 
106.75 -534.52 1.98 
99.08 -534.22 1.53 
99.11 -533.92 1.51 
99.15 -533.63 1.50 
106.67 -534.73 2.39 
106.74 -534.30 2.37 
102.93 -534.12 2.30 
102.86 -534.33 2.46 
102.86 -534.20 2.88 
102.77 -534.02 3.87 
110.44 -540.35 1.26 
108.23 -540.29 1.06 
106.42 -541.64 1.20 
106.56 -541.32 1.18 
106.69 -540.90 1.14 
106.73 -540.52 1.10 
106.03 -541.92 1.21 
106.24 -541.79 1.21 
106.57 -539.97 1.04 
106.69 -539.70 1.02 
106.62 -539.19 0.97 
105.51 -542.09 1.20 
105.74 -542.03 1.21 
106.56 -538.85 0.93 
106.47 -538.39 0.88 
104.25 -546.36 1.55 
104.26 -546.12 1.53 
104.20 -545.68 1.48 
105.14 -542.17 1.19 
105.42 -542.05 1.19 
104.09 -545.24 1.43 
104.03 -544.83 1.39 
104.46 -542.76 1.21 
104.69 -542.53 1.20 
104.73 -542.21 1.17 
104.84 -541.45 1.01 
106.16 -536.66 0.69 
106.28 -536.27 0.66 
106.35 -535.92 0.62 
106.44 -535.54 0.59 
103.78 -544.30 1.33 
103.84 -544.00 1.30 
104.01 -543.59 1.27 
104.21 -543.20 1.24 
104.37 -542.96 1.23 
104.46 -542.64 1.20 
104.52 -541.47 0.99 
103.95 -541.50 0.96 
102.35 -546.82 1.45 
103.59 -541.41 0.93 
102.01 -546.79 1.43 
103.17 -541.59 0.92 
101.63 -546.76 1.40 
101.25 -546.73 1.37 
101.88 -543.76 1.09 
101.99 -543.66 1.08 
100.72 -546.66 1.32 
101.34 -544.10 1.09 
100.36 -546.61 1.29 
100.54 -545.59 1.19 
100.54 -545.36 1.17 
100.87 -544.74 1.12 
100.99 -544.60 1.12 
101.20 -544.27 1.10 
100.02 -546.57 1.26 
99.72 -546.55 1.24 
110.47 -540.25 1.59 
99.38 -546.05 1.65 
99.29 -545.63 1.61 
99.39 -545.32 1.59 
99.57 -544.96 1.56 
99.64 -544.57 1.53 
99.57 -544.19 1.49 
99.76 -543.78 1.46 
99.80 -543.50 1.44 
99.91 -542.99 1.40 
100.01 -542.59 1.36 
100.10 -542.21 1.33 
99.17 -545.72 1.61 
99.55 -544.01 1.47 
100.04 -542.05 1.32 
110.48 -540.22 2.06 
110.32 -540.19 2.06 
106.74 -534.55 1.28 
106.84 -534.38 1.20 
110.24 -540.11 2.31 
106.71 -534.96 1.69 
106.74 -534.67 1.68 
106.81 -534.32 1.54 
99.23 -533.97 1.35 
110.48 -540.06 2.75 
106.71 -534.58 2.06 
106.83 -534.21 1.97 
102.81 -534.37 2.09 
102.92 -534.31 2.09 
99.03 -534.57 1.66 
99.11 -534.03 1.63 
99.16 -533.60 1.61 
106.68 -534.64 2.43 
106.77 -534.24 2.40 
106.82 -533.78 2.39 
102.78 -534.30 2.54 
102.86 -534.14 2.45 
102.95 -533.95 2.84 
102.87 -534.14 2.98 
102.84 -533.72 3.80 
110.50 -540.19 1.37 
109.17 -538.76 1.09 
106.45 -541.54 1.33 
106.57 -541.13 1.29 
106.63 -540.79 1.26 
106.04 -541.77 1.33 
106.25 -541.58 1.32 
106.38 -541.27 1.30 
106.53 -540.90 1.27 
106.64 -540.48 1.23 
106.56 -539.98 1.18 
106.57 -539.58 1.14 
106.63 -539.22 1.11 
105.71 -541.87 1.32 
106.21 -540.45 1.13 
106.53 -538.76 1.06 
106.52 -538.46 1.03 
105.35 -541.92 1.31 
105.88 -540.44 1.11 
106.43 -538.15 0.99 
106.25 -537.69 0.94 
104.01 -545.01 1.53 
104.02 -544.76 1.51 
104.73 -542.43 1.33 
104.92 -542.03 1.30 
106.14 -537.45 0.91 
106.05 -536.94 0.86 
106.15 -536.65 0.83 
106.25 -536.27 0.80 
106.36 -535.88 0.77 
106.45 -535.49 0.73 
106.63 -535.14 0.71 
106.83 -534.75 0.68 
103.98 -544.63 1.49 
103.79 -544.27 1.45 
103.83 -543.89 1.42 
103.98 -543.52 1.39 
104.17 -543.11 1.36 
104.38 -542.78 1.34 
104.49 -542.53 1.32 
104.58 -542.07 1.28 
104.80 -540.59 1.06 
103.66 -544.20 1.44 
104.26 -540.68 1.04 
103.63 -540.70 1.00 
103.05 -540.76 0.97 
101.16 -546.46 1.46 
102.84 -540.78 0.96 
100.86 -546.52 1.44 
100.93 -543.79 1.16 
101.15 -543.59 1.16 
101.39 -543.39 1.15 
100.04 -546.43 1.37 
100.12 -545.89 1.32 
100.11 -545.49 1.28 
100.38 -544.65 1.21 
100.60 -544.33 1.20 
100.76 -544.00 1.17 
99.73 -546.41 1.35 
100.03 -545.67 1.30 
100.08 -545.31 1.26 
100.16 -545.04 1.24 
110.50 -540.12 1.70 
99.57 -544.76 1.67 
99.62 -544.46 1.64 
99.62 -544.24 1.62 
99.78 -543.59 1.57 
99.83 -543.30 1.55 
99.91 -542.97 1.52 
100.02 -542.59 1.49 
100.16 -542.03 1.45 
99.56 -544.05 1.60 
99.61 -543.77 1.58 
100.12 -541.90 1.43 
110.33 -540.11 2.24 
106.97 -534.16 1.23 
99.17 -534.40 1.27 
99.21 -534.15 1.25 
99.25 -533.72 1.22 
110.32 -540.07 2.49 
106.82 -534.65 1.77 
106.87 -534.19 1.75 
106.88 -533.95 1.74 
99.33 -533.56 1.44 
99.36 -533.37 1.43 
110.74 -540.00 2.87 
106.88 -534.34 2.13 
99.15 -534.24 1.75 
99.19 -534.00 1.74 
99.26 -533.57 1.72 
106.84 -534.14 2.49 
106.86 -533.83 2.48 
106.88 -533.54 2.45 
103.03 -534.00 2.52 
102.96 -534.04 3.03 
103.03 -533.81 2.89 
110.50 -540.17 1.53 
106.17 -541.49 1.45 
106.36 -541.14 1.42 
106.54 -540.79 1.40 
106.62 -540.45 1.37 
106.64 -540.03 1.33 
106.60 -539.57 1.28 
106.66 -539.20 1.25 
105.77 -541.70 1.45 
105.99 -541.63 1.45 
106.53 -539.53 1.28 
106.67 -539.05 1.24 
106.61 -538.79 1.21 
106.57 -538.32 1.16 
105.34 -541.75 1.43 
106.43 -537.82 1.11 
106.33 -537.62 1.08 
104.74 -542.28 1.45 
104.86 -541.96 1.43 
105.04 -541.77 1.42 
105.65 -539.63 1.16 
105.75 -539.49 1.15 
106.23 -537.33 1.05 
106.11 -536.83 0.99 
106.19 -536.62 0.98 
106.31 -536.19 0.94 
106.43 -535.81 0.91 
106.51 -535.44 0.88 
106.65 -535.08 0.85 
103.89 -543.63 1.53 
103.97 -543.40 1.51 
104.13 -543.04 1.49 
104.36 -542.69 1.47 
104.51 -542.40 1.45 
104.60 -541.99 1.42 
104.98 -539.69 1.13 
103.84 -543.63 1.53 
104.50 -539.90 1.12 
104.23 -539.86 1.10 
103.72 -539.92 1.07 
103.87 -539.87 1.08 
103.12 -539.99 1.04 
101.84 -542.16 1.20 
100.39 -546.17 1.51 
101.30 -542.79 1.23 
100.11 -546.24 1.50 
100.82 -543.36 1.25 
101.04 -543.13 1.25 
99.62 -546.21 1.46 
99.75 -545.65 1.41 
99.84 -545.24 1.38 
99.91 -544.82 1.34 
100.09 -544.48 1.32 
100.32 -544.14 1.30 
100.43 -543.81 1.27 
100.53 -543.54 1.25 
107.01 -534.29 1.14 
107.08 -534.03 1.35 
99.85 -543.16 1.67 
99.96 -542.77 1.64 
100.08 -542.40 1.61 
100.21 -542.03 1.58 
99.64 -543.57 1.70 
99.87 -542.94 1.65 
100.16 -541.70 1.55 
99.70 -541.33 1.51 
99.52 -541.15 1.49 
98.65 -540.47 1.40 
110.37 -540.00 2.31 
106.97 -534.29 1.50 
99.27 -534.24 1.38 
99.29 -534.08 1.37 
99.33 -533.75 1.35 
110.33 -539.95 2.58 
106.90 -534.52 1.86 
106.96 -534.25 1.94 
106.97 -534.01 1.84 
99.24 -534.18 1.86 
99.27 -534.02 1.85 
99.45 -533.20 1.53 
110.70 -539.91 2.90 
110.42 -539.83 3.12 
106.86 -534.52 2.56 
106.93 -534.19 2.56 
103.11 -534.03 2.25 
99.30 -533.78 1.84 
99.34 -533.40 1.82 
99.39 -533.20 1.81 
106.88 -534.18 2.91 
106.96 -533.86 2.55 
103.08 -533.97 2.67 
103.15 -533.73 2.51 
103.05 -533.91 3.09 
103.13 -533.67 2.94 
102.94 -533.56 3.83 
108.26 -535.37 0.95 
108.47 -535.23 0.94 
105.89 -539.07 1.32 
105.16 -540.31 1.40 
105.31 -540.11 1.39 
105.47 -539.76 1.37 
105.67 -539.33 1.34 
105.85 -539.04 1.32 
105.92 -538.65 1.29 
105.92 -538.20 1.24 
105.89 -537.89 1.21 
106.42 -536.36 0.97 
104.72 -540.78 1.43 
105.04 -540.44 1.41 
105.35 -538.12 1.11 
105.83 -537.63 1.18 
105.76 -537.34 1.15 
103.83 -542.25 1.52 
104.08 -541.29 1.44 
104.30 -541.04 1.43 
104.50 -540.88 1.42 
105.26 -538.15 1.11 
105.57 -536.89 1.10 
105.52 -536.55 1.06 
103.71 -542.43 1.53 
103.85 -542.06 1.50 
103.52 -541.78 1.46 
103.82 -541.37 1.43 
104.47 -538.49 1.10 
104.51 -538.39 1.09 
105.38 -536.24 1.03 
105.27 -535.94 0.99 
103.36 -541.59 1.43 
103.34 -541.40 1.41 
104.28 -538.45 1.08 
105.56 -533.93 0.81 
107.04 -534.21 1.25 
99.05 -542.05 1.66 
99.11 -541.78 1.64 
98.44 -540.99 1.55 
97.66 -540.77 1.51 
107.03 -534.21 1.72 
107.09 -534.01 1.83 
107.11 -533.65 1.81 
99.30 -534.20 1.48 
99.37 -533.97 1.38 
99.46 -533.77 1.19 
99.42 -533.49 1.43 
106.92 -534.51 1.94 
106.99 -534.23 2.10 
107.03 -533.96 2.14 
99.27 -534.14 1.95 
99.34 -533.94 1.81 
99.42 -533.69 1.66 
99.34 -533.79 1.93 
99.39 -533.44 1.91 
99.47 -533.10 1.80 
106.91 -534.48 2.61 
106.98 -534.17 2.59 
107.02 -533.86 2.60 
103.16 -533.92 2.33 
106.96 -533.69 2.93 
103.08 -533.89 2.73 
103.19 -533.72 2.64 
103.08 -533.83 3.14 
103.16 -533.61 3.03 
103.03 -533.75 3.56 
102.93 -533.38 4.27 
105.68 -538.47 1.32 
104.89 -539.92 1.42 
105.00 -539.53 1.39 
105.21 -539.27 1.38 
105.37 -538.91 1.35 
105.54 -538.58 1.33 
105.70 -538.20 1.30 
105.69 -537.74 1.26 
105.62 -537.33 1.21 
104.32 -540.59 1.45 
104.54 -540.30 1.43 
104.77 -540.05 1.42 
104.88 -539.72 1.40 
105.45 -536.89 1.16 
103.83 -540.92 1.46 
104.05 -540.70 1.45 
105.28 -536.43 1.11 
105.14 -535.97 1.06 
103.31 -541.12 1.45 
103.54 -541.03 1.45 
104.63 -536.64 0.98 
104.73 -536.45 0.97 
103.14 -541.17 1.44 
104.34 -536.78 0.98 
107.19 -534.06 1.42 
98.34 -540.84 1.60 
107.07 -534.28 1.97 
107.13 -534.00 1.83 
99.43 -533.91 1.52 
107.07 -534.19 2.26 
107.12 -533.87 2.11 
107.16 -533.67 1.94 
99.41 -533.78 1.98 
99.46 -533.58 1.97 
99.34 -533.92 1.99 
99.43 -533.60 1.70 
99.51 -533.18 1.89 
99.60 -532.78 1.79 
107.04 -534.21 2.61 
107.10 -533.86 2.61 
107.13 -533.59 2.58 
103.27 -533.75 2.35 
107.05 -533.91 2.94 
103.20 -533.75 2.66 
103.10 -533.65 3.38 
102.87 -533.57 4.22 
105.10 -546.58 2.19 
105.17 -540.27 1.60 
105.25 -540.05 1.59 
105.44 -539.66 1.56 
105.52 -539.34 1.54 
105.69 -538.96 1.51 
105.81 -538.53 1.48 
105.85 -538.13 1.44 
105.86 -537.77 1.41 
107.20 -534.02 1.12 
105.02 -540.31 1.60 
105.17 -540.10 1.59 
105.78 -537.53 1.38 
105.74 -537.24 1.35 
105.62 -536.96 1.32 
105.52 -536.75 1.30 
105.46 -536.45 1.26 
105.29 -535.92 1.21 
105.23 -535.66 1.18 
105.13 -535.42 1.15 
104.98 -535.08 1.11 
104.29 -536.06 1.06 
104.60 -535.82 1.05 
104.82 -534.80 1.08 
104.01 -536.17 1.05 
105.09 -546.58 2.51 
105.07 -546.43 2.60 
105.06 -546.27 2.59 
107.21 -534.00 1.44 
99.46 -533.91 1.18 
92.19 -535.35 1.08 
92.25 -534.96 1.05 
92.32 -534.56 1.02 
92.47 -534.15 0.99 
92.57 -533.83 0.96 
92.70 -533.38 0.93 
92.88 -532.97 0.90 
92.40 -532.44 0.84 
92.22 -532.19 0.82 
105.05 -546.41 2.81 
105.06 -546.29 2.80 
107.22 -534.00 1.75 
107.11 -534.18 2.06 
107.17 -533.86 2.05 
99.49 -533.73 1.63 
99.52 -533.49 1.61 
99.64 -532.71 1.56 
107.10 -534.14 2.37 
107.16 -533.83 2.36 
99.46 -533.68 2.09 
99.49 -533.49 2.01 
99.56 -533.16 1.92 
99.63 -532.89 1.77 
99.57 -532.96 2.04 
99.62 -532.75 2.03 
107.09 -534.13 2.68 
107.15 -533.86 2.67 
107.18 -533.57 2.67 
107.05 -534.25 2.99 
103.30 -533.57 2.82 
103.30 -533.35 3.03 
103.12 -533.07 4.22 
105.91 -538.96 1.65 
106.03 -538.55 1.62 
106.07 -538.34 1.60 
107.25 -533.90 1.25 
105.73 -539.16 1.66 
105.79 -539.10 1.65 
106.08 -538.06 1.57 
106.05 -537.75 1.54 
105.99 -537.35 1.50 
105.97 -537.07 1.48 
105.95 -537.15 1.48 
105.82 -536.82 1.45 
