# .PCD v0.7 - Point Cloud Data file format
VERSION 0.7
FIELDS x y z
SIZE 4 4 4
TYPE F F F
COUNT 1 1 1
WIDTH 749
HEIGHT 1
VIEWPOINT 0 0 0 1 0 0 0
POINTS 749
DATA ascii
137.12 -674.77 0.81 
136.88 -674.87 1.84 
137.30 -675.10 0.79 
137.77 -674.47 1.16 
137.65 -674.29 2.09 
138.20 -674.41 -0.17 
138.59 -674.17 0.21 
138.42 -673.44 1.18 
138.55 -673.25 1.83 
138.34 -673.53 0.38 
138.34 -673.52 -0.23 
138.37 -673.43 0.37 
138.32 -673.10 0.96 
137.62 -675.81 -0.10 
137.08 -675.59 0.80 
137.38 -675.96 -0.35 
137.72 -676.03 0.29 
137.42 -675.63 0.88 
137.61 -676.06 -0.28 
137.42 -675.97 0.33 
137.43 -675.82 0.95 
137.74 -676.33 0.44 
137.47 -675.89 1.04 
138.23 -676.55 0.28 
138.66 -676.49 0.94 
137.93 -676.35 1.15 
138.25 -676.55 0.98 
137.29 -676.15 1.15 
138.04 -676.56 0.76 
136.99 -676.06 0.91 
137.08 -676.26 0.93 
137.12 -676.08 1.58 
136.82 -676.13 -0.19 
137.95 -676.29 0.99 
137.03 -675.90 1.15 
138.05 -676.05 1.66 
137.96 -676.57 0.47 
136.40 -676.10 0.09 
137.04 -676.31 0.58 
136.62 -675.46 2.13 
137.26 -675.45 -0.33 
137.12 -675.19 0.31 
136.36 -674.74 0.50 
136.83 -674.68 1.24 
137.10 -674.46 1.62 
138.15 -675.16 0.76 
138.10 -674.74 1.95 
137.43 -674.83 -0.32 
137.61 -675.21 0.34 
137.77 -675.07 0.93 
137.70 -674.67 2.09 
137.49 -674.90 -0.05 
137.49 -675.24 0.58 
137.46 -674.93 1.12 
137.81 -674.96 2.34 
137.26 -674.91 0.23 
137.62 -675.24 0.86 
137.57 -675.05 1.98 
137.48 -674.83 2.51 
137.20 -675.53 0.01 
136.98 -674.95 -0.08 
137.01 -674.95 0.47 
137.18 -675.32 1.08 
137.29 -675.11 2.17 
137.20 -674.89 2.69 
136.83 -674.99 0.12 
137.09 -675.44 0.74 
136.82 -674.89 0.65 
136.95 -675.27 1.25 
136.99 -675.17 1.77 
137.01 -674.50 2.79 
136.59 -674.98 0.37 
136.78 -674.63 0.86 
137.04 -675.13 1.48 
136.87 -674.97 1.97 
136.52 -675.51 0.66 
136.42 -674.94 0.57 
136.50 -675.40 1.16 
136.51 -675.02 2.66 
136.25 -676.73 1.05 
136.11 -676.31 1.49 
136.31 -675.95 1.96 
136.30 -676.46 2.54 
135.97 -676.31 1.25 
135.99 -676.37 1.76 
136.21 -676.57 2.31 
136.19 -675.98 2.21 
136.28 -675.83 3.22 
135.60 -676.03 1.67 
135.65 -676.22 2.25 
135.34 -675.87 1.94 
135.60 -675.89 2.49 
135.54 -675.78 3.56 
135.51 -676.15 4.16 
140.58 -675.49 2.24 
135.19 -676.30 2.25 
135.45 -676.18 2.78 
135.50 -675.99 4.39 
135.36 -676.21 4.95 
140.42 -674.96 2.42 
135.29 -676.29 3.05 
135.38 -677.17 4.01 
135.13 -676.39 4.69 
134.93 -676.57 5.03 
134.94 -677.55 4.14 
134.78 -676.96 5.39 
140.00 -676.06 3.41 
134.54 -677.05 5.12 
134.62 -677.71 6.18 
134.81 -676.80 6.27 
134.57 -676.97 4.90 
134.30 -677.31 5.51 
134.38 -677.48 6.14 
134.18 -678.01 5.15 
134.13 -677.42 5.25 
134.20 -677.19 5.81 
133.95 -677.73 4.40 
133.90 -677.75 5.03 
133.97 -677.51 5.61 
134.12 -677.47 5.33 
133.78 -677.74 7.30 
133.46 -677.81 5.04 
133.03 -678.58 5.61 
133.80 -677.47 5.68 
132.95 -678.13 5.49 
133.11 -677.70 7.60 
132.95 -678.48 8.38 
133.18 -677.69 6.45 
132.79 -677.80 7.19 
132.82 -677.77 7.94 
132.66 -678.39 8.72 
132.60 -678.26 6.85 
132.60 -678.19 7.62 
132.45 -678.25 8.40 
132.39 -678.09 7.96 
132.50 -678.17 8.79 
131.96 -678.45 8.35 
131.78 -678.50 9.20 
130.77 -679.04 7.94 
130.54 -679.16 7.35 
130.32 -679.05 10.14 
129.48 -679.18 12.94 
129.49 -679.16 13.97 
137.21 -674.92 -0.19 
137.19 -675.20 -0.17 
137.12 -674.98 0.82 
137.07 -674.67 1.82 
137.53 -674.97 -0.18 
137.47 -675.16 -0.17 
137.28 -675.22 -0.16 
137.53 -674.82 0.77 
137.43 -674.66 1.72 
137.39 -674.24 2.69 
137.85 -674.62 0.25 
137.54 -674.87 0.27 
137.49 -674.59 1.18 
137.83 -674.71 -0.26 
138.21 -674.30 -0.23 
138.11 -674.53 -0.21 
137.81 -674.61 -0.21 
138.05 -674.61 -0.16 
137.86 -674.70 -0.15 
138.15 -673.84 1.69 
138.58 -674.08 0.20 
138.42 -674.30 0.21 
138.24 -674.34 0.21 
138.53 -673.33 1.90 
138.61 -673.50 1.18 
138.39 -673.20 1.71 
138.42 -672.91 2.36 
138.51 -673.61 0.39 
138.43 -673.16 1.63 
138.32 -672.55 2.93 
138.22 -673.10 1.78 
138.19 -672.60 3.05 
138.33 -673.35 0.36 
138.52 -673.45 0.37 
138.31 -672.89 1.57 
138.28 -672.33 2.82 
138.08 -672.88 1.31 
135.16 -675.19 1.94 
137.49 -675.84 -0.69 
137.26 -676.09 -0.41 
137.57 -675.78 -0.11 
137.15 -675.89 0.19 
137.26 -675.75 0.81 
137.18 -675.58 1.42 
137.61 -675.15 1.66 
137.58 -674.76 2.28 
137.75 -676.12 -0.33 
137.61 -676.15 -0.33 
137.62 -675.99 0.28 
137.40 -675.83 0.26 
137.91 -675.55 0.59 
137.65 -675.85 0.90 
137.99 -675.46 1.20 
137.65 -675.63 1.52 
138.01 -675.28 1.81 
138.00 -674.95 2.43 
137.59 -675.08 2.79 
138.05 -676.07 -0.52 
137.17 -676.00 -0.30 
137.41 -676.13 -0.28 
137.67 -675.84 0.33 
137.25 -675.87 0.31 
137.97 -675.33 1.28 
137.62 -675.81 0.96 
137.27 -675.65 0.94 
137.29 -675.45 1.56 
137.54 -675.64 1.58 
138.00 -675.17 1.90 
137.69 -675.44 2.22 
138.03 -675.12 2.71 
137.52 -675.24 2.86 
138.10 -674.71 3.18 
137.98 -676.37 -0.82 
138.11 -676.35 -0.30 
137.40 -676.28 -0.21 
137.57 -676.27 0.43 
137.43 -676.11 0.41 
137.97 -676.11 1.08 
137.68 -676.10 1.06 
138.31 -675.83 1.44 
137.63 -675.82 1.69 
137.99 -675.95 1.71 
137.79 -675.95 1.70 
138.47 -675.48 2.72 
138.43 -675.06 3.37 
138.16 -676.35 0.27 
137.79 -676.53 0.51 
137.48 -676.41 0.49 
138.18 -676.23 0.90 
138.46 -676.51 0.93 
138.34 -676.46 0.92 
137.46 -676.04 1.11 
137.71 -676.40 1.14 
137.55 -676.26 1.13 
138.27 -676.14 1.54 
137.60 -676.03 1.77 
138.59 -676.29 1.57 
138.33 -676.25 1.55 
137.85 -676.19 1.79 
138.55 -676.09 2.21 
138.34 -675.88 2.19 
138.75 -675.73 2.88 
138.59 -675.51 3.53 
138.42 -675.42 3.51 
137.41 -676.48 0.52 
137.96 -676.28 0.95 
138.05 -676.50 0.96 
137.62 -676.38 1.18 
137.43 -676.34 1.17 
137.40 -675.79 1.80 
137.66 -676.19 1.83 
137.46 -676.16 1.82 
137.75 -675.97 2.49 
138.00 -675.70 3.18 
137.58 -675.76 3.14 
137.52 -675.29 3.82 
136.93 -676.28 0.26 
137.71 -676.34 0.73 
137.65 -676.14 0.71 
137.80 -676.48 0.74 
137.46 -676.36 0.95 
137.25 -676.40 0.95 
138.16 -676.29 1.41 
137.87 -676.22 1.39 
137.54 -676.10 1.48 
137.20 -676.18 1.59 
137.90 -676.33 1.40 
137.88 -675.44 2.71 
137.90 -675.38 3.39 
136.91 -676.36 -0.17 
137.08 -676.25 0.50 
137.84 -676.37 0.99 
137.63 -676.16 0.96 
137.23 -676.18 1.17 
137.64 -675.88 1.62 
137.85 -676.11 1.65 
137.62 -675.97 1.62 
137.07 -675.81 1.82 
137.37 -676.02 1.85 
137.20 -675.92 1.83 
137.81 -675.06 3.68 
137.60 -676.63 0.46 
137.43 -676.45 0.43 
137.53 -676.04 1.09 
137.63 -675.73 2.45 
137.27 -675.58 3.37 
137.83 -675.27 3.87 
136.77 -676.15 -0.13 
136.29 -675.95 0.07 
136.58 -676.22 0.10 
136.79 -676.04 0.54 
136.45 -675.91 0.76 
136.45 -675.58 0.73 
136.87 -676.13 0.68 
136.61 -676.07 0.78 
136.52 -675.71 1.45 
136.65 -675.91 1.46 
137.00 -675.43 2.59 
136.67 -675.27 2.83 
137.11 -675.21 3.29 
137.14 -674.79 4.00 
136.53 -674.99 -0.16 
136.28 -674.78 -0.20 
137.33 -675.27 0.33 
137.02 -675.00 0.28 
136.63 -674.86 0.53 
136.33 -674.66 0.49 
136.57 -674.71 1.22 
136.41 -674.58 1.20 
136.75 -674.52 1.93 
136.48 -674.35 1.90 
136.60 -674.52 1.92 
136.77 -674.35 2.64 
136.56 -674.13 2.61 
137.44 -673.71 3.73 
136.80 -673.85 1.56 
136.94 -673.85 2.25 
136.90 -673.61 2.23 
137.98 -675.43 -0.45 
137.91 -675.16 0.13 
137.99 -675.09 0.74 
137.95 -674.81 0.70 
138.08 -674.96 1.35 
138.00 -674.68 1.32 
138.24 -674.87 1.98 
138.11 -674.51 1.93 
138.19 -674.58 2.58 
138.19 -674.36 2.56 
138.50 -673.93 3.87 
137.58 -675.32 -0.24 
137.43 -675.10 -0.28 
137.46 -674.97 0.30 
137.48 -674.70 0.27 
137.65 -675.09 0.93 
137.52 -674.88 0.89 
137.79 -674.94 1.53 
137.61 -674.76 1.49 
137.74 -674.64 2.10 
137.74 -674.33 2.68 
138.05 -673.94 3.95 
137.51 -675.38 0.02 
137.37 -675.18 -0.01 
137.74 -675.29 0.61 
137.53 -675.28 0.59 
137.41 -675.01 0.55 
137.72 -675.20 1.18 
137.56 -675.11 1.15 
137.49 -674.93 1.13 
137.74 -675.08 1.76 
137.54 -674.81 1.71 
137.64 -674.75 2.30 
137.61 -674.49 2.27 
137.70 -674.52 2.88 
137.70 -674.35 2.87 
137.95 -674.19 4.12 
137.49 -675.49 -0.25 
137.23 -675.34 -0.28 
137.18 -675.09 -0.32 
137.45 -675.37 0.30 
137.26 -675.20 0.27 
137.46 -675.28 0.85 
137.30 -675.12 0.82 
137.30 -674.81 0.78 
137.49 -675.18 1.41 
137.43 -674.65 1.34 
137.36 -675.07 1.38 
137.29 -674.90 1.36 
137.41 -674.94 1.95 
137.39 -674.68 1.91 
137.65 -674.93 2.55 
137.49 -674.54 2.49 
137.50 -674.46 3.06 
137.65 -674.37 3.66 
137.01 -675.39 -0.01 
136.94 -675.20 -0.05 
137.09 -675.35 0.53 
136.96 -675.14 0.50 
137.03 -675.20 1.05 
136.98 -675.05 1.03 
137.01 -674.88 1.01 
137.14 -675.16 1.61 
137.06 -674.85 1.56 
137.16 -675.00 2.14 
137.10 -674.79 2.11 
137.23 -674.52 2.65 
137.17 -674.72 2.67 
137.28 -674.50 3.22 
137.54 -674.13 4.38 
136.79 -675.34 0.18 
136.93 -675.35 0.72 
136.82 -675.27 0.70 
136.79 -675.04 0.67 
137.08 -675.36 1.27 
136.83 -675.18 1.23 
136.82 -674.88 1.18 
136.94 -675.17 1.77 
136.89 -674.70 1.70 
136.85 -675.03 1.74 
136.85 -674.86 1.72 
136.94 -675.00 2.29 
136.92 -674.68 2.25 
136.97 -674.66 2.80 
137.09 -674.39 3.34 
137.17 -674.41 3.91 
137.32 -674.12 4.48 
136.72 -675.22 0.41 
136.67 -674.80 0.35 
136.68 -675.07 0.92 
136.62 -674.86 0.88 
136.72 -675.00 1.43 
136.66 -674.72 1.39 
136.74 -674.88 1.95 
136.73 -674.59 1.91 
136.85 -674.87 2.49 
136.77 -674.74 2.46 
136.76 -674.50 2.43 
136.91 -674.30 3.51 
137.02 -674.25 4.07 
136.43 -675.40 0.65 
136.36 -675.30 0.63 
136.37 -675.08 0.59 
136.39 -675.26 1.14 
136.44 -674.94 1.09 
136.36 -675.11 1.12 
136.46 -675.25 1.66 
136.43 -674.95 1.61 
136.59 -675.19 2.17 
136.46 -674.85 2.11 
136.51 -674.97 2.66 
136.52 -674.78 2.64 
136.62 -674.61 3.15 
136.71 -674.51 3.68 
136.62 -674.69 3.69 
136.96 -674.30 4.78 
136.31 -676.12 0.96 
136.30 -676.03 1.46 
136.17 -676.52 1.53 
136.19 -676.16 1.47 
136.20 -676.46 2.03 
136.18 -676.16 1.98 
136.26 -676.01 2.47 
136.39 -675.87 2.46 
136.20 -676.31 2.51 
136.18 -676.16 2.49 
136.31 -675.93 2.98 
136.39 -675.80 2.97 
136.34 -675.93 3.50 
136.45 -675.72 3.48 
136.41 -675.85 4.01 
136.51 -675.64 4.00 
136.67 -675.60 5.09 
136.16 -676.63 1.81 
136.01 -676.35 1.76 
136.16 -676.04 1.72 
136.04 -676.31 2.26 
136.27 -675.90 2.72 
136.08 -676.20 2.75 
136.20 -675.91 3.74 
136.35 -675.76 3.74 
136.25 -675.91 4.26 
136.41 -675.68 4.25 
136.65 -675.53 5.34 
135.40 -676.21 1.69 
135.63 -676.24 2.79 
135.79 -676.30 3.20 
135.94 -676.38 4.61 
136.06 -676.23 4.60 
135.69 -676.08 4.42 
136.20 -676.17 5.15 
136.18 -676.25 5.69 
135.58 -675.70 1.92 
135.33 -676.36 2.01 
135.27 -676.05 1.96 
135.47 -676.30 2.55 
135.44 -676.06 2.51 
135.47 -676.30 3.09 
135.52 -675.90 3.03 
135.40 -676.15 3.06 
135.46 -676.23 3.62 
135.48 -675.91 3.57 
135.40 -676.08 3.59 
135.89 -676.50 4.43 
135.66 -676.74 4.44 
135.77 -676.61 4.43 
135.51 -676.09 4.15 
135.53 -675.83 4.11 
135.82 -676.55 4.95 
135.65 -676.23 4.74 
135.51 -676.00 4.68 
135.57 -675.77 4.66 
135.96 -676.44 4.95 
135.84 -676.63 5.50 
136.08 -676.38 5.50 
135.99 -676.45 6.03 
135.71 -676.08 5.84 
135.72 -675.69 6.35 
135.70 -675.84 6.37 
140.59 -675.65 2.27 
135.20 -676.36 2.25 
135.31 -676.14 2.22 
135.28 -676.33 2.79 
135.49 -676.11 3.31 
135.29 -676.26 3.32 
135.38 -676.13 3.85 
135.63 -676.90 4.22 
135.67 -676.84 4.74 
135.37 -676.43 4.44 
135.37 -676.12 4.40 
135.44 -676.44 5.00 
135.49 -676.05 4.95 
135.62 -676.90 5.27 
135.40 -676.23 5.52 
135.71 -676.85 5.82 
136.06 -676.69 6.41 
135.55 -675.93 6.06 
135.62 -676.30 6.70 
140.45 -674.93 2.42 
140.40 -675.12 2.45 
135.24 -676.26 2.50 
135.22 -676.28 3.59 
135.15 -676.68 4.19 
135.22 -676.29 4.13 
135.17 -677.33 4.54 
135.31 -677.18 4.53 
135.20 -676.62 4.73 
135.24 -676.27 4.68 
135.18 -676.54 5.27 
135.26 -676.24 5.23 
135.49 -677.00 5.60 
135.38 -677.10 5.60 
135.22 -676.38 5.80 
135.58 -677.03 6.72 
135.37 -676.17 6.36 
135.67 -676.77 6.89 
140.30 -674.66 2.69 
135.00 -677.38 4.89 
135.09 -677.31 4.89 
135.08 -677.31 5.43 
135.07 -676.92 5.10 
135.14 -676.38 5.02 
134.95 -676.73 5.06 
135.23 -677.05 5.56 
135.01 -676.63 5.60 
135.16 -676.38 5.58 
135.33 -677.17 5.99 
135.14 -677.26 5.98 
135.11 -676.41 6.71 
135.22 -676.27 6.71 
135.42 -677.17 7.14 
135.20 -676.66 7.35 
140.21 -675.93 3.14 
134.97 -677.45 5.24 
134.91 -676.59 5.34 
134.77 -676.79 5.36 
134.87 -677.49 5.79 
135.02 -677.40 5.79 
134.82 -676.73 5.92 
134.98 -676.53 5.91 
134.78 -676.90 5.94 
135.20 -677.40 6.39 
134.93 -677.44 6.35 
135.00 -677.05 6.57 
135.22 -677.37 7.55 
139.98 -676.09 3.41 
134.55 -676.95 5.11 
134.76 -677.69 5.61 
134.64 -676.87 5.10 
134.82 -676.79 5.10 
134.51 -677.20 5.15 
134.65 -677.35 5.76 
134.66 -676.83 5.67 
134.52 -677.04 5.70 
134.76 -677.63 6.18 
134.64 -677.28 6.33 
134.66 -676.85 6.26 
134.54 -677.07 6.28 
134.67 -677.67 6.76 
134.54 -677.78 6.77 
135.03 -677.56 8.00 
134.28 -678.07 4.26 
134.32 -677.38 4.37 
134.34 -677.96 4.83 
134.31 -677.30 4.93 
134.42 -677.08 4.90 
134.38 -677.92 5.41 
134.52 -677.04 5.49 
134.40 -677.55 5.56 
134.39 -677.09 5.48 
134.47 -677.89 6.02 
134.58 -676.99 6.08 
134.26 -677.96 6.01 
134.36 -677.18 6.08 
134.40 -677.13 6.67 
134.69 -676.97 6.68 
134.40 -677.42 6.73 
134.52 -677.79 7.21 
134.84 -677.69 8.48 
134.70 -677.77 8.48 
134.12 -678.12 4.56 
133.87 -678.26 4.57 
134.16 -677.50 4.67 
134.45 -677.02 5.21 
134.18 -677.24 5.23 
134.32 -677.13 5.22 
134.20 -677.96 5.75 
134.37 -677.08 5.81 
134.22 -677.59 5.89 
134.13 -677.35 5.84 
134.32 -677.95 6.38 
134.46 -677.06 6.42 
134.14 -677.95 6.36 
134.24 -677.54 6.49 
134.21 -677.22 6.42 
134.37 -677.05 7.02 
134.25 -677.47 7.09 
134.20 -677.25 7.03 
134.39 -677.87 7.62 
134.74 -677.80 8.96 
134.46 -677.82 8.91 
134.35 -677.51 4.38 
133.94 -677.90 4.43 
134.06 -677.56 4.38 
134.05 -677.51 5.00 
134.15 -677.40 5.61 
134.29 -677.41 6.25 
133.93 -677.73 6.27 
134.08 -677.41 6.23 
134.18 -677.32 6.86 
133.94 -678.22 6.84 
133.95 -677.68 6.90 
134.06 -677.43 6.86 
134.11 -678.15 7.50 
134.13 -677.40 7.50 
134.30 -677.32 7.51 
133.99 -677.64 7.53 
133.95 -678.16 8.15 
134.12 -677.73 8.88 
134.32 -678.11 9.56 
133.82 -678.06 4.76 
133.81 -677.71 4.71 
133.71 -677.85 5.37 
133.87 -677.60 5.34 
134.12 -677.40 5.96 
133.72 -677.78 6.00 
133.87 -677.54 5.97 
133.71 -677.71 6.63 
133.85 -677.51 6.61 
134.11 -677.46 7.28 
133.80 -677.56 7.27 
133.98 -677.40 7.25 
134.08 -677.40 7.92 
133.86 -677.54 7.92 
133.85 -678.17 8.61 
133.81 -677.81 8.64 
133.87 -677.79 9.32 
133.89 -677.57 9.27 
134.09 -678.16 10.07 
133.51 -677.89 5.06 
133.63 -677.61 5.02 
133.05 -678.54 5.60 
133.41 -677.88 5.72 
133.56 -677.61 5.69 
133.83 -677.42 6.34 
133.42 -677.82 6.38 
133.55 -677.54 6.34 
133.48 -678.34 7.00 
133.45 -677.64 7.03 
133.70 -677.46 7.01 
133.24 -678.34 6.98 
133.77 -677.45 7.70 
133.53 -677.51 7.69 
133.74 -677.40 8.37 
133.54 -677.59 8.39 
133.56 -678.20 9.14 
133.59 -677.78 9.84 
133.67 -678.19 10.65 
133.14 -677.84 5.45 
133.18 -677.77 6.17 
133.15 -677.68 6.87 
133.40 -677.73 7.63 
132.93 -678.13 7.67 
132.93 -677.82 7.61 
132.96 -678.10 8.41 
133.05 -677.75 8.34 
132.99 -678.06 9.15 
133.10 -677.74 9.09 
133.28 -677.69 9.85 
132.97 -677.98 9.88 
133.04 -677.77 9.83 
132.96 -677.75 6.45 
132.80 -677.87 6.46 
132.71 -678.56 7.15 
133.03 -677.66 7.18 
132.83 -677.90 7.21 
132.82 -677.83 7.95 
133.00 -677.67 7.93 
132.76 -678.04 7.98 
132.85 -677.74 8.70 
132.97 -677.70 8.70 
132.76 -677.97 8.74 
132.98 -677.68 9.46 
133.13 -677.63 10.24 
132.82 -677.92 10.27 
132.96 -677.72 10.24 
132.43 -678.35 6.85 
132.41 -678.27 7.62 
132.54 -678.25 8.41 
132.21 -678.48 8.39 
132.32 -678.51 9.16 
132.45 -678.23 9.20 
132.27 -678.35 9.21 
132.53 -678.26 10.01 
132.66 -678.31 10.86 
132.36 -678.33 10.82 
132.52 -678.23 10.82 
132.41 -678.30 6.37 
132.42 -678.19 7.16 
132.28 -678.16 9.60 
132.34 -678.18 10.44 
132.36 -678.17 11.28 
132.03 -678.61 7.53 
131.73 -678.55 7.51 
131.65 -678.51 7.50 
131.72 -678.48 8.34 
131.65 -678.45 8.34 
131.48 -678.58 8.35 
131.67 -678.43 9.18 
131.48 -678.52 9.19 
131.72 -678.45 10.06 
131.53 -678.53 10.06 
131.57 -678.55 10.93 
131.75 -678.42 10.92 
131.80 -678.45 11.81 
130.52 -679.06 7.93 
130.76 -678.97 8.83 
130.59 -679.03 10.68 
130.31 -679.09 11.60 
130.54 -678.98 11.59 
130.43 -679.07 12.54 
130.23 -679.33 13.56 
130.30 -678.98 11.08 
130.16 -679.16 13.05 
129.95 -679.31 13.06 
129.91 -679.15 13.49 
129.32 -679.28 10.27 
129.12 -679.37 10.62 
