# .PCD v0.7 - Point Cloud Data file format
VERSION 0.7
FIELDS x y z
SIZE 4 4 4
TYPE F F F
COUNT 1 1 1
WIDTH 2454
HEIGHT 1
VIEWPOINT 0 0 0 1 0 0 0
POINTS 2454
DATA ascii
128.93 2.14 -1.51 
128.85 2.41 -1.51 
128.81 3.00 -1.51 
128.79 3.56 -1.51 
128.75 4.13 -1.51 
122.19 11.61 -0.68 
122.22 11.88 -0.69 
120.43 15.51 -0.24 
120.75 15.52 -0.24 
121.11 15.55 -0.25 
127.45 17.83 -0.38 
127.63 19.67 -0.42 
127.59 19.92 -0.43 
127.65 19.84 -0.43 
129.13 -3.75 -1.49 
129.17 -3.26 -1.50 
119.66 4.68 -0.38 
128.68 4.75 -0.70 
119.83 4.90 -0.40 
120.08 5.11 -0.42 
128.67 5.26 -0.71 
120.31 5.56 -0.44 
120.58 5.37 -0.45 
121.38 5.36 -0.48 
128.67 5.69 -0.72 
120.25 5.61 -0.44 
120.68 5.78 -0.46 
121.03 5.71 -0.47 
128.59 5.90 -0.73 
128.54 6.89 -0.75 
128.27 8.17 -0.77 
128.33 7.97 -0.76 
128.30 8.44 -0.77 
128.23 8.62 -0.77 
119.76 11.36 -0.01 
119.97 11.57 -0.03 
119.77 11.63 -0.03 
120.07 11.72 -0.04 
120.41 11.86 -0.06 
121.48 11.95 -0.09 
120.03 12.16 -0.06 
120.71 12.03 -0.08 
120.11 12.59 -0.09 
120.45 12.69 -0.10 
120.95 12.48 -0.11 
121.15 12.70 -0.12 
134.94 13.11 -0.93 
135.36 13.03 -0.93 
121.32 12.96 -0.14 
134.70 13.94 -0.93 
127.94 14.76 -0.28 
127.82 17.11 -0.36 
127.50 17.58 -0.37 
127.69 19.54 0.09 
127.65 19.97 0.07 
127.71 19.77 0.08 
119.97 -4.00 -0.13 
119.59 -3.54 -0.13 
120.10 -3.43 -0.15 
120.44 -3.56 -0.17 
121.26 -3.53 -0.21 
128.94 -0.65 -0.58 
128.90 0.08 -0.60 
128.96 0.45 -0.61 
128.86 0.75 -0.61 
128.83 1.38 -0.63 
128.93 1.09 -0.62 
128.89 1.73 -0.64 
128.79 2.00 -0.64 
128.77 2.61 -0.66 
128.72 3.20 -0.67 
128.69 3.77 -0.68 
119.59 5.03 0.32 
119.81 5.30 0.30 
120.17 5.34 0.28 
120.44 5.82 0.25 
128.14 8.78 -0.07 
128.14 9.14 -0.08 
128.12 9.55 -0.10 
120.31 11.11 0.56 
120.19 11.53 0.53 
120.63 11.82 0.50 
121.68 11.93 0.48 
120.87 12.05 0.48 
121.12 12.19 0.47 
121.66 12.03 0.47 
127.95 12.31 -0.20 
120.01 12.51 0.47 
127.80 15.74 0.26 
127.72 17.11 0.19 
127.75 17.32 0.18 
129.06 -2.84 -0.53 
129.13 -2.44 -0.54 
129.02 -2.08 -0.55 
129.10 -1.70 -0.56 
128.70 4.70 0.10 
120.06 4.83 0.31 
120.50 5.00 0.29 
121.05 4.88 0.27 
128.71 5.19 0.08 
128.64 5.59 0.06 
128.58 5.94 0.05 
128.61 6.31 0.03 
128.53 6.93 0.01 
128.59 7.20 -0.01 
120.04 10.68 0.60 
121.30 11.07 0.54 
127.83 17.20 0.75 
127.75 17.54 0.72 
127.73 17.88 0.70 
127.69 18.32 0.67 
127.66 18.69 0.65 
127.67 19.00 0.63 
127.63 20.30 0.56 
128.91 2.26 0.20 
128.73 2.71 0.18 
128.71 3.26 0.16 
128.68 3.83 0.13 
128.66 4.37 0.11 
128.20 7.90 0.70 
128.21 8.26 0.68 
128.09 10.04 0.57 
120.51 11.14 1.14 
127.90 11.04 0.51 
120.98 11.43 1.11 
121.41 11.32 1.12 
121.57 11.30 1.12 
120.29 11.82 1.08 
120.68 11.75 1.08 
120.34 12.15 1.05 
127.74 18.03 1.23 
127.74 18.27 1.21 
127.73 19.33 1.13 
127.63 20.07 1.07 
128.33 6.83 0.76 
128.20 7.48 0.72 
127.86 15.96 1.40 
127.86 16.34 1.37 
127.82 16.76 1.33 
127.88 16.64 1.35 
127.87 16.91 1.32 
136.71 3.08 2.92 
120.82 12.80 -2.13 
120.47 2.12 -2.32 
128.44 5.34 -2.89 
119.60 5.53 -2.18 
121.65 5.56 -2.35 
128.42 5.68 -2.88 
128.36 6.08 -2.87 
120.15 6.31 -2.21 
120.48 6.27 -2.23 
119.88 6.55 -2.18 
120.81 6.59 -2.26 
121.18 6.72 -2.28 
128.15 9.86 -2.76 
128.11 10.31 -2.75 
128.03 11.87 -2.71 
120.01 12.15 -2.07 
120.21 12.29 -2.09 
121.05 12.63 -2.15 
127.98 13.54 -2.66 
127.98 13.85 -2.65 
127.87 14.93 -2.62 
120.90 15.89 -1.60 
120.43 -3.58 -2.43 
121.06 -3.35 -2.48 
120.09 -3.21 -2.39 
119.74 -2.72 -2.35 
128.99 -0.38 -3.07 
128.89 1.11 -3.03 
128.81 1.91 -3.00 
128.80 2.73 -2.98 
128.84 3.43 -2.97 
128.00 11.28 -2.07 
128.03 11.59 -2.07 
119.66 11.69 -1.50 
128.08 11.80 -2.08 
119.67 12.28 -1.50 
119.90 12.08 -1.52 
120.76 12.12 -1.58 
119.95 12.37 -1.52 
120.73 12.65 -1.58 
121.69 12.45 -1.65 
119.98 12.80 -1.53 
120.63 13.10 -1.58 
127.93 13.20 -2.06 
127.92 13.56 -2.05 
127.85 14.10 -2.05 
127.92 14.38 -2.05 
127.84 14.82 -2.04 
127.86 15.76 -2.03 
127.86 15.81 -2.03 
127.81 16.26 -2.03 
127.79 17.13 -2.02 
127.71 17.93 -2.01 
127.67 18.47 -2.00 
127.68 18.77 -2.00 
127.61 19.52 -1.98 
128.62 4.02 -2.14 
120.59 5.50 -1.56 
119.07 5.74 -1.44 
119.26 5.77 -1.45 
120.29 5.94 -1.54 
120.59 5.63 -1.56 
121.00 5.73 -1.59 
121.16 5.79 -1.61 
119.70 6.20 -1.49 
120.04 6.11 -1.52 
120.61 6.34 -1.56 
120.78 6.36 -1.58 
119.34 6.43 -1.46 
121.00 6.47 -1.59 
128.27 7.15 -2.11 
128.19 8.66 -2.10 
128.15 10.24 -2.09 
128.06 10.81 -2.08 
121.18 11.49 -1.04 
119.60 11.77 -0.94 
119.90 11.74 -0.96 
121.15 12.08 -1.05 
120.05 12.50 -0.99 
120.31 12.71 -1.01 
119.69 12.84 -0.97 
120.27 13.11 -1.02 
120.63 12.96 -1.04 
127.80 16.27 -1.48 
127.66 17.95 -1.48 
127.66 18.49 -1.49 
127.66 18.71 -1.49 
127.65 19.38 -1.49 
127.61 20.02 -1.49 
119.90 -3.40 -1.48 
129.09 -3.13 -2.18 
119.60 -3.14 -1.46 
120.12 -3.13 -1.50 
120.40 -3.05 -1.52 
120.70 -3.16 -1.55 
129.15 -2.68 -2.19 
128.66 -1.43 -2.15 
128.64 -0.69 -2.15 
128.83 -0.45 -2.16 
128.90 -0.09 -2.17 
128.76 0.92 -2.15 
128.78 2.53 -2.15 
119.82 6.31 -0.82 
120.06 6.02 -0.83 
120.52 6.07 -0.87 
121.11 6.11 -0.91 
119.94 12.68 -0.45 
120.15 13.06 -0.48 
120.47 13.11 -0.50 
120.42 13.21 -0.50 
120.91 13.28 -0.54 
120.77 15.67 -0.63 
127.70 17.74 -0.96 
127.59 19.24 -1.00 
127.72 19.29 -1.00 
128.72 3.90 -1.34 
128.75 4.33 -1.35 
128.76 4.78 -1.36 
119.51 4.93 -0.76 
119.88 5.05 -0.79 
120.99 5.12 -0.88 
128.70 5.18 -1.36 
119.83 5.40 -0.80 
120.49 5.36 -0.85 
121.17 5.27 -0.89 
128.37 5.71 -1.35 
119.94 5.67 -0.81 
120.41 5.53 -0.84 
128.36 6.23 -1.36 
128.01 7.23 -1.36 
127.97 7.56 -1.36 
128.16 8.30 -1.39 
119.39 11.09 -0.34 
119.66 11.29 -0.37 
119.45 11.51 -0.37 
119.75 11.67 -0.39 
119.78 12.08 -0.41 
119.99 11.95 -0.42 
121.83 12.24 -0.54 
120.15 12.57 -0.46 
120.96 12.69 -0.51 
121.33 12.54 -0.53 
121.61 12.35 -0.53 
122.05 12.55 -0.57 
121.22 12.91 -0.54 
135.43 14.11 -1.75 
120.85 15.91 -0.18 
121.06 15.91 -0.19 
120.54 15.92 -0.16 
120.69 15.93 -0.17 
120.97 15.93 -0.18 
127.81 16.17 -0.93 
127.60 18.70 -0.48 
127.67 19.18 -0.50 
119.29 -3.46 -0.52 
119.73 -3.53 -0.56 
120.03 -3.64 -0.58 
120.27 -3.47 -0.60 
120.85 -3.60 -0.64 
119.40 -3.19 -0.54 
120.46 -3.04 -0.63 
128.90 -1.16 -1.25 
128.87 -0.45 -1.26 
128.92 -0.02 -1.27 
128.83 0.28 -1.28 
128.89 0.67 -1.29 
128.81 1.14 -1.29 
128.77 1.60 -1.30 
128.81 2.10 -1.31 
128.79 2.69 -1.32 
128.75 3.32 -1.33 
119.54 5.00 -0.06 
120.41 5.00 -0.12 
120.62 5.01 -0.14 
119.80 5.28 -0.09 
120.12 5.22 -0.11 
120.81 5.14 -0.16 
119.92 11.22 0.18 
120.06 11.35 0.17 
119.56 11.85 0.16 
120.81 11.72 0.10 
121.25 11.90 0.07 
121.76 11.62 0.06 
121.32 12.04 0.05 
120.42 12.35 0.08 
134.44 12.86 -1.00 
121.35 13.11 -0.02 
134.90 13.46 -1.02 
134.46 13.55 -1.01 
134.97 13.63 -1.02 
135.46 13.80 -1.04 
127.69 19.58 -0.03 
127.73 19.37 -0.01 
127.69 19.89 -0.04 
127.73 19.72 -0.03 
127.67 20.30 -0.06 
129.09 -4.44 -1.19 
129.07 -3.10 -1.22 
128.97 -2.73 -1.22 
129.04 -2.31 -1.24 
128.93 -1.94 -1.24 
128.70 3.95 -0.54 
128.60 4.22 -0.55 
128.62 4.65 -0.56 
128.27 5.48 -0.58 
128.59 5.45 -0.59 
128.23 6.53 -0.62 
120.29 11.82 0.68 
134.20 12.04 -0.98 
120.10 11.87 0.69 
120.44 11.90 0.67 
121.03 12.12 0.62 
134.92 12.80 -1.01 
127.73 18.90 0.01 
127.63 20.05 0.43 
128.81 -0.21 -0.38 
128.87 0.19 -0.40 
128.81 0.68 -0.41 
128.74 1.15 -0.43 
128.80 1.52 -0.45 
128.72 1.81 -0.45 
128.69 2.43 -0.48 
128.65 3.06 -0.50 
128.62 3.66 -0.52 
119.90 4.60 0.65 
120.07 4.82 0.62 
120.22 4.92 0.61 
120.94 4.70 0.58 
121.18 4.72 0.56 
120.34 5.40 0.57 
119.45 5.48 0.62 
120.50 5.54 0.55 
128.19 7.12 0.09 
128.23 7.41 0.07 
128.12 10.06 -0.07 
119.76 11.28 0.76 
121.11 11.40 0.68 
121.31 11.42 0.67 
121.55 11.77 0.63 
121.84 11.86 0.61 
127.87 14.64 0.28 
127.79 17.11 0.65 
127.78 17.41 0.63 
127.72 17.81 0.59 
127.72 18.16 0.57 
119.80 -3.56 0.34 
129.00 -2.80 -0.28 
128.90 -2.44 -0.29 
128.98 -2.04 -0.31 
128.87 -1.69 -0.32 
128.85 -0.95 -0.35 
128.59 3.80 0.27 
128.62 4.22 0.25 
128.63 4.66 0.22 
128.56 4.89 0.21 
128.26 5.58 0.18 
128.54 5.43 0.18 
128.58 5.74 0.16 
128.22 6.13 0.15 
120.58 11.32 1.29 
120.83 11.34 1.28 
127.73 15.76 0.76 
128.69 3.08 0.31 
128.67 3.55 0.29 
128.07 9.07 0.68 
119.93 6.15 -2.54 
120.33 6.07 -2.57 
120.03 6.50 -2.53 
120.41 6.70 -2.55 
120.72 6.75 -2.56 
127.99 11.48 -2.76 
127.92 11.95 -2.74 
127.87 13.65 -2.66 
127.79 14.15 -2.63 
127.80 14.55 -2.62 
127.79 14.91 -2.60 
128.87 1.55 -3.25 
128.82 2.26 -3.22 
119.92 12.60 -1.73 
120.38 12.57 -1.76 
120.89 12.62 -1.78 
120.18 13.00 -1.74 
120.56 13.14 -1.75 
121.18 13.19 -1.78 
121.31 13.29 -1.79 
127.66 16.45 -1.99 
127.64 17.14 -1.97 
127.56 18.07 -1.95 
127.51 18.83 -1.92 
127.47 19.43 -1.90 
127.47 19.63 -1.90 
128.49 4.24 -2.33 
119.44 5.43 -1.85 
119.67 5.48 -1.87 
120.88 5.61 -1.93 
128.30 5.77 -2.29 
120.10 5.84 -1.88 
120.55 5.84 -1.91 
119.76 6.04 -1.86 
119.92 6.32 -1.86 
120.93 6.42 -1.91 
120.64 6.77 -1.89 
128.22 7.31 -2.25 
128.19 8.77 -2.21 
127.94 10.83 -2.15 
127.92 11.23 -2.14 
127.94 11.58 -2.13 
127.95 12.05 -2.12 
127.86 12.56 -2.10 
127.88 12.86 -2.10 
127.84 13.39 -2.08 
127.79 13.67 -2.07 
127.74 14.24 -2.06 
127.80 14.55 -2.05 
127.74 14.95 -2.04 
127.73 15.67 -2.02 
127.46 19.01 -1.44 
127.44 19.46 -1.43 
127.45 19.98 -1.43 
127.48 20.11 -1.43 
120.76 -3.62 -2.11 
129.18 -3.39 -2.53 
118.97 -3.55 -2.01 
120.84 -3.54 -2.11 
121.10 -3.26 -2.12 
119.57 -3.06 -2.03 
119.90 -2.83 -2.05 
120.26 -3.14 -2.07 
119.87 -2.30 -2.03 
128.93 -1.92 -2.49 
128.87 -0.37 -2.45 
128.77 1.16 -2.41 
128.84 2.75 -2.38 
119.62 11.84 -1.19 
119.82 11.97 -1.20 
120.66 11.74 -1.24 
119.91 12.31 -1.20 
120.08 12.60 -1.21 
120.26 12.48 -1.22 
120.74 12.62 -1.24 
121.37 13.24 -1.27 
127.73 14.85 -1.48 
127.62 16.39 -1.47 
127.57 17.96 -1.45 
128.86 3.32 -1.56 
119.12 5.20 -1.15 
119.31 5.31 -1.16 
119.65 5.28 -1.18 
120.32 5.38 -1.21 
121.00 5.23 -1.24 
119.83 5.86 -1.19 
120.02 5.94 -1.20 
120.73 5.61 -1.23 
120.18 6.55 -1.21 
120.70 6.60 -1.23 
120.40 6.83 -1.22 
120.30 11.14 -0.65 
121.96 11.79 -0.73 
119.59 12.20 -0.65 
121.56 12.24 -0.73 
119.99 12.39 -0.67 
120.32 12.69 -0.69 
120.81 12.44 -0.70 
121.02 12.76 -0.72 
119.65 12.93 -0.67 
120.01 12.92 -0.68 
120.45 12.97 -0.70 
120.81 12.99 -0.72 
120.93 13.13 -0.72 
127.78 15.08 -0.92 
120.71 15.79 -0.78 
127.70 16.29 -0.94 
127.51 17.79 -0.95 
127.60 17.88 -0.95 
129.10 -3.78 -1.58 
120.32 -3.27 -1.19 
120.04 -3.15 -1.17 
129.07 -2.91 -1.58 
119.70 -2.78 -1.16 
129.01 -2.04 -1.58 
129.06 -1.57 -1.58 
128.96 -1.21 -1.57 
129.04 -0.75 -1.58 
128.95 0.19 -1.57 
128.91 0.92 -1.57 
128.95 1.33 -1.57 
128.87 1.63 -1.57 
128.92 2.02 -1.57 
128.83 2.33 -1.56 
128.80 2.97 -1.56 
120.37 6.32 -0.54 
120.00 12.40 -0.14 
120.29 12.55 -0.15 
120.76 12.66 -0.17 
120.37 12.84 -0.17 
121.05 12.93 -0.19 
121.57 12.97 -0.21 
127.71 17.17 -0.43 
127.69 17.57 -0.44 
127.32 18.32 -0.46 
127.28 18.76 -0.48 
127.43 19.14 -0.48 
127.49 19.52 -0.49 
127.52 19.74 -0.50 
127.50 19.81 -0.50 
127.54 19.94 -0.50 
127.48 20.23 -0.51 
129.22 -4.23 -1.59 
119.95 5.36 -0.49 
120.13 5.44 -0.50 
120.48 5.34 -0.52 
121.02 5.21 -0.54 
119.96 11.30 -0.08 
119.48 11.73 -0.09 
119.73 12.09 -0.11 
120.19 12.32 -0.14 
121.03 12.26 -0.16 
122.10 12.23 -0.19 
134.49 12.45 -0.96 
134.91 12.67 -0.96 
135.18 12.65 -0.96 
120.81 12.49 -0.17 
121.57 12.68 -0.20 
127.68 17.57 0.07 
127.70 17.95 0.05 
127.69 18.33 0.03 
127.66 18.74 0.01 
127.62 19.14 0.00 
127.60 19.59 -0.02 
127.57 20.03 -0.04 
120.43 -3.92 -0.28 
120.74 -3.85 -0.29 
119.84 -3.44 -0.26 
120.08 -3.57 -0.27 
120.96 -3.55 -0.31 
120.08 -3.19 -0.28 
129.07 -1.56 -0.66 
128.96 -1.17 -0.67 
129.02 -0.73 -0.68 
128.92 -0.36 -0.68 
128.87 0.41 -0.70 
128.83 1.13 -0.71 
128.88 1.53 -0.72 
128.79 1.85 -0.72 
128.80 2.37 -0.73 
128.71 3.20 -0.75 
119.60 5.02 0.23 
119.85 4.98 0.22 
120.50 4.96 0.20 
121.15 4.94 0.17 
119.98 5.27 0.20 
120.24 5.15 0.20 
120.86 5.22 0.17 
120.57 5.55 0.17 
128.15 8.03 -0.13 
128.20 8.31 -0.14 
120.16 10.59 0.52 
120.24 10.98 0.49 
120.41 10.96 0.48 
121.31 11.52 0.42 
128.03 11.40 -0.25 
120.35 11.71 0.43 
120.69 11.73 0.42 
121.75 11.78 0.40 
120.47 11.99 0.41 
121.19 12.11 0.39 
121.41 12.28 0.37 
134.32 12.68 -0.27 
134.49 12.76 -0.27 
134.99 13.47 -0.28 
127.59 19.49 0.46 
129.23 -4.18 -0.61 
129.12 -3.77 -0.62 
129.07 -2.85 -0.64 
129.00 -1.98 -0.65 
128.77 3.57 0.04 
120.27 11.55 1.01 
120.76 11.66 0.99 
120.77 12.20 0.94 
127.74 17.23 0.60 
127.71 17.50 0.58 
127.62 19.24 0.95 
127.60 19.69 0.92 
128.94 1.45 0.12 
128.77 1.93 0.11 
128.83 2.31 0.09 
128.74 2.58 0.08 
128.70 3.24 0.05 
121.41 11.27 1.01 
127.82 16.31 1.20 
121.02 11.43 1.57 
120.59 11.61 1.56 
121.14 11.52 1.56 
127.92 15.03 1.31 
127.85 15.46 1.27 
127.85 15.90 1.23 
136.61 2.08 2.81 
136.64 2.52 2.77 
127.41 19.22 -2.30 
128.78 2.75 -2.59 
128.40 4.32 -2.51 
128.27 5.82 -2.44 
120.66 5.82 -2.18 
119.38 6.34 -2.11 
120.00 6.31 -2.13 
120.23 6.15 -2.15 
119.54 6.60 -2.10 
119.76 6.49 -2.11 
120.30 6.67 -2.13 
120.64 6.67 -2.14 
128.21 7.37 -2.37 
127.98 8.84 -2.30 
128.12 8.93 -2.31 
127.98 9.28 -2.29 
127.97 9.75 -2.27 
128.03 9.54 -2.28 
128.02 10.00 -2.26 
127.95 10.60 -2.23 
128.04 10.76 -2.23 
127.96 11.30 -2.20 
127.92 11.61 -2.18 
120.51 11.90 -1.92 
127.88 12.03 -2.17 
119.77 12.17 -1.88 
120.25 12.27 -1.89 
120.57 12.32 -1.90 
120.02 12.58 -1.87 
121.35 12.50 -1.92 
127.80 12.76 -2.13 
119.78 12.89 -1.85 
120.71 13.03 -1.88 
120.90 12.90 -1.89 
127.76 13.44 -2.10 
127.75 13.66 -2.09 
127.75 13.86 -2.08 
127.71 14.43 -2.06 
127.71 14.99 -2.03 
127.63 15.87 -1.99 
120.74 16.05 -1.75 
127.56 16.51 -1.96 
127.49 18.12 -1.89 
127.46 18.79 -1.86 
127.43 19.35 -1.84 
127.42 19.64 -1.82 
129.12 -3.33 -2.85 
120.32 -3.33 -2.54 
120.61 -3.39 -2.55 
120.23 -3.03 -2.52 
119.44 -2.67 -2.48 
129.07 -1.78 -2.79 
128.96 -0.33 -2.72 
128.77 1.22 -2.65 
119.51 11.78 -1.35 
119.44 12.27 -1.34 
119.91 12.33 -1.35 
121.04 12.33 -1.38 
121.23 12.37 -1.39 
119.62 12.48 -1.34 
119.70 12.89 -1.33 
120.08 13.03 -1.34 
119.87 13.26 -1.33 
120.16 13.35 -1.34 
120.77 15.95 -1.31 
127.60 16.45 -1.46 
127.50 17.98 -1.42 
127.37 19.61 -1.37 
127.36 19.96 -1.36 
128.46 2.62 -1.78 
128.52 2.99 -1.77 
119.52 5.47 -1.46 
128.29 5.71 -1.71 
119.62 6.06 -1.46 
120.30 6.37 -1.47 
119.19 6.36 -1.44 
119.87 6.51 -1.46 
136.04 7.60 -1.82 
135.66 7.76 -1.81 
135.46 12.45 -1.69 
135.25 13.01 -1.67 
135.24 13.28 -1.66 
135.59 13.51 -1.66 
134.94 13.79 -1.64 
135.05 14.11 -1.64 
135.36 14.21 -1.64 
127.74 14.32 -1.51 
127.67 14.92 -1.49 
120.68 15.87 -0.85 
127.56 17.89 -0.94 
127.42 19.44 -0.92 
129.25 -4.53 -1.94 
129.30 -3.96 -1.93 
129.18 -3.50 -1.92 
119.23 -3.41 -1.62 
119.55 -3.44 -1.63 
119.77 -3.28 -1.63 
120.06 -3.27 -1.64 
129.25 -3.01 -1.91 
120.26 -2.95 -1.64 
120.45 -2.55 -1.64 
129.11 -2.51 -1.90 
129.08 -1.67 -1.88 
129.13 -1.17 -1.87 
129.02 -0.79 -1.86 
129.08 -0.32 -1.85 
128.96 0.07 -1.84 
128.92 0.86 -1.83 
119.88 11.29 -0.82 
119.69 11.88 -0.82 
121.04 11.83 -0.85 
119.88 12.20 -0.82 
120.12 12.06 -0.83 
120.74 12.21 -0.84 
121.14 12.10 -0.85 
121.29 12.05 -0.86 
121.76 12.21 -0.87 
121.15 12.68 -0.85 
121.35 12.45 -0.86 
121.84 12.78 -0.87 
120.44 12.90 -0.84 
121.23 12.98 -0.86 
119.89 13.20 -0.83 
120.20 13.21 -0.83 
127.77 13.62 -0.96 
127.76 13.97 -0.96 
127.78 14.25 -0.95 
127.72 14.80 -0.95 
120.70 15.78 -0.40 
127.67 16.34 -0.95 
127.31 18.99 -0.46 
127.44 19.32 -0.47 
127.45 19.62 -0.47 
127.48 19.90 -0.47 
127.46 20.21 -0.48 
119.88 5.92 -0.79 
120.45 5.78 -0.81 
119.62 6.11 -0.79 
120.02 6.09 -0.80 
120.66 6.21 -0.82 
119.99 6.48 -0.80 
128.13 9.43 -0.97 
119.64 11.39 -0.26 
119.74 11.65 -0.27 
119.88 12.10 -0.28 
122.09 12.07 -0.32 
120.12 12.60 -0.30 
120.67 12.64 -0.31 
121.00 12.64 -0.32 
121.55 12.44 -0.32 
119.81 12.84 -0.30 
120.69 13.07 -0.33 
121.27 12.85 -0.33 
120.15 13.44 -0.33 
120.46 13.33 -0.33 
127.85 14.92 -0.40 
127.85 15.19 -0.41 
127.83 15.59 -0.42 
127.80 15.98 -0.42 
127.77 16.35 -0.43 
127.73 16.80 -0.43 
127.71 17.07 -0.44 
127.66 17.39 -0.44 
127.30 18.13 -0.45 
127.31 18.39 -0.46 
127.27 18.77 -0.46 
127.46 19.07 -0.46 
127.58 20.06 -0.03 
127.56 20.21 -0.03 
129.17 -4.29 -0.98 
129.24 -3.79 -0.98 
119.58 -3.57 -0.74 
120.21 -3.45 -0.76 
120.67 -3.58 -0.77 
129.13 -3.32 -0.98 
119.82 -3.28 -0.75 
120.27 -2.68 -0.76 
129.07 -2.39 -0.98 
119.44 11.98 0.26 
119.67 11.98 0.26 
120.60 12.26 0.23 
119.89 12.54 0.23 
120.28 12.44 0.23 
120.72 12.49 0.22 
120.14 12.86 0.21 
134.99 13.56 -0.30 
127.77 15.34 0.12 
127.80 15.55 0.12 
127.77 15.96 0.10 
127.75 16.31 0.09 
127.70 16.69 0.08 
127.66 17.13 0.06 
127.67 17.49 0.05 
127.69 17.96 0.04 
127.67 18.34 0.02 
127.64 18.72 0.01 
127.61 19.20 0.00 
127.59 19.55 -0.01 
127.59 19.85 -0.02 
119.67 4.97 -0.08 
119.81 5.12 -0.09 
119.97 5.21 -0.10 
120.41 5.35 -0.11 
120.66 5.13 -0.11 
120.10 11.46 0.28 
119.84 11.61 0.27 
121.23 11.67 0.25 
121.39 11.82 0.24 
121.83 11.80 0.24 
122.05 11.83 0.24 
120.19 11.96 0.25 
120.77 12.17 0.23 
121.01 11.96 0.24 
136.13 13.28 -0.28 
127.82 15.08 0.13 
127.59 16.70 0.58 
127.72 17.30 0.55 
127.70 17.57 0.54 
127.65 18.00 0.52 
127.65 18.35 0.50 
127.63 18.62 0.49 
127.57 19.13 0.46 
127.57 19.46 0.44 
127.56 19.89 0.42 
127.54 20.17 0.41 
119.85 -3.77 0.16 
120.11 -3.43 0.14 
120.32 -3.36 0.13 
128.93 0.17 -0.11 
119.47 4.73 0.63 
119.73 4.88 0.62 
120.07 4.94 0.61 
119.70 5.23 0.60 
120.22 5.27 0.59 
120.52 5.33 0.58 
119.96 11.50 0.83 
120.24 11.70 0.81 
121.10 11.58 0.81 
121.40 11.71 0.80 
119.99 12.12 0.78 
120.48 12.15 0.77 
121.08 12.26 0.76 
121.43 12.00 0.78 
121.71 12.11 0.77 
120.86 12.59 0.74 
120.49 12.75 0.73 
127.65 15.93 0.62 
127.63 16.37 0.60 
127.80 17.62 1.04 
127.75 17.94 1.02 
127.72 18.32 0.99 
127.72 18.67 0.97 
127.68 19.06 0.94 
127.64 19.54 0.90 
120.96 11.45 1.38 
120.27 11.69 1.36 
120.68 11.71 1.36 
121.00 11.98 1.33 
127.81 17.12 1.08 
127.79 17.39 1.06 
120.55 11.20 1.41 
128.01 14.36 1.28 
136.94 2.35 3.48 
136.92 3.86 3.34 
136.95 4.25 3.31 
137.05 4.99 3.25 
136.88 -0.32 3.73 
136.87 -0.01 3.70 
136.98 0.26 3.68 
136.81 0.88 3.61 
136.98 0.81 3.63 
137.00 1.32 3.58 
136.88 2.02 3.51 
136.90 -1.80 3.87 
136.90 -1.17 3.81 
136.96 -0.76 3.78 
127.35 19.37 -2.29 
127.31 19.64 -2.27 
128.31 4.37 -2.57 
128.50 4.40 -2.58 
128.34 5.96 -2.50 
119.93 5.91 -2.26 
120.58 5.91 -2.28 
119.31 6.32 -2.22 
119.63 6.18 -2.24 
120.05 6.19 -2.25 
120.33 6.18 -2.26 
120.53 6.66 -2.24 
128.06 8.26 -2.39 
128.03 8.81 -2.36 
128.05 9.25 -2.34 
128.06 9.64 -2.32 
128.05 10.05 -2.30 
127.89 10.47 -2.28 
127.95 10.94 -2.26 
127.91 11.43 -2.23 
127.89 11.72 -2.22 
127.86 12.17 -2.20 
120.21 12.38 -1.97 
120.58 12.24 -1.99 
121.07 12.28 -2.00 
127.77 12.72 -2.17 
120.02 12.68 -1.95 
120.39 12.57 -1.97 
121.59 12.83 -1.99 
127.82 12.93 -2.16 
119.81 12.96 -1.93 
120.64 13.17 -1.95 
120.87 13.06 -1.96 
127.79 13.34 -2.14 
120.51 13.27 -1.94 
127.73 13.73 -2.12 
127.66 14.48 -2.08 
127.66 15.10 -2.05 
127.63 15.88 -2.02 
127.58 16.00 -2.01 
120.75 16.11 -1.82 
127.56 16.48 -1.99 
127.51 17.25 -1.95 
127.41 18.16 -1.90 
127.48 18.26 -1.90 
127.36 19.41 -1.84 
127.35 19.76 -1.82 
129.29 -3.30 -2.96 
120.08 -3.11 -2.68 
129.07 -1.74 -2.88 
129.06 -0.16 -2.81 
128.99 1.37 -2.73 
121.61 11.98 -1.49 
121.10 12.34 -1.47 
121.37 12.39 -1.48 
119.57 12.47 -1.43 
119.70 12.58 -1.43 
120.30 12.77 -1.44 
120.78 12.78 -1.45 
119.64 13.10 -1.41 
119.78 13.10 -1.42 
120.14 12.92 -1.43 
120.62 12.88 -1.45 
119.92 13.31 -1.42 
120.29 13.37 -1.43 
127.73 14.46 -1.55 
127.70 15.01 -1.53 
120.78 16.04 -1.38 
127.60 16.53 -1.49 
127.45 18.07 -1.44 
127.32 19.34 -1.41 
127.35 19.71 -1.39 
119.39 5.72 -1.58 
119.56 5.68 -1.58 
119.52 6.35 -1.56 
119.84 6.06 -1.58 
120.24 6.20 -1.59 
119.87 6.74 -1.57 
128.00 10.42 -1.66 
135.10 11.99 -1.71 
127.92 11.98 -1.62 
135.23 12.42 -1.70 
127.84 12.57 -1.60 
135.54 12.70 -1.69 
134.78 12.99 -1.67 
134.89 13.12 -1.67 
135.19 13.43 -1.66 
135.20 14.29 -1.64 
120.69 15.92 -0.93 
120.80 15.96 -0.93 
127.47 18.00 -0.98 
127.50 18.01 -0.98 
127.43 19.51 -0.97 
119.01 -2.93 -1.76 
119.27 -2.91 -1.77 
119.53 -3.11 -1.78 
120.06 -3.05 -1.79 
119.77 -2.76 -1.78 
120.27 -2.70 -1.79 
129.17 0.91 -1.92 
128.14 10.29 -1.04 
119.66 11.94 -0.91 
127.62 12.23 -1.02 
119.50 12.03 -0.91 
121.20 12.05 -0.94 
121.83 12.28 -0.95 
119.96 12.63 -0.92 
120.51 12.68 -0.93 
121.28 12.79 -0.94 
127.62 12.83 -1.02 
127.76 13.06 -1.02 
119.67 12.98 -0.91 
120.24 13.12 -0.92 
120.57 13.18 -0.93 
121.32 13.19 -0.94 
121.89 12.92 -0.96 
127.78 13.36 -1.02 
120.14 13.37 -0.92 
127.67 14.27 -1.01 
127.77 14.36 -1.01 
127.67 14.92 -1.01 
120.72 15.83 -0.48 
120.82 15.86 -0.48 
127.60 16.48 -0.99 
127.33 18.39 -0.52 
127.45 19.02 -0.52 
127.49 19.15 -0.52 
127.40 19.75 -0.53 
127.46 19.74 -0.53 
127.40 19.96 -0.53 
127.46 20.06 -0.53 
119.46 4.96 -0.90 
119.65 5.30 -0.91 
119.84 5.82 -0.91 
119.95 6.18 -0.92 
120.24 6.14 -0.92 
120.07 6.51 -0.92 
128.21 9.27 -1.04 
119.75 11.48 -0.37 
121.92 12.18 -0.42 
122.25 12.20 -0.42 
119.75 12.38 -0.39 
120.16 12.74 -0.40 
120.80 12.70 -0.41 
121.27 12.70 -0.42 
135.24 13.30 -1.01 
119.87 12.83 -0.40 
120.13 13.05 -0.41 
120.77 12.94 -0.42 
121.07 13.05 -0.42 
127.94 13.08 -0.45 
120.20 13.50 -0.42 
127.91 13.49 -0.45 
120.34 13.56 -0.42 
127.91 13.97 -0.46 
127.87 14.44 -0.47 
127.85 14.89 -0.47 
127.79 15.33 -0.48 
127.77 15.65 -0.48 
127.76 16.08 -0.49 
127.73 16.47 -0.49 
127.34 17.41 -0.51 
127.29 17.67 -0.51 
127.28 18.03 -0.52 
127.55 19.31 -0.08 
127.53 19.67 -0.09 
127.51 20.01 -0.10 
119.87 -3.42 -0.91 
120.12 -3.22 -0.92 
120.47 5.37 -0.24 
127.96 11.94 -0.43 
119.89 12.04 0.15 
120.33 11.98 0.15 
121.40 12.30 0.12 
128.03 12.49 -0.44 
120.48 12.71 0.11 
120.71 12.45 0.12 
120.95 12.74 0.10 
127.96 12.69 -0.44 
134.44 13.29 -0.36 
120.03 12.75 0.12 
120.23 12.88 0.11 
134.44 13.65 -0.36 
134.34 13.70 -0.36 
135.70 13.99 -0.33 
136.13 13.84 -0.32 
134.52 14.13 -0.36 
127.79 14.67 0.06 
127.76 15.21 0.05 
127.72 15.71 0.03 
127.72 15.98 0.02 
127.71 16.37 0.01 
127.68 16.82 -0.01 
127.71 17.19 -0.02 
127.67 17.59 -0.03 
127.67 18.08 -0.04 
127.60 18.79 -0.07 
127.47 19.94 0.33 
119.81 5.00 -0.21 
120.27 5.11 -0.23 
120.07 5.18 -0.22 
120.47 5.16 -0.23 
119.75 11.35 0.18 
120.09 11.43 0.17 
120.19 11.64 0.16 
121.32 11.93 0.14 
121.60 11.74 0.14 
122.00 11.83 0.14 
121.14 12.02 0.13 
127.94 12.50 0.14 
127.93 12.72 0.13 
127.89 13.15 0.12 
127.87 13.55 0.10 
127.87 14.02 0.09 
127.86 14.39 0.08 
127.64 15.95 0.53 
127.59 16.21 0.51 
127.68 17.28 0.46 
127.64 17.63 0.44 
127.62 18.04 0.42 
127.64 18.21 0.42 
127.55 18.85 0.38 
127.54 19.20 0.37 
120.20 -3.96 -0.01 
120.73 -3.82 -0.03 
120.41 -3.35 -0.03 
119.67 4.97 0.48 
120.24 4.91 0.47 
119.77 5.19 0.47 
120.59 5.27 0.45 
119.90 5.75 0.44 
120.44 5.66 0.44 
120.44 11.40 0.72 
120.35 11.70 0.70 
120.61 12.23 0.66 
121.64 12.11 0.66 
122.03 12.07 0.67 
120.39 12.56 0.64 
120.67 12.59 0.64 
121.12 12.45 0.64 
127.95 13.05 0.69 
127.94 14.02 0.64 
127.92 14.39 0.62 
127.63 15.56 0.55 
127.76 17.51 0.94 
127.71 17.84 0.91 
121.62 11.39 1.27 
120.99 11.85 1.23 
121.26 11.50 1.26 
120.85 11.88 1.23 
120.43 12.35 1.19 
127.94 14.65 1.15 
127.91 15.03 1.12 
127.88 15.42 1.09 
121.46 11.20 1.29 
127.83 16.92 1.48 
136.88 2.18 3.37 
136.86 2.70 3.32 
136.95 -0.67 3.63 
136.81 -0.33 3.59 
136.96 0.19 3.55 
136.99 0.44 3.53 
137.31 0.60 3.54 
127.78 13.34 -2.62 
127.83 13.58 -2.60 
127.79 13.99 -2.57 
127.74 14.50 -2.54 
127.76 15.09 -2.50 
127.54 18.00 -2.29 
127.48 18.74 -2.24 
127.50 19.15 -2.21 
127.41 19.67 -2.18 
128.33 4.13 -2.51 
128.47 4.31 -2.50 
119.77 5.46 -2.21 
128.23 5.69 -2.43 
119.34 5.61 -2.19 
120.14 5.81 -2.20 
128.36 5.87 -2.43 
119.52 5.96 -2.18 
119.93 5.95 -2.19 
120.29 5.97 -2.20 
128.22 6.31 -2.40 
120.36 6.57 -2.17 
120.64 6.41 -2.19 
128.26 6.70 -2.39 
128.19 7.56 -2.34 
128.25 7.85 -2.33 
128.13 8.23 -2.31 
128.08 8.86 -2.28 
128.08 9.35 -2.26 
128.14 9.63 -2.25 
128.04 9.96 -2.23 
128.02 10.46 -2.20 
128.00 10.97 -2.18 
127.95 11.50 -2.15 
127.91 12.00 -2.13 
120.00 12.27 -1.90 
127.83 12.58 -2.10 
120.17 12.50 -1.90 
120.59 12.52 -1.91 
120.92 12.47 -1.92 
121.42 12.59 -1.93 
121.71 12.66 -1.93 
127.89 12.76 -2.09 
120.40 12.80 -1.89 
121.01 12.83 -1.91 
127.77 13.47 -2.06 
127.79 13.94 -2.04 
127.75 14.44 -2.01 
127.73 14.96 -1.99 
120.75 16.00 -1.75 
127.70 16.52 -1.91 
127.62 17.22 -1.88 
127.55 17.98 -1.84 
127.50 18.87 -1.80 
127.45 19.32 -1.77 
127.45 19.60 -1.76 
129.29 -3.32 -2.88 
119.88 -3.15 -2.60 
129.14 -1.80 -2.80 
128.76 -0.24 -2.72 
129.13 -0.24 -2.73 
120.73 11.59 -1.42 
120.47 12.20 -1.40 
121.32 12.04 -1.42 
121.05 12.65 -1.40 
121.55 12.43 -1.42 
119.86 12.86 -1.37 
120.08 12.88 -1.37 
120.67 12.89 -1.39 
120.83 13.04 -1.39 
120.57 13.22 -1.38 
127.71 14.30 -1.49 
127.75 14.90 -1.47 
120.76 15.95 -1.32 
127.75 16.41 -1.43 
127.51 17.60 -1.40 
127.53 18.01 -1.39 
127.53 18.31 -1.38 
127.50 18.86 -1.36 
127.47 19.51 -1.35 
127.41 20.04 -1.33 
128.52 2.80 -1.79 
128.34 4.12 -1.76 
128.49 4.26 -1.76 
128.24 5.67 -1.72 
128.40 5.76 -1.72 
120.14 5.83 -1.53 
120.33 5.67 -1.54 
119.62 6.11 -1.51 
120.36 6.51 -1.52 
120.66 6.38 -1.53 
119.87 6.69 -1.50 
128.26 7.27 -1.68 
128.11 8.78 -1.64 
127.94 11.86 -1.56 
127.88 12.45 -1.54 
135.20 13.23 -1.60 
135.36 13.30 -1.60 
135.43 13.66 -1.59 
120.78 15.88 -0.88 
127.55 17.88 -0.94 
127.53 19.41 -0.93 
119.15 -3.07 -1.70 
119.54 -3.13 -1.72 
119.93 -2.97 -1.72 
120.67 -2.76 -1.74 
127.79 10.88 -0.98 
119.59 11.71 -0.85 
121.16 11.87 -0.89 
121.74 11.74 -0.90 
120.83 12.13 -0.88 
121.00 11.97 -0.88 
134.34 13.04 -0.97 
119.78 12.88 -0.86 
120.29 12.91 -0.87 
120.53 12.88 -0.87 
121.10 12.97 -0.89 
134.64 13.83 -0.95 
134.80 13.69 -0.95 
127.75 14.21 -0.96 
127.75 14.82 -0.96 
120.80 15.77 -0.44 
127.55 17.63 -0.48 
127.59 17.87 -0.48 
127.58 18.24 -0.49 
127.57 18.59 -0.49 
127.55 18.98 -0.50 
127.54 19.38 -0.50 
128.58 2.61 -1.01 
120.01 4.83 -0.86 
128.43 5.14 -1.00 
119.37 5.26 -0.84 
119.60 5.17 -0.85 
119.78 5.61 -0.85 
120.15 5.58 -0.86 
128.39 5.88 -1.00 
128.43 6.24 -1.00 
128.34 6.58 -1.00 
128.34 7.12 -1.00 
128.26 7.90 -0.99 
119.64 11.28 -0.31 
119.77 11.32 -0.31 
119.44 11.76 -0.31 
119.76 11.69 -0.32 
121.55 12.39 -0.37 
121.96 12.45 -0.38 
128.00 12.57 -0.40 
119.89 12.80 -0.35 
120.25 12.90 -0.36 
120.71 12.92 -0.37 
128.00 13.25 -0.41 
120.37 13.15 -0.37 
120.50 13.25 -0.37 
120.95 13.27 -0.38 
127.98 13.53 -0.42 
127.93 13.84 -0.42 
127.92 14.35 -0.43 
127.90 14.73 -0.44 
127.87 15.11 -0.44 
120.56 16.02 0.00 
120.81 16.09 -0.01 
127.39 17.06 -0.47 
127.51 17.14 -0.47 
127.58 17.40 -0.48 
127.69 18.39 -0.04 
127.67 18.74 -0.05 
127.64 19.12 -0.07 
127.62 19.56 -0.08 
127.21 20.29 -0.11 
120.46 -3.38 -0.86 
119.67 -2.75 -0.84 
128.22 7.98 -0.32 
128.25 8.34 -0.33 
128.14 9.19 -0.35 
128.09 9.80 -0.36 
128.04 10.83 -0.37 
128.06 11.65 -0.39 
119.74 11.71 0.21 
128.10 11.90 -0.39 
119.98 12.08 0.19 
120.37 12.02 0.19 
120.75 12.08 0.18 
121.13 12.14 0.17 
128.03 12.12 -0.40 
134.97 12.53 -0.31 
119.69 12.37 0.18 
120.18 12.29 0.18 
120.93 12.53 0.16 
134.08 12.72 -0.33 
134.44 13.13 -0.32 
134.14 13.27 -0.33 
135.90 13.49 -0.29 
136.48 13.46 -0.28 
134.76 13.65 -0.32 
135.50 14.02 -0.31 
135.70 14.08 -0.30 
127.82 15.19 0.07 
127.79 16.34 0.03 
127.81 16.68 0.01 
127.77 17.08 0.00 
127.72 17.60 -0.02 
127.69 17.89 -0.03 
127.69 18.17 -0.04 
127.62 18.75 0.38 
127.61 19.12 0.36 
127.66 19.45 0.35 
127.63 19.80 0.33 
127.59 20.26 0.31 
119.85 4.80 -0.16 
136.76 6.40 -0.23 
127.95 10.98 0.22 
128.00 11.43 0.21 
120.74 11.59 0.20 
121.88 11.71 0.18 
128.01 11.74 0.19 
127.98 12.20 0.18 
127.94 12.68 0.16 
127.94 13.03 0.15 
127.92 13.45 0.13 
127.87 13.94 0.11 
127.74 15.14 0.58 
127.75 16.41 0.51 
127.75 16.70 0.49 
127.70 17.06 0.47 
127.72 17.32 0.46 
127.66 17.81 0.43 
127.63 18.25 0.41 
127.61 18.53 0.39 
119.72 -3.49 0.05 
119.95 -3.62 0.04 
120.25 -3.47 0.03 
120.46 -3.29 0.02 
120.24 4.80 0.53 
119.83 5.19 0.52 
120.11 5.22 0.51 
128.27 7.84 0.35 
128.29 8.23 0.33 
120.18 10.75 0.81 
120.81 11.05 0.78 
121.08 12.02 0.71 
121.61 11.95 0.71 
121.85 11.86 0.71 
119.95 12.30 0.70 
120.18 12.33 0.70 
120.66 12.20 0.70 
120.73 12.61 0.67 
127.96 13.01 0.70 
135.65 13.21 0.35 
127.99 13.25 0.69 
136.06 13.77 0.36 
127.76 17.17 0.94 
127.79 17.40 0.93 
127.68 18.28 0.86 
127.66 20.31 1.13 
121.53 11.34 1.30 
120.61 11.54 1.29 
120.93 11.58 1.29 
120.68 11.96 1.25 
120.31 12.34 1.22 
127.82 16.83 1.45 
127.81 17.62 1.38 
127.73 18.55 1.29 
127.69 18.84 1.26 
127.85 16.19 1.51 
127.87 16.46 1.49 
136.73 -1.66 3.71 
136.73 -2.91 3.83 
136.74 -2.28 3.77 
127.78 12.09 -2.80 
127.87 12.25 -2.79 
127.36 19.20 -2.30 
127.33 19.80 -2.26 
128.34 4.40 -2.60 
128.33 5.00 -2.57 
128.26 5.34 -2.55 
128.31 5.88 -2.53 
119.54 5.55 -2.20 
119.83 6.12 -2.18 
120.12 6.07 -2.20 
119.31 6.46 -2.15 
128.08 8.97 -2.38 
127.91 10.50 -2.31 
127.91 11.00 -2.28 
127.83 12.04 -2.23 
119.94 12.31 -1.91 
127.77 12.64 -2.20 
120.03 12.52 -1.91 
120.94 12.47 -1.95 
121.26 12.66 -1.95 
127.77 12.88 -2.19 
120.53 13.04 -1.90 
120.78 12.81 -1.92 
121.44 12.85 -1.95 
127.68 13.35 -2.17 
127.74 13.60 -2.16 
127.71 14.02 -2.14 
127.69 14.53 -2.11 
127.61 15.02 -2.09 
127.57 15.99 -2.04 
127.52 16.60 -2.01 
127.44 17.07 -1.99 
127.52 17.16 -1.99 
127.41 18.14 -1.94 
127.39 18.92 -1.90 
128.77 -3.23 -2.96 
119.75 -3.07 -2.59 
121.31 11.66 -1.46 
120.92 12.33 -1.43 
121.38 12.19 -1.45 
120.33 12.61 -1.40 
119.76 12.97 -1.37 
120.04 12.89 -1.38 
120.44 13.29 -1.39 
127.59 14.37 -1.60 
127.59 14.89 -1.59 
127.59 15.26 -1.58 
127.58 15.49 -1.57 
127.55 15.88 -1.56 
127.51 16.59 -1.55 
127.51 17.20 -1.53 
127.46 17.62 -1.52 
127.42 18.12 -1.50 
127.37 18.80 -1.49 
127.29 19.66 -1.46 
128.39 2.74 -1.90 
128.34 4.30 -1.86 
128.23 5.75 -1.83 
119.44 6.08 -1.51 
119.84 6.17 -1.52 
128.08 8.90 -1.75 
127.91 10.41 -1.71 
127.95 10.40 -1.71 
127.87 11.95 -1.67 
134.88 13.44 -1.80 
134.80 14.14 -1.78 
135.51 13.85 -1.80 
127.51 16.45 -1.08 
127.42 18.00 -1.07 
127.35 19.54 -1.06 
119.25 -2.97 -1.69 
119.52 -3.03 -1.71 
119.78 -3.19 -1.72 
119.02 -2.86 -1.68 
128.49 -1.29 -2.00 
128.36 -0.66 -1.98 
128.59 -0.70 -1.99 
128.54 -0.39 -1.98 
128.62 0.09 -1.97 
128.55 1.25 -1.94 
127.71 9.48 -1.10 
127.91 9.99 -1.11 
127.95 10.32 -1.11 
127.77 11.82 -1.10 
127.73 12.40 -1.10 
120.33 12.58 -0.89 
134.46 13.00 -1.18 
119.62 12.73 -0.86 
119.99 12.87 -0.88 
120.27 12.71 -0.89 
135.68 13.94 -1.18 
127.62 14.31 -1.09 
127.65 14.93 -1.09 
127.46 17.91 -0.63 
127.40 19.45 -0.65 
128.50 2.41 -1.13 
128.44 3.39 -1.13 
119.28 5.36 -0.84 
119.54 5.39 -0.85 
119.34 5.45 -0.84 
119.87 11.32 -0.33 
127.98 11.69 -0.53 
127.91 11.95 -0.53 
119.32 11.84 -0.32 
119.55 11.98 -0.33 
127.84 12.98 -0.55 
127.91 12.75 -0.55 
119.83 12.73 -0.36 
120.24 12.97 -0.38 
127.88 13.24 -0.55 
120.03 13.14 -0.38 
127.40 14.40 -0.57 
127.41 14.74 -0.58 
127.36 15.26 -0.59 
127.51 15.24 -0.59 
127.55 15.56 -0.59 
120.34 15.68 -0.01 
127.57 15.86 -0.60 
127.54 16.44 -0.61 
127.61 17.59 -0.18 
127.16 18.48 -0.22 
127.13 19.19 -0.24 
127.30 19.27 -0.24 
127.31 19.63 -0.26 
127.34 19.94 -0.27 
128.88 -4.64 -1.14 
128.79 -3.22 -1.14 
128.82 -2.48 -1.14 
128.70 -1.87 -1.14 
128.62 -0.62 -1.14 
128.65 0.02 -1.14 
128.54 0.59 -1.13 
128.58 1.18 -1.13 
119.79 11.69 0.20 
134.00 12.33 -0.55 
119.73 11.85 0.20 
120.10 12.03 0.17 
120.32 12.03 0.17 
134.54 12.56 -0.55 
119.86 12.38 0.17 
120.00 12.54 0.15 
120.41 12.86 0.12 
134.54 13.55 -0.56 
127.73 13.64 -0.03 
134.15 13.77 -0.57 
134.61 13.90 -0.56 
127.73 14.06 -0.05 
127.79 14.27 -0.06 
127.78 14.67 -0.07 
127.72 15.19 -0.09 
127.72 15.51 -0.10 
127.70 15.88 -0.12 
127.66 16.46 -0.14 
127.63 16.82 -0.15 
127.60 17.07 -0.16 
127.57 17.41 -0.18 
127.55 18.02 0.24 
127.56 18.26 0.23 
127.50 18.65 0.20 
127.50 19.15 0.18 
127.48 19.56 0.15 
127.42 20.02 0.13 
128.50 1.63 -0.33 
128.36 3.65 -0.37 
128.30 4.58 -0.39 
128.25 5.43 -0.40 
128.29 5.87 -0.41 
127.76 10.93 0.08 
127.84 12.92 0.00 
135.00 13.24 0.07 
120.01 12.65 0.66 
127.76 13.17 -0.01 
135.69 13.89 0.07 
127.67 14.94 0.42 
127.65 15.55 0.38 
127.59 16.13 0.35 
127.58 16.48 0.33 
127.59 16.75 0.31 
127.53 17.21 0.29 
127.57 17.72 0.26 
127.60 17.88 0.25 
127.43 19.05 0.60 
128.86 -2.57 -0.24 
128.73 -1.92 -0.25 
128.64 -0.65 -0.28 
119.73 5.17 0.52 
128.25 5.45 0.31 
127.91 8.93 0.16 
120.53 11.52 0.72 
120.53 12.01 0.69 
120.99 12.14 0.66 
134.54 12.76 0.07 
135.02 12.53 0.09 
135.27 12.53 0.09 
120.00 12.36 0.68 
120.62 12.42 0.66 
121.09 12.62 0.63 
135.24 13.06 0.08 
135.99 13.16 0.09 
136.06 13.73 0.08 
127.73 14.40 0.45 
127.46 16.40 0.81 
127.51 17.82 0.70 
128.45 3.29 0.40 
128.36 3.68 0.38 
120.23 11.64 1.27 
120.72 11.65 1.25 
120.85 12.06 1.21 
135.04 12.49 0.73 
120.20 12.30 1.20 
127.66 17.21 1.21 
127.83 14.54 1.48 
127.73 15.17 1.41 
127.76 15.73 1.36 
127.80 12.10 -2.81 
127.37 19.30 -2.30 
127.30 19.72 -2.27 
128.30 4.39 -2.63 
128.32 5.00 -2.60 
119.51 5.55 -2.22 
119.68 5.85 -2.21 
128.27 5.92 -2.56 
119.80 6.07 -2.20 
121.71 6.28 -2.28 
128.26 6.67 -2.52 
119.32 6.38 -2.17 
128.07 7.38 -2.48 
128.16 7.79 -2.47 
128.12 8.43 -2.43 
128.06 9.00 -2.41 
127.98 9.58 -2.38 
127.94 10.51 -2.33 
127.89 10.98 -2.31 
127.85 12.03 -2.26 
119.95 12.45 -1.92 
120.78 12.71 -1.94 
121.19 12.53 -1.97 
127.79 12.74 -2.22 
120.04 12.85 -1.90 
120.33 12.91 -1.91 
120.66 12.76 -1.93 
121.38 12.82 -1.96 
127.75 13.28 -2.19 
127.67 13.56 -2.18 
127.75 13.72 -2.17 
127.66 14.02 -2.16 
127.65 14.48 -2.13 
127.58 15.06 -2.10 
127.69 15.12 -2.11 
127.56 15.87 -2.07 
127.61 16.06 -2.06 
127.56 16.60 -2.03 
127.45 18.13 -1.96 
127.34 18.95 -1.91 
127.27 19.63 -1.88 
128.75 -3.25 -3.00 
121.61 -3.05 -2.46 
128.77 -0.20 -2.86 
120.27 12.60 -1.41 
119.74 12.88 -1.38 
119.90 12.82 -1.39 
120.05 13.10 -1.39 
120.34 13.31 -1.40 
127.69 14.38 -1.64 
127.61 15.00 -1.62 
127.49 16.05 -1.59 
127.51 16.44 -1.58 
127.49 17.24 -1.56 
127.42 17.58 -1.55 
127.35 18.04 -1.53 
127.41 18.34 -1.53 
127.36 19.54 -1.49 
128.27 0.95 -1.98 
128.47 1.16 -1.98 
128.49 2.75 -1.95 
128.42 3.13 -1.93 
128.37 4.04 -1.91 
128.35 4.28 -1.90 
128.24 5.74 -1.87 
119.44 6.08 -1.53 
128.10 7.33 -1.82 
128.02 8.88 -1.78 
127.90 10.41 -1.74 
127.75 11.93 -1.70 
127.89 11.97 -1.70 
127.72 12.51 -1.68 
127.85 12.56 -1.69 
135.11 13.34 -1.85 
135.15 13.48 -1.85 
135.36 13.65 -1.85 
135.50 14.07 -1.84 
127.54 16.45 -1.12 
127.44 17.99 -1.11 
127.33 19.51 -1.10 
128.97 -3.14 -2.10 
119.44 -3.03 -1.73 
119.06 -2.92 -1.71 
128.36 -0.42 -2.02 
128.40 0.31 -2.00 
120.40 5.58 -1.30 
127.77 9.57 -1.15 
127.71 9.89 -1.14 
127.82 10.41 -1.15 
127.92 10.29 -1.15 
127.92 10.84 -1.15 
127.79 11.83 -1.14 
127.91 11.92 -1.14 
134.48 12.32 -1.25 
134.67 12.38 -1.25 
127.76 12.41 -1.14 
135.14 13.28 -1.25 
119.53 12.75 -0.87 
127.69 14.33 -1.13 
127.64 14.91 -1.13 
127.59 16.48 -0.66 
127.55 16.78 -0.66 
127.52 17.18 -0.67 
127.49 17.44 -0.67 
127.51 17.95 -0.68 
127.34 19.45 -0.71 
128.45 2.19 -1.18 
128.50 2.74 -1.18 
128.47 3.01 -1.18 
128.43 4.02 -1.17 
119.16 5.42 -0.85 
120.20 5.83 -0.57 
128.18 7.75 -1.16 
127.97 11.34 -0.57 
127.99 11.68 -0.58 
127.91 11.99 -0.58 
127.90 12.71 -0.60 
127.85 13.13 -0.60 
127.82 13.65 -0.61 
127.43 15.01 -0.63 
127.41 15.62 -0.64 
127.54 15.90 -0.65 
127.54 16.24 -0.65 
127.59 17.22 -0.23 
127.57 17.57 -0.24 
127.60 17.76 -0.25 
127.12 19.12 -0.30 
127.17 18.97 -0.30 
127.11 19.42 -0.31 
127.26 19.52 -0.32 
127.31 19.94 -0.33 
128.97 -4.26 -1.20 
128.82 -3.42 -1.20 
128.86 -2.63 -1.20 
128.74 -1.87 -1.19 
128.76 -1.08 -1.19 
128.63 -0.40 -1.19 
128.23 6.28 -0.47 
128.05 8.84 -0.52 
128.01 10.70 -0.56 
128.04 11.05 -0.57 
134.65 12.05 -0.62 
134.24 12.34 -0.63 
134.77 12.19 -0.62 
135.08 12.75 -0.63 
127.77 13.33 -0.08 
127.84 13.08 -0.07 
134.06 13.54 -0.64 
127.80 13.65 -0.09 
134.65 13.70 -0.64 
127.74 13.86 -0.10 
127.78 14.11 -0.11 
127.72 14.34 -0.12 
127.78 14.76 -0.13 
127.73 15.10 -0.15 
127.71 15.54 -0.17 
127.68 15.98 -0.18 
127.74 15.78 -0.17 
127.65 16.40 -0.20 
127.62 16.81 -0.21 
127.68 16.63 -0.21 
127.66 17.01 -0.22 
127.52 17.69 0.18 
127.58 17.92 0.17 
127.55 18.22 0.15 
127.53 18.81 0.12 
127.50 19.13 0.10 
127.49 19.52 0.08 
127.45 19.95 0.05 
120.78 -3.16 -0.59 
120.42 -2.93 -0.58 
121.07 -2.87 -0.60 
128.61 1.50 -0.38 
128.52 2.69 -0.41 
136.13 6.50 -0.56 
135.76 6.69 -0.56 
127.88 11.08 0.01 
127.88 11.61 -0.01 
127.93 11.89 -0.02 
127.84 12.21 -0.03 
127.89 12.48 -0.04 
134.50 12.75 -0.02 
120.23 12.24 0.56 
127.80 12.80 -0.06 
134.95 13.09 -0.02 
135.13 12.94 -0.01 
134.97 13.53 -0.03 
135.24 13.47 -0.02 
135.43 13.52 -0.02 
127.76 14.22 0.40 
127.71 14.78 0.36 
127.71 15.14 0.34 
127.65 15.85 0.30 
127.60 16.17 0.28 
127.59 16.69 0.24 
127.54 16.99 0.23 
127.45 18.71 0.54 
128.88 -2.68 -0.30 
128.67 -0.51 -0.34 
128.58 0.85 -0.37 
128.34 5.81 0.23 
128.24 6.25 0.21 
128.28 6.72 0.19 
120.19 11.29 0.61 
127.95 11.85 0.54 
127.70 12.62 0.50 
136.17 13.17 0.00 
127.67 13.18 0.46 
127.65 13.68 0.43 
127.68 14.03 0.41 
127.49 16.08 0.75 
127.45 16.87 0.69 
120.46 5.10 0.88 
127.84 12.72 1.04 
135.23 13.12 0.60 
127.83 13.22 0.99 
127.89 12.98 1.02 
127.79 13.76 0.95 
127.57 17.57 1.07 
127.79 15.31 1.31 
120.35 5.05 1.62 
120.53 5.36 1.59 
127.83 11.16 -2.65 
127.38 17.21 -2.21 
127.41 17.43 -2.20 
127.37 18.22 -2.14 
127.29 19.06 -2.08 
127.25 19.34 -2.06 
127.16 19.71 -2.03 
127.18 20.24 -2.00 
128.57 1.38 -2.56 
128.45 2.89 -2.48 
128.34 4.39 -2.41 
119.90 5.75 -2.09 
128.17 5.92 -2.33 
119.28 6.32 -2.04 
120.08 6.45 -2.06 
127.99 7.45 -2.26 
128.15 7.49 -2.26 
127.97 8.98 -2.18 
127.84 10.08 -2.13 
127.87 10.50 -2.11 
127.82 10.80 -2.09 
127.84 11.26 -2.07 
127.77 12.01 -2.03 
119.93 12.14 -1.79 
121.02 12.15 -1.82 
120.17 12.52 -1.78 
120.69 12.39 -1.80 
121.40 12.62 -1.81 
119.80 12.88 -1.75 
120.72 13.07 -1.77 
120.94 13.06 -1.78 
121.49 12.81 -1.81 
121.61 12.89 -1.81 
121.15 13.17 -1.78 
127.62 13.65 -1.95 
135.39 13.99 -2.14 
127.52 14.45 -1.91 
127.62 14.53 -1.91 
127.59 15.09 -1.88 
127.52 15.68 -1.85 
127.51 15.98 -1.84 
127.39 16.54 -1.81 
127.48 16.62 -1.81 
127.45 17.08 -1.79 
127.33 18.15 -1.73 
127.27 18.94 -1.69 
127.24 19.74 -1.65 
128.84 -3.25 -2.78 
121.10 -2.50 -2.28 
120.79 -2.13 -2.25 
128.75 -1.67 -2.71 
121.40 5.28 -1.92 
121.51 6.06 -1.89 
127.78 12.56 -1.47 
119.50 12.74 -1.24 
119.64 12.95 -1.24 
119.75 13.26 -1.23 
127.54 14.39 -1.42 
127.66 14.43 -1.42 
127.49 15.00 -1.40 
127.60 15.04 -1.40 
127.39 16.54 -1.36 
127.50 16.56 -1.36 
127.35 18.09 -1.32 
127.23 19.31 -1.29 
127.23 19.62 -1.28 
128.06 3.72 -1.69 
128.15 4.48 -1.68 
128.21 4.93 -1.67 
128.20 5.83 -1.65 
128.10 7.37 -1.61 
135.84 7.76 -1.74 
128.00 8.89 -1.57 
127.93 10.40 -1.53 
135.10 12.14 -1.61 
127.79 11.97 -1.49 
135.23 12.25 -1.60 
134.33 12.63 -1.58 
134.51 12.74 -1.58 
120.41 12.53 -1.00 
120.54 12.86 -0.99 
120.68 13.08 -0.99 
134.98 14.15 -1.55 
135.24 14.19 -1.55 
135.73 14.15 -1.55 
135.39 14.31 -1.55 
127.53 14.89 -0.92 
127.64 14.93 -0.92 
127.43 16.44 -0.92 
127.53 16.48 -0.92 
127.37 18.01 -0.91 
127.27 19.53 -0.90 
128.94 -3.55 -1.89 
120.61 -3.10 -1.37 
120.83 -2.95 -1.37 
120.28 -2.86 -1.35 
119.97 -2.56 -1.34 
120.97 -2.47 -1.37 
128.79 -1.62 -1.84 
128.82 -0.75 -1.82 
128.68 0.04 -1.80 
128.72 0.79 -1.78 
120.60 6.60 -1.14 
120.78 6.86 -1.14 
128.21 8.02 -0.95 
128.12 8.46 -0.95 
128.04 9.40 -0.94 
128.08 9.81 -0.94 
127.54 11.75 -0.93 
127.57 12.11 -0.93 
127.50 12.45 -0.93 
120.09 12.32 -0.43 
127.61 12.64 -0.93 
120.29 12.95 -0.44 
120.61 12.93 -0.44 
120.86 12.97 -0.45 
127.69 13.13 -0.93 
120.53 13.04 -0.44 
134.15 13.97 -0.97 
134.48 13.79 -0.97 
127.63 14.33 -0.93 
127.24 16.55 -0.46 
127.27 16.80 -0.47 
127.21 17.02 -0.47 
127.29 17.53 -0.48 
127.39 17.95 -0.49 
127.35 18.41 -0.50 
127.35 18.74 -0.50 
127.38 18.77 -0.50 
127.29 19.46 -0.51 
127.35 19.58 -0.52 
128.38 3.34 -0.96 
128.29 4.63 -0.96 
120.14 6.00 -0.44 
128.25 6.50 -0.95 
120.20 6.59 -0.44 
120.58 6.51 -0.45 
128.29 6.99 -0.95 
120.36 6.88 -0.44 
128.19 7.49 -0.95 
127.89 11.18 -0.36 
127.90 11.65 -0.37 
120.28 12.18 -0.44 
127.89 12.31 -0.39 
119.96 12.25 -0.43 
120.28 12.27 -0.44 
127.85 13.16 -0.40 
127.80 13.61 -0.41 
133.98 13.89 -0.40 
134.17 13.93 -0.39 
127.83 13.93 -0.42 
134.25 14.12 -0.39 
134.67 14.40 -0.39 
134.90 14.37 -0.39 
127.77 14.37 -0.43 
127.71 14.78 -0.43 
127.73 15.08 -0.44 
127.59 16.75 -0.02 
127.56 17.20 -0.04 
127.56 17.51 -0.05 
127.50 18.05 -0.08 
127.51 18.33 -0.09 
127.47 18.72 -0.10 
127.02 20.11 -0.16 
128.98 -3.97 -0.99 
128.84 -3.05 -0.98 
128.86 -2.10 -0.98 
128.71 -1.21 -0.98 
128.31 6.11 -0.27 
128.21 6.64 -0.28 
128.24 7.18 -0.29 
128.14 7.69 -0.30 
128.16 8.20 -0.31 
128.07 8.65 -0.32 
128.09 9.14 -0.33 
128.00 9.56 -0.33 
127.94 10.40 -0.35 
127.97 10.80 -0.36 
120.35 11.66 0.14 
120.01 11.84 0.14 
120.27 11.89 0.14 
134.02 13.17 -0.39 
134.23 13.16 -0.38 
127.76 13.22 0.12 
120.32 13.27 0.11 
120.53 13.08 0.11 
127.80 13.51 0.11 
127.74 13.97 0.09 
127.69 14.41 0.07 
127.66 14.93 0.05 
127.67 15.28 0.04 
127.66 15.89 0.01 
127.65 16.38 -0.01 
127.52 17.31 0.39 
127.53 17.56 0.37 
127.47 17.78 0.36 
127.44 18.18 0.33 
127.44 18.67 0.30 
127.48 19.01 0.28 
127.45 19.62 0.25 
127.40 19.93 0.23 
127.37 20.23 0.40 
120.33 -3.35 -0.45 
128.36 4.37 -0.23 
128.28 5.56 -0.26 
136.11 6.38 -0.29 
136.42 6.67 -0.29 
128.14 8.99 0.30 
127.90 10.44 0.24 
127.79 10.91 0.22 
127.85 11.54 0.19 
127.86 11.83 0.18 
134.79 12.21 0.25 
120.35 11.77 0.71 
121.50 12.11 0.68 
127.85 12.37 0.15 
120.79 12.47 0.67 
120.93 12.49 0.67 
134.57 12.95 0.22 
135.54 13.11 0.24 
135.69 13.22 0.24 
120.38 12.82 0.66 
120.59 12.90 0.66 
121.04 12.89 0.65 
134.45 13.42 0.20 
135.78 13.42 0.24 
136.05 13.91 0.23 
135.66 14.15 0.21 
127.64 14.47 0.56 
127.59 15.06 0.53 
127.62 15.90 0.47 
127.57 16.42 0.44 
127.58 16.75 0.42 
127.49 18.32 0.74 
127.37 19.56 0.64 
128.66 0.16 -0.15 
128.29 5.49 0.45 
128.35 5.99 0.42 
128.25 6.51 0.40 
128.29 7.04 0.38 
128.18 7.53 0.36 
128.20 8.06 0.34 
128.11 8.51 0.32 
127.97 10.91 0.79 
127.99 11.31 0.77 
127.90 11.71 0.74 
127.87 12.37 0.70 
127.88 12.76 0.67 
127.81 13.08 0.65 
127.81 13.55 0.62 
127.46 16.72 0.87 
127.52 17.28 0.83 
127.57 17.82 1.21 
127.50 18.67 1.12 
127.45 19.89 0.99 
120.90 -3.54 0.47 
121.16 -3.24 0.46 
121.44 -3.22 0.45 
120.52 5.68 0.99 
120.96 5.55 0.98 
128.03 10.09 0.85 
128.06 10.52 0.82 
135.54 13.41 0.83 
135.45 13.80 0.81 
135.79 13.71 0.83 
136.13 13.78 0.84 
127.85 13.87 1.12 
127.71 15.65 1.44 
127.74 15.90 1.41 
121.12 12.44 1.80 
121.39 12.38 1.80 
120.82 5.02 1.74 
121.01 5.24 1.72 
127.81 11.02 -2.60 
121.38 12.59 -2.13 
127.44 15.67 -2.25 
121.33 16.22 -1.86 
127.35 16.69 -2.17 
127.32 17.19 -2.14 
127.26 18.22 -2.06 
127.19 18.84 -2.01 
127.22 19.03 -2.00 
127.21 19.74 -1.95 
127.14 20.26 -1.91 
128.41 1.37 -2.52 
128.34 2.89 -2.44 
128.26 4.42 -2.36 
121.44 5.82 -2.13 
121.61 5.68 -2.15 
128.14 5.93 -2.28 
121.02 6.40 -2.10 
128.09 7.47 -2.21 
127.93 9.00 -2.13 
127.74 10.96 -2.03 
127.76 11.42 -2.00 
127.69 11.83 -1.98 
121.05 11.88 -1.83 
127.71 12.29 -1.96 
120.26 12.51 -1.78 
120.59 12.41 -1.79 
121.30 12.65 -1.79 
120.60 12.92 -1.76 
121.05 12.88 -1.78 
121.51 12.88 -1.79 
120.94 13.24 -1.76 
127.55 13.64 -1.89 
127.52 14.49 -1.85 
127.50 15.13 -1.81 
127.44 15.60 -1.79 
127.47 15.91 -1.77 
127.41 16.64 -1.74 
127.20 18.14 -1.66 
127.30 18.16 -1.66 
127.21 18.87 -1.62 
127.25 19.06 -1.61 
127.16 19.68 -1.58 
128.76 -3.20 -2.75 
120.97 -2.22 -2.29 
121.47 6.03 -1.89 
127.66 12.57 -1.41 
121.35 12.51 -1.57 
127.59 14.46 -1.36 
127.52 15.03 -1.34 
121.25 16.09 -1.39 
121.36 16.17 -1.39 
127.43 16.55 -1.30 
127.22 18.07 -1.26 
127.32 18.10 -1.26 
127.16 19.63 -1.21 
127.13 19.97 -1.20 
127.17 20.24 -1.20 
128.11 3.84 -1.66 
128.08 4.70 -1.63 
128.16 5.85 -1.60 
128.03 7.37 -1.56 
135.73 7.56 -1.65 
128.14 7.64 -1.56 
128.03 8.92 -1.52 
127.86 10.43 -1.48 
121.35 11.76 -1.03 
127.78 12.01 -1.43 
121.67 11.98 -1.03 
135.58 12.69 -1.49 
120.28 12.49 -0.99 
120.46 12.46 -0.99 
121.11 12.44 -1.01 
135.08 13.15 -1.48 
120.84 12.90 -0.99 
134.80 13.56 -1.46 
127.49 14.91 -0.87 
127.59 14.98 -0.87 
127.46 16.45 -0.86 
127.36 18.02 -0.85 
127.26 19.54 -0.84 
128.97 -4.34 -1.89 
128.97 -3.08 -1.86 
120.51 -3.17 -1.40 
120.78 -3.03 -1.41 
120.22 -2.86 -1.39 
120.96 -2.29 -1.39 
128.82 -2.08 -1.83 
128.79 -0.78 -1.79 
128.65 0.13 -1.77 
120.58 6.60 -1.15 
128.16 7.67 -0.91 
128.17 8.29 -0.91 
128.07 8.85 -0.91 
128.08 9.47 -0.90 
121.51 11.83 -0.78 
127.50 11.89 -0.89 
127.53 12.33 -0.88 
134.43 12.63 -0.90 
119.97 12.27 -0.43 
121.45 12.51 -0.46 
127.45 12.76 -0.88 
127.59 12.85 -0.88 
120.25 12.87 -0.43 
120.43 12.81 -0.44 
120.82 12.93 -0.45 
127.62 13.36 -0.88 
134.64 13.47 -0.89 
121.49 13.22 -0.46 
127.70 13.55 -0.88 
120.99 13.53 -0.45 
127.62 14.34 -0.87 
127.18 17.09 -0.43 
127.19 17.52 -0.44 
127.34 17.59 -0.44 
127.33 17.95 -0.44 
127.36 18.33 -0.45 
127.32 18.67 -0.45 
127.28 18.99 -0.46 
127.31 19.52 -0.47 
128.58 1.51 -0.94 
128.45 2.35 -0.94 
128.47 3.18 -0.93 
128.34 4.05 -0.93 
128.36 4.78 -0.93 
128.25 5.44 -0.92 
128.35 5.78 -0.92 
128.26 6.37 -0.92 
120.17 6.55 -0.45 
120.32 6.87 -0.45 
128.28 6.99 -0.92 
127.87 11.09 -0.32 
127.89 11.94 -0.34 
120.15 12.17 -0.43 
127.85 12.50 -0.35 
127.88 12.89 -0.36 
127.79 13.27 -0.36 
134.10 13.38 -0.32 
127.81 13.68 -0.37 
127.74 14.03 -0.38 
127.78 14.35 -0.38 
127.69 14.71 -0.39 
127.57 16.50 0.02 
127.60 16.80 0.01 
127.54 17.06 0.00 
127.49 17.59 -0.02 
127.49 17.97 -0.03 
127.48 18.34 -0.05 
127.42 18.59 -0.06 
127.38 19.94 0.26 
127.34 20.31 0.23 
128.91 -3.99 -0.97 
128.91 -2.78 -0.96 
128.74 -1.64 -0.96 
128.75 -0.55 -0.95 
128.59 0.49 -0.95 
128.33 5.86 -0.23 
128.22 6.53 -0.24 
128.24 7.17 -0.25 
128.13 7.78 -0.27 
128.14 8.41 -0.28 
128.03 9.00 -0.29 
128.04 9.60 -0.30 
127.94 10.12 -0.31 
127.96 10.63 -0.32 
120.09 11.95 0.14 
121.08 12.55 0.11 
121.47 12.32 0.11 
127.79 12.69 0.18 
120.77 12.67 0.11 
120.23 13.15 0.11 
120.47 13.26 0.10 
127.72 13.50 0.14 
135.64 14.01 -0.29 
136.08 13.99 -0.28 
127.75 13.89 0.13 
127.67 14.25 0.11 
127.71 14.56 0.10 
127.63 14.92 0.09 
127.60 15.93 0.05 
127.64 16.23 0.03 
127.52 17.07 0.43 
127.46 17.69 0.39 
127.37 18.72 0.33 
127.42 18.91 0.32 
127.41 19.42 0.29 
127.37 19.71 0.27 
120.26 -3.37 -0.48 
128.57 1.54 -0.15 
128.55 1.87 -0.16 
128.55 2.77 -0.18 
128.43 3.57 -0.19 
128.44 4.40 -0.20 
128.31 5.13 -0.22 
136.24 6.58 -0.21 
136.58 6.86 -0.21 
128.09 8.74 0.34 
127.87 10.28 0.27 
127.83 10.55 0.26 
127.75 11.55 0.22 
127.85 11.82 0.21 
127.87 12.27 0.19 
120.31 12.22 0.69 
120.49 12.18 0.69 
134.66 13.02 0.28 
134.78 13.20 0.28 
134.91 13.45 0.27 
135.19 13.51 0.28 
135.91 13.37 0.31 
135.51 14.02 0.28 
135.79 13.91 0.29 
136.06 13.84 0.30 
136.39 13.93 0.31 
136.04 14.12 0.29 
127.61 14.48 0.59 
127.55 15.09 0.55 
127.58 16.04 0.50 
127.53 16.63 0.46 
127.42 16.96 0.87 
127.50 17.55 0.83 
127.51 17.83 0.80 
127.45 18.24 0.77 
127.42 18.56 0.74 
127.36 19.42 0.67 
128.81 -0.87 -0.11 
128.70 -0.09 -0.12 
128.28 6.22 0.44 
128.30 6.91 0.41 
128.18 7.54 0.39 
128.20 8.17 0.36 
128.00 10.58 0.84 
128.01 11.11 0.81 
127.91 11.59 0.78 
127.93 12.05 0.75 
127.85 12.46 0.72 
127.86 12.92 0.69 
127.78 13.29 0.67 
127.44 18.83 1.11 
127.46 19.06 1.09 
120.76 -3.31 0.43 
128.05 9.68 0.90 
128.09 10.12 0.87 
127.85 13.49 1.17 
127.80 13.80 1.15 
127.74 15.43 1.48 
127.70 15.81 1.44 
127.68 16.15 1.40 
127.60 17.17 1.29 
127.74 10.63 -2.56 
121.33 12.53 -2.10 
120.20 13.29 -2.02 
121.23 16.18 -1.83 
121.34 16.23 -1.83 
127.34 16.69 -2.12 
127.30 17.26 -2.07 
127.21 18.23 -2.00 
127.13 18.97 -1.95 
127.11 19.83 -1.88 
128.45 1.37 -2.46 
128.38 2.90 -2.38 
128.16 4.41 -2.30 
121.49 5.77 -2.10 
128.11 5.94 -2.23 
121.10 6.13 -2.08 
120.72 6.80 -2.04 
128.03 7.49 -2.15 
127.90 9.01 -2.07 
127.82 10.53 -2.00 
120.99 11.80 -1.80 
127.65 12.04 -1.92 
120.49 12.40 -1.76 
121.28 12.57 -1.77 
119.96 12.62 -1.73 
121.38 12.73 -1.76 
121.52 12.85 -1.76 
127.57 13.17 -1.86 
127.50 13.66 -1.83 
127.46 14.51 -1.79 
127.46 15.15 -1.76 
127.42 15.82 -1.73 
127.26 16.60 -1.69 
127.36 16.65 -1.68 
127.32 17.35 -1.65 
127.15 18.11 -1.61 
127.25 18.20 -1.61 
127.15 19.01 -1.56 
127.08 19.65 -1.53 
127.17 19.72 -1.53 
121.30 -3.16 -2.54 
121.39 -2.47 -2.27 
127.67 12.41 -1.37 
120.89 12.43 -1.25 
121.40 12.45 -1.40 
119.75 13.19 -1.20 
127.47 14.44 -1.31 
127.49 15.01 -1.30 
121.28 16.18 -1.36 
121.39 16.16 -1.36 
