# .PCD v0.7 - Point Cloud Data file format
VERSION 0.7
FIELDS x y z
SIZE 4 4 4
TYPE F F F
COUNT 1 1 1
WIDTH 659
HEIGHT 1
VIEWPOINT 0 0 0 1 0 0 0
POINTS 659
DATA ascii
117.12 -648.13 -1.89 
120.33 -648.81 -1.07 
116.94 -648.28 -1.26 
123.83 -646.25 -1.07 
120.00 -648.83 -0.77 
119.31 -648.83 -0.80 
116.85 -647.75 -1.05 
123.49 -646.36 -0.72 
123.28 -645.58 -0.85 
118.99 -648.98 -0.44 
116.75 -648.52 -0.59 
118.59 -648.68 -0.20 
118.11 -648.68 -0.22 
126.10 -646.65 -0.26 
123.22 -645.49 -0.53 
123.36 -646.21 -0.41 
119.73 -648.97 -0.09 
118.59 -648.94 -0.13 
116.66 -648.39 -0.28 
117.71 -648.49 0.04 
126.62 -646.61 0.11 
123.24 -643.74 -0.43 
124.38 -646.64 0.05 
123.90 -645.80 -0.09 
118.46 -648.73 0.20 
117.71 -648.76 0.18 
118.57 -648.60 0.41 
126.18 -646.76 0.83 
123.02 -643.76 0.98 
124.71 -636.17 1.05 
122.85 -644.02 1.37 
124.39 -646.55 2.15 
122.10 -643.70 1.68 
122.34 -647.15 2.37 
123.01 -646.58 2.60 
138.70 -629.90 1.52 
121.94 -643.73 2.01 
122.30 -645.47 2.46 
138.53 -629.94 1.83 
123.53 -638.05 2.31 
123.61 -637.60 2.26 
123.92 -646.62 2.80 
121.73 -643.78 2.34 
123.28 -638.05 2.33 
123.28 -638.17 2.60 
123.37 -637.69 2.55 
123.36 -637.97 2.84 
120.96 -646.98 3.03 
120.90 -645.61 2.85 
121.23 -644.27 2.93 
121.42 -643.03 2.76 
123.05 -638.25 2.68 
123.12 -637.39 2.56 
123.00 -638.22 2.91 
123.14 -637.42 2.82 
123.06 -638.12 3.15 
123.12 -637.75 3.11 
122.47 -645.75 3.20 
120.95 -646.73 3.31 
121.07 -645.76 3.19 
121.38 -643.01 2.84 
121.22 -644.40 3.28 
121.40 -643.23 3.13 
122.79 -638.38 3.02 
122.88 -637.54 2.90 
122.76 -638.35 3.25 
122.92 -637.43 3.13 
122.82 -638.26 3.49 
122.72 -645.93 3.53 
121.42 -643.24 3.18 
121.12 -644.14 3.35 
121.61 -646.54 3.91 
121.71 -643.49 3.50 
121.37 -643.98 3.55 
122.55 -638.10 3.06 
133.52 -640.08 3.94 
122.51 -638.51 3.36 
137.57 -630.60 3.19 
122.75 -637.54 3.48 
133.42 -640.01 4.46 
122.58 -638.40 3.84 
120.68 -643.58 3.52 
120.38 -645.38 3.81 
122.11 -638.79 3.75 
122.26 -638.06 3.64 
137.32 -630.84 3.53 
122.14 -638.70 4.00 
122.29 -636.70 3.74 
122.30 -637.32 4.11 
120.31 -644.74 4.07 
120.14 -645.24 4.13 
121.87 -638.53 3.84 
121.84 -638.77 4.15 
121.92 -638.13 4.02 
121.87 -638.78 4.43 
121.97 -637.85 4.27 
121.62 -638.41 3.60 
120.45 -644.71 4.46 
119.72 -644.93 4.46 
132.05 -641.65 5.02 
121.41 -638.69 4.32 
121.64 -638.09 4.45 
136.74 -630.64 4.26 
121.68 -637.98 4.73 
121.47 -638.60 4.93 
121.43 -638.13 3.90 
120.45 -644.99 4.83 
119.37 -645.11 4.81 
121.10 -638.86 4.07 
132.33 -640.89 5.51 
121.13 -638.84 4.73 
121.40 -637.97 4.80 
136.47 -630.78 4.63 
121.40 -637.94 5.10 
134.98 -632.44 4.62 
134.96 -632.38 5.20 
135.14 -631.61 5.34 
122.59 -631.73 4.05 
134.85 -633.38 5.19 
122.45 -631.67 4.46 
121.85 -631.75 4.71 
122.45 -631.63 4.88 
131.77 -644.06 6.20 
134.83 -634.40 5.62 
122.54 -631.84 4.79 
131.68 -643.67 6.43 
122.77 -631.53 4.55 
134.86 -633.95 5.87 
120.23 -641.83 6.27 
135.49 -632.55 5.91 
122.28 -631.50 5.04 
132.09 -643.31 6.68 
135.01 -633.58 6.14 
122.43 -631.79 5.22 
120.40 -641.35 6.52 
135.67 -632.41 6.21 
122.61 -631.14 5.33 
132.29 -642.95 6.92 
135.14 -633.15 6.39 
122.99 -630.84 5.61 
132.23 -642.58 7.13 
135.17 -632.75 6.63 
123.13 -630.49 5.87 
132.13 -642.43 7.20 
123.09 -630.44 5.37 
123.03 -630.12 5.61 
122.90 -630.13 6.24 
122.59 -629.94 6.88 
117.28 -648.36 -1.85 
120.43 -648.79 -1.37 
120.20 -648.78 -1.38 
119.98 -648.76 -1.38 
119.53 -648.76 -1.40 
119.18 -648.74 -1.41 
118.79 -648.71 -1.43 
117.15 -648.47 -1.52 
120.21 -648.81 -1.07 
119.87 -648.82 -1.08 
119.44 -648.83 -1.09 
119.07 -648.84 -1.10 
118.72 -648.80 -1.12 
118.27 -648.77 -1.14 
117.87 -648.75 -1.15 
125.14 -646.39 -1.01 
124.78 -646.37 -1.02 
124.34 -646.32 -1.04 
124.05 -646.29 -1.06 
123.67 -646.07 -1.10 
120.23 -648.84 -0.76 
119.86 -648.81 -0.78 
119.49 -648.81 -0.79 
118.99 -648.82 -0.81 
118.76 -648.80 -0.82 
118.31 -648.75 -0.84 
117.85 -648.74 -0.86 
116.92 -648.41 -0.94 
116.86 -648.27 -0.96 
118.91 -648.52 -0.50 
118.60 -648.45 -0.52 
118.31 -648.45 -0.53 
118.16 -648.40 -0.54 
124.26 -646.54 -0.67 
123.88 -646.50 -0.69 
123.51 -646.34 -0.72 
123.34 -646.10 -0.77 
123.27 -645.73 -0.83 
119.89 -649.01 -0.41 
119.38 -649.00 -0.43 
119.03 -648.99 -0.44 
118.62 -648.98 -0.45 
118.19 -648.96 -0.47 
117.77 -648.93 -0.49 
116.76 -648.10 -0.65 
116.75 -647.80 -0.70 
118.90 -648.72 -0.18 
118.57 -648.66 -0.20 
118.24 -648.65 -0.22 
117.93 -648.67 -0.23 
126.64 -646.68 -0.24 
126.29 -646.69 -0.25 
125.89 -646.66 -0.27 
124.25 -646.54 -0.33 
123.90 -646.48 -0.35 
123.55 -646.37 -0.38 
123.32 -646.08 -0.43 
123.28 -645.95 -0.46 
123.25 -645.75 -0.49 
119.65 -648.98 -0.09 
118.96 -648.95 -0.11 
118.58 -648.94 -0.13 
118.11 -648.93 -0.15 
117.75 -648.90 -0.16 
117.45 -648.87 -0.18 
117.25 -648.84 -0.19 
117.01 -648.78 -0.21 
116.73 -648.50 -0.26 
116.71 -647.56 -0.41 
118.90 -648.67 0.11 
118.63 -648.66 0.10 
118.08 -648.64 0.07 
117.88 -648.59 0.06 
117.46 -647.91 -0.05 
126.39 -646.63 0.11 
126.23 -646.62 0.10 
124.35 -646.53 0.03 
124.29 -646.47 0.02 
124.28 -643.88 -0.38 
123.81 -645.60 -0.13 
123.72 -645.27 -0.18 
123.87 -643.84 -0.40 
123.48 -643.79 -0.42 
119.33 -648.87 0.25 
118.33 -648.83 0.21 
118.32 -648.59 0.17 
118.37 -647.94 0.07 
118.24 -648.41 0.14 
117.68 -648.78 0.18 
117.66 -648.74 0.17 
117.32 -648.75 0.16 
117.19 -648.72 0.16 
116.85 -648.72 0.14 
116.79 -648.62 0.13 
116.53 -648.44 0.09 
118.37 -648.61 0.40 
118.08 -648.58 0.38 
117.41 -647.79 0.25 
125.80 -646.75 0.49 
124.96 -646.67 0.46 
118.87 -648.95 0.63 
118.06 -647.78 0.41 
117.23 -647.77 0.54 
125.90 -646.73 0.82 
125.63 -646.69 0.81 
124.90 -636.48 0.80 
124.92 -636.27 0.78 
124.73 -643.91 1.06 
124.65 -643.92 1.06 
124.01 -643.83 1.02 
123.91 -643.61 0.99 
123.89 -643.54 0.98 
123.14 -643.79 0.99 
122.91 -643.73 0.98 
123.10 -643.39 0.93 
123.06 -642.81 0.84 
124.73 -636.11 1.04 
124.68 -636.58 1.09 
124.18 -646.82 1.82 
124.23 -644.14 1.43 
123.70 -644.06 1.40 
122.66 -643.93 1.35 
124.13 -646.49 2.14 
122.45 -647.68 2.25 
121.97 -644.88 1.84 
122.09 -643.69 1.68 
122.92 -646.52 2.59 
122.36 -647.22 2.38 
122.32 -647.10 2.37 
123.27 -643.91 2.08 
122.71 -643.81 2.04 
122.18 -647.68 2.57 
121.76 -644.90 2.17 
122.08 -643.75 2.02 
121.47 -647.05 2.41 
122.46 -645.38 2.46 
122.34 -645.45 2.46 
138.57 -629.70 1.81 
123.57 -637.83 2.28 
123.64 -637.41 2.24 
123.65 -637.82 2.57 
123.67 -637.54 2.54 
123.72 -645.66 2.55 
122.85 -646.49 2.75 
122.97 -643.94 2.40 
122.54 -644.66 2.40 
121.91 -647.74 2.89 
121.73 -645.47 2.51 
121.54 -644.95 2.49 
121.83 -643.81 2.34 
120.99 -646.96 2.71 
138.29 -629.90 1.49 
121.57 -644.38 2.61 
123.32 -637.81 2.30 
123.36 -637.57 2.27 
123.29 -637.93 2.31 
123.32 -637.73 2.29 
138.29 -630.01 2.15 
123.35 -637.90 2.70 
123.39 -637.51 2.66 
123.78 -645.72 2.89 
123.33 -646.63 3.12 
123.49 -645.70 2.89 
122.96 -645.68 2.88 
122.42 -645.60 2.87 
122.68 -643.99 2.73 
122.19 -645.55 2.86 
121.60 -647.76 3.21 
121.81 -645.55 2.85 
121.46 -645.52 2.85 
121.44 -643.84 2.67 
120.88 -646.87 3.01 
120.79 -646.64 2.98 
120.82 -645.70 2.86 
121.02 -645.58 2.85 
121.23 -644.96 2.82 
120.74 -646.19 2.93 
120.75 -645.93 2.89 
138.08 -629.99 1.86 
123.73 -645.87 3.23 
123.03 -637.80 2.24 
123.01 -638.20 2.66 
123.03 -637.95 2.63 
123.07 -637.65 2.59 
137.99 -630.32 2.52 
138.06 -630.10 2.50 
138.12 -629.79 2.46 
123.09 -637.90 3.13 
123.14 -637.53 3.09 
123.00 -638.16 2.90 
123.05 -637.99 3.01 
123.11 -637.60 2.84 
123.12 -637.27 2.80 
123.54 -645.86 3.23 
123.13 -645.83 3.22 
123.63 -643.25 2.89 
122.91 -645.80 3.22 
122.37 -645.72 3.20 
122.38 -644.11 3.07 
122.87 -643.18 2.87 
122.08 -645.71 3.19 
122.19 -644.11 3.06 
121.62 -645.69 3.19 
121.80 -644.07 3.05 
121.72 -643.03 2.84 
121.03 -645.82 3.20 
121.31 -645.70 3.18 
121.24 -643.98 3.02 
120.91 -646.62 3.30 
120.89 -646.36 3.26 
120.95 -645.96 3.21 
121.02 -645.08 3.16 
121.17 -644.12 3.03 
121.27 -643.00 2.83 
137.84 -630.10 2.20 
123.57 -646.00 3.58 
122.72 -643.38 3.19 
122.08 -643.31 3.16 
122.79 -637.98 2.72 
122.78 -637.93 2.59 
121.22 -644.33 3.27 
121.25 -643.27 3.13 
133.68 -640.87 3.99 
133.71 -640.85 3.99 
122.76 -638.34 3.01 
122.78 -638.10 2.97 
122.84 -637.77 2.93 
137.82 -630.31 2.84 
137.95 -629.86 2.79 
122.97 -637.48 3.39 
122.78 -638.29 3.37 
122.82 -638.04 3.33 
122.89 -637.68 3.29 
133.59 -640.11 3.40 
123.33 -643.43 3.23 
122.55 -645.93 3.53 
122.79 -643.38 3.21 
122.06 -646.83 3.74 
122.20 -645.90 3.52 
122.50 -643.33 3.20 
121.88 -645.91 3.52 
121.88 -644.24 3.39 
121.99 -643.28 3.19 
122.55 -638.11 2.58 
121.27 -647.61 3.72 
121.25 -647.48 3.70 
121.60 -644.20 3.38 
121.68 -643.25 3.19 
121.22 -644.17 3.36 
121.18 -643.23 3.18 
120.85 -645.18 3.48 
120.78 -644.90 3.44 
120.85 -644.51 3.39 
120.94 -644.25 3.36 
120.89 -643.22 3.17 
120.59 -643.23 3.17 
137.63 -630.31 2.55 
133.48 -641.06 3.85 
123.22 -646.19 3.91 
123.08 -646.20 3.91 
122.49 -646.10 3.88 
122.20 -646.08 3.87 
121.77 -646.94 3.97 
121.65 -646.50 3.90 
121.75 -646.16 3.86 
122.57 -638.07 2.94 
121.52 -643.52 3.50 
121.39 -643.69 3.52 
133.53 -640.06 3.94 
122.52 -638.43 3.35 
122.57 -638.18 3.31 
122.64 -637.83 3.27 
137.65 -630.29 3.15 
137.76 -630.02 3.13 
137.79 -629.83 3.10 
133.45 -639.99 4.46 
122.52 -638.51 3.61 
122.61 -638.16 3.67 
122.67 -637.81 3.58 
133.22 -640.51 3.78 
122.61 -643.71 3.56 
121.46 -644.55 3.74 
121.67 -643.67 3.55 
121.28 -644.54 3.73 
121.07 -644.50 3.72 
121.39 -643.94 3.58 
120.80 -644.46 3.71 
120.93 -643.64 3.53 
120.35 -645.39 3.81 
120.36 -645.02 3.76 
120.48 -644.62 3.72 
120.51 -644.20 3.60 
120.54 -643.91 3.56 
120.52 -643.58 3.52 
120.20 -644.91 3.68 
120.30 -643.63 3.52 
137.33 -630.74 2.93 
133.06 -641.48 4.23 
122.18 -638.40 3.32 
122.20 -637.71 3.19 
122.15 -638.65 3.73 
122.20 -638.35 3.69 
122.25 -638.12 3.66 
122.23 -637.69 3.60 
137.45 -630.39 3.48 
137.25 -631.02 3.55 
137.32 -630.66 3.50 
137.38 -630.51 3.49 
122.18 -638.68 4.05 
122.22 -638.30 3.94 
122.22 -637.94 3.90 
122.23 -637.57 3.86 
122.30 -636.77 3.75 
122.32 -637.68 4.45 
137.03 -630.82 2.73 
132.88 -641.10 4.22 
121.29 -644.36 3.96 
120.96 -644.74 4.06 
121.90 -638.32 3.22 
120.55 -644.69 4.08 
120.66 -644.33 3.95 
120.08 -645.50 4.07 
120.18 -645.03 4.11 
120.27 -644.78 4.08 
137.03 -630.83 3.31 
132.73 -641.60 4.61 
121.91 -638.40 3.81 
132.83 -641.11 4.77 
121.85 -638.68 4.13 
121.91 -638.42 4.09 
121.95 -638.19 4.06 
136.98 -631.09 3.92 
137.04 -630.85 3.89 
137.16 -630.49 3.85 
132.83 -641.07 5.31 
121.87 -638.71 4.41 
121.94 -638.31 4.38 
121.98 -638.00 4.39 
136.63 -631.00 3.17 
132.58 -641.22 4.65 
120.63 -644.79 4.48 
121.50 -638.58 3.67 
120.29 -644.66 4.45 
119.99 -644.67 4.44 
119.70 -644.97 4.46 
136.63 -630.87 3.72 
132.68 -641.70 5.07 
132.33 -641.66 5.04 
121.47 -638.68 4.51 
121.51 -638.44 4.42 
136.70 -630.81 4.28 
136.88 -630.48 4.25 
132.52 -641.11 5.75 
121.63 -638.16 4.75 
121.44 -638.54 4.92 
121.57 -638.33 4.82 
132.37 -640.88 4.94 
120.13 -644.90 4.81 
119.75 -644.84 4.79 
119.50 -644.89 4.78 
136.33 -631.17 4.11 
132.41 -641.99 5.46 
132.02 -641.92 5.43 
131.73 -641.91 5.41 
121.14 -638.77 4.72 
121.28 -638.49 4.81 
121.38 -638.18 4.83 
121.45 -637.79 4.77 
136.32 -631.27 4.69 
136.44 -630.88 4.64 
121.17 -638.75 5.05 
121.29 -638.47 5.11 
121.38 -638.12 5.13 
135.02 -632.28 4.60 
135.07 -632.12 4.57 
122.51 -630.05 3.63 
122.59 -630.09 4.18 
135.00 -632.22 5.18 
135.10 -631.91 5.23 
135.17 -631.51 5.33 
135.26 -631.25 5.29 
135.23 -632.95 4.68 
122.49 -631.77 4.05 
134.77 -633.78 5.24 
134.95 -633.09 5.15 
131.06 -644.32 6.62 
135.18 -633.09 5.38 
135.28 -632.71 5.33 
122.57 -631.68 4.47 
122.18 -631.78 4.73 
122.26 -631.67 4.45 
121.71 -631.77 4.70 
122.57 -631.65 4.90 
122.25 -631.66 4.88 
135.45 -633.06 4.94 
132.21 -644.06 6.22 
131.66 -644.00 6.19 
122.68 -631.88 4.30 
135.02 -633.65 5.52 
134.94 -634.25 5.60 
134.96 -633.90 5.55 
122.39 -632.54 4.69 
122.03 -632.57 4.68 
135.42 -633.17 5.68 
135.52 -632.72 5.62 
135.37 -633.40 5.71 
122.83 -631.84 4.80 
122.51 -631.82 4.78 
122.64 -632.46 5.25 
122.27 -632.44 5.22 
122.10 -632.44 5.21 
135.46 -632.67 5.18 
132.34 -643.72 6.47 
132.26 -643.67 6.46 
131.95 -643.65 6.44 
131.61 -643.65 6.43 
135.03 -633.53 5.82 
135.08 -633.25 5.78 
134.89 -633.65 5.83 
134.99 -633.42 5.80 
122.08 -632.19 4.94 
120.21 -641.58 6.23 
135.47 -632.86 5.95 
135.54 -632.43 5.89 
135.62 -632.14 5.86 
135.40 -633.04 5.97 
135.43 -632.78 5.94 
122.85 -631.48 5.07 
122.52 -631.47 5.05 
122.23 -632.09 5.51 
132.57 -643.35 6.70 
132.31 -643.24 6.68 
131.99 -643.24 6.67 
135.23 -632.84 6.04 
135.05 -633.27 6.10 
135.14 -633.05 6.07 
122.28 -631.81 5.22 
120.42 -641.68 6.57 
135.70 -632.48 6.22 
135.68 -632.15 6.17 
135.72 -631.87 6.14 
123.06 -631.16 5.35 
122.79 -631.15 5.34 
122.45 -631.17 5.32 
132.61 -642.98 6.93 
132.18 -642.88 6.91 
135.12 -633.07 6.38 
135.21 -632.62 6.32 
122.38 -631.47 5.49 
120.57 -640.99 6.78 
135.74 -632.13 6.48 
135.81 -631.58 6.40 
135.72 -631.80 6.43 
123.14 -630.82 5.62 
122.71 -630.83 5.60 
122.93 -630.81 5.61 
122.33 -631.02 5.60 
120.44 -641.36 6.83 
122.69 -631.49 6.13 
122.37 -631.44 6.10 
135.92 -631.46 5.90 
132.84 -642.61 7.16 
132.58 -642.63 7.15 
123.10 -630.56 5.29 
135.27 -632.33 6.58 
135.27 -632.10 6.55 
122.40 -631.14 5.74 
122.17 -631.18 5.74 
135.88 -631.59 6.71 
135.91 -631.27 6.66 
135.79 -631.45 6.68 
122.88 -630.51 5.86 
122.72 -631.11 6.40 
122.53 -631.12 6.40 
132.82 -642.45 7.23 
132.60 -642.42 7.22 
123.29 -630.50 5.38 
122.95 -630.47 5.37 
123.00 -630.98 5.87 
122.46 -630.97 5.84 
122.16 -630.98 5.82 
135.97 -631.15 6.75 
135.81 -631.27 6.76 
135.21 -632.52 6.71 
135.26 -632.14 6.65 
123.00 -630.34 5.96 
122.55 -630.51 5.96 
132.67 -642.04 7.47 
123.01 -630.12 5.61 
122.50 -630.71 6.12 
122.20 -630.70 6.10 
135.31 -631.89 6.93 
123.28 -630.13 6.26 
122.99 -630.16 6.25 
123.37 -629.84 5.90 
123.10 -629.87 5.89 
122.60 -630.46 6.43 
122.27 -630.45 6.41 
135.27 -631.71 7.24 
135.40 -631.52 7.21 
122.73 -630.19 6.66 
122.38 -630.18 6.64 
135.42 -631.32 7.45 
122.80 -629.94 6.89 
135.35 -631.31 7.71 
135.45 -631.02 7.67 
122.73 -629.83 6.93 
135.45 -630.92 7.70 
135.50 -630.66 7.98 
135.48 -630.58 8.21 
135.50 -630.48 8.19 
