# .PCD v0.7 - Point Cloud Data file format
VERSION 0.7
FIELDS x y z
SIZE 4 4 4
TYPE F F F
COUNT 1 1 1
WIDTH 2277
HEIGHT 1
VIEWPOINT 0 0 0 1 0 0 0
POINTS 2277
DATA ascii
134.47 -541.39 2.69 
134.67 -540.29 2.60 
134.71 -540.15 2.58 
134.50 -539.94 2.56 
134.35 -539.72 2.53 
133.85 -539.83 2.53 
133.58 -539.77 2.52 
133.62 -539.53 2.50 
133.64 -539.00 2.45 
128.67 -546.00 2.93 
130.25 -539.79 2.42 
130.20 -539.42 2.38 
127.84 -546.70 2.96 
128.45 -545.62 2.89 
128.50 -544.87 2.82 
128.76 -544.63 2.81 
128.86 -544.29 2.78 
129.85 -540.34 2.46 
129.86 -540.16 2.44 
130.19 -539.22 2.37 
127.44 -547.09 2.98 
127.48 -546.70 2.95 
127.67 -546.57 2.95 
127.70 -546.09 2.91 
129.55 -539.91 2.41 
127.15 -546.86 2.96 
127.36 -546.40 2.92 
127.33 -546.05 2.89 
129.32 -539.13 2.33 
128.58 -539.64 2.36 
128.37 -539.80 2.37 
125.76 -545.53 2.80 
125.46 -545.38 2.78 
125.51 -545.06 2.75 
125.84 -544.70 2.73 
125.78 -544.34 2.70 
125.31 -545.16 2.76 
124.92 -539.16 2.20 
124.89 -539.01 2.19 
124.07 -538.09 2.07 
135.92 -543.37 3.36 
136.06 -542.83 3.32 
135.95 -542.58 3.30 
136.23 -542.25 3.28 
135.66 -543.14 3.33 
135.97 -542.44 3.28 
135.78 -540.26 3.09 
135.13 -541.86 3.19 
135.28 -540.63 3.09 
135.68 -540.40 3.09 
134.90 -541.61 3.16 
134.81 -541.10 3.11 
134.97 -540.96 3.10 
134.27 -541.89 3.15 
134.26 -541.65 3.13 
134.51 -541.35 3.11 
134.70 -540.29 3.03 
134.27 -540.94 3.07 
134.33 -540.16 3.00 
134.33 -539.83 2.97 
134.15 -539.67 2.95 
134.09 -539.44 2.93 
134.02 -538.94 2.88 
133.87 -538.56 2.84 
128.72 -545.79 3.20 
128.76 -545.01 3.13 
130.21 -540.10 2.78 
128.63 -544.60 3.09 
128.50 -544.34 3.06 
129.48 -540.62 2.79 
129.90 -539.57 2.72 
127.30 -547.29 3.39 
127.51 -546.83 3.36 
127.57 -546.43 3.20 
127.68 -546.13 3.31 
129.44 -540.55 2.78 
129.35 -540.13 2.74 
129.49 -539.88 2.73 
129.52 -539.41 2.69 
129.54 -539.07 2.66 
127.21 -547.29 3.51 
127.20 -546.66 3.32 
127.26 -546.34 3.30 
127.37 -546.08 3.15 
129.23 -539.83 2.71 
129.34 -538.91 2.64 
126.75 -547.10 3.21 
127.09 -546.20 3.15 
127.13 -545.91 3.37 
126.36 -545.13 3.25 
125.61 -546.33 3.08 
125.81 -545.47 3.13 
125.93 -545.22 3.18 
125.84 -544.78 3.17 
125.40 -545.40 3.09 
125.50 -545.00 3.06 
125.64 -544.64 3.08 
125.59 -544.25 3.11 
125.35 -544.90 3.05 
125.43 -544.51 3.01 
125.44 -544.13 3.09 
124.95 -539.12 2.55 
124.89 -539.03 2.54 
135.85 -542.82 3.76 
133.99 -539.49 3.35 
130.53 -546.18 3.66 
129.78 -547.13 3.69 
130.39 -545.45 3.91 
129.54 -540.60 3.42 
129.82 -540.24 3.26 
129.63 -539.86 3.06 
129.79 -539.37 3.03 
129.41 -540.61 3.10 
129.40 -540.21 3.27 
129.42 -539.82 3.09 
129.60 -539.39 3.34 
129.67 -539.22 3.01 
129.02 -540.23 3.34 
128.95 -539.59 2.98 
129.12 -539.27 2.97 
129.29 -539.05 3.29 
126.88 -546.41 3.65 
126.91 -546.31 3.64 
128.80 -539.05 2.93 
128.27 -539.39 2.92 
126.05 -545.76 3.51 
126.02 -545.64 3.49 
125.98 -545.51 3.47 
125.77 -545.21 3.42 
125.62 -545.13 3.40 
125.23 -544.33 3.29 
125.08 -544.39 3.28 
125.10 -544.25 3.27 
124.05 -538.00 2.87 
130.61 -545.86 3.97 
130.68 -545.61 3.95 
130.04 -540.31 3.62 
129.65 -540.30 3.73 
129.30 -540.09 3.68 
129.26 -539.72 3.65 
129.69 -538.93 3.66 
129.07 -539.99 3.65 
128.89 -539.61 3.60 
129.23 -539.54 3.64 
129.40 -538.78 3.28 
128.65 -539.56 3.57 
128.75 -539.42 3.57 
129.54 -540.20 4.04 
129.86 -539.58 4.05 
129.99 -538.88 4.03 
129.19 -540.21 3.99 
129.35 -539.73 3.98 
129.36 -539.33 3.96 
129.46 -538.88 3.96 
129.29 -538.97 3.94 
129.77 -539.47 4.36 
129.44 -539.28 4.30 
129.59 -538.98 4.31 
129.85 -539.31 4.71 
130.05 -538.91 4.73 
141.37 -544.54 3.33 
141.35 -544.06 3.29 
141.25 -544.03 3.28 
141.33 -543.89 3.27 
136.55 -548.81 3.55 
136.90 -545.98 3.32 
136.12 -543.56 3.09 
136.34 -543.30 3.07 
135.78 -543.42 3.07 
135.99 -543.26 3.06 
136.15 -542.91 3.03 
135.75 -542.64 3.00 
135.84 -542.50 2.99 
135.23 -543.03 3.02 
135.63 -541.06 2.85 
135.84 -540.86 2.84 
134.79 -542.41 2.95 
134.42 -542.79 2.97 
134.59 -542.44 2.94 
134.56 -542.05 2.91 
134.64 -541.69 2.88 
134.31 -541.82 2.88 
134.35 -541.69 2.87 
134.70 -540.66 2.79 
134.54 -540.55 2.78 
134.72 -540.15 2.74 
134.23 -540.97 2.80 
134.08 -540.52 2.76 
134.27 -540.37 2.75 
134.45 -540.00 2.72 
134.04 -540.28 2.74 
133.75 -539.96 2.70 
128.64 -545.22 3.01 
129.03 -544.51 2.96 
129.06 -544.34 2.95 
129.90 -540.77 2.66 
128.54 -544.55 2.95 
128.67 -544.13 2.92 
129.86 -540.58 2.64 
129.70 -540.38 2.62 
127.36 -547.22 3.14 
127.54 -546.30 3.07 
127.62 -546.07 3.05 
128.09 -544.74 2.95 
129.41 -540.16 2.59 
129.48 -540.01 2.57 
129.83 -538.96 2.49 
127.21 -546.71 3.09 
127.34 -546.19 3.05 
128.94 -539.65 2.53 
128.90 -539.52 2.51 
128.76 -539.29 2.49 
125.61 -546.20 3.00 
125.58 -545.93 2.98 
125.90 -544.87 2.90 
126.15 -544.39 2.86 
125.53 -545.08 2.90 
125.67 -544.60 2.87 
125.78 -544.22 2.84 
124.91 -539.22 2.36 
124.08 -538.17 2.24 
141.50 -544.63 3.92 
141.41 -544.14 3.87 
137.80 -544.87 3.75 
136.40 -542.96 3.50 
135.92 -543.16 3.49 
135.97 -542.69 3.46 
135.97 -542.56 3.44 
135.66 -540.73 3.27 
135.62 -540.34 3.23 
134.53 -542.42 3.36 
134.69 -541.56 3.29 
134.90 -541.20 3.27 
134.13 -542.13 3.31 
134.13 -542.00 3.30 
134.54 -540.63 3.20 
134.25 -541.01 3.22 
134.27 -540.89 3.21 
134.32 -539.78 3.12 
134.04 -539.19 3.05 
133.79 -534.57 2.65 
129.36 -547.16 3.50 
128.83 -545.92 3.36 
128.98 -545.41 3.32 
129.31 -544.51 3.26 
128.52 -545.51 3.31 
129.86 -540.82 2.97 
127.89 -546.26 3.61 
128.34 -545.12 3.27 
128.33 -544.71 3.23 
128.46 -544.52 3.22 
129.47 -541.01 2.97 
129.59 -540.67 2.94 
127.33 -546.97 3.51 
127.46 -546.81 3.50 
127.85 -546.33 3.62 
127.72 -546.12 3.59 
127.84 -545.43 3.53 
129.31 -540.50 2.91 
129.52 -540.05 2.89 
129.44 -539.87 2.87 
129.40 -539.51 2.83 
129.71 -538.97 2.80 
129.65 -538.70 2.78 
127.14 -546.59 3.46 
127.30 -546.22 3.31 
127.36 -546.03 3.30 
129.26 -539.49 2.83 
126.91 -546.52 3.57 
127.01 -546.07 3.53 
128.86 -539.31 2.79 
126.19 -545.48 3.41 
125.76 -545.78 3.30 
125.78 -545.46 3.27 
125.97 -544.73 3.21 
125.37 -545.37 3.23 
125.50 -545.00 3.21 
125.60 -544.58 3.28 
125.23 -545.23 3.11 
125.28 -544.90 3.28 
125.39 -544.57 3.16 
125.32 -544.21 3.22 
124.99 -539.26 2.79 
124.91 -539.19 2.68 
124.02 -538.12 2.64 
135.44 -546.22 4.18 
130.62 -545.91 3.79 
130.46 -545.53 3.74 
129.38 -547.15 3.81 
129.84 -540.14 3.22 
129.84 -539.05 3.14 
129.46 -540.08 3.19 
129.37 -539.59 3.14 
129.20 -539.54 3.13 
129.19 -539.30 3.11 
129.20 -539.06 3.09 
128.72 -539.13 3.06 
125.06 -544.59 3.43 
124.97 -544.69 3.44 
124.95 -539.14 2.99 
124.69 -538.26 3.02 
124.46 -538.20 3.00 
124.11 -538.11 2.96 
135.81 -546.66 4.71 
130.54 -545.76 4.09 
124.98 -539.02 3.52 
125.09 -538.96 4.09 
141.40 -543.91 3.42 
137.75 -545.81 3.47 
137.74 -545.43 3.44 
137.31 -545.63 3.44 
135.99 -544.00 3.26 
135.77 -543.62 3.22 
135.95 -543.19 3.19 
135.47 -543.40 3.20 
135.62 -542.84 3.15 
135.68 -540.95 2.99 
135.78 -540.75 2.97 
134.75 -542.73 3.12 
134.85 -542.60 3.11 
134.46 -542.30 3.07 
134.60 -541.64 3.02 
134.35 -541.99 3.04 
134.33 -541.51 3.00 
134.27 -541.23 2.97 
134.64 -540.78 2.94 
134.03 -540.47 2.90 
134.47 -539.45 2.82 
133.97 -540.51 2.90 
129.29 -547.19 3.33 
129.01 -545.21 3.15 
128.71 -545.38 3.16 
128.32 -545.69 3.17 
128.35 -545.43 3.15 
128.64 -544.84 3.11 
128.46 -544.46 3.07 
129.50 -540.65 2.78 
129.52 -540.32 2.75 
129.93 -539.37 2.67 
129.81 -539.19 2.65 
127.25 -547.35 3.28 
127.30 -547.20 3.27 
127.65 -546.41 3.21 
129.42 -540.24 2.74 
129.36 -539.80 2.70 
129.52 -539.63 2.68 
129.80 -538.88 2.63 
127.22 -546.89 3.24 
127.06 -546.52 3.20 
129.11 -539.60 2.67 
128.97 -539.21 2.63 
126.78 -547.02 3.23 
126.97 -546.35 3.19 
128.73 -540.01 2.69 
128.68 -539.45 2.64 
128.68 -539.26 2.63 
125.44 -546.46 3.15 
125.50 -546.05 3.11 
125.36 -545.57 3.07 
125.38 -545.04 3.03 
125.80 -544.28 2.98 
124.90 -539.19 2.41 
136.25 -543.52 3.68 
135.98 -543.29 3.65 
136.09 -543.00 3.63 
135.66 -540.89 3.42 
135.71 -540.70 3.40 
134.96 -541.69 3.45 
135.58 -540.39 3.37 
134.56 -542.67 3.51 
134.48 -542.46 3.49 
134.84 -541.25 3.41 
134.10 -542.24 3.45 
134.41 -541.52 3.41 
134.43 -541.34 3.39 
134.02 -541.80 3.41 
133.59 -539.85 3.22 
133.73 -534.74 2.79 
128.95 -545.45 3.46 
129.09 -544.90 3.42 
128.81 -545.41 3.45 
128.73 -544.99 3.41 
127.66 -547.15 3.82 
128.09 -545.74 3.44 
128.39 -545.15 3.41 
128.36 -544.57 3.35 
129.45 -541.14 3.11 
129.47 -540.58 3.06 
129.69 -540.20 3.04 
129.85 -539.05 2.95 
129.99 -538.87 2.94 
127.39 -546.99 3.65 
127.65 -546.44 3.48 
129.22 -540.85 3.07 
129.14 -540.62 3.05 
129.39 -540.21 3.02 
129.34 -539.89 2.99 
129.32 -539.35 2.95 
129.60 -539.09 2.94 
127.23 -547.03 3.52 
127.12 -546.67 3.52 
127.28 -546.45 3.72 
129.22 -539.63 2.96 
129.27 -539.43 2.95 
129.16 -538.94 2.90 
126.89 -546.36 3.44 
128.57 -540.22 3.25 
128.64 -540.07 2.97 
128.62 -539.64 3.07 
126.08 -545.78 3.34 
125.43 -546.46 3.37 
125.62 -545.74 3.42 
125.78 -545.43 3.40 
125.76 -545.08 3.26 
125.80 -544.74 3.44 
125.49 -545.45 3.28 
125.53 -544.92 3.34 
125.72 -544.65 3.22 
124.92 -539.17 2.70 
135.99 -546.74 4.41 
135.53 -546.91 4.39 
130.47 -546.24 3.94 
130.54 -545.88 4.08 
133.71 -534.71 3.21 
130.31 -546.13 4.08 
130.25 -545.48 3.85 
130.11 -539.56 3.31 
127.78 -547.03 3.82 
129.46 -540.70 3.50 
129.61 -540.26 3.33 
129.72 -539.71 3.45 
129.98 -539.40 3.44 
129.86 -538.91 3.24 
130.06 -538.88 3.26 
129.14 -540.85 3.35 
129.17 -540.54 3.46 
129.31 -540.04 3.44 
129.36 -539.70 3.41 
129.38 -539.28 3.53 
129.40 -538.99 3.51 
128.94 -540.38 3.57 
129.08 -539.54 3.23 
129.22 -539.22 3.36 
129.40 -538.92 3.50 
128.67 -539.69 3.49 
128.69 -539.12 3.17 
125.76 -545.46 3.73 
124.95 -539.13 3.18 
124.68 -538.26 3.10 
124.42 -538.19 3.07 
124.10 -538.10 3.03 
135.74 -546.78 4.85 
130.14 -540.48 4.01 
129.59 -540.63 3.95 
129.80 -539.98 3.93 
129.15 -540.08 3.86 
129.32 -539.88 3.86 
129.51 -539.35 3.85 
128.99 -539.43 3.79 
124.99 -539.05 3.62 
124.42 -538.16 3.35 
124.19 -538.11 3.32 
130.00 -539.83 4.25 
129.59 -540.43 4.23 
129.47 -540.19 4.20 
129.80 -539.41 4.19 
129.39 -540.13 4.18 
129.32 -539.69 4.14 
129.37 -539.35 4.12 
125.11 -539.06 4.10 
130.08 -539.58 4.87 
129.73 -540.03 4.53 
129.72 -539.82 4.61 
129.82 -539.40 4.58 
129.73 -539.14 4.47 
129.58 -539.39 4.46 
137.34 -546.63 3.57 
137.51 -546.08 3.53 
137.61 -545.74 3.51 
137.40 -546.19 3.54 
137.28 -545.77 3.50 
136.72 -546.61 3.55 
136.85 -546.33 3.53 
136.96 -546.21 3.53 
136.03 -543.93 3.31 
136.14 -543.39 3.26 
135.90 -543.49 3.27 
135.87 -543.30 3.25 
135.43 -543.57 3.26 
135.61 -543.07 3.22 
135.54 -542.94 3.21 
135.58 -541.49 3.09 
135.85 -541.15 3.07 
134.73 -542.70 3.16 
134.57 -542.50 3.14 
134.52 -542.21 3.11 
134.52 -541.84 3.08 
134.92 -541.37 3.05 
134.16 -542.30 3.11 
134.22 -542.11 3.09 
134.45 -541.72 3.07 
134.66 -540.95 3.01 
134.02 -541.22 3.01 
133.58 -540.09 2.90 
129.23 -547.26 3.35 
129.15 -545.03 3.17 
128.82 -545.28 3.18 
128.17 -546.22 3.23 
128.46 -544.94 3.14 
128.51 -544.51 3.11 
129.74 -540.59 2.82 
129.69 -540.48 2.81 
130.03 -539.14 2.70 
129.94 -538.92 2.68 
127.24 -547.26 3.28 
127.74 -546.06 3.21 
129.52 -539.81 2.74 
129.83 -539.02 2.69 
127.14 -547.41 3.29 
127.16 -546.75 3.24 
127.39 -545.89 3.08 
129.06 -540.44 2.78 
128.98 -539.68 2.71 
128.69 -540.15 2.75 
128.73 -539.58 2.70 
125.37 -546.51 3.16 
125.57 -545.84 3.06 
125.94 -544.62 3.03 
125.75 -544.56 3.02 
124.92 -539.29 2.55 
124.91 -539.18 2.45 
141.22 -544.87 4.12 
141.50 -543.90 4.05 
141.50 -543.57 4.02 
137.78 -545.64 4.00 
135.39 -546.80 3.97 
135.54 -546.45 3.95 
135.90 -543.42 3.70 
135.44 -543.12 3.65 
135.07 -542.17 3.54 
134.38 -542.62 3.54 
134.76 -541.80 3.49 
134.75 -541.42 3.46 
134.08 -542.33 3.50 
134.10 -541.99 3.47 
134.46 -541.66 3.46 
134.21 -541.28 3.42 
134.54 -540.89 3.40 
133.79 -542.09 3.46 
134.37 -539.65 3.29 
134.01 -539.21 3.23 
133.96 -538.67 3.18 
129.77 -545.99 3.58 
128.86 -545.81 3.52 
128.79 -545.12 3.45 
130.20 -539.64 3.05 
128.17 -546.13 3.51 
128.22 -545.51 3.46 
128.45 -545.21 3.44 
128.41 -545.02 3.42 
128.33 -544.63 3.38 
129.45 -541.30 3.15 
129.42 -540.93 3.12 
129.81 -540.38 3.09 
129.63 -540.05 3.05 
129.97 -539.72 3.05 
129.94 -539.19 3.00 
127.37 -547.01 3.55 
127.55 -545.92 3.38 
128.02 -545.33 3.43 
128.14 -544.71 3.38 
129.15 -540.86 3.37 
129.31 -540.55 3.08 
129.44 -540.26 3.06 
129.33 -539.64 3.00 
129.47 -539.45 2.99 
129.71 -539.08 2.98 
129.63 -538.76 2.94 
127.16 -546.96 3.64 
127.13 -546.64 3.73 
127.30 -546.29 3.50 
127.23 -545.90 3.52 
128.82 -540.79 3.07 
128.98 -540.02 3.15 
129.22 -539.63 3.27 
128.98 -539.37 3.23 
129.24 -539.07 2.95 
126.90 -546.45 3.57 
127.09 -545.86 3.66 
128.49 -540.02 2.99 
128.82 -539.34 3.22 
126.14 -545.03 3.30 
125.38 -546.48 3.39 
125.54 -545.87 3.57 
125.71 -545.47 3.43 
125.79 -544.93 3.49 
124.92 -539.24 2.90 
124.92 -539.17 2.80 
124.06 -538.16 2.75 
135.71 -547.19 4.47 
135.70 -546.90 4.45 
135.25 -546.87 4.41 
130.29 -546.65 4.00 
130.50 -546.35 3.99 
130.60 -545.90 3.95 
130.34 -546.11 3.95 
130.28 -545.69 3.91 
130.40 -545.63 3.91 
129.53 -546.60 4.21 
129.83 -545.91 3.89 
130.00 -545.67 3.88 
129.92 -545.29 3.84 
129.19 -546.44 4.17 
130.26 -538.98 3.30 
129.58 -540.65 3.53 
129.55 -540.34 3.36 
129.68 -539.89 3.47 
129.99 -539.10 3.58 
127.46 -547.21 3.85 
127.63 -545.81 3.99 
129.24 -540.92 3.66 
129.27 -540.52 3.49 
129.33 -540.18 3.46 
129.31 -539.78 3.43 
129.58 -539.32 3.56 
129.70 -538.96 3.54 
127.28 -545.57 3.94 
128.91 -540.45 3.58 
128.79 -539.94 3.53 
129.23 -539.39 3.39 
126.96 -545.79 3.93 
128.67 -539.89 3.51 
125.67 -545.48 3.78 
124.98 -539.11 3.35 
124.73 -538.34 3.08 
124.71 -538.30 3.26 
124.46 -538.24 3.22 
124.14 -538.14 3.18 
130.27 -546.17 4.28 
129.38 -540.82 3.95 
129.55 -540.58 3.95 
129.67 -540.41 3.95 
129.06 -540.75 3.90 
129.15 -540.41 3.88 
129.08 -540.26 3.86 
129.44 -539.30 3.83 
128.87 -540.02 3.82 
129.15 -539.84 3.84 
129.14 -539.30 3.79 
125.01 -539.22 3.63 
125.05 -539.06 3.44 
129.73 -540.10 4.51 
129.73 -539.77 4.49 
129.76 -539.35 4.31 
129.37 -540.40 4.19 
129.15 -540.12 4.42 
129.33 -539.54 4.40 
129.45 -539.40 4.12 
128.96 -539.37 4.32 
125.12 -539.08 4.02 
130.13 -539.97 4.88 
130.10 -539.45 4.53 
130.15 -539.17 4.52 
129.80 -540.17 4.83 
129.76 -539.82 4.80 
129.95 -539.53 4.81 
130.13 -539.10 4.51 
129.98 -539.95 5.15 
130.05 -539.51 5.14 
141.11 -544.10 3.61 
138.71 -548.49 3.89 
137.75 -548.40 3.85 
137.42 -546.35 3.67 
137.56 -545.79 3.63 
137.70 -545.63 3.62 
137.02 -546.67 3.68 
137.07 -546.41 3.67 
137.25 -545.96 3.63 
136.80 -546.89 3.69 
137.10 -545.79 3.62 
135.44 -547.11 3.67 
135.51 -546.84 3.65 
136.12 -544.06 3.44 
136.11 -543.57 3.40 
135.87 -543.54 3.39 
136.14 -542.80 3.34 
135.63 -542.97 3.33 
135.54 -541.55 3.21 
135.81 -540.95 3.17 
134.74 -543.04 3.31 
134.41 -542.37 3.24 
134.51 -541.78 3.20 
134.71 -540.99 3.14 
134.28 -542.16 3.22 
134.28 -541.75 3.19 
134.18 -541.52 3.16 
134.40 -540.62 3.10 
134.15 -541.30 3.14 
134.17 -539.46 2.99 
129.13 -547.31 3.46 
129.08 -544.94 3.27 
127.94 -546.27 3.34 
128.14 -545.84 3.31 
128.38 -545.59 3.30 
128.33 -545.19 3.21 
128.44 -544.41 3.21 
129.45 -540.76 2.94 
129.63 -540.64 2.94 
127.71 -546.11 3.32 
128.32 -544.41 3.20 
129.34 -540.06 2.88 
129.41 -539.77 2.86 
129.74 -539.19 2.82 
129.79 -539.09 2.81 
127.05 -547.39 3.39 
127.12 -546.92 3.36 
127.13 -546.47 3.28 
127.26 -546.21 3.21 
127.38 -545.83 3.18 
128.77 -540.35 2.88 
129.08 -539.55 2.83 
128.40 -540.43 2.88 
125.70 -545.21 3.17 
125.29 -546.48 3.26 
141.48 -543.76 4.16 
135.52 -547.36 4.14 
135.54 -547.07 4.12 
135.18 -546.94 4.09 
135.49 -546.76 4.09 
135.57 -546.39 4.06 
135.83 -543.30 3.80 
134.49 -542.92 3.69 
133.92 -542.36 3.61 
134.09 -542.19 3.61 
134.45 -541.73 3.59 
133.99 -539.51 3.37 
133.58 -539.96 3.39 
130.68 -545.60 3.72 
130.65 -545.39 3.69 
133.82 -535.04 2.99 
129.28 -546.69 3.96 
128.96 -545.42 3.60 
128.67 -545.60 3.60 
128.67 -544.86 3.65 
128.27 -545.00 3.64 
128.53 -544.90 3.53 
129.42 -541.20 3.25 
129.36 -540.82 3.22 
129.50 -540.55 3.20 
129.77 -540.02 3.17 
129.98 -539.42 3.13 
127.31 -547.44 3.70 
127.34 -546.74 3.55 
127.46 -546.37 3.83 
127.97 -545.73 3.58 
127.95 -545.16 3.52 
128.30 -544.54 3.49 
129.08 -541.07 3.36 
129.16 -540.77 3.34 
129.28 -540.42 3.31 
129.40 -539.88 3.14 
129.30 -539.56 3.24 
129.54 -539.32 3.10 
126.98 -547.06 3.64 
127.00 -546.74 3.69 
127.19 -546.51 3.83 
127.22 -546.14 3.54 
127.31 -545.76 3.62 
128.97 -540.17 3.40 
129.17 -539.63 3.24 
129.18 -539.09 3.06 
126.76 -546.69 3.73 
126.85 -546.21 3.67 
126.99 -546.02 3.48 
126.84 -545.56 3.73 
128.66 -540.21 3.25 
128.85 -539.25 3.31 
126.53 -545.55 3.71 
126.17 -544.92 3.40 
126.30 -544.43 3.60 
125.47 -546.00 3.69 
125.63 -545.66 3.54 
125.73 -545.23 3.51 
125.87 -544.96 3.62 
125.85 -544.58 3.35 
125.55 -545.43 3.39 
125.60 -545.25 3.50 
125.70 -544.84 3.60 
135.84 -547.19 4.61 
135.52 -547.33 4.60 
135.88 -546.92 4.58 
135.25 -547.00 4.54 
133.90 -534.82 3.37 
130.46 -546.09 4.08 
133.85 -534.94 3.37 
130.22 -546.47 4.10 
130.23 -545.98 4.05 
130.21 -545.67 4.02 
130.16 -544.95 4.22 
129.14 -547.31 4.11 
129.96 -540.57 3.52 
130.10 -540.05 3.48 
130.13 -539.70 3.60 
130.17 -539.24 3.71 
129.51 -540.88 3.79 
129.56 -540.34 3.60 
129.93 -539.96 3.46 
129.82 -539.77 3.58 
129.99 -539.06 3.39 
127.46 -546.54 4.15 
127.72 -545.11 4.04 
127.84 -544.94 4.03 
129.20 -540.70 3.74 
129.28 -540.29 3.71 
129.38 -540.02 3.70 
129.49 -539.58 3.53 
129.57 -539.19 3.65 
127.18 -546.29 4.11 
128.93 -539.85 3.63 
129.20 -539.49 3.63 
126.87 -545.91 4.05 
126.97 -545.63 4.03 
126.50 -545.21 3.95 
125.69 -545.20 3.89 
125.52 -545.40 3.89 
130.20 -546.10 4.39 
130.37 -545.51 4.65 
130.10 -540.79 4.13 
129.53 -540.79 4.06 
129.63 -540.38 4.04 
129.61 -539.91 3.99 
129.90 -539.49 3.99 
129.96 -539.26 3.98 
129.17 -540.63 4.00 
129.26 -540.36 3.99 
129.28 -540.07 3.96 
128.95 -540.23 4.07 
128.87 -539.87 3.89 
129.14 -539.58 3.90 
128.72 -539.91 3.88 
125.09 -539.05 3.69 
130.05 -539.76 4.48 
130.14 -539.21 4.59 
129.59 -540.28 4.59 
129.69 -539.99 4.48 
129.87 -539.59 4.43 
129.51 -539.45 4.22 
125.10 -539.14 4.06 
130.24 -539.45 4.63 
129.79 -540.27 4.92 
129.76 -540.06 4.89 
130.01 -540.00 5.23 
129.87 -539.59 5.17 
141.42 -545.32 3.79 
141.28 -545.43 3.79 
141.44 -544.25 3.70 
141.13 -544.35 3.70 
138.54 -548.80 3.96 
138.63 -548.63 3.95 
137.81 -548.76 3.93 
137.62 -548.52 3.91 
136.81 -548.68 3.89 
137.40 -546.45 3.74 
137.66 -545.84 3.70 
137.12 -546.79 3.75 
137.15 -546.43 3.73 
137.28 -546.08 3.70 
137.38 -545.56 3.86 
137.60 -545.44 3.86 
136.63 -546.88 3.74 
136.45 -546.67 3.72 
135.40 -547.30 3.73 
135.47 -546.96 3.71 
136.10 -543.66 3.47 
135.00 -547.36 3.72 
135.77 -543.93 3.48 
135.76 -543.59 3.45 
135.33 -543.97 3.47 
135.71 -543.44 3.44 
135.47 -543.10 3.40 
134.70 -543.05 3.37 
135.42 -541.46 3.27 
134.39 -542.46 3.32 
134.64 -542.05 3.29 
134.26 -542.57 3.32 
134.19 -542.27 3.29 
134.31 -541.99 3.28 
134.27 -541.39 3.23 
134.79 -540.29 3.15 
134.77 -539.68 3.10 
134.18 -541.47 3.23 
134.17 -539.49 3.07 
134.06 -534.93 2.68 
130.42 -546.13 3.47 
133.82 -535.23 2.70 
129.12 -545.05 3.34 
128.62 -545.47 3.35 
128.68 -545.00 3.32 
128.15 -545.91 3.37 
128.30 -545.67 3.36 
128.32 -545.22 3.32 
128.42 -545.00 3.19 
128.46 -544.57 3.28 
129.42 -540.90 3.02 
129.47 -540.75 3.01 
129.88 -539.32 2.91 
129.90 -539.17 2.90 
127.59 -546.32 3.38 
129.55 -540.05 2.96 
129.40 -539.93 2.94 
127.10 -546.96 3.41 
127.25 -546.64 3.30 
127.27 -546.26 3.32 
127.41 -546.02 3.26 
128.72 -540.36 2.95 
126.98 -545.94 3.33 
128.57 -540.44 2.96 
125.44 -546.20 3.24 
125.95 -545.29 3.24 
125.88 -544.81 3.15 
125.32 -546.50 3.31 
125.81 -544.81 3.20 
141.49 -544.00 4.25 
137.86 -546.06 4.22 
137.72 -545.57 4.17 
135.58 -547.43 4.21 
135.67 -547.16 4.19 
135.16 -547.52 4.20 
135.36 -547.15 4.17 
135.42 -546.87 4.15 
135.81 -544.05 3.93 
135.86 -543.54 3.89 
135.95 -543.31 3.87 
134.51 -543.04 3.77 
134.37 -542.77 3.74 
134.14 -542.70 3.72 
134.03 -542.33 3.68 
134.42 -539.43 3.45 
134.10 -539.60 3.45 
133.87 -539.48 3.43 
134.04 -538.80 3.38 
133.92 -535.08 3.07 
134.03 -534.94 3.06 
130.88 -545.75 3.80 
130.61 -545.49 3.76 
130.31 -545.72 3.88 
130.42 -545.52 3.75 
129.86 -545.68 3.85 
129.14 -547.37 3.85 
129.28 -546.94 3.69 
128.78 -545.94 3.70 
128.83 -545.42 3.77 
128.70 -544.90 3.60 
127.96 -546.67 3.94 
128.49 -545.52 3.55 
128.48 -544.79 3.67 
128.59 -544.48 3.63 
128.66 -544.15 3.45 
129.60 -540.91 3.30 
129.64 -540.69 3.43 
129.59 -540.14 3.51 
127.52 -546.12 3.87 
127.88 -545.84 3.64 
128.01 -545.44 3.61 
128.21 -544.90 3.80 
128.28 -544.42 3.61 
129.07 -541.16 3.43 
129.17 -540.93 3.41 
129.29 -540.46 3.38 
129.47 -540.21 3.37 
129.34 -539.81 3.33 
129.58 -539.29 3.17 
129.78 -539.11 3.16 
127.24 -546.87 3.92 
127.02 -546.54 3.88 
127.26 -546.30 3.57 
128.97 -540.78 3.26 
129.01 -540.28 3.22 
129.14 -539.96 3.20 
129.19 -539.80 3.19 
126.75 -546.72 3.62 
126.83 -546.41 3.69 
126.92 -546.17 3.69 
128.61 -539.95 3.42 
128.23 -539.76 3.37 
126.10 -545.27 3.49 
126.22 -545.18 3.49 
125.40 -546.21 3.76 
125.73 -545.41 3.60 
125.90 -545.04 3.58 
126.02 -544.50 3.52 
125.28 -546.52 3.56 
125.50 -545.76 3.61 
125.59 -545.33 3.58 
125.83 -544.62 3.42 
137.31 -546.10 4.43 
137.24 -545.62 4.38 
137.26 -545.30 4.35 
137.13 -545.44 4.36 
137.11 -545.31 4.35 
135.29 -547.23 4.63 
135.04 -547.05 4.59 
133.93 -535.00 3.44 
130.49 -546.58 4.20 
130.53 -546.24 4.17 
133.78 -535.22 3.45 
130.33 -546.15 4.14 
130.29 -545.70 4.22 
130.32 -545.36 4.32 
129.93 -546.11 4.11 
129.95 -545.01 4.26 
129.07 -547.38 4.17 
129.62 -545.66 4.30 
129.88 -540.59 3.71 
130.29 -539.40 3.65 
130.29 -539.12 3.48 
129.28 -541.15 3.85 
129.96 -540.03 3.53 
130.01 -539.29 3.75 
130.13 -539.25 3.48 
127.45 -546.89 4.24 
127.38 -546.63 4.21 
127.66 -545.96 4.17 
127.87 -545.06 4.10 
129.22 -540.85 3.81 
129.20 -540.35 3.76 
129.23 -540.20 3.75 
129.27 -539.85 3.72 
129.79 -539.07 3.71 
127.28 -546.20 4.16 
128.94 -540.56 3.75 
129.01 -539.90 3.70 
126.79 -546.33 4.14 
126.74 -546.17 4.12 
128.60 -539.92 3.66 
125.57 -546.62 4.10 
125.74 -545.31 3.96 
125.35 -546.26 4.02 
136.21 -546.63 4.91 
130.18 -546.16 4.47 
130.30 -545.73 4.72 
130.19 -539.93 4.12 
129.51 -540.84 4.12 
129.51 -540.63 4.10 
129.66 -540.17 4.07 
129.79 -539.31 4.01 
129.03 -540.65 4.30 
129.20 -540.53 4.18 
129.35 -539.91 4.01 
129.37 -539.74 4.13 
129.42 -539.21 3.95 
128.82 -540.31 3.98 
128.88 -539.94 3.95 
129.17 -539.19 3.92 
129.55 -540.39 4.63 
129.82 -539.86 4.34 
130.03 -539.37 4.33 
129.25 -540.68 4.61 
129.38 -540.54 4.34 
129.40 -540.04 4.57 
129.59 -539.76 4.44 
129.91 -540.13 4.96 
129.98 -539.80 4.94 
129.79 -540.11 4.93 
129.82 -539.91 4.92 
129.80 -539.29 4.85 
130.00 -540.08 5.26 
138.77 -549.22 4.03 
138.59 -549.31 4.03 
138.53 -549.06 4.01 
136.80 -549.04 3.95 
136.98 -548.90 3.94 
137.72 -546.04 3.75 
136.64 -549.20 3.95 
136.99 -547.09 3.80 
137.14 -546.76 3.78 
137.34 -546.25 3.75 
137.27 -545.75 3.90 
137.43 -545.48 3.89 
136.04 -549.27 3.94 
136.44 -547.20 3.79 
135.85 -549.04 3.91 
136.34 -546.99 3.77 
135.08 -548.04 3.81 
135.30 -547.53 3.78 
135.91 -544.69 3.58 
135.62 -544.54 3.56 
135.66 -544.29 3.54 
135.73 -543.91 3.51 
135.74 -543.37 3.66 
136.01 -543.27 3.66 
135.30 -544.21 3.52 
135.58 -543.84 3.50 
135.40 -543.39 3.46 
135.26 -543.45 3.46 
135.36 -541.79 3.33 
134.26 -542.66 3.36 
134.22 -539.77 3.13 
134.48 -539.47 3.11 
133.79 -540.50 3.17 
134.04 -539.63 3.11 
133.52 -540.12 3.13 
130.33 -545.93 3.48 
128.66 -545.63 3.39 
127.99 -546.39 3.43 
128.06 -545.99 3.40 
128.28 -545.77 3.39 
128.43 -545.42 3.34 
128.42 -545.01 3.34 
129.37 -541.05 3.07 
129.54 -540.26 3.01 
127.89 -546.14 3.40 
128.07 -545.75 3.38 
128.01 -545.46 3.36 
128.28 -544.73 3.31 
128.24 -544.50 3.19 
129.29 -540.12 2.99 
127.21 -546.66 3.35 
129.17 -539.68 2.95 
126.77 -546.84 3.42 
128.72 -539.91 2.95 
125.84 -545.47 3.28 
125.55 -545.49 3.25 
125.89 -544.71 3.17 
135.49 -547.76 4.27 
135.77 -547.74 4.29 
135.42 -547.37 4.23 
135.20 -547.08 4.19 
134.84 -548.01 4.26 
134.97 -547.76 4.24 
135.57 -544.20 3.96 
135.75 -543.97 3.95 
134.66 -539.66 3.52 
133.64 -540.31 3.52 
134.07 -539.66 3.49 
134.07 -539.25 3.45 
133.87 -535.50 3.13 
130.91 -545.63 4.05 
130.35 -546.50 3.87 
130.21 -546.29 3.85 
129.44 -547.81 3.94 
129.85 -546.78 3.87 
130.00 -545.71 3.78 
130.03 -545.23 3.97 
128.94 -547.63 3.90 
128.90 -545.80 3.73 
129.07 -545.56 3.72 
128.85 -545.65 3.94 
128.72 -545.29 3.90 
128.75 -544.99 3.88 
129.09 -544.50 3.85 
129.13 -544.42 3.85 
130.11 -540.01 3.29 
130.12 -539.74 3.27 
128.16 -545.50 3.89 
128.33 -545.17 3.65 
128.53 -544.99 3.70 
128.45 -544.44 3.50 
128.73 -544.18 3.49 
129.38 -541.54 3.38 
129.60 -540.40 3.30 
129.77 -539.99 3.55 
129.79 -539.48 3.23 
127.77 -546.04 3.69 
128.01 -545.04 3.84 
128.06 -544.77 3.82 
128.24 -544.44 3.65 
128.99 -541.31 3.47 
129.12 -541.02 3.46 
129.25 -540.17 3.39 
129.45 -539.79 3.37 
127.18 -547.13 3.82 
127.30 -546.31 3.69 
127.44 -545.50 3.63 
127.95 -544.66 3.50 
128.00 -544.45 3.48 
128.99 -539.63 3.45 
129.19 -539.40 3.45 
126.72 -546.84 3.62 
126.74 -546.45 3.78 
126.81 -546.26 3.88 
128.38 -540.69 3.50 
128.57 -540.10 3.21 
126.48 -546.84 3.70 
126.47 -546.41 3.87 
126.25 -544.98 3.51 
125.40 -546.80 3.91 
126.05 -545.44 3.55 
126.11 -545.19 3.53 
126.23 -544.63 3.70 
125.97 -544.40 3.41 
125.17 -546.70 3.88 
125.36 -546.24 3.67 
125.42 -545.65 3.78 
125.47 -545.56 3.63 
125.64 -545.10 3.49 
125.71 -544.76 3.57 
125.89 -544.33 3.66 
125.12 -545.87 3.53 
138.43 -547.99 4.68 
137.87 -545.16 4.41 
137.14 -546.27 4.46 
137.35 -545.91 4.44 
137.36 -545.49 4.41 
136.95 -545.60 4.39 
137.09 -545.34 4.38 
135.27 -547.58 4.71 
134.95 -547.23 4.65 
135.36 -543.38 4.11 
134.01 -535.18 3.48 
134.17 -534.98 3.48 
133.84 -535.43 3.49 
133.94 -535.26 3.48 
130.58 -545.96 4.44 
130.27 -546.43 4.46 
130.16 -546.16 4.18 
130.27 -545.77 4.39 
129.77 -546.33 4.17 
130.04 -545.26 4.33 
128.96 -547.58 4.24 
129.69 -541.01 3.63 
129.91 -540.29 3.58 
130.18 -539.63 3.69 
129.19 -541.27 3.89 
129.58 -540.34 3.83 
129.66 -539.92 3.80 
129.95 -539.56 3.80 
129.01 -540.98 3.84 
129.18 -540.41 3.80 
129.25 -540.11 3.78 
129.43 -539.82 3.77 
128.85 -540.77 3.80 
128.86 -539.94 3.72 
129.19 -539.37 3.70 
126.85 -546.47 4.20 
125.37 -546.81 4.19 
125.46 -546.82 4.19 
125.63 -546.36 4.09 
125.23 -546.25 4.05 
135.79 -546.50 4.90 
135.42 -546.83 4.90 
135.23 -546.64 4.87 
135.55 -546.26 4.86 
134.84 -546.81 4.85 
135.23 -546.04 4.81 
133.97 -535.20 3.85 
130.05 -546.41 4.54 
130.21 -545.82 4.76 
129.98 -539.96 4.12 
129.39 -541.00 4.16 
129.47 -540.16 4.08 
129.88 -540.00 4.11 
129.23 -540.82 4.39 
129.19 -540.14 4.04 
129.18 -539.76 4.00 
129.44 -539.53 4.01 
128.79 -540.30 4.01 
128.93 -540.11 4.01 
129.10 -539.42 3.96 
135.34 -546.77 5.37 
135.54 -546.71 5.39 
130.07 -540.16 4.73 
130.02 -539.76 4.68 
129.29 -540.88 4.54 
129.59 -539.90 4.62 
129.26 -540.22 4.60 
129.27 -539.50 4.52 
129.26 -539.42 4.51 
129.81 -540.48 5.01 
129.85 -540.22 4.99 
129.71 -540.25 4.97 
129.75 -539.65 4.90 
129.78 -539.59 4.90 
129.88 -540.19 5.28 
130.01 -539.87 5.27 
138.34 -549.72 3.92 
138.23 -549.26 3.88 
137.89 -549.90 3.93 
137.93 -546.60 3.63 
137.76 -546.68 3.64 
137.63 -546.19 3.79 
136.89 -549.01 3.82 
137.32 -547.11 3.66 
137.31 -546.52 3.71 
137.36 -546.28 3.79 
137.36 -545.84 3.75 
137.49 -545.50 3.72 
136.49 -549.21 3.83 
136.60 -547.73 3.70 
136.77 -547.16 3.66 
136.67 -547.00 3.64 
136.94 -546.71 3.62 
137.19 -546.08 3.77 
137.22 -545.74 3.74 
136.09 -549.62 3.85 
136.45 -547.28 3.66 
136.34 -544.50 3.41 
135.50 -546.91 3.81 
136.00 -544.52 3.40 
135.16 -548.03 3.69 
135.20 -547.79 3.67 
135.77 -544.19 3.37 
135.81 -543.36 3.49 
135.88 -543.16 3.47 
135.16 -544.39 3.37 
135.41 -544.39 3.38 
135.56 -544.00 3.34 
135.50 -542.33 3.19 
135.11 -542.05 3.16 
134.52 -541.98 3.33 
134.48 -541.72 3.31 
134.37 -541.56 3.09 
134.44 -541.28 3.07 
134.60 -539.89 2.95 
134.60 -539.72 2.93 
134.24 -539.76 2.93 
133.57 -540.88 3.01 
133.69 -540.64 2.99 
128.35 -545.81 3.32 
128.55 -545.16 3.16 
128.79 -544.88 3.25 
129.34 -541.40 2.96 
129.59 -540.88 2.92 
129.43 -540.69 2.90 
127.73 -546.68 3.38 
128.06 -546.00 3.33 
128.14 -545.73 3.31 
128.21 -545.09 3.26 
128.25 -544.88 3.24 
127.80 -545.65 3.29 
128.52 -540.79 2.88 
127.10 -547.08 3.40 
127.09 -546.71 3.27 
128.47 -540.59 2.87 
125.73 -545.55 3.23 
126.02 -544.78 3.12 
125.01 -546.87 3.32 
125.45 -545.74 3.19 
125.28 -545.49 3.21 
125.43 -545.17 3.19 
125.55 -544.61 3.14 
124.65 -546.02 3.24 
125.03 -545.47 3.20 
137.48 -546.59 4.13 
135.59 -548.03 4.19 
135.27 -547.65 4.14 
134.87 -548.44 4.20 
135.07 -547.85 4.15 
135.18 -547.45 4.11 
134.72 -547.95 4.14 
135.52 -544.08 3.79 
134.42 -541.88 3.52 
133.93 -542.96 3.61 
134.14 -542.05 3.53 
134.22 -540.74 3.40 
133.84 -540.87 3.40 
134.14 -540.84 3.41 
134.10 -540.34 3.36 
134.21 -539.99 3.33 
133.73 -539.69 3.28 
133.83 -539.53 3.27 
130.43 -545.54 3.56 
130.62 -545.31 3.91 
130.03 -546.42 3.89 
130.21 -546.04 3.75 
130.33 -545.32 3.90 
129.08 -547.96 3.90 
129.72 -546.64 3.79 
129.72 -546.05 3.73 
128.62 -547.77 3.86 
128.92 -545.26 3.83 
128.99 -544.49 3.43 
129.77 -540.68 3.42 
130.07 -540.30 3.17 
129.93 -539.79 3.11 
128.47 -545.53 3.51 
128.48 -545.20 3.53 
128.74 -544.86 3.78 
128.71 -544.57 3.43 
129.24 -541.22 3.22 
129.25 -541.00 3.33 
129.41 -540.72 3.31 
129.52 -540.08 3.39 
128.24 -545.96 3.54 
128.19 -545.58 3.56 
128.10 -545.14 3.67 
128.25 -544.86 3.60 
128.34 -544.40 3.72 
128.54 -544.10 3.38 
128.95 -541.25 3.39 
129.15 -540.85 3.29 
129.24 -540.70 3.17 
129.45 -539.99 3.11 
129.24 -539.74 3.34 
127.64 -546.10 3.64 
127.90 -545.45 3.59 
127.83 -545.10 3.77 
128.77 -541.24 3.20 
128.92 -539.89 3.33 
127.04 -547.29 3.63 
127.10 -546.99 3.92 
127.16 -546.33 3.55 
128.32 -540.32 3.34 
126.35 -547.29 3.61 
125.91 -545.60 3.52 
126.16 -545.15 3.48 
125.48 -546.43 3.79 
125.55 -545.79 3.73 
125.56 -545.33 3.58 
125.63 -544.99 3.44 
125.91 -544.81 3.38 
125.79 -544.45 3.61 
125.14 -546.34 3.77 
125.13 -545.65 3.44 
125.20 -545.37 3.56 
125.40 -544.97 3.51 
125.53 -544.65 3.49 
125.70 -544.27 3.33 
124.79 -545.60 3.47 
125.08 -545.28 3.53 
141.45 -545.19 4.40 
141.46 -543.75 4.26 
141.13 -543.84 4.26 
139.07 -548.55 4.62 
137.90 -545.22 4.24 
137.09 -546.74 4.35 
137.44 -546.53 4.35 
137.30 -546.24 4.31 
137.51 -545.89 4.29 
137.47 -545.43 4.24 
137.07 -546.57 4.34 
136.96 -545.89 4.26 
136.95 -545.57 4.23 
137.25 -545.50 4.24 
135.21 -547.96 4.65 
135.50 -547.95 4.66 
135.68 -546.34 4.25 
134.96 -547.69 4.60 
135.22 -546.85 4.28 
135.97 -543.65 4.00 
135.72 -543.39 3.96 
135.84 -543.05 3.94 
135.32 -542.84 3.89 
134.41 -542.29 3.79 
134.22 -542.50 3.81 
134.14 -542.25 3.78 
134.32 -541.48 3.71 
133.93 -540.51 3.74 
134.06 -535.44 3.25 
130.34 -546.81 4.21 
130.48 -546.31 4.38 
130.48 -545.88 4.34 
130.65 -545.67 4.32 
130.02 -546.22 4.23 
129.93 -545.81 4.29 
130.17 -545.56 4.28 
128.82 -547.83 4.24 
129.19 -547.13 4.39 
130.42 -539.76 3.42 
130.47 -539.68 3.41 
129.91 -540.48 3.75 
129.87 -540.28 3.58 
130.05 -539.80 3.54 
129.18 -541.36 3.51 
129.44 -540.90 3.61 
129.61 -540.50 3.58 
129.65 -540.12 3.54 
129.70 -539.71 3.64 
128.96 -541.22 3.75 
129.11 -540.87 3.72 
129.20 -540.58 3.70 
129.22 -540.09 3.64 
128.72 -540.62 3.66 
128.77 -540.22 3.61 
125.27 -546.98 3.93 
125.53 -546.46 4.08 
125.34 -546.38 4.06 
135.91 -547.40 4.87 
135.84 -546.74 4.79 
135.55 -546.81 4.78 
135.18 -546.88 4.76 
135.33 -546.18 4.70 
135.92 -543.33 4.44 
134.78 -547.10 4.76 
134.00 -535.61 3.63 
134.13 -535.39 3.62 
133.91 -535.78 3.63 
130.15 -546.00 4.69 
130.21 -540.18 4.03 
129.90 -539.92 3.97 
129.22 -541.19 4.05 
129.38 -540.69 4.00 
129.52 -540.57 4.04 
129.66 -540.09 3.96 
129.62 -539.74 3.92 
129.03 -541.18 4.03 
129.00 -540.86 3.98 
129.07 -540.27 3.92 
129.17 -540.13 3.91 
128.64 -540.45 3.89 
135.52 -546.90 5.28 
129.93 -540.15 4.46 
130.02 -539.84 4.48 
129.54 -540.75 4.53 
129.13 -541.02 4.30 
129.17 -540.89 4.42 
129.30 -539.77 4.42 
129.75 -540.73 4.93 
129.83 -540.49 4.90 
129.38 -540.90 4.89 
129.59 -540.01 4.63 
130.02 -540.44 5.23 
130.01 -540.13 5.18 
138.87 -548.81 4.15 
138.97 -548.50 4.13 
138.25 -549.80 4.01 
138.26 -549.61 4.00 
138.59 -548.52 4.12 
137.73 -549.85 4.00 
137.27 -548.46 4.08 
136.67 -549.64 3.96 
136.88 -548.41 4.07 
136.98 -547.70 3.80 
137.16 -547.28 3.77 
137.31 -546.36 3.90 
137.34 -546.13 3.88 
137.45 -545.81 3.85 
136.47 -549.94 3.98 
136.43 -549.57 3.95 
136.57 -548.99 3.90 
136.77 -547.30 3.76 
136.97 -546.81 3.72 
136.17 -549.88 3.96 
135.49 -547.08 3.92 
136.07 -544.76 3.52 
135.95 -543.00 3.57 
135.08 -548.03 3.78 
135.54 -544.84 3.52 
135.69 -544.44 3.48 
135.71 -543.37 3.59 
136.00 -540.75 3.36 
135.23 -544.44 3.47 
135.50 -542.25 3.29 
135.47 -541.95 3.26 
135.46 -541.22 3.39 
134.79 -542.75 3.32 
135.18 -542.37 3.29 
134.29 -543.50 3.37 
134.61 -542.15 3.46 
134.73 -541.93 3.44 
134.82 -541.45 3.20 
134.21 -542.88 3.31 
134.36 -542.04 3.44 
134.45 -541.82 3.23 
134.44 -541.03 3.15 
134.26 -540.65 3.12 
134.35 -540.25 3.08 
133.97 -540.74 3.12 
133.46 -541.05 3.13 
133.52 -540.85 3.12 
133.78 -539.52 3.20 
130.08 -546.41 3.51 
130.27 -540.80 3.03 
129.94 -540.88 3.03 
129.59 -541.71 3.10 
128.47 -545.79 3.30 
128.50 -545.31 3.35 
128.49 -545.05 3.35 
127.76 -546.72 3.47 
128.14 -546.15 3.44 
127.98 -545.75 3.40 
128.13 -545.45 3.38 
128.27 -544.66 3.21 
128.72 -540.36 2.96 
127.67 -546.54 3.46 
127.60 -545.30 3.35 
126.99 -546.54 3.44 
126.60 -547.37 3.50 
126.67 -546.98 3.47 
126.80 -546.74 3.45 
124.97 -546.94 3.41 
125.25 -545.40 3.25 
125.39 -545.00 3.24 
124.81 -545.53 3.29 
125.12 -545.21 3.24 
124.60 -545.74 3.30 
124.46 -545.35 3.27 
141.47 -545.77 4.34 
138.04 -549.59 4.56 
137.37 -547.13 4.28 
137.45 -546.84 4.26 
137.02 -547.48 4.30 
137.23 -547.21 4.29 
135.06 -547.73 4.24 
135.17 -547.29 4.20 
135.46 -544.80 3.97 
134.82 -547.90 4.25 
135.61 -541.74 3.68 
135.67 -541.55 3.66 
134.95 -540.02 3.48 
133.88 -543.46 3.77 
134.02 -543.43 3.77 
133.98 -542.86 3.71 
134.43 -539.63 3.42 
133.78 -542.09 3.63 
133.88 -540.71 3.50 
133.91 -540.55 3.48 
133.79 -540.01 3.42 
133.32 -540.32 3.43 
133.91 -535.93 3.04 
130.59 -546.66 3.94 
130.39 -545.31 4.01 
129.78 -546.98 3.93 
130.20 -546.16 3.87 
130.19 -545.33 4.00 
129.91 -540.69 3.43 
129.92 -539.96 3.24 
128.75 -547.92 3.99 
128.75 -546.11 4.01 
128.94 -545.45 3.85 
129.16 -544.60 3.88 
129.32 -541.10 3.55 
129.61 -540.40 3.27 
129.84 -539.90 3.35 
129.59 -539.19 3.38 
128.54 -545.68 3.62 
128.58 -544.95 3.73 
128.72 -544.66 3.54 
128.67 -544.26 3.50 
129.08 -541.78 3.38 
129.14 -541.29 3.34 
129.20 -540.95 3.36 
129.20 -540.71 3.40 
129.17 -540.17 3.23 
129.33 -539.86 3.37 
129.37 -539.30 3.38 
127.83 -546.58 3.81 
127.98 -545.90 3.75 
128.11 -545.59 3.66 
128.01 -545.13 3.78 
128.16 -544.86 3.86 
128.37 -544.60 3.68 
128.82 -540.42 3.49 
128.77 -540.16 3.44 
129.11 -539.25 3.37 
127.61 -546.65 3.81 
127.64 -546.29 3.77 
127.58 -545.90 3.62 
127.78 -545.18 3.88 
127.99 -544.62 3.52 
128.40 -540.88 3.26 
128.46 -540.62 3.50 
126.94 -547.30 3.95 
127.04 -546.65 3.78 
126.82 -547.10 3.82 
126.12 -546.45 3.73 
125.90 -545.47 3.62 
125.97 -545.00 3.50 
125.64 -545.78 3.74 
125.64 -545.43 3.69 
125.68 -544.95 3.63 
125.86 -544.73 3.47 
125.24 -545.64 3.59 
125.28 -545.32 3.53 
125.29 -544.90 3.61 
125.40 -544.48 3.70 
125.42 -544.18 3.54 
124.84 -545.65 3.57 
124.82 -545.41 3.57 
125.05 -544.94 3.62 
124.54 -545.20 3.81 
139.11 -548.76 4.74 
138.93 -548.39 4.70 
138.36 -548.67 4.70 
137.77 -545.44 4.36 
137.09 -546.76 4.46 
137.24 -546.51 4.44 
137.20 -546.15 4.40 
137.42 -545.58 4.36 
136.84 -546.79 4.45 
136.95 -545.73 4.35 
135.48 -547.08 4.41 
135.54 -546.70 4.38 
135.62 -546.45 4.36 
135.85 -543.47 4.08 
135.09 -547.81 4.65 
135.23 -547.30 4.69 
135.80 -543.34 4.07 
135.27 -543.60 4.07 
134.73 -542.85 3.97 
134.48 -541.65 3.84 
134.33 -542.42 3.91 
134.23 -542.13 3.88 
134.08 -540.69 3.89 
134.03 -540.55 3.87 
133.90 -539.44 3.61 
134.25 -535.38 3.38 
133.93 -535.85 3.40 
134.06 -535.67 3.39 
130.44 -546.66 4.32 
130.38 -545.98 4.45 
130.32 -545.63 4.41 
129.98 -546.74 4.30 
129.94 -545.94 4.42 
130.11 -545.64 4.39 
129.60 -546.81 4.29 
130.37 -540.50 3.93 
128.83 -547.97 4.38 
129.15 -547.23 4.51 
129.84 -541.05 3.94 
129.89 -540.59 3.60 
130.06 -540.25 3.87 
130.13 -539.95 3.84 
128.63 -547.91 4.36 
129.37 -541.32 3.79 
129.51 -540.97 3.75 
129.54 -540.56 3.71 
129.69 -540.29 3.70 
129.68 -539.83 3.63 
129.81 -539.58 3.48 
129.77 -539.18 3.71 
129.10 -541.32 3.72 
129.12 -540.87 3.86 
129.31 -540.59 3.70 
129.23 -540.31 3.80 
129.43 -539.72 3.60 
129.55 -539.11 3.69 
128.85 -541.01 3.85 
128.72 -540.47 3.78 
128.80 -540.11 3.73 
128.92 -539.78 3.71 
129.12 -539.31 3.67 
128.47 -540.89 3.81 
126.86 -547.18 4.17 
126.75 -547.48 4.21 
126.60 -546.96 4.13 
125.67 -545.23 4.06 
125.05 -547.00 4.22 
125.24 -545.97 4.12 
124.82 -545.08 3.81 
122.81 -546.56 4.18 
135.85 -547.47 4.97 
135.83 -546.82 4.90 
135.41 -547.10 4.91 
135.97 -543.47 4.56 
135.28 -546.89 4.87 
135.28 -546.56 4.84 
135.35 -546.30 4.82 
135.77 -543.37 4.54 
134.81 -547.07 4.86 
134.52 -541.63 4.28 
136.28 -530.02 3.48 
134.03 -542.20 4.30 
134.04 -539.17 4.01 
133.76 -539.28 4.00 
133.89 -538.81 3.96 
134.11 -535.57 3.75 
133.91 -535.99 3.77 
134.06 -535.66 3.75 
129.85 -546.73 4.68 
130.14 -546.03 4.81 
130.07 -540.70 4.23 
129.83 -540.05 4.12 
130.05 -539.25 4.06 
130.25 -539.03 4.06 
129.35 -541.36 4.24 
129.73 -540.48 4.16 
129.59 -540.11 4.10 
129.66 -539.84 4.07 
129.64 -539.24 4.02 
129.61 -539.14 4.01 
129.12 -541.13 4.18 
129.25 -539.82 4.03 
128.88 -540.64 4.09 
128.71 -540.04 4.01 
135.51 -546.98 5.40 
129.96 -540.28 4.46 
129.97 -539.97 4.72 
129.37 -540.80 4.75 
129.54 -540.29 4.41 
129.68 -539.39 4.36 
129.15 -541.23 4.69 
129.06 -540.94 4.58 
129.26 -540.33 4.38 
129.16 -539.71 4.33 
129.27 -539.18 4.29 
128.98 -539.25 4.26 
129.71 -540.85 5.12 
129.85 -540.59 5.10 
129.97 -540.09 4.73 
130.02 -539.90 4.72 
129.47 -540.99 5.10 
129.67 -540.55 5.06 
129.77 -539.98 4.99 
129.15 -539.05 4.87 
129.92 -540.52 5.41 
129.84 -539.40 5.68 
138.91 -548.69 4.18 
137.42 -546.43 3.94 
137.60 -545.96 3.91 
137.54 -545.71 3.88 
137.02 -548.68 4.13 
136.95 -548.34 4.10 
137.07 -547.42 3.81 
137.03 -547.09 3.78 
137.26 -546.60 3.95 
137.26 -546.01 3.90 
136.48 -548.53 4.10 
136.62 -548.42 4.10 
136.51 -547.79 3.82 
136.69 -547.56 3.81 
136.80 -547.07 3.77 
135.85 -543.93 3.69 
135.93 -543.50 3.65 
135.51 -547.16 3.96 
135.72 -545.01 3.57 
135.55 -544.74 3.54 
135.83 -544.10 3.70 
135.81 -543.91 3.68 
135.73 -541.15 3.44 
135.35 -542.72 3.36 
135.09 -542.46 3.33 
134.27 -543.61 3.41 
134.55 -542.98 3.36 
134.38 -542.07 3.28 
134.80 -540.49 3.15 
134.50 -539.99 3.30 
134.11 -543.24 3.37 
134.20 -542.99 3.36 
134.25 -541.06 3.19 
134.17 -540.63 3.15 
133.79 -541.03 3.18 
133.74 -540.56 3.13 
133.86 -540.38 3.12 
133.91 -539.66 3.26 
133.36 -541.28 3.19 
133.58 -541.13 3.18 
130.02 -547.09 3.59 
129.90 -546.70 3.55 
130.20 -541.01 3.08 
130.11 -540.63 3.05 
128.45 -548.06 3.62 
128.35 -545.38 3.40 
128.27 -545.26 3.39 
128.33 -544.86 3.25 
128.78 -540.55 3.01 
128.06 -545.49 3.40 
127.32 -547.23 3.52 
127.53 -546.76 3.49 
127.67 -546.38 3.46 
127.42 -545.69 3.40 
127.06 -546.86 3.49 
126.50 -547.39 3.51 
126.71 -547.10 3.50 
125.91 -545.66 3.35 
125.89 -545.01 3.24 
125.55 -545.63 3.34 
125.71 -545.43 3.27 
125.49 -545.13 3.27 
125.17 -545.85 3.35 
125.19 -545.46 3.32 
125.34 -544.94 3.26 
124.86 -547.06 3.44 
124.54 -546.13 3.35 
124.84 -545.68 3.32 
124.86 -545.56 3.31 
123.47 -545.58 3.26 
122.73 -546.58 3.33 
141.21 -545.48 4.35 
137.35 -547.37 4.36 
136.75 -549.82 4.57 
137.03 -547.49 4.35 
135.61 -541.83 3.74 
134.82 -548.34 4.34 
135.22 -542.60 3.79 
135.39 -542.23 3.76 
135.46 -541.96 3.74 
134.62 -548.36 4.33 
134.85 -540.18 3.54 
134.51 -542.50 3.75 
133.90 -543.64 3.83 
134.20 -543.53 3.84 
133.83 -543.43 3.81 
133.85 -541.01 3.57 
133.70 -540.75 3.54 
133.96 -540.10 3.49 
133.97 -539.96 3.48 
133.94 -536.11 3.11 
133.44 -540.49 3.51 
133.51 -540.16 3.48 
130.11 -546.40 3.94 
130.29 -545.36 4.05 
129.96 -545.43 4.04 
130.08 -545.37 4.04 
130.05 -540.55 3.25 
129.62 -546.13 4.09 
129.57 -541.91 3.47 
129.81 -540.76 3.36 
129.64 -540.50 3.33 
129.73 -539.78 3.49 
129.81 -539.14 3.43 
128.85 -547.22 4.17 
129.07 -545.51 4.01 
129.23 -545.25 3.99 
129.03 -544.34 3.55 
129.26 -541.07 3.37 
129.25 -540.62 3.43 
129.51 -540.28 3.30 
129.41 -540.06 3.28 
129.55 -539.56 3.46 
129.58 -538.73 3.38 
128.66 -545.88 3.82 
128.63 -545.61 3.79 
128.77 -545.12 3.61 
128.66 -544.76 3.92 
128.86 -544.40 3.55 
129.02 -541.96 3.45 
129.10 -541.20 3.38 
128.81 -540.60 3.52 
129.10 -539.94 3.47 
129.16 -539.49 3.43 
128.08 -546.68 3.88 
128.45 -546.36 4.06 
128.25 -545.42 3.79 
128.43 -545.10 3.60 
128.39 -544.68 3.73 
128.51 -544.37 3.54 
127.76 -546.28 3.82 
127.91 -545.87 3.86 
127.86 -545.56 3.86 
127.49 -546.29 3.91 
127.58 -545.89 3.98 
127.06 -546.62 3.76 
126.69 -546.73 3.69 
125.83 -546.06 3.92 
125.83 -545.65 3.68 
125.46 -545.97 3.79 
125.57 -545.77 3.68 
125.64 -545.29 3.59 
125.48 -545.00 3.61 
125.68 -544.40 3.47 
124.89 -547.05 3.78 
124.97 -546.10 3.69 
125.08 -545.69 3.65 
125.20 -545.17 3.52 
125.27 -544.86 3.64 
125.09 -544.54 3.73 
125.15 -544.31 3.71 
124.61 -545.81 3.64 
124.95 -544.44 3.72 
123.33 -545.95 3.80 
123.38 -545.71 3.78 
139.05 -548.47 4.76 
138.69 -549.27 4.82 
138.26 -548.36 4.71 
137.72 -546.36 4.49 
137.16 -549.01 4.72 
137.34 -548.57 4.69 
137.38 -546.67 4.50 
137.45 -546.42 4.48 
137.45 -545.98 4.44 
137.36 -545.53 4.39 
137.12 -546.83 4.51 
137.09 -545.58 4.39 
135.72 -547.18 4.48 
135.70 -546.47 4.41 
135.87 -543.85 4.16 
136.06 -543.04 4.09 
135.37 -547.82 4.52 
135.55 -546.93 4.44 
136.31 -530.12 3.10 
136.36 -529.87 3.09 
135.11 -547.88 4.52 
135.16 -547.37 4.47 
135.21 -547.06 4.44 
134.40 -542.67 3.98 
134.31 -542.37 3.95 
134.67 -541.93 3.92 
134.25 -542.22 3.93 
133.99 -540.97 3.98 
133.91 -540.81 3.96 
133.94 -540.71 3.95 
133.94 -536.09 3.48 
134.11 -535.84 3.47 
130.10 -547.13 4.43 
130.36 -546.06 4.51 
129.64 -547.16 4.40 
129.86 -546.83 4.38 
129.99 -546.22 4.50 
129.81 -545.99 4.46 
130.18 -541.12 4.07 
130.00 -540.75 3.69 
130.21 -540.32 3.81 
129.79 -540.68 3.82 
129.79 -540.41 3.82 
129.95 -539.98 3.74 
129.75 -539.67 3.79 
129.89 -539.12 3.75 
129.28 -541.54 3.89 
129.33 -541.11 3.68 
129.43 -540.81 3.78 
129.41 -540.43 3.75 
129.46 -539.19 3.73 
128.63 -548.13 4.46 
128.96 -541.44 3.85 
129.08 -540.97 3.95 
129.04 -540.82 3.84 
128.93 -540.31 3.72 
129.05 -539.88 3.78 
129.00 -539.60 3.73 
129.23 -539.31 3.72 
128.60 -541.40 3.97 
128.69 -540.62 3.73 
128.29 -540.86 3.59 
127.39 -547.08 4.27 
126.30 -547.40 4.24 
126.26 -547.15 4.21 
125.86 -546.08 4.22 
125.69 -546.04 4.21 
125.03 -547.17 4.15 
125.30 -545.93 4.17 
124.71 -547.06 4.12 
124.63 -545.15 3.88 
124.72 -545.05 3.87 
124.32 -545.42 3.90 
123.42 -545.62 4.02 
123.52 -545.33 4.00 
122.88 -546.26 4.24 
122.81 -546.38 4.10 
141.51 -546.03 5.03 
135.92 -543.54 4.61 
135.44 -547.17 4.96 
135.54 -546.52 4.90 
136.34 -530.14 3.54 
135.14 -547.00 4.93 
135.18 -546.68 4.89 
134.94 -539.30 4.12 
135.00 -539.07 4.11 
134.15 -539.61 4.10 
134.25 -535.67 3.83 
133.89 -540.17 4.13 
133.93 -536.13 3.85 
134.15 -535.83 3.84 
130.14 -540.65 4.33 
130.11 -539.27 4.11 
129.73 -540.52 4.27 
129.89 -540.23 4.25 
129.83 -539.43 4.09 
129.33 -539.98 4.15 
128.92 -541.17 4.27 
129.08 -539.94 4.12 
128.89 -539.63 4.03 
128.71 -540.92 4.21 
128.81 -539.74 4.03 
130.04 -539.63 4.46 
129.77 -540.40 4.57 
129.29 -541.64 4.70 
129.45 -539.29 4.36 
129.61 -539.12 4.36 
128.95 -541.41 4.62 
129.06 -541.16 4.59 
129.04 -539.68 4.35 
128.99 -539.59 4.34 
129.10 -539.14 4.30 
128.55 -541.44 4.57 
129.97 -540.62 4.95 
130.06 -540.33 4.92 
129.67 -540.92 4.95 
129.74 -540.62 4.91 
129.83 -539.88 5.12 
129.86 -539.38 4.74 
129.39 -541.06 4.94 
129.65 -540.99 5.29 
129.76 -540.67 5.36 
129.21 -541.27 5.27 
129.47 -541.16 5.29 
138.65 -548.90 4.26 
138.50 -548.77 4.24 
137.52 -546.52 4.03 
137.57 -546.12 4.00 
137.46 -545.89 3.98 
137.18 -548.80 4.21 
137.23 -548.44 4.18 
137.06 -547.75 3.90 
137.08 -547.34 3.87 
137.22 -546.56 4.03 
137.20 -546.27 4.00 
136.67 -549.07 4.22 
136.82 -548.58 4.18 
136.81 -547.41 3.87 
136.42 -548.95 4.21 
136.39 -548.65 4.18 
136.41 -547.74 3.88 
136.06 -541.32 3.55 
136.14 -548.93 4.20 
135.76 -544.14 3.78 
135.67 -543.75 3.75 
135.64 -543.58 3.73 
135.80 -542.13 3.40 
135.82 -541.28 3.54 
135.46 -547.25 4.04 
135.29 -542.74 3.44 
135.48 -541.74 3.57 
135.41 -541.43 3.54 
135.04 -542.80 3.44 
134.96 -542.45 3.41 
134.95 -540.65 3.26 
134.87 -540.47 3.24 
134.53 -543.06 3.45 
134.48 -540.99 3.27 
134.53 -540.61 3.24 
134.43 -540.19 3.41 
134.36 -539.99 3.39 
134.17 -543.72 3.49 
134.37 -543.34 3.47 
134.19 -543.09 3.44 
134.12 -540.67 3.24 
134.09 -539.78 3.37 
133.97 -543.18 3.44 
133.75 -541.34 3.28 
133.79 -541.08 3.26 
133.70 -540.75 3.23 
133.60 -540.27 3.19 
133.79 -539.75 3.36 
133.70 -539.09 3.30 
133.84 -536.45 2.87 
130.07 -540.75 3.14 
129.88 -546.76 3.63 
129.80 -541.50 3.20 
129.90 -541.39 3.19 
128.98 -541.40 3.17 
129.14 -540.35 3.08 
128.10 -545.31 3.46 
127.88 -546.38 3.54 
128.03 -546.04 3.52 
127.89 -545.60 3.48 
127.57 -546.85 3.57 
127.46 -546.65 3.55 
127.55 -545.42 3.45 
126.92 -547.09 3.57 
127.20 -547.00 3.57 
126.69 -547.33 3.58 
126.58 -546.97 3.55 
126.42 -547.15 3.56 
126.28 -544.33 3.26 
125.76 -544.57 3.28 
125.60 -545.94 3.44 
125.42 -544.85 3.29 
125.48 -544.45 3.27 
125.04 -545.82 3.41 
125.22 -544.53 3.27 
124.76 -547.15 3.51 
124.53 -546.14 3.42 
124.78 -545.72 3.40 
124.48 -546.01 3.41 
123.42 -545.61 3.31 
123.47 -545.58 3.31 
122.63 -546.61 3.40 
141.19 -545.96 4.48 
141.22 -545.68 4.46 
140.74 -546.12 4.48 
138.20 -550.68 4.80 
137.96 -550.71 4.80 
137.63 -549.96 4.71 
137.59 -549.64 4.68 
136.97 -547.59 4.45 
137.02 -547.41 4.43 
136.60 -549.98 4.66 
135.49 -545.09 4.14 
135.24 -542.69 3.90 
135.11 -547.68 4.37 
134.84 -542.64 3.88 
134.82 -540.59 3.68 
134.82 -540.39 3.66 
134.88 -548.14 4.41 
134.50 -542.67 3.86 
134.35 -535.80 3.21 
134.23 -543.04 3.89 
134.02 -536.19 3.23 
134.20 -536.01 3.22 
133.86 -543.82 3.94 
133.79 -543.52 3.91 
133.74 -541.04 3.67 
133.62 -540.65 3.63 
133.79 -540.46 3.62 
133.84 -536.39 3.24 
133.38 -540.63 3.62 
130.24 -547.00 4.09 
130.16 -540.40 3.45 
130.14 -539.92 3.40 
129.99 -539.39 3.56 
130.24 -539.07 3.54 
129.97 -546.49 4.03 
129.78 -545.44 4.12 
129.61 -540.64 3.45 
129.59 -540.58 3.65 
129.71 -540.04 3.50 
129.56 -539.45 3.55 
129.75 -539.22 3.53 
129.61 -546.65 4.03 
129.24 -541.12 3.58 
129.21 -540.75 3.44 
129.43 -540.34 3.52 
129.35 -540.08 3.49 
129.42 -539.64 3.56 
129.34 -539.39 3.22 
129.02 -546.55 4.20 
129.20 -545.58 4.11 
129.16 -544.82 3.68 
128.95 -544.47 3.64 
129.04 -541.40 3.49 
128.88 -540.74 3.63 
128.51 -545.75 3.90 
128.56 -544.73 3.83 
128.47 -544.45 3.63 
128.59 -541.54 3.49 
128.46 -545.96 3.92 
128.34 -545.71 4.08 
128.41 -544.53 3.63 
128.31 -541.18 3.44 
128.33 -540.12 3.26 
127.88 -545.68 3.86 
127.77 -545.34 3.85 
127.37 -546.86 3.96 
127.44 -546.58 3.93 
127.46 -545.90 4.06 
127.62 -545.57 4.04 
126.92 -547.07 3.96 
127.29 -546.94 3.80 
127.18 -546.36 3.90 
127.24 -545.24 3.66 
126.78 -547.75 4.02 
126.61 -547.18 3.96 
126.76 -547.01 3.95 
126.66 -546.14 4.05 
126.24 -547.48 3.97 
126.21 -544.51 3.57 
126.34 -544.27 3.56 
125.71 -546.00 4.00 
125.85 -545.08 3.91 
125.69 -544.49 3.85 
125.42 -545.94 3.98 
125.43 -545.79 3.77 
125.37 -544.81 3.57 
125.46 -544.50 3.74 
125.48 -544.20 3.67 
125.34 -543.80 3.76 
125.05 -545.71 3.75 
124.97 -544.96 3.86 
125.03 -544.57 3.69 
124.65 -545.96 3.76 
124.70 -545.79 3.74 
124.82 -544.60 3.54 
124.47 -545.93 3.75 
123.31 -545.98 3.89 
123.37 -545.75 3.87 
123.49 -545.38 3.84 
138.43 -548.84 4.84 
138.25 -548.53 4.80 
137.46 -546.50 4.57 
137.31 -545.63 4.49 
137.26 -548.77 4.78 
137.21 -546.65 4.58 
137.24 -546.12 4.53 
137.00 -545.75 4.48 
136.42 -530.15 3.23 
135.70 -547.31 4.57 
135.71 -546.51 4.50 
135.95 -544.22 4.29 
135.73 -543.96 4.26 
135.82 -543.57 4.22 
135.74 -541.47 4.02 
135.32 -547.94 4.61 
135.41 -546.96 4.52 
135.46 -546.61 4.49 
135.09 -548.50 5.00 
135.13 -548.32 4.98 
