# .PCD v0.7 - Point Cloud Data file format
VERSION 0.7
FIELDS x y z
SIZE 4 4 4
TYPE F F F
COUNT 1 1 1
WIDTH 429
HEIGHT 1
VIEWPOINT 0 0 0 1 0 0 0
POINTS 429
DATA ascii
142.45 48.62 0.04 
143.61 48.79 0.04 
145.95 64.57 2.58 
152.40 66.21 2.59 
141.98 68.61 2.40 
145.00 64.39 2.65 
145.84 64.50 2.63 
158.37 67.25 2.63 
150.03 49.91 0.30 
149.22 51.25 0.46 
143.72 51.24 0.70 
145.61 64.68 2.28 
144.46 64.47 2.33 
145.28 64.43 2.30 
147.38 51.32 0.77 
150.97 51.28 0.68 
152.27 51.32 0.77 
153.72 64.42 2.19 
152.00 64.58 2.30 
158.04 66.41 2.98 
159.18 51.23 0.59 
159.17 51.20 0.65 
159.18 51.20 0.69 
157.95 66.29 3.10 
159.00 66.32 3.06 
159.14 51.17 0.75 
158.45 64.17 2.23 
157.98 66.17 3.14 
161.90 51.14 0.75 
162.91 51.13 0.71 
159.14 64.40 2.32 
161.86 51.16 0.84 
162.93 51.13 0.84 
163.96 51.13 0.85 
164.43 51.14 0.83 
158.10 65.86 2.22 
151.29 48.10 -0.07 
148.92 51.13 0.15 
148.80 51.09 0.18 
145.99 64.42 1.69 
143.71 68.64 1.90 
146.15 64.75 2.34 
151.25 48.33 -0.22 
153.20 65.72 1.73 
145.92 64.78 2.37 
145.66 64.81 2.38 
146.28 64.99 2.39 
145.75 64.83 2.42 
141.74 48.63 0.07 
142.18 48.62 0.05 
143.75 48.61 -0.01 
144.11 48.61 -0.02 
144.48 48.61 -0.04 
145.00 65.18 1.75 
141.99 68.74 2.14 
142.34 68.69 2.12 
143.75 68.74 2.09 
144.34 48.67 0.00 
142.35 48.97 0.10 
143.92 48.75 0.03 
141.91 49.03 0.12 
142.11 49.01 0.11 
149.40 51.24 0.15 
144.48 68.06 2.01 
142.50 48.92 0.13 
142.88 48.92 0.12 
143.28 48.88 0.10 
143.75 48.85 0.08 
144.12 48.81 0.06 
144.45 48.75 0.05 
141.75 49.00 0.17 
142.10 49.00 0.15 
142.30 48.98 0.15 
146.34 65.12 1.74 
142.09 68.70 2.16 
142.33 68.68 2.15 
142.69 68.69 2.15 
143.54 68.69 2.12 
145.86 68.75 2.06 
141.66 48.82 0.26 
142.23 48.89 0.25 
142.48 48.87 0.24 
142.92 48.81 0.22 
143.34 48.77 0.20 
143.74 48.75 0.18 
144.08 48.71 0.17 
144.48 48.65 0.15 
142.01 48.91 0.26 
150.89 51.24 0.25 
151.22 51.26 0.24 
150.51 51.29 0.27 
142.62 68.61 2.25 
143.23 68.62 2.23 
143.72 68.61 2.21 
145.55 68.62 2.16 
145.64 64.54 2.54 
144.29 48.94 0.20 
141.85 49.07 0.30 
142.26 49.05 0.28 
142.64 49.04 0.27 
143.05 49.04 0.25 
143.45 49.02 0.23 
143.90 49.01 0.22 
144.20 48.97 0.20 
144.53 65.13 1.88 
146.09 65.21 1.83 
143.35 68.62 2.20 
144.37 68.74 2.18 
144.82 64.67 2.54 
145.09 64.50 2.52 
142.27 49.18 0.34 
142.55 49.16 0.33 
142.96 49.16 0.31 
143.35 49.14 0.30 
143.71 49.14 0.28 
144.06 49.10 0.27 
141.70 49.21 0.36 
142.09 49.21 0.35 
141.74 68.67 2.32 
142.09 68.59 2.30 
142.56 68.60 2.29 
142.91 68.62 2.28 
143.26 68.60 2.26 
144.37 68.62 2.23 
146.01 68.63 2.18 
144.82 64.55 2.58 
145.08 64.47 2.57 
145.43 64.50 2.56 
142.37 48.79 0.36 
142.79 48.79 0.34 
143.19 48.74 0.33 
143.60 48.73 0.31 
144.00 48.68 0.29 
144.40 48.64 0.27 
141.55 48.84 0.39 
141.98 48.86 0.38 
142.48 48.82 0.36 
146.08 65.27 1.93 
145.28 64.41 2.58 
144.70 64.60 2.62 
144.88 64.52 2.61 
145.76 64.54 2.58 
144.53 64.78 2.65 
152.53 65.97 2.56 
158.56 66.37 2.48 
158.92 66.32 2.47 
143.01 49.52 0.44 
143.44 49.52 0.43 
141.84 49.52 0.48 
142.24 49.52 0.47 
142.62 49.53 0.45 
143.22 49.54 0.43 
141.74 68.58 2.41 
142.32 68.58 2.39 
142.67 68.58 2.38 
143.02 68.58 2.37 
143.37 68.59 2.36 
147.15 68.61 2.23 
147.51 68.59 2.22 
147.87 68.59 2.21 
148.25 68.58 2.19 
148.64 68.57 2.18 
149.82 68.61 2.15 
150.20 68.59 2.13 
141.55 68.66 2.42 
144.62 64.59 2.68 
144.82 64.46 2.66 
145.33 64.40 2.64 
145.64 64.49 2.64 
158.46 66.66 2.57 
158.80 66.52 2.55 
158.46 66.97 2.60 
149.71 49.97 0.31 
147.70 50.33 0.41 
148.13 50.30 0.40 
148.46 50.24 0.38 
141.69 50.44 0.64 
142.09 50.50 0.63 
142.46 50.50 0.62 
142.94 50.53 0.60 
143.25 50.56 0.59 
143.65 50.57 0.58 
144.13 50.54 0.56 
144.47 50.58 0.55 
144.87 50.55 0.53 
145.29 50.54 0.52 
146.00 65.02 2.10 
145.60 65.20 2.12 
145.84 65.20 2.12 
144.31 67.72 2.38 
144.97 64.54 2.79 
151.50 51.00 0.35 
142.51 50.88 0.67 
142.74 50.89 0.67 
143.15 51.01 0.66 
143.54 51.05 0.65 
146.35 51.17 0.56 
146.72 51.17 0.55 
147.10 51.14 0.53 
147.49 51.19 0.52 
148.80 51.27 0.47 
149.02 51.26 0.47 
149.47 51.27 0.45 
150.72 51.10 0.39 
151.11 51.05 0.37 
151.39 51.02 0.36 
143.67 51.08 0.65 
143.91 51.10 0.64 
144.32 51.14 0.63 
144.71 51.17 0.62 
145.11 51.15 0.60 
145.54 51.17 0.59 
145.92 51.20 0.58 
148.51 51.28 0.49 
153.72 64.44 1.84 
144.35 64.97 2.18 
144.39 65.01 2.19 
146.02 65.00 2.13 
144.57 65.22 2.20 
144.77 65.11 2.18 
145.40 65.12 2.16 
145.72 65.20 2.16 
157.88 68.67 2.07 
150.75 51.30 0.46 
151.10 51.30 0.45 
151.55 51.28 0.43 
152.03 51.22 0.41 
152.43 51.20 0.39 
144.03 51.27 0.69 
144.41 51.29 0.68 
144.79 51.31 0.67 
145.18 51.31 0.66 
145.58 51.31 0.64 
146.01 51.32 0.63 
146.34 51.31 0.62 
146.78 51.31 0.60 
147.15 51.33 0.59 
148.77 51.33 0.54 
144.60 65.01 2.22 
144.43 65.01 2.22 
144.82 65.21 2.23 
145.14 65.23 2.22 
145.55 65.11 2.20 
145.86 65.27 2.20 
158.41 67.61 2.24 
145.11 64.49 1.81 
145.34 64.50 1.80 
145.03 64.65 2.29 
145.36 64.65 2.28 
158.01 67.94 2.19 
158.70 64.44 1.88 
159.33 64.48 1.87 
144.67 64.37 2.31 
144.97 64.36 2.30 
145.39 64.42 2.29 
145.65 64.47 2.29 
144.63 64.48 2.33 
144.83 64.50 2.32 
145.69 64.55 2.30 
152.46 68.10 2.38 
147.30 51.32 0.77 
147.72 51.33 0.76 
148.12 51.33 0.74 
148.45 51.31 0.73 
150.95 51.32 0.65 
151.21 51.32 0.64 
145.57 64.43 1.85 
159.22 64.34 1.88 
153.69 64.44 2.05 
157.90 66.06 2.06 
157.88 66.75 2.12 
157.83 68.20 2.24 
148.20 51.30 0.77 
148.49 51.29 0.76 
150.90 51.27 0.68 
151.21 51.28 0.67 
152.27 51.32 0.63 
152.47 51.26 0.62 
157.83 67.27 2.16 
157.72 67.60 2.20 
144.94 64.66 1.96 
145.14 64.58 1.95 
145.57 64.53 1.93 
146.12 64.58 1.92 
146.31 64.68 1.92 
152.82 65.50 1.73 
159.39 64.47 1.92 
153.65 64.46 2.11 
157.68 67.35 2.22 
145.83 64.62 1.99 
158.07 64.39 2.02 
158.45 64.28 2.00 
158.78 64.29 1.99 
159.24 64.39 1.99 
152.05 64.58 2.24 
152.40 64.27 2.20 
157.74 64.78 2.07 
157.90 64.58 2.04 
157.82 65.28 2.11 
157.72 65.67 2.14 
157.77 66.18 2.18 
157.68 66.68 2.23 
157.73 67.15 2.27 
157.62 67.54 2.30 
158.58 51.23 0.52 
158.96 51.24 0.51 
152.50 51.31 0.76 
158.09 64.38 2.03 
158.35 64.33 2.02 
159.21 64.39 1.99 
152.08 64.54 2.26 
152.41 64.32 2.23 
153.51 64.28 2.18 
158.06 64.49 2.04 
158.81 64.45 2.01 
157.85 65.68 2.15 
157.74 66.11 2.19 
158.92 51.23 0.55 
159.30 51.13 0.53 
144.84 64.81 2.10 
158.31 64.29 2.05 
158.84 64.38 2.04 
159.15 64.32 2.02 
152.23 64.36 2.27 
157.77 64.64 2.10 
158.11 64.38 2.06 
153.82 65.41 2.30 
157.75 66.39 2.24 
165.94 70.27 2.29 
166.19 70.21 2.28 
165.72 70.28 2.30 
158.43 66.25 2.95 
158.75 66.24 2.94 
159.10 66.35 2.94 
158.22 66.33 2.96 
158.89 51.22 0.60 
158.23 64.25 2.08 
159.07 64.30 2.05 
152.79 64.17 2.27 
157.69 64.61 2.13 
158.05 64.36 2.10 
158.46 64.47 2.09 
158.78 64.47 2.08 
159.30 64.51 2.06 
153.72 65.16 2.32 
157.59 66.10 2.25 
158.11 66.51 3.01 
158.39 66.33 2.98 
158.84 66.36 2.97 
158.92 51.21 0.66 
153.18 64.19 2.32 
158.51 51.19 0.72 
158.91 51.19 0.70 
159.09 51.21 0.70 
157.68 64.59 2.23 
158.01 64.27 2.19 
158.27 64.28 2.18 
158.87 64.41 2.17 
159.20 64.46 2.17 
158.37 66.15 3.07 
158.57 66.14 3.06 
158.13 66.24 3.08 
158.24 66.19 3.07 
158.77 66.19 3.06 
158.93 51.16 0.76 
159.13 51.16 0.75 
158.78 64.18 2.20 
158.08 64.20 2.23 
158.47 64.17 2.21 
158.99 64.22 2.20 
159.26 64.43 2.20 
157.96 66.12 3.12 
158.16 66.21 3.12 
159.06 66.22 3.09 
158.98 51.16 0.78 
159.15 51.21 0.78 
145.19 64.64 2.29 
157.95 64.26 2.26 
158.24 64.22 2.24 
158.77 64.20 2.22 
159.06 64.28 2.22 
159.28 64.61 2.23 
163.75 70.12 2.51 
164.12 70.11 2.49 
164.50 70.13 2.48 
165.48 70.12 2.44 
165.73 70.09 2.43 
158.39 66.05 3.11 
158.17 66.11 3.13 
158.71 66.12 3.11 
159.03 66.22 3.11 
163.26 51.12 0.70 
163.72 51.13 0.68 
164.06 51.14 0.67 
160.88 51.12 0.79 
161.31 51.13 0.77 
161.70 51.13 0.76 
162.98 51.17 0.71 
158.61 64.73 1.89 
158.90 64.56 1.87 
145.11 65.00 2.38 
144.76 65.28 2.41 
157.89 64.23 2.35 
158.70 64.16 2.31 
158.97 64.25 2.31 
159.33 64.72 2.33 
164.45 51.15 0.75 
161.47 51.20 0.85 
161.69 51.17 0.84 
161.98 51.20 0.84 
162.99 51.16 0.80 
163.32 51.15 0.79 
163.70 51.15 0.77 
164.11 51.15 0.76 
164.49 51.16 0.74 
159.10 64.35 2.43 
163.04 51.13 0.83 
163.32 51.13 0.82 
163.75 51.13 0.81 
164.14 51.13 0.80 
164.45 51.13 0.79 
158.22 65.70 2.10 
163.82 51.14 0.86 
164.13 51.13 0.84 
164.46 51.14 0.83 
159.34 66.19 2.24 
158.95 66.43 2.69 
159.28 66.45 2.68 
159.45 66.67 2.69 
