# .PCD v0.7 - Point Cloud Data file format
VERSION 0.7
FIELDS x y z
SIZE 4 4 4
TYPE F F F
COUNT 1 1 1
WIDTH 1980
HEIGHT 1
VIEWPOINT 0 0 0 1 0 0 0
POINTS 1980
DATA ascii
146.97 -553.95 2.86 
146.98 -553.85 2.01 
147.43 -554.22 1.62 
143.32 -550.89 1.06 
146.96 -554.34 2.51 
147.10 -552.85 3.30 
147.30 -554.24 1.82 
147.13 -552.90 3.47 
146.98 -554.07 2.87 
147.07 -553.62 3.71 
143.47 -551.04 1.71 
147.06 -552.98 2.97 
147.61 -544.86 2.25 
147.07 -553.73 3.91 
147.04 -553.92 3.11 
147.12 -552.72 3.87 
147.10 -553.81 4.13 
147.11 -552.80 4.25 
147.02 -554.42 4.38 
147.00 -554.18 2.74 
147.02 -554.35 3.58 
147.10 -553.51 4.34 
146.96 -554.22 2.94 
147.17 -552.77 4.46 
147.21 -546.24 2.34 
147.05 -553.14 3.84 
147.07 -553.79 4.72 
146.95 -553.88 3.20 
147.06 -553.06 3.93 
147.05 -553.71 4.80 
146.91 -553.95 3.41 
147.02 -553.10 4.13 
146.96 -553.83 4.36 
142.22 -542.82 3.03 
146.91 -554.04 4.41 
142.01 -543.02 3.08 
147.02 -553.25 5.13 
146.87 -553.79 3.76 
146.92 -553.69 4.52 
146.77 -554.29 3.98 
146.88 -553.55 4.69 
147.08 -553.71 5.49 
146.78 -553.91 4.12 
146.76 -554.33 4.91 
146.89 -553.60 5.62 
146.76 -554.08 4.92 
146.78 -554.46 5.71 
146.57 -554.52 5.23 
146.72 -554.27 5.97 
146.60 -554.52 6.08 
142.92 -552.90 4.52 
143.55 -552.24 5.15 
146.45 -553.98 6.60 
146.40 -554.24 4.50 
146.31 -554.23 6.83 
146.22 -554.45 5.43 
148.72 -539.23 4.72 
146.25 -554.16 6.96 
142.28 -544.71 4.94 
141.94 -544.10 4.85 
159.66 -531.68 4.89 
149.31 -539.17 4.53 
159.70 -532.07 5.15 
147.56 -549.37 7.50 
148.46 -547.46 7.44 
142.99 -539.24 4.44 
142.12 -541.24 3.96 
146.89 -554.43 1.58 
146.84 -554.54 1.80 
146.90 -554.26 1.78 
146.92 -553.87 1.74 
146.94 -554.42 1.91 
146.97 -554.03 1.87 
146.98 -554.63 2.91 
147.00 -554.24 2.88 
146.94 -554.60 2.08 
146.96 -554.24 2.05 
146.90 -553.98 2.02 
143.77 -550.87 0.76 
143.75 -550.83 0.75 
143.24 -550.99 0.74 
146.86 -554.55 2.25 
146.89 -554.25 2.23 
146.94 -553.70 2.18 
143.79 -550.94 0.98 
143.70 -549.95 0.87 
143.55 -549.72 0.84 
143.27 -550.85 0.94 
146.97 -554.22 2.42 
146.98 -553.87 2.38 
144.01 -550.34 1.84 
147.04 -554.05 3.33 
147.02 -553.72 3.30 
147.04 -553.38 3.27 
147.04 -553.07 3.25 
147.01 -554.40 3.35 
147.01 -553.46 3.28 
147.24 -554.27 1.61 
146.95 -554.16 1.59 
143.95 -550.67 1.06 
143.57 -550.29 1.00 
146.94 -554.66 2.54 
146.95 -554.04 2.48 
146.96 -553.72 2.45 
143.95 -550.56 1.94 
147.01 -554.31 3.41 
147.02 -553.89 3.38 
147.06 -553.52 3.35 
147.05 -553.21 3.32 
146.99 -554.12 1.79 
147.00 -553.81 1.76 
145.31 -553.89 1.68 
146.99 -554.46 2.71 
147.02 -554.00 2.67 
147.01 -553.72 2.64 
147.05 -554.47 3.60 
147.09 -554.00 3.56 
147.07 -553.58 3.53 
147.11 -553.22 3.50 
146.94 -554.53 2.91 
146.93 -554.15 2.87 
146.98 -553.77 2.84 
146.23 -549.59 2.39 
146.10 -549.40 2.36 
144.02 -550.45 2.31 
147.00 -554.36 3.77 
147.01 -553.97 3.74 
147.08 -553.32 3.69 
147.08 -552.84 3.65 
148.63 -542.44 4.01 
147.46 -545.45 1.32 
147.19 -544.91 1.25 
145.39 -553.27 2.04 
144.23 -549.96 1.64 
143.93 -549.85 1.61 
143.72 -550.64 1.68 
143.80 -549.69 1.58 
143.50 -549.60 1.56 
146.94 -554.63 3.12 
146.97 -554.27 3.09 
147.01 -553.86 3.05 
147.03 -553.57 3.02 
147.05 -553.27 3.00 
147.02 -552.75 2.94 
146.21 -549.53 2.58 
147.12 -552.84 3.84 
147.02 -554.60 3.98 
147.03 -554.24 3.95 
147.11 -553.42 3.89 
147.11 -553.02 3.85 
148.64 -542.50 3.14 
148.71 -542.32 4.18 
145.33 -553.46 2.13 
143.90 -551.15 1.82 
143.97 -550.84 1.79 
143.75 -550.39 1.74 
143.56 -550.79 1.77 
147.45 -544.83 1.35 
147.31 -545.68 1.43 
147.49 -554.43 2.34 
147.25 -554.22 2.30 
146.98 -554.08 2.28 
147.03 -553.88 2.26 
144.21 -549.85 1.70 
143.57 -549.70 1.66 
147.86 -544.78 2.34 
147.06 -553.64 3.09 
147.07 -553.36 3.06 
147.08 -552.95 3.03 
147.00 -554.49 3.17 
147.00 -554.09 3.13 
146.33 -549.67 2.67 
146.20 -549.49 2.64 
144.05 -550.46 2.58 
147.07 -554.36 4.01 
147.08 -553.96 3.97 
147.12 -553.65 3.95 
147.15 -553.22 3.92 
147.16 -552.93 3.89 
147.02 -554.44 4.01 
147.03 -554.15 3.99 
148.72 -542.67 3.22 
148.79 -542.49 4.25 
145.76 -553.46 2.34 
145.34 -553.42 2.31 
144.88 -553.11 2.26 
144.13 -551.08 2.01 
144.00 -550.76 1.98 
143.81 -551.19 2.01 
143.73 -550.42 1.93 
143.66 -549.68 1.85 
147.50 -545.54 1.61 
147.45 -545.50 1.61 
147.31 -544.93 1.54 
147.02 -554.42 2.50 
147.01 -554.03 2.46 
148.66 -542.87 2.39 
146.99 -554.34 3.33 
147.00 -553.96 3.29 
147.03 -553.58 3.26 
147.08 -553.09 3.22 
147.06 -552.87 3.19 
146.22 -549.55 2.83 
144.14 -550.42 2.76 
141.99 -542.70 1.94 
142.01 -542.32 1.91 
141.70 -541.91 1.85 
141.60 -542.34 1.88 
147.05 -554.64 4.20 
147.05 -554.19 4.16 
147.06 -553.87 4.13 
147.12 -553.39 4.10 
147.13 -552.98 4.06 
147.14 -552.75 4.04 
148.72 -542.71 3.38 
148.79 -542.54 4.39 
145.67 -553.48 2.56 
144.79 -550.18 2.17 
144.31 -549.92 2.12 
143.94 -550.91 2.21 
143.48 -551.08 2.20 
143.41 -550.90 2.18 
143.65 -550.33 2.13 
147.49 -545.62 1.84 
147.56 -544.93 1.78 
147.44 -544.24 1.70 
146.99 -544.46 1.70 
147.12 -544.05 1.67 
146.95 -554.42 2.72 
147.00 -554.04 2.68 
144.15 -550.44 2.97 
148.71 -542.93 2.61 
147.67 -544.97 2.72 
146.97 -554.37 3.54 
147.02 -553.95 3.51 
147.05 -553.54 3.47 
147.06 -553.14 3.43 
147.07 -552.91 3.41 
146.27 -549.63 3.05 
142.41 -542.68 2.16 
142.08 -542.29 2.11 
142.05 -542.02 2.08 
141.81 -542.83 2.14 
141.62 -542.33 2.08 
141.76 -541.90 2.05 
147.13 -553.02 4.27 
147.01 -554.67 4.40 
147.06 -554.23 4.37 
147.10 -553.83 4.34 
147.10 -553.57 4.31 
147.11 -553.18 4.28 
148.77 -542.76 3.59 
148.85 -542.60 4.58 
146.97 -554.57 2.78 
145.41 -553.47 2.59 
147.58 -545.54 1.89 
147.77 -545.14 1.86 
147.44 -544.98 1.82 
147.38 -545.08 1.83 
147.13 -544.27 1.74 
147.01 -553.92 2.72 
143.91 -550.45 2.99 
148.67 -542.91 2.64 
147.90 -544.94 2.77 
146.97 -554.62 3.61 
147.02 -553.93 3.54 
147.05 -553.59 3.51 
147.09 -553.16 3.47 
146.25 -549.65 3.08 
142.16 -542.72 2.19 
142.05 -542.46 2.16 
142.04 -541.82 2.10 
141.85 -542.66 2.16 
141.94 -542.22 2.13 
147.17 -552.91 4.29 
147.07 -554.37 4.41 
147.08 -553.93 4.38 
147.13 -553.58 4.35 
147.15 -553.18 4.31 
148.80 -542.61 4.58 
146.93 -554.39 2.95 
146.97 -553.97 2.91 
146.95 -553.77 2.89 
145.26 -553.28 2.76 
144.79 -553.17 2.72 
144.13 -550.92 2.46 
143.78 -551.30 2.48 
143.74 -550.58 2.40 
143.79 -550.35 2.38 
143.44 -550.97 2.43 
143.56 -550.20 2.36 
147.80 -545.57 2.10 
147.77 -545.16 2.06 
147.60 -545.57 2.09 
147.28 -545.11 2.03 
146.98 -544.39 1.94 
147.09 -544.02 1.91 
146.19 -549.63 2.43 
148.69 -542.96 2.84 
147.77 -545.03 2.96 
147.02 -553.87 3.72 
147.02 -553.55 3.69 
147.06 -552.99 3.64 
146.95 -554.66 3.79 
146.97 -554.27 3.76 
146.31 -549.71 3.28 
142.38 -542.58 2.37 
141.97 -542.70 2.35 
141.95 -542.41 2.33 
141.87 -541.99 2.29 
141.81 -542.34 2.31 
141.73 -541.83 2.26 
147.03 -554.55 4.61 
147.05 -554.14 4.57 
147.07 -553.79 4.54 
147.11 -553.39 4.51 
147.13 -552.99 4.47 
148.87 -542.63 4.75 
146.90 -554.61 3.17 
146.93 -554.13 3.12 
146.96 -553.83 3.09 
147.01 -553.35 3.05 
147.00 -553.02 3.01 
146.23 -549.69 2.64 
145.54 -553.88 3.03 
144.11 -550.95 2.66 
143.97 -550.71 2.63 
143.83 -551.25 2.67 
143.67 -550.58 2.60 
143.54 -550.30 2.56 
143.77 -549.87 2.53 
143.38 -551.16 2.64 
147.85 -545.68 2.32 
147.70 -545.46 2.29 
147.68 -545.15 2.26 
147.47 -544.94 2.23 
147.38 -544.15 2.14 
146.93 -554.53 3.97 
146.96 -554.04 3.92 
142.05 -542.47 2.53 
141.87 -542.84 2.54 
148.74 -542.98 3.03 
147.70 -545.09 3.15 
147.70 -544.79 3.12 
147.81 -544.42 3.09 
147.01 -553.64 3.89 
147.03 -553.39 3.87 
147.04 -552.93 3.82 
142.42 -542.76 2.58 
142.09 -542.39 2.52 
142.09 -542.10 2.50 
141.82 -541.99 2.47 
147.01 -554.55 4.79 
148.83 -542.83 3.97 
147.11 -553.04 4.66 
147.00 -554.32 4.76 
147.02 -554.00 4.74 
147.06 -553.55 4.70 
147.09 -553.29 4.68 
147.10 -552.83 4.64 
148.87 -542.70 4.91 
146.90 -554.51 3.26 
146.95 -554.13 3.22 
146.98 -553.64 3.18 
146.98 -553.42 3.16 
147.02 -553.14 3.13 
144.25 -550.31 2.71 
144.07 -551.08 2.78 
143.94 -550.65 2.73 
143.78 -551.40 2.80 
143.59 -550.72 2.72 
143.57 -550.30 2.68 
143.74 -549.97 2.65 
143.18 -551.08 2.73 
141.94 -542.69 1.86 
142.00 -542.37 1.84 
148.35 -545.32 2.43 
147.75 -545.53 2.42 
147.87 -545.05 2.38 
147.02 -553.55 3.98 
147.03 -553.32 3.95 
146.95 -554.43 4.05 
146.96 -554.05 4.02 
147.00 -553.70 3.99 
142.17 -542.33 2.64 
142.10 -541.99 2.60 
141.93 -542.89 2.67 
141.84 -541.98 2.59 
148.72 -542.96 3.14 
148.39 -544.58 3.26 
147.63 -544.39 3.19 
147.03 -554.33 4.85 
147.01 -553.99 4.82 
147.06 -553.57 4.79 
148.81 -542.82 4.07 
147.13 -553.11 4.75 
148.86 -542.70 5.00 
146.90 -554.24 3.44 
146.94 -553.79 3.40 
146.97 -553.43 3.36 
147.01 -553.18 3.34 
146.87 -554.54 3.47 
144.00 -551.36 3.01 
143.77 -550.90 2.95 
143.88 -550.40 2.91 
143.46 -551.17 2.96 
143.66 -550.70 2.93 
143.41 -550.20 2.87 
142.29 -543.21 2.14 
141.95 -543.14 2.11 
141.98 -542.73 2.07 
141.97 -542.38 2.04 
141.67 -542.51 2.04 
141.81 -541.89 1.99 
148.71 -543.13 2.45 
147.84 -545.50 2.63 
147.84 -544.89 2.57 
147.74 -545.49 2.63 
147.10 -545.47 2.59 
147.33 -544.27 2.49 
147.26 -544.07 2.47 
146.91 -554.46 4.25 
146.94 -554.17 4.23 
146.97 -553.71 4.19 
147.02 -553.34 4.16 
146.44 -549.42 3.75 
142.27 -542.38 2.84 
142.23 -541.82 2.79 
141.82 -543.13 2.87 
148.73 -543.02 3.35 
148.81 -542.89 4.25 
148.88 -542.76 5.17 
146.87 -554.40 3.63 
146.91 -554.02 3.59 
146.95 -553.55 3.55 
146.96 -553.23 3.52 
144.30 -549.98 3.06 
143.85 -551.43 3.18 
143.98 -550.52 3.10 
143.35 -551.36 3.15 
143.70 -551.02 3.13 
143.62 -550.82 3.11 
143.52 -550.42 3.07 
142.67 -543.43 2.35 
142.30 -543.14 2.31 
142.06 -543.02 2.28 
142.02 -542.62 2.24 
142.03 -541.71 2.16 
141.66 -542.47 2.21 
148.39 -545.22 2.81 
148.86 -543.36 2.66 
148.12 -545.05 2.78 
147.93 -545.66 2.83 
147.48 -546.13 2.85 
147.57 -544.98 2.75 
147.43 -544.26 2.67 
146.91 -554.30 4.41 
146.93 -554.07 4.38 
146.99 -553.47 4.33 
147.02 -553.15 4.30 
142.20 -542.46 3.00 
142.19 -542.21 2.98 
141.93 -541.82 2.93 
148.87 -543.27 3.54 
147.41 -553.26 5.15 
148.99 -543.12 4.44 
149.06 -543.00 5.34 
146.84 -554.46 3.67 
146.86 -554.10 3.63 
146.90 -553.75 3.60 
146.93 -553.40 3.57 
147.35 -546.28 2.92 
146.32 -550.00 3.22 
144.30 -550.14 3.13 
143.71 -551.61 3.24 
143.70 -551.14 3.19 
143.30 -551.42 3.20 
143.61 -550.94 3.17 
143.56 -550.63 3.13 
143.70 -550.09 3.09 
142.87 -543.42 2.43 
142.71 -543.24 2.40 
142.58 -543.07 2.38 
142.11 -542.92 2.34 
142.12 -542.59 2.31 
142.07 -542.22 2.28 
142.02 -541.89 2.24 
148.37 -545.40 2.89 
147.89 -544.70 2.80 
147.40 -546.23 2.91 
147.45 -545.43 2.84 
147.59 -545.12 2.82 
146.87 -554.39 4.44 
146.93 -553.68 4.38 
146.97 -553.35 4.35 
142.08 -542.62 3.05 
142.03 -542.20 3.01 
141.86 -541.86 2.97 
148.79 -543.30 3.59 
148.25 -544.86 3.68 
147.81 -544.75 3.64 
146.94 -554.31 5.22 
146.98 -553.96 5.19 
147.01 -553.58 5.16 
147.02 -553.29 5.14 
148.90 -543.17 4.47 
148.97 -543.06 5.36 
146.79 -554.68 3.84 
146.83 -554.33 3.81 
146.87 -553.87 3.77 
146.90 -553.56 3.74 
146.90 -553.52 3.73 
147.36 -546.32 3.08 
147.55 -545.21 2.98 
146.19 -550.13 3.38 
144.14 -551.32 3.38 
144.31 -550.21 3.29 
143.66 -551.84 3.41 
143.75 -551.62 3.39 
143.75 -551.09 3.34 
143.93 -550.92 3.34 
142.81 -543.21 2.56 
142.50 -543.57 2.58 
142.08 -542.95 2.50 
142.16 -542.06 2.42 
142.04 -542.39 2.45 
141.59 -542.78 2.46 
141.72 -542.03 2.40 
148.18 -545.54 3.05 
147.99 -545.34 3.02 
147.60 -544.94 2.96 
147.47 -544.47 2.91 
146.84 -554.61 4.61 
146.86 -554.26 4.58 
146.90 -553.86 4.54 
146.94 -553.45 4.50 
141.97 -543.26 3.24 
142.39 -542.84 3.23 
142.21 -542.55 3.20 
141.90 -542.82 3.20 
141.92 -542.34 3.16 
148.83 -543.44 3.75 
148.42 -544.91 3.84 
147.70 -544.83 3.78 
148.92 -543.33 4.61 
149.01 -543.22 5.49 
148.44 -546.03 3.29 
146.76 -554.47 4.00 
146.80 -553.95 3.95 
146.85 -553.61 3.92 
148.00 -545.02 3.18 
147.80 -545.47 3.21 
147.77 -544.94 3.16 
147.30 -546.54 3.28 
147.51 -544.76 3.13 
147.52 -544.53 3.11 
146.16 -550.24 3.57 
143.77 -551.81 3.60 
143.94 -551.66 3.59 
144.12 -550.94 3.53 
143.56 -551.25 3.53 
143.23 -551.65 3.55 
143.44 -550.60 3.46 
142.79 -543.64 2.79 
142.70 -543.31 2.75 
142.02 -543.25 2.71 
142.12 -542.90 2.68 
141.95 -542.38 2.63 
141.67 -542.74 2.65 
141.55 -542.32 2.60 
141.72 -542.06 2.59 
148.43 -545.57 3.25 
148.76 -543.63 3.09 
148.20 -536.64 2.42 
146.79 -554.39 4.76 
146.84 -553.89 4.72 
142.18 -543.16 3.41 
142.26 -542.87 3.40 
142.04 -543.18 3.41 
141.94 -542.77 3.36 
141.96 -542.42 3.34 
141.84 -542.03 3.30 
148.39 -545.21 4.04 
148.37 -545.00 4.02 
148.85 -543.56 3.93 
148.80 -543.55 3.93 
147.84 -545.09 3.99 
147.68 -544.89 3.96 
148.96 -543.34 5.64 
146.70 -554.58 4.18 
146.74 -554.27 4.15 
146.79 -553.84 4.11 
148.30 -545.82 3.44 
147.70 -546.30 3.45 
147.75 -545.83 3.41 
147.90 -545.42 3.38 
147.86 -545.18 3.36 
147.31 -546.74 3.48 
147.42 -545.80 3.40 
147.57 -544.81 3.31 
146.11 -550.37 3.75 
144.51 -551.09 3.74 
143.67 -551.95 3.77 
143.89 -551.63 3.75 
143.54 -551.28 3.70 
143.40 -550.94 3.66 
143.54 -550.52 3.63 
143.38 -550.77 3.65 
142.92 -543.75 2.98 
142.75 -543.57 2.95 
142.50 -543.34 2.92 
142.00 -543.18 2.88 
142.05 -542.97 2.86 
142.30 -542.49 2.83 
142.12 -542.29 2.81 
148.79 -543.75 3.28 
146.73 -554.54 4.93 
146.78 -554.19 4.90 
146.84 -553.76 4.87 
147.76 -545.76 4.20 
143.08 -542.98 3.63 
142.07 -543.19 3.57 
142.03 -542.75 3.53 
142.26 -542.39 3.52 
142.03 -542.22 3.49 
148.80 -543.66 4.10 
148.32 -545.05 4.18 
146.81 -554.48 5.70 
146.85 -554.13 5.67 
146.87 -553.79 5.64 
148.88 -543.57 4.93 
148.96 -543.47 5.78 
146.68 -554.46 4.20 
146.74 -554.13 4.17 
146.75 -553.95 4.16 
148.09 -546.13 3.49 
148.88 -544.05 3.34 
147.75 -546.51 3.51 
147.89 -546.35 3.50 
147.91 -545.63 3.44 
147.54 -546.16 3.47 
147.59 -545.92 3.45 
147.65 -545.45 3.40 
147.81 -545.18 3.39 
146.20 -550.56 3.81 
144.42 -551.63 3.82 
144.43 -551.21 3.78 
143.53 -552.23 3.83 
143.78 -551.41 3.76 
143.95 -550.64 3.70 
143.15 -552.00 3.79 
143.20 -551.80 3.77 
143.51 -551.04 3.71 
143.02 -551.64 3.74 
142.97 -543.91 3.03 
142.79 -543.67 2.99 
141.97 -543.77 2.96 
141.83 -542.28 2.82 
146.72 -554.41 4.95 
146.78 -553.89 4.90 
148.27 -545.43 4.23 
143.16 -543.47 3.68 
142.25 -543.51 3.62 
142.45 -542.19 3.52 
148.88 -543.98 4.15 
146.79 -554.24 5.69 
146.84 -553.93 5.67 
148.95 -543.89 4.96 
149.05 -543.80 5.79 
146.61 -554.65 4.35 
146.67 -554.33 4.32 
147.82 -546.57 3.66 
148.27 -545.11 3.55 
147.58 -546.13 3.61 
147.90 -545.86 3.60 
147.68 -545.66 3.57 
146.13 -550.77 3.96 
147.07 -546.46 3.61 
147.58 -545.43 3.54 
144.40 -550.60 3.85 
143.83 -551.20 3.88 
143.47 -552.37 3.97 
143.63 -551.79 3.92 
143.54 -551.46 3.89 
143.14 -551.97 3.92 
148.85 -546.16 4.47 
146.65 -554.60 5.09 
146.70 -554.28 5.06 
148.42 -546.45 4.46 
148.89 -544.22 4.30 
148.02 -545.82 4.38 
147.72 -546.09 4.38 
146.08 -550.71 4.67 
142.05 -543.45 3.73 
146.72 -554.56 5.84 
146.76 -554.20 5.81 
148.95 -544.14 5.10 
149.04 -544.06 5.92 
147.53 -546.64 3.81 
147.63 -546.14 3.77 
147.78 -545.91 3.76 
145.95 -550.98 4.13 
147.11 -545.76 3.71 
147.23 -545.31 3.67 
143.69 -552.41 4.14 
143.90 -551.95 4.11 
143.82 -551.46 4.06 
144.10 -551.25 4.06 
143.26 -551.99 4.08 
143.55 -551.80 4.08 
143.15 -552.14 4.09 
143.33 -551.61 4.05 
143.27 -551.38 4.03 
148.35 -546.71 4.63 
147.93 -547.19 4.64 
148.35 -545.78 4.55 
148.34 -545.58 4.53 
147.56 -546.54 4.56 
147.87 -546.19 4.55 
146.01 -550.94 4.84 
147.06 -546.35 4.50 
143.71 -551.77 4.75 
143.64 -551.59 4.73 
142.45 -544.01 3.95 
142.49 -543.64 3.92 
142.44 -543.95 4.59 
146.63 -554.48 5.98 
148.98 -544.21 6.06 
147.34 -546.70 3.92 
147.43 -546.48 3.90 
145.92 -551.20 4.25 
146.99 -546.93 3.92 
144.06 -552.23 4.25 
143.80 -552.35 4.25 
144.00 -551.81 4.21 
144.03 -551.20 4.15 
144.06 -551.01 4.14 
143.36 -552.67 4.25 
143.46 -551.91 4.19 
143.69 -551.53 4.16 
143.04 -552.34 4.21 
143.16 -551.65 4.15 
141.84 -543.16 3.32 
147.64 -554.61 5.42 
147.68 -546.63 4.68 
145.96 -551.17 4.96 
147.26 -546.87 4.66 
147.02 -546.47 4.61 
143.58 -551.86 4.85 
142.50 -543.00 3.97 
142.10 -543.27 3.97 
142.09 -542.88 3.93 
141.97 -542.73 3.91 
142.94 -543.45 4.69 
142.99 -543.28 4.68 
147.50 -554.52 6.16 
146.57 -554.69 6.09 
148.90 -544.48 5.36 
148.97 -544.41 6.15 
146.55 -554.28 4.15 
145.87 -551.36 4.39 
148.50 -539.13 3.44 
144.18 -551.93 4.36 
143.64 -552.43 4.38 
143.91 -552.04 4.36 
144.02 -551.56 4.32 
143.23 -552.91 4.40 
143.31 -552.73 4.39 
143.36 -552.23 4.35 
143.03 -552.46 4.35 
143.25 -551.71 4.29 
146.58 -554.48 4.95 
147.40 -546.92 4.81 
145.89 -551.33 5.10 
143.61 -551.98 5.00 
142.55 -544.03 4.19 
142.28 -543.87 4.15 
141.96 -543.75 4.12 
141.92 -542.81 4.04 
146.49 -554.43 5.73 
146.54 -554.14 5.71 
142.91 -543.56 4.81 
147.09 -554.68 6.28 
146.52 -554.38 6.52 
146.55 -554.14 6.50 
146.53 -554.43 7.32 
146.62 -554.10 7.30 
146.48 -554.47 4.30 
146.51 -554.23 4.28 
146.61 -553.78 4.24 
146.54 -554.00 4.26 
146.64 -553.54 4.22 
145.79 -551.54 4.55 
143.68 -552.52 4.53 
143.71 -552.21 4.50 
144.08 -551.97 4.50 
143.47 -552.43 4.51 
143.58 -551.67 4.44 
142.96 -552.72 4.51 
143.06 -552.57 4.50 
143.09 -551.94 4.44 
143.45 -551.46 4.42 
143.22 -551.38 4.40 
146.48 -554.36 5.08 
146.52 -554.06 5.05 
146.60 -553.77 5.03 
145.82 -551.50 5.25 
149.00 -538.92 4.37 
149.24 -538.27 4.33 
148.62 -538.77 4.33 
148.38 -538.79 4.31 
148.33 -538.60 4.29 
143.35 -552.36 5.15 
142.77 -543.19 4.26 
146.43 -554.41 5.86 
146.49 -553.99 5.83 
146.51 -553.81 5.81 
146.62 -553.40 5.78 
146.51 -553.60 5.79 
142.48 -544.33 4.95 
142.69 -543.95 4.94 
142.68 -543.68 4.92 
142.47 -543.50 4.88 
146.42 -554.35 6.64 
146.49 -553.92 6.60 
146.54 -553.62 6.58 
148.91 -544.85 6.41 
146.46 -554.29 7.43 
146.53 -553.89 7.40 
146.43 -554.32 4.35 
143.81 -551.76 4.53 
144.08 -551.59 4.52 
143.44 -552.65 4.59 
143.46 -552.27 4.55 
143.75 -551.91 4.54 
143.04 -552.75 4.58 
143.22 -552.37 4.55 
142.06 -544.84 3.81 
142.19 -544.16 3.76 
141.81 -544.31 3.75 
142.04 -544.03 3.74 
141.93 -543.42 3.68 
141.73 -543.79 3.70 
141.83 -543.62 3.70 
141.72 -543.10 3.64 
147.86 -554.18 5.19 
146.43 -554.31 5.13 
146.43 -554.10 5.11 
148.82 -545.19 4.96 
149.36 -539.28 4.49 
149.45 -538.23 4.41 
148.92 -539.03 4.44 
149.21 -538.72 4.43 
148.60 -539.05 4.41 
148.30 -538.64 4.36 
141.91 -543.83 4.31 
142.03 -543.08 4.26 
146.32 -554.48 5.92 
146.39 -554.14 5.89 
142.60 -543.89 4.98 
142.76 -543.85 4.99 
142.21 -544.04 4.95 
148.91 -545.14 5.72 
147.04 -554.10 6.73 
146.29 -554.54 6.70 
146.34 -554.18 6.67 
148.95 -545.08 6.49 
146.33 -554.49 7.49 
146.40 -554.05 7.46 
146.35 -554.49 4.52 
146.41 -554.17 4.49 
146.43 -554.01 4.48 
143.57 -551.39 4.17 
148.28 -546.60 4.46 
148.73 -545.56 4.39 
147.24 -547.39 4.47 
148.50 -539.52 3.85 
142.97 -545.27 4.06 
142.08 -544.77 3.96 
142.21 -544.32 3.93 
142.45 -544.15 3.93 
141.86 -545.00 3.97 
142.00 -544.48 3.93 
142.14 -543.89 3.89 
141.89 -543.42 3.84 
141.52 -543.69 3.84 
141.62 -543.44 3.82 
147.18 -554.07 5.31 
146.35 -554.22 5.28 
143.60 -551.32 4.87 
148.20 -547.69 5.29 
147.78 -547.37 5.23 
147.84 -547.15 5.21 
149.20 -539.39 4.63 
149.24 -538.92 4.60 
148.73 -539.21 4.58 
142.55 -544.94 4.61 
142.59 -543.93 4.52 
142.58 -543.78 4.50 
142.05 -544.44 4.52 
142.19 -544.10 4.50 
142.46 -543.67 4.49 
141.95 -544.36 4.51 
142.00 -543.47 4.43 
147.30 -554.05 6.11 
146.29 -554.53 6.08 
146.33 -554.17 6.05 
142.37 -544.81 5.18 
142.43 -544.41 5.15 
142.77 -544.00 5.15 
146.26 -554.47 6.85 
146.34 -554.00 6.81 
148.92 -545.38 6.65 
147.05 -554.33 4.67 
146.29 -554.34 4.64 
145.83 -550.79 4.33 
143.45 -551.56 4.32 
141.53 -544.85 3.50 
147.89 -547.34 4.64 
147.68 -547.57 4.65 
147.67 -547.10 4.61 
147.90 -546.94 4.61 
146.97 -548.50 4.70 
147.31 -547.46 4.62 
147.30 -546.69 4.55 
142.70 -545.33 4.19 
142.66 -545.17 4.17 
142.56 -545.13 4.16 
142.78 -544.25 4.10 
142.75 -543.19 4.00 
142.01 -544.84 4.11 
142.11 -544.45 4.08 
142.16 -544.03 4.04 
142.56 -543.54 4.02 
142.41 -543.32 3.99 
142.07 -544.04 4.04 
141.54 -543.45 3.96 
147.94 -554.46 5.52 
146.20 -554.63 5.45 
146.28 -554.22 5.41 
145.77 -550.84 5.08 
143.93 -551.56 5.05 
144.03 -551.14 5.02 
143.18 -551.72 5.02 
142.82 -551.92 5.02 
148.71 -545.67 5.28 
147.75 -547.53 5.38 
148.10 -547.10 5.37 
147.79 -547.27 5.36 
149.03 -539.62 4.77 
149.09 -539.39 4.76 
142.45 -545.26 4.76 
142.59 -545.12 4.76 
142.52 -544.36 4.69 
142.18 -544.78 4.70 
142.19 -544.51 4.68 
142.24 -543.99 4.63 
141.99 -543.57 4.58 
147.97 -554.42 6.34 
146.19 -554.63 6.22 
146.21 -554.42 6.20 
146.29 -554.19 6.19 
143.57 -552.07 5.78 
143.29 -551.58 5.71 
148.77 -545.62 6.03 
146.76 -554.26 7.02 
146.15 -554.59 7.00 
146.21 -554.37 6.98 
148.85 -545.58 6.80 
145.73 -551.15 4.42 
143.35 -551.84 4.40 
141.61 -545.11 3.59 
141.73 -543.66 3.47 
147.33 -548.33 4.77 
147.55 -547.59 4.72 
147.85 -547.16 4.70 
146.85 -548.87 4.79 
146.96 -548.68 4.78 
147.11 -547.95 4.72 
147.40 -547.13 4.67 
148.86 -539.54 4.09 
142.69 -545.52 4.26 
142.54 -544.56 4.17 
141.96 -545.17 4.19 
142.00 -544.75 4.16 
142.26 -543.63 4.07 
141.77 -545.31 4.19 
142.13 -543.96 4.09 
142.08 -543.81 4.08 
147.44 -554.67 5.57 
145.73 -551.07 5.16 
143.70 -551.87 5.12 
143.47 -551.99 5.11 
143.62 -551.59 5.09 
142.97 -552.06 5.09 
143.29 -551.41 5.05 
143.31 -551.12 5.03 
148.03 -548.25 5.54 
148.03 -547.34 5.45 
147.51 -547.89 5.46 
147.66 -547.61 5.45 
142.46 -545.33 4.83 
142.28 -545.03 4.79 
142.85 -544.23 4.76 
141.96 -544.61 4.72 
142.20 -544.42 4.72 
142.28 -544.12 4.70 
141.72 -544.74 4.71 
142.00 -543.91 4.66 
141.87 -543.75 4.64 
147.51 -554.64 6.39 
146.77 -554.61 6.32 
146.16 -554.54 6.27 
143.36 -551.81 5.79 
143.09 -552.08 5.79 
142.98 -551.41 5.72 
142.27 -545.18 5.39 
142.32 -544.80 5.36 
142.70 -544.43 5.36 
148.68 -545.88 6.11 
146.61 -554.55 7.10 
146.12 -554.58 7.05 
148.77 -545.84 6.88 
148.87 -545.81 7.64 
141.56 -545.40 3.73 
141.58 -545.22 3.72 
141.52 -544.69 3.68 
141.70 -544.03 3.63 
147.82 -547.67 4.87 
147.19 -549.11 4.96 
147.21 -548.62 4.92 
147.45 -548.29 4.90 
147.51 -547.41 4.83 
147.54 -547.19 4.81 
146.90 -548.31 4.87 
147.15 -547.41 4.81 
146.72 -548.03 4.84 
142.77 -545.40 4.38 
142.34 -545.86 4.40 
142.30 -545.68 4.38 
142.63 -543.75 4.23 
141.94 -545.40 4.33 
142.09 -545.19 4.32 
142.06 -544.39 4.25 
142.44 -543.98 4.24 
141.64 -544.90 4.27 
141.84 -544.52 4.25 
141.66 -544.11 4.20 
143.17 -552.23 5.24 
142.72 -552.46 5.24 
147.85 -547.87 5.62 
147.91 -547.46 5.58 
147.32 -548.17 5.60 
147.35 -547.95 5.59 
145.59 -552.58 5.90 
145.66 -552.27 5.87 
145.40 -552.72 5.90 
142.48 -544.40 4.87 
141.84 -545.07 4.88 
142.12 -544.70 4.87 
142.15 -544.17 4.82 
142.20 -543.99 4.81 
148.65 -546.20 6.27 
148.70 -546.16 7.02 
141.79 -545.04 3.78 
147.29 -549.22 5.03 
147.24 -548.71 4.98 
147.45 -548.26 4.95 
147.65 -547.65 4.91 
146.96 -548.18 4.92 
148.86 -539.33 4.27 
142.57 -545.90 4.47 
142.75 -544.87 4.39 
142.10 -545.61 4.42 
141.91 -545.27 4.38 
142.09 -544.35 4.31 
142.03 -544.48 4.32 
147.63 -548.02 5.67 
147.99 -547.71 5.67 
147.33 -548.37 5.68 
145.44 -553.10 5.99 
145.61 -552.71 5.97 
149.45 -539.93 5.09 
142.37 -545.81 5.05 
142.09 -545.03 4.95 
142.12 -544.83 4.94 
142.10 -544.42 4.90 
141.76 -545.18 4.94 
141.93 -544.25 4.87 
148.63 -546.43 6.34 
148.67 -546.40 7.10 
147.64 -547.59 4.40 
146.22 -545.29 4.17 
145.45 -545.81 4.19 
144.78 -546.32 4.20 
147.12 -549.51 5.08 
147.13 -549.10 5.04 
147.48 -548.45 5.01 
149.20 -541.33 4.49 
146.84 -548.64 4.99 
148.91 -540.43 4.40 
149.15 -539.69 4.35 
141.67 -545.79 4.45 
148.04 -546.66 5.12 
147.42 -547.42 5.15 
147.92 -546.83 5.12 
142.45 -544.71 4.63 
141.87 -545.07 4.63 
141.57 -544.75 4.59 
141.52 -544.36 4.55 
147.58 -548.55 5.75 
149.44 -541.09 5.22 
147.16 -548.85 5.75 
149.06 -540.86 5.17 
148.83 -540.50 5.12 
145.18 -553.11 6.01 
145.36 -552.85 6.00 
148.55 -540.78 5.12 
148.70 -540.15 5.08 
144.93 -553.46 6.03 
148.13 -540.32 5.05 
142.26 -546.16 5.11 
141.77 -545.61 5.02 
141.96 -545.32 5.01 
141.93 -544.98 5.11 
141.89 -544.66 5.22 
141.73 -544.40 5.18 
159.07 -529.80 5.08 
147.53 -546.94 5.87 
147.20 -547.33 5.88 
145.33 -552.12 6.18 
141.91 -544.73 5.85 
141.93 -544.44 5.82 
141.88 -544.24 5.80 
147.26 -547.06 6.62 
149.28 -543.30 3.80 
148.88 -543.60 3.82 
147.93 -544.19 3.85 
147.52 -544.52 3.87 
147.00 -544.89 3.89 
145.93 -545.67 3.94 
145.47 -546.01 3.96 
145.70 -545.84 3.95 
145.02 -546.34 3.98 
145.24 -546.16 3.97 
142.04 -544.67 3.76 
149.05 -541.89 4.20 
148.91 -541.45 4.15 
148.93 -541.13 4.12 
141.75 -544.96 4.16 
156.29 -543.48 4.69 
156.07 -543.22 4.66 
147.93 -546.92 4.87 
147.27 -547.66 4.92 
147.23 -547.00 4.85 
146.90 -548.03 4.93 
147.00 -547.24 4.86 
141.59 -545.04 4.40 
142.00 -543.63 4.28 
149.15 -541.53 4.90 
149.34 -540.56 4.82 
148.94 -540.73 4.81 
146.96 -548.93 5.53 
148.49 -541.04 4.81 
142.67 -545.23 5.10 
142.62 -543.49 4.92 
141.86 -545.24 5.05 
142.35 -543.74 4.93 
141.72 -544.76 4.72 
141.87 -544.21 4.94 
141.71 -543.90 4.90 
159.50 -529.86 4.52 
148.18 -546.91 5.66 
147.28 -548.55 5.77 
147.66 -547.47 5.68 
147.29 -547.61 5.67 
147.45 -547.19 5.64 
146.66 -548.02 5.67 
146.68 -547.68 5.64 
146.97 -546.84 5.57 
141.91 -544.92 5.64 
142.19 -544.20 5.59 
142.29 -543.61 5.54 
141.68 -545.15 5.65 
141.80 -544.52 5.59 
141.93 -544.30 5.58 
141.88 -543.88 5.53 
147.90 -547.48 6.47 
149.76 -543.12 3.90 
149.19 -543.50 3.92 
148.92 -543.69 3.93 
148.53 -543.97 3.95 
148.02 -544.33 3.97 
147.54 -544.62 3.98 
146.56 -545.31 4.02 
146.86 -545.14 4.01 
146.20 -545.62 4.04 
145.27 -546.26 4.08 
145.51 -546.10 4.07 
144.83 -546.78 4.11 
144.97 -546.43 4.09 
142.06 -544.81 3.87 
149.48 -542.08 4.35 
149.48 -540.85 4.23 
148.97 -541.67 4.29 
148.84 -541.17 4.23 
148.35 -541.96 4.29 
148.64 -540.73 4.18 
148.01 -541.43 4.22 
147.96 -541.13 4.19 
148.22 -540.87 4.18 
147.11 -548.12 5.05 
147.01 -547.81 5.01 
147.34 -547.51 5.00 
146.77 -547.69 4.99 
146.80 -547.51 4.98 
141.53 -545.14 4.50 
148.64 -541.86 5.01 
148.65 -541.31 4.96 
148.83 -540.49 4.89 
148.39 -541.57 4.97 
148.51 -541.05 4.92 
148.55 -540.73 4.89 
142.57 -545.57 5.23 
142.03 -545.23 5.16 
142.39 -544.58 5.12 
141.74 -545.10 4.88 
141.95 -544.07 5.04 
159.76 -547.60 6.37 
158.34 -550.24 6.54 
158.02 -549.80 6.48 
159.61 -531.12 4.77 
159.50 -530.90 4.74 
159.17 -530.25 4.66 
159.34 -530.13 4.66 
147.33 -548.77 5.89 
147.22 -548.49 5.85 
147.30 -548.28 5.84 
147.47 -547.71 5.79 
147.62 -547.22 5.75 
146.82 -548.84 5.86 
146.92 -547.92 5.77 
145.25 -552.37 6.13 
142.17 -544.45 5.72 
141.77 -545.02 5.74 
142.00 -544.70 5.73 
142.08 -544.17 5.68 
141.90 -543.85 5.63 
147.74 -547.68 6.58 
149.14 -539.54 5.87 
147.29 -548.02 6.57 
147.34 -547.80 6.55 
147.20 -548.19 6.59 
148.40 -547.56 7.89 
150.31 -542.89 3.94 
150.00 -543.08 3.95 
149.62 -543.37 3.97 
148.85 -543.86 4.00 
147.21 -545.06 4.06 
146.27 -545.70 4.10 
146.05 -545.86 4.11 
145.43 -546.27 4.13 
145.61 -546.18 4.12 
144.89 -546.64 4.15 
142.07 -544.89 3.92 
149.30 -542.85 4.47 
149.25 -542.55 4.44 
149.23 -542.19 4.41 
149.49 -541.07 4.31 
148.78 -541.57 4.33 
149.11 -540.79 4.27 
148.46 -541.09 4.27 
148.00 -541.15 4.25 
147.90 -541.68 4.30 
147.88 -541.38 4.27 
144.46 -554.15 5.35 
141.75 -545.56 4.38 
141.54 -545.25 4.34 
149.36 -539.35 4.38 
149.26 -539.12 4.35 
149.26 -538.89 4.33 
148.40 -539.51 4.35 
147.39 -549.00 5.19 
147.35 -548.75 5.17 
146.93 -548.34 5.11 
145.25 -552.57 5.44 
143.04 -552.65 5.35 
149.02 -542.27 5.15 
148.95 -541.23 5.04 
149.14 -540.96 5.02 
148.11 -547.98 5.68 
148.42 -541.89 5.07 
148.61 -541.61 5.05 
148.68 -540.83 4.98 
148.29 -541.62 5.03 
141.94 -545.42 4.99 
141.58 -545.31 5.07 
159.73 -531.43 4.87 
159.50 -531.38 4.85 
159.59 -531.02 4.82 
159.37 -530.54 4.77 
158.16 -550.71 6.65 
157.89 -550.27 6.59 
157.85 -550.30 6.59 
157.30 -548.44 6.35 
149.43 -539.08 5.13 
149.02 -540.07 5.19 
148.90 -539.27 5.11 
148.71 -540.39 5.20 
148.75 -539.60 5.13 
141.93 -546.32 5.71 
141.99 -546.12 5.70 
141.91 -545.57 5.62 
141.96 -545.41 5.61 
141.54 -545.62 5.60 
148.15 -547.95 6.46 
142.11 -545.14 5.84 
142.29 -544.89 5.83 
141.85 -545.32 5.83 
141.68 -545.40 5.83 
149.28 -539.60 5.94 
148.78 -540.34 5.96 
148.42 -540.07 5.90 
148.33 -539.84 5.87 
148.20 -547.93 7.24 
148.34 -547.95 8.05 
148.59 -546.29 8.15 
149.30 -543.79 4.08 
149.46 -543.63 4.07 
148.05 -544.66 4.13 
147.97 -544.68 4.13 
145.08 -546.71 4.23 
144.86 -546.85 4.24 
149.23 -542.78 4.56 
149.43 -541.41 4.44 
149.10 -542.54 4.53 
149.12 -542.03 4.48 
148.84 -541.50 4.42 
149.10 -541.13 4.40 
149.11 -540.86 4.37 
148.19 -542.57 4.49 
147.99 -541.95 4.42 
148.10 -541.53 4.39 
147.92 -542.12 4.43 
147.84 -541.68 4.39 
144.33 -554.34 5.43 
149.12 -539.44 4.47 
149.34 -539.14 4.45 
148.82 -540.21 4.52 
148.51 -540.51 4.54 
148.32 -539.81 4.46 
148.41 -539.59 4.45 
142.72 -552.80 5.42 
148.79 -542.39 5.25 
148.87 -541.67 5.18 
149.08 -541.41 5.17 
148.48 -542.51 5.24 
148.58 -541.82 5.18 
148.66 -541.42 5.14 
148.67 -541.16 5.12 
148.25 -542.18 5.19 
148.29 -541.96 5.17 
141.89 -545.68 5.12 
141.53 -545.70 5.10 
159.78 -531.19 4.97 
159.57 -531.49 4.98 
159.41 -530.92 4.92 
158.63 -549.94 6.70 
158.43 -550.24 6.71 
157.88 -550.28 6.68 
157.94 -548.99 6.55 
157.58 -550.49 6.68 
157.20 -551.63 6.77 
157.16 -551.13 6.72 
149.34 -539.30 5.24 
148.85 -540.61 5.33 
148.94 -540.17 5.29 
148.87 -539.59 5.23 
148.42 -540.70 5.30 
148.65 -539.79 5.23 
142.09 -546.19 5.83 
141.70 -547.11 5.91 
141.78 -546.67 5.87 
141.92 -546.42 5.85 
141.88 -545.64 5.75 
141.61 -547.01 5.89 
148.02 -548.24 6.59 
149.46 -539.63 6.05 
149.23 -539.79 6.05 
149.01 -540.23 6.07 
148.63 -540.42 6.05 
148.36 -540.19 6.00 
148.26 -539.96 5.97 
148.20 -539.91 5.96 
148.05 -548.21 7.39 
148.15 -548.21 8.21 
146.61 -545.83 4.26 
149.60 -541.85 4.57 
149.12 -543.15 4.66 
149.01 -542.82 4.63 
148.65 -542.21 4.56 
148.13 -542.98 4.60 
148.07 -542.28 4.54 
148.16 -541.73 4.49 
147.76 -542.14 4.51 
147.93 -541.72 4.48 
149.43 -539.22 4.54 
149.13 -540.07 4.61 
149.04 -539.61 4.56 
149.13 -539.39 4.55 
148.66 -539.79 4.56 
148.37 -541.31 4.68 
148.64 -541.13 4.68 
148.48 -540.54 4.62 
148.47 -540.20 4.59 
148.02 -540.80 4.62 
149.37 -541.93 5.34 
148.85 -542.72 5.38 
148.79 -542.01 5.31 
148.83 -541.78 5.29 
148.71 -542.71 5.37 
148.51 -541.87 5.27 
148.50 -541.44 5.23 
148.32 -542.18 5.29 
147.88 -548.52 5.91 
142.22 -545.77 5.25 
141.58 -546.98 5.33 
159.83 -532.03 5.15 
159.79 -531.57 5.11 
158.35 -550.18 6.78 
157.95 -551.36 6.87 
157.81 -550.27 6.75 
157.84 -549.26 6.65 
157.70 -549.15 6.63 
157.60 -551.14 6.83 
157.09 -551.27 6.81 
157.02 -550.52 6.72 
149.79 -540.11 5.43 
149.13 -540.71 5.44 
149.08 -539.55 5.32 
149.07 -539.35 5.31 
148.83 -540.20 5.37 
148.83 -539.74 5.32 
148.37 -540.81 5.39 
148.44 -540.37 5.36 
145.02 -552.99 6.38 
166.09 -531.10 5.78 
166.26 -530.73 5.77 
166.22 -530.39 5.73 
165.49 -531.54 5.78 
159.81 -529.80 5.23 
159.48 -530.15 5.24 
159.33 -547.13 6.76 
142.01 -546.53 5.98 
141.65 -546.86 5.99 
141.54 -547.17 6.02 
149.52 -540.25 6.20 
148.78 -540.37 6.15 
147.89 -548.49 6.72 
147.98 -548.45 7.54 
148.11 -548.49 8.39 
150.35 -543.48 4.18 
150.26 -543.51 4.18 
147.98 -545.04 4.25 
146.91 -545.84 4.28 
149.14 -543.31 4.72 
149.00 -543.50 4.73 
147.78 -542.43 4.58 
149.24 -541.60 4.79 
148.90 -540.12 4.64 
148.97 -539.78 4.62 
149.03 -539.45 4.59 
148.59 -540.52 4.67 
148.51 -540.28 4.64 
148.49 -541.08 4.71 
148.26 -540.69 4.66 
151.03 -529.77 4.43 
148.72 -542.99 5.46 
148.40 -543.20 5.46 
148.34 -542.69 5.41 
148.31 -542.47 5.38 
141.63 -546.04 5.30 
160.27 -532.02 5.27 
160.04 -531.72 5.23 
159.29 -532.23 5.22 
158.03 -550.26 6.81 
157.75 -551.60 6.92 
157.65 -550.79 6.83 
157.58 -549.35 6.69 
157.40 -551.06 6.84 
157.08 -550.20 6.74 
157.04 -551.52 6.87 
149.12 -541.29 5.54 
148.97 -540.32 5.44 
148.89 -539.73 5.38 
148.76 -540.97 5.48 
148.56 -540.59 5.43 
148.74 -540.05 5.40 
147.49 -549.81 6.07 
145.92 -551.13 6.10 
166.50 -531.35 5.90 
166.12 -530.69 5.82 
165.76 -531.05 5.83 
165.83 -531.73 5.89 
160.13 -530.49 5.38 
159.77 -530.22 5.34 
158.90 -529.86 5.25 
159.40 -547.36 6.82 
158.31 -551.84 6.98 
158.02 -552.83 7.06 
142.16 -547.37 6.17 
142.01 -546.51 6.06 
141.79 -546.82 6.08 
141.73 -546.53 6.04 
141.61 -546.09 5.98 
141.51 -547.31 6.11 
141.56 -546.91 6.07 
149.05 -540.28 6.22 
147.93 -548.59 7.65 
148.56 -546.92 8.49 
150.30 -543.75 4.24 
150.15 -543.91 4.25 
149.75 -544.17 4.26 
149.37 -544.43 4.28 
148.88 -544.77 4.29 
147.18 -545.90 4.34 
144.91 -547.39 4.40 
149.24 -541.83 4.66 
149.08 -541.98 4.67 
147.93 -543.84 4.78 
166.08 -532.31 4.84 
165.99 -531.35 4.76 
149.48 -539.51 4.68 
149.19 -540.03 4.72 
148.74 -541.01 4.78 
148.64 -542.07 4.86 
148.67 -541.60 4.83 
148.32 -541.26 4.78 
151.44 -530.45 4.61 
150.86 -530.27 4.55 
150.74 -529.92 4.52 
148.51 -541.96 5.44 
142.11 -544.74 5.47 
141.85 -546.14 5.42 
141.84 -546.81 5.49 
141.58 -546.44 5.43 
157.79 -549.83 6.81 
156.17 -544.73 6.21 
151.62 -530.66 4.64 
157.44 -550.06 6.81 
157.06 -550.91 6.87 
156.47 -550.26 6.77 
153.03 -550.38 6.56 
149.61 -542.18 5.53 
149.18 -541.19 5.61 
149.14 -541.67 5.65 
148.75 -540.85 5.55 
148.57 -541.28 5.57 
148.35 -541.26 5.56 
145.63 -551.64 6.22 
166.49 -531.54 5.97 
165.80 -531.27 5.90 
165.71 -531.20 5.89 
165.52 -531.95 5.94 
159.82 -530.53 5.43 
159.39 -529.99 5.36 
158.96 -530.33 5.36 
159.32 -547.66 6.89 
158.63 -547.37 6.81 
158.49 -547.98 6.86 
158.14 -547.58 6.80 
158.60 -550.29 6.91 
158.38 -549.33 6.98 
158.32 -548.97 6.94 
157.77 -550.54 6.88 
157.41 -551.48 6.95 
156.84 -552.65 7.03 
142.79 -545.04 6.22 
142.43 -545.09 6.20 
141.60 -544.90 6.11 
141.54 -546.79 6.18 
141.52 -546.53 6.15 
148.99 -540.61 6.33 
148.31 -547.22 6.94 
148.32 -547.18 7.77 
147.68 -548.94 7.80 
148.42 -547.18 8.62 
147.70 -548.92 8.68 
150.15 -544.19 4.30 
149.90 -544.37 4.31 
149.49 -544.63 4.32 
149.10 -544.87 4.33 
148.85 -545.04 4.34 
148.48 -545.29 4.35 
145.53 -545.92 4.33 
145.43 -546.08 4.34 
145.12 -546.23 4.34 
142.13 -546.74 4.83 
166.33 -532.19 4.89 
166.16 -531.85 4.86 
165.99 -532.26 4.88 
149.22 -540.18 4.78 
149.14 -539.92 4.75 
149.15 -539.72 4.74 
149.48 -540.99 4.86 
149.10 -540.40 4.79 
149.07 -541.97 4.72 
148.76 -540.55 4.79 
148.96 -542.61 4.97 
148.83 -542.14 4.72 
148.43 -541.20 4.83 
148.24 -540.90 4.79 
148.63 -542.73 4.76 
148.61 -542.31 4.73 
148.45 -542.08 4.90 
148.35 -541.47 4.85 
148.25 -541.39 4.83 
147.96 -541.56 4.84 
147.46 -549.53 5.30 
150.79 -530.45 4.65 
141.92 -543.62 5.41 
142.38 -546.84 5.60 
159.54 -532.88 5.45 
159.58 -532.41 5.41 
159.61 -533.32 5.49 
159.40 -532.67 5.42 
151.38 -531.08 4.74 
151.32 -530.83 4.72 
151.05 -529.96 4.63 
150.80 -530.58 4.66 
156.26 -545.00 6.31 
156.09 -544.88 6.29 
156.06 -545.20 6.32 
149.35 -540.17 5.59 
148.86 -540.29 5.57 
152.99 -550.79 6.66 
152.50 -549.43 6.49 
148.78 -540.51 5.58 
152.77 -550.98 6.66 
148.54 -541.73 5.67 
152.50 -551.20 6.67 
148.29 -542.93 5.59 
148.21 -542.50 5.55 
142.17 -543.55 5.42 
166.34 -532.12 6.07 
166.10 -531.48 6.00 
159.28 -529.74 5.39 
159.21 -548.23 6.98 
158.38 -548.95 6.99 
158.09 -549.52 7.02 
157.71 -549.02 6.95 
158.22 -550.86 7.00 
158.08 -550.44 6.95 
157.74 -550.11 7.06 
157.37 -550.80 6.94 
156.96 -551.32 6.96 
142.22 -544.04 6.15 
142.09 -543.69 6.10 
142.21 -544.37 6.18 
141.66 -544.33 6.13 
151.42 -530.08 5.49 
151.43 -530.55 5.53 
151.17 -530.33 5.49 
149.10 -540.80 6.43 
148.60 -542.80 6.44 
148.50 -542.98 6.45 
147.55 -549.26 7.06 
147.54 -549.21 7.95 
147.61 -549.18 8.86 
150.21 -544.17 4.50 
148.77 -541.93 4.29 
149.87 -544.43 4.51 
149.60 -544.60 4.51 
149.20 -544.85 4.52 
148.81 -545.11 4.52 
148.57 -545.28 4.52 
148.31 -545.44 4.53 
159.42 -533.31 4.86 
159.34 -532.87 4.92 
159.28 -533.59 4.87 
156.32 -544.72 5.57 
156.19 -545.33 5.62 
156.02 -544.87 5.57 
155.46 -544.94 5.54 
155.40 -545.33 5.57 
149.14 -541.93 5.14 
149.17 -542.76 5.01 
149.22 -542.17 5.16 
148.95 -542.91 5.01 
148.72 -542.51 4.97 
148.75 -542.22 4.95 
148.22 -542.82 4.96 
147.68 -543.12 4.96 
147.77 -542.89 4.94 
148.32 -547.57 5.54 
141.51 -545.10 4.96 
160.24 -533.10 5.95 
160.14 -532.72 5.91 
159.70 -533.93 5.97 
151.46 -530.07 5.00 
151.44 -530.83 5.06 
151.14 -530.58 5.01 
150.94 -530.32 4.98 
150.92 -529.90 5.14 
150.56 -530.49 4.96 
150.70 -530.26 4.95 
149.22 -542.74 5.89 
148.74 -542.64 5.84 
148.79 -542.26 5.81 
148.60 -543.02 5.87 
148.31 -542.84 5.83 
148.22 -542.52 5.79 
148.51 -543.79 5.93 
148.05 -543.27 5.85 
147.94 -542.94 5.81 
148.03 -543.31 5.85 
148.27 -547.52 6.40 
147.48 -549.43 6.38 
146.97 -549.45 6.48 
147.02 -550.74 6.47 
141.96 -545.16 5.70 
141.76 -545.65 5.73 
141.73 -545.42 5.70 
141.65 -546.21 5.77 
141.63 -545.81 5.73 
160.02 -532.43 6.07 
159.90 -532.73 6.09 
157.02 -551.12 7.26 
157.03 -551.91 7.33 
156.80 -551.39 7.27 
156.61 -552.50 7.36 
157.09 -553.56 7.49 
156.58 -552.89 7.39 
147.48 -549.34 8.23 
148.89 -541.30 4.35 
148.73 -541.01 4.32 
148.92 -542.09 4.41 
148.90 -541.81 4.39 
148.52 -541.43 4.35 
159.37 -533.34 4.98 
159.09 -532.71 4.91 
159.62 -533.73 5.02 
158.96 -532.96 4.92 
156.47 -545.14 5.74 
155.81 -545.20 5.70 
149.22 -541.53 5.23 
148.97 -542.04 5.07 
148.54 -541.56 5.19 
149.09 -542.67 5.13 
148.74 -542.18 5.07 
149.02 -542.90 5.14 
148.23 -542.80 5.09 
147.86 -543.03 5.09 
148.02 -543.60 5.14 
147.71 -543.19 5.09 
146.88 -549.07 5.70 
147.23 -550.29 5.64 
141.92 -546.56 5.85 
151.30 -529.90 5.12 
151.29 -530.27 5.33 
151.49 -530.93 5.22 
151.04 -530.60 5.16 
150.88 -530.16 5.11 
149.26 -540.84 6.02 
149.19 -541.22 6.05 
149.09 -542.61 6.03 
148.88 -542.26 5.98 
148.72 -543.02 6.03 
148.69 -542.73 6.01 
148.18 -543.09 6.00 
148.15 -543.18 6.01 
148.44 -547.43 6.54 
147.56 -549.40 6.54 
147.33 -550.28 6.61 
142.81 -545.20 5.91 
142.26 -545.15 5.87 
142.44 -545.76 5.93 
142.11 -545.31 5.87 
142.04 -545.92 5.92 
142.06 -546.33 5.96 
141.79 -546.77 5.86 
159.99 -532.79 6.05 
160.08 -533.08 6.08 
159.85 -533.51 6.10 
157.30 -551.60 7.48 
157.51 -552.55 7.58 
157.04 -551.86 7.48 
156.55 -552.83 7.54 
148.54 -547.47 8.36 
148.95 -540.85 4.36 
149.00 -541.14 4.39 
142.30 -545.25 4.45 
160.03 -534.09 5.13 
159.42 -533.91 5.08 
159.08 -533.55 5.03 
159.57 -534.28 5.12 
150.84 -531.70 4.43 
156.09 -545.21 5.78 
155.48 -545.30 5.75 
148.84 -542.44 5.16 
149.15 -543.16 5.24 
148.69 -542.62 5.17 
149.20 -544.21 5.32 
148.34 -543.07 5.19 
147.78 -543.08 5.16 
148.01 -544.12 5.25 
148.04 -543.88 5.23 
147.61 -543.45 5.18 
147.83 -544.21 5.25 
148.81 -546.19 5.64 
147.45 -549.87 5.69 
142.38 -544.39 5.15 
142.08 -544.62 5.15 
142.29 -545.40 5.22 
141.92 -544.92 5.17 
147.08 -551.07 5.77 
151.07 -530.87 5.28 
150.91 -530.62 5.25 
151.53 -531.50 5.36 
151.12 -531.16 5.30 
148.65 -543.42 6.17 
148.03 -543.51 6.13 
147.98 -543.78 6.15 
148.84 -546.17 6.55 
147.41 -549.82 6.67 
141.67 -547.05 5.99 
159.91 -533.34 6.17 
160.00 -533.81 6.22 
159.80 -534.27 6.24 
157.34 -552.22 7.63 
156.50 -552.05 7.55 
156.72 -553.90 7.74 
156.56 -553.42 7.69 
148.74 -546.34 7.47 
147.41 -549.79 7.67 
147.43 -549.78 8.68 
141.66 -544.60 4.38 
141.67 -545.09 4.41 
159.61 -530.84 5.06 
159.83 -534.39 5.15 
159.23 -533.93 5.08 
150.72 -531.75 4.45 
156.33 -545.33 5.81 
155.95 -545.46 5.80 
149.10 -540.65 5.23 
148.80 -542.63 5.19 
149.14 -543.42 5.27 
148.76 -542.91 5.21 
148.34 -543.33 5.22 
147.84 -543.39 5.20 
148.06 -544.20 5.27 
148.03 -544.12 5.27 
147.68 -543.66 5.21 
147.82 -544.36 5.27 
148.78 -546.44 5.67 
143.39 -544.63 5.24 
142.35 -544.31 5.16 
142.31 -544.69 5.18 
142.03 -545.07 5.20 
151.21 -531.15 5.36 
151.49 -531.72 5.42 
151.07 -531.36 5.36 
148.96 -543.34 6.22 
148.77 -543.55 6.23 
148.54 -543.74 6.23 
147.97 -543.74 6.18 
148.74 -546.38 6.59 
147.43 -549.96 6.72 
159.91 -533.67 6.23 
159.70 -534.14 6.26 
148.87 -546.42 7.54 
147.44 -549.93 7.74 
147.41 -549.89 8.77 
142.07 -538.98 3.51 
142.50 -539.60 3.56 
142.03 -539.91 3.56 
148.89 -532.91 4.31 
148.86 -533.41 4.34 
156.37 -538.15 4.89 
155.71 -538.29 4.86 
155.64 -538.64 4.88 
155.60 -538.98 4.90 
148.79 -536.34 4.34 
149.11 -537.03 4.40 
148.78 -536.65 4.36 
148.16 -537.00 4.35 
147.68 -537.13 4.33 
148.96 -538.41 4.48 
147.58 -537.40 4.34 
148.04 -538.25 4.42 
149.03 -540.37 4.79 
142.58 -539.11 4.34 
142.53 -539.72 4.37 
142.18 -539.30 4.33 
142.40 -540.06 4.39 
142.16 -540.34 4.39 
141.90 -541.97 4.31 
147.15 -550.75 5.35 
147.12 -551.11 5.37 
147.08 -551.64 5.41 
146.91 -553.28 5.51 
146.80 -554.41 5.58 
149.05 -536.98 5.39 
148.81 -537.24 5.39 
148.36 -537.36 5.36 
148.00 -537.58 5.35 
147.81 -537.46 5.32 
148.25 -543.90 5.84 
149.08 -540.36 5.74 
148.31 -543.91 6.89 
142.15 -539.77 3.61 
149.21 -533.57 4.43 
148.59 -533.83 4.41 
156.52 -538.64 4.98 
156.28 -538.25 4.94 
156.13 -538.56 4.95 
155.83 -538.77 4.95 
155.48 -539.02 4.95 
149.33 -537.23 4.49 
149.04 -536.80 4.45 
148.84 -537.32 4.47 
148.13 -537.11 4.42 
148.65 -537.76 4.49 
147.75 -537.24 4.40 
149.05 -538.37 4.55 
147.62 -537.55 4.42 
148.92 -538.65 4.56 
153.58 -543.33 5.11 
153.58 -543.95 5.15 
152.50 -544.12 5.11 
141.51 -542.07 4.37 
147.11 -550.76 5.41 
147.07 -551.11 5.43 
147.01 -551.65 5.47 
146.75 -554.07 5.61 
148.93 -537.33 5.49 
148.41 -537.46 5.46 
147.74 -537.52 5.41 
142.57 -540.26 3.73 
142.31 -540.53 3.73 
142.33 -541.00 3.76 
142.73 -541.89 3.82 
142.49 -541.82 3.81 
156.84 -538.24 5.06 
156.67 -538.50 5.07 
155.92 -538.61 5.03 
148.98 -536.32 4.51 
149.36 -536.75 4.56 
148.99 -536.92 4.55 
148.28 -537.01 4.51 
148.89 -537.51 5.62 
148.44 -537.67 5.60 
143.31 -539.40 3.78 
142.39 -539.29 3.74 
142.56 -539.65 3.77 
142.32 -539.70 3.76 
142.42 -540.14 3.79 
142.12 -539.96 3.77 
142.81 -540.63 3.83 
142.34 -540.64 3.81 
142.13 -540.24 3.78 
156.13 -538.69 5.13 
149.50 -536.79 4.65 
149.49 -537.06 4.67 
143.15 -539.35 3.77 
142.50 -539.89 3.78 
142.25 -539.54 3.76 
142.21 -540.20 3.79 
142.54 -540.80 3.83 
149.11 -537.03 4.67 
149.53 -537.47 4.72 
149.09 -537.35 4.69 
148.61 -537.46 4.67 
142.39 -540.14 3.88 
142.18 -540.36 3.88 
142.35 -540.89 3.92 
142.53 -540.86 3.95 
142.17 -540.98 3.94 
142.34 -541.71 3.99 
142.13 -541.42 3.96 
