# .PCD v0.7 - Point Cloud Data file format
VERSION 0.7
FIELDS x y z
SIZE 4 4 4
TYPE F F F
COUNT 1 1 1
WIDTH 109
HEIGHT 1
VIEWPOINT 0 0 0 1 0 0 0
POINTS 109
DATA ascii
190.853680 -677.647460 2.125518
190.618960 -677.524230 1.832904
190.401540 -677.405820 1.697238
190.718490 -677.324890 1.472485
190.193560 -677.424500 1.438616
190.145940 -677.383180 1.239773
189.963960 -677.352290 1.155010
190.274190 -677.325930 0.990485
188.277070 -677.877930 0.638858
189.780880 -677.299070 0.420539
188.533020 -677.275210 0.420826
189.045870 -677.253300 0.425179
189.309330 -677.190310 0.420482
189.335890 -677.340330 0.338933
186.920140 -664.099430 -1.198132
184.194150 -664.033080 -1.256685
190.383220 -677.967960 0.481764
188.022920 -663.194340 -1.647677
179.502980 -664.227420 -1.754546
180.382310 -664.261960 -1.728357
190.824800 -677.872920 -0.114396
191.231020 -678.090390 -0.028111
172.881420 -674.883420 -0.757724
181.164460 -664.088810 -1.604905
191.379320 -678.264770 0.043641
190.895690 -677.650090 2.381051
190.171940 -677.839540 2.138793
190.837980 -677.613530 1.879309
190.821930 -677.565000 1.865836
190.719020 -677.493290 1.924937
190.716520 -677.620850 1.879954
190.780030 -677.512080 1.801284
190.834300 -677.428770 1.827670
190.635990 -677.306520 1.692056
190.280940 -677.369810 1.476514
190.581050 -677.356080 1.434587
190.434370 -677.400020 1.436675
190.667330 -677.348450 1.237885
190.369580 -677.351620 1.238391
190.472780 -677.313780 1.152959
190.184780 -677.330020 1.153911
190.496640 -677.267150 0.988739
190.163640 -677.386410 0.992594
189.862410 -677.456300 0.994617
190.457600 -677.332340 0.891460
190.249730 -677.369140 0.892476
190.709780 -677.212280 0.841909
190.369770 -677.276550 0.843782
190.160800 -677.330200 0.845573
188.120910 -677.898500 0.636488
188.068210 -677.939450 0.637174
187.707060 -677.988770 0.631806
190.337520 -677.391850 0.518310
190.134280 -677.434080 0.515974
190.358460 -677.241270 0.461839
190.040620 -677.270870 0.457530
189.776580 -677.331240 0.455672
190.404910 -677.211850 0.426685
190.081440 -677.260440 0.423646
189.394810 -677.120300 0.462567
189.120760 -677.225520 0.463061
188.781190 -677.276790 0.459951
188.996430 -677.210880 0.425132
188.730320 -677.255740 0.423037
188.381810 -677.319760 0.420599
189.300130 -677.182860 0.425880
188.980900 -677.254390 0.424186
188.642840 -677.247740 0.418441
189.402680 -677.162840 0.420609
189.166930 -677.187870 0.418127
189.266390 -677.139220 0.398807
189.048070 -677.164550 0.396403
189.509690 -677.281560 0.359164
189.243330 -677.271120 0.353750
188.975890 -677.285710 0.349617
189.609820 -677.340150 0.344112
189.164020 -677.362550 0.336840
189.393890 -677.729060 -0.258570
189.247670 -677.656190 0.307120
188.019180 -664.157040 -1.172440
186.706330 -663.851500 -1.223911
185.387020 -663.944890 -1.241070
184.444080 -664.080990 -1.247560
181.970490 -664.108400 -1.294729
181.643800 -664.119570 -1.300429
181.409990 -664.063050 -1.310182
187.722530 -664.339420 -1.162004
187.330030 -664.336120 -1.169659
189.871170 -677.750920 0.050458
190.778630 -677.962950 0.491028
190.544340 -677.949770 0.484484
190.258100 -677.878850 0.472954
190.155650 -677.754270 0.683186
189.949690 -677.766780 0.679383
188.255950 -663.272090 -1.634338
172.285430 -663.583800 -2.014632
177.025160 -663.934450 -1.849384
180.327380 -664.300230 -1.725899
179.985720 -664.301210 -1.734597
179.657300 -664.252080 -1.748057
191.175870 -677.922970 -0.102027
177.415250 -663.440860 -1.344540
191.484160 -677.958440 -0.008033
191.276790 -677.928770 -0.011353
177.885940 -663.218140 -1.676886
172.937100 -674.771790 -0.768101
172.736790 -674.737980 -0.776652
181.124910 -664.048400 -1.609933
169.216830 -679.431270 -0.389736
