# .PCD v0.7 - Point Cloud Data file format
VERSION 0.7
FIELDS x y z
SIZE 4 4 4
TYPE F F F
COUNT 1 1 1
WIDTH 2504
HEIGHT 1
VIEWPOINT 0 0 0 1 0 0 0
POINTS 2504
DATA ascii
173.22 30.59 1.78 
173.80 30.43 2.03 
173.84 30.34 2.02 
172.43 30.88 1.90 
173.23 30.70 1.79 
172.43 31.20 1.92 
172.71 31.31 1.89 
174.03 31.37 1.72 
174.43 31.44 1.97 
172.79 31.50 1.89 
173.35 31.74 1.84 
174.27 31.50 1.85 
173.26 31.94 1.86 
173.52 31.89 1.83 
172.95 32.59 1.94 
172.97 32.58 1.93 
173.92 32.28 1.77 
172.88 32.76 1.95 
173.39 33.30 1.93 
183.54 22.87 1.19 
181.87 23.49 1.27 
184.59 24.92 1.35 
167.38 24.65 2.22 
167.81 24.65 2.18 
168.20 24.69 2.14 
168.54 24.66 2.10 
183.78 25.28 1.38 
190.21 25.80 1.12 
191.29 25.89 1.10 
181.73 26.81 1.54 
179.02 26.98 1.63 
179.12 26.96 1.62 
173.65 30.13 2.04 
174.02 30.09 2.30 
174.47 29.95 2.24 
172.67 30.54 2.25 
173.65 30.45 2.05 
172.92 31.22 2.25 
173.93 31.52 2.13 
173.91 31.94 2.15 
168.95 32.17 2.33 
173.62 32.43 2.34 
168.53 32.47 2.45 
172.74 32.63 2.35 
173.06 33.08 2.33 
173.16 33.48 2.34 
177.70 24.67 2.25 
180.20 24.71 2.16 
180.57 24.69 2.11 
166.65 24.66 2.30 
168.67 24.63 2.57 
169.54 24.65 2.47 
169.77 24.65 2.44 
173.32 24.87 2.44 
173.75 24.84 2.38 
174.13 24.87 2.32 
174.57 24.88 2.26 
177.06 24.79 2.29 
177.26 24.77 2.26 
168.76 24.94 2.58 
169.47 24.96 2.49 
170.43 24.96 2.37 
173.64 30.81 2.69 
174.29 30.85 2.57 
174.03 31.16 2.62 
174.36 31.58 2.57 
173.08 32.09 2.66 
172.66 32.85 2.77 
172.85 33.14 2.75 
173.67 33.16 2.99 
172.10 33.72 2.91 
172.61 33.63 2.82 
178.38 24.68 2.45 
178.61 24.68 2.41 
179.02 24.69 2.35 
179.41 24.70 2.28 
179.79 24.69 2.22 
180.00 24.66 2.19 
166.62 24.60 2.83 
167.04 24.59 2.77 
167.48 24.61 2.72 
167.79 24.57 2.68 
168.03 24.62 2.65 
170.90 24.84 2.80 
172.54 24.85 2.55 
172.97 24.87 2.49 
173.87 24.74 2.80 
174.59 24.78 2.68 
174.90 24.78 2.63 
175.32 24.79 2.56 
175.79 24.78 2.49 
176.22 24.76 2.42 
176.52 24.78 2.37 
176.99 24.72 2.49 
178.69 24.71 2.40 
178.84 24.71 2.37 
174.08 30.02 2.93 
173.64 30.48 3.01 
174.04 30.18 2.93 
173.87 30.62 2.96 
172.42 31.53 3.15 
173.55 31.59 2.94 
171.68 31.93 3.31 
171.94 31.86 3.25 
172.61 31.86 3.13 
172.63 31.74 3.12 
171.92 32.09 3.27 
172.81 32.49 3.12 
172.20 32.64 3.24 
172.61 33.16 3.20 
167.03 24.48 3.29 
172.05 24.69 3.10 
172.43 24.74 3.04 
174.30 24.63 3.16 
174.65 24.64 3.10 
174.97 24.64 3.04 
175.33 24.64 2.97 
175.84 24.65 2.88 
176.58 24.66 2.75 
172.91 31.89 3.47 
173.32 31.76 3.38 
171.81 32.06 3.71 
172.39 32.99 3.63 
167.45 23.95 3.76 
172.56 24.64 3.48 
173.09 24.65 3.38 
173.39 24.64 3.33 
173.90 24.64 3.23 
169.26 24.04 4.12 
169.73 24.11 4.02 
168.22 32.15 4.48 
167.44 24.18 4.47 
168.57 24.02 4.25 
170.97 23.99 0.17 
173.79 24.33 0.11 
169.73 24.88 0.28 
171.06 24.94 0.24 
173.73 24.81 0.15 
169.72 25.31 0.31 
171.03 25.34 0.04 
173.84 25.37 0.19 
169.70 25.61 0.34 
170.99 25.73 0.31 
173.08 25.85 0.25 
173.19 25.80 0.25 
169.69 25.96 0.24 
174.85 26.24 -0.01 
176.34 26.25 -0.05 
177.34 26.18 -0.14 
177.78 26.12 -0.10 
179.45 26.45 -0.13 
179.89 26.37 -0.17 
180.08 26.21 -0.17 
180.61 26.22 -0.24 
180.90 26.36 -0.21 
181.40 26.50 -0.18 
181.79 26.46 -0.20 
182.31 26.54 -0.25 
182.52 26.47 -0.24 
182.82 26.43 -0.23 
183.31 26.40 -0.25 
183.80 26.40 -0.27 
168.33 26.45 0.20 
169.30 26.54 0.18 
169.58 26.35 0.16 
170.97 26.49 0.13 
171.71 26.40 0.10 
172.29 26.46 0.09 
172.52 26.56 0.09 
172.95 26.64 0.08 
174.53 26.57 0.03 
174.87 26.45 0.01 
176.87 26.66 -0.10 
177.44 26.61 -0.13 
177.61 26.78 -0.05 
178.72 26.85 -0.14 
179.01 26.56 -0.11 
179.30 26.58 -0.13 
179.68 26.66 -0.18 
180.17 26.79 -0.18 
180.60 26.82 -0.16 
180.95 26.75 -0.17 
181.32 26.66 -0.17 
181.67 26.84 -0.20 
182.27 26.79 -0.22 
182.57 26.73 -0.23 
182.95 26.69 -0.25 
166.56 26.67 0.51 
168.27 26.75 0.35 
168.35 26.92 0.24 
170.95 26.95 0.16 
171.42 26.97 0.15 
172.16 26.99 0.13 
173.78 26.81 0.07 
175.71 27.08 0.03 
176.71 26.88 -0.11 
176.82 26.99 -0.10 
177.33 26.95 -0.11 
178.27 27.09 -0.04 
178.54 27.04 -0.05 
178.91 27.07 -0.09 
179.25 27.10 -0.13 
180.10 26.98 -0.15 
180.67 27.11 -0.11 
180.82 27.32 -0.10 
181.36 27.03 -0.18 
181.72 27.11 -0.18 
182.16 27.07 -0.19 
168.36 27.14 0.25 
175.70 27.40 0.06 
176.03 27.49 0.06 
180.48 27.39 -0.12 
172.53 32.13 0.51 
174.13 32.10 0.46 
169.14 32.33 0.87 
168.26 23.26 0.54 
168.25 23.54 0.56 
168.27 24.04 0.59 
168.20 24.29 0.61 
187.32 25.05 -0.01 
168.26 24.87 0.65 
175.13 24.89 0.50 
176.74 25.18 0.25 
178.20 25.05 0.27 
179.72 25.07 0.20 
181.25 25.17 0.03 
182.70 25.04 0.16 
184.26 25.16 0.16 
187.27 25.14 -0.01 
168.35 25.27 0.67 
172.33 25.21 0.47 
174.17 25.51 0.19 
175.20 25.27 0.33 
175.26 25.19 0.32 
176.70 25.27 0.26 
184.28 25.82 -0.07 
184.64 25.69 -0.10 
185.06 25.81 0.00 
185.37 25.65 0.09 
186.89 25.69 -0.20 
187.42 25.74 -0.10 
168.33 25.56 0.69 
174.44 25.59 0.19 
175.66 25.68 0.16 
178.28 25.99 0.10 
178.63 25.97 0.09 
179.41 25.82 0.05 
180.36 26.10 0.04 
181.48 26.04 0.00 
181.91 26.16 -0.01 
182.23 26.07 -0.03 
182.54 25.99 -0.04 
182.87 26.17 -0.04 
183.41 26.00 -0.02 
183.85 25.86 0.06 
184.23 25.99 0.05 
184.51 25.87 0.03 
184.98 26.01 0.02 
185.36 25.97 0.00 
185.80 25.97 -0.02 
186.17 25.92 -0.04 
187.76 25.93 0.01 
188.17 25.96 -0.24 
188.40 26.02 -0.24 
168.32 25.99 0.72 
176.93 26.17 0.23 
177.70 26.13 0.26 
178.20 26.11 0.11 
178.52 26.10 0.22 
179.84 26.19 0.11 
180.35 26.25 0.10 
180.55 26.17 0.04 
180.90 26.45 0.13 
181.54 26.50 0.10 
181.66 26.21 0.01 
182.18 26.22 -0.01 
182.56 26.36 -0.01 
183.02 26.31 -0.03 
183.39 26.28 -0.05 
183.83 26.38 -0.06 
168.34 26.37 0.75 
168.34 26.69 0.77 
168.34 27.14 0.80 
172.36 30.63 0.84 
172.95 30.50 0.98 
173.28 30.67 0.97 
172.56 30.98 0.67 
173.24 31.05 0.66 
174.18 30.86 0.94 
171.57 31.12 0.91 
172.61 31.13 0.68 
173.51 31.26 1.00 
174.08 31.29 0.98 
172.02 31.59 0.73 
174.36 31.76 0.99 
172.52 32.07 0.93 
172.80 32.29 0.76 
173.68 32.21 1.06 
174.11 32.02 1.02 
172.97 32.45 0.77 
173.79 32.65 1.08 
174.05 32.50 1.06 
168.60 32.65 1.17 
172.93 32.80 1.14 
173.75 32.84 1.10 
173.91 32.71 1.08 
169.61 23.21 0.66 
184.25 24.96 0.43 
185.87 24.98 0.31 
186.45 25.02 0.28 
187.38 25.03 0.24 
188.16 25.09 0.22 
188.79 25.06 0.16 
188.87 25.05 0.15 
169.70 24.80 0.76 
171.06 24.85 0.70 
172.37 24.88 0.64 
172.94 24.90 0.61 
173.47 24.89 0.58 
173.69 24.82 0.57 
175.10 24.82 0.89 
175.24 25.12 0.74 
177.11 25.18 0.61 
177.49 25.19 0.59 
177.66 25.13 0.58 
178.19 25.04 0.62 
179.07 24.97 0.65 
179.47 24.97 0.63 
179.74 25.15 0.44 
181.19 25.12 0.66 
181.24 25.08 0.50 
182.73 25.11 0.39 
183.54 25.09 0.48 
183.74 25.09 0.46 
184.22 25.08 0.43 
185.13 25.09 0.34 
185.83 25.06 0.32 
186.20 25.06 0.29 
186.69 25.10 0.27 
187.26 25.07 0.24 
188.07 25.14 0.22 
169.69 25.16 1.13 
171.00 25.20 1.04 
172.31 25.16 0.95 
176.65 25.20 0.65 
176.94 25.20 0.63 
188.24 25.65 0.23 
169.66 25.41 0.80 
169.64 26.07 0.85 
169.63 26.40 0.87 
167.13 26.69 1.01 
167.20 26.58 1.00 
168.21 26.66 0.96 
168.68 26.66 0.94 
168.85 26.62 0.92 
169.42 26.92 0.92 
169.63 26.73 0.89 
174.10 30.45 1.25 
173.29 30.74 1.32 
173.62 31.00 1.32 
173.96 30.95 1.29 
172.12 31.08 1.32 
172.67 31.07 1.28 
172.80 31.35 1.29 
173.41 31.36 1.35 
173.56 31.31 1.34 
174.06 31.26 1.30 
172.07 31.79 1.37 
172.59 31.60 1.32 
172.83 31.66 1.30 
173.45 31.78 1.27 
173.53 31.62 1.30 
172.05 32.05 1.39 
172.57 32.05 1.35 
173.44 31.90 1.27 
173.64 32.12 1.33 
174.00 31.90 1.34 
169.11 32.32 1.30 
172.60 32.25 1.36 
173.03 32.58 1.35 
173.13 32.58 1.34 
173.56 32.52 1.41 
173.97 32.43 1.38 
172.94 33.00 1.39 
173.38 32.82 1.39 
173.49 32.91 1.39 
172.85 33.15 1.40 
173.16 33.12 1.48 
169.61 22.93 1.16 
173.63 23.01 1.22 
173.88 22.82 1.19 
168.28 23.24 1.12 
169.60 23.23 1.17 
173.20 23.40 1.27 
173.46 23.17 1.24 
168.28 23.51 1.14 
169.57 23.49 1.19 
173.11 23.51 1.29 
168.22 23.97 1.17 
169.58 24.01 1.21 
168.25 24.27 1.18 
169.59 24.39 1.23 
187.29 24.97 0.60 
189.90 25.01 0.34 
190.25 25.01 0.33 
190.63 25.01 0.31 
191.01 25.00 0.30 
191.42 25.00 0.28 
168.26 24.75 1.21 
169.63 24.73 1.25 
169.75 24.76 1.24 
171.04 24.79 1.16 
172.34 24.81 1.07 
173.63 24.90 0.99 
173.66 24.76 0.98 
174.46 24.83 1.33 
175.22 25.09 1.16 
176.72 25.08 1.03 
178.23 25.05 0.90 
179.62 24.89 0.94 
179.72 25.02 0.77 
182.74 24.96 0.83 
183.80 25.03 0.68 
168.32 25.11 1.23 
169.56 25.30 1.28 
172.22 25.10 1.43 
173.91 25.44 1.40 
168.31 25.59 1.26 
169.56 25.56 1.30 
173.89 25.53 1.40 
168.31 25.95 1.28 
169.55 25.98 1.32 
173.74 25.92 1.43 
168.32 26.29 1.30 
169.54 26.31 1.34 
173.52 26.47 1.47 
168.32 26.74 1.32 
168.57 26.76 1.43 
168.89 26.77 1.41 
169.41 26.72 1.37 
173.41 26.86 1.49 
166.56 27.04 1.47 
166.90 27.22 1.58 
167.34 27.19 1.54 
167.90 27.21 1.50 
168.13 27.11 1.44 
172.70 27.09 1.56 
173.03 27.09 1.53 
173.39 27.12 1.50 
173.33 30.06 1.63 
171.89 30.48 1.74 
172.49 30.51 1.71 
173.38 30.31 1.64 
173.60 30.59 1.63 
172.38 30.81 1.71 
173.20 30.84 1.68 
174.19 30.79 1.59 
172.27 31.10 1.74 
172.41 31.33 1.74 
172.82 31.33 1.70 
173.12 31.27 1.67 
173.89 31.30 1.64 
174.77 31.17 1.55 
172.61 31.72 1.75 
173.34 31.68 1.67 
174.01 31.46 1.64 
173.65 32.07 1.67 
169.06 32.33 1.73 
173.25 32.48 1.73 
173.60 32.31 1.70 
172.24 32.80 1.88 
172.32 32.68 1.87 
173.03 32.78 1.77 
173.21 32.82 1.77 
174.07 32.99 1.71 
172.84 33.21 1.82 
173.04 33.14 1.80 
175.23 22.55 1.20 
184.63 22.92 0.98 
179.85 22.90 1.08 
183.95 23.21 1.04 
184.27 23.02 1.01 
184.50 22.96 1.00 
188.49 23.44 0.97 
174.85 23.36 1.25 
183.52 23.49 1.07 
183.74 23.32 1.06 
187.87 23.60 1.00 
188.25 23.50 0.98 
172.77 23.75 1.33 
174.77 23.55 1.27 
182.79 24.00 1.13 
183.07 23.82 1.11 
186.35 24.16 1.09 
186.70 24.03 1.07 
187.11 23.87 1.04 
182.37 24.30 1.17 
182.61 24.14 1.15 
185.90 24.36 1.12 
186.18 24.23 1.10 
172.13 24.55 1.42 
181.99 24.63 1.21 
182.14 24.49 1.20 
185.07 24.92 1.17 
185.41 24.90 1.14 
185.77 24.84 1.11 
188.55 25.03 1.12 
189.14 24.89 1.09 
189.32 24.87 1.09 
189.88 24.81 1.06 
190.20 24.81 1.05 
190.69 24.82 1.03 
191.15 24.80 1.02 
191.47 24.81 1.01 
171.98 24.67 1.44 
174.18 24.87 1.36 
177.48 25.06 1.35 
177.95 25.01 1.30 
181.45 25.08 1.26 
181.91 24.97 1.22 
184.29 25.17 1.15 
184.69 25.06 1.21 
187.80 25.25 1.16 
188.31 25.10 1.13 
171.61 25.30 1.50 
171.87 25.13 1.47 
173.99 25.25 1.38 
174.07 25.09 1.37 
177.06 25.43 1.40 
181.02 25.43 1.31 
183.63 25.69 1.30 
183.86 25.54 1.28 
184.14 25.37 1.25 
186.41 25.75 1.25 
186.51 25.71 1.24 
187.01 25.53 1.21 
171.17 25.75 1.56 
171.41 25.50 1.52 
180.52 25.85 1.37 
183.42 25.87 1.32 
185.79 26.06 1.29 
186.07 25.90 1.27 
171.00 25.95 1.58 
182.98 26.20 1.36 
185.61 26.16 1.31 
170.71 26.31 1.63 
175.97 26.63 1.55 
176.03 26.56 1.54 
182.61 26.70 1.54 
170.32 26.85 1.69 
170.49 26.63 1.67 
175.58 27.01 1.66 
175.85 26.79 1.57 
181.92 26.92 1.48 
169.97 27.33 1.75 
170.20 27.13 1.74 
170.62 27.13 1.75 
171.80 27.13 1.64 
172.13 27.12 1.61 
172.49 27.09 1.58 
173.32 27.26 1.87 
173.80 27.14 1.83 
174.06 27.25 1.79 
166.56 27.53 2.08 
167.81 27.49 1.96 
169.40 27.46 1.81 
169.83 27.39 1.77 
173.82 30.77 1.96 
173.99 31.43 1.97 
174.58 31.37 1.90 
173.03 31.77 2.13 
173.26 31.65 2.09 
173.58 31.75 2.06 
174.44 31.63 1.99 
174.94 31.95 2.18 
173.40 32.35 2.10 
173.01 32.70 2.18 
173.23 38.53 2.60 
173.61 38.35 2.54 
173.45 38.63 2.58 
187.95 24.07 1.37 
187.22 24.33 1.38 
168.40 24.67 2.36 
168.67 24.70 2.33 
169.07 24.71 2.29 
169.36 24.73 2.26 
169.90 24.75 2.20 
185.20 25.23 1.43 
185.28 25.21 1.42 
187.55 26.12 1.52 
183.16 26.27 1.51 
182.33 26.84 1.70 
183.31 26.79 1.56 
176.76 27.08 1.85 
176.94 27.07 1.83 
180.16 26.96 1.72 
180.70 26.94 1.65 
176.32 27.09 1.91 
176.63 27.12 1.87 
176.84 27.11 1.84 
174.39 30.10 2.20 
174.04 30.23 2.25 
173.34 30.68 2.36 
174.14 31.18 2.59 
172.28 32.13 2.67 
168.94 32.24 2.60 
174.04 32.52 2.44 
168.52 32.46 2.71 
172.95 32.90 2.62 
173.37 33.14 2.45 
181.52 24.71 2.23 
181.91 24.71 2.17 
182.17 24.72 2.12 
166.70 24.68 2.55 
167.00 24.67 2.52 
167.48 24.69 2.46 
168.16 24.67 2.39 
170.10 24.68 2.66 
174.76 24.88 2.51 
175.12 24.89 2.46 
175.44 24.88 2.41 
175.87 24.87 2.35 
176.28 24.87 2.29 
178.72 24.82 2.31 
178.96 24.76 2.28 
179.48 24.81 2.20 
170.97 24.92 2.57 
171.42 24.96 2.51 
171.88 24.96 2.45 
173.38 30.39 2.70 
174.07 30.34 2.93 
174.06 30.79 2.82 
172.69 31.79 3.02 
172.48 32.38 3.09 
174.03 32.25 2.82 
172.41 33.11 3.14 
172.87 33.29 3.07 
173.49 33.00 2.95 
173.44 33.72 3.00 
173.52 33.71 2.99 
178.36 24.64 2.75 
179.06 24.69 2.63 
179.67 24.69 2.53 
179.88 24.67 2.49 
180.28 24.71 2.42 
180.69 24.71 2.36 
181.07 24.70 2.30 
181.32 24.70 2.26 
166.66 24.61 3.10 
167.11 24.61 3.04 
167.99 24.60 2.93 
168.18 24.63 2.91 
168.77 24.65 2.83 
169.04 24.65 2.80 
169.32 24.66 2.76 
170.71 24.58 3.06 
171.37 24.57 2.97 
171.73 24.65 2.92 
172.29 24.75 2.86 
173.21 24.75 2.73 
175.17 24.75 2.89 
175.41 24.76 2.85 
176.10 24.78 2.73 
176.29 24.77 2.70 
176.61 24.78 2.65 
177.08 24.78 2.57 
177.49 24.80 2.51 
177.93 24.80 2.44 
179.27 24.72 2.59 
168.82 24.90 2.86 
174.32 30.40 3.22 
174.19 30.67 3.25 
173.48 31.00 3.39 
172.37 33.09 3.58 
168.43 24.55 3.39 
170.50 24.80 3.16 
172.28 24.71 3.38 
173.00 24.77 3.26 
174.52 24.76 3.00 
175.63 24.64 3.24 
175.93 24.64 3.19 
176.41 24.66 3.10 
176.76 24.65 3.03 
177.53 24.67 2.90 
178.00 24.68 2.81 
167.93 24.80 3.56 
170.28 24.84 3.19 
173.21 31.83 3.77 
171.81 24.76 3.46 
174.76 24.64 3.41 
171.73 31.21 4.07 
171.92 31.57 4.04 
172.47 31.56 3.92 
171.43 31.61 4.15 
171.69 31.86 4.10 
171.41 32.30 4.18 
171.40 32.42 4.19 
170.58 24.05 4.22 
171.24 24.07 4.09 
171.69 24.13 4.00 
171.93 24.11 3.96 
172.39 24.20 3.87 
170.31 24.14 4.27 
169.65 23.40 0.22 
169.66 24.92 0.34 
169.75 24.79 0.33 
171.06 24.83 0.29 
173.67 24.73 0.21 
169.67 25.20 0.36 
173.76 25.44 0.26 
169.65 25.54 0.39 
185.40 26.08 -0.28 
169.66 25.98 0.42 
175.08 26.30 0.05 
177.80 26.07 -0.05 
179.17 26.07 -0.18 
180.58 26.21 -0.19 
181.13 26.44 -0.12 
181.58 26.46 -0.13 
181.82 26.39 -0.14 
182.77 26.47 -0.16 
183.03 26.49 -0.21 
183.35 26.40 -0.20 
183.63 26.44 -0.19 
184.52 26.57 -0.21 
185.52 26.24 -0.27 
168.56 26.49 0.25 
169.32 26.56 0.23 
169.66 26.42 0.46 
174.80 26.42 0.07 
175.82 26.59 0.05 
176.98 26.69 0.03 
178.97 26.57 -0.04 
179.41 26.52 -0.08 
180.19 26.73 -0.13 
180.57 26.69 -0.11 
181.05 26.74 -0.09 
181.52 26.52 -0.12 
181.77 26.73 -0.16 
182.14 26.76 -0.17 
182.58 26.67 -0.16 
182.91 26.76 -0.19 
183.38 26.80 -0.19 
183.85 26.82 -0.20 
184.03 26.69 -0.22 
166.53 26.65 0.56 
168.08 26.69 0.52 
169.36 26.81 0.37 
169.63 26.73 0.48 
170.21 26.93 0.24 
170.72 26.76 0.21 
171.41 26.90 0.20 
171.69 26.67 0.17 
172.24 26.85 0.17 
172.74 26.96 0.17 
172.91 27.05 0.17 
174.27 26.89 0.12 
176.14 26.97 0.07 
177.38 27.06 0.04 
177.62 26.86 0.02 
178.23 27.10 0.02 
178.95 27.05 -0.02 
179.48 26.86 -0.11 
179.78 26.97 -0.10 
180.19 26.88 -0.12 
180.90 26.95 -0.12 
181.51 26.95 -0.14 
181.94 27.03 -0.14 
182.32 27.03 -0.14 
182.72 27.12 -0.14 
182.89 27.08 -0.12 
183.37 26.99 -0.16 
183.67 26.98 -0.18 
168.34 27.20 0.31 
170.98 27.05 0.22 
171.35 27.05 0.21 
172.77 27.15 0.18 
175.85 27.44 0.12 
176.04 27.35 0.10 
178.96 27.37 0.02 
179.46 27.27 0.00 
180.53 27.32 -0.08 
180.88 27.36 -0.04 
181.57 27.35 -0.10 
168.32 27.45 0.33 
171.86 32.14 0.58 
172.53 32.13 0.56 
169.10 32.22 0.91 
168.62 32.81 0.71 
168.20 23.44 0.64 
168.26 23.76 0.66 
187.28 25.01 -0.17 
168.18 24.90 0.74 
176.61 24.84 0.51 
178.11 24.95 0.09 
179.71 25.18 0.19 
181.16 25.09 0.22 
186.55 25.11 0.09 
187.09 25.05 0.06 
187.27 25.12 0.09 
187.86 25.11 0.04 
168.33 25.08 0.74 
170.99 25.26 0.62 
172.30 25.22 0.56 
173.60 25.27 0.49 
173.70 25.22 0.49 
175.20 25.21 0.41 
176.72 25.20 0.34 
177.43 25.49 0.15 
179.60 25.63 0.09 
180.04 25.59 0.08 
180.23 25.53 0.07 
184.14 25.59 -0.06 
185.43 25.67 0.06 
186.78 25.79 -0.10 
186.95 25.76 -0.01 
187.47 25.71 -0.04 
188.63 25.86 -0.06 
189.48 25.86 0.02 
168.31 25.49 0.77 
178.20 25.75 0.15 
178.67 25.93 0.15 
179.04 25.80 0.13 
179.44 25.77 0.11 
179.83 25.80 0.10 
180.11 26.00 0.11 
180.59 25.74 0.07 
181.05 26.00 0.08 
181.31 25.91 0.06 
182.02 26.03 0.05 
182.04 26.04 0.05 
182.95 26.05 0.02 
183.40 25.99 0.05 
184.33 25.95 0.02 
184.68 25.99 -0.01 
185.10 25.85 0.08 
185.47 26.05 -0.03 
185.83 26.04 0.06 
186.19 25.95 0.04 
188.10 25.89 0.07 
188.58 25.90 -0.06 
189.32 25.97 -0.08 
190.58 25.95 -0.25 
191.10 26.02 -0.27 
191.35 25.98 -0.28 
168.30 25.98 0.80 
176.76 26.28 0.40 
176.89 26.11 0.39 
178.30 26.11 0.32 
178.70 26.08 0.16 
179.80 26.31 0.26 
180.28 26.30 0.23 
180.90 26.45 0.21 
181.38 26.48 0.19 
182.04 26.20 0.06 
182.51 26.16 0.04 
183.01 26.17 0.03 
183.38 26.29 0.02 
183.83 26.34 0.01 
184.18 26.29 0.02 
184.68 26.31 -0.02 
185.10 26.28 -0.04 
185.40 26.30 -0.05 
168.31 26.40 0.83 
181.51 26.51 0.19 
168.31 26.71 0.85 
166.71 27.20 0.97 
166.87 27.09 0.95 
168.31 27.08 0.88 
168.24 27.34 0.90 
172.33 30.58 0.91 
173.06 30.47 1.05 
173.64 30.54 0.66 
173.50 30.91 0.69 
173.64 30.82 0.68 
171.37 31.23 1.01 
172.18 31.37 0.76 
172.42 31.33 0.75 
172.82 31.29 0.74 
173.41 31.21 0.71 
174.12 31.19 1.04 
174.50 31.23 1.03 
172.11 31.59 0.78 
173.09 31.70 0.76 
173.09 31.79 0.77 
173.88 31.57 1.08 
173.93 31.79 1.09 
171.88 32.14 1.04 
171.89 32.02 1.04 
172.53 32.05 1.01 
172.97 32.05 0.79 
173.40 32.03 0.78 
174.02 32.09 1.11 
173.06 32.61 0.83 
173.26 32.53 0.82 
173.78 32.29 1.14 
174.00 32.57 1.14 
168.59 32.65 1.25 
172.17 32.64 1.24 
172.38 32.80 1.24 
172.67 32.99 1.24 
173.20 32.74 0.83 
173.85 32.75 1.16 
172.72 33.02 1.24 
185.42 24.94 0.46 
187.46 24.99 0.32 
187.88 25.02 0.30 
188.75 25.04 0.26 
190.31 25.04 0.17 
169.66 24.83 0.85 
171.04 24.78 0.78 
172.33 24.75 0.71 
173.66 24.77 0.65 
173.69 24.82 0.65 
175.17 25.03 0.85 
175.67 24.90 0.56 
175.76 24.84 0.55 
176.72 25.10 0.75 
178.07 24.84 0.81 
178.44 25.15 0.63 
179.62 24.87 0.71 
179.73 25.12 0.55 
181.12 25.01 0.59 
181.40 24.96 0.61 
182.72 25.09 0.51 
184.22 25.08 0.39 
184.68 25.09 0.52 
184.99 25.07 0.47 
185.35 25.06 0.47 
185.72 25.05 0.44 
186.53 25.07 0.36 
187.22 25.06 0.34 
187.52 25.05 0.32 
187.79 25.05 0.31 
188.27 25.08 0.29 
188.56 25.08 0.28 
189.58 25.16 0.24 
169.64 25.09 0.86 
170.97 25.21 1.15 
172.28 25.17 1.06 
173.63 25.22 0.97 
173.73 25.13 0.96 
175.21 25.18 0.86 
176.67 25.20 0.76 
177.55 25.21 0.70 
177.81 25.19 0.68 
178.24 25.19 0.65 
169.63 25.36 0.88 
166.59 26.79 1.13 
167.20 26.72 1.09 
167.29 26.59 1.08 
167.67 26.59 1.06 
173.49 30.45 1.40 
173.56 30.59 1.40 
171.87 30.80 1.42 
172.02 30.61 1.40 
173.29 30.90 1.44 
173.92 30.97 1.40 
174.26 31.01 1.37 
174.36 30.94 1.36 
172.82 31.32 1.39 
173.77 31.39 1.43 
174.08 31.06 1.39 
172.52 31.67 1.43 
172.78 31.60 1.41 
173.37 31.62 1.37 
173.60 31.70 1.46 
174.17 31.65 1.42 
172.25 32.00 1.47 
173.26 32.05 1.46 
173.64 32.02 1.43 
169.07 32.25 1.37 
173.01 32.40 1.44 
173.30 32.47 1.43 
172.64 32.68 1.59 
173.03 32.76 1.47 
173.36 32.80 1.44 
173.75 32.81 1.52 
173.90 32.65 1.50 
172.34 33.22 1.55 
172.86 33.07 1.50 
173.23 33.12 1.53 
173.82 33.25 1.54 
173.11 33.42 1.50 
171.28 22.43 1.13 
171.43 22.30 1.11 
171.07 22.97 1.17 
168.25 23.42 1.24 
170.96 23.46 1.20 
168.25 23.71 1.26 
170.78 23.90 1.23 
170.69 24.20 1.25 
186.61 24.97 0.63 
187.64 24.97 0.58 
188.38 24.88 0.55 
188.62 24.89 0.54 
190.74 24.94 0.39 
191.17 25.00 0.37 
191.50 25.00 0.36 
168.24 24.71 1.32 
170.69 24.80 1.29 
171.13 24.73 1.25 
172.30 24.69 1.17 
173.63 24.80 1.09 
175.20 25.01 1.30 
179.61 24.86 1.05 
179.70 25.06 0.91 
181.15 24.95 0.99 
184.19 25.04 0.84 
168.30 25.01 1.33 
170.45 25.20 1.32 
170.52 24.98 1.31 
173.66 25.03 1.43 
168.29 25.42 1.36 
170.35 25.49 1.34 
175.55 25.82 1.40 
168.29 25.94 1.39 
170.25 25.86 1.37 
168.31 26.33 1.41 
170.13 26.34 1.40 
168.29 26.68 1.43 
170.07 26.69 1.43 
166.63 27.13 1.64 
167.07 27.11 1.60 
167.44 27.09 1.58 
167.88 27.15 1.61 
168.26 27.09 1.52 
168.55 27.13 1.56 
169.05 27.14 1.52 
169.46 27.11 1.49 
169.97 27.04 1.45 
170.05 26.94 1.44 
173.93 27.04 1.58 
168.28 27.30 1.47 
173.20 30.45 1.79 
172.08 30.71 1.87 
173.15 30.62 1.81 
173.24 30.73 1.80 
172.65 31.25 1.85 
172.92 31.18 1.82 
173.42 31.21 1.81 
173.89 31.18 1.77 
173.97 31.30 1.77 
172.47 31.56 1.88 
173.38 31.43 1.83 
173.74 31.57 1.80 
174.11 31.49 1.76 
171.60 31.75 1.98 
172.13 31.98 1.94 
172.52 32.06 1.91 
172.98 32.01 1.86 
173.14 32.11 1.85 
173.88 32.17 1.82 
174.06 32.00 1.79 
172.27 32.50 1.96 
172.46 32.22 1.93 
172.93 32.36 1.89 
173.48 32.37 1.87 
173.77 32.46 1.84 
171.82 32.63 2.04 
172.69 32.62 1.96 
173.29 32.76 1.89 
173.04 32.99 1.92 
173.26 33.19 1.92 
172.73 33.43 1.98 
173.30 33.40 1.92 
174.43 22.93 1.28 
174.68 22.81 1.26 
176.88 22.98 1.21 
176.96 22.84 1.20 
180.45 23.11 1.17 
180.74 22.98 1.14 
181.03 22.88 1.11 
185.20 23.17 1.07 
185.54 23.01 1.04 
185.81 22.97 1.02 
174.08 23.26 1.32 
174.26 23.10 1.30 
180.02 23.46 1.22 
180.26 23.26 1.19 
184.49 23.62 1.13 
184.74 23.46 1.11 
185.01 23.31 1.08 
173.73 23.73 1.37 
173.91 23.51 1.35 
176.42 23.78 1.27 
179.57 23.89 1.27 
179.82 23.71 1.24 
183.96 23.93 1.17 
184.29 23.74 1.14 
187.65 24.11 1.12 
187.96 23.99 1.10 
188.31 23.87 1.08 
173.61 23.90 1.39 
179.20 24.27 1.31 
179.40 24.09 1.29 
183.46 24.35 1.22 
183.74 24.10 1.19 
187.21 24.34 1.14 
187.48 24.20 1.13 
173.15 24.39 1.45 
173.41 24.22 1.42 
178.86 24.68 1.35 
179.06 24.45 1.33 
183.19 24.61 1.24 
183.33 24.48 1.23 
186.41 24.91 1.19 
186.73 24.81 1.17 
187.24 24.90 1.11 
190.40 24.89 1.13 
191.12 24.80 1.09 
191.41 24.80 1.08 
178.73 25.03 1.37 
178.95 24.98 1.35 
179.64 25.04 1.28 
180.15 24.87 1.35 
182.46 25.19 1.32 
182.73 24.95 1.29 
183.15 24.92 1.24 
185.59 25.22 1.26 
185.90 25.05 1.24 
186.26 24.94 1.21 
188.59 25.37 1.22 
189.09 25.21 1.19 
172.50 25.24 1.55 
172.69 25.13 1.53 
173.05 25.11 1.49 
178.24 25.34 1.43 
181.98 25.56 1.37 
182.27 25.34 1.34 
184.87 25.64 1.33 
185.11 25.50 1.31 
185.38 25.33 1.28 
187.83 25.67 1.26 
188.35 25.46 1.23 
172.26 25.54 1.58 
177.95 25.59 1.47 
182.28 25.88 1.46 
184.42 25.98 1.37 
184.78 25.72 1.34 
187.12 26.00 1.32 
187.46 25.83 1.29 
177.44 26.08 1.53 
181.44 26.02 1.43 
184.20 26.15 1.39 
171.57 26.35 1.69 
171.73 26.19 1.66 
177.08 26.52 1.59 
183.65 26.57 1.45 
171.22 26.80 1.74 
171.33 26.63 1.72 
176.82 26.79 1.62 
176.93 26.70 1.61 
180.02 26.99 1.61 
183.15 26.87 1.51 
171.02 27.06 1.77 
171.78 27.07 1.77 
172.36 27.05 1.72 
172.75 27.06 1.68 
173.34 27.02 1.63 
174.02 27.21 1.95 
174.14 27.24 1.94 
176.37 27.20 1.69 
176.60 27.19 1.66 
168.23 27.45 2.05 
169.46 27.48 1.94 
170.33 27.45 1.86 
170.72 27.38 1.82 
173.82 30.04 2.09 
173.86 30.38 2.10 
173.16 30.85 2.20 
173.23 30.69 2.18 
173.15 30.96 2.20 
174.54 31.57 2.07 
174.74 31.79 2.05 
173.23 31.97 2.28 
174.10 31.83 2.13 
168.94 32.16 2.29 
172.96 32.31 2.33 
173.29 32.22 2.28 
172.77 33.22 2.41 
172.72 33.32 2.42 
189.21 24.13 1.40 
189.44 24.01 1.40 
189.46 24.95 1.35 
166.62 24.64 2.13 
167.07 24.66 2.09 
170.18 24.67 2.33 
186.35 25.27 1.46 
189.80 25.95 1.54 
183.06 26.82 1.64 
183.61 26.79 1.72 
173.75 31.02 2.50 
173.69 31.37 2.52 
174.25 32.13 2.47 
168.84 32.11 2.76 
173.69 32.69 2.63 
182.82 24.70 2.24 
183.04 24.70 2.21 
183.53 24.72 2.14 
171.51 24.60 2.66 
173.93 24.68 2.37 
176.04 24.86 2.53 
176.36 24.85 2.48 
176.74 24.88 2.43 
177.19 24.89 2.36 
177.50 24.89 2.31 
179.22 24.70 2.13 
179.87 24.77 2.35 
180.47 24.82 2.26 
180.58 24.77 2.25 
166.76 24.98 2.70 
171.28 24.91 2.71 
173.90 30.63 2.83 
174.03 30.86 2.81 
172.29 31.14 2.81 
174.08 31.27 2.82 
172.42 31.42 2.80 
173.93 31.55 2.85 
173.57 31.76 2.91 
172.27 33.28 2.93 
173.04 33.31 3.06 
179.99 24.65 2.71 
180.77 24.65 2.58 
181.52 24.70 2.45 
181.92 24.70 2.39 
182.35 24.70 2.32 
182.59 24.67 2.28 
166.63 24.52 3.29 
167.17 24.54 3.22 
169.21 24.56 2.95 
169.50 24.56 2.92 
169.86 24.60 2.87 
173.11 24.80 2.97 
175.18 24.86 2.66 
175.58 24.88 2.60 
176.49 24.75 2.90 
176.74 24.77 2.86 
176.98 24.78 2.82 
177.63 24.80 2.71 
177.92 24.79 2.66 
178.31 24.79 2.60 
178.65 24.77 2.55 
179.22 24.79 2.45 
179.38 24.73 2.43 
180.33 24.67 2.65 
180.70 24.71 2.59 
181.30 24.73 2.49 
168.03 24.87 3.15 
174.31 30.43 3.12 
174.29 30.53 3.13 
172.66 31.93 3.25 
172.92 31.86 3.20 
172.14 32.61 3.38 
173.84 24.69 3.35 
174.99 24.73 3.15 
175.85 24.78 3.01 
176.83 24.64 3.28 
177.15 24.65 3.22 
177.51 24.64 3.15 
177.98 24.65 3.07 
178.31 24.65 3.00 
178.73 24.67 2.93 
166.84 24.93 3.32 
168.98 24.84 3.61 
169.19 24.78 3.57 
171.76 32.10 3.90 
172.97 32.09 3.66 
170.53 24.25 3.92 
170.84 24.23 3.87 
174.37 24.29 3.74 
172.68 24.70 3.55 
175.30 24.64 3.56 
175.52 24.62 3.52 
176.06 24.65 3.42 
176.44 24.63 3.35 
171.56 32.27 4.43 
171.75 32.28 4.39 
171.79 32.57 4.40 
170.26 24.28 3.97 
171.72 24.10 4.26 
171.92 24.06 4.22 
172.41 24.14 4.12 
172.87 24.11 4.04 
173.27 24.11 3.96 
173.59 24.09 3.90 
173.94 24.11 3.83 
168.12 24.24 4.35 
170.27 24.32 3.97 
171.36 31.12 4.42 
171.35 31.96 4.46 
167.41 24.12 4.48 
171.03 24.09 4.40 
171.32 24.08 4.34 
171.58 24.05 4.29 
167.92 32.58 5.23 
169.66 24.91 0.34 
169.75 24.78 0.32 
171.10 24.73 0.28 
173.68 24.86 0.22 
169.65 25.54 0.39 
185.32 26.09 -0.25 
185.94 26.00 -0.28 
169.65 25.82 0.41 
180.49 26.21 -0.19 
181.30 26.39 -0.11 
181.93 26.37 -0.16 
182.45 26.47 -0.20 
182.53 26.32 -0.22 
183.04 26.43 -0.21 
183.56 26.25 -0.24 
185.52 26.38 -0.23 
185.85 26.43 -0.24 
171.59 26.42 0.16 
172.12 26.47 0.15 
172.58 26.46 0.14 
175.15 26.39 0.06 
175.78 26.61 0.06 
177.29 26.59 0.02 
179.12 26.64 -0.03 
179.49 26.63 -0.14 
180.07 26.67 -0.14 
180.20 26.70 -0.14 
180.68 26.78 -0.06 
181.22 26.60 -0.09 
181.54 26.70 -0.14 
181.98 26.71 -0.17 
182.25 26.62 -0.18 
182.73 26.69 -0.16 
183.05 26.63 -0.19 
183.35 26.62 -0.15 
183.84 26.75 -0.18 
184.19 26.82 -0.20 
184.71 26.82 -0.18 
185.07 26.89 -0.18 
166.56 26.55 0.55 
167.25 26.63 0.54 
168.04 26.66 0.52 
168.15 26.68 0.52 
169.02 26.75 0.50 
169.62 26.69 0.48 
171.92 26.88 0.19 
172.44 26.74 0.16 
173.76 26.81 0.13 
174.28 26.88 0.12 
175.74 27.01 0.09 
176.09 26.97 0.08 
177.51 27.15 0.06 
177.72 27.12 0.05 
178.26 26.99 0.02 
178.80 27.16 0.02 
178.92 26.98 0.00 
179.48 26.89 -0.11 
179.78 26.95 -0.11 
180.66 26.93 -0.10 
180.94 26.93 -0.09 
181.54 27.17 -0.06 
181.94 26.95 -0.14 
182.29 27.11 -0.11 
182.67 27.06 -0.12 
183.07 27.10 -0.12 
183.54 27.22 -0.11 
183.77 27.16 -0.13 
184.35 27.13 -0.16 
184.61 27.04 -0.18 
172.09 27.09 0.20 
174.96 27.20 0.13 
175.98 27.28 0.11 
177.12 27.49 0.09 
177.31 27.24 0.07 
178.18 27.29 0.05 
178.50 27.39 0.05 
179.08 27.47 0.04 
179.46 27.29 0.01 
180.05 27.29 0.00 
180.73 27.33 -0.02 
182.16 27.39 -0.08 
183.56 27.35 -0.10 
183.96 27.38 -0.11 
174.13 27.60 0.18 
180.71 27.67 0.01 
172.56 31.31 0.75 
173.20 31.07 0.72 
172.21 31.38 0.77 
172.87 32.09 0.80 
168.63 32.82 0.72 
168.31 23.56 0.67 
168.23 23.74 0.68 
168.23 24.22 0.71 
178.16 24.94 0.10 
179.65 24.94 0.23 
181.19 25.08 0.25 
182.72 25.20 0.09 
187.22 25.16 0.01 
188.78 25.13 0.06 
168.31 25.06 0.77 
169.67 25.17 0.71 
170.99 25.26 0.65 
172.31 25.23 0.58 
173.70 25.24 0.52 
175.21 25.24 0.44 
176.68 25.29 0.38 
177.43 25.46 0.16 
178.21 25.22 0.30 
179.22 25.57 0.11 
179.70 25.26 0.23 
182.12 25.43 0.01 
183.30 25.65 0.09 
186.83 25.76 -0.06 
187.50 25.75 -0.01 
188.39 25.78 0.09 
188.96 25.62 0.06 
189.60 25.85 -0.07 
190.81 25.86 -0.11 
168.32 25.44 0.79 
169.66 25.32 0.72 
178.30 25.92 0.17 
178.54 25.62 0.14 
179.05 25.84 0.14 
180.11 25.98 0.12 
180.24 25.85 0.11 
180.58 25.66 0.08 
181.29 25.88 0.08 
181.90 25.85 0.06 
182.26 26.01 0.06 
182.55 25.94 0.04 
183.10 26.05 0.08 
183.39 25.88 0.05 
183.78 25.91 0.08 
184.29 26.08 0.00 
184.87 25.99 0.04 
185.21 25.94 0.11 
185.50 25.98 -0.01 
185.92 25.93 0.08 
186.30 25.92 0.08 
187.57 25.88 0.00 
188.03 25.92 -0.11 
188.45 25.94 -0.01 
188.67 25.92 -0.14 
188.96 25.89 -0.15 
189.64 25.91 -0.18 
189.81 25.87 0.04 
190.38 25.91 -0.09 
190.55 25.96 -0.21 
168.30 25.73 0.81 
176.89 26.30 0.43 
177.74 26.10 0.38 
178.32 26.16 0.36 
180.33 26.33 0.27 
181.60 26.08 0.08 
182.44 26.10 0.06 
182.87 26.20 0.05 
183.49 26.22 0.06 
183.94 26.33 0.04 
184.32 26.23 0.06 
184.74 26.16 0.05 
185.16 26.27 -0.01 
185.75 26.29 -0.03 
186.21 26.24 -0.05 
168.33 26.35 0.85 
180.89 26.52 0.26 
181.52 26.51 0.23 
168.31 26.59 0.87 
166.84 27.18 0.98 
168.32 27.00 0.90 
168.25 27.33 0.93 
173.61 30.48 0.66 
172.35 30.69 0.96 
173.53 30.93 0.70 
173.60 30.83 0.69 
173.32 31.30 0.73 
173.08 31.73 0.77 
174.38 31.79 1.11 
171.89 32.08 1.08 
173.01 31.91 0.79 
173.79 32.18 1.17 
174.03 32.07 1.15 
173.12 32.41 0.82 
173.32 32.28 1.00 
173.80 32.42 1.18 
173.15 32.65 0.84 
173.77 32.75 1.21 
174.03 32.81 1.20 
173.90 33.15 1.23 
173.96 33.03 1.22 
188.29 24.95 0.32 
188.80 25.01 0.30 
189.94 25.02 0.26 
190.34 25.03 0.22 
169.66 24.83 0.87 
175.11 24.81 0.61 
175.92 24.89 0.58 
176.44 24.87 0.55 
176.61 24.86 0.54 
179.76 25.15 0.60 
181.19 25.00 0.59 
182.07 24.96 0.62 
182.35 24.96 0.61 
182.71 25.06 0.47 
184.22 25.10 0.47 
185.26 25.11 0.55 
185.64 25.13 0.38 
185.88 25.07 0.36 
186.51 25.02 0.40 
187.23 25.08 0.41 
188.03 25.08 0.33 
188.41 25.04 0.32 
188.77 25.04 0.30 
189.18 25.06 0.29 
189.53 25.07 0.27 
189.81 25.08 0.26 
190.27 25.07 0.23 
169.61 25.16 0.89 
172.28 25.19 1.11 
173.69 25.20 1.02 
175.22 25.20 0.91 
176.73 25.14 0.81 
178.06 25.23 0.72 
178.38 25.21 0.70 
178.75 25.20 0.67 
178.98 25.15 0.66 
179.69 25.22 0.61 
169.62 25.44 0.91 
169.61 25.88 0.94 
169.60 26.37 0.98 
169.60 26.66 1.00 
167.14 26.86 1.13 
167.48 26.82 1.11 
171.69 30.36 1.47 
173.25 30.50 1.08 
171.84 30.76 1.49 
173.10 30.64 1.09 
173.45 30.93 1.49 
174.09 30.92 1.45 
171.84 31.04 1.51 
172.82 31.33 1.45 
173.53 31.33 1.51 
173.64 31.19 1.49 
174.18 31.07 1.45 
172.63 31.56 1.48 
172.88 31.46 1.46 
173.44 31.68 1.54 
173.11 31.91 1.50 
173.25 31.95 1.46 
172.73 32.44 1.53 
173.03 32.28 1.54 
173.51 32.51 1.48 
173.85 32.41 1.55 
172.56 32.76 1.62 
173.17 32.61 1.51 
173.44 32.76 1.50 
173.72 32.83 1.59 
172.31 33.22 1.62 
172.95 33.20 1.57 
173.44 33.10 1.53 
172.31 33.35 1.63 
168.30 23.09 1.27 
168.25 23.48 1.30 
168.23 23.75 1.31 
168.24 24.22 1.34 
181.02 24.67 1.01 
187.29 24.93 0.67 
188.07 24.95 0.60 
188.44 24.93 0.59 
188.78 24.96 0.56 
189.13 24.98 0.56 
168.26 24.60 1.36 
171.85 24.74 1.25 
173.65 24.77 1.14 
175.02 24.84 1.05 
176.55 24.84 0.95 
177.18 24.84 1.31 
177.44 24.83 1.29 
178.21 25.02 1.12 
179.65 24.96 1.06 
181.13 25.01 0.94 
182.73 25.01 0.91 
186.66 25.05 0.67 
187.23 24.99 0.81 
188.73 25.03 0.57 
189.30 25.02 0.55 
189.47 25.07 0.82 
168.25 24.98 1.38 
171.15 25.14 1.26 
176.78 25.34 1.36 
178.19 25.13 1.12 
168.29 25.39 1.41 
171.17 25.53 1.34 
176.53 25.77 1.39 
176.59 25.64 1.38 
176.37 26.10 1.42 
168.32 26.29 1.46 
170.90 26.31 1.40 
170.97 26.12 1.39 
176.18 26.40 1.44 
168.31 26.55 1.47 
170.81 26.59 1.42 
167.10 27.11 1.65 
167.50 27.16 1.69 
167.88 27.15 1.66 
168.30 27.05 1.57 
168.75 27.11 1.60 
169.00 27.12 1.58 
169.53 27.12 1.54 
170.05 27.12 1.51 
170.38 27.12 1.48 
170.70 27.04 1.46 
166.78 27.22 1.66 
166.94 27.17 1.61 
173.24 30.35 1.47 
173.45 31.05 1.89 
174.03 30.99 1.84 
172.62 31.61 1.97 
172.92 31.64 1.57 
174.13 31.48 1.85 
180.14 31.63 1.57 
172.34 31.80 2.01 
172.82 31.85 1.96 
173.27 32.08 1.97 
173.79 31.90 1.91 
174.14 31.82 1.87 
172.88 32.40 1.99 
173.45 32.28 1.96 
172.64 32.65 2.03 
173.34 32.59 1.96 
173.09 32.96 2.01 
173.36 33.11 2.01 
172.68 33.48 2.08 
178.17 22.61 1.17 
175.18 22.92 1.29 
178.02 22.75 1.18 
181.37 23.13 1.18 
181.56 23.00 1.16 
186.07 23.17 1.09 
186.43 23.02 1.06 
174.75 23.22 1.34 
177.71 23.26 1.22 
180.83 23.48 1.23 
181.19 23.27 1.20 
185.36 23.63 1.14 
185.47 23.55 1.13 
174.54 23.48 1.37 
177.52 23.66 1.25 
180.51 23.77 1.27 
180.70 23.60 1.25 
185.17 23.77 1.16 
185.70 23.90 1.33 
188.57 24.13 1.13 
188.84 23.99 1.11 
174.00 24.08 1.44 
174.25 23.85 1.41 
177.39 23.91 1.26 
180.05 24.26 1.33 
180.25 24.05 1.30 
184.43 24.29 1.23 
184.65 24.11 1.21 
188.04 24.39 1.16 
188.28 24.23 1.15 
173.75 24.50 1.48 
173.89 24.23 1.46 
177.26 24.31 1.29 
179.75 24.58 1.36 
179.91 24.40 1.34 
184.11 24.57 1.26 
184.26 24.45 1.24 
187.65 24.78 1.18 
190.81 24.94 1.16 
191.26 24.83 1.14 
173.58 24.68 1.51 
179.55 25.06 1.39 
179.90 25.02 1.36 
181.18 25.02 1.23 
183.55 25.08 1.32 
183.98 24.97 1.27 
186.52 25.26 1.28 
186.64 25.22 1.27 
187.15 24.93 1.23 
189.65 25.33 1.22 
189.86 25.25 1.21 
173.22 25.21 1.56 
173.55 25.17 1.53 
173.83 25.08 1.50 
182.96 25.56 1.38 
183.32 25.26 1.34 
186.01 25.55 1.33 
186.35 25.36 1.30 
188.69 25.71 1.29 
189.11 25.52 1.26 
172.87 25.60 1.61 
173.05 25.42 1.59 
178.88 25.57 1.48 
182.84 25.66 1.40 
183.79 25.61 1.43 
185.35 26.03 1.39 
185.61 25.84 1.37 
185.81 25.68 1.35 
188.10 26.02 1.33 
188.55 25.80 1.30 
188.62 25.77 1.29 
172.52 26.10 1.67 
172.66 25.88 1.65 
178.46 26.00 1.53 
172.32 26.36 1.70 
177.96 26.52 1.60 
181.92 26.51 1.51 
184.54 26.71 1.48 
185.39 26.77 1.52 
172.06 26.70 1.74 
177.73 26.82 1.64 
177.81 26.71 1.63 
180.87 27.01 1.64 
181.05 27.01 1.62 
183.48 26.87 1.62 
174.84 27.23 1.98 
175.16 27.23 1.94 
176.07 27.21 1.84 
169.97 27.46 1.98 
170.34 27.47 1.94 
170.69 27.44 1.91 
171.14 27.42 1.86 
171.48 27.38 1.83 
173.69 29.81 2.21 
173.33 30.29 1.86 
174.27 30.19 2.16 
173.37 30.71 2.29 
173.16 31.68 2.36 
173.57 31.66 2.31 
174.63 31.49 2.18 
171.80 31.99 2.07 
172.10 31.89 2.04 
173.87 32.00 2.29 
174.78 31.93 2.18 
175.02 31.92 2.15 
172.00 32.16 2.06 
173.55 32.46 2.40 
174.11 32.31 2.28 
174.64 32.35 2.21 
168.55 32.51 2.42 
171.86 32.59 2.10 
172.94 32.53 2.42 
172.75 32.93 2.47 
172.98 33.22 2.46 
172.75 33.39 2.49 
173.03 33.34 2.46 
186.69 22.93 1.29 
190.20 24.01 1.40 
171.41 24.68 2.29 
187.39 25.21 1.46 
187.59 25.15 1.45 
188.18 24.93 1.43 
186.50 25.65 1.49 
186.87 25.46 1.48 
187.09 25.36 1.47 
186.40 25.72 1.49 
185.93 26.32 1.50 
184.04 26.77 1.74 
184.95 26.76 1.70 
186.00 26.70 1.72 
183.22 26.87 1.65 
174.39 27.22 2.03 
174.63 27.24 2.00 
178.95 27.06 1.89 
181.32 29.88 2.14 
181.05 30.25 2.30 
173.42 30.37 2.27 
172.98 30.72 2.33 
174.02 30.83 2.60 
173.98 31.05 2.62 
174.39 31.09 2.56 
174.36 31.61 2.59 
174.15 31.82 2.62 
168.89 32.16 2.88 
173.07 32.31 2.44 
173.59 32.24 2.72 
179.65 32.52 2.31 
172.22 32.54 2.56 
173.14 32.82 2.47 
173.32 32.71 2.44 
180.04 32.79 2.57 
173.00 33.14 2.50 
173.17 33.36 2.50 
183.82 24.72 2.26 
184.01 24.71 2.23 
184.44 24.73 2.17 
184.72 24.72 2.13 
168.30 24.65 2.63 
177.30 24.89 2.50 
177.65 24.89 2.45 
178.08 24.88 2.39 
178.50 24.87 2.33 
180.89 24.80 2.37 
181.34 24.83 2.30 
181.62 24.80 2.26 
181.98 24.85 2.20 
168.22 25.00 2.64 
168.41 25.05 2.62 
172.34 24.94 2.71 
174.14 24.98 2.47 
173.86 30.40 3.01 
174.13 30.32 2.96 
173.83 31.08 3.03 
174.41 30.93 2.93 
173.26 31.25 3.13 
173.26 31.75 3.14 
172.49 32.28 3.00 
179.16 32.79 2.74 
179.41 32.82 2.69 
172.42 32.85 3.04 
173.02 33.04 2.97 
182.49 24.68 2.48 
182.88 24.69 2.41 
183.25 24.68 2.35 
183.67 24.71 2.29 
175.74 24.86 2.73 
176.16 24.83 2.67 
176.44 24.89 2.63 
176.77 24.87 2.58 
177.08 24.90 2.53 
177.66 24.79 2.89 
177.90 24.80 2.85 
178.51 24.77 2.75 
178.82 24.77 2.70 
179.19 24.78 2.64 
179.63 24.79 2.57 
179.93 24.81 2.52 
180.69 24.76 2.59 
181.66 24.68 2.62 
182.07 24.70 2.55 
182.46 24.72 2.48 
182.90 24.73 2.41 
183.25 24.74 2.35 
183.58 24.74 2.30 
168.51 24.88 3.22 
170.75 24.90 2.92 
172.36 33.10 3.56 
174.84 24.73 3.36 
175.84 24.75 3.19 
176.83 24.77 3.02 
178.12 24.69 3.24 
178.46 24.64 3.18 
178.78 24.65 3.12 
179.32 24.68 3.02 
179.56 24.65 2.98 
180.02 24.70 2.90 
180.32 24.67 2.85 
168.07 24.89 3.28 
170.23 24.81 3.57 
171.33 24.83 3.40 
172.06 31.91 3.78 
167.43 24.35 4.00 
173.62 24.73 3.57 
176.41 24.65 3.56 
177.06 24.66 3.44 
177.38 24.65 3.38 
177.67 24.63 3.33 
168.94 24.82 3.78 
169.31 24.79 3.72 
171.08 32.14 4.24 
171.63 32.10 4.14 
171.50 32.37 4.18 
171.81 32.55 4.13 
169.36 24.17 4.32 
169.80 24.19 4.24 
170.52 24.22 4.11 
170.93 24.23 4.04 
171.23 24.26 3.99 
171.68 24.23 3.91 
173.29 24.11 4.17 
173.69 24.10 4.09 
173.95 24.09 4.04 
174.48 24.17 3.94 
174.96 24.15 3.85 
175.12 24.11 3.82 
166.89 24.33 4.09 
169.12 24.22 4.36 
169.55 24.23 4.28 
170.26 24.36 4.16 
171.24 31.27 4.70 
171.87 31.23 4.56 
171.41 31.48 4.67 
168.26 32.16 4.78 
168.90 24.16 4.40 
171.93 24.06 4.43 
172.46 24.14 4.33 
172.80 24.13 4.26 
168.28 24.25 4.51 
169.58 23.27 0.22 
172.34 24.78 0.26 
175.07 24.83 0.19 
176.59 24.87 0.15 
177.39 25.40 0.17 
169.62 25.38 0.38 
174.12 25.50 0.27 
185.82 25.99 -0.24 
186.49 25.84 -0.27 
169.63 25.80 0.41 
182.49 26.41 -0.19 
183.39 26.26 -0.22 
185.80 26.40 -0.21 
187.69 26.24 -0.28 
169.60 26.30 0.45 
179.31 26.60 -0.02 
181.47 26.62 -0.07 
181.94 26.49 -0.18 
182.52 26.77 -0.16 
182.62 26.65 -0.17 
183.73 26.61 -0.19 
184.72 26.83 -0.16 
185.24 26.89 -0.15 
186.29 26.83 -0.22 
166.52 26.55 0.55 
167.25 26.63 0.54 
168.09 26.64 0.52 
169.60 26.67 0.48 
173.02 26.82 0.16 
175.73 26.66 0.08 
175.80 27.02 0.11 
176.69 26.97 0.08 
180.29 27.09 -0.03 
180.76 26.99 -0.05 
181.05 26.86 -0.04 
181.45 27.07 -0.09 
182.09 27.06 -0.12 
182.30 27.02 -0.10 
182.88 26.99 -0.08 
183.02 27.11 -0.07 
183.59 27.09 -0.12 
183.98 27.06 -0.13 
184.33 27.04 -0.15 
184.83 27.08 -0.13 
185.18 27.04 -0.15 
185.56 27.05 -0.17 
185.80 27.06 -0.19 
169.54 26.91 0.50 
171.41 27.10 0.23 
172.11 26.99 0.20 
172.38 27.23 0.21 
173.47 27.15 0.18 
173.86 26.99 0.16 
174.33 27.01 0.15 
175.00 27.26 0.15 
175.43 27.23 0.13 
175.80 27.22 0.12 
177.21 27.19 0.08 
177.69 27.13 0.07 
177.79 27.32 0.08 
178.67 27.47 0.07 
179.08 27.25 0.04 
179.50 27.38 0.04 
180.49 27.30 -0.08 
181.16 27.20 -0.02 
181.83 27.36 -0.02 
182.90 27.35 -0.10 
183.26 27.37 -0.06 
183.54 27.30 -0.07 
183.86 27.33 -0.08 
184.32 27.36 -0.13 
184.67 27.37 -0.10 
172.53 27.46 0.23 
173.76 27.57 0.20 
175.08 27.44 0.16 
177.12 27.57 0.12 
179.15 27.58 0.06 
179.41 27.58 0.06 
180.73 27.65 0.03 
173.59 30.43 0.67 
173.49 30.69 0.70 
173.67 30.77 0.70 
172.74 31.28 0.76 
173.44 31.06 0.73 
171.93 31.60 0.81 
173.03 31.66 0.78 
173.43 31.59 0.52 
173.07 31.78 0.79 
169.09 32.28 0.93 
171.89 32.12 0.60 
173.07 32.24 0.83 
173.22 32.48 0.84 
173.06 32.57 0.85 
173.24 32.76 0.86 
174.00 33.12 0.62 
168.19 23.14 0.67 
168.25 23.35 0.68 
168.20 23.88 0.72 
168.24 24.22 0.74 
181.16 25.03 0.29 
182.64 24.88 0.32 
184.15 24.95 0.26 
188.04 25.03 0.10 
188.73 25.08 0.12 
168.29 24.97 0.79 
171.01 25.20 0.68 
172.30 25.20 0.62 
173.68 25.24 0.56 
175.22 25.20 0.48 
176.70 25.19 0.41 
178.18 25.28 0.35 
178.23 25.19 0.34 
180.60 25.53 0.10 
181.18 25.22 0.20 
182.68 25.23 0.14 
185.37 25.66 0.04 
185.47 25.66 0.04 
186.84 25.63 0.08 
187.23 25.58 -0.07 
187.64 25.65 0.04 
188.04 25.63 0.14 
188.41 25.68 0.13 
189.53 25.76 0.09 
168.33 25.37 0.82 
169.70 25.23 0.74 
170.96 25.34 0.69 
179.04 25.64 0.15 
179.67 25.64 0.13 
180.11 25.85 0.14 
180.50 25.71 0.11 
181.24 25.85 0.10 
182.12 25.92 0.08 
182.22 25.92 0.08 
183.28 26.00 0.16 
183.76 25.91 0.13 
183.93 26.00 0.04 
185.28 25.98 0.07 
185.93 25.98 0.02 
186.35 25.95 -0.02 
186.68 25.81 0.10 
187.10 25.83 0.06 
187.55 26.00 -0.03 
187.98 25.94 -0.07 
188.47 26.04 0.04 
188.70 25.92 0.02 
189.11 25.87 0.00 
189.58 25.87 -0.01 
189.79 25.89 -0.13 
190.39 25.86 -0.05 
190.83 25.85 -0.06 
168.30 25.78 0.85 
176.90 26.22 0.47 
177.71 26.09 0.42 
178.39 26.01 0.29 
179.98 26.02 0.15 
181.21 26.01 0.12 
181.59 26.03 0.11 
181.82 26.10 0.11 
183.21 26.09 0.12 
183.74 26.29 0.07 
183.88 26.28 0.15 
184.36 26.12 0.08 
184.76 26.17 0.02 
185.20 26.18 0.03 
185.43 26.19 0.01 
186.37 26.33 -0.01 
186.97 26.26 0.22 
187.10 26.20 0.08 
187.93 26.20 -0.05 
168.30 26.17 0.87 
178.48 26.48 0.41 
181.50 26.57 0.28 
185.20 26.65 0.05 
168.30 26.56 0.90 
166.75 27.19 1.02 
171.89 32.06 1.12 
174.26 31.80 1.16 
191.24 25.00 0.25 
169.62 24.79 0.90 
175.08 24.77 0.65 
176.49 24.85 0.59 
176.89 24.86 0.57 
177.14 24.84 0.56 
178.07 24.86 0.52 
179.66 24.94 0.75 
181.15 24.98 0.66 
182.76 25.01 0.56 
183.20 24.92 0.62 
184.11 24.94 0.57 
185.69 25.03 0.46 
186.08 25.08 0.57 
186.46 25.08 0.54 
186.78 25.05 0.52 
187.21 25.08 0.35 
188.73 25.04 0.39 
189.68 25.02 0.31 
190.04 25.04 0.30 
190.41 25.06 0.29 
190.81 25.06 0.27 
191.01 25.10 0.27 
169.62 24.83 0.90 
173.69 25.17 1.08 
175.20 25.15 0.98 
176.69 25.15 0.87 
178.43 25.19 0.76 
178.82 25.20 0.74 
179.21 25.17 0.71 
182.66 25.19 0.49 
169.60 25.43 0.95 
169.59 25.78 0.97 
169.57 26.10 0.99 
166.71 26.80 1.17 
167.06 26.83 1.16 
167.53 26.84 1.14 
167.79 26.76 1.12 
171.61 30.59 1.56 
173.10 30.65 1.14 
181.76 30.90 0.99 
171.58 31.00 1.59 
171.86 30.89 1.57 
172.77 31.24 1.52 
174.16 31.28 1.13 
174.62 31.20 1.50 
172.73 31.43 1.54 
173.94 31.40 1.15 
181.54 31.84 0.94 
172.75 31.99 1.58 
173.07 31.87 1.55 
173.78 32.01 1.20 
174.14 31.88 1.17 
169.03 32.26 1.45 
172.54 32.39 1.62 
172.94 32.20 1.58 
173.58 32.50 1.24 
173.83 32.24 1.22 
172.67 32.64 1.63 
173.77 32.73 1.25 
172.80 32.89 1.64 
172.95 33.09 1.48 
173.45 33.00 1.60 
173.78 32.98 1.27 
180.97 33.12 1.38 
172.06 33.24 1.71 
172.64 22.41 1.14 
172.63 22.71 1.15 
168.27 23.09 1.33 
168.23 23.29 1.34 
172.30 23.36 1.21 
168.21 23.82 1.37 
168.29 23.67 1.36 
168.26 24.18 1.39 
190.27 24.96 0.54 
191.27 24.94 0.53 
168.22 24.34 1.40 
175.05 24.70 1.10 
176.54 24.79 1.01 
179.63 24.88 1.14 
181.20 25.03 0.95 
182.69 25.04 0.83 
184.13 24.86 0.88 
187.23 25.02 0.77 
187.97 24.94 0.94 
188.70 24.95 0.79 
189.93 24.99 0.57 
168.26 24.89 1.44 
172.32 25.17 1.17 
178.19 25.06 1.21 
179.66 25.12 1.09 
168.32 25.32 1.46 
169.68 25.18 1.35 
171.78 25.48 1.36 
168.30 25.69 1.48 
171.66 25.83 1.38 
168.30 26.12 1.51 
168.30 26.51 1.53 
168.11 27.07 1.70 
169.09 27.11 1.63 
170.23 27.09 1.55 
170.76 27.09 1.52 
171.37 26.82 1.46 
166.79 27.24 1.68 
167.31 27.11 1.64 
167.88 27.13 1.72 
168.30 27.13 1.69 
173.23 30.11 1.53 
174.05 30.68 1.51 
174.23 30.87 1.50 
173.33 31.09 1.58 
173.68 30.97 1.55 
174.26 30.90 1.50 
173.48 31.66 1.61 
173.90 31.66 1.58 
174.39 31.53 1.93 
180.33 31.54 1.34 
173.15 31.83 1.64 
173.26 31.74 1.63 
174.27 32.00 1.97 
174.51 31.81 1.94 
169.03 32.16 1.95 
173.36 32.36 1.66 
174.09 32.26 2.00 
181.06 33.25 1.69 
178.94 22.58 1.18 
175.68 22.85 1.33 
178.77 22.71 1.20 
175.35 23.06 1.37 
181.67 23.41 1.26 
186.17 23.61 1.18 
190.95 23.54 1.06 
191.19 23.46 1.05 
174.98 23.52 1.42 
175.11 23.35 1.40 
178.36 23.58 1.26 
181.38 23.71 1.29 
181.57 23.56 1.27 
185.79 23.90 1.21 
186.11 23.67 1.18 
189.44 24.09 1.16 
189.64 24.00 1.14 
190.03 23.86 1.12 
174.53 24.02 1.48 
174.81 23.75 1.44 
180.91 24.11 1.35 
181.11 23.94 1.32 
185.34 24.24 1.25 
185.56 24.07 1.23 
188.95 24.34 1.19 
189.22 24.20 1.17 
174.17 24.39 1.53 
174.35 24.21 1.51 
180.54 24.54 1.39 
180.70 24.34 1.37 
184.96 24.60 1.29 
185.09 24.47 1.28 
188.57 24.76 1.21 
188.72 24.50 1.21 
174.00 24.67 1.56 
177.82 24.95 1.34 
180.55 24.96 1.40 
180.70 24.99 1.39 
182.54 24.81 1.32 
182.72 24.91 1.18 
184.54 25.01 1.33 
184.85 24.96 1.30 
185.05 24.93 1.28 
187.81 25.06 1.28 
188.06 24.93 1.26 
188.39 24.89 1.22 
188.65 24.89 1.20 
190.58 25.29 1.25 
190.72 25.24 1.24 
191.29 25.04 1.21 
173.73 25.24 1.61 
174.03 25.12 1.58 
174.26 25.14 1.56 
177.68 25.15 1.36 
180.14 25.09 1.45 
183.94 25.44 1.40 
186.93 25.59 1.36 
187.14 25.45 1.34 
190.06 25.52 1.28 
173.39 25.60 1.66 
173.58 25.42 1.63 
179.63 25.56 1.51 
183.61 25.73 1.44 
186.48 25.88 1.40 
186.80 25.68 1.37 
189.21 25.93 1.35 
189.57 25.75 1.32 
173.17 25.88 1.69 
179.17 26.07 1.58 
183.22 26.16 1.49 
186.05 26.21 1.45 
188.84 26.13 1.37 
172.86 26.27 1.74 
180.91 26.28 1.48 
182.83 26.53 1.54 
186.15 26.73 1.56 
186.35 26.72 1.54 
172.50 26.78 1.80 
172.67 26.57 1.77 
178.48 26.80 1.69 
182.55 26.81 1.58 
182.62 26.74 1.57 
184.82 26.82 1.60 
185.02 26.79 1.57 
172.34 27.01 1.82 
175.28 26.93 1.63 
176.18 27.15 1.94 
176.41 27.16 1.92 
176.63 27.17 1.90 
177.39 27.12 1.81 
171.44 27.42 1.93 
172.05 27.39 1.87 
172.19 27.33 1.86 
168.78 27.50 2.18 
173.69 30.65 1.95 
173.49 31.09 1.99 
174.33 31.61 2.34 
174.63 31.33 2.30 
172.75 31.80 2.07 
173.99 31.78 1.98 
174.30 31.98 2.37 
174.84 31.89 2.30 
181.15 32.09 1.93 
172.00 32.07 2.16 
172.62 32.22 2.11 
173.13 32.33 2.09 
168.55 32.56 2.52 
172.02 32.45 2.18 
172.25 32.64 2.17 
173.65 32.83 2.08 
174.32 32.50 2.39 
181.06 32.88 1.88 
172.08 32.91 2.23 
173.47 33.06 2.10 
172.14 33.21 2.22 
173.68 33.58 2.12 
181.04 33.65 2.03 
172.83 24.62 2.25 
173.18 24.66 2.21 
188.18 25.22 1.48 
188.29 25.16 1.47 
188.91 24.90 1.45 
186.94 26.23 1.51 
187.20 26.03 1.50 
184.52 26.73 1.72 
184.93 26.72 1.67 
185.22 26.73 1.69 
185.57 26.71 1.72 
185.98 26.68 1.84 
186.73 26.66 1.71 
187.10 26.66 1.73 
180.75 26.99 1.80 
181.55 26.80 1.74 
182.67 26.86 1.89 
183.68 26.82 1.75 
184.29 26.83 1.67 
174.83 27.21 2.10 
175.35 27.21 2.04 
175.66 27.19 2.01 
175.93 27.17 1.97 
179.70 27.03 1.94 
182.43 30.63 2.37 
172.67 30.56 2.48 
182.25 30.89 2.02 
173.51 31.09 2.41 
181.50 31.32 2.15 
172.96 31.48 2.50 
173.84 31.41 2.39 
174.19 31.46 2.35 
173.39 31.93 2.51 
173.73 31.68 2.42 
181.09 31.93 2.24 
181.46 31.86 2.18 
172.80 32.08 2.55 
173.10 32.16 2.53 
181.66 32.27 2.17 
172.27 32.61 2.69 
173.20 32.57 2.56 
173.89 32.74 2.45 
180.10 32.70 2.54 
181.06 32.89 2.30 
181.40 32.89 2.43 
171.62 33.14 2.80 
172.58 32.85 2.61 
173.13 32.99 2.61 
173.97 32.85 2.85 
180.42 33.36 2.43 
181.16 33.34 2.62 
181.45 33.16 2.56 
173.25 33.30 2.62 
185.60 24.71 2.17 
171.80 24.64 2.36 
178.47 24.85 2.49 
178.87 24.86 2.44 
179.32 24.85 2.37 
180.24 24.67 2.26 
182.21 24.78 2.34 
182.53 24.78 2.29 
167.90 25.00 2.79 
168.67 25.04 2.70 
168.97 24.99 2.66 
174.87 24.94 2.52 
168.12 25.05 2.76 
173.75 30.76 2.79 
181.34 31.08 2.81 
173.89 31.32 2.79 
180.52 32.01 2.68 
181.20 32.13 2.58 
173.78 32.18 2.85 
180.68 32.23 2.66 
180.97 32.35 2.61 
181.75 32.34 2.77 
168.47 32.51 3.13 
168.49 32.36 3.12 
171.85 32.46 3.26 
172.68 32.71 3.03 
173.66 32.53 2.88 
173.70 32.67 2.88 
180.78 32.61 2.98 
172.43 33.04 3.21 
172.60 32.80 3.04 
173.09 33.03 3.12 
173.41 32.97 3.07 
172.68 33.20 3.19 
184.65 24.64 2.42 
184.76 24.68 2.30 
174.59 24.55 3.01 
176.07 24.82 2.85 
176.85 24.85 2.73 
177.22 24.85 2.68 
177.67 24.85 2.61 
178.10 24.84 2.55 
178.30 24.88 2.52 
179.06 24.75 2.84 
179.65 24.76 2.75 
180.10 24.78 2.67 
181.66 24.76 2.43 
182.39 24.64 2.69 
183.32 24.68 2.53 
183.56 24.70 2.49 
169.74 24.86 3.19 
169.97 24.92 3.17 
171.13 24.88 3.01 
172.77 24.89 2.79 
175.53 24.84 2.93 
176.45 24.86 2.79 
174.28 30.51 3.12 
173.06 30.83 3.50 
171.39 31.85 3.29 
172.79 31.86 3.60 
172.21 32.14 3.51 
172.64 31.98 3.63 
180.54 32.37 3.02 
168.41 32.31 3.74 
172.45 33.14 3.73 
176.47 24.73 3.28 
176.80 24.72 3.22 
177.45 24.78 3.11 
178.69 24.78 2.90 
179.61 24.64 3.18 
180.14 24.64 3.08 
181.02 24.66 2.93 
181.93 24.67 2.77 
166.81 24.92 3.59 
167.12 24.85 3.55 
167.89 24.91 3.44 
171.62 24.83 3.53 
172.27 24.79 3.42 
173.33 24.83 3.26 
174.76 24.79 3.04 
172.41 31.01 3.62 
172.64 31.12 3.85 
172.40 31.63 3.65 
171.95 32.18 4.02 
172.38 32.08 3.68 
172.29 33.29 3.77 
168.33 24.40 4.03 
168.39 24.25 4.01 
174.32 24.69 3.64 
175.22 24.72 3.49 
175.62 24.71 3.42 
177.20 24.61 3.63 
177.80 24.64 3.51 
178.66 24.59 3.36 
170.27 24.82 3.73 
170.52 24.76 3.69 
171.70 31.26 4.30 
171.04 24.17 4.21 
171.46 24.18 4.14 
172.54 24.22 3.95 
172.81 24.24 3.90 
174.34 24.10 4.18 
174.85 24.06 4.08 
166.77 24.24 4.27 
167.74 24.29 4.12 
170.19 24.26 4.36 
170.35 24.21 4.33 
170.80 24.23 4.25 
171.23 24.23 4.18 
171.65 24.24 4.11 
172.09 24.26 4.03 
168.24 32.60 4.73 
172.88 24.06 4.46 
173.32 24.05 4.38 
169.39 24.19 4.50 
169.68 24.15 4.45 
173.62 24.79 0.23 
174.90 24.90 0.21 
176.49 24.89 0.17 
169.60 25.49 0.39 
173.63 25.48 0.29 
178.11 25.56 0.18 
178.42 25.58 0.17 
169.58 25.64 0.40 
178.15 25.85 0.20 
182.83 26.26 -0.21 
185.36 26.36 -0.18 
186.29 26.14 -0.22 
169.57 26.02 0.43 
181.65 26.73 -0.15 
182.33 26.46 -0.19 
182.85 26.58 -0.18 
183.04 26.66 -0.17 
183.42 26.67 -0.18 
184.64 26.80 -0.18 
185.62 26.83 -0.17 
186.36 26.88 -0.20 
167.16 26.64 0.54 
168.03 26.68 0.52 
169.55 26.67 0.48 
179.36 27.03 0.03 
181.23 26.81 -0.04 
181.52 27.11 -0.07 
182.10 26.96 -0.13 
182.78 27.08 -0.13 
183.14 27.07 -0.11 
