# .PCD v0.7 - Point Cloud Data file format
VERSION 0.7
FIELDS x y z
SIZE 4 4 4
TYPE F F F
COUNT 1 1 1
WIDTH 1188
HEIGHT 1
VIEWPOINT 0 0 0 1 0 0 0
POINTS 1188
DATA ascii
204.03 51.93 1.47 
195.48 66.69 3.02 
195.38 65.70 2.96 
206.90 47.63 1.71 
203.73 55.21 1.94 
203.56 52.24 1.92 
203.51 55.73 1.99 
203.49 53.88 1.81 
203.50 55.52 1.97 
191.62 50.95 1.45 
203.46 53.85 1.87 
203.52 55.64 2.05 
203.63 53.24 0.96 
191.70 51.00 1.52 
204.20 50.60 1.28 
203.87 50.95 1.32 
203.53 55.29 2.02 
203.83 50.92 1.36 
206.41 47.71 1.71 
207.02 66.75 3.14 
204.45 50.62 1.62 
203.51 54.82 2.06 
204.60 50.49 1.46 
206.36 47.69 1.77 
206.70 66.74 3.33 
191.81 50.89 1.29 
195.17 51.01 1.27 
193.79 63.75 2.80 
204.79 50.50 1.52 
203.54 51.27 1.83 
207.22 47.57 1.66 
192.07 52.34 1.78 
193.76 63.71 2.88 
195.53 64.38 2.88 
204.86 50.76 1.60 
203.43 51.39 1.90 
207.20 47.59 1.69 
206.91 47.52 2.19 
204.53 50.83 1.26 
204.61 50.52 1.43 
195.91 64.37 2.94 
203.74 50.77 1.87 
203.45 51.37 1.94 
206.76 47.59 1.83 
207.48 47.51 2.10 
206.82 47.57 2.56 
196.33 64.44 2.56 
203.32 50.96 1.39 
203.33 50.98 1.56 
196.71 64.30 3.00 
204.48 50.78 1.89 
203.53 51.23 1.97 
207.09 47.57 1.82 
206.56 47.68 1.84 
206.66 47.59 2.18 
206.89 47.52 2.52 
199.42 64.37 2.50 
204.69 50.46 1.52 
204.22 50.66 1.40 
203.34 50.97 1.62 
204.44 50.73 1.94 
203.52 51.91 2.10 
206.99 47.55 1.75 
207.18 47.55 1.85 
206.66 47.61 1.86 
207.06 47.48 2.18 
206.29 47.63 2.11 
203.99 52.88 2.62 
204.92 50.47 1.42 
203.47 51.04 2.06 
206.63 47.60 1.89 
207.43 47.50 2.10 
206.39 47.63 2.22 
204.87 52.86 2.64 
203.86 52.92 2.68 
205.23 50.94 1.29 
204.82 50.47 1.65 
204.66 50.61 2.04 
203.57 50.96 2.12 
206.60 47.59 1.94 
207.53 47.53 1.81 
207.64 47.46 2.12 
206.52 47.57 2.25 
203.82 52.91 2.75 
204.96 52.87 2.70 
204.66 50.43 1.71 
204.80 50.68 2.10 
203.60 51.01 2.19 
206.61 47.57 1.98 
207.41 47.53 1.86 
207.74 47.48 2.15 
204.20 52.78 2.78 
204.95 52.83 2.76 
205.21 50.91 1.43 
204.54 50.40 1.78 
204.25 50.55 2.18 
204.99 50.71 2.16 
206.63 47.56 2.04 
205.00 52.81 2.82 
206.85 47.44 2.92 
207.56 47.51 1.97 
206.90 47.61 2.00 
207.76 47.48 2.24 
206.87 47.44 2.40 
207.33 47.44 2.38 
204.96 50.42 1.47 
204.10 50.70 1.53 
204.80 50.52 1.81 
206.99 47.58 2.04 
206.93 47.57 2.31 
207.15 47.41 2.44 
207.43 47.49 2.08 
206.97 47.59 2.11 
207.52 47.45 2.33 
207.38 47.42 2.51 
207.33 47.56 1.93 
204.59 52.87 2.55 
207.37 47.50 2.70 
204.63 50.53 1.73 
206.91 47.55 1.75 
203.50 52.13 2.23 
206.66 47.60 2.02 
204.95 52.84 2.60 
216.33 66.53 3.91 
207.39 47.58 1.75 
207.45 47.50 2.00 
207.56 47.46 2.25 
206.58 47.59 2.13 
207.13 47.50 2.10 
207.64 47.44 2.16 
206.16 52.66 2.63 
206.27 53.71 2.80 
192.41 52.43 1.35 
204.84 50.76 1.26 
204.43 50.94 1.27 
204.19 51.61 1.33 
204.17 51.95 1.36 
204.16 52.25 1.38 
204.19 52.67 1.41 
204.26 53.06 1.45 
204.25 53.41 1.47 
204.26 53.78 1.51 
204.29 52.10 1.52 
204.29 53.82 1.66 
204.28 52.24 1.56 
204.28 53.93 1.70 
204.38 53.67 1.68 
204.19 52.29 1.55 
204.19 53.93 1.68 
204.15 52.38 1.54 
204.24 53.92 1.67 
203.95 53.26 1.30 
204.20 53.12 1.29 
203.99 53.33 1.31 
204.14 52.24 1.52 
204.17 53.87 1.66 
203.81 52.71 1.16 
203.75 52.94 1.18 
203.77 53.87 1.26 
204.16 52.03 1.41 
204.07 52.26 1.43 
204.16 53.92 1.56 
203.82 53.01 1.26 
203.80 53.46 1.30 
203.81 53.74 1.32 
204.22 51.11 1.40 
204.01 51.46 1.43 
204.04 51.64 1.45 
203.98 52.17 1.49 
204.05 52.67 1.53 
204.05 53.00 1.56 
204.07 53.47 1.60 
204.09 53.78 1.62 
204.11 54.11 1.65 
204.13 54.58 1.69 
204.12 55.01 1.73 
207.01 47.68 1.71 
204.17 52.30 1.77 
203.97 53.06 1.54 
204.51 53.03 1.53 
203.90 53.27 1.56 
204.19 53.81 1.90 
204.10 51.31 0.82 
204.02 51.68 0.85 
204.24 52.42 1.81 
204.30 53.63 1.92 
203.94 51.73 0.82 
204.04 51.54 0.80 
204.19 52.35 1.74 
203.84 52.85 1.48 
203.80 53.32 1.53 
203.80 53.71 1.56 
204.25 53.81 1.86 
203.67 52.65 1.42 
191.57 52.60 1.53 
203.72 53.83 1.53 
204.10 52.21 1.68 
204.09 53.84 1.82 
196.13 65.64 2.76 
204.00 51.53 0.83 
203.90 51.70 0.84 
191.56 52.55 1.56 
203.66 52.52 1.43 
204.04 52.22 1.69 
204.10 53.77 1.83 
195.82 65.78 2.83 
196.05 65.66 2.81 
191.60 52.41 1.62 
203.63 52.42 1.47 
203.60 53.85 1.61 
192.78 65.25 2.93 
204.07 52.28 1.75 
204.17 53.68 1.87 
195.59 65.64 2.91 
196.28 65.59 2.89 
195.44 66.07 2.96 
195.42 66.49 3.00 
191.59 52.32 1.66 
203.59 52.29 1.50 
203.61 53.72 1.64 
192.75 65.10 2.97 
204.07 52.23 1.78 
204.16 53.61 1.91 
195.56 65.54 2.96 
195.63 65.57 2.96 
196.67 65.53 2.93 
195.48 65.85 2.99 
195.49 66.67 3.08 
191.61 52.28 1.65 
203.56 52.27 1.49 
203.57 53.79 1.63 
192.75 65.05 2.96 
195.48 65.46 2.94 
204.03 52.20 1.76 
204.05 53.74 1.90 
207.32 47.82 2.12 
204.12 50.79 0.93 
191.57 52.12 1.65 
204.15 52.47 1.06 
203.45 53.85 1.63 
203.57 54.01 1.64 
203.55 55.18 1.76 
192.60 64.84 2.95 
204.06 52.10 1.74 
203.98 52.25 1.76 
204.06 53.69 1.89 
206.91 47.74 1.70 
203.55 52.79 0.94 
203.66 53.13 0.96 
203.96 50.83 1.01 
204.10 50.68 0.99 
203.87 51.00 1.02 
191.58 52.17 1.70 
203.98 52.31 1.12 
192.46 70.04 2.73 
203.54 51.99 1.50 
203.52 53.73 1.67 
203.54 54.27 1.72 
203.55 54.69 1.76 
203.57 55.11 1.80 
192.67 64.89 3.02 
204.04 52.14 1.79 
204.11 53.68 1.93 
207.33 47.60 2.07 
203.56 53.09 1.11 
203.63 53.50 1.14 
203.61 53.80 1.17 
203.82 54.04 1.18 
203.57 54.71 1.25 
203.56 55.11 1.28 
203.66 50.60 1.14 
204.20 50.89 1.15 
191.70 52.19 1.82 
203.60 52.12 1.63 
203.62 53.77 1.80 
192.77 64.97 3.18 
206.94 47.66 1.79 
206.72 47.72 2.15 
206.98 47.61 2.41 
203.63 50.75 0.99 
204.17 50.62 0.97 
191.59 50.88 1.34 
203.56 52.64 1.15 
203.59 53.04 1.18 
203.65 53.46 1.22 
203.78 53.84 1.25 
203.76 54.21 1.28 
203.94 54.17 1.27 
203.54 54.54 1.31 
198.68 65.40 2.38 
204.22 50.59 1.20 
204.48 50.52 1.19 
204.81 50.50 1.18 
203.89 51.02 1.24 
204.05 51.86 1.31 
191.70 52.09 1.87 
192.21 52.25 1.66 
204.04 52.55 1.36 
204.07 52.92 1.39 
204.03 54.28 1.51 
192.45 70.07 2.98 
192.81 70.04 2.97 
207.37 47.75 1.54 
203.56 51.97 1.68 
203.33 52.23 1.70 
204.16 52.45 1.99 
203.58 53.46 1.82 
203.58 53.72 1.85 
204.21 53.61 2.10 
203.60 54.13 1.89 
203.58 54.57 1.94 
203.61 54.98 1.98 
207.00 47.58 1.81 
206.86 47.67 1.82 
203.63 50.71 0.95 
203.55 50.84 0.96 
191.73 50.96 1.23 
203.70 54.30 1.24 
204.04 50.69 1.17 
204.05 51.87 1.26 
204.03 53.80 1.42 
204.02 54.15 1.45 
192.41 70.08 2.91 
192.66 70.05 2.89 
204.16 52.32 1.91 
203.49 53.69 1.78 
204.12 53.65 2.04 
203.51 54.12 1.83 
203.55 54.95 1.91 
203.52 55.28 1.94 
206.72 47.62 1.73 
206.95 47.57 1.73 
206.60 47.70 1.74 
206.85 47.61 2.30 
207.22 47.72 2.10 
207.36 47.62 2.09 
203.77 50.66 0.98 
204.11 50.57 0.96 
191.63 50.92 1.35 
203.54 54.29 1.27 
200.68 64.70 2.21 
198.76 65.31 2.32 
204.15 50.60 1.19 
203.57 51.52 1.58 
203.85 51.46 1.57 
204.21 51.49 1.57 
192.08 52.38 1.67 
203.96 52.69 1.36 
203.96 52.93 1.38 
203.99 53.29 1.41 
203.99 54.08 1.47 
204.01 55.13 1.55 
204.09 52.29 1.91 
204.01 52.42 1.93 
203.47 52.95 1.72 
203.44 53.35 1.76 
203.46 53.69 1.79 
204.11 53.66 2.04 
203.51 54.17 1.84 
203.52 54.73 1.90 
203.54 55.03 1.93 
196.69 65.16 3.10 
207.04 47.56 1.72 
206.91 47.63 1.72 
206.72 66.90 3.07 
206.99 66.86 3.06 
207.46 47.55 2.07 
206.85 47.56 2.25 
203.59 50.68 1.06 
191.66 52.66 1.79 
198.95 64.93 2.38 
199.24 65.13 2.38 
199.43 65.00 2.37 
204.13 50.60 1.26 
205.19 50.63 1.24 
203.94 50.75 1.28 
203.57 51.37 1.62 
203.86 51.36 1.62 
204.17 51.35 1.61 
203.38 52.09 1.70 
203.86 52.11 1.39 
203.31 52.33 1.72 
203.89 52.48 1.42 
203.41 52.85 1.77 
203.94 52.87 1.45 
203.98 53.78 1.52 
207.29 47.60 1.51 
204.22 52.48 1.98 
204.16 52.87 2.02 
203.44 53.29 1.81 
204.17 53.22 2.05 
203.44 53.55 1.84 
203.45 54.08 1.89 
203.44 54.44 1.93 
203.50 54.87 1.97 
203.52 55.34 2.02 
195.33 65.32 3.25 
206.41 47.71 1.74 
206.57 47.64 1.74 
206.97 47.55 1.73 
206.65 66.86 3.15 
206.98 66.89 3.14 
206.81 47.56 2.24 
207.31 47.56 2.08 
203.73 51.41 0.84 
203.63 52.97 0.94 
203.60 53.26 0.96 
204.17 50.58 1.05 
203.77 50.75 1.08 
203.75 53.40 1.30 
193.68 64.58 2.59 
194.07 64.44 2.56 
193.22 64.89 2.64 
193.51 64.87 2.62 
195.65 64.87 2.54 
198.76 65.28 2.46 
203.52 50.88 1.58 
203.98 50.71 1.49 
204.37 50.74 1.55 
204.60 50.78 1.55 
203.39 51.19 1.61 
203.40 52.50 1.74 
203.94 52.47 1.44 
203.41 52.85 1.78 
203.43 53.16 1.81 
204.02 53.43 1.52 
203.44 53.61 1.85 
203.45 53.99 1.89 
204.02 54.10 1.57 
204.42 54.79 1.61 
206.51 47.75 1.71 
206.88 47.64 1.70 
203.49 54.35 1.93 
203.48 54.80 1.98 
203.47 55.16 2.01 
203.50 55.51 2.05 
196.60 65.14 3.25 
207.00 47.58 1.70 
206.76 66.80 3.14 
203.70 52.93 1.00 
203.87 50.65 1.11 
191.57 50.89 1.56 
191.58 51.27 1.44 
192.03 51.24 1.42 
203.66 52.56 1.27 
203.69 52.88 1.30 
203.74 53.77 1.37 
204.20 54.77 1.43 
192.88 64.87 2.67 
193.90 64.82 2.63 
199.32 65.29 2.47 
204.06 50.61 1.51 
204.49 50.62 1.56 
205.17 50.51 1.29 
203.40 50.88 1.61 
203.54 50.78 1.59 
203.93 50.78 1.35 
204.45 50.65 1.57 
204.88 50.74 1.57 
205.02 50.77 1.31 
203.36 51.19 1.64 
203.37 51.92 1.71 
203.39 52.10 1.73 
203.92 52.12 1.45 
203.38 52.30 1.75 
203.42 52.80 1.80 
203.40 53.23 1.84 
203.45 53.52 1.87 
203.45 53.99 1.92 
204.04 53.91 1.59 
203.46 54.38 1.96 
203.44 54.83 2.00 
206.52 47.70 1.71 
206.97 47.56 1.70 
204.16 53.51 2.10 
203.48 55.20 2.04 
195.43 64.99 3.29 
196.69 64.93 3.24 
206.75 66.73 3.15 
192.46 50.78 1.22 
203.89 51.52 0.99 
203.73 50.60 1.18 
204.21 50.55 1.16 
203.61 50.68 1.19 
192.02 51.58 1.51 
203.99 54.66 1.51 
192.71 63.88 2.68 
193.79 64.11 2.66 
192.67 64.32 2.72 
194.01 64.51 2.68 
193.00 64.90 2.75 
193.49 64.89 2.73 
193.69 64.77 2.72 
196.15 65.53 2.69 
204.26 50.60 1.62 
203.47 50.86 1.66 
203.68 50.70 1.64 
204.04 50.65 1.55 
204.53 50.64 1.62 
204.93 50.76 1.50 
203.42 51.14 1.69 
203.40 51.58 1.73 
203.91 51.61 1.48 
203.43 52.04 1.78 
203.40 52.33 1.81 
203.44 52.59 1.83 
203.46 52.90 1.87 
203.91 52.78 1.58 
203.42 53.08 1.89 
203.46 53.19 1.90 
203.42 53.37 1.91 
203.47 53.52 1.93 
203.47 53.95 1.97 
204.03 53.88 1.66 
203.51 54.34 2.01 
203.46 54.69 2.05 
203.55 55.24 2.10 
204.05 55.13 1.77 
203.52 55.47 2.13 
206.54 47.68 1.73 
206.99 47.56 1.72 
207.32 47.62 1.56 
204.11 52.40 2.04 
203.59 55.64 2.15 
203.84 52.92 2.35 
206.92 66.77 3.23 
207.17 66.73 3.22 
196.08 50.69 1.16 
203.92 50.92 1.06 
191.71 50.85 1.23 
191.97 50.85 1.22 
193.69 50.97 1.26 
194.10 50.97 1.25 
194.49 50.95 1.23 
194.89 50.92 1.21 
195.33 50.82 1.19 
195.65 50.79 1.18 
204.04 54.44 1.28 
204.01 54.76 1.30 
201.30 65.06 2.06 
203.53 50.66 1.28 
204.12 50.60 1.26 
205.00 50.78 1.25 
192.17 51.84 1.60 
192.32 52.16 1.62 
203.73 54.13 1.57 
203.72 54.40 1.59 
192.99 63.75 2.75 
193.28 63.75 2.74 
193.59 63.78 2.73 
192.61 63.84 2.77 
192.78 63.80 2.76 
193.80 64.03 2.75 
193.98 63.99 2.74 
199.14 64.59 2.60 
204.68 64.80 2.43 
204.93 64.84 2.43 
195.24 64.89 2.77 
199.02 64.93 2.64 
199.41 64.93 2.62 
195.48 65.42 2.80 
197.76 65.32 2.71 
204.64 50.50 1.46 
203.52 50.82 1.72 
203.72 50.71 1.71 
204.09 50.68 1.70 
204.52 50.71 1.70 
203.40 51.10 1.76 
203.80 51.22 1.54 
203.41 51.53 1.80 
203.80 51.41 1.56 
203.39 51.89 1.84 
203.40 52.33 1.88 
203.88 52.15 1.62 
203.43 52.69 1.92 
203.88 52.77 1.67 
203.42 53.10 1.96 
203.91 53.02 1.69 
203.46 53.52 2.01 
203.44 53.75 2.03 
203.48 53.89 2.05 
203.99 54.13 1.78 
203.48 54.36 2.09 
203.96 54.33 1.79 
203.51 54.62 2.12 
203.93 54.76 1.83 
203.51 55.12 2.17 
203.55 55.45 2.21 
203.55 55.75 2.24 
206.63 47.62 1.77 
206.97 47.54 1.76 
204.18 52.42 2.11 
204.11 52.55 2.13 
206.98 66.76 3.33 
203.79 50.84 1.04 
204.15 50.69 1.01 
204.40 50.64 1.10 
191.61 50.90 1.30 
195.37 51.00 1.27 
195.71 51.00 1.26 
196.12 51.00 1.24 
196.51 51.00 1.23 
196.87 50.98 1.21 
191.61 51.00 1.30 
203.83 51.58 1.19 
204.28 53.27 1.28 
204.30 53.75 1.31 
204.03 54.43 1.37 
201.36 64.82 2.13 
198.37 65.45 2.29 
204.12 50.50 1.32 
204.49 50.51 1.31 
203.38 50.78 1.36 
203.71 50.57 1.34 
204.99 50.81 1.32 
203.26 51.07 1.39 
192.15 52.05 1.68 
193.16 63.73 2.82 
193.38 63.69 2.81 
193.69 63.71 2.80 
192.55 63.89 2.85 
195.37 64.39 2.80 
196.79 64.39 2.75 
203.39 64.84 2.56 
204.64 50.52 1.53 
204.91 50.52 1.52 
205.19 50.53 1.51 
204.18 50.60 1.55 
204.45 50.55 1.54 
205.05 50.55 1.52 
203.79 51.25 1.82 
204.07 51.21 1.81 
203.45 51.55 1.86 
203.71 51.39 1.73 
204.53 51.41 1.82 
203.40 51.89 1.90 
203.30 52.13 1.92 
203.95 52.85 1.74 
203.44 53.06 2.02 
203.43 53.39 2.05 
203.96 53.46 1.79 
203.48 53.71 2.09 
204.00 53.88 1.83 
203.45 54.31 2.15 
203.49 54.10 2.13 
203.98 54.32 1.86 
203.49 54.61 2.18 
204.01 54.68 1.89 
203.50 55.05 2.23 
203.52 55.50 2.28 
206.95 66.78 2.83 
206.38 47.66 1.80 
206.64 47.61 1.80 
207.01 47.57 1.75 
196.46 65.51 3.57 
203.91 50.76 1.21 
204.53 50.75 1.19 
195.87 51.04 1.33 
196.15 51.01 1.32 
196.54 51.01 1.30 
196.86 51.00 1.29 
198.54 51.00 1.23 
198.99 51.01 1.21 
203.81 51.01 1.13 
204.15 50.98 1.01 
203.87 51.44 1.26 
203.97 52.36 1.31 
203.99 52.74 1.34 
204.02 53.14 1.36 
204.03 54.17 1.43 
204.06 54.50 1.45 
204.23 50.48 1.38 
204.50 50.49 1.37 
203.54 50.67 1.42 
203.80 50.52 1.40 
204.04 50.49 1.38 
204.75 50.56 1.37 
204.98 50.75 1.38 
203.29 51.05 1.46 
191.81 52.59 1.81 
191.94 52.63 1.80 
203.42 54.21 1.72 
193.96 63.75 2.88 
198.00 64.13 2.77 
198.27 64.09 2.75 
195.90 64.28 2.86 
196.27 64.28 2.84 
196.67 64.34 2.83 
200.69 64.71 2.72 
203.43 64.64 2.62 
203.34 65.02 2.66 
197.80 65.10 2.86 
206.72 66.66 2.69 
206.98 66.72 2.69 
207.16 66.52 2.67 
204.66 50.80 1.61 
205.02 50.81 1.60 
205.19 50.76 1.59 
203.71 51.21 1.87 
204.14 51.13 1.77 
204.48 50.88 1.62 
203.52 51.41 1.90 
204.00 51.41 1.68 
203.43 51.90 1.95 
203.36 52.11 1.98 
203.47 53.04 2.07 
203.48 53.29 2.10 
203.51 53.76 2.15 
204.06 53.71 1.88 
203.52 54.22 2.20 
203.48 54.46 2.23 
203.54 54.70 2.25 
204.10 54.57 1.95 
204.12 55.04 1.99 
206.41 47.65 1.82 
206.64 47.60 1.81 
206.98 47.58 1.78 
207.09 47.53 2.13 
207.43 47.45 2.10 
207.27 47.54 2.53 
204.22 50.78 1.06 
205.23 50.55 1.21 
205.53 50.74 1.21 
198.62 51.00 1.30 
198.97 51.00 1.28 
199.42 51.00 1.27 
203.85 50.96 1.12 
203.87 51.50 1.34 
204.00 52.77 1.41 
204.02 53.06 1.43 
204.03 53.35 1.45 
204.04 55.01 1.56 
203.50 50.70 1.48 
203.89 50.70 1.37 
204.19 50.60 1.35 
204.58 50.54 1.43 
205.01 50.80 1.44 
203.34 50.95 1.51 
203.44 53.43 1.72 
198.25 64.14 2.83 
196.20 64.35 2.93 
196.65 64.35 2.91 
203.44 65.19 2.74 
206.81 47.64 1.47 
207.32 47.57 1.71 
207.55 47.61 1.71 
203.83 50.78 1.87 
204.22 50.73 1.85 
204.50 50.78 1.85 
205.06 50.77 1.65 
205.28 50.83 1.65 
203.49 51.00 1.90 
203.64 50.86 1.88 
204.32 50.99 1.69 
203.42 51.99 2.01 
203.99 51.92 1.78 
203.47 52.20 2.03 
203.89 52.11 1.80 
203.47 52.60 2.08 
203.46 52.98 2.12 
204.03 53.09 1.88 
203.45 53.36 2.16 
203.49 53.77 2.20 
204.08 53.98 1.95 
203.54 54.20 2.25 
203.50 54.48 2.28 
203.55 54.74 2.31 
204.11 54.60 2.01 
203.51 55.06 2.34 
203.59 55.39 2.38 
206.89 47.61 1.97 
207.15 47.55 1.96 
207.15 47.56 2.35 
206.88 47.51 2.73 
199.26 51.08 1.35 
199.48 51.07 1.34 
203.58 51.01 1.16 
203.92 50.97 1.15 
204.26 50.97 1.13 
196.51 64.47 2.56 
199.23 64.35 2.44 
199.49 64.35 2.43 
203.56 50.65 1.44 
204.00 50.48 1.41 
204.24 50.46 1.40 
204.64 50.47 1.47 
205.09 50.77 1.48 
203.41 50.87 1.55 
203.53 54.14 1.83 
201.64 63.73 2.75 
201.95 63.72 2.74 
198.18 64.10 2.92 
198.35 64.11 2.91 
202.38 64.04 2.75 
203.64 64.02 2.70 
203.88 63.98 2.68 
196.93 64.56 3.01 
203.53 64.88 2.78 
206.53 47.58 1.73 
206.83 47.59 1.65 
204.27 50.73 1.89 
203.60 51.02 1.94 
203.95 50.80 1.91 
204.14 50.78 1.90 
204.77 50.89 1.89 
203.29 52.12 1.87 
203.43 52.04 1.86 
203.55 52.74 2.13 
203.51 53.05 2.17 
203.57 53.34 2.20 
203.55 53.65 2.12 
203.60 54.07 2.28 
203.57 54.44 2.32 
203.64 54.81 2.36 
206.85 47.53 2.06 
206.55 47.64 1.84 
206.72 47.52 2.45 
207.08 47.50 2.17 
206.68 47.56 2.83 
202.58 50.99 1.27 
203.56 50.98 1.23 
203.91 50.97 1.21 
204.31 50.96 1.19 
204.66 50.96 1.18 
203.45 51.22 1.25 
203.50 54.12 1.66 
199.39 64.40 2.50 
203.62 50.61 1.50 
203.94 50.49 1.55 
204.34 50.45 1.53 
204.57 50.47 1.53 
205.12 50.75 1.53 
203.42 50.80 1.52 
203.46 52.08 1.72 
203.50 54.81 1.95 
201.59 63.71 2.81 
201.99 63.74 2.80 
199.29 64.11 2.94 
202.34 64.03 2.81 
203.73 64.05 2.76 
204.02 63.96 2.74 
204.31 63.92 2.73 
199.48 64.20 2.94 
206.77 47.55 1.68 
206.38 47.63 1.77 
204.09 50.72 1.95 
204.26 50.70 1.94 
204.67 50.74 1.93 
203.60 50.96 1.99 
203.95 50.76 1.96 
204.69 50.77 1.93 
204.98 50.98 1.95 
203.53 51.30 2.03 
203.48 51.61 2.07 
203.54 53.58 2.16 
203.55 54.12 2.34 
203.62 54.66 2.40 
203.62 55.36 2.48 
206.83 47.53 2.00 
207.19 47.53 2.02 
206.52 47.63 2.02 
206.81 47.50 2.48 
206.68 47.57 2.46 
215.10 47.21 0.67 
204.35 50.66 1.24 
204.63 50.46 1.21 
202.61 50.96 1.34 
203.56 50.98 1.30 
203.89 50.90 1.28 
204.16 50.81 1.26 
203.13 51.28 1.33 
203.37 51.16 1.32 
198.83 64.35 2.60 
199.94 64.34 2.55 
200.19 64.42 2.55 
203.63 50.59 1.64 
203.86 50.63 1.56 
204.20 50.71 1.62 
204.72 50.55 1.59 
205.09 50.74 1.59 
203.38 50.86 1.67 
203.94 50.83 1.57 
204.26 50.79 1.63 
204.54 50.79 1.62 
203.39 51.48 1.73 
203.31 51.66 1.75 
203.96 51.82 1.55 
204.07 51.78 1.55 
203.97 52.13 1.77 
201.60 63.69 2.88 
201.90 63.84 2.88 
202.40 64.07 2.88 
203.48 64.59 2.88 
206.82 47.59 1.56 
207.31 47.56 1.78 
207.46 47.58 1.78 
206.82 47.59 1.89 
207.11 47.60 1.81 
203.65 50.65 2.01 
203.92 50.57 1.99 
204.34 50.52 1.97 
204.72 50.56 1.96 
205.00 50.70 1.97 
203.51 50.81 2.04 
204.06 53.71 2.10 
206.82 47.50 2.20 
207.19 47.50 2.15 
206.50 47.59 2.22 
206.88 47.61 2.12 
203.87 52.93 2.68 
204.24 52.94 2.67 
204.56 52.92 2.66 
207.27 47.54 2.45 
216.36 66.77 3.37 
202.62 50.98 1.41 
203.56 50.96 1.37 
203.96 50.93 1.35 
204.27 50.93 1.33 
204.72 50.93 1.31 
205.08 50.92 1.30 
203.41 51.24 1.39 
204.10 53.77 1.75 
204.08 54.16 1.78 
204.08 55.06 1.84 
199.82 64.25 2.64 
203.65 50.63 1.71 
203.89 50.47 1.69 
204.37 50.49 1.60 
204.65 50.43 1.65 
203.87 51.01 1.58 
204.29 50.69 1.54 
204.62 50.79 1.53 
205.15 50.79 1.66 
203.97 51.66 1.62 
204.04 52.15 1.84 
204.03 52.66 1.68 
203.64 64.02 2.91 
203.80 63.98 2.90 
203.46 65.00 3.01 
207.34 47.52 1.82 
206.85 47.56 1.76 
207.14 47.56 1.85 
204.37 50.62 2.05 
204.70 50.63 2.04 
203.68 50.84 2.10 
203.93 50.68 2.07 
204.71 50.69 2.04 
205.00 50.78 2.04 
207.01 47.47 2.23 
207.27 47.48 2.19 
207.52 47.47 2.13 
206.59 47.56 2.25 
206.82 47.49 2.23 
207.30 47.50 2.13 
203.94 52.82 2.74 
204.31 52.81 2.72 
204.68 52.79 2.70 
207.28 47.52 2.78 
203.55 50.95 1.43 
203.88 50.93 1.42 
204.30 50.92 1.40 
204.65 50.93 1.38 
205.09 50.92 1.36 
203.38 51.17 1.45 
204.04 54.24 1.86 
204.06 54.92 1.90 
203.65 50.54 1.77 
203.91 50.44 1.75 
204.29 50.41 1.73 
204.74 50.49 1.72 
203.48 50.69 1.79 
205.11 50.71 1.72 
205.44 50.79 1.56 
204.17 52.16 2.09 
206.84 47.54 1.82 
207.18 47.51 1.89 
207.50 47.51 1.85 
203.71 50.81 2.16 
203.88 50.75 2.15 
204.31 50.64 2.12 
204.64 50.67 2.11 
204.98 50.85 2.11 
203.61 50.99 2.19 
204.15 53.52 2.21 
207.62 47.45 2.15 
206.94 47.50 2.23 
207.23 47.47 2.21 
207.51 47.46 2.15 
204.39 52.79 2.78 
204.70 52.76 2.76 
216.49 66.77 3.50 
207.28 47.55 2.47 
206.83 47.44 2.88 
204.42 50.48 1.33 
204.62 50.44 1.32 
204.36 50.90 1.46 
204.71 50.89 1.45 
205.04 50.89 1.43 
207.31 47.55 1.48 
203.92 50.43 1.81 
204.33 50.39 1.79 
204.71 50.40 1.78 
204.24 50.78 1.69 
204.90 50.70 1.65 
205.11 50.72 1.72 
203.92 51.18 1.73 
204.15 52.24 2.16 
206.80 66.57 3.14 
206.58 66.61 3.15 
207.25 66.67 3.13 
206.86 47.52 1.87 
207.22 47.50 1.93 
207.56 47.50 1.90 
204.02 50.65 2.20 
204.37 50.56 2.17 
204.71 50.57 2.16 
205.10 50.87 2.18 
206.39 47.56 2.35 
206.88 47.47 2.30 
207.19 47.47 2.27 
207.56 47.44 2.18 
204.50 52.77 2.84 
204.76 52.75 2.83 
206.81 47.48 2.63 
207.30 47.50 2.63 
204.34 50.52 1.44 
205.27 50.50 1.40 
205.42 50.53 1.39 
204.47 50.79 1.45 
204.67 50.77 1.44 
205.14 50.61 1.41 
206.92 47.55 1.52 
207.36 47.55 1.56 
204.46 50.53 1.76 
204.73 50.47 1.80 
205.19 50.49 1.73 
204.25 50.61 1.78 
205.20 50.73 1.88 
205.52 52.12 2.19 
204.23 52.34 2.27 
207.36 66.47 3.23 
206.71 66.65 3.27 
207.15 66.58 3.25 
206.99 47.55 2.05 
207.17 47.50 2.04 
207.57 47.49 1.97 
205.19 51.24 2.32 
206.57 47.52 2.43 
206.93 47.43 2.40 
207.26 47.46 2.32 
207.61 47.46 2.24 
204.85 52.75 2.93 
204.97 52.75 2.92 
206.57 66.70 4.03 
206.76 66.69 4.02 
206.72 47.48 2.71 
204.43 50.48 1.50 
204.69 50.44 1.49 
205.11 50.44 1.47 
204.24 50.57 1.51 
206.92 47.54 1.58 
207.36 47.54 1.62 
204.36 50.65 1.84 
204.74 50.54 1.81 
205.13 50.52 1.80 
205.47 50.63 1.79 
204.40 52.41 2.33 
205.54 52.23 2.26 
207.37 66.46 3.29 
206.84 66.60 3.33 
207.15 66.60 3.31 
206.91 47.51 2.17 
207.16 47.51 2.09 
207.57 47.48 2.01 
206.54 47.52 2.49 
206.95 47.50 2.38 
207.26 47.45 2.36 
207.63 47.47 2.28 
216.43 66.63 3.68 
207.19 66.69 4.06 
207.08 47.45 2.75 
211.95 49.26 1.24 
204.78 50.47 1.56 
205.16 50.45 1.54 
205.36 50.49 1.53 
209.11 50.30 1.44 
204.50 50.51 1.57 
204.60 50.50 1.57 
205.50 50.60 1.53 
204.51 50.82 1.92 
204.61 50.77 1.91 
205.14 50.65 1.88 
205.50 50.71 1.86 
205.77 52.47 1.97 
204.73 52.67 2.41 
204.44 52.91 2.45 
206.85 66.51 3.39 
207.12 66.55 3.38 
207.23 47.51 2.09 
207.62 47.48 2.07 
206.95 47.44 2.54 
207.30 47.45 2.43 
207.68 47.48 2.33 
216.45 66.58 3.74 
207.19 66.68 4.14 
216.26 66.62 3.75 
207.26 47.49 2.88 
215.94 47.18 0.99 
211.96 49.29 1.34 
212.37 49.09 1.31 
204.54 50.70 1.68 
204.82 50.74 1.67 
205.18 50.63 1.65 
207.44 47.55 1.92 
207.55 47.51 1.91 
205.27 50.99 2.00 
205.44 50.93 1.99 
204.53 51.36 2.06 
205.87 52.62 2.09 
204.77 52.85 2.54 
205.05 52.85 2.53 
205.46 52.88 2.51 
205.24 53.43 2.57 
207.38 47.48 2.17 
207.69 47.48 2.16 
207.39 66.12 3.66 
207.69 66.10 3.64 
207.43 47.45 2.56 
207.66 47.47 2.42 
216.26 66.57 3.86 
216.15 47.29 1.04 
216.38 47.11 1.02 
206.89 47.60 1.49 
212.24 49.28 1.38 
212.51 49.17 1.36 
204.94 50.57 1.72 
205.34 53.53 2.24 
205.38 54.13 2.28 
206.90 47.54 1.87 
205.00 51.51 2.11 
205.09 51.54 2.11 
203.65 51.94 2.21 
205.20 51.80 2.13 
205.32 52.00 2.13 
204.81 52.94 2.62 
206.97 47.48 2.25 
207.22 47.50 2.24 
207.08 66.11 3.75 
207.38 66.09 3.73 
207.59 66.45 3.76 
207.00 47.50 2.51 
207.44 47.57 1.49 
205.98 54.74 2.32 
205.95 55.04 2.34 
206.02 55.35 2.36 
207.46 47.57 1.74 
207.59 47.53 2.00 
207.42 47.48 2.26 
207.70 47.48 2.24 
205.18 53.48 2.35 
205.28 53.52 2.35 
206.76 47.54 2.12 
207.17 47.52 2.10 
215.94 66.55 3.34 
215.77 66.78 3.37 
207.05 47.51 2.37 
207.46 47.50 1.62 
207.57 47.49 2.03 
207.80 47.47 2.15 
215.83 66.64 3.44 
216.15 66.38 3.40 
216.44 66.34 3.39 
207.86 68.00 3.51 
207.70 47.47 2.10 
207.83 47.47 2.10 
216.13 66.35 3.52 
216.44 66.29 3.50 
207.85 47.47 2.17 
207.92 47.50 2.08 
208.01 47.51 2.14 
208.02 47.49 2.20 
207.23 47.63 2.71 
206.13 52.73 2.64 
206.15 53.21 2.68 
206.18 52.92 2.66 
206.21 53.44 2.70 
206.23 53.71 2.72 
206.19 53.60 2.78 
