# .PCD v0.7 - Point Cloud Data file format
VERSION 0.7
FIELDS x y z
SIZE 4 4 4
TYPE F F F
COUNT 1 1 1
WIDTH 2277
HEIGHT 1
VIEWPOINT 0 0 0 1 0 0 0
POINTS 2277
DATA ascii
241.36 -730.29 5.27 
240.91 -730.32 5.28 
240.68 -730.33 5.28 
219.25 -730.19 5.61 
239.44 -730.41 5.32 
239.89 -730.88 5.34 
241.43 -731.25 5.33 
240.60 -732.19 5.42 
238.32 -733.21 5.54 
230.96 -729.78 6.01 
219.85 -730.08 5.85 
220.17 -730.40 5.86 
240.77 -730.55 5.97 
238.10 -730.58 6.06 
237.92 -730.54 6.07 
240.84 -730.81 5.99 
240.32 -730.94 6.02 
239.83 -730.84 5.81 
230.76 -730.83 6.11 
238.24 -731.14 6.11 
219.39 -730.03 6.55 
240.34 -729.98 6.39 
220.98 -730.16 6.49 
219.66 -730.37 6.57 
241.30 -730.36 6.40 
240.98 -730.78 6.46 
240.66 -730.90 6.49 
240.22 -730.85 6.50 
240.38 -733.04 6.21 
233.09 -729.83 6.69 
232.55 -730.30 6.76 
232.20 -730.12 6.76 
239.65 -730.76 6.72 
236.57 -730.97 6.89 
240.36 -731.06 6.52 
237.38 -731.24 6.88 
241.30 -731.46 6.53 
241.30 -729.69 6.98 
232.05 -729.77 7.02 
240.86 -729.79 7.01 
233.47 -730.29 6.99 
240.23 -731.35 7.26 
239.87 -731.12 7.24 
233.64 -729.83 7.40 
219.42 -729.94 7.52 
233.70 -730.14 7.44 
232.21 -729.97 7.51 
231.84 -730.08 7.55 
219.56 -730.20 7.53 
240.06 -730.44 7.35 
234.53 -730.42 7.42 
234.27 -730.48 7.45 
233.84 -730.46 7.47 
220.54 -730.86 7.53 
220.03 -730.57 7.54 
231.73 -731.03 7.68 
219.91 -730.99 7.58 
236.94 -731.05 7.37 
234.18 -731.45 7.58 
231.17 -731.35 7.76 
241.05 -729.72 7.66 
240.22 -729.75 7.71 
239.90 -730.04 7.77 
228.04 -730.29 7.84 
240.63 -730.27 7.77 
239.99 -730.24 7.80 
236.32 -730.36 8.04 
228.12 -730.61 7.87 
239.39 -730.71 7.91 
233.90 -729.73 8.11 
231.76 -730.94 8.46 
231.54 -730.86 8.46 
230.95 -730.88 8.51 
231.05 -731.14 8.54 
241.21 -729.96 5.24 
240.80 -730.08 5.26 
240.70 -730.14 5.27 
240.16 -730.35 5.29 
241.08 -731.13 5.33 
240.88 -731.09 5.33 
219.47 -730.37 5.61 
239.45 -730.84 5.35 
231.75 -730.24 6.01 
219.22 -730.09 5.87 
240.67 -730.61 5.96 
239.79 -731.03 6.03 
239.24 -731.20 6.06 
239.92 -732.60 6.18 
240.00 -732.93 6.21 
219.82 -729.95 6.50 
220.48 -730.16 6.49 
219.65 -730.16 6.53 
241.46 -730.75 6.43 
220.17 -730.98 6.57 
240.29 -731.05 6.50 
220.77 -731.33 6.57 
220.64 -731.92 6.63 
220.09 -731.66 6.63 
240.99 -729.82 6.52 
219.37 -730.26 6.86 
232.51 -730.26 6.73 
240.29 -730.88 6.68 
239.80 -730.53 6.66 
231.52 -730.97 6.86 
241.35 -730.95 6.64 
236.97 -731.29 6.87 
238.34 -730.54 7.20 
231.23 -730.96 7.14 
240.01 -731.83 7.31 
219.42 -729.75 7.45 
219.35 -729.94 7.47 
241.49 -729.92 7.64 
240.72 -729.70 7.64 
240.37 -729.79 7.67 
234.29 -729.91 7.59 
232.32 -729.94 7.45 
231.89 -729.96 7.47 
231.11 -729.97 7.53 
219.55 -730.19 7.48 
234.20 -730.43 7.40 
233.99 -730.36 7.40 
220.38 -730.69 7.48 
219.95 -730.59 7.50 
219.36 -730.68 7.54 
234.19 -731.73 7.58 
233.99 -731.47 7.55 
234.33 -729.74 8.02 
234.00 -729.89 8.06 
233.45 -729.96 8.11 
240.33 -730.21 7.74 
239.96 -730.18 7.75 
236.32 -730.46 8.00 
241.36 -730.72 7.78 
240.16 -732.36 8.11 
239.65 -732.31 8.12 
233.08 -730.92 8.29 
232.41 -730.73 8.31 
231.75 -730.95 8.39 
238.95 -730.41 5.32 
240.78 -730.58 5.30 
239.81 -730.81 5.33 
241.14 -731.22 5.34 
241.31 -731.30 5.34 
239.10 -731.43 5.39 
240.31 -732.65 5.46 
240.11 -732.58 5.46 
231.02 -729.71 5.96 
219.54 -729.96 5.83 
219.17 -729.88 5.84 
240.05 -730.80 5.99 
241.09 -730.99 5.97 
240.84 -730.94 5.98 
240.30 -731.11 6.01 
240.06 -731.17 6.02 
231.06 -731.38 6.11 
229.29 -731.12 6.15 
230.92 -731.95 6.17 
240.10 -732.07 6.11 
220.51 -730.14 6.44 
219.53 -730.18 6.49 
219.53 -730.56 6.53 
241.30 -730.79 6.44 
220.02 -731.06 6.55 
241.44 -730.88 6.44 
220.21 -731.20 6.55 
241.25 -729.95 6.51 
241.03 -729.99 6.52 
232.07 -730.05 6.69 
219.34 -730.06 6.80 
230.11 -730.46 6.83 
240.16 -730.51 6.61 
239.62 -730.73 6.66 
238.83 -730.93 6.72 
237.09 -731.20 6.82 
239.82 -732.14 6.82 
234.39 -730.31 7.33 
220.41 -730.63 7.41 
240.61 -730.44 7.24 
240.07 -730.64 7.12 
237.03 -731.01 7.30 
240.54 -731.26 7.19 
233.42 -731.32 7.02 
219.27 -729.83 7.41 
241.35 -729.74 7.59 
240.87 -729.70 7.60 
233.51 -730.05 7.60 
232.25 -729.79 7.38 
231.15 -729.89 7.46 
228.79 -730.08 7.64 
219.58 -730.24 7.43 
219.25 -730.23 7.45 
234.00 -730.38 7.36 
233.68 -730.23 7.36 
230.70 -730.18 7.53 
219.96 -730.61 7.44 
219.72 -730.53 7.45 
219.06 -730.78 7.51 
234.13 -731.20 7.47 
234.05 -731.42 7.50 
234.05 -729.81 7.99 
233.40 -729.89 8.05 
233.50 -730.08 8.07 
236.31 -730.61 7.98 
241.28 -730.77 7.77 
240.23 -732.17 8.05 
231.58 -730.84 8.32 
232.04 -731.29 8.36 
240.48 -729.75 5.23 
240.48 -730.75 5.31 
241.05 -731.14 5.33 
240.73 -731.16 5.34 
240.19 -730.96 5.33 
241.25 -731.35 5.34 
230.47 -729.70 5.48 
219.23 -729.69 5.84 
220.41 -730.84 5.88 
240.06 -732.36 5.44 
230.97 -729.71 5.95 
219.16 -730.10 5.87 
237.52 -730.17 5.99 
219.48 -730.50 5.89 
240.58 -730.46 5.92 
230.65 -730.72 6.06 
229.72 -730.89 6.11 
219.54 -730.86 5.91 
240.76 -731.03 5.97 
241.44 -731.38 5.99 
219.95 -729.81 6.44 
241.05 -729.73 6.46 
231.47 -730.11 6.22 
220.76 -730.17 6.44 
219.81 -730.01 6.47 
236.89 -730.42 6.51 
236.34 -730.30 6.51 
219.80 -730.57 6.52 
220.14 -731.17 6.55 
232.32 -729.72 6.87 
228.13 -730.05 6.87 
219.50 -730.13 6.79 
218.97 -730.19 6.83 
237.73 -730.65 6.70 
232.83 -730.71 6.71 
231.83 -730.82 6.77 
241.18 -731.17 6.63 
237.00 -731.43 6.73 
239.63 -731.68 6.75 
219.17 -729.83 7.39 
240.78 -729.82 7.10 
240.18 -729.89 7.14 
232.41 -729.75 7.33 
219.89 -730.18 7.38 
219.43 -730.10 7.40 
234.18 -730.41 7.32 
233.89 -730.29 7.32 
230.35 -730.12 7.02 
219.93 -730.58 7.42 
240.31 -730.65 7.09 
234.29 -730.60 7.34 
220.03 -730.79 7.43 
236.88 -730.99 7.27 
240.98 -731.19 7.15 
231.07 -729.93 7.43 
232.38 -730.16 7.38 
230.66 -730.20 7.49 
240.54 -730.37 7.70 
234.22 -731.23 7.43 
234.15 -731.44 7.47 
233.91 -729.96 7.97 
233.55 -729.96 8.00 
231.38 -729.73 8.11 
237.13 -730.51 7.88 
232.33 -730.74 8.20 
232.91 -730.96 8.20 
231.89 -731.69 7.88 
231.75 -730.80 8.25 
232.27 -731.22 8.28 
230.91 -731.03 8.35 
241.18 -731.18 5.19 
240.82 -731.19 5.20 
241.28 -731.36 5.20 
240.95 -731.33 5.21 
240.28 -732.15 5.28 
219.31 -730.17 5.61 
218.52 -730.09 5.77 
230.48 -730.52 5.40 
219.39 -730.37 5.76 
219.63 -730.91 5.78 
219.28 -730.86 5.79 
231.20 -729.80 5.81 
230.98 -729.77 5.81 
228.34 -729.82 5.92 
232.61 -730.30 5.80 
231.72 -730.23 5.83 
230.64 -730.45 5.89 
240.64 -730.41 5.77 
240.37 -730.72 5.80 
229.94 -730.80 5.95 
229.53 -730.82 5.96 
240.79 -731.02 5.82 
239.72 -730.86 5.84 
239.31 -730.90 5.85 
232.54 -731.34 5.91 
239.56 -731.87 5.94 
232.91 -732.08 5.96 
232.51 -732.02 5.97 
232.06 -731.93 5.98 
232.65 -732.22 5.99 
241.43 -729.79 6.29 
241.04 -729.84 6.31 
234.99 -729.71 6.34 
234.06 -729.87 6.40 
220.61 -730.27 6.30 
219.65 -730.23 6.35 
233.54 -730.20 6.46 
240.94 -730.64 6.41 
220.24 -730.72 6.36 
219.83 -730.79 6.39 
220.58 -731.84 6.44 
220.59 -731.89 6.44 
241.49 -729.76 6.78 
219.83 -729.95 6.61 
230.93 -730.33 6.59 
234.08 -730.85 6.51 
238.50 -731.02 6.55 
232.92 -731.07 6.59 
241.19 -731.17 6.47 
236.82 -731.24 6.64 
228.88 -731.71 6.85 
237.39 -731.83 6.69 
238.43 -729.80 6.88 
234.01 -729.75 7.06 
233.49 -729.70 7.08 
232.63 -729.71 7.13 
231.92 -729.76 7.18 
220.71 -730.17 7.15 
220.53 -730.01 7.15 
220.20 -729.96 7.16 
219.53 -730.08 7.22 
218.36 -729.99 7.29 
235.05 -730.04 7.05 
234.28 -730.34 7.13 
234.10 -730.31 7.14 
233.51 -730.22 7.15 
232.80 -730.22 7.19 
240.78 -730.47 6.90 
233.59 -730.48 7.19 
220.21 -731.03 7.27 
219.46 -730.69 7.29 
234.10 -731.09 7.25 
220.39 -731.21 7.28 
238.23 -731.33 7.11 
234.46 -731.36 7.27 
240.74 -729.75 7.43 
234.18 -729.79 7.28 
228.81 -730.05 7.41 
232.15 -731.09 7.58 
231.70 -731.03 7.36 
235.61 -729.74 7.65 
234.99 -729.71 7.68 
234.34 -729.73 7.72 
234.03 -729.95 7.78 
233.66 -729.86 7.79 
232.39 -729.71 7.84 
234.40 -730.03 7.77 
237.59 -730.51 7.68 
237.11 -730.74 7.74 
236.94 -730.71 7.75 
233.19 -730.76 7.96 
232.37 -730.68 8.00 
238.94 -730.78 7.67 
235.36 -730.88 7.85 
231.89 -731.11 8.10 
231.73 -730.92 8.08 
237.77 -731.33 7.81 
240.29 -732.03 7.83 
232.19 -731.55 8.15 
230.51 -730.12 4.61 
241.23 -730.96 5.13 
240.78 -731.24 5.16 
219.28 -730.10 5.55 
219.44 -730.55 5.70 
219.29 -730.75 5.72 
228.18 -731.11 5.45 
239.33 -729.74 5.68 
238.89 -729.81 5.70 
235.28 -729.82 5.81 
231.55 -729.74 5.72 
230.91 -729.71 5.74 
228.32 -729.75 5.84 
233.03 -730.31 5.73 
235.43 -730.40 5.86 
232.66 -730.77 5.78 
230.34 -730.81 5.86 
229.80 -730.82 5.88 
229.40 -730.79 5.90 
241.45 -730.95 5.75 
240.65 -730.96 5.77 
232.87 -731.34 5.83 
231.80 -731.89 5.92 
233.28 -732.02 5.89 
240.01 -732.67 5.95 
240.93 -729.86 6.25 
234.96 -729.74 6.27 
219.60 -730.15 6.26 
240.66 -730.20 6.31 
234.96 -730.23 6.34 
233.97 -730.17 6.36 
220.16 -730.26 6.24 
220.17 -730.64 6.27 
241.41 -731.04 6.39 
220.44 -731.09 6.30 
220.51 -731.81 6.36 
232.11 -729.74 6.61 
231.28 -730.67 6.53 
230.88 -730.61 6.54 
230.59 -730.53 6.55 
230.29 -730.51 6.56 
236.23 -730.96 6.56 
236.66 -731.24 6.57 
234.21 -731.29 6.49 
233.09 -731.36 6.75 
239.87 -731.58 6.50 
236.37 -731.55 6.62 
233.81 -731.78 6.56 
234.10 -729.72 6.97 
233.73 -729.91 7.01 
232.81 -729.80 7.04 
232.26 -729.79 7.07 
220.58 -730.07 7.04 
220.18 -730.14 7.08 
219.67 -729.95 7.09 
219.50 -729.77 7.08 
218.42 -729.85 7.16 
239.21 -729.96 6.81 
238.81 -730.05 6.84 
234.10 -730.29 7.05 
233.75 -730.10 7.04 
233.05 -730.27 7.10 
219.89 -730.53 7.14 
219.53 -730.17 7.12 
219.40 -730.63 7.18 
220.11 -730.98 7.17 
237.90 -731.43 7.07 
240.45 -731.76 7.05 
241.45 -729.75 7.36 
238.48 -729.72 7.44 
238.27 -729.83 7.47 
235.56 -729.70 7.56 
235.30 -729.87 7.60 
237.44 -730.47 7.61 
229.09 -730.45 7.34 
241.20 -730.64 7.52 
234.32 -729.72 7.63 
234.60 -730.01 7.66 
234.36 -730.20 7.70 
236.89 -730.67 7.66 
237.05 -730.70 7.66 
235.33 -730.93 7.78 
232.84 -730.74 7.88 
230.42 -729.98 4.60 
241.15 -731.25 5.17 
219.06 -730.07 5.63 
218.41 -729.96 5.65 
219.30 -730.19 5.63 
219.38 -730.81 5.67 
228.42 -731.12 5.42 
227.91 -731.11 5.44 
228.59 -731.25 5.43 
231.34 -729.69 5.70 
228.83 -729.70 6.01 
239.68 -730.15 5.71 
236.22 -730.12 5.79 
235.47 -730.06 5.81 
232.83 -730.25 5.71 
231.83 -730.06 5.72 
236.32 -730.60 5.84 
233.03 -730.68 5.95 
229.08 -730.68 5.87 
232.32 -731.05 5.80 
233.49 -731.94 5.86 
233.65 -732.25 5.89 
233.30 -731.98 5.87 
232.95 -732.26 5.91 
230.02 -732.19 5.98 
239.20 -729.82 6.29 
234.95 -729.87 6.27 
233.99 -729.83 6.30 
219.72 -729.92 6.17 
218.72 -729.94 6.21 
234.89 -730.22 6.32 
232.81 -730.16 6.38 
220.24 -730.32 6.18 
219.56 -730.15 6.19 
233.92 -730.69 6.40 
233.48 -730.64 6.41 
220.29 -730.76 6.22 
220.05 -731.12 6.26 
220.48 -731.72 6.29 
234.03 -729.95 6.50 
237.80 -730.65 6.44 
230.86 -730.68 6.51 
236.29 -731.02 6.54 
236.67 -731.10 6.53 
229.15 -731.85 6.72 
238.29 -729.71 6.80 
232.96 -729.73 6.98 
230.97 -729.89 7.10 
220.56 -730.07 6.96 
219.82 -729.81 6.98 
241.03 -730.18 6.81 
239.01 -729.91 6.81 
235.53 -730.02 6.92 
234.38 -730.12 6.98 
233.89 -730.23 7.02 
233.55 -730.18 7.12 
233.13 -730.20 7.04 
220.67 -730.25 6.98 
219.90 -730.26 7.02 
218.55 -730.14 7.09 
239.84 -730.25 6.94 
238.34 -730.53 6.92 
219.74 -730.68 7.08 
233.89 -730.72 7.09 
240.34 -731.71 7.05 
235.43 -729.93 7.57 
235.15 -729.92 7.58 
234.30 -729.97 7.63 
219.18 -730.16 7.37 
240.99 -730.28 7.47 
240.62 -730.26 7.47 
236.96 -730.62 7.63 
227.38 -730.52 7.38 
237.33 -730.71 7.63 
234.34 -730.99 7.28 
234.43 -730.17 7.65 
234.07 -730.09 7.66 
219.47 -730.17 7.88 
236.53 -730.62 7.65 
235.96 -730.51 7.65 
235.06 -730.47 7.68 
234.82 -730.37 7.67 
237.50 -730.86 7.65 
237.09 -730.77 7.65 
236.74 -730.71 7.65 
236.45 -731.10 7.73 
240.32 -731.90 7.76 
239.49 -730.20 8.14 
232.37 -730.65 8.54 
230.33 -729.72 5.21 
230.13 -729.72 5.21 
219.50 -729.77 5.50 
219.05 -729.87 5.52 
227.96 -731.17 5.37 
228.79 -731.43 5.37 
233.38 -729.83 5.79 
229.12 -729.81 5.71 
241.50 -729.87 5.61 
236.68 -730.05 5.72 
232.65 -730.23 5.65 
220.05 -730.08 6.06 
236.77 -730.47 5.76 
241.16 -730.90 5.72 
236.24 -730.84 5.81 
233.35 -730.71 5.87 
232.84 -730.88 5.90 
232.60 -730.99 5.73 
232.73 -731.64 5.98 
230.08 -731.82 5.87 
233.22 -732.07 5.82 
232.84 -732.14 5.84 
234.60 -729.70 6.20 
220.21 -729.75 6.30 
219.66 -729.94 6.34 
241.11 -730.02 6.23 
232.45 -730.14 6.32 
230.44 -730.28 6.40 
220.56 -730.37 6.34 
233.98 -730.35 6.30 
220.43 -730.68 6.10 
220.02 -730.69 6.12 
219.83 -730.67 6.12 
238.73 -730.98 6.40 
233.71 -730.69 6.35 
233.26 -730.79 6.37 
234.57 -731.21 6.39 
220.35 -731.59 6.19 
220.25 -731.38 6.17 
233.66 -731.60 6.46 
234.88 -730.12 6.41 
233.85 -730.12 6.45 
233.17 -730.22 6.49 
232.73 -730.16 6.50 
233.30 -730.32 6.50 
227.80 -730.87 6.81 
231.82 -731.15 6.66 
219.32 -729.93 7.05 
238.23 -729.85 6.88 
235.45 -730.00 6.86 
235.28 -730.04 6.87 
234.26 -730.06 6.91 
233.58 -730.16 6.95 
233.13 -729.91 6.93 
232.77 -730.07 6.96 
232.11 -729.89 6.96 
220.07 -730.39 6.91 
219.69 -730.08 6.90 
233.89 -730.37 7.13 
233.79 -730.31 6.96 
231.44 -730.46 7.07 
220.05 -730.64 7.08 
219.59 -730.59 6.96 
233.75 -730.86 7.04 
228.67 -730.73 7.24 
237.40 -731.26 7.00 
234.17 -731.23 7.08 
238.15 -731.54 7.03 
241.22 -729.71 7.34 
238.38 -729.70 7.38 
234.72 -729.78 7.50 
234.52 -729.77 7.51 
234.05 -729.74 7.52 
241.48 -729.82 7.36 
240.55 -729.87 7.37 
235.30 -729.93 7.51 
234.92 -730.18 7.56 
236.82 -730.51 7.56 
235.75 -730.51 7.59 
234.61 -730.31 7.60 
234.23 -730.24 7.60 
227.35 -730.46 7.27 
237.37 -730.72 7.58 
236.89 -730.74 7.59 
227.91 -731.75 7.42 
227.59 -731.91 7.46 
231.26 -729.86 7.67 
219.30 -730.12 7.75 
237.02 -730.91 7.62 
236.38 -730.84 7.63 
234.92 -730.67 7.65 
232.35 -730.98 7.80 
232.58 -731.77 8.10 
232.20 -730.63 8.45 
230.47 -729.96 4.55 
230.45 -730.41 4.58 
219.07 -729.89 5.48 
219.42 -730.23 5.50 
219.14 -730.17 5.50 
229.07 -730.78 5.30 
228.31 -731.07 5.34 
228.04 -730.88 5.33 
228.60 -731.23 5.35 
228.45 -731.24 5.35 
231.43 -729.72 5.62 
229.07 -729.84 5.69 
228.77 -729.72 5.91 
218.73 -729.85 6.04 
241.21 -729.82 5.63 
238.58 -730.08 5.69 
237.92 -730.12 5.71 
232.86 -730.22 5.64 
219.48 -730.04 6.03 
219.18 -730.03 6.04 
236.21 -730.53 5.78 
229.14 -730.64 5.77 
228.97 -730.60 5.77 
220.48 -730.61 6.04 
219.99 -730.54 6.06 
241.36 -730.91 5.75 
240.81 -730.90 5.75 
232.91 -730.73 5.88 
232.40 -730.92 5.91 
220.09 -730.80 6.08 
233.28 -731.28 5.92 
232.86 -731.22 5.84 
231.56 -731.13 5.76 
230.33 -731.65 5.84 
237.77 -732.04 5.91 
233.42 -732.00 5.99 
233.23 -731.91 5.81 
232.87 -731.83 5.81 
229.89 -729.81 6.34 
241.41 -729.93 6.24 
234.73 -729.90 6.22 
232.52 -730.10 6.30 
233.76 -730.65 6.34 
229.97 -730.70 6.45 
241.14 -731.14 6.39 
237.58 -730.99 6.44 
220.40 -731.52 6.13 
218.75 -729.70 6.83 
238.86 -729.78 6.78 
232.92 -730.16 6.47 
220.26 -730.12 6.80 
233.51 -730.24 6.46 
220.21 -730.58 6.85 
233.01 -730.94 6.56 
227.62 -730.72 6.76 
233.45 -731.33 6.60 
233.28 -731.31 6.60 
218.94 -729.87 7.14 
239.81 -729.96 6.86 
239.04 -729.95 6.80 
235.22 -730.13 6.89 
234.77 -730.04 6.89 
234.28 -730.05 6.90 
233.68 -730.15 6.93 
233.18 -730.09 6.94 
229.22 -729.90 7.06 
219.12 -730.09 7.16 
239.63 -730.12 6.89 
239.17 -730.46 6.88 
233.86 -730.19 6.93 
232.82 -730.26 6.97 
227.41 -730.42 7.22 
219.75 -730.43 7.15 
234.37 -730.89 7.09 
233.88 -730.82 7.03 
228.71 -730.80 7.21 
220.17 -731.04 6.91 
237.80 -731.25 7.01 
237.39 -731.44 7.04 
240.51 -729.81 7.40 
235.28 -729.92 7.50 
234.27 -730.11 7.56 
234.02 -729.92 7.54 
219.54 -730.19 7.65 
237.46 -730.48 7.55 
237.30 -730.44 7.54 
235.00 -730.39 7.59 
234.87 -730.33 7.58 
220.32 -730.32 7.61 
220.15 -730.61 7.66 
237.45 -730.84 7.61 
236.80 -730.64 7.59 
236.40 -730.58 7.59 
237.01 -730.99 7.65 
237.57 -731.21 7.68 
237.03 -731.15 7.67 
231.25 -729.74 5.58 
218.62 -729.70 5.43 
219.50 -730.12 5.43 
218.66 -729.95 5.44 
229.14 -730.79 5.26 
228.22 -730.79 5.28 
228.76 -731.06 5.29 
231.21 -731.58 5.28 
241.31 -729.91 5.61 
239.06 -729.76 5.62 
237.59 -730.01 5.66 
233.97 -730.16 5.74 
233.27 -729.91 5.74 
231.49 -729.99 5.60 
237.92 -730.22 5.68 
236.92 -730.44 5.72 
236.35 -730.50 5.73 
235.15 -730.19 5.72 
230.16 -730.42 5.87 
220.47 -730.55 5.97 
219.78 -730.49 5.99 
240.90 -730.85 5.72 
238.06 -730.81 5.74 
236.67 -730.71 5.75 
233.21 -730.73 5.82 
232.03 -730.92 5.69 
229.80 -730.71 5.71 
219.94 -730.80 6.01 
241.42 -731.16 5.74 
241.08 -730.91 5.72 
240.32 -731.03 5.74 
235.01 -731.21 5.83 
231.76 -731.25 5.73 
228.52 -731.07 5.78 
238.64 -731.40 5.80 
232.90 -731.49 5.73 
229.94 -731.73 5.81 
233.59 -731.98 5.94 
233.25 -731.98 5.89 
233.06 -731.88 5.77 
229.52 -732.32 5.88 
241.48 -729.82 6.19 
240.95 -730.04 6.22 
236.29 -729.91 6.16 
236.11 -729.80 6.15 
234.61 -729.79 6.17 
240.04 -730.26 6.26 
233.77 -730.28 6.25 
233.18 -730.19 6.40 
237.53 -730.85 6.27 
233.26 -730.67 6.31 
229.82 -730.68 6.39 
236.81 -731.02 6.41 
236.35 -731.29 6.34 
240.68 -731.29 6.39 
240.20 -731.42 6.41 
233.68 -731.59 6.41 
233.30 -731.47 6.41 
220.45 -729.94 6.68 
220.27 -729.93 6.69 
219.68 -729.99 6.73 
218.56 -729.88 6.77 
220.45 -730.53 6.75 
219.77 -730.26 6.75 
227.92 -730.82 6.68 
219.87 -730.85 6.81 
233.31 -730.96 6.49 
233.04 -731.03 6.51 
236.94 -731.32 6.45 
229.99 -731.50 6.49 
240.92 -729.89 6.79 
235.22 -729.97 6.82 
234.53 -730.08 6.85 
234.07 -730.01 6.85 
233.04 -729.91 6.86 
219.25 -730.13 7.05 
234.93 -730.14 6.85 
233.56 -730.14 6.88 
233.40 -730.12 6.88 
232.78 -730.14 6.90 
229.49 -730.38 7.04 
219.75 -730.49 7.06 
238.67 -730.73 6.90 
234.52 -730.85 7.08 
234.24 -730.83 6.97 
233.57 -730.66 6.96 
228.45 -730.57 7.11 
237.33 -731.01 6.95 
233.97 -731.17 7.03 
231.75 -731.17 7.24 
237.10 -731.44 7.02 
234.77 -729.89 7.46 
234.39 -729.72 7.44 
233.99 -729.82 7.47 
233.18 -730.03 7.53 
219.22 -730.16 7.56 
234.53 -730.16 7.51 
234.13 -730.08 7.51 
228.10 -730.39 7.31 
220.37 -730.42 7.52 
218.44 -730.37 7.64 
237.16 -730.55 7.53 
236.74 -730.64 7.55 
236.59 -730.47 7.52 
236.17 -730.54 7.54 
235.62 -730.58 7.56 
236.37 -730.90 7.60 
236.16 -730.94 7.61 
237.31 -731.19 7.64 
231.61 -730.98 7.89 
236.89 -731.49 7.70 
230.29 -730.52 5.24 
233.62 -731.43 5.26 
231.35 -729.89 5.62 
219.19 -730.08 5.44 
218.25 -729.92 5.45 
232.65 -730.20 5.63 
219.08 -730.40 5.47 
228.06 -730.88 5.30 
227.77 -730.78 5.30 
232.07 -732.43 5.37 
238.79 -729.71 5.65 
233.68 -729.88 5.75 
231.66 -730.10 5.81 
228.89 -729.80 5.85 
220.43 -729.91 5.90 
219.89 -729.92 5.92 
219.06 -729.90 5.95 
240.86 -730.12 5.69 
240.51 -730.21 5.70 
237.64 -730.42 5.74 
237.49 -730.26 5.73 
236.51 -730.48 5.76 
235.96 -730.48 5.77 
235.74 -730.42 5.77 
235.38 -730.30 5.76 
233.64 -730.14 5.77 
230.33 -730.41 5.88 
229.71 -730.38 5.89 
241.36 -730.52 5.73 
238.97 -730.63 5.75 
237.77 -730.81 5.78 
235.96 -730.59 5.78 
234.79 -730.79 5.82 
234.58 -730.86 5.83 
233.06 -730.62 5.83 
232.36 -730.69 5.69 
228.89 -730.85 5.76 
241.17 -731.21 5.80 
241.03 -730.91 5.77 
240.12 -730.99 5.78 
239.92 -731.23 5.81 
238.97 -731.24 5.82 
237.92 -731.06 5.81 
234.90 -730.99 5.84 
232.66 -731.17 5.74 
231.80 -731.29 5.76 
228.55 -731.08 5.80 
220.38 -731.26 6.04 
239.53 -731.58 5.85 
238.12 -731.52 5.73 
236.04 -731.34 5.86 
230.19 -731.65 5.82 
239.10 -731.89 5.88 
233.34 -732.02 5.97 
230.36 -732.09 5.87 
230.95 -732.25 5.87 
229.71 -732.25 5.90 
219.83 -729.79 6.17 
236.89 -729.95 6.20 
234.57 -729.97 6.22 
234.16 -730.05 6.24 
233.84 -730.02 6.38 
219.15 -730.22 6.24 
240.65 -730.07 6.27 
239.97 -730.14 6.29 
238.56 -730.12 6.30 
236.10 -730.29 6.25 
233.93 -730.29 6.27 
232.25 -730.15 6.44 
230.27 -730.19 6.33 
219.56 -730.46 6.24 
236.59 -730.70 6.30 
229.91 -730.70 6.41 
240.45 -731.08 6.41 
238.09 -730.93 6.32 
237.01 -730.90 6.42 
236.42 -731.05 6.45 
235.69 -730.91 6.45 
219.99 -730.12 6.70 
220.43 -730.47 6.72 
233.24 -731.37 6.56 
232.61 -731.45 6.59 
227.53 -732.04 6.84 
240.61 -729.77 6.82 
235.29 -729.92 6.84 
234.72 -729.98 6.86 
234.56 -730.03 6.87 
234.15 -729.85 6.90 
233.70 -729.84 6.97 
233.44 -730.03 7.01 
233.09 -729.93 7.01 
218.98 -730.07 7.03 
240.36 -730.22 6.88 
235.07 -730.22 6.89 
233.65 -730.30 6.93 
232.82 -730.18 6.93 
231.05 -730.09 6.96 
227.40 -730.52 7.14 
239.44 -730.72 6.95 
239.04 -730.75 6.95 
236.37 -730.66 6.95 
236.21 -730.59 6.94 
234.25 -730.52 7.05 
233.89 -730.74 6.99 
228.79 -730.81 7.13 
228.58 -730.65 7.12 
234.40 -731.03 7.03 
234.25 -730.91 7.01 
233.67 -730.90 7.02 
228.88 -731.53 7.24 
228.46 -731.90 7.31 
237.72 -732.13 7.16 
235.13 -729.85 7.47 
234.13 -729.78 7.48 
219.70 -730.10 7.48 
219.32 -730.02 7.49 
234.70 -730.35 7.57 
220.55 -730.38 7.47 
220.28 -730.44 7.49 
219.76 -730.36 7.51 
237.23 -730.43 7.55 
236.75 -730.70 7.60 
236.51 -730.68 7.60 
236.21 -730.50 7.57 
234.87 -730.53 7.60 
237.33 -730.99 7.65 
227.77 -730.15 7.76 
237.52 -731.18 7.69 
236.93 -731.39 7.73 
235.56 -729.90 5.04 
230.29 -730.50 5.17 
228.65 -730.47 5.19 
228.15 -730.55 5.21 
229.14 -731.23 5.25 
229.03 -731.05 5.23 
231.37 -729.86 5.55 
232.53 -730.18 5.56 
238.40 -730.00 5.61 
236.80 -729.85 5.61 
236.58 -729.75 5.60 
231.35 -729.78 5.71 
230.98 -729.72 5.71 
220.15 -729.98 5.86 
219.85 -730.04 5.88 
240.82 -730.36 5.63 
238.09 -730.34 5.65 
236.04 -730.37 5.68 
235.43 -730.26 5.67 
234.97 -730.23 5.68 
234.03 -730.19 5.69 
229.69 -730.43 5.82 
220.41 -730.35 5.89 
220.21 -730.24 5.88 
241.39 -730.41 5.63 
237.83 -730.47 5.66 
237.45 -730.69 5.69 
235.83 -730.59 5.70 
234.49 -730.76 5.74 
229.71 -730.71 5.67 
228.88 -730.70 5.68 
228.60 -730.74 5.69 
227.59 -730.83 5.92 
220.28 -730.96 5.95 
241.20 -730.99 5.70 
239.23 -731.09 5.72 
238.68 -731.18 5.73 
236.13 -730.97 5.74 
234.98 -730.93 5.75 
232.22 -730.90 5.64 
229.62 -731.11 5.89 
229.20 -731.03 5.71 
229.02 -731.02 5.71 
239.05 -731.28 5.74 
237.88 -731.44 5.65 
235.63 -731.55 5.81 
235.49 -731.42 5.79 
230.10 -731.56 5.75 
237.46 -731.83 5.69 
235.78 -731.77 5.83 
232.53 -731.74 5.73 
230.43 -731.84 5.77 
229.81 -731.84 5.78 
233.30 -732.12 5.85 
236.70 -729.81 6.11 
234.63 -729.84 6.13 
232.14 -729.92 6.25 
241.20 -730.28 6.22 
240.83 -730.26 6.22 
240.50 -730.29 6.23 
239.97 -730.13 6.21 
238.36 -730.31 6.17 
236.85 -730.06 6.15 
236.23 -730.14 6.16 
233.84 -730.29 6.20 
233.06 -730.29 6.34 
230.55 -730.34 6.27 
219.11 -730.24 6.17 
239.76 -730.58 6.27 
238.60 -730.62 6.21 
238.18 -730.59 6.21 
237.82 -730.73 6.23 
237.07 -730.61 6.22 
233.06 -730.68 6.26 
231.14 -730.48 6.27 
238.43 -730.90 6.25 
238.03 -730.82 6.24 
236.87 -730.88 6.34 
236.29 -731.03 6.36 
235.82 -731.12 6.39 
236.53 -731.33 6.40 
234.56 -731.27 6.32 
219.11 -729.92 6.65 
220.50 -730.54 6.65 
220.01 -730.32 6.65 
237.44 -732.22 6.50 
240.65 -729.71 6.73 
235.21 -729.91 6.77 
234.09 -729.99 6.80 
233.75 -729.74 6.86 
232.94 -730.02 6.82 
238.55 -730.08 6.78 
236.11 -730.37 6.83 
234.98 -730.11 6.80 
234.54 -730.07 6.80 
233.42 -730.13 6.83 
227.70 -730.44 7.22 
227.28 -730.44 7.05 
219.41 -730.48 6.96 
240.29 -730.38 6.84 
239.51 -730.43 6.84 
236.29 -730.65 6.87 
234.38 -730.53 6.87 
234.22 -730.53 6.88 
233.69 -730.62 6.90 
231.97 -730.74 7.07 
228.58 -730.56 7.02 
228.23 -730.64 7.05 
227.45 -730.56 7.06 
238.58 -730.77 6.89 
237.43 -730.98 6.92 
238.27 -731.51 7.00 
229.28 -731.34 7.11 
229.05 -731.43 7.14 
237.86 -731.87 7.05 
237.70 -732.04 7.08 
234.84 -729.83 7.40 
234.28 -729.74 7.39 
233.90 -729.90 7.42 
219.65 -729.79 7.35 
219.33 -729.94 7.39 
234.60 -730.29 7.48 
234.07 -730.10 7.46 
220.44 -730.23 7.36 
237.22 -730.55 7.50 
236.61 -730.56 7.51 
236.28 -730.55 7.51 
235.55 -730.50 7.51 
235.05 -730.64 7.54 
220.89 -730.79 7.41 
237.37 -731.08 7.60 
236.31 -731.01 7.59 
235.15 -730.97 7.59 
227.82 -730.57 7.74 
227.40 -730.66 7.77 
237.04 -731.23 7.62 
235.91 -731.30 7.64 
236.89 -731.65 7.70 
230.29 -730.36 5.06 
228.62 -730.46 5.10 
236.05 -730.45 5.00 
228.83 -730.72 5.12 
228.30 -730.80 5.13 
236.53 -731.04 5.04 
229.20 -731.11 5.14 
228.90 -730.88 5.13 
228.04 -731.04 5.16 
218.47 -729.86 5.29 
239.60 -729.84 5.51 
238.51 -729.93 5.52 
236.89 -729.74 5.51 
233.92 -730.01 5.58 
233.79 -729.93 5.58 
229.11 -729.79 5.66 
219.96 -729.92 5.75 
219.57 -729.95 5.76 
219.22 -729.83 5.76 
238.34 -730.37 5.57 
238.18 -730.34 5.57 
237.66 -730.31 5.57 
235.62 -730.25 5.58 
235.26 -730.30 5.59 
234.26 -730.24 5.60 
230.33 -730.14 5.67 
241.41 -730.66 5.59 
238.00 -730.68 5.60 
236.15 -730.52 5.60 
232.90 -730.58 5.66 
229.47 -730.73 5.58 
228.72 -730.60 5.58 
239.44 -731.11 5.64 
237.26 -730.99 5.64 
234.72 -730.81 5.65 
231.58 -731.06 5.58 
229.63 -730.87 5.59 
229.11 -731.01 5.61 
228.84 -730.92 5.61 
228.41 -730.99 5.63 
220.36 -730.97 5.84 
220.14 -730.91 5.84 
237.80 -731.21 5.66 
236.32 -731.37 5.69 
235.89 -731.53 5.71 
235.76 -731.27 5.69 
232.55 -731.54 5.62 
220.41 -731.35 5.87 
232.32 -731.82 5.65 
233.61 -732.21 5.81 
236.61 -729.96 6.06 
235.49 -729.93 6.06 
231.53 -729.93 6.24 
231.22 -729.71 6.22 
229.45 -729.79 6.13 
241.37 -730.33 6.16 
240.81 -730.26 6.15 
237.35 -730.36 6.11 
234.12 -730.01 6.18 
233.61 -730.25 6.12 
230.32 -730.34 6.18 
230.18 -730.04 6.29 
229.81 -730.08 6.16 
220.27 -730.32 6.01 
241.02 -730.39 6.17 
239.96 -730.57 6.19 
237.94 -730.69 6.15 
237.59 -730.67 6.15 
236.89 -730.43 6.12 
236.43 -730.51 6.13 
232.81 -730.72 6.19 
230.46 -730.80 6.23 
240.72 -731.13 6.26 
237.57 -730.79 6.17 
237.24 -730.91 6.25 
236.11 -731.11 6.29 
229.98 -731.02 6.27 
241.27 -731.17 6.26 
237.79 -731.26 6.29 
237.21 -731.55 6.33 
236.77 -731.36 6.31 
220.04 -730.38 6.53 
228.12 -730.66 6.44 
226.91 -730.50 6.47 
233.48 -731.37 6.37 
228.49 -731.51 6.53 
235.11 -729.93 6.70 
234.84 -729.81 6.74 
234.45 -729.94 6.70 
234.07 -729.81 6.72 
232.88 -729.90 6.72 
240.98 -729.97 6.70 
234.83 -730.04 6.71 
233.80 -730.06 6.73 
233.24 -730.06 6.73 
232.65 -730.08 6.75 
228.04 -730.29 7.05 
235.96 -730.56 6.80 
234.12 -730.75 6.83 
233.75 -730.54 6.80 
233.38 -730.64 6.82 
228.67 -730.55 6.91 
227.74 -730.49 7.09 
227.27 -730.55 7.01 
238.76 -730.85 6.84 
238.18 -730.85 6.83 
234.50 -730.90 6.91 
227.78 -730.83 6.98 
229.11 -731.28 7.00 
237.66 -731.60 6.94 
237.52 -732.09 7.03 
236.87 -732.16 7.03 
234.71 -729.82 7.32 
233.78 -729.86 7.33 
234.45 -730.16 7.38 
233.95 -730.09 7.37 
220.22 -730.23 7.24 
219.58 -730.04 7.25 
236.99 -730.41 7.41 
236.43 -730.59 7.44 
236.02 -730.51 7.43 
219.68 -730.74 7.34 
237.39 -731.01 7.52 
236.43 -730.92 7.50 
237.25 -731.34 7.58 
236.66 -731.17 7.54 
237.84 -731.77 7.65 
232.39 -731.67 7.74 
234.18 -729.75 7.95 
228.01 -729.76 5.07 
227.27 -730.08 5.11 
230.31 -730.49 5.09 
229.06 -730.67 5.12 
228.11 -730.52 5.13 
229.09 -731.20 5.16 
228.78 -730.91 5.15 
227.73 -730.98 5.17 
229.24 -731.36 5.17 
236.53 -732.88 5.20 
239.21 -729.93 5.52 
237.12 -729.73 5.52 
236.68 -729.85 5.53 
230.71 -729.73 5.62 
219.62 -730.02 5.79 
219.43 -729.94 5.78 
240.61 -730.11 5.54 
239.05 -730.33 5.56 
237.42 -730.35 5.58 
234.04 -730.27 5.61 
233.90 -730.24 5.61 
219.77 -730.13 5.79 
241.06 -730.71 5.60 
238.71 -730.68 5.60 
238.32 -730.71 5.61 
237.81 -730.45 5.59 
236.21 -730.42 5.60 
235.76 -730.55 5.62 
235.29 -730.60 5.63 
235.12 -730.46 5.61 
231.79 -730.78 5.56 
229.64 -730.71 5.59 
228.55 -730.72 5.61 
237.62 -730.81 5.62 
236.89 -731.08 5.66 
236.15 -730.82 5.64 
235.58 -731.02 5.67 
234.88 -731.07 5.68 
234.63 -730.81 5.66 
234.35 -730.81 5.66 
232.36 -730.95 5.57 
230.17 -730.92 5.76 
228.98 -731.07 5.64 
227.67 -731.11 5.84 
227.56 -730.86 5.82 
220.50 -731.05 5.86 
220.36 -730.93 5.85 
237.86 -731.31 5.67 
235.39 -731.49 5.72 
237.24 -731.71 5.72 
235.92 -731.65 5.73 
235.35 -731.62 5.73 
233.23 -731.99 5.80 
233.36 -732.16 5.82 
232.96 -732.09 5.68 
237.77 -729.78 6.10 
232.17 -729.76 6.20 
240.46 -730.12 6.14 
239.92 -730.05 6.13 
239.57 -730.14 6.14 
236.73 -730.31 6.12 
234.47 -730.01 6.09 
233.13 -730.08 6.11 
230.46 -730.33 6.18 
229.83 -730.11 6.17 
240.81 -730.39 6.17 
237.02 -730.53 6.15 
236.16 -731.01 6.28 
235.88 -731.04 6.29 
233.52 -731.14 6.34 
237.43 -731.38 6.31 
236.87 -731.51 6.33 
236.32 -731.31 6.31 
219.37 -729.74 6.49 
218.94 -729.87 6.53 
228.73 -730.43 6.38 
227.54 -730.87 6.48 
240.39 -729.83 6.69 
235.18 -729.87 6.70 
230.08 -729.83 6.88 
235.02 -729.94 6.71 
234.54 -730.03 6.73 
234.07 -730.04 6.73 
233.91 -730.16 6.75 
233.43 -730.05 6.77 
233.19 -730.03 6.81 
236.15 -730.58 6.80 
235.98 -730.39 6.78 
234.09 -730.50 6.80 
227.71 -730.38 7.06 
227.41 -730.50 6.99 
226.70 -730.52 7.13 
237.60 -730.83 6.85 
234.28 -730.83 6.85 
233.51 -730.77 6.85 
231.70 -730.78 6.97 
229.05 -731.10 7.11 
227.41 -731.71 7.12 
234.80 -729.81 7.33 
219.44 -729.83 7.22 
234.56 -730.15 7.39 
232.96 -730.16 7.41 
232.59 -730.12 7.41 
237.09 -730.45 7.44 
236.57 -730.64 7.47 
236.15 -730.61 7.46 
235.48 -730.54 7.45 
234.44 -730.31 7.42 
220.67 -730.69 7.27 
219.73 -730.62 7.31 
236.29 -730.96 7.53 
227.44 -730.70 7.65 
236.00 -731.21 7.57 
232.86 -731.46 7.64 
230.23 -730.51 4.99 
228.62 -730.76 5.04 
228.27 -730.55 5.03 
227.94 -730.70 5.04 
228.36 -730.84 5.05 
227.85 -730.87 5.06 
236.59 -732.52 5.08 
218.14 -729.97 5.22 
218.01 -729.84 5.21 
237.13 -729.79 5.44 
236.61 -729.84 5.45 
240.51 -730.16 5.47 
238.27 -730.05 5.46 
236.24 -730.32 5.50 
235.15 -730.34 5.51 
234.83 -730.25 5.51 
233.94 -730.27 5.52 
233.50 -730.08 5.51 
219.45 -730.06 5.68 
219.11 -730.06 5.92 
237.47 -730.53 5.51 
235.71 -730.51 5.52 
235.32 -730.43 5.52 
235.09 -730.37 5.52 
231.61 -730.73 5.47 
229.23 -730.53 5.63 
228.50 -730.77 5.51 
237.85 -731.08 5.57 
235.66 -730.75 5.55 
234.92 -731.00 5.58 
234.58 -731.08 5.59 
234.40 -730.76 5.56 
231.82 -730.95 5.49 
228.67 -731.11 5.55 
236.04 -731.47 5.62 
235.41 -731.40 5.62 
230.18 -731.46 5.56 
229.80 -731.37 5.56 
228.86 -731.19 5.55 
232.57 -731.93 5.58 
232.38 -731.75 5.57 
238.08 -732.18 5.68 
237.80 -729.72 6.01 
237.65 -729.87 6.03 
229.62 -729.94 6.05 
220.92 -729.82 6.30 
240.48 -730.16 6.07 
239.95 -730.07 6.06 
233.14 -729.98 6.01 
232.85 -730.24 6.14 
230.33 -730.30 6.09 
240.72 -730.40 6.10 
239.64 -730.41 6.10 
237.14 -730.67 6.14 
231.23 -730.60 6.11 
236.96 -731.01 6.18 
236.78 -731.01 6.18 
236.41 -731.04 6.19 
227.86 -730.96 6.22 
237.40 -731.19 6.20 
236.22 -731.19 6.21 
235.85 -731.29 6.23 
237.11 -731.52 6.25 
219.28 -729.85 6.38 
219.09 -729.77 6.38 
227.45 -730.60 6.33 
226.63 -730.53 6.35 
226.58 -731.82 6.51 
237.32 -732.20 6.33 
236.59 -731.95 6.31 
240.29 -729.86 6.63 
233.99 -729.69 6.64 
233.60 -729.79 6.66 
219.74 -729.85 7.06 
219.46 -729.85 7.08 
219.20 -729.70 7.07 
240.73 -729.96 6.65 
235.02 -729.95 6.63 
234.66 -730.03 6.65 
234.29 -730.07 6.65 
233.36 -730.26 6.74 
233.15 -730.07 6.66 
232.69 -730.10 6.73 
232.31 -730.22 6.76 
227.81 -730.33 6.80 
227.42 -730.30 6.80 
227.25 -730.20 6.79 
219.63 -730.00 7.09 
237.46 -730.48 6.72 
234.12 -730.48 6.72 
233.70 -730.46 6.72 
233.36 -730.63 6.74 
228.15 -730.48 6.81 
228.00 -730.37 6.80 
227.58 -730.43 6.82 
233.54 -730.82 6.77 
237.31 -731.97 6.94 
234.65 -729.81 7.25 
234.63 -730.01 7.28 
232.60 -729.97 7.29 
227.83 -730.19 7.43 
234.88 -730.59 7.39 
234.50 -730.47 7.36 
234.30 -730.30 7.34 
219.91 -730.45 7.14 
219.61 -730.57 7.17 
236.43 -730.66 7.40 
236.25 -731.07 7.47 
227.03 -730.19 8.13 
227.16 -730.09 4.94 
228.06 -730.53 4.96 
237.67 -730.81 4.87 
228.98 -731.13 4.99 
236.96 -731.28 4.91 
229.12 -731.29 5.00 
217.97 -729.81 5.13 
219.45 -729.96 5.58 
218.62 -729.87 5.82 
241.49 -729.95 5.40 
237.46 -729.94 5.39 
237.29 -730.17 5.41 
236.39 -729.96 5.40 
235.87 -730.20 5.43 
229.96 -730.22 5.51 
218.95 -730.14 5.84 
237.28 -730.45 5.44 
236.92 -730.50 5.45 
236.06 -730.59 5.47 
235.52 -730.51 5.46 
235.16 -730.48 5.46 
234.41 -730.69 5.49 
233.93 -730.33 5.46 
233.74 -730.32 5.46 
232.81 -730.45 5.48 
234.34 -730.91 5.51 
231.52 -730.81 5.41 
230.16 -730.83 5.57 
229.61 -730.87 5.58 
228.82 -730.98 5.61 
228.32 -730.83 5.45 
228.12 -731.07 5.48 
237.72 -731.13 5.51 
235.70 -731.26 5.54 
231.89 -731.15 5.51 
228.77 -731.22 5.49 
232.33 -731.73 5.50 
233.22 -732.10 5.65 
232.78 -732.09 5.54 
238.03 -732.68 5.67 
237.61 -729.75 5.96 
241.23 -730.20 6.04 
239.96 -730.08 6.01 
232.76 -729.95 5.95 
232.50 -730.13 6.06 
232.16 -730.03 6.05 
240.73 -730.43 6.06 
233.03 -730.31 6.07 
228.79 -730.33 6.17 
236.48 -731.00 6.12 
235.97 -731.02 6.13 
230.27 -730.97 6.10 
241.46 -731.05 6.14 
236.34 -731.39 6.17 
230.64 -731.26 6.13 
230.79 -731.64 6.18 
219.12 -729.79 6.28 
219.62 -729.96 6.28 
227.36 -730.57 6.24 
226.60 -730.49 6.26 
226.47 -730.51 6.27 
236.98 -731.81 6.22 
226.69 -731.88 6.43 
237.04 -732.34 6.29 
233.77 -729.79 6.59 
230.36 -729.85 6.63 
219.44 -729.88 6.98 
240.65 -729.87 6.59 
234.83 -730.05 6.60 
234.35 -730.03 6.60 
233.71 -730.13 6.61 
233.38 -730.04 6.63 
219.13 -730.03 7.01 
237.30 -730.46 6.66 
234.01 -730.51 6.67 
233.20 -730.28 6.67 
230.11 -730.33 6.67 
227.98 -730.36 6.72 
227.53 -730.33 6.72 
227.14 -730.30 6.73 
219.64 -730.42 7.04 
219.32 -730.56 7.08 
233.53 -730.95 6.73 
229.13 -731.06 6.89 
226.01 -730.92 6.99 
220.28 -730.99 7.09 
233.37 -731.14 6.76 
237.18 -732.00 6.89 
234.60 -729.90 7.22 
233.87 -730.08 7.25 
233.67 -729.97 7.22 
228.76 -730.21 7.33 
234.46 -730.51 7.32 
227.61 -730.40 7.39 
227.05 -730.18 8.04 
238.10 -730.90 4.34 
237.99 -731.48 4.37 
227.60 -729.72 5.01 
229.96 -730.25 5.01 
227.60 -729.99 5.04 
230.48 -730.48 5.02 
229.35 -730.61 5.05 
229.15 -730.70 5.06 
238.98 -730.80 4.94 
237.80 -730.81 4.95 
237.10 -732.23 5.07 
236.95 -732.37 5.08 
236.77 -732.53 5.09 
230.43 -730.26 5.47 
236.63 -729.75 5.46 
219.46 -729.76 5.70 
240.99 -730.07 5.48 
238.64 -729.90 5.46 
238.29 -730.07 5.48 
236.90 -730.16 5.50 
236.70 -729.92 5.47 
234.98 -730.20 5.52 
234.10 -730.14 5.52 
230.16 -730.19 5.60 
240.62 -730.50 5.52 
237.04 -730.47 5.53 
235.98 -730.56 5.55 
235.34 -730.46 5.54 
232.97 -730.67 5.60 
229.74 -730.39 5.63 
229.15 -730.67 5.67 
219.84 -730.44 5.75 
238.28 -730.75 5.55 
237.74 -730.89 5.57 
236.28 -730.99 5.59 
235.72 -730.91 5.58 
234.97 -730.95 5.60 
234.71 -730.82 5.59 
234.44 -730.79 5.59 
228.64 -731.02 5.58 
228.28 -730.74 5.56 
220.50 -730.95 5.78 
220.27 -730.97 5.79 
219.89 -730.76 5.78 
238.53 -731.21 5.60 
235.56 -731.21 5.62 
232.42 -731.17 5.66 
229.60 -731.43 5.61 
229.25 -731.11 5.72 
228.66 -731.24 5.60 
228.46 -731.09 5.59 
232.19 -731.63 5.60 
229.43 -731.54 5.62 
238.17 -732.15 5.69 
233.40 -732.07 5.73 
233.11 -732.21 5.75 
232.69 -732.01 5.63 
230.94 -732.32 5.80 
238.63 -729.74 6.04 
232.61 -729.83 6.11 
220.95 -729.77 6.33 
220.74 -729.77 6.33 
220.25 -729.71 6.35 
218.97 -729.78 6.41 
240.48 -729.89 6.07 
237.79 -729.84 6.06 
241.34 -730.45 6.14 
233.20 -730.28 6.16 
230.78 -730.53 6.15 
230.05 -730.28 6.13 
236.74 -730.93 6.20 
236.28 -731.16 6.23 
233.53 -731.14 6.26 
237.44 -731.49 6.27 
237.79 -731.52 6.27 
237.13 -731.58 6.28 
236.75 -732.22 6.36 
233.73 -729.70 6.66 
231.55 -729.69 6.66 
219.42 -729.79 7.08 
233.58 -730.16 6.73 
232.87 -730.05 6.71 
227.86 -730.10 6.84 
219.92 -730.16 7.11 
219.06 -730.06 7.14 
233.38 -730.24 6.75 
228.50 -730.38 6.82 
228.31 -730.38 6.82 
227.49 -730.35 6.87 
227.07 -730.41 6.89 
226.85 -730.59 7.00 
220.23 -730.48 7.14 
220.04 -730.34 7.13 
219.59 -730.39 7.16 
237.56 -730.90 6.81 
226.62 -730.74 7.03 
231.25 -731.28 6.95 
229.05 -731.16 6.92 
237.39 -732.03 6.98 
233.97 -729.70 7.29 
232.69 -730.11 7.36 
232.46 -729.93 7.33 
226.99 -730.14 8.13 
232.33 -730.41 8.08 
238.25 -730.87 4.19 
237.98 -731.48 4.22 
230.44 -745.80 4.90 
229.69 -730.28 4.85 
230.20 -730.50 4.86 
229.06 -730.63 4.89 
228.19 -730.50 4.89 
237.87 -730.81 4.80 
227.91 -730.92 4.93 
227.71 -730.98 4.94 
238.15 -731.34 4.84 
229.13 -731.43 4.95 
237.14 -731.57 4.87 
236.60 -732.57 4.95 
236.82 -732.85 4.97 
217.97 -729.80 5.09 
237.03 -733.17 4.99 
219.14 -729.77 5.52 
218.42 -729.84 5.55 
239.61 -730.17 5.36 
238.63 -729.91 5.33 
236.99 -730.10 5.35 
236.80 -729.89 5.33 
236.23 -730.06 5.35 
235.93 -730.21 5.37 
233.94 -730.16 5.38 
232.52 -730.08 5.39 
230.06 -730.16 5.43 
219.13 -730.13 5.76 
239.12 -730.47 5.39 
237.83 -730.55 5.40 
237.16 -730.50 5.39 
236.33 -730.38 5.38 
235.79 -730.62 5.41 
235.59 -730.49 5.40 
233.76 -730.33 5.40 
232.69 -730.48 5.42 
238.60 -730.67 5.41 
238.42 -730.74 5.41 
234.43 -730.83 5.44 
231.95 -731.03 5.49 
228.86 -730.75 5.52 
241.40 -731.03 5.45 
237.52 -731.15 5.46 
231.78 -731.37 5.42 
229.12 -731.39 5.58 
228.94 -731.30 5.57 
226.64 -731.29 5.62 
236.04 -731.62 5.51 
232.32 -731.50 5.53 
228.91 -731.69 5.61 
241.45 -731.84 5.53 
238.31 -732.15 5.56 
231.69 -729.69 5.95 
219.24 -729.78 6.19 
237.89 -729.85 5.93 
232.02 -730.13 6.00 
230.07 -730.05 6.02 
229.65 -730.01 5.94 
229.14 -730.06 6.05 
228.24 -729.88 5.94 
228.05 -729.96 5.96 
220.08 -730.03 6.19 
219.65 -730.10 6.22 
218.82 -729.91 6.23 
232.90 -730.26 6.00 
231.16 -730.35 5.97 
228.72 -730.42 6.10 
226.75 -730.50 6.17 
226.53 -730.30 6.15 
236.78 -730.94 6.06 
237.14 -731.07 6.08 
236.27 -731.15 6.09 
235.94 -731.12 6.08 
233.40 -731.08 6.10 
233.25 -731.32 6.13 
229.84 -731.36 6.11 
229.45 -731.13 6.08 
219.32 -730.16 6.44 
241.24 -731.13 6.11 
239.27 -731.12 6.09 
238.54 -731.34 6.11 
237.59 -731.37 6.11 
237.97 -731.53 6.13 
236.90 -732.02 6.20 
226.69 -731.96 6.35 
237.56 -732.40 6.24 
236.51 -732.50 6.25 
233.93 -729.69 6.51 
229.23 -729.69 6.60 
219.96 -729.72 6.83 
218.68 -729.76 6.90 
234.30 -729.86 6.53 
233.49 -729.91 6.54 
233.24 -730.05 6.57 
232.84 -729.97 6.55 
228.90 -730.19 6.62 
228.17 -729.82 6.57 
227.75 -730.10 6.62 
227.36 -730.19 6.64 
219.87 -730.04 6.88 
232.36 -730.33 6.62 
227.78 -730.59 6.77 
227.17 -730.54 6.74 
226.96 -730.56 6.71 
220.18 -730.36 6.91 
220.15 -730.34 6.91 
219.50 -730.46 6.96 
237.85 -730.61 6.64 
228.31 -730.62 6.76 
220.18 -730.89 6.99 
219.81 -730.78 6.99 
237.70 -731.04 6.70 
237.51 -732.04 6.85 
228.44 -731.85 6.87 
230.00 -729.94 7.20 
219.27 -729.91 7.58 
231.94 -731.56 7.45 
227.05 -731.62 7.54 
226.75 -730.44 8.02 
226.92 -730.65 8.05 
238.08 -730.91 4.11 
238.37 -731.31 4.12 
238.00 -731.52 4.14 
229.67 -730.28 4.75 
228.91 -730.56 4.79 
238.83 -730.78 4.72 
236.55 -730.94 4.74 
228.88 -730.65 4.79 
228.49 -730.78 4.81 
237.12 -731.32 4.76 
229.00 -731.32 4.84 
237.00 -732.40 4.85 
236.84 -732.46 4.85 
236.68 -732.87 4.89 
217.80 -729.75 4.97 
217.59 -729.77 4.98 
230.45 -730.30 5.23 
218.43 -729.79 5.52 
240.80 -730.14 5.29 
238.30 -729.92 5.26 
237.99 -730.09 5.27 
237.70 -729.98 5.26 
236.98 -730.20 5.28 
236.71 -730.06 5.27 
236.42 -729.92 5.26 
233.89 -729.90 5.26 
229.30 -730.06 5.34 
228.46 -729.88 5.34 
218.63 -729.93 5.43 
240.32 -730.50 5.32 
240.15 -730.59 5.33 
236.00 -730.46 5.31 
233.05 -730.30 5.31 
232.52 -730.51 5.34 
230.02 -730.35 5.35 
240.51 -730.59 5.34 
235.79 -730.80 5.35 
234.33 -730.75 5.35 
229.05 -730.67 5.40 
239.36 -731.29 5.40 
236.47 -731.39 5.40 
235.66 -731.00 5.37 
231.95 -731.02 5.39 
228.82 -731.29 5.47 
226.55 -731.24 5.51 
240.23 -731.47 5.42 
235.72 -731.74 5.44 
240.13 -731.84 5.46 
238.34 -731.98 5.46 
237.82 -729.70 5.84 
219.81 -729.70 6.04 
229.61 -729.97 5.85 
228.97 -730.04 5.94 
228.37 -729.91 5.85 
228.10 -729.86 5.85 
220.39 -729.91 6.04 
218.90 -730.03 6.11 
230.18 -730.29 5.88 
230.15 -730.26 5.88 
228.75 -730.40 5.99 
227.81 -730.53 6.03 
227.27 -730.44 6.03 
226.52 -730.46 6.06 
219.55 -730.60 6.15 
236.20 -730.86 5.98 
219.72 -730.72 6.16 
236.61 -731.04 6.00 
236.44 -731.21 6.02 
233.26 -731.17 6.02 
230.81 -731.53 6.03 
230.46 -732.17 6.11 
219.45 -730.40 6.32 
239.29 -731.02 6.01 
238.48 -731.00 6.00 
237.86 -731.70 6.08 
237.45 -731.46 6.05 
236.10 -731.46 6.05 
227.79 -731.65 6.17 
226.43 -731.78 6.22 
236.91 -731.88 6.10 
237.24 -732.43 6.17 
237.90 -732.70 6.21 
233.53 -729.74 6.43 
218.72 -729.70 6.75 
234.42 -729.88 6.45 
233.37 -730.02 6.48 
233.19 -730.06 6.48 
232.75 -730.10 6.49 
227.73 -730.02 6.51 
220.43 -729.80 6.69 
219.75 -729.97 6.74 
237.44 -730.44 6.55 
233.22 -730.22 6.51 
229.54 -730.29 6.53 
228.39 -730.19 6.58 
227.22 -730.25 6.59 
237.71 -730.82 6.60 
235.97 -730.57 6.55 
234.35 -730.88 6.60 
234.14 -730.90 6.60 
226.91 -730.61 6.61 
220.06 -730.87 6.86 
219.74 -730.64 6.84 
230.27 -731.25 6.70 
229.02 -730.11 7.16 
226.52 -730.29 7.28 
219.30 -729.93 7.44 
218.62 -730.17 7.51 
227.28 -731.43 7.41 
239.99 -729.81 4.56 
230.38 -730.15 4.56 
229.84 -730.31 4.57 
238.03 -730.79 4.61 
237.21 -731.09 4.63 
238.51 -731.41 4.65 
236.99 -732.79 4.74 
239.53 -729.70 5.17 
236.00 -729.73 5.14 
239.41 -729.86 5.18 
238.14 -730.09 5.18 
235.95 -730.02 5.16 
229.48 -730.10 5.15 
227.73 -729.83 5.14 
218.10 -729.86 5.24 
237.48 -730.52 5.22 
237.10 -730.50 5.21 
236.38 -730.27 5.19 
235.90 -730.31 5.19 
235.72 -730.16 5.17 
229.80 -730.28 5.17 
229.64 -730.24 5.17 
239.96 -730.89 5.27 
238.85 -730.67 5.24 
238.55 -730.86 5.25 
236.73 -730.59 5.22 
236.43 -730.92 5.24 
229.43 -730.65 5.20 
229.26 -730.59 5.20 
228.68 -730.84 5.22 
228.36 -730.67 5.21 
238.78 -731.00 5.27 
236.61 -730.98 5.25 
230.71 -731.69 5.29 
241.16 -729.70 5.82 
236.27 -729.69 5.73 
231.25 -729.72 5.70 
217.39 -729.73 5.91 
236.47 -729.89 5.76 
235.86 -729.92 5.75 
232.27 -729.89 5.72 
231.50 -729.95 5.73 
218.91 -730.14 5.91 
218.20 -729.95 5.71 
217.99 -729.98 5.72 
240.55 -730.22 5.86 
238.98 -730.31 5.84 
238.37 -730.20 5.82 
238.00 -730.26 5.82 
235.53 -730.34 5.79 
235.39 -730.36 5.80 
234.34 -730.18 5.77 
234.02 -730.45 5.79 
233.38 -730.34 5.78 
232.15 -730.31 5.77 
229.44 -730.28 5.77 
218.68 -730.24 5.93 
237.55 -730.79 5.87 
235.23 -730.54 5.81 
233.19 -730.68 5.81 
232.77 -730.75 5.82 
232.52 -730.60 5.80 
228.50 -730.91 5.73 
228.11 -730.72 5.71 
220.26 -730.87 5.78 
219.94 -730.82 5.78 
237.93 -731.08 5.90 
236.90 -731.31 5.92 
234.92 -730.98 5.86 
233.40 -730.96 5.85 
233.05 -731.06 5.86 
229.93 -731.22 5.87 
229.47 -731.28 5.77 
227.18 -731.13 5.87 
237.38 -731.69 5.96 
233.63 -731.43 5.90 
236.05 -732.17 6.00 
220.50 -729.69 6.30 
238.04 -729.83 6.39 
237.57 -730.08 6.41 
233.48 -729.95 6.34 
233.12 -729.90 6.33 
232.68 -729.91 6.33 
232.47 -729.78 6.31 
231.04 -729.93 6.32 
229.38 -730.09 6.29 
220.04 -729.87 6.33 
219.06 -729.81 6.35 
233.88 -730.39 6.40 
233.74 -730.47 6.41 
232.65 -730.37 6.39 
232.28 -730.26 6.37 
232.13 -730.21 6.36 
231.42 -730.41 6.39 
230.00 -730.27 6.31 
227.78 -730.48 6.42 
220.10 -730.46 6.41 
235.80 -730.82 6.48 
235.60 -730.67 6.46 
227.11 -730.85 6.38 
236.39 -730.90 6.50 
236.07 -731.04 6.51 
235.49 -731.04 6.50 
219.89 -729.80 6.50 
219.71 -729.82 6.51 
239.94 -730.21 6.48 
239.37 -730.29 6.48 
238.63 -730.45 6.48 
219.21 -730.45 6.61 
237.62 -731.08 6.54 
237.27 -731.22 6.56 
236.75 -731.15 6.54 
236.04 -731.08 6.52 
237.13 -731.44 6.58 
236.39 -731.68 6.60 
236.67 -732.06 6.66 
228.01 -731.96 6.61 
226.68 -731.85 6.61 
233.50 -729.89 6.93 
219.28 -729.70 6.99 
218.79 -729.84 7.03 
230.16 -730.25 6.96 
229.23 -730.21 6.95 
228.33 -730.21 6.96 
227.98 -730.21 6.94 
227.62 -730.22 6.96 
227.22 -730.19 6.95 
226.93 -730.20 6.94 
220.08 -730.34 7.07 
219.64 -730.21 7.06 
237.35 -730.72 7.13 
232.12 -730.66 7.04 
228.03 -730.58 7.02 
220.00 -730.77 7.14 
228.46 -731.14 7.13 
228.87 -731.53 7.15 
226.52 -730.22 7.63 
238.09 -730.89 4.04 
239.62 -729.76 4.61 
218.13 -729.85 4.71 
230.28 -730.52 4.63 
229.70 -730.42 4.62 
238.78 -730.77 4.67 
237.83 -730.94 4.68 
237.39 -730.81 4.66 
236.63 -730.88 4.66 
228.52 -730.73 4.65 
237.09 -731.14 4.69 
236.93 -731.29 4.69 
228.66 -731.20 4.68 
238.30 -729.92 5.23 
237.88 -729.95 5.22 
236.51 -730.03 5.21 
236.10 -729.93 5.20 
218.02 -729.85 5.36 
238.13 -730.32 5.26 
236.90 -730.55 5.27 
235.57 -730.49 5.25 
230.27 -730.27 5.21 
229.43 -730.39 5.22 
240.91 -730.87 5.36 
240.57 -730.57 5.33 
238.74 -730.65 5.30 
228.85 -730.76 5.26 
238.06 -731.04 5.33 
229.24 -731.02 5.28 
226.66 -731.01 5.30 
241.40 -731.51 5.43 
236.09 -731.47 5.34 
232.89 -729.70 5.75 
232.36 -729.76 5.75 
231.80 -729.74 5.75 
228.82 -729.71 5.69 
218.95 -729.74 5.80 
237.24 -729.76 5.81 
229.08 -730.05 5.79 
228.04 -729.85 5.71 
220.30 -729.89 5.79 
220.00 -729.97 5.80 
233.13 -730.28 5.82 
227.63 -730.48 5.85 
227.26 -730.39 5.85 
226.82 -730.45 5.86 
220.43 -730.33 5.84 
220.21 -730.48 5.86 
230.46 -730.98 5.89 
230.15 -730.98 5.90 
239.93 -730.02 5.91 
239.68 -729.90 5.89 
218.64 -729.77 5.99 
238.32 -731.24 6.01 
237.47 -731.21 5.99 
237.27 -731.15 5.97 
236.46 -731.09 5.95 
236.09 -731.04 5.94 
237.96 -731.48 6.03 
235.73 -731.65 6.01 
233.47 -731.43 5.96 
237.07 -731.94 6.06 
237.36 -732.27 6.11 
236.74 -732.15 6.08 
228.28 -733.03 6.08 
220.06 -729.70 6.42 
219.18 -729.69 6.44 
218.22 -729.73 6.65 
230.96 -730.06 6.38 
230.40 -729.78 6.34 
230.25 -729.82 6.35 
219.58 -730.04 6.48 
218.86 -729.89 6.56 
218.41 -729.83 6.65 
232.91 -730.14 6.40 
228.67 -730.42 6.44 
227.80 -730.46 6.46 
220.01 -730.38 6.52 
238.32 -730.69 6.59 
237.55 -730.74 6.57 
228.84 -730.82 6.50 
227.54 -730.59 6.45 
230.31 -731.27 6.55 
219.87 -730.08 7.14 
219.20 -729.89 7.13 
226.71 -730.48 7.09 
226.37 -730.71 7.14 
218.63 -730.12 7.19 
219.32 -730.53 7.23 
227.15 -730.42 7.74 
238.00 -730.90 4.16 
238.41 -731.45 4.19 
218.15 -729.79 4.77 
217.79 -729.96 4.79 
229.93 -730.28 4.72 
228.32 -730.50 4.74 
238.16 -730.74 4.80 
237.57 -730.83 4.80 
236.79 -730.90 4.80 
228.52 -730.94 4.77 
237.06 -731.11 4.81 
237.17 -732.87 4.94 
237.44 -729.86 5.35 
236.80 -729.74 5.33 
236.13 -729.99 5.34 
235.82 -729.95 5.33 
234.03 -729.96 5.31 
218.51 -729.92 5.23 
240.51 -730.33 5.46 
239.52 -730.51 5.45 
237.99 -730.24 5.40 
236.50 -730.26 5.37 
233.91 -730.13 5.33 
233.19 -730.20 5.33 
230.20 -730.30 5.32 
229.60 -730.38 5.33 
218.82 -730.45 5.45 
218.59 -730.50 5.46 
238.17 -730.89 5.46 
235.73 -730.61 5.39 
232.89 -730.75 5.38 
232.19 -730.90 5.38 
229.06 -730.72 5.36 
239.41 -731.26 5.52 
226.64 -731.02 5.40 
238.71 -731.67 5.54 
237.88 -731.75 5.53 
236.33 -732.09 5.54 
233.29 -731.91 5.49 
237.35 -732.15 5.56 
233.29 -732.13 5.51 
238.01 -732.76 5.63 
237.61 -729.87 5.98 
237.02 -729.73 5.95 
232.44 -730.06 5.91 
227.35 -730.04 5.90 
220.02 -729.79 5.85 
219.71 -729.84 5.94 
218.62 -729.88 5.89 
233.91 -730.32 5.96 
233.39 -730.30 5.95 
228.96 -730.35 5.93 
227.66 -730.46 5.95 
227.41 -730.34 5.93 
226.96 -730.39 5.94 
226.69 -730.36 5.94 
220.08 -730.48 5.93 
219.48 -730.46 5.94 
236.06 -730.53 6.02 
228.12 -730.52 5.95 
220.45 -730.60 5.94 
220.20 -730.73 5.96 
230.34 -731.00 6.01 
228.50 -731.33 6.05 
227.94 -731.49 6.07 
218.49 -729.69 6.03 
239.92 -729.96 6.06 
237.76 -730.82 6.10 
219.13 -730.56 6.11 
236.58 -730.99 6.09 
236.01 -730.94 6.07 
235.84 -731.21 6.10 
235.25 -731.05 6.07 
232.77 -731.29 6.06 
237.30 -731.33 6.15 
228.30 -732.00 6.13 
227.73 -731.78 6.11 
238.88 -732.23 6.29 
233.68 -730.04 6.53 
232.96 -729.97 6.51 
227.71 -729.84 6.45 
227.53 -729.90 6.46 
219.96 -729.86 6.51 
219.38 -729.83 6.52 
218.59 -729.84 6.61 
230.30 -730.26 6.52 
227.97 -730.45 6.55 
220.04 -730.47 6.59 
219.04 -730.43 6.61 
218.47 -730.20 6.74 
237.38 -730.83 6.74 
231.98 -730.86 6.63 
229.05 -730.49 6.56 
227.78 -730.52 6.56 
227.56 -730.63 6.56 
231.05 -731.00 6.64 
228.49 -731.58 6.71 
219.26 -729.92 7.19 
219.09 -729.78 7.17 
219.70 -730.26 7.23 
226.38 -730.71 7.22 
226.22 -730.51 7.19 
218.53 -730.13 7.25 
227.43 -731.46 7.36 
227.17 -730.25 7.82 
239.12 -730.87 4.26 
237.94 -730.87 4.25 
217.83 -729.71 4.76 
241.33 -729.71 4.88 
227.73 -729.75 4.73 
227.52 -729.97 4.74 
217.93 -729.95 4.78 
230.29 -730.48 4.79 
229.80 -730.27 4.77 
238.70 -730.65 4.90 
237.25 -730.71 4.88 
236.80 -730.58 4.87 
229.49 -730.70 4.81 
229.21 -730.65 4.80 
241.24 -729.95 4.90 
240.43 -729.77 5.53 
237.78 -729.93 5.47 
237.26 -729.72 5.44 
236.52 -729.78 5.43 
236.23 -729.79 5.42 
235.86 -729.87 5.42 
235.56 -729.81 5.41 
218.26 -730.02 5.24 
218.10 -729.92 5.41 
217.49 -730.00 5.43 
238.88 -730.17 5.52 
235.32 -730.34 5.46 
234.21 -730.22 5.42 
233.80 -730.40 5.44 
233.51 -730.38 5.43 
233.02 -730.47 5.43 
239.51 -730.50 5.57 
233.18 -730.58 5.44 
232.73 -730.77 5.46 
227.39 -730.83 5.42 
240.97 -731.23 5.68 
238.99 -730.91 5.59 
237.95 -730.91 5.57 
232.96 -730.93 5.47 
227.72 -731.01 5.44 
227.11 -731.17 5.45 
226.82 -731.20 5.46 
232.42 -731.33 5.51 
238.64 -731.66 5.66 
236.08 -732.20 5.65 
232.58 -729.92 5.98 
231.68 -730.02 5.98 
220.03 -729.77 5.85 
