# .PCD v0.7 - Point Cloud Data file format
VERSION 0.7
FIELDS x y z
SIZE 4 4 4
TYPE F F F
COUNT 1 1 1
WIDTH 2277
HEIGHT 1
VIEWPOINT 0 0 0 1 0 0 0
POINTS 2277
DATA ascii
226.21 -722.34 6.17 
241.37 -724.97 6.23 
239.87 -727.66 6.14 
241.51 -727.81 6.51 
239.42 -729.67 6.32 
223.36 -710.27 6.06 
223.36 -710.48 6.07 
223.39 -710.83 6.09 
232.81 -726.04 6.87 
232.26 -726.21 6.92 
241.18 -727.85 6.53 
240.79 -728.10 6.58 
239.64 -728.60 6.69 
237.59 -728.46 6.79 
239.56 -729.01 6.74 
237.93 -728.95 6.82 
237.77 -728.85 6.82 
239.71 -727.42 7.28 
239.18 -727.37 7.31 
232.90 -727.24 6.97 
240.12 -727.92 7.31 
239.84 -727.95 7.33 
239.30 -727.88 6.94 
233.43 -728.08 7.02 
240.93 -728.55 7.33 
231.64 -728.77 7.20 
231.49 -729.62 7.29 
219.00 -721.95 7.59 
218.64 -721.79 7.60 
239.53 -728.00 7.36 
240.15 -728.41 7.36 
230.12 -728.69 7.64 
240.69 -728.94 7.39 
240.22 -728.87 7.42 
230.25 -728.87 7.65 
240.17 -729.31 7.47 
239.22 -729.44 7.55 
230.01 -726.28 7.94 
232.23 -726.51 7.77 
230.10 -726.69 7.97 
230.79 -727.06 7.95 
230.24 -726.92 7.98 
240.01 -727.15 7.93 
239.34 -727.20 7.99 
238.83 -727.11 8.02 
238.60 -727.10 8.04 
231.80 -727.39 7.90 
239.33 -727.54 8.04 
238.83 -727.42 8.07 
232.73 -727.64 7.84 
232.36 -727.70 7.88 
232.04 -727.63 7.90 
229.67 -728.06 8.15 
229.41 -727.94 8.16 
240.64 -728.03 8.00 
240.22 -728.12 8.04 
230.26 -728.20 8.11 
233.81 -728.68 7.87 
233.46 -728.68 7.90 
233.00 -728.71 7.94 
231.71 -728.66 8.04 
233.79 -729.06 7.91 
241.15 -729.31 8.14 
234.02 -729.47 7.94 
231.70 -729.37 8.12 
241.26 -729.60 8.17 
233.23 -729.58 8.02 
239.51 -728.65 8.18 
239.37 -728.90 8.22 
238.90 -728.78 8.25 
238.89 -729.09 8.29 
238.30 -729.14 8.35 
240.63 -729.37 8.19 
231.97 -726.39 8.60 
233.05 -727.30 8.60 
231.95 -727.72 8.76 
230.10 -727.65 8.94 
231.88 -729.16 8.95 
232.01 -729.33 8.96 
223.76 -710.57 4.08 
240.72 -721.43 4.18 
240.23 -721.46 4.19 
238.77 -721.45 4.21 
238.39 -721.44 4.22 
238.72 -721.99 4.24 
238.45 -722.01 4.24 
241.45 -722.61 4.21 
241.06 -722.58 4.22 
238.42 -722.55 4.27 
235.33 -722.64 4.33 
236.07 -722.94 4.33 
235.68 -722.89 4.33 
234.90 -722.90 4.35 
234.36 -723.04 4.36 
234.06 -723.02 4.37 
233.73 -723.02 4.37 
233.27 -723.01 4.38 
232.79 -723.00 4.39 
219.63 -719.53 4.76 
219.99 -719.64 4.51 
219.17 -720.34 4.80 
219.11 -720.68 4.81 
219.49 -721.56 4.84 
219.25 -721.34 4.84 
238.16 -721.31 4.45 
237.79 -721.33 4.46 
225.40 -722.08 4.74 
234.84 -722.34 4.56 
219.31 -722.62 4.89 
240.72 -722.57 4.45 
233.25 -722.84 4.61 
232.92 -722.79 4.62 
232.33 -722.85 4.63 
235.14 -722.86 4.57 
223.58 -710.09 4.86 
223.68 -710.43 4.87 
223.71 -710.86 4.89 
240.82 -721.40 4.73 
240.32 -721.28 5.01 
238.07 -721.32 4.96 
240.81 -721.69 4.75 
240.36 -721.47 5.02 
238.24 -721.68 4.84 
237.81 -721.52 5.12 
240.81 -722.06 4.77 
238.23 -722.07 4.86 
241.36 -722.61 4.79 
240.91 -722.51 4.86 
240.58 -722.54 5.07 
239.11 -722.61 4.86 
238.84 -722.62 4.87 
238.47 -722.60 4.89 
238.17 -722.53 5.07 
237.83 -722.43 5.17 
241.17 -722.65 4.80 
240.82 -725.02 5.21 
240.65 -724.91 5.21 
234.26 -724.86 5.17 
223.45 -710.63 5.21 
240.84 -721.36 5.29 
239.08 -721.31 5.38 
238.93 -721.25 5.38 
238.47 -721.26 5.40 
219.32 -721.73 5.58 
240.79 -721.68 5.32 
226.12 -722.13 5.33 
225.69 -722.03 5.49 
225.28 -722.06 5.36 
219.42 -722.02 5.60 
240.77 -722.09 5.35 
238.22 -722.18 5.49 
241.35 -722.59 5.36 
240.88 -722.49 5.38 
239.13 -722.57 5.47 
238.97 -722.57 5.48 
238.43 -722.56 5.51 
238.22 -722.43 5.51 
241.18 -722.62 5.37 
219.64 -719.35 5.76 
219.24 -720.31 5.82 
219.18 -720.61 5.84 
237.93 -721.85 5.79 
219.12 -722.00 5.91 
240.96 -724.86 5.84 
241.05 -725.05 5.85 
241.06 -729.31 5.93 
240.77 -729.38 5.95 
223.38 -710.47 6.09 
223.39 -710.86 6.10 
219.97 -721.38 6.50 
225.98 -721.62 6.14 
241.38 -724.96 6.18 
241.50 -725.12 6.19 
241.20 -727.85 6.49 
240.86 -728.05 6.53 
239.60 -729.57 6.28 
232.87 -726.07 6.84 
232.31 -726.27 6.90 
232.38 -726.84 6.95 
238.94 -727.38 6.87 
232.86 -727.36 6.96 
239.23 -727.73 6.88 
232.91 -727.98 7.02 
233.49 -728.07 6.98 
237.61 -728.38 6.75 
240.57 -728.87 6.63 
239.48 -728.77 6.68 
237.87 -728.88 6.79 
239.82 -729.22 6.71 
239.61 -729.08 6.70 
239.76 -727.26 7.20 
239.36 -727.30 7.24 
240.22 -727.87 7.24 
239.91 -727.96 7.27 
240.99 -728.53 7.27 
239.47 -728.21 7.34 
240.84 -728.82 7.32 
240.35 -728.76 7.34 
230.84 -728.98 7.25 
239.41 -729.13 7.01 
218.84 -721.93 7.61 
219.09 -722.09 7.60 
232.25 -726.61 7.73 
232.90 -727.29 7.75 
232.82 -727.65 7.80 
238.78 -727.81 7.66 
233.82 -728.71 7.83 
239.77 -728.89 7.40 
229.84 -726.13 7.90 
230.10 -726.57 7.92 
230.80 -727.08 7.91 
230.20 -726.97 7.95 
240.07 -727.35 7.88 
239.45 -727.10 7.90 
238.81 -727.31 7.99 
232.25 -727.37 7.81 
231.89 -727.43 7.85 
230.84 -727.51 7.95 
228.70 -727.40 8.13 
239.35 -727.64 7.99 
238.89 -727.49 8.01 
240.60 -727.99 7.93 
231.61 -728.21 7.96 
240.63 -728.31 7.97 
239.99 -728.17 8.01 
239.11 -728.32 8.10 
232.91 -728.63 7.90 
240.72 -728.60 8.01 
233.82 -729.08 7.87 
233.14 -728.75 7.89 
234.03 -729.51 7.90 
231.82 -729.38 8.07 
241.33 -729.57 8.10 
241.20 -729.32 8.07 
240.73 -729.51 8.14 
232.16 -726.50 8.53 
233.12 -727.32 8.53 
237.97 -728.75 8.26 
231.91 -727.38 8.67 
230.03 -727.53 8.88 
232.00 -727.80 8.71 
223.77 -710.62 4.01 
238.77 -721.44 4.14 
240.17 -721.44 4.11 
238.20 -721.53 4.15 
240.97 -722.55 4.14 
238.39 -722.60 4.19 
235.35 -722.39 4.24 
236.15 -722.97 4.25 
235.77 -722.95 4.26 
235.37 -722.79 4.26 
234.91 -722.95 4.27 
234.19 -723.03 4.29 
233.73 -723.02 4.30 
233.40 -723.03 4.31 
233.10 -723.02 4.31 
232.77 -723.01 4.32 
223.60 -710.79 4.27 
219.69 -719.01 4.66 
220.33 -719.41 4.42 
220.01 -719.22 4.66 
219.41 -720.31 4.72 
220.02 -720.40 4.47 
219.53 -720.63 4.73 
219.52 -720.95 4.74 
219.33 -721.34 4.76 
238.05 -721.38 4.38 
219.43 -722.59 4.81 
233.23 -722.82 4.53 
232.88 -722.79 4.54 
232.32 -722.85 4.55 
223.65 -710.16 4.76 
223.65 -710.39 4.77 
223.68 -710.75 4.78 
223.71 -711.07 4.80 
240.67 -721.35 4.64 
238.18 -721.27 4.72 
237.86 -721.28 5.00 
240.84 -721.38 4.64 
240.77 -721.72 4.66 
238.19 -721.63 4.74 
237.79 -721.59 5.02 
226.65 -721.80 5.19 
240.81 -722.15 4.69 
240.76 -721.99 4.68 
238.21 -722.10 4.77 
240.79 -722.38 4.70 
239.39 -722.54 4.76 
238.98 -722.60 4.78 
238.63 -722.59 4.79 
238.25 -722.45 4.79 
241.45 -722.58 4.69 
241.02 -722.59 4.71 
238.79 -722.64 4.78 
241.03 -724.42 5.07 
234.49 -724.83 5.07 
223.43 -710.57 5.11 
240.66 -721.34 5.19 
238.17 -721.27 5.31 
219.27 -721.66 5.49 
240.76 -721.59 5.20 
238.19 -721.62 5.34 
225.79 -721.94 5.23 
225.49 -721.95 5.54 
240.77 -722.06 5.24 
238.19 -721.98 5.36 
240.77 -722.38 5.27 
239.40 -722.51 5.34 
239.01 -722.54 5.37 
238.73 -722.57 5.38 
238.26 -722.42 5.39 
241.45 -722.57 5.25 
241.02 -722.57 5.27 
219.87 -719.35 5.65 
219.81 -719.55 5.67 
219.47 -720.42 5.72 
241.36 -721.43 5.45 
240.95 -721.45 5.47 
239.07 -721.52 5.58 
237.91 -721.48 5.65 
219.10 -722.04 5.82 
241.22 -724.21 5.67 
238.88 -727.76 6.06 
241.05 -729.20 5.82 
241.08 -729.62 5.86 
223.34 -710.41 5.96 
223.37 -710.79 5.98 
226.10 -722.10 6.05 
225.79 -722.05 6.07 
226.49 -722.49 6.05 
226.26 -722.35 6.06 
229.79 -727.66 6.23 
239.07 -728.87 6.14 
239.14 -729.06 6.15 
232.87 -726.09 6.71 
232.34 -726.29 6.77 
232.71 -726.50 6.76 
233.52 -726.98 6.75 
233.13 -726.79 6.76 
232.37 -726.90 6.82 
232.88 -727.35 6.83 
231.74 -727.79 6.95 
239.29 -727.96 6.77 
233.51 -728.05 6.86 
233.19 -728.02 6.87 
232.51 -728.08 6.93 
240.54 -728.89 6.52 
239.34 -728.77 6.57 
239.81 -729.27 6.60 
225.73 -721.72 6.88 
239.08 -726.86 7.07 
240.61 -727.22 7.00 
239.75 -727.13 7.05 
239.24 -727.12 7.09 
239.68 -727.53 7.11 
239.91 -727.74 7.12 
231.28 -728.53 7.39 
240.93 -728.56 7.15 
240.07 -728.80 7.24 
239.77 -728.91 7.27 
230.82 -729.05 7.13 
240.23 -728.97 7.25 
228.48 -729.58 7.34 
241.35 -729.44 7.23 
240.47 -729.36 7.28 
233.03 -729.63 7.04 
218.74 -721.85 7.47 
232.19 -726.98 7.63 
232.12 -726.94 7.63 
232.78 -727.27 7.61 
231.94 -727.61 7.72 
232.90 -728.67 7.76 
233.88 -728.94 7.71 
233.60 -728.78 7.71 
233.14 -728.74 7.75 
233.79 -729.10 7.74 
239.09 -729.56 7.40 
233.95 -729.56 7.78 
233.78 -729.46 7.78 
229.81 -726.29 7.77 
230.03 -726.44 7.76 
230.17 -726.97 7.81 
229.90 -726.83 7.82 
229.65 -727.10 7.87 
239.38 -727.21 7.77 
239.25 -727.10 7.77 
230.70 -727.28 7.79 
230.25 -727.18 7.82 
240.03 -727.33 7.74 
239.33 -727.34 7.80 
238.82 -727.36 7.84 
240.82 -728.01 7.77 
240.50 -728.14 7.81 
239.12 -728.31 7.95 
238.87 -728.29 7.97 
237.66 -728.23 8.06 
239.27 -728.88 8.02 
238.55 -728.83 8.07 
232.30 -728.94 7.84 
239.49 -729.12 8.04 
238.76 -729.26 8.11 
231.81 -729.11 7.90 
241.15 -729.56 7.97 
240.76 -729.44 7.98 
240.05 -729.62 8.06 
232.40 -726.61 8.35 
231.86 -726.49 8.40 
233.38 -727.12 8.32 
232.92 -727.25 8.38 
231.95 -727.38 8.50 
231.96 -727.57 8.52 
230.57 -727.17 8.62 
231.95 -727.92 8.57 
231.94 -729.24 8.74 
231.93 -729.60 8.78 
223.79 -710.63 3.96 
238.74 -722.44 4.11 
235.33 -722.55 4.19 
235.34 -722.84 4.20 
234.32 -722.96 4.23 
234.02 -722.97 4.23 
233.57 -722.97 4.24 
233.11 -722.98 4.25 
232.80 -722.98 4.26 
220.51 -719.21 4.37 
220.09 -719.31 4.63 
220.56 -719.54 4.38 
220.26 -720.39 4.42 
219.84 -720.31 4.67 
240.75 -721.44 4.56 
219.48 -722.12 4.51 
240.81 -721.86 4.59 
237.97 -722.50 4.36 
234.75 -722.78 4.44 
234.46 -722.75 4.45 
232.94 -722.78 4.48 
223.67 -710.35 4.70 
223.69 -710.78 4.72 
238.30 -721.33 4.64 
237.88 -721.34 4.92 
238.22 -721.61 4.66 
237.80 -721.43 4.93 
226.37 -721.99 5.15 
225.89 -722.01 5.17 
240.80 -722.02 4.60 
240.36 -722.04 4.87 
238.24 -721.99 4.68 
240.82 -722.33 4.62 
240.37 -722.27 4.88 
238.22 -722.32 4.71 
241.49 -722.57 4.61 
241.18 -722.54 4.70 
240.95 -722.59 4.63 
239.52 -722.56 4.67 
239.13 -722.57 4.69 
238.71 -722.55 4.79 
238.36 -722.57 4.72 
223.36 -710.37 5.04 
223.45 -710.74 5.05 
238.20 -721.21 5.21 
241.12 -721.55 5.37 
240.76 -721.42 5.09 
238.26 -721.55 5.23 
225.53 -721.94 5.32 
219.28 -721.82 5.44 
218.58 -722.22 5.49 
240.77 -721.94 5.14 
238.22 -721.99 5.27 
240.80 -722.33 5.17 
239.33 -722.50 5.25 
238.76 -722.50 5.28 
238.29 -722.37 5.29 
241.11 -722.54 5.17 
240.84 -722.49 5.18 
239.53 -722.53 5.24 
239.06 -722.53 5.27 
238.34 -722.54 5.30 
219.79 -720.32 5.64 
240.85 -721.58 5.38 
225.93 -721.82 5.96 
219.18 -722.09 5.75 
239.77 -727.67 5.91 
241.33 -729.49 5.75 
240.26 -729.42 6.03 
223.29 -710.23 5.87 
223.39 -710.69 5.88 
225.52 -721.62 6.31 
241.39 -724.93 5.95 
229.86 -727.70 6.15 
240.81 -728.01 6.31 
241.36 -728.23 6.30 
241.07 -728.36 6.33 
240.39 -729.05 6.44 
232.91 -726.02 6.60 
232.35 -726.28 6.66 
233.52 -726.93 6.65 
233.17 -726.72 6.65 
232.39 -726.87 6.72 
232.92 -727.30 6.72 
240.75 -727.40 6.51 
240.26 -727.42 6.55 
231.79 -727.76 6.84 
239.30 -727.88 6.65 
233.34 -727.99 6.76 
232.78 -728.13 6.81 
239.47 -728.31 6.69 
232.35 -728.25 6.85 
237.79 -728.58 6.54 
237.85 -729.05 6.58 
220.02 -729.61 6.84 
233.11 -729.53 6.92 
225.77 -721.69 6.77 
239.85 -726.95 6.91 
239.21 -727.00 6.96 
239.73 -727.45 6.98 
239.85 -727.85 7.02 
231.37 -728.49 7.27 
239.71 -728.59 7.12 
240.66 -729.04 7.12 
240.07 -728.84 7.13 
239.78 -728.87 7.15 
238.93 -729.05 7.23 
241.48 -729.41 7.11 
241.11 -729.49 7.15 
240.07 -729.24 7.18 
228.56 -729.62 7.24 
218.76 -721.87 7.37 
229.74 -726.17 7.64 
230.42 -726.45 7.61 
229.99 -726.42 7.64 
232.20 -726.98 7.51 
232.98 -727.34 7.49 
232.57 -727.26 7.51 
230.68 -727.21 7.67 
230.17 -727.06 7.70 
232.03 -727.51 7.58 
231.56 -727.69 7.64 
231.69 -728.24 7.70 
233.73 -728.76 7.59 
233.00 -728.72 7.64 
232.35 -728.92 7.72 
233.80 -729.04 7.61 
237.82 -729.62 7.38 
233.82 -729.53 7.67 
239.09 -729.66 7.30 
238.69 -727.22 7.71 
229.75 -727.13 7.74 
240.05 -727.34 7.61 
239.34 -727.47 7.69 
238.95 -727.48 7.72 
230.05 -727.52 7.76 
239.50 -727.77 7.72 
237.62 -728.02 7.91 
229.96 -728.22 7.84 
240.56 -728.16 7.69 
240.20 -728.19 7.72 
239.77 -728.08 7.74 
238.62 -728.36 7.87 
237.70 -728.22 7.93 
230.31 -728.27 7.82 
240.44 -728.58 7.76 
239.39 -728.75 7.87 
229.56 -728.96 7.96 
239.31 -729.20 7.94 
241.19 -729.32 7.81 
241.00 -729.37 7.83 
240.64 -729.46 7.87 
240.09 -729.58 7.93 
231.40 -729.60 7.87 
241.23 -729.61 7.85 
233.53 -726.55 8.10 
231.95 -726.43 8.24 
231.35 -726.56 8.32 
232.47 -726.67 8.22 
232.08 -726.64 8.26 
230.18 -726.64 8.45 
233.22 -727.25 8.22 
232.91 -727.24 8.25 
231.90 -727.31 8.36 
231.96 -727.59 8.39 
231.91 -727.57 8.39 
232.96 -727.81 8.32 
230.28 -727.26 8.52 
229.97 -727.84 8.63 
223.75 -710.48 3.84 
240.31 -721.37 3.95 
238.21 -721.36 3.99 
238.70 -722.62 4.04 
236.11 -722.92 4.10 
235.56 -722.96 4.11 
234.13 -722.92 4.14 
233.69 -722.93 4.15 
233.38 -722.93 4.16 
232.92 -722.93 4.16 
223.65 -710.43 4.09 
220.71 -719.25 4.26 
220.13 -719.20 4.51 
220.81 -719.55 4.27 
220.04 -719.48 4.53 
220.46 -720.41 4.31 
219.91 -720.18 4.56 
240.73 -721.44 4.47 
219.06 -722.01 4.65 
240.78 -721.90 4.50 
240.79 -722.27 4.52 
237.80 -722.43 4.28 
241.29 -722.54 4.52 
240.88 -722.51 4.53 
235.02 -722.74 4.35 
234.56 -722.72 4.35 
233.86 -722.83 4.37 
223.64 -710.03 4.55 
223.66 -710.23 4.56 
223.68 -710.55 4.57 
223.70 -710.89 4.58 
240.18 -721.21 4.72 
237.83 -721.23 4.81 
240.36 -721.49 4.73 
238.22 -721.52 4.56 
237.81 -721.45 4.83 
226.43 -721.87 5.02 
225.61 -721.84 5.05 
225.19 -721.85 5.07 
238.23 -721.91 4.58 
225.86 -721.98 5.05 
238.16 -722.37 4.74 
239.58 -722.56 4.58 
239.29 -722.52 4.58 
238.85 -722.55 4.60 
238.52 -722.55 4.61 
238.31 -722.53 4.62 
240.89 -725.00 4.93 
223.40 -710.54 4.90 
223.45 -710.86 4.92 
238.24 -721.28 5.09 
241.28 -721.48 5.24 
240.74 -721.41 4.98 
240.58 -721.25 4.98 
238.19 -721.52 5.12 
225.50 -721.91 5.35 
240.75 -721.79 5.02 
238.20 -721.97 5.15 
240.76 -722.15 5.04 
238.19 -722.28 5.18 
241.29 -722.53 5.05 
240.88 -722.49 5.07 
239.30 -722.49 5.14 
238.85 -722.52 5.16 
238.55 -722.49 5.18 
238.30 -722.50 5.19 
233.66 -724.53 5.17 
220.09 -720.32 5.50 
225.93 -721.61 5.81 
219.10 -721.98 5.63 
225.98 -722.10 5.84 
225.76 -722.01 5.84 
241.16 -724.79 5.51 
241.24 -729.55 5.67 
241.16 -729.62 5.68 
223.34 -710.28 5.70 
223.36 -710.63 5.72 
223.39 -710.87 5.73 
225.57 -721.57 6.17 
241.42 -724.90 5.84 
229.75 -727.98 6.35 
240.83 -728.10 6.21 
240.16 -728.57 6.30 
240.61 -728.93 6.31 
240.33 -729.09 6.34 
237.87 -729.68 6.06 
226.15 -721.12 6.54 
225.76 -721.68 6.61 
232.58 -726.35 6.52 
232.02 -726.55 6.58 
233.34 -726.69 6.50 
232.26 -726.95 6.60 
233.42 -726.98 6.53 
232.85 -727.29 6.59 
240.33 -727.47 6.43 
232.05 -727.50 6.67 
233.41 -727.99 6.63 
233.00 -727.92 6.65 
239.41 -728.33 6.57 
232.93 -728.20 6.68 
238.23 -729.05 6.45 
232.94 -729.56 6.81 
237.32 -729.68 6.57 
239.20 -726.44 7.06 
238.48 -726.78 6.85 
239.19 -727.10 6.85 
240.65 -727.28 6.77 
240.17 -727.35 6.81 
239.69 -727.40 6.85 
239.39 -727.48 6.88 
239.25 -727.39 6.88 
238.86 -727.26 6.89 
239.73 -727.68 6.88 
231.44 -728.10 7.09 
229.57 -728.39 6.92 
240.70 -728.79 6.96 
240.50 -729.11 7.02 
239.84 -728.87 7.03 
241.28 -729.42 7.01 
240.04 -729.18 7.06 
239.09 -729.59 7.17 
230.17 -729.48 6.98 
241.50 -729.57 7.02 
218.82 -721.84 7.19 
230.30 -726.45 7.46 
239.84 -726.42 7.35 
230.17 -726.76 7.51 
232.91 -727.20 7.33 
232.19 -727.27 7.39 
240.08 -727.40 7.48 
239.99 -727.24 7.46 
233.03 -727.34 7.33 
231.95 -727.58 7.45 
230.61 -727.61 7.57 
230.22 -727.50 7.59 
229.82 -727.44 7.61 
231.79 -728.09 7.52 
231.20 -728.05 7.57 
233.55 -728.84 7.47 
233.05 -728.88 7.51 
232.61 -728.89 7.55 
232.08 -729.15 7.62 
233.78 -729.58 7.54 
233.63 -729.45 7.53 
233.37 -726.65 7.96 
229.03 -727.20 7.66 
239.35 -727.55 7.56 
239.08 -727.57 7.58 
240.07 -727.87 7.55 
239.48 -727.89 7.60 
240.20 -728.21 7.59 
239.59 -728.32 7.65 
237.70 -728.27 7.80 
230.29 -728.31 7.67 
240.27 -728.65 7.65 
237.87 -728.71 7.85 
237.69 -728.66 7.85 
230.27 -728.69 7.72 
227.70 -728.75 7.94 
240.79 -729.46 7.74 
231.41 -729.51 7.72 
241.38 -729.62 7.72 
240.92 -729.58 7.74 
232.15 -726.81 8.10 
231.93 -726.58 8.10 
231.33 -726.55 8.15 
230.08 -726.82 8.32 
230.17 -727.00 8.33 
233.48 -727.50 8.06 
233.12 -727.39 8.08 
232.79 -727.95 8.19 
231.79 -727.73 8.26 
230.03 -727.80 8.45 
231.84 -728.30 8.33 
231.94 -729.22 8.44 
239.89 -721.08 3.66 
240.35 -721.28 3.66 
223.73 -710.53 3.84 
240.36 -721.34 3.97 
238.18 -721.30 4.01 
238.59 -721.87 4.03 
238.40 -722.38 4.06 
238.87 -722.56 4.06 
238.73 -722.44 4.05 
233.80 -722.89 4.16 
233.35 -722.90 4.17 
233.05 -722.92 4.18 
232.76 -722.92 4.18 
234.43 -725.20 4.26 
223.59 -710.31 4.09 
223.65 -710.49 4.09 
220.13 -719.14 4.52 
221.03 -719.56 4.27 
220.52 -719.53 4.52 
220.55 -720.29 4.31 
220.22 -720.26 4.56 
219.86 -720.12 4.56 
220.75 -720.53 4.32 
240.69 -721.24 4.47 
238.20 -721.28 4.55 
219.00 -721.94 4.66 
240.75 -721.68 4.49 
225.31 -722.07 4.53 
240.76 -722.14 4.52 
241.50 -722.52 4.53 
241.03 -722.51 4.54 
240.74 -722.38 4.54 
239.65 -722.53 4.58 
233.83 -722.76 4.39 
233.41 -722.72 4.39 
232.60 -722.79 4.41 
223.61 -710.13 4.53 
223.65 -710.44 4.54 
223.67 -710.82 4.56 
237.75 -721.13 4.81 
238.18 -721.56 4.56 
237.79 -721.31 4.82 
225.83 -721.72 5.03 
238.17 -721.85 4.58 
225.87 -721.97 5.04 
225.04 -721.97 5.07 
240.30 -722.15 4.78 
238.16 -722.13 4.60 
241.31 -722.47 4.77 
240.32 -722.36 4.79 
239.42 -722.49 4.59 
238.99 -722.51 4.60 
238.64 -722.50 4.69 
238.29 -722.49 4.62 
234.17 -724.83 4.91 
241.05 -725.06 4.94 
240.90 -724.97 4.94 
241.14 -725.56 4.97 
223.34 -710.31 4.88 
223.39 -710.53 4.88 
220.24 -720.21 5.47 
241.36 -721.48 5.22 
241.16 -721.47 5.23 
240.59 -721.36 5.12 
238.18 -721.36 5.09 
219.37 -721.86 5.29 
240.67 -721.62 5.13 
239.68 -721.60 5.32 
239.24 -721.58 5.34 
239.00 -721.58 5.35 
238.14 -721.74 5.13 
225.51 -721.93 5.34 
219.73 -722.27 5.30 
219.45 -722.07 5.30 
240.74 -722.15 5.04 
238.15 -722.25 5.17 
241.50 -722.50 5.04 
241.08 -722.50 5.06 
240.84 -722.48 5.07 
239.50 -722.48 5.12 
239.01 -722.50 5.15 
238.60 -722.47 5.17 
238.28 -722.48 5.18 
233.56 -724.39 5.16 
233.61 -724.57 5.17 
241.48 -721.48 5.46 
219.09 -721.90 5.60 
238.70 -721.62 5.37 
238.19 -721.63 5.40 
234.17 -724.80 5.57 
241.01 -724.94 5.52 
229.46 -727.34 6.00 
230.98 -727.42 5.93 
229.83 -727.91 6.03 
239.58 -728.23 5.86 
229.94 -728.48 6.07 
228.91 -728.24 6.10 
239.38 -729.47 5.97 
241.22 -729.63 5.68 
223.31 -710.16 5.65 
223.35 -710.50 5.67 
223.35 -710.85 5.68 
219.65 -721.08 6.12 
219.65 -721.33 6.14 
225.48 -721.64 6.14 
239.95 -727.24 6.16 
229.73 -727.83 6.32 
241.10 -728.34 6.22 
240.13 -728.53 6.29 
229.09 -728.75 6.13 
238.11 -728.95 6.44 
240.25 -729.17 6.35 
239.83 -729.16 6.37 
241.33 -729.65 6.36 
239.80 -729.69 6.43 
226.17 -721.12 6.48 
225.65 -721.77 6.58 
218.98 -721.91 6.57 
232.50 -726.35 6.50 
232.39 -726.76 6.54 
233.11 -726.98 6.52 
232.16 -727.40 6.62 
230.58 -727.47 6.73 
239.08 -727.87 6.52 
232.78 -728.04 6.65 
230.59 -727.81 6.76 
233.13 -728.25 6.65 
232.83 -728.33 6.67 
231.07 -728.30 6.78 
229.42 -728.37 6.90 
231.16 -728.49 6.79 
231.59 -729.11 6.83 
238.08 -729.34 6.48 
232.74 -729.53 6.80 
238.23 -729.56 6.49 
218.79 -721.78 7.13 
220.01 -722.16 7.06 
239.39 -726.48 7.01 
240.09 -727.02 6.76 
238.71 -726.91 6.83 
238.51 -726.74 6.82 
240.59 -727.27 6.76 
240.22 -727.11 6.76 
240.15 -727.30 6.79 
239.64 -727.45 6.84 
239.24 -727.37 6.85 
240.22 -727.52 6.81 
239.31 -727.59 6.88 
240.98 -729.07 6.97 
240.45 -729.02 7.00 
240.12 -728.95 7.01 
241.26 -729.37 7.00 
239.68 -729.42 7.09 
230.49 -729.66 6.95 
239.70 -726.21 7.30 
230.17 -726.19 7.40 
229.67 -726.42 7.46 
239.78 -726.42 7.32 
230.04 -726.69 7.46 
232.75 -727.01 7.28 
231.99 -727.23 7.36 
230.83 -727.17 7.45 
230.20 -727.13 7.50 
230.08 -726.97 7.49 
240.35 -727.23 7.40 
240.10 -727.38 7.45 
230.79 -727.50 7.49 
230.30 -727.35 7.52 
239.34 -727.53 7.52 
230.60 -727.76 7.54 
230.27 -727.72 7.56 
231.99 -728.22 7.48 
230.38 -728.34 7.62 
239.80 -728.47 7.22 
234.39 -729.14 7.41 
234.08 -729.16 7.43 
233.64 -729.06 7.45 
232.64 -728.88 7.51 
230.82 -729.20 7.69 
230.40 -728.97 7.69 
233.73 -729.30 7.47 
232.39 -729.51 7.60 
231.90 -729.43 7.63 
232.83 -726.58 7.95 
232.40 -726.59 7.99 
232.89 -727.17 8.02 
233.43 -727.48 8.01 
233.14 -727.35 8.02 
239.41 -728.22 7.62 
228.86 -728.16 7.73 
240.29 -728.57 7.61 
239.90 -728.50 7.63 
237.88 -728.41 7.77 
239.19 -729.47 7.83 
240.87 -729.53 7.72 
240.12 -729.66 7.79 
231.43 -726.84 8.12 
231.37 -726.83 8.12 
230.27 -727.08 8.26 
232.45 -727.28 8.08 
230.40 -727.54 8.31 
232.79 -727.97 8.14 
231.87 -728.01 8.23 
231.76 -727.74 8.20 
229.98 -727.71 8.37 
232.46 -729.39 8.36 
228.71 -728.27 8.57 
239.52 -720.97 3.62 
240.08 -721.20 3.62 
239.56 -721.38 3.63 
223.71 -710.44 3.73 
221.17 -719.39 4.16 
221.15 -719.68 4.17 
238.16 -721.47 3.96 
238.74 -722.51 4.00 
233.02 -722.89 4.11 
236.38 -722.87 4.05 
235.72 -722.86 4.06 
233.73 -722.93 4.10 
223.52 -710.20 3.97 
223.62 -710.50 3.98 
220.62 -719.48 4.41 
220.33 -719.27 4.41 
220.00 -720.26 4.46 
221.05 -720.52 4.21 
240.74 -721.36 4.41 
240.54 -721.23 4.40 
238.14 -721.34 4.48 
218.90 -721.97 4.55 
240.72 -721.76 4.43 
238.15 -721.72 4.50 
225.32 -721.94 4.43 
240.75 -721.98 4.45 
238.17 -722.07 4.53 
241.19 -722.52 4.47 
240.84 -722.43 4.48 
239.51 -722.51 4.52 
239.13 -722.52 4.53 
238.79 -722.53 4.54 
238.56 -722.50 4.54 
238.20 -722.44 4.23 
234.71 -722.72 4.30 
232.22 -722.70 4.34 
223.64 -710.11 4.39 
223.67 -710.47 4.41 
223.68 -710.83 4.43 
225.83 -721.97 4.93 
224.62 -721.97 4.98 
240.29 -722.13 4.71 
238.15 -722.26 4.54 
241.45 -722.44 4.70 
241.23 -722.47 4.70 
240.30 -722.34 4.72 
238.36 -722.50 4.55 
238.19 -722.44 4.55 
234.67 -724.70 4.80 
234.41 -724.72 4.81 
233.90 -724.72 4.83 
241.04 -725.03 4.88 
234.49 -725.18 4.84 
233.99 -724.87 4.84 
234.63 -725.35 4.85 
220.84 -719.35 5.28 
220.34 -720.12 5.34 
220.42 -720.33 5.34 
219.17 -720.92 5.13 
241.34 -721.38 5.13 
240.74 -721.36 5.03 
240.53 -721.23 4.89 
239.65 -721.45 5.22 
238.87 -721.47 5.26 
238.25 -721.35 5.14 
238.14 -721.32 5.00 
237.79 -721.40 5.31 
240.71 -721.76 4.93 
238.14 -721.71 5.04 
225.39 -721.85 5.23 
219.94 -722.16 5.17 
219.47 -721.97 5.17 
240.72 -722.00 4.96 
238.15 -722.13 5.07 
220.46 -722.41 5.16 
241.23 -722.50 4.98 
240.83 -722.44 4.99 
239.50 -722.50 5.05 
239.22 -722.49 5.06 
238.79 -722.50 5.08 
238.46 -722.48 5.09 
238.19 -722.43 5.10 
233.57 -724.42 5.08 
233.64 -724.64 5.09 
223.57 -710.16 5.08 
223.55 -710.10 5.08 
223.59 -710.46 5.09 
223.61 -710.82 5.11 
241.05 -721.47 5.39 
240.87 -721.47 5.40 
225.81 -721.68 5.66 
219.05 -721.85 5.48 
241.14 -721.58 5.40 
225.83 -721.93 5.68 
241.26 -722.15 5.45 
241.04 -724.99 5.45 
234.71 -725.18 5.48 
239.98 -727.38 5.70 
229.40 -727.75 5.94 
239.61 -727.95 5.76 
229.70 -728.45 5.98 
229.51 -728.38 5.99 
239.49 -729.52 5.90 
223.31 -711.02 5.53 
219.30 -721.99 6.06 
229.62 -726.54 6.13 
229.61 -727.47 6.20 
240.54 -727.52 6.32 
229.61 -727.77 6.22 
241.05 -728.23 6.14 
240.52 -729.34 6.29 
240.14 -729.25 6.30 
226.13 -721.15 6.34 
225.75 -721.68 6.42 
226.25 -722.14 6.42 
232.52 -725.94 6.34 
232.60 -726.15 6.36 
232.59 -726.45 6.39 
233.95 -727.13 6.38 
233.79 -726.99 6.38 
232.93 -727.08 6.44 
232.47 -726.91 6.45 
241.20 -727.16 6.63 
240.93 -727.16 6.64 
240.69 -727.16 6.65 
240.24 -727.27 6.69 
230.54 -727.48 6.62 
240.34 -727.48 6.33 
230.60 -727.80 6.65 
239.18 -728.19 6.46 
239.14 -727.92 6.44 
239.26 -728.41 6.48 
231.12 -728.59 6.70 
239.31 -728.69 6.51 
231.72 -729.07 6.71 
231.32 -728.99 6.73 
230.25 -729.25 6.82 
219.15 -729.38 6.59 
239.79 -729.34 6.55 
230.82 -729.30 6.79 
240.10 -729.63 6.57 
219.82 -721.41 6.86 
218.46 -721.80 6.99 
219.89 -722.20 6.91 
219.62 -722.11 6.93 
239.13 -726.99 6.72 
238.73 -726.98 6.74 
239.35 -727.16 6.73 
238.96 -727.16 6.75 
240.13 -727.51 6.73 
239.68 -727.69 6.78 
239.39 -727.59 6.78 
230.29 -728.73 7.07 
241.00 -729.02 6.89 
240.69 -728.95 6.90 
240.48 -729.22 6.94 
236.61 -729.41 7.19 
236.16 -729.38 7.21 
241.36 -729.54 6.94 
241.01 -729.65 6.97 
239.72 -726.44 7.23 
239.48 -726.38 7.24 
229.78 -726.63 7.34 
230.90 -727.05 7.30 
229.87 -727.03 7.38 
240.11 -727.25 7.33 
230.30 -727.43 7.39 
239.57 -727.72 7.44 
239.29 -727.68 7.45 
238.45 -727.78 7.52 
238.33 -727.66 7.51 
231.85 -727.97 7.34 
240.73 -727.97 7.40 
231.99 -728.14 7.35 
231.78 -728.10 7.36 
230.49 -728.21 7.47 
229.00 -728.15 7.58 
240.12 -728.37 7.50 
232.57 -728.51 7.35 
231.18 -728.48 7.45 
228.85 -728.61 7.65 
232.58 -729.06 7.41 
230.31 -729.14 7.59 
234.26 -729.17 7.31 
233.81 -729.24 7.35 
232.92 -729.35 7.43 
231.80 -729.46 7.52 
231.47 -729.38 7.53 
229.91 -729.26 7.64 
232.19 -726.26 7.82 
232.19 -726.52 7.86 
232.61 -726.94 7.88 
232.12 -726.98 7.93 
231.42 -726.81 7.97 
232.67 -727.33 7.93 
240.16 -727.68 7.64 
232.79 -727.83 7.98 
232.61 -727.69 7.98 
237.75 -728.21 7.64 
234.22 -728.45 7.95 
241.24 -729.67 7.64 
240.91 -729.45 7.62 
240.66 -729.54 7.65 
230.16 -727.21 8.14 
228.63 -727.44 8.32 
231.41 -727.77 8.10 
230.15 -727.70 8.21 
228.92 -728.49 8.43 
232.54 -729.27 8.21 
231.87 -729.33 8.28 
234.20 -729.61 8.12 
233.85 -729.67 8.16 
228.06 -728.36 8.50 
228.55 -728.54 8.47 
229.04 -729.43 8.55 
238.73 -720.99 3.64 
238.76 -721.22 3.65 
238.75 -721.74 3.67 
238.79 -722.16 3.68 
238.86 -722.54 3.69 
221.48 -719.55 4.10 
240.32 -721.34 3.94 
238.44 -721.33 3.96 
238.36 -721.68 3.98 
238.72 -722.54 4.02 
235.14 -722.70 4.07 
233.18 -722.81 4.10 
236.30 -722.85 4.06 
235.69 -722.85 4.07 
233.56 -722.88 4.10 
223.94 -710.17 3.88 
223.86 -710.62 3.90 
221.54 -719.40 4.33 
221.02 -720.17 4.38 
216.68 -720.56 4.46 
216.55 -720.36 4.45 
240.70 -721.27 4.41 
240.52 -721.30 4.41 
238.09 -721.24 4.47 
240.72 -721.72 4.18 
240.65 -721.77 4.44 
238.05 -721.71 4.50 
240.65 -722.01 4.33 
238.05 -722.21 4.54 
241.33 -722.47 4.34 
240.96 -722.50 4.49 
240.63 -722.29 4.48 
239.29 -722.47 4.53 
238.83 -722.49 4.54 
238.54 -722.49 4.54 
238.11 -722.43 4.55 
223.51 -710.08 4.29 
223.57 -710.32 4.30 
223.60 -710.74 4.32 
221.38 -719.30 4.87 
221.10 -720.26 4.93 
240.59 -721.31 4.89 
240.76 -721.66 4.67 
238.15 -721.80 4.75 
225.74 -721.92 4.88 
238.14 -722.04 4.77 
241.38 -722.45 4.71 
239.09 -722.44 4.77 
238.45 -722.42 4.78 
234.11 -724.60 5.05 
233.88 -724.75 4.82 
234.59 -725.11 4.83 
234.12 -724.96 4.91 
234.72 -725.25 4.83 
221.52 -719.37 5.17 
221.41 -719.18 5.16 
221.50 -719.53 5.17 
221.19 -720.07 5.22 
221.20 -720.35 5.23 
241.39 -721.35 5.11 
240.95 -721.39 5.14 
240.53 -721.36 5.15 
240.03 -721.37 5.17 
239.83 -721.36 5.18 
238.58 -721.34 5.23 
238.08 -721.22 4.98 
240.62 -721.68 4.93 
238.03 -721.70 5.02 
225.92 -721.93 5.15 
219.52 -721.96 5.38 
219.34 -721.87 5.09 
240.64 -722.00 4.95 
238.02 -722.12 5.06 
219.71 -722.49 5.11 
241.27 -722.47 4.98 
240.95 -722.47 4.99 
240.62 -722.28 4.98 
239.35 -722.45 5.04 
238.92 -722.47 5.06 
238.46 -722.45 5.07 
238.09 -722.36 5.08 
233.83 -724.51 5.44 
234.90 -724.99 5.43 
234.62 -725.05 5.45 
233.85 -725.10 5.49 
223.48 -710.03 4.95 
223.49 -710.30 4.96 
223.51 -710.75 4.99 
225.65 -721.68 5.59 
241.24 -721.57 5.38 
240.85 -721.59 5.40 
239.27 -721.47 5.46 
238.91 -721.47 5.48 
226.41 -721.92 5.57 
226.13 -721.87 5.58 
225.68 -721.93 5.61 
226.50 -722.07 5.58 
240.42 -727.33 5.68 
240.07 -727.59 5.72 
229.61 -727.85 5.90 
229.01 -727.84 5.93 
229.64 -728.19 5.93 
229.47 -728.06 5.93 
239.92 -728.52 5.81 
230.02 -728.74 5.96 
229.71 -728.42 5.95 
240.70 -729.39 5.86 
241.05 -729.62 5.66 
223.79 -710.96 5.37 
219.30 -721.86 5.94 
232.53 -726.07 6.31 
230.04 -726.16 6.03 
229.89 -726.58 6.07 
233.60 -727.02 6.35 
229.93 -727.00 6.10 
233.80 -727.21 6.37 
240.09 -729.66 6.36 
226.03 -721.11 6.25 
225.71 -721.82 6.33 
226.07 -722.13 6.34 
232.21 -726.17 6.65 
238.59 -726.78 6.71 
232.45 -726.76 6.39 
232.37 -726.93 6.41 
241.00 -726.98 6.61 
239.28 -727.25 6.74 
239.00 -727.19 6.74 
238.78 -727.03 6.73 
232.50 -727.23 6.44 
230.76 -727.53 6.57 
241.03 -727.36 6.67 
240.60 -727.38 6.69 
240.11 -727.61 6.74 
239.69 -728.10 6.42 
239.56 -728.00 6.42 
239.66 -728.55 6.47 
229.25 -728.62 6.77 
229.01 -728.54 6.77 
239.69 -728.84 6.50 
231.37 -729.07 6.69 
229.92 -729.04 6.77 
230.46 -729.64 6.80 
219.75 -721.48 6.74 
218.94 -721.70 6.82 
218.36 -721.68 6.86 
225.85 -721.66 6.69 
219.35 -722.02 6.82 
239.40 -727.65 6.78 
239.64 -727.97 6.82 
239.49 -728.12 6.84 
240.78 -728.95 6.90 
239.59 -728.81 6.93 
230.73 -728.81 7.00 
240.87 -729.16 6.92 
240.54 -729.02 6.92 
239.92 -729.02 6.95 
241.18 -729.49 6.96 
236.51 -729.61 7.20 
236.22 -729.50 7.20 
239.64 -726.46 7.22 
239.46 -726.46 7.23 
239.81 -726.91 7.28 
229.68 -726.91 7.31 
239.63 -727.16 7.33 
231.07 -727.40 7.27 
229.84 -727.22 7.34 
240.13 -727.54 7.36 
239.84 -727.52 7.37 
232.34 -727.80 7.55 
231.33 -727.82 7.30 
231.10 -727.76 7.31 
230.14 -727.89 7.39 
240.72 -727.99 7.40 
240.03 -727.81 7.41 
231.69 -728.08 7.31 
231.51 -728.08 7.32 
240.09 -728.52 7.52 
239.97 -728.39 7.50 
232.46 -728.50 7.31 
232.05 -728.33 7.31 
231.65 -728.43 7.35 
231.01 -728.58 7.42 
232.35 -728.97 7.37 
233.75 -729.29 7.32 
233.38 -729.43 7.37 
232.05 -729.42 7.45 
231.54 -729.31 7.47 
231.17 -729.42 7.51 
228.38 -729.19 7.68 
240.79 -729.42 7.62 
233.07 -729.50 7.39 
232.59 -726.91 7.80 
232.04 -726.91 7.85 
231.45 -726.91 7.90 
232.53 -727.31 7.87 
232.09 -727.16 7.88 
232.62 -727.55 7.89 
231.28 -727.52 8.00 
232.56 -727.91 7.95 
238.89 -728.25 7.79 
234.03 -728.45 7.91 
229.42 -728.78 7.89 
241.12 -729.00 7.74 
240.53 -729.54 7.66 
234.30 -729.50 8.05 
229.70 -727.01 8.07 
230.06 -727.27 8.07 
228.69 -727.45 8.22 
240.28 -727.65 8.00 
238.46 -727.59 8.12 
230.09 -727.72 8.13 
228.83 -727.63 8.24 
229.50 -728.60 8.31 
232.72 -728.76 8.06 
231.84 -729.24 8.20 
231.56 -729.30 8.23 
231.71 -729.48 8.25 
228.98 -729.55 8.49 
229.99 -727.84 8.53 
229.76 -727.23 8.86 
240.22 -721.47 3.67 
237.76 -722.02 3.69 
238.76 -722.38 3.70 
237.77 -722.44 3.70 
221.65 -719.53 4.09 
221.60 -720.31 4.13 
221.47 -720.17 4.12 
221.17 -720.30 4.14 
240.11 -721.30 3.93 
238.47 -721.29 3.95 
238.01 -721.21 3.95 
238.75 -722.52 4.01 
238.33 -722.39 4.01 
236.35 -722.81 4.05 
235.75 -722.82 4.06 
233.88 -722.82 4.09 
233.23 -722.78 4.09 
232.95 -722.81 4.10 
223.60 -710.25 3.86 
223.34 -710.08 3.85 
223.56 -710.55 3.87 
217.66 -719.71 4.40 
217.62 -720.01 4.42 
221.15 -720.11 4.37 
217.66 -720.34 4.43 
217.72 -720.68 4.45 
217.65 -721.13 4.47 
240.60 -721.26 4.38 
240.29 -721.24 4.14 
238.09 -721.23 4.44 
237.73 -721.24 4.18 
219.22 -721.58 4.47 
240.65 -721.73 4.42 
238.08 -721.59 4.47 
225.29 -721.86 4.39 
219.23 -721.81 4.48 
240.68 -721.99 4.44 
238.09 -722.00 4.50 
241.44 -722.44 4.39 
241.04 -722.46 4.47 
240.73 -722.40 4.47 
240.27 -722.30 4.20 
239.40 -722.43 4.50 
239.02 -722.43 4.41 
238.61 -722.45 4.44 
238.15 -722.35 4.52 
223.61 -710.23 4.23 
223.64 -710.55 4.24 
221.84 -719.39 4.82 
221.44 -720.12 4.88 
240.58 -721.22 4.84 
240.32 -721.17 4.61 
237.71 -721.26 4.69 
240.65 -721.55 4.87 
225.77 -721.90 4.85 
240.66 -721.99 4.92 
237.69 -722.20 4.76 
241.42 -722.43 4.83 
241.03 -722.45 4.95 
240.67 -722.34 4.95 
240.27 -722.30 4.70 
238.99 -722.43 4.74 
238.33 -722.42 4.76 
237.84 -722.38 4.77 
233.63 -724.43 5.03 
234.56 -724.96 4.80 
234.19 -724.87 4.80 
233.79 -724.70 4.92 
233.47 -725.36 5.10 
234.95 -725.47 4.83 
223.52 -709.94 4.84 
223.55 -710.21 4.85 
223.57 -710.57 4.87 
223.60 -710.84 4.89 
221.29 -719.20 5.13 
221.35 -719.45 5.14 
220.83 -719.94 5.19 
221.01 -720.13 5.19 
241.07 -721.32 5.07 
240.10 -721.31 5.11 
239.83 -721.31 5.12 
238.08 -721.25 5.06 
241.46 -721.41 5.30 
238.08 -721.56 4.96 
225.45 -721.94 5.14 
219.40 -721.89 5.06 
238.06 -721.90 4.99 
240.79 -722.43 4.96 
239.40 -722.40 5.00 
239.06 -722.43 5.01 
238.61 -722.43 5.03 
238.15 -722.33 5.03 
233.86 -724.49 5.39 
234.61 -725.02 5.41 
234.18 -724.65 5.40 
233.89 -725.09 5.45 
223.31 -710.12 5.26 
223.34 -710.81 5.29 
225.19 -721.51 5.55 
241.23 -721.44 5.31 
241.06 -721.45 5.32 
240.60 -721.48 5.34 
240.18 -721.57 5.37 
239.91 -721.58 5.38 
239.30 -721.50 5.40 
238.59 -721.48 5.43 
238.25 -721.42 5.44 
226.25 -721.79 5.51 
225.76 -721.76 5.54 
239.29 -722.12 5.47 
239.08 -722.02 5.47 
238.55 -722.06 5.50 
226.38 -722.49 5.56 
229.79 -728.50 5.92 
239.65 -729.62 5.90 
228.52 -729.65 6.08 
226.12 -721.29 6.17 
225.95 -721.16 6.17 
225.45 -721.90 5.89 
219.29 -721.67 5.88 
232.43 -726.87 6.35 
232.58 -727.20 6.38 
229.38 -727.58 6.14 
225.69 -721.10 6.19 
225.71 -721.87 6.26 
226.04 -722.14 6.26 
241.14 -725.02 6.29 
238.68 -726.70 6.64 
238.40 -726.66 6.65 
241.09 -726.98 6.57 
240.17 -727.03 6.62 
239.35 -727.17 6.68 
238.85 -726.95 6.67 
230.77 -727.21 6.48 
230.29 -727.41 6.53 
240.63 -727.32 6.64 
238.74 -727.64 6.77 
230.85 -727.58 6.52 
229.44 -727.69 6.61 
239.56 -727.75 6.75 
239.30 -727.73 6.76 
230.85 -728.13 6.58 
239.90 -728.14 6.79 
239.22 -728.43 6.44 
233.01 -728.39 6.49 
230.04 -728.47 6.66 
241.50 -728.88 6.83 
230.75 -729.37 6.72 
229.95 -729.27 6.75 
219.23 -721.59 6.71 
218.25 -721.33 6.76 
219.54 -721.70 6.69 
219.14 -721.71 6.72 
219.53 -722.04 6.72 
220.11 -722.49 6.72 
232.81 -726.49 6.96 
231.01 -727.53 7.22 
231.89 -728.11 7.23 
240.42 -728.15 6.97 
232.08 -728.23 7.24 
240.45 -728.86 6.87 
239.72 -728.58 7.07 
238.34 -728.75 6.95 
230.53 -728.92 6.97 
230.07 -728.75 6.98 
241.48 -729.22 7.06 
241.33 -728.90 6.84 
240.89 -728.90 6.86 
240.16 -729.08 6.91 
234.29 -729.23 7.23 
234.02 -729.23 7.25 
233.55 -729.23 7.27 
240.38 -729.54 6.97 
236.45 -729.56 7.15 
239.63 -726.70 7.19 
229.86 -726.93 7.22 
229.61 -726.85 7.23 
239.79 -726.91 7.22 
239.69 -727.25 7.28 
230.04 -727.19 7.24 
228.61 -727.40 7.37 
240.28 -727.40 7.27 
239.90 -727.47 7.31 
230.15 -727.60 7.29 
229.03 -727.72 7.38 
228.83 -727.47 7.37 
240.80 -728.03 7.35 
238.65 -727.81 7.43 
231.06 -728.17 7.30 
230.31 -727.89 7.31 
229.31 -727.93 7.39 
240.50 -728.12 7.38 
238.26 -728.22 7.52 
240.13 -728.52 7.47 
238.46 -728.63 7.58 
230.28 -728.79 7.43 
229.98 -728.81 7.45 
232.35 -729.13 7.34 
230.50 -729.30 7.48 
241.34 -729.44 7.56 
233.07 -729.57 7.35 
231.69 -729.53 7.43 
231.15 -729.47 7.46 
230.08 -729.42 7.52 
230.05 -725.72 7.76 
230.06 -726.02 7.80 
231.84 -726.89 7.77 
231.30 -726.78 7.80 
230.04 -726.62 7.89 
232.43 -727.33 7.79 
231.87 -727.35 7.84 
231.66 -727.34 7.86 
231.30 -727.07 7.85 
229.89 -727.33 8.00 
232.43 -727.69 7.84 
232.10 -727.44 7.83 
231.07 -727.43 7.92 
230.68 -727.52 7.96 
230.07 -727.65 8.03 
239.99 -727.82 7.99 
238.24 -727.79 7.69 
232.62 -728.50 7.95 
233.88 -728.64 7.88 
232.74 -728.67 7.97 
231.27 -729.47 7.75 
232.55 -727.34 8.11 
238.51 -727.62 8.05 
228.70 -728.28 8.25 
229.24 -728.62 8.25 
231.81 -729.32 8.14 
231.33 -729.62 8.22 
232.87 -727.03 8.41 
238.12 -721.72 3.70 
234.30 -724.90 3.80 
221.79 -719.46 4.09 
221.95 -719.70 4.10 
221.61 -720.31 4.13 
240.25 -721.26 3.94 
238.25 -721.24 3.96 
238.56 -721.81 3.99 
239.21 -722.45 4.02 
238.82 -722.48 4.02 
238.39 -722.18 4.01 
236.23 -722.80 4.07 
234.55 -722.75 4.08 
232.56 -722.80 4.11 
223.85 -710.13 3.85 
221.89 -719.47 4.32 
221.66 -719.24 4.32 
221.70 -720.24 4.37 
221.64 -720.00 4.35 
240.59 -721.18 4.38 
240.43 -721.19 4.39 
237.97 -721.13 4.44 
240.58 -721.46 4.33 
237.98 -721.56 4.40 
240.58 -721.99 4.32 
237.98 -721.97 4.50 
241.50 -722.45 4.41 
241.11 -722.43 4.37 
240.63 -722.31 4.40 
239.71 -722.43 4.49 
239.40 -722.41 4.32 
239.12 -722.43 4.51 
238.74 -722.44 4.52 
238.28 -722.39 4.33 
238.03 -722.31 4.33 
232.49 -722.61 4.33 
234.92 -722.67 4.30 
233.79 -722.62 4.31 
234.66 -724.23 4.38 
223.50 -710.17 4.21 
223.56 -710.57 4.23 
223.52 -710.43 4.23 
222.02 -719.40 4.80 
221.55 -720.07 4.85 
240.62 -721.21 4.72 
240.42 -721.19 4.84 
237.97 -721.12 4.91 
240.56 -721.52 4.87 
237.99 -721.41 4.81 
225.69 -721.89 4.83 
219.34 -721.80 5.04 
240.58 -721.97 4.79 
238.03 -722.09 4.74 
241.50 -722.43 4.88 
241.11 -722.42 4.84 
240.63 -722.32 4.89 
239.48 -722.40 4.72 
239.22 -722.38 4.73 
220.18 -722.41 5.05 
219.64 -722.46 5.07 
233.97 -724.55 5.02 
234.23 -724.65 4.78 
233.88 -724.70 4.79 
234.68 -725.21 4.81 
234.29 -725.01 4.80 
223.44 -710.12 4.82 
223.78 -710.67 4.55 
223.46 -710.51 4.84 
223.48 -710.78 4.85 
222.15 -719.32 5.08 
225.85 -721.44 5.08 
241.47 -721.40 5.29 
241.15 -721.47 5.23 
240.76 -721.43 5.27 
240.41 -721.48 5.34 
239.88 -721.58 5.13 
239.44 -721.58 5.14 
237.97 -721.66 4.96 
225.72 -721.74 5.10 
224.76 -721.86 5.14 
219.41 -721.84 5.33 
237.97 -721.94 4.99 
239.55 -722.42 4.99 
239.16 -722.39 4.99 
238.74 -722.41 5.01 
238.34 -722.41 5.02 
238.01 -722.35 5.03 
233.88 -724.46 5.37 
233.71 -724.45 5.38 
234.53 -725.13 5.41 
233.78 -724.98 5.42 
223.72 -710.65 5.22 
223.73 -710.84 5.23 
224.78 -721.27 5.51 
240.28 -721.48 5.34 
239.92 -721.59 5.37 
239.21 -721.46 5.38 
238.64 -721.45 5.40 
238.26 -721.41 5.42 
226.33 -721.86 5.48 
225.68 -721.75 5.51 
219.18 -721.74 5.84 
238.72 -721.94 5.46 
238.42 -722.05 5.48 
226.78 -722.04 5.47 
226.26 -721.95 5.49 
239.32 -722.12 5.45 
239.12 -722.11 5.46 
232.80 -726.80 5.88 
229.02 -727.73 5.86 
228.92 -727.67 5.86 
229.53 -727.94 5.86 
229.21 -727.85 5.86 
229.63 -728.51 5.90 
240.85 -728.65 5.76 
240.00 -729.56 5.87 
225.49 -720.99 6.14 
226.11 -721.23 6.11 
225.94 -721.15 6.12 
225.67 -721.11 6.13 
225.86 -721.86 5.82 
225.51 -721.74 6.20 
219.40 -721.79 6.18 
225.94 -722.14 6.21 
219.00 -722.84 5.94 
232.27 -726.79 6.32 
241.02 -727.00 6.17 
240.06 -727.06 6.22 
232.49 -727.16 6.35 
240.82 -727.29 6.21 
234.32 -727.50 6.30 
233.75 -727.40 6.31 
232.60 -727.67 6.40 
230.00 -727.66 6.08 
239.48 -727.77 6.32 
239.54 -728.78 6.44 
218.92 -729.11 6.44 
240.32 -728.87 6.41 
239.67 -728.87 6.44 
241.34 -729.67 6.47 
219.61 -721.54 6.61 
219.24 -721.53 6.64 
225.32 -722.11 6.25 
238.61 -726.81 6.63 
238.40 -726.59 6.61 
238.73 -726.97 6.65 
230.69 -727.20 6.44 
230.11 -727.35 6.49 
241.31 -727.28 6.59 
238.83 -727.41 6.71 
230.72 -727.57 6.48 
230.57 -727.42 6.47 
229.50 -727.72 6.57 
229.16 -727.65 6.58 
239.45 -727.83 6.74 
239.19 -727.73 6.74 
231.06 -728.10 6.52 
230.92 -727.99 6.52 
239.59 -728.18 6.78 
231.51 -728.52 6.82 
239.94 -728.68 6.84 
231.85 -728.87 6.57 
229.10 -728.60 6.68 
241.41 -728.86 6.82 
241.17 -728.93 6.83 
240.99 -728.89 6.84 
229.79 -729.20 6.71 
239.02 -729.37 6.53 
230.38 -729.45 6.71 
218.69 -721.61 6.68 
219.45 -721.98 6.66 
239.42 -726.61 7.16 
229.43 -726.82 7.18 
239.61 -726.95 6.81 
231.78 -727.05 7.05 
229.81 -727.00 7.18 
239.68 -727.54 6.89 
230.93 -727.54 7.17 
230.04 -727.53 7.23 
230.20 -727.87 7.26 
231.57 -728.13 7.20 
238.33 -728.84 6.93 
230.65 -728.82 6.91 
234.35 -729.26 7.19 
233.97 -729.10 7.19 
233.69 -729.20 7.22 
233.31 -729.24 7.24 
232.38 -729.17 7.29 
241.41 -729.51 6.91 
240.88 -729.39 6.91 
240.46 -729.48 6.94 
240.12 -729.31 6.93 
236.37 -729.55 7.12 
236.16 -729.52 7.13 
232.78 -729.49 7.31 
240.19 -729.62 6.97 
239.54 -726.81 7.18 
239.58 -726.87 7.19 
228.45 -727.33 7.32 
240.69 -727.51 7.25 
240.54 -727.40 7.23 
239.96 -727.50 7.28 
239.64 -727.42 7.35 
232.21 -727.65 7.39 
231.88 -727.38 7.39 
228.78 -727.58 7.32 
240.25 -727.73 7.39 
238.78 -727.75 7.38 
238.56 -727.73 7.39 
230.09 -728.11 7.61 
229.27 -728.04 7.35 
241.15 -728.06 7.32 
230.85 -728.42 7.29 
229.39 -728.24 7.36 
240.06 -728.74 7.48 
231.14 -728.69 7.31 
232.09 -729.23 7.32 
230.48 -729.27 7.42 
229.82 -729.11 7.45 
241.24 -729.45 7.55 
231.60 -729.55 7.39 
230.96 -729.38 7.41 
229.92 -729.35 7.47 
230.00 -725.71 7.69 
229.97 -726.06 7.74 
231.27 -726.41 7.68 
232.10 -726.56 7.96 
230.22 -726.73 7.82 
229.87 -726.56 7.82 
233.05 -726.99 7.93 
231.82 -727.13 7.74 
231.52 -726.92 7.74 
229.55 -727.30 7.95 
240.88 -727.45 7.83 
240.04 -727.20 7.83 
232.30 -727.55 7.77 
232.03 -727.42 7.77 
231.57 -727.36 7.80 
230.70 -727.51 7.89 
230.01 -727.34 7.92 
238.43 -727.62 8.01 
232.51 -727.73 7.78 
231.53 -727.78 7.86 
229.91 -727.82 8.00 
233.52 -728.46 7.82 
232.56 -728.46 7.89 
233.88 -728.58 7.81 
233.64 -728.65 7.84 
232.59 -728.73 7.93 
231.53 -729.29 8.09 
231.65 -729.43 8.10 
231.83 -726.22 8.29 
232.76 -727.00 8.33 
232.51 -727.02 8.36 
228.24 -727.15 8.05 
238.37 -727.68 8.02 
228.60 -728.09 8.15 
238.44 -728.08 8.09 
241.40 -728.85 8.08 
229.82 -727.60 8.71 
238.13 -721.71 3.72 
238.33 -722.41 3.74 
233.92 -725.18 3.84 
222.23 -719.45 4.10 
222.38 -719.73 4.12 
221.98 -720.28 4.15 
222.10 -720.50 4.16 
240.04 -721.26 3.94 
238.61 -721.24 3.95 
238.03 -721.19 3.96 
239.91 -722.49 4.01 
239.36 -722.45 4.01 
239.00 -722.48 4.02 
238.55 -722.45 4.02 
233.19 -722.75 4.11 
232.95 -722.79 4.11 
232.62 -722.79 4.12 
223.50 -710.24 3.87 
221.74 -719.43 4.35 
241.20 -721.17 4.35 
240.99 -721.20 4.36 
238.09 -721.16 4.42 
241.14 -721.39 4.37 
241.00 -721.43 4.38 
240.23 -721.59 4.16 
238.04 -721.44 4.44 
237.62 -721.49 4.20 
225.29 -721.83 4.41 
241.16 -721.69 4.39 
241.12 -721.90 4.41 
238.07 -721.89 4.47 
241.30 -722.37 4.44 
241.05 -722.38 4.32 
240.71 -722.41 4.20 
240.07 -722.43 4.47 
239.79 -722.43 4.48 
239.35 -722.41 4.48 
238.95 -722.41 4.40 
238.55 -722.43 4.50 
238.20 -722.39 4.42 
237.64 -722.29 4.24 
241.35 -722.46 4.45 
232.90 -722.73 4.33 
232.41 -722.69 4.34 
233.51 -725.46 4.47 
223.57 -710.11 4.18 
223.62 -710.53 4.20 
223.67 -710.86 4.22 
222.01 -720.16 4.84 
218.98 -720.70 4.99 
241.19 -721.18 4.79 
240.99 -721.19 4.80 
238.09 -721.15 4.88 
241.07 -721.39 4.81 
238.05 -721.39 4.90 
237.66 -721.40 4.67 
225.72 -721.83 4.82 
219.86 -721.76 5.03 
241.15 -721.71 4.84 
241.11 -721.91 4.86 
238.05 -721.90 4.95 
224.62 -721.93 4.87 
220.35 -722.25 5.04 
220.16 -722.22 5.04 
219.82 -722.06 5.05 
241.24 -722.35 4.91 
241.04 -722.38 4.78 
240.69 -722.40 4.67 
240.07 -722.43 4.94 
239.78 -722.40 4.95 
239.31 -722.40 4.90 
238.97 -722.41 4.97 
238.60 -722.40 4.85 
238.31 -722.43 4.73 
237.66 -722.23 4.73 
220.48 -722.40 5.04 
233.85 -724.48 5.01 
234.18 -724.72 4.78 
233.85 -724.71 4.79 
233.55 -724.56 5.02 
234.80 -725.15 4.80 
234.60 -725.17 4.80 
234.26 -725.06 5.04 
223.50 -710.11 4.76 
223.55 -710.53 4.78 
223.56 -710.78 4.79 
222.00 -719.50 5.09 
241.35 -721.53 5.27 
241.00 -721.56 5.28 
240.35 -721.39 5.05 
239.84 -721.45 5.31 
239.34 -721.46 5.33 
238.85 -721.44 5.11 
237.78 -721.41 5.15 
225.55 -721.83 5.11 
225.35 -721.75 5.11 
240.53 -721.85 5.08 
237.77 -721.70 5.18 
226.45 -721.88 5.45 
239.02 -722.13 5.17 
238.35 -722.40 4.99 
238.14 -722.36 4.99 
233.88 -724.35 5.34 
240.85 -724.79 5.35 
233.94 -724.53 5.35 
241.01 -724.85 5.35 
234.61 -725.12 5.38 
219.69 -720.98 5.74 
224.82 -721.21 5.48 
219.63 -721.34 5.77 
238.84 -721.44 5.35 
238.52 -721.42 5.36 
238.18 -721.40 5.37 
226.00 -721.80 5.46 
225.50 -721.58 5.79 
219.31 -721.81 5.82 
239.10 -721.73 5.37 
238.68 -722.00 5.42 
225.63 -721.88 5.49 
225.43 -721.88 5.82 
239.79 -722.12 5.39 
239.28 -722.12 5.41 
238.95 -722.08 5.42 
226.51 -722.60 5.51 
229.14 -726.09 5.97 
232.44 -726.97 5.89 
232.30 -727.12 5.91 
239.41 -727.29 5.64 
232.46 -727.51 5.94 
229.56 -727.90 5.84 
229.73 -728.50 5.89 
229.63 -728.33 5.88 
230.09 -728.77 5.90 
229.93 -728.65 5.89 
238.41 -728.87 5.83 
240.74 -729.58 5.83 
226.05 -721.22 6.06 
225.74 -721.10 6.07 
225.70 -721.77 6.14 
226.04 -722.20 6.16 
225.90 -722.11 6.16 
240.57 -727.18 6.17 
233.67 -727.12 6.25 
232.72 -727.24 6.31 
230.62 -727.23 6.42 
240.16 -727.27 6.19 
232.70 -727.63 6.36 
230.77 -727.53 6.44 
230.24 -727.37 6.45 
238.99 -727.76 6.30 
231.26 -728.04 6.47 
231.05 -728.04 6.49 
239.21 -728.28 6.35 
239.29 -728.77 6.41 
240.54 -728.99 6.39 
240.10 -729.17 6.42 
238.17 -729.14 6.31 
219.05 -729.25 6.44 
241.47 -729.67 6.43 
219.41 -721.39 6.56 
218.09 -721.38 6.66 
219.35 -721.59 6.59 
219.59 -722.09 6.61 
219.24 -722.09 6.64 
239.01 -726.63 6.61 
239.39 -727.07 6.60 
241.50 -727.25 6.55 
239.54 -727.19 6.61 
229.34 -727.62 6.53 
239.87 -727.69 6.67 
239.58 -727.63 6.67 
230.23 -728.71 6.88 
229.15 -728.55 6.64 
241.27 -729.01 6.82 
241.26 -728.95 6.81 
240.23 -728.95 6.84 
231.39 -729.06 6.58 
236.12 -729.43 6.63 
230.72 -729.33 6.65 
230.43 -729.40 6.67 
229.94 -729.36 6.69 
240.06 -726.63 7.08 
239.91 -726.61 7.09 
232.87 -726.53 6.86 
229.66 -726.80 7.11 
229.42 -726.78 7.12 
240.13 -726.83 7.11 
229.86 -727.02 7.12 
240.89 -727.42 7.18 
240.65 -727.42 7.19 
240.26 -727.15 7.16 
231.03 -727.60 7.12 
230.14 -727.53 7.17 
230.03 -727.33 7.15 
228.66 -727.42 7.26 
230.28 -727.84 7.20 
229.26 -728.04 7.30 
232.08 -728.22 7.14 
231.68 -728.14 7.15 
231.08 -728.32 7.21 
230.45 -728.12 7.23 
230.56 -728.76 7.30 
233.88 -729.15 7.16 
233.53 -729.19 7.18 
232.37 -729.18 7.25 
236.99 -729.55 7.06 
236.69 -729.55 7.07 
236.30 -729.55 7.09 
234.03 -729.26 7.17 
233.05 -729.43 7.25 
231.77 -729.53 7.33 
232.23 -726.52 7.55 
231.43 -726.62 7.63 
232.76 -727.11 7.60 
240.36 -727.52 7.22 
231.79 -727.66 7.36 
240.15 -727.65 7.25 
239.96 -727.68 7.43 
239.16 -727.75 7.32 
238.22 -727.79 7.56 
241.33 -727.95 7.26 
241.13 -728.03 7.28 
238.86 -728.18 7.40 
238.46 -728.27 7.62 
238.33 -728.20 7.62 
229.33 -728.26 7.32 
231.93 -728.79 7.50 
229.04 -728.84 7.72 
229.97 -729.27 7.41 
241.34 -729.39 7.50 
241.48 -729.66 7.54 
240.50 -729.66 7.58 
231.47 -729.68 7.37 
230.06 -725.86 7.63 
229.97 -726.03 7.66 
231.53 -726.41 7.90 
231.82 -726.62 7.91 
230.04 -726.60 7.74 
233.09 -726.99 7.85 
231.50 -727.03 7.69 
229.80 -727.28 7.86 
228.35 -727.12 7.96 
232.37 -727.39 7.67 
230.01 -727.33 7.85 
229.04 -727.59 7.97 
240.82 -727.65 7.83 
238.99 -727.68 7.93 
232.64 -727.68 7.70 
231.74 -728.01 7.82 
231.54 -727.74 7.79 
230.08 -727.94 7.94 
229.88 -727.87 7.94 
239.06 -728.10 8.00 
233.42 -728.07 7.71 
233.88 -728.63 7.76 
232.64 -728.63 7.85 
241.49 -728.79 8.02 
231.74 -729.53 8.06 
234.28 -729.65 7.90 
231.91 -726.27 8.20 
231.16 -726.34 8.28 
232.92 -727.10 8.25 
230.00 -727.18 8.16 
231.73 -727.25 8.38 
231.72 -727.63 8.45 
231.74 -720.47 3.59 
238.12 -721.76 3.63 
238.60 -722.43 3.65 
233.88 -725.20 3.75 
222.75 -719.71 4.02 
222.38 -720.29 4.06 
222.41 -720.43 4.07 
240.39 -721.24 3.83 
239.02 -721.26 3.85 
238.53 -721.42 3.86 
239.52 -722.49 3.91 
236.26 -722.76 3.96 
235.94 -722.78 3.97 
235.46 -722.72 3.97 
234.74 -722.78 3.98 
234.19 -722.81 3.99 
223.57 -710.28 4.09 
223.60 -710.50 4.10 
223.34 -710.35 3.81 
222.35 -719.53 4.26 
241.07 -721.19 4.24 
240.19 -721.19 4.04 
238.54 -721.16 4.29 
241.06 -721.40 4.26 
238.54 -721.53 4.32 
237.61 -721.59 4.10 
225.27 -721.81 4.32 
241.15 -721.78 4.29 
240.19 -721.88 4.07 
238.54 -721.90 4.35 
237.62 -721.95 4.12 
225.35 -721.96 4.32 
241.13 -722.22 4.32 
239.82 -722.42 4.36 
239.59 -722.44 4.36 
239.09 -722.45 4.38 
238.67 -722.40 4.31 
238.23 -722.42 4.13 
237.61 -722.33 4.14 
241.48 -722.45 4.33 
241.14 -722.44 4.21 
240.70 -722.45 4.18 
240.20 -722.45 4.35 
240.02 -722.46 4.36 
239.38 -722.46 4.37 
234.18 -725.00 4.33 
222.77 -719.54 4.66 
222.39 -720.28 4.73 
218.90 -720.88 4.89 
241.03 -721.18 4.67 
240.31 -721.19 4.46 
238.53 -721.14 4.73 
241.05 -721.43 4.69 
238.56 -721.60 4.78 
237.69 -721.42 4.55 
237.66 -721.50 4.55 
225.77 -721.84 4.84 
241.14 -721.79 4.73 
240.21 -721.81 4.51 
238.54 -721.87 4.80 
237.64 -721.88 4.58 
218.38 -722.31 5.00 
241.13 -722.22 4.77 
239.76 -722.36 4.82 
239.52 -722.42 4.83 
239.09 -722.42 4.84 
238.71 -722.42 4.85 
240.68 -722.45 4.54 
240.27 -722.43 4.81 
239.95 -722.43 4.82 
239.36 -722.44 4.84 
238.83 -722.44 4.85 
234.17 -724.80 4.66 
233.85 -724.68 4.66 
233.49 -724.63 4.90 
234.77 -725.06 4.67 
234.35 -725.03 4.73 
234.94 -725.50 4.70 
234.92 -725.49 4.70 
223.51 -710.19 4.63 
223.52 -710.45 4.64 
223.55 -710.79 4.66 
222.30 -719.52 4.97 
222.04 -720.36 5.03 
225.42 -721.32 5.31 
241.48 -721.36 4.99 
241.01 -721.27 5.11 
240.57 -721.45 5.02 
240.29 -721.35 5.08 
239.89 -721.32 5.16 
239.52 -721.34 5.17 
239.12 -721.37 5.19 
238.61 -721.36 5.21 
225.74 -721.79 5.33 
225.50 -721.67 5.16 
225.18 -721.81 5.00 
241.48 -721.67 4.89 
241.15 -721.64 4.90 
240.67 -721.61 4.91 
240.38 -721.61 4.92 
239.76 -721.66 4.95 
225.86 -721.88 5.34 
226.35 -722.46 5.36 
225.78 -722.53 5.39 
241.18 -724.69 5.19 
234.71 -724.98 5.23 
233.95 -725.12 5.27 
223.26 -710.09 5.03 
225.89 -721.79 5.64 
219.33 -721.77 5.68 
225.43 -721.89 5.67 
229.38 -726.35 5.82 
233.29 -727.64 5.76 
229.64 -727.57 5.92 
228.83 -728.11 6.00 
232.62 -728.43 5.63 
229.80 -728.55 5.74 
229.15 -728.45 6.02 
229.94 -728.81 5.76 
