# .PCD v0.7 - Point Cloud Data file format
VERSION 0.7
FIELDS x y z
SIZE 4 4 4
TYPE F F F
COUNT 1 1 1
WIDTH 2277
HEIGHT 1
VIEWPOINT 0 0 0 1 0 0 0
POINTS 2277
DATA ascii
227.63 -674.16 4.54 
227.22 -674.12 4.52 
226.82 -674.11 4.49 
225.60 -674.09 4.42 
225.21 -674.09 4.40 
224.68 -674.09 4.37 
223.55 -674.07 4.31 
222.35 -674.04 4.25 
222.00 -674.02 4.24 
217.80 -673.86 4.80 
217.51 -673.83 4.80 
217.17 -673.82 4.78 
216.84 -673.83 4.77 
219.26 -668.97 4.91 
218.87 -668.96 4.89 
218.34 -668.95 4.86 
217.97 -668.92 4.85 
217.57 -668.91 4.83 
217.19 -668.91 4.81 
216.79 -668.88 4.79 
223.55 -669.12 5.17 
223.23 -669.14 5.14 
222.80 -669.12 5.12 
222.38 -669.10 5.09 
221.96 -669.09 5.06 
221.54 -669.07 5.04 
221.13 -669.06 5.01 
220.73 -669.04 4.99 
220.36 -669.00 4.97 
220.05 -669.01 4.95 
219.65 -669.02 4.93 
228.73 -669.33 5.54 
228.33 -669.32 5.51 
227.94 -669.29 5.48 
227.56 -669.32 5.45 
227.27 -669.27 5.43 
226.66 -669.26 5.38 
226.37 -669.22 5.36 
226.00 -669.19 5.41 
225.57 -669.19 5.38 
225.13 -669.16 5.42 
224.77 -669.14 5.36 
224.40 -669.16 5.30 
224.04 -669.13 5.28 
223.72 -669.12 5.18 
221.51 -668.79 5.93 
221.23 -668.80 5.91 
220.84 -668.77 5.88 
220.22 -668.68 5.85 
219.95 -668.69 5.83 
219.55 -668.68 5.80 
217.66 -668.62 5.69 
217.15 -668.60 5.67 
221.78 -668.81 5.94 
216.69 -674.70 1.26 
224.34 -674.75 1.51 
224.06 -674.72 1.50 
223.72 -674.78 1.49 
223.30 -674.76 1.48 
222.83 -674.73 1.46 
222.44 -674.75 1.45 
222.02 -674.75 1.44 
221.63 -674.76 1.42 
221.27 -674.81 1.41 
220.87 -674.84 1.40 
220.48 -674.83 1.39 
220.04 -674.80 1.37 
219.67 -674.81 1.36 
219.20 -674.79 1.34 
218.81 -674.79 1.33 
218.42 -674.77 1.32 
218.04 -674.74 1.30 
217.70 -674.77 1.29 
217.23 -674.75 1.28 
216.88 -674.73 1.27 
216.51 -674.74 1.25 
224.05 -674.45 1.70 
223.62 -674.48 1.69 
223.22 -674.46 1.67 
221.11 -674.48 1.60 
220.86 -674.48 1.60 
220.51 -674.47 1.59 
219.61 -674.47 1.56 
219.24 -674.50 1.55 
218.88 -674.49 1.53 
218.63 -674.51 1.53 
230.37 -674.79 1.72 
225.88 -674.76 1.57 
239.58 -675.09 2.07 
222.84 -674.57 2.25 
222.41 -674.56 2.23 
222.03 -674.51 2.21 
221.61 -674.48 2.19 
221.21 -674.50 2.17 
220.88 -674.38 2.15 
220.56 -674.42 2.14 
219.43 -674.62 2.09 
218.86 -674.63 2.07 
218.48 -674.65 2.05 
218.02 -674.61 2.03 
217.66 -674.59 2.02 
217.26 -674.61 2.00 
216.79 -674.60 1.98 
223.98 -674.78 2.31 
223.58 -674.72 2.29 
223.22 -674.61 2.27 
222.65 -674.60 2.24 
219.65 -674.65 2.11 
219.25 -674.66 2.09 
222.10 -679.52 2.34 
226.06 -669.16 2.47 
223.66 -674.16 2.48 
228.86 -674.29 2.72 
228.52 -674.32 2.70 
228.22 -674.29 2.69 
220.68 -674.25 2.35 
219.19 -674.26 2.29 
218.77 -674.40 2.28 
230.25 -674.84 2.62 
230.18 -674.87 2.62 
229.67 -674.85 2.59 
225.62 -674.79 2.39 
225.20 -674.78 2.37 
224.88 -674.80 2.35 
224.41 -674.75 2.33 
239.99 -675.10 3.15 
239.53 -675.07 3.12 
239.23 -674.96 3.10 
239.00 -675.07 3.09 
238.48 -675.09 3.06 
238.20 -674.98 3.05 
234.51 -674.92 2.84 
236.22 -674.15 3.08 
223.26 -674.50 3.07 
222.77 -674.53 3.04 
222.40 -674.52 3.02 
221.96 -674.51 2.99 
221.54 -674.53 2.97 
221.17 -674.50 2.94 
220.85 -674.50 2.93 
220.51 -674.48 2.91 
220.08 -674.49 2.88 
219.54 -674.47 2.85 
219.21 -674.46 2.83 
218.86 -674.46 2.81 
218.42 -674.47 2.79 
218.05 -674.45 2.77 
217.59 -674.43 2.75 
217.23 -674.41 2.73 
216.84 -674.43 2.71 
223.51 -674.55 3.08 
229.56 -674.15 3.63 
229.29 -674.12 3.61 
228.85 -674.14 3.58 
228.59 -674.16 3.57 
227.96 -674.14 3.53 
223.96 -674.41 3.17 
223.55 -674.21 3.27 
223.15 -674.21 3.25 
220.39 -674.26 3.11 
220.02 -674.26 3.09 
218.66 -674.28 3.02 
218.43 -674.28 3.01 
217.95 -674.28 2.99 
233.81 -674.72 3.76 
233.56 -674.64 3.74 
233.38 -674.74 3.73 
231.04 -674.69 3.57 
230.67 -674.67 3.55 
230.38 -674.63 3.52 
230.00 -674.63 3.50 
229.59 -674.66 3.47 
229.34 -674.60 3.45 
225.91 -674.61 3.23 
225.65 -674.58 3.22 
225.34 -674.56 3.20 
224.85 -674.57 3.17 
224.39 -674.56 3.14 
224.09 -674.57 3.12 
223.80 -674.55 3.10 
217.08 -674.19 3.46 
236.60 -674.04 4.08 
234.81 -674.08 3.96 
233.80 -674.09 3.90 
233.43 -674.11 3.87 
233.09 -674.08 3.85 
232.73 -674.10 3.83 
229.88 -674.15 3.65 
223.04 -674.34 3.86 
222.74 -674.35 3.84 
222.42 -674.30 3.82 
222.02 -674.32 3.79 
221.63 -674.32 3.76 
221.23 -674.31 3.73 
220.73 -674.28 3.70 
220.40 -674.29 3.67 
220.02 -674.30 3.65 
219.64 -674.29 3.62 
219.16 -674.27 3.59 
218.85 -674.25 3.57 
218.37 -674.26 3.54 
217.63 -674.24 3.49 
217.20 -674.23 3.47 
216.81 -674.22 3.44 
237.06 -674.68 3.99 
235.53 -674.74 3.88 
235.16 -674.71 3.86 
234.74 -674.69 3.83 
234.26 -674.70 3.79 
240.76 -674.85 4.26 
238.80 -674.77 4.12 
237.87 -674.72 4.05 
237.37 -674.74 4.01 
236.87 -674.76 3.98 
236.41 -674.76 3.95 
235.95 -674.76 3.91 
227.50 -673.96 4.36 
226.78 -674.03 4.31 
226.48 -674.03 4.29 
226.04 -674.03 4.26 
225.10 -673.98 4.19 
224.53 -674.00 4.15 
223.62 -674.04 4.09 
223.20 -674.06 4.06 
222.79 -674.07 4.04 
219.93 -674.10 3.86 
219.56 -674.12 3.84 
218.70 -674.11 3.79 
218.34 -674.12 3.77 
217.98 -674.12 3.75 
217.62 -674.14 3.73 
230.22 -674.38 4.42 
228.45 -674.37 4.28 
227.99 -674.43 4.24 
227.65 -674.42 4.21 
227.14 -674.39 4.17 
226.74 -674.37 4.14 
226.35 -674.38 4.11 
226.05 -674.38 4.09 
225.55 -674.37 4.05 
225.15 -674.36 4.02 
224.80 -674.37 3.99 
224.50 -674.37 3.97 
224.03 -674.35 3.93 
223.65 -674.32 3.91 
223.32 -674.35 3.88 
230.83 -674.45 4.48 
230.45 -674.46 4.44 
229.95 -674.43 4.40 
229.55 -674.44 4.37 
229.02 -674.43 4.33 
228.68 -674.43 4.30 
228.33 -674.42 4.27 
231.42 -673.92 4.66 
231.09 -673.91 4.63 
230.73 -673.93 4.60 
230.03 -673.90 4.55 
229.64 -673.99 4.52 
229.00 -673.98 4.47 
228.42 -673.97 4.43 
227.96 -673.95 4.39 
221.80 -674.07 4.57 
220.79 -674.09 4.49 
220.34 -674.06 4.45 
219.97 -674.06 4.42 
219.60 -674.08 4.39 
219.22 -674.05 4.36 
218.73 -674.05 4.32 
218.43 -674.03 4.30 
217.90 -674.00 4.34 
217.56 -674.00 4.36 
217.21 -673.98 4.34 
216.76 -674.00 4.18 
234.23 -673.97 4.88 
233.85 -673.98 4.85 
229.28 -674.03 4.49 
222.42 -674.13 4.62 
222.04 -674.10 4.59 
221.60 -674.11 4.55 
221.19 -674.10 4.52 
235.76 -674.48 4.90 
235.24 -674.54 4.86 
234.89 -674.49 4.82 
234.39 -674.52 4.78 
233.98 -674.51 4.74 
233.55 -674.51 4.71 
233.23 -674.46 4.68 
232.76 -674.49 4.64 
232.36 -674.48 4.61 
231.98 -674.47 4.57 
231.63 -674.46 4.54 
231.26 -674.44 4.51 
225.06 -673.89 5.02 
224.67 -673.88 4.99 
224.36 -673.89 4.96 
223.98 -673.86 4.93 
223.66 -673.89 4.91 
223.13 -673.87 4.87 
222.73 -673.87 4.84 
222.32 -673.89 4.81 
219.62 -673.92 4.61 
219.11 -673.93 4.58 
218.75 -673.93 4.56 
218.03 -673.93 4.51 
223.17 -674.13 4.68 
222.85 -674.14 4.66 
219.81 -668.99 5.48 
219.44 -668.98 5.45 
219.08 -668.96 5.43 
218.70 -668.99 5.39 
218.29 -668.98 5.36 
217.88 -668.96 5.33 
217.45 -668.99 5.30 
217.06 -668.95 5.27 
216.65 -668.95 5.24 
226.19 -669.08 6.06 
225.89 -669.06 6.03 
225.53 -669.07 6.00 
225.18 -669.09 5.96 
224.71 -669.06 5.92 
224.26 -669.05 5.88 
223.87 -669.02 5.84 
223.44 -669.05 5.80 
222.96 -668.96 5.86 
222.64 -668.99 5.83 
222.35 -668.97 5.81 
221.87 -668.98 5.73 
221.49 -669.00 5.63 
221.19 -668.99 5.60 
220.71 -669.01 5.56 
220.27 -669.00 5.52 
218.65 -668.98 5.65 
217.83 -669.00 5.59 
216.61 -668.65 6.12 
225.45 -668.85 6.18 
225.13 -668.84 6.15 
224.82 -668.86 6.12 
223.23 -668.91 5.99 
218.30 -668.68 6.26 
218.41 -674.81 1.15 
217.94 -674.78 1.13 
217.59 -674.79 1.12 
217.25 -674.77 1.11 
216.80 -674.74 1.10 
226.44 -675.02 1.43 
226.06 -675.00 1.41 
225.57 -675.00 1.40 
225.12 -675.00 1.38 
224.88 -674.97 1.37 
224.56 -675.00 1.36 
224.05 -675.06 1.35 
223.58 -675.03 1.33 
223.19 -675.03 1.32 
222.81 -675.02 1.30 
222.41 -675.01 1.29 
221.98 -674.96 1.27 
221.61 -674.96 1.26 
221.25 -674.94 1.25 
220.86 -674.93 1.24 
220.34 -674.90 1.22 
220.02 -674.88 1.21 
219.69 -674.87 1.19 
219.25 -674.86 1.18 
218.89 -674.84 1.17 
218.53 -674.83 1.16 
218.06 -674.82 1.14 
226.01 -674.69 1.60 
225.16 -674.69 1.58 
224.08 -674.68 1.54 
223.11 -674.62 1.51 
222.84 -674.62 1.50 
222.46 -674.62 1.49 
221.54 -674.61 1.46 
221.15 -674.64 1.45 
220.78 -674.63 1.43 
220.55 -674.62 1.43 
217.50 -674.58 1.33 
217.15 -674.60 1.32 
216.63 -674.56 1.30 
227.95 -675.06 1.48 
226.96 -675.01 1.44 
237.12 -675.47 1.82 
224.67 -674.78 2.15 
224.45 -674.69 2.14 
223.54 -674.72 2.10 
223.23 -674.58 2.08 
221.62 -674.78 2.01 
221.20 -674.79 1.99 
220.41 -674.77 1.96 
219.95 -674.73 1.94 
219.64 -674.73 1.92 
219.17 -674.72 1.90 
218.81 -674.72 1.89 
218.46 -674.69 1.87 
218.01 -674.66 1.85 
217.65 -674.65 1.84 
217.29 -674.64 1.82 
216.82 -674.63 1.80 
225.49 -674.86 2.19 
225.20 -674.84 2.18 
224.91 -674.83 2.17 
221.81 -674.83 2.02 
221.56 -674.82 2.01 
221.29 -674.81 2.00 
220.77 -674.80 1.97 
225.63 -674.38 2.39 
224.03 -674.30 2.31 
230.41 -674.61 2.61 
229.92 -674.62 2.59 
224.19 -674.42 2.32 
222.62 -674.41 2.26 
221.06 -674.51 2.19 
220.80 -674.53 2.18 
220.45 -674.50 2.17 
217.51 -674.48 2.05 
217.17 -674.49 2.04 
216.73 -674.48 2.03 
232.32 -675.23 2.55 
231.88 -675.26 2.52 
227.87 -675.06 2.32 
227.54 -675.06 2.30 
227.20 -675.05 2.28 
226.87 -675.06 2.27 
226.40 -675.02 2.24 
226.03 -674.97 2.22 
225.75 -674.91 2.21 
241.18 -675.56 3.03 
240.80 -675.62 3.01 
240.44 -675.55 2.99 
236.82 -675.34 2.79 
232.63 -675.28 2.56 
238.78 -674.67 3.03 
235.07 -674.68 2.84 
224.76 -674.77 2.96 
224.38 -674.73 2.93 
224.10 -674.71 2.92 
223.64 -674.72 2.89 
223.13 -674.68 2.86 
222.80 -674.66 2.84 
222.41 -674.67 2.82 
222.01 -674.66 2.79 
221.54 -674.61 2.76 
221.21 -674.61 2.75 
220.79 -674.60 2.72 
220.34 -674.59 2.70 
219.97 -674.58 2.68 
219.56 -674.53 2.65 
219.21 -674.53 2.63 
218.75 -674.52 2.61 
218.38 -674.52 2.59 
218.03 -674.50 2.57 
217.59 -674.46 2.55 
217.17 -674.44 2.53 
216.87 -674.45 2.51 
225.19 -674.79 2.98 
230.94 -674.48 3.51 
229.99 -674.45 3.45 
226.18 -674.76 3.04 
225.84 -674.59 3.11 
225.52 -674.42 3.19 
225.24 -674.42 3.17 
224.84 -674.42 3.15 
222.65 -674.37 3.03 
222.39 -674.37 3.02 
222.01 -674.37 3.00 
220.83 -674.39 2.94 
220.34 -674.39 2.92 
220.10 -674.38 2.90 
216.72 -674.35 2.75 
233.65 -675.02 3.54 
233.26 -675.02 3.51 
232.79 -675.06 3.48 
232.29 -675.01 3.45 
231.93 -674.99 3.42 
231.70 -675.01 3.41 
228.25 -674.91 3.18 
227.95 -674.88 3.16 
227.59 -674.83 3.13 
227.15 -674.86 3.11 
226.67 -674.86 3.08 
226.39 -674.82 3.06 
226.09 -674.81 3.04 
225.63 -674.82 3.01 
219.00 -674.30 3.37 
217.63 -674.28 3.28 
217.18 -674.26 3.25 
216.72 -674.24 3.23 
239.24 -674.51 4.06 
238.32 -674.57 4.00 
237.24 -674.48 3.92 
236.86 -674.45 3.89 
235.97 -674.51 3.84 
235.61 -674.48 3.81 
235.25 -674.46 3.79 
234.40 -674.55 3.73 
233.08 -674.47 3.65 
232.74 -674.45 3.62 
231.94 -674.50 3.57 
231.66 -674.47 3.56 
231.27 -674.49 3.53 
224.34 -674.52 3.73 
224.00 -674.52 3.71 
223.60 -674.51 3.68 
223.18 -674.50 3.65 
222.73 -674.46 3.62 
222.35 -674.45 3.59 
221.97 -674.46 3.56 
221.58 -674.43 3.54 
221.09 -674.40 3.50 
220.78 -674.40 3.48 
220.37 -674.38 3.45 
219.93 -674.37 3.43 
219.55 -674.36 3.40 
219.21 -674.33 3.38 
218.80 -674.32 3.35 
218.34 -674.31 3.32 
217.98 -674.30 3.30 
239.66 -675.23 3.97 
239.16 -675.25 3.94 
238.85 -675.17 3.91 
237.59 -675.18 3.82 
237.16 -675.16 3.79 
236.82 -675.22 3.77 
236.41 -675.20 3.74 
235.99 -675.17 3.71 
235.73 -675.07 3.69 
240.04 -675.34 4.00 
238.66 -675.25 3.90 
238.16 -675.27 3.86 
228.36 -674.27 4.20 
227.89 -674.30 4.17 
227.58 -674.30 4.15 
225.16 -674.26 3.98 
224.75 -674.27 3.95 
224.48 -674.26 3.93 
222.18 -674.22 3.79 
221.91 -674.24 3.77 
221.55 -674.21 3.75 
220.01 -674.23 3.66 
219.65 -674.24 3.64 
230.37 -674.72 4.20 
230.06 -674.74 4.18 
229.53 -674.74 4.14 
229.04 -674.71 4.10 
228.75 -674.69 4.07 
228.43 -674.68 4.05 
228.07 -674.67 4.02 
227.58 -674.67 3.98 
227.16 -674.62 3.95 
226.85 -674.61 3.92 
226.36 -674.61 3.88 
225.90 -674.59 3.85 
225.56 -674.56 3.82 
225.15 -674.59 3.79 
224.73 -674.56 3.76 
232.19 -674.84 4.36 
231.88 -674.80 4.33 
231.51 -674.79 4.30 
231.09 -674.80 4.26 
230.76 -674.77 4.24 
234.34 -674.34 4.66 
233.55 -674.27 4.60 
233.19 -674.28 4.57 
232.85 -674.26 4.54 
232.51 -674.23 4.52 
231.37 -674.30 4.43 
231.02 -674.32 4.40 
223.91 -674.28 4.50 
223.50 -674.25 4.47 
223.15 -674.28 4.44 
222.75 -674.26 4.41 
222.37 -674.22 4.38 
221.97 -674.21 4.34 
221.54 -674.22 4.31 
221.15 -674.20 4.28 
220.68 -674.17 4.24 
220.37 -674.16 4.22 
220.05 -674.14 4.19 
219.57 -674.11 4.24 
219.12 -674.08 4.24 
218.73 -674.09 4.09 
218.38 -674.10 4.07 
217.93 -674.10 4.04 
217.58 -674.07 4.01 
217.22 -674.06 3.99 
216.76 -674.05 3.96 
235.22 -674.39 4.73 
224.27 -674.33 4.53 
223.98 -674.32 4.51 
223.57 -674.29 4.47 
237.08 -674.96 4.78 
236.66 -674.95 4.75 
236.16 -674.96 4.70 
235.77 -674.92 4.67 
235.48 -674.86 4.64 
235.17 -674.90 4.61 
234.91 -674.92 4.59 
234.50 -674.91 4.56 
234.10 -674.89 4.52 
233.58 -674.84 4.48 
233.33 -674.86 4.45 
232.75 -674.84 4.40 
226.81 -674.07 4.93 
226.33 -674.14 4.89 
225.91 -674.12 4.85 
225.68 -674.03 4.84 
225.18 -674.16 4.71 
224.69 -674.07 4.76 
224.28 -674.06 4.73 
221.66 -674.08 4.53 
221.10 -674.01 4.50 
219.70 -674.04 4.40 
225.11 -674.38 4.61 
224.83 -674.36 4.58 
224.54 -674.35 4.56 
217.83 -673.87 5.04 
217.49 -673.88 5.02 
216.74 -668.96 5.00 
221.53 -669.13 5.37 
221.17 -669.10 5.34 
220.79 -669.13 5.30 
220.38 -669.09 5.27 
219.95 -669.08 5.24 
219.53 -669.08 5.20 
219.13 -669.05 5.17 
218.72 -669.04 5.14 
218.32 -669.04 5.11 
217.95 -669.00 5.09 
217.52 -669.00 5.06 
217.12 -668.99 5.03 
228.00 -669.37 5.96 
227.69 -669.35 5.93 
227.17 -669.34 5.88 
226.69 -669.30 5.83 
226.40 -669.29 5.80 
225.99 -669.25 5.77 
225.56 -669.28 5.72 
225.10 -669.25 5.68 
224.78 -669.25 5.65 
224.29 -669.22 5.61 
223.91 -669.18 5.57 
223.60 -669.20 5.54 
223.19 -669.18 5.51 
222.67 -669.19 5.46 
222.38 -669.16 5.44 
221.91 -669.14 5.40 
220.74 -669.07 5.56 
219.91 -669.07 5.50 
218.68 -668.74 6.03 
218.27 -668.74 5.99 
217.80 -668.68 5.96 
217.53 -668.67 5.94 
217.13 -668.67 5.90 
216.73 -668.65 5.87 
228.33 -669.40 5.99 
228.10 -669.32 5.97 
227.57 -669.10 6.10 
227.11 -669.08 6.06 
226.65 -669.05 6.03 
225.64 -669.11 5.93 
225.04 -669.11 5.89 
224.74 -669.10 5.86 
220.57 -668.72 6.20 
220.24 -668.81 6.16 
219.69 -668.81 6.39 
217.17 -674.75 0.98 
216.93 -674.75 0.97 
216.56 -674.72 0.96 
225.66 -675.19 1.25 
225.35 -675.19 1.24 
224.95 -675.13 1.22 
224.59 -675.14 1.21 
224.18 -675.11 1.20 
223.74 -675.10 1.19 
223.35 -675.06 1.17 
222.94 -675.03 1.16 
222.48 -675.04 1.15 
222.21 -675.01 1.14 
221.77 -675.00 1.12 
221.37 -674.95 1.11 
221.02 -674.96 1.10 
220.62 -674.94 1.09 
220.21 -674.91 1.07 
219.76 -674.88 1.06 
219.34 -674.89 1.04 
218.97 -674.86 1.03 
218.46 -674.82 1.02 
218.15 -674.79 1.01 
217.81 -674.80 1.00 
217.40 -674.78 0.98 
225.74 -674.75 1.44 
225.32 -674.74 1.42 
222.80 -674.65 1.35 
222.52 -674.64 1.34 
222.15 -674.62 1.33 
221.19 -674.62 1.30 
220.92 -674.63 1.29 
220.56 -674.62 1.28 
217.43 -674.58 1.19 
217.00 -674.55 1.18 
227.36 -675.26 1.31 
226.89 -675.28 1.29 
226.48 -675.22 1.28 
226.09 -675.21 1.26 
225.76 -675.15 1.25 
223.48 -674.80 1.96 
219.71 -674.72 1.80 
219.33 -674.73 1.78 
218.89 -674.73 1.76 
218.53 -674.71 1.75 
218.11 -674.67 1.73 
217.77 -674.66 1.72 
217.31 -674.65 1.70 
216.96 -674.63 1.68 
216.62 -674.60 1.67 
221.74 -674.84 1.88 
221.31 -674.82 1.87 
220.97 -674.80 1.85 
220.54 -674.80 1.83 
220.15 -674.79 1.82 
219.78 -674.76 1.80 
224.27 -674.39 2.18 
221.60 -674.36 2.07 
225.89 -674.47 2.25 
225.37 -674.75 2.04 
224.99 -674.81 2.03 
222.82 -674.44 2.12 
221.83 -674.38 2.08 
220.95 -674.51 2.05 
220.59 -674.51 2.04 
220.21 -674.52 2.02 
217.33 -674.46 1.92 
217.10 -674.46 1.91 
216.53 -674.44 1.89 
232.34 -675.29 2.39 
228.14 -675.15 2.18 
227.74 -675.01 2.16 
227.38 -674.95 2.14 
226.96 -674.95 2.12 
226.50 -674.91 2.10 
240.82 -675.66 2.83 
237.27 -675.57 2.64 
236.99 -675.46 2.63 
233.03 -675.35 2.42 
232.60 -675.37 2.40 
231.23 -679.54 2.65 
240.18 -674.89 2.93 
239.70 -674.91 2.90 
223.85 -674.71 2.77 
223.34 -674.73 2.75 
222.91 -674.73 2.72 
222.53 -674.68 2.70 
222.08 -674.67 2.67 
221.68 -674.66 2.65 
221.27 -674.66 2.63 
220.92 -674.62 2.61 
220.48 -674.61 2.58 
220.10 -674.60 2.56 
219.62 -674.56 2.54 
219.31 -674.55 2.52 
218.99 -674.53 2.51 
218.58 -674.54 2.48 
218.10 -674.50 2.46 
217.69 -674.47 2.44 
217.35 -674.47 2.42 
216.90 -674.44 2.40 
216.56 -674.42 2.38 
224.06 -674.77 2.79 
223.75 -674.77 2.77 
241.23 -675.73 2.85 
225.64 -674.78 2.88 
225.30 -674.62 2.95 
224.97 -674.49 3.02 
224.49 -674.66 2.87 
224.13 -674.74 2.79 
222.34 -674.39 2.89 
222.08 -674.38 2.87 
221.68 -674.37 2.85 
221.30 -674.37 2.83 
220.73 -674.40 2.81 
220.48 -674.40 2.80 
220.11 -674.38 2.78 
216.87 -674.36 2.63 
216.55 -674.32 2.62 
233.26 -675.11 3.37 
232.80 -675.12 3.34 
232.39 -675.12 3.31 
232.14 -675.05 3.29 
228.47 -674.94 3.06 
228.10 -674.94 3.03 
227.76 -674.93 3.01 
227.32 -674.89 2.99 
226.93 -674.89 2.96 
226.49 -674.86 2.93 
225.94 -674.81 2.90 
225.70 -674.84 2.89 
225.24 -674.82 2.86 
224.94 -674.81 2.84 
224.62 -674.82 2.82 
216.56 -674.20 3.24 
239.89 -674.68 3.94 
236.83 -674.63 3.74 
236.47 -674.62 3.71 
236.09 -674.59 3.69 
235.35 -674.57 3.64 
232.23 -674.59 3.44 
231.70 -674.57 3.41 
223.57 -674.57 3.56 
223.30 -674.53 3.55 
222.87 -674.52 3.52 
222.50 -674.46 3.49 
222.11 -674.47 3.46 
221.64 -674.47 3.43 
221.24 -674.45 3.40 
220.84 -674.44 3.38 
220.48 -674.39 3.35 
220.05 -674.40 3.33 
219.68 -674.37 3.30 
219.29 -674.35 3.28 
218.94 -674.33 3.25 
218.58 -674.30 3.23 
218.17 -674.31 3.21 
217.69 -674.29 3.18 
217.27 -674.27 3.15 
216.94 -674.26 3.13 
238.58 -675.30 3.74 
237.51 -675.31 3.66 
236.89 -675.25 3.62 
236.55 -675.31 3.60 
240.92 -675.45 3.90 
239.90 -675.41 3.83 
239.40 -675.40 3.80 
238.90 -675.39 3.76 
237.95 -675.35 3.69 
228.02 -674.35 4.05 
227.71 -674.34 4.03 
227.41 -674.31 4.01 
224.90 -674.31 3.84 
224.49 -674.30 3.81 
224.21 -674.29 3.79 
222.12 -674.25 3.66 
221.71 -674.23 3.64 
221.34 -674.24 3.62 
221.09 -674.21 3.60 
220.15 -674.24 3.55 
219.53 -674.24 3.51 
219.29 -674.23 3.50 
230.06 -674.77 4.06 
229.69 -674.77 4.03 
228.52 -674.72 3.94 
228.21 -674.76 3.91 
227.72 -674.73 3.87 
227.24 -674.71 3.84 
226.96 -674.67 3.82 
226.64 -674.66 3.79 
226.12 -674.66 3.75 
225.65 -674.65 3.72 
225.32 -674.58 3.69 
224.90 -674.61 3.66 
224.46 -674.57 3.63 
224.06 -674.55 3.60 
223.76 -674.53 3.58 
231.40 -674.87 4.17 
231.04 -674.85 4.14 
230.49 -674.83 4.09 
229.94 -674.82 4.05 
229.60 -674.79 4.02 
229.25 -674.78 3.99 
228.90 -674.78 3.97 
235.81 -674.44 4.64 
234.60 -674.38 4.55 
234.17 -674.43 4.51 
233.21 -674.32 4.44 
232.46 -674.33 4.38 
230.95 -674.38 4.27 
222.08 -674.21 4.25 
221.67 -674.21 4.22 
221.20 -674.24 4.18 
220.95 -674.21 4.16 
220.51 -674.19 4.13 
220.09 -674.16 4.10 
219.64 -674.16 4.06 
219.38 -674.14 4.04 
218.88 -674.12 4.01 
218.53 -674.10 3.98 
218.16 -674.08 3.96 
217.76 -674.09 3.93 
217.28 -674.06 3.89 
216.87 -674.04 3.87 
216.55 -674.03 3.84 
234.95 -674.43 4.57 
231.62 -674.40 4.32 
231.27 -674.40 4.29 
230.59 -674.39 4.24 
228.32 -674.37 4.07 
223.13 -674.31 4.34 
222.85 -674.29 4.31 
222.42 -674.28 4.28 
222.02 -674.26 4.25 
221.74 -674.27 4.22 
221.47 -674.25 4.20 
238.11 -675.17 4.74 
237.65 -675.14 4.70 
237.20 -675.10 4.66 
236.81 -675.07 4.62 
236.38 -675.03 4.59 
235.84 -675.06 4.54 
235.29 -674.98 4.49 
234.85 -674.99 4.46 
234.57 -675.01 4.43 
234.15 -674.98 4.40 
233.72 -674.98 4.36 
233.30 -674.90 4.32 
232.95 -674.93 4.29 
232.55 -674.91 4.26 
232.04 -674.86 4.22 
231.66 -674.85 4.19 
226.85 -674.18 4.82 
226.56 -674.18 4.79 
226.13 -674.14 4.76 
224.84 -674.11 4.66 
224.43 -674.10 4.63 
224.03 -674.07 4.60 
223.49 -674.27 4.37 
221.24 -674.06 4.40 
220.65 -674.01 4.36 
219.71 -674.05 4.29 
219.22 -674.03 4.26 
218.86 -674.01 4.24 
236.61 -674.46 4.71 
236.19 -674.46 4.67 
225.30 -674.40 4.52 
224.91 -674.37 4.49 
224.43 -674.37 4.45 
223.98 -674.35 4.41 
223.74 -674.30 4.39 
223.41 -674.32 4.36 
238.28 -675.09 4.75 
227.17 -674.16 4.84 
217.93 -673.87 4.95 
220.54 -669.12 5.18 
220.10 -669.13 5.14 
219.83 -669.09 5.12 
219.40 -669.08 5.09 
218.98 -669.08 5.06 
218.55 -669.04 5.02 
218.16 -669.02 5.00 
217.74 -669.02 4.96 
217.35 -668.99 4.94 
216.95 -668.96 4.91 
216.54 -668.98 4.88 
226.89 -669.37 5.74 
226.56 -669.37 5.71 
226.17 -669.32 5.68 
225.73 -669.32 5.63 
225.26 -669.30 5.59 
224.62 -669.28 5.53 
224.11 -669.26 5.48 
223.71 -669.23 5.45 
223.37 -669.22 5.42 
222.91 -669.22 5.38 
222.46 -669.19 5.34 
221.74 -669.15 5.28 
221.30 -669.14 5.24 
220.94 -669.12 5.37 
220.52 -669.07 5.42 
220.09 -669.08 5.39 
218.18 -668.70 5.89 
228.34 -669.40 5.89 
228.14 -669.40 5.87 
227.77 -669.33 5.89 
227.31 -669.21 5.90 
226.84 -669.16 5.92 
225.83 -669.15 5.83 
225.35 -669.15 5.79 
224.90 -669.15 5.75 
224.59 -669.12 5.73 
224.29 -669.14 5.70 
219.64 -668.81 6.01 
219.38 -668.77 5.99 
218.96 -668.76 5.95 
217.69 -668.81 6.13 
217.30 -668.78 6.10 
217.02 -668.82 6.08 
224.11 -675.14 1.12 
223.69 -675.11 1.11 
223.39 -675.10 1.10 
222.92 -675.10 1.08 
222.48 -675.08 1.07 
222.17 -675.02 1.06 
221.79 -675.04 1.05 
221.35 -675.03 1.04 
220.96 -674.99 1.02 
220.52 -674.94 1.01 
220.16 -674.96 1.00 
219.76 -674.93 0.99 
219.38 -674.90 0.97 
218.94 -674.87 0.96 
218.60 -674.88 0.95 
218.10 -674.84 0.94 
217.63 -674.82 0.92 
217.34 -674.79 0.91 
216.90 -674.77 0.90 
226.60 -674.76 1.38 
226.14 -674.74 1.37 
225.69 -674.75 1.35 
223.48 -674.63 1.28 
223.01 -674.67 1.27 
222.64 -674.62 1.26 
222.04 -674.66 1.25 
221.77 -674.65 1.24 
221.37 -674.63 1.23 
220.97 -674.64 1.22 
220.15 -674.57 1.19 
219.51 -674.57 1.17 
226.85 -675.26 1.21 
225.79 -675.26 1.18 
227.46 -675.31 1.23 
226.92 -675.32 1.21 
226.43 -675.28 1.20 
226.09 -675.28 1.19 
218.84 -674.71 1.70 
218.46 -674.69 1.69 
217.64 -674.69 1.65 
217.29 -674.67 1.64 
216.94 -674.64 1.63 
216.56 -674.62 1.61 
222.01 -674.87 1.84 
221.75 -674.86 1.83 
221.30 -674.87 1.81 
220.89 -674.85 1.79 
220.46 -674.81 1.77 
220.11 -674.80 1.76 
219.69 -674.79 1.74 
219.29 -674.77 1.72 
218.90 -674.76 1.71 
218.53 -674.73 1.69 
218.13 -674.73 1.67 
222.75 -674.36 2.05 
225.74 -674.67 2.06 
224.37 -674.45 2.12 
221.27 -674.51 2.00 
220.88 -674.51 1.98 
220.04 -674.46 1.95 
219.53 -674.47 1.93 
218.12 -674.48 1.88 
217.64 -674.45 1.87 
228.57 -675.22 2.14 
228.09 -675.18 2.12 
227.71 -675.18 2.10 
227.26 -675.08 2.07 
226.98 -675.01 2.06 
226.46 -674.96 2.03 
226.05 -674.92 2.01 
225.06 -674.91 1.97 
223.52 -674.85 1.90 
233.12 -675.45 2.36 
232.81 -675.37 2.34 
241.38 -674.91 2.90 
240.86 -674.92 2.88 
222.09 -674.70 2.63 
221.64 -674.69 2.60 
221.28 -674.66 2.58 
220.97 -674.67 2.57 
220.56 -674.66 2.54 
220.12 -674.60 2.52 
219.74 -674.59 2.50 
219.24 -674.58 2.47 
218.84 -674.57 2.45 
218.37 -674.53 2.43 
218.12 -674.50 2.41 
217.70 -674.52 2.39 
217.34 -674.51 2.38 
216.95 -674.47 2.36 
216.52 -674.45 2.33 
222.94 -674.75 2.68 
222.51 -674.74 2.65 
241.22 -675.80 2.78 
225.65 -674.47 3.01 
225.20 -674.45 2.98 
223.33 -674.71 2.70 
222.98 -674.56 2.77 
222.50 -674.42 2.84 
222.12 -674.40 2.82 
221.82 -674.43 2.81 
221.29 -674.41 2.78 
220.92 -674.36 2.76 
220.51 -674.42 2.74 
219.58 -674.32 2.70 
219.31 -674.32 2.69 
218.02 -674.35 2.63 
217.54 -674.36 2.61 
217.30 -674.33 2.60 
233.30 -675.23 3.32 
232.98 -675.15 3.30 
232.56 -675.15 3.27 
228.73 -675.00 3.03 
228.36 -675.00 3.00 
228.03 -674.96 2.98 
227.73 -674.94 2.96 
227.38 -674.93 2.94 
227.00 -674.94 2.92 
226.48 -674.88 2.89 
226.07 -674.85 2.86 
225.77 -674.82 2.84 
225.36 -674.86 2.82 
224.88 -674.82 2.79 
224.48 -674.80 2.77 
224.12 -674.81 2.75 
223.68 -674.79 2.72 
223.23 -674.78 2.69 
236.99 -674.60 3.69 
236.46 -674.62 3.65 
236.05 -674.63 3.63 
232.85 -674.57 3.43 
232.52 -674.55 3.41 
232.11 -674.57 3.38 
231.78 -674.55 3.36 
222.05 -674.51 3.43 
221.30 -674.45 3.38 
220.94 -674.45 3.35 
220.54 -674.43 3.33 
220.13 -674.42 3.30 
219.68 -674.37 3.27 
219.33 -674.39 3.25 
218.94 -674.36 3.22 
218.56 -674.35 3.20 
218.07 -674.32 3.17 
217.70 -674.29 3.14 
217.30 -674.31 3.12 
216.92 -674.29 3.10 
216.54 -674.25 3.08 
239.11 -675.29 3.72 
236.58 -675.26 3.54 
234.22 -675.20 3.38 
233.78 -675.19 3.36 
240.45 -675.45 3.81 
240.03 -675.42 3.78 
239.54 -675.38 3.75 
238.41 -675.36 3.67 
237.91 -675.35 3.64 
237.40 -675.33 3.60 
236.89 -675.33 3.57 
225.57 -674.30 3.85 
225.27 -674.29 3.83 
222.44 -674.26 3.64 
221.90 -674.24 3.61 
221.08 -674.24 3.56 
220.58 -674.22 3.53 
219.23 -674.17 3.45 
218.85 -674.18 3.43 
217.22 -674.18 3.35 
216.87 -674.17 3.33 
216.62 -674.19 3.32 
240.03 -674.71 3.89 
228.97 -674.75 3.94 
227.56 -674.72 3.83 
227.19 -674.70 3.80 
226.80 -674.71 3.77 
226.47 -674.68 3.75 
226.03 -674.66 3.72 
225.64 -674.65 3.69 
225.16 -674.67 3.65 
224.92 -674.47 3.72 
224.51 -674.59 3.60 
224.10 -674.60 3.57 
223.64 -674.58 3.54 
223.25 -674.54 3.51 
222.88 -674.53 3.49 
222.52 -674.51 3.46 
222.16 -674.26 3.63 
221.62 -674.26 3.59 
220.31 -674.24 3.52 
229.95 -674.86 4.02 
229.60 -674.81 3.99 
229.27 -674.79 3.97 
228.86 -674.81 3.93 
228.50 -674.79 3.91 
228.15 -674.78 3.88 
227.81 -674.77 3.85 
227.46 -674.75 3.83 
234.25 -674.36 4.48 
233.25 -674.37 4.40 
232.23 -674.38 4.32 
230.49 -674.35 4.19 
230.16 -674.31 4.17 
229.80 -674.34 4.14 
228.39 -674.34 4.04 
220.84 -674.19 4.14 
220.09 -674.20 4.08 
219.57 -674.17 4.04 
219.25 -674.14 4.01 
218.91 -674.15 3.99 
218.52 -674.13 3.96 
218.13 -674.12 3.93 
217.66 -674.08 3.90 
217.24 -674.04 3.95 
216.88 -674.07 3.84 
228.86 -674.37 4.07 
228.04 -674.36 4.02 
222.02 -674.30 4.23 
221.74 -674.27 4.21 
221.32 -674.25 4.17 
220.91 -674.24 4.14 
220.50 -674.23 4.11 
219.82 -674.20 4.06 
236.43 -675.09 4.56 
236.00 -675.05 4.52 
235.69 -675.08 4.50 
235.22 -675.07 4.46 
234.78 -675.05 4.42 
234.42 -675.00 4.39 
234.00 -674.98 4.35 
233.51 -674.99 4.31 
233.06 -674.99 4.28 
232.70 -674.94 4.25 
232.40 -674.90 4.22 
232.05 -674.92 4.19 
231.47 -674.92 4.14 
231.10 -674.89 4.11 
230.77 -674.85 4.09 
230.39 -674.84 4.06 
225.62 -674.17 4.69 
225.32 -674.16 4.67 
224.91 -674.10 4.64 
222.10 -674.07 4.43 
221.70 -674.06 4.40 
221.42 -674.05 4.38 
220.11 -674.03 4.29 
219.60 -674.04 4.25 
218.66 -673.97 4.19 
218.05 -673.97 4.16 
235.24 -674.51 4.56 
224.41 -674.38 4.43 
224.10 -674.37 4.41 
223.62 -674.37 4.36 
223.17 -674.33 4.33 
222.89 -674.32 4.30 
222.49 -674.29 4.27 
237.06 -675.14 4.62 
225.92 -674.18 4.72 
216.70 -673.83 4.84 
219.30 -669.11 5.05 
218.90 -669.06 5.03 
217.33 -669.02 4.90 
216.92 -669.00 4.88 
216.52 -668.98 4.85 
225.69 -669.33 5.61 
225.29 -669.32 5.58 
224.81 -669.33 5.53 
224.50 -669.29 5.50 
224.17 -669.29 5.47 
223.70 -669.27 5.43 
223.25 -669.24 5.39 
222.93 -669.22 5.36 
222.52 -669.16 5.43 
222.13 -669.18 5.36 
221.70 -669.12 5.40 
221.32 -669.14 5.33 
220.94 -669.15 5.19 
220.50 -669.12 5.15 
220.17 -669.15 5.12 
219.74 -669.11 5.09 
217.24 -668.67 5.79 
216.95 -668.68 5.77 
227.28 -669.37 5.77 
226.88 -669.29 5.79 
226.50 -669.28 5.78 
226.19 -669.25 5.75 
225.86 -669.15 5.81 
225.00 -669.10 5.74 
227.52 -669.44 5.79 
227.19 -669.43 5.76 
219.77 -668.81 6.01 
217.96 -668.81 6.11 
222.73 -675.18 1.15 
221.14 -675.08 1.10 
220.81 -675.09 1.09 
220.38 -675.06 1.07 
219.95 -675.01 1.06 
219.59 -675.00 1.05 
219.14 -674.99 1.04 
218.74 -674.97 1.02 
218.37 -674.94 1.01 
217.98 -674.91 1.00 
217.55 -674.92 0.99 
217.17 -674.89 0.98 
216.77 -674.85 0.96 
225.20 -674.75 1.40 
224.85 -674.79 1.39 
222.79 -674.72 1.33 
222.37 -674.71 1.32 
221.94 -674.71 1.31 
221.67 -674.70 1.30 
220.85 -674.66 1.28 
220.30 -674.67 1.26 
219.58 -674.62 1.24 
217.23 -674.59 1.18 
216.99 -674.60 1.17 
226.93 -675.15 1.27 
225.87 -675.12 1.23 
225.59 -675.19 1.23 
225.23 -675.17 1.22 
224.73 -675.14 1.20 
224.45 -675.11 1.19 
224.11 -675.12 1.18 
223.70 -675.16 1.17 
223.24 -675.18 1.16 
222.82 -675.14 1.15 
221.20 -674.71 1.88 
220.74 -674.94 1.87 
220.45 -674.91 1.86 
220.04 -674.89 1.84 
219.58 -674.84 1.82 
219.20 -674.86 1.81 
218.80 -674.83 1.79 
218.40 -674.81 1.77 
217.96 -674.76 1.75 
217.61 -674.77 1.74 
217.21 -674.77 1.72 
216.84 -674.73 1.71 
225.52 -674.69 2.26 
225.13 -674.57 2.24 
221.80 -674.43 2.10 
219.21 -674.49 2.00 
218.82 -674.47 1.99 
218.44 -674.47 1.97 
217.63 -674.49 1.94 
217.13 -674.49 1.93 
216.77 -674.48 1.91 
227.48 -675.24 2.18 
227.12 -675.23 2.16 
226.72 -675.24 2.14 
226.36 -675.22 2.13 
225.92 -675.17 2.11 
225.58 -675.14 2.09 
225.18 -675.17 2.07 
224.70 -675.13 2.05 
224.40 -675.10 2.04 
224.10 -675.07 2.02 
223.63 -675.02 2.00 
223.22 -674.92 1.98 
222.89 -674.93 1.96 
232.25 -675.44 2.41 
231.97 -675.45 2.40 
241.13 -675.00 2.98 
240.59 -674.99 2.96 
240.05 -675.00 2.93 
239.58 -674.97 2.91 
221.20 -674.72 2.69 
220.77 -674.70 2.67 
219.99 -674.70 2.62 
219.54 -674.67 2.60 
219.20 -674.64 2.58 
218.75 -674.64 2.55 
218.35 -674.62 2.53 
217.92 -674.60 2.51 
217.58 -674.58 2.49 
217.17 -674.57 2.47 
216.77 -674.57 2.45 
221.12 -674.75 2.69 
220.83 -674.75 2.67 
220.39 -674.74 2.65 
241.01 -675.87 2.86 
240.40 -675.87 2.83 
241.50 -675.96 2.89 
225.28 -674.51 3.10 
224.82 -674.50 3.07 
222.74 -674.46 2.96 
222.32 -674.44 2.93 
222.02 -674.47 2.92 
221.62 -674.44 2.90 
219.12 -674.37 2.77 
218.73 -674.35 2.76 
218.35 -674.35 2.74 
218.10 -674.33 2.73 
217.54 -674.35 2.70 
217.17 -674.34 2.68 
216.79 -674.36 2.67 
231.57 -675.17 3.33 
227.96 -675.05 3.10 
227.58 -675.06 3.07 
227.13 -674.99 3.05 
226.77 -674.98 3.02 
226.36 -674.98 3.00 
225.85 -674.96 2.97 
225.55 -674.94 2.95 
225.20 -674.93 2.93 
224.83 -674.92 2.90 
224.40 -674.86 2.88 
223.98 -674.88 2.85 
223.54 -674.88 2.83 
222.91 -674.85 2.79 
221.41 -674.78 2.70 
235.08 -674.72 3.68 
234.76 -674.67 3.66 
231.82 -674.66 3.48 
231.45 -674.65 3.46 
231.14 -674.60 3.44 
230.71 -674.61 3.41 
220.65 -674.53 3.47 
220.41 -674.50 3.45 
219.95 -674.50 3.42 
219.53 -674.48 3.39 
219.16 -674.44 3.36 
218.75 -674.41 3.34 
218.31 -674.42 3.31 
217.90 -674.41 3.28 
217.55 -674.37 3.26 
217.16 -674.36 3.23 
216.74 -674.35 3.21 
237.17 -675.37 3.71 
235.65 -675.33 3.61 
235.15 -675.33 3.57 
233.96 -675.27 3.49 
232.78 -675.25 3.41 
232.29 -675.28 3.38 
232.03 -675.19 3.36 
237.58 -675.42 3.74 
236.47 -675.42 3.66 
235.97 -675.41 3.63 
235.46 -675.41 3.60 
235.04 -675.35 3.57 
234.54 -675.36 3.53 
233.62 -675.32 3.47 
233.16 -675.32 3.44 
225.07 -674.32 3.94 
224.44 -674.32 3.90 
222.66 -674.30 3.78 
222.11 -674.26 3.75 
221.12 -674.27 3.68 
218.65 -674.20 3.54 
218.39 -674.20 3.52 
218.14 -674.19 3.51 
216.72 -674.20 3.43 
239.16 -674.82 3.95 
226.78 -674.76 3.92 
225.41 -674.68 3.81 
225.01 -674.70 3.78 
224.68 -674.53 3.84 
224.29 -674.71 3.73 
223.95 -674.63 3.70 
223.50 -674.64 3.67 
222.82 -674.59 3.62 
222.36 -674.31 3.76 
221.80 -674.31 3.73 
221.53 -674.29 3.71 
221.23 -674.56 3.51 
220.84 -674.53 3.48 
228.36 -674.84 4.04 
228.11 -674.86 4.02 
227.54 -674.85 3.98 
227.03 -674.81 3.94 
226.67 -674.78 3.91 
226.33 -674.78 3.88 
225.97 -674.78 3.85 
225.63 -674.76 3.83 
225.29 -674.75 3.80 
229.83 -674.38 4.28 
229.51 -674.32 4.26 
229.13 -674.34 4.23 
218.69 -674.18 4.12 
217.89 -674.17 4.06 
217.48 -674.17 4.03 
217.13 -674.13 4.00 
216.74 -674.12 3.97 
232.82 -674.46 4.51 
232.42 -674.46 4.48 
231.56 -674.48 4.42 
231.18 -674.46 4.39 
230.83 -674.42 4.36 
228.31 -674.41 4.17 
227.97 -674.40 4.15 
227.59 -674.42 4.12 
227.30 -674.39 4.10 
220.24 -674.27 4.24 
219.96 -674.25 4.22 
219.51 -674.25 4.18 
218.82 -674.22 4.13 
218.28 -674.20 4.09 
234.68 -675.18 4.57 
234.25 -675.14 4.53 
233.80 -675.12 4.49 
233.44 -675.06 4.46 
233.09 -675.01 4.43 
232.92 -675.08 4.42 
232.48 -675.06 4.38 
231.93 -674.99 4.33 
231.49 -675.00 4.30 
231.22 -674.99 4.27 
230.80 -675.00 4.24 
230.29 -674.93 4.20 
229.88 -674.91 4.16 
229.61 -674.93 4.14 
229.25 -674.90 4.11 
228.72 -674.87 4.07 
223.02 -674.15 4.64 
222.75 -674.11 4.62 
222.31 -674.12 4.58 
221.90 -674.09 4.55 
221.63 -674.08 4.53 
221.20 -674.08 4.50 
218.46 -674.01 4.31 
217.94 -674.01 4.27 
217.69 -673.98 4.26 
233.20 -674.50 4.54 
221.35 -674.35 4.33 
221.06 -674.34 4.31 
220.68 -674.27 4.28 
220.48 -674.31 4.26 
226.72 -669.70 4.91 
217.63 -669.11 5.08 
217.21 -669.08 5.05 
216.78 -669.06 5.02 
227.22 -669.76 4.95 
226.99 -669.77 4.93 
223.98 -669.37 5.63 
223.67 -669.34 5.60 
223.20 -669.31 5.56 
222.82 -669.29 5.53 
222.39 -669.28 5.49 
222.03 -669.27 5.45 
221.70 -669.27 5.42 
221.23 -669.25 5.38 
220.80 -669.21 5.34 
220.41 -669.19 5.31 
220.00 -669.20 5.27 
219.54 -669.19 5.24 
219.26 -669.15 5.21 
218.77 -669.14 5.17 
218.40 -669.11 5.14 
218.02 -669.09 5.11 
217.58 -669.07 5.32 
216.76 -669.04 5.27 
226.91 -669.41 5.92 
226.42 -669.18 6.03 
225.94 -669.18 5.98 
225.51 -669.17 5.94 
225.13 -669.34 5.75 
224.71 -669.37 5.70 
224.39 -669.20 5.79 
223.93 -669.11 5.81 
223.59 -669.13 5.78 
222.26 -669.15 5.67 
221.66 -669.11 5.62 
221.36 -669.12 5.60 
227.21 -669.47 5.95 
225.00 -669.42 5.73 
217.24 -668.77 5.96 
221.34 -675.07 1.06 
221.02 -675.08 1.05 
220.69 -675.02 1.04 
220.28 -675.05 1.03 
219.84 -675.02 1.01 
219.46 -674.98 1.00 
219.12 -674.96 0.99 
218.71 -674.97 0.98 
218.30 -674.93 0.97 
217.85 -674.89 0.95 
217.48 -674.90 0.94 
217.08 -674.87 0.93 
216.69 -674.86 0.92 
221.92 -674.63 1.26 
221.49 -674.63 1.25 
221.21 -674.61 1.24 
217.05 -674.54 1.12 
216.67 -674.52 1.11 
226.57 -675.10 1.21 
225.76 -675.10 1.18 
224.30 -675.11 1.14 
223.92 -675.06 1.13 
223.60 -675.11 1.12 
223.25 -675.13 1.11 
222.56 -675.16 1.10 
222.29 -675.13 1.09 
221.98 -675.11 1.08 
221.64 -675.10 1.07 
220.26 -674.85 1.82 
219.92 -674.86 1.81 
219.49 -674.85 1.79 
219.10 -674.81 1.77 
218.72 -674.79 1.76 
218.24 -674.78 1.74 
217.79 -674.76 1.72 
217.45 -674.73 1.70 
217.17 -674.73 1.69 
216.75 -674.72 1.67 
229.45 -674.59 2.39 
225.19 -674.57 2.21 
224.70 -674.58 2.19 
224.24 -674.56 2.17 
221.06 -674.48 1.94 
220.73 -674.67 1.84 
218.63 -674.46 1.95 
218.24 -674.44 1.93 
218.04 -674.40 1.92 
217.08 -674.42 1.89 
216.70 -674.41 1.87 
226.87 -675.12 2.12 
226.48 -675.13 2.10 
226.03 -675.14 2.08 
225.46 -675.12 2.06 
225.02 -675.08 2.04 
224.63 -675.09 2.02 
224.29 -675.07 2.00 
223.82 -675.04 1.98 
223.45 -675.04 1.96 
223.01 -674.98 1.94 
222.74 -674.91 1.93 
222.27 -674.83 1.91 
221.88 -674.78 1.89 
221.42 -674.74 1.87 
220.51 -674.90 1.83 
231.85 -675.38 2.36 
227.47 -675.24 2.15 
227.12 -675.20 2.14 
226.74 -675.20 2.12 
226.38 -675.17 2.10 
221.96 -679.51 2.23 
241.40 -674.92 2.96 
240.88 -674.91 2.94 
240.38 -674.87 2.91 
239.79 -674.89 2.88 
239.28 -674.88 2.86 
218.94 -674.61 2.55 
218.67 -674.57 2.54 
218.32 -674.60 2.52 
217.90 -674.59 2.50 
217.39 -674.55 2.47 
217.07 -674.54 2.45 
216.69 -674.54 2.43 
219.73 -674.67 2.60 
219.45 -674.64 2.58 
219.01 -674.64 2.56 
218.59 -674.62 2.53 
240.28 -675.71 2.79 
241.23 -675.88 2.84 
240.70 -675.79 2.81 
224.93 -674.42 3.06 
224.61 -674.43 3.04 
224.29 -674.41 3.02 
223.98 -674.41 3.01 
221.44 -674.37 2.87 
221.01 -674.35 2.85 
220.72 -674.36 2.83 
220.10 -674.64 2.62 
218.53 -674.32 2.72 
218.28 -674.30 2.71 
217.88 -674.29 2.69 
217.56 -674.26 2.68 
216.98 -674.29 2.65 
216.59 -674.30 2.63 
227.83 -674.98 3.08 
227.30 -674.96 3.05 
226.90 -674.97 3.02 
226.59 -674.93 3.00 
226.25 -674.89 2.98 
225.82 -674.92 2.96 
225.47 -674.90 2.93 
225.00 -674.87 2.91 
224.76 -674.88 2.89 
224.24 -674.87 2.86 
223.76 -674.82 2.83 
223.47 -674.80 2.81 
223.14 -674.79 2.79 
222.63 -674.78 2.76 
222.15 -674.76 2.73 
221.89 -674.72 2.72 
221.58 -674.71 2.70 
221.06 -674.73 2.67 
220.61 -674.71 2.65 
220.35 -674.68 2.63 
220.01 -674.69 2.61 
235.48 -674.68 3.70 
234.81 -674.53 3.65 
233.38 -674.54 3.56 
233.11 -674.47 3.54 
232.27 -674.47 3.49 
231.74 -674.51 3.46 
231.37 -674.52 3.44 
231.00 -674.49 3.41 
230.65 -674.47 3.39 
230.23 -674.44 3.37 
229.11 -674.49 3.30 
219.26 -674.44 3.37 
218.99 -674.42 3.36 
218.66 -674.38 3.33 
218.27 -674.38 3.31 
217.85 -674.40 3.28 
217.46 -674.36 3.25 
217.01 -674.32 3.23 
216.63 -674.32 3.20 
231.77 -675.17 3.34 
231.41 -675.11 3.31 
236.51 -675.38 3.66 
236.22 -675.26 3.64 
235.46 -675.36 3.59 
234.45 -675.33 3.52 
232.16 -675.22 3.37 
221.37 -674.19 3.69 
220.51 -674.18 3.64 
217.82 -674.11 3.48 
216.52 -674.13 3.40 
238.38 -674.69 3.89 
236.68 -674.54 3.77 
225.03 -674.62 3.79 
224.66 -674.62 3.77 
223.81 -674.44 3.78 
223.44 -674.58 3.67 
223.05 -674.59 3.64 
222.59 -674.58 3.61 
222.26 -674.58 3.59 
221.85 -674.52 3.56 
221.47 -674.52 3.53 
221.05 -674.36 3.59 
220.76 -674.35 3.57 
220.26 -674.47 3.44 
219.88 -674.45 3.42 
219.55 -674.46 3.39 
218.05 -674.17 3.49 
217.53 -674.16 3.46 
227.06 -674.76 3.95 
226.56 -674.71 3.91 
226.21 -674.69 3.88 
225.96 -674.73 3.87 
225.43 -674.71 3.82 
224.89 -674.69 3.78 
224.56 -674.66 3.76 
224.23 -674.64 3.73 
229.25 -674.28 4.25 
228.89 -674.26 4.22 
228.55 -674.24 4.19 
226.08 -674.23 4.01 
225.76 -674.22 3.99 
224.39 -674.22 3.89 
218.06 -674.11 4.09 
216.69 -674.07 3.98 
231.41 -674.40 4.41 
230.69 -674.30 4.35 
230.21 -674.39 4.32 
227.70 -674.29 4.13 
227.37 -674.27 4.11 
227.01 -674.28 4.08 
225.42 -674.24 3.97 
224.68 -674.28 3.91 
224.07 -674.24 3.87 
218.68 -674.19 4.14 
218.29 -674.16 4.11 
217.84 -674.15 4.07 
217.43 -674.13 4.04 
217.03 -674.13 4.01 
216.63 -674.10 3.98 
232.38 -674.98 4.39 
231.93 -674.98 4.35 
231.48 -674.96 4.31 
231.14 -674.89 4.28 
230.62 -674.93 4.24 
230.21 -674.90 4.21 
229.80 -674.89 4.17 
229.47 -674.84 4.15 
229.07 -674.82 4.11 
228.57 -674.85 4.07 
228.20 -674.81 4.04 
227.87 -674.77 4.02 
227.50 -674.75 3.99 
221.71 -674.06 4.55 
221.45 -674.01 4.53 
221.02 -673.99 4.50 
220.59 -673.98 4.47 
220.17 -673.99 4.43 
217.48 -673.96 4.24 
217.09 -673.95 4.22 
231.90 -674.36 4.45 
220.85 -674.30 4.31 
220.54 -674.29 4.29 
220.25 -674.26 4.26 
219.79 -674.24 4.23 
219.43 -674.20 4.20 
219.10 -674.21 4.17 
225.44 -669.61 4.81 
225.08 -669.61 4.78 
224.84 -669.64 4.76 
226.67 -669.71 4.92 
226.31 -669.67 4.89 
225.92 -669.69 4.85 
222.63 -669.23 5.53 
222.28 -669.24 5.50 
221.92 -669.23 5.47 
221.59 -669.22 5.44 
221.09 -669.21 5.39 
220.65 -669.17 5.35 
220.34 -669.16 5.32 
220.03 -669.13 5.30 
219.51 -669.15 5.25 
219.05 -669.12 5.21 
218.73 -669.13 5.18 
218.27 -669.08 5.15 
217.88 -669.06 5.11 
217.54 -669.01 5.24 
217.10 -669.03 5.13 
216.68 -669.00 5.18 
225.50 -669.11 5.96 
225.11 -669.31 5.77 
224.73 -669.31 5.74 
224.32 -669.17 5.78 
223.91 -669.02 5.82 
223.59 -669.17 5.71 
223.17 -669.18 5.64 
222.19 -669.07 5.67 
221.89 -669.04 5.65 
221.57 -669.05 5.62 
221.27 -669.03 5.60 
226.59 -669.34 5.92 
226.27 -669.42 5.89 
225.73 -669.39 5.83 
225.37 -669.37 5.80 
225.00 -669.35 5.76 
224.63 -669.37 5.72 
224.30 -669.31 5.69 
223.92 -669.34 5.65 
222.89 -669.30 5.56 
219.89 -668.75 6.44 
219.59 -668.75 6.41 
220.13 -675.10 1.02 
219.84 -675.08 1.01 
219.43 -675.05 1.00 
219.06 -675.03 0.99 
218.64 -675.03 0.98 
218.22 -675.01 0.96 
217.83 -674.96 0.95 
217.48 -674.93 0.94 
217.11 -674.93 0.93 
216.69 -674.92 0.92 
230.60 -674.77 1.50 
224.47 -674.60 1.32 
224.15 -674.60 1.31 
222.17 -674.68 1.26 
221.85 -674.69 1.25 
221.41 -674.67 1.24 
217.37 -674.56 1.13 
217.09 -674.58 1.12 
216.71 -674.56 1.11 
226.00 -675.24 1.19 
224.14 -675.20 1.14 
221.06 -675.15 1.05 
220.69 -675.11 1.04 
220.43 -675.12 1.03 
226.85 -675.26 1.22 
225.59 -675.25 1.18 
223.75 -675.23 1.13 
223.41 -675.23 1.12 
223.01 -675.24 1.11 
222.65 -675.26 1.10 
222.21 -675.21 1.08 
221.84 -675.20 1.07 
221.38 -675.16 1.06 
219.05 -674.88 1.79 
218.76 -674.85 1.77 
218.30 -674.85 1.75 
217.86 -674.84 1.74 
217.47 -674.80 1.72 
217.02 -674.80 1.70 
216.61 -674.78 1.68 
225.06 -674.66 2.22 
224.72 -674.66 2.20 
224.25 -674.63 2.18 
221.41 -674.40 2.06 
218.60 -674.49 1.95 
218.20 -674.48 1.94 
217.92 -674.48 1.93 
216.61 -674.45 1.88 
224.92 -675.16 2.05 
223.48 -675.10 1.98 
223.14 -675.08 1.97 
222.63 -675.04 1.94 
222.20 -674.93 1.92 
221.85 -674.87 1.90 
221.45 -674.84 1.89 
220.65 -674.96 1.85 
220.26 -674.92 1.84 
219.90 -674.94 1.82 
219.45 -674.93 1.80 
232.61 -675.58 2.42 
227.92 -675.32 2.19 
227.46 -675.33 2.17 
227.05 -675.32 2.15 
226.73 -675.27 2.13 
226.35 -675.25 2.12 
225.92 -675.26 2.10 
225.53 -675.25 2.08 
225.19 -675.21 2.06 
224.65 -675.19 2.04 
224.10 -675.19 2.01 
223.76 -675.16 2.00 
222.20 -679.32 2.25 
222.17 -679.65 2.26 
240.96 -675.00 2.95 
239.31 -674.96 2.87 
238.61 -674.91 2.84 
230.55 -674.76 2.46 
217.05 -674.56 2.48 
239.80 -675.01 2.90 
218.57 -674.66 2.56 
218.28 -674.65 2.55 
217.82 -674.64 2.52 
217.42 -674.62 2.50 
217.11 -674.62 2.48 
216.70 -674.59 2.46 
241.30 -676.03 2.86 
240.94 -675.90 2.84 
224.65 -674.47 3.07 
224.15 -674.47 3.04 
223.85 -674.43 3.03 
221.37 -674.39 2.89 
221.06 -674.40 2.88 
220.76 -674.40 2.86 
218.23 -674.36 2.73 
217.83 -674.34 2.71 
228.87 -675.15 3.19 
228.42 -675.16 3.16 
228.11 -675.09 3.14 
227.72 -675.06 3.11 
227.25 -675.08 3.08 
226.83 -675.09 3.06 
226.55 -675.00 3.04 
226.15 -675.01 3.01 
225.72 -675.01 2.99 
225.36 -674.99 2.96 
224.98 -674.98 2.94 
224.68 -674.93 2.92 
224.25 -674.98 2.90 
223.94 -674.92 2.88 
223.38 -674.89 2.84 
222.95 -674.85 2.82 
222.57 -674.86 2.79 
222.22 -674.85 2.77 
221.80 -674.80 2.75 
221.41 -674.78 2.72 
220.93 -674.80 2.70 
220.62 -674.79 2.68 
220.27 -674.74 2.66 
219.86 -674.75 2.63 
219.41 -674.73 2.61 
219.01 -674.68 2.59 
218.81 -674.70 2.58 
231.87 -674.63 3.50 
231.45 -674.62 3.48 
229.85 -674.58 3.38 
227.26 -674.48 3.22 
218.11 -674.43 3.34 
217.77 -674.45 3.32 
217.50 -674.42 3.30 
217.05 -674.40 3.27 
216.71 -674.36 3.25 
231.63 -675.19 3.37 
234.28 -675.44 3.55 
233.39 -675.35 3.49 
232.97 -675.28 3.46 
232.41 -675.28 3.42 
231.91 -675.29 3.39 
223.13 -674.63 3.70 
222.80 -674.62 3.68 
221.43 -674.59 3.58 
221.05 -674.40 3.63 
220.58 -674.46 3.57 
220.18 -674.52 3.49 
219.79 -674.50 3.46 
219.53 -674.53 3.44 
219.08 -674.50 3.41 
218.53 -674.46 3.37 
218.20 -674.32 3.44 
217.76 -674.17 3.51 
217.49 -674.17 3.49 
225.91 -674.80 3.92 
225.50 -674.79 3.88 
225.13 -674.78 3.86 
224.57 -674.73 3.81 
224.11 -674.72 3.78 
223.71 -674.71 3.75 
223.36 -674.70 3.72 
223.02 -674.69 3.69 
222.71 -674.65 3.67 
222.20 -674.64 3.63 
221.71 -674.62 3.60 
228.57 -674.29 4.24 
230.30 -674.49 4.38 
228.92 -674.34 4.27 
227.73 -674.33 4.18 
225.83 -674.30 4.04 
225.32 -674.28 4.01 
225.00 -674.27 3.98 
224.24 -674.31 3.93 
223.92 -674.29 3.91 
223.61 -674.27 3.89 
217.47 -674.21 4.10 
217.05 -674.19 4.06 
216.61 -674.15 4.03 
232.56 -675.11 4.46 
232.08 -675.10 4.42 
231.64 -675.07 4.38 
231.39 -674.96 4.36 
231.04 -675.02 4.33 
230.73 -675.05 4.31 
230.29 -675.02 4.27 
229.86 -675.00 4.24 
229.51 -674.95 4.21 
229.10 -674.92 4.17 
228.59 -674.96 4.13 
228.22 -674.91 4.10 
227.86 -674.88 4.07 
227.47 -674.86 4.04 
227.00 -674.88 4.00 
226.61 -674.86 3.97 
226.30 -674.81 3.95 
221.51 -674.08 4.59 
221.05 -674.09 4.55 
220.63 -674.06 4.52 
220.20 -674.04 4.49 
217.83 -673.99 4.31 
217.44 -673.97 4.29 
217.04 -673.95 4.26 
231.10 -674.49 4.44 
230.69 -674.50 4.41 
220.24 -674.37 4.33 
219.78 -674.31 4.29 
219.39 -674.28 4.25 
219.06 -674.27 4.23 
218.62 -674.26 4.19 
218.23 -674.20 4.16 
217.94 -674.19 4.14 
233.05 -675.13 4.50 
232.73 -675.04 4.48 
224.26 -669.65 4.78 
225.14 -669.32 5.01 
227.03 -669.81 5.02 
226.64 -669.78 4.98 
226.26 -669.78 4.95 
225.87 -669.77 4.91 
225.56 -669.70 4.89 
225.17 -669.70 4.85 
224.76 -669.70 4.82 
221.11 -669.25 5.47 
220.68 -669.23 5.43 
220.24 -669.24 5.38 
219.74 -669.24 5.34 
219.42 -669.22 5.31 
219.12 -669.18 5.29 
218.68 -669.16 5.25 
218.21 -669.13 5.21 
217.96 -669.09 5.29 
217.52 -669.06 5.26 
217.07 -669.06 5.22 
216.69 -669.07 5.08 
221.39 -669.30 5.49 
224.53 -669.12 5.94 
224.20 -669.09 5.92 
223.84 -669.09 5.88 
223.51 -669.09 5.85 
223.23 -669.30 5.67 
222.80 -669.22 5.71 
222.26 -669.10 5.74 
221.79 -669.08 5.70 
220.27 -669.02 5.58 
219.95 -669.03 5.55 
219.65 -669.01 5.53 
225.85 -669.49 5.93 
225.33 -669.44 5.88 
224.98 -669.40 5.84 
224.58 -669.42 5.80 
224.20 -669.39 5.76 
223.82 -669.41 5.72 
223.49 -669.36 5.69 
223.10 -669.37 5.65 
222.76 -669.34 5.62 
222.25 -669.33 5.57 
221.74 -669.30 5.52 
219.11 -668.80 6.43 
218.98 -675.07 0.96 
218.68 -675.06 0.95 
218.19 -675.06 0.94 
217.75 -675.03 0.93 
217.42 -674.98 0.92 
217.04 -674.98 0.91 
216.61 -674.96 0.90 
223.53 -674.60 1.26 
223.03 -674.64 1.25 
222.48 -674.68 1.24 
219.85 -674.64 1.17 
220.27 -675.13 1.00 
219.97 -675.10 0.99 
226.32 -675.35 1.18 
225.90 -675.36 1.17 
224.35 -675.31 1.12 
223.95 -675.34 1.11 
223.44 -675.30 1.10 
223.16 -675.35 1.09 
222.65 -675.32 1.07 
222.13 -675.29 1.06 
221.85 -675.25 1.05 
221.14 -675.22 1.03 
220.64 -675.18 1.01 
220.20 -675.15 1.00 
219.86 -675.15 0.99 
219.40 -675.12 0.98 
217.82 -674.90 1.73 
217.37 -674.85 1.71 
216.99 -674.82 1.69 
216.67 -674.83 1.68 
226.23 -674.70 2.26 
225.88 -674.68 2.24 
225.53 -674.67 2.23 
222.98 -674.61 2.12 
222.53 -674.56 2.10 
222.28 -674.46 2.08 
219.75 -674.51 1.99 
219.45 -674.51 1.98 
219.16 -674.50 1.96 
217.75 -674.47 1.91 
216.98 -674.40 1.88 
216.57 -674.41 1.87 
223.04 -675.10 1.96 
222.27 -675.09 1.92 
221.82 -674.98 1.90 
221.41 -674.91 1.88 
220.92 -675.05 1.86 
220.59 -675.03 1.85 
220.16 -674.99 1.83 
219.80 -674.99 1.81 
219.33 -674.97 1.79 
219.02 -674.94 1.78 
218.61 -674.91 1.76 
218.13 -674.89 1.74 
228.16 -675.42 2.20 
227.90 -675.42 2.18 
227.46 -675.43 2.16 
227.06 -675.39 2.14 
226.63 -675.41 2.13 
226.32 -675.33 2.11 
225.94 -675.30 2.09 
225.47 -675.31 2.07 
224.97 -675.24 2.05 
224.61 -675.23 2.03 
224.36 -675.25 2.02 
223.81 -675.23 1.99 
223.33 -675.17 1.97 
222.91 -675.18 1.95 
222.58 -675.17 1.94 
240.82 -675.08 2.93 
217.35 -674.66 2.50 
216.95 -674.62 2.48 
216.60 -674.62 2.46 
241.39 -676.19 2.86 
222.56 -674.45 2.96 
222.23 -674.46 2.94 
221.93 -674.43 2.93 
219.78 -674.40 2.81 
219.35 -674.39 2.79 
218.90 -674.39 2.77 
217.36 -674.33 2.69 
227.83 -675.10 3.13 
227.41 -675.09 3.11 
226.87 -675.13 3.07 
226.48 -675.09 3.05 
226.13 -675.07 3.02 
225.73 -675.05 3.00 
225.26 -675.07 2.97 
224.91 -675.05 2.95 
224.60 -674.99 2.93 
224.23 -674.97 2.91 
223.80 -674.99 2.88 
223.04 -674.91 2.83 
222.63 -674.90 2.81 
222.20 -674.93 2.78 
221.71 -674.88 2.75 
221.42 -674.84 2.74 
221.06 -674.84 2.72 
220.72 -674.82 2.70 
220.21 -674.80 2.67 
219.79 -674.78 2.64 
219.45 -674.76 2.62 
218.98 -674.75 2.60 
218.56 -674.72 2.57 
218.19 -674.68 2.55 
217.77 -674.70 2.53 
227.68 -675.17 3.12 
227.25 -675.16 3.10 
231.40 -674.70 3.48 
230.56 -674.68 3.43 
229.72 -674.68 3.38 
229.37 -674.60 3.36 
228.97 -674.59 3.33 
228.71 -674.52 3.31 
225.97 -674.51 3.15 
225.42 -674.52 3.12 
216.88 -674.44 3.28 
216.63 -674.41 3.27 
229.56 -675.18 3.24 
235.47 -675.43 3.64 
234.65 -675.55 3.59 
233.15 -675.43 3.48 
232.56 -675.47 3.45 
232.14 -675.40 3.42 
231.83 -675.31 3.39 
229.38 -675.26 3.23 
228.88 -675.29 3.20 
228.51 -675.23 3.18 
228.07 -675.21 3.15 
221.29 -674.58 3.59 
219.82 -674.54 3.49 
219.36 -674.46 3.50 
218.96 -674.39 3.51 
218.59 -674.31 3.52 
218.18 -674.48 3.37 
217.80 -674.45 3.35 
217.44 -674.26 3.44 
217.09 -674.31 3.39 
224.56 -674.78 3.84 
224.19 -674.77 3.81 
223.77 -674.78 3.78 
223.24 -674.73 3.74 
222.87 -674.75 3.71 
222.58 -674.70 3.69 
222.20 -674.70 3.66 
221.84 -674.69 3.64 
221.52 -674.65 3.61 
220.99 -674.63 3.57 
220.53 -674.62 3.54 
220.20 -674.60 3.52 
219.89 -674.57 3.49 
228.67 -674.44 4.28 
228.29 -674.42 4.25 
226.18 -674.30 4.09 
225.69 -674.37 4.06 
225.33 -674.35 4.03 
225.00 -674.33 4.01 
222.66 -674.27 3.84 
222.17 -674.27 3.81 
221.68 -674.27 3.77 
231.37 -675.16 4.40 
230.98 -675.11 4.36 
230.46 -675.10 4.32 
230.01 -675.08 4.28 
229.73 -674.99 4.26 
229.39 -675.04 4.23 
229.11 -675.04 4.21 
228.67 -675.03 4.17 
228.25 -675.00 4.14 
227.83 -674.99 4.10 
227.48 -674.94 4.08 
227.00 -674.96 4.04 
226.59 -674.94 4.00 
226.23 -674.88 3.97 
225.88 -674.85 3.95 
225.42 -674.87 3.91 
225.07 -674.84 3.88 
219.81 -674.03 4.49 
218.94 -674.01 4.43 
218.49 -674.03 4.39 
218.23 -673.98 4.37 
229.44 -674.48 4.34 
219.39 -674.34 4.30 
219.01 -674.31 4.27 
218.47 -674.30 4.22 
218.18 -674.28 4.20 
217.78 -674.23 4.16 
217.29 -674.24 4.12 
217.01 -674.22 4.10 
216.72 -674.20 4.08 
232.33 -675.20 4.48 
231.83 -675.20 4.44 
226.40 -669.39 5.14 
226.06 -669.34 5.11 
224.16 -669.34 4.96 
225.56 -669.75 4.93 
225.17 -669.63 4.94 
224.69 -669.52 4.95 
224.35 -669.74 4.82 
