# .PCD v0.7 - Point Cloud Data file format
VERSION 0.7
FIELDS x y z
SIZE 4 4 4
TYPE F F F
COUNT 1 1 1
WIDTH 2277
HEIGHT 1
VIEWPOINT 0 0 0 1 0 0 0
POINTS 2277
DATA ascii
244.03 -691.41 4.53 
258.97 -691.46 4.42 
256.05 -691.61 4.53 
255.58 -691.66 4.49 
255.25 -691.57 4.47 
255.02 -691.40 4.47 
244.40 -680.30 4.29 
248.50 -680.51 4.64 
244.27 -680.55 4.28 
243.87 -680.59 4.29 
243.55 -680.60 4.29 
255.34 -680.93 4.60 
254.78 -680.97 4.60 
248.33 -680.76 4.63 
248.03 -681.02 4.62 
255.47 -680.98 4.60 
255.12 -681.06 4.59 
257.71 -690.88 4.73 
255.75 -680.59 4.63 
255.60 -680.86 4.61 
257.83 -690.89 5.14 
258.04 -679.97 5.68 
258.14 -679.77 6.32 
257.38 -679.87 6.55 
257.23 -679.82 6.55 
248.41 -680.68 2.08 
254.91 -681.13 2.06 
244.50 -681.31 2.13 
251.50 -690.56 2.59 
254.63 -690.86 2.37 
253.82 -690.93 2.59 
250.14 -691.05 2.62 
248.82 -691.09 2.40 
247.19 -691.16 2.41 
257.72 -691.23 2.59 
257.47 -691.16 2.34 
256.85 -691.25 2.40 
256.74 -691.18 2.40 
254.60 -691.17 2.38 
253.89 -691.23 2.43 
250.81 -691.21 2.40 
250.28 -691.48 2.63 
248.95 -691.39 2.41 
247.33 -691.20 2.37 
244.83 -691.38 2.44 
243.61 -691.59 2.46 
257.63 -691.61 2.41 
255.56 -691.76 2.61 
254.02 -691.75 2.45 
253.87 -691.57 2.61 
252.25 -691.87 2.41 
251.65 -691.69 2.63 
251.36 -691.86 2.52 
251.04 -691.67 2.41 
250.45 -691.76 2.64 
250.18 -691.52 2.63 
248.78 -691.60 2.42 
248.50 -691.76 2.42 
247.77 -691.84 2.43 
244.62 -691.77 2.45 
244.03 -691.89 2.60 
243.86 -691.93 2.74 
243.48 -691.72 2.46 
259.09 -692.07 2.61 
258.46 -692.14 2.41 
258.16 -692.14 2.62 
256.18 -691.97 2.41 
255.33 -691.86 2.27 
255.00 -692.15 2.39 
254.69 -691.99 2.37 
254.11 -691.93 2.62 
251.75 -692.05 2.42 
251.42 -691.98 2.42 
250.72 -691.93 2.64 
258.90 -692.42 2.46 
258.60 -692.27 2.52 
258.33 -692.19 2.62 
255.34 -692.29 2.42 
256.63 -680.50 2.25 
246.96 -680.37 2.62 
244.88 -680.61 2.64 
247.23 -681.05 2.62 
255.55 -681.26 2.28 
252.45 -681.40 2.61 
250.73 -681.45 2.31 
247.38 -681.19 2.62 
244.72 -681.19 2.64 
244.58 -681.31 2.65 
255.04 -681.52 2.29 
254.87 -681.49 2.29 
254.52 -681.50 2.29 
252.31 -681.53 2.62 
252.03 -681.64 2.62 
251.72 -681.62 2.62 
258.29 -690.88 2.79 
257.68 -690.74 2.96 
254.92 -690.85 2.74 
254.63 -690.97 2.74 
253.84 -691.01 2.94 
250.98 -690.90 2.86 
250.13 -691.03 2.95 
249.00 -691.08 2.70 
247.23 -690.85 3.00 
244.96 -691.10 2.86 
258.32 -691.19 2.79 
257.66 -691.11 2.97 
257.50 -691.18 2.87 
256.89 -691.19 2.96 
256.75 -691.12 2.96 
253.85 -691.26 2.94 
252.07 -691.33 2.94 
251.29 -691.39 2.98 
251.02 -691.39 3.02 
250.20 -691.40 2.95 
248.89 -691.34 2.85 
248.73 -691.46 2.70 
247.32 -691.49 2.85 
244.85 -691.43 2.86 
244.71 -691.48 3.00 
243.71 -691.59 3.02 
243.34 -691.34 2.74 
258.23 -691.53 2.80 
257.67 -691.62 2.97 
257.52 -691.41 2.88 
254.67 -691.78 2.75 
254.00 -691.81 2.95 
253.89 -691.49 2.95 
252.54 -691.69 2.88 
252.18 -691.65 2.88 
251.64 -691.71 2.95 
251.36 -691.79 2.89 
251.11 -691.65 2.86 
250.46 -691.66 2.95 
248.83 -691.56 2.99 
248.68 -691.78 2.99 
248.36 -691.90 2.71 
247.49 -691.71 2.84 
244.49 -691.80 3.00 
244.23 -691.83 3.00 
243.76 -691.79 3.01 
259.09 -692.11 3.00 
258.43 -692.07 2.81 
258.24 -691.96 2.89 
257.94 -691.93 2.98 
256.06 -692.11 2.77 
255.85 -692.17 2.77 
255.23 -692.07 2.86 
255.03 -692.04 2.86 
254.71 -691.92 2.75 
254.09 -691.86 2.95 
252.10 -691.91 3.03 
251.79 -691.99 2.82 
251.47 -691.93 2.90 
251.17 -692.00 2.95 
248.41 -691.98 2.98 
248.34 -692.00 2.98 
247.78 -692.00 2.98 
259.26 -692.49 2.84 
258.95 -692.41 2.83 
258.60 -692.23 2.82 
255.78 -692.25 2.77 
255.44 -692.26 2.77 
253.76 -694.89 3.06 
253.12 -694.89 2.98 
253.76 -695.13 3.06 
253.16 -695.20 2.98 
256.79 -680.49 2.85 
254.85 -680.38 2.61 
255.78 -680.87 2.85 
254.90 -680.71 2.62 
249.94 -680.84 2.87 
248.32 -680.87 2.88 
255.47 -681.25 2.85 
254.94 -681.05 2.62 
252.74 -681.23 2.61 
250.33 -681.36 2.87 
250.13 -681.21 2.87 
259.16 -681.66 2.66 
258.94 -681.57 2.66 
250.65 -681.57 2.87 
250.49 -681.49 2.87 
259.27 -681.79 2.66 
257.76 -690.51 3.36 
251.75 -690.29 3.38 
251.06 -690.64 3.35 
259.37 -690.73 3.24 
258.51 -690.73 3.21 
257.98 -690.80 3.36 
257.79 -690.66 3.36 
254.66 -690.79 3.10 
253.90 -690.85 3.29 
251.02 -690.69 3.35 
250.23 -691.04 3.28 
249.00 -690.96 3.30 
247.12 -691.12 3.28 
245.02 -691.08 3.30 
258.58 -691.09 3.21 
258.32 -691.20 3.20 
257.66 -691.02 3.35 
256.91 -691.15 3.33 
254.62 -691.32 3.09 
253.98 -691.24 3.29 
253.90 -691.20 3.29 
252.80 -691.28 3.38 
252.71 -691.27 3.38 
252.06 -691.39 3.27 
251.09 -691.25 3.33 
250.55 -691.34 3.27 
250.29 -691.44 3.27 
248.64 -691.42 3.28 
244.91 -691.30 3.29 
244.71 -691.56 3.28 
243.31 -691.50 3.31 
258.36 -691.72 3.21 
257.77 -691.56 3.35 
254.79 -691.79 3.10 
254.68 -691.52 3.09 
254.10 -691.68 3.28 
251.88 -691.58 3.27 
251.32 -691.69 3.27 
250.66 -691.72 3.27 
248.68 -691.61 3.28 
247.62 -691.72 3.26 
247.54 -691.73 3.26 
244.80 -691.58 3.28 
244.19 -691.81 3.28 
243.79 -691.78 3.29 
258.99 -692.01 3.30 
258.60 -691.92 3.22 
258.27 -692.03 3.36 
257.98 -691.87 3.35 
256.14 -692.00 3.14 
255.78 -692.12 3.12 
255.34 -692.05 3.16 
254.97 -691.99 3.13 
254.69 -691.94 3.29 
251.28 -691.91 3.26 
251.10 -691.89 3.26 
250.72 -691.93 3.26 
248.07 -691.99 3.26 
247.88 -691.95 3.26 
259.40 -692.33 3.25 
258.91 -692.24 3.30 
258.76 -692.18 3.22 
255.51 -692.22 3.12 
255.03 -680.00 3.20 
255.08 -680.25 3.20 
244.80 -680.53 3.17 
255.04 -680.83 3.19 
252.38 -680.83 3.16 
244.72 -680.86 3.17 
244.60 -681.05 3.16 
260.29 -681.29 3.28 
258.99 -681.21 3.25 
252.80 -681.10 3.16 
252.45 -681.36 3.15 
252.17 -681.44 3.15 
250.67 -681.38 3.42 
250.43 -681.25 3.43 
248.30 -681.46 3.14 
248.04 -681.44 3.14 
247.63 -681.30 3.14 
247.39 -681.16 3.14 
259.94 -681.54 3.27 
259.58 -681.63 3.27 
259.24 -681.51 3.26 
251.92 -681.50 3.15 
250.83 -681.53 3.42 
254.80 -690.52 3.47 
254.69 -690.48 3.47 
247.67 -690.40 3.62 
247.17 -690.66 3.60 
258.56 -690.78 3.64 
257.72 -690.77 3.75 
254.00 -690.89 3.65 
253.93 -690.77 3.65 
251.00 -690.84 3.66 
250.25 -690.83 3.62 
258.51 -691.16 3.63 
257.80 -691.30 3.74 
256.97 -691.09 3.71 
254.85 -691.21 3.46 
254.62 -691.14 3.63 
254.09 -691.26 3.64 
251.26 -691.21 3.65 
250.40 -691.40 3.60 
248.95 -691.29 3.59 
244.27 -691.28 3.87 
243.33 -691.32 3.75 
258.46 -691.55 3.62 
258.00 -691.62 3.73 
257.90 -691.47 3.73 
254.88 -691.75 3.45 
254.75 -691.57 3.62 
254.20 -691.55 3.63 
252.31 -691.68 3.67 
250.56 -691.61 3.59 
248.50 -691.71 3.84 
247.88 -691.72 3.82 
259.02 -692.11 3.65 
258.67 -691.98 3.69 
258.27 -691.97 3.74 
256.07 -692.08 3.50 
255.74 -691.96 3.48 
255.37 -691.98 3.59 
255.09 -691.91 3.46 
259.69 -692.20 3.68 
259.36 -692.26 3.66 
259.01 -692.19 3.64 
258.74 -692.18 3.69 
244.87 -680.03 3.73 
256.83 -680.38 3.45 
250.20 -680.65 3.44 
244.72 -680.53 3.71 
255.10 -680.74 3.77 
252.83 -680.98 3.71 
250.04 -680.82 3.43 
255.58 -681.13 3.43 
255.31 -681.31 3.43 
254.74 -681.38 3.42 
254.29 -681.17 3.42 
252.64 -681.08 3.71 
252.40 -681.24 3.70 
252.06 -681.32 3.69 
251.79 -681.13 3.69 
250.21 -681.11 3.43 
248.33 -681.29 3.66 
248.07 -681.26 3.66 
255.16 -681.45 3.42 
252.01 -681.44 3.69 
254.64 -690.58 3.83 
251.18 -690.57 4.01 
251.06 -690.59 4.01 
244.93 -690.63 4.22 
258.69 -690.84 4.07 
257.93 -690.91 4.14 
254.81 -690.91 4.19 
254.69 -690.74 3.95 
253.93 -690.82 4.00 
249.00 -690.90 3.99 
248.62 -691.02 4.20 
258.83 -690.93 4.07 
258.61 -691.15 4.05 
257.64 -691.15 3.99 
254.82 -691.04 4.19 
254.76 -691.13 3.82 
253.94 -691.08 3.99 
251.32 -691.10 3.98 
248.91 -691.10 3.90 
248.57 -691.28 4.17 
248.23 -691.31 4.16 
244.79 -691.20 4.16 
258.87 -691.44 4.06 
258.72 -691.55 4.05 
255.96 -691.72 4.23 
255.49 -691.75 4.19 
255.02 -691.58 4.17 
252.55 -691.56 4.01 
251.99 -691.75 3.97 
251.77 -691.72 3.96 
251.51 -691.57 3.96 
250.67 -691.62 3.91 
248.26 -691.63 4.12 
259.69 -691.79 4.11 
259.53 -692.02 4.09 
259.00 -692.00 4.06 
258.74 -691.88 4.04 
256.33 -691.79 3.88 
255.81 -691.92 4.06 
255.19 -691.78 4.17 
259.60 -692.10 4.10 
259.21 -692.10 4.07 
257.05 -680.31 4.07 
256.89 -680.32 4.06 
255.07 -680.30 3.78 
254.96 -680.19 3.78 
248.50 -680.28 4.04 
259.13 -680.84 3.88 
255.96 -680.87 4.03 
255.10 -680.67 3.77 
250.37 -680.86 4.00 
248.25 -680.89 4.21 
248.09 -680.79 4.21 
259.60 -680.92 3.89 
259.38 -680.92 3.88 
255.62 -681.21 4.01 
255.13 -681.33 4.00 
254.95 -681.25 4.00 
250.68 -681.30 3.99 
250.84 -681.45 3.98 
244.86 -690.68 4.52 
255.05 -690.84 4.21 
251.20 -690.89 4.32 
244.79 -690.79 4.50 
256.99 -690.92 4.48 
252.53 -691.29 4.36 
251.70 -691.07 4.33 
251.47 -691.29 4.29 
248.82 -691.14 4.49 
247.97 -691.33 4.44 
244.39 -691.35 4.44 
244.24 -691.50 4.42 
243.81 -691.37 4.45 
252.17 -691.53 4.32 
251.79 -691.52 4.29 
248.09 -691.58 4.41 
256.10 -691.78 4.24 
250.55 -680.92 4.57 
248.36 -680.71 4.60 
251.04 -681.23 4.55 
250.79 -681.13 4.55 
257.23 -690.92 4.88 
246.84 -691.19 4.98 
246.73 -691.14 4.99 
257.09 -680.21 4.68 
257.81 -690.80 5.26 
241.84 -680.67 2.07 
241.72 -680.95 2.08 
241.58 -681.19 2.09 
254.91 -681.13 2.00 
254.63 -690.84 2.33 
250.89 -690.91 2.34 
256.88 -691.23 2.34 
254.58 -691.22 2.34 
253.88 -691.18 2.37 
251.06 -691.16 2.30 
250.87 -691.38 2.35 
250.24 -691.37 2.57 
250.13 -691.26 2.57 
248.98 -691.41 2.36 
248.85 -691.29 2.36 
248.35 -691.27 2.58 
247.56 -691.43 2.37 
246.63 -691.50 2.60 
254.62 -691.46 2.35 
253.96 -691.61 2.38 
252.45 -691.81 2.36 
251.77 -691.63 2.57 
251.09 -691.72 2.36 
250.59 -691.84 2.58 
250.43 -691.70 2.58 
248.60 -691.88 2.38 
248.51 -691.88 2.38 
247.79 -691.68 2.49 
247.67 -691.73 2.60 
246.77 -691.65 2.61 
244.67 -691.74 2.53 
244.35 -691.87 2.40 
244.10 -691.88 2.40 
243.53 -691.63 2.54 
258.02 -692.02 2.37 
255.04 -692.09 2.57 
254.69 -692.00 2.46 
254.34 -691.96 2.57 
254.07 -691.84 2.57 
252.26 -691.91 2.37 
252.11 -691.98 2.37 
251.70 -692.03 2.37 
251.24 -691.88 2.37 
250.61 -691.86 2.58 
246.93 -691.95 2.62 
244.43 -691.96 2.40 
258.48 -692.21 2.50 
258.15 -692.16 2.57 
255.16 -692.27 2.37 
253.09 -695.00 2.54 
250.32 -680.23 2.22 
256.84 -680.53 2.19 
250.11 -680.31 2.22 
241.76 -680.57 2.60 
257.31 -680.72 2.19 
241.60 -681.03 2.61 
257.71 -681.29 2.21 
257.51 -681.12 2.20 
257.77 -681.43 2.21 
251.42 -681.51 2.25 
251.00 -681.62 2.26 
250.69 -681.47 2.25 
257.59 -690.73 2.52 
254.62 -690.84 2.71 
253.89 -690.86 2.90 
251.08 -690.90 2.67 
250.93 -690.87 2.67 
247.23 -690.89 2.80 
257.53 -691.10 2.53 
256.96 -691.20 2.93 
254.65 -691.16 2.71 
253.95 -691.19 2.90 
251.03 -691.37 3.00 
250.89 -691.33 2.99 
250.20 -691.24 2.90 
249.00 -691.24 2.81 
247.29 -691.10 2.95 
246.52 -691.25 2.92 
244.98 -691.16 2.95 
244.81 -691.46 2.80 
243.30 -691.34 2.68 
257.60 -691.44 2.91 
254.72 -691.73 2.72 
254.05 -691.61 2.91 
252.63 -691.65 2.69 
252.25 -691.76 2.69 
251.91 -691.52 2.90 
251.51 -691.79 2.95 
251.19 -691.68 2.89 
250.81 -691.62 2.79 
250.41 -691.57 2.90 
248.66 -691.72 2.86 
248.53 -691.85 2.66 
246.73 -691.69 2.92 
244.75 -691.63 2.80 
244.48 -691.84 2.94 
243.87 -691.93 2.94 
243.72 -691.73 2.95 
258.30 -691.88 2.79 
257.93 -691.85 2.95 
257.72 -691.75 2.94 
256.18 -692.11 2.75 
255.53 -691.77 2.92 
254.86 -691.99 2.73 
254.16 -691.86 2.91 
252.32 -691.82 2.69 
251.82 -692.00 2.85 
251.44 -691.91 2.86 
251.22 -691.90 2.79 
250.88 -691.91 2.90 
248.27 -692.03 2.81 
247.93 -692.00 2.76 
247.09 -692.11 2.92 
246.95 -691.98 2.92 
258.99 -692.47 2.81 
258.80 -692.33 2.80 
258.42 -692.15 2.91 
255.86 -692.19 2.75 
255.47 -692.31 2.74 
255.18 -692.25 2.74 
259.22 -692.52 2.82 
253.75 -694.83 2.91 
253.17 -694.82 2.94 
253.77 -695.15 3.07 
258.30 -680.39 2.80 
257.35 -680.31 2.80 
254.81 -680.35 2.57 
249.95 -680.62 2.81 
258.00 -680.61 2.80 
257.48 -680.71 2.80 
254.93 -680.85 2.57 
250.23 -681.02 2.81 
249.29 -680.70 2.55 
257.71 -681.03 2.81 
255.00 -681.11 2.58 
251.72 -681.28 2.80 
251.53 -681.41 2.81 
250.35 -681.34 2.81 
255.75 -681.69 2.59 
255.54 -681.61 2.59 
251.34 -681.53 2.81 
250.97 -681.54 2.81 
250.60 -681.50 2.81 
250.36 -681.47 2.81 
255.03 -690.45 3.10 
254.78 -690.54 3.09 
257.79 -690.62 2.93 
257.69 -690.58 2.93 
254.76 -690.73 3.09 
253.93 -690.86 3.26 
251.02 -690.73 3.17 
250.92 -690.86 3.00 
247.20 -690.72 3.26 
243.16 -690.84 3.26 
257.57 -691.17 3.06 
256.98 -691.16 3.32 
256.89 -691.08 3.32 
254.63 -691.25 3.09 
254.01 -691.18 3.26 
251.76 -691.39 3.35 
250.33 -691.30 3.23 
247.12 -691.41 3.24 
243.28 -691.28 3.25 
258.49 -691.51 3.22 
257.87 -691.64 3.34 
257.74 -691.44 3.34 
255.89 -691.73 3.13 
254.69 -691.58 3.09 
254.07 -691.58 3.26 
252.49 -691.75 3.03 
251.68 -691.75 3.23 
251.32 -691.80 3.22 
250.63 -691.74 3.22 
250.50 -691.65 3.22 
248.68 -691.68 3.25 
248.07 -691.74 3.22 
247.56 -691.67 3.23 
247.29 -691.50 3.23 
246.84 -691.77 3.24 
244.70 -691.58 3.22 
244.54 -691.64 3.22 
244.14 -691.80 3.22 
243.47 -691.54 3.23 
258.60 -692.10 3.22 
258.47 -691.92 3.22 
256.17 -692.11 3.14 
256.05 -692.09 3.13 
255.53 -691.96 3.20 
255.18 -692.01 3.19 
254.71 -691.91 3.18 
254.48 -691.92 3.26 
252.26 -691.91 3.19 
252.09 -691.92 3.18 
251.50 -691.86 3.22 
251.02 -691.93 3.22 
250.89 -691.87 3.22 
246.84 -691.88 3.23 
259.57 -692.35 3.26 
259.15 -692.38 3.25 
258.84 -692.23 3.23 
255.88 -692.16 3.13 
255.68 -692.18 3.12 
253.20 -694.97 3.21 
242.01 -680.53 3.13 
241.89 -680.66 3.13 
254.98 -680.75 3.16 
249.29 -680.70 3.10 
249.09 -680.84 3.09 
247.31 -680.70 3.09 
241.80 -680.94 3.13 
255.31 -681.26 3.16 
255.13 -681.03 3.16 
251.37 -681.39 3.37 
250.60 -681.32 3.37 
248.84 -681.26 3.09 
248.64 -681.36 3.09 
247.77 -681.37 3.08 
247.44 -681.11 3.09 
241.61 -681.26 3.13 
260.34 -681.40 3.27 
259.99 -681.57 3.26 
255.78 -681.52 3.16 
255.51 -681.40 3.16 
251.10 -681.54 3.36 
250.70 -681.52 3.36 
248.46 -681.48 3.08 
248.22 -681.48 3.08 
247.98 -681.46 3.08 
253.99 -690.48 3.64 
257.73 -690.69 3.34 
254.74 -690.67 3.48 
253.99 -690.72 3.63 
251.12 -690.65 3.68 
250.35 -690.64 3.58 
257.84 -691.17 3.34 
257.56 -691.23 3.61 
257.02 -691.09 3.72 
256.93 -691.06 3.71 
255.21 -691.13 3.49 
254.68 -691.20 3.47 
254.03 -691.15 3.62 
250.67 -691.11 3.57 
250.41 -691.14 3.56 
243.26 -691.14 3.54 
258.48 -691.57 3.65 
257.99 -691.57 3.74 
255.41 -691.49 3.50 
254.81 -691.70 3.46 
254.18 -691.57 3.61 
254.14 -691.45 3.62 
252.38 -691.72 3.69 
251.52 -691.78 3.65 
250.63 -691.64 3.55 
250.50 -691.43 3.55 
248.64 -691.54 3.55 
248.50 -691.45 3.55 
247.73 -691.63 3.52 
246.75 -691.68 3.55 
258.68 -691.93 3.66 
258.37 -691.95 3.75 
258.14 -691.78 3.74 
255.89 -692.12 3.51 
255.62 -692.08 3.50 
255.36 -691.78 3.49 
254.90 -691.77 3.47 
251.82 -691.85 3.66 
259.51 -692.23 3.70 
259.18 -692.30 3.69 
258.82 -692.14 3.72 
257.66 -679.96 3.43 
257.47 -680.00 3.42 
241.86 -680.18 3.69 
257.50 -680.47 3.42 
256.90 -680.37 3.41 
250.12 -680.45 3.38 
241.88 -680.65 3.67 
257.73 -680.78 3.42 
257.59 -680.67 3.42 
256.00 -680.74 3.40 
249.31 -680.62 3.65 
249.05 -680.81 3.64 
247.45 -680.92 3.62 
241.68 -680.90 3.66 
241.60 -681.05 3.66 
257.84 -681.01 3.42 
251.81 -681.28 3.37 
251.55 -681.32 3.37 
250.88 -681.25 3.37 
250.39 -681.20 3.37 
248.61 -681.23 3.62 
248.17 -681.26 3.61 
247.84 -681.23 3.61 
254.80 -690.51 3.88 
257.98 -690.55 3.77 
254.69 -690.83 3.86 
251.23 -690.80 4.02 
250.32 -690.84 3.91 
243.27 -690.87 3.85 
258.77 -691.10 4.12 
257.81 -691.23 3.74 
254.73 -691.11 3.85 
251.37 -691.07 4.01 
248.94 -691.33 4.18 
248.43 -691.26 4.01 
244.74 -691.16 4.10 
258.76 -691.54 4.11 
257.89 -691.33 3.74 
255.59 -691.54 3.89 
255.31 -691.69 3.87 
254.87 -691.39 3.85 
254.40 -691.61 3.97 
252.58 -691.46 4.06 
252.41 -691.61 4.04 
251.92 -691.72 4.00 
251.57 -691.63 3.98 
248.59 -691.49 4.15 
248.32 -691.59 4.13 
247.98 -691.59 4.12 
246.77 -691.55 4.20 
259.13 -691.87 4.13 
258.85 -691.71 4.11 
256.30 -691.81 3.93 
255.90 -691.96 3.90 
255.58 -691.87 3.88 
255.12 -691.77 3.85 
257.73 -680.32 4.05 
256.96 -680.24 4.04 
250.50 -680.20 3.97 
257.91 -680.58 4.05 
255.96 -680.88 4.00 
255.10 -680.67 3.75 
251.97 -680.94 3.95 
250.46 -680.84 3.95 
250.23 -680.74 3.95 
248.42 -680.94 4.16 
248.18 -680.83 4.16 
247.96 -680.75 4.17 
258.09 -680.87 4.04 
255.72 -681.14 3.87 
255.44 -681.19 3.86 
251.75 -681.18 3.94 
251.48 -681.30 3.93 
250.62 -681.27 3.93 
248.57 -681.01 4.16 
255.87 -681.33 3.75 
251.04 -681.43 3.93 
255.03 -690.77 4.27 
251.49 -690.87 4.37 
248.90 -690.91 4.22 
248.35 -690.74 4.22 
243.35 -690.72 4.46 
257.74 -691.11 4.47 
254.98 -691.20 4.24 
254.91 -691.24 4.24 
254.17 -691.15 4.35 
251.50 -691.12 4.35 
248.84 -691.14 4.51 
248.29 -691.21 4.47 
247.93 -691.33 4.44 
247.68 -691.39 4.42 
246.65 -691.07 4.57 
255.04 -691.61 4.23 
252.28 -691.41 4.39 
252.02 -691.48 4.36 
251.68 -691.43 4.34 
248.60 -691.40 4.46 
248.18 -691.59 4.42 
248.09 -691.54 4.42 
244.23 -691.55 4.34 
259.39 -691.79 4.15 
255.92 -691.88 4.29 
255.57 -691.85 4.26 
248.83 -680.55 4.19 
247.85 -680.51 4.18 
241.71 -680.43 4.22 
251.83 -680.80 4.53 
250.55 -680.75 4.52 
248.65 -680.72 4.18 
248.00 -680.70 4.17 
251.63 -680.95 4.52 
251.34 -681.15 4.50 
251.02 -681.03 4.51 
250.70 -680.96 4.51 
257.24 -690.89 4.94 
257.86 -690.84 5.38 
257.27 -679.96 5.95 
257.50 -691.20 2.17 
256.80 -691.19 2.18 
247.00 -680.54 2.05 
241.83 -680.69 2.09 
243.09 -681.11 2.09 
241.69 -681.10 2.10 
255.06 -681.17 2.05 
254.92 -681.04 2.04 
243.25 -681.13 2.09 
241.53 -681.17 2.11 
255.19 -681.50 2.06 
253.89 -690.53 2.57 
251.06 -690.57 2.37 
254.72 -690.72 2.37 
253.99 -690.69 2.58 
251.23 -690.93 2.38 
247.27 -690.83 2.38 
243.32 -691.03 2.41 
254.58 -691.12 2.39 
253.82 -691.26 2.41 
250.89 -691.14 2.39 
250.16 -691.26 2.60 
248.26 -691.30 2.61 
247.93 -691.37 2.40 
247.34 -691.27 2.40 
246.65 -691.25 2.62 
244.14 -691.18 2.41 
257.44 -691.40 2.40 
254.54 -691.59 2.40 
254.08 -691.64 2.61 
253.89 -691.50 2.36 
252.51 -691.68 2.40 
251.06 -691.76 2.41 
250.41 -691.64 2.45 
250.25 -691.53 2.61 
248.73 -691.82 2.41 
248.04 -691.68 2.63 
247.67 -691.64 2.52 
246.62 -691.52 2.63 
244.08 -691.79 2.43 
243.71 -691.73 2.43 
258.30 -691.83 2.42 
255.18 -691.93 2.62 
254.86 -692.06 2.43 
254.57 -691.99 2.49 
254.14 -691.84 2.25 
252.06 -692.05 2.42 
251.79 -692.05 2.42 
251.40 -691.96 2.52 
250.68 -691.82 2.62 
247.16 -691.97 2.64 
244.43 -691.93 2.56 
243.80 -691.95 2.70 
259.44 -692.37 2.44 
258.81 -692.41 2.44 
255.23 -692.29 2.43 
259.40 -692.55 2.45 
258.96 -692.52 2.44 
241.66 -680.28 2.62 
256.64 -680.42 2.23 
246.25 -680.57 2.29 
246.10 -680.55 2.29 
249.98 -680.91 2.28 
248.58 -680.95 2.60 
247.12 -680.82 2.60 
241.84 -680.74 2.62 
241.54 -681.08 2.62 
257.54 -681.08 2.25 
247.49 -681.35 2.60 
247.38 -681.13 2.60 
258.41 -681.58 2.27 
258.02 -681.48 2.27 
257.67 -681.33 2.26 
250.59 -681.41 2.29 
246.74 -681.53 2.31 
253.84 -685.90 2.69 
247.56 -690.54 2.69 
247.49 -690.46 2.69 
258.53 -690.77 2.85 
257.68 -690.62 2.57 
254.87 -690.74 2.78 
254.02 -690.69 2.96 
253.91 -690.69 2.96 
250.96 -690.88 2.73 
250.35 -690.78 2.94 
250.22 -690.86 2.94 
243.91 -690.89 2.98 
258.45 -691.01 2.85 
258.23 -691.21 2.85 
257.58 -691.05 2.59 
254.91 -691.04 2.79 
254.73 -691.08 2.78 
253.88 -691.24 2.96 
252.09 -691.20 2.85 
251.92 -691.24 2.74 
250.21 -691.37 2.94 
248.23 -691.03 2.94 
247.93 -691.40 2.70 
246.59 -691.20 2.95 
244.94 -691.37 2.84 
243.86 -691.47 2.98 
243.30 -691.26 2.84 
257.63 -691.57 2.60 
257.48 -691.36 2.84 
255.86 -691.65 2.82 
254.67 -691.62 2.79 
254.06 -691.52 2.97 
253.91 -691.41 2.97 
252.61 -691.72 2.76 
251.81 -691.62 2.95 
251.25 -691.76 2.74 
251.10 -691.71 2.74 
250.48 -691.61 2.94 
250.28 -691.43 2.94 
248.81 -691.67 3.02 
248.64 -691.75 2.71 
247.96 -691.68 2.94 
247.80 -691.79 2.97 
247.37 -691.62 2.85 
246.68 -691.66 2.95 
244.81 -691.55 2.69 
244.13 -691.75 2.83 
243.62 -691.68 2.84 
243.44 -691.52 2.98 
258.44 -692.07 2.88 
258.19 -692.06 2.62 
257.85 -691.88 2.61 
256.11 -692.08 2.83 
255.19 -692.02 2.81 
254.86 -692.04 2.80 
254.68 -691.99 2.89 
254.35 -691.96 2.98 
252.38 -691.82 2.76 
252.08 -691.95 2.76 
251.74 -692.04 2.75 
251.32 -691.84 2.74 
248.46 -691.93 2.86 
248.12 -691.99 2.81 
247.80 -691.96 2.85 
247.49 -692.04 2.95 
247.08 -692.06 2.95 
244.11 -691.93 2.97 
258.89 -692.31 2.76 
258.57 -692.20 2.88 
258.12 -692.13 2.62 
255.71 -692.22 2.82 
255.36 -692.26 2.82 
259.29 -692.52 2.91 
258.98 -692.49 2.90 
253.73 -694.85 2.84 
253.14 -694.84 3.00 
253.74 -695.17 3.01 
250.96 -680.10 2.60 
258.07 -680.41 2.87 
256.81 -680.43 2.86 
254.95 -680.23 2.63 
254.93 -680.66 2.63 
250.17 -680.89 2.84 
246.26 -681.04 2.86 
246.09 -680.65 2.86 
244.07 -681.00 2.88 
258.02 -681.22 2.88 
257.61 -680.97 2.87 
255.05 -681.18 2.64 
254.97 -680.95 2.64 
254.21 -681.15 2.85 
251.88 -681.08 2.85 
250.30 -681.22 2.85 
246.42 -681.27 2.86 
243.93 -681.27 2.89 
258.37 -681.44 2.88 
258.03 -681.34 2.88 
256.24 -681.62 2.66 
255.91 -681.65 2.65 
255.54 -681.58 2.65 
255.16 -681.36 2.64 
246.58 -681.47 2.86 
247.26 -690.53 3.33 
258.59 -690.72 3.32 
257.71 -690.67 3.00 
254.94 -690.56 3.19 
254.71 -690.57 3.18 
254.04 -690.79 3.34 
250.98 -690.60 3.08 
247.31 -690.66 3.32 
246.60 -690.83 3.28 
258.39 -691.04 3.32 
257.62 -691.08 3.01 
257.49 -691.27 3.28 
256.80 -691.05 2.99 
255.36 -691.30 3.21 
254.83 -690.97 3.19 
254.71 -691.18 3.27 
254.01 -690.99 3.34 
250.98 -691.06 3.07 
250.23 -691.07 3.28 
248.27 -691.25 3.27 
247.63 -691.29 3.31 
247.24 -691.19 3.30 
246.74 -691.14 3.27 
246.66 -691.35 3.27 
243.29 -691.31 3.26 
257.65 -691.36 3.15 
255.43 -691.37 3.21 
254.65 -691.55 3.18 
254.04 -691.41 3.33 
252.48 -691.44 3.11 
252.17 -691.73 3.10 
251.73 -691.53 3.29 
251.30 -691.52 3.26 
251.04 -691.44 3.24 
250.53 -691.56 3.28 
248.14 -691.64 3.26 
246.82 -691.65 3.26 
246.74 -691.55 3.26 
244.86 -691.57 3.26 
244.39 -691.83 3.24 
244.16 -691.79 3.24 
243.77 -691.63 3.25 
243.47 -691.56 3.25 
259.04 -691.78 3.35 
258.58 -691.93 3.33 
258.07 -691.96 3.03 
257.88 -691.80 3.02 
255.19 -692.10 3.20 
254.92 -691.92 3.19 
254.70 -691.75 3.18 
252.42 -691.78 3.11 
251.97 -691.85 3.10 
251.74 -691.89 3.28 
251.33 -691.88 3.11 
250.92 -691.85 3.28 
248.30 -691.86 3.31 
247.79 -691.95 3.29 
246.95 -691.91 3.26 
244.06 -691.89 3.24 
243.90 -691.89 3.24 
259.29 -692.37 3.36 
258.91 -692.20 3.20 
258.57 -692.19 3.04 
258.16 -692.08 3.03 
256.00 -692.16 3.23 
255.72 -692.19 3.22 
255.41 -692.15 3.21 
255.15 -692.11 3.20 
253.24 -695.06 3.29 
241.93 -680.55 3.15 
255.03 -680.75 3.23 
249.19 -680.81 3.14 
247.41 -681.01 3.13 
247.23 -680.68 3.13 
256.76 -681.13 3.27 
255.20 -681.08 3.23 
248.74 -681.33 3.13 
247.62 -681.23 3.13 
246.51 -681.22 3.42 
241.56 -681.25 3.14 
256.29 -681.52 3.26 
255.98 -681.55 3.25 
255.60 -681.47 3.24 
255.37 -681.34 3.24 
248.35 -681.51 3.13 
248.04 -681.45 3.13 
247.80 -681.45 3.13 
254.93 -690.29 3.61 
254.06 -690.41 3.73 
251.16 -690.41 3.44 
247.29 -690.45 3.65 
257.79 -690.71 3.43 
254.66 -690.75 3.59 
253.93 -690.70 3.72 
251.12 -690.67 3.44 
250.30 -690.82 3.63 
257.67 -691.08 3.58 
254.76 -691.21 3.59 
254.67 -691.06 3.58 
254.08 -691.09 3.71 
251.22 -691.10 3.43 
250.52 -691.24 3.62 
246.59 -691.22 3.60 
258.49 -691.56 3.79 
257.74 -691.40 3.59 
254.82 -691.61 3.58 
254.74 -691.39 3.58 
254.14 -691.39 3.71 
251.83 -691.55 3.79 
251.44 -691.66 3.77 
250.64 -691.45 3.61 
248.87 -691.55 3.65 
247.33 -691.43 3.60 
246.83 -691.49 3.59 
246.73 -691.63 3.58 
244.52 -691.58 3.53 
258.55 -691.95 3.62 
258.14 -691.85 3.44 
255.76 -692.01 3.63 
255.29 -691.99 3.60 
254.99 -691.82 3.59 
252.43 -691.76 3.47 
252.04 -691.89 3.79 
251.86 -691.86 3.78 
247.92 -691.88 3.59 
258.88 -692.11 3.81 
255.90 -692.16 3.64 
255.33 -692.10 3.61 
257.62 -680.01 3.50 
249.39 -680.50 3.71 
247.29 -680.44 3.68 
257.70 -680.63 3.49 
250.20 -680.88 3.42 
249.14 -680.77 3.70 
248.98 -680.83 3.69 
248.11 -680.86 3.68 
247.43 -680.95 3.67 
246.27 -680.70 3.43 
243.90 -680.81 3.45 
243.77 -680.97 3.45 
241.86 -680.67 3.68 
241.68 -680.92 3.67 
258.07 -681.09 3.50 
251.89 -681.05 3.42 
251.31 -681.30 3.41 
250.62 -681.33 3.41 
250.47 -681.26 3.41 
248.78 -681.14 3.68 
248.42 -681.29 3.67 
248.02 -681.27 3.66 
247.64 -681.09 3.66 
243.61 -681.25 3.64 
258.63 -681.40 3.51 
258.34 -681.29 3.50 
251.46 -681.42 3.41 
251.10 -681.48 3.41 
250.85 -681.44 3.41 
248.40 -681.40 3.66 
251.19 -690.46 3.80 
247.15 -690.57 3.96 
258.59 -690.72 3.80 
257.85 -690.72 3.87 
254.77 -690.73 4.00 
251.19 -690.74 4.15 
251.13 -690.88 4.14 
247.17 -690.80 3.94 
243.41 -690.66 4.18 
258.49 -691.04 3.79 
258.00 -690.90 3.87 
257.94 -691.18 3.86 
257.02 -691.03 3.83 
254.69 -691.17 3.98 
251.80 -691.19 4.16 
251.28 -691.07 4.13 
247.57 -691.31 4.22 
246.65 -691.40 3.91 
244.66 -691.28 4.13 
243.68 -691.25 4.12 
258.50 -691.30 3.79 
258.04 -691.58 3.86 
257.95 -691.36 3.86 
254.83 -691.46 3.98 
254.27 -691.43 4.08 
252.47 -691.54 4.19 
251.59 -691.62 4.12 
251.43 -691.46 4.12 
248.46 -691.65 4.09 
248.10 -691.53 4.05 
258.83 -691.94 3.81 
258.51 -691.89 3.88 
258.18 -691.79 3.86 
256.01 -691.90 4.05 
255.77 -691.95 4.04 
255.37 -691.90 4.01 
252.08 -691.76 4.15 
259.66 -692.18 3.85 
259.14 -692.21 3.82 
255.12 -680.35 3.85 
241.55 -680.55 4.22 
255.26 -680.61 3.85 
252.04 -680.82 4.01 
250.33 -680.71 4.00 
246.28 -680.90 3.99 
243.92 -680.93 4.02 
256.58 -681.05 3.88 
255.58 -681.17 3.84 
255.39 -680.94 3.84 
251.69 -681.18 3.99 
250.81 -681.27 3.98 
246.61 -681.08 3.98 
246.45 -681.11 3.98 
256.21 -681.31 3.86 
255.92 -681.28 3.85 
251.46 -681.47 3.98 
251.21 -681.42 3.98 
248.73 -690.52 4.36 
247.42 -690.83 4.45 
246.49 -690.82 4.28 
257.62 -691.12 4.19 
255.06 -691.03 4.42 
248.85 -691.25 4.30 
248.52 -691.32 4.59 
248.23 -691.28 4.58 
247.72 -691.16 4.56 
244.50 -691.33 4.41 
244.27 -691.34 4.40 
255.67 -691.64 4.45 
255.36 -691.59 4.42 
255.08 -691.44 4.40 
248.59 -691.42 4.58 
247.87 -691.41 4.54 
246.95 -691.59 4.53 
255.67 -691.70 4.44 
257.91 -680.34 4.14 
248.43 -680.34 4.25 
258.70 -680.67 4.16 
258.44 -680.67 4.15 
258.10 -680.60 4.14 
246.62 -680.84 4.56 
257.91 -680.07 5.25 
257.86 -690.75 5.61 
257.91 -690.85 5.61 
258.05 -679.85 5.94 
258.17 -679.95 5.94 
257.17 -691.16 2.15 
241.81 -680.64 2.04 
241.68 -681.03 2.05 
241.65 -681.15 2.05 
255.39 -681.57 2.04 
255.09 -681.49 2.04 
244.26 -681.58 2.06 
243.80 -681.55 2.06 
254.61 -690.82 2.36 
250.98 -690.61 2.35 
250.51 -690.92 2.57 
247.27 -690.84 2.35 
243.24 -691.07 2.37 
254.66 -691.02 2.37 
254.20 -691.15 2.38 
250.76 -691.29 2.47 
250.50 -691.23 2.58 
247.84 -691.25 2.31 
247.55 -691.26 2.33 
247.28 -691.26 2.36 
246.89 -691.10 2.58 
258.24 -691.66 2.41 
257.40 -691.49 2.40 
254.36 -691.52 2.33 
252.34 -691.69 2.49 
251.31 -691.78 2.25 
250.83 -691.58 2.46 
248.81 -691.63 2.38 
247.58 -691.65 2.38 
247.12 -691.61 2.60 
243.86 -691.86 2.53 
243.62 -691.76 2.52 
258.34 -691.77 2.41 
258.15 -691.92 2.42 
255.17 -691.95 2.54 
254.74 -691.96 2.36 
254.51 -691.75 2.60 
251.93 -692.08 2.40 
251.45 -691.93 2.47 
251.11 -691.87 2.49 
248.58 -691.86 2.38 
248.53 -691.91 2.39 
247.87 -692.02 2.50 
247.66 -692.00 2.50 
244.24 -691.94 2.53 
243.87 -691.99 2.66 
243.71 -691.93 2.66 
258.40 -692.23 2.43 
255.21 -692.30 2.42 
254.82 -692.18 2.41 
259.15 -692.60 2.45 
258.85 -692.53 2.44 
253.53 -694.78 2.70 
253.53 -695.08 2.71 
254.28 -680.13 2.21 
254.40 -680.33 2.21 
241.53 -680.30 2.56 
246.54 -680.91 2.25 
243.25 -680.78 2.56 
241.75 -680.74 2.57 
246.96 -681.29 2.26 
246.71 -681.22 2.26 
244.30 -681.36 2.56 
243.81 -681.43 2.56 
243.53 -681.22 2.56 
258.98 -681.60 2.25 
258.65 -681.60 2.25 
258.30 -681.44 2.25 
247.42 -681.51 2.27 
247.19 -681.47 2.27 
258.04 -690.67 2.56 
254.66 -690.84 2.78 
254.38 -690.61 2.75 
252.26 -690.94 2.74 
250.76 -690.85 2.82 
247.47 -690.70 2.83 
243.87 -690.99 2.95 
243.33 -691.06 2.65 
258.31 -691.00 2.86 
257.92 -691.20 2.58 
257.20 -691.15 2.58 
254.69 -691.14 2.79 
254.32 -691.13 2.96 
250.95 -690.99 2.72 
248.65 -691.29 2.91 
247.94 -691.24 2.84 
247.61 -691.04 2.67 
244.96 -691.32 2.66 
244.79 -691.37 2.79 
243.24 -691.17 2.80 
258.19 -691.47 2.87 
258.00 -691.52 2.59 
257.44 -691.45 2.85 
254.66 -691.67 2.80 
254.47 -691.51 2.88 
252.28 -691.58 2.94 
251.63 -691.63 2.74 
250.99 -691.63 2.73 
250.92 -691.56 2.73 
248.69 -691.71 2.85 
248.52 -691.59 2.80 
248.14 -691.68 3.00 
247.47 -691.62 2.80 
247.17 -691.66 2.95 
244.75 -691.59 2.80 
244.44 -691.82 2.80 
243.54 -691.65 2.80 
258.27 -691.98 2.61 
258.12 -691.80 2.61 
255.83 -691.72 2.99 
255.41 -692.05 2.99 
254.71 -691.87 2.89 
252.31 -691.82 2.75 
251.81 -691.97 2.75 
251.63 -691.99 2.84 
251.25 -691.81 2.74 
248.36 -691.90 2.87 
247.93 -692.08 2.84 
247.58 -691.93 2.83 
243.91 -691.92 2.93 
243.69 -691.94 2.93 
259.15 -692.33 2.77 
258.80 -692.31 2.76 
258.54 -692.32 2.90 
255.91 -692.23 2.84 
255.59 -692.29 2.83 
255.17 -692.26 2.82 
254.82 -692.18 2.81 
259.43 -692.57 2.93 
259.19 -692.56 2.92 
258.86 -692.51 2.91 
253.61 -694.77 2.93 
253.59 -695.10 2.95 
253.66 -695.40 2.86 
246.42 -680.16 2.81 
258.54 -680.14 2.66 
254.23 -680.34 2.83 
257.67 -680.69 2.66 
254.32 -680.55 2.83 
249.39 -680.72 2.57 
249.15 -680.97 2.57 
246.58 -680.95 2.82 
256.70 -681.14 2.65 
255.26 -681.29 2.63 
255.06 -681.28 2.63 
252.20 -681.13 2.82 
251.94 -681.31 2.82 
251.08 -681.22 2.59 
246.96 -681.36 2.82 
246.72 -681.17 2.82 
259.46 -681.35 2.89 
259.03 -681.52 2.89 
258.71 -681.49 2.88 
256.18 -681.66 2.65 
255.66 -681.67 2.64 
255.39 -681.60 2.64 
251.79 -681.47 2.83 
251.47 -681.46 2.82 
247.67 -681.63 2.82 
247.42 -681.61 2.82 
247.03 -681.44 2.82 
255.84 -681.72 2.65 
255.38 -690.48 3.23 
247.17 -690.59 3.32 
258.07 -690.83 3.02 
254.69 -690.79 3.20 
254.34 -690.76 3.35 
250.96 -690.63 3.08 
250.81 -690.77 3.18 
247.37 -690.61 3.32 
247.22 -690.63 3.32 
243.20 -690.84 3.24 
258.30 -691.13 3.19 
258.09 -691.11 3.02 
255.17 -691.22 3.22 
254.65 -691.03 3.20 
254.35 -691.13 3.35 
251.03 -691.30 3.28 
250.68 -691.00 3.27 
247.09 -691.14 3.27 
258.36 -691.45 3.19 
257.46 -691.36 3.31 
255.26 -691.65 3.23 
254.68 -691.58 3.20 
252.42 -691.49 3.21 
251.94 -691.57 3.29 
251.04 -691.57 3.18 
250.81 -691.51 3.27 
248.64 -691.60 3.29 
248.07 -691.77 3.31 
246.94 -691.57 3.23 
244.63 -691.59 3.23 
244.50 -691.64 3.22 
244.08 -691.76 3.22 
243.54 -691.62 3.22 
259.13 -692.05 3.06 
258.67 -691.96 3.21 
258.50 -691.81 3.04 
255.90 -691.77 3.25 
255.51 -691.88 3.31 
255.17 -692.04 3.23 
254.85 -691.84 3.29 
252.29 -691.84 3.12 
251.90 -691.92 3.20 
251.49 -691.95 3.19 
251.25 -691.85 3.18 
248.22 -691.90 3.27 
248.04 -692.04 3.23 
247.53 -691.96 3.23 
247.35 -691.90 3.23 
244.35 -691.86 3.21 
243.93 -691.86 3.21 
259.14 -692.32 3.23 
258.86 -692.19 3.22 
255.89 -692.17 3.26 
255.55 -692.19 3.24 
255.26 -692.13 3.23 
259.29 -692.48 3.40 
253.69 -694.82 3.19 
253.66 -695.10 3.24 
253.71 -695.35 3.20 
243.62 -680.48 3.09 
243.60 -680.41 3.09 
243.11 -680.54 3.09 
241.99 -680.32 3.10 
249.18 -680.82 3.12 
241.82 -680.70 3.09 
256.81 -681.24 3.28 
255.48 -680.92 3.24 
251.21 -681.20 3.15 
248.91 -681.15 3.12 
248.69 -681.37 3.11 
247.38 -681.24 3.38 
247.12 -681.34 3.37 
244.30 -681.40 3.08 
243.91 -681.37 3.08 
243.26 -681.11 3.08 
241.67 -681.13 3.09 
256.46 -681.43 3.27 
256.22 -681.50 3.26 
255.85 -681.59 3.25 
255.48 -681.44 3.24 
248.53 -681.45 3.11 
248.25 -681.44 3.10 
247.89 -681.45 3.10 
244.15 -681.47 3.08 
244.01 -681.45 3.08 
254.81 -690.33 3.64 
254.43 -690.39 3.36 
251.00 -690.51 3.55 
247.21 -690.50 3.65 
243.22 -690.60 3.55 
258.43 -690.83 3.35 
254.60 -690.71 3.53 
254.43 -690.63 3.56 
251.06 -690.75 3.45 
250.79 -690.89 3.54 
247.57 -690.91 3.64 
258.16 -690.93 3.47 
257.47 -691.10 3.44 
254.62 -691.09 3.62 
254.31 -691.00 3.74 
251.14 -691.16 3.44 
250.78 -691.31 3.62 
247.13 -691.20 3.59 
244.74 -691.28 3.57 
258.33 -691.46 3.47 
254.64 -691.50 3.61 
254.55 -691.45 3.74 
251.17 -691.53 3.70 
248.85 -691.55 3.66 
248.01 -691.48 3.63 
247.36 -691.55 3.60 
244.46 -691.57 3.79 
243.52 -691.57 3.50 
258.71 -691.98 3.49 
258.48 -691.75 3.48 
255.50 -691.93 3.77 
255.24 -691.97 3.70 
254.89 -691.79 3.69 
252.21 -691.92 3.48 
259.78 -692.20 3.42 
259.01 -692.15 3.50 
258.92 -692.06 3.50 
255.60 -692.14 3.66 
255.27 -692.10 3.64 
254.55 -679.92 3.45 
258.56 -680.10 3.33 
254.47 -680.23 3.44 
249.30 -680.54 3.69 
243.28 -680.48 3.63 
241.85 -680.55 3.63 
257.74 -680.58 3.31 
249.24 -680.64 3.69 
249.04 -680.80 3.68 
246.90 -680.99 3.38 
246.75 -680.90 3.38 
244.30 -680.93 3.61 
243.50 -680.83 3.62 
241.68 -680.86 3.62 
241.52 -680.94 3.62 
259.65 -681.22 3.54 
259.14 -680.93 3.53 
258.75 -681.22 3.52 
252.20 -681.14 3.40 
251.94 -681.30 3.40 
248.94 -681.03 3.67 
248.68 -681.16 3.66 
248.14 -681.25 3.64 
247.80 -681.14 3.64 
246.92 -681.08 3.38 
244.15 -681.41 3.60 
243.94 -681.14 3.60 
259.33 -681.37 3.53 
259.10 -681.38 3.53 
251.74 -681.39 3.40 
251.51 -681.48 3.39 
248.32 -681.41 3.64 
258.62 -690.82 3.85 
258.50 -690.54 3.94 
254.67 -690.72 4.05 
251.08 -690.81 3.81 
250.84 -690.88 3.99 
247.11 -690.64 3.96 
244.92 -690.89 4.16 
258.91 -691.19 3.87 
258.43 -691.05 3.87 
257.48 -691.18 3.78 
254.67 -691.11 4.04 
251.57 -691.23 4.01 
251.22 -691.15 4.17 
244.64 -691.28 4.11 
258.99 -691.27 3.87 
258.50 -691.38 3.86 
257.53 -691.29 3.78 
254.79 -691.54 4.03 
252.00 -691.62 4.08 
251.49 -691.52 4.17 
251.32 -691.36 4.17 
248.71 -691.50 3.98 
248.46 -691.59 3.96 
247.67 -691.58 4.23 
243.21 -691.49 3.90 
258.97 -691.82 3.95 
258.68 -691.92 3.88 
258.54 -691.80 3.87 
255.79 -691.99 4.10 
255.61 -691.97 4.08 
255.16 -691.90 4.05 
254.92 -691.74 4.04 
252.39 -691.78 3.86 
251.97 -691.86 3.83 
259.17 -692.22 3.88 
258.86 -692.13 3.86 
254.55 -680.03 4.07 
254.61 -680.31 4.07 
251.11 -680.28 3.74 
241.53 -680.55 4.16 
257.83 -680.47 3.97 
255.42 -680.72 3.86 
252.35 -680.89 4.00 
251.26 -680.56 3.74 
246.91 -680.94 3.95 
246.78 -680.85 3.95 
256.25 -681.10 3.89 
255.90 -681.10 3.87 
255.57 -681.03 3.86 
252.15 -681.08 3.99 
251.82 -681.19 3.98 
248.05 -681.31 3.94 
247.31 -681.19 3.94 
247.06 -681.10 3.94 
251.63 -681.44 3.97 
247.79 -681.43 3.93 
247.54 -681.40 3.93 
248.17 -690.34 4.38 
251.20 -690.65 4.20 
247.23 -690.80 4.28 
246.87 -690.60 4.27 
244.80 -690.95 4.46 
243.38 -690.86 4.43 
257.52 -691.00 4.30 
248.90 -691.29 4.34 
248.20 -691.32 4.61 
247.97 -691.28 4.60 
247.59 -691.10 4.54 
247.27 -691.07 4.25 
246.91 -691.08 4.23 
244.35 -691.25 4.40 
244.05 -691.31 4.39 
243.59 -691.23 4.38 
243.09 -691.05 4.26 
252.24 -691.63 4.22 
248.65 -691.43 4.31 
248.30 -691.50 4.44 
247.87 -691.37 4.26 
246.95 -680.51 4.54 
247.26 -680.93 4.51 
247.09 -680.84 4.52 
247.83 -681.12 4.51 
247.50 -681.03 4.51 
247.46 -690.88 4.61 
247.84 -691.01 4.62 
257.90 -680.33 4.63 
246.82 -680.34 4.55 
257.83 -691.03 5.23 
257.85 -690.83 5.73 
258.00 -680.17 5.30 
258.09 -679.73 6.02 
258.38 -681.17 2.00 
258.36 -681.12 2.00 
243.15 -681.16 1.98 
244.12 -681.57 1.99 
243.86 -681.52 1.99 
254.71 -690.72 2.34 
251.11 -690.60 2.32 
250.19 -690.82 2.54 
247.35 -690.75 2.32 
242.96 -690.74 2.54 
254.92 -690.90 2.35 
254.68 -690.97 2.35 
253.88 -691.23 2.36 
250.99 -691.09 2.34 
250.25 -691.21 2.37 
247.44 -691.19 2.31 
246.61 -691.17 2.55 
243.45 -691.07 2.32 
257.47 -691.45 2.39 
254.58 -691.53 2.38 
253.96 -691.39 2.37 
251.00 -691.58 2.36 
250.61 -691.62 2.21 
250.42 -691.45 2.38 
248.01 -691.53 2.45 
246.92 -691.59 2.56 
246.66 -691.47 2.56 
242.90 -691.74 2.58 
258.30 -691.76 2.41 
254.98 -692.04 2.59 
254.66 -691.94 2.32 
254.19 -691.86 2.19 
252.53 -691.73 2.37 
252.48 -691.75 2.37 
252.00 -692.06 2.38 
251.49 -691.96 2.38 
251.11 -691.85 2.30 
250.63 -691.73 2.57 
248.62 -691.89 2.36 
248.38 -691.90 2.36 
247.05 -691.90 2.57 
258.29 -692.03 2.42 
255.49 -692.32 2.41 
255.11 -692.23 2.41 
254.84 -692.11 2.40 
251.75 -692.14 2.38 
259.50 -692.55 2.45 
259.07 -692.55 2.44 
258.76 -692.44 2.44 
253.18 -695.03 2.70 
253.94 -680.06 2.16 
254.07 -680.26 2.17 
243.22 -680.58 2.49 
248.23 -680.83 2.19 
243.31 -680.97 2.50 
254.17 -681.14 2.20 
253.97 -680.97 2.19 
246.62 -681.21 2.20 
244.88 -681.17 2.50 
244.05 -681.35 2.50 
243.46 -681.16 2.50 
259.24 -681.23 2.21 
258.51 -681.57 2.22 
247.39 -681.50 2.21 
246.93 -681.42 2.21 
244.60 -681.40 2.51 
244.20 -681.39 2.50 
243.89 -681.41 2.50 
253.90 -685.67 2.67 
247.48 -690.52 2.65 
257.70 -690.55 2.55 
254.91 -690.54 2.79 
254.88 -690.72 2.79 
253.94 -690.62 2.54 
251.02 -690.76 2.71 
250.52 -690.73 2.90 
250.33 -690.71 2.90 
247.73 -690.57 2.65 
247.59 -690.61 2.65 
258.37 -691.07 2.89 
257.63 -690.92 2.56 
254.71 -691.13 2.80 
253.90 -690.98 2.55 
250.95 -691.12 2.72 
250.28 -691.30 2.91 
247.63 -691.34 2.66 
246.61 -691.19 2.88 
243.38 -691.17 2.62 
243.26 -691.08 2.76 
258.34 -691.36 2.89 
257.59 -691.46 2.73 
254.61 -691.55 2.80 
254.02 -691.44 2.96 
252.00 -691.46 2.93 
251.04 -691.47 2.82 
250.58 -691.36 2.91 
250.36 -691.34 2.91 
248.81 -691.71 2.69 
247.72 -691.59 2.67 
247.37 -691.55 2.82 
246.73 -691.51 2.88 
244.98 -691.46 2.93 
244.70 -691.73 2.82 
244.12 -691.70 2.88 
244.01 -691.67 2.88 
243.45 -691.58 2.76 
242.90 -691.71 2.89 
242.82 -691.61 2.89 
258.28 -691.76 2.90 
257.87 -691.80 2.60 
254.96 -691.94 2.82 
254.71 -691.82 2.86 
254.23 -691.73 2.97 
252.41 -691.82 2.76 
251.78 -691.95 2.75 
251.44 -691.84 2.74 
251.28 -691.82 2.74 
250.83 -691.80 2.92 
248.58 -691.86 2.69 
248.31 -692.01 2.84 
247.88 -692.01 2.84 
247.58 -691.94 2.85 
247.00 -691.87 2.89 
244.60 -691.85 2.73 
244.37 -691.92 2.73 
243.89 -691.92 2.77 
243.14 -691.91 2.89 
258.95 -692.33 2.93 
258.29 -692.10 2.61 
255.88 -692.23 2.85 
255.53 -692.31 2.85 
255.15 -692.20 2.83 
251.96 -692.10 2.76 
259.47 -692.52 2.95 
259.15 -692.48 2.94 
253.75 -694.96 2.87 
253.22 -695.01 3.01 
253.76 -695.40 2.88 
253.75 -695.28 2.88 
258.62 -680.14 2.65 
258.50 -680.62 2.66 
254.03 -680.68 2.80 
248.34 -680.75 2.76 
258.52 -681.08 2.67 
258.10 -681.18 2.85 
256.81 -681.22 2.64 
254.23 -681.01 2.80 
251.09 -681.03 2.55 
248.08 -681.19 2.76 
247.91 -681.26 2.76 
246.46 -681.20 2.76 
258.93 -681.31 2.87 
258.53 -681.39 2.77 
252.15 -681.64 2.57 
251.72 -681.34 2.56 
251.24 -681.32 2.56 
247.73 -681.40 2.77 
247.44 -681.50 2.77 
247.01 -681.52 2.77 
246.69 -681.38 2.76 
256.23 -681.69 2.64 
251.99 -681.72 2.57 
251.82 -681.69 2.57 
247.73 -690.39 2.99 
247.55 -690.48 2.99 
257.84 -690.60 3.02 
254.77 -690.64 3.23 
253.93 -690.73 2.95 
251.02 -690.75 3.09 
250.53 -690.71 3.27 
250.36 -690.69 3.26 
247.36 -690.61 3.15 
247.29 -690.72 3.32 
246.66 -690.62 3.21 
243.33 -690.75 3.21 
257.68 -690.97 3.02 
254.80 -691.04 3.24 
253.96 -690.99 2.95 
251.33 -690.92 3.10 
251.00 -691.04 3.09 
250.51 -691.25 3.26 
250.38 -691.27 3.26 
247.45 -690.96 3.32 
243.36 -691.02 3.20 
242.65 -691.15 3.21 
257.79 -691.47 3.04 
257.70 -691.53 3.04 
255.31 -691.59 3.26 
254.99 -691.48 3.25 
254.75 -691.43 3.24 
254.17 -691.47 3.36 
251.93 -691.57 3.30 
251.10 -691.54 3.10 
250.55 -691.53 3.26 
248.83 -691.69 3.02 
248.19 -691.54 3.22 
248.07 -691.67 3.22 
246.69 -691.51 3.20 
244.32 -691.47 3.20 
244.03 -691.69 3.19 
243.17 -691.68 3.20 
242.82 -691.57 3.20 
258.19 -691.90 3.06 
257.98 -691.73 3.05 
255.93 -691.87 3.29 
254.95 -691.93 3.25 
254.67 -691.81 3.31 
252.53 -691.84 3.15 
252.26 -691.91 3.14 
251.88 -691.81 3.21 
251.50 -691.86 3.20 
251.16 -691.77 3.19 
248.64 -691.86 3.01 
248.18 -691.90 3.32 
247.81 -691.88 3.26 
247.45 -691.87 3.21 
247.09 -691.84 3.20 
246.83 -691.77 3.20 
243.19 -691.93 3.19 
258.58 -692.10 3.07 
258.39 -692.00 3.06 
255.85 -692.23 3.29 
255.33 -692.07 3.27 
255.14 -692.10 3.26 
251.79 -692.08 3.12 
253.76 -694.77 3.23 
253.79 -695.12 3.24 
251.01 -680.23 3.13 
244.89 -680.48 3.04 
243.25 -680.40 3.03 
251.26 -680.86 3.13 
251.11 -680.79 3.13 
249.24 -680.83 3.09 
244.50 -680.76 3.03 
243.34 -680.74 3.02 
259.62 -680.92 2.87 
256.86 -681.19 3.28 
252.25 -681.22 3.15 
251.31 -681.19 3.13 
248.94 -681.18 3.08 
247.56 -681.29 3.32 
247.05 -681.23 3.32 
244.64 -681.09 3.03 
243.67 -681.28 3.02 
243.45 -681.22 3.02 
256.53 -681.39 3.27 
251.79 -681.49 3.14 
251.48 -681.38 3.13 
247.30 -681.39 3.32 
247.03 -681.43 3.32 
244.20 -681.44 3.02 
254.13 -690.33 3.36 
250.45 -690.38 3.64 
247.27 -690.33 3.67 
243.32 -690.46 3.53 
258.57 -690.76 3.39 
257.92 -690.63 3.49 
254.96 -690.55 3.69 
254.01 -690.70 3.36 
251.12 -690.64 3.48 
250.43 -690.67 3.63 
247.27 -690.54 3.66 
246.60 -690.52 3.56 
242.64 -690.92 3.54 
258.47 -690.98 3.39 
254.87 -691.08 3.68 
254.19 -691.08 3.36 
254.06 -691.01 3.36 
251.07 -691.14 3.47 
250.51 -691.24 3.62 
250.45 -691.01 3.63 
247.30 -691.11 3.63 
246.63 -691.01 3.54 
244.99 -691.22 3.53 
244.76 -691.07 3.53 
242.72 -691.21 3.53 
258.42 -691.43 3.40 
257.80 -691.41 3.49 
257.59 -691.32 3.36 
254.70 -691.38 3.67 
254.17 -691.31 3.76 
251.12 -691.33 3.47 
250.65 -691.32 3.62 
247.84 -691.53 3.64 
247.70 -691.42 3.64 
246.74 -691.51 3.53 
244.92 -691.37 3.52 
242.99 -691.66 3.51 
242.89 -691.60 3.52 
258.31 -691.82 3.48 
255.07 -691.91 3.69 
254.82 -691.70 3.68 
252.28 -691.91 3.53 
252.01 -691.89 3.51 
251.46 -691.81 3.48 
248.59 -691.81 3.67 
248.44 -691.86 3.66 
243.24 -691.86 3.50 
259.04 -692.21 3.47 
258.63 -692.04 3.52 
255.87 -692.13 3.74 
255.56 -692.10 3.72 
255.29 -692.06 3.70 
259.32 -692.41 3.45 
254.23 -679.84 3.42 
258.62 -680.12 3.34 
258.55 -680.54 3.33 
257.82 -680.54 3.31 
254.17 -680.67 3.41 
249.31 -680.61 3.66 
248.30 -680.87 3.33 
246.50 -680.86 3.32 
246.26 -680.75 3.32 
244.86 -680.65 3.58 
244.45 -680.92 3.56 
244.00 -680.92 3.56 
243.65 -680.92 3.55 
243.51 -680.73 3.56 
259.59 -680.95 3.54 
258.67 -680.87 3.34 
258.12 -681.13 3.50 
254.41 -680.93 3.42 
254.31 -680.89 3.41 
252.05 -680.97 3.37 
249.05 -680.88 3.65 
248.09 -681.14 3.33 
247.75 -681.22 3.32 
244.59 -681.14 3.56 
244.21 -681.14 3.55 
243.87 -681.16 3.55 
258.89 -681.21 3.43 
247.89 -681.31 3.32 
254.21 -690.32 3.78 
247.41 -690.27 4.02 
254.87 -690.69 4.13 
254.19 -690.47 3.78 
254.08 -690.81 3.77 
251.20 -690.61 3.88 
243.43 -690.74 4.12 
258.68 -690.91 3.92 
258.17 -690.93 3.97 
257.09 -691.00 3.91 
254.80 -691.03 4.12 
254.27 -690.98 3.77 
254.09 -691.00 3.76 
251.13 -690.99 3.86 
248.96 -691.21 4.06 
248.82 -690.97 4.07 
246.68 -691.11 3.87 
259.20 -691.43 4.02 
258.71 -691.36 3.92 
258.17 -691.33 3.96 
257.72 -691.31 3.86 
257.60 -691.23 3.85 
255.71 -691.57 3.83 
254.86 -691.39 4.12 
254.20 -691.28 3.76 
251.60 -691.46 3.88 
251.22 -691.40 3.85 
248.99 -691.41 4.05 
248.70 -691.48 4.03 
248.35 -691.64 4.00 
247.48 -691.37 3.96 
258.62 -691.78 3.94 
255.52 -691.78 4.05 
255.14 -691.74 4.05 
252.51 -691.68 3.93 
252.27 -691.76 3.91 
251.72 -691.85 3.87 
251.60 -691.79 3.87 
248.25 -691.79 3.98 
259.55 -692.27 3.98 
259.13 -692.17 3.95 
258.81 -692.02 3.93 
255.81 -691.98 4.18 
255.37 -691.98 4.15 
254.26 -680.31 4.05 
251.23 -680.31 3.73 
257.89 -680.40 3.99 
254.35 -680.57 4.04 
251.42 -680.73 3.72 
246.59 -680.88 3.89 
254.49 -680.86 4.04 
251.70 -681.13 3.72 
251.55 -681.06 3.72 
248.21 -680.98 3.90 
246.92 -681.10 3.89 
246.74 -681.08 3.89 
252.09 -681.33 3.73 
251.84 -681.25 3.72 
247.81 -681.29 3.89 
247.39 -681.37 3.88 
247.06 -681.31 3.88 
254.91 -690.51 4.14 
251.43 -690.71 4.28 
247.36 -690.68 4.33 
257.15 -690.91 4.37 
255.12 -690.83 4.15 
251.42 -690.97 4.26 
248.13 -691.09 4.36 
248.03 -691.07 4.35 
247.48 -691.09 4.31 
246.54 -690.89 4.22 
257.67 -691.16 4.35 
252.22 -691.56 4.31 
251.91 -691.55 4.28 
251.57 -691.43 4.26 
248.89 -691.38 4.39 
248.31 -691.58 4.33 
247.88 -691.52 4.42 
247.65 -691.38 4.30 
246.95 -691.34 4.52 
243.20 -691.55 4.47 
255.98 -691.88 4.20 
252.01 -691.68 4.28 
248.34 -680.74 4.49 
246.97 -680.85 4.47 
246.64 -680.52 4.48 
248.15 -680.88 4.48 
247.77 -681.06 4.46 
247.36 -681.00 4.46 
247.05 -680.97 4.46 
248.24 -691.17 4.70 
257.97 -680.29 4.67 
257.40 -690.80 5.31 
258.05 -680.16 5.36 
257.97 -690.82 5.90 
254.26 -691.48 2.11 
243.27 -681.18 1.92 
258.42 -681.36 1.96 
244.40 -681.53 1.93 
244.03 -681.59 1.93 
243.63 -681.53 1.93 
255.15 -690.65 2.30 
254.69 -690.81 2.31 
250.88 -690.88 2.29 
250.55 -690.89 2.30 
246.93 -690.78 2.48 
243.28 -690.98 2.27 
243.00 -690.95 2.49 
254.64 -691.02 2.31 
250.92 -691.10 2.30 
250.55 -691.09 2.31 
247.21 -691.31 2.29 
246.99 -691.07 2.32 
243.08 -691.35 2.51 
257.36 -691.49 2.35 
255.24 -691.47 2.34 
254.45 -691.52 2.33 
252.13 -691.56 2.33 
251.78 -691.33 2.51 
250.91 -691.53 2.31 
248.41 -691.59 2.34 
247.71 -691.64 2.30 
244.55 -691.55 2.51 
243.71 -691.76 2.41 
243.47 -691.64 2.29 
254.53 -691.88 2.35 
252.45 -691.81 2.33 
251.34 -691.90 2.34 
251.06 -691.87 2.33 
248.44 -691.96 2.32 
247.28 -691.85 2.36 
244.01 -691.91 2.41 
243.71 -691.87 2.41 
258.26 -692.18 2.38 
255.40 -692.41 2.37 
254.99 -692.30 2.37 
254.70 -692.17 2.36 
251.95 -692.11 2.34 
251.76 -692.15 2.34 
253.50 -694.77 2.65 
253.46 -694.96 2.48 
254.18 -680.23 2.11 
254.29 -680.79 2.13 
254.69 -681.26 2.15 
246.85 -681.24 2.14 
244.11 -681.36 2.45 
243.49 -681.24 2.45 
243.34 -681.20 2.44 
255.45 -681.46 2.16 
255.14 -681.44 2.16 
254.82 -681.32 2.15 
247.24 -681.47 2.15 
246.93 -681.36 2.15 
244.42 -681.40 2.45 
243.93 -681.43 2.45 
243.73 -681.42 2.45 
253.75 -685.89 2.64 
253.78 -686.10 2.65 
254.30 -690.57 2.49 
254.23 -690.78 2.50 
250.85 -690.84 2.69 
250.64 -690.72 2.87 
247.24 -690.89 2.62 
246.99 -690.78 2.83 
258.39 -691.09 2.87 
257.16 -691.09 2.53 
254.43 -691.03 2.64 
254.20 -691.04 2.51 
251.17 -690.99 2.70 
250.91 -691.02 2.69 
250.58 -691.05 2.87 
247.08 -690.98 2.83 
244.74 -691.28 2.83 
243.92 -691.36 2.58 
243.24 -691.06 2.72 
242.92 -691.26 2.83 
258.08 -691.46 2.71 
257.38 -691.46 2.86 
254.72 -691.64 2.79 
254.47 -691.56 2.66 
251.15 -691.69 2.71 
250.92 -691.52 2.79 
248.72 -691.71 2.66 
248.52 -691.52 2.85 
244.76 -691.66 2.75 
244.62 -691.59 2.86 
243.45 -691.69 2.78 
243.01 -691.42 2.83 
258.33 -691.82 2.73 
258.21 -691.86 2.73 
255.62 -692.03 2.55 
255.43 -692.03 2.55 
254.81 -691.87 2.67 
254.57 -691.83 2.54 
252.42 -691.84 2.74 
252.19 -691.96 2.74 
251.65 -691.78 2.90 
251.25 -691.84 2.81 
248.51 -691.87 2.66 
248.13 -692.00 2.76 
247.90 -692.01 2.86 
247.38 -691.75 2.64 
244.47 -691.83 2.73 
244.14 -691.94 2.80 
243.72 -691.91 2.78 
259.33 -692.18 2.58 
258.83 -692.20 2.58 
258.48 -692.11 2.57 
258.31 -692.05 2.90 
255.92 -692.17 2.84 
255.63 -692.34 2.84 
255.29 -692.33 2.83 
254.99 -692.14 2.68 
251.70 -692.14 2.73 
248.05 -692.17 2.66 
247.80 -692.17 2.65 
259.26 -692.61 2.94 
259.03 -692.57 2.93 
253.56 -694.82 3.00 
253.51 -694.67 3.00 
253.58 -695.05 2.93 
253.62 -695.39 2.87 
250.93 -680.38 2.50 
254.44 -680.48 2.76 
250.95 -680.77 2.50 
248.71 -680.80 2.71 
258.39 -680.91 2.63 
254.73 -681.21 2.77 
251.19 -681.22 2.51 
250.96 -681.10 2.51 
246.87 -681.25 2.71 
242.84 -681.22 2.71 
258.78 -681.53 2.65 
258.54 -681.33 2.64 
255.46 -681.40 2.78 
255.16 -681.37 2.78 
254.89 -681.30 2.77 
252.43 -681.56 2.54 
252.09 -681.62 2.53 
251.61 -681.50 2.52 
247.02 -681.41 2.71 
247.01 -681.35 2.71 
243.16 -681.49 2.71 
259.24 -681.79 2.67 
258.94 -681.66 2.66 
251.79 -681.75 2.53 
253.44 -685.42 2.82 
254.80 -690.60 3.24 
254.31 -690.59 2.93 
254.28 -690.81 2.93 
251.33 -690.57 3.10 
250.84 -690.68 3.17 
247.33 -690.65 2.97 
247.03 -690.63 3.18 
243.20 -690.80 3.18 
258.20 -691.09 3.02 
257.21 -691.03 3.00 
254.44 -691.00 3.08 
250.91 -691.13 3.17 
250.67 -691.10 3.25 
247.24 -691.05 3.31 
246.98 -691.13 3.18 
243.28 -691.10 3.18 
243.01 -691.17 3.15 
254.77 -691.42 3.25 
254.60 -691.37 3.24 
251.20 -691.37 3.10 
251.00 -691.43 3.18 
248.50 -691.49 3.20 
247.29 -691.53 3.10 
247.07 -691.57 3.17 
244.87 -691.45 3.21 
243.56 -691.74 3.14 
243.31 -691.47 3.17 
243.10 -691.60 3.14 
258.47 -691.92 3.05 
255.43 -692.02 2.98 
254.84 -691.94 3.11 
254.66 -691.74 3.10 
252.12 -691.85 3.22 
251.59 -691.94 3.20 
251.35 -691.82 3.19 
248.76 -691.79 3.01 
248.53 -691.88 3.01 
248.02 -692.04 3.16 
247.77 -691.88 3.18 
247.46 -691.78 2.97 
243.89 -691.86 3.17 
259.23 -692.15 3.07 
258.90 -692.14 3.06 
258.64 -692.06 3.05 
255.94 -692.29 3.31 
255.64 -692.25 3.30 
255.23 -692.21 3.28 
254.94 -692.06 3.26 
251.73 -692.09 3.13 
248.06 -692.15 2.99 
253.66 -694.89 3.25 
251.13 -680.04 3.10 
251.09 -680.84 3.10 
251.01 -680.60 3.10 
244.77 -680.79 2.99 
252.72 -681.10 3.14 
252.50 -681.25 3.13 
251.26 -681.03 3.10 
244.66 -681.10 2.98 
244.45 -681.29 2.98 
243.56 -681.30 2.97 
243.29 -681.11 2.97 
242.84 -681.06 3.26 
252.14 -681.37 3.12 
251.67 -681.50 3.11 
251.32 -681.35 3.10 
