# .PCD v0.7 - Point Cloud Data file format
VERSION 0.7
FIELDS x y z
SIZE 4 4 4
TYPE F F F
COUNT 1 1 1
WIDTH 2504
HEIGHT 1
VIEWPOINT 0 0 0 1 0 0 0
POINTS 2504
DATA ascii
258.07 30.44 1.16 
263.74 30.66 1.02 
263.75 30.93 0.87 
263.81 31.23 1.06 
260.13 43.16 1.79 
259.38 43.52 2.16 
259.59 43.32 2.14 
260.06 43.46 2.08 
260.39 43.50 2.18 
266.12 43.18 1.87 
266.39 43.45 1.90 
252.39 43.87 2.31 
252.84 43.96 2.21 
253.30 43.94 2.12 
253.47 43.84 2.11 
258.97 43.88 2.04 
259.24 43.76 2.03 
259.55 43.63 2.15 
260.31 43.67 2.03 
266.02 43.83 1.94 
266.38 43.68 1.93 
245.82 44.53 2.55 
246.22 44.53 2.54 
251.84 44.35 2.53 
251.90 44.21 2.51 
252.78 44.13 2.31 
253.18 44.22 2.18 
254.00 44.17 2.16 
258.88 44.30 2.09 
259.24 44.13 2.08 
260.39 44.03 1.90 
266.11 44.22 1.98 
246.08 44.75 2.58 
246.29 44.56 2.54 
252.10 44.67 2.40 
253.14 44.58 2.28 
253.61 44.79 2.23 
253.91 44.64 2.21 
258.64 44.50 2.12 
258.84 44.51 2.17 
266.05 44.60 2.02 
266.29 44.44 2.01 
245.94 45.02 2.63 
246.56 45.02 2.60 
246.77 45.00 2.59 
246.64 20.42 1.08 
249.88 20.34 0.91 
250.28 20.35 0.89 
250.92 20.37 0.87 
245.97 20.82 1.09 
246.14 20.85 1.08 
246.59 20.66 1.06 
247.83 20.88 0.98 
248.13 20.80 0.97 
249.67 20.68 0.90 
246.83 21.20 1.03 
247.21 21.32 1.00 
247.49 21.13 1.09 
247.82 21.06 1.26 
247.93 21.80 1.03 
256.56 25.26 1.04 
256.71 25.42 1.04 
255.91 25.81 1.08 
256.36 25.92 1.13 
256.48 26.00 1.02 
257.14 25.90 1.30 
257.49 25.86 1.32 
255.54 26.38 1.17 
256.31 26.10 1.01 
256.87 26.09 1.04 
257.54 26.23 1.07 
255.92 26.60 1.40 
256.14 26.84 1.20 
257.39 26.56 1.06 
258.06 26.74 1.10 
259.28 26.46 1.19 
259.86 26.69 0.95 
264.85 26.54 0.85 
257.18 27.04 1.27 
258.32 26.89 1.12 
258.50 27.21 1.13 
259.72 27.05 0.95 
260.19 27.05 0.98 
256.66 27.52 1.22 
257.79 27.38 1.20 
258.32 27.60 1.24 
264.44 27.36 0.87 
264.69 27.58 0.89 
265.82 27.40 0.93 
256.59 27.82 1.41 
257.65 27.97 1.30 
258.44 27.67 1.37 
258.99 28.04 1.18 
259.98 27.73 1.25 
260.22 27.76 1.00 
264.15 27.76 1.24 
265.16 27.82 0.93 
266.40 27.83 0.98 
256.29 28.37 1.17 
256.78 28.43 1.21 
257.56 28.24 1.50 
258.31 28.34 1.24 
259.66 28.09 1.23 
259.84 28.18 1.24 
264.33 28.37 1.27 
264.87 28.22 0.93 
265.02 28.10 0.93 
265.79 28.13 0.97 
266.13 28.04 0.98 
255.69 28.82 1.28 
257.46 28.47 1.49 
257.79 28.56 1.52 
258.54 28.51 1.38 
259.37 28.78 1.22 
264.42 28.68 1.29 
256.41 29.13 1.36 
257.61 29.29 1.50 
259.24 29.26 1.46 
259.33 29.30 1.23 
257.94 29.85 1.44 
258.40 29.75 1.38 
258.24 30.30 1.38 
263.72 30.54 1.34 
263.76 30.60 1.35 
263.77 31.00 1.37 
259.07 43.56 2.49 
260.06 43.41 2.50 
260.41 43.41 2.52 
252.05 43.84 2.69 
252.44 44.00 2.72 
253.56 43.95 2.72 
258.98 43.88 2.53 
259.26 43.77 2.53 
259.70 43.60 2.52 
252.00 44.30 2.79 
252.28 44.07 2.74 
253.14 44.16 2.76 
253.63 44.35 2.73 
254.05 44.17 2.72 
258.98 44.27 2.60 
259.30 44.06 2.57 
259.48 44.33 2.60 
266.24 44.02 2.42 
266.35 43.93 2.42 
245.27 44.83 2.94 
245.76 44.73 2.93 
246.04 44.75 3.04 
246.29 44.76 2.80 
254.20 44.58 2.50 
258.83 44.55 2.64 
259.47 44.43 2.61 
245.13 44.90 3.12 
259.80 44.90 2.68 
250.97 20.32 1.18 
246.83 20.78 1.34 
247.06 20.61 1.33 
247.36 20.75 1.39 
246.78 20.95 1.33 
248.36 21.05 1.35 
257.47 25.54 1.33 
256.26 25.91 1.46 
257.12 26.41 1.51 
257.97 26.34 1.60 
265.48 26.74 1.28 
257.64 27.05 1.54 
257.43 27.45 1.51 
258.81 27.42 1.66 
259.12 27.50 1.44 
259.87 27.40 1.51 
264.47 27.50 1.25 
265.23 27.32 1.29 
265.99 27.55 1.35 
259.27 28.02 1.45 
265.34 27.66 1.31 
260.04 28.40 1.53 
259.26 28.52 1.70 
264.12 28.74 1.62 
264.52 28.40 1.65 
264.65 28.45 1.66 
265.73 28.74 1.38 
264.13 28.85 1.63 
264.82 28.95 1.33 
258.45 29.23 1.60 
259.19 29.41 1.69 
264.83 29.25 1.53 
265.62 29.24 1.40 
266.42 29.16 1.45 
259.37 43.43 2.81 
252.13 43.70 2.93 
252.52 43.81 3.04 
252.73 43.74 3.07 
253.32 43.91 3.12 
253.59 43.82 3.13 
259.32 43.78 2.87 
259.88 43.89 2.94 
260.10 43.64 2.89 
260.42 43.57 2.92 
252.16 44.31 3.07 
259.32 44.21 2.94 
259.52 44.32 2.97 
266.37 44.27 2.46 
259.27 44.49 2.99 
266.37 44.47 2.48 
245.61 45.05 3.49 
246.11 44.97 3.33 
265.66 25.58 1.66 
265.98 26.21 1.70 
264.24 26.52 1.57 
265.46 26.53 1.67 
265.01 26.78 1.64 
265.44 26.96 1.68 
265.92 27.42 1.73 
264.81 27.95 1.66 
265.22 27.90 1.69 
265.88 27.81 1.74 
265.72 28.45 1.75 
265.86 28.55 1.77 
265.95 29.05 1.80 
266.05 29.22 1.82 
265.60 29.54 1.79 
253.42 44.02 3.28 
259.70 43.98 3.27 
265.51 25.86 2.06 
264.91 27.39 2.03 
265.47 27.29 2.08 
266.34 28.10 2.20 
265.48 28.87 2.13 
246.14 20.40 -0.41 
246.93 20.35 -0.44 
247.18 20.35 -0.45 
247.67 20.37 -0.46 
249.10 20.45 -0.51 
249.73 20.43 -0.53 
250.73 20.46 -0.56 
265.78 20.31 -1.20 
245.79 20.93 -0.35 
246.08 20.80 -0.37 
246.90 20.85 -0.40 
247.81 20.92 -0.56 
248.05 20.89 -0.57 
249.85 20.70 -0.51 
250.48 20.75 -0.53 
265.78 20.65 -1.17 
245.80 21.08 -0.34 
246.11 21.08 -0.35 
246.66 21.36 -0.34 
246.82 21.31 -0.35 
247.50 21.08 -0.40 
247.58 21.12 -0.40 
250.05 21.12 -0.48 
266.03 20.91 -1.16 
259.54 43.81 0.90 
260.03 43.89 0.89 
258.54 44.42 0.99 
252.52 44.66 1.25 
252.62 44.59 1.24 
245.97 45.01 1.51 
256.05 45.28 1.15 
256.49 45.22 1.13 
256.85 45.22 1.11 
257.21 45.17 1.09 
246.28 20.35 0.13 
246.49 20.38 0.12 
247.05 20.45 -0.01 
247.77 20.48 -0.15 
248.10 20.37 -0.21 
248.84 20.44 0.04 
250.32 20.53 -0.24 
246.53 20.77 0.00 
246.83 20.81 -0.09 
247.50 20.66 -0.13 
247.68 20.86 -0.12 
248.29 20.84 -0.08 
248.39 20.87 0.09 
265.79 20.60 -0.72 
246.69 21.13 -0.06 
247.05 21.12 -0.08 
247.27 21.31 -0.11 
247.70 21.22 0.13 
248.24 21.17 0.11 
248.44 21.04 0.09 
249.73 21.12 -0.18 
249.97 21.12 -0.19 
265.68 20.87 -0.70 
246.59 21.72 -0.02 
247.45 21.52 0.05 
247.65 21.54 0.04 
246.64 21.84 -0.01 
257.67 27.57 -0.02 
257.76 27.82 0.00 
257.95 28.18 0.22 
258.06 28.32 0.23 
252.66 44.47 1.76 
259.94 44.15 1.47 
245.73 44.80 1.85 
246.08 44.79 1.96 
246.29 44.66 1.94 
252.59 44.55 1.64 
252.68 44.70 1.62 
253.06 44.53 1.44 
244.98 45.28 2.04 
245.24 45.23 2.03 
245.58 45.10 2.00 
245.93 44.99 1.86 
246.43 45.16 1.98 
252.65 44.89 1.74 
245.80 20.53 0.26 
245.97 20.48 0.24 
246.62 20.57 0.22 
247.23 20.32 0.33 
250.05 20.43 0.21 
250.55 20.38 0.19 
251.22 20.49 0.02 
245.96 20.98 0.27 
246.73 20.60 0.21 
246.91 20.79 0.34 
247.43 20.76 0.32 
247.60 20.96 0.19 
248.01 20.76 0.16 
248.73 20.71 0.40 
249.74 20.76 0.38 
250.05 20.89 0.37 
250.95 20.57 0.03 
265.67 20.68 -0.26 
266.00 20.75 -0.26 
245.78 21.11 0.44 
246.00 21.23 0.58 
247.24 21.12 0.21 
247.75 21.24 0.34 
248.59 21.14 0.42 
248.78 21.17 0.42 
246.25 21.49 0.57 
246.59 21.52 0.55 
246.92 21.66 0.39 
247.41 21.61 0.37 
247.70 21.56 0.48 
248.27 21.71 0.46 
248.46 21.71 0.45 
246.67 21.87 0.27 
248.36 21.77 0.46 
248.44 21.81 0.45 
256.11 26.08 0.54 
257.45 26.71 0.57 
257.81 27.56 0.50 
257.51 27.91 0.60 
257.88 27.91 0.51 
258.30 27.98 0.62 
258.15 28.39 0.43 
258.14 28.64 0.54 
263.72 30.93 0.67 
260.12 43.19 1.78 
258.80 43.60 1.83 
259.20 43.53 1.82 
259.73 43.40 1.79 
260.06 43.43 1.77 
260.77 43.53 1.76 
253.34 43.97 1.88 
253.73 44.01 1.88 
258.70 43.77 1.85 
259.08 43.72 1.82 
245.75 44.23 2.25 
246.00 44.34 2.25 
252.66 44.38 2.02 
253.32 44.28 1.95 
253.60 44.25 1.94 
253.94 44.18 1.90 
258.81 44.24 1.91 
259.45 44.20 1.58 
245.39 44.58 2.19 
245.55 44.66 2.31 
246.01 44.78 2.30 
246.33 44.76 2.40 
252.41 44.62 2.06 
252.86 44.67 2.01 
253.22 44.52 1.98 
253.62 44.84 1.97 
253.96 44.56 1.94 
258.62 44.42 1.93 
258.73 44.45 1.94 
259.37 44.47 1.86 
245.29 44.99 2.48 
246.04 45.06 2.22 
246.38 45.08 2.33 
252.53 44.96 2.05 
252.66 44.88 2.00 
259.72 44.88 1.65 
252.78 45.29 2.04 
245.40 20.41 0.93 
245.80 20.54 0.90 
247.78 20.39 0.77 
249.61 20.50 0.68 
245.70 20.63 0.91 
246.31 20.75 0.86 
246.41 20.75 0.86 
247.92 20.64 0.77 
248.62 20.88 0.74 
249.43 20.77 0.69 
250.30 20.61 0.65 
250.56 20.66 0.64 
265.66 20.66 0.18 
246.22 21.08 0.87 
246.65 21.08 0.83 
246.96 21.20 0.80 
247.49 21.11 0.79 
248.02 21.20 0.77 
248.49 21.15 0.75 
249.75 21.23 0.67 
247.11 21.43 0.80 
247.37 21.59 0.80 
247.61 21.46 0.78 
248.15 21.43 0.77 
248.76 21.59 0.75 
247.31 21.81 0.80 
256.79 25.10 0.77 
256.72 25.32 0.77 
256.81 25.30 0.77 
255.85 25.78 0.95 
256.68 26.03 0.97 
256.68 26.08 0.97 
258.73 26.44 0.59 
259.67 26.33 0.62 
256.65 26.64 0.82 
257.60 26.81 1.00 
259.55 26.69 0.87 
259.77 26.50 0.75 
254.98 27.05 0.96 
256.64 27.06 0.95 
257.59 26.83 1.00 
258.21 27.17 1.03 
258.88 26.84 0.84 
259.72 27.12 0.76 
264.89 26.98 0.46 
256.25 27.50 1.10 
256.64 27.29 0.75 
257.20 27.29 0.78 
257.38 27.47 0.88 
257.75 27.37 0.90 
265.63 27.49 0.50 
266.50 27.39 0.51 
256.02 27.79 1.08 
256.75 27.95 0.94 
257.10 27.97 0.96 
257.62 28.03 0.80 
257.97 28.17 0.92 
259.11 28.14 0.98 
265.79 28.34 0.55 
257.00 28.57 1.13 
258.31 28.70 0.84 
263.68 28.44 0.83 
266.21 28.62 0.58 
257.02 29.07 1.12 
258.01 29.05 0.84 
258.10 29.15 0.84 
259.75 28.90 0.93 
257.72 29.34 1.01 
258.28 29.31 1.05 
258.36 30.14 1.26 
263.72 30.65 0.95 
263.73 30.99 0.98 
259.46 43.09 2.07 
266.08 43.10 1.82 
259.09 43.49 2.12 
259.49 43.32 2.11 
259.99 43.45 2.12 
260.48 43.56 1.83 
266.38 43.41 1.86 
252.17 43.92 2.23 
252.42 44.02 2.49 
252.72 43.88 2.29 
253.16 43.91 2.29 
253.49 43.83 2.12 
259.00 43.82 2.17 
259.24 43.75 2.16 
259.62 43.74 2.15 
266.08 43.90 1.91 
266.45 43.79 1.90 
245.96 44.24 2.80 
251.83 44.35 2.57 
251.99 44.35 2.56 
252.55 44.23 2.22 
253.21 44.41 2.19 
253.97 44.30 2.31 
258.83 44.15 2.22 
259.31 43.99 2.16 
259.48 43.97 2.16 
259.85 44.01 2.17 
265.91 44.07 1.92 
266.41 44.05 1.93 
245.52 44.67 2.66 
246.13 44.79 2.65 
246.27 44.83 2.65 
252.22 44.46 2.31 
253.80 44.47 2.19 
254.03 44.53 2.34 
258.64 44.43 2.25 
266.09 44.38 1.96 
266.42 44.62 1.99 
245.18 45.02 2.74 
245.80 45.05 2.71 
245.89 44.94 2.69 
246.57 44.94 2.65 
246.88 44.92 2.64 
252.84 45.02 2.27 
266.16 44.76 2.00 
246.24 20.41 1.16 
246.56 20.43 1.15 
248.45 20.50 1.08 
250.14 20.39 0.96 
246.10 20.79 1.19 
246.59 20.77 1.16 
246.83 20.53 1.14 
248.58 20.75 1.07 
249.09 20.73 1.00 
249.22 20.85 0.99 
249.65 20.73 0.97 
246.01 20.93 1.19 
246.96 21.21 1.12 
247.39 21.16 1.20 
247.72 21.13 1.07 
248.09 20.94 1.05 
247.14 21.39 1.10 
247.49 21.30 1.37 
248.29 21.52 1.08 
247.90 21.81 1.09 
248.00 21.84 1.09 
255.68 25.61 1.16 
256.71 25.46 0.99 
257.82 25.48 1.16 
258.36 25.50 1.06 
255.79 25.69 1.16 
256.15 26.02 1.16 
256.81 25.63 1.21 
257.09 25.91 1.22 
258.89 25.84 1.21 
266.13 25.75 0.81 
255.19 26.17 1.11 
255.50 26.27 1.21 
256.13 26.19 1.28 
256.97 26.07 1.20 
257.46 26.10 1.23 
258.05 26.08 1.04 
258.97 26.18 1.09 
266.11 26.02 0.82 
266.45 26.12 0.84 
255.79 26.72 1.11 
256.59 26.70 1.35 
256.85 26.69 1.17 
259.76 26.39 1.14 
264.49 26.43 1.13 
264.94 26.47 0.79 
255.59 27.17 1.25 
257.02 27.11 1.37 
259.01 26.99 1.09 
259.26 27.10 1.34 
264.70 26.91 0.80 
265.14 26.96 0.82 
258.67 27.33 1.29 
259.73 27.28 1.13 
263.99 27.54 1.13 
264.50 27.20 1.15 
265.83 27.32 0.87 
259.42 27.86 1.12 
259.86 27.59 1.39 
264.58 27.84 1.18 
264.99 27.83 0.86 
256.55 28.36 1.27 
258.10 28.30 1.43 
259.09 28.24 1.32 
259.51 28.01 1.12 
260.03 28.14 1.41 
264.61 27.95 1.19 
266.15 28.00 0.91 
259.86 28.67 1.39 
264.69 28.57 1.22 
266.50 28.57 0.96 
258.28 29.15 1.44 
259.80 28.83 1.16 
258.43 29.48 1.26 
266.01 29.39 0.98 
258.55 29.60 1.47 
266.32 29.63 1.01 
263.75 30.59 1.25 
263.76 30.94 1.28 
259.63 43.45 2.44 
260.13 43.39 2.45 
260.52 43.40 2.47 
252.49 43.92 2.73 
259.00 43.61 2.45 
259.24 43.74 2.48 
259.52 43.57 2.46 
260.03 43.55 2.47 
260.26 43.61 2.49 
245.58 44.45 2.86 
252.03 44.30 2.82 
252.35 44.27 2.76 
252.99 44.09 2.76 
253.24 44.25 2.79 
253.47 44.13 2.76 
253.99 44.24 2.70 
259.21 44.13 2.54 
266.35 44.14 2.38 
259.25 44.53 2.59 
259.78 44.68 2.61 
266.29 44.29 2.40 
246.18 45.02 3.17 
246.46 45.09 3.05 
250.17 20.45 1.25 
246.94 20.51 1.45 
247.22 20.72 1.42 
250.19 20.55 1.25 
248.52 21.06 1.40 
256.53 25.40 1.43 
257.17 25.60 1.46 
259.21 25.86 1.36 
258.64 26.17 1.56 
259.45 26.16 1.38 
265.21 26.30 1.17 
258.36 26.52 1.51 
264.18 26.45 1.45 
265.18 26.61 1.17 
266.29 26.67 1.24 
259.07 27.11 1.56 
265.07 26.89 1.35 
266.34 26.83 1.25 
259.03 27.38 1.55 
259.40 27.42 1.59 
264.53 27.29 1.50 
264.86 27.38 1.53 
265.32 27.21 1.20 
266.03 27.16 1.24 
258.42 27.60 1.48 
259.67 27.78 1.61 
265.44 27.72 1.59 
265.74 27.68 1.25 
258.75 28.00 1.51 
258.96 28.16 1.53 
259.28 28.36 1.56 
259.32 28.40 1.56 
263.97 28.47 1.49 
264.26 28.59 1.52 
265.00 28.65 1.58 
265.52 28.41 1.62 
265.76 28.52 1.28 
266.32 28.59 1.32 
264.73 29.05 1.57 
265.95 28.79 1.67 
265.62 29.22 1.66 
260.06 43.41 2.77 
252.43 43.82 3.06 
252.88 43.72 2.94 
253.27 43.81 3.12 
253.52 43.88 3.24 
258.83 43.79 2.79 
259.43 43.69 2.79 
259.98 43.61 2.80 
252.21 44.30 3.09 
252.52 44.16 3.19 
252.82 44.07 3.30 
253.20 44.30 3.07 
253.62 44.00 3.27 
254.05 44.06 2.93 
258.87 44.18 2.86 
259.21 43.98 2.84 
252.10 44.45 3.13 
258.81 44.36 2.89 
265.13 26.06 1.52 
265.32 26.10 1.54 
265.03 26.81 1.89 
265.61 27.16 1.58 
264.41 27.87 1.85 
264.70 27.86 1.88 
265.92 27.65 1.63 
266.13 27.68 1.64 
265.25 28.64 1.96 
265.54 28.78 1.99 
266.04 29.18 2.06 
259.04 44.12 3.18 
259.51 44.05 3.19 
253.16 44.47 3.39 
245.29 45.00 3.72 
245.85 44.98 3.68 
265.52 26.47 1.94 
265.68 27.45 2.34 
246.00 20.41 -0.37 
247.73 20.44 -0.42 
248.21 20.38 -0.45 
248.32 20.36 -0.45 
249.27 20.50 -0.47 
249.76 20.49 -0.49 
245.77 20.93 -0.32 
245.95 20.88 -0.33 
246.84 20.99 -0.35 
247.09 20.95 -0.49 
247.98 20.87 -0.53 
249.67 20.89 -0.45 
250.05 20.88 -0.47 
250.29 20.82 -0.48 
265.77 20.64 -1.14 
245.80 21.13 -0.30 
246.81 21.21 -0.33 
247.30 21.18 -0.47 
247.68 21.11 -0.36 
249.98 21.10 -0.44 
265.96 20.90 -1.12 
266.39 20.89 -1.14 
257.79 27.89 -0.25 
259.63 43.80 0.92 
260.04 43.90 0.91 
260.21 43.91 0.90 
258.60 44.41 1.01 
252.56 44.64 1.26 
252.75 44.60 1.25 
245.50 45.10 1.54 
252.40 45.07 1.30 
253.06 45.14 1.28 
256.04 45.24 1.17 
256.57 45.17 1.14 
256.87 45.18 1.13 
257.22 45.14 1.11 
256.01 45.29 1.17 
256.38 45.27 1.16 
246.25 20.52 0.18 
246.93 20.43 -0.20 
247.21 20.42 -0.03 
247.66 20.60 -0.21 
247.97 20.45 -0.15 
248.73 20.41 -0.06 
249.37 20.42 -0.11 
249.50 20.47 -0.29 
250.25 20.34 -0.21 
245.83 20.65 -0.14 
246.08 20.83 -0.13 
246.32 20.84 -0.14 
246.99 20.79 0.00 
247.23 20.87 0.00 
247.60 20.99 -0.06 
248.12 20.83 0.13 
248.32 20.70 0.11 
249.71 20.81 0.07 
265.74 20.52 -0.71 
246.58 21.10 -0.07 
246.84 21.24 -0.09 
247.34 21.12 0.02 
247.53 21.05 -0.06 
249.43 21.22 -0.12 
249.70 21.14 -0.14 
250.07 21.24 -0.15 
265.73 20.87 -0.69 
266.12 20.79 -0.70 
266.50 20.81 -0.71 
246.54 21.79 0.14 
246.80 21.53 0.12 
246.60 21.95 0.04 
246.87 21.85 0.24 
257.61 27.49 0.00 
257.77 27.81 0.11 
257.95 28.20 0.21 
258.02 28.29 0.22 
245.63 44.48 1.97 
259.37 44.22 1.49 
259.53 44.28 1.27 
244.46 44.95 1.81 
245.25 44.77 1.92 
245.67 44.74 1.88 
245.90 44.76 1.99 
252.49 44.87 1.76 
252.80 44.62 1.67 
244.58 45.25 1.95 
244.73 45.22 2.08 
245.31 45.06 2.04 
245.51 45.07 1.91 
246.00 45.22 2.02 
252.12 45.00 1.78 
252.39 44.95 1.77 
253.21 44.91 1.74 
246.04 20.47 0.42 
246.36 20.46 0.52 
247.00 20.47 0.49 
248.15 20.42 0.50 
248.35 20.44 0.49 
249.62 20.41 0.27 
250.50 20.35 0.38 
250.91 20.54 0.07 
246.11 20.75 0.54 
246.59 20.61 0.52 
246.82 20.99 0.28 
247.13 20.89 0.50 
247.83 20.81 0.47 
247.99 20.95 0.22 
249.81 20.90 0.13 
250.04 20.79 0.26 
251.01 20.62 0.07 
251.11 20.62 0.07 
265.76 20.48 -0.28 
245.80 21.16 0.49 
245.93 21.06 0.45 
246.59 21.19 0.54 
247.00 21.08 0.27 
247.36 21.12 0.50 
247.81 21.27 0.24 
247.95 21.13 0.23 
249.78 21.03 0.43 
249.96 20.98 0.13 
265.79 20.79 -0.26 
266.11 20.75 -0.27 
246.19 21.53 0.64 
246.90 21.64 0.59 
247.71 21.75 0.52 
247.97 21.39 0.49 
246.67 21.95 0.33 
246.97 21.84 0.55 
247.75 21.82 0.52 
256.94 26.64 0.53 
257.27 26.69 0.53 
258.57 26.61 0.45 
259.41 27.16 0.58 
264.58 27.00 0.42 
257.76 27.60 0.55 
259.31 27.23 0.58 
257.86 27.87 0.56 
257.95 28.10 0.74 
257.99 28.42 0.57 
258.15 28.65 0.58 
263.74 30.91 0.62 
258.77 43.51 1.78 
259.21 43.38 1.78 
259.60 43.37 1.76 
260.00 43.42 1.78 
260.30 43.49 1.79 
258.82 43.73 1.81 
259.20 43.63 1.81 
259.94 43.58 1.80 
244.91 44.39 2.23 
245.31 44.36 2.33 
245.53 44.24 2.19 
251.83 44.41 2.20 
252.02 44.09 1.93 
252.52 44.36 1.99 
252.83 44.20 1.92 
253.34 44.35 2.00 
253.59 44.25 1.98 
258.83 44.12 1.85 
259.51 44.21 1.57 
244.53 44.90 2.31 
244.99 44.56 2.25 
245.07 44.76 2.27 
245.64 44.67 2.35 
245.94 44.65 2.21 
252.35 44.74 2.06 
252.94 44.66 2.01 
253.21 44.57 2.04 
258.95 44.51 1.89 
245.40 45.19 2.30 
245.73 45.13 2.27 
252.54 44.91 2.11 
253.33 44.94 1.99 
258.91 44.88 1.89 
259.10 44.98 1.90 
249.23 20.46 0.75 
246.27 20.65 0.94 
247.77 20.79 0.84 
248.14 20.68 0.82 
248.46 20.62 0.79 
249.41 20.62 0.74 
249.50 20.57 0.74 
250.43 20.77 0.69 
265.69 20.60 0.16 
265.98 20.67 0.16 
266.43 20.64 0.16 
245.79 21.12 0.90 
246.01 21.22 0.89 
246.87 21.20 0.90 
247.10 21.13 0.89 
247.81 20.96 0.84 
249.79 21.18 0.73 
250.01 21.17 0.71 
246.27 21.54 0.89 
246.48 21.52 0.88 
246.94 21.56 0.86 
247.29 21.64 0.84 
247.51 21.50 0.83 
248.17 21.58 0.80 
247.31 21.81 0.87 
256.07 25.53 0.91 
256.72 25.25 0.73 
256.76 25.30 0.73 
257.46 25.41 0.74 
256.04 25.86 0.90 
256.57 25.80 0.92 
256.79 25.73 0.72 
255.34 26.29 0.93 
255.79 26.21 0.70 
256.28 26.15 0.90 
256.88 26.26 0.72 
259.72 26.02 0.80 
241.56 26.68 1.56 
255.73 26.67 1.04 
256.05 26.67 0.87 
256.59 26.80 1.07 
256.79 26.78 0.89 
259.72 26.67 0.73 
260.09 26.38 0.82 
264.68 26.81 0.73 
265.08 27.01 0.59 
257.72 27.50 0.73 
259.75 27.20 0.81 
265.19 27.24 0.44 
265.61 27.45 0.45 
266.41 27.40 0.46 
256.59 27.85 0.96 
258.96 27.94 0.99 
265.78 27.60 0.64 
258.88 28.08 0.98 
263.73 28.42 0.77 
265.83 28.45 0.51 
266.17 28.59 0.53 
258.00 28.86 0.92 
259.79 28.88 0.84 
258.35 29.34 1.12 
258.13 30.24 1.10 
263.73 30.63 0.88 
263.73 30.89 0.90 
263.77 31.20 0.92 
258.90 43.49 2.06 
259.17 43.48 2.08 
259.57 43.46 2.08 
252.54 43.92 2.40 
252.77 43.93 2.31 
253.15 43.79 2.31 
258.96 43.56 2.07 
259.32 43.61 2.10 
259.71 43.55 2.10 
260.13 43.59 2.11 
260.44 43.59 2.11 
266.09 43.73 1.84 
266.39 43.72 1.85 
245.05 44.43 2.71 
245.42 44.47 2.69 
251.83 44.25 2.57 
252.00 44.32 2.58 
252.89 44.33 2.55 
253.19 44.17 2.25 
258.90 44.15 2.17 
259.19 44.08 2.17 
266.15 44.05 1.88 
266.33 44.05 1.88 
244.57 44.75 2.54 
245.00 44.77 2.64 
245.78 44.76 2.71 
246.11 44.71 2.69 
253.34 44.65 2.21 
258.81 44.42 2.22 
265.79 44.33 1.91 
266.07 44.31 1.91 
244.92 45.18 2.58 
245.33 44.94 2.77 
245.68 45.04 2.51 
246.01 45.12 2.63 
246.33 45.28 2.51 
252.13 44.87 2.25 
259.13 44.85 2.22 
266.38 44.90 1.98 
245.72 20.48 1.24 
246.25 20.34 1.28 
249.71 20.38 1.03 
249.96 20.35 1.02 
250.48 20.34 0.99 
245.80 20.64 1.24 
246.06 20.71 1.24 
246.46 20.77 1.25 
247.46 20.79 1.16 
247.65 20.80 1.15 
248.49 20.62 1.11 
248.84 20.61 1.10 
249.21 20.76 1.05 
250.15 20.55 1.00 
246.98 21.11 1.19 
247.21 21.23 1.16 
247.95 21.13 1.13 
247.68 21.34 1.14 
249.90 21.34 1.06 
247.42 21.87 1.15 
255.70 25.46 1.11 
256.68 25.29 1.15 
258.32 25.50 1.10 
258.54 25.51 1.23 
242.87 26.10 1.69 
255.82 25.73 1.10 
257.07 25.98 1.13 
257.46 25.82 1.37 
257.71 25.76 1.17 
266.12 25.78 0.75 
242.32 26.45 1.97 
242.59 26.25 1.67 
256.27 26.07 1.16 
256.69 26.23 1.10 
257.15 26.08 1.13 
257.71 26.23 1.15 
258.00 25.97 1.18 
258.44 26.03 1.20 
259.48 26.05 1.03 
259.68 26.25 1.04 
264.59 26.10 1.04 
265.12 26.22 1.07 
265.73 26.12 1.10 
266.08 25.94 0.75 
266.39 26.00 0.76 
256.04 26.76 1.22 
256.43 26.73 1.24 
257.76 26.46 1.35 
258.06 26.57 1.37 
259.15 26.52 1.01 
259.69 26.45 1.04 
265.01 26.57 1.07 
265.19 26.57 1.08 
257.27 26.80 1.10 
257.73 26.78 1.13 
259.47 26.93 1.19 
259.85 26.97 1.05 
260.21 27.01 1.07 
264.97 26.93 1.08 
265.31 26.76 1.09 
256.75 27.37 1.22 
257.13 27.56 1.24 
257.74 27.33 1.21 
258.26 27.49 1.34 
259.86 27.31 1.27 
260.21 27.35 1.07 
265.51 27.23 1.12 
257.50 27.76 1.26 
259.01 27.70 1.19 
259.58 27.87 1.24 
259.65 27.83 1.25 
260.25 27.74 1.07 
264.09 27.55 1.05 
265.07 27.58 1.11 
265.57 27.53 1.13 
266.18 27.85 0.84 
260.21 28.15 1.18 
264.75 27.96 1.10 
265.07 28.05 1.12 
266.32 27.99 1.02 
266.43 28.17 1.04 
259.06 28.53 1.19 
259.61 28.39 1.24 
260.00 28.46 1.38 
264.70 28.40 1.11 
266.38 28.56 0.88 
266.47 28.31 1.04 
258.79 28.78 1.35 
259.53 28.91 1.43 
259.75 28.99 1.45 
258.49 30.10 1.30 
263.75 30.61 1.15 
263.76 30.84 1.17 
263.82 31.17 1.19 
266.41 43.36 2.18 
245.51 44.03 2.85 
252.19 43.85 2.74 
259.24 43.66 2.41 
259.66 43.66 2.42 
260.20 43.86 2.46 
260.54 43.85 2.47 
266.19 43.74 2.26 
244.85 44.30 3.19 
251.79 44.37 2.66 
251.98 44.37 2.86 
252.59 44.09 2.78 
258.88 44.21 2.49 
259.25 44.03 2.47 
260.48 43.90 2.48 
266.16 44.01 2.26 
266.32 44.08 2.30 
244.75 44.86 3.31 
245.09 44.77 3.26 
245.64 44.50 2.92 
251.68 44.52 2.69 
258.87 44.51 2.52 
266.09 44.58 2.26 
244.88 44.98 3.06 
266.13 44.75 2.28 
246.14 20.79 1.56 
246.54 20.60 1.54 
247.60 21.15 1.47 
247.23 21.50 1.48 
258.10 25.49 1.43 
265.39 26.35 1.43 
265.33 26.73 1.43 
259.43 27.26 1.46 
265.01 27.43 1.42 
266.27 27.07 1.52 
264.12 27.52 1.36 
265.47 27.66 1.47 
265.99 27.54 1.51 
264.33 28.04 1.39 
265.14 28.11 1.45 
265.86 28.15 1.51 
266.48 28.15 1.57 
264.54 28.42 1.72 
265.90 28.56 1.53 
265.58 28.78 1.51 
265.71 28.94 1.53 
266.32 28.85 1.58 
266.46 29.11 1.60 
259.77 43.37 2.68 
252.25 43.66 3.21 
252.47 43.87 3.06 
252.90 43.79 3.03 
253.29 43.76 2.95 
253.51 43.89 3.24 
258.92 43.83 2.73 
259.43 43.72 2.88 
259.80 43.67 2.73 
259.96 43.50 2.71 
252.20 44.30 3.10 
253.02 44.07 3.02 
253.37 43.98 3.13 
253.81 44.11 3.02 
253.95 44.14 3.02 
258.85 44.08 2.77 
259.25 44.13 2.90 
252.22 44.42 3.13 
252.45 44.54 3.17 
253.77 44.47 3.10 
258.79 44.40 2.83 
266.21 44.40 2.71 
266.42 44.29 2.73 
253.28 44.78 3.25 
266.30 44.64 2.74 
264.94 25.73 1.74 
264.59 26.19 1.70 
264.85 25.93 1.73 
242.37 26.74 2.47 
264.69 26.45 1.72 
264.91 26.35 1.74 
265.44 26.53 1.79 
266.42 26.31 1.51 
265.83 27.37 1.84 
264.65 27.70 1.88 
266.34 27.49 1.89 
265.22 28.26 1.79 
265.48 28.47 1.83 
265.11 29.18 1.81 
246.18 45.31 3.81 
265.77 26.32 2.18 
245.91 20.62 -0.32 
247.07 20.55 -0.36 
248.11 20.38 -0.40 
248.33 20.40 -0.41 
249.14 20.42 -0.43 
245.89 20.88 -0.29 
246.91 20.78 -0.33 
247.01 20.64 -0.35 
247.59 20.95 -0.34 
249.61 20.87 -0.41 
249.93 20.86 -0.49 
250.32 20.91 -0.43 
250.64 20.72 -0.46 
265.72 20.60 -1.07 
245.95 21.17 -0.27 
246.52 21.36 -0.27 
246.78 21.25 -0.29 
247.52 21.18 -0.32 
249.92 21.23 -0.39 
250.22 20.98 -0.42 
265.96 20.88 -1.06 
266.35 20.85 -1.08 
246.70 21.50 -0.26 
257.83 27.89 -0.18 
259.70 43.95 0.99 
259.86 43.89 0.98 
259.55 44.02 1.00 
260.09 44.03 0.98 
260.33 44.14 0.98 
252.56 44.63 1.31 
252.61 44.60 1.31 
258.72 44.55 1.07 
245.53 45.13 1.57 
258.73 44.83 1.09 
256.80 45.29 1.20 
257.17 45.30 1.18 
247.62 20.37 -0.19 
247.91 20.34 -0.07 
248.83 20.42 -0.02 
249.24 20.35 -0.24 
245.98 20.82 -0.09 
246.34 20.78 0.07 
246.94 20.91 0.22 
247.24 20.88 -0.07 
247.84 20.85 0.07 
248.73 20.62 0.14 
265.74 20.43 -0.67 
246.87 21.26 -0.02 
247.16 21.17 -0.10 
247.68 21.03 -0.02 
247.83 21.14 -0.02 
249.64 21.17 0.03 
249.94 21.11 0.12 
265.72 20.87 -0.64 
265.96 20.82 -0.65 
266.37 20.78 -0.66 
246.76 21.60 0.17 
247.53 21.61 0.14 
246.56 22.00 0.09 
246.87 21.88 0.29 
247.20 21.82 0.16 
243.43 26.68 0.75 
257.62 27.46 0.04 
257.74 27.79 0.17 
263.69 30.92 0.25 
245.57 44.47 2.02 
253.35 44.34 1.73 
259.39 44.24 1.54 
259.52 44.27 1.30 
245.30 44.78 1.94 
245.72 44.59 2.03 
245.90 44.80 2.04 
252.57 44.59 1.54 
252.73 44.62 1.67 
253.12 44.62 1.76 
244.53 45.22 2.00 
244.84 45.11 1.98 
245.29 45.09 1.96 
245.69 45.01 1.94 
245.98 45.22 2.07 
252.51 44.99 1.81 
253.06 44.84 1.78 
246.13 20.46 0.58 
246.97 20.45 0.54 
247.68 20.39 0.51 
248.19 20.47 0.56 
248.75 20.37 0.34 
250.07 20.37 0.46 
251.29 20.45 0.10 
246.14 20.94 0.60 
246.45 20.89 0.47 
247.11 20.89 0.43 
247.63 20.76 0.42 
247.98 20.87 0.27 
248.31 20.73 0.41 
249.68 20.74 0.18 
250.10 20.67 0.31 
250.35 20.57 0.45 
250.91 20.64 0.13 
265.71 20.43 -0.25 
245.97 21.06 0.61 
246.50 21.14 0.63 
246.69 21.15 0.35 
247.20 21.12 0.44 
247.53 21.21 0.43 
248.12 21.07 0.40 
248.26 20.96 0.51 
249.73 21.08 0.49 
249.91 21.08 0.33 
266.02 20.73 -0.24 
266.39 20.73 -0.24 
246.94 21.73 0.59 
247.19 21.66 0.65 
247.73 21.52 0.62 
247.94 21.37 0.30 
246.87 21.84 0.60 
247.16 21.85 0.62 
255.85 25.98 0.70 
256.21 26.24 0.52 
256.85 26.70 0.52 
257.20 26.69 0.53 
258.86 26.60 0.45 
259.11 27.13 0.56 
264.99 26.95 0.42 
257.56 27.52 0.54 
259.30 27.17 0.56 
265.65 27.45 0.45 
257.79 27.77 0.54 
258.22 27.90 0.55 
258.38 27.96 0.72 
265.69 27.53 0.46 
258.42 27.99 0.72 
241.55 29.03 1.47 
263.73 30.90 0.61 
259.18 43.36 1.79 
259.65 43.43 1.79 
260.05 43.45 1.78 
260.30 43.46 1.80 
258.82 43.78 1.84 
259.13 43.56 1.82 
259.61 43.63 1.83 
260.00 43.54 1.82 
260.38 43.57 1.82 
245.25 44.46 2.28 
245.50 44.28 2.25 
252.18 44.17 1.97 
252.67 44.24 1.97 
253.51 44.27 2.04 
258.82 44.06 1.87 
259.56 44.20 1.61 
244.51 44.75 2.35 
245.21 44.62 2.30 
245.61 44.56 2.28 
252.60 44.59 2.01 
252.90 44.53 2.07 
253.22 44.53 2.08 
253.55 44.54 2.07 
258.61 44.42 1.88 
258.86 44.55 1.93 
259.04 44.57 1.96 
244.61 45.02 2.38 
244.64 44.98 2.37 
245.64 45.10 2.33 
252.38 45.31 2.09 
246.97 20.35 0.97 
247.52 20.52 0.86 
248.44 20.49 0.82 
245.63 20.61 0.95 
246.21 20.82 1.03 
246.34 20.86 1.02 
247.13 20.71 0.96 
248.44 20.65 0.86 
248.66 20.59 0.85 
249.14 20.64 0.82 
250.30 20.81 0.75 
265.61 20.61 0.17 
266.09 20.65 0.17 
266.39 20.62 0.17 
245.95 21.15 0.95 
247.10 21.04 0.96 
247.73 21.16 0.86 
248.12 21.25 0.85 
250.04 21.02 0.77 
265.65 20.71 0.17 
246.22 21.55 0.94 
246.32 21.53 0.94 
246.77 21.49 0.95 
247.19 21.64 0.90 
247.60 21.61 0.88 
255.74 25.55 0.99 
256.65 25.31 0.72 
256.71 25.32 0.72 
257.70 25.22 0.94 
255.74 25.71 1.08 
255.99 25.76 0.89 
256.36 25.88 0.89 
257.00 25.66 0.72 
265.32 25.76 0.69 
243.30 26.35 1.49 
256.26 26.26 0.87 
256.58 26.08 1.01 
257.11 26.34 0.70 
259.39 26.13 0.98 
259.67 26.22 0.77 
265.51 26.11 0.71 
243.08 26.73 1.52 
243.24 26.74 1.44 
257.31 26.73 1.05 
257.58 26.68 1.07 
258.92 26.45 0.95 
259.73 26.51 0.88 
259.95 26.60 0.78 
242.52 27.27 1.50 
256.89 26.99 0.94 
257.57 27.00 0.88 
258.13 26.99 1.08 
258.92 26.88 0.84 
259.82 26.75 0.99 
264.88 27.00 0.72 
242.49 27.44 1.51 
257.39 27.51 0.86 
258.12 27.37 1.07 
259.64 27.16 0.77 
265.20 27.23 0.74 
265.64 27.35 0.76 
260.02 27.77 0.89 
265.87 27.66 0.79 
266.40 27.49 0.47 
258.10 28.24 1.11 
258.85 28.02 0.92 
259.71 28.49 0.78 
259.97 28.53 0.80 
263.85 28.38 0.74 
259.99 28.80 0.80 
259.69 29.23 1.14 
266.16 29.14 0.87 
263.73 30.58 0.97 
263.74 30.85 0.98 
258.96 43.47 2.09 
259.29 43.45 2.09 
259.59 43.37 2.07 
252.74 43.91 2.53 
253.16 43.79 2.49 
258.90 43.77 2.12 
259.18 43.52 2.10 
259.66 43.73 2.12 
260.04 43.49 2.10 
260.45 43.61 2.12 
266.37 43.64 1.85 
245.26 44.48 2.79 
245.45 44.40 2.76 
245.90 44.44 2.49 
252.15 44.10 2.59 
252.58 44.01 2.56 
253.13 44.26 2.32 
258.58 44.27 2.16 
258.73 44.10 2.16 
259.10 44.08 2.17 
266.15 43.83 1.87 
266.42 43.91 1.88 
244.91 44.79 2.60 
245.29 44.60 2.68 
245.62 44.65 2.66 
245.94 44.73 2.78 
252.98 44.41 2.61 
253.75 44.76 2.24 
259.93 44.37 2.23 
266.01 44.32 1.92 
266.33 44.26 1.88 
244.76 44.91 2.89 
245.34 45.07 2.61 
245.61 45.08 2.72 
246.02 45.20 2.72 
252.39 44.88 2.44 
253.55 44.84 2.26 
266.36 44.80 1.98 
245.97 45.31 2.73 
250.07 20.41 1.08 
245.67 20.68 1.30 
245.99 20.67 1.29 
246.45 20.83 1.26 
247.72 20.80 1.19 
248.11 20.71 1.17 
248.30 20.60 1.17 
248.82 20.69 1.14 
249.75 20.66 1.11 
249.93 20.60 1.08 
250.56 20.80 1.08 
246.17 20.93 1.28 
246.42 21.02 1.29 
246.81 21.05 1.31 
247.63 21.22 1.23 
248.01 21.08 1.21 
247.39 21.34 1.25 
247.47 21.32 1.25 
249.96 21.35 1.10 
256.71 25.12 1.33 
257.33 25.46 1.23 
257.72 25.44 1.14 
257.76 25.73 1.26 
258.91 25.80 1.39 
265.04 25.69 1.00 
243.17 26.55 1.69 
256.30 26.16 1.23 
256.60 26.35 1.23 
257.07 26.02 1.09 
257.62 26.08 1.10 
258.41 26.07 1.24 
258.83 26.00 1.17 
259.22 26.31 1.18 
242.28 26.93 1.81 
242.56 26.57 1.82 
242.91 26.76 1.89 
243.39 26.63 1.74 
258.09 26.72 1.28 
259.32 26.42 1.18 
264.64 26.25 1.00 
264.88 26.44 1.01 
258.71 27.00 1.12 
259.36 26.96 1.16 
259.94 27.10 1.20 
264.59 26.71 1.00 
264.91 26.70 1.02 
265.20 26.77 1.04 
265.68 26.65 1.06 
242.63 27.39 2.07 
258.48 27.32 1.27 
259.72 27.37 1.38 
265.36 27.14 1.06 
265.74 27.27 1.08 
259.05 27.76 1.30 
259.74 27.66 1.32 
260.03 27.71 1.39 
264.27 27.50 1.01 
264.62 27.71 1.03 
265.81 27.49 1.09 
259.02 27.96 1.29 
259.54 28.00 1.15 
260.36 28.23 1.41 
264.76 28.01 1.34 
266.21 27.91 1.13 
259.10 28.64 1.27 
264.65 28.27 1.05 
264.97 28.23 1.07 
265.81 28.55 1.13 
264.64 28.73 1.21 
263.75 30.50 1.34 
263.78 30.80 1.36 
259.75 42.98 2.30 
258.96 43.41 2.36 
259.29 43.47 2.37 
259.46 43.46 2.38 
260.27 43.29 2.66 
266.48 43.31 2.20 
252.06 43.75 2.79 
252.27 43.91 2.82 
258.96 43.73 2.56 
259.30 43.63 2.40 
259.64 43.58 2.52 
260.45 43.81 2.45 
260.83 43.83 2.47 
266.10 43.57 2.16 
266.45 43.64 2.24 
245.78 44.08 3.17 
252.05 44.29 2.82 
252.48 43.99 2.82 
253.00 44.18 2.84 
253.11 44.15 2.83 
253.61 44.04 2.78 
258.63 44.22 2.50 
258.89 44.09 2.60 
260.57 43.86 2.46 
266.09 43.92 2.25 
266.23 43.85 2.27 
244.87 44.63 3.10 
245.60 44.80 3.20 
252.05 44.37 2.92 
253.78 44.42 2.86 
258.84 44.36 2.52 
266.07 44.36 2.26 
245.52 44.98 3.11 
258.98 44.85 2.55 
266.46 44.62 2.27 
247.43 20.34 1.60 
247.44 20.32 1.60 
249.39 21.00 1.44 
242.58 26.45 2.07 
265.04 25.94 1.33 
242.26 26.75 2.42 
242.82 26.88 2.33 
264.16 26.51 1.57 
264.96 26.44 1.33 
264.42 26.89 1.29 
265.34 26.75 1.36 
264.56 27.27 1.46 
265.38 27.01 1.37 
242.02 28.11 2.48 
264.64 27.51 1.62 
265.20 27.56 1.37 
265.99 28.06 1.44 
265.88 28.42 1.44 
265.74 28.67 1.44 
264.77 29.09 1.66 
266.35 29.15 1.51 
252.57 43.89 3.06 
252.81 43.75 3.02 
253.21 43.72 2.99 
259.97 43.57 3.00 
252.42 44.10 3.21 
253.42 43.99 3.31 
253.53 43.93 3.29 
253.94 44.11 3.06 
252.29 44.43 3.20 
253.63 44.47 3.15 
266.39 44.30 2.71 
266.35 44.54 2.71 
265.95 26.13 1.74 
264.89 26.26 1.95 
265.24 26.20 1.67 
265.57 26.45 1.70 
265.59 26.97 1.71 
265.45 27.45 1.70 
265.75 27.70 2.05 
264.87 28.01 1.94 
265.73 28.04 1.74 
266.43 27.98 1.81 
259.55 43.95 3.36 
260.22 43.90 3.38 
252.54 44.56 3.50 
253.89 44.52 3.43 
259.57 44.20 3.42 
266.36 27.11 2.12 
247.15 20.42 -0.32 
248.39 20.49 -0.35 
248.56 20.39 -0.36 
249.12 20.55 -0.37 
246.75 20.72 -0.28 
247.60 20.91 -0.29 
247.86 20.64 -0.32 
249.10 20.66 -0.36 
249.49 20.76 -0.36 
249.96 20.81 -0.40 
250.35 20.86 -0.42 
250.60 20.65 -0.41 
250.94 20.64 -0.42 
265.74 20.54 -1.01 
245.68 21.26 -0.20 
245.75 21.11 -0.22 
246.78 21.30 -0.23 
247.27 21.19 -0.25 
247.40 21.01 -0.27 
249.65 20.97 -0.48 
249.94 21.11 -0.41 
250.35 21.00 -0.45 
265.93 20.89 -0.99 
266.33 20.86 -1.01 
246.59 21.56 -0.20 
246.41 21.88 -0.17 
246.58 21.88 -0.18 
242.64 28.38 0.47 
259.54 43.82 1.01 
259.88 43.81 0.99 
260.14 43.96 0.99 
260.27 43.94 0.99 
258.70 44.41 1.08 
245.46 45.15 1.57 
256.08 45.16 1.23 
256.57 45.17 1.21 
256.72 45.11 1.20 
257.18 45.05 1.18 
255.98 45.20 1.24 
256.40 45.21 1.22 
256.83 45.18 1.21 
246.53 20.44 0.27 
246.11 20.95 0.11 
246.67 20.88 0.08 
247.21 20.78 -0.08 
247.46 20.61 0.03 
247.93 20.65 0.01 
249.93 20.73 -0.12 
265.75 20.41 -0.63 
245.96 21.08 -0.01 
246.29 21.06 0.11 
246.79 21.11 -0.04 
247.08 21.21 -0.04 
247.71 21.18 0.05 
248.05 21.00 0.25 
249.62 21.22 -0.02 
250.59 21.17 -0.16 
265.64 20.74 -0.60 
265.94 20.79 -0.61 
266.37 20.79 -0.62 
246.76 21.61 0.07 
247.11 21.48 0.21 
247.69 21.70 0.09 
247.90 21.62 0.29 
246.47 22.14 0.17 
246.57 21.99 0.16 
247.49 21.81 0.10 
242.41 27.79 0.66 
242.62 28.06 0.68 
242.90 28.08 0.69 
243.11 28.00 0.66 
242.58 28.33 0.77 
263.70 30.92 0.25 
245.44 44.43 2.05 
253.31 44.33 1.74 
253.45 44.36 1.74 
259.58 44.26 1.32 
245.35 44.81 1.82 
245.48 44.73 1.94 
245.83 44.90 1.81 
252.69 44.53 1.78 
253.09 44.62 1.77 
253.40 44.41 1.74 
244.49 45.15 2.01 
244.75 45.13 2.00 
245.13 45.03 1.84 
245.48 45.12 1.84 
245.81 44.92 2.08 
252.40 44.97 1.83 
253.17 44.99 1.80 
248.88 20.35 0.40 
249.11 20.33 0.43 
249.99 20.46 0.54 
250.27 20.44 0.52 
247.89 20.75 0.35 
248.45 20.63 0.64 
249.32 20.57 0.58 
249.96 20.71 0.39 
250.38 20.67 0.52 
265.71 20.50 -0.23 
265.74 20.37 -0.23 
245.75 21.15 0.48 
245.93 21.11 0.68 
246.51 21.15 0.44 
246.82 21.08 0.42 
247.13 21.20 0.52 
247.59 21.19 0.50 
247.99 21.05 0.35 
249.68 21.06 0.42 
249.97 21.06 0.40 
250.24 21.00 0.49 
265.89 20.74 -0.22 
266.32 20.71 -0.22 
245.99 21.45 0.48 
246.37 21.56 0.57 
246.75 21.49 0.55 
247.27 21.42 0.52 
247.52 21.50 0.61 
247.87 21.47 0.69 
249.81 21.29 0.57 
247.24 21.87 0.74 
247.38 21.74 0.73 
242.69 26.91 1.12 
258.66 26.57 0.71 
259.50 26.54 0.53 
243.10 27.05 1.18 
258.83 27.04 0.44 
259.23 27.03 0.54 
264.51 26.77 0.38 
242.00 27.63 1.38 
242.46 27.46 1.17 
242.82 27.40 1.30 
259.21 27.16 0.45 
265.29 27.21 0.41 
242.03 28.06 1.09 
242.63 28.11 1.35 
242.94 28.16 1.03 
242.04 28.23 1.17 
241.54 28.86 1.30 
266.03 28.36 0.48 
263.73 30.90 0.58 
259.60 43.44 1.77 
259.11 43.67 1.83 
259.50 43.60 1.81 
260.02 43.53 1.78 
260.28 43.55 1.78 
245.06 44.46 2.34 
252.16 44.19 1.99 
252.27 44.10 1.97 
258.96 44.09 1.88 
259.05 44.11 1.88 
259.58 44.19 1.60 
244.89 44.59 2.36 
245.19 44.64 2.35 
245.54 44.74 2.34 
252.11 44.49 2.25 
252.41 44.54 2.13 
252.62 44.59 2.24 
258.94 44.41 1.92 
245.63 44.97 2.36 
245.88 45.20 2.37 
253.04 44.80 2.03 
245.69 20.50 1.03 
247.26 20.35 1.05 
248.41 20.38 0.76 
248.59 20.34 0.75 
249.92 20.32 0.86 
245.58 20.54 1.04 
245.82 20.54 1.02 
247.06 20.84 1.07 
247.39 20.82 0.71 
248.12 20.79 0.99 
248.33 20.65 0.81 
248.63 20.65 0.93 
249.18 20.77 0.91 
249.54 20.83 0.88 
249.93 20.65 0.82 
250.54 20.57 0.80 
250.64 20.53 0.79 
265.76 20.33 0.16 
246.06 21.06 1.15 
246.27 20.92 1.13 
247.16 21.09 0.89 
247.63 20.94 1.02 
247.91 21.03 1.00 
249.10 20.99 0.92 
249.37 20.90 0.90 
249.79 21.14 0.84 
250.36 20.95 0.82 
265.64 20.64 0.17 
265.97 20.65 0.17 
266.36 20.64 0.17 
246.30 21.65 0.88 
246.82 21.77 0.99 
247.32 21.92 0.97 
247.47 21.78 0.96 
256.44 25.39 0.82 
257.44 25.42 0.91 
242.66 26.12 1.66 
256.90 25.76 0.89 
242.81 26.42 1.57 
243.28 26.48 1.52 
259.68 26.09 0.94 
259.89 26.21 0.74 
243.28 26.81 1.53 
257.90 26.40 0.87 
258.86 26.52 0.89 
259.62 26.35 0.73 
244.06 27.19 1.38 
258.50 26.82 0.87 
259.55 26.75 0.91 
260.04 26.88 0.74 
264.66 26.83 0.67 
264.74 26.90 0.67 
259.72 27.21 0.85 
264.78 27.10 0.68 
265.09 27.17 0.69 
241.89 27.97 1.77 
243.28 27.81 1.63 
258.84 27.78 1.18 
260.18 27.73 1.02 
264.48 27.46 0.95 
265.70 27.48 0.73 
259.75 27.93 0.90 
260.21 28.15 0.92 
260.34 28.13 0.99 
265.65 28.13 0.75 
265.71 28.23 0.76 
242.18 29.05 1.75 
264.55 28.76 0.99 
266.40 28.90 0.81 
263.74 30.57 1.01 
263.74 30.81 1.02 
259.21 43.38 2.17 
259.68 43.29 2.18 
259.85 43.21 2.30 
259.15 43.61 2.23 
259.54 43.48 2.20 
260.06 43.59 2.08 
260.43 43.62 2.07 
260.62 43.47 2.07 
266.49 43.69 1.82 
245.32 44.38 2.71 
245.49 44.28 2.81 
252.02 44.12 2.53 
252.29 44.02 2.40 
258.60 44.18 2.18 
258.79 44.10 2.16 
259.15 44.15 2.17 
259.47 44.09 2.14 
266.50 44.06 1.86 
245.35 44.67 2.61 
245.65 44.65 2.72 
245.94 44.67 2.57 
258.83 44.37 2.18 
266.45 44.17 1.87 
245.65 45.05 2.77 
245.95 45.11 2.76 
246.30 45.08 2.60 
246.11 20.66 1.14 
246.43 20.86 1.34 
246.75 20.76 1.43 
248.80 20.65 1.21 
249.72 20.50 1.19 
250.74 20.47 1.12 
246.07 20.90 1.37 
246.36 20.94 1.39 
246.69 20.95 1.44 
247.12 21.24 1.30 
247.74 21.19 1.34 
248.00 20.95 1.32 
248.30 20.98 1.23 
249.23 20.89 1.22 
247.26 21.37 1.33 
247.55 21.31 1.35 
257.17 24.93 1.13 
256.79 25.39 1.10 
257.76 25.35 1.31 
258.21 25.39 1.32 
257.01 25.87 1.24 
257.44 25.89 1.25 
257.76 25.73 1.27 
258.44 25.60 1.31 
257.13 25.92 1.24 
258.82 26.15 1.10 
259.32 26.05 1.32 
259.68 26.19 1.14 
264.62 25.86 1.21 
266.16 25.90 1.00 
242.57 26.60 1.92 
243.42 26.70 1.82 
257.95 26.55 1.21 
258.50 26.60 1.24 
259.18 26.36 1.29 
264.39 26.50 1.06 
264.78 26.49 0.94 
265.16 26.43 1.11 
242.88 27.08 1.90 
243.24 27.25 1.85 
243.56 27.01 1.85 
244.15 27.22 1.78 
259.24 26.86 1.26 
264.51 26.75 1.21 
264.91 26.78 0.96 
265.27 26.73 1.12 
242.60 27.53 1.95 
243.44 27.45 1.83 
259.62 27.24 1.27 
264.62 27.05 0.95 
264.77 27.23 1.09 
265.42 27.14 1.28 
265.68 27.27 1.16 
266.43 27.15 1.05 
243.06 27.95 1.90 
243.27 27.84 2.16 
259.83 27.61 1.26 
259.98 27.79 1.27 
264.17 27.49 1.19 
265.15 27.40 0.98 
265.64 27.49 1.16 
265.99 27.67 1.04 
265.02 27.98 0.99 
265.49 27.79 1.30 
266.12 27.99 1.06 
242.52 28.70 1.98 
264.73 28.42 1.25 
265.78 28.40 1.33 
265.93 28.15 1.34 
241.99 29.07 2.09 
263.75 30.48 1.23 
263.78 30.78 1.27 
263.84 31.01 1.48 
252.59 43.72 2.77 
259.20 43.62 2.64 
259.64 43.46 2.62 
260.09 43.50 2.63 
260.40 43.52 2.50 
266.40 43.50 2.17 
253.13 44.22 2.76 
253.84 44.25 2.86 
259.16 44.04 2.64 
266.08 43.86 2.21 
266.28 44.08 2.17 
245.52 44.76 3.15 
251.64 44.56 2.73 
253.28 44.33 2.89 
258.54 44.31 2.70 
258.90 44.38 2.64 
266.33 44.34 2.20 
244.90 45.02 3.25 
266.12 44.57 2.30 
266.38 44.52 2.30 
246.92 20.81 1.66 
250.09 20.61 1.47 
250.32 20.44 1.46 
247.49 21.34 1.61 
264.95 25.56 1.54 
265.19 26.02 1.36 
264.19 26.40 1.46 
265.29 26.30 1.56 
265.61 26.45 1.59 
265.93 26.42 1.62 
241.64 27.19 2.40 
243.52 27.09 2.11 
264.32 26.72 1.47 
265.47 26.91 1.58 
265.85 26.82 1.31 
266.29 26.76 1.34 
242.07 27.59 2.34 
242.49 27.52 2.27 
243.66 27.32 2.39 
265.45 27.20 1.58 
265.83 27.32 1.31 
243.66 27.76 2.39 
265.01 27.73 1.53 
265.96 27.54 1.33 
242.72 28.36 2.45 
242.87 28.39 2.54 
266.43 27.91 1.68 
242.59 28.80 2.47 
264.89 28.30 1.79 
241.61 29.00 2.36 
242.68 29.15 2.59 
265.69 28.87 1.62 
266.05 28.91 1.66 
266.32 28.55 1.38 
242.21 29.93 2.70 
252.96 43.87 3.35 
253.25 43.78 3.10 
253.51 43.87 3.32 
259.43 43.72 2.95 
259.96 43.65 2.95 
260.23 43.66 2.96 
252.36 44.26 3.11 
252.91 44.04 3.39 
253.22 44.13 3.12 
253.64 44.06 3.36 
253.93 44.08 3.08 
259.17 44.15 3.03 
259.72 43.95 3.00 
252.49 44.40 3.26 
252.81 44.39 3.21 
253.11 44.44 3.20 
253.59 44.46 3.18 
258.93 44.22 3.04 
266.45 44.27 2.64 
245.42 45.13 3.50 
245.75 44.88 3.42 
252.24 44.80 3.48 
252.31 44.79 3.48 
266.31 44.55 2.64 
246.09 45.30 3.75 
264.93 25.65 1.84 
264.78 25.88 1.81 
265.42 25.76 1.89 
265.20 26.12 1.85 
266.39 26.25 1.67 
242.61 26.98 2.57 
264.99 26.67 1.82 
242.18 27.80 2.65 
265.88 27.66 1.92 
241.68 28.31 2.75 
265.79 28.08 1.91 
266.49 28.25 1.99 
259.02 44.16 3.32 
259.41 44.02 3.30 
259.82 43.87 3.28 
260.12 43.76 3.27 
252.97 44.42 3.49 
253.88 44.54 3.47 
252.93 44.68 3.56 
247.58 20.47 -0.27 
248.44 20.40 -0.30 
249.28 20.39 -0.33 
246.67 20.79 -0.22 
246.88 20.71 -0.23 
247.58 20.82 -0.24 
247.84 20.58 -0.27 
248.33 20.49 -0.29 
248.97 20.57 -0.30 
249.35 20.82 -0.30 
250.13 20.86 -0.44 
250.74 20.68 -0.35 
250.89 20.68 -0.36 
265.67 20.34 -0.95 
245.56 21.23 -0.15 
246.75 21.23 -0.18 
247.35 21.10 -0.21 
247.64 21.09 -0.22 
249.58 20.95 -0.29 
249.82 21.07 -0.29 
250.20 20.94 -0.35 
250.44 20.96 -0.44 
265.78 20.77 -0.92 
266.23 20.82 -0.94 
246.62 21.51 -0.16 
246.36 21.83 -0.12 
246.47 21.77 -0.13 
259.76 43.76 1.06 
260.12 43.90 1.05 
253.14 44.54 1.37 
258.55 44.35 1.15 
245.97 45.02 1.59 
255.61 45.08 1.30 
255.85 45.04 1.29 
256.24 45.00 1.27 
256.61 44.96 1.26 
256.99 44.87 1.24 
257.40 44.79 1.22 
255.53 45.15 1.31 
246.37 20.39 -0.03 
249.84 20.33 -0.15 
251.01 20.36 0.15 
246.57 20.84 0.10 
247.09 20.61 0.22 
247.51 20.80 0.10 
249.85 20.68 0.00 
250.12 20.50 -0.03 
265.69 20.34 -0.57 
245.95 21.06 0.19 
246.36 21.04 0.03 
246.60 20.93 0.22 
247.50 21.03 0.02 
247.70 21.16 0.23 
248.26 20.98 -0.04 
249.54 21.20 0.04 
249.64 21.18 0.04 
250.80 21.14 0.21 
250.90 21.16 0.21 
265.83 20.80 -0.55 
266.23 20.76 -0.56 
247.09 21.64 0.06 
248.25 21.63 0.34 
246.52 22.00 0.22 
247.48 21.76 0.17 
243.17 27.11 0.72 
242.14 27.95 0.73 
242.59 27.79 0.98 
243.10 28.02 0.73 
243.51 27.94 0.69 
244.11 27.82 0.92 
244.29 27.85 0.91 
242.80 28.29 0.91 
243.02 28.17 0.80 
263.62 30.92 0.29 
245.90 44.33 2.09 
253.82 44.27 1.77 
259.91 44.16 1.43 
245.64 44.55 2.12 
245.90 44.66 1.98 
246.14 44.68 2.11 
253.12 44.51 1.59 
253.34 44.53 1.81 
253.92 44.30 1.77 
245.11 45.16 2.05 
245.50 44.89 1.87 
245.91 45.03 1.87 
246.30 44.85 1.98 
252.76 44.73 1.85 
252.91 44.95 1.86 
253.59 44.78 1.83 
244.86 45.26 2.21 
248.22 20.40 0.39 
248.98 20.40 0.35 
249.90 20.33 0.62 
247.84 20.73 0.42 
249.19 20.65 0.67 
249.25 20.59 0.67 
250.20 20.72 0.46 
250.46 20.69 0.59 
265.68 20.34 -0.20 
245.58 21.17 0.57 
245.68 21.12 0.56 
246.37 21.03 0.73 
246.56 20.97 0.61 
247.09 21.08 0.48 
247.45 20.96 0.56 
247.71 21.09 0.45 
248.21 21.11 0.64 
249.55 20.96 0.50 
249.85 21.02 0.48 
250.11 20.85 0.31 
265.82 20.72 -0.18 
266.23 20.71 -0.19 
246.22 21.61 0.56 
246.71 21.40 0.62 
247.10 21.49 0.61 
247.40 21.42 0.59 
247.96 21.29 0.66 
249.72 21.26 0.65 
246.43 21.70 0.55 
246.64 21.65 0.53 
259.29 26.35 0.54 
259.47 26.45 0.63 
264.59 26.55 0.38 
243.15 27.01 1.27 
243.46 27.20 1.17 
258.99 26.65 0.71 
259.90 26.88 0.72 
242.58 27.66 1.12 
243.03 27.41 1.39 
243.96 27.52 1.24 
244.49 27.54 1.20 
259.39 27.11 0.70 
265.17 27.12 0.41 
242.84 28.09 1.12 
243.08 27.90 1.23 
243.65 28.01 1.22 
244.00 27.93 1.18 
244.25 27.70 1.00 
242.52 28.29 1.23 
242.70 28.54 1.16 
265.87 28.31 0.48 
263.64 30.87 0.68 
260.02 43.24 1.76 
253.48 43.83 2.18 
259.06 43.68 1.87 
259.37 43.65 1.85 
259.82 43.50 1.83 
260.18 43.53 1.79 
260.58 43.57 1.79 
260.84 43.50 1.78 
245.58 44.34 2.37 
245.77 44.37 2.37 
252.60 44.07 2.02 
252.91 44.10 2.12 
253.42 44.02 2.09 
254.00 44.19 2.21 
258.99 43.96 1.91 
259.48 44.03 1.77 
260.24 43.85 1.87 
245.46 44.54 2.40 
245.90 44.59 2.38 
246.17 44.69 2.38 
252.37 44.36 2.28 
252.69 44.49 2.17 
253.02 44.47 2.27 
258.88 44.31 1.96 
259.31 44.19 1.93 
245.52 44.88 2.43 
246.30 44.99 2.40 
252.60 44.94 2.23 
252.98 44.77 2.08 
253.53 44.72 2.06 
253.92 44.71 2.28 
254.18 44.76 2.28 
258.81 44.65 2.00 
246.57 45.26 2.42 
246.19 20.32 1.07 
247.17 20.42 0.80 
251.23 20.33 0.82 
246.14 20.45 1.08 
247.03 20.58 0.81 
247.40 20.67 0.79 
247.91 20.66 0.93 
248.20 20.54 0.73 
248.58 20.53 0.83 
249.08 20.54 0.84 
249.43 20.66 0.98 
249.98 20.45 0.94 
250.19 20.50 0.93 
250.96 20.52 0.84 
246.20 21.14 0.89 
247.01 20.96 1.06 
247.48 20.91 0.79 
247.74 20.94 0.94 
249.03 20.92 1.01 
249.36 20.82 0.99 
250.35 20.84 0.92 
265.80 20.64 0.19 
266.26 20.62 0.19 
247.00 21.36 1.11 
247.48 21.43 0.97 
248.41 21.39 0.97 
247.03 21.78 0.85 
247.35 21.61 1.03 
257.24 25.18 1.12 
257.36 25.31 1.02 
257.44 25.57 1.09 
258.20 25.46 1.10 
259.09 25.79 0.91 
242.55 26.42 1.39 
243.21 26.31 1.65 
258.75 25.97 1.08 
259.31 25.98 1.09 
259.37 25.96 1.10 
266.49 25.74 0.68 
242.53 26.75 1.40 
243.30 26.69 1.66 
243.99 26.76 1.66 
258.83 26.34 1.06 
259.66 26.27 0.91 
259.96 26.31 0.91 
264.91 26.48 0.91 
242.14 27.00 1.80 
243.89 26.96 1.64 
244.47 27.20 1.49 
244.61 27.08 1.60 
259.46 26.69 0.88 
259.93 26.63 0.90 
264.86 26.76 0.92 
264.98 26.82 0.92 
241.53 27.54 1.53 
242.02 27.51 1.49 
242.86 27.35 1.40 
243.26 27.28 1.69 
244.13 27.56 1.66 
244.31 27.45 1.64 
244.83 27.41 1.34 
259.53 27.09 0.87 
259.88 27.25 1.05 
265.06 27.07 0.67 
265.50 27.06 0.95 
241.60 27.79 1.54 
242.48 27.69 1.79 
243.24 27.88 1.71 
264.62 27.32 0.91 
265.65 27.41 0.84 
266.35 27.46 0.73 
260.07 27.93 1.03 
260.31 27.95 1.21 
265.14 27.80 0.95 
265.81 27.71 0.99 
266.36 27.77 0.74 
241.61 28.78 1.60 
243.91 28.53 1.70 
265.66 28.25 0.73 
266.26 28.13 0.75 
242.91 28.85 1.80 
266.30 29.48 1.08 
263.65 30.48 1.05 
263.66 30.73 1.06 
263.69 31.01 1.07 
260.12 42.93 2.27 
259.51 43.30 2.15 
260.01 43.31 2.04 
260.06 43.25 2.03 
259.02 43.66 2.24 
259.42 43.55 2.24 
259.84 43.51 2.24 
260.28 43.54 2.24 
260.60 43.51 2.08 
266.28 43.51 1.81 
245.92 44.18 2.87 
246.06 44.06 2.84 
252.21 44.21 2.71 
253.79 44.02 2.64 
258.67 44.09 2.21 
259.00 44.02 2.33 
259.46 44.02 2.17 
260.18 43.77 2.14 
266.39 43.81 1.85 
266.49 43.85 1.85 
245.65 44.38 2.92 
245.96 44.55 2.78 
246.19 44.60 2.77 
252.44 44.53 2.53 
253.77 44.58 2.50 
258.94 44.32 2.24 
259.42 44.34 2.20 
266.30 44.24 1.90 
245.50 44.91 2.72 
245.88 44.86 2.83 
246.27 44.92 2.81 
246.59 44.86 2.78 
252.89 45.03 2.60 
253.93 44.83 2.54 
254.18 44.81 2.53 
259.15 44.71 2.30 
266.35 44.58 2.09 
246.32 45.26 3.00 
246.51 45.29 2.84 
253.89 45.17 2.34 
246.72 20.76 1.40 
247.00 20.46 1.53 
249.84 20.50 1.27 
250.14 20.44 1.25 
250.55 20.46 1.22 
251.36 20.38 1.16 
246.92 20.86 1.18 
248.69 20.81 1.28 
249.17 20.85 1.32 
249.73 20.91 1.23 
247.36 21.34 1.48 
257.26 25.14 1.12 
257.59 25.18 1.31 
258.17 25.20 1.31 
257.70 25.58 1.27 
258.80 25.61 1.10 
266.13 25.52 0.96 
242.11 26.28 2.13 
258.33 26.18 1.23 
259.00 25.97 1.27 
264.45 25.97 1.15 
266.02 25.93 0.96 
242.04 26.80 2.15 
242.47 26.43 2.09 
243.52 26.53 1.98 
244.14 26.68 1.91 
259.14 26.33 1.24 
264.55 26.16 1.15 
265.03 26.24 1.19 
266.49 26.25 0.99 
241.64 27.08 2.21 
243.16 27.12 2.01 
244.00 27.09 1.93 
264.56 26.72 1.15 
242.55 27.36 2.10 
265.32 26.96 1.21 
265.49 27.10 1.09 
243.09 27.81 2.05 
264.53 27.54 1.16 
265.01 27.55 1.19 
265.66 27.54 1.24 
265.87 27.59 0.99 
241.79 28.04 2.23 
264.70 27.87 1.17 
265.01 27.95 1.20 
266.12 27.88 1.28 
266.31 27.94 1.30 
266.41 28.17 1.31 
242.21 29.52 2.24 
266.50 28.90 1.07 
263.72 30.82 1.36 
259.88 43.30 2.60 
259.02 43.51 2.64 
259.40 43.53 2.65 
259.83 43.36 2.62 
260.26 43.54 2.46 
260.49 43.39 2.62 
260.95 43.66 2.38 
266.27 43.44 2.16 
254.30 44.16 2.88 
260.71 43.77 2.39 
265.95 43.91 2.22 
266.23 43.85 2.39 
252.30 44.35 2.74 
252.71 44.36 2.72 
253.23 44.40 2.83 
253.34 44.31 2.70 
254.11 44.50 2.95 
258.63 44.31 2.52 
259.08 44.34 2.76 
265.92 44.19 2.25 
266.18 44.34 2.28 
253.08 44.64 3.00 
266.00 44.52 2.30 
250.11 20.35 1.58 
248.36 21.06 1.63 
249.82 20.83 1.55 
264.94 25.73 1.46 
265.03 25.75 1.47 
264.62 26.20 1.69 
265.24 26.13 1.48 
266.38 26.23 1.43 
242.58 26.92 2.43 
264.93 26.51 1.71 
265.10 26.66 1.46 
265.53 26.50 1.50 
243.33 27.37 2.32 
244.00 27.27 2.19 
264.48 27.18 1.65 
265.90 26.96 1.53 
243.74 27.86 2.22 
265.20 27.56 1.47 
242.33 28.11 2.49 
243.06 28.32 2.39 
265.49 27.83 1.49 
264.56 28.16 1.64 
265.69 28.60 1.52 
242.14 29.32 2.45 
266.46 29.05 1.61 
242.37 29.92 2.56 
243.06 29.80 2.44 
259.77 43.27 2.87 
258.73 43.64 2.94 
259.33 43.53 2.92 
260.54 43.65 2.95 
253.11 44.11 3.12 
259.88 43.85 3.00 
252.82 44.56 3.47 
252.96 44.43 3.43 
253.55 44.37 3.25 
258.85 44.20 3.06 
259.10 44.21 3.07 
266.30 44.18 2.62 
245.96 44.75 3.66 
253.83 44.69 3.48 
266.35 44.45 2.67 
251.57 20.32 1.83 
264.86 25.34 1.74 
264.78 25.94 1.71 
265.30 25.85 1.77 
265.13 26.29 1.74 
266.24 27.13 1.85 
242.56 27.86 2.79 
265.85 27.63 1.80 
243.06 28.43 2.71 
258.99 44.18 3.34 
245.97 44.99 3.85 
246.63 45.19 3.82 
248.54 20.38 -0.27 
246.56 20.72 -0.18 
247.67 20.70 -0.21 
248.03 20.56 -0.24 
249.04 20.68 -0.26 
249.26 20.79 -0.25 
250.72 20.76 -0.30 
250.86 20.73 -0.31 
265.72 20.35 -0.90 
245.62 21.24 -0.11 
246.64 21.25 -0.14 
246.83 21.28 -0.14 
247.41 21.16 -0.17 
247.67 21.00 -0.19 
249.49 20.95 -0.25 
249.79 21.15 -0.24 
250.15 21.08 -0.26 
250.52 20.96 -0.30 
265.83 20.80 -0.87 
266.16 20.86 -0.88 
245.57 21.36 -0.10 
246.68 21.52 -0.12 
247.32 21.37 -0.15 
246.39 21.90 -0.08 
246.60 21.78 -0.09 
259.60 43.80 1.12 
259.68 43.81 1.12 
259.92 44.04 1.10 
260.19 44.02 1.12 
253.11 44.57 1.42 
258.35 44.59 1.22 
258.63 44.46 1.20 
246.02 45.05 1.62 
257.05 45.04 1.30 
257.41 45.00 1.28 
257.87 44.81 1.25 
258.21 44.69 1.23 
256.77 45.13 1.32 
256.94 45.07 1.31 
246.62 20.36 0.17 
250.55 20.32 0.00 
246.96 20.47 0.37 
247.80 20.75 0.14 
249.75 20.72 0.06 
250.13 20.69 0.04 
250.39 20.65 -0.09 
250.87 20.72 -0.11 
251.40 20.61 -0.13 
246.20 21.04 0.23 
246.55 21.04 0.22 
246.81 20.91 0.41 
247.49 21.06 0.28 
247.67 21.19 0.18 
249.77 21.05 0.08 
265.68 20.76 -0.51 
266.18 20.80 -0.52 
247.12 21.65 0.10 
247.36 21.57 0.08 
247.77 21.35 0.18 
249.47 21.29 0.11 
246.70 21.85 0.26 
247.53 21.86 0.23 
247.63 21.82 0.22 
243.83 26.87 0.63 
243.29 26.98 0.77 
243.79 26.95 0.64 
