# .PCD v0.7 - Point Cloud Data file format
VERSION 0.7
FIELDS x y z
SIZE 4 4 4
TYPE F F F
COUNT 1 1 1
WIDTH 550
HEIGHT 1
VIEWPOINT 0 0 0 1 0 0 0
POINTS 550
DATA ascii
258.43 71.00 4.92 
263.84 74.64 6.19 
245.41 70.46 4.76 
245.30 70.35 4.84 
245.56 70.76 4.89 
245.56 70.82 4.91 
246.34 70.51 5.13 
245.57 70.53 3.89 
245.64 70.35 3.90 
244.90 75.57 4.56 
244.70 75.80 4.60 
245.26 70.61 4.98 
245.66 70.73 4.99 
245.82 70.86 5.01 
245.67 70.80 3.99 
245.87 71.04 4.01 
244.94 75.61 4.61 
244.83 70.35 4.97 
245.99 70.71 4.06 
245.23 75.47 4.69 
245.11 75.84 4.74 
244.83 75.60 4.87 
250.48 72.89 5.44 
245.43 75.26 4.32 
251.35 72.33 4.79 
244.93 75.48 4.31 
245.94 75.79 4.51 
256.31 71.17 4.37 
256.88 71.24 4.48 
256.19 71.53 4.42 
256.81 71.04 4.49 
256.09 71.44 4.57 
255.81 71.89 4.65 
250.98 72.61 4.26 
245.85 70.37 5.17 
256.20 71.45 4.74 
256.44 71.25 4.70 
256.84 71.24 4.69 
257.30 71.31 4.68 
255.84 71.97 4.83 
256.03 71.73 4.78 
251.52 73.06 5.37 
251.67 73.03 4.29 
256.67 71.30 4.95 
257.06 71.27 4.93 
256.20 71.75 5.02 
256.45 71.54 4.99 
256.64 71.14 4.25 
251.66 72.90 4.42 
251.97 72.94 4.42 
256.85 71.48 5.13 
257.44 71.49 5.12 
256.57 71.81 5.19 
257.45 70.92 4.33 
257.16 71.13 4.36 
257.86 71.00 4.33 
256.86 71.70 4.44 
257.12 71.60 4.42 
251.57 73.12 4.54 
256.63 71.61 5.27 
251.67 72.73 5.51 
257.07 71.14 4.27 
256.83 71.59 4.33 
245.35 75.20 4.82 
256.15 71.91 5.20 
252.02 72.59 5.35 
251.89 72.92 4.03 
251.30 72.09 4.93 
250.51 72.47 4.99 
251.12 72.45 4.98 
252.37 72.33 4.95 
250.88 72.52 5.00 
251.90 72.76 5.01 
251.37 73.79 5.15 
260.44 73.62 5.25 
257.51 77.03 5.48 
251.91 72.60 5.99 
252.51 72.58 4.06 
245.62 75.13 4.27 
251.56 72.51 4.84 
251.98 72.75 4.86 
252.46 73.04 4.89 
257.41 71.39 4.86 
257.87 71.20 4.83 
252.10 72.02 4.98 
252.29 72.28 5.01 
252.64 72.37 5.02 
252.10 72.56 5.05 
257.62 76.68 5.27 
251.70 72.68 5.85 
245.13 74.82 4.15 
245.68 74.63 4.12 
246.01 74.76 4.13 
244.92 75.03 4.18 
246.44 75.09 4.15 
246.50 75.62 4.20 
257.23 70.73 4.46 
251.61 72.98 4.80 
252.14 72.84 4.77 
266.06 70.60 4.37 
266.50 70.53 4.36 
257.56 71.14 4.72 
265.80 70.89 4.41 
266.06 70.93 4.41 
257.40 71.44 4.76 
257.25 71.68 4.79 
252.26 72.48 4.93 
252.61 72.52 4.93 
252.96 72.57 4.94 
251.23 72.58 5.73 
252.08 72.37 5.69 
251.45 73.32 5.83 
251.79 73.26 5.82 
256.35 71.02 4.51 
256.73 71.15 4.52 
266.29 70.39 4.35 
252.20 71.97 4.88 
252.51 72.08 4.89 
252.38 73.09 5.01 
251.97 72.21 5.67 
251.84 72.55 5.72 
265.97 71.34 5.55 
251.39 73.02 5.79 
251.74 72.20 6.64 
256.89 70.65 4.48 
257.13 70.48 4.46 
266.46 70.34 4.37 
252.65 72.27 4.92 
252.52 72.57 4.96 
252.10 73.03 5.01 
252.45 72.31 5.88 
254.48 70.31 3.55 
257.12 70.79 4.49 
257.52 71.01 4.51 
252.33 71.99 4.89 
252.68 72.23 4.92 
252.15 73.03 5.02 
252.42 73.06 5.02 
263.16 74.80 4.88 
252.45 72.23 5.86 
256.68 70.85 4.49 
256.97 70.80 4.48 
257.23 70.69 4.46 
265.81 70.73 4.38 
251.66 72.45 4.94 
252.82 72.52 4.93 
245.83 75.01 5.18 
252.15 72.99 5.00 
252.46 73.05 5.00 
260.72 73.50 4.95 
263.05 75.28 4.92 
257.02 70.78 5.42 
257.39 70.92 5.44 
256.60 71.18 5.48 
256.80 70.99 5.45 
256.40 71.44 5.52 
252.52 72.36 5.85 
252.82 72.36 5.85 
246.47 75.10 4.40 
256.97 70.71 4.48 
257.71 70.71 4.67 
265.89 70.57 4.36 
256.30 71.30 4.55 
256.86 71.09 4.52 
252.52 72.11 4.90 
252.27 72.94 4.99 
252.52 72.92 4.99 
257.49 76.56 5.14 
258.21 70.78 4.67 
257.05 70.77 5.42 
256.82 70.94 5.44 
256.37 71.32 5.50 
252.53 72.29 5.84 
260.90 73.66 6.00 
262.91 74.63 5.92 
256.65 76.86 6.26 
257.33 76.87 6.25 
256.68 70.85 4.51 
245.79 75.00 5.22 
262.90 75.41 4.93 
257.16 77.25 5.23 
246.48 75.01 5.37 
256.58 71.20 5.48 
256.85 71.18 5.48 
256.39 71.43 5.52 
266.32 70.97 5.42 
256.54 76.98 6.27 
257.45 70.73 4.69 
251.99 72.72 4.84 
266.50 71.12 4.62 
256.36 71.38 5.52 
263.11 74.88 5.93 
257.08 76.69 6.24 
257.82 70.81 4.70 
257.19 71.11 4.74 
245.76 75.01 5.29 
263.72 74.46 5.02 
258.42 77.05 5.39 
256.79 76.91 6.27 
257.54 77.16 6.29 
257.23 70.99 4.80 
263.79 74.40 5.09 
263.37 74.84 5.14 
257.30 76.98 5.49 
257.64 76.94 5.48 
257.93 76.92 5.47 
258.37 77.34 5.51 
257.21 77.58 5.56 
262.92 74.77 5.98 
257.21 71.11 4.77 
257.13 71.26 4.69 
252.05 72.65 4.89 
263.06 75.25 5.13 
262.91 75.67 5.18 
257.25 77.02 5.43 
257.65 76.92 5.41 
258.07 76.74 5.39 
261.82 75.54 6.03 
247.47 70.45 4.14 
260.77 73.45 4.94 
257.80 76.62 5.36 
257.19 77.05 5.43 
257.55 76.85 5.40 
258.24 77.03 5.40 
262.84 80.98 5.54 
266.31 70.71 5.28 
247.40 70.41 4.18 
247.45 70.47 4.18 
257.70 76.39 5.34 
266.32 70.86 5.28 
261.68 75.19 5.94 
261.93 75.14 5.92 
262.78 80.93 6.68 
252.07 72.31 6.75 
262.37 75.21 6.96 
247.00 70.44 4.20 
246.08 75.17 4.65 
257.27 71.30 4.61 
257.42 77.16 5.25 
246.79 75.46 5.60 
262.31 81.19 5.73 
257.49 70.53 5.40 
266.07 70.51 5.20 
266.50 70.85 5.24 
257.33 70.93 6.37 
260.22 73.35 6.68 
247.04 70.52 4.26 
252.40 72.67 4.99 
256.93 70.67 5.49 
257.80 70.63 5.46 
266.43 70.59 5.25 
258.25 71.15 5.52 
252.21 72.45 6.00 
260.32 73.43 5.77 
257.30 71.15 6.46 
260.32 73.38 6.73 
266.21 70.68 4.48 
257.48 71.30 4.62 
260.25 73.52 4.77 
262.55 75.66 5.11 
262.96 80.77 5.66 
262.82 81.38 5.73 
257.73 70.42 5.40 
256.73 70.73 5.47 
257.47 70.60 5.43 
256.49 71.11 5.53 
260.29 73.45 5.72 
266.33 70.90 5.42 
257.43 70.96 6.39 
257.73 70.99 6.38 
260.34 73.35 6.68 
263.82 74.97 6.85 
258.44 70.94 4.77 
263.02 75.53 4.96 
257.42 77.13 5.32 
262.92 80.89 5.55 
263.49 80.79 5.69 
263.31 81.24 5.75 
257.45 70.43 5.47 
257.74 70.72 5.50 
256.41 71.10 5.59 
257.99 70.88 5.51 
260.65 73.47 5.91 
256.99 70.77 6.43 
257.28 70.86 6.43 
257.62 71.02 6.45 
260.17 73.29 6.73 
257.49 70.72 4.83 
258.00 70.73 4.81 
258.19 70.89 4.83 
258.70 71.09 4.83 
257.23 71.29 4.75 
262.97 75.57 5.02 
257.34 77.17 5.39 
262.73 80.99 5.62 
263.51 80.95 5.76 
256.74 70.71 5.59 
257.13 70.47 5.54 
257.52 70.46 5.53 
257.79 70.88 5.57 
258.05 70.89 5.57 
260.75 73.44 5.95 
256.83 70.89 6.52 
257.18 70.90 6.50 
257.60 70.96 6.50 
257.85 71.16 6.52 
260.16 73.32 6.79 
252.42 72.78 4.40 
257.09 70.80 4.90 
257.43 70.61 4.87 
257.60 70.59 4.86 
256.85 71.20 4.95 
257.87 71.01 4.90 
258.13 71.10 4.90 
256.61 71.45 4.99 
257.43 71.29 4.79 
258.38 71.21 4.90 
252.72 71.91 5.18 
253.02 72.08 5.19 
252.29 72.70 5.28 
257.65 77.15 5.43 
263.01 80.90 5.66 
256.98 70.63 5.63 
257.32 70.48 5.59 
257.74 70.55 5.59 
258.01 70.78 5.61 
258.16 70.92 5.62 
256.68 71.22 5.72 
252.53 72.11 6.09 
257.03 71.09 6.60 
257.41 70.87 6.55 
257.81 71.00 6.55 
258.06 71.33 6.60 
260.35 73.30 6.83 
257.73 70.62 4.85 
257.99 70.69 4.85 
257.26 71.10 4.92 
257.50 70.82 4.88 
258.40 70.98 4.86 
257.01 71.40 4.96 
253.12 71.81 5.14 
252.54 72.65 5.25 
252.80 72.57 5.24 
260.04 73.52 4.93 
260.68 73.49 5.07 
263.03 75.55 5.06 
262.86 80.91 5.65 
257.52 70.60 5.59 
266.08 70.50 5.31 
257.91 70.88 5.62 
265.89 70.72 5.35 
252.91 72.12 6.07 
252.50 72.36 6.12 
260.72 73.44 5.98 
266.41 70.34 6.20 
256.90 70.76 6.55 
257.12 70.82 6.55 
265.65 70.58 6.25 
266.04 70.58 6.24 
256.82 71.23 6.62 
252.86 72.71 4.41 
257.60 70.66 4.91 
257.17 71.07 4.97 
257.40 70.72 4.93 
257.93 70.77 4.91 
258.19 70.87 4.92 
256.95 71.38 5.01 
258.48 71.12 4.93 
258.71 71.30 4.95 
252.22 72.01 5.25 
252.47 72.13 5.26 
252.83 72.32 5.26 
252.69 72.52 5.29 
263.14 75.51 5.12 
262.88 80.91 5.72 
265.82 70.75 5.41 
252.45 72.25 6.16 
263.28 74.80 6.03 
263.72 74.78 6.01 
265.80 70.48 6.29 
266.33 70.43 6.27 
263.23 74.78 7.03 
263.55 75.09 7.07 
257.64 70.68 4.95 
257.12 71.01 5.00 
257.38 70.72 4.96 
258.02 70.84 4.95 
256.90 71.33 5.04 
252.13 71.89 5.28 
252.48 72.15 5.29 
260.65 73.45 5.16 
262.97 75.53 5.16 
262.85 80.87 5.75 
252.48 72.32 6.21 
262.65 74.60 6.06 
262.99 74.63 6.05 
262.37 75.29 6.16 
263.85 75.09 6.08 
263.29 74.76 7.06 
257.00 71.11 4.25 
258.03 70.93 4.20 
257.76 71.17 4.23 
258.28 71.30 4.22 
258.54 71.23 4.21 
257.43 70.79 5.06 
257.81 70.74 5.04 
258.11 70.91 5.05 
256.81 71.33 5.14 
257.03 71.28 5.13 
258.32 71.34 5.09 
263.02 75.50 5.25 
262.76 80.91 5.86 
252.14 72.34 6.33 
262.71 74.33 6.11 
262.47 74.66 6.16 
263.93 75.09 6.18 
263.63 76.06 6.32 
257.94 77.34 6.78 
262.82 74.52 7.14 
263.38 74.83 7.17 
264.41 76.09 4.52 
263.20 75.52 5.32 
262.86 80.91 5.93 
262.73 74.41 6.20 
262.97 74.44 6.19 
263.25 74.56 6.20 
262.37 74.86 6.27 
262.68 74.92 6.27 
264.15 75.33 6.27 
263.30 74.92 7.26 
245.95 75.30 5.25 
266.39 70.76 4.98 
263.24 74.81 5.53 
263.00 74.87 5.55 
263.53 74.89 5.53 
263.81 74.84 5.52 
262.97 74.37 6.33 
263.49 74.58 6.34 
263.80 74.67 6.34 
263.53 74.86 6.38 
264.35 75.32 6.41 
262.69 74.87 7.42 
263.12 74.84 7.40 
262.37 75.16 4.72 
262.83 75.15 4.70 
263.24 75.01 4.68 
263.81 75.25 4.68 
263.52 75.37 4.70 
263.55 74.74 5.59 
262.99 75.09 5.65 
263.28 75.01 5.63 
262.71 75.21 5.67 
263.85 75.21 5.63 
258.21 70.67 4.44 
263.28 74.72 4.64 
263.56 74.68 4.63 
263.90 74.66 4.61 
262.84 75.10 4.69 
263.84 74.83 4.63 
264.45 75.50 4.67 
258.24 76.81 5.00 
258.45 77.11 5.02 
263.60 74.66 5.57 
263.03 75.08 5.64 
264.04 74.88 5.58 
263.32 75.15 5.64 
264.48 75.88 5.68 
258.46 77.37 6.06 
257.64 70.67 4.54 
258.17 70.65 4.52 
257.76 70.84 4.55 
258.49 71.01 4.54 
258.65 71.58 4.59 
263.35 74.89 4.74 
263.57 75.54 4.79 
263.86 75.40 4.77 
258.11 76.90 5.09 
257.72 71.10 5.46 
258.00 71.03 5.44 
258.26 71.17 5.45 
263.36 74.96 5.70 
263.73 75.13 5.71 
264.20 75.09 5.69 
257.54 77.05 6.14 
257.81 77.04 6.13 
257.45 70.57 4.60 
257.93 70.65 4.59 
257.49 70.83 4.63 
258.15 70.88 4.61 
258.41 70.90 4.60 
257.01 71.35 4.69 
258.62 71.21 4.62 
263.42 74.54 4.77 
263.12 74.87 4.81 
263.68 75.03 4.81 
257.99 76.94 5.17 
258.40 77.07 5.17 
257.63 71.07 5.53 
263.61 74.83 5.75 
257.50 77.09 6.22 
257.85 77.09 6.21 
257.68 70.63 4.73 
257.35 70.81 4.75 
257.93 70.68 4.72 
258.13 71.02 4.75 
258.41 70.96 4.73 
256.96 71.40 4.82 
258.60 71.31 4.76 
263.95 74.71 4.91 
257.76 76.73 5.29 
257.42 76.95 6.35 
253.00 72.82 4.16 
257.70 70.87 4.80 
258.00 70.80 4.79 
258.25 70.91 4.79 
257.11 71.15 4.85 
257.37 71.06 4.83 
252.71 72.67 5.14 
260.80 73.45 5.89 
252.99 72.83 4.25 
257.47 71.05 4.93 
257.75 71.05 4.92 
258.19 71.11 4.91 
252.87 73.00 5.27 
252.79 72.68 4.48 
253.02 72.79 4.48 
252.39 72.15 5.44 
252.51 72.37 5.46 
252.72 72.51 5.47 
263.71 74.93 4.38 
264.00 74.86 5.34 
264.25 75.02 5.35 
264.50 75.11 5.35 
263.65 74.74 4.49 
263.30 74.97 4.51 
263.70 74.97 4.50 
262.88 75.24 4.55 
257.81 71.11 5.30 
263.33 75.06 5.52 
264.13 74.74 5.46 
263.72 75.22 5.52 
263.31 74.77 4.55 
263.15 75.10 4.59 
263.45 74.92 5.56 
263.72 75.04 5.56 
260.70 73.71 4.72 
260.64 73.64 5.71 
263.56 75.13 5.76 
261.08 73.56 5.78 
260.74 73.46 5.86 
