# .PCD v0.7 - Point Cloud Data file format
VERSION 0.7
FIELDS x y z
SIZE 4 4 4
TYPE F F F
COUNT 1 1 1
WIDTH 2236
HEIGHT 1
VIEWPOINT 0 0 0 1 0 0 0
POINTS 2236
DATA ascii
-200.91 -86.60 7.76 
-201.10 -86.68 7.79 
-202.38 -87.89 7.95 
-202.24 -87.72 7.94 
-204.58 -85.03 8.53 
-204.87 -85.11 8.58 
-183.58 -93.74 5.46 
-184.22 -95.94 5.81 
-184.09 -95.70 5.82 
-184.41 -95.76 5.87 
-184.74 -94.23 5.59 
-185.45 -93.07 5.84 
-185.63 -93.01 5.88 
-185.77 -96.55 5.99 
-186.12 -97.69 5.89 
-185.87 -96.70 5.99 
-186.40 -98.27 5.86 
-186.23 -97.86 5.89 
-186.63 -98.93 5.81 
-186.65 -98.36 5.89 
-186.94 -99.12 5.84 
-187.08 -97.82 6.05 
-188.17 -99.32 6.05 
-188.22 -98.78 6.13 
-189.14 -99.03 6.28 
-189.21 -99.21 6.27 
-189.62 -98.59 6.43 
-189.94 -98.82 6.47 
-189.82 -98.47 6.49 
-191.44 -102.78 6.71 
-191.85 -102.78 6.81 
-192.35 -102.53 6.97 
-193.40 -102.52 6.76 
-193.82 -102.16 6.90 
-194.49 -102.84 6.99 
-194.51 -102.39 7.04 
-204.12 -84.63 8.82 
-204.34 -84.73 8.85 
-204.99 -82.22 8.77 
-206.34 -83.21 9.31 
-206.07 -83.05 9.27 
-206.56 -83.35 9.34 
-206.90 -83.46 9.40 
-183.54 -93.77 6.05 
-184.63 -95.10 6.00 
-184.94 -94.57 6.13 
-185.25 -95.16 6.10 
-185.50 -94.57 6.22 
-185.66 -94.55 6.25 
-185.89 -97.77 6.32 
-185.77 -97.63 6.32 
-186.73 -98.90 6.29 
-186.54 -98.53 6.32 
-186.51 -97.99 6.40 
-186.93 -99.37 6.26 
-187.25 -99.36 6.32 
-187.49 -99.08 6.41 
-187.89 -99.15 6.48 
-187.99 -99.25 6.49 
-188.53 -99.68 6.53 
-188.66 -99.61 6.57 
-191.49 -102.37 7.22 
-191.39 -102.06 7.25 
-191.22 -101.87 7.24 
-191.71 -102.49 7.26 
-191.95 -102.59 7.30 
-193.26 -103.01 7.13 
-193.36 -102.69 7.20 
-193.81 -102.83 7.29 
-193.83 -101.42 7.48 
-194.01 -102.73 7.35 
-195.28 -103.51 7.58 
-183.52 -94.03 6.53 
-183.77 -95.21 6.38 
-184.09 -94.99 6.47 
-184.00 -94.37 6.55 
-184.33 -94.24 6.63 
-184.64 -94.97 6.56 
-184.50 -94.18 6.67 
-184.94 -95.00 6.61 
-185.38 -94.55 6.87 
-186.03 -97.00 6.63 
-186.10 -98.01 6.80 
-187.09 -98.79 6.85 
-187.40 -98.90 6.89 
-188.78 -97.35 6.95 
-188.90 -97.45 6.96 
-189.95 -97.46 7.26 
-189.84 -97.24 7.27 
-191.77 -101.43 7.45 
-191.97 -100.23 7.69 
-193.29 -102.01 7.74 
-193.52 -103.03 7.65 
-193.46 -102.89 7.65 
-195.19 -104.46 7.90 
-195.23 -104.39 7.93 
-195.95 -103.92 8.19 
-204.18 -81.54 9.69 
-204.37 -84.92 9.44 
-204.39 -84.81 9.46 
-204.60 -85.08 9.48 
-207.13 -83.93 10.07 
-183.53 -94.88 6.93 
-183.75 -93.40 6.67 
-183.95 -95.56 6.87 
-184.57 -95.32 7.03 
-184.32 -95.07 7.03 
-184.74 -95.33 7.05 
-189.08 -97.17 7.56 
-189.51 -96.80 7.72 
-204.26 -84.69 9.85 
-205.90 -83.05 10.30 
-207.45 -84.03 10.52 
-183.74 -94.51 7.04 
-203.09 -80.60 10.57 
-203.41 -80.95 10.60 
-203.80 -81.35 10.64 
-204.45 -81.95 10.71 
-206.98 -83.93 11.05 
-207.79 -84.39 11.18 
-206.52 -83.55 11.44 
-207.30 -84.00 11.56 
-202.65 -80.21 11.55 
-202.46 -79.87 11.55 
-203.68 -81.39 11.63 
-203.90 -81.60 11.65 
-204.55 -82.20 11.72 
-204.96 -82.54 11.77 
-208.14 -84.70 12.25 
-207.89 -84.55 12.21 
-208.41 -84.84 12.30 
-198.83 -82.36 11.42 
-198.64 -82.11 11.42 
-199.19 -82.83 11.43 
-199.10 -82.67 11.43 
-199.56 -83.29 11.44 
-199.38 -83.05 11.44 
-205.80 -83.19 12.40 
-205.50 -87.73 12.22 
-206.58 -83.73 12.50 
-206.53 -88.25 12.42 
-206.78 -88.34 12.47 
-207.40 -84.17 12.63 
-207.10 -84.03 12.58 
-207.66 -84.32 12.67 
-208.21 -84.60 12.76 
-198.41 -81.71 11.43 
-198.29 -81.47 11.44 
-205.34 -87.98 12.69 
-205.14 -87.86 12.66 
-205.63 -88.13 12.74 
-205.89 -88.24 12.79 
-206.14 -88.36 12.83 
-197.59 -80.87 12.04 
-197.40 -80.57 12.05 
-197.79 -81.18 12.03 
-198.57 -82.35 12.01 
-198.80 -82.57 12.02 
-197.20 -80.22 12.06 
-183.86 -93.72 3.55 
-184.09 -93.99 3.71 
-184.20 -93.83 3.60 
-207.20 -83.62 7.10 
-183.58 -99.64 3.88 
-183.50 -95.58 4.16 
-183.74 -95.43 4.21 
-183.68 -99.64 3.89 
-184.17 -95.49 4.27 
-183.93 -93.94 4.16 
-184.97 -95.72 4.38 
-185.01 -95.61 4.39 
-185.64 -96.22 4.30 
-185.96 -96.31 4.34 
-185.91 -95.83 4.36 
-186.36 -95.97 4.42 
-187.96 -96.97 4.77 
-187.77 -96.83 4.75 
-188.41 -97.48 4.66 
-188.18 -97.12 4.80 
-183.62 -99.63 4.28 
-184.86 -94.99 4.41 
-185.19 -95.32 4.44 
-186.34 -98.73 4.81 
-186.44 -98.86 4.81 
-186.66 -98.72 4.87 
-187.12 -97.74 5.03 
-187.47 -98.62 5.01 
-187.37 -98.26 5.03 
-187.26 -97.75 5.06 
-187.28 -97.27 5.11 
-187.57 -98.95 5.00 
-188.34 -99.35 5.10 
-188.03 -98.34 5.14 
-188.22 -97.49 5.17 
-188.37 -98.92 5.14 
-188.42 -98.12 5.23 
-189.28 -98.03 5.39 
-191.77 -100.89 5.61 
-192.13 -101.03 5.67 
-192.45 -102.13 5.64 
-192.31 -101.36 5.68 
-192.48 -100.76 5.76 
-192.92 -101.40 5.69 
-193.24 -102.13 5.80 
-193.14 -101.60 5.82 
-193.47 -102.25 5.84 
-193.58 -101.43 5.93 
-193.59 -100.92 5.90 
-194.14 -102.80 5.93 
-194.32 -102.80 5.97 
-194.23 -101.11 5.94 
-194.74 -101.96 6.12 
-196.15 -104.68 6.23 
-204.31 -81.19 7.69 
-205.34 -82.32 7.81 
-206.89 -83.59 8.02 
-208.08 -84.40 8.19 
-183.66 -94.09 4.71 
-183.56 -93.86 4.82 
-184.03 -96.04 4.69 
-183.87 -93.98 4.86 
-183.98 -93.81 4.78 
-184.28 -96.13 4.72 
-184.31 -94.57 4.77 
-184.71 -94.96 4.90 
-185.28 -96.12 4.88 
-185.16 -95.97 4.87 
-184.95 -95.36 4.90 
-185.18 -94.44 5.02 
-185.48 -96.08 4.92 
-186.25 -97.76 5.33 
-186.63 -98.58 5.31 
-186.55 -97.83 5.38 
-186.53 -96.92 5.01 
-186.55 -96.26 5.08 
-186.99 -99.30 5.29 
-186.86 -99.19 5.28 
-186.85 -98.43 5.36 
-187.36 -98.73 5.45 
-187.88 -99.35 5.44 
-187.80 -98.86 5.49 
-187.98 -96.77 5.27 
-188.24 -99.81 5.46 
-188.01 -99.59 5.46 
-188.09 -99.18 5.50 
-188.45 -99.91 5.49 
-188.48 -99.43 5.56 
-188.47 -97.58 5.28 
-188.45 -97.22 5.31 
-188.82 -99.97 5.55 
-188.82 -99.39 5.62 
-189.20 -99.15 5.72 
-189.53 -99.16 5.78 
-189.98 -99.60 5.82 
-190.02 -99.10 5.88 
-190.44 -97.86 5.62 
-190.95 -101.87 5.78 
-191.04 -101.92 5.79 
-191.54 -102.16 5.87 
-191.47 -101.71 5.90 
-191.52 -100.38 6.03 
-191.86 -102.20 5.93 
-192.41 -102.95 5.98 
-192.32 -102.52 6.00 
-192.37 -102.14 6.05 
-192.84 -103.28 6.04 
-192.70 -102.98 6.04 
-192.66 -101.55 6.17 
-192.68 -101.31 6.20 
-193.08 -103.28 6.09 
-193.27 -99.87 5.99 
-193.29 -103.32 6.14 
-193.37 -102.08 6.27 
-193.95 -103.29 6.29 
-193.79 -103.05 6.27 
-193.96 -102.15 6.40 
-194.13 -101.40 6.42 
-194.39 -103.22 6.39 
-194.53 -103.25 6.42 
-194.63 -102.95 6.47 
-194.49 -102.75 6.46 
-195.89 -104.28 6.65 
-196.03 -104.34 6.55 
-202.93 -79.79 7.82 
-203.23 -80.24 7.85 
-203.54 -80.61 7.88 
-203.77 -80.84 7.91 
-204.42 -81.54 7.99 
-205.11 -82.14 8.07 
-204.88 -81.94 8.04 
-205.58 -82.50 8.14 
-205.36 -82.30 8.11 
-205.81 -82.71 8.16 
-207.54 -83.86 8.40 
-207.30 -83.68 8.37 
-208.33 -84.28 8.52 
-208.06 -84.13 8.48 
-183.99 -95.76 5.19 
-183.91 -94.09 5.35 
-183.87 -93.93 5.39 
-184.26 -95.72 5.24 
-184.29 -95.52 5.27 
-184.60 -95.22 5.36 
-184.76 -95.17 5.39 
-184.57 -94.22 5.44 
-185.16 -96.04 5.36 
-185.11 -95.33 5.43 
-185.50 -95.24 5.50 
-185.50 -95.19 5.51 
-185.75 -95.44 5.52 
-185.92 -94.11 5.66 
-186.27 -98.50 5.69 
-186.05 -97.38 5.34 
-186.15 -97.02 5.40 
-186.21 -96.72 5.46 
-186.28 -93.99 5.78 
-186.56 -98.98 5.67 
-186.41 -98.65 5.69 
-186.54 -97.80 5.41 
-186.38 -97.14 5.43 
-186.74 -99.11 5.69 
-187.23 -99.19 5.77 
-187.53 -99.85 5.74 
-187.83 -97.49 5.65 
-187.67 -96.48 5.72 
-187.97 -99.87 5.82 
-188.09 -98.94 5.97 
-188.13 -97.46 5.70 
-188.21 -97.26 5.74 
-188.59 -99.77 5.96 
-188.43 -99.68 5.94 
-188.84 -99.81 6.00 
-188.87 -99.76 6.02 
-188.94 -96.88 5.92 
-189.07 -99.91 6.04 
-189.87 -98.61 5.89 
-189.85 -98.26 5.91 
-191.28 -102.55 6.18 
-191.27 -101.94 6.25 
-191.16 -101.77 6.25 
-191.49 -102.55 6.23 
-191.82 -103.17 6.23 
-192.03 -102.70 6.33 
-192.26 -103.29 6.32 
-192.26 -102.96 6.36 
-192.71 -103.41 6.41 
-192.81 -102.85 6.50 
-193.28 -100.04 6.45 
-193.53 -103.35 6.61 
-193.82 -103.37 6.68 
-194.33 -101.35 6.55 
-194.69 -101.74 6.59 
-195.46 -103.91 7.02 
-196.82 -80.87 7.38 
-197.46 -82.15 7.40 
-198.25 -83.45 7.45 
-200.92 -86.52 7.73 
-201.66 -87.22 7.82 
-203.33 -88.44 8.05 
-203.12 -88.32 8.02 
-203.54 -88.58 8.08 
-204.76 -85.08 8.52 
-206.02 -83.07 8.87 
-207.84 -91.06 8.75 
-208.22 -91.21 8.82 
-208.48 -91.32 8.86 
-184.20 -95.69 5.72 
-184.05 -94.40 5.88 
-184.40 -96.16 5.69 
-184.64 -95.52 5.82 
-184.59 -94.91 5.90 
-184.78 -95.44 5.86 
-184.88 -94.97 5.94 
-185.06 -94.74 6.00 
-185.18 -94.78 6.02 
-185.87 -97.37 5.77 
-185.81 -96.69 5.86 
-186.08 -97.67 5.77 
-186.03 -97.26 5.82 
-186.86 -98.92 6.18 
-187.29 -99.56 6.16 
-187.27 -99.27 6.20 
-187.14 -98.86 6.24 
-187.29 -98.17 5.92 
-187.56 -99.18 6.27 
-187.96 -99.22 6.18 
-188.27 -99.36 6.39 
-188.62 -98.63 6.12 
-189.73 -99.08 6.28 
-189.66 -98.92 6.29 
-190.05 -98.66 6.40 
-190.29 -98.66 6.45 
-191.53 -102.32 6.68 
-191.50 -102.01 6.72 
-191.34 -101.73 6.72 
-191.90 -103.14 6.66 
-191.73 -102.91 6.65 
-191.65 -102.55 6.68 
-192.17 -103.03 6.74 
-193.36 -102.60 7.10 
-193.76 -102.81 7.17 
-194.70 -102.66 6.97 
-194.49 -101.71 7.02 
-195.23 -104.03 7.41 
-204.18 -84.62 8.78 
-204.46 -84.71 8.82 
-204.62 -81.83 8.87 
-206.88 -83.55 9.33 
-207.66 -83.98 9.45 
-185.61 -94.24 6.17 
-186.12 -97.74 6.23 
-186.08 -93.91 6.32 
-186.82 -98.14 6.29 
-186.93 -98.89 6.63 
-187.98 -98.77 6.42 
-191.70 -102.58 7.10 
-191.71 -102.16 7.17 
-192.17 -102.75 7.20 
-193.36 -102.82 7.51 
-193.38 -102.72 7.53 
-193.50 -103.05 7.51 
-194.99 -102.25 7.56 
-195.02 -102.02 7.60 
-195.02 -104.51 7.74 
-195.37 -104.11 7.44 
-195.40 -103.70 7.49 
-195.24 -103.60 7.46 
-204.61 -85.10 9.42 
-184.38 -93.14 6.68 
-185.29 -95.06 6.52 
-185.42 -92.87 6.90 
-185.71 -97.68 6.88 
-186.03 -97.89 6.73 
-186.37 -98.09 6.67 
-186.84 -98.24 6.74 
-187.47 -98.86 6.75 
-187.77 -98.77 6.83 
-188.19 -99.04 6.87 
-188.54 -99.25 7.12 
-192.10 -100.22 7.59 
-194.05 -102.90 7.69 
-196.18 -104.35 8.10 
-196.71 -104.09 8.29 
-203.80 -81.03 9.59 
-204.22 -84.75 9.76 
-204.40 -81.76 9.65 
-205.03 -82.35 9.72 
-205.86 -83.09 9.83 
-206.58 -83.62 9.93 
-208.02 -84.56 10.15 
-208.23 -84.69 10.18 
-183.61 -95.58 6.64 
-183.88 -94.50 6.89 
-184.80 -94.92 7.19 
-185.70 -93.11 6.99 
-205.98 -83.06 10.24 
-206.18 -83.21 10.26 
-206.72 -83.55 10.34 
-207.69 -84.15 10.48 
-203.63 -81.01 10.56 
-206.69 -83.76 10.93 
-207.40 -84.24 11.04 
-207.60 -84.38 11.06 
-208.09 -84.69 11.14 
-208.36 -84.82 11.19 
-207.57 -84.11 11.50 
-202.70 -80.16 11.47 
-203.09 -80.66 11.49 
-202.91 -80.39 11.49 
-203.48 -81.11 11.52 
-204.31 -81.96 11.60 
-204.49 -82.11 11.62 
-204.95 -82.55 11.67 
-204.73 -82.36 11.65 
-206.31 -83.59 11.86 
-197.86 -80.68 11.34 
-198.20 -81.17 11.34 
-198.03 -80.90 11.34 
-198.46 -81.63 11.32 
-199.00 -82.39 11.33 
-198.80 -82.09 11.33 
-199.33 -82.81 11.34 
-204.72 -82.34 12.14 
-208.48 -84.74 12.68 
-208.22 -84.60 12.63 
-197.53 -80.06 11.36 
-197.72 -80.34 11.36 
-199.33 -83.20 11.88 
-199.15 -82.95 11.88 
-199.55 -83.42 11.89 
-204.87 -87.25 12.52 
-197.42 -80.44 11.91 
-197.61 -80.75 11.90 
-184.03 -93.93 3.58 
-184.39 -94.00 3.75 
-186.99 -96.70 4.15 
-208.15 -84.19 7.36 
-183.81 -99.72 3.88 
-183.83 -94.65 4.24 
-183.92 -93.95 4.14 
-184.30 -94.93 4.30 
-184.87 -94.89 4.39 
-185.77 -96.30 4.30 
-186.05 -96.31 4.34 
-185.95 -96.01 4.34 
-186.40 -96.00 4.41 
-188.41 -97.53 4.65 
-193.42 -101.28 5.29 
-183.69 -99.71 4.23 
-183.88 -95.66 4.64 
-184.23 -94.50 4.72 
-184.28 -94.15 4.35 
-184.61 -96.19 4.71 
-184.72 -96.17 4.73 
-185.56 -96.17 4.87 
-186.78 -96.38 5.05 
-187.35 -97.02 5.09 
-187.21 -96.66 5.10 
-187.57 -98.68 4.98 
-187.50 -97.42 5.08 
-188.10 -98.98 5.05 
-188.15 -97.56 5.18 
-187.88 -96.95 5.19 
-188.37 -98.67 5.13 
-188.32 -97.49 5.18 
-188.98 -97.91 5.30 
-189.17 -98.37 5.30 
-189.22 -97.70 5.36 
-192.58 -101.66 5.68 
-192.42 -101.29 5.68 
-192.82 -101.87 5.72 
-193.04 -101.80 5.77 
-193.49 -102.37 5.82 
-193.38 -102.13 5.81 
-193.28 -101.69 5.82 
-193.70 -102.34 5.86 
-193.56 -102.06 5.79 
-193.60 -101.63 5.89 
-194.21 -102.87 5.93 
-193.94 -100.78 5.88 
-194.46 -101.84 6.06 
-198.56 -82.97 6.94 
-203.57 -80.12 7.60 
-204.28 -81.11 7.68 
-204.86 -81.78 7.75 
-205.42 -82.36 7.82 
-207.37 -83.98 8.08 
-183.61 -99.68 4.77 
-183.71 -96.33 5.00 
-183.60 -94.07 4.70 
-183.70 -94.75 4.70 
-183.86 -94.38 4.76 
-184.32 -96.11 5.12 
-184.34 -94.22 4.85 
-184.22 -94.08 4.85 
-184.55 -94.64 4.85 
-185.10 -94.80 4.92 
-185.48 -95.45 4.92 
-186.21 -97.96 5.23 
-186.28 -97.30 5.32 
-186.92 -98.77 5.27 
-186.84 -98.26 5.31 
-186.73 -97.97 5.32 
-186.63 -97.21 5.39 
-187.27 -99.56 5.24 
-187.22 -99.14 5.28 
-187.26 -98.78 5.36 
-187.31 -97.83 5.44 
-187.95 -99.40 5.39 
-188.43 -99.61 5.46 
-188.54 -98.40 5.61 
-188.21 -97.45 5.64 
-189.05 -100.18 5.52 
-188.66 -99.65 5.50 
-188.87 -99.23 5.58 
-188.78 -98.84 5.61 
-188.60 -98.31 5.63 
-188.59 -97.72 5.69 
-189.18 -100.10 5.55 
-189.16 -99.00 5.66 
-188.98 -97.70 5.76 
-189.46 -99.91 5.63 
-190.07 -99.79 5.76 
-190.22 -99.76 5.80 
-190.23 -98.96 5.88 
-190.91 -98.82 6.03 
-191.78 -102.12 5.85 
-191.73 -101.76 5.90 
-191.80 -100.73 6.02 
-191.72 -100.55 6.00 
-192.18 -102.80 5.91 
-192.06 -102.59 5.90 
-191.98 -102.06 5.93 
-191.86 -100.85 6.03 
-192.60 -102.95 5.99 
-193.00 -103.19 6.06 
-193.03 -102.91 6.09 
-192.87 -102.37 6.07 
-192.81 -101.21 6.20 
-193.26 -103.58 6.08 
-193.35 -103.15 6.14 
-193.26 -101.18 6.21 
-193.91 -103.11 6.27 
-193.62 -102.71 6.15 
-193.57 -101.69 6.32 
-193.96 -103.23 6.27 
-193.95 -102.81 6.30 
-194.20 -102.10 6.31 
-194.70 -103.02 6.46 
-194.52 -102.81 6.38 
-194.81 -103.19 6.47 
-194.79 -102.80 6.49 
-195.59 -104.42 6.41 
-196.09 -104.18 6.69 
-203.08 -79.99 7.81 
-202.88 -79.75 7.79 
-203.38 -80.40 7.84 
-203.90 -81.00 7.90 
-204.31 -81.43 7.95 
-204.10 -81.20 7.93 
-207.34 -83.72 8.36 
-207.58 -83.87 8.39 
-207.95 -84.11 8.45 
-208.34 -84.30 8.50 
-183.65 -95.79 5.08 
-183.70 -92.47 5.45 
-184.23 -94.29 5.32 
-184.15 -93.98 5.35 
-184.68 -95.48 5.26 
-184.91 -95.45 5.30 
-185.08 -94.58 5.43 
-184.98 -94.33 5.44 
-185.40 -95.20 5.41 
-185.20 -94.61 5.45 
-186.03 -97.01 5.75 
-185.73 -95.28 5.46 
-186.39 -97.61 5.74 
-186.39 -96.14 5.47 
-186.09 -95.22 5.53 
-186.08 -92.94 5.72 
-186.84 -97.44 5.84 
-186.49 -96.42 5.46 
-186.45 -94.07 5.72 
-187.08 -99.06 5.67 
-186.94 -97.96 5.79 
-187.69 -99.75 5.70 
-187.60 -99.35 5.73 
-187.39 -98.49 5.89 
-188.02 -100.25 5.70 
-187.95 -99.89 5.73 
-188.67 -99.93 5.87 
-189.16 -99.85 5.98 
-189.57 -100.05 6.05 
-189.49 -99.86 6.05 
-191.31 -101.81 6.23 
-191.59 -102.46 6.20 
-191.56 -102.13 6.23 
-191.74 -101.44 6.36 
-191.48 -100.12 6.45 
-192.11 -103.40 6.22 
-192.06 -102.97 6.26 
-192.04 -102.08 6.35 
-192.56 -103.23 6.35 
-192.32 -102.68 6.35 
-192.83 -103.60 6.38 
-192.82 -103.30 6.40 
-193.26 -100.06 6.40 
-193.03 -99.72 6.39 
-193.71 -103.41 6.61 
-194.06 -103.47 6.69 
-194.19 -102.44 6.83 
-195.26 -100.01 6.85 
-197.79 -82.32 7.42 
-198.55 -83.67 7.46 
-200.55 -86.02 7.67 
-201.00 -86.47 7.72 
-200.74 -86.21 7.69 
-201.36 -86.80 7.77 
-201.70 -87.13 7.81 
-201.59 -87.03 7.80 
-202.16 -87.54 7.87 
-201.97 -87.39 7.85 
-202.51 -87.84 7.92 
-202.34 -87.70 7.89 
-203.06 -88.27 8.00 
-203.38 -88.49 8.04 
-207.36 -90.58 8.96 
-207.99 -91.23 8.76 
-207.74 -91.12 8.72 
-208.25 -91.33 8.81 
-183.61 -95.55 5.54 
-183.92 -95.24 5.64 
-184.21 -96.09 5.56 
-184.78 -95.82 5.70 
-184.55 -95.65 5.68 
-185.12 -94.79 5.90 
-186.06 -93.85 6.22 
-186.57 -98.12 6.13 
-186.47 -98.02 6.13 
-187.30 -99.62 6.04 
-187.07 -98.91 6.10 
-187.08 -98.12 6.23 
-187.74 -99.77 6.11 
-187.48 -99.45 6.10 
-187.24 -98.01 6.28 
-188.36 -100.06 6.19 
-188.36 -100.03 6.20 
-189.52 -99.25 6.57 
-189.90 -98.84 6.72 
-191.73 -102.21 6.67 
-191.50 -100.59 6.87 
-192.20 -103.41 6.64 
-191.99 -102.98 6.64 
-191.95 -102.65 6.67 
-192.42 -103.48 6.68 
-192.55 -103.37 6.73 
-192.19 -101.85 6.83 
-193.76 -102.79 7.12 
-194.04 -102.84 7.18 
-194.59 -103.10 7.30 
-195.40 -103.83 7.44 
-195.47 -104.40 7.39 
-195.56 -103.93 7.47 
-195.50 -101.52 7.24 
-197.25 -104.26 7.42 
-206.68 -83.43 9.26 
-206.94 -83.59 9.30 
-184.25 -93.49 5.98 
-184.61 -95.70 6.16 
-184.39 -95.36 6.18 
-184.88 -95.55 6.23 
-184.82 -95.25 6.27 
-185.39 -95.21 6.38 
-185.57 -95.26 6.41 
-185.73 -94.95 6.49 
-185.63 -92.76 6.28 
-186.23 -98.16 6.48 
-186.22 -97.88 6.54 
-186.18 -96.63 6.30 
-185.99 -94.67 6.58 
-186.82 -98.71 6.51 
-186.62 -98.16 6.56 
-187.17 -99.50 6.44 
-187.23 -98.99 6.54 
-186.83 -98.30 6.58 
-187.52 -99.55 6.50 
-187.87 -99.30 6.62 
-188.30 -99.35 6.71 
-188.78 -99.73 6.75 
-188.95 -99.79 6.78 
-189.12 -98.09 6.66 
-191.75 -103.02 6.96 
-191.94 -102.44 7.10 
-192.00 -102.19 7.15 
-192.37 -102.99 7.14 
-193.55 -103.28 7.42 
-194.19 -102.02 7.32 
-195.23 -104.68 7.73 
-195.09 -104.49 7.71 
-195.02 -101.70 7.58 
-196.84 -104.17 7.80 
-203.45 -88.81 8.86 
-206.41 -90.59 9.34 
-207.29 -91.08 9.49 
-207.74 -91.34 9.57 
-207.56 -91.16 9.54 
-208.05 -91.42 9.63 
-183.62 -95.35 6.53 
-183.88 -95.42 6.56 
-184.48 -95.18 6.71 
-185.20 -95.03 6.87 
-186.26 -94.45 6.67 
-187.66 -99.19 6.81 
-192.50 -100.22 7.63 
-194.25 -101.70 7.84 
-197.73 -104.17 8.54 
-203.40 -80.44 9.52 
-204.55 -81.82 9.63 
-204.92 -82.20 9.67 
-204.72 -82.01 9.65 
-205.35 -82.63 9.72 
-205.13 -82.43 9.70 
-205.56 -82.82 9.75 
-206.16 -83.32 9.83 
-185.04 -94.93 6.96 
-191.97 -99.87 8.07 
-194.70 -101.41 8.47 
-206.78 -83.59 10.28 
-203.26 -80.43 10.48 
-204.01 -81.36 10.54 
-204.40 -81.81 10.58 
-204.21 -81.59 10.56 
-204.79 -82.16 10.62 
-204.59 -81.97 10.60 
-207.43 -84.33 10.98 
-208.43 -84.57 11.54 
-202.56 -79.70 11.41 
-203.00 -80.35 11.43 
-203.84 -81.40 11.48 
-203.66 -81.18 11.47 
-204.04 -81.63 11.50 
-204.42 -82.00 11.54 
-205.06 -82.63 11.61 
-205.28 -82.81 11.64 
-207.53 -84.49 11.97 
-197.78 -80.10 11.29 
-198.12 -80.64 11.29 
-197.93 -80.42 11.28 
-202.44 -80.02 11.82 
-202.26 -79.75 11.82 
-202.75 -80.37 11.84 
-206.71 -83.77 12.28 
-208.18 -84.62 12.51 
-198.09 -81.42 11.73 
-198.55 -82.10 11.72 
-198.37 -81.82 11.73 
-198.75 -82.30 11.73 
-207.13 -88.57 12.76 
-197.27 -80.05 11.78 
-197.46 -80.38 11.76 
-203.51 -86.95 12.53 
-203.90 -87.25 12.59 
-206.31 -88.75 13.02 
-206.49 -88.88 13.05 
-206.96 -89.12 13.15 
-207.49 -89.38 13.26 
-207.98 -89.62 13.37 
-207.67 -83.83 7.36 
-183.85 -99.79 3.92 
-184.00 -99.84 3.95 
-184.14 -93.77 4.16 
-184.31 -93.96 4.02 
-184.93 -94.74 4.23 
-186.18 -96.50 4.23 
-185.90 -96.41 4.19 
-186.11 -95.93 4.24 
-186.42 -95.80 4.29 
-187.14 -96.75 4.38 
-188.37 -97.58 4.55 
-193.76 -101.80 5.50 
-193.86 -101.86 5.52 
-203.50 -88.34 7.21 
-183.82 -99.82 4.44 
-183.91 -99.83 4.45 
-183.97 -95.31 4.49 
-184.06 -95.39 4.50 
-184.79 -96.09 4.57 
-184.63 -95.21 4.61 
-185.02 -95.90 4.62 
-185.21 -95.60 4.68 
-185.30 -95.88 4.67 
-185.40 -95.35 4.73 
-186.01 -95.66 4.82 
-187.22 -96.88 4.94 
-187.20 -96.59 4.96 
-187.78 -98.34 4.93 
-188.82 -98.59 5.12 
-188.52 -97.94 5.11 
-188.43 -97.62 5.03 
-188.48 -97.17 5.16 
-189.23 -98.69 5.19 
-188.80 -97.83 5.17 
-192.78 -101.49 5.74 
-192.72 -101.41 5.73 
-193.18 -102.11 5.78 
-193.21 -101.59 5.82 
-193.65 -102.49 5.87 
-193.67 -102.15 5.89 
-193.33 -101.62 5.85 
-193.43 -100.83 5.92 
-194.06 -102.79 5.94 
-193.91 -102.23 5.86 
-193.74 -101.83 5.92 
-193.64 -100.89 5.96 
-194.33 -102.84 6.00 
-202.82 -87.40 7.37 
-204.18 -80.79 7.54 
-204.69 -81.46 7.62 
-205.94 -82.85 7.80 
-206.67 -83.47 7.91 
-208.46 -84.80 8.20 
-208.24 -84.64 8.16 
-183.77 -99.80 4.77 
-184.03 -96.08 4.87 
-183.74 -95.84 4.84 
-183.88 -95.43 4.91 
-183.67 -94.05 4.54 
-184.25 -96.14 4.91 
-184.01 -95.44 4.93 
-184.48 -94.16 4.67 
-184.92 -95.71 5.07 
-185.11 -95.25 5.14 
-184.80 -94.41 4.71 
-186.47 -98.86 5.07 
-186.33 -98.25 5.06 
-185.86 -95.46 5.26 
-185.83 -94.77 4.86 
-186.74 -98.22 5.15 
-186.49 -96.91 5.23 
-187.25 -99.26 5.14 
-187.17 -98.89 5.16 
-187.05 -98.49 5.20 
-186.78 -96.46 5.33 
-186.60 -96.26 5.31 
-186.38 -94.75 4.96 
-187.58 -99.45 5.19 
-187.31 -98.18 5.26 
-187.23 -97.38 5.33 
-187.21 -97.00 5.35 
-187.87 -99.76 5.22 
-187.73 -99.24 5.24 
-187.44 -97.29 5.37 
-188.54 -100.13 5.32 
-188.47 -99.90 5.33 
-188.36 -99.01 5.39 
-188.90 -100.14 5.40 
-188.84 -99.92 5.41 
-188.51 -98.10 5.51 
-188.69 -97.77 5.58 
-188.48 -97.57 5.53 
-189.34 -100.04 5.50 
-188.90 -97.85 5.58 
-189.48 -99.31 5.57 
-190.09 -98.80 5.78 
-190.08 -98.54 5.80 
-191.73 -102.25 5.84 
-192.15 -102.51 5.92 
-192.05 -102.27 5.92 
-191.96 -101.86 5.86 
-191.87 -100.83 5.99 
-192.30 -102.77 5.94 
-192.22 -102.68 5.93 
-192.18 -102.25 5.95 
-192.16 -101.22 6.03 
-192.15 -100.98 6.04 
-193.35 -103.90 6.11 
-193.25 -103.48 6.11 
-193.36 -103.29 6.15 
-193.24 -102.93 6.15 
-193.16 -102.50 6.13 
-193.23 -102.00 6.22 
-193.87 -103.46 6.26 
-193.79 -102.94 6.15 
-193.40 -101.30 6.31 
-194.15 -103.46 6.33 
-193.99 -103.13 6.32 
-193.82 -101.85 6.37 
-193.77 -101.62 6.37 
-194.54 -103.37 6.43 
-194.60 -103.19 6.46 
-194.50 -102.82 6.31 
-194.81 -103.26 6.51 
-196.01 -104.31 6.54 
-196.12 -104.47 6.55 
-195.96 -103.83 6.56 
-200.52 -85.86 7.56 
-200.92 -86.33 7.61 
-200.68 -86.05 7.58 
-201.50 -86.93 7.69 
-201.33 -86.74 7.67 
-201.83 -87.27 7.74 
-201.66 -87.07 7.72 
-202.10 -87.50 7.78 
-202.79 -88.10 7.89 
-202.53 -87.89 7.85 
-203.12 -88.39 7.94 
-204.03 -88.69 8.11 
-203.34 -80.24 7.68 
-203.17 -80.00 7.66 
-202.98 -79.75 7.64 
-203.93 -80.96 7.76 
-203.73 -80.73 7.74 
-203.54 -80.48 7.71 
-204.33 -81.40 7.82 
-204.14 -81.16 7.79 
-204.77 -81.83 7.88 
-204.56 -81.62 7.85 
-205.07 -82.12 7.93 
-205.37 -82.36 7.97 
-206.08 -82.92 8.08 
-206.42 -83.16 8.13 
-207.37 -83.78 8.28 
-207.87 -84.12 8.36 
-208.42 -84.46 8.45 
-208.18 -84.33 8.41 
-183.63 -99.73 5.10 
-183.69 -96.19 5.22 
-184.24 -95.96 5.35 
-183.94 -95.40 5.37 
-183.81 -94.09 5.03 
-184.70 -96.22 5.40 
-184.48 -95.97 5.39 
-185.25 -95.19 5.18 
-185.01 -94.34 5.22 
-185.21 -94.03 5.29 
-185.60 -95.34 5.23 
-185.68 -95.09 5.27 
-186.43 -97.02 5.70 
-187.27 -99.51 5.50 
-186.84 -97.92 5.61 
-186.66 -97.35 5.64 
-186.35 -92.94 5.61 
-187.62 -99.39 5.59 
-187.58 -99.22 5.60 
-188.14 -100.20 5.99 
-187.89 -99.85 5.59 
-188.03 -99.30 5.69 
-188.36 -100.21 6.04 
-188.18 -99.99 5.64 
-188.79 -100.16 5.83 
-188.55 -99.73 5.75 
-188.15 -96.10 5.64 
-189.06 -100.22 5.81 
-189.10 -99.93 5.85 
-189.40 -100.08 5.90 
-189.37 -99.92 5.91 
-189.86 -99.65 6.06 
-189.95 -98.89 6.16 
-190.10 -98.97 6.18 
-191.67 -102.25 6.22 
-191.38 -101.38 6.20 
-190.90 -98.42 6.43 
-192.08 -103.37 6.60 
-191.87 -102.82 6.21 
-191.75 -102.64 6.20 
-191.80 -102.24 6.25 
-192.44 -103.35 6.41 
-192.33 -102.20 6.39 
-192.09 -100.86 6.40 
-192.05 -100.72 6.46 
-192.93 -103.63 6.41 
-192.71 -103.37 6.38 
-193.78 -103.35 6.66 
-194.22 -103.74 6.74 
-194.02 -103.51 6.71 
-194.06 -103.26 6.74 
-194.30 -103.80 6.76 
-195.66 -104.62 7.06 
-195.44 -101.15 6.80 
-196.59 -104.33 7.33 
-197.31 -81.19 7.19 
-198.03 -82.51 7.26 
-198.44 -83.05 7.30 
-198.74 -83.47 7.34 
-199.49 -84.57 7.42 
-205.61 -89.62 8.38 
-206.16 -90.03 8.73 
-207.94 -90.93 8.80 
-207.70 -90.80 8.76 
-208.44 -91.18 8.89 
-208.25 -91.09 8.86 
-183.72 -94.11 5.50 
-184.72 -96.35 5.83 
-185.25 -95.08 5.65 
-185.93 -97.47 6.04 
-185.57 -95.68 5.64 
-185.68 -95.47 5.68 
-186.66 -98.79 5.86 
-186.44 -97.87 5.94 
-186.31 -97.44 6.03 
-185.96 -95.46 5.74 
-187.04 -99.20 5.88 
-186.87 -99.01 5.87 
-187.46 -99.06 5.99 
-187.74 -99.61 6.37 
-187.73 -99.27 6.02 
-187.74 -98.11 6.19 
-188.32 -98.54 6.26 
-189.14 -99.93 6.26 
-189.38 -99.54 6.37 
-190.32 -98.89 6.68 
-191.49 -102.21 6.57 
-191.31 -101.65 6.58 
-191.92 -103.24 6.95 
-191.94 -103.09 6.97 
-191.88 -102.10 6.68 
-191.63 -102.01 6.63 
-192.05 -102.25 6.71 
-192.01 -101.05 6.84 
-192.80 -103.64 6.77 
-192.73 -103.42 6.77 
-194.95 -103.08 7.43 
-195.55 -104.62 7.46 
-195.66 -104.03 7.55 
-195.96 -104.67 7.58 
-195.99 -104.03 7.64 
-195.54 -101.68 7.26 
-195.64 -100.90 7.35 
-199.98 -85.58 8.29 
-200.38 -86.06 8.34 
-200.13 -85.77 8.31 
-200.63 -86.26 8.38 
-201.35 -87.11 8.47 
-201.11 -86.84 8.44 
-201.63 -87.35 8.51 
-203.63 -88.98 8.83 
-204.41 -89.46 8.97 
-207.08 -83.71 9.21 
-183.58 -94.96 5.83 
-184.10 -95.58 5.83 
-184.70 -95.82 5.90 
-184.53 -93.64 6.20 
-185.34 -95.19 6.12 
-185.04 -94.17 6.31 
-185.44 -94.87 6.19 
-186.58 -97.96 6.37 
-187.20 -98.78 6.38 
-187.16 -98.38 6.43 
-187.68 -99.49 6.37 
-187.60 -99.16 6.58 
-188.18 -99.49 6.49 
-188.20 -99.19 6.54 
-188.24 -98.85 6.61 
-188.63 -99.84 6.55 
-188.62 -99.38 6.62 
-191.85 -102.23 7.06 
-192.06 -102.79 7.05 
-192.07 -102.62 7.07 
-192.84 -102.96 7.25 
-193.59 -102.91 7.48 
-192.99 -101.15 7.52 
-193.69 -102.98 7.50 
-194.22 -103.38 7.62 
-194.21 -100.70 7.47 
-205.20 -85.69 9.37 
-208.05 -91.65 9.64 
-184.51 -95.04 6.45 
-184.88 -95.09 6.70 
-185.13 -94.66 6.64 
-186.80 -96.31 6.86 
-187.22 -96.51 6.76 
-194.24 -101.84 7.80 
-204.38 -81.51 9.47 
-205.68 -82.93 9.65 
-206.92 -83.71 10.17 
-207.87 -84.63 10.01 
-184.32 -95.17 7.13 
-205.54 -82.91 10.58 
-203.67 -81.02 11.30 
-203.50 -80.86 11.27 
-203.87 -81.31 11.31 
-204.43 -81.97 11.38 
-205.21 -82.75 11.48 
-206.03 -83.49 11.60 
-207.34 -84.47 11.83 
-207.09 -84.30 11.78 
-207.55 -84.63 11.86 
-202.82 -79.84 11.23 
-203.15 -80.37 11.25 
-203.00 -80.10 11.24 
-203.48 -80.79 11.28 
-200.29 -83.79 11.99 
-200.71 -84.32 12.01 
-200.45 -84.02 11.99 
-201.04 -84.72 12.04 
-201.82 -85.55 12.13 
-201.45 -85.15 12.09 
-202.37 -86.05 12.21 
-203.29 -86.86 12.35 
-205.34 -88.29 12.73 
-205.55 -88.42 12.77 
-199.79 -83.19 11.95 
-200.04 -83.50 11.96 
-207.35 -89.47 13.17 
-207.83 -89.71 13.28 
-208.02 -89.83 13.32 
-207.81 -83.93 7.40 
-184.10 -99.91 4.08 
-184.21 -94.08 3.97 
-184.48 -94.19 4.08 
-186.18 -96.48 4.20 
-193.96 -101.98 5.53 
-203.54 -88.39 7.23 
-203.85 -88.55 7.28 
-183.97 -99.89 4.38 
-183.62 -95.62 4.34 
-183.86 -95.69 4.38 
-183.66 -94.71 4.43 
-184.31 -95.98 4.43 
-184.24 -95.08 4.50 
-184.84 -96.07 4.52 
-184.40 -94.17 4.56 
-184.19 -93.91 4.58 
-184.83 -94.75 4.63 
-184.73 -94.62 4.62 
-185.71 -95.90 4.69 
-185.45 -95.37 4.69 
-185.09 -94.67 4.68 
-185.00 -94.13 4.61 
-185.86 -95.77 4.73 
-185.69 -95.52 4.72 
-186.08 -95.53 4.79 
-187.47 -96.50 4.97 
-188.02 -97.35 5.01 
-188.61 -98.05 5.08 
-188.48 -97.49 5.09 
-189.01 -98.54 5.12 
-188.99 -97.99 5.16 
-190.31 -98.42 5.39 
-190.24 -98.34 5.38 
-191.72 -101.96 5.74 
-192.07 -102.26 5.79 
-192.09 -101.93 5.82 
-192.53 -102.23 5.89 
-192.71 -101.59 5.55 
-193.03 -102.09 5.74 
-192.93 -101.54 5.75 
-193.48 -102.00 5.76 
-194.05 -102.96 6.04 
-194.14 -102.77 5.95 
-193.86 -102.26 5.86 
-193.80 -101.88 5.92 
-193.45 -101.31 5.88 
-194.45 -102.82 6.02 
-194.11 -102.35 5.79 
-193.85 -101.25 5.97 
-194.34 -101.16 6.08 
-202.97 -87.52 7.39 
-205.62 -85.77 7.67 
-204.55 -81.20 7.61 
-205.44 -82.30 7.74 
-205.26 -82.09 7.71 
-206.29 -83.16 7.87 
-205.99 -82.87 7.82 
-208.26 -84.70 8.18 
-183.92 -99.88 4.70 
-183.55 -95.64 4.75 
-183.93 -95.65 4.82 
-183.57 -95.12 4.82 
-184.42 -96.29 4.84 
-183.71 -94.14 4.93 
-184.67 -96.47 4.87 
-184.28 -94.35 5.02 
-184.93 -95.85 4.98 
-185.11 -95.38 5.05 
-185.77 -96.34 5.09 
-185.36 -95.71 5.07 
-185.27 -95.29 5.10 
-185.30 -94.72 5.14 
-186.81 -99.11 5.01 
-185.95 -96.49 5.11 
-185.92 -96.44 5.10 
-185.84 -95.65 5.17 
-185.74 -95.05 5.21 
-187.30 -99.66 5.42 
-187.05 -99.15 5.24 
-186.26 -96.08 5.21 
-186.85 -97.24 5.20 
-186.64 -96.40 5.23 
-186.81 -96.23 5.27 
-187.92 -99.47 5.21 
-187.76 -99.09 5.21 
-187.67 -98.38 5.26 
-187.55 -98.14 5.25 
-187.39 -97.48 5.29 
-187.38 -97.17 5.29 
-187.16 -96.56 5.30 
-188.40 -99.94 5.63 
-188.23 -99.14 5.30 
-188.77 -100.41 5.67 
-188.86 -100.04 5.54 
-188.94 -99.86 5.39 
-188.49 -98.29 5.40 
-189.21 -100.35 5.77 
-189.27 -100.11 5.62 
-189.08 -98.98 5.50 
-189.03 -98.35 5.55 
-188.99 -98.17 5.56 
-188.81 -97.73 5.50 
-189.48 -99.32 5.50 
-189.02 -97.92 5.58 
-190.05 -99.59 5.66 
-189.89 -98.57 5.71 
-190.09 -99.12 5.71 
-190.09 -98.59 5.75 
-191.84 -102.66 6.19 
-192.30 -102.95 6.09 
-192.40 -102.37 5.97 
-192.10 -101.41 5.97 
-192.00 -101.09 5.97 
-191.84 -100.74 5.86 
-192.31 -101.02 6.05 
-192.99 -101.32 6.05 
-193.50 -103.35 6.17 
-193.49 -102.78 6.21 
-193.30 -102.33 6.19 
-193.41 -101.93 6.25 
-193.11 -101.58 6.05 
-194.17 -103.28 6.34 
-194.06 -103.21 6.32 
-194.04 -102.53 6.18 
-193.83 -101.86 6.35 
-193.60 -101.47 6.16 
-193.48 -101.02 6.25 
-194.43 -102.62 6.45 
-194.12 -102.20 6.34 
-194.68 -102.88 6.30 
-195.97 -104.36 6.49 
-196.05 -103.96 6.53 
-199.64 -84.63 7.44 
-200.90 -86.30 7.61 
-200.71 -86.02 7.58 
-200.45 -85.73 7.55 
-201.38 -86.44 7.69 
-201.08 -86.46 7.63 
-201.71 -86.60 7.75 
-202.31 -87.16 7.84 
-202.06 -86.91 7.80 
-202.73 -87.54 7.91 
-202.48 -87.32 7.87 
-203.37 -88.10 8.01 
-203.06 -87.83 7.96 
-203.73 -88.39 8.07 
-203.56 -88.23 8.04 
-204.01 -88.60 8.11 
-203.29 -80.06 7.68 
-205.52 -89.61 8.37 
-203.85 -80.80 7.75 
-203.56 -80.45 7.71 
-204.13 -81.13 7.79 
-204.74 -81.77 7.88 
-204.43 -81.47 7.83 
-205.43 -82.40 7.98 
-205.15 -82.15 7.94 
-205.89 -82.77 8.05 
-205.60 -82.53 8.01 
-206.09 -82.93 8.08 
-206.80 -83.42 8.20 
-207.15 -83.66 8.25 
-207.61 -83.98 8.32 
-207.97 -84.19 8.38 
-183.60 -96.08 5.13 
-183.87 -96.18 5.16 
-183.76 -95.87 5.18 
-184.44 -96.45 5.23 
-183.92 -94.17 4.97 
-183.81 -94.08 4.96 
-184.69 -96.33 5.30 
-184.60 -96.26 5.29 
-184.26 -94.79 5.41 
-184.22 -94.15 5.01 
-184.82 -94.35 5.12 
-185.45 -95.69 5.53 
-185.89 -95.71 5.61 
-187.04 -99.21 5.79 
-186.94 -98.75 5.45 
-186.82 -98.67 5.44 
-186.79 -97.53 5.57 
-186.50 -97.30 5.54 
-186.19 -95.59 5.68 
-186.06 -95.57 5.66 
-185.86 -93.51 5.40 
-187.52 -99.44 5.87 
-187.19 -99.22 5.83 
-187.17 -98.94 5.48 
-188.05 -100.22 5.89 
-188.01 -100.00 5.91 
-187.55 -98.66 5.63 
-188.36 -100.34 5.95 
-188.22 -99.27 5.67 
-189.20 -99.98 5.81 
-189.56 -100.29 6.25 
-190.40 -99.46 6.15 
-191.45 -102.41 6.49 
-190.56 -99.47 6.19 
-190.37 -98.91 6.15 
-191.97 -102.92 6.58 
-191.60 -102.70 6.50 
-191.79 -102.33 6.40 
-192.50 -103.60 6.66 
-192.28 -103.46 6.62 
-192.08 -102.31 6.28 
-193.04 -103.87 6.79 
-192.87 -103.66 6.63 
-192.75 -103.39 6.37 
-192.48 -102.36 6.38 
-193.09 -103.76 6.43 
-193.18 -103.26 6.49 
-194.07 -103.73 6.69 
-194.16 -103.39 6.74 
-193.67 -101.96 6.73 
-194.41 -103.77 6.78 
-197.03 -79.94 7.19 
-197.67 -81.33 7.24 
-197.44 -80.91 7.22 
-198.61 -83.12 7.32 
-198.40 -82.73 7.30 
-198.21 -82.40 7.29 
-198.86 -83.49 7.35 
-207.55 -90.81 8.97 
-207.80 -90.95 8.78 
-208.27 -91.20 8.87 
-183.72 -95.34 5.68 
-184.05 -95.60 5.70 
-184.40 -94.15 5.52 
-184.97 -95.99 5.82 
-186.81 -98.93 5.89 
-186.64 -97.72 5.92 
-185.98 -94.43 5.79 
-185.58 -93.84 5.79 
-185.46 -92.34 5.93 
-187.43 -99.13 6.28 
-187.85 -99.62 6.30 
-187.71 -99.15 6.34 
-186.82 -94.29 5.97 
-188.17 -100.02 6.32 
-188.16 -99.33 6.42 
-188.01 -98.84 6.07 
-187.85 -97.25 6.25 
-188.87 -100.19 6.47 
-188.72 -99.90 6.48 
-189.32 -100.09 6.22 
-188.50 -97.82 6.32 
-188.34 -97.40 6.34 
-188.32 -96.86 6.41 
-189.53 -100.03 6.28 
-189.24 -99.35 6.29 
-190.18 -99.41 6.52 
-191.92 -103.47 6.89 
-191.65 -102.05 6.59 
-192.15 -103.30 6.97 
-192.11 -102.97 7.00 
-191.90 -101.15 6.76 
-192.95 -103.53 6.80 
-192.12 -101.08 6.82 
-193.25 -103.83 6.86 
-193.02 -102.28 6.94 
-195.28 -103.26 7.49 
-195.81 -104.26 7.57 
-197.12 -104.43 7.48 
-199.79 -85.25 8.26 
-199.53 -84.93 8.23 
-199.34 -84.68 8.20 
-200.87 -86.55 8.39 
-200.64 -86.28 8.36 
-200.55 -86.14 8.35 
-201.09 -86.79 8.42 
-202.67 -88.30 8.66 
-204.49 -81.56 8.81 
-206.64 -83.44 9.12 
-206.98 -83.64 9.18 
-207.33 -83.90 9.24 
-184.39 -95.69 6.19 
-184.90 -95.92 6.25 
-184.16 -92.58 6.19 
-185.07 -95.79 6.31 
-186.26 -98.04 6.35 
-186.70 -98.24 6.25 
-185.87 -94.56 6.22 
-187.06 -98.35 6.32 
-186.46 -93.39 6.52 
-188.89 -99.64 6.56 
-193.01 -100.95 7.51 
-193.83 -103.47 7.47 
-193.67 -103.19 7.45 
-194.37 -103.33 7.65 
-196.09 -104.55 8.08 
-197.36 -103.98 8.05 
-205.55 -85.89 9.43 
-208.08 -91.73 9.66 
-208.22 -91.88 9.68 
-184.67 -95.24 6.33 
-184.94 -94.08 6.58 
-185.83 -95.38 6.54 
-185.65 -94.51 6.78 
-186.37 -94.94 6.73 
-189.72 -96.99 7.18 
-192.22 -100.17 7.77 
-204.28 -81.63 9.74 
-204.94 -82.23 9.83 
-205.28 -82.47 9.59 
-206.48 -83.43 10.07 
-207.43 -84.38 9.93 
-185.83 -93.26 6.91 
-205.42 -85.87 10.30 
-204.96 -82.31 10.49 
-205.71 -83.05 10.59 
-206.34 -83.63 10.69 
-207.16 -84.30 10.83 
-207.89 -84.79 10.96 
-207.97 -84.41 11.29 
-203.04 -80.03 11.23 
-203.26 -80.31 11.25 
-204.24 -81.68 11.34 
-204.05 -81.47 11.31 
-203.89 -81.24 11.30 
-204.41 -81.91 11.35 
-202.48 -79.75 11.51 
-202.85 -80.26 11.53 
-202.67 -79.91 11.53 
-204.20 -81.77 11.67 
-203.81 -81.33 11.63 
-199.96 -83.24 11.92 
-200.59 -84.10 11.96 
-200.36 -83.80 11.94 
-200.97 -84.55 12.00 
-200.75 -84.28 11.98 
-201.49 -85.16 12.05 
-201.24 -84.89 12.02 
-202.08 -85.76 12.12 
-202.28 -85.96 12.15 
-203.17 -86.78 12.29 
-199.51 -82.58 11.91 
-184.42 -100.03 3.86 
-187.35 -96.77 4.19 
-188.18 -96.87 4.27 
-207.86 -84.23 7.54 
-184.11 -99.87 4.14 
-184.48 -93.70 4.25 
-186.75 -96.87 4.36 
-187.47 -97.08 4.47 
-189.00 -97.89 4.84 
-189.16 -97.98 4.87 
-193.45 -102.26 5.75 
-193.24 -101.68 5.74 
-194.03 -102.60 5.85 
-194.01 -102.27 5.86 
-193.85 -101.78 5.71 
-194.58 -103.25 5.94 
-194.06 -101.90 5.68 
-203.78 -88.38 7.40 
-203.53 -88.14 7.36 
-184.07 -99.84 4.44 
-184.05 -95.82 4.45 
-183.52 -94.55 4.46 
-184.46 -95.60 4.54 
-184.20 -95.07 4.54 
-183.81 -93.94 4.56 
-184.88 -95.76 4.61 
-184.80 -95.69 4.60 
-184.41 -94.76 4.60 
-184.00 -93.95 4.59 
-185.24 -95.47 4.70 
-184.67 -94.25 4.69 
-185.24 -94.86 4.66 
-187.04 -99.12 5.12 
-185.79 -95.30 4.81 
-185.48 -93.73 4.88 
-186.17 -94.98 4.91 
-188.04 -99.22 5.32 
-188.47 -99.17 5.37 
-188.32 -98.83 5.37 
-187.94 -97.54 5.06 
-187.65 -96.82 5.05 
-189.11 -99.92 5.50 
-188.24 -97.20 5.14 
-187.92 -96.93 5.10 
-187.79 -96.81 5.08 
-188.46 -97.18 5.19 
-189.07 -98.19 5.24 
-189.00 -97.89 5.25 
-189.48 -97.87 5.35 
-190.21 -98.24 5.47 
-190.04 -97.98 5.45 
-190.25 -97.81 5.51 
-192.62 -102.47 5.96 
-193.62 -103.97 6.08 
-193.59 -103.53 6.10 
-192.94 -101.98 5.84 
-192.57 -101.11 6.04 
-193.69 -102.56 5.99 
-193.55 -102.06 5.98 
-194.41 -103.61 6.28 
-194.33 -103.54 6.26 
-194.16 -102.65 6.09 
-193.86 -101.92 6.06 
-193.49 -100.74 6.03 
-193.19 -100.43 5.98 
-194.52 -103.68 6.30 
-194.48 -102.70 6.16 
-194.37 -102.65 6.14 
-194.11 -102.01 5.89 
-193.98 -101.34 6.11 
-195.16 -103.47 6.45 
-194.37 -100.72 6.23 
-205.67 -85.69 7.82 
-204.19 -80.55 7.68 
-204.51 -81.03 7.73 
-204.36 -80.78 7.71 
-205.58 -82.32 7.89 
-205.37 -82.13 7.97 
-205.14 -81.87 7.94 
-205.82 -82.66 8.16 
-205.69 -82.50 8.02 
-206.61 -83.42 8.28 
-206.31 -83.13 8.23 
-206.94 -83.62 8.22 
-207.73 -84.29 8.46 
-207.44 -84.07 8.41 
-208.26 -84.61 8.43 
-207.91 -84.40 8.49 
-183.99 -99.83 4.74 
-183.54 -95.65 4.78 
-183.77 -95.95 4.79 
-183.67 -95.47 4.82 
-184.30 -95.97 4.88 
-184.15 -95.33 4.92 
-183.74 -93.85 5.00 
-184.82 -96.19 4.96 
-184.68 -95.81 4.97 
-184.22 -94.76 4.98 
-184.33 -94.28 5.06 
-185.24 -96.19 5.03 
-185.01 -96.01 5.01 
-184.62 -94.34 5.10 
-185.85 -96.43 5.14 
-184.99 -94.49 5.15 
-186.88 -99.08 5.44 
-186.04 -96.57 5.16 
-186.00 -96.33 5.18 
-185.84 -95.55 5.20 
-185.74 -94.85 5.27 
-187.63 -99.62 5.55 
-187.50 -99.26 5.56 
-187.29 -98.98 5.54 
-187.26 -98.37 5.61 
-186.96 -98.25 5.56 
-187.72 -98.85 5.29 
-187.18 -96.51 5.39 
-188.82 -100.41 5.74 
-188.16 -99.06 5.36 
-188.14 -98.66 5.39 
-187.79 -98.13 5.37 
-187.91 -97.96 5.41 
-187.90 -97.48 5.45 
-187.52 -97.22 5.40 
-187.46 -96.78 5.37 
-188.90 -100.45 5.76 
-188.84 -99.74 5.63 
-188.88 -99.29 5.50 
-187.89 -97.31 5.41 
-187.86 -97.02 5.43 
-189.44 -100.27 5.91 
-189.32 -99.92 5.54 
-189.08 -99.60 5.52 
-188.82 -98.68 5.47 
-188.91 -98.43 5.58 
-188.50 -97.21 5.55 
-189.64 -100.34 5.95 
-189.25 -98.27 5.64 
-189.00 -97.88 5.65 
-188.92 -97.54 5.62 
-189.95 -99.58 5.71 
-189.85 -98.52 5.68 
-189.64 -98.18 5.76 
-190.41 -99.10 5.86 
-191.77 -102.68 6.28 
-191.89 -102.42 6.33 
-191.85 -102.20 6.34 
-190.60 -99.24 5.77 
-192.53 -103.61 6.41 
-192.31 -102.91 6.40 
-192.03 -102.58 6.35 
-192.28 -101.13 6.14 
-193.44 -102.82 6.31 
-192.85 -100.42 6.33 
-194.16 -103.29 6.47 
-194.07 -103.16 6.45 
-194.58 -103.88 6.69 
-194.68 -103.40 6.59 
-194.54 -102.90 6.58 
-194.07 -101.97 6.30 
-194.04 -100.82 6.37 
-195.32 -103.07 6.51 
-194.93 -101.52 6.52 
-196.37 -104.41 6.97 
-199.84 -84.17 7.61 
-199.68 -83.97 7.59 
-200.20 -84.64 7.66 
-199.98 -84.38 7.63 
-201.20 -85.86 7.79 
-200.97 -85.60 7.76 
-200.67 -85.23 7.72 
-201.85 -86.57 7.89 
-201.57 -86.27 7.85 
-201.36 -86.03 7.82 
-202.27 -86.97 7.96 
-202.01 -86.74 7.92 
-202.96 -87.62 8.07 
-202.61 -87.29 8.01 
-203.57 -88.11 8.17 
-203.29 -87.89 8.12 
-203.96 -88.40 8.24 
-203.76 -88.27 8.20 
-204.44 -88.75 8.32 
-204.15 -88.54 8.27 
-205.54 -89.49 8.51 
-205.98 -89.74 8.59 
-205.75 -89.62 8.55 
-204.02 -80.32 7.90 
-203.86 -80.09 7.88 
-204.79 -81.48 8.00 
-204.53 -81.08 7.97 
-204.30 -80.77 7.94 
-204.19 -80.55 7.92 
-184.11 -96.41 5.19 
-183.82 -95.88 5.22 
-184.51 -96.26 5.29 
-184.22 -96.01 5.27 
-185.04 -95.67 5.47 
-184.28 -94.05 5.53 
-186.96 -98.85 5.85 
-186.87 -98.55 5.88 
-186.56 -97.49 5.56 
-185.58 -94.35 5.73 
-187.34 -99.20 5.90 
-186.79 -97.97 5.94 
-186.12 -95.40 5.72 
-188.32 -100.33 5.99 
-188.06 -99.89 5.98 
-187.98 -99.51 6.01 
-186.42 -95.34 5.79 
-188.34 -100.24 6.00 
-188.38 -99.70 6.08 
-187.99 -99.01 6.08 
-186.36 -93.32 5.55 
-189.16 -100.08 6.23 
-189.10 -99.44 5.91 
-189.84 -100.10 6.41 
-189.59 -99.96 6.36 
-192.20 -103.62 6.69 
-192.09 -103.29 6.68 
-191.83 -102.84 6.65 
-191.69 -102.48 6.65 
-191.64 -102.24 6.66 
-192.31 -103.41 6.74 
-192.44 -103.05 6.81 
-192.21 -102.54 6.79 
-191.81 -101.80 6.36 
-192.91 -103.71 6.88 
-192.77 -103.48 6.87 
-192.62 -102.25 6.54 
-192.09 -100.62 6.54 
-193.13 -103.40 6.59 
-194.41 -103.77 6.91 
-194.43 -103.65 6.92 
-194.38 -103.19 6.94 
-195.95 -104.46 7.29 
-196.09 -101.11 7.26 
-197.68 -81.26 7.34 
-197.49 -80.84 7.32 
-197.30 -80.41 7.31 
-197.17 -80.11 7.30 
-198.21 -82.25 7.39 
-198.03 -81.93 7.37 
-197.81 -81.52 7.35 
-197.70 -81.33 7.63 
-197.56 -80.88 7.34 
-198.96 -83.31 7.48 
-198.73 -83.19 7.44 
-199.45 -83.59 7.56 
-199.26 -83.30 7.54 
-206.17 -89.88 8.63 
-207.41 -90.58 8.86 
-207.93 -90.90 8.95 
-207.78 -90.75 8.93 
-183.85 -95.25 5.71 
-184.75 -96.00 5.78 
-184.14 -94.46 5.89 
-186.65 -97.75 5.94 
-186.41 -97.10 5.98 
-187.16 -98.55 6.32 
-186.72 -97.82 5.94 
-187.99 -99.92 6.35 
-187.87 -99.63 6.33 
-187.57 -99.33 6.30 
-187.27 -97.96 6.05 
-188.19 -99.89 6.38 
-187.81 -98.87 6.44 
-188.77 -100.23 6.48 
-187.06 -94.30 6.05 
-188.94 -99.28 6.67 
-189.13 -98.07 6.48 
-189.81 -98.72 6.57 
-192.27 -103.44 7.10 
-192.24 -103.20 7.12 
-192.20 -102.81 7.15 
-191.79 -101.97 7.12 
-192.98 -103.46 6.93 
-193.30 -103.75 7.00 
-192.53 -100.78 7.06 
-194.17 -103.62 7.27 
-195.73 -104.66 7.66 
-195.86 -104.32 7.72 
-195.86 -104.12 7.73 
-195.38 -103.14 7.66 
-195.71 -101.95 7.39 
-197.42 -103.88 7.74 
-200.08 -85.44 8.40 
-199.83 -85.19 8.37 
-201.88 -87.39 8.66 
-201.77 -87.15 8.65 
-202.23 -87.72 8.71 
-204.25 -89.28 9.07 
-204.91 -81.73 8.97 
-206.04 -83.06 9.12 
-183.55 -95.45 6.04 
-184.17 -96.09 6.05 
-184.64 -96.18 6.14 
-183.59 -93.20 5.98 
-185.02 -96.30 6.20 
-185.25 -96.07 6.29 
-185.42 -95.58 6.41 
-184.80 -94.26 6.10 
-186.53 -97.71 6.30 
-185.24 -94.08 6.21 
-186.81 -97.28 6.52 
-186.60 -97.08 6.42 
-185.81 -95.14 6.57 
-186.93 -97.50 6.43 
-189.87 -99.54 6.88 
-189.40 -98.22 6.95 
-193.73 -103.03 7.60 
-194.81 -102.87 7.96 
-197.47 -103.96 8.23 
-205.50 -85.77 9.54 
-205.23 -85.53 9.50 
-208.11 -91.60 9.81 
-185.56 -95.38 6.57 
-185.85 -94.64 6.66 
-186.38 -94.91 6.77 
-186.49 -94.74 6.79 
-186.70 -94.51 6.87 
-188.01 -97.32 7.21 
-196.17 -104.53 8.25 
-205.45 -85.82 9.77 
-204.52 -81.50 9.60 
-204.25 -80.97 9.85 
-204.75 -81.73 9.90 
-205.81 -82.92 9.79 
-206.59 -83.60 9.91 
-207.43 -84.29 10.06 
-207.27 -84.14 10.03 
-207.77 -84.54 10.34 
-185.16 -94.65 7.11 
-185.69 -93.71 7.37 
-205.24 -85.73 10.38 
-205.10 -85.50 10.36 
-203.36 -80.02 10.41 
-204.36 -81.49 10.51 
-203.84 -80.76 10.46 
-205.07 -82.28 10.61 
-205.66 -82.90 10.70 
-205.20 -82.37 10.90 
-205.96 -83.12 11.00 
-206.43 -83.61 10.82 
-207.13 -84.11 10.95 
-207.99 -84.74 11.10 
-204.10 -80.96 10.78 
-203.61 -80.15 10.75 
-204.67 -81.67 10.85 
-203.65 -80.80 11.37 
-203.02 -79.79 11.32 
-204.37 -81.73 11.45 
-204.17 -81.46 11.43 
-204.74 -82.14 11.49 
-203.27 -79.98 11.68 
-203.60 -80.53 11.69 
-200.19 -83.46 12.00 
-199.96 -83.15 11.98 
-199.81 -82.91 11.98 
-200.81 -84.22 12.06 
-201.38 -84.94 12.11 
-201.14 -84.59 12.09 
-201.89 -85.47 12.18 
-201.63 -85.21 12.14 
-202.47 -86.06 12.26 
-202.30 -85.89 12.24 
-205.60 -88.44 12.86 
-188.07 -97.40 4.27 
-188.00 -96.86 4.27 
-208.12 -84.22 7.54 
-184.37 -100.11 4.12 
-184.45 -94.23 4.02 
-186.35 -96.70 4.25 
-187.10 -96.86 4.37 
-189.31 -98.30 4.85 
-189.23 -98.21 4.84 
-189.45 -98.30 4.88 
-193.61 -102.28 5.74 
-193.11 -101.89 5.65 
-194.20 -102.78 5.84 
-193.67 -102.05 5.76 
-193.72 -101.82 5.78 
-193.28 -101.38 5.71 
-194.50 -103.03 5.89 
-194.17 -102.23 5.69 
-194.10 -102.07 5.68 
-194.71 -101.98 5.97 
-196.12 -104.28 6.18 
-196.38 -104.25 6.23 
-184.29 -100.11 4.49 
-183.64 -95.42 4.34 
-183.76 -95.38 4.37 
-183.91 -94.20 4.49 
-183.68 -94.13 4.45 
-184.85 -95.78 4.54 
-184.59 -95.00 4.55 
-184.37 -94.42 4.56 
-184.17 -94.19 4.54 
-184.91 -94.65 4.61 
-184.64 -94.26 4.51 
-185.50 -95.27 4.70 
-185.24 -94.40 4.72 
-185.63 -94.97 4.75 
-187.77 -98.63 5.19 
-187.52 -97.67 5.21 
-186.36 -94.73 4.91 
-187.87 -98.07 5.25 
-186.43 -94.79 4.91 
-189.20 -98.16 5.23 
-188.85 -97.81 5.04 
-189.42 -98.29 5.35 
-192.39 -102.57 5.84 
-190.07 -97.75 5.44 
-192.31 -102.15 5.85 
-191.85 -100.66 5.85 
-190.43 -97.88 5.51 
-193.32 -103.41 6.00 
-193.29 -103.00 6.01 
-193.64 -103.10 6.08 
-193.56 -102.25 6.12 
-194.25 -103.06 6.10 
-193.75 -102.39 6.01 
-194.78 -103.26 6.33 
-194.63 -103.04 6.19 
-194.14 -102.27 6.10 
-194.08 -101.99 6.14 
-194.03 -101.60 6.26 
-193.70 -101.35 6.20 
-193.64 -100.81 5.93 
-195.21 -103.05 6.44 
-194.92 -102.90 6.38 
-194.57 -101.80 5.95 
-194.35 -101.25 6.20 
-204.88 -81.85 7.94 
-204.60 -81.48 7.90 
-204.32 -81.18 7.86 
-204.06 -80.83 7.83 
-204.12 -80.12 7.63 
-203.96 -79.95 7.61 
-205.54 -82.30 7.84 
-205.19 -81.99 7.89 
-205.04 -81.65 7.76 
-204.80 -81.29 7.73 
-204.62 -80.98 7.70 
-206.27 -83.09 7.95 
-206.13 -82.95 8.03 
-205.82 -82.61 7.88 
-207.03 -83.84 8.07 
-206.74 -83.56 8.02 
-206.44 -83.28 7.98 
-207.36 -83.97 8.23 
-208.06 -84.35 8.45 
-208.30 -84.47 8.49 
-184.13 -100.03 4.96 
-183.84 -95.39 4.78 
-184.73 -96.40 4.85 
-184.53 -95.76 4.87 
-184.29 -95.55 4.85 
-184.02 -95.04 4.81 
-183.83 -94.49 4.87 
-185.20 -96.72 4.91 
-184.32 -94.53 4.96 
-184.29 -94.24 4.92 
-183.79 -93.78 4.88 
-185.66 -96.32 5.04 
-185.21 -95.36 4.99 
-184.80 -94.56 5.04 
-184.74 -94.53 5.01 
-187.69 -99.90 5.48 
-187.56 -99.65 5.48 
-187.22 -99.44 5.42 
-186.88 -98.52 5.45 
-186.52 -98.13 5.38 
-186.13 -96.38 5.13 
-185.70 -96.12 5.04 
-185.30 -95.34 5.06 
-187.88 -99.98 5.52 
-187.64 -99.15 5.55 
-186.85 -97.28 5.53 
-187.34 -97.10 5.23 
-187.27 -96.93 5.23 
-187.10 -96.56 5.22 
-188.92 -100.23 5.75 
-188.64 -99.94 5.71 
-187.90 -97.47 5.40 
-187.59 -96.96 5.38 
-187.42 -96.83 5.35 
-189.66 -100.71 5.89 
-189.61 -100.48 5.90 
-189.29 -100.20 5.84 
-188.59 -98.02 5.50 
-188.28 -97.64 5.36 
-187.89 -97.16 5.43 
-189.94 -100.64 5.97 
-189.91 -100.52 5.97 
-189.41 -99.57 5.56 
-188.95 -98.60 5.53 
-188.68 -98.02 5.52 
-188.56 -97.45 5.52 
-190.11 -99.59 5.72 
-190.05 -99.51 5.71 
-189.00 -97.73 5.62 
-192.01 -103.01 6.32 
-192.11 -102.80 5.99 
-192.00 -102.52 6.35 
-193.59 -103.50 6.32 
-192.54 -101.41 6.18 
-191.87 -100.33 6.27 
-190.52 -96.04 6.10 
-194.30 -103.66 6.50 
-193.02 -100.95 6.32 
-192.93 -100.89 6.31 
-193.70 -101.64 6.45 
-195.14 -103.64 6.71 
-194.81 -102.98 6.66 
-195.92 -104.14 6.95 
-194.43 -100.70 6.69 
-196.28 -103.85 6.64 
-200.65 -85.16 7.67 
-200.54 -85.01 7.66 
-200.29 -84.68 7.62 
-199.63 -83.64 7.54 
-201.53 -86.27 7.80 
-201.31 -86.00 7.77 
-201.01 -85.64 7.72 
-200.78 -85.34 7.69 
-202.31 -87.11 7.92 
-202.07 -86.87 7.88 
-201.77 -86.54 7.84 
-203.08 -87.84 8.04 
-202.74 -87.53 7.99 
-202.49 -87.28 7.95 
-204.00 -88.68 8.20 
-183.74 -96.44 5.27 
-184.26 -96.61 5.48 
-184.09 -96.06 5.14 
-183.70 -95.66 5.11 
-184.64 -96.49 5.20 
-184.44 -96.22 5.19 
-185.04 -96.48 5.28 
-184.85 -94.56 5.45 
-187.27 -99.19 5.82 
-185.70 -95.45 5.54 
-187.72 -99.66 5.87 
-187.30 -98.14 5.96 
-188.57 -100.51 5.99 
-188.39 -100.04 6.00 
-188.34 -99.77 6.02 
-187.93 -98.90 6.02 
-187.47 -97.51 5.69 
-186.71 -96.29 5.61 
-189.13 -100.49 6.14 
-186.35 -94.12 5.84 
-189.30 -99.87 6.26 
-189.72 -100.21 6.33 
-190.32 -100.53 6.26 
-192.38 -103.99 6.73 
-192.02 -103.21 6.69 
-191.94 -102.82 6.69 
-191.75 -102.51 6.67 
-190.52 -100.38 6.14 
-192.68 -103.83 6.64 
-192.60 -103.48 6.84 
-192.49 -103.16 6.44 
-191.93 -102.58 6.71 
-192.07 -102.17 6.40 
-193.31 -104.00 6.61 
-192.99 -103.80 6.67 
-193.02 -103.13 6.59 
-192.32 -101.01 6.55 
-191.30 -98.73 6.49 
-194.58 -104.19 6.96 
-194.41 -104.02 6.92 
-195.04 -103.07 7.21 
-195.68 -103.90 7.31 
-196.35 -104.57 7.44 
-196.48 -103.95 7.10 
-197.30 -103.84 7.31 
-197.01 -80.93 7.43 
-199.39 -83.30 7.51 
-199.21 -82.96 7.49 
-199.01 -82.60 7.47 
-198.84 -82.26 7.46 
-198.64 -81.84 7.44 
-198.51 -81.60 7.42 
-198.35 -81.14 7.42 
-198.17 -80.77 7.40 
-198.07 -80.46 7.40 
-197.93 -80.18 7.38 
-199.53 -83.45 7.53 
-203.11 -88.17 8.23 
-207.53 -90.95 8.84 
-204.89 -85.14 8.72 
-207.95 -91.19 8.92 
-207.68 -91.03 8.87 
-205.08 -85.31 8.75 
-208.38 -91.43 9.00 
-206.02 -85.99 8.71 
-205.74 -85.73 8.67 
-206.43 -86.30 8.78 
-184.47 -95.54 5.69 
-184.15 -94.18 5.82 
-185.21 -95.91 5.79 
-187.27 -99.61 6.11 
-187.27 -99.37 6.15 
-187.15 -99.07 6.16 
-186.40 -97.36 6.26 
-186.94 -98.10 6.26 
-186.77 -97.82 6.26 
-186.77 -97.43 6.32 
-186.04 -95.97 5.96 
-188.49 -100.28 6.35 
-188.51 -100.13 6.38 
-188.19 -99.53 6.37 
-187.90 -99.39 6.31 
-187.39 -98.11 6.37 
-187.11 -97.39 6.02 
-186.36 -95.75 6.07 
-185.90 -95.02 6.07 
-189.20 -100.56 6.51 
-188.90 -100.40 6.45 
-188.30 -99.20 6.45 
-187.81 -96.25 6.26 
-186.77 -93.43 6.01 
-189.08 -98.02 6.42 
-187.38 -94.34 6.03 
-192.50 -103.81 7.16 
-192.33 -103.55 7.13 
-193.27 -104.36 6.97 
-193.22 -104.10 6.98 
-192.93 -103.80 6.91 
-192.54 -103.16 7.23 
-192.43 -101.43 6.96 
-192.99 -101.16 7.15 
-194.96 -103.37 7.55 
-196.01 -104.54 7.80 
-196.48 -104.39 7.48 
-197.45 -104.58 7.75 
-201.24 -86.80 8.51 
-200.96 -86.51 8.47 
-200.74 -86.20 8.44 
-201.41 -86.96 8.54 
-204.61 -89.86 9.08 
-206.14 -83.10 9.06 
-206.97 -83.72 9.19 
-207.66 -84.15 9.31 
-184.24 -95.73 6.01 
-184.03 -95.64 5.98 
-185.26 -96.17 6.16 
-185.09 -96.03 6.15 
-184.79 -95.54 6.16 
-185.62 -95.72 6.32 
-185.26 -95.53 6.27 
-184.14 -92.68 6.04 
-186.61 -97.16 6.32 
-186.69 -97.08 6.36 
-186.33 -96.79 6.33 
-185.98 -95.30 6.47 
-185.91 -95.20 6.47 
-187.62 -97.27 6.56 
-190.57 -99.36 7.06 
-192.54 -102.89 7.26 
-193.41 -103.63 7.47 
-194.06 -103.92 7.66 
-194.18 -103.73 7.71 
-194.60 -103.77 7.84 
-196.03 -104.26 7.82 
-207.12 -91.45 9.57 
-205.68 -86.13 9.52 
-204.94 -85.31 9.60 
-206.00 -86.33 9.58 
-205.74 -86.08 9.54 
-205.01 -82.07 9.61 
-205.57 -82.74 9.69 
-206.91 -84.05 9.91 
-206.27 -83.48 9.80 
-184.57 -92.75 6.59 
-185.97 -92.80 6.86 
-186.88 -93.76 6.93 
-205.23 -85.33 9.66 
-204.78 -85.09 9.58 
-203.52 -80.42 9.63 
-205.34 -82.53 9.87 
-204.61 -81.78 9.76 
-205.99 -83.08 9.97 
-206.93 -83.76 10.12 
-207.99 -84.87 10.10 
-207.74 -84.75 10.05 
-208.43 -85.21 10.18 
-208.22 -85.03 10.14 
-205.49 -86.02 10.37 
-205.85 -86.34 10.43 
-205.60 -86.12 10.39 
-204.98 -85.41 10.48 
-203.91 -81.15 10.60 
-204.77 -81.97 10.62 
-204.21 -81.21 10.44 
-205.33 -82.62 10.69 
-206.13 -83.46 10.71 
-206.03 -83.20 10.90 
-206.77 -84.03 10.82 
-208.29 -85.18 11.10 
-207.96 -84.49 11.24 
-204.03 -81.24 11.35 
-204.38 -81.67 11.39 
-205.82 -83.29 11.59 
-205.63 -83.10 11.56 
-206.43 -83.84 11.70 
-203.24 -80.44 11.48 
-203.06 -80.21 11.46 
-202.89 -79.87 11.46 
-203.78 -81.11 11.53 
-203.60 -80.90 11.51 
-204.71 -82.12 11.64 
-205.50 -82.86 11.75 
-205.21 -82.59 11.71 
-204.74 -82.23 12.39 
-204.44 -81.83 12.36 
-205.30 -82.89 12.46 
-206.08 -83.64 12.59 
-201.86 -85.03 12.17 
-202.39 -85.52 12.25 
-203.68 -86.68 12.47 
-203.31 -86.37 12.41 
-203.13 -86.19 12.38 
-204.05 -86.99 12.54 
-203.87 -86.83 12.51 
-186.49 -96.75 4.27 
-187.43 -96.99 4.19 
-188.22 -97.49 4.31 
-188.11 -97.07 4.30 
-194.23 -102.28 5.34 
-194.29 -102.25 5.35 
-193.95 -101.71 5.46 
