# .PCD v0.7 - Point Cloud Data file format
VERSION 0.7
FIELDS x y z
SIZE 4 4 4
TYPE F F F
COUNT 1 1 1
WIDTH 2258
HEIGHT 1
VIEWPOINT 0 0 0 1 0 0 0
POINTS 2258
DATA ascii
-201.80 -78.83 11.54 
-201.62 -78.49 11.55 
-201.45 -78.14 11.55 
-201.28 -77.81 11.55 
-201.81 -78.72 11.56 
-200.50 -75.81 11.63 
-200.35 -75.29 11.66 
-202.87 -78.18 7.40 
-202.61 -77.52 7.37 
-202.49 -77.15 7.36 
-202.17 -75.97 7.35 
-203.44 -79.34 7.47 
-196.31 -77.78 6.55 
-199.19 -76.69 7.07 
-200.92 -74.87 7.43 
-201.76 -77.39 7.49 
-201.22 -75.60 7.46 
-201.06 -75.27 7.44 
-200.72 -72.78 7.47 
-200.60 -72.33 7.46 
-202.59 -78.88 7.59 
-202.24 -78.35 7.55 
-202.08 -78.01 7.53 
-200.69 -72.00 7.49 
-200.60 -71.47 7.49 
-203.01 -79.69 7.64 
-202.75 -79.27 7.61 
-196.91 -79.59 7.19 
-195.56 -77.83 7.37 
-195.71 -72.47 7.37 
-199.07 -76.96 8.05 
-199.69 -77.47 8.79 
-198.76 -76.93 9.01 
-198.74 -76.94 10.01 
-201.51 -76.54 11.26 
-202.43 -78.91 11.21 
-202.29 -78.61 11.21 
-202.01 -77.87 11.23 
-200.82 -76.53 11.52 
-200.69 -76.07 11.55 
-201.95 -78.91 11.49 
-201.62 -78.31 11.49 
-201.46 -77.97 11.49 
-202.13 -79.19 11.49 
-203.41 -79.27 7.58 
-196.54 -72.92 6.83 
-200.47 -77.48 7.36 
-203.08 -78.60 7.79 
-202.55 -77.15 7.74 
-202.41 -76.80 7.72 
-202.31 -76.34 7.72 
-202.19 -75.90 7.71 
-202.10 -75.42 7.71 
-203.47 -79.38 7.83 
-203.25 -78.91 7.81 
-203.24 -78.81 7.81 
-202.02 -74.87 7.72 
-201.89 -73.67 7.73 
-201.88 -72.95 7.75 
-196.94 -79.46 7.29 
-196.70 -78.81 7.28 
-196.54 -78.45 7.27 
-196.47 -78.09 7.28 
-196.38 -77.68 7.28 
-196.26 -77.32 7.28 
-195.87 -75.43 7.31 
-202.96 -78.44 8.76 
-201.62 -75.32 10.78 
-202.28 -78.48 11.29 
-201.76 -77.14 11.31 
-201.27 -75.05 11.43 
-202.95 -79.38 11.67 
-202.80 -79.02 11.68 
-202.21 -77.78 11.69 
-202.07 -77.41 11.70 
-201.82 -76.60 11.74 
-202.35 -78.13 11.68 
-202.35 -78.03 11.69 
-202.22 -77.64 11.71 
-203.51 -78.91 7.56 
-203.30 -78.50 7.53 
-203.19 -78.18 7.52 
-203.08 -77.86 7.51 
-202.97 -77.52 7.50 
-202.99 -77.40 7.51 
-202.84 -77.01 7.49 
-202.67 -76.43 7.48 
-202.56 -76.05 7.47 
-202.51 -78.44 7.62 
-202.82 -79.02 7.66 
-202.66 -78.74 7.64 
-201.43 -75.59 7.52 
-201.02 -71.44 7.57 
-196.44 -79.60 7.40 
-197.77 -79.66 7.38 
-196.82 -78.01 7.28 
-196.74 -77.58 7.29 
-196.51 -76.29 7.31 
-195.91 -78.11 7.38 
-202.98 -79.55 8.62 
-196.89 -79.22 8.12 
-196.82 -78.72 8.14 
-199.47 -67.84 8.58 
-200.47 -78.02 8.92 
-203.01 -79.67 9.58 
-202.08 -77.96 9.51 
-203.09 -78.75 9.42 
-200.39 -68.63 9.58 
-200.17 -68.33 9.56 
-200.66 -68.69 9.63 
-200.00 -77.76 9.80 
-200.33 -77.99 9.85 
-199.23 -67.94 9.70 
-202.89 -79.61 10.52 
-201.84 -74.09 10.52 
-201.71 -73.18 10.58 
-200.21 -68.60 10.69 
-199.97 -68.35 10.66 
-200.50 -68.64 10.74 
-202.60 -78.50 11.28 
-197.13 -73.50 6.58 
-196.87 -73.40 6.54 
-197.41 -73.49 6.63 
-200.41 -73.53 7.16 
-203.51 -78.68 7.58 
-203.39 -78.37 7.57 
-203.30 -78.00 7.56 
-203.17 -77.73 7.54 
-201.67 -75.45 7.55 
-201.57 -74.99 7.55 
-201.48 -74.52 7.55 
-197.90 -79.57 7.41 
-197.78 -79.31 7.40 
-197.63 -78.83 7.39 
-197.50 -78.29 7.40 
-197.31 -77.58 7.39 
-196.56 -73.59 7.45 
-199.43 -77.15 8.05 
-199.87 -77.37 8.12 
-196.99 -78.90 8.15 
-196.86 -78.60 8.14 
-199.48 -68.00 8.53 
-200.79 -78.16 8.98 
-202.69 -78.85 9.54 
-203.29 -78.92 9.46 
-202.93 -78.00 9.44 
-202.59 -77.12 9.43 
-202.47 -76.20 9.46 
-200.55 -68.72 9.58 
-199.33 -77.21 9.94 
-200.64 -78.15 9.90 
-202.44 -77.08 10.39 
-199.27 -67.85 9.66 
-202.56 -78.80 10.48 
-202.32 -76.18 10.44 
-202.05 -73.34 10.62 
-200.38 -68.66 10.69 
-198.15 -79.58 11.27 
-200.18 -68.61 11.79 
-200.45 -68.76 11.84 
-197.96 -78.22 12.08 
-197.21 -73.59 6.47 
-197.02 -73.36 6.44 
-197.45 -73.66 6.52 
-203.98 -79.47 7.62 
-200.40 -73.52 7.06 
-200.74 -73.72 7.12 
-197.54 -77.71 7.35 
-197.33 -76.51 7.36 
-196.76 -75.30 7.29 
-195.71 -75.31 7.32 
-195.48 -73.72 7.35 
-196.69 -73.04 7.37 
-197.26 -79.36 8.10 
-197.20 -78.99 8.11 
-196.91 -77.97 8.11 
-200.94 -78.24 8.95 
-200.62 -78.01 8.89 
-203.52 -79.10 9.47 
-203.18 -78.20 9.44 
-202.56 -76.25 9.41 
-199.53 -77.28 9.85 
-200.78 -78.24 9.86 
-200.45 -78.04 9.80 
-203.37 -79.07 10.40 
-199.60 -68.02 9.51 
-202.43 -76.18 10.39 
-200.57 -68.78 10.56 
-199.52 -68.05 10.63 
-200.41 -68.72 11.67 
-200.23 -77.48 6.85 
-196.35 -73.00 6.15 
-203.74 -79.66 7.50 
-203.73 -79.60 7.50 
-203.60 -79.41 7.48 
-202.70 -77.39 7.31 
-202.57 -77.07 7.29 
-202.47 -76.71 7.27 
-201.97 -73.91 7.19 
-197.15 -78.31 7.14 
-197.03 -77.94 7.13 
-198.39 -79.33 7.17 
-196.86 -77.15 7.11 
-196.68 -76.34 7.10 
-196.60 -75.86 7.10 
-196.51 -74.67 7.11 
-201.40 -78.42 7.80 
-201.14 -78.31 7.75 
-197.29 -73.67 7.08 
-203.29 -76.86 8.21 
-200.83 -73.88 7.78 
-203.17 -76.62 8.19 
-203.00 -75.41 8.18 
-202.98 -74.91 8.19 
-202.93 -74.52 8.19 
-202.91 -74.04 8.19 
-202.91 -73.52 8.21 
-196.48 -74.05 7.12 
-196.38 -72.86 7.13 
-196.65 -78.30 7.91 
-198.13 -79.54 7.98 
-198.03 -79.23 7.98 
-197.86 -78.58 7.97 
-197.80 -78.20 7.97 
-197.40 -75.39 8.00 
-197.33 -74.96 8.01 
-195.96 -75.52 7.90 
-197.31 -73.32 8.08 
-197.69 -66.61 8.46 
-197.31 -79.15 8.70 
-200.10 -68.34 9.08 
-199.88 -68.18 9.04 
-200.18 -68.31 9.10 
-201.14 -78.47 9.63 
-200.78 -78.31 9.55 
-203.55 -79.21 10.15 
-200.97 -78.46 10.54 
-200.61 -78.28 10.46 
-200.02 -77.65 10.50 
-202.72 -78.64 11.07 
-202.91 -77.52 11.09 
-199.93 -68.30 10.18 
-199.70 -68.10 10.14 
-200.25 -68.32 10.24 
-201.80 -76.07 11.05 
-199.76 -68.27 11.26 
-200.77 -68.99 11.26 
-199.90 -68.25 11.30 
-203.19 -79.19 12.02 
-197.67 -77.82 11.76 
-196.00 -78.98 6.20 
-187.62 -72.68 4.85 
-200.31 -79.23 6.93 
-201.20 -79.25 7.08 
-200.85 -79.26 7.02 
-202.02 -79.17 7.22 
-202.80 -79.11 7.36 
-202.42 -79.13 7.29 
-203.25 -79.03 7.43 
-191.17 -72.07 5.45 
-190.82 -71.90 5.39 
-190.47 -71.73 5.34 
-190.12 -71.54 5.28 
-189.78 -71.33 5.23 
-189.43 -71.15 5.17 
-189.10 -70.89 5.12 
-204.12 -78.94 7.58 
-203.68 -79.00 7.51 
-192.67 -72.65 5.70 
-192.31 -72.53 5.64 
-191.87 -72.37 5.56 
-191.51 -72.22 5.51 
-188.77 -70.65 5.06 
-188.56 -70.47 5.03 
-187.87 -69.93 4.92 
-187.66 -69.75 4.89 
-204.59 -78.86 7.66 
-194.86 -73.25 6.06 
-194.59 -73.19 6.01 
-194.20 -73.08 5.95 
-193.81 -72.97 5.88 
-186.78 -68.82 4.75 
-195.85 -73.40 6.22 
-195.41 -73.35 6.15 
-195.13 -73.30 6.10 
-197.10 -73.60 6.43 
-196.69 -73.53 6.37 
-196.29 -73.45 6.30 
-198.06 -73.68 6.60 
-197.53 -73.64 6.51 
-197.17 -73.57 6.45 
-198.76 -73.69 6.71 
-198.39 -73.69 6.65 
-199.41 -73.72 6.82 
-199.08 -73.69 6.77 
-200.46 -73.71 7.00 
-200.11 -73.71 6.94 
-201.21 -73.67 7.13 
-200.84 -73.69 7.07 
-202.28 -73.64 7.31 
-186.89 -76.59 5.45 
-186.51 -76.38 5.39 
-189.36 -77.90 5.84 
-185.46 -75.65 5.23 
-191.56 -78.70 6.21 
-196.48 -79.67 7.08 
-192.04 -74.99 6.41 
-191.69 -74.86 6.35 
-185.27 -69.56 5.22 
-184.90 -69.44 5.16 
-203.74 -79.54 8.44 
-192.27 -72.74 6.37 
-192.05 -72.62 6.33 
-191.71 -72.44 6.28 
-191.46 -72.30 6.24 
-191.12 -72.08 6.18 
-190.89 -71.96 6.14 
-192.42 -72.79 6.39 
-190.66 -71.79 6.11 
-190.43 -71.65 6.07 
-190.21 -71.48 6.04 
-194.01 -73.10 6.82 
-193.64 -72.98 6.76 
-193.38 -72.90 6.71 
-195.82 -73.43 7.14 
-194.98 -73.30 6.99 
-196.91 -73.65 7.33 
-186.88 -67.93 5.56 
-186.68 -67.75 5.53 
-197.84 -73.74 7.50 
-186.49 -67.43 5.51 
-186.30 -67.13 5.48 
-185.95 -66.24 5.45 
-185.75 -65.98 5.42 
-185.57 -65.64 5.40 
-185.38 -65.24 5.38 
-185.23 -64.76 5.37 
-189.51 -77.65 6.53 
-189.34 -77.54 6.50 
-189.03 -77.38 6.45 
-188.64 -77.15 6.39 
-188.32 -76.98 6.33 
-190.37 -78.03 6.68 
-190.19 -77.95 6.65 
-188.13 -76.85 6.30 
-187.93 -76.71 6.27 
-187.63 -76.53 6.23 
-187.24 -76.27 6.16 
-186.94 -76.07 6.12 
-186.66 -75.82 6.08 
-186.29 -75.55 6.02 
-186.01 -75.31 5.98 
-204.92 -78.77 8.68 
-204.06 -76.80 8.57 
-205.14 -76.86 8.77 
-204.82 -76.83 8.71 
-204.01 -76.44 8.57 
-203.34 -75.89 8.46 
-202.60 -75.81 8.32 
-199.58 -73.72 7.82 
-203.96 -76.05 8.57 
-203.89 -75.70 8.56 
-206.25 -76.58 8.98 
-205.93 -76.55 8.92 
-203.91 -75.62 8.57 
-203.88 -75.22 8.57 
-203.78 -74.90 8.56 
-187.58 -77.18 6.31 
-187.30 -77.03 6.26 
-185.89 -76.12 6.05 
-185.07 -74.49 5.85 
-184.78 -74.23 5.81 
-184.51 -73.92 5.78 
-184.12 -73.59 5.72 
-183.95 -73.36 5.71 
-183.58 -72.93 5.66 
-191.51 -74.68 7.17 
-185.92 -76.03 6.74 
-184.73 -74.99 6.58 
-190.48 -71.86 7.13 
-193.18 -72.90 7.58 
-192.31 -72.65 7.43 
-192.15 -72.59 7.41 
-191.59 -72.36 7.31 
-191.23 -72.22 7.25 
-194.02 -73.10 7.73 
-194.82 -73.30 7.88 
-196.76 -73.63 8.24 
-195.91 -73.46 8.08 
-204.01 -76.61 9.55 
-203.84 -76.01 9.54 
-203.78 -75.64 9.54 
-203.70 -74.94 9.56 
-203.58 -74.51 9.55 
-203.53 -74.13 9.56 
-192.67 -75.67 8.14 
-192.43 -75.57 8.10 
-191.84 -75.02 8.08 
-191.52 -74.89 8.02 
-184.81 -69.61 7.01 
-183.74 -69.16 6.98 
-185.14 -69.50 7.08 
-184.58 -69.43 6.98 
-192.18 -72.87 8.23 
-191.26 -72.40 8.08 
-190.51 -71.94 7.96 
-192.98 -73.21 8.38 
-189.75 -71.39 7.85 
-189.00 -70.83 7.74 
-194.40 -73.21 8.73 
-193.86 -73.10 8.62 
-188.35 -70.16 7.66 
-195.00 -73.35 8.84 
-194.68 -73.27 8.78 
-187.11 -68.77 7.52 
-196.68 -73.58 9.17 
-195.75 -73.45 8.99 
-186.52 -67.95 7.47 
-197.61 -73.65 9.36 
-191.59 -74.99 8.88 
-191.42 -74.79 8.87 
-191.90 -74.93 8.96 
-203.75 -75.39 10.57 
-203.62 -74.64 10.58 
-203.59 -74.21 10.61 
-184.61 -69.59 7.91 
-183.63 -69.12 7.89 
-184.96 -69.53 7.99 
-190.40 -71.96 8.88 
-192.04 -72.84 9.16 
-191.79 -72.50 9.16 
-191.05 -72.19 9.04 
-190.58 -71.97 8.96 
-189.88 -71.59 8.86 
-189.52 -71.39 8.80 
-189.20 -71.21 8.75 
-188.83 -70.88 8.68 
-187.27 -69.73 8.52 
-194.45 -73.30 9.66 
-194.10 -73.20 9.59 
-193.70 -73.10 9.51 
-193.31 -72.99 9.44 
-187.08 -69.58 8.50 
-195.57 -73.50 9.88 
-195.23 -73.43 9.81 
-194.84 -73.36 9.73 
-194.51 -73.29 9.67 
-196.50 -73.60 10.08 
-196.06 -73.54 9.99 
-195.63 -73.47 9.90 
-197.40 -73.72 10.27 
-196.96 -73.65 10.17 
-185.56 -67.76 8.39 
-184.92 -66.99 8.35 
-198.37 -73.76 10.48 
-185.04 -65.47 8.41 
-183.86 -65.04 8.35 
-183.66 -64.48 8.37 
-193.61 -75.69 10.12 
-195.27 -76.34 10.44 
-194.95 -76.13 10.39 
-194.63 -75.93 10.34 
-194.25 -75.84 10.26 
-193.87 -75.74 10.18 
-192.59 -74.94 9.98 
-191.84 -72.89 10.06 
-191.50 -72.71 10.01 
-191.13 -72.51 9.94 
-190.94 -72.40 9.91 
-190.45 -72.13 9.83 
-192.86 -73.31 10.26 
-192.66 -73.20 10.22 
-188.68 -70.82 9.58 
-194.08 -73.55 10.52 
-188.69 -75.88 9.83 
-191.79 -77.06 10.39 
-191.84 -77.56 11.31 
-191.23 -77.33 11.18 
-191.01 -77.22 11.14 
-190.57 -77.06 11.04 
-189.91 -76.76 10.92 
-189.24 -76.40 10.80 
-189.06 -76.29 10.77 
-192.12 -77.58 11.38 
-193.08 -73.28 11.29 
-192.23 -73.03 11.11 
-191.24 -78.11 5.47 
-196.09 -79.25 6.28 
-195.87 -79.17 6.24 
-195.46 -79.12 6.17 
-196.34 -79.23 6.32 
-198.50 -79.47 6.68 
-192.29 -74.93 5.68 
-187.86 -72.60 4.97 
-194.50 -73.26 6.07 
-194.20 -73.13 6.02 
-193.77 -73.06 5.95 
-192.64 -72.68 5.76 
-192.26 -72.55 5.70 
-191.90 -72.40 5.64 
-191.53 -72.24 5.59 
-191.17 -72.08 5.53 
-190.83 -71.89 5.47 
-190.49 -71.70 5.42 
-190.13 -71.47 5.36 
-189.81 -71.29 5.31 
-196.13 -73.62 6.34 
-195.68 -73.53 6.27 
-195.23 -73.46 6.19 
-194.99 -73.37 6.15 
-194.71 -73.32 6.10 
-188.92 -70.63 5.17 
-188.49 -70.29 5.10 
-188.18 -70.02 5.05 
-196.43 -73.62 6.39 
-187.53 -69.43 4.95 
-187.22 -69.12 4.90 
-187.02 -68.87 4.87 
-186.81 -68.62 4.84 
-186.40 -68.12 4.78 
-186.19 -67.86 4.75 
-193.80 -79.41 6.67 
-192.26 -75.18 6.52 
-192.00 -74.98 6.48 
-185.09 -69.57 5.28 
-184.47 -69.28 5.35 
-194.39 -73.29 6.96 
-194.01 -73.16 6.90 
-193.77 -73.09 6.86 
-192.68 -72.78 6.67 
-191.73 -72.41 6.51 
-191.03 -71.99 6.40 
-190.81 -71.92 6.36 
-190.09 -71.50 6.25 
-185.38 -69.58 5.33 
-184.55 -69.18 5.37 
-195.34 -73.51 7.13 
-188.54 -70.40 6.01 
-197.14 -73.80 7.44 
-196.24 -73.67 7.28 
-187.93 -69.77 5.93 
-187.90 -69.33 5.78 
-187.70 -69.08 5.76 
-187.50 -68.83 5.73 
-187.30 -68.55 5.70 
-187.12 -68.30 5.68 
-186.46 -68.31 5.73 
-186.83 -67.85 5.64 
-186.74 -67.61 5.64 
-186.54 -67.43 5.61 
-186.02 -66.40 5.55 
-185.83 -66.05 5.53 
-185.66 -65.58 5.52 
-185.49 -65.15 5.50 
-185.32 -64.80 5.48 
-201.28 -76.10 8.14 
-204.40 -77.03 8.70 
-198.08 -73.91 7.61 
-199.07 -73.98 7.79 
-200.06 -74.02 7.97 
-207.43 -76.65 9.28 
-204.17 -75.09 8.70 
-200.89 -73.97 8.13 
-204.05 -74.84 8.69 
-201.96 -73.99 8.32 
-184.63 -59.48 5.55 
-184.50 -58.88 5.55 
-186.61 -75.74 6.17 
-186.46 -75.60 6.15 
-185.29 -74.62 5.98 
-185.13 -74.50 5.96 
-184.94 -74.31 5.93 
-184.74 -74.15 5.90 
-184.48 -73.86 5.87 
-184.20 -73.59 5.83 
-183.94 -73.25 5.80 
-183.66 -72.90 5.77 
-192.37 -75.19 7.39 
-191.92 -75.07 7.31 
-184.08 -69.21 6.19 
-192.53 -72.76 7.55 
-195.25 -73.47 8.03 
-194.25 -73.26 7.85 
-188.40 -70.35 6.90 
-196.10 -73.65 8.19 
-198.95 -73.93 8.74 
-183.90 -73.96 6.60 
-183.68 -73.87 6.56 
-184.77 -69.59 7.11 
-184.22 -69.25 7.13 
-183.95 -69.20 7.08 
-189.86 -71.48 7.97 
-185.30 -69.61 7.21 
-189.25 -70.85 7.89 
-188.73 -70.68 7.86 
-188.51 -70.52 7.83 
-197.13 -73.86 9.33 
-196.83 -73.79 9.27 
-196.54 -73.73 9.22 
-198.49 -74.04 9.61 
-198.11 -74.00 9.53 
-197.69 -73.96 9.44 
-197.42 -73.90 9.39 
-187.17 -68.82 7.63 
-199.65 -74.11 9.85 
-199.30 -74.10 9.78 
-198.97 -74.07 9.71 
-198.71 -74.02 9.66 
-185.99 -67.87 7.57 
-200.01 -74.11 9.93 
-186.58 -68.05 7.58 
-204.74 -77.17 10.78 
-200.51 -74.03 10.04 
-200.77 -74.09 10.09 
-202.36 -74.01 10.44 
-184.58 -62.85 7.60 
-184.75 -69.61 8.05 
-192.51 -72.79 9.37 
-191.53 -72.40 9.20 
-191.09 -72.18 9.12 
-190.27 -71.77 8.99 
-189.94 -71.55 8.94 
-189.71 -71.41 8.91 
-184.19 -69.20 8.04 
-195.51 -73.59 9.95 
-194.37 -73.35 9.72 
-193.85 -73.18 9.62 
-189.06 -70.91 8.81 
-188.58 -70.58 8.76 
-197.00 -73.81 10.26 
-196.73 -73.80 10.20 
-196.37 -73.74 10.13 
-195.93 -73.65 10.04 
-186.65 -68.78 8.56 
-186.47 -68.60 8.54 
-195.49 -77.97 10.42 
-194.92 -77.60 10.32 
-194.64 -77.43 10.27 
-194.34 -77.20 10.22 
-193.97 -76.96 10.16 
-193.74 -76.77 10.13 
-193.31 -76.58 10.05 
-198.24 -73.96 10.53 
-197.97 -73.96 10.47 
-197.56 -73.91 10.38 
-197.28 -73.87 10.32 
-199.25 -74.02 10.75 
-198.86 -74.03 10.66 
-198.49 -74.02 10.58 
-186.04 -68.11 8.51 
-185.82 -67.74 8.50 
-185.63 -67.54 8.49 
-184.42 -65.48 8.47 
-184.03 -64.34 8.51 
-183.84 -64.00 8.52 
-196.88 -78.19 10.74 
-196.46 -78.12 10.64 
-196.03 -78.07 10.54 
-195.76 -78.01 10.48 
-186.70 -72.38 9.07 
-186.60 -72.24 9.07 
-186.50 -72.10 9.06 
-185.28 -71.10 8.94 
-184.46 -70.25 8.88 
-184.48 -69.53 8.95 
-183.83 -69.37 8.87 
-191.43 -72.60 10.14 
-191.22 -72.49 10.10 
-190.94 -72.33 10.05 
-190.46 -72.07 9.97 
-190.01 -71.74 9.90 
-189.79 -71.63 9.87 
-189.44 -71.36 9.82 
-189.13 -71.15 9.77 
-188.79 -70.86 9.73 
-188.49 -70.60 9.69 
-183.67 -63.24 8.56 
-190.72 -76.73 10.26 
-190.06 -76.46 10.14 
-189.85 -76.35 10.10 
-189.60 -76.24 10.06 
-186.36 -74.31 9.60 
-186.16 -74.21 9.57 
-187.26 -69.29 9.58 
-187.04 -69.08 9.56 
-184.01 -72.29 9.40 
-188.89 -76.16 10.90 
-188.55 -75.94 10.84 
-188.16 -75.68 10.78 
-187.73 -75.44 10.71 
-187.49 -75.29 10.67 
-187.21 -75.09 10.64 
-186.90 -74.88 10.59 
-186.12 -74.24 10.50 
-183.82 -71.95 10.33 
-191.17 -77.87 5.56 
-196.02 -79.32 6.35 
-195.79 -79.28 6.32 
-190.86 -77.70 5.51 
-196.36 -79.33 6.41 
-196.10 -79.29 6.37 
-195.75 -78.92 6.31 
-195.43 -78.81 6.26 
-198.59 -79.49 6.78 
-199.43 -79.55 6.92 
-198.93 -79.51 6.84 
-201.08 -79.58 7.20 
-200.75 -79.53 7.15 
-200.39 -79.51 7.09 
-200.01 -79.52 7.02 
-203.80 -78.96 7.67 
-191.92 -74.58 5.72 
-187.48 -72.28 5.02 
-192.70 -72.49 5.87 
-192.31 -72.36 5.81 
-191.94 -72.22 5.75 
-191.56 -72.08 5.69 
-191.32 -71.96 5.65 
-191.07 -71.87 5.61 
-193.83 -72.85 6.06 
-193.51 -72.75 6.00 
-190.13 -71.35 5.46 
-189.83 -71.19 5.41 
-189.52 -70.99 5.36 
-189.16 -70.74 5.31 
-189.00 -70.60 5.28 
-188.80 -70.50 5.25 
-188.57 -70.31 5.22 
-188.15 -69.99 5.15 
-187.94 -69.80 5.12 
-187.52 -69.45 5.05 
-187.20 -69.15 5.01 
-186.90 -68.82 4.96 
-185.46 -66.92 4.75 
-184.48 -65.20 4.61 
-190.58 -78.30 6.22 
-193.46 -79.00 6.72 
-195.52 -79.41 7.08 
-195.18 -79.25 7.02 
-196.82 -79.56 7.32 
-196.43 -79.47 7.25 
-192.13 -74.89 6.60 
-191.81 -74.81 6.55 
-191.72 -74.59 6.54 
-192.36 -72.48 6.72 
-191.41 -72.08 6.56 
-195.06 -73.18 7.18 
-194.10 -72.97 7.01 
-193.71 -72.85 6.95 
-193.47 -72.76 6.91 
-188.87 -70.65 6.17 
-184.99 -69.28 5.39 
-184.61 -69.23 5.33 
-184.14 -68.96 5.41 
-195.96 -73.32 7.34 
-188.21 -70.08 6.07 
-186.75 -68.79 5.86 
-186.14 -68.05 5.78 
-186.16 -67.26 5.66 
-185.96 -67.03 5.63 
-185.43 -66.04 5.58 
-185.25 -65.69 5.56 
-185.07 -65.28 5.54 
-198.83 -73.67 7.85 
-197.86 -73.54 7.67 
-203.93 -75.49 8.74 
-203.84 -75.15 8.73 
-199.67 -73.60 8.00 
-200.69 -73.69 8.19 
-203.79 -74.28 8.74 
-185.52 -67.28 5.70 
-203.70 -73.96 8.73 
-185.14 -66.49 5.66 
-184.10 -73.56 5.94 
-183.98 -73.34 5.92 
-183.76 -73.24 5.89 
-191.75 -74.82 7.39 
-191.60 -74.59 7.37 
-200.85 -75.57 9.14 
-194.06 -73.00 7.92 
-193.34 -72.74 7.80 
-204.00 -76.30 9.74 
-196.78 -73.44 8.43 
-195.88 -73.27 8.26 
-187.43 -69.50 6.87 
-198.72 -73.60 8.80 
-186.62 -68.72 6.77 
-203.80 -75.03 9.76 
-203.72 -74.68 9.75 
-191.82 -74.90 8.26 
-191.64 -74.80 8.23 
-191.93 -74.82 8.29 
-195.60 -73.37 9.15 
-194.56 -73.05 8.96 
-184.72 -69.25 7.24 
-184.27 -69.22 7.16 
-183.99 -68.93 7.20 
-197.23 -73.55 9.48 
-196.92 -73.50 9.42 
-196.58 -73.48 9.35 
-198.81 -73.72 9.80 
-198.20 -73.66 9.68 
-197.87 -73.63 9.61 
-197.53 -73.60 9.54 
-199.27 -73.68 9.90 
-199.03 -73.72 9.85 
-186.68 -68.79 7.71 
-186.61 -68.38 7.68 
-186.07 -68.03 7.66 
-185.45 -67.24 7.61 
-199.78 -73.72 10.01 
-199.53 -73.74 9.95 
-200.74 -73.70 10.22 
-200.37 -73.70 10.14 
-200.02 -73.70 10.06 
-201.22 -73.64 10.32 
-203.59 -74.18 10.81 
-203.54 -73.79 10.82 
-194.41 -73.04 9.86 
-189.60 -71.25 9.00 
-188.91 -70.84 8.90 
-184.55 -69.26 8.16 
-184.24 -69.33 8.09 
-195.86 -73.33 10.16 
-188.67 -70.62 8.87 
-187.89 -69.84 8.79 
-187.70 -69.83 8.75 
-187.29 -69.50 8.70 
-187.08 -69.30 8.68 
-186.78 -69.00 8.65 
-186.35 -68.58 8.61 
-186.16 -68.29 8.60 
-185.92 -68.01 8.58 
-185.73 -67.85 8.56 
-194.43 -77.53 10.33 
-194.04 -77.44 10.24 
-193.71 -77.31 10.18 
-191.79 -76.00 9.87 
-196.78 -73.46 10.35 
-197.64 -73.63 10.53 
-197.25 -73.53 10.45 
-185.53 -67.58 8.55 
-185.22 -67.10 8.54 
-184.92 -66.74 8.52 
-184.72 -66.40 8.51 
-184.13 -65.13 8.53 
-183.94 -64.90 8.52 
-183.75 -64.49 8.53 
-183.56 -63.97 8.55 
-183.94 -63.35 8.64 
-195.43 -77.68 10.55 
-195.15 -77.64 10.49 
-194.80 -77.61 10.41 
-197.22 -77.90 10.97 
-196.77 -77.84 10.87 
-196.31 -77.80 10.76 
-196.04 -77.73 10.70 
-195.72 -77.71 10.62 
-197.54 -77.92 11.05 
-185.50 -71.36 9.04 
-184.31 -70.13 8.94 
-184.09 -69.96 8.92 
-183.89 -69.73 8.91 
-186.95 -74.64 9.77 
-184.96 -73.16 9.55 
-188.18 -70.27 9.79 
-186.08 -68.14 9.59 
-185.79 -67.72 9.57 
-185.52 -67.24 9.57 
-186.46 -74.35 10.71 
-186.13 -74.16 10.66 
-185.81 -73.95 10.61 
-185.44 -73.68 10.57 
-185.17 -73.46 10.54 
-183.87 -72.20 10.43 
-183.58 -71.92 10.41 
-196.13 -79.66 6.46 
-195.69 -79.60 6.39 
-191.16 -78.08 5.65 
-190.75 -77.91 5.59 
-190.42 -77.77 5.53 
-186.07 -75.30 4.85 
-204.08 -78.30 7.81 
-203.53 -77.99 7.72 
-188.10 -72.61 5.21 
-203.73 -77.35 7.76 
-203.46 -77.27 7.72 
-201.77 -76.47 7.44 
-201.52 -76.32 7.40 
-204.71 -77.28 7.93 
-203.96 -76.76 7.80 
-204.66 -76.94 7.92 
-203.78 -76.14 7.78 
-203.41 -76.11 7.72 
-190.15 -71.39 5.56 
-189.81 -71.18 5.51 
-189.38 -70.86 5.44 
-188.74 -70.35 5.34 
-184.56 -69.01 4.67 
-188.10 -69.80 5.24 
-187.18 -68.80 5.11 
-186.88 -68.43 5.06 
-186.59 -68.11 5.02 
-186.58 -68.02 5.02 
-186.33 -67.72 4.98 
-186.10 -67.38 4.95 
-185.83 -66.99 4.91 
-185.62 -66.71 4.88 
-185.26 -66.02 4.83 
-185.07 -65.63 4.80 
-184.38 -63.90 4.71 
-191.04 -78.65 6.40 
-195.04 -79.63 7.10 
-194.77 -79.58 7.05 
-193.95 -79.43 6.90 
-193.71 -79.37 6.86 
-185.67 -75.62 5.54 
-192.27 -75.17 6.72 
-190.23 -71.50 6.48 
-189.53 -71.02 6.37 
-184.47 -69.23 5.56 
-188.70 -70.41 6.25 
-185.16 -63.87 5.71 
-201.81 -76.61 8.42 
-201.56 -76.48 8.38 
-205.42 -77.33 9.07 
-204.65 -77.22 8.93 
-201.42 -76.25 8.36 
-206.62 -77.12 9.30 
-204.57 -76.45 8.94 
-207.28 -76.98 9.43 
-204.43 -75.79 8.93 
-204.37 -75.42 8.93 
-200.67 -74.09 8.28 
-204.31 -75.09 8.92 
-202.19 -74.14 8.56 
-201.09 -74.07 8.36 
-204.24 -74.73 8.92 
-204.19 -74.35 8.92 
-186.28 -67.63 5.92 
-184.79 -65.01 5.76 
-184.48 -59.24 5.75 
-184.57 -57.93 5.81 
-201.66 -76.59 9.37 
-201.46 -76.42 9.34 
-201.34 -76.17 9.33 
-204.54 -76.74 9.95 
-204.47 -76.43 9.95 
-196.38 -73.71 8.45 
-184.69 -69.24 6.50 
-184.35 -69.24 6.44 
-204.42 -76.02 9.96 
-204.39 -75.62 9.97 
-200.13 -74.08 9.18 
-204.26 -75.15 9.96 
-187.31 -69.10 6.98 
-186.71 -68.38 6.91 
-186.12 -67.61 6.85 
-204.09 -74.27 9.96 
-201.37 -76.34 10.32 
-191.80 -72.41 8.56 
-191.60 -72.32 8.52 
-184.22 -69.18 7.33 
-188.64 -70.41 8.08 
-187.81 -69.73 7.97 
-187.21 -69.07 7.90 
-205.01 -77.38 11.07 
-205.82 -77.15 11.26 
-204.35 -75.95 11.00 
-199.51 -74.14 10.05 
-204.30 -75.58 11.01 
-200.68 -74.15 10.30 
-200.26 -74.16 10.21 
-199.91 -74.13 10.14 
-204.15 -74.90 11.02 
-201.92 -74.12 10.58 
-201.47 -74.16 10.48 
-201.07 -74.15 10.39 
-203.12 -74.10 10.84 
-202.81 -74.06 10.77 
-202.50 -74.11 10.70 
-204.14 -74.40 11.05 
-203.29 -74.00 10.88 
-184.54 -62.77 7.83 
-192.35 -75.22 9.34 
-192.14 -75.09 9.31 
-197.81 -76.54 10.47 
-197.35 -76.46 10.37 
-198.25 -76.63 10.56 
-191.67 -72.38 9.45 
-190.99 -72.05 9.34 
-184.18 -69.15 8.24 
-189.15 -70.87 9.06 
-188.96 -70.75 9.03 
-184.46 -69.18 8.29 
-188.11 -70.04 8.93 
-187.87 -69.81 8.90 
-187.68 -69.67 8.88 
-187.07 -69.03 8.82 
-186.86 -68.81 8.80 
-186.67 -68.56 8.79 
-186.46 -68.32 8.77 
-201.88 -78.50 11.28 
-202.39 -78.40 11.41 
-186.26 -68.07 8.75 
-186.08 -67.78 8.75 
-185.88 -67.50 8.74 
-185.69 -67.22 8.73 
-185.49 -66.92 8.72 
-184.75 -65.56 8.71 
-184.74 -65.37 8.73 
-184.56 -64.97 8.74 
-184.37 -64.74 8.72 
-184.30 -64.37 8.75 
-184.22 -64.01 8.77 
-196.61 -78.25 10.94 
-196.29 -78.15 10.87 
-195.86 -78.11 10.77 
-185.76 -72.24 9.10 
-185.49 -71.96 9.08 
-185.28 -71.83 9.05 
-185.11 -71.55 9.05 
-184.78 -71.34 9.00 
-184.48 -71.09 8.97 
-184.30 -70.82 8.97 
-183.89 -70.46 8.93 
-185.43 -66.41 9.79 
-185.24 -66.11 9.79 
-185.09 -65.53 9.83 
-191.01 -78.46 5.76 
-190.70 -78.31 5.71 
-186.35 -75.25 5.03 
-203.69 -79.00 7.86 
-204.04 -77.96 7.93 
-203.53 -77.14 7.85 
-202.55 -76.88 7.69 
-202.22 -76.76 7.64 
-204.51 -77.17 8.02 
-202.16 -76.45 7.63 
-203.73 -76.48 7.89 
-204.36 -76.50 8.00 
-203.64 -76.23 7.88 
-185.25 -69.21 4.92 
-188.41 -69.62 5.43 
-188.11 -69.29 5.39 
-187.82 -68.95 5.34 
-187.33 -68.30 5.27 
-187.15 -68.08 5.25 
-186.96 -67.86 5.22 
-186.78 -67.58 5.19 
-186.58 -67.29 5.16 
-186.40 -67.02 5.14 
-186.04 -66.35 5.09 
-185.87 -65.99 5.06 
-185.38 -64.81 5.00 
-193.00 -79.34 6.88 
-191.99 -79.04 6.70 
-189.54 -77.93 6.30 
-188.05 -77.11 6.06 
-193.06 -75.50 7.00 
-193.55 -73.16 7.16 
-192.59 -72.71 7.00 
-190.94 -71.80 6.73 
-185.39 -69.47 5.84 
-185.02 -69.41 5.78 
-188.78 -70.07 6.41 
-188.19 -69.39 6.33 
-188.00 -69.24 6.30 
-187.39 -68.59 6.22 
-205.50 -77.80 9.22 
-202.21 -76.83 8.63 
-206.52 -77.73 9.41 
-205.23 -77.21 9.18 
-205.19 -76.85 9.18 
-205.11 -76.51 9.17 
-198.05 -74.25 7.94 
-196.19 -73.83 7.61 
-205.07 -76.13 9.18 
-205.03 -75.73 9.18 
-204.99 -75.34 9.18 
-204.93 -74.97 9.18 
-186.83 -67.80 6.15 
-202.45 -76.99 9.67 
-205.14 -77.15 10.22 
-205.11 -76.78 10.22 
-192.49 -72.64 7.90 
-190.81 -71.77 7.63 
-184.90 -69.34 6.67 
-207.30 -77.46 10.65 
-205.01 -76.24 10.22 
-204.96 -75.68 10.24 
-204.88 -75.31 10.23 
-204.83 -74.94 10.24 
-198.30 -74.38 9.94 
-195.52 -73.82 9.39 
-194.08 -73.38 9.12 
-192.44 -72.73 8.82 
-191.35 -72.17 8.64 
-190.96 -71.93 8.58 
-190.66 -71.74 8.53 
-190.45 -71.61 8.50 
-188.77 -70.17 8.27 
-188.53 -69.93 8.24 
-187.96 -69.31 8.18 
-202.24 -76.90 10.65 
-205.67 -77.78 11.37 
-205.21 -77.74 11.27 
-206.33 -77.66 11.52 
-205.12 -77.01 11.29 
-205.01 -76.28 11.30 
-204.93 -75.94 11.30 
-204.91 -75.55 11.32 
-204.83 -75.19 11.32 
-201.75 -74.60 10.68 
-184.70 -63.27 8.03 
-184.55 -62.89 8.03 
-200.29 -78.90 11.06 
-199.80 -78.78 10.95 
-192.17 -72.57 9.71 
-190.77 -71.79 9.48 
-188.22 -69.73 9.14 
-187.82 -69.28 9.10 
-187.59 -69.01 9.08 
-201.72 -78.95 11.40 
-201.30 -78.93 11.30 
-200.90 -78.92 11.20 
-203.12 -78.91 11.74 
-202.63 -78.92 11.62 
-202.18 -78.94 11.51 
-186.83 -68.08 9.01 
-185.58 -65.70 9.00 
-185.39 -65.50 8.99 
-194.01 -77.86 10.53 
-193.67 -77.81 10.45 
-186.07 -72.78 9.26 
-186.20 -75.03 5.11 
-186.02 -74.87 5.08 
-203.85 -79.10 7.96 
-204.80 -79.06 8.12 
-204.16 -78.09 8.02 
-202.58 -77.05 7.77 
-202.40 -76.90 7.74 
-204.62 -77.36 8.10 
-204.09 -76.91 8.02 
-204.53 -76.78 8.09 
-203.80 -76.41 7.98 
-188.42 -69.52 5.53 
-188.28 -69.34 5.51 
-188.09 -69.14 5.48 
-187.89 -68.90 5.45 
-187.34 -68.21 5.37 
-187.14 -67.94 5.35 
-186.97 -67.66 5.32 
-186.78 -67.38 5.29 
-186.61 -67.11 5.27 
-186.43 -66.76 5.25 
-186.26 -66.45 5.22 
-190.03 -78.27 6.48 
-189.19 -77.81 6.34 
-189.02 -77.70 6.32 
-187.83 -76.96 6.13 
-187.67 -76.85 6.10 
-186.37 -75.90 5.91 
-192.76 -72.82 7.12 
-191.98 -72.45 7.00 
-191.10 -71.89 6.86 
-190.41 -71.41 6.75 
-189.57 -70.77 6.63 
-185.68 -69.50 6.00 
-185.38 -69.58 5.94 
-185.14 -69.43 5.91 
-188.95 -70.18 6.54 
-188.34 -69.50 6.46 
-205.61 -78.00 9.32 
-205.45 -77.74 9.30 
-202.61 -77.20 8.79 
-202.40 -77.06 8.75 
-206.97 -77.79 9.58 
-206.29 -77.89 9.45 
-205.39 -77.37 9.29 
-207.70 -77.65 9.71 
-205.33 -76.61 9.30 
-198.63 -74.49 8.13 
-198.35 -74.43 8.08 
-205.26 -76.25 9.30 
-198.97 -74.54 8.19 
-205.19 -75.92 9.29 
-205.13 -75.56 9.29 
-205.12 -75.32 9.29 
-187.61 -68.57 6.36 
-202.45 -77.19 9.77 
-193.65 -73.18 8.21 
-191.90 -72.42 7.91 
-191.16 -71.98 7.79 
-190.31 -71.38 7.66 
-189.64 -70.84 7.57 
-185.55 -69.48 6.89 
-187.63 -68.74 7.31 
-205.46 -77.99 10.35 
-206.11 -77.89 10.49 
-205.37 -77.67 10.35 
-205.32 -77.29 10.35 
-207.51 -77.66 10.78 
-205.28 -76.92 10.36 
-205.21 -76.10 10.37 
-192.73 -72.90 8.99 
-192.23 -72.67 8.90 
-191.74 -72.42 8.82 
-191.38 -72.20 8.76 
-191.04 -71.98 8.71 
-190.70 -71.75 8.66 
-190.38 -71.54 8.61 
-190.05 -71.31 8.56 
-189.74 -71.04 8.51 
-189.34 -70.64 8.46 
-185.11 -69.50 7.73 
-189.00 -70.34 8.42 
-188.71 -70.06 8.38 
-187.71 -68.90 8.27 
-187.45 -68.60 8.25 
-186.60 -67.27 8.18 
-205.83 -77.96 11.52 
-205.39 -77.90 11.42 
-206.51 -77.86 11.67 
-205.35 -77.54 11.43 
-205.28 -77.18 11.44 
-205.21 -76.64 11.45 
-205.14 -76.09 11.46 
-201.34 -74.79 10.70 
-201.05 -74.72 10.64 
-185.08 -64.19 8.14 
-184.94 -63.70 8.15 
-192.62 -72.84 9.91 
-192.38 -72.70 9.87 
-191.64 -72.33 9.74 
-191.28 -72.12 9.69 
-190.93 -71.91 9.63 
-190.60 -71.67 9.58 
-190.26 -71.44 9.53 
-190.05 -71.29 9.50 
-189.81 -71.11 9.46 
-189.52 -70.87 9.42 
-189.21 -70.59 9.38 
-185.20 -69.51 8.66 
-188.89 -70.30 9.34 
-188.60 -69.91 9.32 
-191.27 -77.04 10.10 
-189.77 -76.27 9.83 
-201.28 -79.11 11.42 
-189.14 -75.90 9.72 
-188.95 -75.76 9.69 
-188.64 -75.58 9.64 
-202.16 -79.12 11.64 
-201.73 -79.11 11.53 
-188.19 -75.07 9.59 
-187.88 -74.82 9.55 
-203.16 -79.10 11.88 
-202.67 -79.09 11.76 
-187.67 -74.53 9.54 
-187.46 -74.40 9.50 
-185.32 -64.67 9.17 
-186.22 -73.17 9.37 
-184.85 -63.46 9.20 
-184.71 -62.92 9.23 
-190.76 -78.52 5.93 
-190.43 -78.37 5.88 
-187.38 -76.57 5.41 
-187.20 -76.45 5.38 
-186.38 -75.34 5.26 
-186.01 -75.04 5.20 
-185.66 -74.71 5.15 
-204.12 -78.28 8.12 
-202.55 -77.22 7.87 
-202.31 -77.06 7.84 
-204.76 -77.48 8.23 
-202.33 -76.99 7.84 
-204.81 -76.97 8.25 
-203.89 -76.89 8.10 
-203.84 -76.60 8.09 
-189.58 -78.15 6.53 
-189.26 -77.98 6.48 
-188.44 -77.50 6.35 
-188.23 -77.22 6.32 
-187.18 -76.67 6.16 
-185.93 -75.66 5.97 
-193.31 -75.83 7.26 
-193.10 -75.73 7.23 
-192.94 -75.51 7.21 
-191.87 -72.48 7.11 
-191.14 -72.04 7.00 
-190.27 -71.43 6.86 
-189.60 -70.89 6.76 
-205.86 -78.10 9.49 
-205.40 -78.05 9.40 
-202.34 -77.23 8.86 
-206.57 -77.98 9.62 
-205.45 -77.95 9.41 
-205.36 -77.65 9.41 
-202.20 -77.01 8.84 
-207.75 -77.90 9.84 
-207.16 -77.94 9.73 
-205.30 -77.33 9.40 
-208.15 -77.70 9.92 
-205.27 -76.92 9.41 
-195.36 -73.89 7.69 
-205.16 -76.22 9.40 
-205.14 -75.76 9.41 
-205.04 -75.49 9.40 
-205.13 -75.35 9.42 
-184.92 -62.63 6.24 
-193.18 -75.79 8.14 
-192.86 -75.43 8.09 
-192.68 -72.96 8.18 
-191.01 -72.00 7.91 
-185.04 -69.49 6.94 
-188.87 -70.25 7.60 
-206.42 -77.96 10.69 
-205.73 -78.07 10.55 
-205.32 -77.78 10.47 
-207.58 -77.88 10.93 
-207.15 -77.85 10.84 
-205.23 -77.25 10.48 
-207.95 -77.70 11.01 
-205.24 -76.77 10.49 
-205.14 -76.51 10.48 
-194.19 -73.61 9.40 
-193.93 -73.48 9.35 
-193.48 -73.34 9.27 
-193.06 -73.17 9.19 
-192.33 -72.83 9.07 
-191.97 -72.63 9.00 
-191.60 -72.43 8.94 
-191.28 -72.22 8.89 
-190.91 -71.99 8.83 
-190.64 -71.82 8.79 
-190.43 -71.68 8.76 
-190.21 -71.52 8.72 
-190.00 -71.38 8.69 
-188.74 -70.30 8.52 
-187.94 -69.48 8.42 
-186.64 -67.66 8.31 
-205.82 -78.20 11.66 
-205.44 -78.15 11.58 
-205.32 -77.84 11.57 
-185.02 -64.07 8.28 
-184.86 -63.63 8.28 
-194.15 -76.35 10.13 
-193.95 -76.24 10.09 
-193.41 -76.06 9.98 
-193.00 -75.72 9.92 
-191.12 -72.08 9.82 
-190.78 -71.92 9.76 
-190.50 -71.70 9.72 
-190.10 -71.41 9.65 
-185.03 -69.49 8.78 
-189.56 -76.24 9.96 
-189.25 -76.05 9.90 
-188.83 -75.78 9.84 
-188.52 -75.59 9.78 
-188.32 -75.45 9.75 
-186.91 -74.39 9.55 
-188.45 -69.97 9.44 
-187.86 -69.32 9.38 
-185.09 -72.69 9.35 
-198.30 -74.52 6.29 
-197.94 -74.46 6.24 
-194.33 -73.53 5.71 
-193.63 -73.24 5.60 
-192.21 -72.54 5.39 
-191.39 -72.05 5.27 
-191.15 -71.91 5.23 
-189.73 -70.74 5.01 
-189.41 -70.47 4.97 
-185.38 -69.36 4.36 
-189.12 -70.16 4.92 
-192.26 -79.34 6.27 
-192.02 -79.24 6.24 
-189.32 -77.85 5.82 
-187.34 -76.53 5.51 
-186.96 -76.25 5.46 
-186.35 -75.26 5.37 
-186.08 -75.03 5.33 
-185.72 -74.70 5.28 
-204.18 -78.69 8.21 
-206.31 -78.31 8.56 
-205.72 -78.33 8.47 
-205.61 -78.08 8.45 
-204.91 -77.80 8.34 
-205.15 -77.15 8.39 
-197.56 -74.40 7.18 
-183.70 -65.33 5.07 
-189.22 -78.01 6.60 
-188.91 -77.82 6.55 
-188.10 -77.29 6.42 
-187.82 -77.12 6.38 
-193.42 -75.93 7.40 
-193.13 -75.69 7.35 
-192.10 -72.65 7.26 
-189.82 -71.02 6.91 
-185.63 -69.76 6.24 
-185.33 -69.62 6.19 
-207.89 -77.99 9.96 
-208.41 -77.99 10.06 
-205.45 -77.04 9.54 
-197.55 -74.60 8.17 
-194.49 -73.71 7.65 
-193.87 -73.52 7.55 
-189.01 -70.31 6.80 
-187.83 -68.91 6.64 
-187.30 -68.14 6.57 
-186.27 -66.43 6.46 
-185.18 -62.87 6.39 
-193.30 -75.91 8.28 
-193.05 -75.62 8.25 
-195.90 -74.12 8.87 
-192.95 -73.12 8.35 
-185.23 -69.54 7.10 
-193.24 -75.87 9.20 
-194.51 -73.76 9.60 
-194.21 -73.68 9.54 
-193.78 -73.53 9.46 
-193.37 -73.37 9.38 
-193.12 -73.24 9.34 
-192.85 -73.13 9.29 
-192.59 -73.00 9.25 
-192.07 -72.76 9.16 
-191.14 -72.14 9.01 
-190.44 -71.70 8.90 
-190.23 -71.53 8.87 
-190.01 -71.34 8.84 
-187.31 -68.42 8.51 
-198.43 -74.72 10.37 
-196.55 -74.44 9.98 
-186.37 -66.81 8.45 
-186.02 -66.27 8.43 
-185.03 -63.38 8.46 
-184.80 -62.26 8.51 
-184.71 -61.66 8.54 
-193.58 -76.23 10.17 
-193.38 -76.12 10.13 
-192.84 -75.91 10.02 
-192.62 -75.86 9.98 
-192.34 -75.69 9.93 
-184.67 -60.87 8.59 
-187.16 -68.20 9.48 
-191.20 -77.18 10.42 
-190.97 -77.06 10.38 
-190.61 -76.87 10.31 
-190.23 -76.66 10.24 
-189.89 -76.48 10.18 
-189.47 -76.22 10.11 
-189.22 -76.04 10.07 
-184.84 -72.31 9.49 
-184.48 -71.91 9.46 
-184.13 -71.47 9.43 
-194.33 -73.55 5.76 
-194.04 -73.46 5.71 
-193.62 -73.29 5.65 
-192.17 -72.56 5.44 
-191.82 -72.32 5.39 
-191.16 -71.87 5.29 
-190.17 -71.07 5.14 
-189.33 -70.31 5.01 
-189.14 -70.08 4.98 
-188.95 -69.87 4.95 
-190.81 -78.68 6.12 
-190.48 -78.48 6.07 
-190.26 -78.37 6.04 
-189.06 -77.70 5.85 
-187.24 -75.95 5.58 
-187.05 -75.81 5.55 
-186.87 -75.66 5.53 
-186.05 -74.92 5.40 
-185.93 -74.81 5.39 
-204.72 -79.24 8.35 
-202.81 -77.55 8.05 
-202.62 -77.31 8.02 
-205.16 -77.38 8.43 
-205.57 -75.87 8.51 
-185.83 -69.60 5.43 
-187.20 -67.70 5.67 
-186.86 -67.14 5.62 
-186.70 -66.83 5.60 
-186.61 -66.51 5.59 
-186.35 -65.98 5.55 
-183.84 -65.36 5.17 
-186.26 -65.66 5.54 
-186.12 -65.26 5.53 
-185.97 -64.95 5.51 
-189.69 -78.31 6.76 
-184.87 -74.54 6.04 
-184.57 -74.12 6.00 
-193.68 -76.08 7.52 
-193.47 -76.01 7.49 
-193.33 -75.68 7.47 
-183.53 -73.00 5.86 
-185.59 -69.77 6.31 
-206.40 -78.49 9.74 
-205.66 -77.78 9.63 
-196.80 -74.49 8.11 
-196.19 -74.33 8.01 
-195.90 -74.31 7.96 
-192.41 -72.88 7.39 
-191.49 -72.30 7.24 
-190.77 -71.77 7.14 
-188.72 -69.82 6.84 
-187.97 -68.95 6.74 
-187.41 -68.21 6.67 
-186.60 -66.63 6.58 
-186.14 -65.65 6.54 
-193.32 -75.86 8.39 
-196.40 -74.38 9.05 
-196.11 -74.34 8.99 
-195.74 -74.21 8.93 
-194.80 -73.95 8.76 
-191.38 -72.25 8.18 
-185.95 -69.85 7.30 
-185.48 -69.70 7.22 
-188.59 -69.78 7.78 
-205.70 -78.42 10.74 
-193.52 -76.10 9.35 
-193.23 -75.85 9.31 
-194.54 -73.95 9.70 
-194.11 -73.79 9.62 
-192.14 -72.82 9.27 
-191.69 -72.56 9.20 
-191.00 -72.09 9.09 
-188.86 -70.24 8.78 
-199.31 -75.13 10.64 
-197.77 -74.88 10.32 
-196.86 -74.59 10.15 
-196.51 -74.51 10.08 
-196.02 -74.39 9.98 
-195.77 -74.36 9.93 
-186.37 -66.44 8.57 
-186.04 -65.88 8.55 
-185.88 -65.53 8.55 
-185.76 -65.05 8.56 
-185.61 -64.72 8.56 
-185.50 -64.17 8.58 
-185.37 -63.73 8.59 
-185.25 -63.32 8.60 
-185.29 -63.12 8.62 
-185.14 -62.81 8.61 
-185.18 -62.59 8.64 
-185.06 -62.13 8.65 
-184.95 -61.64 8.67 
-193.42 -76.28 10.25 
-193.03 -76.10 10.18 
-192.63 -75.94 10.10 
-192.38 -75.80 10.05 
-185.04 -61.32 8.71 
-184.90 -60.96 8.71 
-186.26 -66.43 9.57 
-186.14 -66.04 9.58 
-191.50 -77.39 10.62 
-190.28 -76.77 10.38 
-189.68 -76.37 10.28 
-185.00 -72.35 9.64 
-184.83 -72.14 9.62 
-184.49 -71.69 9.60 
-183.67 -70.61 9.55 
-183.88 -63.65 9.37 
-194.08 -73.57 5.89 
-193.67 -73.38 5.83 
-192.37 -72.68 5.64 
-192.11 -72.53 5.60 
-191.89 -72.35 5.57 
-191.64 -72.20 5.53 
-190.23 -71.05 5.32 
-189.97 -70.83 5.28 
-186.09 -69.89 4.72 
-185.86 -69.74 4.68 
-189.85 -70.71 5.26 
-189.28 -70.09 5.18 
-189.01 -69.82 5.14 
-188.32 -68.98 5.03 
-188.13 -68.75 5.00 
-192.35 -79.54 6.53 
-190.16 -78.51 6.20 
-190.01 -78.37 6.17 
-189.24 -77.76 6.06 
-186.57 -75.86 5.66 
-186.18 -75.53 5.60 
-185.82 -75.19 5.55 
-185.47 -74.85 5.50 
-193.92 -76.24 6.82 
-193.71 -76.13 6.79 
-193.56 -75.89 6.76 
-184.66 -73.38 5.39 
-184.09 -72.65 5.31 
-183.97 -72.46 5.29 
-183.76 -72.17 5.26 
-183.58 -71.97 5.24 
-205.78 -76.61 8.71 
-196.98 -74.61 7.32 
-196.14 -74.35 7.19 
-193.53 -73.40 6.79 
-187.01 -76.47 6.54 
-186.79 -76.33 6.51 
-184.51 -74.11 6.18 
-193.67 -76.18 7.71 
-184.36 -73.88 6.17 
-186.12 -70.00 6.59 
-185.86 -69.90 6.55 
-185.72 -69.63 6.54 
-197.03 -74.76 8.34 
-205.68 -76.55 9.85 
-197.88 -74.86 8.49 
-195.15 -74.14 8.03 
-194.23 -73.82 7.88 
-192.78 -73.11 7.64 
-192.39 -72.86 7.58 
-188.86 -69.94 7.06 
-188.30 -69.15 6.99 
-186.49 -65.89 6.79 
-193.05 -73.23 8.66 
-185.94 -70.01 7.50 
-185.75 -69.89 7.47 
-189.53 -70.66 8.12 
-185.74 -69.81 7.47 
-205.68 -76.83 11.00 
-191.87 -72.67 9.45 
-191.82 -72.63 9.44 
-190.04 -71.29 9.17 
-189.71 -70.98 9.12 
-189.31 -70.60 9.07 
-185.65 -69.80 8.40 
-196.03 -74.56 10.20 
-199.87 -75.31 10.98 
-197.14 -74.81 10.42 
-196.81 -74.72 10.36 
-196.47 -74.63 10.29 
-187.52 -68.34 8.87 
-186.84 -67.14 8.83 
-186.69 -66.87 8.82 
-186.58 -66.58 8.82 
-186.38 -66.15 8.81 
-186.19 -65.68 8.81 
-186.11 -65.32 8.82 
-185.96 -65.07 8.81 
-185.83 -64.67 8.82 
-185.39 -62.80 8.88 
-185.28 -62.25 8.90 
-195.38 -78.88 10.76 
-195.07 -78.78 10.69 
-194.74 -78.69 10.62 
-193.84 -78.01 10.46 
-193.68 -77.84 10.44 
-185.75 -69.91 9.36 
-185.61 -69.60 9.36 
-185.27 -61.56 8.95 
-185.17 -60.96 8.98 
-186.08 -69.90 9.43 
-186.70 -74.07 10.07 
-184.48 -71.55 9.85 
-184.23 -71.20 9.84 
-184.06 -70.96 9.83 
-183.90 -70.71 9.82 
-183.74 -70.46 9.81 
-183.57 -70.21 9.81 
-195.11 -74.00 6.18 
-194.66 -73.82 6.12 
-194.21 -73.65 6.05 
-193.93 -73.51 6.01 
-193.50 -73.31 5.95 
-193.10 -73.09 5.89 
-192.16 -72.57 5.76 
-192.02 -72.47 5.74 
-191.75 -72.25 5.70 
-191.46 -72.05 5.66 
-190.75 -71.46 5.55 
-190.40 -71.15 5.50 
-190.15 -70.91 5.47 
-186.19 -69.94 4.90 
-189.75 -70.53 5.41 
-189.45 -70.21 5.36 
-186.01 -69.69 4.87 
-189.16 -69.87 5.32 
-188.33 -68.78 5.19 
-192.53 -79.62 6.72 
-188.10 -77.21 6.05 
-187.04 -76.25 5.90 
-186.86 -76.07 5.87 
-186.67 -75.90 5.84 
-186.49 -75.75 5.82 
-186.29 -75.58 5.79 
-186.02 -75.33 5.75 
-185.69 -74.96 5.70 
-185.42 -74.69 5.66 
-185.24 -74.51 5.64 
-194.22 -76.34 7.03 
-193.88 -76.16 6.97 
-193.75 -76.06 6.95 
-184.50 -73.66 5.53 
-206.24 -78.79 8.91 
-203.10 -77.90 8.42 
-206.17 -78.43 8.90 
-183.58 -72.48 5.40 
-206.10 -78.08 8.89 
-183.55 -72.44 5.40 
-195.36 -74.17 7.23 
-194.40 -73.84 7.08 
-193.56 -73.43 6.95 
-191.04 -71.81 6.58 
-184.62 -74.12 6.39 
-184.26 -73.66 6.34 
-183.55 -72.72 6.25 
-186.18 -70.09 6.78 
-185.98 -69.96 6.75 
-193.77 -76.22 7.91 
-203.01 -77.91 9.50 
-194.47 -73.97 8.09 
-193.60 -73.57 7.95 
-190.81 -71.72 7.52 
-190.49 -71.44 7.47 
-190.16 -71.16 7.43 
-189.84 -70.86 7.38 
-186.24 -70.05 6.79 
-186.00 -69.83 6.76 
-189.04 -70.00 7.27 
-193.70 -76.23 8.85 
-198.05 -75.10 9.74 
-197.76 -74.97 9.69 
-197.01 -74.75 9.55 
-191.47 -72.27 8.60 
-190.71 -71.65 8.49 
-186.16 -70.06 7.73 
-185.88 -69.88 7.69 
-185.92 -69.73 7.70 
-188.36 -69.26 8.17 
-187.86 -68.41 8.12 
-203.01 -77.95 10.61 
-199.08 -75.28 9.94 
-198.78 -75.28 9.88 
-198.45 -75.19 9.82 
-201.16 -75.50 10.34 
-186.32 -69.99 8.72 
-185.96 -69.98 8.65 
-185.82 -69.75 8.64 
-198.75 -75.23 10.95 
-198.36 -75.15 10.87 
-197.84 -75.09 10.77 
-194.88 -74.16 10.19 
-194.19 -73.91 10.06 
-193.62 -73.66 9.96 
-190.90 -71.94 9.51 
-190.55 -71.65 9.45 
-190.23 -71.38 9.41 
-189.58 -70.80 9.31 
-188.80 -69.90 9.22 
-188.24 -69.20 9.16 
-188.05 -68.90 9.14 
-187.88 -68.63 9.13 
-187.70 -68.37 9.11 
-187.20 -67.46 9.08 
-187.05 -67.19 9.07 
-186.58 -66.26 9.05 
-186.32 -65.50 9.05 
-194.69 -78.75 10.84 
-194.05 -78.56 10.70 
-194.46 -78.63 10.79 
-193.51 -78.34 10.59 
-188.14 -72.86 9.82 
-187.77 -72.50 9.77 
-187.46 -72.20 9.73 
-187.00 -71.71 9.68 
-186.82 -71.50 9.66 
-186.64 -71.27 9.64 
-186.46 -71.04 9.62 
-186.20 -70.69 9.60 
-185.93 -70.36 9.57 
-185.53 -62.38 9.14 
-196.37 -79.21 11.20 
-196.00 -79.12 11.12 
-195.09 -78.82 10.93 
-185.76 -70.09 9.56 
-185.58 -69.87 9.54 
-185.48 -69.63 9.55 
-185.28 -69.26 9.54 
-185.09 -69.01 9.52 
-184.94 -68.66 9.53 
-184.77 -68.48 9.51 
-193.66 -73.53 6.01 
-193.46 -73.39 5.98 
-193.11 -73.23 5.93 
-192.88 -73.08 5.90 
-192.31 -72.69 5.82 
-192.10 -72.58 5.79 
-191.90 -72.44 5.76 
-191.22 -71.79 5.66 
-190.92 -71.60 5.62 
-190.74 -71.44 5.59 
-190.56 -71.28 5.57 
-190.26 -71.01 5.52 
-186.62 -70.18 5.01 
-186.38 -70.11 4.98 
-186.21 -69.86 4.95 
-189.94 -70.68 5.48 
-189.62 -70.35 5.43 
-189.24 -69.90 5.37 
-188.21 -77.18 6.14 
-187.96 -76.97 6.10 
-187.73 -76.81 6.07 
-187.29 -76.46 6.00 
-186.90 -76.10 5.95 
-186.52 -75.77 5.89 
-186.15 -75.43 5.84 
-185.89 -75.15 5.80 
-185.70 -74.97 5.77 
-185.55 -74.76 5.75 
-185.36 -74.60 5.73 
-194.02 -76.40 7.05 
-185.17 -74.43 5.70 
-185.02 -74.21 5.68 
-203.46 -78.28 8.51 
-193.90 -76.15 7.03 
-184.71 -73.77 5.63 
-203.25 -78.09 8.47 
-184.72 -73.28 5.64 
-184.57 -73.04 5.62 
-184.42 -72.81 5.60 
-184.25 -72.60 5.58 
-184.10 -72.36 5.56 
-183.94 -72.17 5.54 
-183.81 -71.99 5.52 
-193.04 -73.27 6.93 
-185.77 -75.33 6.63 
-185.43 -74.94 6.58 
-184.76 -74.17 6.49 
-183.69 -72.80 6.36 
-183.56 -72.47 6.35 
-194.14 -76.58 8.03 
-193.91 -76.40 8.00 
-203.28 -78.28 9.60 
-196.53 -74.87 8.49 
-191.92 -72.63 7.76 
-191.69 -72.46 7.72 
-191.34 -72.19 7.67 
-190.56 -71.53 7.55 
-189.91 -70.92 7.46 
-186.37 -70.26 6.89 
-188.73 -69.50 7.30 
-188.19 -68.72 7.24 
-183.64 -61.24 6.73 
-193.90 -76.20 8.98 
-189.79 -70.87 8.44 
-186.55 -70.28 7.87 
-186.31 -70.22 7.83 
-186.09 -70.04 7.80 
-189.21 -70.19 8.37 
-201.31 -75.87 10.43 
-200.51 -75.71 10.28 
-198.74 -75.41 9.95 
-197.94 -75.26 9.80 
-202.60 -75.84 10.68 
-201.99 -75.86 10.56 
-193.83 -76.20 9.96 
-186.50 -70.21 8.84 
-186.15 -70.13 8.78 
-186.04 -69.88 8.78 
-199.86 -78.31 11.14 
-198.85 -77.12 10.98 
-193.14 -73.55 9.97 
-192.74 -73.32 9.90 
-192.33 -73.09 9.83 
-191.66 -72.57 9.72 
-190.95 -72.05 9.61 
-190.30 -71.46 9.52 
-189.98 -71.16 9.47 
-189.66 -70.84 9.43 
-189.37 -70.51 9.39 
-189.07 -70.16 9.36 
-188.86 -69.95 9.33 
-188.70 -69.69 9.31 
-188.50 -69.46 9.29 
-188.12 -68.86 9.26 
-187.96 -68.67 9.24 
-187.31 -67.46 9.19 
-187.17 -67.08 9.19 
-186.73 -66.07 9.18 
-188.37 -73.10 9.97 
-188.17 -72.93 9.94 
-187.87 -72.63 9.90 
-187.58 -72.32 9.86 
-187.39 -72.11 9.84 
-185.82 -61.97 9.31 
-195.73 -79.29 11.18 
-193.83 -78.65 10.78 
-187.20 -71.90 9.82 
-186.95 -71.56 9.79 
-186.67 -71.24 9.76 
-186.50 -71.00 9.75 
-186.29 -70.71 9.73 
-185.98 -70.26 9.70 
-185.48 -69.48 9.67 
-184.99 -68.61 9.65 
-184.85 -68.34 9.65 
-194.47 -76.39 6.33 
-190.06 -73.77 5.72 
-186.74 -70.24 5.24 
-186.48 -70.06 5.20 
-188.59 -77.52 6.40 
-187.52 -76.70 6.25 
-186.60 -75.81 6.12 
-185.54 -74.75 5.97 
-194.41 -76.74 7.31 
-194.21 -76.59 7.28 
-185.38 -74.55 5.95 
-185.24 -74.39 5.93 
-185.04 -74.14 5.90 
-184.91 -73.98 5.88 
-184.69 -73.75 5.85 
-203.39 -78.19 8.69 
-184.58 -73.56 5.84 
-184.36 -73.30 5.81 
-184.20 -73.07 5.79 
-183.65 -72.27 5.72 
-194.04 -73.93 7.29 
-191.53 -72.22 6.92 
-190.84 -71.65 6.83 
-190.19 -71.00 6.73 
-189.98 -70.79 6.71 
-189.78 -70.57 6.68 
-189.59 -70.37 6.65 
-203.41 -78.47 9.84 
-203.31 -78.20 9.83 
-192.33 -72.96 8.05 
-191.58 -72.38 7.94 
-190.89 -71.80 7.84 
-190.24 -71.19 7.75 
-190.06 -71.01 7.72 
-186.70 -70.43 7.17 
-186.41 -70.18 7.13 
-189.46 -70.34 7.64 
-188.70 -69.37 7.54 
-188.54 -69.09 7.53 
-188.34 -68.85 7.50 
-184.13 -61.43 7.06 
-183.85 -61.35 7.01 
-191.51 -72.36 8.94 
-190.77 -71.76 8.83 
-190.14 -71.12 8.75 
-186.37 -70.28 8.10 
-188.96 -69.74 8.60 
-187.78 -67.89 8.47 
-197.37 -75.30 9.93 
-202.04 -76.06 10.81 
-200.04 -75.81 10.43 
-198.31 -75.47 10.11 
-186.29 -70.19 9.07 
-186.33 -70.04 9.09 
-192.33 -73.07 10.10 
-191.84 -72.72 10.02 
-191.59 -72.54 9.98 
-191.37 -72.34 9.95 
-191.12 -72.16 9.91 
-190.91 -71.96 9.88 
-190.68 -71.77 9.84 
-190.45 -71.56 9.81 
-190.25 -71.35 9.78 
-190.03 -71.15 9.75 
-189.72 -70.81 9.71 
-189.42 -70.49 9.67 
-189.39 -70.43 9.67 
-189.21 -70.18 9.65 
-188.64 -69.46 9.59 
-188.48 -69.17 9.57 
-187.21 -66.78 9.49 
-187.04 -66.57 9.48 
-186.91 -66.22 9.48 
-191.48 -77.62 10.59 
-190.57 -77.13 10.42 
-190.23 -76.90 10.36 
-189.98 -76.70 10.32 
-188.88 -75.34 10.18 
-193.04 -78.45 10.89 
-189.99 -73.88 5.81 
-186.89 -70.37 5.38 
-186.69 -70.17 5.35 
-188.29 -77.37 6.48 
-187.33 -76.41 6.35 
-187.16 -76.27 6.33 
-186.75 -75.90 6.27 
-186.47 -75.63 6.23 
-186.21 -75.35 6.20 
-186.02 -75.16 6.17 
-185.79 -74.91 6.14 
-194.32 -76.69 7.41 
-185.48 -74.57 6.10 
-185.17 -74.18 6.05 
-184.80 -73.72 6.01 
-184.58 -73.43 5.98 
-184.25 -73.01 5.93 
-184.06 -72.60 5.91 
-196.23 -74.83 7.72 
-195.86 -74.70 7.67 
-192.04 -72.62 7.11 
-191.74 -72.40 7.07 
-184.18 -61.14 6.10 
-184.29 -73.41 6.82 
-194.23 -76.64 8.40 
-194.08 -74.02 8.45 
-192.43 -73.02 8.20 
-191.68 -72.46 8.09 
-190.91 -71.77 7.98 
-190.56 -71.43 7.93 
-190.25 -71.11 7.89 
-189.95 -70.77 7.85 
-189.13 -69.78 7.74 
-183.93 -61.28 7.18 
-192.51 -73.15 9.24 
-191.78 -72.57 9.13 
-190.85 -71.77 9.00 
-190.43 -71.38 8.94 
-190.20 -71.14 8.91 
-186.67 -70.43 8.30 
-199.91 -75.93 10.53 
-199.22 -75.93 10.40 
-200.90 -76.08 10.72 
-194.38 -74.30 10.61 
-194.10 -74.13 10.57 
-193.49 -73.84 10.46 
-192.92 -73.51 10.36 
-192.67 -73.34 10.32 
-192.41 -73.15 10.28 
-192.01 -72.86 10.21 
-191.62 -72.60 10.15 
-191.24 -72.26 10.09 
-190.94 -71.99 10.05 
-190.61 -71.68 10.00 
-190.29 -71.36 9.96 
-189.86 -70.90 9.90 
-187.74 -67.78 9.69 
-190.42 -77.10 10.58 
-190.20 -76.92 10.55 
-189.86 -76.54 10.50 
-193.70 -78.84 11.21 
-192.21 -78.16 10.91 
-191.91 -77.97 10.86 
-191.55 -77.78 10.79 
-189.42 -75.75 10.46 
-189.26 -75.57 10.44 
-190.23 -73.85 5.97 
-184.31 -72.29 5.18 
-186.98 -70.46 5.53 
-186.84 -70.16 5.51 
-187.01 -76.10 6.45 
-186.81 -75.92 6.43 
-186.53 -75.64 6.39 
-186.06 -75.15 6.33 
-194.72 -77.07 7.60 
-194.55 -76.88 7.57 
-185.89 -74.94 6.31 
-185.62 -74.65 6.27 
-194.49 -76.55 7.57 
-184.09 -72.52 6.07 
-184.18 -72.34 6.09 
-184.13 -72.01 6.09 
-184.02 -71.74 6.08 
-194.39 -74.19 7.59 
-183.84 -71.53 6.05 
-183.72 -71.23 6.04 
-183.59 -70.95 6.02 
-192.17 -72.67 7.28 
-191.77 -72.41 7.22 
-184.56 -61.34 6.32 
-183.94 -72.74 6.96 
-194.62 -77.06 8.61 
-194.28 -74.23 8.63 
-193.47 -73.69 8.51 
-191.17 -71.97 8.18 
-190.94 -71.77 8.14 
-190.71 -71.56 8.11 
-190.50 -71.33 8.09 
-190.29 -71.08 8.06 
-189.31 -69.89 7.94 
-184.30 -61.55 7.41 
-184.10 -61.28 7.39 
-194.47 -77.03 9.62 
-189.98 -70.82 9.06 
-189.38 -70.03 8.99 
-198.01 -75.70 10.35 
-196.01 -75.12 9.99 
-193.52 -73.85 9.58 
-192.70 -73.31 9.45 
-188.19 -68.17 8.87 
-184.16 -61.51 8.52 
-194.42 -76.95 10.67 
-196.00 -75.07 11.10 
-195.65 -74.93 11.03 
-193.72 -74.02 10.69 
-193.41 -73.87 10.63 
-192.35 -73.14 10.46 
-192.03 -72.94 10.40 
-191.35 -72.36 10.30 
-186.99 -70.73 9.54 
-189.46 -70.32 10.05 
-189.07 -69.81 10.01 
-188.05 -68.04 9.93 
-187.78 -67.38 9.92 
-193.07 -78.61 11.30 
-190.86 -77.38 10.88 
-190.54 -77.22 10.81 
-190.23 -76.97 10.76 
-189.83 -76.71 10.69 
-189.61 -76.55 10.66 
-189.38 -76.38 10.62 
-188.42 -76.67 5.77 
-184.73 -72.43 5.29 
-184.52 -72.29 5.26 
-186.81 -75.64 6.49 
-194.87 -76.96 7.66 
-194.82 -76.63 7.66 
-185.45 -74.06 6.32 
-185.31 -73.88 6.30 
-185.11 -73.69 6.27 
-184.88 -73.34 6.25 
-184.56 -72.87 6.21 
-184.32 -72.52 6.18 
-184.17 -72.29 6.16 
-196.83 -75.16 7.98 
-194.71 -74.27 7.68 
-184.01 -71.60 6.15 
-193.91 -73.74 7.56 
-183.92 -71.06 6.14 
-183.72 -70.64 6.12 
-192.27 -72.61 7.34 
-192.04 -72.39 7.31 
-183.60 -70.26 6.11 
-191.43 -71.84 7.23 
-184.82 -61.22 6.43 
-194.99 -77.15 8.73 
-196.36 -75.03 9.02 
-194.63 -74.28 8.75 
-193.09 -73.38 8.52 
-191.57 -72.17 8.31 
-187.38 -70.71 7.67 
-187.13 -70.56 7.63 
-189.73 -70.08 8.07 
-189.14 -69.23 8.00 
-184.76 -61.66 7.56 
-187.29 -70.66 8.68 
-194.81 -77.11 9.77 
-196.81 -75.36 10.21 
-196.44 -75.20 10.15 
-196.18 -75.05 10.11 
-193.80 -73.92 9.71 
-188.57 -68.35 9.02 
-193.42 -73.75 10.75 
-191.61 -72.36 10.47 
-190.92 -71.70 10.37 
-188.43 -68.32 10.10 
-188.30 -67.99 10.09 
-188.14 -67.68 10.09 
-195.66 -74.90 11.15 
-195.32 -74.75 11.08 
-194.98 -74.59 11.02 
-187.87 -66.93 10.08 
-191.88 -77.89 11.21 
-191.61 -77.72 11.16 
-191.00 -77.38 11.05 
-190.79 -77.23 11.01 
-189.87 -76.47 10.86 
-189.34 -76.11 10.77 
-184.62 -72.55 5.35 
-194.98 -77.37 7.75 
-186.01 -75.04 6.48 
-185.80 -74.74 6.45 
-194.76 -76.97 7.72 
-185.53 -74.42 6.41 
-185.33 -74.22 6.39 
-185.18 -73.97 6.37 
-184.95 -73.67 6.34 
-184.85 -73.46 6.33 
-184.63 -73.19 6.30 
-184.45 -72.68 6.29 
-184.46 -72.27 6.29 
-196.63 -75.34 8.01 
-184.35 -71.98 6.28 
-184.19 -71.72 6.26 
-183.92 -71.21 6.23 
-183.75 -70.97 6.21 
-183.61 -70.69 6.19 
-192.13 -72.76 7.40 
-183.52 -70.35 6.19 
-194.83 -77.33 8.80 
-183.88 -72.30 7.15 
-183.71 -72.14 7.13 
-196.80 -75.52 9.17 
-187.53 -71.03 7.78 
-187.23 -70.90 7.74 
-190.70 -71.53 8.28 
-187.10 -70.66 7.73 
-190.36 -71.13 8.24 
-190.07 -70.75 8.20 
-189.67 -70.23 8.15 
-184.75 -61.87 7.65 
-187.13 -70.84 8.76 
-194.76 -77.46 9.86 
-194.79 -77.06 9.88 
-196.08 -75.41 10.19 
-195.12 -74.94 10.03 
-194.83 -74.74 9.98 
-194.98 -77.60 10.99 
-194.73 -77.38 10.95 
-193.13 -73.86 10.81 
-192.59 -73.45 10.73 
-192.01 -73.02 10.64 
-187.24 -71.02 9.81 
-190.62 -71.67 10.44 
-189.09 -69.59 10.27 
-188.58 -68.72 10.23 
-188.29 -68.09 10.21 
-192.41 -78.48 11.45 
-190.22 -77.10 11.05 
-189.20 -76.35 10.87 
-187.38 -74.45 10.62 
-188.77 -77.06 6.08 
-184.65 -72.63 5.56 
-184.54 -72.33 5.54 
-194.93 -77.36 7.95 
-184.76 -73.33 6.54 
-184.45 -72.81 6.50 
-184.28 -72.58 6.48 
-184.16 -72.31 6.47 
-183.99 -72.07 6.45 
-183.85 -71.79 6.43 
-183.71 -71.52 6.41 
-183.55 -71.27 6.40 
-191.74 -72.44 7.56 
-187.63 -70.98 6.99 
-191.05 -71.76 7.47 
-190.42 -71.01 7.39 
-189.82 -70.23 7.31 
-189.65 -69.94 7.29 
-189.44 -69.69 7.27 
-195.29 -77.75 9.09 
-195.02 -77.58 9.05 
-194.85 -77.31 9.03 
-196.53 -75.47 9.36 
-193.14 -73.73 8.85 
-187.38 -71.01 7.99 
-187.27 -70.75 7.98 
-189.87 -70.41 8.42 
-195.92 -75.35 10.41 
-191.96 -72.86 9.79 
-187.24 -70.65 9.04 
-193.78 -77.34 11.03 
-191.34 -72.38 10.81 
-190.89 -71.92 10.75 
-188.57 -75.68 11.07 
-188.15 -75.26 11.01 
-187.53 -74.63 10.92 
-186.95 -73.93 10.85 
-185.23 -71.47 10.68 
-184.49 -69.99 10.65 
-184.25 -69.43 10.65 
