# .PCD v0.7 - Point Cloud Data file format
VERSION 0.7
FIELDS x y z
SIZE 4 4 4
TYPE F F F
COUNT 1 1 1
WIDTH 2277
HEIGHT 1
VIEWPOINT 0 0 0 1 0 0 0
POINTS 2277
DATA ascii
289.84 -730.58 6.71 
288.29 -730.70 6.84 
290.54 -730.95 6.68 
282.23 -732.15 6.95 
290.58 -731.43 6.71 
290.56 -731.59 6.73 
287.46 -732.26 6.54 
290.63 -731.99 6.75 
291.35 -732.30 6.72 
289.15 -733.16 6.46 
271.28 -729.69 7.82 
279.02 -730.07 7.62 
281.26 -730.07 7.41 
280.05 -730.10 7.52 
279.42 -730.32 7.60 
282.77 -730.31 7.28 
282.35 -730.15 7.31 
282.01 -730.31 7.35 
281.54 -730.40 7.40 
280.52 -730.40 7.50 
280.27 -730.41 7.52 
282.32 -730.48 7.33 
288.82 -730.08 7.02 
287.67 -730.32 7.14 
283.07 -731.11 7.31 
281.01 -731.27 7.50 
279.67 -731.59 7.65 
289.76 -730.05 6.93 
282.15 -731.64 7.42 
287.41 -731.16 7.21 
286.82 -731.02 6.98 
282.42 -731.69 7.40 
281.84 -732.16 7.48 
282.05 -732.62 7.50 
288.92 -731.92 7.13 
288.26 -732.18 7.21 
282.15 -732.93 7.51 
290.72 -732.25 6.76 
289.40 -732.37 6.87 
291.15 -732.39 6.74 
289.53 -732.51 6.87 
288.73 -732.90 6.96 
288.91 -733.03 6.96 
290.60 -733.23 7.08 
270.47 -729.83 8.49 
273.98 -730.14 8.13 
273.85 -729.97 8.14 
273.49 -729.96 8.17 
273.03 -730.03 8.23 
271.71 -730.36 8.38 
271.31 -730.18 8.42 
273.40 -730.78 8.23 
271.69 -730.93 8.41 
273.32 -731.61 8.28 
272.92 -731.63 8.32 
286.89 -729.95 7.58 
286.77 -729.82 7.58 
273.74 -731.88 8.25 
273.37 -731.94 8.29 
279.08 -731.57 7.71 
290.64 -730.21 7.27 
290.40 -730.05 7.27 
291.41 -730.39 7.22 
291.17 -730.47 7.25 
290.71 -730.42 7.28 
290.41 -730.35 7.30 
287.10 -730.89 7.64 
290.84 -730.87 7.32 
288.38 -731.11 7.55 
288.91 -731.43 7.53 
288.35 -731.69 7.60 
288.98 -731.80 7.56 
288.45 -731.90 7.61 
288.87 -732.63 7.65 
271.44 -731.47 8.47 
281.38 -730.41 8.17 
289.29 -730.08 8.03 
288.73 -729.82 8.06 
287.72 -730.29 7.83 
288.79 -730.50 7.74 
288.09 -730.53 7.81 
287.64 -730.84 7.88 
290.66 -731.71 7.66 
290.67 -732.21 7.71 
272.31 -729.96 9.19 
273.53 -729.94 9.04 
288.46 -730.03 8.11 
290.29 -730.72 8.01 
290.01 -730.59 8.02 
289.72 -730.47 8.04 
290.38 -731.04 8.04 
288.76 -731.24 8.22 
288.90 -731.52 8.24 
291.39 -731.64 8.02 
287.93 -732.19 8.41 
290.28 -732.24 8.19 
290.71 -732.56 8.19 
272.81 -731.00 9.20 
272.23 -731.96 9.34 
273.08 -732.26 9.26 
288.72 -730.38 8.81 
288.62 -730.68 8.86 
288.80 -732.35 9.07 
289.74 -733.33 9.11 
288.99 -729.83 9.37 
291.27 -729.86 4.30 
291.41 -730.11 4.29 
288.43 -731.53 4.86 
271.81 -731.29 5.72 
287.83 -731.35 5.11 
287.59 -731.40 5.12 
279.72 -731.03 6.32 
279.47 -730.98 6.34 
278.96 -731.21 6.38 
288.14 -731.63 5.79 
288.01 -731.51 5.79 
271.19 -731.04 6.93 
280.95 -730.15 6.69 
271.38 -731.24 6.92 
279.65 -730.83 6.82 
289.02 -729.69 6.31 
286.73 -730.16 6.51 
280.77 -730.73 6.73 
280.68 -730.93 6.75 
278.36 -731.42 6.95 
281.02 -731.16 6.73 
280.79 -731.17 6.75 
279.50 -731.44 6.87 
287.78 -730.75 6.46 
288.36 -731.17 6.20 
287.84 -731.22 6.48 
286.35 -731.48 6.60 
288.47 -731.42 6.21 
286.37 -731.91 6.62 
290.26 -731.48 6.32 
290.06 -731.52 6.33 
288.76 -731.87 6.21 
289.42 -732.30 6.42 
289.30 -732.63 6.44 
272.70 -730.39 7.39 
270.92 -730.73 7.55 
270.62 -730.64 7.58 
271.79 -730.99 7.49 
271.33 -731.07 7.53 
280.04 -730.37 7.06 
279.00 -730.50 7.16 
272.62 -731.27 7.43 
286.58 -729.93 6.93 
286.12 -729.76 6.95 
279.62 -730.54 7.11 
278.56 -730.63 7.20 
278.09 -730.72 7.24 
272.42 -731.79 7.47 
286.32 -730.01 6.95 
287.06 -730.29 6.91 
281.63 -731.31 6.97 
281.24 -731.42 7.01 
272.50 -732.55 7.49 
272.98 -732.75 7.46 
290.56 -730.93 6.70 
273.15 -733.02 7.45 
282.05 -732.32 6.98 
290.61 -731.44 6.74 
282.02 -732.68 7.00 
290.76 -732.06 6.77 
289.94 -732.25 6.85 
291.26 -732.36 6.76 
270.97 -730.88 7.88 
281.34 -729.97 7.38 
282.92 -730.24 7.26 
282.44 -730.19 7.30 
282.25 -730.36 7.33 
281.79 -730.48 7.37 
281.38 -730.26 7.40 
280.47 -730.42 7.49 
288.90 -729.95 6.99 
282.58 -730.65 7.32 
281.03 -730.85 7.47 
280.44 -730.85 7.52 
289.92 -730.10 6.92 
283.11 -731.14 7.30 
282.77 -730.89 7.32 
281.01 -731.26 7.50 
290.07 -730.58 6.94 
282.58 -731.61 7.38 
282.42 -731.53 7.39 
290.84 -730.75 6.89 
288.96 -731.11 7.07 
288.02 -731.10 7.15 
291.48 -731.27 6.88 
290.93 -731.09 6.91 
287.36 -731.50 7.23 
286.79 -731.92 7.06 
287.94 -732.14 7.23 
282.14 -732.89 7.51 
289.61 -732.51 6.89 
289.45 -732.43 6.89 
288.21 -732.87 7.02 
271.96 -729.76 8.30 
270.34 -729.77 8.47 
273.85 -730.03 8.12 
273.46 -730.05 8.16 
273.04 -730.13 8.20 
272.38 -730.01 8.27 
274.06 -730.11 8.10 
272.93 -730.54 8.24 
272.31 -730.50 8.30 
271.95 -730.49 8.34 
271.73 -730.34 8.35 
282.03 -729.72 8.02 
271.65 -731.10 8.40 
273.32 -731.70 8.27 
272.94 -731.72 8.31 
288.94 -729.91 7.64 
287.31 -730.26 7.56 
287.04 -730.13 7.57 
274.40 -731.59 8.15 
274.04 -731.67 8.19 
273.37 -732.03 8.28 
290.54 -730.10 7.27 
287.63 -730.50 7.55 
291.38 -730.48 7.25 
290.74 -730.42 7.29 
287.33 -730.70 7.60 
291.16 -730.64 7.28 
290.80 -730.85 7.33 
291.33 -731.72 7.37 
288.46 -731.87 7.61 
289.49 -732.32 7.57 
288.71 -732.18 7.62 
271.78 -730.31 8.72 
272.89 -730.73 8.62 
281.00 -730.14 8.16 
288.70 -729.92 8.05 
286.80 -730.06 7.86 
282.52 -730.70 8.05 
282.25 -730.59 8.07 
281.83 -730.65 8.12 
289.20 -730.21 8.04 
288.35 -730.25 8.12 
287.87 -730.27 7.78 
289.95 -730.47 8.00 
289.67 -730.69 8.06 
288.01 -730.81 7.81 
290.24 -730.75 8.01 
290.04 -730.70 8.03 
291.08 -731.35 8.02 
289.55 -731.73 7.75 
289.29 -731.82 7.78 
290.81 -732.30 7.69 
273.52 -730.01 9.00 
272.17 -729.94 9.15 
273.01 -730.19 9.07 
273.07 -730.79 9.11 
287.76 -730.12 8.45 
287.57 -730.12 8.18 
288.38 -730.22 8.39 
290.63 -731.42 8.06 
288.98 -731.49 8.21 
291.43 -731.56 8.01 
291.15 -731.73 8.06 
290.43 -731.51 8.09 
290.12 -731.73 8.14 
289.14 -732.11 8.27 
290.39 -732.31 8.19 
272.14 -731.81 9.29 
289.30 -730.00 8.66 
289.11 -730.05 8.69 
271.99 -732.35 9.35 
289.32 -731.09 8.81 
288.29 -732.47 8.65 
288.86 -733.11 8.66 
288.50 -732.98 8.68 
289.23 -733.40 8.66 
289.47 -733.27 9.11 
288.20 -729.80 9.40 
290.06 -729.76 4.23 
290.51 -730.25 4.21 
290.32 -730.06 4.22 
290.55 -730.43 4.21 
290.62 -731.00 4.20 
290.50 -730.83 4.21 
290.68 -731.34 4.19 
288.78 -732.69 4.73 
271.43 -731.11 5.79 
287.93 -731.38 4.97 
288.01 -731.63 4.97 
279.92 -731.08 5.88 
280.07 -731.20 5.87 
288.45 -731.51 5.40 
279.51 -730.87 6.15 
279.51 -731.24 6.16 
288.11 -731.54 5.64 
278.23 -730.54 6.73 
280.65 -730.82 6.56 
280.26 -730.94 6.59 
279.80 -730.90 6.63 
280.72 -731.11 6.57 
279.64 -731.47 6.67 
278.68 -731.67 6.75 
279.79 -731.72 6.67 
288.47 -731.31 6.05 
287.98 -731.33 6.31 
290.18 -731.55 6.17 
288.70 -731.76 6.06 
288.59 -731.46 6.05 
286.54 -731.91 6.44 
291.36 -731.75 6.11 
290.21 -731.77 6.18 
288.87 -731.92 6.06 
290.43 -732.25 6.20 
289.38 -732.34 6.27 
289.50 -732.80 6.29 
288.84 -732.79 6.33 
271.79 -730.15 7.23 
271.84 -731.18 7.27 
271.47 -731.12 7.30 
288.00 -729.72 6.63 
287.48 -729.76 6.68 
286.92 -729.97 6.73 
286.49 -729.97 6.76 
286.31 -729.89 6.77 
285.93 -730.01 6.81 
279.15 -730.55 6.94 
278.07 -730.70 7.04 
277.41 -731.06 7.11 
274.52 -731.19 7.05 
286.62 -730.15 6.77 
272.39 -731.75 7.25 
271.23 -732.17 7.36 
290.03 -730.09 6.74 
288.65 -730.46 6.65 
272.56 -732.34 7.26 
281.51 -731.62 6.80 
281.35 -731.52 6.81 
272.81 -732.51 7.25 
279.04 -732.11 7.02 
273.48 -732.79 7.20 
290.76 -731.17 6.56 
282.06 -732.47 6.80 
282.23 -732.62 6.80 
290.91 -732.14 6.63 
291.49 -732.29 6.61 
290.00 -732.45 6.71 
279.38 -730.29 7.38 
282.50 -730.28 7.10 
282.11 -730.52 7.15 
280.73 -730.65 7.28 
280.34 -730.51 7.31 
272.08 -731.65 7.58 
289.36 -730.01 6.79 
283.08 -730.52 7.07 
282.67 -730.58 7.11 
281.63 -730.91 7.22 
281.11 -730.94 7.27 
280.65 -730.86 7.30 
290.67 -729.99 7.10 
290.48 -730.11 7.12 
290.11 -730.60 6.77 
283.20 -731.36 7.12 
282.76 -731.53 7.17 
282.03 -731.51 7.23 
280.37 -731.64 7.38 
290.99 -730.84 6.72 
290.40 -730.88 6.77 
291.06 -731.17 6.74 
289.40 -732.65 6.98 
289.80 -733.09 6.77 
271.86 -729.72 8.06 
273.06 -729.93 7.95 
271.94 -730.01 8.07 
273.59 -730.04 7.91 
273.00 -730.37 7.98 
272.04 -730.26 8.07 
270.82 -730.37 8.20 
281.86 -729.71 7.82 
273.93 -730.40 7.90 
271.99 -730.68 8.10 
281.53 -729.84 7.87 
273.07 -731.03 8.02 
282.26 -730.72 7.87 
273.57 -731.76 8.01 
289.87 -730.18 7.17 
288.24 -730.23 7.30 
287.30 -730.56 7.41 
273.97 -732.23 8.00 
273.88 -732.02 8.00 
291.20 -730.62 7.12 
290.66 -730.40 7.14 
274.29 -732.64 8.00 
273.91 -732.37 8.02 
290.84 -730.92 7.18 
289.28 -731.00 7.52 
289.06 -731.09 7.55 
288.52 -731.16 7.37 
289.46 -732.22 7.41 
288.80 -732.33 7.47 
279.86 -730.03 8.05 
279.30 -730.45 8.14 
288.05 -729.77 7.91 
278.96 -730.55 8.19 
288.11 -730.17 7.96 
282.07 -730.62 7.88 
289.07 -730.33 7.89 
290.03 -730.65 7.85 
289.71 -730.78 7.90 
289.31 -730.78 7.93 
288.53 -730.68 7.98 
281.91 -731.75 8.00 
281.00 -731.50 8.07 
289.87 -730.92 7.90 
289.43 -731.04 7.95 
282.10 -731.88 7.99 
290.50 -731.50 7.92 
288.63 -731.45 7.62 
291.35 -731.58 7.87 
290.85 -731.61 7.91 
281.20 -732.92 8.18 
290.09 -732.63 7.61 
273.30 -729.71 8.74 
272.66 -729.83 8.83 
272.28 -730.00 8.89 
274.27 -730.48 8.69 
274.06 -730.34 8.71 
273.62 -730.43 8.76 
280.39 -730.07 8.73 
274.21 -730.89 8.73 
274.30 -731.11 8.74 
282.14 -731.14 8.66 
272.74 -732.51 9.03 
288.88 -731.06 8.23 
291.06 -731.69 7.90 
290.12 -731.77 7.99 
291.34 -732.22 7.95 
290.45 -732.36 8.03 
290.23 -732.38 8.05 
291.49 -732.47 7.97 
289.95 -732.78 8.12 
289.16 -730.11 8.51 
288.79 -729.97 8.52 
288.50 -729.96 8.55 
288.48 -732.32 8.42 
273.01 -731.09 9.75 
288.69 -729.76 9.14 
289.28 -729.71 9.08 
288.98 -730.10 9.17 
289.03 -732.27 8.83 
289.28 -733.00 8.92 
288.52 -731.50 4.67 
288.23 -731.51 4.69 
279.49 -731.08 5.30 
287.96 -731.39 4.91 
287.77 -731.38 4.92 
280.05 -731.15 5.78 
288.04 -731.23 5.56 
271.52 -731.01 6.57 
271.49 -731.35 6.58 
279.97 -730.92 6.02 
279.46 -730.84 6.05 
279.43 -731.22 6.06 
278.91 -731.14 6.09 
276.85 -730.38 6.71 
286.37 -729.92 6.25 
286.00 -730.01 6.28 
285.62 -729.94 6.30 
285.34 -729.83 6.32 
278.58 -730.64 6.59 
289.27 -729.95 6.06 
287.81 -730.08 6.16 
286.55 -730.02 6.24 
280.75 -730.87 6.45 
280.23 -730.90 6.49 
280.79 -731.15 6.46 
287.94 -730.67 6.18 
279.81 -731.56 6.55 
288.46 -731.27 5.98 
287.98 -731.39 6.22 
290.25 -731.48 6.08 
288.69 -731.74 5.99 
286.38 -731.92 6.36 
291.19 -731.75 6.04 
290.29 -732.00 6.11 
288.97 -731.93 5.99 
288.59 -732.02 6.22 
289.25 -732.40 6.20 
290.75 -732.44 6.11 
289.42 -733.18 6.23 
271.87 -730.33 7.09 
282.95 -729.91 6.92 
271.32 -730.80 7.16 
287.55 -729.69 6.57 
286.78 -729.94 6.64 
285.93 -729.99 6.70 
285.81 -729.81 6.70 
279.15 -730.47 6.81 
274.27 -731.02 6.94 
271.94 -731.01 7.27 
271.55 -731.12 7.16 
289.14 -729.93 6.48 
287.14 -729.98 6.62 
286.39 -730.13 6.68 
286.05 -730.16 6.71 
283.08 -730.55 6.96 
278.44 -730.97 6.89 
290.20 -730.11 6.62 
288.62 -730.39 6.55 
272.35 -731.73 7.12 
271.39 -732.05 7.21 
290.83 -730.53 6.61 
286.40 -730.88 6.74 
281.38 -731.28 6.68 
279.18 -731.55 6.86 
272.57 -732.25 7.13 
271.98 -732.54 7.19 
291.10 -730.82 6.62 
287.04 -731.50 6.75 
280.34 -731.93 6.79 
273.55 -732.66 7.07 
272.61 -732.61 7.14 
291.35 -731.22 6.63 
290.68 -731.48 6.52 
287.14 -731.81 6.77 
288.90 -732.05 6.67 
291.47 -732.32 6.54 
290.90 -732.19 6.56 
289.87 -732.26 6.63 
289.66 -732.44 6.66 
280.95 -729.76 7.07 
280.00 -730.16 7.48 
279.80 -730.02 7.19 
270.85 -730.92 7.51 
288.20 -729.80 7.16 
285.72 -729.97 6.96 
281.65 -730.11 7.04 
281.35 -730.28 7.08 
290.46 -729.97 7.02 
282.51 -730.51 7.00 
282.05 -730.73 7.06 
281.75 -730.64 7.07 
280.86 -730.71 7.15 
291.18 -730.09 6.99 
290.75 -730.31 7.04 
290.60 -730.08 7.02 
282.63 -730.99 7.03 
281.21 -730.94 7.14 
291.23 -730.62 7.04 
283.16 -731.31 7.01 
280.08 -731.59 7.28 
282.79 -731.58 7.06 
289.33 -731.82 6.82 
288.62 -732.49 6.93 
288.45 -732.30 6.92 
289.36 -732.80 6.90 
287.67 -733.05 7.04 
287.99 -733.19 6.82 
272.14 -730.07 7.89 
272.06 -730.36 7.92 
279.95 -729.80 7.87 
272.88 -730.73 7.86 
272.49 -730.86 7.91 
271.92 -730.73 7.96 
286.44 -730.35 7.35 
282.07 -730.68 7.76 
281.81 -730.78 7.79 
281.12 -730.70 7.84 
273.23 -731.51 7.88 
272.81 -731.60 7.93 
272.57 -731.49 7.94 
271.70 -731.65 8.04 
287.36 -730.52 7.30 
286.99 -730.54 7.33 
273.39 -731.67 7.88 
290.87 -730.67 7.07 
289.78 -730.71 7.33 
288.50 -730.75 7.24 
273.79 -731.99 7.86 
273.43 -732.05 7.90 
291.40 -730.79 7.05 
291.07 -731.01 7.09 
289.52 -730.92 7.38 
289.05 -731.04 7.43 
274.08 -732.36 7.86 
289.76 -731.77 7.44 
289.61 -731.71 7.45 
291.16 -732.18 7.38 
288.87 -732.27 7.37 
290.06 -732.57 7.32 
272.74 -730.31 8.19 
278.55 -729.97 8.03 
274.51 -730.55 8.50 
288.50 -730.25 7.82 
280.43 -731.04 7.94 
273.63 -731.85 8.20 
290.17 -730.49 7.73 
289.80 -730.74 7.79 
288.96 -730.56 7.83 
281.60 -731.60 7.89 
290.87 -731.50 7.81 
286.94 -731.78 7.68 
281.89 -732.15 7.91 
291.48 -731.54 7.78 
290.64 -731.65 7.85 
290.04 -731.72 7.90 
281.21 -732.71 8.03 
289.64 -733.21 7.60 
272.62 -729.94 8.66 
272.19 -730.10 8.72 
271.70 -730.18 8.78 
281.44 -729.72 8.42 
274.08 -730.53 8.55 
273.65 -730.65 8.61 
273.23 -730.76 8.66 
273.01 -730.65 8.68 
281.72 -730.08 8.43 
280.60 -730.31 8.58 
274.22 -730.74 8.55 
290.20 -731.89 7.91 
291.12 -732.25 7.89 
290.31 -732.30 7.95 
288.66 -733.01 8.35 
290.75 -733.31 8.05 
289.00 -729.91 8.38 
289.17 -731.26 8.57 
288.79 -732.02 8.71 
290.98 -732.03 8.54 
290.82 -731.99 8.55 
290.13 -732.41 8.66 
290.93 -732.47 8.62 
290.48 -732.52 8.66 
289.16 -733.31 8.34 
270.77 -730.14 9.75 
273.09 -730.17 9.45 
273.05 -731.30 9.57 
272.74 -731.34 9.61 
289.71 -733.19 8.82 
289.62 -732.94 9.49 
288.54 -731.45 4.64 
287.98 -731.42 4.87 
288.22 -731.52 4.86 
280.17 -731.17 5.68 
280.00 -731.10 5.68 
288.36 -731.73 5.51 
288.67 -731.99 5.50 
279.73 -730.86 5.93 
271.47 -731.12 6.42 
279.64 -731.13 5.94 
279.01 -731.22 5.98 
288.44 -731.16 5.92 
287.64 -729.74 6.08 
286.99 -729.81 6.13 
286.87 -729.98 6.14 
286.12 -729.82 6.18 
285.91 -729.85 6.19 
285.50 -729.83 6.22 
280.34 -730.08 6.58 
276.96 -730.66 6.58 
276.88 -730.39 6.57 
286.62 -730.13 6.17 
286.21 -730.05 6.19 
278.62 -730.70 6.47 
274.59 -731.12 6.76 
281.25 -730.98 6.56 
280.85 -731.08 6.34 
280.32 -730.93 6.37 
279.88 -730.92 6.40 
290.00 -730.92 6.02 
280.27 -731.51 6.40 
279.94 -731.66 6.43 
278.75 -731.56 6.50 
291.18 -731.21 5.97 
290.45 -730.98 6.00 
288.59 -731.38 5.93 
286.47 -731.46 6.25 
290.66 -731.62 6.02 
288.78 -731.77 5.94 
290.88 -731.82 6.02 
289.04 -731.97 5.94 
289.14 -732.53 6.16 
287.93 -732.93 6.25 
270.31 -729.84 7.01 
271.35 -730.15 6.95 
270.47 -730.05 7.01 
280.95 -729.88 6.96 
288.20 -729.84 6.48 
287.04 -729.97 6.56 
286.56 -729.86 6.58 
285.97 -729.91 6.62 
281.71 -730.10 6.92 
281.38 -730.38 6.97 
279.19 -730.50 6.68 
273.00 -730.74 7.15 
271.90 -730.95 7.10 
271.09 -730.97 7.31 
290.23 -730.08 6.56 
287.08 -730.04 6.56 
286.72 -730.23 6.60 
286.28 -730.16 6.62 
283.04 -730.62 6.87 
282.59 -730.60 6.90 
282.43 -730.54 6.90 
281.83 -730.39 6.93 
279.85 -730.66 6.64 
277.13 -730.90 6.85 
272.00 -731.26 6.95 
290.38 -730.20 6.56 
288.60 -730.59 6.52 
283.19 -730.74 6.87 
282.72 -730.88 6.91 
280.22 -730.89 6.63 
271.52 -731.74 7.31 
291.07 -730.66 6.56 
290.60 -730.66 6.58 
283.19 -731.31 6.91 
281.39 -731.52 6.58 
272.51 -732.04 6.96 
271.44 -731.97 7.03 
290.70 -730.94 6.44 
288.15 -731.46 6.61 
281.39 -731.91 6.60 
280.96 -731.71 6.62 
272.71 -732.35 6.96 
271.44 -732.38 7.05 
288.74 -731.61 6.59 
272.94 -732.86 6.96 
271.69 -732.88 7.05 
271.35 -732.81 7.08 
273.87 -732.95 6.90 
279.60 -729.70 7.05 
280.14 -729.96 7.30 
288.47 -729.69 7.07 
287.21 -729.73 7.15 
279.44 -730.42 7.11 
290.59 -730.10 6.99 
281.51 -730.55 6.97 
280.65 -730.76 7.18 
291.09 -730.41 6.99 
290.89 -730.48 7.01 
281.94 -730.86 6.96 
280.83 -730.94 7.05 
291.13 -730.64 7.02 
282.34 -731.20 6.96 
282.85 -731.57 6.95 
291.03 -731.75 6.65 
289.80 -732.48 6.78 
288.75 -732.48 6.85 
273.79 -729.99 7.87 
270.76 -730.14 7.83 
281.51 -729.71 7.58 
280.98 -729.85 7.64 
272.80 -730.54 8.00 
286.92 -729.92 7.40 
280.95 -730.26 7.68 
272.86 -730.67 7.68 
272.04 -730.86 7.76 
287.39 -730.14 7.18 
282.09 -730.74 7.63 
271.54 -731.48 7.85 
287.87 -730.49 7.19 
287.42 -730.63 7.23 
282.03 -730.92 7.66 
273.32 -731.64 7.70 
272.28 -731.72 7.80 
273.69 -731.97 7.69 
273.36 -731.99 7.72 
272.78 -731.96 7.77 
272.55 -731.84 7.78 
272.08 -732.01 7.83 
289.14 -731.63 7.23 
286.67 -731.80 7.40 
289.88 -731.92 7.22 
289.56 -731.92 7.40 
288.68 -731.93 7.29 
290.19 -732.45 7.41 
290.31 -732.70 7.43 
290.84 -733.06 7.43 
273.48 -730.31 8.39 
288.59 -729.82 7.87 
287.10 -729.85 7.80 
278.18 -730.38 7.94 
274.58 -730.79 8.32 
274.38 -730.73 8.34 
273.93 -730.74 8.39 
287.23 -730.06 7.82 
274.37 -731.44 8.40 
290.29 -730.67 7.69 
289.94 -730.72 7.72 
289.66 -730.98 7.77 
290.60 -731.26 7.75 
290.94 -731.50 7.77 
282.01 -732.09 7.77 
281.70 -732.30 7.82 
290.26 -731.84 7.85 
288.41 -732.78 7.57 
271.49 -729.72 8.55 
271.03 -729.86 8.62 
278.70 -730.07 8.59 
282.28 -729.94 8.22 
281.76 -730.14 8.29 
281.02 -730.22 8.37 
278.82 -730.21 8.59 
273.30 -730.88 8.46 
272.65 -731.35 8.57 
281.96 -731.09 8.38 
280.79 -731.07 8.49 
274.08 -731.48 8.43 
282.10 -731.20 8.38 
290.00 -732.45 8.08 
288.76 -732.53 8.03 
290.63 -732.68 7.94 
291.09 -733.13 7.97 
273.17 -730.31 9.23 
289.16 -730.02 8.31 
290.39 -732.33 8.58 
290.23 -732.30 8.59 
271.03 -729.80 9.44 
271.22 -730.15 9.45 
270.62 -730.31 9.54 
272.98 -730.91 9.31 
288.96 -729.99 8.95 
272.99 -731.27 9.35 
273.21 -731.79 9.38 
272.53 -732.23 9.50 
289.73 -732.92 9.41 
289.56 -732.77 9.39 
289.16 -732.71 9.41 
288.53 -731.42 4.52 
288.33 -731.50 4.53 
279.59 -731.01 5.08 
288.13 -731.44 4.74 
287.98 -731.41 4.75 
279.70 -730.88 5.78 
271.82 -731.23 6.12 
271.50 -731.18 6.26 
279.63 -731.32 5.80 
278.95 -731.18 5.83 
271.99 -731.40 5.98 
288.42 -731.20 5.80 
288.60 -731.32 5.80 
272.38 -729.87 6.69 
285.47 -729.77 6.07 
280.38 -729.95 6.40 
288.04 -729.73 5.91 
286.71 -729.97 6.00 
286.05 -729.77 6.03 
285.60 -729.91 6.07 
279.21 -730.47 6.51 
274.51 -730.52 6.57 
280.26 -730.83 6.46 
278.75 -730.75 6.31 
274.76 -731.10 6.59 
274.37 -731.06 6.61 
290.16 -730.67 5.86 
286.04 -730.73 6.09 
280.84 -731.10 6.20 
280.35 -730.97 6.22 
274.71 -731.41 6.61 
273.22 -731.39 6.71 
289.75 -730.88 5.89 
289.53 -730.92 5.90 
288.06 -731.19 6.00 
280.29 -731.53 6.25 
280.10 -731.41 6.50 
278.84 -731.56 6.34 
291.35 -731.17 5.83 
290.39 -731.26 5.88 
287.08 -731.69 6.08 
286.89 -731.56 6.08 
281.05 -731.85 6.46 
291.22 -731.59 5.86 
290.69 -731.54 5.88 
289.04 -731.90 5.81 
288.70 -731.74 5.82 
282.21 -732.38 6.41 
281.43 -732.10 6.45 
291.34 -732.02 5.88 
290.93 -732.05 5.90 
281.74 -732.41 6.44 
289.47 -732.44 6.00 
270.67 -730.18 6.83 
266.57 -730.20 7.14 
283.11 -729.78 6.64 
281.90 -729.85 6.73 
281.41 -729.70 6.75 
279.75 -729.86 6.88 
279.45 -729.97 6.91 
270.89 -730.45 6.83 
287.81 -729.84 6.54 
287.64 -729.72 6.36 
287.13 -729.96 6.41 
286.53 -729.87 6.43 
286.25 -729.97 6.46 
285.90 -729.82 6.47 
282.79 -730.05 6.68 
282.01 -730.35 6.76 
271.04 -730.91 7.13 
290.40 -730.01 6.39 
286.59 -730.46 6.67 
281.44 -730.54 6.81 
281.28 -730.49 6.82 
272.09 -730.98 7.05 
271.60 -731.17 6.81 
271.08 -731.16 6.99 
291.21 -730.35 6.38 
286.61 -730.70 6.50 
286.41 -730.74 6.51 
283.14 -730.73 6.71 
282.20 -730.81 6.78 
281.52 -730.91 6.84 
271.54 -731.45 7.12 
287.82 -731.25 6.48 
283.08 -731.39 6.77 
282.25 -731.21 6.81 
272.35 -731.79 6.79 
270.43 -732.13 6.94 
287.31 -731.68 6.54 
283.41 -731.57 6.76 
278.33 -731.95 6.65 
291.17 -731.85 6.50 
288.73 -731.67 6.47 
287.50 -731.73 6.54 
287.33 -731.77 6.55 
272.39 -732.54 6.82 
290.99 -732.21 6.41 
288.72 -729.86 6.93 
288.20 -729.74 6.94 
279.03 -730.32 7.24 
288.38 -730.20 6.98 
287.37 -730.10 7.03 
280.56 -730.76 7.14 
280.32 -730.68 7.16 
279.76 -730.68 6.94 
279.70 -730.88 6.96 
278.05 -730.71 7.07 
273.04 -731.25 7.52 
273.12 -731.37 7.52 
273.63 -731.84 7.51 
282.48 -731.69 6.83 
274.09 -732.29 7.50 
274.49 -732.55 7.49 
290.01 -732.53 6.63 
289.80 -732.69 6.65 
270.86 -730.20 7.64 
282.00 -729.93 7.39 
281.60 -729.84 7.41 
280.92 -729.90 7.48 
278.78 -729.99 7.67 
277.51 -729.99 7.78 
281.14 -730.35 7.50 
273.22 -730.83 7.78 
272.85 -730.52 7.80 
271.92 -730.73 7.58 
287.25 -730.47 7.08 
286.81 -730.38 7.09 
281.82 -730.70 7.48 
271.37 -731.07 7.65 
287.99 -730.57 7.04 
287.20 -730.71 7.11 
286.45 -730.58 7.14 
289.80 -730.79 7.11 
288.62 -731.15 7.07 
287.26 -731.28 7.16 
273.76 -732.01 7.81 
273.38 -732.05 7.55 
272.86 -731.94 7.58 
271.87 -731.85 7.97 
289.37 -731.41 7.06 
287.38 -731.59 7.19 
282.06 -731.75 7.57 
281.66 -731.85 7.61 
273.77 -732.26 7.53 
291.36 -732.01 7.14 
288.84 -732.22 7.17 
291.42 -732.55 7.19 
290.45 -732.51 7.24 
290.24 -732.59 7.27 
287.31 -732.60 7.30 
290.49 -732.81 7.27 
289.82 -733.36 7.37 
272.45 -729.82 8.26 
271.44 -729.91 8.37 
271.21 -729.80 8.38 
282.38 -729.76 8.00 
272.45 -730.17 8.29 
287.76 -729.95 7.61 
287.24 -729.92 7.64 
288.32 -730.15 7.60 
274.30 -731.21 8.19 
273.98 -730.88 8.20 
274.54 -731.26 8.17 
273.86 -731.42 8.26 
289.87 -730.84 7.60 
291.07 -731.40 7.62 
290.89 -731.58 7.65 
281.56 -732.36 7.67 
291.41 -732.10 7.69 
279.42 -730.07 8.32 
281.72 -730.10 8.10 
271.43 -730.66 8.43 
270.08 -731.03 8.60 
279.19 -730.55 8.39 
282.68 -730.85 8.11 
281.98 -731.45 8.24 
272.65 -731.76 8.40 
272.68 -732.19 8.44 
291.13 -732.67 7.78 
291.12 -733.15 7.84 
289.41 -733.43 8.08 
273.67 -729.75 8.90 
271.52 -730.14 9.19 
271.34 -729.98 9.20 
273.44 -730.39 8.99 
273.10 -730.15 9.00 
271.74 -730.24 9.17 
286.89 -731.16 8.49 
290.89 -731.70 8.32 
291.05 -732.04 8.37 
290.38 -732.48 8.47 
271.13 -729.92 9.21 
271.45 -730.27 9.21 
289.29 -729.83 8.74 
270.78 -730.67 9.33 
272.92 -731.43 9.16 
273.16 -731.91 9.18 
272.96 -731.85 9.20 
272.40 -732.17 9.30 
289.66 -733.30 8.64 
289.76 -732.95 9.27 
279.89 -729.92 4.38 
279.53 -731.19 4.39 
279.53 -731.56 4.39 
288.54 -731.41 4.58 
288.34 -731.49 4.59 
288.68 -731.50 4.58 
279.49 -730.99 5.10 
288.04 -731.44 4.81 
288.22 -731.49 4.80 
271.81 -731.27 5.97 
288.21 -730.94 5.40 
280.08 -731.13 5.56 
271.95 -731.46 5.97 
288.26 -731.29 5.41 
288.51 -731.82 5.43 
289.86 -731.84 5.37 
288.98 -732.23 5.42 
289.70 -733.25 5.44 
280.45 -731.00 5.76 
280.15 -730.92 5.77 
279.55 -730.92 5.80 
279.48 -730.96 5.80 
272.09 -731.16 6.20 
271.56 -731.36 6.23 
271.43 -731.13 6.23 
279.53 -731.32 5.81 
278.77 -731.29 5.85 
288.50 -731.23 5.85 
288.87 -731.75 5.87 
279.03 -729.82 6.47 
270.86 -730.18 6.77 
270.53 -730.15 6.79 
286.77 -729.69 6.01 
286.27 -729.94 6.05 
285.57 -729.76 6.08 
282.83 -729.73 6.23 
270.92 -730.42 6.78 
286.45 -729.99 6.04 
278.61 -730.65 6.30 
274.49 -730.72 6.56 
291.42 -730.34 5.83 
282.73 -730.77 6.30 
280.80 -730.88 6.42 
280.03 -730.97 6.24 
274.59 -731.00 6.57 
271.78 -731.12 6.76 
290.96 -730.80 5.88 
290.21 -730.93 5.92 
289.94 -730.73 5.92 
286.58 -731.04 6.10 
280.89 -731.13 6.20 
272.34 -731.75 6.76 
271.96 -731.41 6.76 
282.78 -731.42 6.33 
280.84 -731.60 6.46 
280.43 -731.59 6.26 
280.28 -731.51 6.26 
278.79 -731.57 6.35 
290.48 -731.69 5.96 
290.28 -731.71 5.97 
289.84 -731.60 5.98 
288.71 -731.74 5.88 
286.27 -731.91 6.17 
281.87 -731.88 6.42 
279.72 -732.11 6.33 
279.50 -732.15 6.34 
291.47 -731.90 5.93 
289.07 -731.95 5.88 
273.86 -732.88 6.72 
279.29 -729.74 6.89 
287.17 -729.91 6.44 
286.46 -729.77 6.46 
285.90 -729.77 6.49 
279.55 -730.20 6.91 
290.46 -730.16 6.45 
288.42 -729.92 6.38 
287.29 -730.26 6.63 
287.01 -729.98 6.53 
286.54 -730.11 6.48 
286.15 -730.09 6.50 
282.14 -730.28 6.75 
281.83 -730.51 6.79 
281.42 -730.44 6.81 
279.77 -730.59 6.93 
272.13 -730.79 7.00 
288.02 -730.35 6.59 
287.43 -730.39 6.63 
287.04 -730.50 6.66 
283.21 -730.66 6.71 
282.90 -730.72 6.74 
282.50 -730.68 6.76 
282.34 -730.72 6.77 
280.90 -730.84 6.87 
273.77 -731.06 6.89 
272.35 -731.19 7.00 
271.27 -731.25 7.08 
270.89 -731.20 6.82 
289.42 -730.79 6.41 
287.13 -730.94 6.53 
283.21 -731.29 6.77 
282.06 -730.98 6.81 
281.80 -730.99 6.83 
274.22 -731.68 6.90 
288.78 -731.35 6.49 
287.36 -731.51 6.57 
279.06 -731.58 6.57 
278.41 -731.81 6.62 
272.77 -731.80 7.00 
287.73 -731.60 6.56 
287.15 -731.72 6.60 
271.43 -732.55 6.86 
291.47 -731.83 6.49 
289.43 -731.97 6.52 
289.02 -732.07 6.54 
271.39 -732.95 6.88 
289.79 -732.50 6.55 
289.37 -732.68 6.59 
273.06 -729.99 7.38 
272.71 -730.13 7.42 
270.71 -730.00 7.57 
290.28 -729.71 6.88 
288.66 -729.78 6.96 
273.02 -730.25 7.40 
289.89 -729.83 6.91 
288.42 -730.13 7.01 
288.26 -730.04 7.01 
280.53 -730.50 7.11 
272.80 -730.76 7.45 
271.94 -730.74 7.52 
290.93 -730.46 6.94 
290.01 -730.57 6.99 
287.99 -730.49 7.07 
287.71 -730.48 7.09 
287.43 -730.46 7.10 
281.40 -730.70 7.06 
279.67 -730.85 6.95 
272.71 -731.21 7.50 
271.37 -731.07 7.59 
281.43 -730.99 7.08 
278.65 -731.47 7.07 
280.15 -731.62 7.10 
273.61 -732.02 7.48 
279.28 -732.04 7.32 
274.31 -732.43 7.46 
273.99 -732.28 7.48 
290.02 -732.83 6.70 
288.61 -732.89 6.78 
282.03 -729.98 7.38 
281.89 -729.82 7.38 
280.99 -729.93 7.45 
278.71 -730.06 7.65 
277.60 -730.27 7.76 
272.09 -730.48 7.80 
271.62 -730.23 7.83 
288.56 -729.98 7.13 
287.54 -730.20 7.22 
281.05 -730.32 7.49 
288.20 -730.42 7.20 
286.49 -730.44 7.15 
273.26 -730.93 7.73 
288.52 -730.66 7.20 
282.26 -730.96 7.47 
280.63 -731.20 7.61 
289.37 -731.28 7.10 
288.66 -731.22 7.19 
281.80 -731.58 7.57 
274.18 -732.03 7.73 
273.84 -732.05 7.76 
290.19 -731.67 7.16 
289.99 -731.44 7.20 
288.80 -731.52 7.28 
282.08 -732.03 7.60 
281.59 -732.16 7.65 
291.49 -732.19 7.20 
288.84 -732.29 7.24 
290.77 -733.05 7.34 
270.00 -729.74 8.42 
273.78 -729.82 8.06 
272.30 -729.92 8.21 
271.40 -729.87 8.29 
287.59 -729.77 7.63 
287.20 -729.77 7.65 
282.18 -729.93 8.02 
281.65 -729.97 8.07 
279.33 -730.11 7.87 
288.60 -730.24 7.64 
272.41 -730.90 8.29 
272.34 -730.61 8.27 
271.38 -730.68 8.37 
274.44 -731.22 8.13 
274.61 -731.35 8.13 
274.12 -731.29 8.16 
279.02 -731.64 7.78 
279.81 -730.10 8.25 
289.18 -729.93 8.18 
289.17 -730.18 8.22 
281.79 -730.15 8.08 
270.20 -730.91 8.50 
273.26 -731.28 8.56 
272.95 -731.27 8.59 
281.97 -731.24 8.21 
282.09 -731.39 8.22 
289.59 -732.49 7.89 
291.45 -732.73 7.85 
289.19 -733.06 8.09 
290.47 -733.56 8.07 
289.45 -733.59 8.14 
273.53 -730.19 8.88 
273.11 -730.30 8.94 
271.75 -730.19 9.08 
271.48 -730.20 9.11 
288.97 -730.33 8.26 
272.90 -731.35 9.08 
272.89 -731.84 9.13 
289.39 -729.77 8.76 
288.52 -729.75 8.81 
289.00 -729.95 8.82 
272.37 -732.14 9.22 
279.53 -731.08 4.41 
271.75 -731.30 5.21 
288.65 -731.46 4.55 
288.49 -731.43 4.56 
279.78 -731.06 5.09 
288.24 -731.44 4.77 
280.34 -731.15 5.54 
280.13 -731.13 5.54 
271.97 -731.37 5.98 
271.79 -731.26 5.99 
279.76 -731.42 5.58 
288.69 -731.50 5.19 
290.71 -732.23 5.31 
289.00 -732.93 5.41 
290.17 -733.04 5.37 
289.60 -733.02 5.39 
288.82 -732.98 5.42 
288.57 -733.17 5.44 
271.59 -731.18 6.24 
280.49 -731.05 5.74 
279.39 -730.91 5.79 
272.82 -731.24 6.17 
272.49 -731.25 6.19 
288.70 -731.28 5.81 
288.56 -731.18 5.81 
280.01 -731.45 5.78 
279.57 -731.41 5.80 
289.70 -731.86 5.81 
288.85 -731.79 5.84 
279.79 -732.58 5.84 
286.14 -729.84 6.01 
280.86 -730.01 6.34 
278.96 -729.75 6.45 
277.52 -730.02 6.32 
277.15 -730.02 6.34 
276.68 -730.20 6.38 
271.99 -730.18 6.69 
270.44 -730.28 6.81 
270.06 -730.38 6.84 
287.41 -729.94 5.94 
286.62 -730.04 5.99 
286.37 -729.94 6.00 
279.98 -730.39 6.42 
279.39 -730.49 6.46 
278.22 -730.44 6.30 
278.18 -730.46 6.30 
277.66 -730.41 6.33 
282.39 -730.51 6.27 
282.00 -730.76 6.31 
281.10 -730.44 6.35 
280.27 -730.84 6.20 
279.83 -730.85 6.23 
277.93 -730.56 6.32 
277.18 -730.77 6.63 
273.89 -731.06 6.61 
272.05 -731.09 6.74 
271.56 -731.15 6.78 
291.15 -730.82 5.82 
291.00 -730.68 5.82 
286.81 -730.84 6.03 
282.50 -730.86 6.28 
281.26 -731.18 6.17 
280.98 -730.97 6.39 
280.41 -730.94 6.20 
272.47 -731.46 6.73 
291.28 -731.03 5.83 
290.55 -731.12 5.87 
282.65 -731.27 6.30 
281.97 -731.21 6.34 
281.40 -731.25 6.16 
280.15 -731.65 6.48 
279.73 -731.50 6.27 
278.63 -731.47 6.34 
272.95 -731.56 6.71 
272.55 -731.80 6.75 
290.32 -731.45 5.90 
288.82 -731.36 5.96 
278.13 -732.02 6.40 
271.96 -732.25 6.81 
290.60 -731.89 5.92 
289.33 -731.96 5.83 
286.14 -731.96 6.14 
280.95 -732.35 6.47 
272.72 -732.38 6.77 
291.43 -732.29 5.90 
288.99 -732.17 5.86 
272.84 -732.99 6.80 
272.67 -732.81 6.80 
273.80 -733.33 6.75 
288.02 -733.06 6.12 
286.37 -729.83 6.43 
282.71 -729.87 6.64 
279.82 -729.87 6.83 
287.14 -730.03 6.41 
286.82 -729.95 6.42 
286.53 -729.98 6.43 
286.13 -730.14 6.47 
282.78 -730.32 6.68 
282.42 -730.22 6.69 
282.19 -730.21 6.70 
281.59 -730.17 6.74 
287.39 -730.36 6.43 
282.91 -730.46 6.68 
282.56 -730.40 6.70 
281.52 -730.42 6.76 
281.01 -730.57 6.81 
272.74 -730.99 6.96 
288.46 -730.59 6.40 
287.46 -730.87 6.47 
287.21 -730.76 6.47 
286.94 -730.73 6.48 
291.15 -731.15 6.34 
290.78 -731.11 6.35 
289.51 -731.11 6.40 
288.55 -731.16 6.44 
283.20 -731.17 6.72 
282.84 -731.38 6.76 
274.27 -731.65 6.88 
266.58 -731.80 7.17 
291.25 -731.37 6.35 
282.54 -731.65 6.81 
290.98 -731.68 6.39 
271.20 -732.47 6.88 
289.78 -732.49 6.51 
273.60 -730.03 7.32 
290.84 -729.93 6.84 
288.54 -730.03 6.95 
287.59 -730.17 7.01 
287.28 -729.96 7.01 
280.11 -730.19 7.07 
273.00 -730.41 7.40 
272.44 -730.72 7.47 
272.02 -730.59 7.49 
271.85 -730.43 7.49 
288.30 -730.35 7.00 
288.14 -730.29 7.00 
280.39 -730.64 7.08 
278.34 -730.67 7.00 
272.08 -730.90 7.51 
271.40 -730.97 7.57 
287.61 -730.64 7.07 
281.50 -730.94 7.02 
273.00 -731.18 7.45 
291.35 -730.94 6.93 
273.51 -731.65 7.45 
273.17 -731.74 7.48 
272.93 -731.61 7.49 
279.52 -732.07 7.04 
274.31 -732.51 7.45 
274.45 -730.09 7.54 
266.55 -730.26 7.95 
278.74 -730.30 7.63 
272.11 -730.65 7.79 
282.68 -730.58 7.36 
282.48 -730.64 7.38 
271.13 -730.99 7.90 
281.64 -731.17 7.50 
273.51 -731.11 7.69 
289.54 -730.97 7.01 
288.75 -731.12 7.06 
290.64 -731.60 7.12 
289.13 -731.34 7.07 
288.71 -731.75 7.14 
287.75 -731.51 7.16 
282.25 -731.89 7.53 
274.01 -731.99 7.71 
289.03 -732.05 7.16 
286.31 -731.97 7.29 
274.05 -732.35 7.73 
290.62 -732.34 7.20 
289.79 -732.24 7.15 
288.83 -732.34 7.20 
288.22 -732.39 7.35 
290.89 -733.50 7.32 
273.13 -729.80 8.08 
271.59 -729.85 8.24 
286.95 -729.78 7.61 
281.70 -729.95 8.01 
272.50 -730.12 8.18 
272.15 -730.01 8.20 
282.32 -730.03 7.97 
281.88 -730.00 8.00 
281.86 -730.16 8.03 
273.87 -730.65 8.09 
270.10 -730.78 8.48 
288.51 -730.19 7.59 
274.31 -730.86 8.07 
274.10 -730.78 8.08 
273.85 -730.75 8.11 
273.23 -730.86 8.18 
290.47 -730.66 7.56 
289.95 -730.53 7.56 
288.83 -730.55 7.62 
273.47 -729.82 8.37 
289.29 -730.04 8.14 
288.75 -730.01 8.17 
280.41 -730.10 8.14 
288.92 -730.14 8.18 
282.11 -731.10 8.13 
273.04 -731.36 8.55 
290.94 -732.85 7.84 
290.60 -732.52 7.81 
271.17 -729.80 9.05 
273.13 -730.25 8.88 
271.53 -730.06 9.04 
271.36 -730.14 9.07 
271.10 -730.30 9.12 
274.04 -730.41 8.80 
272.98 -730.86 8.97 
289.05 -730.53 8.24 
272.96 -731.26 9.02 
272.04 -731.36 9.13 
273.17 -731.76 9.05 
289.23 -732.30 8.51 
289.40 -732.97 8.61 
289.12 -730.03 8.77 
289.56 -733.40 8.68 
279.90 -731.07 4.13 
288.52 -731.43 4.35 
279.95 -731.06 4.80 
288.68 -731.58 4.54 
288.36 -731.47 4.55 
280.62 -731.09 5.44 
271.81 -731.25 5.62 
280.08 -731.22 5.26 
288.69 -731.51 4.98 
288.46 -731.47 4.98 
290.11 -731.88 5.11 
288.82 -731.96 5.16 
289.26 -732.25 5.16 
288.91 -732.32 5.17 
289.03 -732.68 5.18 
288.89 -732.53 5.18 
289.24 -733.66 5.21 
288.49 -731.24 5.60 
280.15 -731.53 5.48 
289.06 -731.89 5.62 
288.81 -731.79 5.62 
282.32 -729.73 5.94 
276.84 -730.03 6.27 
286.93 -730.05 5.74 
286.44 -730.14 5.77 
285.94 -729.98 5.78 
290.03 -730.46 5.64 
286.78 -730.46 5.77 
286.11 -730.28 5.79 
282.22 -730.54 5.99 
281.11 -730.68 6.06 
278.99 -730.74 6.18 
278.73 -730.79 6.20 
269.64 -730.84 6.50 
291.19 -730.80 5.62 
289.80 -730.68 5.66 
281.23 -730.87 6.06 
280.59 -731.00 5.90 
280.20 -730.92 5.91 
279.95 -731.00 5.93 
277.66 -730.99 6.27 
276.61 -731.05 6.34 
274.21 -731.29 6.25 
273.94 -731.31 6.26 
273.63 -731.34 6.28 
271.86 -731.21 6.38 
291.32 -730.96 5.63 
290.26 -731.01 5.67 
289.55 -731.14 5.70 
289.36 -731.10 5.70 
286.99 -731.08 5.80 
280.18 -731.53 5.95 
279.09 -731.43 5.99 
278.86 -731.54 6.01 
277.70 -731.32 6.29 
273.25 -731.50 6.31 
272.25 -731.76 6.38 
271.89 -731.50 6.39 
287.23 -731.58 5.82 
286.98 -731.65 5.83 
273.67 -732.09 6.32 
290.89 -731.76 5.69 
290.35 -731.80 5.71 
281.83 -732.23 6.11 
281.70 -732.13 6.11 
280.83 -732.05 6.15 
280.15 -732.10 5.98 
278.37 -732.17 6.29 
274.05 -732.37 6.31 
273.82 -732.28 6.32 
282.45 -732.32 6.08 
282.10 -732.40 6.10 
274.22 -732.58 6.32 
291.22 -732.70 5.74 
289.08 -733.46 5.86 
285.83 -729.77 6.21 
282.35 -729.75 6.37 
282.03 -729.74 6.59 
280.61 -729.90 6.48 
270.10 -730.14 6.71 
286.78 -730.02 6.19 
286.40 -729.99 6.20 
286.04 -730.00 6.22 
283.17 -729.92 6.53 
280.77 -730.02 6.48 
276.93 -730.36 6.74 
272.96 -730.37 6.53 
288.43 -730.37 6.16 
287.30 -730.55 6.35 
286.66 -730.33 6.37 
281.15 -730.65 6.51 
279.68 -730.56 6.58 
277.32 -730.49 6.72 
272.16 -730.99 6.61 
271.49 -731.06 6.66 
288.58 -730.77 6.19 
287.84 -730.56 6.33 
286.39 -730.61 6.40 
279.15 -730.90 6.64 
282.85 -731.36 6.48 
282.12 -731.32 6.51 
280.40 -731.46 6.61 
272.65 -731.78 6.62 
288.73 -731.69 6.26 
272.17 -732.05 6.66 
287.94 -731.94 6.31 
287.34 -731.83 6.32 
281.95 -732.24 6.60 
291.00 -732.05 6.23 
273.35 -732.83 6.63 
273.92 -733.19 6.61 
273.71 -733.14 6.62 
288.17 -729.71 6.71 
279.17 -729.72 6.78 
273.48 -730.01 6.95 
271.16 -729.88 7.11 
290.28 -730.04 6.68 
290.00 -729.76 6.66 
289.66 -729.95 6.69 
288.69 -729.82 6.70 
288.52 -729.72 6.70 
287.06 -730.05 6.79 
283.27 -729.96 6.97 
279.11 -730.24 6.82 
276.65 -730.45 6.76 
273.93 -730.25 7.21 
290.81 -730.23 6.68 
280.72 -730.59 6.74 
280.38 -730.40 6.75 
277.20 -730.72 6.75 
272.61 -730.91 7.08 
290.99 -730.59 6.72 
273.85 -731.03 7.00 
273.60 -731.03 7.01 
273.23 -731.19 7.05 
272.85 -731.11 7.07 
270.39 -731.26 7.27 
274.40 -731.61 7.00 
273.92 -731.74 7.04 
273.81 -731.43 7.03 
279.44 -731.66 6.69 
287.54 -732.60 6.51 
267.07 -729.97 7.44 
266.84 -729.93 7.46 
277.55 -730.05 7.35 
274.69 -730.12 7.58 
287.70 -729.92 6.86 
287.28 -730.04 6.90 
286.92 -730.10 6.92 
279.01 -730.16 7.26 
274.83 -730.24 7.58 
273.56 -730.35 7.25 
272.10 -730.39 7.36 
288.29 -730.28 6.87 
278.03 -730.45 7.36 
282.36 -730.78 7.29 
281.58 -731.06 7.38 
289.96 -730.95 6.86 
287.99 -731.27 6.89 
287.66 -731.11 6.88 
287.10 -731.10 6.90 
286.88 -731.16 6.92 
290.84 -732.30 6.97 
289.24 -732.36 6.96 
288.97 -732.28 6.96 
291.09 -733.05 7.04 
273.64 -729.72 7.64 
272.65 -729.72 7.72 
282.61 -729.82 7.62 
282.48 -729.73 7.62 
282.10 -729.72 7.64 
274.40 -730.16 7.61 
271.54 -730.11 7.85 
289.59 -729.76 7.27 
287.96 -729.89 7.34 
287.51 -729.83 7.36 
281.23 -730.16 7.76 
279.72 -730.08 7.86 
273.65 -730.56 7.71 
272.31 -730.52 7.82 
288.49 -730.26 7.37 
283.26 -730.63 7.68 
282.38 -730.66 7.74 
281.67 -730.37 7.75 
272.47 -730.72 7.83 
282.68 -731.00 7.77 
282.50 -730.90 7.77 
274.41 -731.14 7.98 
273.61 -731.02 7.76 
274.72 -731.48 7.71 
273.96 -731.93 7.81 
272.41 -731.98 7.95 
274.42 -732.26 7.81 
273.88 -730.15 8.38 
289.27 -729.99 7.95 
288.35 -729.79 7.93 
287.83 -729.75 7.94 
278.97 -730.27 7.94 
289.39 -730.28 7.96 
288.75 -730.25 7.98 
288.46 -730.31 8.00 
280.87 -731.47 7.95 
291.23 -732.71 7.61 
290.65 -733.59 7.77 
286.85 -730.36 8.08 
273.49 -731.22 8.54 
273.27 -731.33 8.57 
279.88 -731.20 4.09 
288.52 -731.45 3.88 
288.65 -731.42 4.29 
288.64 -731.54 4.48 
280.79 -730.88 5.37 
279.51 -730.92 5.43 
279.17 -730.80 5.44 
289.03 -731.02 5.05 
280.85 -731.18 5.38 
280.18 -731.11 5.20 
279.88 -731.37 5.22 
271.91 -731.31 5.57 
291.46 -731.53 5.00 
288.69 -731.46 4.97 
288.48 -731.45 4.92 
280.27 -731.50 5.42 
290.67 -731.98 5.04 
290.31 -732.22 5.06 
289.56 -732.39 5.09 
288.93 -732.74 5.13 
287.23 -732.64 5.18 
289.85 -733.05 5.11 
289.64 -733.15 5.12 
289.07 -733.11 5.14 
288.53 -732.84 5.14 
289.78 -733.36 5.12 
289.21 -733.23 5.14 
287.25 -733.31 5.21 
288.66 -731.05 5.52 
288.50 -731.10 5.53 
288.67 -731.31 5.54 
289.39 -731.96 5.56 
289.23 -731.96 5.57 
288.85 -731.72 5.56 
274.05 -732.04 5.73 
274.34 -732.73 5.74 
280.93 -729.70 5.94 
279.45 -729.70 6.02 
271.12 -730.06 6.30 
288.19 -729.87 5.60 
286.74 -729.83 5.66 
286.25 -729.80 5.68 
281.87 -729.95 5.90 
279.62 -730.18 6.04 
278.55 -730.10 6.10 
274.55 -730.33 6.11 
291.46 -730.10 5.50 
287.51 -730.18 5.65 
282.64 -730.49 5.90 
282.02 -730.43 5.93 
280.09 -730.57 6.04 
279.66 -730.50 6.06 
277.08 -730.58 6.21 
276.78 -730.51 6.23 
274.72 -730.65 6.12 
289.80 -730.68 5.59 
288.75 -730.55 5.62 
286.97 -730.62 5.70 
282.96 -730.66 5.89 
282.64 -730.67 5.91 
282.25 -730.87 5.94 
282.11 -730.75 5.94 
280.88 -730.89 5.81 
280.04 -730.95 5.86 
278.85 -730.74 5.90 
277.41 -730.88 6.21 
274.99 -731.20 6.14 
274.84 -731.10 6.14 
272.04 -731.12 6.30 
271.70 -731.24 6.33 
270.84 -731.08 6.38 
290.64 -730.89 5.58 
289.94 -730.93 5.60 
288.07 -731.22 5.69 
287.60 -731.00 5.70 
280.96 -731.16 5.83 
273.66 -731.37 6.22 
273.35 -731.47 6.25 
272.02 -731.50 6.33 
290.76 -731.27 5.60 
290.43 -731.22 5.61 
288.09 -731.27 5.70 
282.99 -731.63 5.95 
282.82 -731.44 5.95 
282.43 -731.41 5.96 
281.35 -731.52 6.03 
280.68 -731.56 6.06 
280.43 -731.53 5.88 
278.92 -731.55 5.95 
272.43 -731.95 6.33 
270.85 -732.10 6.43 
290.73 -731.78 5.63 
286.48 -731.81 5.80 
272.50 -732.09 6.33 
289.04 -732.16 5.58 
286.79 -732.08 5.80 
285.81 -732.16 5.85 
281.32 -732.46 6.08 
278.86 -732.38 6.00 
274.24 -732.67 6.26 
271.54 -732.67 6.42 
270.07 -732.63 6.51 
291.00 -732.61 5.68 
289.91 -732.66 5.72 
282.01 -729.70 6.31 
289.94 -729.88 6.01 
287.12 -729.96 6.15 
286.64 -729.94 6.13 
286.20 -729.99 6.15 
285.96 -729.81 6.14 
283.16 -729.78 6.26 
282.07 -729.89 6.39 
279.96 -729.95 6.45 
279.40 -729.91 6.47 
290.33 -730.20 6.03 
286.34 -730.32 6.17 
281.41 -730.48 6.41 
280.25 -730.38 6.47 
279.64 -730.35 6.50 
288.50 -730.51 6.11 
281.05 -731.00 6.47 
278.17 -730.85 6.63 
278.01 -730.72 6.62 
271.01 -731.12 6.63 
287.75 -731.05 6.30 
286.08 -731.19 6.26 
283.14 -731.31 6.40 
282.39 -731.27 6.43 
291.48 -731.20 6.09 
291.20 -731.30 6.11 
290.92 -731.27 6.11 
288.12 -731.48 6.21 
287.64 -731.52 6.23 
287.15 -731.42 6.24 
283.32 -731.37 6.39 
280.41 -731.70 6.57 
274.43 -731.68 6.44 
290.73 -731.83 6.17 
287.31 -731.75 6.26 
282.37 -731.98 6.49 
291.36 -732.06 6.17 
289.05 -732.08 6.23 
289.82 -732.53 6.25 
289.32 -732.56 6.36 
274.00 -733.22 6.55 
271.75 -729.94 6.99 
288.81 -729.88 6.65 
288.38 -729.91 6.66 
287.12 -729.94 6.81 
281.99 -729.87 6.96 
279.02 -730.14 6.73 
271.18 -730.37 7.07 
288.56 -730.05 6.67 
288.47 -730.16 6.77 
287.46 -730.37 6.75 
286.82 -730.33 6.77 
270.10 -730.78 7.18 
291.08 -730.44 6.65 
289.99 -730.48 6.68 
287.89 -730.48 6.74 
287.63 -730.49 6.76 
286.33 -730.70 6.83 
282.26 -730.91 6.58 
273.56 -730.86 7.19 
273.05 -731.12 6.99 
271.64 -731.11 7.09 
271.24 -731.07 7.12 
289.60 -730.96 6.74 
288.13 -730.90 6.78 
273.47 -731.28 6.97 
282.28 -731.78 6.65 
273.51 -731.85 7.01 
273.22 -731.98 7.04 
282.01 -731.88 6.68 
281.60 -731.85 6.70 
274.00 -732.30 7.01 
273.69 -732.23 7.03 
273.40 -732.33 7.06 
274.73 -732.62 6.99 
274.40 -732.57 7.01 
289.32 -732.87 6.39 
279.11 -729.84 7.13 
273.88 -729.85 7.54 
281.59 -729.95 6.99 
279.30 -730.16 7.16 
278.93 -730.07 7.17 
280.84 -730.44 7.09 
278.91 -730.55 7.22 
281.19 -730.82 7.10 
280.94 -730.74 7.11 
279.26 -730.72 7.22 
266.57 -731.41 7.50 
291.45 -730.99 6.70 
287.41 -731.08 6.92 
281.36 -731.07 7.30 
277.46 -731.48 7.42 
289.42 -731.38 6.80 
277.64 -731.52 7.41 
289.25 -731.82 6.85 
288.86 -731.94 6.88 
286.87 -731.80 7.03 
289.02 -732.30 6.91 
290.11 -732.72 6.93 
289.63 -732.45 6.91 
272.07 -729.87 7.69 
270.25 -729.83 7.85 
288.23 -729.73 7.25 
288.01 -729.97 7.29 
287.33 -729.92 7.31 
279.15 -729.98 7.80 
278.76 -729.93 7.83 
289.55 -730.14 7.27 
288.72 -730.19 7.30 
288.39 -730.08 7.29 
282.59 -730.57 7.64 
281.28 -730.24 7.68 
290.52 -730.53 7.29 
290.01 -730.64 7.32 
282.73 -730.75 7.65 
274.33 -731.10 7.62 
273.95 -730.94 7.64 
271.45 -731.22 7.87 
270.23 -730.99 7.96 
274.80 -731.38 7.61 
274.39 -731.45 7.65 
274.02 -731.27 7.66 
289.09 -731.24 7.43 
289.99 -731.75 7.47 
273.08 -729.95 8.33 
272.80 -730.00 8.37 
272.50 -730.00 8.40 
289.12 -729.88 7.85 
278.30 -730.01 7.87 
273.52 -730.38 8.34 
289.79 -730.06 7.86 
279.06 -730.29 7.85 
280.49 -731.43 7.89 
281.96 -731.43 7.79 
289.61 -732.79 7.62 
289.42 -733.04 7.66 
273.72 -731.55 8.46 
286.80 -731.43 8.19 
272.60 -732.40 8.67 
272.77 -732.49 8.66 
289.62 -733.02 8.34 
289.47 -729.72 8.42 
289.30 -729.88 8.46 
288.22 -730.10 8.54 
288.53 -731.49 3.91 
279.91 -731.19 4.51 
288.64 -731.42 4.31 
271.89 -731.26 4.94 
288.61 -731.60 4.51 
280.18 -730.89 5.35 
279.51 -730.95 5.37 
291.14 -730.97 5.02 
289.05 -730.98 5.07 
288.33 -730.99 5.09 
280.71 -731.09 5.34 
280.24 -731.10 5.15 
279.93 -730.96 5.36 
279.66 -731.00 5.37 
288.73 -731.46 4.94 
288.47 -731.30 5.10 
279.01 -731.44 5.41 
291.45 -731.65 5.04 
290.40 -731.65 5.07 
288.75 -731.87 5.12 
290.55 -732.11 5.08 
287.05 -732.14 5.18 
289.78 -732.63 5.13 
289.62 -732.40 5.12 
287.15 -732.61 5.19 
286.74 -732.77 5.21 
287.44 -733.04 5.20 
289.90 -733.51 5.16 
289.33 -733.38 5.17 
288.97 -733.24 5.17 
287.18 -733.39 5.23 
291.19 -729.78 5.52 
288.72 -730.99 5.54 
271.68 -731.23 5.70 
288.75 -731.22 5.56 
290.24 -731.77 5.57 
289.99 -731.79 5.57 
289.64 -731.88 5.58 
288.75 -731.69 5.59 
279.99 -732.20 5.41 
279.26 -729.73 5.96 
286.71 -729.81 5.66 
286.44 -729.93 5.67 
286.11 -729.82 5.68 
282.99 -729.93 5.81 
288.61 -730.31 5.63 
287.59 -730.24 5.65 
282.70 -730.21 5.84 
282.04 -730.35 5.87 
280.16 -730.50 5.97 
279.56 -730.44 5.99 
291.14 -730.53 5.57 
283.13 -730.60 5.84 
281.53 -730.89 5.93 
280.42 -730.90 5.79 
279.54 -730.88 5.82 
279.23 -730.82 5.83 
277.77 -730.81 6.10 
277.34 -730.77 6.12 
290.62 -730.78 5.60 
290.45 -731.00 5.62 
289.08 -730.79 5.65 
287.31 -730.80 5.70 
282.81 -730.92 5.88 
282.17 -731.07 5.91 
280.96 -730.97 5.77 
280.80 -730.95 5.78 
280.17 -730.96 5.80 
279.76 -730.98 5.82 
276.98 -731.06 6.16 
274.16 -731.28 6.09 
273.89 -731.33 6.10 
273.56 -731.49 6.13 
272.01 -731.27 6.19 
288.46 -731.16 5.69 
287.95 -731.24 5.71 
283.38 -731.46 5.89 
283.22 -731.46 5.89 
280.93 -731.58 6.00 
280.44 -731.44 5.82 
279.85 -731.41 5.84 
273.26 -731.59 6.15 
272.41 -731.77 6.20 
272.01 -731.57 6.21 
286.45 -731.81 5.79 
285.75 -731.91 5.83 
274.06 -732.16 6.14 
289.49 -731.94 5.59 
289.19 -732.12 5.61 
287.41 -732.30 5.80 
286.78 -732.15 5.81 
285.84 -732.38 5.85 
285.74 -732.14 5.84 
274.34 -732.53 6.15 
289.26 -732.37 5.75 
289.19 -729.82 6.14 
287.12 -729.95 6.12 
286.61 -729.85 6.12 
286.41 -729.87 6.13 
286.09 -729.73 6.13 
283.35 -729.77 6.22 
283.16 -729.86 6.24 
282.60 -729.96 6.43 
282.24 -729.92 6.28 
281.02 -729.81 6.32 
280.29 -729.83 6.48 
271.75 -730.10 6.39 
289.46 -730.16 6.08 
287.45 -730.26 6.14 
287.13 -730.03 6.12 
286.76 -730.18 6.15 
286.32 -730.09 6.15 
282.35 -730.25 6.30 
277.47 -730.49 6.55 
277.14 -730.45 6.57 
276.81 -730.51 6.59 
270.29 -730.51 6.50 
290.90 -730.52 6.09 
290.01 -730.52 6.11 
289.62 -730.33 6.10 
288.56 -730.59 6.14 
287.90 -730.50 6.25 
287.39 -730.38 6.25 
283.64 -730.81 6.30 
283.34 -730.78 6.31 
282.40 -730.84 6.35 
282.08 -730.77 6.53 
281.54 -730.73 6.38 
281.03 -730.88 6.41 
279.43 -730.84 6.48 
277.58 -730.72 6.57 
271.27 -731.00 6.47 
291.33 -730.89 6.12 
290.58 -730.72 6.11 
289.85 -730.79 6.13 
289.67 -731.01 6.16 
287.54 -730.96 6.25 
280.97 -730.95 6.42 
277.59 -731.15 6.60 
271.52 -731.22 6.47 
266.68 -731.47 6.50 
288.91 -731.36 6.20 
287.81 -731.52 6.24 
280.97 -731.69 6.49 
279.66 -731.65 6.54 
277.59 -731.48 6.63 
291.20 -731.74 6.20 
287.62 -731.66 6.26 
281.92 -731.93 6.47 
279.07 -731.81 6.58 
273.84 -732.05 6.38 
290.57 -731.99 6.30 
289.64 -732.27 6.35 
286.28 -732.12 6.45 
289.81 -732.36 6.35 
290.34 -732.74 6.37 
271.93 -729.89 7.11 
267.75 -729.81 7.12 
267.55 -729.72 7.13 
267.19 -729.73 7.16 
291.04 -729.77 6.62 
290.87 -729.85 6.64 
288.57 -729.77 6.67 
286.95 -729.86 6.80 
281.87 -729.91 6.91 
281.66 -730.00 6.94 
273.03 -730.22 6.79 
272.44 -730.28 7.10 
267.83 -730.08 7.14 
288.79 -730.07 6.69 
288.46 -730.28 6.73 
286.85 -730.33 6.77 
279.36 -730.40 6.65 
279.12 -730.24 6.65 
270.11 -730.43 7.00 
287.92 -730.45 6.76 
287.66 -730.40 6.76 
286.52 -730.78 6.83 
273.78 -731.09 6.81 
273.20 -731.00 6.84 
272.07 -731.05 6.92 
289.57 -730.89 6.77 
273.50 -731.16 6.84 
280.45 -731.60 6.68 
274.70 -731.63 6.80 
274.47 -731.60 6.81 
272.98 -732.02 6.94 
272.54 -732.43 7.00 
274.38 -732.74 6.91 
282.97 -729.99 7.02 
279.23 -729.95 7.06 
277.87 -730.02 7.15 
274.99 -730.14 7.35 
274.75 -730.16 7.37 
274.50 -730.20 7.39 
273.73 -729.90 7.42 
272.72 -729.98 7.50 
281.80 -730.43 7.14 
281.15 -730.26 7.07 
278.28 -730.50 7.17 
275.11 -730.28 7.36 
274.20 -730.31 7.42 
273.85 -730.53 7.47 
273.64 -730.41 7.48 
282.83 -730.70 6.96 
281.52 -730.69 7.18 
273.50 -730.73 7.52 
288.20 -731.07 6.82 
282.77 -730.97 7.14 
274.95 -731.58 7.50 
290.41 -731.74 6.89 
289.49 -731.69 6.91 
287.65 -731.87 7.00 
289.93 -732.24 6.92 
290.72 -732.43 6.93 
290.13 -732.48 6.94 
289.12 -732.33 6.95 
287.79 -732.38 6.98 
290.32 -732.78 6.97 
289.75 -732.86 7.03 
289.16 -733.41 7.11 
271.04 -729.86 7.77 
270.73 -729.92 7.65 
288.40 -729.70 7.26 
287.87 -729.75 7.28 
287.05 -729.84 7.32 
282.97 -729.92 7.49 
288.75 -730.15 7.32 
282.27 -730.14 7.55 
281.85 -730.35 7.60 
281.38 -730.24 7.61 
279.22 -730.17 7.73 
272.13 -730.53 7.60 
266.80 -730.57 8.05 
290.30 -730.42 7.33 
289.63 -730.31 7.32 
272.72 -730.80 7.58 
270.89 -730.79 7.72 
283.12 -730.98 7.62 
282.95 -731.03 7.64 
290.73 -731.40 7.46 
290.43 -731.42 7.46 
287.76 -731.39 7.55 
290.10 -731.84 7.52 
286.43 -731.60 7.64 
274.37 -732.09 7.59 
291.06 -732.09 7.55 
273.55 -729.82 8.12 
273.70 -729.90 8.12 
273.21 -729.99 8.17 
272.93 -730.01 8.20 
289.80 -730.00 7.89 
289.48 -730.29 7.94 
289.30 -730.20 7.93 
288.93 -730.05 7.92 
272.59 -730.95 8.34 
279.14 -731.62 7.93 
289.92 -732.43 7.61 
289.68 -732.92 7.68 
290.67 -733.17 7.68 
290.41 -733.21 7.70 
289.73 -733.23 7.72 
270.25 -729.86 8.43 
270.01 -729.83 8.45 
271.60 -730.28 8.66 
270.99 -730.31 8.41 
270.55 -730.19 8.44 
271.28 -731.41 8.51 
287.46 -731.17 8.13 
273.20 -731.59 8.64 
273.71 -732.54 8.44 
289.47 -729.85 8.49 
271.66 -730.03 9.05 
289.21 -729.98 8.52 
270.56 -730.56 9.24 
280.00 -731.09 4.47 
271.95 -731.32 4.75 
288.67 -731.57 4.20 
288.56 -730.89 4.78 
280.33 -731.15 4.90 
280.08 -731.01 5.00 
288.76 -731.40 4.63 
288.53 -731.46 4.64 
290.78 -731.86 4.74 
290.26 -731.75 4.76 
290.96 -732.21 4.75 
289.34 -732.26 4.80 
289.67 -733.03 4.82 
289.13 -732.79 4.83 
289.95 -733.11 4.82 
289.73 -733.25 4.83 
289.46 -733.41 4.84 
288.91 -733.16 4.85 
290.00 -733.56 4.83 
288.18 -729.81 5.31 
280.81 -731.00 5.52 
280.43 -730.93 5.53 
272.34 -731.22 5.46 
271.76 -731.23 5.49 
288.80 -731.30 5.26 
289.12 -731.77 5.28 
288.93 -731.65 5.28 
286.49 -729.83 5.37 
285.81 -729.79 5.40 
282.35 -729.96 5.56 
286.80 -730.01 5.37 
286.22 -730.27 5.41 
291.17 -730.52 5.25 
290.30 -730.42 5.27 
290.12 -730.62 5.29 
289.80 -730.66 5.30 
289.29 -730.60 5.32 
288.44 -730.54 5.34 
279.56 -730.52 5.73 
279.20 -730.86 5.77 
277.47 -730.83 5.87 
277.18 -730.72 5.88 
276.90 -730.81 5.90 
291.35 -730.89 5.27 
290.05 -730.80 5.30 
289.62 -730.88 5.32 
287.27 -730.85 5.40 
287.02 -730.77 5.41 
285.70 -731.14 5.48 
282.38 -730.96 5.62 
281.41 -730.86 5.66 
280.10 -731.02 5.55 
277.61 -730.94 5.86 
276.45 -730.98 5.93 
273.72 -731.35 5.88 
273.44 -731.13 6.12 
271.98 -731.25 5.98 
266.66 -731.46 6.31 
290.47 -731.21 5.32 
289.75 -731.17 5.34 
289.07 -731.21 5.36 
286.14 -731.52 5.49 
285.81 -731.33 5.49 
282.64 -731.33 5.63 
280.44 -731.51 5.56 
279.34 -731.65 5.81 
273.80 -731.47 5.89 
273.22 -731.41 5.91 
272.42 -731.69 5.98 
272.06 -731.52 5.99 
266.81 -731.59 6.31 
290.82 -731.85 5.35 
281.81 -732.01 5.71 
281.31 -731.96 5.73 
274.13 -732.15 5.91 
289.52 -732.03 5.40 
289.37 -732.00 5.40 
282.12 -732.20 5.70 
279.15 -732.37 5.86 
274.29 -732.33 5.91 
274.15 -732.19 5.91 
287.32 -732.35 5.49 
290.05 -729.81 5.74 
287.19 -729.74 5.90 
286.53 -729.82 5.84 
