# .PCD v0.7 - Point Cloud Data file format
VERSION 0.7
FIELDS x y z
SIZE 4 4 4
TYPE F F F
COUNT 1 1 1
WIDTH 2517
HEIGHT 1
VIEWPOINT 0 0 0 1 0 0 0
POINTS 2517
DATA ascii
288.80 65.68 4.70 
284.08 67.95 5.28 
284.46 67.96 5.27 
284.71 67.95 5.27 
278.03 68.50 5.36 
281.99 48.37 3.94 
275.24 48.43 4.07 
275.42 48.50 4.08 
277.92 48.47 3.97 
278.84 48.59 4.00 
282.01 48.52 3.96 
275.59 48.76 4.12 
267.90 49.02 4.24 
288.00 51.63 3.93 
288.34 51.48 3.90 
288.66 51.69 3.94 
288.99 51.69 3.94 
287.73 51.75 3.95 
288.10 51.87 3.97 
288.87 51.79 3.96 
289.05 51.75 4.18 
287.61 52.20 4.03 
283.01 52.96 4.35 
278.85 55.84 4.84 
279.65 56.28 4.89 
278.72 56.35 4.93 
279.06 56.34 4.92 
279.67 56.32 4.89 
289.45 58.60 4.45 
289.03 59.12 4.53 
289.26 59.15 4.53 
289.55 59.48 4.58 
279.09 61.08 5.06 
288.19 65.46 5.50 
288.34 51.58 4.42 
287.61 51.72 4.45 
288.13 51.84 4.47 
288.40 51.74 4.46 
288.84 51.94 4.50 
283.20 52.98 4.84 
286.32 56.29 4.74 
279.84 56.57 5.02 
286.04 56.63 4.81 
286.21 56.61 4.80 
289.39 59.17 5.22 
288.97 59.50 5.28 
289.29 59.83 5.33 
277.55 68.55 6.25 
277.21 69.20 6.36 
288.20 51.92 5.00 
278.86 56.04 5.45 
279.01 56.10 5.46 
286.13 56.83 5.45 
281.35 48.45 1.96 
267.42 48.87 2.61 
267.91 48.80 2.60 
268.20 48.85 2.59 
267.98 49.06 2.62 
268.35 49.07 2.61 
268.61 49.38 2.63 
268.34 49.44 2.64 
277.86 51.88 2.58 
278.19 51.79 2.57 
278.49 51.71 2.55 
276.73 52.08 2.63 
277.05 52.24 2.64 
277.48 52.22 2.62 
278.01 52.04 2.59 
277.47 52.43 2.64 
282.21 52.99 2.31 
282.83 53.71 2.58 
282.70 53.77 2.58 
283.30 53.89 2.58 
266.96 56.79 3.29 
267.02 57.18 3.32 
275.48 58.32 3.19 
275.68 58.60 3.20 
275.95 58.63 3.20 
276.10 58.82 3.21 
280.15 60.77 3.25 
280.05 60.97 3.27 
280.47 61.01 3.26 
276.15 64.16 3.65 
278.85 69.09 3.97 
279.33 69.12 3.96 
282.33 47.55 2.25 
282.68 47.71 2.08 
275.77 47.81 2.64 
282.03 47.85 2.29 
282.73 47.96 2.10 
275.12 48.20 2.53 
275.44 48.15 2.52 
275.94 48.19 2.51 
276.12 48.35 2.69 
281.40 48.39 2.34 
282.04 48.43 2.16 
282.42 48.21 2.13 
274.82 48.62 2.40 
275.21 48.58 2.39 
275.54 48.55 2.38 
275.91 48.52 2.54 
276.27 48.60 2.54 
278.88 48.56 2.63 
278.97 48.57 2.45 
281.67 48.66 2.56 
281.82 48.70 2.38 
282.27 48.60 2.17 
288.14 52.04 2.53 
282.19 52.97 2.80 
289.55 58.60 3.19 
289.83 58.85 3.21 
289.60 59.37 3.27 
288.60 66.08 4.01 
282.25 48.01 2.65 
282.78 47.94 2.80 
275.09 48.25 3.06 
275.55 48.03 3.01 
275.90 48.23 3.03 
276.12 48.32 3.03 
281.59 48.29 2.87 
282.38 48.38 2.78 
267.53 48.51 3.01 
267.99 48.27 2.96 
274.67 48.54 3.11 
275.14 48.38 3.07 
275.59 48.39 3.06 
275.81 48.34 3.04 
276.20 48.56 3.06 
278.86 48.57 2.98 
267.59 48.64 3.02 
267.92 48.84 3.02 
268.28 48.86 3.01 
281.98 48.89 2.94 
267.66 49.00 3.05 
267.94 49.03 3.04 
268.32 49.17 3.04 
268.55 49.16 3.04 
287.64 51.30 2.94 
288.56 51.11 2.90 
278.46 51.58 2.96 
287.46 51.62 2.99 
287.86 51.53 2.97 
288.39 51.57 2.96 
288.74 51.66 2.97 
289.11 51.68 2.68 
276.97 51.64 3.01 
277.90 51.87 3.01 
278.11 51.77 2.99 
278.60 51.99 3.00 
287.48 51.97 3.03 
287.76 51.89 3.02 
288.25 51.98 3.02 
288.60 51.92 2.72 
277.46 52.21 3.06 
277.71 52.22 3.05 
278.23 52.27 3.04 
287.42 52.26 3.07 
276.74 52.39 3.10 
277.13 52.39 3.09 
277.44 52.45 3.08 
278.37 52.61 3.07 
282.60 52.82 2.97 
280.94 55.96 3.35 
280.37 56.39 3.41 
280.21 56.45 3.42 
280.53 56.46 3.42 
276.02 58.55 3.77 
275.67 58.80 3.81 
275.99 58.88 3.81 
280.02 61.01 3.91 
280.39 60.93 3.89 
276.38 63.84 4.33 
276.77 63.65 4.29 
279.43 68.99 4.78 
282.66 47.96 3.16 
274.90 48.25 3.42 
275.03 48.14 3.39 
275.73 48.20 3.37 
281.70 48.23 3.22 
281.89 48.22 3.21 
282.80 48.18 3.19 
274.81 48.33 3.43 
275.10 48.51 3.45 
275.51 48.51 3.43 
275.92 48.42 3.40 
278.87 48.54 3.32 
281.79 48.51 3.26 
267.89 48.73 3.44 
275.53 48.84 3.48 
275.76 48.76 3.46 
281.82 49.11 3.35 
267.38 48.97 3.49 
267.88 49.14 3.49 
268.33 49.13 3.47 
268.37 49.36 3.49 
288.22 51.23 3.40 
288.88 51.23 3.13 
277.86 51.47 3.38 
278.29 51.35 3.35 
287.56 51.62 3.47 
287.81 51.46 3.44 
288.10 51.64 3.33 
289.34 51.56 3.16 
277.05 51.63 3.43 
277.50 51.73 3.43 
277.74 51.82 3.43 
287.27 51.84 3.51 
288.85 51.97 3.22 
277.53 52.28 3.50 
277.98 51.98 3.45 
278.63 52.06 3.44 
278.12 52.37 3.49 
276.79 52.73 3.58 
277.19 52.83 3.58 
282.34 52.90 3.45 
286.16 55.91 3.57 
286.51 56.05 3.58 
280.15 56.16 3.93 
280.37 56.14 3.92 
280.98 56.01 3.88 
286.09 56.48 3.64 
286.59 56.36 3.62 
279.60 56.45 3.98 
280.10 56.41 3.96 
280.58 56.65 3.98 
286.28 56.65 3.66 
280.29 56.95 4.02 
285.89 57.33 3.76 
275.74 58.83 4.40 
288.84 59.10 3.92 
289.22 58.99 3.90 
280.12 60.84 4.53 
284.98 61.16 4.28 
285.56 61.27 4.28 
286.04 61.14 4.25 
280.35 61.24 4.58 
285.28 61.30 4.29 
285.76 61.46 4.30 
285.97 61.43 4.29 
286.80 61.44 4.27 
285.08 62.18 4.41 
286.56 62.27 4.38 
288.16 64.91 4.68 
287.68 65.47 4.77 
288.75 65.45 4.74 
281.85 48.21 3.57 
282.59 48.19 3.56 
274.84 48.52 3.82 
275.05 48.42 3.79 
275.59 48.43 3.77 
278.83 48.58 3.69 
274.83 48.66 3.85 
267.59 48.97 3.92 
267.92 49.04 3.91 
288.70 51.52 3.55 
289.05 51.66 3.57 
289.37 51.67 3.68 
278.13 51.81 3.85 
287.44 51.98 3.53 
289.29 51.81 3.70 
277.86 52.15 3.91 
288.31 52.46 3.79 
277.53 52.61 3.99 
282.63 52.82 3.90 
282.96 53.14 3.79 
290.58 54.76 3.91 
280.10 56.15 4.46 
280.41 56.28 4.47 
285.51 56.11 4.19 
285.90 56.29 4.21 
279.65 56.42 4.51 
280.18 56.41 4.49 
285.75 56.46 4.23 
286.15 56.59 4.25 
286.52 56.77 4.27 
287.10 56.87 4.27 
287.27 56.79 4.26 
289.09 65.74 4.77 
275.17 48.60 4.18 
279.06 48.68 4.06 
287.66 51.54 3.95 
287.88 51.61 3.96 
288.30 51.47 3.93 
288.68 51.70 3.97 
288.95 51.67 4.07 
287.61 51.85 4.00 
287.73 51.84 4.00 
288.25 51.83 3.99 
288.68 51.87 4.10 
289.28 51.98 4.23 
287.66 52.11 4.05 
282.80 52.63 4.27 
283.22 53.31 4.45 
289.30 59.11 4.58 
288.86 59.42 4.63 
285.60 61.17 4.96 
286.17 61.17 4.94 
284.86 61.45 5.02 
285.34 61.48 5.01 
285.79 61.39 4.99 
286.02 61.49 5.00 
284.85 61.70 5.06 
288.04 65.30 5.54 
288.54 65.23 5.52 
287.65 51.48 4.42 
288.36 51.59 4.45 
287.59 51.69 4.47 
287.98 51.79 4.49 
288.22 51.79 4.49 
288.77 51.85 4.50 
287.86 52.05 4.54 
290.46 54.79 4.50 
286.33 56.39 4.81 
278.65 56.32 5.01 
285.68 56.70 4.87 
286.33 56.58 4.84 
286.56 56.62 4.85 
285.88 56.83 4.89 
286.26 56.95 4.91 
289.33 58.71 5.18 
289.61 58.98 5.23 
288.92 59.46 5.31 
289.41 59.56 5.33 
289.26 59.84 5.38 
287.92 65.91 5.63 
288.24 51.88 5.01 
288.63 51.92 4.72 
286.05 56.75 5.48 
267.99 48.55 2.55 
267.39 48.81 2.59 
267.80 48.78 2.57 
268.04 48.92 2.58 
268.23 49.10 2.59 
268.71 49.33 2.60 
268.46 49.47 2.62 
276.90 51.88 2.60 
277.35 51.90 2.59 
278.11 51.83 2.57 
278.56 51.94 2.56 
277.00 52.27 2.63 
277.78 52.15 2.60 
277.51 52.38 2.63 
282.19 52.98 2.31 
280.34 56.46 2.88 
271.40 57.40 3.21 
275.41 58.63 3.20 
271.23 58.62 3.32 
275.20 58.88 3.23 
275.64 58.89 3.22 
275.93 58.83 3.21 
277.88 68.55 3.95 
278.60 69.12 3.98 
279.36 69.08 3.95 
277.62 69.23 4.02 
278.15 69.18 4.00 
282.06 47.47 2.09 
282.00 47.73 2.25 
274.71 48.24 2.54 
275.02 48.18 2.70 
275.54 48.15 2.51 
275.90 48.18 2.50 
276.21 48.18 2.32 
281.45 48.40 2.34 
281.74 48.14 2.32 
282.15 48.46 2.32 
274.96 48.41 2.55 
275.32 48.47 2.54 
275.85 48.45 2.53 
276.15 48.44 2.52 
278.93 48.56 2.45 
281.89 48.64 2.55 
282.03 48.51 2.33 
274.80 49.03 2.43 
275.05 48.81 2.58 
276.31 48.78 2.36 
281.71 48.92 2.58 
282.21 49.06 2.21 
276.22 49.38 2.42 
288.17 52.00 2.53 
282.18 52.93 2.80 
289.57 58.68 3.20 
289.55 59.04 3.24 
289.95 59.05 3.23 
290.12 59.55 3.28 
288.58 65.43 3.94 
288.64 65.99 4.00 
281.56 47.93 2.82 
281.78 47.97 2.66 
274.80 48.18 3.06 
275.42 48.13 3.03 
275.84 48.11 3.02 
276.07 48.26 3.03 
282.32 48.25 2.68 
267.49 48.47 3.00 
267.94 48.32 2.96 
274.58 48.54 3.12 
274.94 48.47 3.10 
275.44 48.40 3.07 
275.93 48.44 3.05 
276.15 48.45 3.05 
278.90 48.56 2.97 
281.90 48.67 2.91 
267.55 48.62 3.01 
267.84 48.88 3.03 
268.36 48.83 3.00 
274.77 48.66 3.13 
275.00 48.67 3.12 
268.24 49.09 3.03 
268.56 49.01 3.01 
268.36 49.34 3.05 
268.44 49.42 3.06 
288.33 51.34 2.93 
288.41 51.21 2.91 
288.92 51.23 2.64 
278.30 51.42 2.94 
287.52 51.63 2.98 
287.98 51.66 2.98 
288.55 51.74 2.70 
289.02 51.69 2.82 
289.46 51.71 2.68 
289.66 51.68 2.67 
277.01 51.82 3.03 
278.11 51.66 2.97 
287.40 51.75 3.00 
287.93 52.03 3.02 
288.18 51.88 3.00 
288.43 51.76 2.98 
288.88 51.88 2.85 
289.47 51.87 2.69 
277.13 51.96 3.04 
277.37 52.21 3.06 
277.68 52.14 3.04 
287.38 52.21 3.06 
288.00 52.36 3.07 
276.81 52.46 3.10 
277.50 52.34 3.07 
278.45 52.50 3.05 
282.61 52.99 3.28 
282.85 53.07 2.99 
282.46 53.86 3.40 
279.96 55.57 3.33 
279.52 56.09 3.40 
280.01 56.16 3.40 
280.47 56.34 3.40 
279.05 56.46 3.46 
280.16 56.49 3.43 
280.32 56.53 3.43 
271.65 57.71 3.82 
270.91 57.98 3.87 
271.20 57.85 3.85 
290.45 58.56 3.37 
271.25 58.29 3.90 
275.41 58.61 3.80 
275.57 58.48 3.78 
275.91 58.56 3.77 
290.40 58.93 3.41 
275.70 58.84 3.81 
280.04 61.11 3.92 
280.00 61.14 3.93 
273.82 63.57 4.37 
277.84 63.55 4.24 
283.83 67.80 4.52 
284.10 67.97 4.53 
278.13 68.39 4.75 
278.32 68.88 4.80 
279.10 68.83 4.77 
279.42 68.96 4.77 
278.55 69.34 4.84 
281.99 47.53 2.96 
281.77 47.90 3.15 
282.38 47.88 3.14 
282.48 47.86 3.13 
274.70 48.20 3.43 
281.95 48.09 3.15 
282.26 48.16 3.14 
274.81 48.37 3.45 
275.06 48.44 3.45 
275.46 48.44 3.43 
278.86 48.55 3.32 
267.63 48.72 3.46 
267.82 48.78 3.46 
275.11 48.64 3.48 
275.33 48.66 3.47 
275.86 48.76 3.46 
267.28 48.95 3.51 
267.97 48.92 3.47 
268.22 49.09 3.48 
268.24 49.46 3.52 
268.44 49.40 3.50 
287.88 51.26 3.40 
288.15 51.17 3.38 
288.45 51.18 3.38 
288.90 51.10 3.10 
277.45 51.39 3.38 
278.33 51.32 3.35 
287.54 51.57 3.45 
287.72 51.46 3.43 
288.38 51.51 3.43 
288.98 51.53 3.33 
289.53 51.65 3.16 
277.11 51.65 3.43 
277.47 51.68 3.42 
277.81 51.61 3.40 
287.37 51.74 3.48 
288.17 51.79 3.33 
288.96 52.12 3.22 
277.64 52.18 3.48 
278.03 52.09 3.46 
278.42 52.12 3.45 
288.15 52.43 3.27 
278.15 52.39 3.49 
282.37 52.63 3.73 
290.41 54.80 3.33 
286.55 55.86 3.55 
285.34 56.34 3.64 
279.41 56.37 3.97 
279.71 56.59 3.99 
280.18 56.39 3.95 
280.34 56.35 3.94 
286.59 56.53 3.64 
287.16 56.54 3.62 
279.72 56.82 4.02 
280.53 56.95 4.01 
270.86 57.31 4.39 
271.51 58.08 4.46 
290.48 58.28 3.98 
271.03 58.40 4.52 
289.55 58.80 3.86 
290.31 58.59 4.02 
271.19 58.51 4.53 
275.63 58.73 4.39 
288.84 59.25 3.93 
285.20 61.34 4.29 
285.60 61.32 4.28 
287.80 65.11 4.71 
288.30 65.07 4.70 
287.54 65.36 4.75 
288.09 65.31 4.73 
288.27 65.46 4.75 
288.73 65.45 4.74 
289.12 65.68 4.76 
282.08 47.96 3.40 
281.97 47.98 3.41 
282.22 48.14 3.48 
282.48 48.18 3.54 
275.10 48.42 3.81 
275.45 48.33 3.78 
278.79 48.60 3.69 
278.89 48.57 3.68 
282.12 48.47 3.59 
275.65 48.75 3.84 
275.79 48.63 3.81 
267.53 49.05 3.96 
267.92 49.04 3.93 
268.13 49.17 3.94 
289.43 51.65 3.65 
288.31 51.74 3.66 
288.69 52.03 3.50 
289.01 51.78 3.46 
289.31 51.90 3.68 
277.86 52.13 3.90 
278.19 51.90 3.86 
288.03 52.10 3.71 
288.89 52.18 3.52 
277.71 52.32 3.94 
282.49 52.70 3.74 
282.24 52.85 3.77 
282.51 53.06 3.79 
282.94 52.99 3.77 
282.63 53.66 3.88 
285.21 56.24 4.21 
279.66 56.45 4.51 
280.14 56.44 4.49 
280.39 56.54 4.50 
285.55 56.45 4.23 
286.64 56.77 4.26 
287.23 56.75 4.24 
286.60 57.03 4.30 
282.90 68.28 5.26 
283.70 68.47 5.26 
278.35 69.04 5.64 
279.10 48.63 4.04 
278.59 48.65 4.06 
287.75 51.63 3.94 
288.27 51.41 3.90 
288.60 51.59 4.03 
288.95 51.59 4.03 
287.58 51.88 3.99 
287.85 51.82 3.97 
288.16 51.82 3.97 
288.66 51.72 3.95 
288.92 51.87 3.97 
289.22 51.83 4.17 
282.12 51.98 4.12 
287.51 52.16 4.04 
288.33 52.27 4.23 
288.49 52.22 4.04 
282.61 52.55 4.20 
282.22 52.93 4.28 
282.39 52.79 4.25 
291.00 54.74 4.09 
290.19 58.74 4.50 
289.27 59.19 4.58 
289.15 59.37 4.61 
284.95 61.47 5.01 
285.56 61.31 4.97 
284.72 61.57 5.04 
285.35 61.66 5.03 
285.79 61.83 5.05 
287.83 65.12 5.51 
288.37 65.08 5.49 
287.59 65.46 5.56 
288.25 65.41 5.54 
288.15 51.38 4.38 
288.48 51.56 4.41 
287.89 51.82 4.46 
288.24 51.78 4.45 
288.67 51.73 4.44 
288.88 51.91 4.48 
281.95 52.89 4.79 
282.38 52.89 4.77 
282.11 53.20 4.84 
285.79 56.53 4.83 
286.57 56.62 4.83 
285.09 56.73 4.88 
286.00 56.78 4.87 
289.14 60.01 5.39 
282.98 67.89 6.05 
283.43 67.87 6.04 
288.16 51.89 4.98 
282.14 52.88 5.28 
267.87 48.68 2.62 
268.38 48.84 2.63 
267.39 49.02 2.66 
267.97 48.93 2.64 
268.18 48.92 2.64 
268.58 49.03 2.64 
268.45 49.54 2.69 
277.10 51.50 2.64 
276.95 51.74 2.67 
277.45 51.69 2.65 
278.14 51.86 2.64 
277.11 52.20 2.70 
277.37 52.26 2.70 
277.79 52.07 2.67 
278.25 52.09 2.66 
278.45 52.05 2.65 
272.12 52.83 2.88 
272.34 52.86 2.88 
272.17 53.68 2.95 
270.60 58.03 3.36 
275.61 58.52 3.28 
275.27 58.87 3.31 
275.47 58.70 3.29 
280.06 60.70 3.33 
280.24 60.69 3.33 
280.09 60.76 3.34 
280.45 60.84 3.33 
273.14 63.21 3.74 
273.74 63.36 3.74 
273.54 63.41 3.74 
278.06 68.57 4.06 
277.58 68.91 4.10 
278.29 68.68 4.06 
279.26 69.14 4.07 
274.72 48.14 2.60 
274.99 48.05 2.40 
275.45 48.09 2.40 
275.80 48.05 2.56 
276.16 48.21 2.74 
274.78 48.29 2.80 
275.03 48.35 2.79 
275.40 48.32 2.78 
275.87 48.50 2.60 
276.10 48.49 2.59 
278.96 48.56 2.52 
274.99 48.72 2.84 
276.27 48.82 2.62 
281.72 49.08 2.67 
276.34 49.41 2.48 
288.21 51.99 2.60 
282.22 53.00 2.88 
282.35 52.93 2.87 
290.53 54.80 2.85 
289.97 58.96 3.31 
290.30 59.08 3.31 
290.32 59.61 3.37 
289.65 60.29 3.46 
287.74 65.07 4.03 
288.22 65.21 4.03 
288.08 65.88 4.11 
275.09 48.08 3.12 
275.38 48.04 3.11 
275.80 48.13 3.10 
281.85 48.17 2.91 
274.66 48.46 3.19 
274.83 48.46 3.18 
275.85 48.28 3.12 
276.15 48.54 3.14 
278.91 48.56 3.04 
281.80 48.48 2.95 
267.39 48.50 3.08 
267.76 48.68 3.08 
268.19 48.67 3.07 
268.41 48.77 3.07 
275.22 48.71 3.20 
268.22 49.13 3.11 
268.43 49.16 3.11 
268.43 49.36 3.13 
288.50 51.27 2.98 
286.96 51.55 3.06 
288.03 51.60 3.04 
288.42 51.49 3.01 
288.97 51.64 2.92 
289.45 51.61 2.74 
277.29 51.75 3.09 
277.66 51.86 3.09 
278.13 51.72 3.06 
278.43 51.88 3.07 
286.88 51.75 3.08 
287.46 51.94 3.09 
287.64 51.87 3.08 
288.17 51.99 3.09 
288.35 51.92 2.94 
288.91 51.77 3.04 
277.43 52.13 3.12 
277.78 51.99 3.10 
278.28 52.05 3.09 
286.80 52.17 3.14 
287.37 52.20 3.13 
287.99 52.17 3.11 
288.57 52.19 2.82 
288.94 52.45 3.13 
277.29 52.36 3.15 
278.50 52.45 3.13 
282.39 52.66 3.33 
287.43 52.62 3.18 
287.95 52.61 3.17 
282.25 52.87 3.36 
282.66 53.01 3.37 
282.95 53.05 3.36 
271.95 52.97 3.39 
282.78 53.32 3.40 
271.60 53.42 3.45 
280.52 56.02 3.45 
280.85 56.21 3.46 
281.16 56.05 3.44 
280.21 56.48 3.51 
280.57 56.60 3.51 
281.04 56.45 3.48 
270.85 57.53 3.92 
270.21 57.89 3.98 
270.42 57.85 3.97 
270.61 58.46 4.03 
289.70 58.77 3.50 
275.28 58.70 3.90 
275.52 58.69 3.89 
289.59 59.54 3.59 
289.82 60.16 3.65 
280.41 60.93 3.99 
280.02 61.10 4.01 
273.37 62.77 4.40 
273.39 63.64 4.49 
277.91 63.51 4.34 
278.29 68.56 4.87 
283.43 68.51 4.72 
277.99 68.91 4.92 
279.71 68.99 4.88 
277.72 69.04 4.94 
278.21 69.19 4.94 
279.49 69.07 4.89 
281.87 47.75 3.13 
282.27 48.11 3.23 
275.09 48.37 3.53 
275.42 48.35 3.51 
275.76 48.29 3.48 
278.93 48.57 3.40 
282.11 48.38 3.16 
275.33 48.73 3.57 
275.74 48.92 3.58 
281.74 48.92 3.37 
267.41 48.88 3.59 
267.87 48.94 3.57 
268.23 49.05 3.56 
268.12 49.34 3.61 
288.11 51.18 3.45 
288.59 51.17 3.17 
277.37 51.36 3.46 
286.99 51.53 3.52 
287.47 51.52 3.51 
287.71 51.48 3.50 
288.12 51.43 3.35 
288.46 51.52 3.49 
289.03 51.55 3.49 
289.64 51.69 3.22 
277.69 51.56 3.48 
286.77 51.79 3.56 
288.64 51.71 3.52 
288.97 51.82 3.53 
289.18 51.72 3.23 
289.64 51.74 3.23 
277.40 52.07 3.56 
277.65 52.19 3.56 
278.06 51.94 3.52 
278.41 52.22 3.54 
287.47 52.23 3.62 
271.68 53.18 3.92 
271.70 53.37 3.95 
286.08 55.87 3.65 
280.08 55.96 3.98 
280.55 56.15 3.99 
285.69 56.30 3.71 
279.62 56.56 4.07 
280.07 56.55 4.06 
285.53 56.44 3.73 
286.08 56.88 3.78 
286.60 56.85 3.76 
270.99 57.98 4.57 
288.70 58.70 3.95 
289.16 58.62 3.93 
289.40 58.73 3.94 
288.42 59.11 4.01 
290.10 59.12 4.17 
289.26 59.62 4.25 
280.44 61.03 4.64 
285.27 61.25 4.37 
285.58 61.27 4.37 
285.10 61.73 4.44 
287.34 65.05 4.82 
287.62 65.40 4.86 
287.86 65.38 4.85 
288.29 65.38 4.84 
287.38 65.64 4.90 
288.09 65.62 4.87 
287.21 66.02 4.95 
281.96 47.90 3.48 
282.07 47.83 3.46 
281.81 48.10 3.52 
282.25 48.19 3.52 
275.05 48.33 3.90 
275.40 48.38 3.89 
278.90 48.57 3.76 
282.32 48.32 3.62 
275.00 48.67 3.96 
275.62 48.55 3.90 
288.37 51.90 3.74 
289.34 52.00 3.75 
277.86 52.11 3.98 
277.50 52.36 4.04 
277.67 52.29 4.02 
282.15 52.88 3.86 
282.47 52.87 3.85 
282.98 52.92 3.84 
282.49 53.46 3.94 
282.64 53.60 3.96 
290.57 54.70 3.95 
290.99 54.72 4.15 
280.03 56.39 4.58 
285.22 56.46 4.32 
285.69 56.59 4.33 
280.26 56.87 4.65 
285.46 57.03 4.41 
286.11 56.96 4.38 
286.65 56.79 4.34 
289.99 58.70 4.57 
272.97 62.70 5.11 
272.44 63.06 5.18 
272.67 63.02 5.16 
282.62 67.63 5.29 
282.88 67.67 5.29 
283.14 67.94 5.32 
282.89 68.36 5.38 
281.78 47.62 3.81 
281.46 48.09 3.92 
281.70 48.14 3.92 
278.40 48.51 4.12 
278.49 48.55 4.13 
281.78 48.44 3.98 
282.05 48.48 4.01 
278.74 48.65 4.14 
279.07 48.72 4.14 
279.31 48.84 4.16 
288.54 51.48 3.97 
289.08 51.59 3.98 
287.25 51.77 4.03 
287.84 51.71 4.01 
288.22 51.79 4.11 
288.66 51.79 4.20 
288.99 51.86 4.12 
287.05 52.10 4.09 
287.64 52.09 4.08 
288.67 52.14 4.25 
282.65 52.54 4.28 
281.83 53.06 4.41 
281.95 53.10 4.41 
290.60 54.67 4.51 
285.34 56.10 4.85 
285.74 56.22 4.86 
290.06 58.80 4.76 
290.02 59.79 4.92 
284.83 61.37 5.10 
285.30 61.34 5.08 
285.72 61.38 5.07 
284.70 61.62 5.14 
287.87 65.09 5.60 
288.12 65.48 5.65 
281.49 48.00 4.30 
287.18 51.45 4.45 
288.53 51.57 4.46 
287.52 51.84 4.53 
287.76 51.74 4.50 
288.18 51.76 4.50 
288.56 51.69 4.49 
288.90 51.91 4.53 
287.40 51.97 4.55 
281.73 52.65 4.83 
282.27 52.98 4.88 
282.50 52.84 4.84 
285.27 56.52 4.92 
286.02 56.52 4.90 
285.82 56.84 4.97 
285.98 56.78 4.95 
283.15 67.81 6.15 
288.19 51.88 5.02 
288.47 51.80 5.00 
285.57 56.77 5.56 
267.48 48.70 2.69 
267.44 48.96 2.71 
267.76 48.81 2.69 
268.00 48.87 2.69 
268.50 49.01 2.69 
268.53 49.26 2.71 
277.41 51.43 2.69 
277.78 51.39 2.67 
277.21 51.54 2.70 
277.54 51.64 2.70 
277.84 51.78 2.71 
276.81 51.92 2.75 
278.03 52.13 2.73 
278.60 52.08 2.71 
278.69 52.19 2.72 
277.97 52.47 2.76 
271.31 52.68 2.95 
271.39 52.86 2.96 
271.99 52.84 2.95 
271.09 53.16 3.00 
271.57 53.01 2.97 
272.10 53.11 2.97 
271.06 53.55 3.03 
280.23 56.43 3.04 
270.01 57.59 3.41 
270.19 57.58 3.40 
280.51 60.67 3.39 
280.27 61.02 3.43 
268.86 61.00 3.73 
272.24 62.73 3.79 
272.59 62.74 3.79 
272.96 62.53 3.76 
271.99 62.93 3.82 
272.47 63.14 3.82 
273.01 63.23 3.82 
273.25 63.17 3.80 
273.32 63.65 3.84 
277.08 63.61 3.74 
277.35 63.75 3.74 
277.64 63.95 3.75 
266.72 65.54 4.17 
278.08 68.43 4.12 
279.20 68.49 4.10 
277.67 68.83 4.17 
277.32 69.08 4.20 
278.56 69.10 4.17 
271.94 69.79 4.41 
274.86 48.12 2.65 
275.32 48.02 2.63 
275.74 48.02 2.62 
275.99 48.14 2.80 
274.95 48.28 2.67 
275.24 48.31 2.66 
275.75 48.48 2.85 
276.12 48.49 2.65 
275.84 48.65 2.49 
276.15 48.85 2.69 
276.37 48.84 2.49 
274.87 49.23 2.56 
275.40 49.09 2.93 
275.97 49.30 2.54 
287.62 51.96 2.68 
289.74 59.05 3.39 
289.67 59.61 3.46 
287.71 65.54 4.16 
288.17 65.30 4.12 
288.10 65.96 4.19 
275.12 47.98 3.18 
281.72 48.23 2.98 
282.23 48.20 2.96 
274.58 48.23 3.24 
274.81 48.26 3.23 
275.35 48.39 3.23 
275.71 48.28 3.20 
276.12 48.44 3.20 
267.69 48.60 3.15 
275.18 48.71 3.28 
275.76 48.78 3.26 
267.86 48.82 3.17 
268.04 48.94 3.17 
268.45 49.04 3.17 
268.44 49.23 3.19 
288.91 51.26 2.77 
289.21 51.28 2.77 
287.46 51.53 3.10 
288.44 51.66 3.09 
288.87 51.61 2.99 
289.13 51.38 2.78 
289.57 51.55 2.79 
278.09 51.67 3.12 
286.85 51.70 3.14 
287.07 51.90 3.16 
287.63 51.84 3.14 
288.04 51.71 3.11 
288.30 51.71 3.10 
289.16 51.75 3.09 
289.63 52.03 2.84 
277.23 52.00 3.18 
277.67 51.97 3.17 
277.93 51.91 3.15 
278.71 51.86 3.12 
286.81 52.13 3.19 
287.38 52.15 3.18 
287.80 52.12 3.17 
276.78 52.47 3.25 
287.31 52.57 3.24 
271.14 52.76 3.47 
271.50 52.72 3.45 
270.93 52.95 3.50 
271.17 53.04 3.50 
271.66 53.02 3.48 
272.03 52.98 3.46 
271.30 53.32 3.52 
271.51 53.58 3.55 
272.00 53.59 3.53 
280.18 55.58 3.48 
279.52 56.08 3.56 
279.99 56.22 3.56 
280.80 55.98 3.51 
287.06 56.33 3.37 
280.17 56.41 3.57 
280.63 56.44 3.56 
286.82 56.63 3.41 
280.28 56.84 3.62 
270.18 57.87 4.05 
289.95 58.78 3.56 
276.05 58.85 3.97 
289.69 59.18 3.61 
280.28 60.95 4.07 
272.49 62.11 4.44 
272.66 62.62 4.49 
273.13 62.53 4.46 
273.34 62.54 4.45 
272.76 63.16 4.54 
273.44 63.11 4.51 
277.39 63.09 4.39 
277.63 63.68 4.44 
277.63 64.02 4.48 
288.18 65.25 4.31 
288.57 65.50 4.33 
289.10 65.36 4.30 
266.57 65.19 4.97 
289.51 65.87 4.34 
278.29 68.53 4.95 
277.76 68.89 5.01 
279.00 68.65 4.94 
277.98 69.19 5.03 
278.51 69.14 5.01 
278.72 69.09 5.00 
274.87 48.26 3.61 
275.40 48.24 3.58 
275.72 48.27 3.57 
268.05 48.70 3.62 
275.76 48.78 3.64 
267.39 48.90 3.68 
268.18 49.09 3.66 
268.11 49.39 3.70 
287.84 51.12 3.49 
286.93 51.50 3.57 
287.21 51.47 3.56 
287.73 51.27 3.52 
287.88 51.53 3.56 
288.49 51.43 3.39 
288.78 51.37 3.24 
289.28 51.59 3.40 
289.73 51.66 3.26 
277.66 51.58 3.55 
277.95 51.77 3.57 
286.77 51.75 3.61 
287.65 51.79 3.60 
288.09 51.81 3.45 
288.36 51.74 3.58 
288.98 51.73 3.57 
289.24 51.73 3.28 
289.48 51.74 3.28 
277.82 51.87 3.59 
278.08 51.84 3.57 
277.17 52.28 3.67 
287.98 52.47 3.40 
271.58 53.06 4.00 
271.54 53.49 4.06 
290.47 54.72 3.45 
286.03 55.84 3.71 
280.43 55.97 4.04 
285.53 56.19 3.77 
286.53 56.07 3.90 
286.75 56.31 3.92 
279.51 56.54 4.15 
280.02 56.42 4.12 
280.64 56.25 4.07 
286.37 56.61 3.89 
286.57 56.50 3.78 
287.39 56.77 3.97 
279.82 56.63 4.15 
286.57 56.84 3.83 
289.43 59.16 4.06 
289.70 59.04 4.22 
290.88 59.52 4.08 
285.36 61.22 4.44 
285.66 61.33 4.45 
286.58 61.39 4.60 
285.07 61.74 4.52 
285.86 61.69 4.49 
287.61 65.21 4.91 
275.02 48.25 3.98 
275.31 48.38 3.99 
274.95 48.65 4.05 
275.40 48.59 4.02 
275.55 48.69 4.03 
288.08 51.85 3.77 
288.33 51.80 3.76 
288.84 51.77 3.75 
289.46 52.01 3.78 
277.76 52.10 4.06 
277.57 52.35 4.11 
282.99 52.87 3.90 
290.50 54.71 4.00 
290.90 54.78 4.20 
291.00 54.69 4.18 
280.02 56.31 4.64 
285.63 56.57 4.40 
286.44 56.48 4.43 
280.15 56.86 4.72 
286.08 56.95 4.44 
286.80 61.64 4.63 
287.04 61.81 4.64 
272.96 62.51 5.17 
272.33 63.01 5.26 
272.58 62.93 5.24 
272.94 63.22 5.26 
282.59 67.58 5.37 
283.09 67.94 5.40 
282.79 68.43 5.48 
278.67 48.13 4.12 
278.76 48.15 4.12 
279.20 48.32 4.13 
287.21 51.54 4.04 
287.75 51.43 4.01 
288.05 51.53 4.03 
287.20 51.73 4.08 
287.60 51.72 4.07 
288.16 51.79 4.15 
288.44 51.74 4.14 
289.00 51.68 4.12 
287.01 52.08 4.15 
287.98 51.97 4.11 
288.53 52.06 4.27 
282.45 52.58 4.37 
282.57 52.87 4.42 
282.77 52.87 4.41 
282.31 53.12 4.48 
290.46 54.70 4.56 
285.25 56.23 4.94 
285.39 55.95 4.88 
290.03 59.81 4.97 
285.51 61.27 5.14 
284.66 61.52 5.20 
284.98 61.57 5.20 
285.30 61.67 5.21 
287.87 65.11 5.67 
287.09 51.42 4.49 
287.65 51.50 4.50 
286.99 51.63 4.54 
287.34 51.80 4.57 
287.66 51.72 4.55 
288.05 51.79 4.56 
288.27 51.88 4.57 
281.70 52.68 4.92 
282.27 52.85 4.94 
285.58 56.57 4.99 
285.93 56.52 4.97 
285.96 56.77 5.02 
283.10 67.84 6.24 
285.46 56.68 5.61 
267.87 48.75 2.69 
267.91 48.63 2.68 
267.34 48.88 2.72 
268.13 48.93 2.70 
268.47 48.99 2.70 
268.46 49.19 2.72 
276.92 51.77 2.74 
277.24 51.58 2.72 
277.75 51.77 2.72 
277.92 51.78 2.72 
278.45 51.53 2.68 
276.58 51.91 2.76 
277.26 51.95 2.75 
278.05 52.08 2.74 
278.47 52.02 2.72 
278.68 51.98 2.71 
270.88 52.81 2.98 
271.23 52.53 2.95 
271.67 52.63 2.95 
272.10 52.54 2.93 
271.08 53.09 3.00 
272.08 52.90 2.96 
272.21 52.97 2.96 
271.46 53.37 3.02 
271.90 53.63 3.03 
266.55 56.87 3.43 
272.21 62.63 3.79 
272.39 62.64 3.79 
271.72 63.27 3.86 
272.28 63.60 3.87 
272.54 63.55 3.86 
273.03 63.45 3.84 
273.25 63.49 3.84 
277.21 63.67 3.75 
276.59 64.04 3.80 
276.97 63.76 3.76 
277.40 63.79 3.75 
277.69 63.97 3.76 
275.06 47.98 2.66 
275.18 48.06 2.85 
275.80 48.02 2.64 
283.41 48.03 2.25 
274.60 48.32 2.90 
274.87 48.25 2.69 
275.28 48.27 2.68 
275.83 48.35 2.67 
276.06 48.39 2.67 
279.00 48.57 2.60 
283.54 48.41 2.27 
275.36 48.61 2.71 
275.69 48.88 2.92 
276.21 48.75 2.70 
276.32 48.73 2.88 
276.31 49.12 2.53 
287.71 51.95 2.69 
289.83 59.08 3.40 
289.58 59.37 3.44 
289.93 59.30 3.42 
285.70 61.58 3.79 
287.65 64.94 4.10 
288.08 65.01 4.09 
287.74 65.28 4.13 
287.97 65.24 4.12 
288.44 65.24 4.11 
287.53 65.93 4.21 
274.68 48.27 3.28 
274.80 48.31 3.28 
275.27 48.27 3.25 
275.68 48.34 3.24 
276.06 48.36 3.23 
279.00 48.55 3.14 
267.98 48.54 3.16 
275.73 48.72 3.29 
275.99 48.79 3.29 
267.95 48.90 3.20 
268.58 48.76 3.16 
268.13 49.25 3.23 
268.45 49.25 3.22 
287.34 51.17 3.07 
289.36 51.15 2.76 
287.61 51.44 3.10 
288.02 51.41 3.08 
288.45 51.49 3.02 
288.82 51.49 2.81 
289.18 51.39 2.79 
289.70 51.62 2.80 
278.15 51.62 3.13 
278.36 51.78 3.15 
286.81 51.70 3.15 
287.22 51.76 3.15 
287.79 51.82 3.14 
288.05 51.73 3.12 
288.33 51.78 3.12 
288.75 51.76 2.84 
276.84 51.88 3.20 
277.14 52.00 3.21 
277.97 51.98 3.18 
278.34 51.95 3.16 
289.19 52.19 2.88 
278.45 52.27 3.20 
278.64 52.35 3.20 
271.14 52.75 3.49 
271.28 52.89 3.50 
271.51 52.95 3.50 
272.06 52.82 3.47 
271.66 53.22 3.53 
291.11 54.73 3.10 
279.34 56.13 3.58 
287.10 56.28 3.37 
286.59 61.45 3.95 
286.99 61.45 3.94 
272.74 62.07 4.44 
273.11 62.33 4.46 
285.94 62.63 4.09 
286.31 62.52 4.07 
272.28 62.77 4.53 
286.37 62.82 4.10 
272.66 62.98 4.54 
276.67 63.01 4.41 
276.97 63.03 4.41 
277.36 63.06 4.40 
277.65 63.30 4.41 
271.76 63.25 4.60 
277.00 63.36 4.44 
277.40 63.49 4.44 
277.72 64.12 4.50 
289.18 65.36 4.30 
275.09 48.00 3.61 
274.88 48.18 3.65 
275.29 48.22 3.63 
275.61 48.36 3.64 
275.69 48.62 3.67 
278.95 48.57 3.50 
267.77 48.84 3.70 
268.01 49.03 3.71 
268.17 49.18 3.72 
268.37 49.18 3.71 
287.36 51.15 3.52 
287.60 51.16 3.51 
288.00 51.03 3.48 
286.94 51.46 3.58 
287.29 51.36 3.55 
287.64 51.40 3.55 
288.06 51.51 3.41 
288.59 51.40 3.25 
288.91 51.43 3.25 
289.25 51.48 3.25 
289.44 51.60 3.26 
287.16 51.59 3.59 
287.68 51.84 3.62 
288.16 51.85 3.46 
288.51 51.73 3.58 
288.85 51.88 3.31 
289.29 51.95 3.31 
289.72 51.74 3.27 
278.01 51.88 3.61 
287.81 51.97 3.63 
288.45 52.10 3.64 
277.08 52.28 3.70 
277.66 52.41 3.69 
286.87 52.40 3.73 
288.05 52.47 3.40 
271.70 53.15 4.04 
271.89 53.14 4.03 
291.07 54.71 3.64 
285.45 56.31 3.80 
286.13 56.13 3.92 
286.70 56.13 3.91 
279.88 56.30 4.12 
285.81 56.58 3.83 
286.47 56.69 3.82 
286.80 56.50 3.95 
279.50 56.75 4.19 
285.57 56.88 3.87 
285.95 56.75 3.84 
287.58 56.77 3.97 
286.66 57.27 4.06 
289.51 58.57 3.99 
289.29 59.31 4.27 
285.73 61.06 4.42 
285.15 61.32 4.47 
286.37 61.33 4.44 
286.85 61.66 4.63 
275.28 48.54 4.08 
278.90 48.57 3.87 
287.24 51.42 4.03 
287.79 51.26 3.99 
289.16 51.52 3.70 
288.46 51.74 3.74 
288.88 51.72 3.74 
289.30 52.06 3.78 
289.51 52.04 3.78 
283.73 52.60 3.97 
291.03 54.72 4.17 
285.25 56.18 4.36 
286.49 56.24 4.33 
286.67 56.24 4.46 
285.30 56.57 4.42 
285.56 56.48 4.40 
285.80 56.47 4.39 
286.15 56.52 4.39 
286.58 56.64 4.53 
286.98 56.99 4.58 
285.97 57.16 4.49 
286.86 61.86 4.66 
287.10 61.95 4.66 
287.28 62.00 4.66 
272.59 62.88 5.26 
277.07 63.22 5.13 
277.24 63.30 5.14 
289.05 65.62 5.10 
283.47 67.56 5.35 
287.60 51.47 4.03 
288.74 51.43 4.14 
287.31 51.70 4.08 
287.67 51.64 4.06 
288.09 51.60 4.04 
288.49 51.59 4.03 
288.70 51.74 4.20 
289.05 51.91 4.23 
287.00 52.14 4.17 
288.12 52.00 4.12 
288.40 52.01 4.16 
289.21 51.94 4.23 
290.06 59.82 4.96 
290.18 59.70 4.94 
284.77 61.29 5.17 
284.93 61.37 5.18 
285.55 61.27 5.15 
287.67 51.36 4.48 
287.30 51.72 4.56 
287.72 51.71 4.55 
288.04 51.63 4.52 
288.26 51.79 4.55 
287.45 52.12 4.64 
287.52 51.92 4.60 
285.43 56.49 4.99 
285.86 56.49 4.98 
285.16 56.70 5.04 
286.00 56.79 5.03 
287.72 51.75 5.04 
282.89 47.78 1.96 
283.15 47.79 1.96 
275.10 48.49 2.55 
267.99 48.44 2.69 
274.93 48.53 2.56 
266.67 48.77 2.75 
267.27 48.87 2.75 
268.46 48.74 2.71 
276.16 49.32 2.60 
276.31 49.17 2.58 
277.65 51.34 2.74 
288.26 51.56 2.46 
276.90 51.55 2.77 
277.21 51.64 2.77 
277.55 51.72 2.77 
277.86 51.54 2.75 
278.32 51.56 2.74 
288.43 51.92 2.48 
277.54 52.09 2.81 
277.80 51.98 2.79 
278.45 51.88 2.76 
278.42 52.46 2.82 
271.22 52.51 2.99 
271.50 52.64 3.00 
271.72 52.73 3.00 
283.68 53.07 2.73 
271.85 52.83 3.00 
283.81 53.25 2.74 
266.77 56.19 3.41 
266.75 56.51 3.44 
266.89 56.52 3.44 
289.59 59.05 3.07 
272.81 62.93 3.87 
273.39 63.14 3.87 
273.06 63.41 3.90 
272.71 63.85 3.95 
284.25 67.79 3.98 
283.08 47.83 2.46 
274.98 47.89 2.50 
275.54 47.97 2.69 
275.83 47.89 2.48 
282.68 47.93 2.65 
283.25 48.10 2.48 
274.98 48.20 2.53 
275.18 48.26 2.93 
275.69 48.20 2.71 
276.02 48.33 2.71 
276.23 48.38 2.51 
278.96 48.55 2.65 
279.04 48.58 2.65 
283.14 48.44 2.69 
283.47 48.38 2.33 
276.31 48.60 2.73 
287.65 51.94 2.75 
287.76 51.95 2.75 
285.48 56.87 3.36 
289.79 59.05 3.48 
289.72 59.38 3.51 
285.59 61.55 3.87 
287.66 65.00 4.19 
287.89 64.85 4.17 
288.35 65.12 4.18 
282.80 47.74 2.96 
283.17 48.04 2.99 
274.87 48.24 3.13 
275.25 48.37 3.33 
275.97 48.29 3.29 
267.79 48.65 3.23 
268.21 48.63 3.22 
274.51 48.45 2.97 
275.41 48.57 3.35 
275.59 48.49 3.34 
275.96 48.70 3.34 
278.99 48.56 3.20 
267.81 48.84 3.25 
267.95 48.80 3.24 
282.70 49.05 3.13 
287.38 51.06 3.11 
286.71 51.43 3.18 
287.92 51.32 3.13 
288.41 51.41 2.88 
288.74 51.35 2.86 
289.08 51.38 2.85 
289.41 51.48 2.86 
277.10 51.67 3.23 
277.52 51.62 3.21 
278.32 51.48 3.17 
286.82 51.68 3.21 
287.00 51.79 3.22 
287.64 51.78 3.20 
287.95 51.76 3.01 
288.40 51.72 2.91 
277.17 51.79 3.24 
277.63 51.90 3.24 
277.85 51.91 3.23 
278.47 51.95 3.22 
278.64 52.08 3.23 
283.39 52.22 3.10 
287.45 52.13 3.26 
278.27 52.34 3.27 
278.69 52.34 3.25 
287.23 52.35 3.29 
278.76 52.64 3.29 
283.27 52.98 3.19 
283.58 52.75 3.15 
271.13 52.84 3.56 
271.45 52.89 3.56 
283.92 53.14 3.19 
271.58 53.21 3.59 
287.26 56.08 3.42 
286.71 56.50 3.48 
287.00 56.92 3.52 
271.74 57.93 4.09 
287.14 61.30 3.99 
286.19 61.77 4.07 
286.36 61.65 4.05 
273.15 63.08 4.61 
272.62 63.25 4.64 
288.87 65.36 4.39 
288.54 65.57 4.42 
289.70 65.66 4.40 
284.13 67.64 4.77 
284.09 67.88 4.80 
284.38 68.00 4.81 
284.58 68.13 4.81 
284.82 68.41 4.84 
282.76 47.68 3.28 
282.92 48.09 3.34 
283.08 48.12 3.34 
274.68 48.19 3.34 
275.25 48.24 3.72 
275.61 48.31 3.71 
282.89 48.22 3.36 
274.98 48.47 3.36 
275.26 48.60 3.36 
275.62 48.67 3.56 
278.97 48.57 3.57 
267.76 48.85 3.77 
267.99 48.84 3.76 
275.95 48.89 3.37 
268.07 49.09 3.79 
287.17 51.42 3.63 
287.45 51.28 3.60 
287.93 51.51 3.62 
288.51 51.53 3.32 
288.67 51.37 3.30 
289.09 51.48 3.30 
289.46 51.53 3.30 
287.11 51.54 3.65 
287.66 51.68 3.66 
288.37 51.74 3.35 
289.14 51.81 3.34 
289.37 51.68 3.32 
277.62 51.80 3.68 
277.83 51.76 3.67 
283.28 52.14 3.53 
288.01 52.12 3.41 
288.24 52.04 3.39 
283.41 52.25 3.54 
277.20 52.54 3.80 
277.95 52.51 3.76 
283.15 52.74 3.61 
283.60 52.91 3.62 
291.07 54.73 3.70 
285.86 56.55 3.89 
286.65 56.67 3.96 
287.05 56.50 4.01 
287.35 56.50 4.00 
285.51 57.05 3.97 
285.67 56.84 3.94 
286.29 57.01 3.94 
286.59 56.75 4.06 
286.92 56.71 4.04 
289.68 58.58 4.23 
289.40 59.32 4.33 
289.70 59.47 4.35 
285.63 61.09 4.50 
286.81 61.54 4.69 
286.65 61.89 4.74 
282.89 48.34 3.74 
278.85 48.67 3.97 
279.13 48.65 3.95 
288.41 51.81 3.80 
288.70 51.63 3.77 
289.11 51.82 3.79 
288.30 52.14 3.86 
289.39 52.10 3.83 
283.10 52.39 4.01 
288.28 52.56 3.92 
282.91 52.57 4.05 
283.63 52.90 4.08 
283.27 53.01 4.10 
283.41 53.06 4.11 
291.10 54.73 4.22 
285.39 56.60 4.50 
285.74 56.43 4.46 
286.67 56.52 4.51 
285.53 56.63 4.50 
286.60 56.69 4.53 
285.87 57.14 4.57 
286.23 57.04 4.54 
289.10 65.68 5.19 
287.15 51.71 4.15 
287.48 51.72 4.14 
288.87 51.86 4.26 
287.06 51.99 4.20 
287.71 51.88 4.16 
288.41 52.04 4.29 
288.71 52.03 4.29 
289.21 52.25 4.33 
283.51 52.82 4.53 
283.29 52.98 4.56 
285.82 61.98 5.33 
287.29 51.34 4.54 
287.69 51.36 4.54 
287.31 51.71 4.62 
287.58 51.58 4.58 
287.90 51.55 4.57 
287.51 51.89 4.65 
285.59 56.51 5.07 
285.20 56.65 5.11 
287.72 51.72 5.09 
282.40 47.45 2.00 
283.06 47.68 2.00 
275.74 47.95 2.53 
275.91 47.96 2.53 
274.97 48.27 2.57 
275.36 48.13 2.55 
275.61 48.02 2.54 
276.03 48.29 2.55 
274.57 48.49 2.60 
275.00 48.41 2.59 
276.25 48.56 2.57 
276.30 48.71 2.59 
267.01 48.64 2.77 
275.68 49.00 2.62 
276.03 49.41 2.65 
288.46 51.49 2.51 
288.82 51.30 2.48 
289.23 51.44 2.48 
276.81 51.51 2.82 
277.17 51.54 2.82 
288.02 51.93 2.56 
289.15 51.72 2.51 
283.28 52.47 2.74 
270.82 52.59 3.05 
271.08 52.54 3.04 
283.05 52.69 2.77 
283.63 53.07 2.79 
283.88 53.27 2.80 
266.61 56.04 3.45 
266.75 56.25 3.46 
266.83 56.46 3.48 
266.96 56.57 3.49 
271.44 57.18 3.45 
271.87 57.99 3.51 
289.57 59.06 3.14 
270.20 61.37 3.85 
272.26 62.21 3.87 
288.12 65.12 3.71 
283.87 67.77 4.06 
283.81 67.89 4.08 
284.19 68.00 4.07 
284.32 68.29 4.10 
282.32 47.38 2.32 
282.57 47.66 2.43 
282.88 47.60 2.44 
283.19 47.70 2.33 
281.97 47.98 2.73 
282.55 48.12 2.73 
283.00 47.99 2.70 
283.28 48.07 2.53 
282.59 48.46 2.77 
282.82 48.27 2.39 
283.26 48.38 2.56 
287.75 51.94 2.81 
287.63 51.95 2.82 
289.98 54.72 3.06 
289.57 58.93 3.53 
289.77 59.20 3.56 
289.96 59.30 3.56 
290.17 59.94 3.63 
287.68 64.96 4.26 
287.88 64.95 4.25 
287.62 65.63 4.33 
282.33 47.73 3.03 
281.99 47.90 3.07 
282.49 47.94 3.06 
282.95 47.98 3.05 
274.43 48.28 3.02 
274.86 48.12 2.99 
275.28 48.05 2.96 
275.69 48.10 2.95 
276.03 48.26 2.96 
282.66 48.17 3.08 
282.76 48.16 3.08 
283.17 48.27 3.08 
274.68 48.34 3.02 
276.11 48.61 3.00 
278.91 48.52 3.27 
288.17 51.36 2.93 
288.43 51.41 2.93 
288.94 51.38 2.91 
289.25 51.35 2.90 
277.49 51.53 3.27 
287.96 51.69 2.97 
288.31 51.78 2.97 
288.85 51.58 2.94 
277.15 51.62 3.29 
283.18 52.83 3.23 
283.49 52.74 3.22 
271.09 52.96 3.65 
283.41 53.09 3.26 
283.93 53.25 3.26 
289.97 54.70 3.59 
291.02 54.74 3.23 
286.53 55.94 3.48 
287.16 56.09 3.48 
286.39 56.34 3.53 
286.75 56.65 3.56 
287.69 56.57 3.52 
286.90 56.90 3.58 
287.42 57.20 3.60 
270.93 57.46 4.14 
270.90 57.89 4.19 
271.77 58.19 4.19 
286.13 61.73 4.14 
286.45 61.53 4.11 
272.37 62.42 4.64 
288.47 65.30 4.47 
288.16 65.58 4.51 
284.27 67.33 4.81 
283.91 67.89 4.88 
284.72 68.08 4.88 
284.48 68.26 4.91 
282.12 48.00 3.43 
282.48 48.04 3.42 
283.03 48.00 3.39 
274.91 48.22 3.42 
275.22 48.14 3.39 
275.63 48.29 3.39 
282.67 48.12 3.42 
282.80 48.37 3.46 
274.70 48.30 3.44 
275.24 48.42 3.43 
275.84 48.67 3.43 
278.85 48.52 3.66 
275.30 48.86 3.48 
275.66 48.87 3.47 
288.41 51.46 3.36 
288.84 51.41 3.34 
289.10 51.45 3.34 
288.37 51.61 3.38 
288.94 51.90 3.41 
289.33 51.60 3.36 
287.98 52.03 3.45 
288.68 51.94 3.42 
283.48 52.47 3.63 
283.18 52.69 3.67 
283.58 52.65 3.65 
283.26 53.05 3.72 
283.55 52.96 3.69 
291.03 54.72 3.74 
286.40 55.95 4.01 
286.73 56.31 4.05 
287.22 56.54 4.07 
286.59 56.67 4.10 
287.07 56.64 4.09 
289.51 58.43 4.10 
289.96 58.43 4.09 
289.80 58.93 4.16 
290.00 58.82 4.14 
290.58 59.12 4.17 
285.89 61.17 4.73 
286.24 61.19 4.72 
286.08 61.46 4.76 
286.46 61.91 4.81 
274.95 48.18 3.84 
275.27 48.14 3.81 
282.09 48.29 3.84 
282.44 48.27 3.82 
275.01 48.28 3.85 
275.30 48.31 3.83 
275.52 48.55 3.86 
278.47 48.64 4.10 
279.13 48.57 4.04 
281.96 48.50 3.88 
278.51 48.84 4.13 
278.75 49.01 4.14 
288.51 51.46 3.79 
288.47 51.69 3.82 
288.74 51.70 3.82 
289.12 51.69 3.81 
288.18 51.98 3.87 
288.31 51.92 3.86 
282.98 52.37 4.08 
283.09 52.33 4.07 
282.81 52.59 4.12 
283.57 52.90 4.15 
282.60 52.90 4.18 
283.23 52.96 4.17 
283.44 52.92 4.15 
289.99 54.65 4.12 
290.92 54.70 4.25 
291.05 54.69 4.25 
286.45 56.63 4.65 
286.64 56.60 4.64 
288.78 51.78 4.27 
288.47 51.99 4.32 
288.79 51.86 4.29 
289.17 52.13 4.33 
283.46 52.83 4.60 
290.01 54.61 4.66 
289.88 54.65 4.67 
274.82 48.11 2.62 
275.22 47.91 2.59 
275.70 48.13 2.60 
275.04 48.46 2.65 
275.95 48.41 2.62 
276.18 48.37 2.61 
276.31 48.81 2.65 
289.07 51.39 2.56 
289.37 51.86 2.59 
287.95 51.98 2.64 
282.95 52.43 2.82 
271.03 52.42 3.10 
283.34 52.86 2.85 
283.67 53.10 2.86 
287.18 56.45 3.07 
266.61 56.38 3.55 
271.13 57.56 3.57 
270.45 57.86 3.61 
271.19 57.84 3.59 
271.26 58.18 3.62 
268.67 61.04 3.94 
269.21 61.40 3.96 
269.50 61.45 3.96 
286.63 62.24 3.60 
283.66 67.84 4.19 
283.99 68.06 4.20 
279.26 68.99 4.41 
282.36 47.33 2.38 
282.67 47.34 2.37 
282.13 47.72 2.42 
282.45 47.61 2.57 
282.74 47.37 2.37 
282.13 47.77 2.77 
282.30 47.90 2.60 
282.66 47.95 2.78 
283.14 47.96 2.59 
281.74 48.24 2.47 
281.78 48.40 2.49 
282.44 48.30 2.46 
282.78 48.26 2.63 
283.33 48.45 2.45 
282.94 48.57 2.84 
283.17 48.55 2.83 
288.18 51.48 2.82 
288.34 51.52 2.82 
289.95 54.70 3.13 
290.08 54.72 3.13 
288.81 58.67 3.62 
289.70 58.62 3.59 
288.48 59.03 3.67 
288.96 58.83 3.63 
289.25 58.83 3.62 
289.54 58.85 3.62 
289.89 58.85 3.61 
290.26 59.11 3.62 
288.22 59.10 3.68 
289.51 59.17 3.65 
287.54 65.01 4.37 
287.73 65.57 4.43 
281.79 47.60 3.11 
281.78 47.97 3.16 
282.03 47.99 3.16 
282.36 47.85 3.12 
282.75 47.85 3.11 
274.96 47.99 3.04 
275.17 48.02 3.04 
275.47 48.01 3.02 
275.85 48.16 3.03 
282.84 48.11 3.14 
274.39 48.46 3.11 
275.34 48.53 3.09 
275.99 48.40 3.05 
282.90 48.59 3.20 
283.03 48.70 3.21 
288.35 51.46 3.01 
289.18 51.23 2.96 
287.92 51.84 3.06 
288.84 51.54 3.00 
289.09 51.53 2.99 
289.37 51.65 3.00 
288.44 52.07 3.36 
288.61 51.97 3.20 
282.81 52.72 3.31 
283.16 52.61 3.29 
283.32 52.81 3.31 
282.35 52.88 3.34 
282.44 52.99 3.35 
282.98 53.04 3.34 
283.42 53.03 3.33 
283.69 53.13 3.33 
283.51 53.55 3.38 
283.80 53.33 3.35 
290.04 54.66 3.66 
286.43 56.19 3.60 
286.28 56.40 3.63 
286.93 56.30 3.59 
286.91 56.70 3.64 
287.67 56.90 3.64 
286.78 57.18 3.70 
290.92 58.22 3.70 
291.28 58.28 3.70 
270.84 57.74 4.27 
271.16 57.74 4.26 
271.23 58.25 4.31 
285.90 61.58 4.22 
286.43 61.66 4.22 
286.59 62.04 4.26 
276.83 62.92 4.65 
288.37 65.27 4.57 
284.11 67.90 4.99 
284.42 67.99 4.99 
284.17 68.20 5.02 
282.13 48.00 3.51 
274.91 48.11 3.49 
275.12 48.09 3.48 
275.62 48.15 3.46 
282.04 48.18 3.54 
282.38 48.12 3.52 
282.64 48.27 3.53 
275.05 48.44 3.53 
282.88 48.54 3.56 
275.60 48.71 3.54 
288.12 51.69 3.47 
288.51 51.81 3.47 
287.79 52.20 3.55 
288.47 51.94 3.81 
288.58 51.95 3.81 
289.46 51.97 3.47 
282.88 52.28 3.71 
282.64 52.75 3.78 
283.09 52.61 3.75 
283.49 52.71 3.74 
283.02 53.05 3.81 
283.42 53.10 3.80 
283.72 52.97 3.77 
290.97 54.71 3.81 
286.47 56.08 4.11 
286.76 56.40 4.15 
286.28 56.73 4.21 
286.53 56.60 4.18 
286.87 56.78 4.20 
290.78 58.21 4.29 
288.65 58.51 4.23 
289.28 58.58 4.22 
289.65 58.42 4.19 
290.13 58.41 4.17 
290.29 58.66 4.20 
288.60 58.98 4.30 
288.90 58.86 4.27 
289.17 58.89 4.27 
289.54 58.81 4.24 
288.78 59.06 4.30 
289.91 59.11 4.27 
287.88 65.46 5.20 
282.44 48.01 3.86 
281.99 48.42 3.96 
288.49 51.41 3.84 
288.74 51.59 3.87 
288.96 51.65 3.87 
288.22 51.93 3.93 
288.07 52.19 3.98 
282.67 52.68 4.23 
283.08 52.99 4.26 
283.37 52.93 4.24 
289.99 54.63 4.20 
286.49 56.81 4.76 
288.86 58.45 4.84 
289.68 58.32 4.80 
290.50 58.51 4.81 
288.62 58.89 4.92 
289.41 58.81 4.89 
290.15 58.68 4.84 
288.91 59.14 4.95 
289.67 59.16 4.93 
290.03 59.21 4.93 
290.31 59.04 4.90 
288.94 51.78 4.33 
288.46 52.07 4.40 
288.73 51.89 4.36 
288.97 51.81 4.34 
283.07 52.96 4.73 
289.43 59.04 5.57 
274.75 48.11 2.61 
275.61 48.05 2.59 
274.79 48.38 2.63 
275.39 48.33 2.62 
275.65 48.42 2.62 
276.13 48.28 2.60 
274.78 48.61 2.66 
274.95 48.61 2.65 
275.94 48.93 2.66 
276.18 48.84 2.65 
276.04 49.24 2.69 
288.54 51.47 2.59 
288.64 51.53 2.59 
287.79 51.98 2.66 
288.11 52.12 2.66 
288.41 51.93 2.64 
283.22 52.41 2.82 
288.03 52.31 2.68 
283.25 52.64 2.84 
283.37 53.00 2.87 
283.47 53.19 2.88 
283.96 52.99 2.85 
282.57 53.34 2.92 
282.72 53.32 2.91 
283.75 53.36 2.89 
266.79 56.20 3.52 
287.45 57.12 3.13 
270.61 57.25 3.54 
270.55 57.63 3.58 
270.45 58.13 3.62 
270.65 58.20 3.63 
280.20 60.85 3.65 
280.38 60.97 3.66 
283.58 67.53 4.17 
283.77 67.55 4.17 
283.99 67.80 4.18 
284.25 68.05 4.20 
284.44 68.13 4.20 
277.49 68.83 4.44 
277.69 68.91 4.44 
279.06 68.72 4.39 
282.38 47.59 2.58 
282.68 47.61 2.39 
281.83 47.88 2.62 
282.29 47.66 2.58 
282.67 47.82 2.59 
283.03 47.88 2.59 
283.31 47.99 2.41 
281.89 48.13 2.64 
282.15 48.26 2.65 
282.82 48.27 2.63 
282.98 48.12 2.61 
283.28 48.40 2.63 
282.93 48.71 2.86 
283.28 48.69 2.48 
282.98 48.95 2.89 
290.03 54.69 3.14 
289.79 58.46 3.58 
288.44 59.00 3.68 
289.03 58.87 3.65 
290.24 58.98 3.62 
289.19 59.14 3.67 
289.97 59.32 3.67 
282.35 47.90 3.15 
282.63 47.92 3.14 
275.00 48.09 3.06 
281.87 48.13 3.20 
282.09 48.15 3.19 
282.82 48.03 3.15 
282.95 48.24 3.17 
274.79 48.12 3.07 
274.96 48.31 3.08 
275.29 48.34 3.08 
282.70 48.74 3.25 
283.10 48.58 3.21 
275.36 48.57 3.10 
275.89 48.90 3.12 
288.49 51.28 2.99 
287.89 51.49 3.03 
288.13 51.70 3.05 
288.90 51.58 3.02 
288.02 51.87 3.07 
288.77 51.91 3.06 
283.34 52.40 3.27 
282.75 52.49 3.30 
283.28 52.61 3.29 
282.87 53.10 3.36 
283.33 52.97 3.33 
283.59 53.06 3.34 
282.70 53.22 3.38 
283.75 53.48 3.38 
290.03 54.67 3.68 
286.33 56.27 3.62 
287.15 56.51 3.62 
287.47 56.35 3.60 
286.40 56.68 3.66 
286.74 56.73 3.66 
287.27 56.78 3.65 
287.60 56.60 3.62 
286.94 57.22 3.71 
270.97 58.04 4.30 
280.21 60.92 4.33 
285.66 61.46 4.23 
286.44 61.45 4.21 
286.97 62.00 4.25 
284.41 67.91 5.00 
284.20 67.99 5.01 
275.02 48.04 3.50 
275.33 48.06 3.49 
281.91 48.11 3.57 
282.33 48.28 3.57 
282.48 48.33 3.57 
275.07 48.16 3.52 
275.45 48.34 3.52 
281.95 48.38 3.61 
282.10 48.41 3.60 
282.67 48.49 3.59 
288.15 51.78 3.49 
288.64 51.56 3.44 
288.83 51.51 3.43 
289.22 51.71 3.45 
288.04 51.91 3.51 
289.32 51.91 3.47 
287.97 52.22 3.55 
283.02 52.55 3.75 
283.29 52.60 3.75 
283.58 52.64 3.75 
283.03 53.08 3.83 
283.31 53.10 3.82 
283.65 52.92 3.78 
282.70 53.25 3.86 
286.34 56.32 4.16 
286.32 56.69 4.21 
286.74 56.66 4.20 
287.05 56.76 4.20 
286.65 57.13 4.26 
289.68 58.16 4.17 
289.46 58.26 4.19 
289.15 58.77 4.27 
289.54 58.66 4.24 
290.00 58.68 4.23 
290.27 58.67 4.22 
288.83 59.52 4.38 
288.10 51.57 3.88 
288.66 51.61 3.88 
288.91 51.51 3.85 
288.31 52.03 3.95 
288.49 51.98 3.94 
288.94 51.94 3.92 
283.35 52.96 4.27 
283.49 52.98 4.27 
290.04 54.63 4.21 
286.52 56.82 4.78 
289.69 58.25 4.80 
290.57 58.39 4.80 
289.09 58.76 4.90 
289.44 58.82 4.90 
288.65 59.19 4.99 
289.05 59.09 4.96 
290.18 59.05 4.92 
288.52 51.97 4.38 
288.83 51.84 4.35 
288.44 59.37 5.02 
288.82 59.32 5.00 
289.59 59.44 5.00 
287.84 51.82 4.80 
288.00 51.67 4.77 
275.30 47.91 2.62 
274.19 48.26 2.68 
274.84 48.19 2.66 
275.20 48.22 2.65 
276.02 48.25 2.64 
275.25 48.62 2.69 
275.92 48.67 2.68 
276.09 48.90 2.70 
267.87 49.26 2.89 
275.91 49.34 2.74 
288.30 51.61 2.65 
287.67 51.99 2.71 
287.96 52.08 2.71 
288.18 52.02 2.69 
278.47 52.09 2.94 
278.50 52.28 2.96 
282.42 52.57 2.89 
282.66 52.49 2.88 
283.14 52.61 2.88 
278.43 52.72 3.00 
282.82 52.97 2.92 
283.09 52.97 2.91 
283.57 53.10 2.91 
282.50 53.44 2.97 
283.79 53.37 2.93 
280.56 56.18 3.27 
280.68 56.44 3.29 
286.67 56.86 3.17 
286.85 56.68 3.15 
280.65 57.03 3.34 
280.79 57.05 3.34 
275.56 58.70 3.61 
275.61 59.18 3.66 
275.97 58.93 3.63 
280.20 60.96 3.71 
279.87 61.07 3.73 
284.49 67.63 4.21 
283.65 67.63 4.23 
284.16 68.00 4.25 
283.95 68.01 4.25 
284.29 68.13 4.26 
278.99 68.64 4.44 
282.24 47.56 2.44 
281.88 47.84 2.47 
282.03 47.82 2.84 
282.49 47.72 2.63 
282.88 47.79 2.63 
281.70 48.00 2.49 
282.00 48.03 2.68 
282.39 48.11 2.67 
282.99 48.06 2.84 
283.15 48.06 2.46 
281.58 48.32 2.91 
282.50 48.65 2.53 
283.20 48.57 2.51 
282.87 48.93 2.94 
283.08 48.90 2.93 
290.07 54.70 3.19 
289.92 59.01 3.68 
290.19 58.99 3.67 
282.24 47.72 3.19 
282.47 47.84 3.20 
281.76 48.08 3.26 
282.11 48.02 3.24 
282.53 48.02 3.22 
274.16 48.19 3.16 
274.38 48.08 3.14 
274.87 48.16 3.13 
275.11 48.23 3.13 
275.84 48.25 3.10 
282.68 48.37 3.26 
282.72 48.59 3.29 
275.80 48.51 3.14 
276.01 48.48 3.12 
282.80 48.72 3.30 
275.79 48.98 3.19 
275.86 48.87 3.17 
287.91 51.65 3.09 
282.70 52.48 3.35 
283.23 52.59 3.34 
283.45 52.61 3.34 
282.97 52.75 3.37 
283.55 53.07 3.39 
282.62 53.37 3.45 
283.71 53.48 3.43 
280.22 56.05 3.83 
286.13 56.31 3.68 
286.67 56.41 3.67 
287.48 56.55 3.66 
286.50 56.71 3.71 
287.15 56.54 3.67 
286.76 57.28 3.77 
287.00 61.14 4.20 
285.96 61.42 4.26 
286.42 61.52 4.26 
286.63 61.33 4.24 
272.85 63.26 4.89 
284.36 67.89 5.05 
284.15 67.97 5.06 
282.13 48.11 3.63 
282.36 48.25 3.64 
275.03 48.19 3.60 
275.46 48.24 3.58 
282.15 48.30 3.66 
282.44 48.35 3.65 
282.73 48.56 3.67 
274.53 48.32 3.64 
274.88 48.38 3.63 
275.44 48.57 3.63 
275.62 48.68 3.63 
288.02 51.98 3.56 
287.88 52.26 3.60 
282.85 52.69 3.84 
283.06 52.97 3.87 
283.47 52.86 3.84 
286.21 56.62 4.26 
286.52 56.70 4.26 
286.83 56.63 4.24 
280.06 56.87 4.52 
286.62 57.20 4.32 
286.84 56.90 4.27 
289.97 58.59 4.26 
290.25 58.60 4.26 
290.04 59.13 4.34 
288.29 51.99 3.99 
283.08 52.98 4.35 
283.45 52.96 4.33 
289.98 54.64 4.26 
290.11 54.65 4.26 
286.50 56.86 4.83 
289.91 58.41 4.87 
290.45 58.56 4.88 
289.32 58.90 4.97 
289.49 58.81 4.95 
290.22 59.13 4.98 
275.10 48.20 2.70 
274.29 48.57 2.75 
274.79 48.29 2.72 
275.08 48.43 2.72 
275.42 48.29 2.70 
267.57 49.15 2.94 
267.76 49.24 2.95 
267.63 49.55 2.98 
278.09 51.58 2.96 
277.63 51.82 2.99 
278.67 51.77 2.96 
277.05 52.25 3.04 
278.18 52.14 3.01 
278.31 52.11 3.00 
282.48 52.53 2.95 
283.07 52.39 2.92 
283.13 52.58 2.93 
278.32 52.56 3.04 
283.02 52.97 2.97 
283.28 52.87 2.96 
283.64 52.85 2.95 
283.20 53.24 2.99 
283.77 53.43 3.00 
283.96 53.30 2.98 
290.94 54.78 2.93 
291.06 54.78 2.92 
280.99 56.06 3.31 
280.09 56.45 3.37 
280.46 56.38 3.35 
280.99 56.50 3.35 
275.22 58.48 3.67 
272.79 62.48 4.10 
277.16 63.05 4.05 
277.43 63.00 4.04 
276.79 63.43 4.09 
277.62 63.71 4.10 
283.65 67.65 4.31 
283.72 68.33 4.37 
278.50 69.08 4.57 
279.20 69.02 4.55 
281.93 47.78 2.52 
282.34 47.74 2.69 
282.79 47.69 2.49 
283.11 47.85 2.50 
281.63 47.94 2.54 
281.89 47.95 2.73 
282.29 47.95 2.72 
282.72 48.07 2.72 
283.08 48.24 2.53 
282.71 48.41 2.95 
283.09 48.32 2.73 
283.03 48.80 2.78 
281.83 48.08 3.33 
282.30 48.07 3.31 
274.33 48.06 3.21 
275.04 48.20 3.20 
282.69 48.43 3.34 
274.40 48.19 3.22 
274.64 48.36 3.23 
275.08 48.41 3.22 
277.79 51.73 3.49 
282.56 52.37 3.41 
282.97 52.47 3.40 
283.30 52.41 3.39 
283.51 52.66 3.41 
277.78 52.47 3.58 
283.10 52.97 3.46 
277.73 52.85 3.62 
283.66 53.14 3.46 
283.40 53.51 3.51 
290.92 54.77 3.43 
291.04 54.80 3.43 
279.90 56.30 3.94 
280.55 56.25 3.92 
290.73 58.36 3.84 
290.36 58.88 3.92 
290.94 59.51 3.97 
272.78 62.78 4.92 
272.33 62.96 4.96 
272.80 62.83 4.93 
276.96 63.33 4.85 
272.74 63.34 4.99 
282.39 47.92 3.67 
281.86 48.34 3.77 
282.40 48.37 3.74 
274.84 48.47 3.73 
282.27 48.59 3.78 
274.83 48.55 3.75 
274.97 48.64 3.75 
287.98 51.96 3.62 
282.66 52.56 3.90 
282.78 52.58 3.90 
283.27 52.93 3.93 
283.63 52.76 3.89 
282.88 53.16 3.98 
283.20 53.12 3.96 
290.92 54.76 3.92 
279.71 56.29 4.54 
279.82 56.40 4.55 
290.74 58.66 4.47 
279.11 48.31 3.93 
279.18 48.40 3.93 
283.34 52.72 4.38 
283.09 52.99 4.43 
281.47 47.89 2.62 
274.22 47.99 2.80 
274.84 47.94 2.78 
275.20 47.94 2.77 
274.14 48.23 2.83 
274.52 48.09 2.80 
267.65 48.65 3.01 
267.37 48.80 3.03 
267.65 49.05 3.05 
267.76 49.28 3.07 
278.21 51.30 3.03 
289.59 51.98 2.79 
276.86 51.76 3.11 
277.10 51.56 3.08 
277.46 51.69 3.09 
277.83 51.54 3.06 
278.23 51.75 3.07 
283.15 52.16 2.99 
276.65 51.76 3.11 
277.65 52.01 3.11 
277.94 51.89 3.09 
278.34 52.00 3.10 
278.33 52.43 3.14 
278.56 52.38 3.13 
282.45 52.63 3.05 
282.99 52.86 3.06 
283.28 52.92 3.06 
278.43 52.85 3.18 
283.09 52.99 3.07 
283.29 53.26 3.09 
282.64 53.73 3.15 
283.44 53.52 3.11 
290.98 54.79 3.01 
279.85 56.22 3.46 
280.57 56.35 3.46 
279.40 56.70 3.52 
280.11 56.42 3.47 
290.38 58.60 3.39 
270.81 57.71 3.82 
271.63 57.66 3.80 
289.82 58.84 3.43 
290.20 58.84 3.42 
271.71 57.84 3.82 
276.65 63.00 4.19 
277.22 62.96 4.17 
276.97 63.41 4.22 
276.90 64.07 4.29 
277.42 64.12 4.28 
288.58 65.60 4.10 
288.82 65.94 4.13 
278.51 68.62 4.67 
278.75 68.78 4.68 
279.23 69.05 4.70 
279.48 68.98 4.68 
277.74 69.16 4.75 
277.98 69.29 4.75 
281.71 47.57 2.99 
282.01 47.52 2.58 
282.73 47.64 2.57 
281.94 47.88 2.81 
282.14 47.90 2.81 
282.60 47.89 2.79 
282.94 47.98 2.60 
282.87 48.28 2.83 
283.19 48.48 2.64 
281.79 47.98 3.03 
282.07 47.95 3.42 
282.14 48.05 3.43 
282.47 48.20 3.43 
274.25 48.06 3.33 
274.47 48.15 3.33 
274.78 48.20 3.33 
282.67 48.58 3.07 
282.90 48.69 3.07 
