# .PCD v0.7 - Point Cloud Data file format
VERSION 0.7
FIELDS x y z
SIZE 4 4 4
TYPE F F F
COUNT 1 1 1
WIDTH 2579
HEIGHT 1
VIEWPOINT 0 0 0 1 0 0 0
POINTS 2579
DATA ascii
281.52 7.87 0.30 
281.92 7.86 0.29 
282.34 7.84 0.28 
282.75 7.81 0.27 
283.10 7.81 0.26 
283.53 7.80 0.25 
283.88 7.81 0.24 
275.62 8.08 0.54 
275.91 8.15 0.38 
276.33 8.10 0.45 
276.75 8.11 0.39 
277.12 8.21 0.19 
277.52 8.19 0.18 
277.89 8.20 0.17 
278.26 8.25 0.16 
278.70 8.23 0.15 
279.15 8.18 0.13 
279.53 8.17 0.12 
279.82 8.16 0.11 
280.28 8.19 0.10 
275.60 15.04 0.93 
275.55 15.54 0.94 
275.59 15.96 0.95 
275.49 16.05 0.95 
275.42 16.40 0.96 
275.60 19.78 1.33 
285.53 7.69 0.21 
285.99 7.72 0.20 
286.28 7.72 0.19 
286.68 7.68 0.19 
287.12 7.69 0.18 
287.59 7.66 0.18 
287.97 7.68 0.17 
288.32 7.66 0.17 
288.77 7.65 0.17 
289.07 7.62 0.17 
289.59 7.61 0.16 
290.03 7.59 0.16 
290.44 7.58 0.16 
290.81 7.57 0.16 
291.32 7.56 0.16 
281.15 8.02 0.68 
271.53 8.24 0.77 
271.92 8.23 0.75 
272.36 8.20 0.72 
273.58 8.17 0.65 
273.93 8.15 0.63 
274.30 8.13 0.61 
274.75 8.16 0.59 
275.18 8.10 0.56 
275.45 8.09 0.55 
276.75 8.12 0.80 
277.22 8.11 0.79 
277.58 8.13 0.78 
277.88 8.12 0.77 
278.45 8.13 0.75 
279.25 8.10 0.73 
279.94 8.09 0.71 
280.39 8.09 0.70 
280.65 8.08 0.70 
282.85 7.69 0.83 
283.19 7.68 0.82 
283.53 7.65 0.82 
283.97 7.66 0.81 
284.33 7.64 0.80 
284.77 7.63 0.79 
285.07 7.62 0.79 
285.54 7.60 0.78 
286.01 7.60 0.78 
286.35 7.58 0.77 
286.78 7.56 0.77 
287.15 7.56 0.77 
287.61 7.54 0.76 
287.94 7.53 0.76 
288.35 7.53 0.76 
288.75 7.50 0.76 
289.10 7.50 0.76 
289.64 7.54 0.76 
289.98 7.70 0.76 
290.36 7.71 0.76 
290.71 7.70 0.77 
291.15 7.68 0.77 
291.50 7.68 0.77 
278.20 7.93 0.99 
278.87 7.82 0.96 
279.03 7.84 0.95 
279.55 7.82 0.93 
279.98 7.80 0.92 
280.32 7.77 0.90 
280.73 7.77 0.89 
281.46 7.74 0.87 
281.93 7.73 0.85 
282.35 7.70 0.84 
282.64 7.70 0.84 
282.95 7.71 0.83 
274.73 8.25 1.16 
275.14 8.23 1.14 
275.57 8.21 1.12 
275.92 8.19 1.10 
276.35 8.18 1.07 
276.87 8.16 1.05 
277.18 8.12 1.03 
277.39 8.14 1.02 
277.97 8.06 1.00 
272.47 8.39 1.31 
272.74 8.36 1.29 
273.12 8.37 1.26 
273.48 8.36 1.24 
273.93 8.33 1.21 
274.33 8.30 1.19 
271.94 9.20 1.34 
271.93 9.81 1.34 
270.89 9.97 1.42 
271.18 9.97 1.39 
271.53 9.96 1.37 
271.80 9.95 1.35 
279.97 7.97 1.31 
280.37 7.97 1.30 
280.78 7.98 1.29 
281.16 7.94 1.29 
281.52 7.94 1.28 
281.90 7.90 1.28 
282.18 7.89 1.27 
274.07 8.07 1.51 
274.34 8.05 1.50 
274.78 8.05 1.48 
275.18 8.06 1.46 
275.52 8.05 1.45 
275.96 8.06 1.43 
276.32 8.04 1.42 
276.76 8.04 1.40 
277.21 8.05 1.39 
277.55 8.03 1.38 
277.91 8.03 1.36 
278.32 8.02 1.35 
278.82 8.00 1.34 
279.17 8.02 1.33 
279.53 7.99 1.32 
287.22 7.95 -1.55 
287.49 7.93 -1.56 
287.85 7.94 -1.57 
288.16 7.94 -1.58 
288.69 7.91 -1.59 
289.08 7.89 -1.61 
289.49 7.87 -1.62 
289.84 7.88 -1.63 
290.24 7.85 -1.64 
272.56 16.07 -0.42 
288.61 20.02 -0.58 
281.96 8.18 -1.15 
277.22 8.28 -1.00 
281.68 8.21 -1.14 
278.72 13.74 -0.59 
274.53 14.16 -0.19 
276.56 14.34 -0.48 
274.54 14.64 -0.16 
274.54 14.96 -0.14 
274.57 15.33 -0.12 
275.51 15.30 -0.16 
274.55 15.71 -0.10 
272.62 16.00 0.01 
272.84 15.99 0.00 
274.58 16.22 -0.07 
274.57 16.46 -0.05 
274.60 16.92 -0.02 
274.61 17.32 0.00 
274.65 17.75 0.03 
274.65 18.21 0.06 
274.69 18.21 0.06 
275.51 18.24 0.25 
274.65 18.66 0.09 
275.49 18.63 0.27 
274.69 19.72 0.15 
287.06 7.89 -0.98 
287.49 7.89 -0.99 
287.88 7.88 -1.00 
288.17 7.87 -1.00 
288.70 7.85 -1.02 
289.13 7.82 -1.03 
289.50 7.81 -1.03 
289.83 7.81 -1.04 
290.25 7.79 -1.05 
290.61 7.80 -1.06 
290.92 7.75 -1.06 
291.42 7.77 -1.07 
280.40 8.14 -0.78 
280.63 8.12 -0.79 
281.08 8.09 -0.80 
281.51 8.06 -0.82 
281.90 8.11 -0.76 
282.29 8.05 -0.84 
282.68 8.03 -0.85 
283.10 8.03 -0.87 
283.54 8.01 -0.88 
283.85 8.02 -0.89 
284.29 7.95 -0.90 
284.74 7.94 -0.92 
285.02 7.95 -0.92 
285.49 7.92 -0.94 
285.94 7.93 -0.95 
286.22 7.94 -0.95 
286.62 7.91 -0.97 
287.02 7.94 -0.97 
274.66 8.31 -0.56 
275.08 8.31 -0.57 
275.49 8.29 -0.59 
275.86 8.30 -0.61 
276.22 8.28 -0.62 
276.66 8.27 -0.64 
277.11 8.25 -0.53 
277.47 8.24 -0.54 
277.86 8.23 -0.56 
278.25 8.21 -0.57 
278.56 8.23 -0.58 
279.06 8.18 -0.73 
279.48 8.19 -0.74 
279.97 8.19 -0.63 
280.30 8.19 -0.64 
280.70 8.18 -0.51 
281.06 8.18 -0.52 
281.42 8.16 -0.53 
281.68 8.17 -0.54 
274.75 9.05 -0.52 
274.90 9.04 -0.52 
274.50 12.97 0.22 
274.51 13.50 0.24 
275.51 14.60 0.03 
275.49 15.19 0.07 
274.94 15.34 0.29 
275.14 15.28 0.28 
274.58 15.77 0.33 
274.58 16.43 0.36 
274.59 16.96 0.38 
275.50 17.14 0.58 
275.48 18.03 0.61 
275.45 18.43 0.63 
275.51 18.73 0.64 
274.66 19.14 0.47 
274.68 19.64 0.66 
274.70 20.04 0.68 
286.20 7.81 -0.39 
286.71 7.80 -0.40 
287.08 7.79 -0.41 
287.52 7.79 -0.42 
287.86 7.77 -0.42 
288.24 7.77 -0.43 
288.71 7.75 -0.44 
289.16 7.72 -0.45 
289.54 7.72 -0.45 
289.85 7.71 -0.46 
290.27 7.69 -0.46 
290.61 7.69 -0.47 
291.11 7.71 -0.47 
291.45 7.68 -0.47 
279.47 8.05 -0.19 
279.86 8.03 -0.20 
280.33 8.02 -0.22 
280.67 8.01 -0.23 
281.09 8.00 -0.25 
281.52 7.98 -0.26 
281.92 7.96 -0.27 
282.27 7.95 -0.29 
282.69 7.93 -0.30 
283.12 7.93 -0.31 
283.52 7.90 -0.32 
283.84 7.89 -0.33 
284.31 7.87 -0.34 
284.72 7.86 -0.36 
285.04 7.85 -0.36 
285.51 7.83 -0.38 
285.92 7.84 -0.38 
286.36 7.85 -0.39 
274.73 8.25 0.02 
275.13 8.21 0.00 
275.48 8.19 -0.02 
275.85 8.20 -0.03 
276.29 8.17 -0.05 
276.74 8.15 -0.08 
277.09 8.15 -0.09 
277.44 8.15 -0.11 
277.87 8.13 -0.12 
278.30 8.10 -0.14 
278.71 8.07 -0.16 
279.09 8.07 -0.17 
274.75 8.39 0.02 
274.61 11.49 0.15 
274.54 11.81 0.17 
275.52 15.26 0.51 
275.78 15.26 0.50 
276.23 15.26 0.48 
275.46 15.60 0.52 
274.68 16.30 0.76 
275.46 16.24 0.55 
274.75 16.98 0.77 
275.43 16.98 0.77 
274.75 17.36 0.78 
274.67 17.81 0.79 
274.75 17.73 0.78 
275.42 17.70 0.99 
274.61 17.95 0.80 
275.44 18.32 0.99 
274.63 18.41 0.81 
275.42 18.69 1.00 
275.48 18.56 1.00 
274.65 18.87 0.82 
274.67 19.32 0.83 
275.45 19.25 1.01 
275.44 19.62 1.01 
284.39 7.71 0.22 
284.71 7.69 0.21 
285.10 7.67 0.20 
285.55 7.65 0.19 
285.91 7.73 0.19 
286.30 7.73 0.18 
286.63 7.72 0.17 
278.36 7.98 0.42 
278.71 7.97 0.41 
279.13 7.96 0.39 
279.45 7.95 0.38 
279.91 7.93 0.36 
280.34 7.91 0.34 
280.68 7.90 0.33 
281.10 7.89 0.32 
281.51 7.87 0.30 
281.84 7.86 0.29 
282.28 7.85 0.28 
282.70 7.83 0.26 
283.15 7.82 0.25 
283.51 7.80 0.24 
283.89 7.80 0.23 
284.15 7.73 0.22 
275.54 8.20 0.25 
276.81 8.05 0.50 
277.07 8.03 0.48 
277.50 8.02 0.46 
277.94 8.00 0.44 
278.19 7.99 0.43 
278.69 8.00 0.41 
280.00 8.14 0.10 
280.45 8.13 0.09 
280.72 8.12 0.08 
280.98 8.12 0.07 
275.38 8.86 0.28 
275.60 15.06 0.94 
275.55 15.34 0.95 
275.59 15.68 0.95 
275.55 16.02 0.96 
275.46 16.44 0.97 
275.44 16.80 0.97 
275.69 20.09 1.34 
286.81 7.70 0.17 
287.10 7.68 0.17 
287.55 7.69 0.16 
287.86 7.67 0.16 
288.26 7.66 0.15 
288.73 7.65 0.15 
289.18 7.61 0.14 
289.57 7.61 0.14 
289.92 7.61 0.14 
290.32 7.59 0.14 
290.68 7.58 0.13 
291.14 7.57 0.13 
291.45 7.56 0.13 
271.61 8.20 0.79 
272.05 8.21 0.76 
272.35 8.23 0.75 
274.39 8.14 0.76 
274.68 8.13 0.75 
275.05 8.12 0.59 
275.89 8.09 0.54 
276.25 8.08 0.67 
276.63 8.04 0.50 
277.16 8.09 0.79 
279.57 8.06 0.71 
279.74 8.08 0.71 
280.37 8.05 0.69 
280.72 8.06 0.68 
270.86 8.26 0.84 
271.05 8.23 0.83 
271.44 8.32 0.80 
271.85 8.26 0.78 
274.75 8.32 0.61 
283.99 7.66 0.80 
284.35 7.65 0.79 
284.76 7.64 0.78 
285.11 7.62 0.77 
285.56 7.62 0.76 
285.97 7.60 0.76 
286.32 7.59 0.75 
286.66 7.58 0.75 
287.12 7.56 0.74 
287.58 7.56 0.74 
287.93 7.53 0.74 
288.36 7.53 0.73 
288.74 7.51 0.73 
289.21 7.49 0.73 
289.53 7.49 0.73 
289.95 7.46 0.73 
290.35 7.45 0.73 
290.71 7.45 0.73 
291.00 7.44 0.73 
291.37 7.43 0.74 
277.68 7.89 1.03 
277.93 7.88 1.01 
278.31 7.87 1.00 
278.72 7.84 0.98 
279.15 7.84 0.96 
279.40 7.81 0.95 
280.00 7.80 0.92 
280.34 7.78 0.91 
280.67 7.79 0.90 
281.12 7.76 0.88 
281.49 7.75 0.87 
281.95 7.73 0.85 
282.37 7.72 0.84 
282.71 7.71 0.83 
283.09 7.70 0.82 
283.56 7.67 0.81 
283.82 7.66 0.80 
274.91 8.24 1.18 
275.19 8.23 1.16 
275.54 8.21 1.14 
275.87 8.20 1.12 
276.24 8.18 1.10 
276.69 8.17 1.08 
277.43 7.96 1.04 
272.51 8.36 1.34 
272.70 8.37 1.32 
273.30 8.37 1.28 
273.68 8.36 1.26 
273.82 8.31 1.25 
274.75 8.25 1.19 
274.94 8.26 1.18 
271.89 9.08 1.38 
271.90 9.52 1.38 
271.09 9.97 1.44 
271.40 9.96 1.42 
271.82 9.97 1.39 
280.29 7.94 1.29 
280.80 7.94 1.28 
281.08 7.94 1.27 
281.54 7.93 1.26 
282.00 7.92 1.26 
282.36 7.90 1.25 
282.73 7.89 1.24 
283.10 7.82 1.24 
273.92 8.05 1.53 
274.30 8.03 1.51 
274.76 8.02 1.49 
275.18 8.02 1.47 
275.46 8.01 1.46 
275.92 8.01 1.44 
276.27 8.02 1.42 
276.72 8.01 1.40 
277.17 8.00 1.39 
277.55 8.01 1.37 
277.92 8.00 1.36 
278.32 7.99 1.35 
278.77 7.99 1.33 
279.13 7.97 1.32 
279.49 7.97 1.31 
279.93 7.98 1.30 
280.45 7.97 1.29 
280.70 7.96 1.28 
278.33 5.29 1.65 
281.50 8.13 1.86 
287.86 7.92 -1.58 
288.39 7.91 -1.59 
288.62 7.91 -1.60 
289.01 7.89 -1.61 
289.49 7.88 -1.62 
289.92 7.87 -1.64 
290.30 7.87 -1.65 
287.50 7.95 -1.57 
287.86 7.93 -1.58 
288.21 7.95 -1.58 
290.65 9.94 -1.48 
272.46 16.07 -0.40 
288.59 20.14 -0.56 
282.83 8.23 -1.17 
274.53 11.73 -0.33 
276.78 13.86 -0.52 
274.58 14.24 -0.17 
274.55 14.57 -0.14 
279.70 14.67 -0.54 
274.56 15.04 -0.12 
274.59 15.39 -0.09 
274.56 15.78 -0.07 
272.30 16.03 0.06 
272.55 16.03 0.05 
272.74 15.98 0.03 
274.53 16.20 -0.04 
274.67 17.84 0.06 
274.68 18.17 0.09 
274.69 18.54 0.11 
274.67 18.76 0.13 
275.55 19.46 0.34 
274.70 19.66 0.18 
275.53 19.69 0.36 
288.63 20.05 -0.27 
287.70 7.86 -1.01 
288.04 7.87 -1.01 
288.40 7.86 -1.02 
288.63 7.84 -1.03 
289.15 7.82 -1.04 
289.52 7.82 -1.05 
289.93 7.79 -1.06 
290.31 7.79 -1.07 
290.67 7.77 -1.08 
291.12 7.78 -1.08 
291.42 7.75 -1.09 
281.23 8.11 -0.81 
281.49 8.08 -0.82 
281.90 8.09 -0.83 
282.33 8.05 -0.85 
282.67 8.03 -0.86 
283.09 8.03 -0.87 
283.53 8.01 -0.89 
283.83 8.03 -0.89 
284.27 7.96 -0.91 
284.69 7.95 -0.92 
285.15 7.94 -0.94 
285.51 7.92 -0.95 
285.89 7.92 -0.96 
286.35 7.91 -0.97 
286.71 7.91 -0.98 
287.08 7.90 -0.99 
287.46 7.88 -1.00 
287.87 7.88 -1.01 
288.22 7.89 -1.02 
275.10 8.32 -0.57 
275.51 8.30 -0.59 
275.95 8.32 -0.60 
276.31 8.28 -0.62 
276.67 8.27 -0.64 
277.02 8.27 -0.65 
277.49 8.34 -0.66 
277.95 8.20 -0.52 
278.27 8.23 -0.57 
278.71 8.22 -0.59 
279.10 8.20 -0.60 
279.54 8.20 -0.62 
279.89 8.18 -0.63 
280.32 8.17 -0.64 
280.66 8.16 -0.65 
280.98 8.13 -0.80 
281.91 8.14 -0.83 
282.26 8.14 -0.57 
282.75 8.15 -0.58 
283.02 8.14 -0.59 
274.76 8.37 -0.55 
274.80 9.04 -0.51 
274.98 9.02 -0.52 
275.48 9.12 -0.30 
274.39 9.32 -0.48 
274.37 9.71 -0.45 
274.42 10.28 -0.42 
274.39 10.62 -0.39 
275.58 13.54 -0.03 
274.49 13.63 0.28 
275.51 13.77 -0.01 
274.50 13.97 0.29 
276.21 15.33 0.06 
276.40 15.28 0.05 
274.57 15.81 0.37 
274.56 16.07 0.38 
275.50 16.06 0.13 
275.52 16.99 0.19 
274.61 17.36 0.44 
275.52 17.42 0.61 
274.64 17.84 0.46 
275.49 17.67 0.62 
275.50 17.79 0.63 
274.65 18.28 0.48 
275.49 18.06 0.64 
274.65 18.49 0.49 
275.47 18.39 0.65 
275.52 18.64 0.66 
274.74 19.04 0.51 
275.51 18.94 0.67 
274.67 19.11 0.52 
275.52 19.25 0.69 
274.71 19.80 0.55 
275.51 19.58 0.70 
274.72 20.14 0.74 
271.58 20.30 0.95 
272.03 20.30 0.92 
286.85 7.80 -0.42 
287.12 7.79 -0.43 
287.53 7.78 -0.44 
287.98 7.77 -0.44 
288.32 7.77 -0.45 
288.69 7.73 -0.46 
289.17 7.73 -0.47 
289.55 7.72 -0.47 
289.95 7.69 -0.48 
290.27 7.70 -0.49 
290.69 7.67 -0.49 
291.06 7.68 -0.50 
291.44 7.66 -0.50 
280.31 8.03 -0.22 
280.73 8.00 -0.24 
281.14 8.00 -0.25 
281.48 7.99 -0.26 
281.87 7.97 -0.28 
282.34 7.94 -0.29 
282.68 7.94 -0.30 
283.10 7.93 -0.32 
283.50 7.91 -0.33 
283.89 7.88 -0.34 
284.37 7.88 -0.36 
284.70 7.87 -0.37 
285.12 7.85 -0.38 
285.56 7.83 -0.39 
285.90 7.82 -0.40 
286.35 7.82 -0.41 
286.67 7.82 -0.42 
287.33 7.82 -0.43 
274.28 8.26 0.06 
274.66 8.26 0.04 
275.12 8.23 0.01 
275.56 8.20 -0.01 
275.93 8.21 -0.03 
276.26 8.18 -0.04 
276.67 8.17 -0.06 
277.02 8.16 -0.08 
277.40 8.24 -0.09 
277.90 8.13 -0.12 
278.33 8.11 -0.14 
278.77 8.08 -0.16 
279.11 8.07 -0.17 
279.45 8.07 -0.18 
279.88 8.05 -0.20 
273.86 8.30 0.08 
274.47 10.31 0.13 
274.58 11.74 0.19 
274.59 12.13 0.21 
274.51 12.50 0.23 
274.47 13.28 0.26 
275.58 15.26 0.52 
276.13 15.24 0.50 
275.50 15.69 0.54 
275.46 16.22 0.57 
275.49 16.79 0.59 
275.46 17.16 0.60 
275.61 17.25 1.00 
274.77 17.79 0.84 
275.54 17.59 1.01 
274.79 18.13 0.85 
275.44 17.87 1.02 
274.74 18.47 0.87 
275.46 18.45 1.03 
274.65 18.95 0.89 
275.44 18.96 1.04 
275.50 18.86 1.04 
274.70 19.29 0.89 
275.46 19.36 1.05 
274.70 19.70 0.90 
275.47 19.75 1.05 
274.69 20.00 0.91 
275.50 19.88 1.06 
286.34 7.71 0.16 
286.77 7.71 0.15 
287.14 7.69 0.14 
287.51 7.68 0.14 
279.54 7.95 0.38 
279.97 7.94 0.36 
280.33 7.92 0.35 
280.72 7.91 0.33 
281.14 7.89 0.31 
281.46 7.88 0.30 
281.92 7.87 0.29 
282.34 7.84 0.27 
282.68 7.83 0.26 
283.13 7.83 0.25 
283.51 7.80 0.23 
283.95 7.77 0.22 
284.38 7.70 0.21 
284.70 7.73 0.20 
285.09 7.73 0.19 
285.57 7.72 0.18 
285.91 7.75 0.17 
286.14 7.73 0.16 
275.50 8.15 0.25 
277.68 8.13 0.17 
277.99 8.02 0.45 
278.32 8.08 0.32 
278.70 8.04 0.32 
279.06 8.05 0.26 
279.54 8.07 0.20 
279.90 8.14 0.10 
281.87 8.08 0.04 
282.40 8.09 0.03 
282.67 8.09 0.02 
275.40 8.57 0.27 
275.59 16.19 0.99 
275.58 16.62 0.99 
275.57 17.05 1.00 
287.99 7.68 0.13 
288.33 7.67 0.13 
288.71 7.63 0.12 
289.18 7.63 0.11 
289.61 7.60 0.11 
289.99 7.60 0.11 
290.29 7.59 0.10 
290.71 7.56 0.10 
291.04 7.57 0.10 
291.47 7.54 0.09 
273.92 8.16 0.68 
274.27 8.15 0.66 
274.74 8.15 0.63 
275.15 8.09 0.74 
275.59 8.11 0.58 
275.92 8.09 0.56 
276.28 8.07 0.54 
276.77 8.06 0.51 
277.15 8.05 0.49 
277.54 8.03 0.47 
277.92 8.03 0.61 
281.25 8.03 0.66 
281.52 8.03 0.65 
281.97 8.02 0.64 
282.23 8.02 0.63 
270.00 8.29 0.94 
270.24 8.27 0.92 
270.75 8.25 0.88 
272.01 8.22 0.80 
272.30 8.22 0.78 
271.29 8.85 0.86 
271.38 8.70 0.85 
284.78 7.63 0.76 
285.10 7.63 0.76 
285.58 7.60 0.74 
285.95 7.60 0.74 
286.31 7.60 0.73 
286.79 7.58 0.72 
287.12 7.56 0.72 
287.49 7.56 0.71 
287.96 7.54 0.71 
288.33 7.53 0.70 
288.73 7.50 0.70 
289.11 7.50 0.70 
289.54 7.48 0.69 
290.02 7.47 0.69 
290.37 7.45 0.69 
290.74 7.43 0.69 
291.07 7.44 0.69 
278.48 7.86 1.00 
278.72 7.85 0.99 
279.13 7.84 0.97 
279.56 7.82 0.95 
279.95 7.80 0.93 
280.34 7.80 0.91 
280.73 7.78 0.90 
281.16 7.77 0.88 
281.50 7.77 0.87 
281.92 7.73 0.85 
282.35 7.72 0.84 
282.79 7.70 0.82 
283.18 7.69 0.81 
283.53 7.68 0.80 
283.96 7.66 0.78 
284.40 7.65 0.77 
284.69 7.65 0.77 
276.06 8.20 1.14 
276.32 8.19 1.12 
276.72 8.18 1.10 
277.16 8.16 1.07 
277.59 8.12 1.05 
277.94 8.12 1.03 
278.27 7.94 1.01 
273.63 8.36 1.30 
273.94 8.34 1.28 
274.37 8.34 1.25 
274.74 8.32 1.22 
275.09 8.29 1.20 
275.53 8.24 1.17 
275.90 8.22 1.15 
281.59 7.92 1.25 
281.88 7.91 1.24 
282.34 7.91 1.23 
282.70 7.91 1.22 
283.15 7.88 1.21 
283.87 7.85 1.20 
284.25 7.79 1.20 
273.65 8.01 1.56 
273.94 8.02 1.54 
274.31 8.01 1.52 
274.68 8.00 1.51 
275.19 8.00 1.48 
275.56 8.03 1.46 
275.96 7.99 1.44 
276.34 7.99 1.43 
276.70 7.99 1.41 
277.15 7.98 1.39 
277.60 7.97 1.37 
277.96 7.97 1.36 
278.33 7.96 1.34 
278.79 7.96 1.33 
279.21 7.96 1.31 
279.56 7.96 1.30 
279.92 7.93 1.29 
280.37 7.95 1.28 
280.70 7.93 1.27 
281.19 7.95 1.26 
281.49 7.93 1.25 
281.77 7.93 1.24 
272.80 8.34 1.61 
273.51 8.19 1.57 
271.94 9.81 1.65 
272.22 9.82 1.64 
278.34 5.29 1.66 
283.49 8.07 1.81 
288.63 7.91 -1.59 
289.05 7.91 -1.60 
289.42 7.87 -1.61 
289.90 7.88 -1.62 
290.30 7.86 -1.64 
287.50 7.95 -1.55 
287.87 7.94 -1.56 
288.15 7.94 -1.57 
277.85 8.32 -1.23 
290.63 9.39 -1.51 
272.19 16.07 -0.36 
275.60 20.20 0.09 
276.46 8.78 -0.92 
275.50 13.59 -0.48 
276.72 13.82 -0.50 
276.62 14.20 -0.46 
274.52 14.39 -0.11 
274.52 14.81 -0.09 
274.54 15.23 -0.06 
274.53 15.66 -0.03 
271.84 16.03 0.13 
272.12 16.02 0.12 
272.35 16.00 0.10 
274.51 16.07 0.00 
274.52 16.44 0.03 
274.59 16.89 0.05 
274.61 17.37 0.08 
274.62 17.71 0.11 
275.49 17.75 0.28 
274.63 17.92 0.12 
274.64 18.14 0.14 
274.65 18.45 0.16 
274.66 18.76 0.18 
288.58 19.82 -0.27 
274.70 19.56 0.23 
288.63 19.92 -0.26 
275.50 19.90 0.42 
270.86 20.29 0.66 
272.12 20.30 0.60 
288.71 7.84 -1.02 
289.04 7.83 -1.03 
289.43 7.81 -1.04 
289.90 7.81 -1.05 
290.32 7.79 -1.06 
290.70 7.79 -1.07 
291.03 7.78 -1.08 
291.49 7.77 -1.09 
281.84 8.08 -0.81 
282.26 8.06 -0.83 
282.68 8.03 -0.84 
283.11 8.02 -0.86 
283.52 8.01 -0.87 
283.86 8.01 -0.88 
284.28 8.01 -0.80 
284.63 7.96 -0.91 
285.08 7.94 -0.92 
285.46 7.93 -0.93 
285.89 7.92 -0.94 
286.32 7.93 -0.96 
286.68 7.91 -0.97 
287.04 7.90 -0.98 
287.51 7.88 -0.99 
287.88 7.87 -1.00 
288.29 7.86 -1.01 
288.81 7.86 -1.02 
275.52 8.25 -0.44 
275.95 8.28 -0.58 
276.30 8.27 -0.59 
276.68 8.27 -0.61 
277.05 8.25 -0.62 
277.42 8.27 -0.64 
277.86 8.23 -0.66 
278.30 8.20 -0.68 
278.72 8.22 -0.57 
279.10 8.19 -0.58 
279.54 8.15 -0.60 
279.89 8.15 -0.61 
280.27 8.15 -0.62 
280.60 8.15 -0.63 
281.06 8.13 -0.65 
281.41 8.12 -0.79 
281.85 8.11 -0.81 
284.10 8.13 -0.60 
274.75 8.43 -0.52 
275.00 8.33 -0.53 
275.48 8.31 -0.55 
275.86 8.32 -0.57 
274.84 9.07 -0.48 
274.97 9.00 -0.49 
276.00 8.90 -0.30 
274.36 9.29 -0.44 
274.35 9.68 -0.42 
274.39 10.16 -0.39 
274.40 10.56 -0.36 
274.38 10.90 -0.34 
275.62 11.75 -0.11 
274.47 13.97 0.35 
274.53 15.41 0.41 
275.49 15.42 0.13 
276.20 15.28 0.09 
274.44 15.76 0.31 
274.56 16.21 0.45 
275.48 16.47 0.20 
274.57 16.92 0.48 
274.60 17.30 0.50 
275.51 17.09 0.23 
274.58 17.60 0.51 
275.47 17.71 0.67 
275.46 17.95 0.68 
274.62 18.26 0.55 
275.46 18.45 0.70 
274.63 18.86 0.58 
275.47 18.95 0.73 
275.47 19.22 0.74 
275.48 19.52 0.75 
274.70 20.04 0.63 
269.63 20.31 0.73 
270.03 20.30 0.70 
271.59 20.31 1.01 
287.84 7.77 -0.44 
288.31 7.76 -0.45 
288.76 7.75 -0.46 
289.06 7.73 -0.46 
289.53 7.71 -0.47 
289.89 7.71 -0.48 
290.35 7.68 -0.49 
290.69 7.68 -0.49 
291.06 7.66 -0.50 
281.08 7.99 -0.22 
281.51 7.99 -0.24 
281.93 7.98 -0.26 
282.27 7.95 -0.27 
282.69 7.93 -0.28 
283.10 7.92 -0.30 
283.49 7.91 -0.31 
283.88 7.90 -0.33 
284.30 7.87 -0.34 
284.72 7.86 -0.35 
285.13 7.85 -0.36 
285.45 7.85 -0.37 
285.91 7.83 -0.39 
286.33 7.81 -0.40 
286.66 7.81 -0.41 
287.10 7.80 -0.42 
287.55 7.78 -0.43 
287.93 7.80 -0.44 
275.18 8.21 0.05 
275.56 8.19 0.03 
275.94 8.21 0.01 
276.29 8.17 -0.01 
276.66 8.16 -0.03 
277.05 8.16 -0.04 
277.42 8.16 -0.06 
277.86 8.13 -0.08 
278.29 8.09 -0.10 
278.65 8.08 -0.12 
279.09 8.07 -0.14 
279.53 8.05 -0.16 
279.88 8.04 -0.17 
280.31 8.03 -0.19 
280.74 8.01 -0.21 
273.82 8.25 0.12 
274.29 8.23 0.10 
274.62 8.27 0.08 
274.91 8.25 0.07 
275.44 10.96 0.39 
274.50 11.30 0.22 
274.59 12.96 0.29 
274.54 13.30 0.31 
275.88 15.23 0.55 
276.06 15.17 0.54 
275.47 16.01 0.60 
275.43 16.80 0.64 
275.42 17.16 0.65 
275.44 17.55 0.67 
275.57 17.70 1.07 
274.70 17.92 0.93 
275.56 18.05 1.07 
274.79 18.39 0.94 
275.55 18.47 1.08 
274.77 18.72 0.95 
275.43 18.79 1.10 
275.49 18.77 1.09 
274.80 19.23 0.97 
275.40 19.15 1.11 
275.44 19.15 1.10 
274.74 19.51 0.98 
275.41 19.60 1.12 
275.47 19.78 1.12 
274.66 20.10 1.01 
275.41 19.86 1.12 
285.50 7.63 0.19 
286.69 7.70 0.16 
287.20 7.69 0.15 
287.56 7.68 0.14 
287.85 7.67 0.13 
288.32 7.66 0.13 
288.75 7.65 0.12 
280.31 7.91 0.38 
280.73 7.89 0.36 
281.08 7.88 0.34 
281.51 7.88 0.33 
281.93 7.87 0.31 
282.35 7.84 0.29 
282.72 7.83 0.28 
283.11 7.82 0.27 
283.46 7.82 0.25 
283.88 7.80 0.24 
284.30 7.92 0.08 
284.75 7.71 0.21 
285.15 7.66 0.20 
285.92 7.71 0.18 
286.33 7.71 0.17 
286.57 7.72 0.16 
286.94 7.71 0.15 
275.95 8.12 0.26 
276.23 8.13 0.25 
279.13 8.08 0.14 
279.46 8.01 0.27 
279.85 7.97 0.30 
280.31 7.94 0.38 
280.56 8.08 0.09 
280.91 8.08 0.08 
283.59 8.05 0.01 
283.77 8.05 0.00 
275.53 16.73 1.05 
275.60 17.29 1.06 
275.55 17.47 1.06 
289.12 7.62 0.11 
289.55 7.61 0.10 
289.92 7.61 0.10 
290.37 7.58 0.09 
290.68 7.58 0.09 
291.18 7.55 0.09 
291.48 7.55 0.08 
283.98 7.95 0.60 
284.15 7.92 0.59 
273.08 8.05 1.01 
273.46 8.04 0.99 
273.89 8.10 0.85 
274.34 8.09 0.83 
274.71 8.07 0.80 
275.15 8.10 0.65 
275.55 8.09 0.63 
275.93 8.09 0.61 
276.32 8.05 0.58 
276.70 8.05 0.56 
277.00 8.05 0.68 
277.49 8.02 0.52 
277.94 8.00 0.49 
278.29 8.00 0.48 
278.65 7.97 0.46 
279.07 7.98 0.59 
279.58 8.02 0.72 
280.04 7.99 0.71 
280.18 8.00 0.70 
280.75 7.98 0.68 
280.92 8.00 0.68 
282.89 7.98 0.62 
283.16 7.99 0.62 
283.39 8.02 0.61 
268.74 8.34 1.10 
269.11 8.32 1.07 
269.57 8.27 1.03 
269.88 8.27 1.01 
270.23 8.25 0.98 
270.56 8.25 0.96 
271.11 8.24 0.92 
271.55 8.24 0.89 
271.95 8.22 0.86 
272.37 8.19 0.83 
272.80 8.15 0.92 
273.91 8.15 0.73 
274.73 8.20 0.68 
268.10 8.49 1.15 
271.36 9.05 0.92 
285.59 7.61 0.75 
285.97 7.60 0.74 
286.32 7.59 0.73 
286.70 7.58 0.73 
287.13 7.58 0.72 
287.52 7.55 0.71 
287.91 7.54 0.70 
288.38 7.54 0.70 
288.78 7.50 0.69 
289.14 7.48 0.69 
289.51 7.48 0.68 
289.94 7.47 0.68 
290.41 7.46 0.68 
290.75 7.44 0.67 
291.21 7.42 0.67 
291.45 7.42 0.67 
279.96 7.81 0.97 
280.30 7.79 0.95 
280.73 7.77 0.93 
281.07 7.76 0.91 
281.51 7.75 0.89 
281.95 7.73 0.88 
282.31 7.72 0.86 
282.69 7.70 0.85 
283.12 7.69 0.83 
283.55 7.68 0.81 
283.97 7.65 0.80 
284.33 7.64 0.79 
284.69 7.64 0.78 
285.16 7.63 0.76 
285.42 7.64 0.76 
272.69 8.07 1.04 
277.11 8.17 1.13 
277.46 8.14 1.10 
277.91 8.12 1.08 
278.34 8.10 1.05 
278.70 8.09 1.03 
279.14 8.07 1.01 
279.56 8.00 0.99 
275.07 8.27 1.26 
275.46 8.27 1.23 
275.95 8.26 1.20 
276.37 8.23 1.17 
276.76 8.20 1.15 
282.71 7.88 1.23 
283.17 7.87 1.22 
285.26 7.75 1.18 
274.65 7.98 1.55 
275.12 7.96 1.52 
275.49 7.95 1.50 
275.98 7.94 1.48 
276.34 7.94 1.46 
276.68 7.94 1.44 
277.01 7.93 1.43 
277.52 7.93 1.41 
277.97 7.94 1.39 
278.33 7.92 1.37 
279.31 7.90 1.33 
279.49 7.91 1.32 
280.31 7.93 1.30 
280.83 7.91 1.28 
282.26 7.90 1.24 
272.89 8.28 1.65 
273.17 8.23 1.64 
273.55 8.22 1.61 
273.91 8.21 1.59 
274.22 8.21 1.57 
272.82 8.61 1.66 
271.91 9.82 1.71 
272.20 9.83 1.69 
278.37 5.24 1.70 
283.43 8.08 1.81 
283.86 8.09 1.80 
284.32 8.07 1.79 
289.44 7.87 -1.57 
289.84 7.87 -1.58 
290.11 7.83 -1.59 
287.39 7.95 -1.50 
287.86 7.94 -1.52 
288.30 7.93 -1.53 
288.59 7.90 -1.54 
288.98 7.89 -1.55 
289.41 7.90 -1.56 
277.78 8.32 -1.17 
278.26 8.28 -1.19 
278.67 8.27 -1.21 
279.03 8.26 -1.22 
290.52 8.66 -1.53 
290.52 9.34 -1.47 
288.55 19.82 -0.53 
284.31 8.12 -1.16 
284.58 8.11 -1.17 
275.51 8.21 -0.89 
275.66 8.21 -0.89 
279.93 8.18 -1.03 
280.20 8.17 -1.04 
280.55 8.15 -1.05 
284.03 8.14 -1.15 
276.01 8.71 -0.86 
276.29 8.78 -0.86 
275.57 9.13 -0.81 
274.52 13.55 -0.10 
276.24 14.12 -0.41 
276.62 14.17 -0.42 
274.56 14.59 -0.04 
275.48 14.55 -0.35 
274.53 14.85 -0.02 
274.54 15.29 0.01 
275.50 15.27 -0.04 
274.52 15.64 0.04 
275.23 15.46 -0.01 
271.75 16.06 0.21 
272.00 16.03 0.19 
274.50 16.09 0.07 
274.56 16.42 0.09 
274.60 16.89 0.12 
274.60 17.21 0.14 
274.60 17.43 0.16 
274.64 17.70 0.17 
274.64 17.98 0.19 
274.65 18.39 0.22 
274.67 18.77 0.25 
274.68 19.67 0.31 
274.69 20.05 0.33 
271.87 20.30 0.68 
275.58 20.25 0.49 
289.52 7.82 -1.00 
289.85 7.79 -1.01 
290.28 7.79 -1.02 
290.64 7.78 -1.03 
290.97 7.77 -1.04 
282.71 8.03 -0.79 
283.03 8.03 -0.80 
283.42 8.03 -0.81 
283.89 8.00 -0.83 
284.29 8.01 -0.75 
284.68 7.98 -0.79 
285.02 7.99 -0.78 
285.44 7.94 -0.88 
285.82 7.94 -0.90 
286.21 7.98 -0.91 
286.67 7.90 -0.92 
287.09 7.91 -0.93 
287.44 7.88 -0.95 
287.86 7.88 -0.96 
288.31 7.88 -0.97 
288.64 7.83 -0.98 
289.07 7.83 -0.99 
289.42 7.85 -1.00 
275.51 8.16 -0.27 
275.89 8.17 -0.29 
276.16 8.15 -0.30 
276.63 8.27 -0.54 
276.93 8.25 -0.56 
277.36 8.22 -0.46 
277.77 8.22 -0.51 
278.24 8.22 -0.61 
278.68 8.20 -0.63 
279.05 8.21 -0.64 
279.41 8.22 -0.66 
279.82 8.17 -0.59 
280.25 8.15 -0.57 
280.65 8.12 -0.56 
280.99 8.14 -0.72 
281.42 8.11 -0.74 
281.84 8.09 -0.76 
282.26 8.07 -0.77 
282.53 8.06 -0.78 
283.42 8.09 -0.54 
283.95 8.08 -0.56 
284.21 8.09 -0.56 
284.59 8.09 -0.57 
274.82 8.35 -0.46 
275.11 8.33 -0.47 
275.47 8.31 -0.49 
275.91 8.33 -0.51 
276.29 8.30 -0.53 
276.67 8.30 -0.54 
277.11 8.34 -0.44 
277.54 8.35 -0.58 
274.33 8.97 -0.40 
274.88 8.88 -0.43 
275.90 8.89 -0.24 
274.34 9.40 -0.37 
274.78 9.09 -0.41 
274.35 9.78 -0.34 
274.42 9.60 -0.36 
274.38 10.22 -0.32 
274.39 10.60 -0.29 
274.37 10.92 -0.27 
275.44 11.00 -0.09 
275.51 11.77 -0.05 
275.43 12.04 -0.03 
275.50 13.74 0.08 
274.50 14.92 0.47 
274.05 15.76 0.27 
274.53 15.72 0.51 
275.39 15.81 0.22 
275.41 16.21 0.24 
274.54 16.32 0.54 
274.55 16.67 0.55 
275.46 16.82 0.28 
274.58 17.34 0.59 
275.48 17.36 0.31 
274.59 17.57 0.60 
275.45 18.18 0.76 
274.65 18.28 0.63 
275.41 18.33 0.77 
275.46 18.47 0.77 
274.64 18.81 0.66 
275.43 18.78 0.79 
274.64 18.98 0.67 
275.44 19.22 0.81 
274.68 19.73 0.70 
275.44 19.60 0.82 
274.67 19.89 0.71 
288.40 7.74 -0.41 
288.65 7.75 -0.42 
289.09 7.74 -0.43 
289.48 7.73 -0.44 
289.87 7.70 -0.45 
290.29 7.70 -0.45 
290.67 7.69 -0.46 
291.21 7.65 -0.47 
291.45 7.67 -0.48 
281.90 7.98 -0.20 
282.26 7.96 -0.21 
282.69 7.94 -0.23 
283.01 7.93 -0.24 
283.47 7.92 -0.26 
283.90 7.91 -0.27 
284.24 7.89 -0.29 
284.66 7.87 -0.30 
285.06 7.86 -0.31 
285.44 7.85 -0.33 
285.84 7.85 -0.34 
286.26 7.83 -0.35 
286.72 7.81 -0.37 
287.07 7.81 -0.38 
287.45 7.79 -0.39 
287.92 7.78 -0.40 
288.26 7.78 -0.41 
276.28 8.19 0.07 
276.68 8.18 0.05 
277.03 8.18 0.03 
277.32 8.16 0.01 
277.87 8.14 -0.01 
278.33 8.12 -0.04 
278.70 8.11 -0.05 
279.05 8.08 -0.07 
279.44 8.07 -0.09 
279.87 8.05 -0.11 
280.28 8.04 -0.13 
280.63 8.04 -0.14 
281.06 8.01 -0.16 
281.49 7.99 -0.18 
281.81 7.99 -0.19 
282.29 8.00 -0.21 
273.52 8.29 0.22 
273.89 8.27 0.20 
274.31 8.27 0.18 
274.70 8.31 0.16 
275.10 8.23 0.13 
275.46 8.22 0.11 
275.91 8.23 0.09 
275.48 10.83 0.45 
274.47 11.36 0.31 
274.57 12.19 0.34 
274.58 12.84 0.37 
274.59 13.15 0.38 
274.54 13.50 0.40 
275.40 13.57 0.57 
274.49 14.12 0.43 
274.50 14.40 0.45 
275.45 15.20 0.63 
275.42 15.66 0.66 
275.45 17.28 0.72 
275.40 18.02 0.76 
274.73 18.49 1.05 
275.48 18.43 1.17 
274.77 18.82 1.06 
275.55 18.85 1.17 
274.79 19.21 1.07 
275.55 19.15 1.18 
274.82 19.68 1.08 
275.55 19.53 1.19 
274.81 20.00 1.10 
275.54 19.97 1.20 
275.53 20.31 1.21 
287.99 7.67 0.17 
288.28 7.67 0.16 
288.67 7.64 0.15 
289.12 7.63 0.14 
289.50 7.62 0.14 
289.80 7.60 0.13 
281.16 7.89 0.40 
281.50 7.88 0.39 
281.92 7.88 0.37 
282.28 7.87 0.36 
282.71 7.84 0.34 
283.05 7.82 0.32 
283.47 7.81 0.31 
283.82 7.84 0.29 
284.24 7.81 0.28 
284.70 7.81 0.26 
285.07 7.81 0.25 
285.45 7.85 0.16 
285.86 7.86 0.11 
286.27 7.73 0.21 
286.68 7.71 0.20 
287.12 7.69 0.19 
287.46 7.69 0.18 
287.80 7.69 0.17 
275.92 8.14 0.32 
276.29 8.10 0.31 
278.86 8.08 0.20 
279.12 8.07 0.19 
279.50 8.08 0.18 
280.28 8.07 0.15 
280.80 7.92 0.42 
280.99 7.91 0.41 
281.39 7.92 0.40 
282.81 8.04 0.07 
282.98 8.06 0.06 
283.52 8.02 0.05 
283.88 8.02 0.04 
284.33 8.03 0.03 
289.98 7.59 0.13 
290.22 7.60 0.12 
290.68 7.58 0.12 
291.21 7.57 0.11 
291.49 7.55 0.10 
283.53 7.93 0.65 
285.51 7.91 0.60 
285.79 7.87 0.60 
274.23 8.04 1.03 
274.67 8.04 1.01 
275.06 8.05 0.98 
275.51 8.09 0.84 
275.85 8.12 0.70 
276.27 8.09 0.67 
276.66 8.10 0.65 
277.10 8.05 0.62 
277.47 8.03 0.60 
277.86 8.04 0.58 
278.32 8.00 0.55 
278.69 8.00 0.67 
279.04 7.98 0.51 
279.53 7.97 0.63 
279.89 7.97 0.62 
280.19 7.95 0.60 
280.58 7.91 0.43 
283.18 7.94 0.66 
283.35 7.95 0.65 
283.71 7.94 0.64 
269.46 8.33 1.14 
269.96 8.31 1.11 
270.37 8.25 1.07 
271.11 8.27 1.02 
271.52 8.24 0.99 
271.79 8.28 0.97 
272.22 8.25 0.94 
272.66 8.22 0.91 
273.04 8.20 0.88 
273.49 8.20 0.85 
273.91 8.17 0.82 
274.28 8.16 0.80 
274.75 8.24 0.77 
275.11 8.14 0.74 
268.41 8.53 1.23 
268.62 8.40 1.21 
269.02 8.37 1.18 
271.30 9.12 1.03 
271.29 9.44 1.04 
268.29 9.90 1.29 
267.87 9.99 1.32 
268.16 9.95 1.30 
286.71 7.58 0.77 
287.13 7.58 0.75 
287.48 7.58 0.75 
287.86 7.55 0.74 
288.34 7.53 0.73 
288.68 7.52 0.72 
289.07 7.51 0.72 
289.56 7.49 0.71 
289.93 7.47 0.70 
290.22 7.48 0.70 
290.71 7.45 0.69 
291.23 7.43 0.69 
280.01 7.80 1.04 
280.27 7.80 1.02 
280.72 7.80 1.00 
281.15 7.78 0.98 
281.50 7.76 0.96 
281.84 7.76 0.94 
282.28 7.74 0.92 
282.70 7.72 0.91 
283.05 7.69 0.89 
283.47 7.69 0.87 
283.90 7.68 0.86 
284.32 7.66 0.84 
284.71 7.65 0.83 
285.09 7.63 0.81 
285.52 7.64 0.80 
285.94 7.62 0.79 
286.27 7.60 0.78 
286.51 7.59 0.77 
272.95 8.04 1.10 
273.49 8.04 1.07 
273.87 8.04 1.05 
277.93 8.15 1.16 
278.29 8.13 1.14 
278.75 8.10 1.11 
279.10 8.09 1.09 
279.40 8.03 1.07 
279.84 7.83 1.05 
271.02 8.08 1.22 
271.44 8.05 1.19 
271.86 8.06 1.17 
272.38 8.08 1.14 
272.69 8.08 1.12 
273.11 8.06 1.09 
273.40 8.07 1.08 
275.49 8.28 1.33 
275.80 8.29 1.30 
276.28 8.28 1.27 
276.73 8.24 1.24 
277.10 8.20 1.21 
277.43 8.17 1.19 
277.75 8.16 1.17 
282.46 7.84 1.28 
283.09 7.85 1.26 
283.40 7.84 1.25 
283.90 7.84 1.24 
284.35 7.82 1.23 
284.71 7.84 1.22 
285.07 7.86 1.21 
285.51 7.85 1.21 
285.92 7.81 1.20 
286.35 7.73 1.19 
286.70 7.76 1.19 
276.11 7.95 1.55 
276.26 7.92 1.54 
276.64 7.92 1.52 
277.59 7.91 1.47 
278.69 7.90 1.42 
279.13 7.91 1.40 
279.51 7.90 1.38 
279.87 7.88 1.37 
280.30 7.88 1.35 
281.02 7.87 1.32 
281.57 7.86 1.31 
281.84 7.87 1.30 
282.20 7.86 1.29 
282.72 7.86 1.27 
283.15 7.87 1.26 
283.54 7.88 1.25 
273.30 8.28 1.72 
273.51 8.29 1.70 
273.86 8.26 1.68 
274.38 8.23 1.65 
274.73 8.20 1.63 
275.04 8.20 1.61 
278.30 5.28 1.80 
283.69 8.06 1.84 
284.04 8.07 1.83 
287.79 7.95 -1.52 
288.25 7.93 -1.53 
288.60 7.92 -1.54 
288.98 7.89 -1.56 
289.41 7.89 -1.57 
277.84 8.30 -1.18 
278.23 8.30 -1.20 
278.61 8.29 -1.21 
278.98 8.29 -1.22 
277.85 8.34 -1.18 
275.44 18.80 0.03 
285.50 8.08 -1.21 
285.86 8.06 -1.22 
281.46 8.12 -1.09 
281.83 8.12 -1.10 
282.28 8.12 -1.11 
275.53 9.17 -0.81 
275.50 14.39 -0.36 
279.70 14.61 -0.48 
274.52 14.72 -0.01 
274.52 15.19 0.03 
274.51 15.65 0.06 
275.33 15.50 -0.12 
271.33 16.06 0.25 
274.49 15.98 0.08 
271.41 16.10 0.25 
271.73 16.09 0.23 
274.49 16.32 0.11 
274.51 16.67 0.13 
274.59 17.09 0.16 
274.58 17.39 0.18 
274.63 17.66 0.20 
274.61 17.92 0.22 
275.48 17.97 -0.05 
274.65 18.33 0.24 
274.63 18.71 0.27 
274.68 19.63 0.34 
275.46 19.51 0.47 
274.69 20.00 0.36 
283.46 8.03 -0.82 
283.88 8.01 -0.83 
284.22 7.98 -0.85 
284.62 7.97 -0.86 
285.11 8.00 -0.74 
285.47 7.99 -0.75 
285.86 7.98 -0.79 
286.23 7.96 -0.82 
286.68 7.92 -0.93 
287.06 7.91 -0.94 
287.46 7.90 -0.95 
287.80 7.88 -0.96 
288.26 7.87 -0.97 
288.61 7.86 -0.98 
288.99 7.85 -1.00 
289.42 7.82 -1.01 
277.11 8.22 -0.33 
277.92 8.22 -0.54 
278.30 8.22 -0.53 
278.65 8.21 -0.51 
279.03 8.19 -0.56 
279.45 8.17 -0.58 
279.89 8.18 -0.68 
280.25 8.18 -0.69 
280.58 8.17 -0.71 
281.05 8.13 -0.63 
281.44 8.11 -0.62 
281.84 8.09 -0.61 
282.19 8.10 -0.77 
282.62 8.05 -0.79 
283.04 8.04 -0.80 
283.47 8.04 -0.82 
283.65 8.10 -0.82 
284.61 8.05 -0.59 
285.02 8.06 -0.60 
274.76 8.43 -0.45 
275.07 8.35 -0.47 
275.53 8.34 -0.49 
275.95 8.33 -0.51 
276.27 8.30 -0.52 
276.64 8.33 -0.45 
277.05 8.31 -0.48 
277.45 8.35 -0.57 
277.75 8.27 -0.59 
274.31 9.01 -0.39 
274.79 9.11 -0.40 
274.32 9.57 -0.35 
274.34 10.13 -0.31 
274.36 10.51 -0.29 
274.37 10.87 -0.27 
274.38 11.53 -0.22 
274.52 11.93 -0.20 
276.14 15.28 0.16 
276.32 15.20 0.15 
275.35 15.70 0.22 
274.54 15.99 0.56 
275.41 16.13 0.25 
274.55 16.35 0.58 
275.40 16.31 0.26 
275.45 16.71 0.28 
274.55 17.31 0.63 
275.44 17.11 0.31 
275.45 17.58 0.34 
275.44 17.95 0.37 
274.62 18.64 0.70 
275.37 18.69 0.62 
275.42 18.78 0.82 
274.66 19.00 0.71 
275.38 19.16 0.84 
274.63 19.47 0.74 
275.40 19.54 0.86 
274.68 19.72 0.75 
275.41 19.91 0.88 
289.47 7.72 -0.45 
289.85 7.71 -0.46 
290.28 7.69 -0.47 
290.67 7.69 -0.48 
291.06 7.68 -0.48 
291.43 7.65 -0.49 
282.77 7.92 -0.23 
283.03 7.94 -0.24 
283.46 7.92 -0.26 
283.89 7.91 -0.27 
284.23 7.89 -0.29 
284.67 7.87 -0.30 
285.10 7.87 -0.32 
285.44 7.88 -0.33 
285.86 7.85 -0.34 
286.29 7.82 -0.36 
286.65 7.82 -0.37 
287.05 7.81 -0.38 
287.47 7.79 -0.39 
287.89 7.78 -0.41 
288.26 7.78 -0.42 
288.66 7.75 -0.43 
289.00 7.75 -0.44 
276.56 8.17 0.06 
277.84 8.15 0.00 
278.21 8.12 -0.02 
278.56 8.12 -0.04 
279.07 8.10 -0.06 
279.53 8.08 -0.09 
279.91 8.07 -0.10 
280.23 8.04 -0.12 
280.64 8.03 -0.14 
281.07 8.01 -0.16 
281.47 8.00 -0.18 
281.83 8.00 -0.19 
282.26 7.97 -0.21 
282.60 7.96 -0.22 
273.83 8.29 0.22 
274.28 8.28 0.19 
274.70 8.25 0.17 
275.09 8.24 0.15 
275.52 8.23 0.12 
275.92 8.23 0.10 
276.30 8.21 0.08 
276.71 8.19 0.06 
277.01 8.19 0.04 
277.54 8.25 0.02 
274.59 13.28 0.42 
274.59 13.55 0.43 
274.60 13.85 0.44 
274.54 14.41 0.48 
274.49 15.21 0.52 
275.42 17.63 0.77 
275.44 18.71 1.02 
274.78 19.60 1.15 
275.53 19.58 1.24 
274.82 19.90 1.16 
275.52 19.83 1.24 
275.52 20.24 1.25 
288.58 7.65 0.14 
289.09 7.64 0.13 
289.47 7.62 0.12 
289.88 7.59 0.11 
290.30 7.59 0.10 
290.64 7.59 0.10 
282.07 7.87 0.37 
282.30 7.86 0.36 
282.69 7.84 0.34 
283.03 7.83 0.33 
283.43 7.83 0.31 
283.87 7.81 0.30 
284.24 7.73 0.28 
284.67 7.71 0.26 
285.05 7.93 0.06 
285.48 7.88 0.11 
285.90 7.75 0.22 
286.28 7.73 0.21 
286.59 7.71 0.20 
287.06 7.82 0.07 
287.48 7.70 0.17 
287.93 7.68 0.16 
288.29 7.68 0.15 
288.75 7.67 0.14 
277.11 8.13 0.27 
277.39 8.10 0.26 
277.75 8.09 0.25 
278.77 8.08 0.20 
279.05 8.08 0.19 
279.41 8.07 0.18 
280.41 8.05 0.14 
281.91 7.89 0.38 
282.28 7.89 0.36 
284.00 8.00 0.02 
284.26 8.01 0.02 
284.62 8.01 0.01 
291.19 7.54 0.09 
291.47 7.56 0.09 
284.36 7.91 0.61 
284.72 7.92 0.61 
285.07 7.92 0.60 
285.43 7.94 0.59 
287.07 7.85 0.55 
276.22 8.07 0.82 
276.60 8.05 0.79 
277.05 8.05 0.77 
277.47 8.05 0.62 
277.87 8.04 0.59 
278.33 8.00 0.70 
278.61 8.01 0.69 
279.06 7.99 0.66 
279.47 7.97 0.64 
279.84 7.97 0.63 
280.24 7.94 0.46 
280.71 7.95 0.59 
281.08 7.93 0.57 
281.47 7.92 0.55 
281.82 7.91 0.54 
282.18 7.93 0.68 
284.00 7.92 0.62 
284.53 7.93 0.61 
270.70 8.29 1.08 
271.16 8.29 1.05 
271.50 8.26 1.02 
271.83 8.27 1.00 
272.31 8.26 0.96 
272.68 8.22 0.94 
272.98 8.23 0.92 
273.42 8.23 0.88 
273.86 8.19 0.85 
274.21 8.17 0.83 
274.79 8.16 0.79 
275.07 8.14 0.77 
275.45 8.12 0.75 
275.92 8.14 0.72 
276.42 8.14 0.68 
269.58 8.47 1.18 
269.86 8.37 1.15 
270.10 8.35 1.13 
269.36 8.84 1.21 
269.27 9.26 1.23 
269.38 9.73 1.23 
271.33 9.78 1.08 
267.44 10.22 1.41 
267.83 10.20 1.38 
268.25 10.04 1.34 
268.64 9.98 1.30 
269.07 9.96 1.27 
269.28 9.93 1.25 
267.16 10.23 1.43 
287.50 7.56 0.74 
287.87 7.56 0.73 
288.34 7.53 0.72 
288.68 7.53 0.71 
289.10 7.51 0.70 
289.55 7.48 0.69 
289.89 7.47 0.68 
290.26 7.47 0.68 
290.68 7.45 0.67 
291.20 7.43 0.66 
291.45 7.44 0.66 
281.12 7.78 1.00 
281.48 7.76 0.98 
281.92 7.76 0.95 
282.35 7.74 0.93 
282.70 7.72 0.92 
283.04 7.71 0.90 
283.47 7.71 0.88 
283.90 7.68 0.86 
284.25 7.66 0.85 
284.67 7.65 0.83 
285.10 7.64 0.81 
285.52 7.63 0.80 
285.89 7.61 0.79 
286.26 7.60 0.77 
286.72 7.59 0.76 
287.15 7.58 0.75 
279.03 8.11 1.12 
279.49 8.09 1.09 
279.96 8.06 1.06 
280.29 8.04 1.04 
280.70 7.85 1.02 
271.03 8.08 1.24 
272.34 8.11 1.16 
272.77 8.13 1.13 
272.92 8.06 1.12 
276.48 8.25 1.29 
276.61 8.26 1.28 
277.00 8.26 1.25 
277.51 8.23 1.22 
277.92 8.19 1.19 
278.26 8.15 1.17 
278.67 8.13 1.14 
266.61 10.26 1.48 
266.92 10.27 1.46 
283.65 7.82 1.23 
284.01 7.82 1.22 
284.28 7.83 1.22 
284.66 7.82 1.21 
285.08 7.81 1.20 
285.54 7.79 1.19 
285.90 7.79 1.18 
286.26 7.78 1.17 
286.63 7.79 1.17 
287.12 7.77 1.16 
287.52 7.75 1.15 
287.80 7.74 1.15 
275.88 7.94 1.58 
276.23 7.94 1.56 
276.54 7.95 1.54 
277.01 7.93 1.51 
277.48 7.93 1.49 
278.05 7.93 1.46 
278.40 7.90 1.44 
278.59 7.90 1.43 
279.13 7.89 1.40 
279.42 7.90 1.39 
279.97 7.88 1.37 
280.33 7.90 1.35 
280.70 7.88 1.34 
281.05 7.86 1.32 
281.54 7.87 1.30 
281.94 7.85 1.29 
282.30 7.85 1.28 
282.67 7.87 1.26 
283.12 7.85 1.25 
283.47 7.85 1.24 
283.83 7.86 1.23 
284.88 7.87 1.20 
273.39 8.30 1.73 
274.05 8.25 1.69 
274.47 8.22 1.66 
278.29 5.28 1.82 
282.75 8.03 1.86 
284.55 8.04 1.80 
285.23 7.98 1.79 
279.27 8.26 -1.21 
277.75 8.38 -1.15 
278.12 8.31 -1.17 
278.49 8.29 -1.18 
278.85 8.27 -1.20 
274.52 14.77 -0.47 
275.63 19.68 0.14 
275.48 19.88 0.16 
275.60 19.84 0.15 
287.76 8.04 -1.26 
288.12 8.04 -1.27 
288.48 8.04 -1.28 
278.01 8.12 -0.96 
280.97 8.09 -1.06 
281.15 8.07 -1.07 
284.08 8.10 -1.15 
284.44 8.06 -1.16 
288.68 8.55 -1.24 
275.53 9.02 -0.81 
275.46 9.34 -0.77 
275.47 10.66 -0.66 
275.52 11.82 -0.56 
275.48 12.39 -0.51 
274.52 13.97 0.00 
275.47 14.12 -0.35 
274.59 14.83 0.06 
275.49 14.69 -0.30 
274.53 15.08 0.08 
274.57 15.48 0.10 
275.16 15.48 0.07 
275.31 15.47 0.07 
274.56 15.82 0.13 
275.43 15.92 -0.19 
274.51 16.20 0.16 
274.55 16.67 0.19 
274.60 17.04 0.22 
274.60 17.36 0.24 
274.62 17.77 0.27 
275.53 17.98 -0.01 
274.64 18.23 0.30 
275.48 18.23 0.01 
274.64 18.56 0.33 
275.44 18.52 0.04 
275.40 18.90 0.07 
274.71 19.88 0.42 
275.47 19.89 0.56 
271.26 20.27 0.35 
274.53 20.30 0.35 
284.58 7.97 -0.83 
284.84 7.98 -0.84 
285.27 7.96 -0.86 
285.76 7.97 -0.78 
286.08 7.98 -0.71 
286.48 7.97 -0.79 
286.87 7.95 -0.77 
287.30 8.00 -0.65 
287.76 8.00 -0.66 
288.12 8.00 -0.67 
288.49 7.98 -0.68 
288.85 7.99 -0.69 
276.55 8.09 -0.29 
276.85 8.10 -0.30 
278.22 8.09 -0.35 
278.42 8.15 -0.36 
278.76 8.19 -0.60 
279.38 8.19 -0.62 
279.66 8.18 -0.63 
280.12 8.17 -0.65 
280.49 8.17 -0.67 
280.87 8.17 -0.68 
281.31 8.10 -0.58 
281.66 8.07 -0.60 
282.00 8.07 -0.65 
282.49 8.07 -0.75 
282.93 8.05 -0.77 
283.29 8.07 -0.78 
283.63 8.04 -0.80 
284.07 8.01 -0.75 
284.52 8.02 -0.63 
284.88 8.01 -0.58 
285.25 7.99 -0.59 
285.61 8.00 -0.60 
274.84 8.37 -0.41 
275.24 8.35 -0.43 
275.69 8.33 -0.45 
276.05 8.26 -0.42 
276.51 8.32 -0.49 
276.92 8.30 -0.51 
277.33 8.32 -0.53 
277.75 8.30 -0.54 
278.12 8.24 -0.57 
278.54 8.23 -0.58 
278.92 8.21 -0.60 
279.20 8.22 -0.61 
274.75 8.51 -0.40 
275.47 8.77 -0.20 
275.88 8.81 -0.21 
274.39 9.14 -0.34 
274.80 9.08 -0.36 
274.33 9.57 -0.30 
275.51 9.36 -0.16 
274.37 9.97 -0.28 
274.37 10.30 -0.25 
274.40 10.68 -0.23 
274.38 10.94 -0.21 
274.39 11.41 -0.18 
275.43 12.15 0.03 
275.44 14.33 0.17 
275.46 15.92 0.28 
270.44 16.13 0.37 
270.68 16.11 0.36 
270.99 16.09 0.34 
271.43 16.06 0.31 
275.47 16.25 0.30 
275.45 16.61 0.33 
275.46 17.02 0.36 
274.59 17.58 0.73 
274.58 17.79 0.74 
274.59 18.18 0.77 
274.62 18.68 0.79 
275.46 18.74 0.48 
275.48 18.97 0.49 
274.65 19.51 0.84 
275.45 19.59 0.54 
274.68 19.71 0.85 
275.42 19.82 0.95 
269.52 20.20 0.89 
269.79 20.23 0.88 
270.00 20.22 0.87 
270.66 20.23 0.83 
271.37 20.23 0.79 
272.02 20.22 0.76 
274.56 20.31 0.85 
275.54 20.27 0.97 
269.60 20.24 0.89 
290.48 7.69 -0.46 
290.89 7.69 -0.47 
291.32 7.67 -0.48 
284.07 7.90 -0.25 
284.50 7.90 -0.26 
284.93 7.88 -0.28 
285.36 7.86 -0.30 
285.71 7.86 -0.31 
286.12 7.86 -0.33 
287.82 7.80 -0.38 
287.96 7.77 -0.39 
288.59 7.76 -0.41 
289.78 7.74 -0.44 
290.12 7.72 -0.45 
290.34 7.72 -0.46 
278.87 8.11 0.00 
279.23 8.09 -0.02 
279.65 8.08 -0.04 
280.03 8.07 -0.06 
280.53 8.04 -0.09 
280.94 8.02 -0.11 
281.30 8.01 -0.12 
281.64 7.99 -0.14 
282.05 8.01 -0.16 
282.49 7.97 -0.18 
282.93 7.95 -0.20 
283.29 7.95 -0.21 
283.72 7.93 -0.23 
284.21 7.92 -0.25 
274.94 8.24 0.22 
275.23 8.25 0.20 
275.67 8.25 0.18 
276.07 8.22 0.15 
276.45 8.20 0.13 
276.91 8.19 0.11 
277.32 8.22 0.08 
277.74 8.16 0.06 
278.11 8.13 0.04 
278.51 8.14 0.02 
275.45 12.11 0.58 
274.58 12.95 0.48 
274.57 13.21 0.49 
275.52 14.10 0.67 
274.66 14.93 0.58 
274.57 15.41 0.61 
275.53 15.38 0.73 
274.54 16.72 0.69 
275.43 18.45 0.88 
275.43 19.54 0.94 
289.61 7.62 0.13 
290.51 7.59 0.11 
290.99 7.59 0.09 
291.35 7.58 0.09 
283.89 7.83 0.34 
284.23 7.76 0.32 
284.48 7.76 0.31 
284.96 7.71 0.29 
285.43 7.68 0.27 
285.66 7.72 0.26 
286.12 7.74 0.24 
286.55 7.73 0.23 
286.89 7.72 0.21 
287.35 7.94 -0.05 
287.74 7.92 -0.06 
288.08 7.83 0.01 
288.58 7.74 0.08 
288.93 7.66 0.15 
289.19 7.65 0.14 
278.14 8.04 0.27 
278.52 8.05 0.25 
278.89 8.02 0.23 
284.55 7.98 0.03 
273.70 8.29 0.29 
274.12 8.23 0.32 
274.51 8.13 0.38 
276.67 8.04 0.33 
276.88 8.07 0.33 
271.36 8.41 0.44 
271.66 8.38 0.42 
272.04 8.37 0.40 
285.70 9.14 0.04 
283.36 7.81 0.36 
283.72 7.83 0.34 
287.41 7.85 0.55 
287.75 7.86 0.54 
288.04 7.86 0.54 
277.46 7.95 0.92 
277.70 8.03 0.68 
278.14 7.97 0.77 
278.49 8.02 0.63 
278.87 7.99 0.60 
279.36 7.94 0.70 
279.64 7.96 0.56 
280.12 7.96 0.53 
280.58 7.92 0.50 
280.97 7.92 0.48 
281.33 7.90 0.46 
281.69 7.89 0.58 
282.15 7.88 0.42 
282.53 7.85 0.40 
282.93 7.84 0.38 
283.20 7.86 0.37 
283.54 7.84 0.35 
284.28 7.85 0.63 
272.61 8.23 1.03 
272.94 8.21 1.01 
273.33 8.24 0.98 
273.67 8.18 0.95 
274.08 8.16 0.92 
274.56 8.17 0.89 
275.02 8.15 0.86 
275.29 8.12 0.84 
275.64 8.13 0.81 
276.15 8.10 0.78 
276.50 8.09 0.76 
276.89 8.08 0.73 
277.30 8.06 0.70 
277.60 8.06 0.68 
271.31 8.30 1.14 
271.76 8.27 1.10 
272.15 8.26 1.07 
272.39 8.26 1.05 
269.31 10.06 1.36 
269.72 9.94 1.32 
270.11 9.90 1.29 
270.50 9.86 1.25 
270.79 9.81 1.23 
271.30 9.93 1.19 
268.98 10.14 1.39 
288.62 7.53 0.72 
288.95 7.52 0.71 
289.37 7.51 0.70 
290.22 7.48 0.68 
290.74 7.47 0.67 
290.89 7.46 0.67 
282.29 7.73 0.99 
282.55 7.73 0.98 
282.90 7.71 0.96 
283.34 7.70 0.94 
283.76 7.68 0.92 
284.06 7.67 0.90 
284.45 7.67 0.88 
284.95 7.66 0.86 
285.34 7.65 0.84 
285.74 7.63 0.83 
286.16 7.62 0.81 
286.52 7.60 0.79 
286.89 7.59 0.78 
288.32 7.55 0.73 
288.42 7.55 0.73 
275.42 7.93 1.04 
275.81 7.92 1.01 
276.16 7.94 0.99 
276.57 7.95 0.97 
276.97 7.95 0.95 
280.63 8.04 1.09 
280.95 8.04 1.07 
281.36 8.02 1.05 
281.82 7.82 1.02 
282.15 7.74 1.00 
270.98 8.01 1.32 
273.09 7.96 1.18 
273.31 7.96 1.17 
274.21 7.96 1.11 
274.48 7.97 1.09 
274.89 7.95 1.07 
275.36 7.96 1.04 
275.79 8.03 1.02 
277.81 8.19 1.29 
278.21 8.20 1.26 
278.63 8.19 1.23 
278.96 8.16 1.20 
279.36 8.14 1.18 
279.72 8.09 1.15 
280.10 8.08 1.13 
280.37 8.07 1.11 
270.88 8.42 1.17 
272.28 9.31 1.27 
272.23 9.61 1.28 
266.51 10.32 1.61 
266.73 10.27 1.59 
267.23 10.28 1.54 
267.67 10.21 1.50 
268.02 10.19 1.47 
268.54 10.15 1.43 
268.71 10.15 1.41 
284.12 7.76 1.24 
284.65 7.77 1.22 
284.94 7.75 1.21 
285.32 7.76 1.20 
285.73 7.76 1.19 
286.18 7.75 1.18 
286.53 7.77 1.17 
286.90 7.76 1.16 
287.35 7.75 1.15 
287.82 7.76 1.14 
288.12 7.74 1.14 
288.48 7.73 1.13 
288.89 7.73 1.13 
289.35 7.70 1.12 
289.81 7.68 1.11 
278.52 7.89 1.49 
278.90 7.81 1.47 
279.29 7.82 1.45 
279.74 7.81 1.42 
280.21 7.81 1.40 
280.58 7.81 1.38 
280.94 7.79 1.37 
281.31 7.81 1.35 
281.77 7.79 1.33 
282.20 7.79 1.31 
282.57 7.79 1.30 
282.90 7.79 1.28 
283.30 7.79 1.27 
283.75 7.78 1.25 
284.29 7.78 1.23 
284.48 7.78 1.23 
275.93 8.13 1.65 
276.57 8.17 1.60 
276.95 8.12 1.58 
277.43 8.10 1.55 
277.81 8.08 1.53 
278.10 8.06 1.51 
287.52 7.94 1.75 
288.57 7.89 1.73 
278.33 5.26 1.91 
277.75 8.35 -1.18 
278.18 8.32 -1.20 
278.51 8.29 -1.21 
278.97 8.32 -1.22 
290.94 10.95 -1.35 
291.11 10.79 -1.37 
287.07 7.99 -1.28 
287.33 8.01 -1.28 
287.69 8.01 -1.29 
288.06 8.00 -1.30 
288.50 8.01 -1.31 
289.41 7.98 -1.34 
289.68 8.02 -1.35 
290.05 7.96 -1.36 
277.61 8.04 -0.99 
280.97 8.04 -1.09 
281.43 8.04 -1.11 
282.84 8.04 -1.15 
283.20 8.05 -1.16 
289.22 8.12 -1.32 
275.51 10.29 -0.71 
275.48 10.67 -0.68 
275.47 11.36 -0.62 
275.42 12.47 -0.51 
275.44 12.83 -0.48 
275.46 14.15 -0.36 
275.45 14.46 -0.33 
274.52 14.88 0.07 
275.47 14.97 -0.29 
274.51 15.28 0.10 
275.25 15.50 0.08 
275.45 15.32 0.06 
274.49 15.72 0.14 
274.46 16.14 0.17 
274.49 16.60 0.21 
274.57 16.99 0.23 
274.59 17.33 0.26 
274.59 17.73 0.29 
275.48 17.97 -0.01 
274.61 18.13 0.32 
275.47 18.10 0.00 
274.61 18.52 0.35 
275.47 18.41 0.03 
274.60 18.80 0.37 
275.38 18.86 0.07 
274.65 19.73 0.44 
274.68 20.16 0.47 
275.52 20.14 0.19 
270.91 20.27 0.37 
291.43 7.76 -1.09 
286.15 7.94 -0.92 
286.50 7.94 -0.80 
287.23 7.96 -0.68 
288.60 7.96 -0.72 
288.96 7.96 -0.73 
289.34 7.98 -0.74 
289.72 7.95 -0.75 
290.14 7.94 -0.76 
290.91 7.84 -1.07 
291.25 7.79 -1.08 
280.19 8.13 -0.68 
280.55 8.05 -0.54 
280.89 8.09 -0.63 
281.31 8.06 -0.61 
281.71 8.10 -0.68 
282.13 8.11 -0.76 
282.53 8.06 -0.71 
282.94 8.02 -0.55 
283.40 7.99 -0.57 
283.79 8.00 -0.66 
284.13 7.99 -0.72 
284.46 7.99 -0.77 
284.94 7.98 -0.87 
285.38 7.97 -0.89 
285.72 7.98 -0.90 
286.72 7.97 -0.67 
275.00 8.33 -0.43 
275.51 8.36 -0.45 
275.82 8.35 -0.47 
276.11 8.26 -0.43 
276.47 8.24 -0.44 
276.92 8.24 -0.47 
277.33 8.23 -0.46 
277.75 8.18 -0.46 
278.18 8.25 -0.58 
278.55 8.25 -0.60 
278.97 8.25 -0.62 
279.36 8.20 -0.64 
279.77 8.18 -0.66 
280.09 8.16 -0.67 
280.42 8.17 -0.68 
274.70 8.54 -0.40 
274.89 8.37 -0.42 
275.28 8.37 -0.44 
274.33 9.09 -0.34 
274.84 9.09 -0.37 
274.30 9.32 -0.33 
274.33 9.71 -0.30 
274.35 10.08 -0.27 
275.48 10.16 -0.12 
274.33 10.50 -0.24 
275.41 10.36 -0.10 
274.33 10.96 -0.21 
274.36 11.30 -0.18 
274.35 11.59 -0.16 
275.44 11.80 0.00 
275.43 12.34 0.04 
274.46 14.15 0.02 
275.45 14.87 0.21 
276.08 15.18 0.21 
270.43 16.15 0.39 
270.76 16.10 0.37 
271.07 16.12 0.35 
275.45 16.49 0.33 
275.42 16.99 0.37 
275.42 17.84 0.43 
274.57 18.43 0.82 
274.62 18.78 0.84 
275.45 18.89 0.50 
274.61 19.37 0.88 
274.63 19.74 0.90 
274.65 20.10 0.93 
269.89 20.23 0.90 
270.12 20.23 0.89 
270.80 20.22 0.85 
271.66 20.21 0.80 
291.10 7.69 -0.52 
291.37 7.68 -0.52 
285.47 7.89 -0.32 
285.81 7.87 -0.34 
286.16 7.85 -0.35 
286.59 7.84 -0.37 
286.93 7.84 -0.38 
287.38 7.82 -0.40 
287.77 7.81 -0.41 
288.11 7.81 -0.42 
288.50 7.79 -0.44 
288.97 7.78 -0.45 
289.31 7.75 -0.46 
289.74 7.73 -0.48 
290.15 7.73 -0.49 
290.50 7.73 -0.50 
290.84 7.79 -0.50 
279.83 8.08 -0.06 
280.15 8.07 -0.08 
280.53 8.06 -0.09 
280.90 8.06 -0.11 
281.27 8.03 -0.13 
281.77 8.02 -0.16 
282.14 8.00 -0.18 
282.54 7.98 -0.19 
283.54 7.94 -0.24 
284.39 7.89 -0.28 
285.13 7.90 -0.31 
285.30 7.89 -0.32 
285.65 7.90 -0.33 
275.74 8.27 0.18 
276.13 8.23 0.15 
276.48 8.23 0.13 
276.92 8.22 0.11 
277.38 8.24 0.08 
277.75 8.19 0.06 
278.16 8.16 0.03 
278.54 8.13 0.01 
278.91 8.12 -0.01 
279.36 8.12 -0.03 
279.65 8.10 -0.05 
274.48 11.73 0.44 
274.44 11.92 0.45 
274.56 12.89 0.50 
274.60 13.00 0.50 
274.56 13.16 0.51 
274.57 13.44 0.53 
275.50 13.27 0.64 
274.58 13.71 0.54 
275.50 13.78 0.66 
274.60 14.08 0.56 
275.50 14.09 0.68 
274.47 14.57 0.60 
274.59 14.48 0.59 
275.55 14.55 0.70 
274.48 14.95 0.62 
275.50 14.86 0.72 
275.50 15.31 0.74 
274.47 15.75 0.67 
274.52 16.02 0.68 
275.40 16.02 0.78 
274.56 17.37 0.76 
274.57 17.59 0.77 
275.37 18.94 0.94 
273.88 20.31 1.12 
290.94 7.60 0.06 
291.35 7.60 0.05 
285.73 7.80 0.24 
286.16 7.76 0.22 
286.60 7.75 0.20 
287.01 7.74 0.19 
287.38 7.72 0.17 
287.77 7.71 0.16 
288.09 7.71 0.14 
288.55 7.70 0.13 
288.98 7.67 0.11 
289.32 7.65 0.10 
289.77 7.64 0.09 
290.13 7.63 0.08 
290.49 7.62 0.07 
279.71 7.99 0.18 
280.72 7.96 0.14 
280.92 7.96 0.13 
281.36 7.95 0.11 
281.64 7.95 0.10 
282.95 7.95 0.05 
283.32 7.97 0.04 
283.83 7.92 0.02 
284.14 7.93 0.01 
284.44 7.92 0.00 
285.12 7.96 -0.02 
285.39 7.95 -0.03 
274.20 8.20 0.46 
274.50 8.13 0.44 
274.94 8.26 0.22 
275.39 8.27 0.20 
276.66 8.01 0.32 
276.94 8.01 0.31 
277.47 8.02 0.28 
277.86 7.99 0.26 
278.07 8.01 0.25 
278.58 8.11 0.24 
272.26 8.46 0.40 
273.81 8.32 0.29 
274.10 8.28 0.27 
274.37 8.30 0.26 
274.84 8.31 0.23 
272.09 8.58 0.42 
275.41 11.48 0.55 
275.46 11.95 0.57 
284.84 7.79 0.28 
286.92 7.83 0.52 
287.60 7.84 0.50 
289.78 7.81 0.46 
290.23 7.80 0.45 
279.40 7.99 0.58 
280.10 7.96 0.53 
280.44 7.96 0.51 
280.93 7.87 0.74 
281.36 7.89 0.59 
281.78 7.89 0.57 
282.10 7.87 0.55 
282.47 7.88 0.53 
282.96 7.87 0.65 
283.52 7.85 0.34 
283.79 7.83 0.33 
284.11 7.86 0.46 
284.49 7.82 0.45 
285.02 7.84 0.58 
285.30 7.83 0.57 
286.11 7.83 0.54 
274.20 8.18 0.94 
274.94 8.17 0.88 
275.35 8.15 0.85 
275.83 8.17 0.82 
276.22 8.12 0.79 
276.49 8.12 0.77 
276.90 8.12 0.74 
277.34 8.08 0.71 
277.70 8.06 0.69 
278.14 8.06 0.66 
278.54 8.03 0.63 
278.92 8.01 0.61 
279.23 8.01 0.59 
272.56 8.27 1.06 
272.96 8.22 1.03 
273.28 8.23 1.01 
273.79 8.21 0.97 
274.13 8.21 0.94 
274.66 8.31 0.91 
289.84 7.51 0.65 
290.18 7.51 0.64 
290.60 7.50 0.63 
291.11 7.47 0.62 
291.34 7.48 0.61 
283.86 7.70 0.90 
284.04 7.70 0.90 
284.62 7.69 0.86 
284.91 7.66 0.85 
285.45 7.65 0.82 
285.71 7.66 0.81 
286.61 7.63 0.77 
287.00 7.61 0.75 
287.36 7.60 0.74 
287.78 7.59 0.72 
288.13 7.60 0.71 
288.56 7.58 0.69 
288.98 7.56 0.68 
289.36 7.53 0.67 
290.94 7.67 0.62 
277.76 7.90 0.90 
278.24 7.88 0.88 
279.81 7.87 1.16 
280.20 7.86 1.13 
280.57 7.84 1.11 
281.08 7.81 1.07 
281.43 7.79 1.05 
281.81 7.81 1.03 
282.17 7.77 1.00 
282.52 7.76 0.98 
283.47 7.74 0.93 
283.76 7.72 0.91 
274.23 7.95 1.11 
274.56 7.94 1.09 
274.77 7.94 1.08 
275.31 7.94 1.05 
275.76 8.03 1.02 
276.14 7.92 0.99 
276.56 7.93 0.97 
276.86 7.93 0.95 
