# .PCD v0.7 - Point Cloud Data file format
VERSION 0.7
FIELDS x y z
SIZE 4 4 4
TYPE F F F
COUNT 1 1 1
WIDTH 2514
HEIGHT 1
VIEWPOINT 0 0 0 1 0 0 0
POINTS 2514
DATA ascii
299.93 43.53 2.96 
310.70 44.68 3.54 
294.50 42.92 1.50 
303.33 42.95 1.90 
301.54 29.88 1.14 
299.95 43.14 2.56 
299.98 27.65 1.26 
309.44 44.79 3.07 
302.41 43.98 1.95 
296.40 42.20 2.12 
294.89 42.28 2.21 
303.24 43.05 1.91 
301.52 29.96 0.84 
299.98 43.01 2.23 
293.56 42.70 2.32 
296.23 42.51 2.65 
303.47 42.92 2.89 
294.36 42.96 1.56 
294.39 43.11 2.01 
303.68 22.52 -0.32 
295.55 42.50 2.20 
303.10 43.07 2.17 
310.01 44.25 2.41 
294.47 42.38 2.97 
294.79 42.35 2.95 
299.43 43.31 3.06 
299.57 42.86 3.23 
310.04 44.84 3.37 
296.14 42.71 2.14 
303.44 21.35 -0.09 
295.32 42.64 2.58 
300.36 43.18 2.41 
299.67 42.42 2.83 
303.19 42.95 2.71 
299.46 43.42 3.06 
295.11 42.81 2.23 
301.86 42.98 2.17 
302.93 43.09 2.18 
300.53 42.67 2.84 
299.54 42.84 2.95 
309.82 44.35 2.77 
300.36 43.12 1.70 
303.44 21.87 -0.34 
303.40 43.13 1.87 
295.11 42.94 2.06 
295.50 42.89 2.04 
303.40 21.93 -0.08 
300.42 43.02 2.39 
301.92 42.98 2.43 
300.58 42.62 2.79 
304.11 43.52 2.77 
301.67 43.93 2.89 
309.84 44.61 3.11 
310.57 44.72 3.19 
310.12 44.81 3.56 
303.43 43.37 1.59 
301.46 43.22 1.92 
295.86 42.81 1.99 
294.30 42.81 2.04 
294.66 42.41 2.19 
301.41 43.23 2.18 
296.35 42.98 2.42 
302.05 42.88 2.35 
303.46 43.06 2.32 
310.38 44.33 2.28 
299.55 42.84 2.67 
295.42 42.51 3.02 
310.35 44.51 3.01 
294.45 42.05 1.56 
303.36 43.90 1.45 
296.17 42.73 1.80 
303.45 43.04 1.85 
301.61 43.10 1.95 
294.74 42.40 2.24 
301.32 43.14 2.21 
295.85 42.59 2.43 
296.42 42.95 2.47 
302.36 42.82 2.36 
294.37 41.85 1.53 
295.56 42.13 1.54 
295.83 42.31 1.55 
295.59 42.08 1.75 
301.71 43.74 2.04 
295.41 41.96 2.17 
294.05 42.34 2.29 
303.06 21.36 -0.05 
309.11 25.11 0.49 
302.77 42.73 2.80 
302.65 43.05 2.88 
302.13 42.77 3.09 
294.26 42.50 1.54 
295.59 43.58 1.61 
310.58 44.62 2.22 
308.45 45.10 2.31 
302.64 43.24 3.43 
296.16 42.75 1.78 
296.50 43.04 1.80 
294.58 41.98 2.00 
308.67 44.79 1.97 
309.86 45.13 1.99 
302.26 43.96 2.42 
308.45 44.77 2.52 
294.89 42.27 2.79 
308.46 45.25 2.90 
303.44 43.83 1.49 
303.32 43.73 1.91 
302.27 43.90 1.96 
308.83 44.57 2.18 
295.53 42.50 2.55 
308.32 44.67 2.48 
299.82 43.04 1.52 
302.60 43.69 1.54 
303.18 44.03 1.55 
298.43 26.22 0.27 
294.68 41.57 1.99 
304.00 43.82 1.94 
295.09 42.22 2.05 
299.86 43.18 1.99 
302.82 43.87 1.98 
303.67 43.83 2.17 
308.86 44.38 2.18 
300.43 43.09 2.41 
303.62 43.75 2.37 
295.83 43.16 2.42 
308.33 44.65 2.50 
294.71 42.66 3.03 
293.96 41.89 1.43 
310.09 45.19 1.71 
294.73 41.47 2.01 
295.82 42.28 2.06 
302.51 43.72 1.99 
302.96 43.47 2.16 
303.49 43.62 2.16 
304.34 22.19 0.03 
310.55 44.64 2.18 
299.95 42.63 2.42 
303.05 43.37 2.36 
308.42 45.06 2.31 
295.30 42.51 2.41 
299.81 43.26 2.52 
294.85 42.33 2.74 
295.24 42.87 2.78 
297.56 29.57 1.37 
294.79 42.72 3.12 
294.70 41.87 1.37 
301.64 43.25 1.49 
302.98 43.22 1.69 
301.79 43.28 1.72 
295.53 43.83 1.89 
302.46 42.81 1.88 
299.79 43.35 2.29 
299.82 24.46 0.36 
303.09 43.32 2.35 
303.62 43.36 2.33 
308.78 44.50 2.19 
303.33 43.54 2.37 
299.97 42.59 2.43 
308.42 44.80 2.52 
295.01 42.35 2.76 
303.49 43.52 1.49 
303.24 43.47 2.16 
297.79 28.39 0.83 
299.90 42.87 2.25 
309.37 44.41 2.41 
308.63 44.56 2.74 
304.04 44.22 2.70 
301.34 29.94 0.33 
302.77 42.82 1.84 
309.58 45.24 1.93 
295.81 42.57 2.04 
303.23 43.05 2.08 
309.67 44.81 2.09 
309.32 45.12 2.14 
299.94 42.67 2.20 
297.59 29.46 1.23 
302.08 43.16 2.41 
299.79 43.20 2.57 
302.56 43.03 1.67 
295.27 41.79 1.65 
299.84 42.82 1.69 
302.92 42.97 1.91 
302.08 42.86 1.93 
310.21 44.95 1.93 
309.48 45.11 1.97 
299.82 43.08 2.03 
303.37 44.03 2.02 
309.32 44.92 2.17 
299.90 42.68 2.29 
299.74 43.33 2.38 
303.28 44.59 2.36 
303.46 43.36 2.44 
303.32 43.31 1.39 
295.33 41.73 1.60 
296.09 42.50 1.67 
302.54 42.97 1.63 
299.82 42.94 1.67 
302.36 42.75 1.89 
299.77 43.16 2.03 
310.40 45.15 2.14 
309.34 45.11 2.17 
302.38 42.81 2.18 
303.05 43.02 2.17 
299.77 43.13 2.36 
309.85 25.26 0.37 
296.97 30.22 1.49 
303.03 44.30 2.92 
301.90 42.99 1.62 
309.19 44.66 1.89 
299.95 42.41 1.95 
299.77 43.30 2.05 
303.33 43.17 2.21 
299.78 43.14 2.40 
309.48 25.14 0.41 
302.87 43.31 2.56 
296.96 30.34 1.60 
303.11 43.37 2.86 
305.72 22.55 0.76 
302.82 43.55 1.34 
294.94 43.34 1.76 
310.30 44.84 1.67 
302.31 42.78 1.60 
308.88 25.23 0.36 
302.82 42.82 1.89 
310.57 44.69 2.06 
299.91 42.47 1.95 
299.74 43.29 2.05 
295.18 42.83 2.17 
308.88 25.16 0.39 
295.75 42.11 1.57 
302.42 42.65 1.54 
302.87 42.77 1.92 
303.27 43.70 2.01 
299.89 42.47 1.99 
302.81 43.33 2.73 
294.22 41.43 1.47 
295.17 42.15 1.53 
295.10 42.85 1.61 
302.51 42.68 1.91 
309.78 44.68 2.16 
310.21 45.08 2.20 
302.61 43.10 2.36 
301.99 43.55 2.87 
302.78 43.29 1.92 
302.72 43.56 2.40 
302.80 44.12 1.97 
309.18 45.28 2.91 
299.80 43.02 1.48 
302.65 43.66 2.52 
303.05 44.04 1.97 
309.68 45.24 2.66 
303.38 43.55 1.29 
303.13 43.14 1.81 
303.21 43.66 1.86 
301.13 30.00 4.37 
310.17 44.85 1.76 
303.25 43.35 1.37 
302.94 43.67 1.32 
302.95 43.17 1.91 
309.32 45.07 2.44 
302.94 43.08 1.89 
309.17 44.22 1.82 
309.21 44.10 1.89 
294.16 42.84 1.65 
294.32 42.61 1.79 
294.15 43.03 1.51 
294.69 42.25 1.31 
294.17 42.78 1.35 
295.06 42.64 1.34 
293.69 42.99 1.37 
294.00 43.41 1.73 
295.00 43.29 1.72 
294.93 42.84 2.43 
294.83 42.77 2.82 
294.77 43.15 2.85 
294.00 43.02 1.29 
293.73 43.26 1.31 
297.34 37.14 1.13 
297.37 36.85 1.11 
295.37 42.37 1.55 
295.08 43.32 1.63 
294.84 42.62 2.30 
294.61 43.06 2.33 
295.00 42.76 2.31 
294.76 42.42 1.19 
294.73 43.08 1.24 
297.28 30.67 0.59 
294.89 42.38 2.20 
294.82 42.74 2.23 
294.65 43.22 2.27 
294.68 42.97 2.25 
297.21 30.24 1.70 
297.20 30.52 1.71 
293.94 42.68 2.60 
294.62 43.12 2.65 
294.41 43.46 2.67 
294.77 42.38 1.24 
293.82 43.11 1.30 
294.53 42.96 1.29 
296.81 36.72 1.10 
294.27 42.17 1.54 
294.93 42.23 1.54 
293.62 43.00 1.61 
294.63 43.12 1.62 
294.79 43.79 1.67 
299.20 27.81 1.17 
295.06 42.40 2.23 
294.89 42.64 2.25 
294.66 42.91 2.27 
297.19 30.46 1.73 
294.21 42.68 2.63 
294.28 42.66 2.63 
294.03 42.91 2.64 
294.93 42.76 1.23 
294.79 43.02 1.25 
296.85 36.61 1.06 
294.56 42.59 2.17 
294.86 42.49 2.17 
294.57 42.88 2.20 
297.20 27.60 1.07 
294.77 42.20 2.53 
293.86 42.66 2.55 
294.67 42.44 2.55 
294.14 43.02 2.59 
293.95 43.54 2.63 
295.03 43.29 2.25 
297.20 30.21 1.67 
297.21 30.47 1.69 
299.86 42.85 2.69 
294.06 43.06 1.29 
294.67 43.06 1.28 
301.80 30.49 0.63 
299.95 43.49 1.63 
294.49 42.52 2.17 
294.55 42.94 2.21 
294.81 43.47 2.26 
296.99 27.67 1.07 
297.42 27.86 1.10 
301.49 29.99 1.33 
295.15 42.24 2.55 
294.44 42.70 2.57 
294.43 42.74 2.58 
294.63 43.07 2.61 
294.97 43.10 2.62 
297.70 30.41 1.70 
297.61 31.04 1.74 
300.30 42.81 2.71 
301.59 29.89 2.41 
301.75 29.74 3.48 
301.56 30.03 4.57 
301.62 30.32 4.59 
297.76 26.94 0.05 
297.32 30.54 0.31 
294.33 42.16 1.22 
293.67 42.96 1.29 
294.91 43.00 1.29 
293.89 43.30 1.32 
301.83 30.43 0.63 
297.35 36.84 1.11 
297.51 27.49 1.05 
298.04 28.29 1.11 
294.80 42.33 2.14 
294.27 43.04 2.20 
294.60 42.95 2.20 
295.18 42.71 2.19 
294.19 43.25 2.21 
298.18 27.64 1.07 
298.67 27.90 1.10 
301.62 30.06 1.31 
297.73 30.43 1.68 
295.25 42.23 2.53 
294.61 42.71 2.56 
294.90 43.05 2.60 
295.84 42.64 2.58 
300.02 42.97 2.31 
294.47 43.21 2.60 
299.96 43.22 2.33 
300.34 42.80 2.69 
300.35 43.08 2.71 
301.62 29.94 2.36 
301.76 29.85 3.41 
301.92 29.49 4.46 
294.72 42.22 1.23 
294.24 43.19 1.31 
301.38 30.22 0.62 
301.36 30.50 0.64 
296.93 36.72 1.10 
294.53 42.78 1.59 
294.46 43.05 1.61 
295.04 43.47 1.65 
297.22 27.50 1.01 
297.37 27.53 1.01 
297.47 27.74 1.03 
297.40 28.08 1.05 
298.11 28.27 1.08 
295.63 42.37 2.14 
294.70 42.69 2.15 
295.22 42.49 2.14 
294.67 42.95 2.17 
294.94 43.30 2.21 
301.59 29.96 1.28 
297.23 30.49 1.64 
294.82 42.18 2.49 
294.35 42.66 2.53 
295.43 42.59 2.54 
294.57 42.99 2.56 
294.03 43.45 2.59 
294.60 43.29 2.58 
294.02 43.69 2.61 
302.62 43.47 2.38 
299.86 42.79 2.65 
301.74 29.61 2.28 
301.69 29.87 2.30 
301.42 30.04 2.80 
301.85 29.51 3.31 
301.99 29.42 4.34 
303.62 22.14 -0.26 
297.82 26.60 0.05 
297.77 26.91 0.07 
297.38 30.71 0.34 
294.33 42.11 1.23 
294.68 42.25 1.24 
294.26 42.93 1.30 
293.86 43.16 1.32 
294.70 43.59 1.35 
302.62 43.37 1.33 
301.94 30.48 0.66 
297.35 36.74 1.12 
297.33 36.90 1.13 
297.62 25.48 0.88 
296.77 25.91 0.89 
297.03 26.69 0.95 
298.91 27.51 1.04 
296.89 28.00 1.03 
298.23 27.88 1.05 
297.29 28.22 1.06 
299.56 27.99 1.09 
294.65 42.42 2.11 
294.50 42.65 2.13 
294.18 43.08 2.16 
294.62 42.95 2.16 
294.43 43.43 2.20 
301.51 30.09 1.28 
297.75 30.46 1.64 
295.21 42.21 2.49 
294.68 42.66 2.52 
295.85 42.61 2.54 
294.39 43.16 2.56 
294.91 42.99 2.55 
299.98 42.95 2.28 
294.56 43.43 2.58 
299.93 43.23 2.30 
302.91 43.35 2.37 
302.52 43.52 2.38 
302.67 44.26 2.45 
300.32 42.85 2.66 
301.65 29.75 2.26 
301.60 29.99 2.28 
295.19 42.91 3.50 
301.88 30.27 2.82 
301.75 29.65 3.26 
301.90 29.56 4.27 
304.70 21.73 -0.23 
297.66 26.63 0.10 
298.51 27.04 0.13 
297.33 30.32 0.36 
294.11 42.35 1.31 
294.56 42.22 1.30 
293.74 42.50 1.32 
293.96 42.53 1.32 
293.61 42.96 1.36 
294.16 43.13 1.69 
294.42 42.96 1.36 
294.72 43.57 1.41 
294.62 44.29 1.47 
301.80 30.54 0.72 
297.39 36.92 1.19 
298.10 27.03 1.02 
297.25 27.68 1.04 
298.70 27.71 1.08 
297.25 28.16 1.08 
298.05 28.33 1.11 
301.51 30.00 1.31 
294.53 42.65 2.17 
294.77 42.46 2.15 
294.21 43.07 2.20 
294.70 42.92 2.19 
294.86 43.01 2.21 
299.96 43.03 2.32 
294.14 43.26 2.21 
299.89 43.31 2.35 
294.37 43.64 2.25 
297.72 30.54 1.68 
295.08 41.88 2.49 
295.08 42.20 2.52 
294.64 42.65 2.55 
295.21 42.49 2.55 
294.86 42.97 2.58 
300.33 42.94 2.71 
294.16 43.31 2.60 
294.46 43.15 2.59 
303.04 43.19 2.41 
302.64 43.41 2.42 
302.54 44.33 2.50 
302.98 43.10 2.78 
301.64 29.90 2.28 
295.17 42.90 3.51 
301.75 29.78 3.25 
301.89 29.68 4.23 
301.85 30.44 6.02 
294.08 42.30 1.32 
294.55 42.23 1.31 
293.75 42.74 1.35 
294.04 42.48 1.33 
294.16 43.11 1.39 
304.00 21.52 -0.22 
304.59 21.68 -0.21 
297.70 26.63 0.11 
297.76 26.87 0.13 
298.44 27.03 0.14 
297.34 30.47 0.39 
297.39 36.72 1.19 
294.13 43.11 1.70 
302.63 43.33 1.41 
301.81 30.33 0.72 
301.83 30.59 0.74 
294.43 42.62 2.15 
297.37 27.59 1.03 
298.69 27.46 1.05 
297.18 28.13 1.06 
299.59 28.13 1.12 
297.38 30.06 1.20 
301.51 30.12 1.31 
294.54 42.61 2.15 
295.11 42.57 2.16 
295.72 42.49 2.17 
294.59 42.87 2.18 
300.02 42.85 2.30 
294.10 43.28 2.58 
294.41 43.25 2.40 
294.71 43.16 2.58 
295.17 43.10 2.21 
299.90 43.10 2.32 
294.47 43.64 2.25 
295.16 42.13 2.50 
295.31 42.52 2.54 
294.85 42.97 2.57 
302.82 43.41 2.42 
294.90 42.78 3.00 
302.97 43.18 2.78 
301.62 29.92 2.24 
295.05 42.62 3.44 
301.89 30.15 2.78 
301.75 29.71 3.18 
301.87 29.62 4.13 
302.01 30.05 3.81 
302.18 29.99 5.92 
294.61 42.24 1.35 
293.90 42.60 1.38 
294.26 42.37 1.36 
293.59 42.88 1.40 
294.01 42.78 1.39 
294.09 43.27 1.44 
297.73 26.63 0.14 
297.79 26.88 0.15 
298.44 27.03 0.16 
297.35 30.37 0.40 
297.44 36.82 1.23 
302.77 43.41 1.45 
302.71 44.05 1.51 
296.53 28.70 1.08 
301.80 30.51 0.76 
294.42 42.59 2.16 
295.19 42.46 2.16 
294.17 42.96 2.19 
294.22 42.73 2.17 
294.81 42.96 2.20 
294.10 43.18 2.21 
294.53 43.11 2.21 
294.80 43.45 2.25 
294.43 43.70 2.26 
297.29 27.62 1.02 
298.44 28.06 1.08 
299.49 27.84 1.09 
299.39 28.59 1.14 
297.44 30.27 1.21 
295.24 42.56 2.55 
295.02 42.81 2.57 
295.69 42.69 2.20 
299.99 42.91 2.32 
294.15 43.33 2.60 
294.33 43.42 2.61 
294.75 43.24 2.60 
295.03 43.07 2.59 
299.94 43.15 2.34 
294.66 43.72 2.64 
299.87 43.44 2.36 
297.75 30.50 1.66 
294.88 42.86 2.99 
300.26 43.13 2.72 
302.78 43.32 2.42 
303.13 43.48 2.44 
298.51 25.57 1.78 
301.63 29.95 2.22 
302.94 43.37 2.81 
295.01 42.81 3.44 
295.10 42.74 3.44 
301.91 30.27 2.76 
301.75 29.82 3.13 
302.05 30.18 3.77 
301.86 29.73 4.06 
302.22 29.99 5.81 
297.26 31.17 -0.06 
297.16 37.02 0.39 
297.86 26.85 0.15 
293.94 42.40 1.37 
294.56 42.13 1.35 
294.95 42.22 1.36 
293.79 42.80 1.41 
294.14 42.67 1.40 
294.92 42.48 1.38 
293.72 42.99 1.42 
294.18 43.19 1.44 
294.72 44.10 1.52 
303.66 20.82 -0.26 
304.70 21.75 -0.19 
297.89 26.60 0.13 
298.42 27.00 0.16 
297.42 36.70 1.23 
297.38 36.92 1.24 
297.43 26.57 0.93 
296.73 27.64 0.98 
296.62 28.63 1.05 
297.94 28.71 1.09 
297.45 30.17 1.18 
297.43 30.67 1.22 
301.85 30.64 0.77 
294.71 42.34 2.13 
295.02 42.20 2.12 
294.36 42.47 2.13 
294.04 43.07 2.18 
293.95 43.24 2.20 
294.42 43.44 2.23 
294.32 43.74 2.25 
299.92 26.95 1.02 
298.80 27.58 1.03 
298.47 27.91 1.05 
297.67 30.94 1.66 
295.10 42.07 2.49 
295.36 42.43 2.53 
300.00 42.92 2.30 
294.29 43.43 2.60 
294.86 43.32 2.60 
299.90 43.26 2.33 
294.49 43.73 2.63 
303.12 43.45 2.43 
294.94 42.53 2.92 
294.89 42.80 2.95 
294.96 43.02 2.98 
300.33 42.98 2.70 
300.22 43.24 2.72 
302.97 43.49 2.81 
297.79 26.92 1.77 
301.62 30.04 2.17 
295.33 42.60 3.39 
295.05 42.90 3.41 
301.75 29.85 3.06 
301.88 30.22 2.70 
303.16 44.04 3.90 
302.03 30.12 3.68 
301.86 29.65 3.95 
301.69 30.11 4.87 
301.90 30.36 4.91 
297.34 36.69 0.39 
297.31 36.94 0.41 
297.93 26.60 0.12 
297.83 27.09 0.16 
297.44 30.37 0.40 
294.02 42.29 1.38 
294.64 42.04 1.36 
295.16 41.98 1.35 
293.86 42.57 1.41 
295.00 42.39 1.39 
294.14 43.01 1.44 
294.00 43.30 1.47 
294.94 43.74 1.51 
294.90 44.19 1.55 
302.64 21.82 -0.21 
304.84 21.50 -0.24 
296.93 36.59 1.22 
297.02 36.84 1.24 
294.69 43.03 1.75 
295.19 43.41 1.79 
295.00 43.57 1.80 
302.74 44.05 1.53 
302.60 44.25 1.55 
297.82 26.79 0.91 
296.81 27.42 0.93 
298.75 27.35 0.97 
298.49 27.63 0.99 
299.17 28.02 1.03 
297.24 28.50 1.02 
297.25 28.73 1.04 
297.51 30.19 1.15 
297.52 30.72 1.19 
295.04 42.10 2.10 
294.32 42.51 2.12 
299.40 27.75 1.02 
297.23 30.63 1.60 
294.66 42.20 2.48 
294.44 42.99 2.55 
300.11 42.89 2.28 
300.18 42.65 2.26 
293.86 43.20 2.55 
300.05 43.15 2.31 
302.75 43.10 2.36 
294.11 43.73 2.61 
294.75 43.67 2.62 
297.38 26.10 1.64 
297.73 27.21 1.72 
298.80 27.28 1.78 
298.63 27.54 1.79 
294.87 42.54 2.88 
294.89 42.86 2.92 
299.84 42.89 2.66 
299.79 43.13 2.68 
302.99 43.29 2.77 
301.70 29.89 2.09 
294.76 42.53 3.32 
294.37 43.04 3.35 
294.74 42.89 3.36 
294.56 43.29 3.39 
301.45 30.11 2.60 
301.83 29.59 2.94 
301.83 29.81 2.96 
302.56 43.98 3.82 
302.61 43.69 3.79 
301.94 29.51 3.82 
301.52 30.01 3.54 
301.69 29.92 4.50 
302.09 29.42 4.71 
296.93 36.75 0.43 
296.93 36.95 0.45 
297.94 26.38 0.10 
298.41 26.77 0.13 
294.74 41.99 1.37 
294.01 42.17 1.38 
295.03 42.30 1.40 
295.51 42.01 1.37 
293.90 42.71 1.43 
294.36 42.52 1.42 
294.97 42.48 1.41 
293.98 43.04 1.46 
294.09 43.05 1.46 
294.98 43.65 1.52 
294.94 44.10 1.56 
302.70 21.68 -0.23 
303.60 22.55 -0.17 
296.96 36.56 1.22 
296.95 36.88 1.25 
293.71 42.40 1.72 
299.61 43.35 1.80 
299.88 43.15 1.47 
294.26 43.68 1.83 
297.98 26.28 0.85 
297.12 27.15 0.89 
297.81 26.81 0.88 
297.16 27.33 0.90 
297.55 27.31 0.91 
298.77 27.34 0.94 
297.89 27.66 0.95 
299.57 27.65 0.98 
300.00 27.87 1.01 
296.79 28.49 0.98 
297.35 28.64 1.00 
297.79 28.40 1.00 
299.99 28.36 1.05 
297.53 30.10 1.11 
297.42 30.65 1.15 
294.94 41.94 2.07 
294.76 42.25 2.10 
294.29 42.54 2.12 
294.26 43.06 2.17 
294.55 42.96 2.17 
294.21 43.38 2.20 
294.43 43.59 2.23 
294.09 42.55 2.49 
300.17 42.65 2.26 
293.94 43.07 2.53 
300.10 42.87 2.28 
300.02 43.08 2.30 
302.57 43.09 2.35 
294.25 43.74 2.61 
299.33 25.75 1.65 
297.09 26.07 1.56 
297.28 26.61 1.60 
297.82 26.74 1.64 
298.85 27.03 1.71 
297.73 27.30 1.67 
297.91 27.59 1.70 
299.24 27.62 1.76 
295.09 42.37 2.84 
299.87 42.83 2.65 
299.80 43.19 2.68 
302.41 43.35 2.76 
302.95 43.23 2.76 
301.78 29.78 2.04 
301.70 29.83 2.04 
294.75 42.52 3.28 
294.66 42.83 3.31 
294.56 43.17 3.34 
302.60 43.64 3.76 
302.59 43.92 3.78 
302.59 44.17 3.81 
301.84 29.71 2.87 
301.90 29.74 2.88 
301.58 30.01 3.47 
301.92 29.62 3.72 
302.13 29.32 4.58 
301.62 29.92 4.39 
297.40 36.98 0.49 
298.44 25.66 0.08 
298.41 25.86 0.09 
297.33 30.33 0.42 
294.56 42.09 1.39 
295.10 42.05 1.39 
293.88 42.27 1.41 
294.86 42.41 1.42 
293.74 42.73 1.45 
294.00 42.53 1.43 
293.96 43.03 1.48 
294.24 43.27 1.50 
294.73 43.69 1.54 
294.70 44.09 1.57 
294.78 44.16 1.58 
304.05 21.13 -0.23 
302.71 21.77 -0.19 
297.37 36.77 1.26 
294.97 42.27 1.72 
294.36 42.52 1.74 
295.71 43.16 1.80 
309.63 44.92 1.66 
297.27 24.96 0.75 
297.73 26.16 0.84 
297.01 26.78 0.86 
297.26 26.51 0.85 
296.78 27.25 0.89 
298.73 27.36 0.95 
297.51 27.89 0.95 
296.69 28.33 0.96 
296.76 28.49 0.98 
296.88 28.51 0.98 
297.23 28.64 1.00 
297.72 28.80 1.02 
298.97 28.46 1.03 
294.81 41.89 2.06 
294.83 42.25 2.09 
294.12 42.61 2.11 
294.62 42.48 2.11 
295.01 42.58 2.13 
293.78 43.19 2.17 
294.12 43.11 2.16 
294.35 43.02 2.16 
294.12 43.48 2.20 
295.38 43.65 2.25 
294.48 42.71 2.51 
300.06 42.66 2.25 
295.14 43.16 2.56 
299.96 43.01 2.29 
300.25 42.99 2.67 
302.42 43.14 2.36 
300.05 43.31 2.51 
294.86 43.98 2.63 
296.77 26.34 1.54 
297.81 27.01 1.63 
298.63 27.09 1.68 
297.27 27.53 1.64 
297.62 27.22 1.64 
299.19 27.46 1.73 
294.93 42.58 2.83 
294.60 43.01 2.86 
294.67 42.85 2.85 
303.39 43.40 2.78 
302.74 43.54 2.78 
310.26 44.85 2.70 
301.70 29.76 2.01 
301.60 29.97 2.02 
295.42 42.45 3.28 
294.71 42.96 3.30 
295.08 42.84 3.30 
294.94 43.21 3.33 
302.93 43.77 3.76 
302.96 44.12 3.80 
301.70 29.69 2.82 
301.72 29.89 2.84 
301.80 29.61 3.64 
302.05 30.04 4.37 
302.04 29.47 4.49 
297.37 36.84 0.55 
297.36 37.05 0.57 
295.14 43.18 1.11 
298.02 25.63 0.12 
298.39 25.77 0.13 
297.59 26.56 0.19 
298.21 26.86 0.21 
297.34 30.35 0.47 
294.29 42.02 1.44 
294.68 42.19 1.45 
295.00 42.10 1.45 
295.51 42.08 1.44 
293.82 42.50 1.48 
294.24 42.45 1.48 
294.89 42.47 1.48 
293.71 42.74 1.50 
293.92 43.25 1.55 
294.11 43.03 1.53 
294.79 43.73 1.60 
294.79 44.17 1.64 
302.77 21.44 -0.16 
297.46 36.68 1.30 
294.09 43.24 1.86 
295.09 43.09 1.84 
300.07 43.25 1.87 
302.57 43.23 1.56 
310.28 44.40 1.68 
309.85 44.60 1.69 
309.76 44.88 1.72 
296.81 25.64 0.80 
297.90 26.04 0.86 
297.20 26.61 0.88 
298.69 27.46 0.97 
299.52 27.72 1.01 
300.54 27.34 1.01 
296.84 28.49 1.00 
297.61 28.22 1.00 
297.66 28.62 1.03 
297.91 29.10 1.07 
297.43 29.89 1.12 
297.35 30.79 1.18 
294.63 41.70 2.06 
294.88 42.00 2.10 
294.61 42.32 2.13 
294.97 42.22 2.12 
294.24 42.70 2.16 
295.03 42.69 2.17 
300.03 42.74 2.29 
294.02 43.24 2.21 
294.28 43.13 2.38 
299.94 43.07 2.32 
294.17 43.63 2.25 
294.40 43.93 2.28 
295.20 42.36 2.82 
294.46 42.81 2.54 
294.82 42.64 2.84 
295.21 42.61 2.54 
295.37 42.62 2.55 
294.28 42.96 2.85 
294.72 43.10 2.73 
300.26 43.07 2.71 
302.97 43.03 2.39 
300.22 43.42 2.74 
303.02 43.27 2.42 
298.76 26.67 1.65 
297.52 27.29 1.63 
297.71 27.51 1.66 
299.17 27.49 1.73 
298.31 27.95 1.71 
298.18 28.37 1.74 
298.52 28.20 1.74 
301.59 29.93 2.02 
295.00 42.67 3.28 
295.20 42.97 3.32 
302.73 43.52 2.81 
302.97 43.34 2.80 
301.69 29.85 2.80 
303.03 43.78 3.77 
302.96 44.09 3.80 
303.02 44.38 3.84 
301.81 29.74 3.59 
301.97 29.65 4.41 
302.06 30.14 4.32 
302.16 30.05 5.22 
301.96 30.41 6.11 
297.45 36.64 0.59 
297.41 36.95 0.62 
295.14 43.34 1.18 
295.21 43.17 1.17 
297.72 25.42 0.12 
297.97 25.65 0.14 
297.76 26.04 0.17 
297.66 26.46 0.20 
298.15 26.78 0.22 
297.89 27.24 0.26 
301.52 30.24 0.50 
297.36 30.41 0.49 
293.75 42.24 1.49 
294.26 42.07 1.47 
295.01 42.16 1.48 
293.78 42.48 1.51 
294.42 42.44 1.51 
293.79 42.68 1.53 
294.03 42.99 1.56 
294.20 43.26 1.59 
299.77 43.26 1.60 
293.54 43.56 1.61 
294.84 44.18 1.67 
294.99 44.44 1.70 
303.61 20.86 -0.18 
302.64 21.44 -0.14 
303.13 21.51 -0.14 
296.70 28.39 0.98 
297.48 36.57 1.32 
297.41 36.88 1.35 
294.79 42.21 2.13 
294.87 42.03 2.11 
294.28 42.50 2.14 
294.88 42.44 2.15 
295.42 42.50 1.83 
294.14 42.76 2.17 
294.72 42.80 2.19 
294.15 43.28 2.22 
294.56 43.14 2.22 
302.56 43.23 1.60 
294.23 43.64 2.26 
302.67 43.53 1.63 
294.46 43.94 2.30 
309.84 44.37 1.72 
309.83 44.63 1.74 
310.03 44.74 1.75 
297.12 26.90 0.89 
298.72 27.43 0.97 
299.24 27.80 1.01 
297.46 28.24 0.99 
297.51 28.46 1.01 
297.57 28.54 1.02 
297.45 28.83 1.03 
297.64 29.01 1.05 
299.33 28.64 1.07 
297.48 29.67 1.10 
297.45 29.95 1.12 
297.39 30.55 1.16 
300.06 42.72 2.30 
299.96 43.13 2.34 
299.91 43.48 2.38 
294.94 43.90 2.67 
303.32 21.64 0.70 
296.16 26.83 1.50 
296.31 27.19 1.53 
297.76 27.23 1.61 
297.11 27.47 1.59 
297.68 27.56 1.62 
297.39 28.19 1.65 
298.28 27.89 1.68 
297.81 28.33 1.68 
294.73 42.53 2.80 
295.09 42.45 2.81 
294.61 42.81 2.83 
294.50 43.04 2.85 
300.25 43.28 2.74 
302.68 43.19 2.41 
302.94 43.02 2.40 
298.90 26.09 1.59 
301.63 29.97 1.99 
295.17 42.72 3.28 
303.63 43.30 2.83 
302.69 43.34 2.81 
303.05 43.59 2.84 
310.13 44.98 2.77 
302.53 43.82 3.30 
302.98 43.72 3.31 
301.70 29.80 2.74 
302.79 43.60 3.73 
302.91 43.90 3.77 
302.81 44.10 3.78 
302.91 44.39 3.82 
301.83 29.73 3.51 
302.03 29.79 5.09 
302.18 29.56 5.10 
301.86 30.09 5.09 
301.98 30.44 5.13 
297.03 36.64 0.43 
295.19 43.16 1.26 
302.88 21.53 -0.10 
298.06 25.76 0.19 
298.37 26.17 0.22 
297.94 26.46 0.24 
298.00 26.84 0.27 
301.58 30.09 0.53 
297.35 30.42 0.54 
294.09 42.15 1.55 
294.93 42.11 1.55 
293.83 42.54 1.58 
294.29 42.61 1.90 
294.62 42.49 1.58 
293.61 42.73 1.60 
293.90 43.02 1.63 
294.02 43.40 1.67 
294.47 43.32 1.66 
302.60 43.42 1.69 
295.02 43.78 1.71 
294.84 44.11 1.74 
301.91 44.16 1.76 
302.57 44.01 1.74 
302.10 44.48 1.79 
302.21 44.74 1.81 
304.30 22.34 -0.04 
303.97 23.16 0.02 
296.72 25.48 0.79 
297.33 26.54 0.88 
297.67 27.06 0.93 
296.73 27.81 0.96 
297.03 28.30 1.00 
297.17 28.12 0.99 
296.74 28.56 1.01 
297.62 28.78 1.05 
297.17 29.22 1.07 
297.48 29.78 1.12 
297.44 30.06 1.14 
297.48 29.94 1.13 
297.40 30.45 1.17 
297.47 36.62 1.38 
297.46 36.80 1.40 
294.80 41.80 2.13 
294.87 42.09 2.16 
295.51 42.13 1.86 
294.47 42.58 2.20 
294.83 42.39 2.03 
294.15 42.71 2.21 
294.41 43.02 2.24 
293.91 43.20 2.25 
294.00 43.40 2.28 
294.40 43.23 2.27 
294.23 43.71 2.31 
294.32 43.69 2.31 
294.36 43.98 2.35 
309.90 44.42 1.81 
309.04 44.74 1.83 
309.89 44.72 1.83 
309.21 45.10 1.87 
303.36 21.81 0.73 
297.79 26.85 0.92 
300.23 27.42 1.02 
299.20 28.17 1.05 
299.27 28.38 1.07 
299.38 28.76 1.10 
294.61 42.42 2.56 
295.26 42.42 2.57 
300.05 42.79 2.36 
302.77 42.90 2.44 
299.92 43.34 2.41 
299.92 43.11 2.39 
302.76 43.15 2.46 
296.72 25.85 1.45 
297.97 26.55 1.56 
296.15 26.74 1.48 
295.75 27.17 1.49 
297.40 27.41 1.59 
297.50 27.43 1.59 
298.24 27.09 1.61 
298.99 27.56 1.68 
298.81 28.00 1.70 
299.59 28.09 1.75 
294.76 42.52 2.82 
295.15 42.47 2.84 
294.67 42.80 2.85 
294.49 43.07 2.87 
302.79 43.31 2.86 
302.79 43.53 2.88 
303.41 43.43 2.88 
309.89 44.92 2.82 
309.71 45.11 2.83 
301.61 29.99 1.99 
295.10 42.50 3.27 
295.33 42.37 3.27 
295.05 42.70 3.29 
302.95 43.62 3.32 
302.58 43.84 3.33 
302.84 43.79 3.34 
301.83 29.90 2.73 
302.83 43.49 3.75 
302.82 43.97 3.80 
303.19 43.85 3.80 
302.71 44.47 3.84 
303.18 44.38 3.86 
301.80 29.80 3.46 
301.94 29.54 4.20 
302.02 29.71 4.22 
302.07 30.16 4.19 
297.33 30.53 -0.05 
297.03 36.69 0.46 
297.41 36.72 0.71 
295.19 43.14 1.30 
302.94 21.59 -0.10 
303.73 22.53 -0.03 
304.40 23.11 0.02 
299.37 24.90 0.13 
298.12 25.46 0.16 
298.01 25.88 0.19 
298.37 26.19 0.22 
298.00 26.56 0.25 
298.04 26.81 0.26 
298.51 26.92 0.28 
301.49 30.18 0.54 
297.39 30.43 0.54 
294.44 42.01 1.55 
295.10 42.09 1.56 
295.50 42.11 1.71 
293.76 42.64 1.61 
293.92 42.53 1.60 
294.31 42.54 1.75 
294.92 42.50 1.60 
293.74 42.81 1.62 
295.10 43.04 1.95 
293.60 43.49 1.69 
293.87 43.34 1.68 
294.43 43.34 1.68 
294.95 43.19 1.97 
299.75 43.31 1.69 
302.62 43.25 1.69 
294.73 43.69 1.71 
294.50 43.97 1.74 
301.68 44.21 1.78 
302.03 44.00 1.76 
302.56 43.97 1.76 
302.19 44.55 1.81 
296.84 26.48 0.84 
297.74 26.94 0.89 
297.43 27.29 0.91 
296.64 27.95 0.94 
297.31 28.15 0.97 
296.68 28.60 0.99 
296.58 28.85 1.00 
298.57 28.81 1.05 
297.47 29.86 1.10 
297.45 30.09 1.12 
297.39 30.51 1.15 
297.41 36.65 1.39 
297.46 36.87 1.41 
294.83 41.81 2.12 
294.82 42.09 2.15 
295.00 42.18 2.16 
294.27 42.51 2.18 
294.87 42.59 2.20 
294.09 42.74 2.20 
294.39 43.06 2.24 
294.84 42.89 2.23 
293.93 43.32 2.26 
294.39 43.25 2.26 
300.11 43.26 1.99 
294.18 43.74 2.31 
294.27 43.60 2.29 
294.74 43.59 2.30 
296.14 43.81 2.03 
302.39 43.89 2.06 
302.81 43.69 2.04 
295.18 44.08 2.05 
309.33 44.99 1.88 
309.63 45.13 1.89 
310.07 44.99 1.88 
310.37 44.80 1.86 
303.32 23.83 0.83 
299.23 27.54 0.98 
299.84 27.23 0.97 
300.03 42.83 2.35 
302.96 43.06 2.45 
295.40 43.28 2.65 
299.92 43.17 2.38 
302.36 43.32 2.46 
302.68 43.18 2.45 
295.96 43.68 2.70 
302.49 44.80 2.62 
310.77 45.08 2.21 
296.21 26.21 1.40 
296.38 25.99 1.39 
296.86 26.02 1.42 
295.80 27.02 1.43 
296.33 26.89 1.45 
296.13 27.49 1.48 
297.13 27.45 1.52 
298.69 27.38 1.60 
297.38 27.58 1.55 
297.21 28.01 1.57 
296.89 28.43 1.58 
297.46 30.16 1.74 
294.82 42.52 2.79 
295.01 42.32 2.78 
294.58 42.68 2.80 
294.63 42.92 2.83 
294.67 43.13 2.86 
302.77 43.39 2.86 
303.51 43.38 2.87 
310.16 44.93 2.82 
297.64 26.92 2.14 
301.65 30.04 1.95 
294.86 43.03 3.28 
302.91 43.69 3.30 
301.75 29.75 2.64 
301.69 29.93 2.64 
303.16 43.72 3.76 
302.77 43.85 3.75 
302.96 44.28 3.80 
301.80 29.68 3.35 
301.79 29.85 3.36 
301.93 29.60 4.08 
302.18 29.82 4.87 
302.15 30.15 4.91 
297.35 30.46 0.01 
297.03 36.69 0.54 
294.77 43.25 1.15 
297.42 36.74 0.78 
295.15 43.23 1.38 
303.18 44.07 1.32 
305.74 21.56 -0.05 
303.66 22.47 0.00 
303.39 23.26 0.06 
304.43 23.19 0.06 
299.55 24.70 0.15 
298.13 25.40 0.19 
298.12 25.79 0.22 
298.22 25.92 0.23 
297.75 26.43 0.27 
298.32 26.12 0.25 
298.02 26.62 0.28 
298.47 26.83 0.30 
297.35 30.40 0.58 
301.50 30.26 0.59 
297.44 36.67 1.44 
297.40 36.84 1.45 
293.95 42.30 1.63 
294.59 42.05 1.60 
295.05 42.18 1.62 
295.59 42.04 1.61 
293.76 42.58 1.66 
294.26 42.55 1.65 
294.85 42.45 1.64 
293.81 42.86 1.68 
294.40 43.18 1.72 
302.77 43.19 1.75 
293.57 43.47 1.74 
293.86 43.44 1.74 
294.21 43.34 1.73 
301.85 43.54 1.78 
302.30 43.37 1.76 
302.61 43.33 1.76 
294.36 43.82 1.78 
302.39 43.99 1.82 
294.42 44.12 1.81 
302.00 44.03 1.82 
302.39 44.71 1.89 
297.41 24.60 0.73 
297.25 25.56 0.79 
298.88 25.54 0.83 
296.97 26.39 0.84 
296.67 26.63 0.85 
297.74 26.57 0.87 
297.73 26.94 0.90 
297.82 26.89 0.90 
298.20 27.02 0.92 
297.31 27.38 0.92 
297.88 27.42 0.94 
299.83 27.28 0.99 
297.40 27.90 0.96 
297.45 28.24 0.99 
298.79 28.21 1.02 
296.56 28.73 1.00 
298.60 28.69 1.05 
297.20 29.13 1.05 
297.46 29.90 1.11 
297.43 30.17 1.14 
297.40 30.50 1.16 
294.81 41.83 2.15 
294.92 41.70 2.14 
295.00 42.19 2.19 
294.32 42.60 2.22 
294.87 42.49 2.22 
294.98 42.54 2.23 
294.32 42.87 2.25 
294.74 43.10 2.28 
293.91 43.25 2.28 
294.28 43.22 2.29 
294.59 43.21 2.29 
302.48 43.53 2.09 
294.19 43.66 2.33 
302.56 43.80 2.11 
310.41 44.67 1.92 
309.52 45.06 1.95 
309.91 44.91 1.94 
303.25 21.62 0.69 
295.93 26.93 1.41 
296.48 26.94 1.44 
296.18 27.39 1.45 
296.77 27.58 1.49 
294.74 42.55 2.80 
294.99 42.40 2.79 
294.34 43.02 2.84 
294.67 42.92 2.84 
300.00 42.95 2.40 
302.82 42.89 2.46 
299.95 43.17 2.42 
302.92 43.16 2.49 
294.62 43.93 2.73 
296.60 25.36 1.34 
296.60 25.89 1.38 
297.90 26.66 1.49 
297.75 26.85 1.50 
297.29 27.42 1.51 
297.40 27.64 1.53 
298.50 27.83 1.60 
298.25 28.17 1.61 
297.37 28.73 1.61 
298.10 28.41 1.62 
298.06 28.78 1.65 
297.46 29.94 1.70 
297.45 30.18 1.72 
295.36 42.76 2.85 
302.77 43.50 2.90 
302.97 43.34 2.89 
303.59 43.22 2.89 
309.68 45.03 2.86 
310.16 44.90 2.86 
298.63 25.66 2.09 
297.69 26.84 2.09 
298.69 27.56 2.21 
294.97 42.79 3.26 
302.50 44.55 3.39 
301.69 29.89 2.60 
303.26 43.84 3.78 
302.77 44.07 3.78 
302.81 44.46 3.83 
301.81 29.80 3.29 
301.92 29.70 3.99 
302.11 30.00 4.80 
302.26 29.90 5.60 
302.28 30.10 5.61 
297.05 36.72 0.64 
294.77 43.25 1.27 
294.41 41.96 1.69 
294.15 42.35 1.73 
293.88 42.68 1.76 
294.17 42.54 1.75 
293.93 43.00 1.79 
295.22 43.13 1.49 
293.60 43.46 1.84 
293.92 43.38 1.83 
300.15 43.35 1.43 
303.18 44.06 1.44 
304.58 21.50 -0.04 
306.29 21.38 -0.04 
303.16 21.77 -0.03 
305.17 22.75 0.05 
302.86 23.23 0.08 
299.17 24.94 0.20 
298.33 25.91 0.27 
297.82 26.41 0.30 
298.34 26.10 0.28 
298.09 26.60 0.32 
298.47 26.79 0.34 
297.40 30.38 0.62 
301.52 30.23 0.64 
295.17 41.96 1.69 
295.04 42.29 1.80 
294.89 42.52 1.75 
299.80 43.22 1.83 
302.60 43.25 1.85 
302.88 43.13 1.83 
301.93 43.53 1.87 
302.19 43.42 1.86 
294.92 43.85 1.89 
302.16 43.99 1.92 
302.53 43.90 1.91 
294.87 44.09 2.21 
302.51 44.33 1.95 
303.15 44.87 2.01 
296.81 25.32 0.77 
297.29 25.42 0.79 
298.87 25.54 0.84 
309.10 25.43 0.29 
297.23 26.24 0.85 
297.09 26.68 0.88 
297.81 26.89 0.91 
296.60 27.39 0.92 
297.39 27.47 0.94 
297.93 27.47 0.96 
298.99 27.50 0.99 
299.99 27.53 1.02 
298.07 28.02 1.01 
297.45 28.24 1.00 
298.91 28.27 1.05 
297.49 28.66 1.04 
297.29 28.86 1.05 
297.34 28.99 1.06 
297.54 29.29 1.09 
297.47 29.98 1.14 
297.45 30.25 1.16 
297.44 30.47 1.18 
294.87 41.93 2.23 
294.25 42.35 2.26 
294.79 42.23 2.26 
294.91 42.12 2.25 
294.04 42.74 2.30 
294.30 42.64 2.29 
295.06 42.48 2.29 
294.51 43.02 2.34 
293.96 43.26 2.36 
294.15 43.19 2.35 
294.73 43.32 2.38 
294.31 43.69 2.41 
310.35 44.50 2.00 
310.39 44.79 2.03 
309.39 45.13 2.06 
309.71 45.13 2.06 
310.08 44.98 2.05 
303.89 21.16 0.67 
303.27 23.93 0.85 
303.91 24.16 0.88 
297.38 25.54 1.38 
296.38 26.74 1.40 
296.36 26.99 1.42 
296.98 27.19 1.47 
296.55 27.42 1.46 
297.47 27.43 1.51 
297.39 27.61 1.52 
296.65 28.57 1.55 
297.55 29.77 1.69 
297.50 30.10 1.71 
297.44 30.44 1.74 
294.64 42.56 2.75 
295.57 42.38 2.86 
295.70 42.63 2.90 
294.71 42.85 2.78 
294.88 42.78 2.88 
299.96 43.09 2.48 
300.05 42.82 2.45 
294.37 43.22 2.91 
294.63 43.31 2.73 
294.96 43.31 2.85 
299.94 43.33 2.51 
310.97 45.11 2.38 
297.97 25.55 1.41 
298.69 25.72 1.45 
299.08 25.81 1.48 
296.36 27.25 1.98 
299.26 27.43 1.60 
298.48 27.86 1.59 
298.26 28.13 1.60 
299.33 28.32 1.67 
299.39 28.46 1.68 
300.49 42.85 2.84 
295.09 43.23 3.36 
302.96 43.34 2.96 
303.53 43.22 2.96 
309.77 44.78 2.91 
309.83 45.05 2.95 
296.36 26.78 1.95 
297.96 27.10 2.08 
295.08 42.81 3.45 
302.56 43.71 3.34 
302.46 44.41 3.42 
310.36 44.59 3.29 
310.37 44.88 3.32 
301.70 29.86 2.57 
302.71 43.88 3.81 
303.23 43.67 3.81 
303.32 43.84 3.83 
303.02 44.22 3.86 
302.84 44.48 3.88 
301.78 29.79 3.22 
301.94 29.69 3.90 
302.14 29.98 4.72 
297.41 30.49 0.04 
297.11 36.65 0.59 
294.85 43.22 1.23 
297.42 30.44 0.56 
297.50 36.70 0.84 
293.76 42.19 1.65 
294.24 42.22 1.65 
294.42 42.05 1.64 
295.05 42.12 1.64 
295.51 42.08 1.64 
293.68 42.68 1.70 
294.08 42.64 1.70 
294.59 42.66 1.70 
294.98 42.49 1.68 
294.48 42.92 1.72 
295.27 43.13 1.45 
293.55 43.26 1.76 
293.72 43.39 1.77 
294.11 43.35 1.77 
294.45 43.28 1.76 
304.20 21.31 -0.13 
302.96 21.59 -0.11 
303.32 21.90 -0.09 
303.71 22.43 -0.05 
303.37 22.99 -0.01 
304.40 23.19 0.01 
298.69 24.70 0.11 
298.80 25.20 0.15 
298.48 25.64 0.18 
298.38 25.91 0.20 
298.02 26.45 0.24 
298.45 26.70 0.26 
301.54 30.14 0.56 
297.53 36.67 1.44 
295.48 42.15 1.95 
294.50 42.70 2.00 
295.50 42.53 1.99 
302.14 43.25 1.77 
302.42 43.15 1.76 
303.14 43.21 1.77 
293.98 43.55 2.09 
299.81 43.29 1.77 
302.04 43.65 1.81 
302.41 43.59 1.80 
301.85 43.85 1.83 
302.37 44.46 1.89 
299.01 25.27 0.74 
298.71 25.52 0.75 
297.15 26.39 0.77 
298.12 26.36 0.79 
297.81 26.61 0.80 
296.82 27.12 0.81 
296.67 27.40 0.83 
297.60 27.68 0.87 
299.10 27.52 0.90 
300.00 27.38 0.91 
298.95 27.75 0.91 
299.98 27.74 0.94 
297.51 28.66 0.95 
297.53 28.97 0.97 
297.47 30.20 1.07 
297.46 30.57 1.10 
294.79 42.33 2.18 
294.87 42.23 2.17 
295.38 42.14 2.17 
294.31 42.55 2.20 
295.28 42.79 2.25 
293.79 42.84 2.22 
294.26 42.85 2.23 
294.44 42.83 2.23 
299.96 43.11 2.39 
300.05 42.95 2.37 
294.08 43.40 2.29 
299.97 43.32 2.41 
294.51 43.79 2.34 
309.83 44.46 1.91 
310.48 44.41 1.90 
309.50 44.88 1.95 
309.98 44.78 1.94 
309.35 45.23 1.98 
301.80 23.61 0.69 
304.38 23.67 0.76 
297.19 24.39 1.18 
297.18 24.74 1.20 
296.38 25.39 1.20 
298.02 25.85 1.31 
296.39 26.63 1.28 
296.59 26.70 1.30 
297.12 27.22 1.36 
297.83 26.92 1.37 
296.88 27.30 1.35 
297.56 27.31 1.39 
297.99 27.55 1.42 
298.64 27.59 1.46 
296.59 27.68 1.36 
296.75 28.27 1.41 
296.99 28.38 1.43 
297.52 28.26 1.45 
297.86 28.39 1.48 
297.29 28.73 1.47 
297.52 29.86 1.57 
297.52 30.19 1.60 
297.49 30.67 1.63 
295.26 42.01 2.52 
294.66 42.49 2.72 
295.02 42.42 2.73 
295.39 42.43 2.74 
295.81 42.46 2.77 
294.30 43.06 2.78 
294.61 42.98 2.78 
295.03 42.95 2.79 
300.36 43.09 2.76 
302.65 43.04 2.44 
302.83 43.24 2.47 
303.21 42.94 2.44 
294.64 43.46 2.84 
294.94 43.35 2.84 
302.66 43.50 2.49 
302.31 44.60 2.60 
298.84 25.27 1.31 
296.89 25.95 1.79 
300.21 26.00 1.43 
296.96 26.26 1.81 
296.22 26.75 1.79 
296.96 26.75 1.84 
296.38 27.18 1.83 
297.36 26.98 1.89 
297.16 27.51 1.91 
300.32 27.44 1.53 
295.03 42.53 3.22 
295.04 42.83 3.25 
300.10 43.07 3.03 
303.65 43.18 2.85 
302.85 44.55 2.98 
310.32 44.81 2.82 
309.53 45.07 2.83 
310.03 44.96 2.83 
297.38 26.29 1.85 
297.93 26.65 1.91 
298.52 26.53 1.94 
297.81 27.04 1.92 
297.78 27.52 1.95 
298.76 27.48 2.02 
301.76 29.94 2.42 
300.46 43.04 3.47 
302.70 43.55 3.20 
303.10 43.49 3.21 
302.30 44.15 3.26 
302.36 44.63 3.32 
302.77 44.48 3.32 
310.13 44.71 3.18 
310.71 44.63 3.19 
302.96 43.35 3.63 
303.12 43.84 3.69 
302.64 44.64 3.76 
301.82 29.77 3.04 
301.94 29.70 3.69 
302.31 30.00 5.26 
297.39 30.45 0.07 
297.10 36.65 0.63 
294.86 43.21 1.28 
298.34 26.01 0.20 
298.03 26.43 0.23 
298.38 26.60 0.25 
297.43 30.34 0.55 
294.44 42.06 1.66 
293.82 42.18 1.68 
294.22 42.27 1.69 
294.32 42.15 1.67 
294.97 42.18 1.68 
295.35 42.20 1.68 
295.64 42.19 1.68 
293.70 42.70 1.73 
294.14 42.64 1.73 
294.52 42.59 1.72 
294.74 42.87 1.75 
294.48 43.26 1.79 
295.28 43.11 1.51 
293.64 43.42 1.81 
294.18 43.33 1.80 
300.21 43.38 1.44 
303.25 44.01 1.44 
306.05 22.12 -0.08 
303.86 22.46 -0.06 
302.69 22.68 -0.05 
303.18 22.92 -0.03 
304.23 22.99 -0.02 
304.12 23.24 0.00 
298.64 24.73 0.10 
298.56 25.54 0.16 
301.56 30.14 0.56 
297.51 36.76 1.46 
295.83 42.03 1.97 
294.27 42.40 2.19 
294.18 42.62 2.12 
293.84 42.88 2.23 
302.12 43.29 1.81 
302.49 43.16 1.79 
303.28 43.16 1.80 
301.96 43.68 1.85 
302.41 43.58 1.84 
295.14 43.91 2.16 
301.87 43.86 1.86 
295.29 44.14 2.18 
302.20 44.33 1.91 
302.08 44.61 1.94 
298.41 25.53 0.70 
297.35 26.34 0.73 
297.96 26.48 0.76 
298.20 26.27 0.75 
297.74 26.87 0.78 
296.73 27.25 0.78 
297.99 26.97 0.80 
297.66 27.58 0.83 
299.82 27.57 0.89 
297.73 27.79 0.85 
299.07 27.87 0.89 
299.98 27.98 0.93 
297.54 28.90 0.93 
297.46 29.84 1.01 
297.47 30.20 1.04 
297.42 30.56 1.07 
294.82 42.02 2.15 
295.25 41.94 2.51 
294.50 42.19 2.17 
294.89 42.24 2.36 
295.31 42.09 2.35 
294.30 42.55 2.20 
294.45 42.68 2.22 
294.80 42.70 2.59 
294.51 42.97 2.26 
294.76 43.15 2.64 
300.05 43.01 2.38 
294.22 43.38 2.30 
294.59 43.24 2.29 
299.97 43.29 2.41 
303.02 43.36 2.12 
294.54 43.92 2.37 
302.54 44.02 2.19 
309.77 44.41 1.94 
310.07 44.55 1.96 
310.43 44.42 1.94 
309.58 44.90 1.99 
310.19 44.81 2.14 
309.23 45.30 2.03 
309.53 45.15 2.01 
304.08 21.23 0.54 
302.89 21.43 0.53 
302.38 21.86 0.54 
304.55 21.95 0.60 
297.42 24.45 1.13 
298.00 24.10 1.13 
298.34 24.46 1.17 
296.66 25.24 1.14 
298.01 25.94 1.25 
297.83 26.48 1.28 
296.60 26.56 1.22 
297.44 26.55 1.27 
297.91 26.70 1.30 
298.80 26.72 1.34 
297.71 27.15 1.32 
297.83 27.27 1.33 
298.08 27.38 1.35 
298.77 27.37 1.39 
296.81 27.96 1.33 
297.83 27.91 1.38 
299.60 28.06 1.48 
296.83 28.23 1.35 
299.05 28.48 1.48 
299.70 28.20 1.50 
296.39 28.48 1.35 
297.41 28.72 1.42 
298.07 28.77 1.46 
297.98 28.96 1.47 
297.57 29.48 1.49 
297.56 29.86 1.52 
297.51 30.24 1.54 
297.49 30.66 1.58 
294.66 42.56 2.71 
295.02 42.60 2.73 
295.45 42.53 2.66 
295.82 42.51 2.76 
294.44 43.02 2.76 
294.93 42.99 2.73 
302.92 43.16 2.47 
294.26 43.50 2.82 
294.58 43.42 2.82 
302.39 43.41 2.48 
302.78 43.31 2.48 
294.97 43.93 2.73 
302.85 43.78 2.54 
302.29 44.41 2.60 
302.57 44.77 2.64 
296.70 25.15 1.64 
297.47 25.24 1.70 
297.83 25.29 1.73 
297.43 26.22 1.76 
296.24 26.71 1.70 
297.14 26.61 1.76 
298.04 26.53 1.82 
296.46 27.09 1.74 
296.91 27.11 1.77 
296.96 27.12 1.78 
297.82 27.04 1.84 
298.64 27.04 1.90 
297.58 27.58 1.85 
298.44 27.73 1.93 
297.44 28.07 1.88 
297.93 28.14 1.92 
298.16 28.40 1.95 
295.21 42.36 3.13 
294.92 42.56 3.23 
295.29 42.49 3.24 
294.90 42.84 3.23 
295.31 42.77 3.18 
300.13 43.02 3.01 
303.67 43.15 2.86 
294.70 43.21 3.21 
295.43 43.36 3.26 
302.61 43.58 3.19 
303.24 43.43 3.20 
302.86 43.89 3.24 
303.39 43.71 3.24 
302.58 44.08 2.93 
310.13 44.49 2.79 
302.47 44.55 3.30 
309.76 44.88 2.83 
310.19 44.77 2.82 
309.61 45.09 2.85 
298.52 25.40 1.79 
299.09 27.44 1.96 
299.04 28.10 2.00 
295.43 42.75 3.76 
300.41 43.22 3.47 
309.91 44.84 3.20 
310.43 44.76 3.21 
298.58 25.51 2.34 
303.48 43.60 3.66 
303.10 44.40 3.74 
301.80 29.79 2.93 
301.93 29.72 3.55 
302.29 30.00 5.10 
297.56 30.36 0.04 
297.30 36.51 0.60 
297.27 36.63 0.61 
295.06 43.13 1.26 
298.62 25.04 0.08 
298.47 25.91 0.15 
298.18 26.37 0.18 
298.45 26.45 0.19 
297.55 30.32 0.51 
297.09 36.62 0.86 
294.61 41.92 1.62 
295.63 41.98 1.62 
293.96 42.14 1.64 
294.10 42.09 1.63 
294.54 42.10 1.64 
295.06 42.24 1.65 
295.39 42.11 1.63 
295.82 42.11 1.63 
293.82 42.69 1.70 
294.12 42.62 1.69 
294.82 42.68 1.70 
293.77 43.16 1.75 
294.24 43.15 1.75 
294.61 43.22 1.76 
299.80 43.21 1.41 
294.30 43.33 1.77 
294.57 43.53 1.79 
302.89 43.91 1.41 
294.69 44.11 1.85 
295.26 44.32 1.87 
303.66 21.11 -0.22 
304.21 21.34 -0.20 
303.29 21.50 -0.19 
303.39 21.85 -0.16 
303.95 21.87 -0.16 
303.87 22.33 -0.12 
305.21 22.27 -0.13 
297.83 27.49 0.76 
297.59 28.56 0.83 
297.75 28.94 0.87 
297.60 29.91 0.94 
297.57 30.41 0.98 
295.10 41.98 2.09 
294.61 42.26 2.12 
295.04 42.19 2.12 
295.58 42.09 2.11 
295.71 42.00 2.11 
294.20 42.58 2.07 
294.54 42.51 2.14 
294.97 42.41 1.96 
293.99 42.90 2.18 
294.06 42.81 2.17 
294.59 42.79 2.18 
294.85 42.98 2.21 
299.84 43.15 2.05 
300.04 43.18 1.74 
302.76 43.19 1.75 
303.08 42.99 1.73 
294.21 43.36 2.18 
294.62 43.33 2.24 
302.25 43.44 1.77 
302.44 43.33 1.76 
294.70 43.88 2.31 
302.85 43.93 1.82 
302.16 44.24 1.86 
302.86 44.16 1.85 
310.03 44.31 1.87 
302.51 44.60 1.89 
309.39 44.75 1.91 
309.17 45.29 1.97 
309.54 45.16 1.95 
302.83 20.97 0.42 
303.02 21.35 0.45 
300.14 25.23 0.65 
297.65 25.56 0.61 
297.88 26.08 0.65 
297.60 26.34 0.67 
298.03 26.22 0.67 
298.03 26.74 0.71 
300.53 27.17 0.80 
300.63 27.17 0.80 
296.45 27.90 1.21 
296.70 27.98 1.23 
298.71 27.81 0.80 
299.54 27.87 0.83 
300.17 28.23 0.87 
294.78 41.96 2.44 
294.45 42.48 2.49 
295.22 42.45 2.50 
300.21 43.02 2.32 
302.70 43.17 2.39 
302.85 42.99 2.37 
294.57 43.27 2.58 
301.80 43.43 2.08 
302.24 43.45 2.25 
302.51 43.29 2.40 
294.26 43.57 2.61 
302.09 43.74 2.11 
310.11 44.39 1.88 
310.55 44.29 1.87 
310.27 44.68 1.90 
309.84 45.13 2.26 
303.59 22.16 0.51 
303.63 22.56 0.54 
304.48 23.58 0.63 
297.32 23.86 0.99 
297.16 24.28 1.01 
298.16 24.17 1.05 
298.21 24.85 1.09 
297.09 25.40 1.07 
297.90 25.28 1.10 
299.10 25.36 1.16 
297.06 25.83 1.10 
299.01 25.88 1.19 
296.97 26.18 1.12 
297.62 26.51 1.17 
297.99 26.80 1.21 
299.67 26.76 1.28 
297.89 27.03 1.22 
297.52 27.51 1.23 
297.36 27.98 1.26 
299.49 27.77 1.35 
297.68 28.35 1.30 
297.67 28.56 1.32 
297.94 28.74 1.34 
299.62 28.74 1.43 
298.01 28.85 1.35 
297.69 29.79 1.41 
297.64 30.29 1.45 
297.62 30.56 1.47 
295.36 42.04 2.59 
295.02 42.57 2.64 
295.56 42.58 2.66 
295.98 42.49 2.67 
294.67 42.97 2.68 
295.10 42.89 2.69 
299.96 43.15 2.69 
303.15 43.16 2.40 
303.40 43.05 2.39 
294.67 43.40 2.74 
295.22 43.32 2.75 
302.83 43.52 2.80 
302.95 43.33 2.78 
303.05 43.74 2.46 
302.10 44.13 2.85 
302.33 44.56 2.54 
302.88 44.74 2.57 
303.51 21.68 1.14 
299.06 25.16 1.68 
296.64 25.49 1.53 
296.83 25.27 1.53 
298.13 25.75 1.65 
298.32 25.72 1.66 
296.26 26.22 1.54 
297.17 26.23 1.61 
299.53 26.01 1.76 
296.47 26.59 1.58 
297.45 26.74 1.66 
299.31 26.56 1.78 
296.05 26.91 1.57 
297.17 26.97 1.65 
298.48 27.06 1.75 
299.60 26.98 1.82 
297.32 27.22 1.68 
299.23 27.37 1.82 
297.31 27.80 1.72 
298.64 27.94 1.82 
299.86 27.89 1.90 
297.57 28.02 1.75 
298.28 28.04 1.80 
299.85 28.02 1.91 
295.61 42.21 3.11 
294.86 42.59 3.04 
295.17 42.60 3.14 
295.43 42.45 3.10 
294.37 43.06 3.08 
294.85 42.76 3.06 
294.98 42.86 3.16 
300.30 42.99 2.91 
302.89 43.16 3.04 
294.99 43.32 3.14 
302.78 43.30 3.06 
302.95 43.62 3.10 
303.64 43.71 3.14 
302.70 44.36 3.18 
302.65 44.55 3.20 
310.07 44.80 2.73 
310.58 44.72 2.74 
309.93 45.01 2.75 
298.07 26.81 2.20 
301.90 29.91 2.20 
295.04 42.78 3.61 
300.07 43.09 3.34 
302.83 43.65 3.53 
302.34 44.55 3.61 
298.66 25.73 2.20 
299.05 27.19 2.32 
301.94 29.75 2.77 
310.17 45.30 4.06 
302.05 29.68 3.36 
301.82 29.92 4.79 
297.54 30.38 0.10 
297.26 36.62 0.68 
295.04 43.10 1.35 
303.01 44.02 1.28 
298.79 25.25 0.11 
299.03 24.94 0.09 
298.45 25.92 0.17 
298.30 26.37 0.20 
297.54 30.31 0.54 
297.08 36.65 0.94 
294.65 41.94 1.69 
295.60 41.88 1.68 
293.96 42.08 1.70 
294.53 42.08 1.70 
295.13 42.07 1.70 
295.33 42.04 1.70 
295.90 42.21 1.71 
293.85 42.63 1.76 
294.14 42.53 1.75 
294.84 42.68 1.77 
293.69 43.14 1.82 
294.62 43.01 1.80 
294.94 42.95 1.58 
294.19 43.28 1.84 
294.44 43.22 1.83 
302.88 43.89 1.51 
304.18 21.45 -0.18 
305.76 21.70 -0.16 
303.38 21.82 -0.15 
303.46 21.99 -0.14 
303.87 22.22 -0.12 
303.55 22.84 -0.07 
309.76 25.38 0.15 
297.68 25.37 0.59 
298.02 25.53 0.61 
298.32 25.31 0.60 
297.64 26.28 0.66 
298.09 26.58 0.69 
297.60 27.50 0.75 
297.81 27.35 0.74 
298.69 27.45 0.77 
298.78 27.92 0.81 
298.87 28.12 0.83 
297.61 29.96 0.95 
297.59 30.28 0.98 
295.00 41.95 1.98 
294.10 42.19 2.01 
294.61 42.17 2.15 
294.81 42.05 2.14 
295.37 42.08 2.16 
295.84 42.09 2.17 
295.99 42.05 2.16 
293.89 42.49 2.04 
294.57 42.48 2.15 
295.03 42.40 2.19 
295.24 42.40 2.19 
294.08 42.82 2.22 
294.60 42.78 2.23 
294.80 43.08 2.27 
300.05 43.09 1.81 
302.32 43.21 1.82 
302.67 43.21 1.82 
302.76 43.04 1.80 
303.33 43.10 1.81 
293.78 43.46 2.14 
294.52 43.41 2.26 
302.06 43.68 1.87 
302.55 43.47 1.85 
294.51 43.68 2.34 
294.91 43.83 2.37 
302.69 43.79 1.88 
302.83 43.99 1.91 
302.15 44.14 1.92 
302.33 44.47 1.96 
310.04 44.27 1.94 
310.13 44.69 1.98 
310.41 44.93 2.01 
309.28 45.19 2.04 
309.53 45.08 2.03 
310.04 45.04 2.02 
302.78 21.58 0.44 
303.88 22.17 0.51 
304.48 23.44 0.61 
296.79 25.34 1.02 
296.71 25.82 1.05 
296.78 26.22 1.08 
297.06 26.34 1.10 
297.41 26.45 1.12 
300.46 27.19 0.80 
299.52 27.38 0.79 
297.37 27.99 1.23 
296.91 28.36 1.24 
296.87 28.54 1.25 
297.79 28.59 1.30 
297.38 29.07 1.31 
297.68 29.55 1.37 
297.67 29.82 1.39 
297.63 30.31 1.43 
297.59 30.61 1.45 
294.31 42.16 2.49 
294.84 42.11 2.55 
295.40 42.16 2.63 
294.15 42.56 2.54 
294.59 42.48 2.59 
294.90 42.44 2.65 
294.43 43.02 2.65 
294.80 42.94 2.71 
300.19 43.03 2.37 
302.96 43.06 2.43 
303.35 43.00 2.43 
294.46 43.36 2.70 
294.77 43.22 2.63 
300.16 43.24 2.39 
302.70 43.43 2.47 
302.67 43.73 2.50 
303.02 43.70 2.50 
302.34 44.40 2.57 
309.06 44.52 2.27 
302.84 44.66 2.45 
309.30 45.08 2.33 
304.45 21.17 0.45 
305.97 22.21 0.56 
304.77 22.62 0.56 
298.09 24.25 1.01 
297.77 24.70 1.03 
298.42 24.60 1.05 
298.16 25.16 1.07 
298.67 25.29 1.11 
295.96 26.24 1.47 
296.33 26.30 1.50 
298.54 26.25 1.16 
296.06 26.55 1.49 
296.22 26.49 1.50 
296.68 26.76 1.55 
297.98 26.77 1.17 
300.37 26.49 1.27 
296.18 26.78 1.52 
296.85 26.97 1.57 
297.94 27.07 1.19 
300.07 27.07 1.30 
296.41 27.24 1.56 
299.70 27.63 1.32 
299.57 27.96 1.34 
297.14 28.27 1.68 
299.41 28.41 1.36 
296.77 28.48 1.67 
299.53 28.54 1.38 
297.69 29.90 1.85 
297.68 30.11 1.86 
295.81 42.53 2.69 
294.24 42.93 3.08 
294.73 42.84 3.09 
300.28 43.00 2.94 
294.88 43.41 2.78 
300.23 43.20 2.96 
302.08 43.49 2.82 
302.91 43.35 2.83 
303.33 43.25 2.83 
294.70 43.75 2.82 
302.28 44.19 2.91 
310.28 44.51 2.76 
309.79 44.85 2.79 
310.23 44.65 2.77 
310.16 45.26 2.84 
302.51 23.23 1.15 
297.90 24.44 1.50 
298.96 24.67 1.58 
304.73 24.78 1.36 
298.14 25.12 1.55 
297.05 25.66 1.51 
298.02 26.04 1.60 
298.52 26.36 1.65 
297.95 26.67 1.63 
299.18 26.76 1.73 
296.49 27.05 1.99 
298.31 26.86 1.67 
297.55 27.34 1.65 
298.57 27.53 1.73 
299.01 27.27 1.75 
299.86 27.20 1.80 
297.59 27.89 1.69 
298.38 27.92 1.75 
298.32 28.28 1.77 
297.60 28.58 1.74 
298.25 28.60 1.79 
295.06 42.49 3.12 
295.49 42.37 3.13 
294.61 42.90 3.15 
295.06 42.80 3.16 
295.19 42.89 3.19 
303.36 43.13 3.08 
302.65 43.45 3.09 
303.03 43.32 3.09 
309.75 44.38 3.11 
309.50 44.57 3.12 
310.05 44.96 3.18 
297.01 25.75 1.97 
297.41 25.90 2.01 
298.91 25.90 2.15 
296.89 25.94 1.96 
297.54 26.16 2.04 
297.41 26.50 2.04 
297.96 26.55 2.10 
298.00 26.94 2.12 
297.54 27.29 2.10 
297.60 27.55 2.12 
301.85 29.82 2.14 
295.01 42.48 3.57 
294.99 42.73 3.60 
302.91 43.27 3.51 
302.64 44.25 3.62 
302.64 44.46 3.64 
302.03 29.69 3.26 
297.25 36.47 0.46 
297.41 36.85 0.49 
297.51 37.08 0.50 
295.35 43.05 1.13 
297.42 30.41 0.12 
297.12 36.61 0.71 
294.89 43.11 1.40 
302.86 44.02 1.32 
298.81 25.18 0.08 
298.31 25.99 0.15 
298.05 26.30 0.17 
298.31 26.41 0.18 
301.57 30.05 0.51 
297.68 36.30 0.92 
297.51 36.63 0.96 
295.09 41.97 1.69 
295.48 41.92 1.69 
295.81 41.99 1.70 
293.80 42.08 1.71 
294.03 42.26 1.73 
294.42 42.25 1.73 
295.02 42.28 1.73 
295.10 42.12 1.71 
295.61 42.13 1.71 
293.69 42.60 1.77 
293.94 42.56 1.76 
293.57 43.11 1.83 
294.82 43.16 1.83 
295.32 43.03 1.62 
300.07 43.13 1.68 
294.10 43.39 1.80 
294.28 43.21 1.84 
303.28 43.94 1.55 
303.81 22.16 -0.15 
303.77 22.35 -0.14 
303.91 23.09 -0.08 
309.16 25.28 0.12 
298.08 25.55 0.55 
298.46 25.60 0.56 
297.62 26.27 0.59 
298.37 26.70 0.65 
297.85 27.26 0.67 
296.63 27.33 0.65 
299.43 27.51 0.74 
297.43 27.76 0.70 
297.48 29.98 0.89 
297.46 30.27 0.91 
294.72 41.96 2.11 
295.69 41.92 2.12 
294.53 42.15 2.13 
294.95 42.32 2.03 
295.32 42.11 2.13 
295.70 42.09 2.14 
296.03 42.01 1.99 
294.23 42.51 2.17 
294.38 42.62 2.14 
294.88 42.53 2.18 
302.75 42.92 1.80 
293.93 42.88 2.21 
294.56 42.97 2.16 
302.53 43.19 1.83 
302.84 43.35 1.85 
294.18 43.33 2.27 
294.84 43.28 2.28 
302.19 43.45 1.86 
302.31 43.66 1.88 
294.45 43.76 2.33 
295.42 43.65 2.17 
301.87 44.01 1.92 
302.45 43.93 1.91 
310.23 44.28 1.96 
294.34 43.99 2.36 
301.97 44.23 1.94 
302.66 44.44 2.27 
302.71 44.24 1.94 
309.97 44.53 1.98 
302.29 44.62 1.99 
309.84 44.80 2.01 
310.40 45.08 2.04 
309.08 45.21 2.06 
309.90 45.23 2.06 
302.99 20.54 0.31 
303.08 20.66 0.32 
303.42 20.73 0.33 
302.84 21.20 0.35 
303.50 21.05 0.36 
304.13 21.35 0.39 
304.76 21.30 0.40 
303.73 22.14 0.44 
304.35 22.87 0.51 
304.00 23.93 0.58 
297.14 24.34 0.88 
304.22 24.23 0.60 
297.40 24.51 0.90 
296.96 25.23 0.92 
297.65 25.08 0.95 
298.45 25.07 0.98 
297.59 25.69 0.98 
296.93 26.07 0.98 
298.17 26.45 1.06 
296.74 26.78 1.02 
297.87 26.66 1.06 
297.93 26.91 1.08 
297.41 27.32 1.09 
299.12 27.54 1.19 
297.50 27.89 1.13 
298.86 27.97 1.20 
297.09 28.40 1.15 
297.45 28.09 1.14 
299.25 28.20 1.24 
297.25 28.76 1.19 
298.70 28.60 1.25 
297.31 28.97 1.20 
297.72 29.16 1.24 
297.54 29.84 1.29 
297.50 30.22 1.32 
297.47 30.52 1.34 
295.30 41.89 2.45 
294.62 42.29 2.56 
294.82 42.28 2.57 
295.14 42.04 2.55 
294.27 42.48 2.58 
294.61 42.50 2.57 
295.35 42.46 2.61 
295.81 42.55 2.64 
296.45 42.45 2.54 
294.15 42.90 2.63 
294.50 42.91 2.62 
300.01 43.10 2.35 
303.25 43.17 2.42 
294.16 43.46 2.72 
294.43 43.37 2.71 
302.18 43.59 2.45 
302.48 43.48 2.44 
302.84 43.47 2.45 
303.14 43.39 2.45 
302.46 43.87 2.49 
302.23 44.11 2.52 
302.66 44.78 2.61 
302.16 22.94 1.02 
302.92 22.99 1.05 
297.22 24.69 1.33 
296.56 24.84 1.30 
296.72 25.18 1.33 
299.10 25.26 1.02 
296.51 25.40 1.32 
296.88 25.38 1.35 
298.18 25.42 1.44 
298.95 25.48 1.03 
296.10 25.89 1.32 
297.48 25.67 1.41 
295.46 26.33 1.31 
296.72 26.36 1.39 
297.44 26.38 1.44 
298.05 26.31 1.48 
298.51 26.30 1.51 
300.34 26.37 1.16 
296.21 26.41 1.36 
296.64 26.52 1.40 
297.87 26.77 1.50 
300.55 26.77 1.20 
297.09 26.86 1.45 
298.33 27.18 1.56 
296.74 27.24 1.45 
297.56 27.26 1.51 
298.00 27.53 1.56 
298.60 27.62 1.61 
297.74 27.85 1.56 
299.77 27.97 1.25 
296.98 28.28 1.54 
297.01 28.38 1.55 
297.30 28.57 1.58 
297.57 29.91 1.70 
297.55 30.19 1.72 
297.51 30.54 1.75 
295.81 42.29 3.01 
294.84 42.53 3.03 
295.23 42.45 3.04 
295.76 42.58 3.04 
295.98 42.52 3.04 
294.64 42.95 3.08 
294.85 42.89 3.06 
295.17 42.84 3.07 
300.11 42.99 2.87 
294.62 43.14 3.11 
300.05 43.31 2.91 
303.63 43.29 2.81 
310.10 44.58 2.75 
302.35 44.65 2.94 
303.23 44.77 2.97 
