# .PCD v0.7 - Point Cloud Data file format
VERSION 0.7
FIELDS x y z
SIZE 4 4 4
TYPE F F F
COUNT 1 1 1
WIDTH 2277
HEIGHT 1
VIEWPOINT 0 0 0 1 0 0 0
POINTS 2277
DATA ascii
324.12 -678.57 5.95 
326.13 -671.09 5.65 
326.24 -671.29 5.74 
325.54 -672.98 5.64 
325.16 -676.30 5.73 
325.21 -676.48 5.72 
325.96 -674.52 5.67 
325.29 -678.48 5.78 
326.26 -673.94 5.65 
326.28 -674.26 5.51 
326.25 -675.43 5.47 
326.56 -673.95 5.49 
326.49 -676.50 5.73 
326.05 -678.83 5.66 
326.93 -674.32 5.56 
326.91 -674.99 5.54 
326.42 -677.35 5.82 
326.33 -678.30 5.80 
326.21 -679.49 5.87 
320.86 -664.10 6.52 
320.65 -668.12 6.54 
321.01 -667.24 6.39 
323.11 -659.50 5.86 
323.56 -659.44 5.81 
322.30 -665.66 6.41 
320.80 -673.87 6.65 
323.32 -665.44 6.30 
323.07 -665.98 6.19 
322.52 -667.71 6.19 
322.62 -668.23 6.16 
323.85 -663.51 6.20 
323.50 -665.42 6.28 
322.97 -668.14 6.25 
322.90 -669.51 6.08 
322.35 -671.67 6.22 
324.96 -658.67 5.68 
324.44 -662.87 6.16 
324.13 -663.82 6.16 
323.58 -668.12 6.17 
323.92 -668.14 6.01 
323.19 -671.23 6.13 
324.65 -666.53 6.10 
324.50 -666.90 6.10 
323.57 -671.91 6.06 
323.50 -672.95 6.32 
323.46 -673.18 6.31 
323.24 -673.53 6.33 
325.39 -664.62 6.08 
325.16 -665.85 5.96 
323.55 -673.57 6.28 
325.90 -664.11 5.95 
325.77 -664.36 6.00 
325.42 -666.13 5.92 
325.17 -666.45 5.94 
325.18 -667.06 6.02 
325.15 -667.42 6.01 
323.75 -674.57 6.20 
323.58 -675.79 6.16 
325.71 -665.96 5.90 
324.85 -671.55 5.90 
326.59 -664.20 5.88 
326.38 -664.83 5.87 
325.11 -671.05 5.89 
325.01 -672.74 6.14 
324.74 -673.69 6.12 
324.87 -673.99 6.20 
325.84 -671.23 6.13 
324.77 -676.05 6.16 
324.29 -678.62 6.23 
325.98 -671.12 6.11 
325.87 -672.02 6.07 
324.79 -677.38 6.24 
324.74 -678.07 6.36 
326.24 -672.70 5.99 
324.87 -678.91 6.12 
325.48 -679.13 6.18 
326.79 -673.82 5.85 
325.80 -679.26 6.23 
326.57 -678.06 6.04 
326.35 -678.34 5.98 
326.12 -678.72 6.08 
326.17 -679.15 6.05 
327.41 -674.50 5.74 
326.72 -678.81 5.97 
326.64 -679.10 6.11 
326.89 -679.21 6.06 
321.17 -656.43 6.78 
321.21 -660.89 6.60 
321.66 -661.33 6.64 
320.79 -664.26 6.65 
320.59 -673.44 6.87 
323.74 -657.97 6.43 
323.46 -658.98 6.42 
323.31 -659.28 6.52 
323.24 -659.69 6.42 
322.85 -661.75 6.38 
322.81 -662.34 6.36 
323.03 -662.66 6.43 
322.14 -667.16 6.83 
320.78 -674.29 6.80 
324.04 -657.97 6.40 
322.75 -665.11 6.38 
322.21 -668.37 6.75 
321.06 -674.72 7.00 
324.60 -658.09 6.42 
323.90 -662.41 6.24 
324.98 -657.85 6.38 
324.67 -659.33 6.36 
322.78 -668.77 6.75 
322.05 -674.57 6.86 
325.20 -657.97 6.36 
324.31 -663.31 6.25 
322.83 -671.34 6.62 
322.71 -671.85 6.61 
325.62 -657.88 6.31 
325.30 -660.44 6.25 
325.07 -661.43 6.19 
324.04 -667.79 6.63 
323.87 -668.30 6.62 
324.20 -668.66 6.48 
325.30 -665.53 6.54 
325.17 -666.14 6.52 
324.56 -671.79 6.70 
327.23 -659.17 6.02 
325.26 -670.75 6.30 
324.45 -679.01 6.80 
325.92 -673.34 6.39 
325.13 -677.45 6.51 
326.39 -671.87 6.45 
326.23 -673.22 6.36 
325.21 -678.07 6.75 
325.21 -678.51 6.71 
324.90 -678.97 6.41 
325.80 -679.35 6.38 
326.66 -677.78 6.32 
326.85 -677.11 6.27 
326.45 -679.69 6.49 
320.01 -666.64 7.25 
321.52 -666.24 6.96 
321.03 -668.00 7.04 
319.74 -674.17 7.25 
323.90 -655.56 6.59 
322.09 -664.93 6.96 
320.39 -673.45 7.19 
322.33 -666.36 6.85 
322.31 -666.43 6.94 
323.48 -662.76 6.93 
322.72 -665.52 6.85 
321.43 -672.54 7.09 
323.77 -662.50 6.91 
323.23 -665.58 6.82 
325.37 -656.44 6.40 
323.61 -664.45 6.87 
323.88 -664.90 6.81 
323.64 -665.57 6.80 
324.21 -664.31 6.74 
324.28 -664.66 6.77 
324.04 -665.79 6.74 
323.77 -671.44 6.83 
323.30 -674.42 7.09 
325.66 -663.64 6.62 
325.40 -663.93 6.63 
325.32 -664.49 6.63 
324.18 -671.61 6.76 
325.80 -663.46 6.61 
326.19 -664.23 6.52 
324.63 -673.07 7.01 
323.77 -678.58 7.30 
325.05 -673.49 6.90 
323.88 -678.54 7.28 
325.25 -673.30 6.93 
324.49 -678.88 7.11 
324.50 -679.23 6.95 
324.54 -679.47 7.03 
325.19 -678.04 7.08 
326.41 -678.25 6.82 
320.42 -657.87 7.66 
322.58 -656.86 7.44 
322.44 -657.78 7.36 
322.74 -659.31 7.28 
322.50 -660.02 7.21 
321.69 -665.66 7.58 
322.19 -664.56 7.60 
321.68 -666.45 7.52 
324.18 -655.97 7.30 
323.75 -657.43 7.23 
323.09 -661.40 7.11 
323.74 -659.51 7.14 
323.46 -660.82 7.10 
322.70 -665.29 7.47 
322.58 -666.10 7.42 
325.22 -657.67 7.04 
325.09 -658.00 7.04 
324.06 -663.76 7.42 
323.82 -664.48 7.40 
323.47 -665.80 7.33 
325.60 -657.50 7.02 
325.54 -658.07 7.01 
325.20 -659.49 6.93 
325.11 -659.82 6.95 
324.46 -663.72 7.38 
323.83 -666.19 7.25 
323.03 -673.88 7.61 
321.90 -679.44 7.61 
325.72 -659.80 6.88 
324.80 -665.36 7.20 
322.97 -674.46 7.56 
323.14 -675.39 7.42 
322.16 -679.08 7.59 
324.57 -672.03 7.16 
323.69 -675.17 7.35 
325.00 -672.23 7.48 
324.44 -673.52 7.41 
324.35 -674.46 7.32 
324.43 -674.87 7.26 
323.80 -677.96 7.53 
324.67 -674.56 7.25 
325.19 -675.31 7.12 
324.88 -675.66 7.30 
325.44 -674.19 7.18 
325.56 -675.33 7.38 
325.35 -675.51 7.39 
326.37 -673.34 7.13 
326.19 -673.79 7.09 
326.04 -674.27 7.06 
325.85 -676.69 7.14 
321.22 -664.19 7.76 
322.07 -660.46 7.96 
322.94 -660.33 7.85 
322.94 -663.92 7.55 
322.96 -664.16 7.56 
322.21 -671.26 8.05 
324.78 -659.96 7.66 
322.85 -670.90 7.99 
322.67 -671.50 7.95 
321.97 -673.65 7.83 
325.21 -659.24 7.64 
322.13 -675.10 8.06 
324.47 -665.35 7.83 
324.27 -665.81 7.81 
324.11 -667.22 7.68 
323.09 -672.74 7.73 
324.67 -665.55 7.75 
324.05 -669.74 7.94 
323.61 -672.66 7.65 
323.06 -674.34 7.98 
323.89 -674.27 7.83 
323.95 -675.49 7.65 
324.71 -673.28 7.82 
324.66 -673.49 7.80 
325.20 -672.05 7.47 
325.63 -672.35 7.74 
325.62 -673.79 7.59 
325.80 -674.24 7.50 
322.75 -656.15 8.23 
322.44 -657.53 8.15 
321.52 -663.69 8.41 
322.81 -659.28 7.96 
321.65 -665.42 8.22 
323.62 -656.62 8.08 
323.23 -659.74 7.87 
323.49 -659.36 7.86 
324.19 -657.89 7.90 
323.31 -663.65 8.14 
323.02 -664.49 8.12 
323.03 -665.01 8.06 
324.68 -657.99 7.84 
324.21 -659.48 7.77 
322.14 -672.15 8.44 
323.77 -664.95 7.97 
323.69 -665.24 7.95 
322.36 -672.24 8.39 
325.31 -658.94 7.66 
323.55 -672.17 8.18 
324.68 -671.06 8.15 
325.26 -671.07 8.05 
324.79 -671.66 8.04 
322.92 -659.44 8.66 
322.71 -659.80 8.62 
323.37 -659.34 8.62 
323.63 -659.46 8.57 
323.36 -660.03 8.54 
323.36 -660.15 8.53 
323.97 -659.16 8.50 
322.92 -664.95 8.71 
322.75 -665.55 8.66 
322.69 -665.82 8.60 
321.76 -671.49 8.60 
324.36 -659.05 8.45 
323.47 -664.47 8.69 
323.14 -665.59 8.59 
325.08 -658.79 8.38 
322.93 -670.38 8.54 
324.34 -665.31 8.45 
323.41 -670.04 8.51 
323.24 -656.32 8.90 
322.88 -657.08 8.92 
323.31 -656.80 8.90 
323.44 -657.30 8.77 
322.94 -658.06 8.81 
323.42 -658.03 8.75 
324.33 -657.07 8.74 
324.45 -657.69 8.65 
324.30 -658.02 8.64 
324.77 -658.05 8.58 
323.47 -655.79 8.98 
323.64 -673.49 4.70 
323.55 -673.79 4.94 
322.58 -658.14 5.22 
321.41 -663.17 5.33 
323.08 -663.40 5.17 
323.20 -665.66 5.17 
324.04 -665.84 5.09 
323.68 -665.89 5.12 
324.63 -666.21 5.04 
322.82 -673.00 5.21 
322.78 -674.46 5.21 
322.73 -674.83 5.42 
323.14 -674.74 5.38 
323.86 -672.74 5.11 
323.69 -673.41 5.13 
323.74 -673.82 5.32 
323.46 -674.19 5.25 
323.18 -675.04 5.38 
324.36 -671.85 5.06 
324.47 -673.28 5.26 
325.05 -673.20 5.20 
325.40 -672.95 5.17 
320.09 -669.24 5.66 
321.24 -671.84 5.85 
321.00 -672.27 5.86 
323.28 -664.74 5.35 
323.65 -665.08 5.32 
321.68 -673.07 5.78 
321.89 -673.19 5.75 
324.36 -664.17 5.25 
324.07 -664.43 5.28 
323.00 -669.85 5.39 
322.02 -673.40 5.61 
324.45 -664.86 5.24 
322.44 -673.52 5.57 
324.43 -667.33 5.25 
323.91 -669.11 5.30 
323.74 -669.27 5.31 
322.75 -673.93 5.65 
324.22 -668.74 5.27 
324.07 -671.02 5.57 
323.52 -673.35 5.58 
323.28 -673.74 5.48 
323.11 -673.97 5.50 
322.91 -675.64 5.60 
322.79 -675.95 5.71 
324.92 -667.89 5.38 
323.89 -673.03 5.31 
323.75 -673.46 5.44 
323.57 -673.89 5.34 
323.44 -674.13 5.57 
325.34 -667.71 5.16 
325.20 -668.39 5.51 
324.67 -671.78 5.49 
324.39 -672.66 5.50 
323.86 -674.34 5.70 
323.73 -675.75 5.70 
323.14 -677.51 5.74 
325.12 -671.79 5.45 
324.89 -671.94 5.47 
324.94 -672.36 5.45 
324.67 -673.65 5.45 
324.05 -675.47 5.67 
325.05 -673.88 5.41 
324.85 -674.59 5.42 
324.66 -674.82 5.61 
323.71 -678.58 5.46 
323.50 -679.27 5.69 
323.94 -678.95 5.64 
324.24 -679.11 5.71 
325.51 -674.62 5.35 
325.36 -675.15 5.35 
324.90 -677.98 5.35 
324.81 -678.38 5.54 
325.97 -673.63 5.49 
325.83 -675.64 5.47 
324.97 -677.95 5.34 
324.95 -678.39 5.53 
326.54 -674.10 5.42 
326.01 -675.51 5.45 
325.51 -678.07 5.28 
325.49 -678.32 5.37 
325.03 -679.66 5.51 
326.39 -675.66 5.41 
325.47 -679.49 5.46 
326.06 -678.50 5.22 
326.34 -679.42 5.39 
316.84 -661.28 6.50 
320.92 -659.28 6.13 
321.23 -664.95 6.14 
323.29 -658.55 5.91 
321.73 -665.43 6.08 
323.58 -658.46 5.89 
324.02 -658.36 5.85 
323.29 -660.84 6.01 
322.90 -662.93 5.86 
322.82 -663.73 6.00 
322.34 -665.20 5.86 
322.06 -666.35 6.03 
321.46 -668.42 5.89 
321.57 -668.77 5.87 
324.68 -656.57 5.82 
322.97 -665.14 5.96 
322.72 -665.49 5.90 
322.71 -665.71 5.82 
321.80 -668.75 5.85 
320.96 -673.02 6.04 
325.15 -657.76 5.75 
324.83 -658.38 5.77 
324.73 -658.90 5.77 
323.51 -664.37 5.92 
323.16 -665.36 5.78 
323.56 -664.85 5.90 
322.11 -671.38 5.94 
321.75 -673.62 5.95 
325.56 -658.58 5.69 
325.38 -659.78 5.68 
323.97 -664.89 5.86 
323.91 -665.10 5.86 
322.02 -673.32 6.19 
324.71 -664.19 5.65 
324.68 -664.69 5.64 
322.46 -673.99 6.11 
322.39 -674.24 5.87 
325.05 -664.79 5.61 
324.71 -666.12 5.61 
324.35 -667.02 5.78 
324.15 -669.14 5.76 
322.98 -672.86 5.82 
322.81 -674.52 5.82 
322.52 -675.35 6.23 
326.56 -659.65 5.58 
326.39 -660.04 5.72 
325.17 -665.02 5.73 
325.04 -666.24 5.65 
325.09 -666.82 5.71 
323.80 -671.41 6.06 
323.64 -672.94 6.02 
323.18 -673.83 5.79 
323.04 -674.06 5.80 
325.70 -664.64 5.69 
325.40 -666.68 5.60 
325.07 -667.15 5.55 
324.79 -668.21 5.71 
324.23 -671.13 6.03 
323.66 -673.21 6.00 
323.53 -673.77 5.75 
325.79 -666.10 5.65 
324.51 -672.35 5.66 
324.20 -672.54 5.97 
324.36 -673.22 5.93 
324.24 -673.35 5.93 
324.27 -673.80 6.06 
323.85 -674.34 6.09 
324.03 -674.90 6.05 
324.74 -672.88 5.63 
324.37 -673.99 5.97 
324.15 -674.43 5.90 
324.12 -675.19 6.03 
324.04 -675.42 6.04 
325.26 -671.67 5.89 
325.11 -672.16 5.60 
325.09 -672.33 5.88 
324.42 -676.71 5.95 
323.78 -678.43 6.13 
325.33 -673.86 5.93 
324.94 -674.79 5.94 
324.52 -676.67 5.94 
326.44 -670.85 5.80 
325.27 -675.78 5.72 
325.00 -676.11 5.89 
326.43 -673.29 5.69 
325.39 -676.43 5.83 
326.47 -674.13 5.65 
326.97 -673.87 5.61 
326.69 -674.37 5.62 
326.76 -674.95 5.71 
326.46 -675.38 5.60 
326.45 -675.87 5.72 
327.23 -674.09 5.57 
327.11 -674.95 5.67 
326.73 -676.58 5.52 
326.61 -677.11 5.66 
326.89 -678.50 5.85 
326.35 -679.27 5.74 
326.69 -679.55 5.68 
320.31 -666.37 6.66 
323.42 -656.69 6.08 
323.09 -658.83 6.07 
320.97 -667.28 6.69 
323.88 -659.57 5.98 
323.73 -659.76 5.99 
321.95 -666.54 6.47 
324.05 -659.53 5.96 
322.11 -668.62 6.51 
323.21 -665.79 6.36 
323.10 -666.48 6.35 
321.89 -671.49 6.43 
323.30 -666.09 6.34 
323.14 -666.65 6.34 
323.00 -668.25 6.28 
321.33 -676.02 6.37 
325.91 -657.92 5.81 
325.29 -659.25 5.84 
323.93 -666.30 6.27 
323.52 -667.65 6.31 
323.58 -668.06 6.35 
321.99 -674.31 6.60 
321.75 -674.44 6.36 
323.73 -668.07 6.33 
323.32 -671.07 6.27 
322.44 -674.36 6.27 
324.96 -664.81 6.22 
324.65 -666.53 6.29 
324.52 -667.01 6.17 
324.51 -667.43 6.15 
324.19 -667.97 6.28 
322.63 -675.59 6.44 
325.44 -664.49 6.19 
325.41 -664.54 6.19 
325.23 -665.11 6.28 
325.18 -666.24 6.14 
324.96 -667.49 6.21 
323.55 -673.08 6.47 
323.50 -673.24 6.17 
325.77 -664.34 6.16 
325.42 -666.48 6.10 
325.45 -667.09 6.17 
325.28 -667.38 6.18 
324.14 -672.66 6.11 
323.05 -676.40 6.34 
324.01 -675.13 6.29 
323.81 -675.47 6.29 
326.63 -664.16 6.08 
326.61 -664.88 6.05 
325.04 -671.17 6.06 
325.05 -671.86 6.36 
324.87 -672.62 6.03 
325.16 -672.61 5.99 
323.97 -678.72 6.42 
325.48 -673.49 6.21 
325.50 -673.64 6.30 
324.95 -676.13 6.11 
326.43 -671.13 5.90 
326.24 -671.43 6.25 
326.35 -672.19 6.27 
326.01 -672.99 6.18 
325.62 -673.62 6.28 
324.58 -679.67 6.25 
326.19 -672.93 6.16 
325.04 -678.77 6.25 
325.02 -678.88 6.25 
326.69 -673.22 6.16 
325.64 -678.85 6.16 
325.93 -679.16 6.09 
327.04 -674.64 5.95 
326.47 -678.52 6.07 
325.97 -679.09 6.09 
327.66 -674.40 5.90 
326.71 -677.91 6.19 
326.58 -678.39 6.07 
326.48 -679.19 6.15 
327.00 -679.35 6.21 
327.34 -679.12 6.18 
327.27 -679.63 6.24 
320.86 -664.25 6.82 
320.33 -666.74 6.79 
322.37 -661.07 6.77 
323.85 -657.86 6.65 
323.79 -658.11 6.73 
323.41 -658.78 6.65 
323.10 -660.09 6.62 
324.33 -657.91 6.60 
323.14 -662.60 6.62 
324.78 -657.66 6.56 
323.30 -663.75 6.55 
322.91 -664.97 6.55 
322.85 -665.51 6.54 
322.85 -665.93 6.52 
321.57 -671.62 6.81 
325.00 -657.64 6.54 
325.15 -657.97 6.60 
324.71 -659.84 6.56 
324.05 -661.87 6.55 
323.82 -663.18 6.52 
323.49 -663.79 6.53 
321.64 -671.50 6.81 
325.34 -657.91 6.58 
324.97 -659.59 6.45 
322.98 -668.74 6.91 
325.73 -657.85 6.54 
324.45 -663.25 6.44 
324.42 -663.68 6.43 
326.35 -657.41 6.42 
325.58 -660.00 6.46 
325.48 -660.34 6.46 
324.05 -667.86 6.82 
322.89 -671.59 6.76 
326.97 -656.96 6.38 
324.55 -667.50 6.78 
323.37 -671.96 6.68 
325.58 -664.56 6.27 
323.59 -671.85 6.65 
325.83 -664.37 6.25 
323.96 -672.75 6.89 
325.43 -670.31 6.42 
326.15 -671.35 6.34 
325.89 -672.29 6.68 
326.35 -670.87 6.28 
326.26 -673.31 6.59 
325.02 -679.57 6.80 
326.92 -671.75 6.60 
325.39 -678.21 6.57 
327.04 -677.06 6.45 
326.94 -677.54 6.41 
326.94 -677.64 6.46 
327.21 -679.65 6.70 
321.86 -655.73 7.05 
319.91 -666.00 7.47 
321.69 -667.13 7.17 
321.36 -668.07 7.16 
323.48 -663.15 7.18 
322.66 -666.25 7.01 
322.56 -666.64 7.09 
322.19 -668.66 7.02 
321.15 -672.56 7.30 
321.13 -673.27 7.24 
323.67 -664.40 7.08 
323.99 -664.49 6.99 
323.81 -665.06 6.99 
323.19 -667.00 6.98 
324.54 -663.39 7.03 
324.42 -663.48 7.04 
324.44 -664.44 6.98 
323.99 -665.82 6.95 
322.09 -673.23 7.11 
324.89 -663.64 6.92 
324.65 -664.48 6.95 
325.12 -664.63 6.89 
325.70 -663.43 6.85 
325.33 -664.57 6.81 
323.94 -671.43 7.00 
324.67 -670.68 6.97 
323.91 -673.15 7.30 
323.64 -674.26 7.23 
324.12 -673.33 7.25 
325.11 -675.04 6.93 
324.36 -678.48 7.04 
326.45 -671.56 6.70 
325.81 -673.45 7.00 
325.97 -675.67 7.15 
325.31 -678.22 6.90 
325.17 -678.53 6.89 
325.04 -679.16 7.15 
324.91 -679.39 7.15 
325.54 -678.94 7.21 
321.05 -657.93 7.74 
321.87 -658.82 7.65 
322.51 -658.70 7.52 
323.25 -658.79 7.43 
323.81 -657.29 7.47 
323.69 -657.70 7.45 
323.74 -658.89 7.37 
324.17 -657.90 7.39 
323.70 -660.60 7.29 
323.27 -661.36 7.32 
322.36 -665.27 7.73 
322.84 -665.06 7.69 
324.70 -660.17 7.22 
325.51 -657.43 7.28 
325.52 -657.69 7.26 
325.39 -659.00 7.18 
325.27 -659.43 7.17 
324.86 -659.76 7.19 
323.77 -665.40 7.54 
325.80 -657.75 7.24 
325.64 -659.31 7.14 
324.04 -665.67 7.48 
323.76 -666.50 7.45 
323.76 -666.99 7.45 
323.64 -667.99 7.33 
322.13 -673.77 7.51 
323.97 -667.68 7.36 
324.81 -665.48 7.43 
324.72 -665.62 7.43 
323.00 -672.89 7.47 
322.96 -674.54 7.74 
323.90 -672.28 7.40 
323.02 -675.34 7.75 
324.57 -672.71 7.25 
324.39 -673.45 7.64 
323.82 -675.29 7.51 
324.73 -672.49 7.26 
324.90 -673.05 7.61 
324.73 -673.43 7.59 
324.55 -674.65 7.46 
323.67 -677.27 7.67 
324.93 -674.62 7.41 
325.11 -675.46 7.28 
324.49 -677.16 7.53 
326.07 -673.32 7.41 
325.87 -674.15 7.33 
325.76 -674.78 7.26 
326.43 -674.25 7.22 
326.00 -677.40 7.23 
322.64 -656.82 7.68 
321.74 -664.32 7.89 
321.77 -664.33 7.89 
324.32 -663.60 7.63 
324.06 -664.29 7.60 
321.99 -673.67 8.01 
322.69 -671.25 8.18 
321.98 -674.99 8.29 
324.25 -666.92 7.93 
322.70 -672.75 8.00 
324.64 -666.28 7.94 
324.48 -666.84 7.90 
323.30 -673.29 7.83 
324.53 -671.39 7.88 
323.93 -674.16 8.05 
324.79 -671.41 7.84 
324.65 -672.51 7.72 
324.06 -675.15 7.89 
324.91 -673.32 8.01 
325.14 -673.51 7.95 
325.95 -671.40 7.68 
325.62 -673.18 7.89 
325.93 -673.12 7.88 
326.14 -674.34 7.66 
321.77 -658.27 8.41 
322.05 -658.51 8.36 
323.08 -657.83 8.30 
323.92 -656.59 8.31 
322.83 -660.21 8.11 
323.85 -659.00 8.10 
323.69 -659.28 8.10 
323.13 -660.32 8.07 
324.03 -658.82 8.10 
324.56 -658.29 8.08 
323.15 -664.57 8.33 
324.80 -658.50 8.03 
324.03 -664.89 8.18 
324.22 -665.55 8.08 
322.63 -672.01 8.59 
322.44 -672.52 8.55 
324.86 -665.19 8.04 
324.51 -665.76 8.02 
325.07 -665.55 7.94 
323.43 -673.98 8.17 
324.78 -670.94 8.39 
325.35 -671.23 8.26 
325.16 -671.47 8.25 
322.41 -656.33 8.51 
322.82 -656.02 8.49 
323.41 -656.59 8.37 
323.67 -656.53 8.34 
324.27 -656.01 8.32 
322.85 -657.55 9.15 
322.85 -657.70 9.13 
323.35 -656.75 9.17 
322.91 -658.25 9.02 
322.87 -659.57 8.90 
323.55 -657.64 9.05 
323.25 -659.71 8.85 
324.29 -656.76 9.06 
323.88 -657.63 8.96 
324.09 -658.59 8.88 
323.84 -659.41 8.81 
324.56 -658.95 8.72 
323.66 -656.19 9.20 
323.41 -656.21 9.23 
323.40 -673.94 4.96 
323.71 -673.35 4.70 
323.50 -673.77 4.95 
320.59 -664.39 5.44 
321.46 -663.34 5.37 
321.08 -664.54 5.40 
323.38 -658.61 5.22 
323.09 -663.14 5.23 
322.76 -665.64 5.25 
323.24 -665.44 5.21 
323.02 -665.57 5.23 
323.34 -665.62 5.20 
323.85 -665.73 5.15 
322.75 -672.88 5.23 
322.87 -674.31 5.22 
323.57 -673.37 5.16 
322.99 -675.30 5.41 
324.38 -671.80 5.09 
323.91 -672.64 5.13 
323.75 -673.32 5.14 
323.37 -674.42 5.17 
323.08 -675.25 5.40 
324.29 -672.95 5.09 
321.44 -660.46 5.57 
320.99 -665.81 5.60 
320.61 -670.70 5.96 
320.74 -670.65 5.95 
323.11 -664.00 5.42 
320.39 -673.25 5.93 
323.38 -665.37 5.39 
323.18 -665.69 5.41 
323.76 -664.11 5.36 
323.74 -664.69 5.36 
321.54 -672.49 5.54 
322.81 -669.84 5.43 
321.81 -673.14 5.52 
324.60 -665.10 5.28 
323.79 -667.22 5.35 
322.69 -671.69 5.44 
325.09 -664.95 5.24 
323.88 -669.06 5.34 
322.54 -673.75 5.70 
322.31 -673.99 5.72 
323.62 -671.33 5.65 
323.58 -672.68 5.36 
323.43 -673.27 5.62 
323.44 -673.76 5.37 
323.23 -673.92 5.51 
322.91 -674.51 5.42 
323.89 -672.93 5.33 
323.60 -673.72 5.35 
323.46 -673.98 5.37 
323.49 -674.91 5.76 
324.29 -672.56 5.55 
324.94 -672.30 5.49 
324.66 -673.16 5.26 
324.75 -673.63 5.48 
323.45 -678.06 5.51 
323.19 -678.76 5.52 
323.08 -678.82 5.53 
325.59 -671.31 5.46 
325.14 -672.96 5.22 
324.90 -673.51 5.47 
324.76 -674.44 5.63 
324.34 -675.25 5.66 
324.25 -675.82 5.66 
323.43 -678.94 5.70 
325.41 -672.93 5.19 
325.36 -673.85 5.42 
325.29 -674.63 5.57 
324.85 -675.52 5.60 
324.17 -678.63 5.42 
324.12 -678.75 5.43 
323.89 -679.59 5.43 
325.81 -673.33 5.55 
325.71 -674.33 5.54 
325.48 -674.95 5.38 
324.05 -679.36 5.63 
325.96 -674.22 5.51 
325.99 -674.82 5.33 
325.69 -675.16 5.52 
325.70 -675.57 5.51 
324.69 -679.42 5.66 
326.21 -674.75 5.31 
326.09 -675.55 5.47 
325.44 -678.10 5.31 
325.15 -679.15 5.31 
325.51 -678.40 5.48 
325.70 -679.01 5.26 
325.58 -679.13 5.36 
325.33 -679.59 5.48 
326.13 -678.51 5.23 
325.86 -678.92 5.43 
325.75 -679.61 5.43 
326.39 -678.92 5.49 
326.18 -679.32 5.39 
326.49 -679.50 5.46 
316.54 -661.38 6.58 
320.29 -664.48 6.14 
323.44 -658.59 5.98 
324.06 -657.35 5.96 
322.45 -663.46 5.95 
324.71 -657.05 5.91 
323.03 -663.65 6.05 
323.32 -663.63 6.02 
323.21 -664.50 6.01 
323.00 -664.81 6.02 
322.60 -666.02 6.04 
322.21 -667.64 6.04 
325.37 -657.74 5.83 
324.67 -660.90 5.81 
323.04 -665.26 5.85 
322.98 -665.62 6.01 
325.87 -658.02 5.78 
323.49 -665.41 5.81 
322.44 -669.01 5.82 
322.16 -670.95 5.98 
324.36 -664.32 5.75 
322.22 -672.39 5.94 
321.94 -672.73 5.97 
324.15 -666.05 5.88 
326.56 -659.40 5.68 
325.34 -664.38 5.66 
324.95 -665.35 5.82 
322.32 -674.29 5.90 
322.19 -674.40 5.91 
325.32 -665.37 5.78 
325.01 -666.06 5.64 
324.94 -666.56 5.79 
324.62 -668.10 5.79 
323.23 -672.59 5.83 
322.87 -673.40 5.85 
322.87 -673.81 5.85 
326.15 -663.64 5.60 
325.75 -664.59 5.76 
325.39 -666.33 5.75 
325.44 -666.67 5.59 
323.69 -673.08 6.05 
322.98 -674.87 5.93 
322.59 -676.24 6.13 
326.08 -665.89 5.55 
325.84 -666.82 5.62 
324.43 -672.01 6.02 
324.27 -672.18 6.03 
325.09 -670.96 6.00 
323.85 -674.23 5.73 
323.09 -676.88 5.95 
325.16 -671.23 5.98 
325.19 -672.15 5.93 
324.44 -674.08 5.92 
324.44 -674.55 6.05 
325.68 -671.88 5.90 
325.34 -672.65 5.61 
324.92 -674.23 5.87 
324.39 -675.51 6.03 
324.41 -676.05 6.00 
323.85 -678.39 6.15 
326.39 -670.79 5.88 
325.93 -671.55 5.58 
325.81 -671.84 5.88 
325.11 -674.44 5.84 
324.70 -675.65 5.98 
324.23 -678.60 6.09 
324.10 -678.97 5.75 
326.75 -670.57 5.85 
326.64 -670.62 5.86 
326.07 -674.23 5.74 
325.49 -675.92 5.73 
325.40 -676.47 5.87 
326.53 -674.03 5.71 
325.52 -678.35 5.94 
327.08 -673.80 5.66 
326.75 -674.19 5.80 
326.88 -674.40 5.71 
326.69 -675.01 5.77 
326.50 -675.40 5.65 
326.48 -675.89 5.76 
327.32 -674.76 5.71 
327.28 -675.07 5.70 
326.69 -676.59 5.57 
326.04 -678.71 5.86 
327.34 -675.01 5.70 
326.66 -677.82 5.84 
321.46 -658.24 6.33 
321.45 -658.34 6.33 
323.39 -656.52 6.11 
323.14 -658.91 6.15 
322.34 -661.81 6.16 
323.68 -658.53 6.11 
323.17 -659.57 6.13 
322.15 -666.38 6.52 
325.43 -658.24 5.95 
325.06 -658.52 5.98 
322.29 -668.09 6.43 
325.99 -657.72 5.91 
323.07 -668.16 6.34 
321.61 -674.41 6.54 
322.30 -673.27 6.36 
321.55 -675.82 6.37 
321.17 -676.49 6.40 
322.76 -673.00 6.32 
321.93 -675.87 6.55 
321.75 -675.84 6.34 
325.71 -663.99 6.27 
325.52 -664.18 6.28 
323.88 -670.28 6.16 
322.10 -676.16 6.51 
325.43 -667.08 6.26 
325.23 -667.42 6.26 
323.58 -672.95 6.53 
323.71 -673.21 6.19 
323.38 -673.53 6.37 
323.15 -674.84 6.46 
323.06 -675.15 6.45 
325.54 -667.01 6.25 
323.83 -673.27 6.48 
324.00 -674.98 6.35 
323.93 -675.21 6.34 
323.40 -676.22 6.34 
324.88 -672.91 6.07 
324.79 -672.97 6.08 
324.43 -673.97 6.22 
324.19 -674.68 6.34 
325.53 -672.41 6.01 
325.09 -672.87 6.05 
324.86 -673.67 6.33 
324.86 -674.37 6.28 
324.78 -675.09 6.25 
326.32 -671.03 5.98 
324.77 -675.50 6.35 
325.77 -673.95 6.26 
326.75 -671.69 6.26 
324.59 -679.48 6.30 
326.82 -672.75 6.18 
325.68 -678.97 6.19 
326.25 -678.59 6.12 
326.12 -678.84 6.15 
325.83 -679.29 6.15 
327.00 -677.54 6.24 
326.51 -678.21 5.96 
326.88 -679.34 6.30 
327.13 -678.89 6.01 
327.03 -679.31 6.10 
327.77 -678.89 5.94 
327.60 -679.26 6.02 
322.33 -659.51 6.94 
322.87 -658.81 6.80 
322.81 -660.36 6.74 
322.48 -661.48 6.83 
323.80 -657.79 6.76 
323.35 -659.18 6.84 
323.93 -658.53 6.71 
323.20 -661.01 6.77 
324.49 -657.66 6.70 
323.17 -664.14 6.52 
324.81 -659.78 6.66 
323.36 -665.09 6.57 
322.97 -665.88 6.58 
322.40 -668.20 6.99 
321.45 -671.37 6.89 
320.40 -675.08 6.99 
326.07 -657.27 6.57 
325.68 -660.24 6.55 
325.53 -660.44 6.56 
324.47 -663.63 6.52 
324.05 -667.74 6.83 
325.37 -664.40 6.39 
324.25 -667.25 6.84 
324.27 -667.97 6.79 
325.53 -664.12 6.38 
323.76 -672.52 6.54 
323.36 -673.32 6.67 
324.98 -671.13 6.59 
324.66 -672.46 6.54 
325.33 -671.06 6.55 
325.24 -674.69 6.63 
326.29 -672.03 6.36 
325.59 -674.78 6.57 
326.72 -672.11 6.31 
326.57 -672.90 6.63 
326.48 -673.22 6.66 
325.19 -676.94 6.55 
326.82 -673.05 6.59 
327.04 -676.93 6.59 
326.98 -677.75 6.52 
326.31 -679.15 6.40 
320.81 -656.73 7.23 
319.98 -666.55 7.51 
320.82 -667.53 7.34 
321.57 -666.06 7.33 
322.04 -665.81 7.29 
321.78 -665.96 7.31 
321.71 -666.69 7.28 
321.64 -667.26 7.14 
321.49 -667.63 7.25 
324.37 -658.30 6.78 
325.36 -656.21 6.69 
325.25 -656.55 6.77 
323.68 -663.96 7.21 
324.35 -663.64 7.15 
324.23 -663.77 7.16 
323.99 -664.22 7.15 
323.88 -665.57 7.08 
323.72 -665.66 7.05 
323.52 -666.01 7.09 
324.92 -663.07 7.07 
323.87 -665.62 7.08 
324.37 -666.27 6.97 
322.37 -673.06 7.14 
325.23 -664.18 6.95 
325.13 -664.53 7.00 
326.15 -663.23 6.93 
323.96 -673.16 6.92 
325.09 -671.13 6.97 
325.63 -671.89 6.83 
325.69 -673.33 7.13 
325.41 -675.72 6.90 
325.32 -678.29 6.97 
325.66 -679.55 7.06 
326.45 -677.06 6.96 
326.42 -677.21 6.94 
325.91 -679.41 7.04 
325.85 -679.63 7.02 
321.60 -660.33 7.70 
322.13 -660.49 7.62 
323.22 -658.75 7.61 
323.92 -657.47 7.57 
323.90 -657.95 7.59 
322.96 -661.31 7.47 
324.32 -657.80 7.50 
324.11 -657.93 7.52 
324.09 -658.86 7.45 
323.39 -660.75 7.42 
323.33 -660.96 7.38 
324.00 -659.52 7.47 
324.00 -661.19 7.36 
325.73 -657.49 7.40 
322.37 -668.36 7.55 
325.85 -657.52 7.41 
325.52 -658.84 7.31 
323.69 -666.24 7.63 
325.80 -659.28 7.25 
324.28 -665.43 7.59 
323.67 -666.55 7.55 
324.27 -666.68 7.47 
324.67 -673.04 7.30 
324.48 -673.29 7.29 
323.14 -677.30 7.45 
325.17 -671.72 7.38 
325.89 -672.03 7.25 
325.16 -675.09 7.41 
326.01 -673.56 7.49 
325.86 -677.60 7.37 
326.19 -676.99 7.36 
326.07 -677.33 7.35 
326.03 -677.55 7.30 
326.36 -677.56 7.25 
326.18 -678.49 7.20 
324.00 -655.06 7.73 
324.32 -655.43 7.67 
321.61 -664.07 8.03 
323.33 -663.60 7.87 
323.64 -663.73 7.85 
323.82 -664.63 7.71 
324.56 -666.81 8.01 
324.47 -667.29 7.97 
323.80 -670.03 7.75 
323.50 -671.53 8.12 
323.76 -672.50 7.96 
323.31 -674.07 7.82 
324.59 -671.39 7.98 
325.02 -671.53 7.91 
324.10 -675.26 7.96 
325.10 -672.94 7.71 
324.98 -673.02 7.71 
325.02 -675.43 7.82 
325.96 -674.23 7.80 
321.41 -658.27 8.58 
321.87 -658.18 8.57 
321.89 -658.81 8.51 
322.99 -657.83 8.44 
323.30 -658.21 8.37 
323.43 -659.58 8.23 
323.33 -659.91 8.23 
324.43 -657.79 8.29 
324.13 -658.69 8.23 
323.42 -660.23 8.19 
324.70 -658.08 8.23 
324.53 -658.33 8.23 
324.52 -659.36 8.13 
323.18 -664.77 8.43 
322.85 -665.30 8.42 
324.93 -664.52 8.24 
324.77 -664.88 8.21 
324.72 -665.07 8.18 
323.43 -670.27 8.30 
322.15 -673.77 8.52 
325.10 -665.28 8.12 
324.82 -666.05 8.07 
323.44 -670.68 8.25 
322.14 -675.33 8.42 
323.91 -672.02 8.49 
324.70 -670.60 8.08 
325.33 -671.57 8.30 
325.05 -673.43 8.09 
321.83 -656.36 8.71 
322.92 -655.79 8.64 
321.73 -663.17 8.79 
324.09 -656.45 8.45 
323.65 -656.57 8.49 
323.99 -656.92 8.42 
325.06 -670.64 8.53 
323.43 -659.50 8.97 
324.11 -658.78 9.00 
323.84 -659.53 8.93 
323.81 -659.82 8.89 
324.63 -658.52 8.97 
324.43 -658.67 8.98 
323.88 -657.18 9.22 
323.58 -673.49 4.81 
323.48 -673.77 4.82 
323.77 -673.27 4.57 
320.69 -664.77 5.32 
321.49 -663.31 5.26 
322.77 -662.71 5.15 
323.45 -662.78 5.10 
323.15 -663.13 5.12 
322.72 -664.44 5.15 
323.52 -663.73 5.09 
322.80 -665.43 5.14 
323.25 -664.86 5.11 
323.35 -665.29 5.10 
323.04 -665.53 5.12 
322.25 -672.56 5.16 
322.37 -672.60 5.15 
322.92 -674.19 5.10 
323.91 -672.40 5.02 
323.49 -673.20 5.05 
323.70 -673.37 5.04 
323.29 -674.33 5.07 
324.31 -671.77 4.99 
324.34 -671.92 4.99 
324.09 -672.46 5.01 
323.78 -673.28 5.03 
323.41 -674.32 5.06 
324.50 -672.76 4.97 
324.40 -672.81 4.98 
323.08 -658.69 5.34 
323.27 -658.66 5.32 
323.13 -664.11 5.31 
321.23 -672.40 5.75 
324.64 -663.95 5.18 
323.69 -666.74 5.26 
321.63 -672.35 5.42 
324.58 -664.87 5.19 
323.89 -667.53 5.24 
322.93 -669.72 5.31 
322.59 -671.77 5.64 
322.08 -672.65 5.38 
321.90 -673.01 5.40 
321.74 -673.60 5.68 
325.19 -664.89 5.13 
322.53 -673.63 5.60 
324.95 -667.49 5.14 
323.94 -670.87 5.53 
323.78 -671.14 5.54 
323.26 -673.22 5.54 
323.05 -673.77 5.55 
322.95 -674.02 5.55 
325.30 -667.49 5.11 
323.68 -672.55 5.24 
323.58 -673.13 5.51 
323.61 -673.53 5.24 
323.35 -673.71 5.27 
322.93 -674.45 5.30 
323.06 -675.16 5.29 
322.84 -675.90 5.51 
322.68 -676.34 5.72 
322.57 -676.37 5.73 
324.38 -672.30 5.46 
324.13 -672.55 5.20 
324.10 -672.74 5.20 
323.59 -674.28 5.48 
323.16 -675.03 5.28 
324.74 -672.25 5.42 
324.61 -673.03 5.16 
324.39 -673.40 5.18 
323.77 -675.44 5.62 
325.11 -672.91 5.11 
324.88 -673.02 5.13 
323.11 -678.74 5.42 
322.79 -679.45 5.65 
325.50 -672.45 5.08 
325.33 -672.78 5.09 
324.68 -674.48 5.55 
324.66 -675.24 5.53 
323.16 -679.32 5.62 
323.24 -679.66 5.39 
326.38 -671.62 5.29 
326.11 -671.63 5.31 
325.87 -673.21 5.05 
325.34 -673.73 5.33 
325.29 -674.11 5.49 
325.15 -674.52 5.50 
323.49 -679.24 5.58 
326.20 -672.97 5.27 
325.81 -674.38 5.44 
325.80 -674.71 5.26 
323.98 -679.59 5.32 
326.11 -674.12 5.41 
326.01 -674.14 5.42 
325.76 -675.06 5.43 
325.78 -675.35 5.33 
326.48 -674.07 5.38 
326.13 -675.45 5.38 
325.49 -677.99 5.21 
326.48 -675.27 5.18 
325.60 -678.37 5.37 
325.61 -678.94 5.17 
325.25 -679.47 5.39 
325.73 -678.96 5.25 
325.84 -679.46 5.33 
326.44 -678.84 5.25 
326.22 -679.22 5.29 
325.86 -679.67 5.43 
326.51 -679.32 5.38 
316.52 -661.11 6.48 
320.50 -664.04 6.03 
320.45 -664.46 6.02 
323.30 -663.03 5.95 
322.49 -665.76 5.96 
321.29 -668.38 5.85 
321.09 -668.86 6.03 
323.13 -664.61 5.93 
323.02 -664.73 5.94 
322.94 -665.30 5.77 
322.64 -665.84 5.95 
321.54 -669.20 5.98 
325.90 -657.51 5.71 
323.11 -666.54 5.89 
325.18 -660.64 5.69 
323.65 -665.42 5.70 
322.36 -668.78 5.74 
324.12 -664.87 5.67 
322.08 -671.12 5.88 
324.87 -664.40 5.62 
325.01 -664.50 5.60 
323.13 -669.29 5.65 
322.19 -672.03 5.85 
326.97 -659.30 5.57 
325.15 -664.39 5.59 
324.93 -665.04 5.75 
324.51 -666.36 5.75 
322.09 -674.37 5.82 
325.15 -665.86 5.71 
325.06 -666.37 5.70 
322.32 -674.04 5.80 
322.33 -674.22 5.79 
323.02 -673.21 5.74 
322.89 -673.66 5.75 
322.83 -674.44 5.74 
326.03 -665.80 5.48 
323.59 -673.55 5.68 
323.16 -674.65 5.70 
322.71 -675.82 5.72 
325.29 -671.97 5.86 
325.20 -672.35 5.85 
324.62 -674.01 5.83 
325.86 -671.44 5.50 
325.40 -673.38 5.78 
324.66 -674.57 5.95 
325.98 -672.02 5.79 
325.72 -672.86 5.48 
324.98 -676.01 5.85 
323.87 -679.55 5.86 
324.62 -678.99 5.60 
326.82 -674.00 5.73 
325.35 -678.47 5.71 
327.34 -673.88 5.68 
326.78 -674.44 5.59 
326.72 -674.88 5.70 
326.64 -675.35 5.56 
327.47 -673.90 5.66 
327.37 -674.36 5.54 
326.61 -676.95 5.63 
326.29 -677.89 5.81 
326.07 -678.58 5.62 
326.46 -678.04 5.78 
326.45 -679.13 5.71 
326.23 -679.35 5.58 
326.70 -679.21 5.68 
322.33 -659.15 6.14 
319.98 -666.29 6.67 
324.50 -655.85 5.88 
323.82 -657.42 5.90 
324.58 -656.45 5.86 
323.83 -659.70 5.99 
322.62 -666.29 6.40 
322.75 -667.11 6.34 
323.14 -668.70 6.37 
323.02 -669.43 6.35 
323.85 -667.61 6.34 
323.06 -669.46 6.34 
322.96 -669.90 6.33 
321.74 -674.30 6.30 
324.75 -666.30 6.18 
322.76 -671.57 6.29 
325.02 -666.76 6.25 
325.52 -666.94 6.19 
324.04 -670.60 6.18 
323.86 -671.17 6.18 
322.44 -675.66 6.17 
326.67 -664.81 6.08 
325.80 -666.75 6.17 
325.68 -666.88 6.18 
323.82 -672.86 6.11 
323.56 -673.49 6.12 
322.78 -675.31 6.14 
322.52 -676.10 6.14 
324.76 -670.58 5.98 
324.24 -673.07 6.06 
325.24 -670.50 5.93 
324.39 -673.07 6.04 
323.92 -674.99 6.28 
323.27 -676.53 6.26 
325.25 -672.22 5.98 
324.55 -673.76 5.99 
325.80 -671.23 5.96 
325.80 -672.15 5.92 
325.53 -672.47 5.94 
324.92 -674.42 6.27 
324.85 -675.10 6.17 
326.51 -670.65 5.80 
325.25 -674.47 6.16 
324.44 -678.39 6.34 
325.95 -679.25 6.07 
326.73 -677.41 5.91 
326.03 -679.24 6.06 
327.40 -677.38 6.14 
327.45 -679.32 5.98 
322.70 -660.42 6.67 
323.97 -657.71 6.68 
322.87 -661.69 6.59 
324.66 -657.50 6.63 
325.01 -659.48 6.50 
323.73 -662.91 6.56 
323.21 -664.32 6.43 
325.47 -659.48 6.46 
324.30 -662.55 6.47 
323.60 -664.63 6.50 
324.68 -662.78 6.47 
324.68 -663.31 6.45 
323.94 -664.92 6.45 
320.87 -673.87 6.89 
320.68 -674.07 6.91 
326.77 -657.34 6.44 
325.92 -660.11 6.48 
325.07 -662.84 6.32 
325.14 -663.35 6.40 
325.71 -663.80 6.22 
325.61 -663.99 6.25 
325.53 -664.27 6.32 
323.65 -671.24 6.68 
322.74 -673.61 6.66 
326.03 -664.35 6.26 
323.41 -673.17 6.60 
323.27 -673.38 6.46 
323.28 -673.67 6.58 
323.82 -672.59 6.58 
323.81 -673.10 6.42 
324.91 -671.23 6.53 
324.28 -672.33 6.54 
325.15 -670.77 6.53 
325.14 -671.07 6.51 
325.14 -671.37 6.49 
324.79 -672.61 6.46 
325.01 -672.63 6.43 
326.16 -671.86 6.34 
325.84 -673.48 6.27 
325.27 -675.41 6.50 
327.16 -671.95 6.22 
327.03 -672.08 6.22 
326.83 -672.91 6.56 
325.50 -677.66 6.62 
325.47 -677.90 6.60 
325.83 -679.66 6.67 
326.95 -677.20 6.22 
327.01 -679.37 6.24 
327.30 -679.48 6.49 
324.40 -655.12 6.77 
323.40 -659.17 6.77 
324.26 -658.40 6.72 
322.79 -664.49 7.22 
320.03 -673.52 7.35 
322.35 -668.52 7.02 
323.71 -666.02 7.01 
325.23 -664.30 6.93 
323.62 -668.07 6.89 
324.42 -667.00 6.78 
323.99 -668.15 6.84 
322.74 -673.47 6.99 
326.41 -664.07 6.79 
324.56 -670.84 7.00 
323.64 -673.17 7.01 
323.73 -673.64 6.85 
323.97 -673.44 6.94 
324.52 -673.12 6.80 
323.18 -679.46 7.12 
326.08 -672.26 6.75 
325.71 -673.93 7.02 
325.55 -674.73 7.01 
325.44 -675.48 6.88 
325.56 -675.74 6.83 
325.93 -675.07 6.86 
325.75 -675.43 6.91 
324.83 -678.61 6.96 
325.39 -679.61 7.07 
327.13 -679.03 6.89 
321.27 -660.15 7.69 
324.16 -659.53 7.41 
324.08 -660.33 7.36 
323.34 -661.31 7.38 
322.41 -664.12 7.29 
325.72 -657.57 7.34 
324.90 -659.69 7.26 
324.23 -661.36 7.27 
325.68 -658.79 7.25 
325.42 -659.34 7.24 
325.43 -659.58 7.27 
325.95 -659.25 7.19 
323.63 -666.92 7.54 
324.88 -665.71 7.45 
323.75 -672.50 7.43 
323.17 -673.61 7.39 
324.33 -672.11 7.40 
324.03 -673.57 7.28 
326.01 -673.93 7.42 
326.00 -674.71 7.32 
326.37 -676.47 7.40 
321.77 -658.59 7.74 
324.52 -655.28 7.62 
323.86 -656.84 7.57 
324.22 -657.58 7.48 
322.61 -663.04 8.01 
325.25 -657.46 7.44 
323.43 -663.45 7.87 
325.85 -657.13 7.36 
322.93 -665.08 7.79 
326.15 -657.44 7.35 
323.78 -666.04 7.59 
324.48 -665.44 7.56 
324.94 -665.65 7.48 
323.00 -674.76 7.74 
323.36 -673.92 7.79 
325.39 -671.46 7.85 
322.48 -679.41 7.84 
325.74 -671.57 7.79 
325.14 -672.58 7.72 
325.62 -672.31 7.70 
323.23 -659.41 8.24 
324.22 -658.34 8.22 
324.00 -658.93 8.19 
322.19 -665.59 8.42 
325.13 -658.09 8.15 
325.02 -658.35 8.14 
323.10 -664.65 8.41 
322.48 -665.95 8.34 
323.17 -665.03 8.38 
324.06 -665.32 8.22 
324.94 -664.66 8.20 
324.87 -664.86 8.17 
324.79 -666.72 7.97 
324.51 -666.99 7.98 
323.41 -670.25 8.28 
324.99 -666.55 7.97 
324.61 -671.35 7.96 
325.28 -671.06 7.92 
325.12 -673.59 8.04 
324.96 -673.87 8.03 
325.40 -673.22 8.06 
326.26 -672.84 8.01 
326.20 -673.29 7.90 
321.97 -657.58 8.58 
323.52 -656.10 8.51 
323.21 -657.14 8.44 
323.15 -657.75 8.39 
324.15 -656.85 8.37 
324.57 -657.67 8.25 
325.01 -657.17 8.26 
324.65 -657.70 8.25 
323.46 -663.92 8.45 
323.79 -670.72 8.69 
325.20 -670.61 8.51 
323.37 -659.15 9.01 
323.67 -673.34 4.66 
323.52 -673.62 4.67 
323.39 -663.08 4.96 
323.09 -665.42 4.98 
324.00 -665.42 4.90 
323.68 -666.53 4.93 
321.84 -672.19 5.07 
322.21 -672.24 5.04 
324.77 -667.78 4.83 
322.46 -672.31 5.01 
324.96 -667.80 4.81 
325.54 -667.32 4.77 
322.96 -673.89 4.97 
323.99 -672.13 4.89 
324.18 -672.29 4.87 
324.66 -672.59 4.83 
323.67 -665.02 5.13 
324.46 -664.51 5.06 
325.14 -664.69 5.00 
321.72 -672.12 5.28 
321.59 -673.20 5.29 
322.23 -672.40 5.24 
321.90 -673.15 5.27 
324.96 -667.31 5.01 
322.48 -673.00 5.51 
322.43 -673.25 5.50 
322.31 -673.63 5.51 
325.26 -667.19 4.99 
325.13 -667.35 5.00 
324.67 -668.35 5.03 
322.40 -673.53 5.50 
324.05 -670.98 5.41 
323.17 -673.54 5.15 
324.39 -671.02 5.37 
323.74 -673.20 5.11 
323.62 -673.40 5.12 
323.42 -673.59 5.13 
324.59 -672.19 5.03 
324.34 -672.38 5.05 
323.16 -675.07 5.15 
322.80 -675.68 5.41 
322.73 -676.46 5.19 
324.35 -673.28 5.05 
324.11 -673.57 5.07 
323.15 -675.88 5.37 
323.30 -676.49 5.35 
325.15 -672.68 4.98 
322.82 -678.63 5.34 
325.38 -672.70 4.96 
325.92 -673.01 4.92 
325.55 -673.51 5.21 
324.97 -675.61 5.39 
323.30 -678.95 5.49 
323.07 -679.32 5.51 
325.95 -673.68 5.17 
323.56 -679.08 5.46 
323.64 -679.39 5.35 
326.16 -674.60 5.12 
325.97 -675.30 5.29 
325.58 -676.23 5.31 
323.85 -679.49 5.22 
324.20 -679.62 5.39 
326.85 -675.25 5.05 
325.14 -678.77 5.12 
327.41 -674.24 5.18 
325.52 -679.23 5.26 
325.89 -679.28 5.22 
322.26 -663.35 5.76 
323.60 -663.38 5.80 
323.31 -663.98 5.81 
324.92 -660.54 5.59 
323.81 -663.13 5.79 
323.29 -664.77 5.63 
323.14 -665.12 5.80 
324.54 -663.99 5.54 
326.80 -659.24 5.47 
325.40 -664.14 5.46 
323.06 -669.45 5.71 
325.57 -665.22 5.57 
325.40 -665.87 5.41 
325.16 -666.27 5.58 
322.67 -672.58 5.68 
325.66 -666.03 5.54 
325.06 -667.34 5.41 
324.92 -667.61 5.57 
326.09 -665.86 5.35 
323.41 -673.37 5.59 
324.57 -671.74 5.51 
324.08 -673.39 5.52 
324.94 -672.42 5.46 
324.56 -673.48 5.47 
324.22 -673.41 5.51 
324.11 -674.25 5.50 
324.90 -673.55 5.44 
324.70 -674.11 5.45 
325.10 -673.33 5.42 
325.10 -674.15 5.41 
325.06 -674.33 5.41 
326.49 -673.91 5.28 
326.24 -674.35 5.29 
324.00 -679.06 5.76 
324.03 -679.66 5.71 
326.86 -673.79 5.24 
326.43 -674.38 5.27 
326.96 -674.38 5.49 
326.90 -674.68 5.61 
325.54 -678.25 5.61 
326.80 -676.43 5.41 
326.27 -678.24 5.37 
326.13 -678.65 5.71 
326.85 -677.93 5.47 
326.93 -678.03 5.46 
326.53 -679.00 5.56 
327.07 -678.12 5.44 
323.48 -658.10 5.78 
324.66 -656.06 5.73 
323.38 -659.37 5.92 
324.64 -661.03 5.76 
323.81 -663.05 5.79 
324.82 -661.01 5.74 
325.14 -661.23 5.71 
322.03 -673.83 6.19 
325.85 -666.38 5.98 
324.17 -670.04 5.97 
322.14 -675.61 6.11 
322.96 -674.97 6.04 
322.90 -675.16 6.03 
324.22 -672.56 5.84 
324.85 -672.47 5.78 
326.05 -670.83 5.75 
325.93 -671.20 5.87 
324.99 -672.73 5.90 
324.81 -673.59 5.88 
325.88 -671.87 5.78 
325.74 -672.16 5.84 
325.59 -672.43 5.85 
325.23 -673.55 5.84 
324.84 -674.12 5.86 
326.07 -673.80 5.74 
325.52 -674.85 6.04 
326.51 -673.34 6.04 
325.94 -678.12 5.77 
327.13 -677.17 5.71 
326.88 -677.73 5.70 
327.19 -677.92 5.65 
327.13 -679.20 5.89 
327.74 -678.86 5.86 
323.47 -660.80 6.60 
322.91 -661.65 6.61 
323.82 -662.66 6.47 
325.73 -659.50 6.33 
323.19 -665.25 6.29 
321.83 -668.47 6.43 
323.32 -665.49 6.26 
322.43 -668.44 6.36 
323.03 -667.36 6.34 
322.53 -668.27 6.36 
320.44 -673.66 6.70 
325.18 -663.83 6.28 
323.30 -667.58 6.31 
325.62 -663.93 6.24 
325.48 -664.25 6.23 
326.16 -663.68 6.09 
325.82 -664.06 6.21 
326.37 -663.51 6.07 
326.26 -664.23 6.16 
325.50 -665.49 6.17 
325.45 -665.90 6.16 
322.09 -674.03 6.48 
321.60 -674.70 6.67 
325.63 -666.85 6.10 
326.04 -666.55 6.07 
325.79 -666.78 6.08 
323.44 -672.96 6.53 
324.32 -672.21 6.35 
325.47 -670.36 6.46 
324.96 -671.33 6.45 
324.79 -671.64 6.45 
324.71 -671.97 6.38 
324.08 -673.28 6.43 
326.19 -671.65 6.29 
325.76 -672.43 6.29 
324.99 -674.61 6.24 
326.73 -671.60 6.23 
327.18 -671.58 6.11 
326.24 -672.84 6.11 
326.18 -673.16 6.19 
327.34 -671.63 6.09 
325.03 -678.98 6.50 
327.21 -676.58 6.15 
326.48 -679.21 6.29 
322.97 -657.84 6.78 
323.87 -657.56 6.71 
324.94 -657.28 6.51 
325.61 -659.48 6.45 
320.17 -672.72 7.32 
320.50 -672.67 7.28 
326.14 -659.95 6.37 
323.86 -665.61 6.96 
324.18 -665.91 6.90 
324.89 -666.74 6.68 
321.95 -673.63 7.01 
322.09 -673.58 7.00 
325.00 -670.93 6.89 
325.77 -670.54 6.85 
324.05 -677.80 6.76 
325.30 -675.90 6.81 
327.70 -676.41 6.48 
326.25 -679.02 6.68 
326.76 -679.67 6.53 
328.91 -679.57 6.60 
329.53 -679.44 6.56 
329.27 -679.57 6.56 
329.62 -679.38 6.56 
323.13 -660.16 7.41 
324.65 -659.89 7.26 
322.78 -664.47 7.16 
325.04 -659.77 7.23 
324.48 -663.23 6.97 
326.15 -662.94 6.83 
324.55 -673.21 7.21 
323.77 -676.52 7.36 
326.19 -673.21 7.05 
326.25 -679.53 6.94 
321.28 -656.61 7.85 
321.55 -658.57 7.69 
322.21 -658.27 7.64 
324.31 -654.75 7.59 
324.02 -658.74 7.41 
323.70 -659.20 7.41 
325.14 -658.25 7.26 
324.10 -664.89 7.56 
324.62 -665.89 7.46 
324.28 -666.97 7.40 
323.49 -670.42 7.66 
325.12 -672.99 7.66 
324.91 -673.18 7.66 
324.72 -673.61 7.62 
324.90 -674.61 7.46 
326.11 -674.41 7.35 
323.03 -659.78 8.20 
323.84 -659.29 8.15 
323.26 -659.67 8.18 
324.62 -665.24 8.14 
323.69 -671.39 8.06 
324.27 -673.38 8.20 
325.70 -670.93 7.87 
325.62 -671.48 7.81 
325.30 -672.95 8.13 
326.26 -673.73 7.85 
324.03 -656.73 8.36 
324.19 -656.56 8.33 
323.80 -657.79 8.29 
324.70 -657.48 8.22 
324.61 -658.01 8.18 
324.34 -658.71 8.15 
324.93 -657.78 8.14 
325.49 -670.64 8.44 
323.69 -673.29 4.58 
323.60 -673.42 4.58 
323.44 -662.90 4.91 
323.58 -664.72 4.89 
322.31 -672.03 4.97 
325.07 -667.62 4.75 
322.68 -672.21 4.94 
323.91 -671.91 4.83 
323.46 -672.65 4.87 
324.22 -672.18 4.81 
324.47 -672.30 4.78 
324.25 -664.86 5.03 
325.38 -664.59 4.93 
321.51 -672.57 5.24 
321.57 -673.08 5.54 
322.64 -672.82 5.45 
322.44 -673.15 5.46 
322.56 -673.06 5.45 
322.44 -673.42 5.45 
323.78 -672.14 5.05 
323.20 -672.66 5.40 
323.09 -673.27 5.40 
322.96 -673.72 5.26 
323.72 -673.13 5.05 
323.38 -673.50 5.22 
323.27 -673.76 5.37 
324.34 -672.21 5.00 
324.20 -672.74 5.01 
324.07 -673.40 5.02 
323.65 -673.47 5.05 
325.07 -671.99 5.25 
324.45 -673.08 4.98 
323.94 -674.03 5.30 
323.96 -674.50 5.28 
323.23 -675.76 5.32 
325.48 -672.47 4.90 
325.16 -672.61 4.92 
323.32 -676.30 5.30 
326.04 -672.94 5.14 
325.77 -673.45 5.15 
323.30 -678.51 5.24 
323.46 -678.84 5.42 
326.21 -674.60 5.08 
323.64 -678.91 5.40 
323.45 -679.34 5.21 
324.46 -678.37 5.14 
324.28 -679.01 5.34 
324.39 -679.41 5.12 
325.25 -678.66 5.06 
325.05 -678.69 5.08 
325.21 -679.28 5.24 
326.66 -678.55 4.93 
322.07 -665.53 5.86 
323.69 -664.82 5.56 
324.12 -666.22 5.65 
325.22 -664.38 5.60 
325.15 -666.12 5.56 
325.28 -665.98 5.55 
324.96 -667.37 5.55 
321.61 -673.65 5.72 
326.31 -665.29 5.32 
326.23 -665.61 5.32 
323.80 -670.50 5.40 
322.32 -673.68 5.65 
321.74 -674.89 5.96 
324.99 -672.24 5.42 
324.44 -673.28 5.45 
324.14 -674.07 5.46 
326.29 -670.71 5.34 
324.72 -673.46 5.72 
323.98 -676.10 5.43 
323.33 -676.97 5.69 
322.54 -678.65 5.70 
326.16 -672.94 5.29 
325.45 -674.02 5.33 
325.65 -674.15 5.31 
325.12 -675.39 5.33 
325.07 -675.57 5.33 
323.91 -678.10 5.58 
323.38 -679.36 5.58 
326.46 -673.37 5.25 
326.63 -673.77 5.23 
326.32 -674.24 5.25 
323.47 -679.35 5.57 
326.40 -674.29 5.24 
324.23 -679.50 5.48 
324.82 -679.27 5.44 
325.43 -679.42 5.37 
325.97 -679.42 5.31 
326.09 -679.50 5.30 
321.72 -657.78 6.09 
323.56 -657.92 5.92 
323.43 -658.50 5.91 
323.15 -660.70 5.88 
324.40 -659.18 5.81 
326.00 -656.81 5.73 
324.62 -660.83 5.75 
327.39 -659.06 5.55 
321.90 -673.33 6.01 
322.53 -672.82 5.97 
323.20 -671.93 5.95 
324.28 -672.30 5.82 
324.08 -672.24 5.85 
323.47 -673.26 6.02 
323.74 -674.05 5.96 
326.15 -670.93 5.84 
326.62 -670.69 5.81 
325.88 -672.10 5.82 
324.15 -675.34 6.14 
323.28 -677.64 6.08 
325.05 -674.76 6.09 
324.61 -675.88 5.78 
323.40 -677.68 6.06 
324.05 -679.51 5.86 
327.08 -674.50 5.58 
325.17 -678.12 5.83 
324.42 -679.47 5.82 
326.94 -677.16 5.84 
326.35 -679.51 5.95 
327.08 -678.95 5.93 
327.26 -678.92 5.91 
324.90 -662.34 6.38 
323.66 -665.28 6.23 
320.57 -673.20 6.68 
325.85 -663.67 6.22 
325.57 -664.11 6.23 
320.99 -673.01 6.65 
320.69 -673.46 6.65 
320.61 -674.34 6.60 
325.56 -665.34 6.17 
320.73 -674.30 6.59 
326.60 -664.15 6.13 
325.47 -665.74 6.16 
325.72 -666.67 6.09 
321.64 -674.10 6.50 
326.02 -666.38 6.08 
323.94 -671.45 6.44 
322.46 -674.96 6.35 
322.78 -675.04 6.31 
325.76 -671.85 6.22 
325.70 -672.24 6.31 
325.43 -672.70 6.31 
326.19 -671.49 6.31 
325.94 -672.13 6.29 
325.24 -673.49 6.16 
325.13 -673.71 6.28 
326.90 -671.41 6.24 
326.38 -672.92 6.19 
325.55 -676.79 6.30 
324.55 -678.16 6.28 
325.09 -678.84 6.15 
325.29 -679.67 6.40 
326.26 -679.40 6.32 
326.74 -679.25 6.28 
322.07 -657.95 6.87 
322.96 -657.71 6.67 
323.94 -657.37 6.72 
322.84 -659.52 6.72 
324.43 -658.13 6.63 
323.46 -660.58 6.61 
321.18 -667.15 7.03 
326.22 -659.81 6.38 
325.38 -673.24 6.74 
323.59 -677.26 6.89 
322.83 -664.34 7.17 
322.78 -664.34 7.18 
322.44 -664.88 7.18 
324.07 -663.09 7.12 
323.09 -665.67 7.05 
324.15 -665.77 6.93 
321.08 -671.92 7.26 
322.00 -671.54 7.19 
321.45 -671.98 7.21 
322.75 -673.10 7.47 
323.31 -672.80 7.43 
322.41 -678.85 7.27 
325.96 -674.16 7.02 
326.32 -677.17 7.02 
326.47 -677.88 6.86 
327.73 -679.60 6.80 
328.48 -678.67 6.88 
328.39 -679.21 6.78 
328.52 -679.22 6.78 
322.26 -658.13 7.67 
324.21 -656.97 7.54 
324.68 -659.67 7.30 
324.76 -664.99 7.56 
324.67 -665.88 7.49 
325.83 -671.11 7.38 
325.81 -671.59 7.29 
326.60 -676.64 7.43 
326.21 -677.54 7.33 
324.15 -656.60 8.42 
324.11 -659.19 8.18 
324.17 -671.64 8.55 
325.37 -673.38 8.11 
324.18 -671.06 8.64 
323.98 -672.66 4.54 
320.80 -664.30 5.40 
323.33 -662.78 5.23 
323.15 -665.06 5.22 
323.76 -664.79 5.17 
323.57 -666.08 5.17 
324.89 -667.65 5.05 
324.65 -667.84 5.07 
322.15 -672.34 5.20 
325.95 -667.10 4.98 
323.69 -672.66 5.08 
324.00 -672.60 5.06 
323.92 -672.85 5.06 
324.99 -672.04 4.99 
323.52 -674.24 5.08 
324.32 -663.89 5.34 
323.60 -665.06 5.38 
322.96 -665.61 5.42 
324.18 -664.24 5.35 
322.10 -672.60 5.41 
321.95 -672.59 5.42 
325.64 -667.14 5.20 
325.29 -667.23 5.22 
322.08 -674.38 5.68 
323.96 -672.14 5.27 
323.95 -672.51 5.58 
323.50 -673.28 5.29 
323.41 -673.63 5.59 
324.34 -672.33 5.24 
323.89 -673.09 5.26 
323.80 -673.35 5.27 
323.21 -674.03 5.31 
325.23 -671.95 5.50 
323.41 -674.69 5.28 
325.37 -671.93 5.49 
325.28 -672.59 5.16 
325.18 -672.63 5.17 
324.16 -674.23 5.51 
323.35 -675.87 5.52 
325.46 -672.49 5.15 
324.35 -675.46 5.45 
323.00 -678.47 5.46 
323.03 -679.09 5.64 
326.41 -673.53 5.35 
324.36 -677.75 5.37 
324.75 -678.43 5.31 
324.68 -678.71 5.31 
325.63 -677.99 5.44 
325.39 -678.76 5.25 
325.26 -679.19 5.25 
325.51 -678.87 5.24 
326.51 -678.02 5.19 
326.26 -678.66 5.18 
326.64 -678.57 5.16 
326.34 -679.51 5.15 
326.42 -663.69 5.70 
326.38 -664.35 5.84 
325.38 -666.02 5.86 
326.12 -665.49 5.66 
326.02 -665.68 5.66 
323.03 -673.27 5.82 
322.56 -673.64 5.85 
325.22 -670.21 5.56 
322.14 -675.63 6.10 
322.69 -675.44 6.06 
323.49 -674.42 5.74 
322.91 -676.10 6.00 
325.15 -672.23 5.67 
324.92 -673.22 5.66 
325.21 -673.28 5.63 
324.95 -673.65 5.64 
323.27 -676.67 5.81 
323.94 -676.39 5.64 
326.38 -673.01 5.54 
325.50 -675.25 5.54 
326.65 -674.23 5.48 
326.47 -674.34 5.49 
324.10 -678.31 5.76 
326.56 -675.16 5.45 
327.46 -674.08 5.57 
324.89 -678.92 5.66 
324.59 -679.43 5.66 
325.84 -677.58 5.65 
326.83 -677.71 5.71 
326.53 -678.04 5.57 
327.36 -677.41 5.53 
327.50 -677.61 5.51 
326.22 -679.39 5.51 
327.16 -679.04 5.46 
326.80 -679.68 5.62 
322.77 -658.66 6.33 
324.13 -658.07 6.24 
326.26 -657.34 6.09 
326.45 -657.23 6.08 
325.62 -659.20 6.08 
326.20 -658.49 6.06 
325.36 -660.97 6.04 
321.91 -667.83 6.55 
320.18 -673.22 6.42 
320.02 -673.31 6.43 
320.68 -673.25 6.37 
321.05 -673.23 6.33 
321.52 -673.18 6.29 
323.60 -672.59 6.13 
323.97 -673.12 6.23 
322.64 -676.37 6.46 
322.45 -676.61 6.46 
326.06 -670.82 6.03 
325.11 -672.87 5.98 
326.22 -671.45 5.98 
325.09 -673.60 5.94 
326.49 -671.82 5.93 
324.96 -674.22 6.08 
326.71 -672.09 5.90 
326.29 -673.48 5.99 
325.34 -675.75 5.96 
325.91 -675.08 6.25 
325.01 -679.64 5.96 
325.46 -679.56 6.29 
326.94 -677.54 5.96 
326.38 -678.32 5.94 
327.23 -678.56 5.85 
321.29 -666.46 6.85 
321.14 -666.53 6.86 
324.93 -661.82 6.64 
323.03 -665.50 6.74 
323.43 -664.86 6.59 
325.43 -663.65 6.62 
326.17 -663.20 6.59 
325.85 -663.43 6.48 
326.09 -663.93 6.55 
325.72 -664.09 6.57 
321.32 -672.50 6.89 
320.61 -673.34 6.90 
320.36 -673.67 6.90 
326.51 -663.94 6.51 
321.33 -672.60 6.88 
321.19 -673.04 6.87 
326.96 -664.15 6.46 
325.73 -665.67 6.48 
325.82 -666.58 6.42 
322.68 -672.54 6.75 
321.68 -673.93 6.75 
321.70 -674.40 6.71 
322.51 -674.04 6.65 
324.23 -672.36 6.62 
323.24 -674.39 6.55 
322.99 -675.02 6.53 
326.73 -672.94 6.45 
324.12 -677.87 6.60 
325.29 -678.52 6.41 
327.52 -676.45 6.45 
326.67 -678.56 6.27 
327.17 -679.18 6.52 
323.32 -657.68 7.15 
325.12 -655.36 7.01 
324.34 -657.66 7.06 
325.45 -659.03 6.89 
326.32 -659.76 6.77 
323.29 -672.22 7.26 
322.80 -672.85 7.24 
322.73 -673.08 7.23 
323.51 -673.32 7.12 
325.67 -670.74 6.73 
324.36 -673.08 7.18 
325.93 -671.51 7.08 
325.98 -674.58 6.75 
324.34 -677.39 7.04 
327.97 -679.44 6.77 
327.64 -679.46 6.79 
323.07 -664.30 7.50 
324.24 -663.04 7.48 
324.80 -663.44 7.39 
321.12 -671.85 7.53 
323.65 -673.43 7.61 
323.56 -673.65 7.59 
322.40 -678.81 7.51 
322.83 -678.31 7.52 
322.82 -678.55 7.49 
323.35 -678.91 7.36 
323.20 -679.50 7.30 
323.67 -679.27 7.27 
325.78 -679.18 7.40 
326.12 -679.23 7.35 
328.07 -679.03 7.16 
328.54 -679.27 7.06 
328.98 -679.07 7.04 
328.86 -679.33 7.01 
324.00 -658.97 7.83 
324.83 -659.37 7.72 
324.50 -659.93 7.70 
326.19 -670.84 7.68 
324.03 -677.25 7.95 
322.00 -672.57 8.45 
326.64 -672.81 7.91 
322.17 -658.43 8.88 
322.44 -671.31 8.58 
323.19 -673.61 8.67 
321.91 -662.06 5.03 
322.43 -662.19 4.99 
322.20 -662.19 5.01 
318.14 -665.65 5.29 
317.34 -666.56 5.35 
321.72 -663.17 5.04 
317.98 -666.64 5.31 
317.79 -666.78 5.32 
319.38 -665.90 5.21 
318.81 -666.32 5.25 
318.23 -666.73 5.29 
319.26 -666.32 5.22 
325.79 -667.81 4.76 
325.96 -667.86 4.75 
325.45 -674.30 4.57 
325.15 -674.79 4.82 
324.98 -674.89 4.72 
325.33 -675.01 4.80 
324.92 -675.17 4.61 
317.24 -666.25 5.90 
317.56 -666.25 5.88 
319.65 -665.20 5.75 
318.24 -666.46 5.82 
317.95 -666.70 5.84 
318.73 -666.37 5.79 
318.62 -666.68 5.79 
319.49 -666.38 5.73 
319.06 -666.65 5.76 
325.09 -665.91 5.34 
325.94 -667.15 5.25 
326.11 -667.20 5.23 
323.81 -669.95 5.34 
322.77 -673.13 5.34 
322.97 -673.14 5.33 
323.89 -673.00 5.26 
324.69 -672.93 5.21 
324.63 -674.26 5.18 
322.58 -675.72 5.30 
324.37 -674.92 5.19 
325.45 -674.21 5.13 
325.09 -674.83 5.14 
326.66 -673.75 5.05 
325.22 -675.29 5.12 
324.91 -675.28 5.14 
325.85 -675.32 5.07 
327.19 -674.78 4.99 
319.98 -661.52 5.80 
319.74 -662.01 5.81 
321.26 -661.75 5.70 
320.85 -661.82 5.73 
320.51 -661.96 5.76 
320.28 -662.38 5.76 
321.23 -661.87 5.70 
