# .PCD v0.7 - Point Cloud Data file format
VERSION 0.7
FIELDS x y z
SIZE 4 4 4
TYPE F F F
COUNT 1 1 1
WIDTH 2491
HEIGHT 1
VIEWPOINT 0 0 0 1 0 0 0
POINTS 2491
DATA ascii
358.44 9.17 0.95 
354.62 8.97 0.77 
354.90 9.05 0.78 
355.26 9.04 0.80 
355.10 9.62 0.81 
355.04 9.77 0.81 
357.34 10.89 0.95 
355.02 10.21 0.82 
355.56 11.18 0.87 
357.76 12.22 1.01 
360.12 13.23 1.18 
358.16 12.81 1.05 
358.30 13.06 1.07 
358.40 13.33 1.08 
358.49 13.63 1.10 
359.57 14.47 1.19 
360.67 14.90 1.27 
363.74 16.12 1.52 
360.60 15.01 1.27 
361.48 15.71 1.36 
362.15 16.05 1.41 
363.76 16.75 1.55 
364.02 16.78 1.57 
361.56 15.95 1.37 
363.94 17.03 1.57 
364.19 17.35 1.61 
364.49 17.68 1.64 
364.78 17.98 1.68 
365.80 18.55 1.78 
366.09 18.72 1.81 
363.75 18.52 1.64 
360.02 8.81 1.02 
360.40 8.86 1.05 
352.60 10.23 1.58 
353.08 10.38 1.61 
353.07 10.49 1.61 
364.89 15.64 1.57 
353.37 10.93 1.63 
353.79 11.25 1.66 
354.71 11.95 1.72 
366.41 17.47 1.76 
355.42 12.52 1.77 
366.39 17.83 1.78 
354.66 13.00 1.73 
355.94 13.42 1.82 
356.17 13.56 1.84 
356.82 13.69 1.88 
355.60 14.57 1.81 
355.86 14.95 1.84 
356.04 15.90 1.87 
354.71 8.76 1.69 
356.22 9.44 1.79 
354.30 9.66 1.68 
354.59 9.72 1.69 
356.50 10.85 1.82 
359.31 12.35 2.04 
360.65 13.02 2.15 
352.93 9.70 1.60 
354.59 10.65 1.70 
357.07 11.49 1.87 
357.42 11.91 1.90 
357.75 11.97 1.92 
354.69 10.88 1.71 
359.57 13.26 2.07 
359.73 13.50 2.09 
360.99 14.15 2.20 
358.52 13.44 2.00 
361.04 14.55 2.21 
359.29 14.99 2.09 
360.43 15.36 2.19 
359.07 15.12 2.08 
359.42 15.39 2.11 
359.89 15.88 2.16 
360.05 16.08 2.18 
360.33 16.14 2.20 
360.52 16.34 2.22 
364.34 18.04 2.60 
359.87 8.00 2.01 
360.21 8.51 2.04 
357.25 8.68 1.85 
360.55 10.67 2.10 
360.85 10.78 2.12 
364.70 16.75 2.58 
366.38 17.32 2.75 
366.42 17.71 2.77 
354.14 12.66 2.55 
364.33 17.29 2.57 
354.60 12.98 2.58 
355.95 13.76 2.69 
356.37 15.49 2.73 
355.16 15.22 2.62 
355.34 15.39 2.63 
354.24 9.71 2.58 
354.40 9.96 2.59 
355.74 10.43 2.69 
354.74 10.37 2.61 
355.15 10.74 2.64 
357.40 11.84 2.82 
355.43 11.55 2.66 
356.00 12.18 2.70 
358.81 13.50 2.94 
358.66 14.74 2.93 
358.94 14.85 2.96 
359.10 15.07 2.97 
358.52 8.94 2.92 
359.57 9.45 3.00 
355.69 8.76 2.70 
356.12 9.10 2.73 
358.01 10.71 2.87 
358.39 11.13 2.90 
361.61 13.51 3.20 
354.25 10.48 3.47 
354.44 11.06 3.47 
354.60 11.22 3.48 
358.43 13.40 3.81 
359.33 14.03 3.90 
354.83 12.24 3.47 
355.23 12.52 3.50 
359.33 14.40 3.90 
355.85 13.01 3.55 
356.27 13.34 3.59 
358.26 14.29 3.78 
359.39 14.71 3.90 
359.75 14.73 3.94 
357.30 14.12 3.68 
359.61 15.15 3.93 
359.37 10.88 3.95 
356.47 9.89 3.69 
359.42 11.25 3.95 
359.27 11.80 3.92 
356.96 11.41 3.70 
359.92 13.12 3.98 
358.43 12.96 3.82 
352.58 14.16 -1.62 
351.90 14.27 -1.61 
352.05 14.39 -1.60 
352.70 15.44 -1.51 
352.99 15.51 -1.51 
356.14 17.11 -1.37 
356.95 17.52 -1.33 
356.49 18.27 -1.27 
357.16 18.88 -1.21 
357.17 10.43 -1.90 
354.35 9.65 -1.97 
361.30 13.42 -1.65 
361.57 13.55 -1.63 
352.11 9.64 -1.97 
352.31 9.81 -1.96 
352.49 9.94 -1.95 
353.24 10.75 -1.88 
353.10 11.32 -1.84 
366.07 17.36 -1.28 
366.17 17.62 -1.25 
352.43 11.45 -1.83 
357.21 15.85 -1.46 
356.31 16.45 -1.42 
357.95 18.08 -1.28 
341.69 13.77 -0.26 
342.32 14.37 -0.23 
342.02 14.62 -0.23 
354.15 14.72 0.05 
355.40 16.46 0.17 
342.21 12.83 -0.28 
342.62 12.97 -0.27 
354.31 9.54 -0.17 
352.52 9.25 -0.23 
352.80 9.39 -0.21 
353.99 9.52 -0.18 
355.79 10.72 -0.08 
356.23 11.02 -0.05 
352.91 9.70 -0.20 
353.21 9.67 -0.19 
353.46 9.73 -0.18 
355.79 11.08 -0.06 
357.55 11.94 0.03 
357.74 12.17 0.05 
356.91 11.90 0.01 
357.90 12.55 0.07 
351.70 10.57 -0.20 
352.23 11.58 -0.14 
359.29 15.13 0.25 
352.27 11.88 -0.13 
358.77 15.23 0.24 
359.40 15.35 0.27 
359.59 15.54 0.29 
353.68 13.29 -0.03 
354.47 13.50 0.00 
357.06 14.82 0.15 
357.36 15.94 0.22 
358.34 17.35 0.33 
364.00 19.84 0.73 
358.80 18.15 0.39 
359.09 18.40 0.42 
342.59 12.37 0.42 
342.68 13.40 0.43 
342.37 13.64 0.43 
341.77 14.66 0.43 
356.13 7.98 -0.18 
356.96 8.71 -0.13 
360.61 10.31 0.07 
356.10 8.41 -0.17 
356.52 8.90 -0.13 
360.11 10.42 0.05 
355.64 9.13 -0.15 
356.43 9.46 -0.11 
355.72 9.49 -0.13 
361.58 12.62 0.21 
363.26 13.43 0.32 
361.86 13.54 0.27 
364.96 15.06 0.49 
366.41 15.80 0.59 
359.87 13.11 0.17 
364.26 15.24 0.47 
364.99 15.41 0.51 
366.46 16.16 0.62 
362.61 15.05 0.38 
362.83 15.24 0.40 
364.62 16.16 0.53 
364.91 16.49 0.57 
362.84 15.98 0.45 
365.74 17.38 0.66 
366.20 17.56 0.69 
365.88 17.58 0.68 
364.98 17.56 0.63 
352.63 13.85 0.76 
353.97 15.52 0.86 
353.88 16.31 0.88 
354.28 16.41 0.90 
355.96 11.25 0.84 
353.95 10.39 0.73 
354.07 11.14 0.76 
359.14 14.42 1.10 
352.53 11.68 0.70 
352.81 11.91 0.72 
358.07 14.42 1.04 
359.88 15.60 1.18 
353.03 12.92 0.75 
359.44 15.65 1.16 
353.08 13.21 0.76 
353.41 13.56 0.78 
353.42 13.95 0.79 
354.29 14.41 0.85 
359.54 16.88 1.21 
356.71 16.12 1.02 
357.50 16.75 1.09 
357.46 17.12 1.10 
358.04 17.58 1.15 
359.41 18.04 1.25 
359.46 18.27 1.26 
357.96 17.92 1.16 
360.35 10.05 1.02 
355.76 8.31 0.76 
355.78 8.35 0.77 
358.33 9.71 0.91 
360.51 10.67 1.05 
360.28 11.31 1.06 
355.31 9.38 0.77 
359.83 11.43 1.04 
359.50 12.20 1.05 
361.17 12.91 1.16 
356.22 11.36 0.86 
357.46 11.98 0.93 
359.32 12.77 1.05 
357.77 12.20 0.96 
364.05 15.46 1.43 
364.18 15.90 1.45 
361.15 14.77 1.23 
364.17 16.27 1.47 
366.34 17.40 1.66 
359.50 14.44 1.12 
361.49 15.54 1.28 
364.21 16.61 1.49 
361.60 15.87 1.29 
361.88 15.93 1.31 
364.19 17.20 1.51 
364.73 17.63 1.57 
365.00 17.79 1.59 
364.34 17.55 1.54 
365.87 18.58 1.69 
364.57 18.38 1.59 
365.54 18.73 1.67 
366.04 18.80 1.71 
364.13 19.01 1.59 
364.05 19.40 1.61 
360.74 10.07 1.04 
352.66 10.34 1.54 
353.15 10.50 1.57 
353.35 11.14 1.58 
357.10 13.48 1.83 
353.72 12.15 1.61 
355.15 12.58 1.70 
359.27 15.35 2.01 
356.15 14.82 1.78 
357.89 15.96 1.92 
357.24 9.15 1.80 
357.08 9.79 1.79 
357.94 10.08 1.85 
357.21 9.99 1.80 
358.15 11.05 1.87 
354.82 10.41 1.66 
357.30 11.68 1.82 
359.37 12.63 1.97 
360.04 12.75 2.02 
355.32 11.05 1.70 
357.80 12.09 1.86 
359.71 13.40 2.01 
358.45 13.20 1.92 
364.59 16.88 2.47 
359.34 15.23 2.02 
359.67 15.52 2.05 
364.15 17.59 2.46 
359.87 15.87 2.07 
360.31 16.00 2.11 
364.25 18.02 2.48 
359.76 8.41 1.95 
359.34 8.35 1.92 
360.21 8.78 1.98 
360.20 9.68 1.99 
361.72 10.99 2.11 
360.93 11.37 2.06 
366.38 17.45 2.64 
366.32 18.18 2.67 
354.11 12.50 2.48 
357.30 15.33 2.72 
356.58 15.76 2.66 
356.01 10.52 2.65 
357.44 11.01 2.75 
354.65 10.07 2.55 
356.37 10.92 2.67 
357.71 11.92 2.77 
355.94 11.51 2.63 
356.07 11.70 2.64 
359.72 13.74 2.93 
354.39 11.32 2.52 
360.85 14.54 3.04 
358.44 14.61 2.82 
358.89 14.91 2.86 
355.47 8.51 2.63 
358.34 9.51 2.83 
355.13 8.59 2.61 
359.22 11.08 2.90 
361.60 13.08 3.10 
359.65 12.57 2.93 
361.64 13.44 3.11 
356.18 13.54 3.49 
359.60 8.94 2.94 
357.24 11.50 3.64 
354.31 10.55 3.41 
357.39 11.78 3.65 
357.86 12.05 3.69 
353.99 10.51 3.38 
354.28 11.02 3.39 
354.82 11.16 3.43 
356.27 11.86 3.54 
358.43 13.35 3.72 
354.73 12.10 3.39 
357.34 13.74 3.60 
359.19 14.34 3.78 
359.34 14.74 3.79 
359.81 14.66 3.85 
357.10 14.04 3.57 
357.35 14.09 3.60 
359.29 15.47 3.78 
358.63 10.32 3.80 
360.28 12.24 3.93 
358.75 11.84 3.78 
359.86 12.73 3.88 
351.51 12.36 -1.74 
352.31 12.91 -1.70 
352.39 13.16 -1.68 
353.09 14.62 -1.57 
351.77 14.13 -1.61 
356.08 16.65 -1.41 
356.96 17.40 -1.35 
354.52 16.63 -1.41 
341.54 13.75 -1.55 
341.73 13.75 -1.56 
359.11 9.06 -2.02 
361.55 10.36 -1.92 
359.81 12.19 -1.77 
355.87 10.54 -1.90 
353.08 9.34 -1.98 
355.97 10.86 -1.87 
360.79 13.23 -1.68 
351.97 9.64 -1.95 
357.77 12.48 -1.75 
357.98 12.58 -1.74 
352.41 10.46 -1.89 
352.62 10.54 -1.89 
355.96 13.01 -1.70 
357.94 14.60 -1.58 
351.81 12.28 -1.75 
342.70 14.03 -0.18 
341.53 14.35 -0.18 
353.78 14.33 0.01 
354.30 14.54 0.03 
356.14 16.37 0.17 
355.84 16.40 0.16 
352.62 15.53 0.03 
354.78 16.81 0.14 
341.90 11.77 -0.25 
342.42 12.12 -0.24 
342.49 12.73 -0.22 
342.97 13.16 -0.21 
353.98 8.75 -0.21 
353.83 9.07 -0.20 
355.63 10.25 -0.11 
352.52 9.14 -0.22 
352.81 9.18 -0.22 
354.10 9.85 -0.16 
354.96 10.19 -0.13 
355.15 10.38 -0.12 
356.49 11.18 -0.05 
356.75 11.37 -0.04 
359.18 12.27 0.07 
352.19 9.18 -0.23 
352.83 9.64 -0.20 
353.17 9.62 -0.19 
357.03 11.74 -0.01 
357.44 12.03 0.01 
360.02 13.21 0.15 
357.87 12.60 0.05 
351.64 10.50 -0.19 
353.27 11.35 -0.12 
358.01 13.65 0.10 
358.67 13.71 0.12 
353.35 11.60 -0.11 
358.45 14.31 0.15 
352.41 11.72 -0.13 
354.04 12.37 -0.07 
358.61 15.20 0.19 
353.61 13.36 -0.04 
357.82 15.72 0.19 
358.46 18.02 0.33 
342.09 13.22 0.48 
341.62 13.24 0.48 
356.89 8.04 -0.17 
355.86 8.02 -0.19 
354.37 7.61 -0.24 
355.13 7.98 -0.21 
355.86 8.52 -0.17 
357.17 9.01 -0.12 
360.18 10.80 0.04 
361.90 12.66 0.18 
361.79 13.20 0.21 
362.09 13.33 0.22 
362.30 13.45 0.24 
361.77 13.57 0.22 
352.68 13.84 0.75 
353.89 14.97 0.82 
355.84 11.22 0.82 
354.24 11.14 0.75 
352.56 10.95 0.69 
359.06 14.13 1.04 
359.65 14.49 1.08 
359.79 15.46 1.12 
352.92 13.07 0.74 
353.13 13.13 0.75 
359.46 16.98 1.15 
357.19 16.28 1.01 
357.30 16.52 1.02 
357.92 17.58 1.09 
358.15 17.67 1.11 
358.14 8.68 0.85 
358.40 8.82 0.87 
359.78 9.33 0.94 
358.82 9.21 0.89 
359.00 9.37 0.90 
361.10 10.52 1.03 
356.64 8.77 0.79 
359.95 10.54 0.98 
360.38 10.42 0.99 
360.60 10.68 1.01 
354.51 8.95 0.72 
354.90 9.13 0.74 
355.15 9.45 0.75 
360.89 12.79 1.09 
361.55 13.31 1.14 
359.42 12.80 1.02 
359.60 12.94 1.03 
364.02 15.26 1.34 
357.77 12.23 0.92 
363.98 15.35 1.34 
364.10 15.56 1.36 
365.69 16.46 1.49 
363.84 16.00 1.36 
364.04 16.32 1.39 
366.28 17.51 1.57 
361.42 15.56 1.21 
361.70 15.86 1.23 
361.96 15.94 1.25 
364.39 17.50 1.46 
364.88 17.66 1.49 
365.81 18.53 1.59 
366.01 18.74 1.61 
363.89 18.89 1.49 
352.80 9.54 1.55 
354.70 10.93 1.64 
352.59 10.27 1.54 
352.92 10.33 1.55 
353.24 10.54 1.57 
354.79 11.24 1.64 
355.38 12.19 1.68 
355.49 12.46 1.69 
353.79 12.12 1.59 
358.90 14.80 1.92 
359.22 15.51 1.95 
359.59 15.57 1.98 
360.01 15.71 2.01 
360.30 15.94 2.03 
358.93 15.44 1.93 
360.39 16.19 2.04 
355.88 14.74 1.73 
357.08 8.99 1.76 
357.24 9.20 1.77 
356.31 9.53 1.72 
357.96 10.19 1.81 
357.48 10.29 1.79 
358.06 10.87 1.82 
359.65 11.56 1.93 
354.54 9.71 1.63 
355.77 10.35 1.69 
354.43 10.41 1.62 
357.84 12.06 1.82 
359.48 12.65 1.93 
359.59 13.25 1.94 
360.79 14.03 2.03 
361.18 13.96 2.06 
358.32 13.14 1.86 
358.50 13.26 1.87 
364.32 16.41 2.34 
364.48 16.65 2.36 
364.56 16.87 2.37 
365.04 17.62 2.43 
364.20 17.90 2.37 
359.16 8.23 1.87 
359.17 8.61 1.87 
359.76 8.88 1.91 
360.83 9.89 1.98 
360.94 11.41 2.01 
366.20 17.11 2.51 
353.50 11.23 2.44 
366.33 17.39 2.53 
353.70 11.37 2.45 
354.55 13.10 2.48 
354.82 13.18 2.49 
357.33 15.20 2.66 
355.26 8.56 2.60 
355.81 9.19 2.62 
357.34 10.80 2.70 
355.86 10.50 2.60 
353.97 9.98 2.49 
357.84 11.89 2.73 
359.53 12.51 2.85 
360.53 12.97 2.93 
355.78 11.13 2.59 
357.05 12.42 2.66 
360.82 14.59 2.96 
359.55 14.42 2.85 
358.32 10.10 2.78 
359.64 11.13 2.87 
361.71 13.35 3.03 
361.37 13.36 3.00 
354.68 12.05 3.36 
356.47 13.89 3.45 
357.00 11.21 3.58 
357.08 11.54 3.57 
357.95 12.09 3.64 
354.27 10.85 3.37 
356.93 12.13 3.54 
357.37 12.43 3.58 
357.90 12.96 3.61 
358.35 13.25 3.64 
358.95 13.81 3.69 
358.65 13.74 3.66 
358.99 14.16 3.69 
359.22 14.29 3.71 
359.68 14.57 3.75 
357.87 14.22 3.58 
359.52 15.46 3.72 
359.24 11.01 3.78 
359.28 11.87 3.76 
359.91 13.13 3.80 
358.53 18.06 -1.31 
363.62 13.48 -1.67 
365.67 15.07 -1.53 
352.88 9.76 -1.95 
366.11 17.67 -1.31 
363.93 17.97 -1.29 
363.86 19.57 -1.16 
343.54 15.18 -0.52 
341.71 15.31 -0.51 
342.37 15.74 -0.49 
342.86 15.72 -0.49 
343.95 13.96 -0.58 
342.75 14.09 -0.19 
341.81 12.18 -0.24 
343.01 12.56 -0.23 
341.54 13.05 -0.21 
342.78 13.43 -0.20 
343.15 13.56 0.13 
343.59 14.62 0.17 
352.97 8.95 -0.23 
352.63 9.06 -0.23 
360.76 13.39 0.15 
352.83 9.78 -0.20 
360.10 13.31 0.13 
360.26 13.46 0.14 
362.55 15.08 0.30 
361.39 14.70 0.24 
351.53 10.49 -0.20 
362.95 16.13 0.37 
364.51 18.24 0.54 
361.58 17.07 0.36 
357.72 15.71 0.16 
363.93 19.77 0.60 
342.02 12.96 0.48 
341.53 13.21 0.48 
354.65 7.11 -0.26 
365.18 13.75 0.33 
361.91 12.99 0.17 
361.30 13.21 0.16 
362.44 13.59 0.22 
363.87 14.63 0.32 
365.09 15.44 0.41 
365.96 15.76 0.47 
366.34 15.88 0.49 
364.20 15.43 0.38 
365.44 16.25 0.47 
365.97 16.56 0.51 
364.75 16.09 0.44 
364.83 16.39 0.45 
365.57 16.81 0.51 
366.14 17.44 0.57 
366.11 17.53 0.57 
357.24 16.73 0.99 
357.29 17.02 1.00 
358.31 17.97 1.08 
358.67 18.34 1.11 
343.24 13.83 0.86 
342.58 14.65 0.86 
342.97 14.83 0.87 
343.03 15.17 0.87 
352.55 10.97 0.67 
359.44 14.27 1.03 
360.16 14.73 1.07 
361.38 15.37 1.16 
361.39 15.67 1.17 
361.95 15.92 1.21 
359.75 15.52 1.08 
360.08 15.56 1.10 
363.74 18.72 1.42 
359.46 17.19 1.12 
357.15 16.11 0.97 
357.18 16.44 0.98 
360.21 13.03 1.03 
361.56 13.60 1.11 
359.78 13.11 1.01 
364.74 15.63 1.35 
363.99 15.49 1.31 
363.72 16.15 1.31 
361.95 15.51 1.19 
364.17 16.48 1.35 
366.25 17.66 1.53 
366.39 17.91 1.55 
364.09 16.86 1.36 
364.10 17.20 1.38 
364.51 17.27 1.40 
364.71 17.47 1.42 
365.72 17.73 1.50 
363.79 17.16 1.36 
363.93 17.40 1.37 
364.81 17.73 1.44 
365.85 18.61 1.54 
364.44 18.32 1.44 
356.14 15.72 1.71 
354.51 10.83 1.61 
354.96 11.10 1.63 
352.96 10.40 1.54 
353.75 11.06 1.57 
354.48 11.26 1.60 
358.42 13.36 1.83 
353.28 10.87 1.55 
355.25 12.48 1.64 
356.99 13.49 1.74 
354.56 13.02 1.61 
359.26 15.51 1.91 
359.74 15.46 1.94 
359.90 15.66 1.95 
359.76 16.15 1.95 
355.78 14.67 1.68 
356.11 14.95 1.70 
357.83 15.94 1.82 
357.19 8.72 1.74 
357.03 9.04 1.73 
355.73 8.89 1.67 
356.35 9.46 1.70 
357.67 10.44 1.77 
360.92 12.14 1.97 
357.21 10.68 1.74 
359.95 12.00 1.91 
359.50 12.18 1.89 
360.80 13.17 1.98 
356.95 11.48 1.73 
357.49 12.00 1.77 
359.26 12.87 1.88 
359.52 12.98 1.89 
362.31 14.31 2.10 
360.88 13.89 1.99 
361.12 13.96 2.01 
364.45 16.67 2.30 
366.27 17.51 2.47 
366.49 17.67 2.49 
364.53 17.10 2.32 
364.90 17.57 2.36 
365.04 17.75 2.37 
364.11 17.83 2.30 
355.67 15.78 2.48 
359.98 8.34 1.89 
360.35 10.20 1.92 
356.06 12.58 2.55 
356.23 12.70 2.56 
354.36 12.79 2.43 
356.02 13.87 2.53 
357.31 10.39 2.67 
354.31 9.85 2.49 
359.48 12.52 2.80 
353.32 10.13 2.43 
355.36 11.26 2.53 
355.88 11.50 2.56 
357.17 12.74 2.63 
360.82 14.63 2.90 
359.96 15.13 2.83 
359.51 8.94 2.85 
361.62 13.35 2.97 
354.96 12.20 3.34 
355.99 13.41 3.38 
357.91 14.45 3.52 
359.08 15.41 3.61 
360.00 13.04 3.75 
353.82 10.31 3.33 
354.26 10.50 3.35 
357.04 11.98 3.51 
358.23 12.66 3.60 
354.30 10.98 3.33 
358.37 12.83 3.60 
354.41 11.29 3.33 
359.07 13.69 3.65 
357.28 13.41 3.49 
359.18 14.36 3.64 
359.29 14.61 3.65 
359.50 14.70 3.66 
358.90 10.98 3.71 
360.56 12.77 3.81 
358.00 12.52 -2.65 
351.83 12.38 -1.76 
356.50 16.20 -1.48 
351.85 14.31 -1.61 
358.23 17.79 -1.36 
352.73 15.82 -1.50 
356.90 17.87 -1.35 
356.61 17.90 -1.35 
357.04 18.05 -1.34 
356.29 18.61 -1.30 
358.84 8.68 -2.07 
356.58 9.45 -2.00 
358.78 11.63 -1.84 
356.13 10.68 -1.91 
357.17 10.98 -1.89 
357.28 11.32 -1.86 
357.92 12.51 -1.77 
366.07 17.49 -1.36 
353.97 11.66 -1.82 
353.60 11.80 -1.81 
366.46 18.64 -1.26 
351.84 11.87 -1.80 
352.10 12.35 -1.76 
359.71 16.24 -1.48 
359.95 16.35 -1.47 
355.24 14.28 -1.63 
342.20 12.98 -1.36 
342.36 13.19 -1.35 
341.69 13.83 -1.30 
342.48 14.13 -0.57 
341.93 14.99 -0.53 
342.13 15.47 -0.50 
341.53 12.29 -0.66 
342.30 12.78 -0.64 
353.74 14.62 -0.03 
356.39 16.12 0.10 
353.80 14.89 -0.02 
354.67 15.74 0.03 
355.52 16.17 0.07 
355.24 16.14 0.06 
358.83 18.09 0.26 
358.99 18.20 0.27 
352.21 15.23 -0.04 
342.62 13.10 0.12 
341.99 13.43 0.12 
342.90 14.15 0.15 
342.05 14.00 0.14 
343.04 14.38 0.16 
341.79 14.10 0.14 
352.80 8.82 -0.25 
352.98 8.96 -0.24 
353.63 8.99 -0.23 
359.96 12.59 0.05 
353.79 9.69 -0.20 
354.23 9.98 -0.19 
356.54 10.88 -0.11 
361.01 13.39 0.12 
352.66 9.65 -0.22 
352.86 9.78 -0.22 
357.76 12.37 -0.02 
360.28 13.47 0.10 
361.69 13.93 0.16 
353.58 10.67 -0.17 
357.46 12.33 -0.03 
361.63 14.39 0.18 
362.74 15.11 0.25 
353.74 10.93 -0.16 
358.00 13.28 0.02 
364.75 16.66 0.40 
352.60 10.75 -0.19 
358.00 13.70 0.04 
362.95 16.04 0.30 
354.05 11.86 -0.12 
357.98 14.19 0.06 
353.61 12.11 -0.12 
354.35 12.80 -0.08 
353.19 12.34 -0.12 
355.22 13.74 -0.03 
358.04 15.05 0.10 
353.70 13.38 -0.08 
354.91 13.67 -0.04 
355.47 14.23 0.00 
357.88 15.51 0.11 
359.16 15.94 0.17 
364.08 18.31 0.46 
357.83 15.95 0.13 
359.07 17.49 0.24 
341.85 13.10 0.51 
341.58 13.25 0.52 
342.14 13.59 0.52 
356.85 7.84 -0.21 
357.35 8.65 -0.17 
354.89 7.83 -0.25 
363.08 12.76 0.15 
365.37 13.80 0.28 
362.36 12.79 0.13 
362.56 12.92 0.14 
361.39 12.62 0.09 
363.83 14.50 0.26 
365.29 15.01 0.34 
366.20 15.70 0.41 
364.47 14.97 0.31 
364.04 15.45 0.31 
364.63 16.03 0.37 
365.69 16.51 0.43 
364.66 16.37 0.38 
365.12 16.70 0.42 
366.30 17.53 0.51 
366.28 17.83 0.52 
353.13 13.30 0.71 
353.27 13.98 0.72 
353.91 14.22 0.75 
354.47 14.31 0.77 
353.78 14.92 0.76 
357.31 16.86 0.94 
357.37 17.14 0.95 
357.43 17.39 0.96 
358.06 17.74 1.00 
358.71 18.13 1.04 
357.77 17.71 0.99 
342.64 12.29 0.85 
342.04 13.25 0.84 
342.31 13.76 0.85 
341.88 13.79 0.85 
342.32 14.40 0.86 
341.98 14.72 0.85 
354.62 9.78 0.70 
357.08 11.62 0.82 
357.64 12.19 0.85 
353.29 9.99 0.66 
353.33 10.45 0.67 
358.14 12.84 0.88 
358.20 13.02 0.89 
358.32 13.24 0.90 
358.61 13.70 0.92 
359.25 14.18 0.96 
360.09 14.76 1.02 
360.47 14.78 1.03 
360.72 14.89 1.05 
352.39 10.90 0.65 
352.79 11.23 0.67 
357.08 13.38 0.85 
359.52 14.61 0.99 
361.37 15.72 1.11 
362.01 15.96 1.15 
363.58 16.89 1.26 
354.74 12.57 0.75 
363.81 17.39 1.29 
352.83 12.86 0.69 
353.07 12.93 0.70 
364.38 18.60 1.37 
363.64 18.59 1.33 
359.10 9.46 0.85 
359.74 10.09 0.89 
356.80 8.81 0.76 
358.13 9.34 0.81 
358.36 10.08 0.83 
354.86 8.93 0.70 
356.18 9.86 0.75 
359.17 11.24 0.89 
356.85 10.73 0.79 
361.47 12.86 1.03 
361.34 13.41 1.04 
359.62 12.85 0.95 
363.98 15.35 1.23 
363.74 16.00 1.24 
364.13 16.02 1.26 
365.23 16.87 1.35 
365.71 16.78 1.38 
366.32 17.41 1.44 
363.77 16.28 1.25 
364.11 16.72 1.28 
366.31 17.77 1.45 
363.97 17.04 1.29 
364.25 17.31 1.31 
365.03 17.77 1.37 
365.98 18.56 1.46 
366.37 18.72 1.49 
365.41 18.44 1.42 
353.62 10.46 1.54 
354.28 10.85 1.57 
353.06 10.37 1.52 
358.45 13.37 1.78 
353.31 10.90 1.53 
355.22 12.46 1.61 
360.03 15.57 1.89 
360.00 15.96 1.89 
355.91 14.71 1.64 
357.15 8.70 1.70 
355.99 9.26 1.65 
356.76 9.81 1.68 
355.41 9.49 1.62 
356.01 9.56 1.65 
360.58 12.10 1.89 
360.65 12.37 1.90 
354.82 9.85 1.60 
356.69 10.96 1.68 
359.50 12.55 1.83 
354.21 9.97 1.57 
356.94 11.47 1.69 
357.32 11.90 1.71 
357.74 12.16 1.73 
362.28 14.29 2.02 
359.41 13.10 1.83 
359.71 13.56 1.85 
360.94 14.18 1.93 
366.12 17.13 2.35 
364.36 16.46 2.20 
364.48 16.71 2.21 
366.21 17.41 2.36 
364.12 17.39 2.20 
364.17 17.84 2.22 
355.43 15.67 2.41 
360.14 8.51 1.85 
355.88 12.08 2.50 
357.02 12.69 2.56 
354.39 12.97 2.39 
356.55 14.98 2.50 
357.87 10.61 2.66 
357.86 10.99 2.65 
361.67 12.87 2.90 
354.45 9.90 2.47 
361.49 13.40 2.88 
357.85 12.00 2.63 
360.90 13.33 2.84 
355.24 11.10 2.48 
360.76 14.80 2.81 
358.51 9.11 2.73 
358.27 9.55 2.70 
354.51 11.78 3.28 
356.15 13.38 3.33 
359.31 15.44 3.54 
356.34 9.87 3.49 
358.99 11.67 3.63 
356.31 10.89 3.44 
354.15 10.39 3.31 
356.93 11.78 3.46 
359.90 13.09 3.66 
354.37 11.03 3.30 
357.87 12.69 3.50 
358.82 14.05 3.54 
359.28 14.30 3.57 
359.44 14.67 3.58 
360.12 11.16 3.74 
359.74 11.20 3.71 
360.21 11.48 3.74 
360.13 12.03 3.71 
354.20 14.96 -2.41 
360.73 10.56 -2.94 
360.28 13.02 -2.70 
357.72 12.44 -2.71 
352.05 13.00 -1.77 
354.45 14.13 -1.70 
356.55 16.12 -1.55 
358.28 17.75 -1.43 
356.63 17.53 -1.44 
354.17 16.68 -1.50 
355.56 17.40 -1.45 
356.58 17.97 -1.41 
342.15 13.39 -1.63 
358.87 8.07 -2.17 
358.54 8.13 -2.17 
359.71 8.99 -2.10 
357.06 9.87 -2.03 
363.64 13.65 -1.75 
356.46 11.33 -1.92 
352.51 9.56 -2.02 
357.68 12.38 -1.84 
365.74 17.07 -1.47 
356.78 13.19 -1.78 
357.45 14.07 -1.71 
352.61 11.88 -1.85 
357.17 14.89 -1.65 
359.46 15.95 -1.57 
361.31 17.97 -1.41 
342.36 13.35 -1.38 
341.77 13.75 -1.35 
341.88 14.07 -0.61 
342.05 14.24 -0.61 
342.18 15.14 -0.56 
342.78 15.78 -0.53 
343.26 12.72 -0.69 
341.52 14.23 -0.18 
341.93 14.43 -0.18 
357.10 15.64 0.02 
353.59 14.49 -0.10 
353.75 14.58 -0.09 
355.57 15.72 -0.01 
359.03 17.46 0.15 
354.28 15.48 -0.05 
355.65 16.01 0.00 
355.81 16.19 0.01 
355.96 16.40 0.02 
358.23 18.02 0.15 
358.37 18.14 0.16 
358.75 18.12 0.17 
352.08 15.25 -0.10 
342.98 12.51 -0.23 
342.22 12.78 -0.22 
342.65 13.03 -0.22 
342.94 13.50 -0.21 
343.38 13.63 0.10 
342.59 13.92 0.10 
352.88 8.92 -0.29 
361.48 13.43 0.06 
352.62 8.90 -0.30 
360.76 13.48 0.04 
361.14 13.35 0.04 
360.32 13.58 0.03 
364.05 15.49 0.23 
364.29 15.57 0.24 
352.76 9.83 -0.27 
354.25 10.77 -0.21 
357.26 12.42 -0.10 
357.71 12.41 -0.09 
361.18 14.56 0.09 
362.53 15.10 0.16 
365.42 16.76 0.34 
352.71 10.42 -0.25 
364.60 16.47 0.30 
365.96 17.44 0.40 
352.60 10.72 -0.24 
362.82 15.96 0.21 
366.18 17.78 0.42 
354.20 11.92 -0.18 
352.49 11.51 -0.22 
352.55 11.82 -0.21 
354.30 12.75 -0.15 
354.97 13.14 -0.12 
358.87 14.88 0.04 
365.16 18.08 0.40 
352.67 12.20 -0.19 
352.85 12.38 -0.18 
354.60 13.28 -0.12 
354.99 13.49 -0.11 
357.37 14.87 0.00 
357.97 14.83 0.01 
364.20 18.26 0.37 
364.31 18.48 0.39 
354.90 13.71 -0.10 
355.25 14.06 -0.08 
355.43 14.23 -0.07 
357.83 15.44 0.03 
358.65 15.96 0.08 
359.10 16.02 0.09 
361.61 17.14 0.22 
343.51 12.65 0.07 
342.05 13.62 0.50 
359.44 8.60 -0.19 
356.66 7.73 -0.28 
355.12 7.48 -0.31 
356.04 8.14 -0.27 
362.32 12.90 0.06 
363.77 14.59 0.18 
365.31 15.24 0.26 
366.18 15.76 0.32 
365.82 16.46 0.34 
365.20 16.28 0.31 
352.83 13.06 0.64 
353.26 14.04 0.66 
357.68 16.31 0.86 
357.90 16.43 0.88 
357.05 16.40 0.84 
353.52 14.97 0.68 
357.74 17.72 0.90 
359.30 18.14 0.98 
357.92 17.94 0.91 
358.60 18.21 0.95 
342.96 13.99 0.82 
341.77 14.29 0.81 
342.19 14.26 0.82 
343.00 14.59 0.83 
341.82 14.69 0.81 
342.63 14.99 0.83 
341.53 14.93 0.81 
355.86 10.55 0.69 
356.83 11.55 0.74 
357.02 11.67 0.75 
357.61 12.21 0.78 
357.65 12.23 0.78 
352.75 9.77 0.60 
354.47 10.93 0.65 
354.71 10.99 0.66 
357.40 12.13 0.77 
358.11 12.92 0.81 
358.24 13.17 0.82 
358.50 13.67 0.84 
360.17 14.70 0.93 
360.49 14.86 0.95 
361.38 15.48 1.01 
363.97 16.76 1.18 
352.54 11.05 0.61 
352.89 11.42 0.62 
357.05 13.47 0.78 
359.37 14.67 0.90 
361.39 15.80 1.02 
361.80 15.93 1.04 
361.99 15.97 1.05 
363.28 16.90 1.15 
363.81 17.12 1.18 
364.06 17.19 1.20 
364.56 17.51 1.23 
354.66 12.63 0.68 
355.35 12.92 0.71 
363.92 17.38 1.20 
364.72 17.73 1.25 
359.05 15.46 0.90 
364.38 18.34 1.25 
364.87 18.26 1.28 
363.82 18.88 1.24 
359.47 16.87 0.96 
363.95 19.39 1.27 
358.73 9.15 0.76 
356.82 8.44 0.69 
358.06 9.37 0.74 
358.35 10.14 0.77 
359.19 10.88 0.81 
354.60 8.96 0.63 
354.85 9.07 0.64 
359.19 11.35 0.82 
363.86 15.55 1.13 
363.62 16.15 1.14 
363.77 16.21 1.15 
365.43 17.03 1.27 
366.24 17.48 1.33 
364.56 17.15 1.22 
366.34 17.76 1.34 
366.48 17.94 1.36 
365.79 18.57 1.34 
354.84 14.12 1.51 
360.79 8.19 0.82 
354.23 10.13 1.51 
357.66 12.13 1.65 
352.98 10.41 1.46 
354.20 10.83 1.50 
358.36 13.37 1.69 
355.01 12.46 1.53 
355.19 12.56 1.54 
360.35 15.81 1.82 
363.95 17.63 2.08 
353.06 12.37 1.45 
359.65 15.61 1.77 
364.06 17.85 2.09 
364.18 18.06 2.11 
359.80 16.05 1.79 
358.90 9.84 1.72 
360.70 10.71 1.81 
356.69 9.18 1.62 
355.97 9.23 1.59 
356.15 9.53 1.59 
359.87 11.28 1.77 
355.26 9.46 1.56 
355.85 9.54 1.58 
357.83 10.44 1.66 
360.55 12.18 1.81 
361.25 12.27 1.85 
354.20 9.72 1.51 
356.84 11.39 1.61 
362.24 14.45 1.92 
359.29 13.01 1.74 
359.42 13.19 1.75 
360.91 13.94 1.84 
361.93 14.40 1.90 
364.33 16.48 2.09 
366.22 17.42 2.24 
364.47 16.78 2.10 
366.39 17.63 2.26 
366.43 18.30 2.28 
361.41 10.70 1.85 
359.55 14.63 2.63 
358.79 14.83 2.57 
359.01 14.96 2.58 
353.55 12.43 2.29 
355.60 14.18 2.37 
357.89 10.67 2.58 
357.03 10.60 2.53 
361.60 12.96 2.80 
356.44 10.54 2.50 
359.52 12.61 2.65 
360.87 13.42 2.74 
355.28 10.92 2.43 
358.63 13.38 2.58 
360.19 13.91 2.68 
360.62 14.63 2.70 
360.72 14.83 2.71 
358.33 9.07 2.64 
360.57 10.30 2.76 
357.20 8.77 2.59 
354.83 12.12 3.21 
359.12 14.33 3.46 
355.93 13.16 3.25 
356.97 13.84 3.30 
357.72 14.08 3.35 
356.22 13.56 3.25 
357.11 14.01 3.30 
358.10 12.17 3.45 
359.80 13.03 3.56 
360.03 13.09 3.58 
354.02 10.44 3.24 
357.83 12.10 3.43 
358.15 12.62 3.44 
354.32 10.96 3.23 
355.90 11.81 3.30 
358.98 14.02 3.45 
358.80 10.78 3.56 
354.26 8.40 -3.09 
358.00 12.68 -2.73 
351.83 12.41 -1.86 
355.18 14.32 -1.73 
352.05 13.04 -1.81 
358.56 16.56 -1.56 
358.32 17.10 -1.52 
356.50 9.45 -2.11 
356.70 9.57 -2.10 
356.38 10.70 -2.01 
356.05 10.82 -2.00 
357.99 12.62 -1.87 
357.02 12.27 -1.89 
365.96 17.65 -1.45 
353.94 11.73 -1.92 
351.47 10.74 -1.98 
351.61 10.96 -1.97 
363.92 17.75 -1.45 
364.43 17.93 -1.44 
352.20 12.18 -1.88 
355.76 14.24 -1.74 
363.83 18.20 -1.42 
366.11 19.44 -1.30 
360.07 16.63 -1.56 
360.36 16.69 -1.55 
342.37 13.25 -1.46 
341.51 13.40 -1.43 
341.99 14.05 -0.67 
342.59 14.30 -0.66 
341.57 14.08 -0.67 
342.04 14.64 -0.65 
342.47 13.64 -0.70 
355.38 14.76 -0.11 
357.70 16.01 0.00 
353.39 14.36 -0.16 
353.68 14.64 -0.14 
354.16 14.97 -0.12 
354.34 15.13 -0.11 
355.98 16.42 -0.03 
356.48 16.83 0.00 
358.64 18.08 0.11 
359.07 18.41 0.14 
354.81 16.55 -0.05 
358.18 18.09 0.10 
342.52 11.58 -0.30 
342.87 12.22 -0.28 
342.18 12.33 -0.28 
342.69 13.06 -0.26 
342.25 13.07 -0.26 
342.47 14.64 0.06 
360.67 12.40 -0.06 
352.80 8.87 -0.35 
353.01 8.93 -0.34 
353.50 9.12 -0.33 
361.39 13.25 -0.01 
361.67 13.25 0.00 
352.48 8.94 -0.35 
353.76 9.79 -0.31 
360.69 13.28 -0.03 
361.03 13.19 -0.02 
361.38 13.70 0.01 
364.03 15.11 0.16 
353.48 9.89 -0.31 
356.39 11.56 -0.20 
356.63 11.67 -0.19 
359.47 12.88 -0.08 
360.17 13.45 -0.04 
364.16 15.44 0.18 
365.51 16.33 0.27 
352.69 9.75 -0.32 
357.71 12.45 -0.14 
360.25 13.79 -0.02 
362.57 15.19 0.11 
364.69 16.44 0.24 
365.94 16.68 0.30 
354.78 11.63 -0.23 
355.15 11.64 -0.22 
357.97 13.23 -0.10 
364.39 16.36 0.23 
366.10 17.64 0.36 
352.42 10.87 -0.29 
353.71 11.18 -0.26 
355.46 12.13 -0.20 
358.25 13.98 -0.07 
362.75 16.10 0.16 
353.09 11.33 -0.27 
353.84 12.06 -0.23 
354.10 12.01 -0.23 
359.33 14.66 -0.01 
352.41 11.59 -0.27 
353.60 12.18 -0.23 
355.21 13.07 -0.17 
361.63 16.95 0.16 
362.22 17.12 0.19 
354.59 13.75 -0.16 
355.39 14.06 -0.13 
355.65 14.25 -0.12 
359.02 15.89 0.03 
359.06 16.16 0.04 
361.46 17.20 0.17 
364.05 18.53 0.32 
357.66 15.68 -0.01 
357.87 15.72 -0.01 
364.00 19.95 0.39 
341.98 13.63 0.47 
355.03 7.94 -0.35 
355.28 7.96 -0.34 
365.21 15.05 0.20 
365.89 15.63 0.25 
366.11 15.80 0.27 
364.69 15.20 0.18 
365.18 15.48 0.22 
353.04 12.97 0.59 
353.26 14.03 0.61 
356.41 16.06 0.75 
357.11 16.36 0.78 
353.34 14.92 0.62 
353.79 15.01 0.64 
356.46 16.46 0.76 
357.33 16.83 0.80 
357.73 17.07 0.82 
357.27 17.24 0.81 
357.92 17.97 0.85 
358.59 18.17 0.89 
353.95 16.51 0.67 
341.58 13.17 0.47 
342.59 13.57 0.77 
342.58 15.03 0.77 
341.65 15.25 0.77 
356.68 10.55 0.66 
354.85 10.58 0.61 
357.16 11.73 0.70 
358.02 12.32 0.74 
359.74 13.13 0.82 
353.12 9.97 0.56 
354.90 11.05 0.61 
357.64 12.24 0.72 
357.89 12.60 0.74 
358.05 12.75 0.75 
354.31 11.06 0.60 
363.88 15.97 1.08 
363.98 16.27 1.10 
360.06 14.81 0.87 
360.73 14.84 0.90 
361.23 15.46 0.94 
364.18 16.81 1.13 
364.48 16.94 1.15 
352.38 10.92 0.55 
352.74 11.34 0.56 
357.10 13.34 0.72 
361.32 15.69 0.95 
361.68 15.72 0.97 
361.76 15.96 0.98 
363.78 16.89 1.11 
364.06 16.98 1.12 
364.26 17.46 1.15 
364.68 17.62 1.18 
360.70 15.70 0.92 
364.17 17.61 1.15 
365.51 18.16 1.24 
365.91 18.65 1.28 
355.30 13.35 0.66 
359.21 15.56 0.85 
359.74 15.62 0.88 
364.44 18.37 1.19 
365.29 18.69 1.25 
365.85 18.89 1.29 
363.65 18.78 1.16 
359.35 16.94 0.89 
359.38 9.20 0.73 
358.91 9.49 0.72 
359.86 10.11 0.76 
356.66 8.82 0.63 
357.87 9.28 0.68 
358.39 9.80 0.70 
360.63 10.95 0.81 
359.80 10.64 0.77 
359.88 11.08 0.78 
355.25 9.12 0.60 
354.49 8.96 0.58 
354.72 9.00 0.58 
353.97 9.61 0.98 
360.54 12.95 0.85 
361.61 13.68 0.91 
363.96 15.49 1.07 
364.87 15.72 1.13 
363.91 15.60 1.07 
366.20 17.15 1.25 
365.89 17.75 1.25 
366.31 17.74 1.27 
354.80 14.21 1.45 
355.39 14.51 1.48 
354.17 10.09 1.46 
356.95 11.52 1.56 
357.59 12.02 1.59 
352.92 10.34 1.41 
358.31 13.20 1.62 
359.96 14.00 1.71 
354.05 11.49 1.44 
356.90 13.58 1.55 
358.84 14.71 1.65 
364.08 17.68 2.02 
354.56 13.05 1.45 
359.84 15.86 1.72 
360.26 16.16 1.74 
364.15 17.92 2.02 
357.05 8.70 1.58 
359.52 10.03 1.69 
356.03 9.32 1.53 
359.32 10.74 1.68 
360.43 11.66 1.73 
355.39 9.49 1.51 
356.09 9.86 1.53 
357.82 10.64 1.60 
354.55 9.92 1.47 
355.25 10.32 1.49 
356.42 10.88 1.54 
361.01 13.99 1.78 
361.72 14.30 1.82 
366.20 17.44 2.16 
364.37 16.89 2.02 
365.31 17.82 2.11 
364.90 17.84 2.08 
358.56 13.28 2.51 
353.86 11.21 2.29 
360.63 14.71 2.63 
360.68 15.07 2.63 
358.44 14.70 2.47 
358.74 15.10 2.49 
356.50 14.92 2.34 
358.37 10.09 2.56 
361.29 13.11 2.70 
354.04 9.72 2.34 
361.29 13.47 2.69 
355.19 10.79 2.37 
355.82 11.35 2.38 
357.33 8.58 2.54 
359.72 9.53 2.65 
354.36 11.29 3.16 
358.91 14.01 3.37 
359.09 14.20 3.38 
355.31 12.67 3.16 
357.16 13.93 3.24 
359.36 14.68 3.39 
355.99 13.45 3.17 
356.24 13.52 3.19 
359.40 15.80 3.35 
356.35 9.78 3.36 
357.13 10.57 3.38 
359.83 11.82 3.53 
359.19 11.82 3.48 
360.68 13.30 3.55 
353.82 10.08 3.19 
354.21 10.91 3.17 
356.10 11.81 3.25 
358.93 13.57 3.39 
360.24 11.64 3.56 
353.12 15.32 -2.34 
361.01 12.76 -2.71 
360.26 12.98 -2.68 
357.91 12.62 -2.68 
351.46 12.32 -1.79 
353.91 13.62 -1.71 
358.04 16.54 -1.51 
354.59 15.15 -1.61 
351.81 14.30 -1.65 
356.26 16.63 -1.50 
357.32 17.17 -1.47 
357.84 17.23 -1.46 
351.91 15.11 -1.59 
354.91 16.65 -1.50 
355.99 17.10 -1.47 
356.17 17.18 -1.46 
355.77 18.03 -1.40 
356.37 18.88 -1.33 
358.53 8.20 -2.14 
357.05 9.84 -2.01 
355.52 10.68 -1.94 
356.53 11.37 -1.90 
353.25 10.32 -1.68 
353.88 10.86 -1.92 
357.79 12.55 -1.82 
354.70 11.54 -1.87 
351.83 11.78 -1.83 
352.00 11.91 -1.82 
352.90 11.43 -0.72 
352.13 13.24 -0.63 
352.33 14.44 -0.56 
342.63 12.08 -0.68 
343.23 13.53 -0.61 
342.17 13.21 -0.62 
343.36 13.91 -0.60 
353.39 9.40 -0.83 
354.59 9.98 -0.79 
353.07 9.91 -0.80 
353.89 13.51 -0.12 
357.26 15.43 0.01 
353.42 13.90 -0.11 
355.45 15.12 -0.04 
353.07 14.18 -0.11 
355.25 15.32 -0.04 
354.19 14.98 -0.07 
357.26 17.03 0.07 
358.91 18.15 0.15 
359.21 18.36 0.17 
358.50 18.15 0.14 
359.28 18.57 0.18 
352.02 15.31 -0.09 
342.46 12.15 -0.17 
342.94 13.52 -0.14 
341.87 13.31 -0.13 
343.06 14.10 0.15 
343.36 14.50 0.16 
342.01 14.48 -0.10 
341.56 14.63 -0.09 
362.77 13.41 0.07 
360.82 12.76 -0.01 
363.86 14.59 0.15 
352.86 8.98 -0.27 
354.14 9.51 -0.24 
359.95 12.65 -0.03 
360.95 13.50 0.02 
352.26 9.18 -0.26 
358.02 12.32 -0.09 
358.31 12.34 -0.08 
360.28 13.62 0.01 
360.55 13.64 0.02 
361.51 14.10 0.06 
352.58 9.78 -0.24 
352.79 9.86 -0.24 
353.19 10.23 -0.23 
357.67 12.37 -0.09 
360.00 13.56 0.00 
362.59 15.11 0.13 
352.52 10.63 -0.22 
352.62 10.93 -0.21 
353.60 11.33 -0.19 
356.51 12.77 -0.10 
357.90 13.49 -0.05 
352.52 11.27 -0.20 
355.81 12.99 -0.10 
356.14 12.91 -0.10 
357.87 13.99 -0.03 
352.56 11.81 -0.19 
354.22 12.38 -0.15 
354.91 12.66 -0.13 
357.93 14.28 -0.02 
358.81 14.85 0.02 
352.90 12.19 -0.17 
353.07 12.41 -0.16 
354.89 13.22 -0.11 
355.46 13.71 -0.09 
357.82 14.99 0.00 
354.93 13.68 -0.10 
359.29 15.89 0.07 
359.42 16.06 0.08 
361.51 17.04 0.18 
356.78 7.73 -0.26 
362.31 12.20 0.01 
352.36 11.15 0.14 
353.29 13.64 0.67 
359.47 17.12 0.92 
352.93 13.87 0.66 
356.31 15.97 0.78 
357.28 16.93 0.83 
353.37 14.99 0.68 
353.95 15.45 0.70 
357.63 17.70 0.86 
358.08 17.88 0.88 
358.26 17.96 0.89 
342.27 13.49 0.87 
355.25 10.17 0.68 
353.94 9.86 0.65 
355.36 10.52 0.68 
356.89 11.58 0.74 
359.46 12.80 0.84 
360.09 13.32 0.87 
353.24 10.04 0.63 
357.43 12.15 0.76 
357.75 12.33 0.77 
363.80 15.48 1.07 
354.08 10.81 0.66 
354.28 10.90 0.66 
359.29 13.59 0.85 
363.61 16.09 1.08 
363.79 16.27 1.09 
364.12 16.30 1.11 
354.68 11.85 0.68 
358.49 13.66 0.82 
360.21 14.54 0.90 
360.61 14.85 0.92 
361.42 15.41 0.97 
364.24 16.57 1.12 
352.32 10.98 0.62 
352.93 11.41 0.64 
355.19 12.50 0.70 
358.66 14.09 0.83 
361.33 15.76 0.97 
361.84 15.95 1.00 
364.02 17.18 1.13 
364.35 17.21 1.15 
364.70 17.23 1.17 
364.87 17.42 1.18 
352.46 11.25 0.63 
364.83 17.79 1.19 
365.87 18.63 1.27 
358.94 15.44 0.87 
359.13 15.53 0.88 
365.00 18.39 1.22 
366.03 18.83 1.29 
354.69 13.53 0.70 
363.63 18.65 1.15 
363.74 18.94 1.17 
364.10 18.90 1.19 
342.81 12.39 0.87 
358.99 8.88 0.76 
359.71 9.42 0.79 
357.53 8.59 0.72 
357.51 9.31 0.72 
357.82 9.33 0.73 
359.27 10.61 0.80 
354.86 9.02 0.66 
359.11 11.40 0.80 
362.14 13.70 0.96 
353.75 10.72 1.04 
366.24 17.54 1.26 
366.45 17.72 1.27 
352.72 11.05 1.02 
356.12 15.31 1.55 
360.76 8.26 0.81 
356.69 11.32 1.60 
356.87 11.44 1.61 
357.24 11.93 1.62 
357.74 12.10 1.64 
361.02 14.16 1.79 
353.07 10.36 1.49 
354.24 10.91 1.52 
359.74 13.71 1.73 
353.23 10.78 1.49 
358.40 13.40 1.66 
353.73 11.52 1.49 
353.10 11.60 1.47 
364.05 17.44 2.00 
353.09 12.33 1.47 
360.38 15.93 1.76 
363.97 17.91 2.00 
364.06 18.18 2.01 
356.75 8.77 1.62 
356.95 9.12 1.63 
357.06 9.38 1.63 
358.35 9.92 1.68 
360.48 11.17 1.77 
360.94 11.06 1.79 
355.74 9.11 1.59 
356.15 9.36 1.60 
355.84 9.40 1.59 
356.74 10.11 1.61 
359.77 11.35 1.73 
360.81 12.22 1.78 
358.69 12.06 1.68 
362.25 14.31 1.86 
361.81 14.48 1.84 
364.31 16.41 2.00 
366.18 17.15 2.14 
366.26 17.38 2.15 
353.70 10.84 1.94 
364.40 16.69 2.01 
366.46 18.35 2.18 
360.81 14.78 2.65 
360.61 15.12 2.63 
359.48 14.88 2.56 
358.89 14.93 2.52 
359.10 10.71 2.63 
356.26 9.79 2.50 
357.09 9.94 2.54 
357.13 10.43 2.53 
361.13 12.63 2.71 
361.28 12.90 2.71 
359.10 11.81 2.60 
361.28 13.35 2.71 
361.61 13.26 2.73 
354.17 9.85 2.41 
354.84 10.76 2.41 
355.09 10.92 2.42 
357.75 12.00 2.52 
358.98 9.27 2.66 
356.97 8.89 2.57 
355.81 11.71 3.28 
354.20 10.95 3.23 
358.71 13.77 3.38 
359.11 14.09 3.40 
359.43 14.50 3.41 
357.06 13.59 3.28 
357.76 14.33 3.29 
357.93 14.51 3.30 
356.18 14.52 3.17 
359.38 11.21 3.54 
356.45 11.04 3.36 
357.50 11.75 3.39 
356.70 11.69 3.34 
357.44 11.95 3.38 
359.60 12.89 3.49 
354.44 10.94 3.25 
365.13 14.48 -2.69 
360.12 13.03 -2.73 
365.23 16.37 -2.51 
365.92 17.63 -2.40 
364.16 17.64 -2.37 
358.03 16.61 -1.57 
357.72 16.67 -1.56 
351.91 14.23 -1.68 
357.41 17.22 -1.52 
363.33 19.94 -1.33 
363.79 13.79 -1.81 
366.27 15.12 -1.72 
365.77 15.27 -1.70 
352.86 9.18 -1.79 
353.01 9.60 -1.76 
365.40 16.16 -1.63 
353.09 10.05 -1.73 
364.68 16.57 -1.60 
365.92 17.57 -1.52 
362.07 18.07 -1.48 
354.92 14.67 -1.41 
352.83 14.43 -1.41 
353.13 14.62 -1.40 
353.49 14.94 -1.38 
352.03 14.88 -1.37 
342.08 13.43 -1.34 
342.19 13.82 -1.31 
342.18 14.94 -1.23 
343.09 14.96 -0.53 
351.84 11.35 -0.76 
352.10 11.35 -0.76 
352.51 11.75 -0.74 
353.52 12.05 -0.72 
352.23 11.74 -0.74 
352.61 12.03 -0.73 
343.64 11.71 -0.69 
344.03 12.83 -0.65 
342.05 13.38 -0.59 
342.80 14.27 -0.56 
358.26 16.11 -0.01 
359.09 16.66 0.03 
358.48 17.96 0.06 
358.99 18.02 0.08 
359.27 18.43 0.10 
358.59 18.20 0.07 
342.36 11.52 -0.14 
342.51 12.10 -0.13 
342.69 12.99 -0.12 
341.76 13.62 -0.08 
342.27 14.45 0.18 
342.73 14.40 0.17 
341.93 14.38 -0.07 
341.67 14.65 -0.06 
360.51 12.69 -0.09 
361.05 12.77 -0.08 
363.78 14.50 0.05 
365.21 14.97 0.11 
365.34 15.25 0.12 
360.95 13.48 -0.05 
363.95 14.79 0.07 
360.96 13.85 -0.04 
361.48 14.01 -0.02 
363.37 15.11 0.06 
365.13 15.83 0.14 
359.55 13.62 -0.07 
360.45 13.75 -0.05 
362.20 14.89 0.03 
364.46 16.19 0.14 
364.59 16.52 0.16 
352.53 10.56 -0.25 
366.05 17.58 0.25 
352.08 10.92 -0.24 
352.65 10.97 -0.23 
352.66 11.52 -0.22 
353.28 12.34 0.15 
361.46 17.13 0.10 
343.05 13.12 0.14 
343.20 13.53 0.15 
363.01 12.87 -0.03 
353.88 9.44 0.07 
352.51 9.77 0.06 
356.68 11.71 0.19 
352.94 10.72 0.10 
353.10 11.66 0.13 
355.27 14.57 0.68 
352.78 13.87 0.63 
358.33 17.29 0.81 
353.34 14.93 0.65 
353.86 15.41 0.66 
357.97 17.42 0.80 
342.50 13.57 0.90 
341.53 13.19 0.65 
341.86 13.32 0.90 
354.66 9.94 0.63 
361.76 13.61 0.86 
361.97 13.77 0.87 
353.85 9.94 0.62 
356.58 11.47 0.68 
357.53 11.94 0.71 
357.14 12.12 0.70 
357.67 12.18 0.71 
357.76 12.61 0.72 
360.18 13.62 0.80 
352.89 10.26 0.61 
353.08 10.41 0.61 
353.78 10.71 0.62 
364.12 16.12 1.00 
365.62 16.80 1.09 
353.21 10.75 0.61 
354.39 11.35 0.64 
360.51 14.95 0.84 
366.33 17.80 1.15 
353.00 11.38 0.62 
354.47 12.05 0.64 
361.30 15.55 0.88 
364.63 17.57 1.06 
352.27 11.19 0.61 
354.97 12.73 0.66 
365.80 18.58 1.14 
358.66 15.23 0.78 
358.93 15.46 0.79 
365.07 18.52 1.11 
356.94 8.31 0.65 
357.45 8.53 0.67 
357.58 8.91 0.67 
361.18 11.04 0.79 
358.01 9.82 0.69 
362.11 13.51 0.87 
353.30 11.20 1.00 
355.75 15.11 1.48 
356.60 11.32 1.55 
358.32 12.07 1.60 
359.35 12.90 1.64 
357.71 12.09 1.58 
357.89 12.20 1.59 
353.71 10.81 1.48 
359.58 13.51 1.64 
353.48 12.06 1.45 
354.70 12.45 1.48 
358.99 14.92 1.61 
359.61 15.24 1.64 
353.25 12.07 1.45 
359.81 15.64 1.65 
360.08 15.94 1.66 
360.45 15.84 1.68 
353.58 13.04 1.44 
359.38 15.67 1.63 
358.72 15.80 1.60 
360.44 9.93 1.70 
357.10 8.80 1.59 
358.07 9.12 1.62 
358.82 9.47 1.64 
357.31 9.27 1.59 
360.42 11.06 1.69 
355.42 8.91 1.54 
357.81 10.22 1.60 
357.74 10.25 1.60 
361.94 14.19 1.75 
362.19 14.30 1.77 
353.13 10.24 1.88 
353.66 11.03 1.89 
356.12 15.44 2.28 
360.42 9.50 1.70 
360.88 9.75 1.72 
357.02 12.75 2.40 
360.85 14.67 2.56 
358.82 14.64 2.44 
353.59 12.45 2.27 
353.99 12.75 2.28 
355.82 13.98 2.31 
355.99 9.56 2.46 
356.92 10.11 2.48 
360.04 12.19 2.57 
353.85 9.75 2.38 
354.14 9.69 2.39 
355.32 10.26 2.41 
360.53 13.33 2.57 
360.80 13.38 2.59 
354.29 11.38 3.19 
355.89 12.13 3.22 
358.03 12.96 3.30 
359.23 14.31 3.32 
354.90 13.03 3.12 
356.29 13.53 3.17 
357.60 14.20 3.22 
360.13 11.46 3.51 
356.13 10.36 3.33 
356.80 11.35 3.31 
359.47 13.04 3.39 
359.73 13.03 3.41 
354.20 10.84 3.21 
359.99 11.16 3.51 
358.40 8.78 -3.17 
360.80 10.89 -3.01 
361.05 10.92 -3.01 
360.92 11.26 -2.98 
366.17 17.78 -2.43 
366.14 18.59 -2.35 
361.18 17.83 -1.55 
353.13 14.30 -1.76 
354.17 14.74 -1.74 
357.56 16.62 -1.63 
357.95 16.62 -1.63 
351.67 14.19 -1.75 
357.35 17.26 -1.58 
358.09 17.80 -1.54 
351.79 15.13 -1.69 
352.80 15.69 -1.66 
354.33 17.12 -1.57 
356.33 10.53 -2.07 
353.46 9.75 -1.84 
353.91 10.61 -1.78 
366.36 17.68 -1.56 
361.39 15.38 -1.74 
361.57 15.49 -1.73 
351.47 10.77 -2.00 
354.91 12.51 -1.91 
352.68 11.92 -1.93 
361.66 17.52 -1.57 
350.87 12.01 -1.90 
351.06 12.21 -1.89 
355.10 14.43 -1.50 
353.03 13.53 -1.55 
354.44 14.65 -1.48 
354.77 14.56 -1.49 
353.63 14.58 -1.48 
353.85 14.68 -1.47 
352.91 14.40 -1.49 
353.07 14.54 -1.48 
341.96 13.56 -1.41 
352.42 6.39 -2.07 
343.26 15.01 -0.61 
352.57 11.26 -0.84 
353.21 11.35 -0.84 
353.05 12.04 -0.80 
353.86 12.21 -0.79 
352.61 12.08 -0.80 
353.80 12.50 -0.77 
353.12 12.71 -0.76 
354.55 13.87 -0.70 
354.75 14.03 -0.69 
353.65 13.88 -0.70 
352.67 13.73 -0.71 
353.97 16.27 -0.57 
344.08 12.06 -0.76 
344.36 13.06 -0.72 
343.08 13.65 -0.67 
341.86 13.95 -0.64 
342.24 14.33 -0.63 
358.06 10.51 -0.86 
357.74 12.09 -0.77 
357.64 15.67 -0.10 
359.14 18.46 0.03 
342.43 14.48 0.11 
342.98 15.01 0.12 
352.66 8.77 -0.36 
359.59 12.65 -0.17 
363.73 14.57 -0.01 
364.96 15.24 0.05 
365.21 15.29 0.06 
352.19 9.17 -0.35 
364.09 16.76 0.09 
352.17 10.97 -0.30 
353.73 12.57 0.09 
343.32 12.18 0.04 
342.98 12.91 0.06 
343.70 13.74 0.08 
341.57 13.07 0.08 
342.13 13.63 0.09 
365.27 13.97 0.00 
356.24 11.33 0.09 
357.20 11.83 0.12 
357.47 11.92 0.13 
352.98 9.90 0.00 
353.10 10.28 0.01 
354.73 11.81 0.08 
354.40 11.88 0.08 
342.36 13.59 0.83 
342.98 13.90 0.83 
341.86 13.94 0.84 
353.00 10.16 0.54 
352.59 10.45 0.54 
353.25 12.88 0.94 
353.71 13.18 0.95 
354.74 13.88 0.99 
354.92 14.07 1.00 
354.94 15.95 1.03 
354.08 10.01 0.92 
353.83 10.63 0.92 
353.10 10.91 0.91 
353.29 11.13 0.92 
353.71 11.39 0.93 
353.99 13.10 0.96 
357.04 11.94 1.93 
353.48 10.31 1.81 
353.76 10.70 1.82 
353.93 10.85 1.82 
354.60 10.81 1.85 
354.84 10.93 1.85 
353.98 11.45 1.82 
355.55 14.80 2.70 
354.14 11.06 2.73 
355.33 12.61 2.74 
354.28 12.47 2.69 
354.55 12.50 2.70 
355.26 13.03 2.73 
356.46 9.45 2.88 
356.04 10.32 2.84 
357.70 11.81 2.89 
357.58 12.50 2.87 
356.11 12.72 3.66 
355.84 13.27 3.62 
354.25 13.00 3.53 
354.70 10.45 3.68 
358.43 12.49 3.83 
354.71 11.02 3.65 
355.52 11.73 3.67 
360.46 10.44 -3.05 
365.07 14.48 -2.73 
361.24 12.48 -2.86 
365.07 16.28 -2.56 
357.88 12.61 -2.80 
365.09 16.34 -2.55 
365.11 16.66 -2.52 
365.05 16.81 -2.50 
365.78 17.54 -2.44 
366.01 17.69 -2.43 
362.26 17.91 -1.55 
351.74 13.13 -1.84 
359.69 17.03 -1.61 
351.53 13.12 -1.83 
355.19 15.39 -1.70 
362.78 19.22 -1.45 
354.58 15.66 -1.68 
356.02 16.45 -1.63 
357.06 17.34 -1.57 
356.28 17.89 -1.53 
356.03 18.44 -1.48 
360.67 9.84 -2.16 
357.06 9.78 -2.14 
357.16 10.23 -2.10 
363.82 13.82 -1.87 
364.91 14.62 -1.81 
353.35 9.82 -1.84 
353.79 10.15 -1.82 
353.44 10.29 -1.80 
354.17 10.61 -1.78 
357.63 12.44 -1.94 
357.79 12.61 -1.93 
358.91 13.16 -1.62 
361.60 14.40 -1.82 
361.75 14.57 -1.80 
365.53 16.47 -1.66 
352.79 10.50 -2.04 
364.91 16.84 -1.64 
365.91 17.64 -1.57 
359.78 14.87 -1.77 
355.19 12.77 -1.63 
358.21 14.70 -1.78 
358.86 15.57 -1.72 
359.08 15.59 -1.72 
355.25 14.76 -1.48 
353.51 14.96 -1.46 
353.83 14.85 -1.47 
352.69 15.00 -1.45 
353.11 14.97 -1.45 
354.16 15.42 -1.43 
341.91 12.84 -1.47 
342.10 13.19 -1.45 
342.05 15.36 -1.29 
354.93 12.04 -0.80 
352.30 11.47 -0.84 
352.79 11.74 -0.82 
354.13 12.39 -0.79 
355.32 13.54 -0.72 
354.89 13.73 -0.71 
355.16 14.28 -0.68 
352.78 13.61 -0.73 
353.71 13.84 -0.71 
354.15 14.08 -0.70 
353.55 15.77 -0.61 
342.98 11.94 -0.75 
343.12 12.59 -0.72 
343.32 12.58 -0.73 
344.14 13.45 -0.70 
342.97 13.33 -0.69 
342.62 13.49 -0.67 
343.43 14.38 -0.64 
343.89 14.61 -0.64 
354.70 8.70 -0.98 
355.20 9.25 -0.95 
355.97 9.84 -0.92 
358.33 10.76 -0.86 
357.16 11.28 -0.83 
358.09 12.28 -0.77 
358.45 12.80 -0.74 
358.71 12.90 -0.73 
358.91 13.09 -0.72 
353.10 10.34 -0.90 
355.93 11.84 -0.81 
356.41 12.05 -0.80 
353.44 10.87 -0.87 
356.06 14.45 -0.17 
355.45 14.75 -0.17 
358.34 16.14 -0.08 
358.61 16.37 -0.07 
358.98 16.69 -0.05 
363.46 19.13 0.15 
353.16 14.15 -0.20 
353.81 14.29 -0.20 
354.03 14.37 -0.19 
353.26 14.43 -0.20 
353.42 14.79 -0.18 
354.30 15.06 -0.17 
363.78 20.00 0.20 
353.20 14.74 -0.19 
353.86 15.46 -0.16 
354.36 15.55 -0.15 
354.82 15.63 -0.15 
354.77 16.23 -0.13 
354.92 16.44 -0.12 
357.95 17.92 -0.03 
358.50 18.10 -0.01 
358.94 18.34 0.00 
351.98 15.13 -0.18 
352.17 15.49 -0.17 
354.33 16.23 -0.13 
352.28 15.60 -0.17 
342.68 14.75 0.12 
359.24 11.03 -0.24 
363.03 12.87 -0.11 
360.26 11.75 -0.20 
362.43 12.80 -0.13 
363.65 14.44 -0.04 
363.94 14.87 -0.01 
365.27 15.31 0.04 
358.24 12.21 -0.22 
365.30 15.81 0.06 
365.93 16.29 0.10 
357.60 12.30 -0.22 
357.88 12.33 -0.22 
360.46 13.82 -0.13 
361.90 14.73 -0.07 
362.11 14.79 -0.06 
362.32 14.94 -0.05 
363.93 15.61 0.02 
364.82 15.99 0.06 
352.65 10.07 -0.32 
359.30 13.46 -0.16 
362.04 14.98 -0.05 
362.30 15.04 -0.04 
364.35 16.14 0.05 
364.62 16.60 0.08 
366.07 17.56 0.16 
352.58 11.03 -0.29 
366.18 17.96 0.18 
365.11 18.10 0.15 
366.17 18.43 0.20 
352.68 11.74 -0.28 
354.76 13.25 -0.22 
363.88 17.98 0.11 
352.23 12.31 -0.26 
352.60 12.25 -0.26 
357.74 14.94 -0.13 
361.32 16.99 0.01 
363.90 18.36 0.13 
354.14 13.52 -0.22 
361.59 17.38 0.03 
364.10 18.95 0.16 
343.32 12.56 0.06 
342.58 13.07 0.08 
343.63 13.43 0.08 
343.72 14.30 0.10 
342.22 13.98 0.11 
357.48 9.39 0.03 
358.40 9.84 -0.29 
365.32 13.98 -0.01 
365.50 14.10 0.00 
352.95 9.80 -0.01 
355.94 12.20 0.10 
363.77 19.27 0.96 
353.32 14.21 0.58 
356.97 16.07 0.67 
352.87 14.21 0.57 
353.40 14.77 0.58 
357.13 17.01 0.68 
356.90 17.04 0.68 
357.97 17.90 0.72 
353.90 16.63 0.61 
356.20 8.08 -0.03 
359.07 12.23 0.67 
361.94 13.60 0.78 
362.10 13.76 0.78 
354.54 9.98 0.56 
357.57 11.62 0.63 
358.79 12.20 0.66 
356.31 11.36 0.60 
357.61 12.21 0.64 
357.84 12.28 0.64 
359.17 13.18 0.69 
360.18 13.48 0.72 
361.40 13.99 0.76 
363.86 15.39 0.88 
352.84 10.23 0.55 
353.28 10.48 0.55 
353.52 10.58 0.56 
355.33 11.59 0.59 
356.83 12.12 0.62 
357.05 12.17 0.62 
360.76 14.52 0.75 
353.05 10.47 0.55 
353.29 10.58 0.55 
363.61 16.23 0.89 
364.83 16.69 0.95 
366.14 17.58 1.03 
366.28 17.76 1.04 
361.29 15.53 0.79 
361.95 15.95 0.82 
363.62 16.64 0.89 
363.92 16.65 0.91 
364.37 16.93 0.93 
364.49 17.18 0.94 
352.31 11.14 0.55 
354.72 12.60 0.59 
358.88 14.78 0.70 
359.90 15.02 0.73 
359.96 15.33 0.74 
361.21 15.74 0.79 
361.61 15.95 0.80 
363.87 17.15 0.92 
364.57 17.49 0.95 
364.58 18.22 0.97 
364.95 18.20 0.99 
365.07 18.46 1.00 
365.63 18.58 1.03 
365.92 18.76 1.05 
364.26 18.28 0.96 
352.76 13.02 0.56 
353.26 12.99 0.93 
363.58 18.69 0.94 
355.11 16.20 1.02 
342.49 13.41 0.85 
357.50 8.37 0.60 
359.46 9.59 0.65 
359.52 10.05 0.66 
357.85 9.66 0.62 
357.53 9.82 0.61 
357.89 10.34 0.62 
360.34 12.00 0.70 
355.29 9.49 0.57 
356.20 10.19 0.59 
361.96 12.96 0.77 
353.97 10.74 0.92 
354.17 12.85 0.95 
356.55 11.29 1.48 
357.57 11.65 1.50 
358.26 12.03 1.52 
359.66 12.73 1.57 
362.15 14.18 1.66 
356.33 11.24 1.47 
357.84 12.21 1.51 
362.23 14.44 1.67 
359.51 13.46 1.56 
360.86 14.21 1.61 
361.63 14.44 1.64 
366.33 17.28 1.90 
353.25 10.66 1.41 
353.88 11.05 1.42 
354.86 11.34 1.44 
364.33 16.57 1.78 
366.05 17.21 1.88 
366.46 17.70 1.91 
354.75 12.46 1.42 
364.11 17.52 1.77 
364.80 17.53 1.81 
364.97 17.65 1.82 
366.43 18.36 1.92 
353.10 11.93 1.39 
353.57 12.10 1.40 
353.79 12.20 1.40 
358.74 14.98 1.52 
359.87 15.49 1.56 
360.24 15.84 1.57 
364.07 17.98 1.77 
353.78 12.86 1.39 
359.43 15.71 1.54 
364.04 18.08 1.77 
357.07 8.72 1.52 
359.01 9.83 1.57 
359.81 9.97 1.59 
355.53 8.86 1.49 
358.08 9.86 1.54 
355.73 9.11 1.49 
358.08 10.41 1.53 
356.33 9.81 1.49 
354.14 9.60 1.45 
353.53 10.43 1.81 
353.96 11.39 1.81 
356.44 15.23 2.23 
360.73 9.50 1.63 
359.09 13.18 2.41 
360.14 13.83 2.44 
355.36 11.49 2.31 
360.84 14.64 2.46 
354.67 11.90 2.27 
355.41 12.05 2.29 
360.49 14.82 2.44 
355.64 13.98 2.23 
356.79 16.12 2.71 
356.05 9.56 2.40 
356.69 10.16 2.40 
359.15 11.82 2.45 
360.76 13.26 2.49 
356.04 11.19 2.34 
357.64 11.92 2.38 
360.23 13.25 2.46 
356.83 11.53 2.83 
357.10 12.53 3.19 
358.02 12.96 3.22 
358.93 13.86 3.22 
359.06 14.23 3.21 
359.15 14.57 3.20 
356.10 13.57 3.09 
359.27 15.39 3.17 
359.87 11.21 3.41 
358.69 10.87 3.36 
356.93 10.98 3.27 
360.59 12.97 3.37 
356.57 11.16 3.24 
354.49 10.83 3.17 
357.24 15.78 3.57 
358.39 12.47 3.80 
358.41 8.66 -3.25 
361.34 12.81 -2.90 
364.61 16.14 -2.63 
366.25 18.16 -2.45 
361.99 17.62 -1.64 
353.77 13.62 -1.89 
360.49 16.91 -1.69 
353.25 14.38 -1.83 
358.98 17.09 -1.67 
362.49 19.06 -1.53 
362.50 19.39 -1.50 
363.24 20.01 -1.45 
354.86 17.44 -1.62 
355.85 17.82 -1.60 
361.69 12.69 -2.02 
362.78 13.98 -1.92 
365.13 14.83 -1.86 
355.83 10.74 -2.12 
356.06 10.76 -2.12 
362.49 13.92 -1.93 
353.39 9.54 -1.93 
353.62 9.73 -1.92 
354.71 10.65 -1.86 
355.44 11.03 -1.83 
357.06 11.83 -2.05 
359.85 13.36 -1.96 
354.20 10.48 -1.87 
354.44 10.60 -1.86 
356.83 11.82 -2.05 
362.02 15.32 -1.82 
365.51 16.95 -1.70 
353.37 11.10 -1.81 
353.60 11.22 -1.81 
361.29 16.05 -1.76 
353.34 15.05 -1.52 
342.69 12.55 -1.57 
341.71 12.90 -1.53 
342.14 13.47 -1.49 
352.44 6.29 -2.16 
353.37 8.85 -1.98 
342.08 12.17 -1.00 
342.32 12.21 -1.00 
341.88 12.87 -0.96 
342.15 13.05 -0.96 
342.41 13.96 -0.92 
342.72 14.03 -0.92 
352.49 11.13 -0.92 
352.84 11.24 -0.92 
352.85 11.64 -0.90 
357.36 14.08 -0.75 
352.91 12.18 -0.87 
353.89 12.51 -0.85 
354.27 14.03 -0.77 
354.67 14.98 -0.72 
355.59 16.36 -0.63 
354.81 16.31 -0.64 
355.72 16.61 -0.62 
356.33 17.44 -0.57 
356.36 17.77 -0.55 
343.39 12.36 -0.80 
343.04 13.40 -0.74 
342.56 13.54 -0.72 
343.04 13.73 -0.72 
343.99 14.85 -0.68 
342.28 13.99 -0.70 
343.35 14.54 -0.69 
354.60 8.69 -1.05 
355.88 9.86 -0.99 
355.27 10.00 -0.98 
357.61 11.47 -0.89 
357.87 11.47 -0.89 
354.35 10.04 -0.98 
358.50 12.12 -0.85 
359.74 13.17 -0.78 
355.12 11.00 -0.93 
358.38 12.79 -0.82 
358.70 12.82 -0.81 
358.85 13.07 -0.80 
355.92 11.83 -0.88 
356.68 12.08 -0.87 
358.08 13.41 -0.78 
361.39 17.14 -0.06 
356.86 14.90 -0.21 
356.88 15.32 -0.20 
357.85 16.06 -0.16 
358.24 16.17 -0.15 
352.97 14.51 -0.25 
354.33 15.15 -0.23 
356.82 16.15 -0.17 
364.42 20.26 0.14 
353.12 14.82 -0.24 
354.72 15.71 -0.21 
357.97 17.47 -0.11 
353.73 15.52 -0.22 
353.91 15.92 -0.21 
354.26 15.75 -0.21 
354.60 16.14 -0.20 
