# .PCD v0.7 - Point Cloud Data file format
VERSION 0.7
FIELDS x y z
SIZE 4 4 4
TYPE F F F
COUNT 1 1 1
WIDTH 2277
HEIGHT 1
VIEWPOINT 0 0 0 1 0 0 0
POINTS 2277
DATA ascii
345.35 -598.32 7.69 
346.32 -598.86 7.57 
345.39 -598.81 7.66 
345.08 -599.25 7.68 
344.37 -598.89 7.77 
345.55 -599.46 7.62 
364.64 -601.20 7.32 
366.50 -603.13 7.00 
365.58 -603.33 7.03 
359.41 -602.81 7.57 
360.79 -593.61 7.50 
359.85 -600.65 7.74 
359.29 -601.95 7.66 
357.34 -601.67 7.88 
359.20 -602.19 7.65 
357.24 -602.39 7.82 
364.99 -601.35 7.96 
366.03 -602.04 7.80 
365.42 -601.65 7.89 
366.03 -602.22 7.78 
361.23 -587.04 8.01 
357.82 -600.94 8.64 
358.20 -601.38 8.55 
358.01 -602.02 8.49 
356.37 -602.97 3.63 
356.70 -603.10 3.62 
359.22 -603.84 3.54 
358.31 -603.67 3.57 
357.96 -603.66 3.58 
357.44 -603.75 3.61 
359.14 -603.94 3.54 
358.83 -603.96 3.56 
359.82 -596.60 4.07 
360.80 -601.05 4.07 
360.78 -601.38 4.08 
360.77 -601.79 4.08 
360.72 -602.34 4.09 
364.50 -603.09 3.92 
360.68 -602.85 4.10 
360.39 -602.92 4.11 
356.31 -602.82 4.32 
360.30 -603.32 4.12 
360.04 -603.46 4.13 
359.64 -603.50 4.15 
357.16 -603.20 4.28 
356.83 -603.26 4.30 
359.86 -603.56 4.14 
359.48 -603.65 4.16 
359.25 -603.80 4.18 
358.83 -603.57 4.20 
358.49 -603.56 4.21 
357.83 -603.73 4.25 
357.61 -603.72 4.26 
365.83 -604.47 3.87 
365.66 -604.43 3.88 
365.06 -604.20 3.90 
358.33 -604.05 4.23 
361.58 -588.96 3.92 
361.37 -594.99 3.99 
361.08 -595.40 4.00 
360.70 -595.42 4.02 
360.42 -595.26 4.03 
360.24 -595.56 4.04 
360.04 -595.71 4.05 
347.24 -598.54 4.77 
364.91 -603.04 4.53 
365.74 -603.60 4.48 
365.19 -603.64 4.51 
364.83 -603.52 4.53 
364.49 -603.44 4.54 
360.02 -603.58 4.78 
359.38 -603.82 4.82 
365.48 -604.15 4.49 
359.30 -604.09 4.82 
358.69 -604.17 4.85 
360.84 -600.22 4.77 
361.14 -601.46 4.74 
360.86 -601.45 4.76 
360.95 -601.54 4.75 
360.94 -602.24 4.74 
360.79 -602.42 4.75 
360.64 -602.66 4.76 
360.53 -602.85 4.76 
356.24 -602.56 5.02 
360.39 -603.35 4.76 
359.56 -603.30 4.81 
357.92 -603.34 4.91 
356.78 -603.04 4.98 
359.51 -603.60 4.81 
359.29 -603.46 4.82 
358.80 -603.66 4.85 
357.86 -603.70 4.91 
357.54 -603.66 4.93 
347.04 -603.19 5.66 
358.43 -604.04 4.87 
346.63 -603.77 5.69 
347.04 -604.67 5.66 
361.59 -588.95 4.88 
361.34 -589.22 4.89 
361.05 -589.23 4.91 
360.87 -593.71 4.86 
361.51 -594.19 4.82 
361.32 -594.30 4.83 
361.23 -594.61 4.83 
360.60 -594.62 4.86 
360.78 -595.00 4.84 
360.52 -595.48 4.85 
359.78 -595.42 4.89 
360.34 -595.78 4.86 
360.10 -595.87 4.87 
346.49 -599.19 5.71 
345.84 -599.21 5.76 
346.96 -599.40 5.68 
345.67 -599.44 5.77 
344.31 -599.47 5.88 
345.61 -599.80 5.78 
345.45 -599.94 5.79 
360.93 -601.77 5.43 
360.71 -601.86 5.45 
360.85 -602.46 5.42 
359.80 -602.49 5.48 
359.40 -602.46 5.51 
365.54 -603.17 5.13 
365.29 -603.12 5.14 
364.77 -602.91 5.18 
360.71 -602.73 5.42 
360.42 -602.78 5.43 
360.15 -602.86 5.45 
357.09 -602.73 5.66 
359.50 -603.40 5.47 
357.18 -603.03 5.64 
356.95 -603.22 5.65 
345.50 -602.83 5.78 
359.91 -603.46 5.44 
359.74 -603.55 5.45 
359.22 -603.54 5.48 
358.78 -603.54 5.52 
358.51 -603.56 5.53 
358.23 -603.44 5.56 
357.74 -603.51 5.59 
346.44 -603.25 5.71 
365.85 -604.25 5.07 
358.17 -603.83 5.55 
361.19 -588.13 4.91 
360.62 -588.56 4.94 
361.61 -588.79 4.88 
360.41 -588.74 4.94 
347.19 -589.19 5.72 
361.07 -600.24 5.48 
360.95 -600.58 5.48 
360.80 -600.68 5.48 
359.96 -594.89 5.73 
361.51 -595.16 5.63 
360.23 -595.13 5.71 
361.26 -595.69 5.63 
360.12 -595.74 5.69 
361.11 -596.09 5.62 
360.75 -596.17 5.64 
346.98 -597.95 6.59 
347.06 -598.45 6.57 
346.90 -598.76 6.58 
346.14 -599.51 6.63 
345.80 -599.42 6.66 
360.86 -600.87 6.17 
360.59 -601.75 6.14 
365.08 -602.13 5.84 
360.55 -602.06 6.12 
359.54 -602.10 6.20 
360.44 -602.34 6.12 
360.15 -602.42 6.13 
359.70 -602.38 6.17 
359.40 -602.41 6.19 
356.65 -602.23 6.41 
359.34 -602.87 6.17 
357.17 -602.88 6.34 
359.21 -603.10 6.16 
358.35 -603.09 6.23 
358.01 -603.12 6.26 
357.72 -603.10 6.28 
357.45 -603.02 6.31 
359.14 -603.48 6.15 
358.91 -603.43 6.17 
358.87 -603.86 6.15 
361.40 -587.40 5.92 
362.00 -587.49 5.89 
361.04 -588.83 5.89 
360.88 -589.26 5.88 
358.97 -603.48 6.82 
361.16 -594.52 6.52 
360.72 -594.83 6.53 
359.91 -594.71 6.59 
360.38 -595.53 6.51 
360.00 -595.59 6.53 
359.71 -595.73 6.54 
345.66 -599.58 7.57 
360.25 -601.64 6.86 
360.88 -601.99 6.78 
360.65 -602.10 6.79 
360.15 -601.89 6.85 
358.00 -602.10 7.01 
356.67 -601.86 7.15 
359.66 -602.38 6.85 
357.68 -602.42 7.01 
357.32 -602.40 7.05 
359.32 -602.81 6.84 
358.89 -602.69 6.89 
360.54 -588.99 6.88 
346.68 -598.26 7.51 
346.57 -598.64 7.51 
345.76 -598.45 7.60 
345.45 -598.41 7.63 
365.00 -601.26 7.25 
365.63 -602.81 7.05 
358.77 -602.83 7.57 
358.53 -603.02 7.58 
360.94 -587.78 6.93 
360.88 -587.71 6.94 
359.94 -587.59 7.00 
360.70 -588.33 6.91 
360.81 -593.89 7.44 
360.57 -594.02 7.45 
360.14 -594.36 7.45 
359.21 -595.19 7.45 
358.70 -595.81 7.44 
359.45 -600.33 7.76 
360.07 -600.88 7.65 
359.63 -600.92 7.68 
359.17 -600.72 7.75 
359.48 -600.99 7.69 
366.22 -602.69 7.67 
359.38 -602.14 7.58 
365.27 -601.44 7.89 
359.41 -594.80 8.33 
359.00 -594.82 8.36 
359.20 -594.96 8.33 
357.28 -601.10 8.62 
358.35 -601.49 8.46 
357.82 -601.96 8.46 
365.94 -603.94 3.82 
345.13 -604.17 4.97 
366.47 -604.37 3.80 
366.29 -604.21 3.81 
346.17 -604.37 4.91 
345.68 -604.50 4.94 
366.04 -604.46 3.82 
361.63 -588.78 3.87 
360.75 -603.24 4.69 
366.48 -603.54 4.41 
365.17 -603.39 4.47 
364.99 -603.43 4.48 
360.79 -603.29 4.69 
360.53 -603.50 4.70 
360.11 -603.49 4.73 
366.12 -603.80 4.42 
365.60 -603.72 4.44 
365.41 -603.65 4.45 
359.75 -603.89 4.74 
358.95 -603.92 4.79 
358.55 -603.93 4.81 
341.74 -604.18 5.19 
361.28 -601.40 4.69 
361.12 -602.28 4.69 
360.96 -602.46 4.69 
360.83 -602.64 4.70 
357.10 -602.80 4.91 
356.57 -602.59 4.95 
356.98 -603.00 4.92 
358.12 -603.57 4.84 
357.75 -603.70 4.86 
346.92 -603.74 5.62 
345.88 -604.65 5.70 
361.96 -588.97 4.81 
361.39 -589.15 4.84 
361.70 -589.26 4.82 
361.89 -594.16 4.75 
361.67 -594.22 4.76 
361.68 -594.60 4.75 
361.10 -595.01 4.78 
360.76 -595.09 4.79 
360.67 -595.91 4.79 
360.43 -595.96 4.80 
346.19 -597.53 5.69 
345.35 -597.74 5.76 
347.54 -598.56 5.59 
346.40 -598.80 5.67 
345.84 -598.90 5.72 
345.13 -598.75 5.77 
347.15 -599.38 5.62 
344.81 -599.29 5.79 
344.60 -599.38 5.81 
346.09 -599.73 5.69 
364.86 -601.61 5.17 
361.35 -601.85 5.35 
361.10 -601.89 5.36 
361.06 -602.72 5.34 
360.55 -602.76 5.37 
360.13 -602.63 5.40 
359.89 -602.74 5.41 
365.74 -602.99 5.08 
359.88 -603.12 5.40 
358.94 -603.12 5.46 
357.45 -602.92 5.57 
357.12 -603.20 5.58 
365.57 -603.25 5.08 
359.72 -603.42 5.40 
359.49 -603.49 5.41 
358.87 -603.53 5.45 
358.58 -603.52 5.47 
358.17 -603.58 5.49 
357.85 -603.56 5.52 
366.45 -604.29 5.00 
366.14 -604.22 5.01 
365.86 -604.32 5.02 
362.09 -587.31 4.83 
362.74 -587.79 4.79 
361.60 -588.11 4.84 
362.21 -588.66 4.81 
361.97 -588.73 4.82 
361.22 -595.99 5.57 
361.49 -596.08 5.55 
361.33 -600.13 5.41 
356.70 -601.01 5.68 
356.36 -601.32 5.69 
346.11 -603.38 6.48 
365.99 -603.39 5.67 
365.84 -603.44 5.68 
361.91 -594.06 5.60 
361.71 -594.28 5.60 
360.57 -595.17 5.63 
361.65 -595.60 5.56 
360.89 -595.52 5.60 
361.48 -595.81 5.56 
360.51 -595.86 5.61 
346.34 -599.52 6.54 
346.56 -600.27 6.51 
361.08 -600.79 6.10 
360.94 -600.96 6.10 
360.98 -601.73 6.05 
360.73 -601.84 6.06 
365.17 -602.00 5.79 
360.79 -602.26 6.03 
359.96 -602.22 6.09 
359.71 -602.38 6.10 
356.95 -602.15 6.32 
366.26 -602.68 5.70 
360.58 -602.55 6.03 
360.25 -602.55 6.05 
359.69 -602.74 6.08 
359.51 -602.83 6.09 
357.44 -602.86 6.24 
365.60 -602.92 5.72 
358.65 -603.01 6.14 
358.15 -603.04 6.18 
357.67 -602.93 6.22 
359.55 -603.55 6.04 
362.70 -587.27 5.81 
362.26 -587.36 5.82 
361.79 -587.26 5.85 
361.55 -587.31 5.86 
361.50 -588.67 5.82 
361.21 -589.16 5.81 
365.55 -601.82 6.44 
365.37 -602.95 6.36 
366.19 -603.13 6.30 
361.18 -593.77 6.50 
360.18 -594.20 6.54 
361.54 -594.52 6.44 
361.20 -594.69 6.45 
361.06 -594.80 6.45 
360.81 -594.83 6.46 
360.70 -595.56 6.43 
360.22 -595.56 6.46 
360.03 -595.71 6.46 
346.79 -598.68 7.40 
365.15 -601.72 6.47 
361.20 -601.92 6.70 
361.18 -601.95 6.70 
356.98 -601.73 7.04 
358.49 -602.06 6.89 
358.28 -602.07 6.91 
357.84 -602.38 6.92 
357.52 -602.33 6.95 
359.81 -602.65 6.74 
359.55 -602.81 6.75 
359.39 -602.84 6.76 
358.35 -602.93 6.83 
361.97 -588.19 6.79 
361.68 -588.23 6.80 
360.80 -588.32 6.85 
359.78 -601.98 7.48 
359.00 -602.89 7.45 
358.75 -603.04 7.46 
361.31 -587.80 6.85 
362.26 -588.08 6.78 
361.09 -588.25 6.83 
361.31 -593.67 7.36 
360.98 -594.08 7.35 
360.51 -594.33 7.36 
360.78 -594.36 7.34 
360.29 -594.49 7.36 
360.19 -595.24 7.31 
359.25 -595.57 7.35 
359.93 -600.11 7.66 
360.49 -600.61 7.57 
360.32 -600.65 7.57 
359.92 -600.76 7.59 
359.58 -600.44 7.65 
360.33 -600.82 7.56 
359.90 -600.86 7.59 
359.76 -601.27 8.26 
365.81 -601.61 7.79 
360.68 -586.84 7.96 
362.39 -587.28 7.82 
361.64 -587.36 7.86 
361.03 -587.48 7.89 
361.21 -587.56 7.87 
360.71 -588.17 7.85 
359.80 -594.14 8.29 
359.73 -594.51 8.25 
359.66 -594.85 8.22 
359.37 -594.95 8.24 
357.61 -600.97 8.49 
359.85 -593.34 8.37 
358.71 -594.97 9.14 
356.89 -602.75 4.19 
347.09 -603.71 4.78 
346.93 -603.81 4.79 
346.76 -603.96 4.81 
365.79 -603.63 4.04 
346.79 -604.43 4.81 
346.09 -604.58 4.86 
345.81 -604.65 4.88 
366.22 -603.90 4.02 
348.79 -589.38 4.46 
352.93 -597.74 4.34 
347.77 -598.48 4.65 
361.15 -602.79 4.61 
360.92 -603.30 4.62 
360.56 -603.43 4.64 
360.07 -603.34 4.67 
359.52 -603.58 4.69 
358.49 -603.48 4.76 
358.09 -603.61 4.78 
359.99 -603.92 4.66 
359.84 -603.96 4.67 
359.36 -603.70 4.70 
358.93 -603.95 4.72 
359.83 -604.06 4.67 
359.26 -604.09 4.70 
347.53 -603.02 5.51 
346.98 -603.07 5.55 
361.33 -602.45 4.61 
357.50 -602.93 4.82 
357.33 -602.94 4.83 
356.93 -602.72 4.86 
347.39 -603.16 5.52 
345.66 -603.18 5.65 
345.30 -603.49 5.68 
357.31 -602.98 4.83 
343.32 -604.48 5.84 
347.07 -604.35 5.54 
344.08 -604.62 5.78 
366.12 -604.31 4.67 
360.99 -595.69 4.71 
347.35 -597.64 5.54 
353.02 -597.67 5.15 
345.45 -599.06 5.68 
345.13 -599.14 5.70 
347.01 -599.17 5.56 
346.22 -599.27 5.62 
346.99 -599.53 5.56 
346.18 -599.77 5.62 
346.75 -600.15 5.57 
365.17 -601.61 5.10 
361.24 -602.18 5.28 
361.26 -602.53 5.27 
360.50 -602.45 5.31 
357.95 -602.86 5.46 
365.61 -602.84 5.03 
365.43 -602.79 5.04 
360.90 -602.75 5.28 
360.05 -603.14 5.32 
359.84 -603.09 5.33 
357.76 -602.93 5.47 
366.07 -603.20 5.00 
365.78 -602.89 5.02 
360.44 -603.46 5.28 
359.64 -603.50 5.33 
359.24 -603.55 5.35 
358.87 -603.53 5.38 
358.43 -603.40 5.41 
358.33 -603.45 5.42 
361.70 -596.00 5.47 
361.37 -596.22 5.48 
361.19 -596.38 5.49 
361.65 -600.20 5.33 
356.56 -601.18 5.61 
356.83 -601.39 5.58 
347.06 -602.66 6.33 
346.89 -602.75 6.35 
366.38 -603.40 5.60 
366.20 -603.33 5.61 
362.11 -593.95 5.52 
362.21 -595.28 5.47 
362.00 -595.57 5.47 
345.27 -599.14 6.57 
365.31 -601.41 5.76 
357.18 -602.03 6.23 
365.70 -601.94 5.71 
361.18 -602.12 5.95 
360.83 -602.42 5.95 
360.56 -602.54 5.96 
360.07 -602.54 5.99 
358.80 -602.69 6.07 
357.96 -602.77 6.13 
366.03 -602.55 5.66 
360.42 -602.83 5.95 
359.86 -602.83 5.99 
358.94 -602.95 6.05 
358.57 -602.94 6.08 
358.22 -602.92 6.10 
366.50 -602.82 5.63 
366.01 -602.89 5.64 
359.86 -603.40 5.96 
359.39 -603.41 5.99 
359.64 -603.72 5.96 
359.47 -603.78 5.97 
363.11 -587.17 5.71 
362.94 -587.19 5.72 
361.87 -587.32 5.77 
362.06 -587.45 5.76 
362.82 -587.93 5.70 
362.53 -588.02 5.71 
361.73 -588.74 5.73 
366.03 -601.95 6.36 
360.14 -602.65 6.64 
359.84 -602.73 6.66 
361.07 -602.95 6.55 
360.07 -602.85 6.63 
361.92 -594.52 6.35 
361.68 -594.59 6.36 
361.33 -594.75 6.37 
360.98 -594.70 6.39 
361.10 -595.72 6.32 
360.83 -601.49 6.69 
358.63 -601.90 6.81 
357.36 -601.70 6.93 
366.22 -601.74 6.36 
365.87 -601.77 6.38 
365.44 -601.69 6.40 
361.39 -601.96 6.61 
360.43 -602.14 6.66 
358.19 -602.28 6.82 
357.87 -602.31 6.84 
359.54 -602.35 6.71 
359.42 -602.69 6.69 
358.14 -602.50 6.80 
361.24 -588.68 6.73 
365.68 -601.24 7.11 
365.50 -601.25 7.12 
360.14 -602.09 7.36 
358.35 -602.22 7.50 
359.28 -602.66 7.37 
359.10 -602.65 7.39 
359.91 -602.83 7.31 
361.63 -587.23 6.79 
361.42 -587.65 6.78 
362.16 -588.10 6.71 
361.39 -587.85 6.77 
361.63 -593.69 7.27 
360.82 -593.56 7.33 
361.34 -593.95 7.26 
361.18 -594.25 7.25 
361.03 -594.65 7.23 
360.70 -600.80 7.46 
360.50 -600.88 7.46 
360.28 -600.78 7.49 
360.01 -601.28 8.15 
366.10 -601.35 7.76 
358.47 -601.86 8.21 
358.70 -601.94 8.18 
359.83 -603.18 7.93 
362.63 -587.27 7.74 
361.39 -587.35 7.80 
362.88 -587.28 7.72 
362.00 -587.39 7.76 
361.70 -587.42 7.78 
361.16 -587.54 7.80 
361.18 -588.14 7.75 
360.14 -594.43 8.16 
359.77 -594.63 8.16 
360.03 -594.70 8.14 
360.13 -600.86 8.20 
358.07 -601.11 8.34 
357.50 -601.47 8.35 
359.12 -594.94 9.02 
355.74 -602.13 4.27 
355.65 -602.52 4.28 
355.70 -602.83 4.28 
355.58 -603.44 4.29 
351.31 -604.27 4.56 
355.73 -603.75 4.29 
355.44 -604.02 4.31 
351.82 -604.42 4.53 
355.61 -604.03 4.30 
355.36 -604.17 4.32 
355.12 -604.38 4.33 
352.23 -604.66 4.51 
355.32 -604.46 4.32 
354.93 -604.62 4.35 
361.41 -604.28 4.26 
360.65 -604.59 4.30 
360.45 -604.53 4.31 
341.55 -591.77 5.01 
355.32 -596.27 4.22 
355.16 -596.59 4.23 
354.75 -596.53 4.26 
354.46 -596.72 4.28 
346.96 -599.68 4.77 
355.63 -603.93 4.94 
354.69 -604.50 5.00 
363.68 -603.27 4.50 
359.52 -604.04 4.71 
355.38 -604.50 4.95 
355.10 -604.58 4.97 
364.17 -603.56 4.48 
363.82 -603.71 4.49 
361.07 -604.23 4.62 
360.48 -604.35 4.65 
360.30 -604.33 4.66 
359.76 -604.18 4.69 
359.39 -604.24 4.71 
359.21 -604.32 4.72 
363.83 -603.82 4.49 
362.69 -604.01 4.54 
361.87 -604.41 4.58 
361.48 -604.30 4.60 
361.04 -604.41 4.62 
360.77 -604.51 4.63 
363.43 -604.31 4.50 
363.17 -604.49 4.51 
362.14 -604.50 4.56 
361.90 -588.86 4.05 
361.65 -589.40 4.07 
361.41 -589.74 4.09 
355.86 -602.28 4.94 
355.87 -602.49 4.94 
355.76 -602.73 4.95 
355.88 -603.35 4.93 
355.56 -603.56 4.95 
351.20 -604.30 5.24 
359.82 -603.01 4.70 
355.73 -603.57 4.94 
352.09 -604.44 5.18 
351.77 -604.51 5.20 
351.38 -604.30 5.23 
355.49 -589.91 5.10 
355.27 -590.31 5.11 
355.04 -590.35 5.12 
355.49 -595.65 5.04 
355.19 -596.01 5.05 
354.91 -596.49 5.06 
354.78 -596.87 5.07 
346.96 -599.55 5.58 
341.60 -601.68 6.00 
359.48 -602.38 5.40 
355.91 -602.81 5.61 
355.88 -603.15 5.60 
355.71 -603.31 5.61 
354.95 -603.51 5.65 
355.62 -603.71 5.60 
355.35 -603.84 5.61 
354.42 -603.80 5.68 
352.22 -604.38 5.83 
352.00 -604.51 5.85 
363.12 -602.72 5.19 
362.96 -602.84 5.19 
360.08 -603.54 5.32 
354.29 -604.43 5.67 
352.86 -604.67 5.77 
363.15 -603.26 5.17 
362.92 -603.31 5.18 
360.56 -603.82 5.28 
360.28 -603.62 5.31 
355.00 -604.68 5.61 
364.06 -603.51 5.12 
363.79 -603.48 5.13 
361.79 -603.71 5.22 
363.67 -603.81 5.13 
363.50 -603.98 5.13 
362.64 -604.31 5.16 
362.37 -604.32 5.17 
362.00 -604.34 5.19 
361.48 -604.36 5.22 
356.16 -588.61 5.07 
355.88 -588.72 5.09 
355.57 -588.69 5.11 
355.06 -588.88 5.14 
361.95 -588.35 5.06 
355.50 -589.68 5.10 
361.71 -588.81 5.07 
355.49 -597.10 5.83 
355.18 -597.38 5.84 
355.78 -601.35 5.67 
350.94 -602.60 5.99 
350.83 -602.79 5.99 
362.49 -603.13 5.54 
362.70 -603.19 5.52 
360.91 -603.98 5.88 
360.73 -604.08 5.89 
362.59 -604.33 5.77 
362.22 -604.18 5.80 
362.04 -604.22 5.81 
362.96 -604.32 5.76 
362.36 -604.54 5.64 
361.59 -604.56 5.81 
355.77 -596.71 5.82 
355.76 -602.34 6.32 
359.58 -602.09 6.07 
351.62 -603.53 6.59 
364.18 -601.85 5.85 
359.94 -602.67 6.02 
355.91 -603.09 6.26 
355.62 -603.19 6.28 
355.41 -603.45 6.28 
354.22 -603.54 6.37 
353.15 -603.59 6.46 
351.94 -603.80 6.55 
364.00 -602.08 5.84 
355.24 -603.65 6.28 
355.04 -603.67 6.30 
354.62 -603.96 6.31 
354.34 -604.05 6.33 
353.42 -604.25 6.40 
353.09 -604.27 6.42 
352.65 -604.25 6.46 
352.34 -604.25 6.49 
363.74 -602.90 5.80 
361.06 -603.39 5.91 
355.00 -604.21 6.27 
353.64 -604.38 6.37 
353.24 -604.40 6.41 
360.90 -603.44 5.92 
360.50 -603.50 5.94 
360.33 -603.78 5.93 
363.34 -603.42 5.79 
362.77 -603.68 5.80 
356.16 -588.16 6.09 
355.87 -588.21 6.10 
355.01 -588.54 6.15 
355.70 -589.03 6.09 
355.45 -589.27 6.10 
360.47 -602.63 6.65 
354.57 -603.93 6.98 
354.37 -603.99 6.99 
363.97 -602.80 6.45 
361.32 -603.90 6.49 
363.76 -603.87 6.37 
363.57 -603.92 6.38 
363.21 -603.92 6.39 
361.51 -604.13 6.46 
361.80 -589.05 6.07 
355.60 -595.61 6.71 
355.39 -595.73 6.71 
355.16 -595.87 6.72 
354.92 -595.97 6.73 
354.53 -596.45 6.74 
354.89 -596.91 6.68 
355.22 -602.63 7.02 
351.99 -603.24 7.26 
351.62 -603.10 7.31 
355.93 -602.97 6.94 
355.66 -603.03 6.95 
360.26 -602.50 6.67 
359.86 -602.48 6.69 
359.69 -602.42 6.71 
355.77 -603.14 6.94 
352.70 -603.98 7.14 
354.12 -603.83 7.02 
353.94 -603.92 7.03 
352.99 -604.17 7.10 
360.05 -601.85 7.42 
359.86 -602.00 7.42 
354.58 -603.15 7.72 
352.40 -603.60 7.89 
354.45 -603.27 7.72 
352.61 -603.59 7.87 
352.06 -603.74 7.91 
353.79 -603.93 7.71 
353.61 -604.01 7.72 
363.24 -602.93 7.13 
363.08 -602.82 7.15 
354.47 -604.12 7.63 
362.29 -603.79 7.09 
361.92 -603.79 7.10 
362.48 -603.95 7.06 
355.16 -586.95 7.23 
355.35 -589.17 7.09 
354.96 -589.25 7.11 
355.25 -594.83 7.63 
354.82 -595.06 7.65 
355.05 -595.11 7.62 
354.60 -595.40 7.64 
355.04 -601.77 7.81 
360.43 -601.14 7.47 
354.79 -602.04 7.81 
352.90 -603.18 7.88 
354.37 -602.25 8.53 
360.32 -602.16 8.05 
360.76 -602.32 8.00 
360.57 -602.42 8.00 
353.38 -603.80 8.44 
361.05 -602.78 7.92 
353.69 -604.01 8.38 
362.51 -602.95 7.82 
362.35 -602.89 7.83 
354.43 -604.48 8.25 
355.01 -587.77 8.21 
355.72 -588.33 8.12 
354.90 -588.53 8.16 
354.30 -588.87 8.18 
354.15 -589.36 8.15 
353.90 -595.47 8.55 
353.77 -595.97 8.51 
354.34 -596.07 8.45 
353.59 -596.10 8.51 
354.48 -602.06 8.54 
352.52 -602.54 8.69 
351.98 -602.92 8.70 
354.24 -594.02 8.67 
355.92 -602.36 3.58 
356.09 -603.63 3.61 
355.56 -604.42 3.67 
347.30 -599.57 4.77 
356.13 -602.29 4.25 
351.72 -604.19 4.54 
356.13 -603.47 4.26 
355.93 -603.37 4.27 
364.11 -602.51 3.83 
359.70 -603.60 4.06 
355.69 -604.47 4.30 
364.47 -602.61 3.81 
364.24 -602.87 3.83 
361.82 -603.14 3.95 
359.87 -603.88 4.06 
360.48 -604.07 4.03 
360.16 -604.13 4.04 
361.19 -604.43 3.99 
360.44 -604.33 4.03 
363.78 -604.13 3.86 
363.31 -604.13 3.88 
361.38 -604.57 3.98 
355.56 -589.32 4.17 
355.97 -589.38 4.15 
355.69 -589.51 4.16 
355.38 -589.48 4.18 
355.96 -596.22 4.21 
355.72 -596.21 4.22 
353.03 -597.78 4.67 
342.17 -600.33 5.13 
353.26 -597.79 4.66 
341.75 -601.01 5.17 
342.36 -601.07 5.13 
342.06 -601.11 5.15 
341.76 -601.50 5.18 
341.57 -602.18 5.20 
354.44 -602.77 4.63 
354.45 -602.91 4.63 
354.40 -603.31 4.64 
354.51 -604.26 4.65 
355.66 -604.47 4.93 
355.26 -604.52 4.96 
354.06 -604.69 5.03 
360.71 -603.60 4.65 
355.77 -604.67 4.92 
359.99 -604.11 4.69 
359.68 -604.16 4.70 
362.79 -604.00 4.54 
360.58 -604.52 4.65 
363.05 -604.33 4.53 
361.80 -604.61 4.58 
361.44 -604.56 4.60 
364.08 -604.35 4.48 
363.87 -604.50 4.49 
363.49 -604.66 4.50 
353.31 -589.92 4.58 
347.32 -599.48 5.57 
351.97 -603.21 5.19 
356.46 -602.63 4.91 
355.86 -602.69 4.95 
354.73 -602.90 5.34 
351.71 -603.68 5.21 
351.55 -603.84 5.22 
354.68 -603.42 5.33 
356.23 -603.30 4.91 
354.36 -603.69 5.35 
353.36 -604.28 5.09 
353.34 -604.33 5.09 
352.15 -604.34 5.17 
360.87 -603.06 4.65 
360.29 -603.42 4.68 
361.16 -603.47 4.63 
358.78 -604.57 5.04 
358.53 -604.35 5.06 
364.19 -603.69 4.48 
359.09 -604.66 5.02 
364.35 -603.71 4.48 
362.66 -604.23 4.81 
362.10 -604.55 4.84 
361.94 -604.51 4.85 
356.19 -595.58 5.03 
356.01 -596.02 5.03 
355.80 -596.24 5.04 
353.10 -597.09 5.52 
354.21 -597.28 5.44 
342.49 -600.75 5.94 
341.85 -600.65 6.00 
356.35 -602.83 5.59 
356.24 -602.92 5.59 
359.84 -602.72 5.38 
355.65 -603.70 5.60 
356.25 -603.78 5.56 
354.13 -604.48 5.68 
360.15 -603.19 5.35 
354.93 -604.56 5.62 
364.48 -603.06 5.15 
363.70 -603.23 5.18 
360.73 -603.94 5.29 
360.47 -604.01 5.30 
363.72 -603.63 5.16 
363.24 -603.90 5.17 
362.90 -603.95 5.18 
362.63 -603.92 5.20 
361.66 -604.08 5.24 
361.50 -604.09 5.25 
364.10 -603.89 5.13 
363.98 -603.93 5.14 
363.39 -604.00 5.16 
363.00 -604.09 5.17 
361.36 -604.57 5.23 
361.02 -604.65 5.25 
362.40 -604.67 5.18 
356.23 -588.37 5.13 
355.73 -589.29 5.14 
355.50 -589.45 5.16 
353.99 -589.84 5.55 
353.64 -589.89 5.57 
359.91 -588.75 4.92 
356.09 -589.68 5.12 
351.47 -602.81 5.94 
355.01 -602.87 6.04 
354.61 -603.38 6.05 
359.15 -602.86 5.74 
355.09 -603.68 6.01 
359.39 -603.26 5.71 
359.60 -604.23 5.66 
363.27 -604.66 5.77 
362.44 -604.64 5.80 
355.97 -595.34 5.89 
355.66 -595.64 5.90 
356.27 -596.58 5.83 
355.93 -596.61 5.85 
342.29 -600.28 6.81 
342.16 -600.46 6.82 
353.71 -597.84 6.31 
342.06 -600.88 6.82 
341.84 -600.90 6.84 
359.96 -601.97 6.09 
359.76 -602.11 6.09 
356.35 -602.80 6.26 
356.16 -602.89 6.27 
355.51 -603.60 6.27 
353.67 -604.44 6.36 
354.22 -604.67 6.31 
361.54 -603.35 5.92 
361.34 -603.39 5.93 
360.38 -603.82 5.96 
361.92 -603.55 5.89 
361.72 -603.61 5.90 
360.76 -603.73 5.94 
360.58 -603.92 5.94 
364.48 -603.39 5.79 
364.27 -603.54 5.79 
361.04 -604.29 5.89 
364.06 -603.90 5.78 
363.93 -603.98 5.78 
363.76 -604.45 5.76 
363.47 -604.61 5.76 
363.00 -604.52 5.79 
362.73 -604.54 5.80 
356.33 -588.68 6.12 
355.90 -588.60 6.15 
354.20 -596.84 6.31 
354.28 -602.58 6.84 
354.11 -602.64 6.85 
354.94 -603.19 6.75 
354.79 -603.40 6.75 
354.96 -603.77 6.96 
354.31 -603.84 6.77 
354.81 -603.98 6.96 
354.68 -604.29 6.94 
362.93 -603.51 6.50 
362.53 -603.84 6.49 
361.93 -604.12 6.50 
361.55 -604.15 6.51 
353.93 -590.00 6.57 
353.25 -590.28 6.61 
355.56 -595.60 6.75 
355.39 -595.90 6.75 
341.69 -600.36 7.72 
353.45 -597.75 7.18 
341.62 -600.91 7.70 
341.68 -601.07 7.68 
355.06 -603.03 7.02 
353.42 -603.28 7.13 
356.25 -602.92 6.94 
355.00 -603.37 6.99 
352.64 -603.77 7.16 
352.33 -603.74 7.19 
360.31 -602.38 6.72 
360.61 -602.72 6.68 
360.44 -602.77 6.68 
354.34 -604.48 7.42 
362.76 -603.19 6.54 
363.74 -603.25 6.49 
354.87 -595.80 7.18 
353.74 -596.89 7.21 
354.31 -597.14 7.15 
361.46 -602.34 7.35 
361.13 -602.40 7.36 
363.08 -602.48 7.27 
363.22 -603.04 7.20 
354.81 -587.71 7.28 
355.47 -588.47 7.19 
355.18 -588.38 7.22 
354.85 -588.29 7.24 
356.15 -589.13 7.11 
355.87 -589.30 7.11 
355.49 -594.63 7.68 
355.78 -594.94 7.64 
355.46 -601.78 7.80 
360.87 -601.90 7.43 
360.70 -601.92 7.44 
354.46 -587.27 7.71 
354.23 -587.46 7.72 
353.85 -588.80 7.67 
354.23 -589.09 7.62 
354.32 -596.03 8.09 
353.91 -597.36 8.02 
353.60 -597.22 8.06 
354.39 -603.43 8.39 
361.71 -602.17 8.05 
360.70 -602.11 8.11 
363.38 -601.80 8.03 
361.91 -602.29 8.02 
354.60 -604.22 8.27 
362.29 -602.70 7.95 
362.12 -602.61 7.97 
362.85 -603.09 7.88 
362.66 -603.08 7.89 
355.01 -588.70 8.21 
354.12 -596.01 8.52 
353.88 -596.21 8.52 
352.85 -602.29 8.68 
354.95 -601.93 8.53 
361.12 -601.39 8.18 
363.88 -601.01 8.11 
363.63 -601.48 8.06 
363.43 -601.56 8.06 
353.75 -604.57 8.88 
353.27 -588.73 8.77 
352.99 -590.10 8.68 
354.58 -594.18 8.68 
356.38 -602.18 3.46 
355.62 -604.13 3.56 
354.83 -604.16 3.61 
356.02 -604.26 3.55 
355.85 -604.39 3.56 
355.49 -604.58 3.59 
364.04 -603.77 3.10 
361.21 -604.59 3.27 
360.77 -604.59 3.30 
363.23 -604.44 3.16 
362.73 -604.40 3.19 
352.14 -603.62 3.98 
347.76 -599.38 4.66 
347.57 -599.45 4.67 
342.45 -601.64 5.05 
342.13 -602.04 5.08 
341.86 -602.06 5.10 
351.92 -603.53 4.43 
356.48 -602.33 4.14 
352.14 -603.68 4.42 
351.95 -604.09 4.44 
356.34 -603.21 4.16 
352.50 -604.59 4.41 
352.88 -604.67 4.38 
361.98 -602.44 3.85 
356.26 -604.15 4.17 
355.79 -604.35 4.20 
355.55 -604.51 4.22 
362.34 -602.98 3.83 
362.14 -602.92 3.84 
360.14 -603.67 3.95 
356.10 -604.51 4.19 
364.85 -602.63 3.71 
362.11 -603.68 3.85 
361.06 -604.31 3.91 
360.79 -604.28 3.92 
360.52 -604.20 3.94 
360.67 -604.52 3.93 
363.90 -604.11 3.76 
363.57 -604.24 3.78 
363.41 -604.18 3.79 
362.84 -604.50 3.82 
356.26 -589.28 4.04 
356.02 -589.48 4.06 
354.68 -595.67 4.46 
354.43 -595.73 4.47 
356.43 -596.26 4.09 
356.10 -596.48 4.11 
342.49 -600.14 5.03 
342.67 -600.94 5.03 
342.52 -601.00 5.04 
341.96 -601.20 5.08 
354.18 -604.52 4.58 
356.13 -604.42 4.82 
355.73 -604.32 4.85 
355.54 -604.33 4.86 
355.02 -604.68 4.89 
355.97 -604.57 4.83 
360.14 -603.94 4.60 
360.71 -604.40 4.56 
361.97 -604.44 4.50 
360.90 -604.47 4.55 
363.83 -604.67 4.41 
341.96 -602.01 5.89 
352.06 -603.05 5.11 
352.20 -603.28 5.09 
352.53 -603.39 5.07 
351.89 -603.74 5.11 
356.37 -603.09 4.83 
353.51 -603.87 5.00 
356.69 -603.23 4.80 
356.42 -603.17 4.82 
356.31 -603.91 4.82 
355.74 -604.08 4.85 
356.21 -604.04 4.82 
361.44 -603.50 4.54 
361.14 -603.49 4.55 
359.40 -604.23 4.91 
359.13 -604.38 4.93 
358.75 -604.53 4.95 
360.64 -604.37 4.83 
363.53 -603.70 4.68 
362.56 -604.51 4.72 
356.55 -595.51 4.92 
354.53 -595.92 5.34 
355.11 -596.07 5.30 
342.30 -599.69 5.88 
356.36 -596.25 4.92 
356.15 -596.24 4.94 
342.20 -600.55 5.88 
341.52 -600.87 5.94 
341.62 -602.00 5.92 
352.95 -604.38 5.69 
352.65 -604.46 5.71 
361.29 -602.28 5.25 
360.21 -602.69 5.29 
356.49 -603.66 5.47 
356.13 -603.67 5.49 
355.54 -604.00 5.52 
354.45 -604.32 5.58 
353.37 -604.57 5.65 
355.42 -604.49 5.51 
355.13 -604.42 5.53 
364.03 -603.04 5.10 
360.81 -603.92 5.21 
364.89 -602.86 5.07 
364.21 -603.19 5.09 
363.81 -603.40 5.10 
361.90 -603.84 5.16 
361.08 -603.92 5.20 
360.87 -604.01 5.21 
363.60 -603.88 5.09 
363.24 -604.01 5.10 
362.94 -603.95 5.11 
361.70 -604.49 5.15 
361.41 -604.51 5.16 
342.19 -590.91 5.97 
356.55 -587.31 5.04 
360.19 -587.60 4.83 
356.33 -589.37 5.02 
354.28 -589.72 5.44 
356.63 -589.57 5.00 
354.06 -590.13 5.45 
342.25 -604.64 6.61 
351.60 -602.74 5.85 
351.84 -602.80 5.83 
355.34 -602.63 5.93 
355.16 -602.75 5.94 
359.01 -602.57 5.67 
354.92 -604.21 5.90 
362.34 -602.56 5.46 
354.70 -604.53 5.91 
359.60 -603.62 5.59 
362.17 -603.52 5.43 
359.83 -604.09 5.56 
359.04 -604.12 5.61 
358.76 -604.15 5.63 
354.67 -596.74 6.18 
342.64 -600.19 6.69 
342.49 -600.33 6.70 
342.14 -600.72 6.72 
341.64 -600.70 6.77 
342.38 -600.73 6.70 
341.68 -601.50 6.75 
355.78 -603.66 6.18 
355.22 -603.62 6.22 
355.95 -603.69 6.16 
355.57 -603.87 6.18 
362.22 -603.49 5.82 
361.92 -603.43 5.84 
361.64 -603.65 5.84 
361.03 -603.62 5.87 
359.71 -604.09 6.23 
362.40 -603.59 5.81 
360.83 -603.99 5.86 
360.29 -604.24 6.18 
361.57 -604.25 5.80 
361.27 -604.37 5.81 
362.99 -604.58 5.72 
362.52 -604.32 5.76 
364.14 -604.47 5.68 
363.83 -604.58 5.69 
363.45 -604.58 5.70 
355.13 -595.87 6.18 
355.02 -596.53 6.17 
353.55 -602.48 6.81 
359.01 -602.23 6.39 
354.84 -603.37 6.65 
354.49 -603.59 6.66 
353.79 -603.87 6.71 
353.01 -604.15 6.76 
352.25 -604.45 6.82 
354.41 -604.42 6.62 
361.81 -604.07 6.45 
362.91 -603.80 6.43 
354.90 -587.70 6.49 
354.67 -589.80 6.43 
354.42 -590.01 6.44 
354.13 -590.08 6.46 
341.84 -600.16 7.61 
341.93 -600.75 7.58 
354.04 -597.54 7.05 
355.86 -602.68 6.91 
356.07 -602.76 6.89 
355.52 -603.19 6.89 
355.37 -603.29 6.90 
354.51 -603.57 6.94 
353.21 -603.69 7.03 
354.41 -603.82 6.93 
355.40 -604.01 7.26 
355.02 -604.17 7.28 
353.47 -604.67 7.39 
361.12 -602.67 6.60 
360.95 -602.75 6.60 
363.28 -603.20 6.46 
363.98 -603.25 6.43 
355.01 -595.04 7.12 
354.79 -595.24 7.12 
354.53 -595.87 7.11 
354.06 -603.86 7.39 
353.92 -604.10 7.39 
355.48 -603.93 7.50 
355.18 -603.97 7.28 
362.35 -603.35 7.16 
362.66 -604.06 7.07 
356.10 -588.33 7.08 
355.84 -588.41 7.10 
356.46 -589.20 7.01 
354.46 -589.80 7.47 
361.26 -601.49 7.41 
361.23 -601.49 7.41 
361.59 -602.24 7.31 
363.62 -602.53 7.20 
354.91 -587.32 7.58 
354.71 -587.94 7.56 
354.38 -587.99 7.58 
355.32 -602.27 8.39 
353.69 -603.11 8.42 
352.76 -603.79 8.25 
355.35 -604.04 8.16 
363.32 -602.27 7.94 
362.45 -602.36 7.95 
362.18 -602.41 7.96 
363.47 -602.42 7.91 
362.73 -602.64 7.91 
363.21 -602.86 7.86 
362.97 -603.16 7.83 
353.19 -602.18 8.59 
364.15 -600.84 8.10 
361.49 -601.64 8.09 
363.80 -601.67 8.00 
360.04 -602.50 8.44 
352.89 -604.57 8.87 
363.98 -601.77 7.98 
353.94 -588.53 8.63 
354.89 -588.50 8.56 
354.70 -588.86 8.54 
354.66 -588.99 8.54 
354.38 -589.07 8.55 
353.78 -589.93 8.53 
353.33 -589.98 8.57 
354.04 -596.89 8.82 
360.53 -604.18 3.19 
361.09 -604.55 3.17 
360.78 -604.62 3.19 
355.99 -603.44 3.64 
355.44 -603.81 3.68 
355.14 -604.29 3.72 
355.38 -604.41 3.71 
354.91 -604.54 3.74 
356.69 -602.40 4.03 
360.19 -602.69 3.84 
362.27 -602.33 3.73 
355.91 -604.23 4.09 
356.21 -604.49 4.08 
362.71 -603.02 3.71 
362.38 -603.05 3.73 
360.59 -603.78 3.83 
365.09 -602.72 3.59 
364.75 -602.86 3.61 
362.51 -603.68 3.73 
364.87 -603.11 3.61 
360.93 -604.36 3.82 
363.19 -604.38 3.70 
362.60 -604.55 3.73 
356.02 -596.05 4.25 
355.93 -596.99 4.27 
356.04 -602.40 4.32 
353.61 -604.69 4.50 
355.61 -604.28 4.37 
355.31 -604.33 4.39 
360.07 -603.94 4.10 
361.08 -604.48 4.45 
362.32 -604.54 4.39 
356.03 -588.92 4.17 
355.73 -588.93 4.19 
355.29 -590.08 4.23 
347.98 -599.31 5.33 
352.41 -603.06 4.98 
352.89 -603.34 4.94 
352.70 -603.45 4.95 
352.21 -603.68 4.98 
356.41 -602.89 5.01 
356.20 -602.92 5.02 
352.13 -604.01 5.30 
357.06 -603.25 4.68 
356.78 -603.21 4.70 
353.97 -604.15 4.86 
356.14 -604.27 4.73 
355.85 -604.31 4.74 
361.85 -603.08 4.43 
361.63 -603.53 4.44 
360.79 -603.45 4.48 
361.96 -603.53 4.42 
360.90 -604.18 4.47 
360.64 -604.04 4.56 
360.35 -604.08 4.49 
359.75 -604.28 4.78 
364.58 -603.15 4.53 
363.08 -603.74 4.60 
361.94 -603.95 4.42 
365.00 -603.66 4.28 
363.69 -604.09 4.33 
362.38 -604.45 4.51 
362.09 -604.31 4.65 
364.28 -604.16 4.53 
364.00 -604.33 4.54 
363.69 -604.56 4.56 
363.39 -604.66 4.34 
364.58 -604.43 4.29 
363.99 -604.58 4.32 
355.56 -596.05 5.15 
355.29 -595.94 5.17 
360.91 -594.81 4.58 
356.35 -596.06 5.09 
355.96 -596.84 5.11 
356.24 -596.94 5.09 
354.64 -603.79 5.49 
356.22 -603.54 5.40 
355.97 -603.84 5.40 
353.80 -604.50 5.52 
355.72 -604.49 5.40 
355.43 -604.31 5.42 
354.94 -604.54 5.45 
360.61 -603.22 5.17 
364.32 -603.17 5.01 
364.93 -603.18 4.98 
362.23 -604.15 5.06 
363.88 -603.92 5.00 
362.52 -604.16 5.05 
363.61 -604.31 5.00 
356.41 -588.83 5.18 
360.75 -587.65 4.68 
360.49 -587.66 4.69 
356.12 -589.03 5.19 
357.09 -589.39 4.86 
355.64 -589.90 5.21 
356.86 -589.59 4.87 
355.94 -589.86 5.20 
361.03 -589.09 4.65 
342.04 -602.26 6.57 
342.54 -604.61 6.46 
356.49 -601.73 5.76 
356.61 -603.16 5.70 
356.35 -603.17 5.72 
360.23 -602.43 5.49 
356.23 -603.82 5.71 
355.93 -603.87 5.73 
360.43 -603.56 5.44 
365.25 -602.75 4.99 
365.06 -602.81 4.99 
361.03 -603.85 5.39 
364.77 -603.45 5.20 
364.55 -603.65 5.21 
364.23 -603.81 5.22 
363.55 -604.28 5.24 
363.23 -604.49 5.24 
362.56 -604.54 5.28 
342.03 -600.25 6.62 
342.85 -600.18 6.55 
341.90 -600.45 6.63 
356.23 -596.51 5.96 
356.02 -596.76 5.97 
355.75 -596.74 5.98 
342.50 -600.62 6.57 
341.86 -601.52 6.60 
353.55 -604.15 6.21 
353.38 -604.28 6.22 
353.97 -604.27 6.18 
353.80 -604.46 6.18 
362.10 -603.33 5.77 
361.36 -603.57 5.79 
361.06 -603.34 5.81 
362.54 -603.61 5.73 
362.26 -603.62 5.74 
362.02 -603.70 5.75 
361.10 -604.08 5.77 
365.23 -603.03 5.67 
365.04 -603.07 5.67 
361.55 -604.35 5.73 
361.29 -604.31 5.88 
362.74 -604.45 5.68 
361.75 -604.41 5.72 
363.69 -604.52 5.64 
363.49 -604.54 5.64 
356.74 -596.29 5.93 
356.47 -596.38 5.95 
356.52 -602.23 6.47 
355.89 -602.95 6.47 
356.29 -603.23 6.43 
355.98 -603.24 6.45 
355.90 -603.97 6.41 
360.72 -602.83 6.14 
360.50 -602.66 6.17 
355.76 -604.23 6.41 
355.39 -604.20 6.74 
364.24 -603.56 5.91 
356.74 -588.47 6.21 
356.15 -588.75 6.24 
356.01 -589.84 6.21 
342.33 -600.68 7.41 
341.87 -600.85 7.45 
341.56 -601.34 7.46 
360.86 -601.63 6.64 
356.25 -602.76 6.80 
361.03 -601.68 6.62 
355.39 -603.92 6.76 
361.38 -602.47 6.54 
356.19 -604.04 7.07 
363.81 -602.98 6.41 
362.90 -603.42 6.40 
364.60 -603.18 6.37 
364.37 -603.31 6.37 
363.23 -603.96 6.35 
356.30 -594.93 6.90 
356.17 -595.75 6.87 
355.90 -595.75 6.89 
355.71 -596.12 6.88 
356.12 -602.78 7.18 
360.52 -602.17 6.91 
356.61 -603.10 7.12 
356.24 -603.18 7.14 
355.02 -603.70 7.48 
355.71 -603.93 7.40 
355.20 -603.86 7.45 
354.68 -604.20 7.45 
362.53 -603.47 7.10 
362.33 -603.52 7.10 
363.35 -604.04 7.01 
355.73 -589.46 7.26 
361.73 -588.71 6.64 
353.56 -602.47 7.72 
353.02 -602.72 7.74 
361.67 -602.15 7.27 
361.87 -602.21 7.25 
362.72 -602.42 7.20 
362.24 -602.60 7.20 
362.03 -602.61 7.20 
363.73 -602.67 7.14 
364.02 -603.16 7.08 
355.70 -587.23 7.39 
355.90 -595.81 7.76 
355.50 -596.04 7.77 
354.81 -603.28 8.22 
362.73 -602.64 7.87 
362.50 -602.55 7.89 
362.98 -602.85 7.84 
363.22 -603.21 7.79 
355.07 -595.87 8.30 
354.63 -602.21 8.38 
355.70 -602.27 8.29 
353.87 -602.49 8.40 
361.78 -601.57 8.04 
362.18 -601.66 8.02 
361.96 -601.90 7.99 
364.11 -601.82 7.94 
364.33 -601.88 7.93 
363.61 -602.18 7.91 
363.76 -602.50 7.86 
356.56 -588.22 8.33 
355.63 -588.34 8.39 
355.30 -588.27 8.42 
356.31 -588.57 8.32 
355.99 -588.70 8.33 
355.10 -588.96 8.38 
356.21 -602.45 3.48 
356.21 -603.35 3.51 
356.13 -603.59 3.53 
356.06 -604.38 3.56 
355.86 -604.45 3.57 
360.53 -603.89 3.28 
363.81 -603.45 3.09 
360.80 -604.52 3.29 
343.45 -600.62 4.75 
342.81 -600.98 4.80 
341.52 -601.57 4.90 
342.20 -601.65 4.86 
343.28 -601.45 4.78 
342.67 -601.81 4.83 
365.48 -602.78 3.48 
360.75 -604.60 3.96 
361.35 -604.56 3.93 
342.64 -590.78 4.67 
341.85 -593.71 4.77 
356.26 -595.33 4.12 
343.24 -600.01 4.76 
356.27 -595.84 4.12 
343.57 -600.27 4.74 
341.53 -601.14 4.90 
343.01 -600.73 4.79 
342.58 -600.97 4.82 
356.50 -602.83 4.19 
356.33 -603.16 4.21 
356.14 -603.98 4.23 
354.73 -604.59 4.32 
354.29 -604.61 4.35 
360.12 -603.48 3.98 
360.33 -603.93 3.98 
360.54 -604.16 3.97 
364.72 -603.24 3.73 
364.48 -603.51 3.75 
364.12 -603.85 3.77 
356.08 -588.79 4.05 
348.43 -599.18 5.20 
348.38 -599.18 5.20 
341.81 -601.71 5.69 
342.69 -601.72 5.62 
342.23 -601.84 5.65 
352.80 -602.94 4.86 
353.27 -603.31 4.83 
353.06 -603.34 4.84 
352.59 -603.65 4.87 
352.34 -603.80 4.89 
352.02 -603.84 5.20 
353.53 -603.53 4.81 
352.38 -604.07 5.17 
352.73 -604.14 5.15 
357.39 -603.21 4.59 
357.12 -603.19 4.60 
356.81 -603.16 4.88 
354.37 -604.05 4.75 
356.96 -603.89 4.60 
355.54 -604.39 4.95 
354.13 -604.62 5.04 
356.71 -604.23 4.61 
356.24 -604.22 4.64 
355.89 -604.65 4.65 
360.63 -603.78 4.41 
360.17 -603.75 4.67 
362.26 -603.68 4.33 
361.99 -603.57 4.35 
360.86 -604.12 4.39 
360.48 -604.15 4.65 
363.45 -603.74 4.49 
361.35 -604.24 4.37 
362.51 -604.39 4.53 
362.19 -604.56 4.55 
361.82 -604.56 4.49 
361.50 -604.64 4.36 
364.71 -604.16 4.22 
364.37 -604.20 4.24 
363.10 -604.54 4.50 
365.07 -604.36 4.21 
364.73 -604.35 4.22 
364.18 -604.61 4.44 
342.97 -599.32 5.61 
342.39 -599.88 5.65 
342.09 -599.82 5.68 
342.84 -600.29 5.61 
342.16 -600.46 5.67 
343.47 -600.38 5.56 
348.03 -599.44 5.54 
361.43 -596.33 4.45 
361.29 -596.27 4.46 
355.01 -603.86 5.39 
354.17 -604.38 5.43 
353.74 -604.28 5.46 
354.89 -604.46 5.38 
354.85 -604.51 5.38 
354.06 -604.49 5.43 
363.53 -603.89 4.96 
363.66 -604.20 4.95 
361.04 -587.66 4.57 
356.36 -589.55 5.06 
341.74 -601.80 6.50 
342.85 -604.54 6.32 
352.57 -602.22 5.61 
352.99 -602.36 5.57 
352.59 -602.60 5.59 
352.29 -602.59 5.61 
352.85 -602.94 5.56 
356.33 -603.67 5.61 
360.62 -602.50 5.38 
360.40 -602.37 5.39 
361.44 -602.56 5.10 
355.88 -604.61 5.61 
361.04 -603.62 5.31 
360.84 -603.55 5.33 
361.48 -603.87 5.28 
361.26 -604.02 5.29 
364.37 -603.36 5.15 
362.68 -603.78 5.22 
364.97 -603.55 5.12 
363.26 -604.19 5.18 
362.07 -604.50 5.23 
362.03 -604.56 5.23 
364.62 -603.90 5.12 
364.09 -604.04 5.14 
363.84 -604.42 5.14 
342.44 -599.82 6.49 
343.05 -600.52 6.42 
342.27 -600.54 6.49 
352.88 -602.73 6.27 
353.10 -602.77 6.25 
353.39 -603.38 6.20 
353.66 -603.92 6.15 
356.68 -603.55 5.98 
354.71 -604.20 6.06 
354.19 -604.27 6.09 
353.87 -604.15 6.12 
357.26 -603.52 5.95 
356.88 -603.64 5.96 
356.26 -603.81 5.99 
354.99 -604.33 6.04 
354.59 -604.37 6.06 
355.13 -604.54 6.02 
362.43 -603.42 5.71 
362.87 -603.79 5.68 
365.46 -603.20 5.63 
364.67 -604.50 5.58 
364.44 -604.57 5.58 
356.54 -596.52 5.84 
360.26 -601.87 6.15 
356.72 -603.05 6.31 
360.56 -602.11 6.12 
356.41 -603.37 6.31 
362.17 -603.14 5.97 
362.13 -603.28 5.96 
362.44 -603.37 5.94 
361.94 -603.49 5.96 
361.17 -603.88 5.98 
361.69 -604.23 5.93 
361.32 -604.16 5.95 
365.75 -603.04 5.63 
365.03 -603.43 5.82 
342.02 -599.83 7.37 
341.75 -599.85 7.40 
342.71 -599.95 7.30 
342.13 -600.16 7.34 
341.69 -600.39 7.38 
362.03 -595.43 6.19 
353.16 -602.90 6.94 
354.61 -602.79 6.85 
354.43 -603.14 6.83 
353.57 -603.63 6.85 
353.29 -603.56 6.88 
355.47 -603.36 6.75 
355.19 -603.40 6.76 
353.87 -603.72 6.83 
354.93 -603.75 6.75 
364.26 -603.05 6.38 
364.89 -602.99 6.37 
364.55 -603.07 6.37 
362.77 -603.72 6.59 
362.56 -603.78 6.60 
362.24 -604.08 6.59 
363.83 -603.96 6.32 
363.39 -603.89 6.34 
356.49 -595.62 6.75 
356.25 -595.84 6.76 
360.90 -595.78 6.47 
360.85 -602.20 6.82 
354.02 -602.62 7.62 
353.40 -602.66 7.66 
354.25 -602.81 7.58 
362.42 -601.63 7.29 
361.65 -602.04 7.27 
362.15 -602.30 7.23 
361.86 -602.32 7.24 
364.12 -602.81 7.13 
363.69 -602.95 7.12 
355.81 -604.09 8.01 
355.61 -604.10 8.03 
353.83 -601.92 8.43 
353.62 -602.01 8.44 
353.80 -602.02 8.42 
355.10 -602.23 8.30 
354.48 -602.45 8.32 
355.95 -602.21 8.25 
354.91 -602.61 8.26 
354.71 -602.68 8.27 
354.31 -602.93 8.27 
364.68 -602.00 7.94 
363.88 -602.25 7.92 
364.19 -602.28 7.91 
363.51 -602.77 7.86 
363.26 -602.70 7.88 
363.62 -603.24 7.80 
355.21 -604.65 3.53 
343.70 -600.62 4.65 
343.35 -600.73 4.68 
342.69 -601.34 4.73 
342.46 -601.30 4.75 
348.82 -599.18 4.29 
342.38 -601.52 4.76 
343.13 -601.76 4.71 
353.10 -603.37 4.07 
357.53 -602.28 3.81 
353.33 -603.63 4.06 
357.47 -602.90 3.82 
353.81 -604.25 4.04 
353.68 -604.46 4.05 
360.94 -602.66 3.63 
356.63 -604.14 3.88 
356.20 -604.44 3.91 
357.09 -604.50 3.86 
356.79 -604.52 3.87 
361.01 -603.48 3.63 
361.33 -604.08 3.63 
342.18 -592.28 4.64 
362.12 -589.34 3.41 
341.89 -598.67 4.75 
342.58 -599.79 4.72 
343.71 -599.85 4.64 
343.68 -599.87 4.64 
355.73 -596.05 4.07 
342.06 -601.00 4.77 
341.86 -601.24 4.79 
361.80 -596.39 3.51 
351.66 -604.49 4.43 
355.61 -604.20 4.18 
355.43 -604.35 4.19 
359.70 -603.56 3.93 
359.49 -603.59 3.94 
359.82 -604.14 3.93 
360.03 -604.66 3.92 
364.00 -603.46 3.69 
363.20 -604.02 3.74 
363.59 -604.16 3.72 
363.40 -604.03 3.73 
362.52 -604.63 3.78 
355.79 -588.21 3.97 
342.27 -601.36 5.57 
342.04 -601.50 5.58 
343.13 -601.60 5.50 
353.14 -602.93 4.77 
352.98 -603.43 4.77 
353.78 -603.37 4.72 
353.38 -603.47 4.75 
352.27 -604.14 5.10 
351.60 -604.27 5.14 
357.53 -602.53 4.52 
352.05 -604.61 5.11 
357.30 -602.97 4.53 
356.02 -603.56 4.85 
354.67 -604.06 4.66 
354.21 -603.96 4.69 
352.80 -604.56 5.05 
355.84 -603.79 4.85 
354.92 -604.33 4.65 
360.17 -602.63 4.61 
356.84 -604.20 4.54 
355.55 -604.61 4.87 
359.99 -603.43 4.61 
357.04 -604.34 4.52 
356.34 -604.62 4.56 
359.54 -603.99 4.63 
359.95 -604.28 4.60 
359.68 -604.18 4.62 
360.65 -604.52 4.56 
360.19 -604.61 4.58 
359.75 -604.48 4.61 
361.35 -604.68 4.52 
364.14 -603.74 4.38 
363.05 -604.42 4.23 
362.66 -604.44 4.35 
363.83 -604.53 4.39 
363.61 -604.60 4.40 
362.67 -604.67 4.24 
365.22 -604.39 4.14 
364.79 -604.68 4.15 
364.63 -604.61 4.16 
365.47 -604.58 4.13 
343.30 -599.25 5.50 
342.34 -599.59 5.57 
342.88 -599.71 5.53 
342.61 -599.71 5.55 
343.33 -600.15 5.49 
347.30 -599.72 5.51 
361.75 -596.35 4.37 
361.96 -596.71 4.36 
362.18 -596.79 4.35 
356.11 -602.58 4.85 
361.27 -601.66 4.56 
355.50 -603.61 5.31 
354.60 -604.09 5.35 
353.98 -604.16 5.38 
356.83 -603.41 5.24 
356.40 -603.65 5.26 
354.49 -604.42 5.34 
354.30 -604.51 5.35 
355.68 -604.41 5.27 
363.10 -604.46 4.92 
362.18 -586.99 4.45 
361.77 -587.70 4.47 
362.07 -590.11 4.42 
355.76 -595.82 4.95 
343.28 -604.14 6.21 
352.90 -602.50 5.51 
352.70 -602.57 5.52 
353.32 -602.88 5.47 
353.57 -602.86 5.45 
352.61 -604.41 5.77 
357.35 -602.97 5.23 
359.79 -602.67 5.35 
361.55 -602.21 5.05 
359.96 -602.85 5.33 
360.22 -603.23 5.30 
360.24 -603.67 5.29 
360.41 -604.11 5.26 
364.55 -602.73 5.10 
364.39 -602.97 5.10 
363.79 -603.28 5.12 
363.58 -603.24 5.13 
361.63 -604.13 5.20 
360.81 -604.10 5.24 
360.62 -604.17 5.25 
362.70 -603.98 5.15 
364.13 -603.89 5.08 
363.92 -604.03 5.09 
362.88 -604.20 5.13 
362.85 -604.23 5.13 
364.78 -604.23 4.86 
343.72 -599.88 6.29 
342.73 -600.44 6.36 
342.27 -600.64 6.40 
353.50 -602.63 6.18 
354.27 -603.27 6.09 
353.88 -603.37 6.11 
354.50 -603.69 6.05 
354.04 -603.67 6.08 
356.35 -603.49 5.95 
356.17 -603.51 5.96 
355.15 -603.77 6.00 
357.40 -603.54 5.89 
356.55 -603.75 5.93 
356.14 -603.61 5.96 
355.84 -604.02 5.95 
355.33 -604.22 5.97 
354.95 -604.41 5.98 
354.74 -604.14 6.01 
357.59 -603.55 5.88 
357.05 -603.80 5.89 
356.75 -603.83 5.91 
355.73 -604.26 5.94 
355.54 -604.39 5.95 
355.14 -604.40 5.97 
363.02 -603.70 5.64 
362.58 -604.53 5.61 
362.42 -604.44 5.62 
365.05 -604.20 5.56 
342.64 -604.59 6.99 
353.00 -604.04 6.46 
359.79 -602.14 6.10 
361.70 -603.63 5.91 
360.87 -603.71 5.95 
360.67 -604.06 5.94 
364.73 -603.06 5.80 
364.52 -603.13 5.81 
366.03 -603.14 5.59 
364.24 -603.69 5.78 
363.49 -604.64 5.76 
363.05 -604.62 5.78 
362.87 -604.61 5.79 
355.90 -589.11 6.06 
342.49 -599.58 7.25 
341.71 -600.39 7.29 
341.56 -600.67 7.29 
355.14 -602.80 6.77 
354.52 -603.13 6.78 
353.73 -603.51 6.80 
357.37 -602.60 6.66 
357.11 -602.67 6.67 
355.60 -603.33 6.70 
355.17 -603.33 6.72 
354.14 -603.71 6.76 
356.72 -603.12 6.65 
356.47 -603.38 6.64 
356.18 -604.06 6.60 
363.24 -603.84 6.33 
364.11 -603.69 6.32 
363.80 -604.03 6.30 
360.32 -602.51 6.77 
362.53 -587.83 6.56 
362.70 -588.84 6.49 
353.74 -602.56 7.60 
354.35 -602.93 7.52 
353.93 -602.70 7.57 
354.79 -603.07 7.48 
354.19 -603.09 7.51 
355.81 -603.08 7.41 
362.34 -602.06 7.24 
362.09 -602.16 7.24 
362.48 -602.47 7.19 
362.04 -603.64 7.29 
362.22 -604.05 7.24 
362.24 -594.17 7.13 
354.24 -601.90 8.37 
354.59 -602.32 8.29 
355.76 -602.12 8.24 
355.34 -602.44 8.23 
354.92 -602.47 8.25 
364.68 -602.43 7.90 
363.69 -602.68 7.88 
363.98 -602.85 7.85 
365.18 -601.81 7.97 
363.72 -602.12 8.12 
360.81 -604.50 3.14 
343.95 -600.46 4.61 
343.41 -601.44 4.66 
342.99 -601.33 4.69 
353.35 -603.13 4.02 
353.24 -603.59 4.03 
357.85 -602.22 3.74 
353.79 -604.24 4.01 
354.19 -604.28 3.98 
353.99 -604.36 4.00 
356.45 -604.41 3.85 
361.75 -602.79 3.54 
357.33 -604.38 3.80 
357.03 -604.39 3.82 
364.05 -602.55 3.42 
366.11 -602.87 3.32 
363.47 -603.78 3.46 
363.31 -603.69 3.47 
366.32 -602.84 3.31 
365.98 -603.12 3.33 
365.04 -604.17 3.39 
363.46 -604.68 3.48 
365.33 -604.27 3.38 
364.86 -604.31 3.40 
364.12 -604.63 3.44 
362.43 -589.29 3.32 
362.49 -589.30 3.32 
343.36 -599.74 4.64 
342.81 -599.68 4.68 
344.09 -599.71 4.59 
343.43 -600.45 4.65 
355.95 -596.41 4.01 
349.21 -598.99 4.23 
349.01 -599.07 4.24 
361.96 -596.23 3.44 
361.61 -596.09 3.46 
362.05 -596.36 3.44 
352.17 -604.37 4.36 
351.96 -604.38 4.37 
352.64 -604.57 4.33 
360.06 -603.99 3.86 
364.11 -603.59 3.62 
363.71 -604.08 3.65 
362.74 -604.30 3.71 
342.98 -601.49 5.49 
353.56 -602.86 4.71 
354.02 -603.25 4.68 
353.62 -603.35 4.71 
353.38 -603.40 4.72 
351.95 -604.12 5.08 
354.21 -603.32 4.67 
353.80 -603.46 4.69 
357.86 -602.45 4.47 
354.43 -603.68 4.65 
352.92 -604.61 5.00 
357.61 -602.81 4.48 
355.05 -604.04 4.61 
355.26 -604.21 4.60 
357.14 -603.90 4.49 
356.98 -604.17 4.50 
356.46 -604.44 4.52 
356.23 -604.49 4.66 
355.88 -604.66 4.56 
357.28 -604.23 4.48 
356.65 -604.55 4.51 
362.10 -602.84 4.25 
361.21 -603.58 4.49 
362.73 -603.39 4.22 
361.49 -604.00 4.27 
360.90 -604.52 4.50 
363.64 -604.14 4.35 
362.81 -604.39 4.20 
364.23 -604.38 4.32 
364.03 -604.29 4.33 
363.77 -604.58 4.34 
365.50 -604.22 4.09 
365.06 -604.60 4.11 
342.85 -600.43 5.51 
362.18 -596.18 4.31 
362.59 -596.71 4.28 
362.35 -596.66 4.29 
354.90 -603.76 5.32 
354.29 -604.06 5.34 
354.02 -604.06 5.36 
354.73 -604.07 5.32 
354.50 -604.15 5.33 
355.91 -604.27 5.24 
356.52 -604.24 5.21 
362.13 -587.63 4.39 
361.87 -587.54 4.40 
362.49 -589.30 4.36 
362.66 -590.20 4.34 
356.21 -595.33 4.87 
353.20 -602.26 5.47 
352.94 -602.32 5.49 
351.76 -602.88 5.85 
353.81 -602.20 5.44 
353.17 -602.39 5.47 
353.53 -602.77 5.44 
357.52 -601.87 5.23 
352.83 -604.33 5.72 
357.66 -602.90 5.19 
357.20 -603.27 5.20 
356.60 -603.43 5.23 
355.76 -603.60 5.27 
357.44 -603.36 5.19 
356.86 -603.56 5.21 
361.31 -602.32 5.23 
360.20 -602.74 5.28 
360.40 -603.23 5.25 
360.86 -603.96 5.20 
360.59 -603.99 5.22 
364.04 -603.24 5.07 
361.84 -603.74 5.16 
361.86 -603.89 5.15 
364.70 -603.24 5.04 
364.37 -603.24 5.05 
362.88 -603.91 5.10 
362.67 -603.85 5.11 
362.20 -604.29 5.12 
361.99 -604.32 5.13 
361.58 -604.36 5.15 
363.70 -604.05 5.06 
363.05 -604.18 5.08 
362.39 -604.42 5.11 
363.44 -604.39 5.06 
363.22 -604.46 5.07 
343.15 -599.48 6.33 
343.99 -599.63 6.25 
343.57 -600.09 6.28 
343.12 -600.25 6.31 
343.67 -600.20 6.27 
343.11 -600.92 6.29 
362.04 -595.59 5.22 
362.19 -596.20 5.19 
351.88 -602.57 5.85 
354.11 -603.23 6.09 
354.54 -603.13 6.06 
354.33 -603.56 6.05 
354.85 -603.60 6.02 
356.61 -603.41 5.93 
356.41 -603.46 5.94 
355.57 -603.66 5.97 
355.39 -603.78 5.98 
357.89 -603.45 5.86 
357.74 -603.38 5.87 
357.22 -603.74 5.88 
356.91 -603.67 5.90 
356.13 -603.89 5.93 
355.47 -604.33 5.94 
355.15 -604.19 5.97 
357.42 -603.70 5.87 
355.86 -604.33 5.92 
363.34 -603.88 5.61 
363.51 -604.06 5.60 
353.66 -602.45 6.16 
353.88 -602.59 6.14 
361.75 -602.36 5.75 
362.17 -602.37 5.74 
360.69 -603.39 5.94 
361.72 -603.60 5.88 
361.07 -603.62 5.91 
362.31 -603.75 5.84 
360.82 -604.15 5.89 
365.01 -603.02 5.76 
363.23 -603.60 5.63 
364.38 -604.04 5.73 
364.09 -604.49 5.72 
363.87 -604.56 5.72 
362.54 -587.53 5.46 
343.53 -599.61 7.13 
353.82 -602.13 6.90 
354.14 -602.70 6.83 
355.42 -602.55 6.76 
357.61 -602.50 6.65 
357.36 -602.53 6.66 
357.02 -602.85 6.65 
354.37 -603.62 6.74 
356.78 -603.32 6.63 
356.54 -603.74 6.61 
362.89 -603.26 6.39 
363.43 -603.79 6.33 
363.17 -603.99 6.32 
364.01 -603.99 6.30 
362.74 -595.30 6.10 
362.84 -601.26 6.54 
364.41 -602.93 6.52 
361.91 -603.98 6.54 
354.01 -602.46 7.59 
354.62 -602.90 7.50 
354.84 -602.96 7.49 
356.27 -603.96 7.30 
356.47 -604.06 7.28 
363.29 -602.89 7.15 
364.03 -603.04 7.12 
361.03 -588.82 6.75 
354.38 -601.49 7.67 
362.14 -602.07 7.26 
354.66 -601.71 8.37 
356.08 -601.98 8.25 
355.54 -602.12 8.27 
355.12 -602.32 8.27 
354.89 -602.20 8.30 
355.77 -602.19 8.24 
355.33 -602.36 8.25 
364.86 -601.64 8.02 
363.19 -602.03 2.95 
363.22 -602.71 2.98 
363.67 -602.91 2.95 
363.40 -603.04 2.98 
363.69 -603.46 2.97 
366.11 -602.61 2.77 
365.90 -602.54 2.78 
363.93 -604.38 2.99 
363.77 -604.14 2.99 
365.87 -603.62 2.82 
364.75 -604.16 2.92 
366.05 -603.80 2.82 
364.94 -604.33 2.92 
352.14 -603.97 4.33 
352.34 -604.17 4.32 
354.23 -603.46 4.18 
355.85 -604.64 4.09 
351.36 -591.06 4.17 
361.60 -588.75 3.66 
361.52 -588.90 3.66 
349.49 -596.91 4.60 
351.87 -597.30 4.24 
349.88 -598.12 4.59 
352.40 -597.42 4.20 
352.13 -597.42 4.22 
362.09 -595.80 3.74 
362.69 -596.89 3.72 
364.21 -596.47 3.61 
363.21 -597.13 3.69 
363.73 -597.18 3.66 
362.92 -601.60 3.78 
363.02 -601.82 3.78 
363.08 -602.33 3.79 
363.08 -602.79 3.79 
363.15 -603.03 3.79 
363.23 -603.46 3.79 
363.60 -603.80 3.78 
365.94 -602.99 3.61 
364.92 -603.75 3.69 
364.01 -604.10 3.76 
363.75 -604.12 3.77 
366.36 -603.25 3.59 
365.96 -603.60 3.62 
365.21 -603.87 3.68 
352.16 -604.34 5.07 
350.86 -589.74 5.26 
351.47 -590.50 5.21 
351.17 -590.52 5.23 
351.50 -590.72 5.21 
349.60 -597.23 5.50 
349.89 -597.30 5.47 
351.44 -597.45 5.16 
351.75 -597.74 5.14 
352.14 -598.33 5.11 
364.10 -594.84 4.41 
364.12 -595.65 4.41 
350.52 -604.27 5.38 
364.32 -595.96 4.40 
362.97 -597.01 4.63 
364.42 -596.53 4.39 
363.10 -597.22 4.62 
364.59 -596.91 4.38 
364.08 -597.21 4.56 
363.80 -597.15 4.58 
352.93 -603.93 5.22 
365.01 -597.05 4.35 
365.45 -597.09 4.33 
366.33 -597.34 4.28 
365.64 -597.38 4.32 
364.13 -602.37 4.53 
364.91 -603.62 4.33 
365.29 -603.96 4.31 
365.05 -603.90 4.32 
365.79 -604.01 4.28 
365.49 -604.08 4.30 
366.13 -604.20 4.27 
366.44 -604.40 4.25 
348.52 -589.26 5.63 
350.28 -589.22 5.30 
350.56 -589.28 5.28 
360.66 -587.58 4.83 
361.12 -587.80 4.80 
361.48 -587.97 4.78 
362.66 -587.52 4.53 
361.72 -588.26 4.76 
362.95 -587.82 4.52 
363.23 -588.06 4.50 
361.96 -589.05 4.74 
363.51 -588.38 4.48 
362.23 -589.16 4.72 
361.50 -589.78 4.76 
362.47 -589.87 4.70 
361.72 -590.07 4.75 
363.53 -589.46 4.47 
362.74 -589.94 4.69 
364.18 -589.65 4.44 
363.00 -590.27 4.67 
362.73 -590.27 4.68 
364.92 -589.53 4.39 
364.37 -590.14 4.42 
363.69 -590.09 4.46 
