# .PCD v0.7 - Point Cloud Data file format
VERSION 0.7
FIELDS x y z
SIZE 4 4 4
TYPE F F F
COUNT 1 1 1
WIDTH 1695
HEIGHT 1
VIEWPOINT 0 0 0 1 0 0 0
POINTS 1695
DATA ascii
384.90 -679.21 5.41 
385.86 -677.20 5.21 
387.29 -677.01 5.17 
381.45 -675.24 5.44 
382.77 -678.99 5.76 
383.44 -674.85 5.42 
384.94 -679.41 5.80 
382.70 -672.87 5.28 
384.10 -674.48 5.40 
385.03 -678.92 5.79 
381.35 -670.61 5.10 
382.46 -671.73 5.18 
390.21 -666.84 3.90 
390.61 -667.70 3.99 
389.61 -665.21 3.78 
390.53 -667.08 3.98 
386.03 -675.08 5.17 
386.12 -676.36 5.29 
386.52 -679.35 5.59 
388.75 -663.49 3.58 
389.90 -665.73 3.82 
388.44 -662.06 3.47 
389.70 -664.60 3.75 
384.70 -667.46 4.42 
388.83 -662.41 3.58 
389.71 -664.53 3.83 
384.24 -666.26 4.36 
386.80 -664.58 3.87 
390.14 -666.75 3.89 
384.60 -667.83 4.60 
390.02 -664.82 3.93 
384.37 -666.14 4.67 
389.87 -663.67 4.04 
389.45 -664.60 4.09 
389.72 -662.60 4.10 
381.85 -663.61 4.88 
386.57 -667.36 4.39 
380.50 -663.21 5.00 
386.45 -665.98 4.44 
388.17 -661.30 4.54 
379.65 -662.01 5.08 
379.02 -661.43 5.22 
377.70 -666.68 4.96 
378.62 -660.68 5.35 
377.47 -659.71 5.42 
377.35 -660.57 5.50 
378.06 -664.80 5.09 
377.99 -662.95 4.93 
386.10 -657.22 4.79 
375.54 -659.38 5.69 
378.46 -663.37 5.15 
376.24 -658.66 5.68 
385.50 -655.32 4.92 
385.11 -658.48 4.67 
377.51 -660.67 5.01 
376.59 -662.05 5.09 
384.95 -656.81 4.64 
384.88 -657.57 4.68 
377.21 -659.64 5.02 
375.80 -661.91 5.14 
384.77 -657.36 4.75 
377.15 -659.69 5.10 
376.27 -661.30 5.19 
384.87 -657.48 4.81 
376.99 -661.20 5.25 
376.58 -661.99 5.30 
384.24 -655.33 4.75 
376.93 -658.83 5.18 
383.64 -655.25 4.85 
376.43 -657.88 5.24 
375.26 -660.10 5.36 
375.76 -659.40 5.28 
375.58 -660.12 5.34 
375.99 -657.21 5.30 
375.56 -656.60 5.25 
374.74 -655.85 5.22 
373.82 -657.79 5.32 
374.51 -655.80 5.13 
372.83 -655.19 5.10 
385.09 -676.88 5.20 
384.92 -677.00 5.22 
384.95 -677.42 5.26 
384.89 -677.88 5.30 
384.87 -678.23 5.33 
384.90 -678.57 5.36 
385.78 -676.85 5.18 
385.79 -677.15 5.21 
385.80 -677.61 5.24 
385.82 -678.05 5.28 
385.79 -678.48 5.32 
385.77 -678.83 5.35 
385.77 -679.14 5.38 
385.70 -679.49 5.41 
387.36 -677.32 5.20 
387.35 -677.63 5.23 
387.36 -677.94 5.25 
387.51 -678.25 5.27 
387.55 -679.16 5.35 
382.04 -677.62 5.49 
382.20 -677.94 5.51 
382.40 -678.29 5.54 
382.43 -678.61 5.57 
382.56 -678.94 5.59 
382.63 -679.44 5.63 
385.93 -678.22 4.60 
385.78 -678.02 4.59 
386.54 -678.76 4.66 
386.18 -678.52 4.63 
386.73 -679.06 4.68 
386.88 -679.38 4.71 
381.48 -675.47 5.46 
381.77 -675.68 5.48 
382.03 -676.15 5.51 
382.22 -676.52 5.54 
382.30 -676.90 5.57 
382.40 -677.27 5.61 
382.49 -677.64 5.64 
382.61 -678.13 5.68 
382.66 -678.51 5.71 
382.65 -678.75 5.74 
382.71 -679.24 5.78 
382.71 -679.48 5.80 
383.24 -674.36 5.38 
383.32 -674.62 5.40 
383.23 -674.57 5.40 
383.58 -675.09 5.44 
383.80 -675.45 5.47 
384.11 -676.06 5.51 
383.96 -675.88 5.50 
384.10 -676.29 5.53 
384.05 -676.26 5.53 
384.16 -676.62 5.56 
384.30 -677.08 5.60 
384.45 -677.66 5.65 
384.33 -677.49 5.64 
384.54 -677.94 5.67 
384.69 -678.25 5.70 
384.77 -678.65 5.73 
384.85 -679.21 5.78 
384.73 -678.99 5.76 
384.81 -679.56 5.81 
382.86 -673.08 5.29 
382.99 -673.39 5.32 
382.94 -673.40 5.32 
383.34 -673.92 5.36 
383.20 -673.72 5.34 
383.51 -674.26 5.38 
383.79 -674.69 5.42 
383.94 -675.01 5.44 
384.15 -675.46 5.48 
384.01 -675.29 5.47 
384.25 -675.87 5.52 
384.38 -676.42 5.56 
384.29 -676.20 5.54 
384.45 -676.72 5.59 
384.67 -677.30 5.64 
384.52 -677.09 5.62 
384.78 -677.62 5.67 
384.88 -677.88 5.69 
384.95 -678.27 5.72 
385.09 -678.69 5.76 
385.06 -679.12 5.80 
385.11 -679.54 5.84 
381.44 -670.35 5.09 
382.03 -670.95 5.13 
382.37 -671.36 5.16 
382.70 -671.77 5.19 
382.98 -672.38 5.24 
382.80 -672.12 5.22 
383.16 -672.74 5.26 
383.27 -673.08 5.29 
383.46 -673.44 5.32 
383.66 -673.90 5.36 
383.92 -674.24 5.38 
384.16 -674.91 5.44 
384.11 -674.69 5.42 
384.36 -675.24 5.47 
384.55 -675.67 5.50 
384.59 -676.08 5.54 
384.72 -676.60 5.58 
384.65 -676.39 5.56 
384.81 -676.91 5.61 
384.98 -677.42 5.65 
384.97 -677.22 5.64 
385.16 -677.72 5.68 
385.32 -678.33 5.73 
385.23 -678.02 5.71 
385.33 -678.72 5.77 
385.35 -679.14 5.81 
385.47 -679.60 5.85 
385.38 -679.41 5.83 
384.94 -678.42 5.74 
385.05 -678.72 5.77 
384.94 -678.70 5.77 
384.97 -679.22 5.82 
380.81 -669.55 5.02 
380.63 -669.33 5.00 
380.98 -669.81 5.04 
381.20 -670.26 5.07 
381.08 -670.05 5.06 
381.62 -670.89 5.12 
381.28 -670.57 5.10 
382.06 -671.44 5.16 
381.90 -671.24 5.14 
382.48 -671.93 5.19 
382.20 -671.66 5.18 
382.61 -672.12 5.21 
382.82 -672.56 5.24 
382.61 -672.39 5.23 
383.01 -673.13 5.29 
382.85 -672.90 5.27 
383.26 -673.58 5.33 
383.03 -673.39 5.31 
383.37 -673.87 5.35 
383.65 -674.37 5.39 
383.93 -674.80 5.43 
384.22 -675.54 5.49 
384.05 -675.22 5.46 
384.27 -675.84 5.51 
384.35 -676.33 5.56 
384.23 -676.12 5.54 
384.40 -676.64 5.59 
384.49 -677.08 5.63 
384.65 -677.48 5.66 
384.48 -677.33 5.65 
384.86 -677.95 5.70 
384.76 -677.80 5.69 
384.89 -678.28 5.73 
384.90 -679.52 5.85 
386.56 -679.36 5.35 
386.31 -679.17 5.33 
386.88 -679.65 5.37 
383.55 -672.75 5.09 
384.23 -674.01 5.19 
384.10 -673.81 5.18 
384.57 -674.62 5.24 
384.36 -674.32 5.22 
384.85 -675.01 5.27 
384.70 -674.82 5.26 
385.21 -675.60 5.32 
384.92 -675.19 5.29 
385.28 -675.97 5.35 
385.47 -676.16 5.37 
385.71 -677.06 5.44 
386.15 -677.94 5.52 
383.42 -677.21 5.18 
383.07 -676.98 5.16 
382.78 -676.74 5.14 
382.27 -676.58 5.13 
381.87 -676.44 5.12 
381.10 -676.29 5.12 
380.87 -676.11 5.10 
379.73 -675.77 5.08 
379.26 -675.58 5.07 
378.83 -675.39 5.06 
384.09 -677.78 5.22 
383.71 -677.55 5.20 
383.51 -677.37 5.19 
386.47 -678.64 5.58 
385.43 -678.55 5.28 
385.21 -678.37 5.27 
384.78 -678.18 5.25 
384.49 -677.96 5.24 
386.67 -679.31 5.64 
386.10 -678.96 5.31 
385.74 -678.78 5.30 
375.58 -665.97 4.62 
376.31 -666.45 4.65 
380.14 -668.55 4.78 
380.79 -669.21 4.83 
380.60 -669.02 4.81 
381.41 -669.80 4.87 
381.17 -669.52 4.85 
381.84 -670.34 4.91 
381.45 -670.04 4.89 
382.02 -670.81 4.94 
381.86 -670.57 4.93 
382.32 -671.19 4.97 
382.91 -671.93 5.03 
382.64 -671.58 5.00 
383.48 -672.54 5.07 
383.29 -672.30 5.06 
390.37 -667.16 3.93 
390.78 -667.94 4.02 
390.55 -667.50 3.97 
390.96 -668.34 4.06 
390.86 -668.14 4.04 
391.01 -668.60 4.08 
385.00 -675.02 4.83 
384.79 -674.87 4.81 
386.23 -675.83 4.91 
385.25 -675.29 4.86 
387.36 -676.82 5.01 
387.05 -676.49 4.98 
387.39 -676.89 5.02 
383.37 -669.99 4.68 
383.32 -669.78 4.66 
383.94 -670.70 4.74 
383.74 -670.46 4.72 
384.21 -671.15 4.78 
384.12 -671.02 4.77 
384.44 -671.74 4.83 
384.30 -671.47 4.81 
384.48 -672.01 4.86 
384.59 -672.49 4.90 
384.90 -673.10 4.96 
385.53 -674.40 5.08 
382.06 -673.02 4.64 
385.86 -674.77 5.11 
385.73 -674.56 5.09 
383.66 -674.08 4.74 
383.00 -673.65 4.70 
382.75 -673.39 4.67 
382.33 -673.21 4.65 
384.57 -674.72 4.80 
384.23 -674.56 4.78 
383.99 -674.32 4.76 
381.15 -667.04 4.42 
380.89 -666.83 4.40 
380.45 -666.55 4.38 
380.03 -666.21 4.35 
381.50 -667.38 4.45 
382.53 -668.76 4.57 
389.85 -665.56 3.82 
389.72 -665.31 3.79 
390.11 -666.13 3.88 
389.89 -665.76 3.84 
390.30 -666.57 3.92 
390.54 -667.13 3.98 
390.84 -667.86 4.06 
390.71 -667.60 4.03 
390.87 -668.01 4.07 
385.32 -673.64 4.73 
388.46 -675.37 4.90 
387.69 -674.91 4.86 
387.10 -674.92 4.86 
386.89 -674.73 4.84 
386.58 -674.54 4.82 
386.18 -674.27 4.79 
387.29 -675.10 4.87 
382.37 -667.36 4.46 
382.86 -668.03 4.52 
382.59 -667.72 4.49 
382.41 -667.55 4.47 
383.16 -668.51 4.56 
383.60 -669.31 4.63 
383.81 -669.65 4.66 
384.11 -670.19 4.71 
384.42 -670.81 4.77 
384.68 -671.57 4.84 
384.77 -672.11 4.89 
384.98 -672.75 4.95 
385.92 -674.67 5.13 
386.09 -675.25 5.18 
385.93 -674.92 5.15 
386.20 -675.76 5.23 
386.11 -675.49 5.21 
386.21 -676.07 5.26 
386.28 -676.60 5.31 
386.41 -677.15 5.37 
386.34 -676.91 5.35 
386.39 -677.47 5.40 
386.49 -678.01 5.45 
386.46 -677.78 5.43 
386.52 -678.41 5.49 
386.58 -678.86 5.54 
386.55 -679.35 5.59 
382.22 -667.28 4.45 
382.16 -667.08 4.43 
381.80 -666.74 4.40 
387.97 -662.10 3.42 
387.74 -661.66 3.38 
388.14 -662.41 3.46 
388.60 -663.21 3.55 
389.21 -664.32 3.67 
389.05 -664.04 3.64 
388.90 -663.77 3.61 
389.43 -664.78 3.72 
389.37 -664.59 3.70 
389.89 -665.55 3.80 
389.73 -665.34 3.78 
389.54 -665.01 3.74 
390.12 -666.08 3.86 
389.85 -665.67 3.81 
390.44 -666.79 3.93 
390.29 -666.49 3.90 
390.70 -667.44 4.00 
390.55 -667.07 3.96 
390.85 -667.91 4.05 
390.99 -668.33 4.09 
390.95 -668.17 4.08 
388.74 -673.46 4.68 
381.87 -665.64 4.22 
381.60 -665.32 4.19 
383.13 -666.99 4.35 
383.85 -667.97 4.44 
383.45 -667.38 4.38 
385.50 -671.28 4.74 
385.62 -671.78 4.79 
385.54 -671.48 4.76 
385.76 -672.35 4.85 
385.68 -672.11 4.82 
385.95 -672.92 4.90 
385.79 -672.59 4.87 
386.36 -673.64 4.97 
386.17 -673.33 4.94 
386.75 -674.41 5.05 
386.62 -674.18 5.02 
386.46 -673.88 4.99 
386.95 -675.00 5.10 
386.85 -674.71 5.08 
387.05 -675.44 5.15 
386.99 -675.22 5.13 
387.09 -675.79 5.18 
387.18 -677.01 5.30 
387.21 -678.30 5.44 
387.23 -678.13 5.42 
387.20 -678.81 5.49 
387.13 -679.63 5.57 
384.53 -679.57 5.82 
381.61 -678.00 5.69 
388.08 -661.42 3.39 
387.79 -661.02 3.35 
388.50 -662.27 3.49 
388.27 -661.75 3.43 
389.06 -663.21 3.60 
388.84 -662.87 3.56 
388.72 -662.61 3.53 
389.30 -663.78 3.66 
389.12 -663.41 3.62 
389.58 -664.37 3.73 
389.49 -664.15 3.70 
390.04 -665.31 3.83 
389.87 -664.96 3.79 
389.73 -664.75 3.77 
390.38 -666.05 3.91 
390.26 -665.77 3.88 
390.45 -666.23 3.94 
390.88 -667.39 4.06 
390.78 -667.21 4.04 
390.91 -667.61 4.08 
390.40 -673.55 4.77 
390.18 -673.21 4.73 
382.48 -664.80 4.16 
384.60 -667.26 4.40 
385.80 -669.62 4.63 
385.99 -670.18 4.68 
385.91 -669.87 4.65 
386.30 -670.98 4.76 
386.15 -670.66 4.73 
386.38 -671.50 4.81 
386.30 -671.20 4.78 
386.47 -672.01 4.86 
386.44 -671.73 4.83 
386.54 -672.58 4.92 
386.44 -672.37 4.90 
386.89 -673.45 5.01 
386.81 -673.29 4.99 
386.59 -672.80 4.94 
385.35 -677.84 5.69 
384.74 -677.29 5.63 
384.57 -677.02 5.60 
384.12 -676.84 5.59 
383.74 -676.48 5.55 
382.72 -675.73 5.48 
382.39 -675.50 5.46 
382.17 -675.35 5.45 
381.76 -675.09 5.42 
382.79 -675.90 5.50 
390.25 -666.98 3.86 
391.48 -668.59 4.07 
391.34 -668.37 4.05 
391.01 -668.02 4.00 
390.75 -667.65 3.95 
390.54 -667.34 3.91 
390.36 -667.10 3.88 
391.28 -670.43 4.50 
391.29 -670.23 4.48 
391.28 -671.05 4.57 
391.28 -670.74 4.54 
391.19 -678.62 5.41 
387.64 -660.28 3.32 
387.15 -659.51 3.23 
387.09 -659.43 3.22 
388.20 -661.27 3.44 
388.01 -661.02 3.41 
387.88 -660.73 3.38 
387.70 -660.49 3.35 
388.71 -662.15 3.55 
388.58 -661.89 3.52 
388.35 -661.55 3.48 
389.23 -663.31 3.69 
389.06 -662.96 3.65 
388.94 -662.64 3.61 
389.52 -664.12 3.78 
389.42 -663.84 3.75 
389.31 -663.53 3.71 
389.86 -664.90 3.87 
389.79 -664.71 3.85 
389.63 -664.34 3.81 
390.09 -665.46 3.94 
389.95 -665.14 3.90 
390.17 -672.24 4.76 
390.05 -672.00 4.73 
389.79 -671.70 4.70 
389.56 -671.37 4.66 
389.31 -671.07 4.62 
388.63 -670.37 4.54 
390.59 -673.09 4.86 
390.47 -672.77 4.83 
390.25 -672.44 4.79 
390.78 -673.47 4.91 
390.63 -673.27 4.89 
384.39 -666.48 4.38 
384.08 -666.03 4.33 
383.93 -665.73 4.30 
384.89 -667.37 4.47 
384.72 -667.05 4.44 
385.23 -668.22 4.56 
384.93 -667.59 4.50 
385.62 -669.11 4.65 
385.38 -668.65 4.61 
385.31 -668.43 4.58 
385.77 -669.86 4.73 
385.72 -669.56 4.70 
385.83 -670.15 4.76 
385.97 -671.06 4.86 
386.00 -671.41 4.90 
386.04 -671.95 4.95 
384.63 -676.63 5.71 
385.72 -678.76 5.98 
385.57 -678.59 5.96 
378.66 -672.73 5.31 
378.18 -672.60 5.30 
389.19 -662.89 3.62 
387.78 -661.74 3.63 
387.74 -661.44 3.61 
387.66 -661.08 3.58 
386.58 -658.12 3.39 
388.03 -663.72 3.76 
387.97 -663.37 3.74 
387.96 -663.00 3.71 
387.91 -662.62 3.68 
387.87 -662.19 3.66 
387.69 -661.75 3.63 
388.08 -665.01 3.85 
388.02 -664.61 3.82 
387.98 -664.25 3.80 
388.01 -664.00 3.78 
388.06 -665.49 3.89 
390.77 -665.47 3.80 
390.70 -666.46 3.88 
390.49 -665.18 3.75 
390.37 -665.04 3.70 
390.70 -668.12 4.00 
390.68 -667.25 3.94 
390.14 -665.85 3.76 
390.65 -668.53 4.04 
390.67 -668.15 4.01 
388.13 -662.00 3.71 
387.72 -662.74 3.76 
387.10 -663.99 3.83 
386.91 -664.46 3.86 
386.95 -664.23 3.84 
386.92 -664.52 4.00 
386.96 -664.26 3.99 
390.61 -663.75 3.84 
390.68 -663.44 3.81 
390.73 -663.05 3.79 
390.74 -662.74 3.76 
390.41 -664.56 3.89 
390.45 -664.32 3.87 
390.55 -663.97 3.85 
390.14 -663.36 3.73 
390.26 -665.53 3.96 
390.30 -665.17 3.94 
390.37 -664.77 3.91 
389.86 -663.91 3.76 
390.01 -663.43 3.73 
390.17 -666.87 4.06 
390.14 -666.45 4.03 
390.16 -666.04 4.00 
390.21 -665.75 3.98 
389.55 -664.50 3.80 
389.76 -664.04 3.77 
390.14 -667.24 4.09 
390.15 -667.01 4.08 
389.11 -665.12 3.83 
388.80 -665.71 3.86 
385.87 -666.17 4.31 
385.90 -665.82 4.28 
385.84 -666.51 4.33 
385.81 -666.35 4.32 
385.52 -667.43 4.41 
385.61 -667.12 4.38 
384.45 -669.56 4.59 
390.55 -665.40 3.81 
390.18 -666.57 3.88 
389.98 -667.11 3.91 
390.10 -666.84 3.89 
389.83 -667.46 3.92 
389.83 -667.38 3.92 
390.62 -662.83 3.90 
390.62 -662.51 3.88 
390.61 -662.20 3.86 
390.61 -661.76 3.82 
390.43 -663.73 3.97 
390.47 -663.38 3.94 
390.58 -663.04 3.92 
390.01 -661.87 3.75 
390.19 -664.58 4.03 
390.26 -664.24 4.00 
390.37 -663.95 3.98 
389.86 -662.04 3.76 
390.02 -665.75 4.11 
390.02 -665.52 4.10 
390.06 -665.10 4.07 
390.10 -664.75 4.04 
389.51 -662.61 3.79 
389.62 -662.47 3.79 
389.90 -666.70 4.19 
389.90 -666.33 4.16 
389.97 -665.95 4.13 
389.11 -663.14 3.82 
389.27 -663.02 3.82 
389.78 -666.87 4.20 
388.85 -663.65 3.85 
388.44 -664.22 3.88 
388.74 -663.84 3.86 
388.38 -664.34 3.88 
387.93 -665.15 3.93 
385.21 -666.06 4.45 
385.28 -665.68 4.42 
385.00 -666.99 4.53 
385.01 -666.69 4.50 
384.76 -667.45 4.57 
384.93 -667.12 4.54 
384.58 -667.93 4.61 
382.20 -664.82 4.11 
381.77 -665.16 4.13 
382.01 -664.99 4.12 
370.44 -670.72 5.67 
390.53 -663.84 3.88 
390.22 -664.18 3.89 
389.95 -665.02 3.94 
389.80 -665.48 3.97 
389.86 -665.25 3.95 
389.41 -666.19 4.00 
389.61 -665.93 3.99 
390.48 -661.50 3.98 
390.47 -661.28 3.96 
390.48 -660.85 3.93 
390.35 -662.83 4.08 
390.38 -662.49 4.05 
390.45 -662.09 4.02 
390.46 -661.72 4.00 
390.13 -663.70 4.14 
390.22 -663.36 4.12 
390.32 -663.07 4.10 
389.77 -660.85 3.85 
389.87 -664.54 4.20 
390.02 -664.17 4.18 
390.08 -663.92 4.16 
389.38 -661.41 3.88 
389.69 -665.45 4.27 
389.74 -665.08 4.25 
389.81 -664.68 4.22 
389.02 -662.00 3.92 
389.61 -665.63 4.29 
388.62 -662.45 3.94 
388.86 -662.16 3.92 
388.45 -662.72 3.95 
388.55 -662.56 3.95 
388.12 -663.18 3.98 
388.19 -663.06 3.97 
387.82 -663.71 4.01 
386.17 -666.44 4.16 
386.02 -666.59 4.16 
385.49 -667.34 4.20 
385.35 -667.58 4.21 
385.10 -657.44 4.01 
384.99 -657.16 3.99 
384.47 -665.99 4.65 
384.49 -665.68 4.63 
384.24 -666.48 4.70 
390.63 -662.42 3.98 
390.10 -663.26 4.02 
390.36 -662.91 4.00 
389.82 -663.77 4.05 
390.07 -663.33 4.02 
389.50 -664.50 4.09 
389.64 -664.21 4.07 
389.77 -663.92 4.05 
389.49 -664.52 4.09 
388.96 -665.72 4.15 
388.62 -666.41 4.18 
388.77 -665.95 4.16 
388.56 -666.58 4.19 
383.42 -668.58 4.45 
390.10 -660.81 4.12 
390.07 -660.47 4.09 
390.03 -660.05 4.06 
390.02 -659.70 4.04 
389.52 -656.77 3.81 
389.58 -656.48 3.79 
389.44 -655.67 3.73 
389.95 -662.37 4.24 
390.00 -662.14 4.22 
390.05 -661.73 4.19 
390.05 -661.30 4.16 
390.08 -661.02 4.14 
389.80 -663.30 4.31 
389.87 -662.95 4.28 
389.92 -662.57 4.25 
389.50 -664.13 4.37 
389.63 -663.81 4.35 
389.68 -663.52 4.33 
388.89 -660.51 4.00 
388.91 -660.28 3.98 
389.42 -664.33 4.39 
388.56 -660.99 4.03 
388.64 -660.83 4.02 
388.16 -661.46 4.06 
388.48 -661.10 4.04 
388.08 -661.62 4.07 
387.63 -662.20 4.10 
386.67 -663.82 4.19 
384.67 -666.93 4.37 
384.84 -666.70 4.35 
384.00 -662.86 4.63 
383.69 -663.39 4.68 
383.73 -663.14 4.66 
383.22 -664.48 4.77 
383.32 -664.21 4.75 
390.14 -661.90 4.06 
389.71 -662.60 4.10 
389.90 -662.33 4.09 
389.41 -663.12 4.13 
389.66 -662.74 4.11 
388.76 -664.32 4.18 
388.98 -663.90 4.16 
388.49 -664.92 4.21 
388.66 -664.47 4.19 
388.16 -665.55 4.24 
388.33 -665.15 4.22 
387.83 -666.43 4.29 
387.90 -666.18 4.27 
388.06 -665.78 4.25 
387.69 -666.64 4.30 
387.43 -667.39 4.33 
383.10 -666.86 4.47 
382.77 -667.30 4.49 
382.96 -667.06 4.48 
382.60 -667.52 4.50 
381.59 -668.95 4.58 
389.87 -655.91 3.80 
389.39 -660.90 4.26 
389.38 -660.69 4.25 
389.30 -660.22 4.21 
389.34 -659.88 4.18 
389.26 -659.39 4.15 
389.20 -659.04 4.12 
389.13 -658.75 4.10 
389.05 -658.23 4.06 
389.02 -657.91 4.03 
388.95 -657.35 3.99 
388.91 -657.06 3.97 
388.91 -656.77 3.95 
388.67 -655.84 3.87 
389.21 -662.15 4.36 
389.28 -661.89 4.34 
389.31 -661.46 4.31 
389.35 -660.98 4.27 
389.30 -660.52 4.23 
389.25 -660.32 4.22 
389.04 -663.12 4.44 
389.11 -662.69 4.40 
389.16 -662.34 4.38 
387.73 -660.30 4.10 
387.54 -660.48 4.11 
387.11 -661.09 4.15 
383.90 -665.91 4.42 
383.57 -666.38 4.45 
382.49 -661.37 4.69 
382.05 -663.28 4.85 
382.12 -663.07 4.83 
381.86 -663.40 4.86 
381.96 -663.18 4.84 
381.68 -663.61 4.88 
381.39 -664.55 4.97 
389.61 -660.98 4.08 
389.70 -660.80 4.07 
389.27 -661.60 4.11 
388.86 -662.33 4.15 
388.60 -662.84 4.18 
388.27 -663.29 4.19 
388.04 -663.81 4.22 
388.17 -663.47 4.20 
387.62 -664.68 4.26 
387.80 -664.13 4.23 
387.35 -665.35 4.30 
387.47 -665.04 4.28 
387.19 -665.61 4.31 
386.78 -666.78 4.37 
386.64 -667.22 4.39 
386.68 -667.01 4.38 
381.94 -666.29 4.51 
381.51 -666.72 4.53 
381.67 -666.56 4.53 
381.27 -667.04 4.55 
381.41 -666.88 4.54 
380.80 -667.69 4.59 
380.64 -667.87 4.59 
388.72 -661.50 4.42 
388.70 -661.20 4.40 
388.72 -660.84 4.37 
388.71 -660.43 4.34 
388.73 -660.01 4.30 
388.70 -659.60 4.27 
388.66 -659.23 4.24 
388.59 -658.82 4.21 
388.54 -658.44 4.18 
388.53 -658.11 4.16 
388.33 -657.30 4.09 
388.29 -657.01 4.07 
388.17 -656.25 4.01 
387.98 -655.20 3.93 
388.64 -662.02 4.46 
388.63 -661.65 4.43 
388.66 -661.30 4.40 
381.61 -658.88 4.63 
381.62 -658.47 4.60 
381.26 -659.97 4.73 
381.36 -659.28 4.67 
381.05 -661.03 4.81 
381.19 -660.66 4.78 
381.16 -660.31 4.75 
380.83 -662.34 4.92 
380.91 -662.05 4.90 
380.90 -661.55 4.86 
380.50 -663.06 4.99 
380.56 -662.89 4.97 
380.61 -662.60 4.95 
380.32 -663.54 5.03 
380.35 -663.39 5.02 
376.71 -658.90 4.35 
376.91 -658.68 4.33 
391.25 -657.03 3.98 
391.20 -656.61 3.95 
391.19 -656.25 3.92 
391.36 -658.59 4.11 
391.33 -658.21 4.08 
391.21 -657.45 4.01 
391.19 -657.04 3.98 
391.17 -656.75 3.96 
391.06 -656.00 3.90 
389.06 -660.54 4.17 
388.81 -660.70 4.17 
388.43 -661.56 4.22 
388.07 -662.18 4.25 
388.14 -662.05 4.24 
387.81 -662.74 4.28 
387.93 -662.55 4.27 
387.14 -664.13 4.35 
387.28 -663.67 4.32 
386.87 -664.89 4.39 
386.99 -664.53 4.37 
386.58 -665.74 4.43 
386.67 -665.42 4.41 
386.78 -665.15 4.40 
386.41 -666.20 4.45 
386.51 -665.95 4.44 
381.73 -664.94 4.57 
380.96 -666.00 4.63 
380.81 -666.17 4.63 
380.46 -666.48 4.65 
388.20 -660.72 4.50 
388.19 -660.33 4.47 
388.16 -659.89 4.43 
388.18 -659.51 4.40 
388.13 -659.10 4.37 
388.08 -658.74 4.34 
388.08 -658.32 4.31 
388.01 -657.91 4.28 
387.96 -657.38 4.23 
387.68 -656.46 4.16 
387.60 -655.93 4.12 
387.45 -655.56 4.04 
387.46 -654.99 4.05 
388.15 -661.09 4.53 
386.67 -657.69 4.13 
386.44 -658.12 4.16 
379.79 -658.56 4.80 
379.71 -658.26 4.78 
379.77 -657.89 4.75 
379.62 -659.90 4.91 
379.60 -659.61 4.89 
379.65 -659.08 4.84 
379.65 -658.78 4.82 
379.54 -662.02 5.08 
379.60 -661.64 5.05 
379.56 -661.26 5.02 
379.44 -659.61 4.89 
379.19 -662.55 5.13 
379.06 -662.82 5.16 
379.10 -662.42 5.13 
391.11 -656.42 4.09 
391.09 -656.03 4.06 
391.02 -655.65 4.03 
391.00 -655.31 4.00 
390.95 -654.88 3.96 
391.16 -657.69 4.19 
391.13 -657.31 4.16 
391.10 -656.89 4.13 
391.06 -656.51 4.10 
391.01 -656.11 4.06 
390.94 -655.69 4.03 
389.73 -656.78 4.04 
389.44 -657.54 4.10 
388.92 -659.02 4.20 
388.55 -659.68 4.24 
388.70 -659.45 4.23 
387.86 -661.24 4.33 
388.08 -660.70 4.30 
387.77 -661.37 4.33 
387.45 -661.94 4.36 
387.11 -662.56 4.39 
386.15 -664.87 4.51 
380.49 -664.94 4.71 
380.32 -665.12 4.71 
379.77 -665.80 4.75 
379.71 -665.96 4.76 
379.19 -666.42 4.78 
378.95 -666.64 4.79 
377.67 -667.99 4.86 
377.87 -667.75 4.85 
376.42 -668.93 4.90 
376.13 -669.20 4.91 
388.00 -659.64 4.57 
387.97 -659.38 4.55 
387.96 -659.02 4.52 
387.97 -658.60 4.49 
387.97 -658.19 4.46 
387.89 -657.84 4.43 
387.90 -657.40 4.39 
387.79 -657.02 4.36 
387.69 -656.65 4.34 
387.61 -655.81 4.27 
387.96 -660.23 4.62 
387.91 -659.83 4.58 
387.95 -659.54 4.56 
386.60 -655.10 4.09 
386.28 -655.99 4.15 
386.32 -655.84 4.14 
385.94 -656.83 4.21 
386.00 -656.68 4.20 
385.68 -657.53 4.26 
385.86 -657.02 4.23 
379.55 -657.73 4.91 
379.12 -659.63 5.07 
379.01 -661.19 5.20 
379.00 -660.88 5.18 
379.13 -660.47 5.14 
379.03 -660.18 5.12 
378.77 -662.02 5.28 
378.82 -661.68 5.25 
378.93 -661.29 5.21 
391.00 -656.03 4.21 
390.91 -655.49 4.16 
390.89 -655.12 4.13 
390.88 -654.77 4.10 
390.93 -657.03 4.28 
390.96 -656.78 4.26 
390.95 -656.33 4.23 
390.88 -655.92 4.20 
390.91 -655.74 4.18 
389.37 -656.09 4.14 
389.43 -655.98 4.13 
389.33 -656.16 4.14 
389.06 -656.79 4.19 
388.65 -657.80 4.26 
388.71 -657.70 4.25 
388.42 -658.42 4.30 
387.76 -660.08 4.40 
387.82 -659.54 4.36 
387.47 -660.68 4.43 
387.16 -661.45 4.48 
387.20 -661.27 4.46 
386.79 -662.00 4.50 
386.63 -662.40 4.52 
386.76 -662.14 4.51 
381.24 -662.76 4.74 
381.40 -662.51 4.72 
381.01 -663.01 4.75 
380.63 -663.42 4.78 
380.35 -663.75 4.80 
380.46 -663.45 4.78 
379.93 -664.31 4.83 
380.04 -664.07 4.81 
379.70 -664.61 4.85 
379.29 -664.93 4.86 
379.00 -665.23 4.88 
376.14 -668.10 5.03 
376.00 -667.96 5.02 
387.80 -658.75 4.66 
387.78 -658.53 4.64 
387.77 -658.14 4.61 
387.74 -657.74 4.58 
387.72 -657.32 4.54 
387.63 -656.88 4.51 
387.58 -656.54 4.48 
387.55 -656.18 4.45 
387.46 -655.19 4.38 
387.40 -654.74 4.34 
387.71 -659.37 4.71 
387.76 -658.92 4.67 
387.76 -658.59 4.64 
385.78 -655.48 4.27 
385.88 -655.29 4.25 
385.43 -656.33 4.33 
385.57 -656.15 4.32 
385.10 -657.30 4.40 
385.25 -656.95 4.37 
384.88 -657.71 4.43 
384.97 -657.50 4.41 
385.07 -657.19 4.39 
384.49 -658.14 4.45 
384.66 -657.95 4.44 
384.33 -658.40 4.47 
383.90 -659.07 4.51 
383.99 -658.84 4.50 
383.66 -659.34 4.53 
379.30 -657.39 5.06 
379.16 -657.09 5.04 
378.97 -658.61 5.17 
378.55 -659.30 5.24 
378.71 -658.80 5.19 
378.48 -656.82 5.04 
378.47 -656.66 5.03 
378.26 -656.13 4.99 
378.20 -655.89 4.97 
378.12 -655.34 4.93 
377.99 -654.94 4.90 
378.49 -660.14 5.31 
378.46 -659.78 5.28 
378.40 -659.47 5.25 
378.15 -661.13 5.40 
378.27 -660.52 5.35 
378.00 -661.38 5.43 
377.97 -660.99 5.39 
377.93 -660.84 5.38 
390.72 -656.29 4.35 
390.73 -655.92 4.32 
390.69 -655.51 4.29 
390.65 -655.16 4.26 
390.59 -654.74 4.23 
389.17 -655.29 4.20 
389.24 -655.14 4.19 
388.95 -655.90 4.24 
389.14 -655.40 4.21 
388.40 -657.15 4.33 
388.51 -656.90 4.31 
388.23 -657.37 4.34 
387.80 -658.81 4.43 
387.56 -659.48 4.47 
387.75 -658.90 4.44 
387.30 -660.14 4.51 
387.31 -659.95 4.50 
387.01 -660.74 4.54 
386.77 -661.46 4.58 
386.87 -661.17 4.57 
386.97 -660.93 4.55 
386.58 -661.74 4.59 
382.18 -660.49 4.71 
381.85 -661.19 4.76 
381.94 -660.96 4.74 
381.48 -661.63 4.78 
381.65 -661.42 4.77 
381.18 -662.18 4.82 
381.32 -661.92 4.80 
381.10 -662.27 4.82 
380.60 -662.78 4.85 
380.72 -662.55 4.84 
380.34 -663.25 4.88 
380.44 -663.03 4.87 
380.09 -663.64 4.90 
379.63 -664.05 4.93 
379.78 -663.86 4.91 
379.29 -664.28 4.94 
378.81 -664.75 4.96 
379.11 -664.51 4.95 
378.65 -664.95 4.97 
375.49 -667.72 5.11 
374.79 -668.16 5.13 
373.89 -668.87 5.16 
387.28 -656.18 4.58 
387.23 -655.76 4.54 
387.24 -655.50 4.52 
387.19 -655.07 4.49 
387.53 -658.80 4.79 
387.53 -658.57 4.77 
387.50 -658.23 4.74 
387.44 -657.82 4.71 
387.46 -657.36 4.67 
387.37 -656.97 4.64 
387.30 -656.59 4.61 
387.26 -656.18 4.58 
387.21 -655.86 4.55 
384.93 -656.53 4.46 
385.02 -656.25 4.44 
384.69 -656.73 4.47 
384.33 -657.45 4.52 
384.46 -657.14 4.50 
383.97 -657.89 4.55 
384.21 -657.67 4.54 
383.71 -658.48 4.59 
383.84 -658.19 4.57 
383.42 -658.92 4.62 
383.58 -658.70 4.60 
383.08 -659.38 4.65 
383.26 -659.14 4.63 
382.79 -659.85 4.68 
382.94 -659.61 4.66 
382.57 -660.09 4.69 
378.19 -657.36 5.21 
378.17 -657.21 5.20 
378.06 -656.72 5.16 
378.07 -658.79 5.33 
377.97 -658.49 5.31 
378.18 -657.81 5.24 
378.11 -657.66 5.23 
378.02 -656.88 5.17 
377.57 -655.91 5.11 
377.59 -655.35 5.06 
377.82 -659.20 5.37 
377.89 -658.98 5.35 
377.87 -658.34 5.30 
377.74 -659.50 5.40 
377.74 -659.31 5.38 
377.65 -660.08 5.45 
377.73 -659.83 5.42 
377.36 -660.57 5.50 
377.43 -660.22 5.46 
377.09 -660.98 5.54 
376.84 -661.19 5.56 
390.33 -655.39 4.41 
390.28 -655.17 4.39 
390.19 -654.77 4.36 
390.27 -656.62 4.50 
390.33 -655.90 4.45 
390.32 -655.61 4.43 
390.21 -655.05 4.38 
388.67 -654.70 4.28 
388.29 -655.44 4.33 
388.41 -655.23 4.32 
388.15 -656.02 4.37 
388.24 -655.75 4.35 
387.83 -656.80 4.42 
387.98 -656.34 4.39 
387.72 -657.40 4.47 
387.40 -658.37 4.53 
387.22 -659.01 4.57 
387.26 -658.88 4.56 
386.86 -659.85 4.61 
387.02 -659.60 4.60 
386.60 -660.75 4.66 
386.69 -660.46 4.65 
382.26 -659.49 4.78 
382.06 -659.83 4.80 
381.73 -660.28 4.83 
381.32 -660.78 4.86 
381.13 -661.17 4.89 
381.25 -660.99 4.87 
380.75 -661.67 4.92 
380.86 -661.45 4.90 
380.40 -662.22 4.95 
380.58 -661.91 4.93 
380.28 -662.58 4.97 
379.78 -663.16 5.01 
380.04 -662.88 4.99 
379.39 -663.49 5.02 
378.37 -664.41 5.07 
378.21 -664.60 5.08 
377.76 -665.16 5.11 
377.99 -664.92 5.10 
377.47 -665.53 5.13 
377.64 -665.30 5.12 
376.34 -666.46 5.18 
375.45 -666.99 5.20 
375.13 -667.40 5.22 
374.63 -667.90 5.25 
373.77 -668.41 5.27 
386.56 -655.00 4.63 
386.86 -658.16 4.88 
386.83 -657.90 4.85 
386.85 -657.47 4.82 
386.80 -657.11 4.79 
386.76 -656.77 4.77 
386.72 -656.37 4.73 
386.62 -655.90 4.70 
386.60 -655.52 4.67 
386.73 -657.87 4.85 
384.33 -655.51 4.52 
384.52 -655.31 4.51 
383.73 -656.96 4.62 
383.53 -657.45 4.65 
383.65 -657.14 4.63 
383.30 -657.90 4.68 
382.91 -658.70 4.74 
383.02 -658.34 4.71 
382.57 -659.17 4.76 
382.72 -658.92 4.75 
382.40 -659.36 4.78 
376.33 -657.56 5.42 
375.75 -655.85 5.29 
375.97 -658.49 5.50 
376.03 -658.31 5.49 
375.84 -657.99 5.46 
375.78 -659.38 5.58 
375.61 -659.18 5.57 
375.77 -658.75 5.53 
375.09 -660.26 5.67 
375.07 -660.04 5.66 
375.16 -659.63 5.62 
374.54 -660.54 5.71 
389.84 -655.84 4.42 
389.85 -655.59 4.40 
389.76 -655.19 4.37 
389.69 -654.80 4.34 
387.85 -654.71 4.25 
387.43 -654.88 4.25 
387.27 -655.40 4.28 
386.95 -656.68 4.37 
387.08 -656.09 4.33 
387.12 -656.01 4.32 
386.87 -657.09 4.39 
386.58 -658.33 4.47 
386.66 -657.79 4.44 
386.68 -657.70 4.43 
386.50 -658.52 4.48 
381.65 -657.96 4.64 
381.06 -658.88 4.70 
380.69 -659.25 4.72 
380.83 -659.10 4.71 
380.43 -659.54 4.73 
379.96 -659.95 4.75 
380.05 -659.74 4.74 
379.75 -660.40 4.78 
379.82 -660.18 4.77 
379.36 -660.92 4.81 
379.55 -660.65 4.80 
379.16 -661.37 4.84 
379.18 -661.14 4.82 
378.75 -662.00 4.88 
378.94 -661.65 4.86 
378.69 -662.01 4.88 
377.98 -663.05 4.94 
376.94 -663.62 4.96 
376.59 -663.90 4.97 
376.12 -664.22 4.98 
375.90 -664.47 5.00 
375.63 -664.74 5.01 
375.15 -665.09 5.03 
374.24 -665.59 5.05 
386.13 -656.87 4.76 
386.05 -656.43 4.73 
385.92 -655.97 4.69 
385.80 -655.55 4.66 
385.67 -654.91 4.61 
386.20 -657.51 4.81 
386.12 -657.30 4.79 
386.09 -656.85 4.76 
386.03 -656.62 4.74 
385.88 -656.15 4.70 
385.81 -655.75 4.67 
385.77 -655.45 4.65 
382.82 -655.10 4.45 
382.98 -654.75 4.42 
382.58 -655.59 4.48 
382.71 -655.35 4.46 
389.83 -654.70 4.46 
387.20 -654.93 4.38 
387.23 -654.72 4.36 
387.02 -655.49 4.41 
387.18 -655.05 4.38 
387.11 -654.79 4.36 
386.78 -656.52 4.48 
386.87 -656.11 4.45 
386.66 -657.17 4.52 
386.50 -657.80 4.55 
386.39 -658.59 4.60 
381.81 -657.66 4.74 
381.82 -657.48 4.73 
381.61 -658.19 4.78 
381.72 -657.92 4.76 
381.33 -658.70 4.81 
381.06 -659.15 4.83 
380.71 -659.58 4.86 
380.85 -659.36 4.85 
380.42 -659.84 4.87 
380.01 -660.37 4.90 
380.18 -660.03 4.88 
379.84 -660.70 4.92 
379.50 -661.33 4.96 
379.48 -661.04 4.94 
379.33 -661.75 4.99 
378.99 -662.27 5.02 
378.63 -662.72 5.04 
378.38 -663.13 5.06 
377.91 -663.55 5.08 
377.22 -663.97 5.10 
376.92 -664.26 5.11 
376.59 -664.56 5.13 
376.27 -664.94 5.15 
376.02 -665.22 5.16 
375.77 -665.52 5.18 
374.67 -666.09 5.20 
370.28 -671.37 5.48 
386.46 -656.71 4.87 
386.47 -656.50 4.85 
386.40 -656.04 4.81 
386.35 -655.68 4.79 
386.33 -655.30 4.76 
386.29 -654.92 4.73 
382.77 -655.01 4.57 
382.67 -655.25 4.58 
382.04 -657.14 4.71 
382.09 -656.89 4.69 
381.89 -657.36 4.72 
376.10 -656.61 5.45 
376.06 -656.44 5.44 
375.74 -655.49 5.37 
375.63 -655.17 5.35 
376.07 -657.68 5.54 
376.01 -657.21 5.50 
375.99 -656.89 5.47 
375.67 -656.01 5.41 
375.66 -655.33 5.36 
375.47 -654.93 5.33 
375.86 -658.72 5.63 
375.78 -658.50 5.61 
375.81 -658.14 5.58 
375.63 -659.54 5.70 
375.58 -658.91 5.65 
375.43 -659.23 5.68 
375.17 -659.94 5.75 
386.91 -655.42 4.49 
387.06 -654.85 4.45 
386.71 -656.37 4.55 
386.59 -657.22 4.60 
386.57 -657.04 4.59 
386.68 -656.52 4.56 
386.42 -657.83 4.63 
386.37 -658.39 4.67 
381.85 -657.98 4.84 
381.66 -658.46 4.87 
381.78 -658.12 4.85 
381.37 -658.94 4.90 
381.10 -659.39 4.93 
380.79 -659.85 4.95 
380.87 -659.67 4.94 
380.56 -660.07 4.96 
380.13 -660.54 4.99 
380.22 -660.31 4.97 
379.79 -661.07 5.02 
379.97 -660.81 5.00 
379.65 -661.54 5.05 
379.75 -661.29 5.03 
379.42 -661.95 5.07 
379.18 -662.27 5.09 
378.63 -663.26 5.15 
378.23 -663.61 5.16 
377.79 -663.96 5.18 
377.59 -664.07 5.18 
377.24 -664.39 5.20 
376.77 -664.79 5.21 
376.49 -665.11 5.23 
376.17 -665.44 5.25 
375.85 -665.79 5.27 
375.21 -666.30 5.29 
386.27 -654.93 4.81 
386.36 -656.05 4.89 
386.36 -655.77 4.87 
386.31 -655.42 4.84 
386.27 -655.03 4.81 
382.95 -655.02 4.65 
383.05 -654.72 4.63 
382.75 -655.51 4.68 
382.81 -655.25 4.66 
382.64 -655.75 4.70 
382.24 -656.86 4.77 
382.09 -657.37 4.80 
382.20 -657.10 4.79 
381.86 -657.86 4.83 
381.96 -657.60 4.82 
376.38 -657.74 5.60 
376.30 -657.59 5.59 
376.15 -657.12 5.56 
376.20 -656.68 5.52 
376.11 -658.43 5.67 
376.22 -658.04 5.63 
376.15 -657.46 5.58 
376.11 -657.30 5.57 
375.87 -659.14 5.73 
375.86 -658.95 5.72 
375.94 -658.22 5.65 
375.71 -659.37 5.76 
386.21 -655.69 4.57 
386.03 -656.87 4.64 
386.09 -656.41 4.61 
386.10 -656.27 4.60 
385.91 -657.42 4.67 
386.01 -657.07 4.65 
385.75 -658.57 4.73 
385.78 -658.25 4.72 
385.85 -657.86 4.69 
385.50 -659.70 4.79 
381.21 -656.39 4.81 
381.29 -655.97 4.78 
381.06 -656.85 4.84 
381.14 -656.58 4.82 
380.87 -657.68 4.89 
380.89 -657.36 4.87 
380.61 -658.19 4.92 
380.74 -657.90 4.90 
380.39 -658.44 4.94 
380.18 -658.86 4.96 
379.81 -659.32 4.99 
379.87 -659.18 4.98 
379.49 -659.65 5.00 
379.18 -660.04 5.02 
378.92 -660.57 5.06 
379.02 -660.31 5.04 
378.71 -660.92 5.08 
377.53 -662.70 5.18 
377.23 -663.07 5.20 
376.52 -663.73 5.23 
376.69 -663.49 5.21 
375.81 -664.46 5.26 
375.67 -664.21 5.24 
375.20 -664.54 5.26 
374.51 -665.26 5.29 
373.21 -666.09 5.33 
370.40 -671.75 5.66 
385.54 -655.22 4.92 
385.52 -655.66 4.95 
385.44 -655.52 4.94 
385.66 -655.20 4.49 
385.47 -656.44 4.56 
385.54 -655.96 4.54 
385.42 -656.85 4.59 
385.43 -656.60 4.57 
385.29 -658.08 4.66 
385.26 -657.84 4.64 
385.30 -657.43 4.62 
385.18 -658.29 4.66 
379.57 -657.69 4.85 
379.26 -658.13 4.87 
379.51 -657.87 4.86 
379.12 -658.38 4.89 
378.91 -658.73 4.91 
378.44 -659.24 4.93 
378.58 -659.05 4.92 
378.20 -659.76 4.96 
378.27 -659.52 4.95 
377.70 -660.43 5.00 
377.83 -660.15 4.98 
377.23 -661.02 5.03 
376.87 -661.57 5.06 
376.98 -661.36 5.05 
376.62 -662.01 5.09 
376.25 -662.42 5.11 
375.23 -663.20 5.14 
370.44 -671.89 5.63 
384.98 -656.30 4.62 
385.05 -656.03 4.60 
384.92 -657.23 4.67 
384.98 -657.00 4.66 
384.97 -656.41 4.62 
384.84 -657.85 4.70 
384.91 -657.39 4.67 
378.56 -657.22 4.88 
378.45 -657.49 4.90 
377.68 -659.03 4.98 
377.39 -659.44 5.01 
377.13 -659.99 5.04 
376.75 -660.47 5.06 
376.77 -660.64 5.07 
375.96 -661.65 5.13 
376.10 -661.45 5.12 
375.82 -661.75 5.13 
374.85 -662.66 5.17 
384.66 -654.70 4.94 
384.77 -656.71 4.71 
384.79 -656.40 4.69 
384.84 -656.06 4.68 
384.76 -657.57 4.76 
384.78 -657.33 4.75 
384.80 -656.89 4.72 
379.04 -655.63 4.87 
378.42 -656.98 4.95 
378.53 -656.65 4.93 
378.34 -657.52 4.98 
378.08 -658.35 5.03 
378.18 -658.02 5.01 
377.86 -658.59 5.04 
377.45 -658.91 5.06 
377.34 -659.44 5.09 
377.36 -659.19 5.08 
377.01 -659.91 5.12 
376.96 -660.26 5.14 
376.65 -660.75 5.16 
376.70 -660.56 5.15 
376.43 -661.04 5.18 
376.02 -661.60 5.21 
375.69 -661.95 5.23 
374.81 -662.78 5.26 
374.82 -662.98 5.28 
384.83 -656.64 4.77 
384.81 -656.27 4.75 
384.85 -657.53 4.82 
384.86 -657.11 4.80 
384.79 -656.87 4.78 
379.35 -655.55 4.94 
379.46 -655.26 4.92 
379.22 -655.85 4.95 
379.02 -656.27 4.98 
378.70 -656.81 5.01 
378.87 -656.54 4.99 
378.66 -657.35 5.04 
378.62 -657.11 5.03 
378.48 -658.23 5.09 
378.50 -657.92 5.07 
378.54 -657.67 5.06 
378.36 -658.51 5.11 
378.08 -658.97 5.13 
377.92 -659.50 5.16 
377.54 -660.02 5.19 
377.39 -660.46 5.21 
377.50 -660.23 5.20 
377.21 -660.81 5.23 
376.94 -661.40 5.27 
376.69 -661.78 5.29 
376.35 -662.28 5.31 
376.21 -662.39 5.32 
375.84 -662.81 5.34 
375.47 -663.23 5.36 
375.23 -663.58 5.37 
384.21 -655.47 4.76 
384.15 -654.97 4.73 
384.14 -654.72 4.72 
384.19 -656.33 4.80 
384.17 -656.15 4.79 
384.03 -655.68 4.76 
383.93 -655.93 4.77 
378.22 -654.99 4.96 
378.04 -655.48 4.99 
378.13 -655.26 4.98 
377.75 -656.05 5.02 
377.93 -655.76 5.01 
377.72 -656.57 5.05 
377.75 -656.27 5.03 
377.52 -657.06 5.08 
377.56 -656.85 5.07 
377.38 -657.64 5.11 
377.44 -657.30 5.09 
377.24 -658.22 5.15 
377.01 -658.65 5.17 
376.70 -659.28 5.20 
376.84 -659.03 5.19 
376.69 -659.47 5.21 
376.29 -659.93 5.24 
376.06 -660.51 5.27 
376.19 -660.26 5.25 
375.79 -660.84 5.28 
374.94 -661.91 5.34 
374.70 -662.24 5.35 
374.60 -662.52 5.37 
383.63 -655.17 4.85 
383.65 -654.75 4.83 
377.56 -654.85 5.07 
377.43 -655.40 5.10 
377.53 -655.08 5.08 
377.29 -655.70 5.12 
377.12 -656.13 5.14 
376.84 -657.04 5.20 
376.89 -656.70 5.18 
376.69 -657.33 5.21 
376.53 -657.74 5.24 
376.30 -658.37 5.27 
376.27 -658.13 5.26 
376.05 -658.76 5.29 
375.82 -659.06 5.31 
375.68 -659.48 5.33 
375.71 -659.29 5.32 
375.48 -659.83 5.35 
374.91 -660.49 5.38 
383.50 -654.92 4.79 
377.83 -654.69 5.02 
377.76 -655.14 5.05 
377.74 -654.97 5.04 
377.60 -655.51 5.07 
377.35 -656.01 5.10 
377.20 -656.53 5.13 
376.95 -656.99 5.15 
377.07 -656.77 5.14 
376.73 -657.60 5.19 
376.85 -657.29 5.17 
376.57 -657.93 5.21 
376.40 -658.41 5.23 
376.39 -658.13 5.21 
376.20 -658.76 5.25 
375.92 -659.16 5.27 
375.56 -659.70 5.30 
375.24 -660.19 5.32 
383.34 -654.69 4.79 
377.93 -655.03 5.06 
378.09 -654.75 5.05 
377.91 -655.30 5.08 
377.69 -655.77 5.11 
377.44 -656.38 5.14 
377.52 -656.09 5.13 
377.25 -656.87 5.17 
377.31 -656.69 5.16 
377.10 -657.21 5.19 
376.96 -657.56 5.21 
376.72 -657.97 5.23 
376.58 -658.41 5.25 
376.28 -658.88 5.28 
376.10 -659.27 5.30 
375.83 -659.73 5.32 
375.96 -659.47 5.31 
375.67 -660.02 5.34 
375.38 -660.42 5.36 
376.98 -654.91 5.17 
376.85 -655.40 5.20 
376.87 -655.20 5.18 
376.71 -655.71 5.21 
376.48 -656.14 5.24 
376.25 -656.71 5.27 
376.36 -656.46 5.26 
376.07 -657.06 5.29 
375.86 -657.55 5.32 
375.64 -657.90 5.33 
375.40 -658.31 5.36 
375.15 -658.67 5.38 
374.96 -658.99 5.39 
374.79 -659.31 5.41 
374.37 -659.80 5.43 
374.15 -660.16 5.45 
374.15 -660.56 5.48 
374.09 -660.42 5.47 
376.41 -654.83 5.15 
376.27 -655.32 5.18 
376.30 -655.14 5.17 
376.04 -655.72 5.20 
375.80 -656.18 5.22 
375.77 -656.44 5.24 
375.46 -656.94 5.27 
375.30 -657.31 5.29 
374.98 -657.80 5.31 
374.79 -658.16 5.33 
375.36 -655.00 5.18 
375.06 -655.47 5.20 
374.94 -655.69 5.21 
374.61 -656.12 5.23 
374.42 -656.42 5.25 
374.29 -656.87 5.27 
374.31 -656.68 5.26 
374.07 -657.27 5.29 
373.95 -657.50 5.30 
373.61 -658.15 5.33 
374.71 -655.08 5.05 
374.68 -654.87 5.04 
374.53 -655.37 5.07 
374.10 -655.98 5.09 
373.98 -656.36 5.11 
373.76 -656.70 5.13 
374.92 -654.70 5.08 
374.79 -655.16 5.10 
374.66 -655.52 5.12 
374.35 -655.95 5.14 
374.34 -656.16 5.15 
374.12 -656.52 5.16 
373.90 -657.01 5.19 
373.69 -657.49 5.21 
373.60 -657.77 5.22 
373.39 -654.92 5.13 
373.30 -655.22 5.14 
373.24 -655.59 5.16 
373.10 -655.52 5.16 
371.35 -655.32 5.17 
372.86 -654.84 5.08 
373.87 -657.98 5.03 
367.45 -655.87 5.09 
