# .PCD v0.7 - Point Cloud Data file format
VERSION 0.7
FIELDS x y z
SIZE 4 4 4
TYPE F F F
COUNT 1 1 1
WIDTH 1005
HEIGHT 1
VIEWPOINT 0 0 0 1 0 0 0
POINTS 1005
DATA ascii
368.41 20.18 -0.98 
367.88 19.95 0.08 
366.83 18.74 1.19 
366.75 18.28 2.24 
366.97 18.50 2.27 
366.79 18.76 1.17 
368.36 19.13 1.28 
368.67 19.64 1.33 
368.18 15.87 -1.40 
370.02 19.69 -1.04 
366.54 16.16 0.73 
368.16 18.85 0.99 
368.53 19.08 1.03 
366.69 17.57 -1.22 
366.89 17.77 -1.20 
370.04 19.64 -1.00 
367.33 18.39 0.90 
367.99 18.68 0.96 
368.40 19.13 1.01 
367.80 17.42 0.86 
368.29 18.21 0.94 
367.94 17.93 1.94 
366.66 17.90 1.84 
367.36 18.61 1.93 
367.56 18.79 1.96 
366.70 17.47 2.84 
366.60 17.82 2.84 
366.84 18.45 2.89 
370.58 19.26 -1.02 
366.71 16.68 0.74 
368.64 18.29 0.94 
368.25 18.93 0.96 
368.55 19.11 0.99 
368.74 19.35 1.01 
367.89 17.98 1.89 
367.23 18.72 1.89 
367.30 18.97 1.91 
369.94 19.19 -1.08 
367.32 18.12 -1.20 
366.87 15.81 0.62 
367.66 17.86 0.78 
368.17 17.89 0.81 
366.84 17.69 0.73 
367.60 18.19 0.80 
367.84 18.39 0.82 
367.97 18.51 0.84 
367.92 19.04 0.87 
367.95 19.08 0.87 
367.47 18.87 1.81 
367.93 18.28 1.82 
368.50 19.34 1.91 
366.51 17.70 2.66 
366.64 18.46 2.70 
366.51 17.69 1.59 
367.81 18.21 1.70 
368.39 19.24 1.79 
366.77 18.57 1.65 
367.39 18.78 1.70 
366.57 17.70 2.56 
366.60 18.38 2.59 
366.77 18.76 2.61 
368.34 17.51 -1.31 
370.01 19.24 -1.15 
370.21 19.42 -1.13 
367.70 17.42 0.63 
366.69 17.38 0.59 
367.18 18.32 0.66 
367.94 18.65 0.72 
369.31 19.48 0.83 
367.31 18.71 0.69 
367.69 17.62 1.61 
366.95 18.55 1.61 
367.33 18.64 1.64 
368.34 19.33 1.74 
367.03 18.78 1.62 
366.55 18.40 2.52 
366.72 18.56 2.53 
368.42 17.08 -1.39 
368.93 17.85 -1.32 
369.21 18.00 -1.30 
369.79 19.01 -1.22 
370.15 20.20 -1.11 
366.88 15.87 0.44 
367.29 17.39 0.54 
367.33 17.42 0.55 
367.99 17.93 0.60 
368.39 18.05 0.63 
368.47 18.71 0.67 
367.07 18.27 0.58 
367.58 18.30 0.60 
367.96 18.72 0.64 
367.96 18.22 1.57 
368.20 18.39 1.59 
366.65 17.80 1.47 
366.51 17.47 2.38 
366.58 18.35 2.41 
370.55 19.39 -1.26 
367.32 17.33 0.44 
367.64 17.49 0.47 
367.31 17.41 0.45 
368.09 18.20 0.52 
367.07 18.32 0.49 
367.15 18.54 0.50 
367.90 18.72 0.54 
368.25 19.15 0.58 
367.73 19.13 0.56 
367.68 17.67 1.42 
367.10 18.72 1.42 
367.41 18.94 1.45 
368.33 19.34 1.52 
366.60 18.51 2.30 
366.84 17.22 -1.49 
370.54 20.31 -1.20 
366.71 17.46 0.37 
367.48 18.27 0.45 
367.84 18.65 0.48 
367.87 18.98 0.50 
366.54 16.93 0.34 
367.79 18.37 0.46 
366.70 17.74 1.30 
366.88 18.35 1.33 
367.74 18.65 1.39 
368.43 19.20 1.46 
366.99 18.61 1.35 
367.28 18.73 1.37 
366.61 18.44 2.22 
367.00 18.63 1.33 
367.28 18.76 1.35 
367.72 17.63 1.34 
368.31 19.29 1.43 
367.17 17.31 2.21 
366.63 17.45 2.18 
366.64 18.47 2.19 
366.95 18.55 2.22 
366.94 20.25 -2.16 
367.01 15.97 -1.65 
367.41 15.95 -1.65 
367.59 17.43 -1.54 
367.78 17.57 -1.52 
369.56 18.96 -1.41 
369.59 19.24 -1.39 
370.38 20.07 -1.32 
370.52 7.81 -2.30 
368.71 18.38 0.37 
367.91 18.81 0.37 
367.06 17.22 -2.50 
368.87 17.23 -1.60 
369.24 18.56 -1.49 
369.45 18.88 -1.46 
370.44 19.53 -1.41 
368.19 17.73 0.26 
368.62 18.38 0.31 
367.01 18.54 0.26 
367.12 18.73 0.27 
367.09 18.76 1.14 
367.01 18.45 -2.37 
368.42 16.46 -1.66 
366.90 16.12 -1.69 
367.35 16.36 -1.67 
368.05 17.62 -1.57 
367.22 17.56 0.19 
368.11 18.04 0.25 
368.30 18.80 0.29 
366.84 18.61 0.23 
367.84 18.89 0.28 
368.11 19.31 0.31 
367.78 18.04 1.12 
366.67 17.78 1.06 
367.84 18.36 1.13 
367.16 18.77 1.11 
366.53 18.71 1.07 
366.87 18.68 1.09 
368.26 19.44 1.18 
366.76 18.36 1.94 
367.61 16.89 -1.70 
368.56 17.85 -1.62 
369.69 18.94 -1.53 
367.74 18.39 -1.58 
369.37 18.94 -1.53 
370.18 20.01 -1.44 
367.74 19.11 -1.52 
368.49 19.50 -1.49 
370.79 9.50 -2.29 
367.85 17.61 0.13 
367.09 17.52 0.10 
367.91 18.01 0.15 
367.35 18.28 0.15 
368.28 18.77 0.20 
368.58 18.83 0.21 
367.73 18.82 0.18 
368.62 19.49 0.24 
366.69 18.65 0.14 
367.11 18.88 0.16 
367.50 17.60 1.00 
366.64 17.81 0.96 
367.83 18.35 1.03 
366.54 18.35 0.97 
368.32 19.35 1.09 
366.91 18.71 1.00 
367.00 17.29 1.84 
367.21 17.15 0.88 
367.79 18.45 0.94 
366.64 18.72 0.90 
366.90 18.73 0.91 
367.17 18.88 0.93 
368.25 19.49 1.00 
366.58 17.61 1.73 
366.52 18.47 1.73 
371.94 9.45 -3.46 
366.60 16.10 -1.83 
369.50 17.98 -1.68 
370.46 20.10 -1.51 
368.99 5.27 -2.69 
369.29 5.33 -2.69 
370.28 5.78 -2.66 
371.90 7.64 -2.52 
367.50 16.65 -0.90 
368.78 17.15 -0.86 
368.97 19.38 -0.71 
367.00 19.06 -0.76 
368.81 20.02 -0.68 
367.24 19.57 -0.72 
367.26 19.95 -0.70 
373.90 10.36 -1.22 
366.81 16.05 -0.05 
366.86 16.99 -0.01 
367.04 17.11 0.00 
367.20 17.41 0.01 
367.17 17.40 0.01 
368.61 18.50 0.10 
367.17 18.50 0.06 
367.12 19.15 0.09 
367.80 19.17 0.10 
367.27 17.18 0.87 
368.50 19.44 0.98 
366.55 18.51 1.71 
369.65 17.73 -1.80 
368.21 17.38 -1.82 
368.44 17.58 -1.80 
369.65 18.11 -1.76 
368.66 18.17 -1.76 
368.89 18.22 -1.75 
370.43 20.05 -1.61 
367.63 19.15 -1.67 
367.91 19.12 -1.68 
367.87 20.02 -1.60 
369.62 5.26 -2.79 
374.80 10.35 -2.41 
370.16 19.48 -0.79 
368.69 20.09 -0.77 
367.05 17.60 -0.08 
369.02 19.89 -2.52 
368.63 20.01 -2.50 
369.09 15.50 -2.04 
369.48 17.39 -1.89 
369.09 17.47 -1.88 
367.71 17.20 -1.90 
368.12 17.25 -1.90 
369.44 17.90 -1.85 
368.29 17.90 -1.84 
369.67 18.70 -1.78 
370.44 19.20 -1.75 
369.93 19.02 -1.76 
367.75 18.55 -1.79 
369.13 19.17 -1.74 
369.98 20.22 -1.66 
367.58 19.27 -1.73 
367.77 19.78 -1.69 
373.67 8.88 -2.60 
368.60 17.19 -1.02 
370.24 19.39 -0.87 
370.43 19.48 -0.86 
369.00 19.76 -0.86 
368.76 19.67 -0.87 
366.94 19.18 -0.91 
367.44 19.81 -0.87 
372.30 9.72 -1.45 
372.78 9.66 -1.46 
372.83 10.19 -1.42 
367.07 17.57 -0.15 
367.72 18.82 -0.09 
369.02 19.65 -0.02 
367.69 18.41 0.74 
367.29 18.56 0.73 
366.82 18.77 0.72 
368.95 19.86 -2.56 
368.91 20.22 -2.52 
366.74 19.65 -1.73 
367.80 20.25 -1.69 
371.08 9.98 -2.54 
371.39 10.09 -2.53 
369.97 17.33 -1.94 
367.29 16.62 -1.98 
368.72 18.28 -1.86 
370.30 18.72 -1.83 
368.48 18.25 -1.86 
369.72 19.11 -1.79 
369.82 19.02 -1.80 
368.98 19.29 -1.78 
369.30 19.34 -1.77 
370.33 20.00 -1.72 
367.17 18.44 -1.83 
367.34 18.56 -1.82 
368.14 19.25 -1.77 
368.47 19.41 -1.76 
367.37 19.09 -1.78 
367.49 19.75 -1.73 
369.59 5.29 -2.90 
370.59 6.48 -2.53 
366.95 20.08 -0.90 
369.09 17.12 -1.07 
368.56 17.56 -1.04 
368.49 19.12 -0.95 
369.13 19.95 -0.89 
367.10 19.45 -0.94 
368.53 20.08 -0.89 
372.93 9.28 -1.52 
372.33 9.52 -1.51 
367.35 15.34 -0.28 
366.67 16.48 -0.24 
367.48 18.71 -0.14 
367.91 19.00 -0.12 
368.17 18.98 -0.12 
368.33 19.19 -0.11 
367.71 19.05 -0.12 
368.54 19.42 -0.09 
367.66 18.37 0.69 
368.14 19.41 0.72 
367.70 20.21 -1.67 
367.95 20.26 -1.67 
370.58 9.13 -2.58 
370.96 9.77 -2.53 
371.10 10.07 -2.51 
367.86 16.31 -1.99 
367.07 16.59 -1.96 
368.77 17.90 -1.87 
370.31 18.79 -1.81 
368.48 18.32 -1.83 
369.71 19.05 -1.78 
370.20 19.96 -1.71 
367.04 18.37 -1.82 
367.22 18.51 -1.81 
367.40 18.71 -1.79 
368.19 19.31 -1.75 
367.36 19.33 -1.74 
367.39 19.78 -1.71 
368.30 20.16 -1.68 
369.42 5.23 -2.87 
375.79 9.16 -2.62 
369.56 6.70 -2.76 
367.25 19.86 -0.89 
368.88 17.12 -1.05 
367.03 17.24 -1.05 
368.50 19.20 -0.93 
369.41 19.71 -0.89 
369.09 19.76 -0.89 
368.43 19.89 -0.89 
368.48 20.19 -0.87 
372.12 8.04 -1.58 
370.84 9.12 -1.52 
372.00 9.75 -1.48 
372.36 9.75 -1.48 
366.65 16.19 -0.23 
367.58 17.14 -0.18 
366.92 17.36 -0.18 
367.18 17.44 -0.18 
367.43 18.55 -0.13 
367.96 18.85 -0.11 
366.89 18.50 -0.14 
367.10 18.79 -0.13 
367.44 19.00 -0.11 
367.73 19.03 -0.11 
368.20 19.22 -0.09 
368.58 19.47 -0.08 
366.91 18.98 -0.12 
367.03 17.07 0.66 
367.60 18.37 0.70 
368.07 19.36 0.73 
366.68 18.80 0.68 
367.02 18.92 0.70 
366.59 18.36 1.50 
370.13 9.19 -2.63 
371.25 9.79 -2.59 
371.46 9.96 -2.58 
367.11 16.40 -2.02 
367.47 16.86 -1.99 
369.27 17.93 -1.92 
368.83 18.19 -1.89 
370.18 18.93 -1.84 
369.43 18.69 -1.86 
369.54 19.01 -1.83 
369.68 19.28 -1.81 
366.99 18.34 -1.86 
367.96 19.69 -1.76 
376.09 9.04 -2.69 
368.89 5.23 -2.93 
376.29 9.35 -2.67 
374.60 10.25 -2.58 
374.85 10.48 -2.57 
369.01 17.22 -1.09 
368.57 17.49 -1.08 
370.02 18.63 -1.01 
370.04 19.61 -0.95 
368.34 19.03 -0.99 
368.73 19.25 -0.97 
370.66 7.82 -1.65 
373.53 10.19 -1.51 
373.73 10.49 -1.49 
366.70 17.12 -0.24 
367.31 17.62 -0.22 
367.03 17.61 -0.22 
368.07 18.36 -0.18 
368.46 18.72 -0.16 
368.03 18.88 -0.16 
367.00 18.82 -0.17 
367.15 17.20 0.62 
368.08 19.34 0.68 
366.72 18.71 0.64 
368.25 19.53 0.69 
367.73 18.52 1.07 
366.79 17.98 2.79 
367.67 20.20 -1.78 
370.76 9.24 -2.69 
373.84 10.67 -2.61 
370.01 9.04 -2.69 
369.26 18.15 -1.96 
366.74 17.25 -1.73 
368.54 18.35 -1.94 
369.26 18.72 -1.92 
369.64 19.10 -1.89 
367.45 18.87 -1.88 
369.00 19.41 -1.86 
370.20 20.07 -1.82 
368.40 19.47 -1.85 
367.35 19.74 -1.81 
369.38 5.27 -2.98 
376.06 8.68 -2.80 
371.25 6.80 -2.62 
369.76 7.08 -2.84 
374.83 10.12 -2.67 
370.57 8.54 -2.74 
368.84 17.18 -1.16 
369.12 17.23 -1.16 
366.69 16.78 -1.17 
368.37 19.13 -0.88 
368.57 19.30 -0.71 
369.57 19.65 -1.01 
368.89 19.88 -1.00 
367.05 19.17 -1.04 
368.28 20.01 -0.99 
368.99 20.13 -0.98 
367.07 19.61 -1.01 
371.84 8.03 -1.70 
372.27 9.44 -1.62 
373.41 9.93 -1.59 
370.95 9.06 -1.64 
372.35 9.87 -1.59 
373.59 10.40 -1.56 
371.74 9.82 -1.60 
370.65 7.25 -1.43 
367.39 17.12 -0.29 
366.98 17.31 -0.28 
366.58 17.69 -0.27 
367.75 18.08 -0.25 
368.26 18.87 -0.22 
366.94 18.64 -0.24 
367.38 18.98 -0.22 
367.74 19.09 -0.21 
366.64 18.69 -0.24 
367.09 18.59 0.12 
366.70 17.26 0.56 
367.62 18.42 0.59 
366.62 18.79 0.58 
366.95 18.91 0.59 
367.97 19.39 0.62 
367.26 19.25 1.00 
366.85 17.48 1.42 
366.96 18.15 1.84 
366.98 18.64 1.84 
367.58 14.76 -2.96 
367.29 20.06 -1.85 
371.29 9.31 -2.76 
373.65 10.41 -2.71 
371.35 10.05 -2.70 
369.21 15.59 -2.23 
367.43 17.73 -2.04 
368.61 18.65 -1.71 
367.19 18.41 -1.98 
367.51 18.87 -1.95 
367.88 19.24 -1.92 
368.55 20.15 -1.86 
370.28 6.58 -2.96 
374.18 9.21 -2.81 
370.28 7.52 -2.88 
371.85 8.41 -2.57 
370.43 7.90 -2.86 
370.71 8.08 -2.85 
373.58 9.79 -2.76 
370.37 8.19 -2.83 
367.60 18.24 -0.85 
368.70 19.47 -0.77 
370.42 19.11 -0.79 
372.70 10.12 -1.34 
372.79 10.74 -1.30 
367.67 19.63 0.09 
367.40 18.54 0.05 
366.89 18.33 0.04 
366.83 18.33 0.90 
366.92 18.72 0.91 
368.92 19.86 0.98 
366.91 18.10 1.77 
367.24 18.61 1.78 
366.96 18.67 1.77 
366.66 17.95 2.65 
367.30 19.02 2.65 
373.85 10.61 -2.74 
370.99 10.05 -2.74 
369.66 19.04 -2.01 
367.31 18.14 -1.78 
368.40 18.44 -1.77 
366.98 18.31 -1.76 
367.31 18.79 -1.99 
367.52 18.84 -1.99 
368.56 19.66 -1.94 
367.38 19.87 -1.91 
375.92 8.62 -2.92 
376.18 8.75 -2.92 
373.73 8.53 -2.90 
376.18 9.50 -2.58 
373.88 9.06 -2.86 
369.95 7.06 -2.96 
373.61 9.30 -2.57 
375.02 10.12 -2.52 
373.80 9.90 -2.79 
374.57 10.19 -2.78 
367.69 18.57 -0.88 
367.91 18.62 -0.87 
366.89 18.36 -0.89 
368.86 19.59 -0.81 
370.88 19.36 -0.82 
370.88 6.54 -1.89 
372.71 10.07 -1.39 
366.89 17.47 -0.37 
366.78 17.82 0.84 
366.97 18.11 0.85 
367.13 18.28 0.86 
367.13 17.54 2.63 
367.24 20.23 -1.85 
371.13 9.42 -2.76 
371.72 10.59 -2.68 
372.17 11.05 -2.65 
368.83 16.71 -2.15 
369.02 18.41 -2.02 
367.37 18.18 -1.75 
368.77 19.74 -1.91 
367.05 19.40 -1.91 
368.15 19.87 -1.89 
367.19 19.63 -1.90 
370.42 6.36 -2.99 
370.57 6.80 -2.96 
369.97 6.68 -2.96 
374.44 9.78 -2.78 
370.26 8.39 -2.83 
368.17 18.76 -0.84 
368.53 18.91 -1.13 
366.93 18.37 -0.86 
369.32 19.93 -1.08 
367.17 19.06 -0.82 
368.90 19.93 -1.07 
368.02 20.15 -1.06 
371.35 7.76 -1.79 
373.44 8.82 -1.74 
370.91 8.02 -1.77 
371.50 8.15 -1.77 
371.60 9.03 -1.72 
372.74 9.52 -1.69 
372.63 9.95 -1.67 
372.24 10.06 -1.66 
371.58 10.00 -1.66 
368.10 17.80 -0.90 
370.48 6.09 -1.88 
370.73 6.41 -1.86 
371.03 6.62 -1.85 
371.25 6.84 -1.84 
372.44 10.13 -1.36 
371.95 10.35 -1.34 
366.96 17.13 -0.35 
367.04 17.55 -0.34 
367.02 18.61 -0.30 
368.07 19.27 -0.27 
367.63 19.11 -0.28 
367.76 19.44 -0.27 
367.58 17.57 -0.01 
367.66 18.67 0.03 
366.90 17.14 0.52 
367.19 18.02 0.53 
367.36 18.24 0.53 
366.55 19.04 0.54 
368.24 17.22 0.89 
367.53 19.45 0.91 
366.74 17.97 1.75 
366.94 18.76 1.75 
367.02 18.65 1.75 
366.89 18.15 2.63 
375.90 8.64 -2.83 
375.05 8.94 -2.80 
369.65 6.91 -2.86 
373.85 10.13 -2.68 
374.22 10.45 -2.67 
367.02 17.30 -1.15 
371.26 7.30 -1.74 
372.06 9.28 -1.64 
372.06 10.09 -1.59 
371.72 7.18 -1.75 
367.36 17.92 -0.25 
367.62 19.31 -0.21 
367.74 19.44 -0.21 
366.54 18.95 -0.22 
366.83 17.06 0.59 
367.57 18.07 0.60 
372.81 10.69 -2.71 
373.08 10.89 -2.70 
372.37 10.96 -2.68 
366.92 18.28 -1.78 
375.64 8.61 -2.91 
374.76 9.16 -2.86 
375.05 9.21 -2.86 
372.50 8.48 -2.88 
370.52 8.23 -2.87 
374.29 10.27 -2.76 
373.65 10.29 -2.75 
373.93 10.44 -2.75 
368.80 17.38 -1.24 
366.68 18.25 -0.90 
367.31 18.68 -1.16 
368.60 19.82 -1.11 
368.82 19.83 -1.11 
373.38 8.82 -1.76 
373.01 8.97 -1.75 
373.34 9.11 -1.74 
371.61 8.87 -1.74 
371.84 9.29 -1.72 
372.33 10.07 -1.68 
371.43 6.82 -1.57 
371.81 7.08 -1.84 
366.73 17.99 -0.32 
366.80 18.57 -0.31 
367.61 19.43 -0.28 
367.14 17.60 0.85 
368.57 19.76 -2.57 
368.88 18.22 -1.83 
369.13 18.27 -1.83 
366.90 18.13 -1.81 
375.73 8.63 -2.93 
374.92 9.33 -2.87 
374.40 9.39 -2.85 
372.89 9.64 -2.56 
373.57 9.75 -2.56 
368.98 16.42 -1.97 
370.21 17.14 -1.93 
368.76 19.14 -0.88 
369.25 19.32 -0.87 
369.78 19.52 -0.86 
366.82 18.32 -0.91 
367.15 18.70 -0.89 
368.48 19.27 -0.87 
369.26 19.99 -0.83 
369.82 19.99 -0.83 
369.27 20.08 -0.82 
369.39 17.63 -0.97 
368.69 17.50 -0.97 
367.83 17.94 -0.94 
371.58 9.24 -1.45 
373.07 10.03 -1.41 
371.20 9.37 -1.44 
372.65 10.18 -1.40 
367.11 17.51 -0.05 
366.59 18.13 -0.03 
367.87 18.98 0.00 
368.08 19.38 0.01 
368.11 18.53 0.87 
366.64 18.02 0.85 
367.34 19.10 0.87 
368.47 19.85 0.89 
366.58 18.17 1.73 
366.86 18.84 1.72 
366.64 18.83 1.72 
369.34 16.87 -2.06 
367.87 17.29 -2.00 
369.44 18.76 -1.93 
370.24 19.34 -1.65 
367.74 18.80 -1.89 
368.80 19.36 -1.87 
368.26 19.24 -1.87 
368.20 19.71 -1.83 
366.79 20.12 -1.77 
375.86 8.87 -2.53 
369.44 6.96 -2.80 
371.75 8.40 -2.75 
372.13 9.56 -2.67 
370.17 9.28 -2.64 
366.66 19.33 -0.71 
371.54 9.44 -1.29 
373.34 10.35 -1.27 
367.95 19.44 0.15 
372.70 11.32 -2.65 
369.62 17.62 -1.85 
369.81 17.92 -1.83 
367.36 17.16 -2.09 
369.88 18.64 -1.78 
370.00 19.13 -1.87 
367.21 18.57 -1.97 
371.00 20.22 -1.67 
366.64 18.95 -1.93 
367.32 19.34 -1.92 
367.77 19.81 -1.89 
375.32 8.56 -2.66 
375.95 8.87 -2.64 
375.52 9.03 -2.62 
376.33 9.78 -2.58 
374.61 9.27 -2.84 
375.94 9.85 -2.56 
373.61 9.19 -2.71 
374.24 9.34 -2.83 
373.82 9.65 -2.55 
374.08 9.97 -2.53 
372.89 9.86 -2.77 
373.65 10.33 -2.74 
371.05 9.79 -2.73 
367.30 17.62 -1.15 
367.04 17.90 -1.13 
366.66 18.39 -1.10 
367.19 18.71 -1.09 
369.08 19.87 -1.06 
369.64 20.13 -0.78 
368.23 20.07 -1.04 
372.63 8.64 -1.73 
371.88 9.14 -1.69 
371.53 9.31 -1.68 
369.34 17.56 -0.92 
369.57 17.76 -0.92 
370.87 19.86 -0.81 
371.58 7.02 -1.80 
371.88 7.24 -1.80 
371.16 7.36 -1.78 
371.23 7.35 -1.78 
375.01 10.31 -1.38 
374.54 10.42 -1.37 
373.33 10.03 -1.39 
366.87 16.69 -0.27 
366.99 17.90 -0.24 
367.25 17.91 -0.24 
366.76 18.01 -0.23 
367.28 18.08 -0.24 
367.98 18.45 -0.24 
367.56 19.39 -0.20 
367.34 19.45 -0.20 
367.51 17.78 0.03 
369.41 19.98 0.09 
368.39 16.44 -2.20 
366.63 17.21 -2.09 
369.23 18.49 -2.06 
367.33 18.79 -1.99 
367.03 19.12 -1.95 
368.06 19.20 -1.97 
366.62 19.08 -1.94 
366.90 20.00 -1.88 
372.18 8.30 -2.92 
372.50 8.45 -2.92 
370.19 8.17 -2.88 
372.11 8.95 -2.87 
369.76 8.76 -2.83 
370.96 9.70 -2.78 
370.55 9.95 -2.75 
372.35 10.93 -2.72 
366.95 16.81 -1.21 
366.99 16.94 -1.20 
366.65 17.66 -1.15 
367.08 18.23 -1.13 
367.92 18.35 -0.25 
366.62 18.02 -0.23 
367.02 18.04 -0.24 
367.58 18.99 -0.23 
367.28 19.38 -0.21 
366.71 19.43 -0.19 
366.58 15.16 -0.32 
366.85 18.00 0.65 
370.07 18.07 -1.92 
369.58 19.02 -2.08 
366.98 18.43 -2.05 
367.90 19.85 -1.97 
366.64 19.88 -1.93 
375.48 8.62 -3.05 
372.00 8.22 -2.99 
372.07 8.20 -2.99 
374.26 9.19 -2.97 
372.27 8.78 -2.95 
373.27 9.25 -2.94 
373.70 10.27 -2.87 
371.52 9.50 -2.87 
370.83 9.69 -2.84 
371.15 9.81 -2.84 
372.00 10.81 -2.78 
372.28 11.09 -2.77 
368.97 19.77 -1.14 
371.89 9.01 -1.80 
371.49 9.41 -1.76 
371.07 19.85 -0.91 
370.94 7.34 -1.86 
372.98 8.95 -1.82 
373.28 9.20 -1.82 
374.67 10.35 -1.51 
366.72 17.91 -0.26 
369.47 17.31 -2.29 
369.22 17.51 -2.26 
369.36 18.57 -1.94 
366.89 18.25 -1.89 
369.50 19.28 -1.89 
367.45 19.92 -2.01 
367.72 19.83 -2.03 
367.97 20.13 -2.01 
371.96 8.19 -3.10 
371.80 8.93 -2.79 
369.83 8.73 -2.98 
370.21 8.94 -2.98 
372.80 10.03 -2.98 
369.53 8.85 -2.96 
370.61 9.82 -2.92 
371.95 10.96 -2.87 
372.33 10.96 -2.89 
367.86 17.22 -2.01 
368.06 17.82 -1.96 
368.79 19.78 -1.19 
371.20 9.47 -1.85 
367.02 17.32 -1.03 
370.26 19.40 -0.99 
371.97 8.59 -1.92 
371.58 9.05 -1.88 
366.72 17.47 -0.06 
366.86 18.20 -0.04 
367.92 18.90 -0.05 
367.61 19.15 -0.03 
367.21 17.99 0.87 
367.42 18.22 0.86 
368.29 16.17 -2.27 
368.04 16.47 -2.24 
369.68 17.22 -2.23 
367.69 16.80 -2.20 
367.73 17.23 -2.17 
367.16 18.05 -2.08 
370.37 19.22 -1.85 
366.89 18.09 -2.07 
366.85 18.88 -2.01 
367.32 19.75 -1.72 
374.06 8.78 -3.04 
376.06 9.65 -2.77 
371.67 8.36 -3.00 
372.61 8.91 -2.74 
374.52 9.88 -2.72 
373.50 10.37 -2.89 
373.79 10.34 -2.91 
372.46 10.62 -2.84 
372.04 10.99 -2.80 
366.84 16.66 -1.22 
366.90 17.01 -1.21 
366.62 17.81 -1.15 
368.00 19.15 -1.12 
368.26 19.75 -1.10 
371.87 10.05 -1.75 
367.07 19.12 -0.86 
367.56 19.69 -0.84 
372.97 8.75 -1.86 
371.94 8.74 -1.83 
372.65 8.97 -1.84 
372.99 9.11 -1.84 
373.27 9.19 -1.84 
371.11 8.55 -1.82 
371.63 9.01 -1.81 
374.55 9.97 -1.56 
367.20 19.29 -0.19 
366.91 15.63 -0.30 
368.15 19.36 0.04 
367.79 18.16 0.94 
366.64 18.05 0.96 
367.53 17.19 -2.21 
369.75 18.80 -1.92 
366.70 17.88 -2.13 
368.34 19.35 -1.83 
366.51 19.78 -1.97 
373.80 9.64 -2.78 
370.50 8.52 -3.01 
371.79 9.31 -2.99 
370.08 9.04 -2.96 
371.44 9.29 -2.98 
373.46 10.39 -2.95 
371.12 9.86 -2.92 
373.07 10.43 -2.94 
372.23 10.64 -2.89 
372.61 10.82 -2.89 
371.73 10.88 -2.86 
368.26 17.32 -2.00 
366.68 16.82 -1.25 
368.69 19.75 -1.15 
371.81 10.03 -1.81 
371.13 9.99 -1.79 
370.51 19.50 -0.96 
369.34 19.87 -0.91 
372.61 8.70 -1.90 
373.25 8.79 -1.66 
372.21 8.92 -1.88 
372.52 8.96 -1.89 
372.90 9.01 -1.89 
373.55 9.41 -1.63 
370.87 8.48 -1.87 
371.55 8.80 -1.87 
371.45 9.22 -1.84 
373.13 9.80 -1.60 
367.07 19.21 -0.21 
366.54 19.52 -0.18 
366.59 15.26 -0.33 
369.13 17.13 -2.26 
367.47 18.73 -2.08 
366.65 19.11 -2.02 
370.12 8.47 -3.00 
370.06 8.96 -2.96 
370.79 9.35 -2.95 
373.15 10.13 -2.96 
373.49 10.18 -2.97 
370.45 9.48 -2.93 
371.07 9.74 -2.93 
372.06 10.33 -2.91 
372.43 10.73 -2.89 
371.75 10.77 -2.87 
369.30 17.37 -2.02 
369.54 17.54 -2.01 
366.65 18.56 -1.13 
368.03 19.60 -1.12 
372.57 8.73 -1.89 
372.15 8.91 -1.87 
372.35 8.94 -1.88 
372.87 9.06 -1.88 
371.46 8.89 -1.85 
371.13 9.21 -1.82 
371.62 9.92 -1.80 
366.94 19.23 -0.18 
367.44 18.15 -0.23 
369.15 17.11 -2.35 
368.68 18.34 -2.23 
368.98 18.95 -2.18 
373.06 10.14 -3.06 
367.90 19.58 -1.17 
368.07 17.17 -1.33 
366.58 17.63 -1.24 
372.74 9.00 -1.98 
372.10 9.11 -1.95 
366.93 17.86 -0.27 
367.30 18.18 -0.28 
366.81 19.11 -0.22 
367.74 19.97 -1.95 
373.64 9.47 -3.05 
374.02 9.79 -3.03 
369.85 9.69 -3.14 
370.55 9.86 -3.15 
368.32 17.72 -2.17 
368.57 18.02 -2.15 
369.46 18.60 -2.13 
368.33 19.11 -1.10 
373.34 9.65 -1.85 
374.02 9.93 -1.85 
373.64 10.05 -1.83 
374.25 10.38 -1.82 
367.19 18.22 -0.14 
367.78 19.23 -0.12 
368.05 19.28 -0.13 
366.85 17.93 -0.14 
367.21 18.07 0.82 
367.00 15.81 -2.35 
366.65 17.37 -2.20 
366.90 17.41 -2.20 
368.46 17.98 -2.20 
368.77 17.15 -1.28 
366.80 19.57 -1.06 
366.55 19.96 -1.02 
372.95 9.77 -1.90 
374.27 10.30 -1.90 
372.52 9.84 -1.88 
371.52 9.96 -1.85 
367.37 19.03 -0.15 
366.86 15.54 -0.28 
366.69 18.00 -0.17 
367.26 18.49 -2.35 
366.53 17.33 -2.21 
366.55 17.13 -1.21 
367.50 19.04 -0.14 
366.72 15.68 -0.26 
366.54 16.62 -0.21 
367.86 18.24 -0.19 
367.88 18.04 -0.26 
367.13 19.03 -0.18 
366.92 15.69 -2.56 
366.89 17.32 -2.40 
366.53 17.27 -2.39 
369.36 19.82 -2.25 
367.04 19.99 0.24 
367.39 19.79 -1.94 
