# .PCD v0.7 - Point Cloud Data file format
VERSION 0.7
FIELDS x y z
SIZE 4 4 4
TYPE F F F
COUNT 1 1 1
WIDTH 724
HEIGHT 1
VIEWPOINT 0 0 0 1 0 0 0
POINTS 724
DATA ascii
386.26 99.77 7.09 
386.29 99.54 6.68 
384.86 100.84 7.92 
384.97 100.03 6.87 
366.61 99.04 7.75 
367.98 99.21 7.64 
367.45 99.37 7.67 
366.58 99.45 7.70 
366.95 99.48 7.69 
367.10 99.72 8.88 
366.76 99.78 8.90 
368.07 99.22 7.59 
367.33 99.01 7.57 
367.73 99.23 7.60 
366.89 99.26 7.61 
366.51 99.74 7.69 
367.51 99.36 8.75 
367.28 99.74 8.82 
367.04 100.15 8.89 
366.77 100.42 8.94 
367.69 99.14 7.55 
367.42 99.35 7.58 
366.78 99.46 7.61 
367.10 99.43 8.44 
367.27 99.76 8.76 
366.63 99.92 8.80 
367.82 100.38 8.86 
367.03 100.18 8.84 
377.93 98.49 7.89 
376.74 98.46 7.90 
377.47 98.56 7.91 
377.52 98.82 7.95 
377.14 98.75 7.94 
366.80 99.91 8.30 
367.19 100.02 8.31 
378.25 98.62 8.22 
378.61 98.58 8.21 
377.98 98.71 9.06 
377.01 99.10 9.14 
366.63 100.13 9.44 
378.46 99.23 7.33 
377.45 99.48 7.11 
376.72 99.48 7.13 
377.92 98.79 8.10 
376.85 98.64 8.08 
377.27 98.87 8.12 
376.55 98.75 8.10 
376.55 100.22 8.35 
378.85 98.69 8.38 
378.58 99.26 8.47 
377.37 98.91 9.23 
377.09 99.06 9.26 
377.93 99.43 9.33 
376.93 99.42 9.33 
376.74 99.49 7.07 
379.01 98.94 7.20 
378.78 99.21 7.25 
366.97 100.02 7.61 
377.20 98.78 8.02 
377.47 98.64 7.99 
377.06 99.37 8.12 
376.84 99.74 8.18 
376.65 100.20 8.26 
376.70 100.20 8.26 
378.51 98.39 8.23 
379.28 98.52 8.25 
378.28 98.67 8.28 
376.26 99.27 8.40 
378.07 98.95 9.12 
377.36 99.00 9.14 
377.83 99.25 9.18 
376.94 99.16 9.17 
376.87 99.43 6.95 
377.27 99.70 6.98 
377.37 99.92 7.27 
375.85 99.39 8.02 
379.46 98.74 8.14 
379.23 98.99 8.18 
377.54 99.26 8.25 
378.08 99.45 8.27 
378.48 99.68 8.31 
377.53 99.69 8.32 
376.25 98.96 8.99 
376.59 99.02 9.00 
376.08 99.46 9.09 
377.33 98.34 8.13 
376.15 98.62 8.19 
376.81 99.02 8.12 
376.69 99.40 8.32 
376.16 99.63 8.37 
376.77 98.92 9.00 
377.71 98.92 7.21 
377.35 98.58 8.19 
376.11 100.04 8.20 
375.89 100.19 8.23 
377.32 99.78 7.19 
376.21 99.83 7.47 
376.54 99.89 7.47 
376.83 99.77 7.44 
389.59 96.40 7.48 
376.40 99.15 8.37 
377.09 99.40 7.13 
376.18 99.96 7.47 
377.53 99.24 9.09 
391.33 96.58 6.73 
391.12 96.74 6.76 
376.27 100.06 7.55 
377.35 98.25 7.96 
376.32 98.83 9.07 
377.28 99.16 9.11 
366.60 100.27 6.96 
389.03 96.93 6.57 
391.30 96.03 6.66 
391.12 96.23 6.70 
389.91 96.63 6.77 
375.99 99.62 7.53 
377.53 98.56 8.04 
377.29 98.84 8.10 
388.84 96.91 6.80 
378.50 98.48 7.51 
377.71 99.22 7.42 
366.56 99.81 7.15 
388.64 96.92 6.76 
388.88 96.88 6.75 
376.60 98.42 8.24 
377.30 98.63 8.26 
377.59 98.83 8.29 
376.27 98.92 9.29 
390.92 95.76 6.79 
375.97 98.15 8.21 
376.82 98.46 8.24 
377.07 98.95 8.32 
375.22 98.79 9.29 
375.77 98.92 9.30 
375.26 99.00 9.33 
377.49 98.17 7.55 
377.22 98.39 7.60 
377.83 98.98 7.68 
375.99 99.21 7.77 
375.65 97.58 8.19 
376.64 97.89 8.22 
375.60 97.71 8.22 
376.39 98.12 8.27 
376.95 98.50 8.33 
375.10 98.56 9.32 
376.15 98.80 9.34 
375.50 98.88 9.38 
375.93 98.86 9.36 
389.40 96.55 6.77 
377.37 98.66 7.60 
377.85 99.00 7.65 
377.00 99.05 7.48 
376.77 99.15 7.70 
374.35 98.96 7.55 
389.52 95.74 7.52 
375.49 97.87 8.22 
376.64 98.40 8.28 
375.98 98.39 8.30 
376.80 99.08 8.59 
376.15 98.43 9.22 
375.22 98.57 9.28 
375.62 98.80 9.32 
376.80 99.01 9.32 
374.71 98.71 9.33 
375.60 99.02 9.36 
386.82 100.49 6.50 
387.65 100.90 6.54 
388.14 100.97 6.54 
375.24 101.09 6.91 
368.64 100.40 7.01 
374.85 101.62 6.99 
375.36 102.07 7.04 
367.81 100.93 7.11 
368.08 101.05 7.12 
368.83 101.05 7.09 
375.28 102.19 7.06 
374.25 102.52 7.13 
386.51 99.78 7.09 
387.82 99.95 7.08 
388.86 100.16 7.28 
386.00 99.75 7.10 
386.29 99.79 7.10 
386.78 99.98 7.11 
387.04 100.16 7.14 
387.43 100.16 7.13 
388.10 100.41 7.15 
388.63 100.33 7.31 
388.94 100.37 7.31 
385.74 100.79 7.28 
385.48 100.95 7.31 
386.23 101.01 7.30 
375.69 101.64 7.88 
375.22 101.87 7.94 
374.66 102.53 8.06 
367.81 101.69 8.18 
368.37 101.82 8.18 
367.45 101.79 8.22 
368.05 101.85 8.20 
368.55 102.16 8.23 
388.09 99.42 7.87 
386.81 99.56 7.93 
387.07 99.66 7.94 
387.46 99.80 7.95 
386.54 99.72 7.96 
387.85 100.09 8.00 
386.01 100.28 8.08 
389.02 100.87 8.29 
387.63 99.87 8.87 
386.57 100.27 8.98 
387.36 100.16 8.93 
386.20 100.44 9.02 
386.97 100.53 9.02 
387.94 100.68 9.03 
387.34 100.63 6.49 
387.40 100.89 6.53 
368.28 100.46 7.00 
374.38 101.52 6.97 
374.59 101.63 6.98 
367.11 100.31 7.02 
367.99 100.52 7.02 
368.34 100.84 7.05 
366.59 100.72 7.09 
368.59 101.19 7.09 
368.67 101.67 7.16 
374.56 102.83 7.14 
387.73 99.72 7.03 
387.97 99.83 7.22 
385.67 99.91 7.11 
385.93 99.93 7.11 
386.32 99.72 7.06 
387.23 100.11 7.10 
387.49 100.13 7.10 
388.63 100.21 7.26 
385.44 99.91 7.12 
386.70 100.36 7.16 
386.96 100.36 7.15 
387.76 100.48 7.15 
388.39 100.45 7.31 
388.93 100.64 7.33 
386.44 100.78 7.23 
385.33 101.03 7.31 
374.94 101.88 7.93 
374.47 102.25 8.00 
366.55 100.22 7.98 
367.05 100.41 7.99 
367.69 100.37 7.96 
367.12 100.91 8.07 
367.77 100.88 8.04 
374.35 102.57 8.06 
367.67 101.80 8.19 
367.93 101.92 8.20 
367.67 101.90 8.20 
368.19 102.14 8.22 
367.04 102.59 8.34 
389.36 112.14 9.00 
387.76 99.59 7.88 
386.21 99.72 7.95 
386.73 99.76 7.94 
387.16 99.95 7.96 
387.54 99.85 7.94 
385.73 99.98 8.01 
387.10 100.17 8.01 
387.50 100.29 8.02 
387.95 100.25 8.16 
388.19 100.50 8.20 
386.69 100.65 8.26 
387.73 100.80 8.26 
388.75 100.89 8.26 
386.80 99.77 8.84 
387.32 99.98 8.87 
387.05 100.06 8.89 
387.40 100.40 8.95 
385.97 100.38 8.99 
386.23 100.45 9.00 
386.57 100.44 8.99 
386.99 100.72 9.03 
387.78 100.69 9.00 
386.49 100.21 6.47 
386.70 100.25 6.47 
387.99 100.53 6.48 
367.07 100.27 7.02 
367.41 100.20 7.00 
368.23 100.47 7.01 
366.54 100.34 7.04 
368.35 100.89 7.06 
374.54 101.98 7.03 
367.40 100.88 7.09 
367.58 101.16 7.12 
368.57 101.79 7.18 
385.54 99.63 7.09 
386.04 99.75 7.10 
387.32 99.79 7.07 
387.55 99.90 7.08 
388.11 99.88 7.24 
385.75 99.75 7.10 
386.15 99.87 7.11 
386.54 100.10 7.14 
386.95 100.01 7.11 
387.79 100.35 7.15 
388.52 100.19 7.28 
386.49 100.27 7.17 
385.38 100.76 7.28 
385.14 100.86 7.30 
374.82 101.98 7.96 
366.95 100.46 8.02 
366.79 101.40 8.17 
367.02 101.71 8.21 
367.57 101.83 8.21 
367.90 101.80 8.19 
367.13 102.04 8.26 
385.85 99.35 7.91 
386.30 99.52 7.93 
386.60 99.65 7.94 
386.94 99.71 7.95 
387.32 99.76 7.94 
386.55 99.75 7.96 
387.09 99.93 7.98 
387.35 100.02 7.99 
386.78 100.77 8.29 
387.58 100.98 8.31 
387.83 100.99 8.30 
387.11 99.90 8.87 
385.66 100.16 8.98 
386.40 100.32 8.99 
387.61 100.60 9.01 
385.98 100.57 9.05 
386.78 100.67 9.05 
366.99 100.16 6.98 
366.51 100.32 7.02 
366.91 100.21 6.99 
367.22 100.23 6.98 
367.97 100.40 6.99 
367.21 100.87 7.07 
368.19 100.87 7.04 
366.85 101.03 7.11 
367.45 101.04 7.09 
368.43 101.68 7.15 
387.41 99.58 7.03 
388.06 99.65 7.20 
385.54 99.80 7.12 
385.92 99.85 7.12 
386.32 99.80 7.10 
387.07 100.07 7.12 
387.33 100.08 7.12 
387.82 100.31 7.31 
388.35 100.26 7.29 
388.59 100.38 7.30 
386.67 100.18 7.15 
387.57 100.31 7.15 
388.65 100.80 7.37 
388.87 100.79 7.36 
385.12 100.87 7.30 
366.77 100.40 8.00 
366.58 101.36 8.16 
367.42 101.68 8.18 
366.55 101.77 8.22 
367.00 101.84 8.22 
367.45 101.99 8.22 
389.12 112.05 9.01 
390.46 112.47 9.04 
386.10 99.57 7.95 
386.61 99.60 7.94 
387.44 99.52 7.90 
385.61 99.74 7.99 
386.36 99.62 7.95 
386.84 99.90 7.99 
387.62 99.94 7.97 
385.79 99.96 8.03 
387.09 100.90 8.30 
386.63 99.68 8.85 
387.13 99.87 8.87 
385.53 100.06 8.96 
386.31 100.19 8.96 
386.87 100.30 8.97 
387.62 100.28 8.94 
385.90 100.31 9.00 
386.80 100.51 9.01 
387.34 100.47 8.99 
386.84 100.00 6.46 
387.04 100.01 6.46 
387.53 100.43 6.50 
366.66 100.12 6.97 
366.99 100.11 6.96 
367.78 100.49 7.00 
366.93 100.80 7.06 
368.23 101.63 7.14 
367.64 101.98 7.20 
388.07 99.63 7.22 
385.35 99.62 7.12 
385.74 99.74 7.13 
386.35 99.97 7.15 
386.85 99.88 7.20 
387.17 99.86 7.22 
387.82 99.97 7.28 
388.35 100.20 7.30 
386.08 99.95 7.16 
386.57 100.14 7.25 
387.59 100.54 7.21 
384.94 100.61 7.30 
366.58 101.96 8.25 
366.91 101.99 8.24 
367.28 101.97 8.23 
385.46 99.26 7.94 
385.68 99.27 7.94 
386.18 99.39 7.94 
386.69 99.42 7.93 
385.88 99.60 7.99 
385.05 100.08 8.10 
385.26 100.14 8.11 
386.32 100.49 8.14 
386.86 100.90 8.32 
387.11 100.79 8.30 
386.69 99.81 8.90 
385.29 100.08 9.01 
385.62 100.32 9.05 
385.98 100.22 9.01 
386.35 100.43 9.05 
386.02 100.51 9.07 
386.28 100.61 9.09 
385.93 99.87 6.51 
386.70 99.67 6.46 
386.92 99.85 6.48 
387.43 99.77 6.46 
386.28 100.20 6.55 
388.44 100.59 6.55 
388.17 101.21 6.65 
367.11 100.02 6.98 
366.54 100.37 7.05 
367.24 100.47 7.04 
367.57 100.39 7.02 
367.55 101.01 7.11 
368.06 100.72 7.05 
367.68 102.00 7.24 
380.97 95.47 6.77 
386.45 99.86 7.34 
386.68 100.16 7.38 
386.92 100.18 7.38 
385.88 100.58 7.47 
387.15 100.53 7.43 
387.41 100.56 7.43 
387.66 100.60 7.43 
388.19 100.67 7.43 
387.91 101.04 7.50 
386.08 101.22 7.57 
389.97 112.98 9.24 
386.67 100.97 8.39 
385.48 100.14 9.08 
385.74 100.19 9.08 
385.47 100.41 9.13 
387.33 99.57 6.47 
386.02 100.19 6.58 
386.39 100.12 6.56 
386.85 100.58 6.62 
385.66 101.23 6.73 
366.62 100.24 7.05 
367.19 100.46 7.07 
367.42 100.65 7.09 
367.80 100.62 7.08 
366.58 100.85 7.14 
375.39 101.92 7.06 
367.40 101.85 7.26 
380.89 95.46 6.80 
381.17 95.41 6.79 
386.39 100.03 7.40 
386.80 100.02 7.38 
385.48 100.53 7.50 
387.13 100.50 7.46 
387.64 100.49 7.44 
385.90 101.14 7.59 
375.18 102.39 8.10 
375.28 102.79 8.16 
389.61 112.94 9.27 
386.76 100.89 8.40 
387.48 99.51 6.46 
386.22 99.91 6.55 
385.90 100.15 6.59 
386.25 100.19 6.58 
386.53 100.19 6.58 
385.63 100.33 6.62 
385.44 101.23 6.75 
367.23 100.62 7.09 
367.80 100.76 7.09 
367.36 100.88 7.12 
380.81 95.54 6.83 
386.25 100.10 7.42 
386.61 100.08 7.41 
387.16 100.48 7.46 
387.38 100.53 7.47 
385.78 100.79 7.55 
374.93 101.89 8.04 
389.75 113.06 9.31 
386.42 100.30 6.62 
367.04 100.68 7.10 
374.38 101.44 7.03 
374.81 101.09 6.97 
374.86 101.10 6.97 
375.44 101.88 7.07 
374.70 102.03 7.11 
380.69 95.46 6.85 
386.19 100.17 7.46 
385.38 100.52 7.54 
385.93 100.19 7.47 
385.59 100.61 7.55 
374.65 102.03 8.09 
374.91 102.15 8.10 
374.91 102.25 8.12 
387.83 101.00 6.68 
374.65 101.08 6.96 
373.62 101.49 7.04 
374.01 101.33 7.01 
374.25 101.82 7.07 
374.92 102.08 7.10 
375.15 102.95 7.21 
387.34 100.58 7.49 
387.58 100.80 7.52 
387.84 100.83 7.52 
374.52 101.60 8.03 
373.62 101.93 8.11 
373.87 102.19 8.14 
374.21 102.09 8.12 
374.67 102.11 8.10 
374.78 102.39 8.14 
374.95 102.72 8.19 
375.04 103.11 8.25 
387.44 100.26 6.61 
387.69 100.40 6.63 
387.94 100.35 6.62 
373.82 100.98 6.99 
387.88 101.96 6.84 
373.86 101.50 7.06 
374.23 101.44 7.05 
374.56 102.10 7.13 
375.16 102.87 7.22 
386.89 100.30 7.49 
386.93 100.34 7.50 
387.25 100.40 7.50 
387.68 100.81 7.56 
374.55 102.04 8.13 
373.71 102.28 8.20 
374.11 102.21 8.18 
374.78 102.35 8.18 
385.42 99.81 6.62 
385.77 99.85 6.62 
386.15 100.07 6.64 
386.66 100.00 6.63 
386.79 99.73 6.58 
387.19 100.01 6.62 
385.82 100.25 6.68 
386.07 100.15 6.66 
386.40 100.14 6.65 
386.84 100.34 6.67 
386.21 100.61 6.72 
373.49 101.28 7.08 
373.09 101.43 7.11 
373.77 101.40 7.09 
374.23 101.81 7.13 
374.41 102.15 7.18 
385.68 100.19 7.55 
386.11 100.15 7.53 
386.33 100.26 7.54 
386.85 100.30 7.54 
385.09 100.66 7.64 
385.40 100.56 7.62 
385.73 100.48 7.60 
386.52 100.56 7.59 
385.84 100.91 7.66 
385.51 99.66 6.64 
386.14 99.81 6.65 
386.48 100.03 6.68 
387.22 99.92 6.65 
386.71 100.15 6.69 
387.45 100.60 6.74 
374.04 101.22 7.10 
373.49 101.41 7.14 
374.21 102.01 7.20 
374.65 101.90 7.18 
385.06 100.22 7.63 
386.18 100.07 7.57 
386.73 100.09 7.56 
387.20 100.34 7.59 
385.37 100.42 7.65 
385.78 100.45 7.64 
386.91 100.40 7.60 
386.20 100.88 7.70 
385.33 99.63 6.64 
385.68 99.46 6.61 
385.89 99.57 6.63 
386.42 99.66 6.63 
385.96 99.83 6.66 
386.63 99.84 6.65 
386.83 100.09 6.68 
387.10 100.10 6.68 
373.81 100.97 7.06 
374.01 101.23 7.09 
386.82 101.76 6.91 
374.34 101.99 7.19 
374.41 102.93 7.32 
386.59 99.92 7.55 
384.82 100.18 7.64 
385.58 100.36 7.64 
384.99 100.49 7.68 
385.28 100.42 7.66 
385.64 100.63 7.69 
386.04 100.66 7.68 
386.58 100.76 7.68 
386.88 100.70 7.67 
387.12 100.84 7.68 
385.49 99.54 6.65 
385.87 99.67 6.66 
386.73 99.65 6.64 
386.10 99.83 6.68 
386.31 100.00 6.70 
387.13 100.11 6.70 
386.78 100.27 6.73 
384.50 100.82 6.84 
373.06 101.54 7.16 
386.94 101.40 6.88 
373.23 101.75 7.19 
373.71 101.64 7.17 
374.10 101.76 7.17 
374.41 102.33 7.25 
385.02 100.24 7.67 
385.13 100.71 7.74 
385.92 100.57 7.70 
385.37 100.83 7.76 
386.21 100.94 7.75 
384.96 99.33 6.67 
385.15 99.51 6.70 
385.95 99.65 6.70 
385.32 99.75 6.73 
385.58 99.81 6.73 
386.37 100.02 6.74 
386.47 100.49 6.81 
384.30 100.57 6.86 
386.46 101.24 6.91 
372.73 101.44 7.21 
373.40 101.58 7.21 
386.67 101.47 6.94 
373.62 101.83 7.24 
373.73 102.22 7.29 
385.02 100.33 7.74 
385.65 100.37 7.73 
385.17 100.66 7.79 
385.67 100.90 7.82 
386.19 99.48 6.72 
384.77 99.89 6.80 
385.08 99.89 6.80 
386.05 99.89 6.78 
384.11 100.31 6.87 
385.23 100.22 6.84 
385.51 100.27 6.84 
386.20 100.12 6.81 
386.49 100.24 6.82 
385.48 100.45 6.87 
385.95 100.77 6.90 
386.32 100.51 6.86 
373.20 101.71 7.27 
386.16 101.56 7.01 
384.57 100.97 7.91 
384.84 100.96 7.91 
384.72 99.91 6.82 
384.26 100.27 6.88 
384.79 99.91 6.82 
384.95 100.17 6.86 
385.37 100.18 6.85 
385.65 99.97 6.81 
386.11 100.29 6.85 
384.11 100.48 6.91 
386.01 100.61 6.90 
386.46 100.33 6.85 
385.56 100.77 6.93 
386.61 100.81 6.92 
385.15 100.74 7.89 
384.31 100.13 6.90 
383.67 100.62 6.97 
384.50 100.28 6.91 
385.06 100.45 6.93 
385.28 100.65 6.95 
385.58 100.70 6.95 
385.85 100.81 6.96 
386.19 100.83 6.96 
386.09 101.74 7.09 
384.81 100.82 7.97 
384.83 99.88 6.88 
385.20 99.84 6.87 
384.19 100.37 6.96 
385.19 100.43 6.95 
385.69 100.17 6.90 
385.98 100.25 6.91 
386.10 100.63 6.96 
386.53 100.45 6.93 
386.75 100.66 6.95 
385.14 100.55 7.96 
384.31 99.55 6.93 
385.01 99.56 6.92 
384.43 99.96 6.98 
385.17 99.96 6.97 
385.48 99.92 6.96 
384.98 100.14 7.00 
385.68 100.15 6.98 
385.87 100.41 7.02 
384.92 99.56 6.99 
385.41 99.80 7.02 
384.36 100.02 7.07 
384.65 100.42 7.11 
385.73 100.97 7.17 
386.36 100.63 7.11 
383.65 100.13 7.12 
384.11 100.14 7.11 
384.18 100.48 7.16 
385.20 100.38 7.13 
384.45 100.65 7.17 
385.67 100.61 7.15 
385.88 100.77 7.17 
385.12 99.74 7.10 
385.39 99.88 7.12 
384.33 100.28 7.19 
385.49 100.39 7.19 
385.79 100.41 7.19 
384.82 99.75 7.14 
383.83 100.02 7.19 
384.10 100.20 7.21 
384.12 100.09 7.26 
385.09 100.40 7.29 
