# .PCD v0.7 - Point Cloud Data file format
VERSION 0.7
FIELDS x y z
SIZE 4 4 4
TYPE F F F
COUNT 1 1 1
WIDTH 2517
HEIGHT 1
VIEWPOINT 0 0 0 1 0 0 0
POINTS 2517
DATA ascii
418.91 48.64 3.58 
421.56 48.02 3.32 
422.60 47.56 3.20 
423.29 48.57 3.25 
423.37 48.79 3.27 
427.26 48.67 3.58 
420.11 50.90 3.74 
437.62 47.14 3.35 
428.00 50.19 3.67 
428.08 50.41 3.68 
432.73 53.90 4.09 
433.07 54.18 4.08 
433.13 54.07 4.06 
433.07 54.31 4.10 
418.62 45.41 3.26 
423.41 46.30 3.73 
423.59 46.07 3.70 
423.64 48.60 3.92 
425.51 48.22 3.71 
425.82 48.49 3.70 
423.91 50.85 4.13 
424.16 51.87 4.22 
424.40 51.70 4.18 
424.21 52.18 4.25 
421.47 46.72 3.94 
420.74 47.27 4.06 
422.06 47.13 3.93 
422.82 46.67 3.81 
421.05 47.79 4.09 
421.22 47.62 4.05 
422.05 47.35 3.95 
420.90 47.98 4.12 
425.18 48.63 4.43 
424.71 49.71 4.60 
425.05 50.16 4.60 
424.59 51.25 4.77 
423.32 46.33 4.44 
423.18 46.69 4.49 
423.62 51.17 4.88 
423.63 51.33 4.90 
424.11 51.82 4.89 
421.35 48.02 4.83 
421.19 48.41 4.89 
421.23 48.75 4.92 
428.91 47.27 4.94 
429.52 47.29 4.85 
428.55 48.76 5.22 
416.69 50.82 5.68 
421.51 49.45 5.70 
421.78 49.21 5.64 
421.25 47.67 5.57 
423.99 47.21 5.84 
420.22 49.75 5.91 
420.09 49.95 5.95 
421.72 49.68 6.43 
419.45 49.90 6.83 
428.52 45.81 0.55 
424.05 48.40 0.80 
430.74 47.46 0.80 
430.14 48.25 0.65 
430.39 48.04 0.63 
427.27 49.24 0.96 
430.32 48.60 0.94 
430.46 48.49 0.93 
430.95 48.35 0.68 
426.65 49.98 1.04 
427.24 49.60 1.01 
427.48 49.52 1.00 
428.86 49.10 0.97 
429.88 49.03 0.75 
430.12 48.93 0.86 
430.65 48.87 0.74 
427.74 49.78 1.04 
427.83 49.95 1.06 
429.95 49.42 0.80 
430.24 49.26 0.90 
431.08 48.87 0.87 
427.29 50.50 1.12 
427.53 50.39 1.11 
427.97 50.17 1.09 
430.06 49.69 0.83 
430.40 49.48 0.81 
430.57 50.03 0.88 
427.23 51.55 1.25 
427.85 51.61 1.27 
427.95 51.57 1.27 
429.70 51.23 1.02 
427.87 51.85 1.30 
429.66 51.46 1.04 
429.85 51.76 1.08 
419.94 55.19 1.56 
420.75 55.02 1.55 
429.29 52.54 1.17 
429.44 52.20 1.13 
419.80 55.61 1.61 
419.82 55.40 1.58 
428.41 53.05 1.46 
419.68 55.95 1.65 
429.31 53.38 1.27 
433.71 53.65 1.63 
433.16 54.19 1.69 
433.33 54.20 1.70 
433.72 54.09 1.44 
432.80 54.89 1.77 
433.08 54.74 1.76 
432.90 55.02 1.79 
427.68 45.54 0.92 
427.50 45.85 0.96 
428.24 45.69 0.93 
428.31 46.53 1.03 
428.67 46.33 1.01 
428.39 47.28 1.12 
429.54 47.41 1.13 
422.10 49.65 1.43 
429.91 47.73 1.17 
430.54 47.73 1.17 
430.02 48.60 1.27 
430.50 48.44 1.25 
430.73 48.27 1.23 
437.68 46.20 1.16 
429.05 49.01 1.33 
429.75 48.74 1.29 
430.00 48.77 1.29 
437.56 46.55 1.21 
438.13 46.81 0.85 
438.27 46.49 1.00 
438.82 46.33 1.18 
428.24 49.64 1.40 
428.70 49.58 1.39 
429.80 49.33 1.36 
437.05 47.43 0.91 
437.22 47.24 1.09 
437.71 47.12 1.17 
438.03 46.93 0.86 
438.70 46.89 1.04 
428.84 49.93 1.44 
429.34 49.96 1.44 
430.13 49.66 1.40 
437.30 47.71 1.04 
427.49 50.73 1.54 
428.68 50.55 1.51 
429.33 50.29 1.48 
430.24 49.84 1.42 
439.47 47.26 1.28 
429.36 50.54 1.51 
438.27 48.19 1.39 
427.30 51.90 1.68 
427.00 52.61 1.77 
428.04 52.31 1.73 
428.04 52.14 1.70 
427.67 52.76 1.78 
428.11 52.50 1.75 
428.20 52.54 1.75 
421.28 55.16 2.10 
427.99 53.12 1.82 
419.96 55.89 2.20 
421.22 55.38 2.13 
421.59 55.18 2.10 
419.75 56.37 2.26 
434.81 52.13 1.86 
435.19 52.76 1.94 
433.37 53.71 1.87 
433.96 53.67 1.87 
434.55 53.43 2.02 
433.29 54.29 1.94 
433.77 53.96 1.90 
433.40 54.51 1.97 
434.35 54.16 2.11 
434.10 54.84 2.19 
434.59 54.57 2.15 
434.05 55.09 2.22 
416.74 48.54 1.51 
419.27 48.16 1.45 
419.54 48.04 1.44 
429.25 48.40 1.44 
437.40 46.15 1.16 
437.44 46.30 1.18 
438.63 46.04 1.53 
438.83 45.94 1.52 
429.52 48.86 1.50 
437.79 46.55 1.42 
438.28 46.66 1.60 
438.65 46.44 1.57 
438.96 46.35 1.55 
429.60 49.56 1.58 
436.27 47.55 1.32 
436.40 47.32 1.54 
437.46 47.34 1.51 
437.58 47.05 1.56 
437.98 46.94 1.46 
438.61 46.62 1.59 
429.02 49.87 1.62 
429.61 49.81 1.61 
430.17 49.43 1.56 
430.40 49.70 1.59 
436.60 47.72 1.74 
437.92 47.26 1.49 
437.57 47.90 1.57 
437.92 47.78 1.55 
438.10 47.65 1.70 
439.11 47.45 1.66 
439.27 47.60 1.67 
438.68 48.04 1.56 
439.10 47.85 1.70 
419.33 54.60 2.22 
418.72 55.41 2.32 
420.67 54.87 2.25 
419.78 55.25 2.30 
419.85 55.68 2.35 
432.83 52.33 1.89 
433.07 52.20 1.88 
434.60 52.10 2.12 
433.55 52.71 2.23 
434.59 52.52 2.24 
434.12 53.04 1.97 
434.27 53.18 2.12 
434.76 53.03 2.36 
434.22 53.44 2.29 
434.32 53.28 2.27 
432.72 54.09 2.41 
434.62 53.74 2.35 
432.56 54.80 2.51 
433.81 54.35 2.27 
434.55 53.97 2.35 
432.08 55.38 2.26 
432.36 55.17 2.24 
433.99 54.66 2.49 
434.44 54.39 2.52 
434.56 54.35 2.40 
432.17 55.55 2.61 
433.77 55.16 2.23 
434.28 55.04 2.49 
434.69 54.88 2.46 
434.14 55.30 2.52 
423.66 46.12 1.73 
423.79 46.62 1.79 
427.58 45.59 1.72 
427.46 46.29 1.80 
428.17 46.07 1.61 
428.67 45.73 1.71 
427.48 46.52 1.68 
424.19 47.77 1.91 
427.08 47.07 1.75 
427.73 46.99 1.72 
421.50 49.03 2.12 
423.45 48.73 2.04 
423.25 49.01 2.07 
428.54 47.34 1.89 
420.40 50.29 2.30 
429.63 48.15 1.95 
429.90 48.10 1.94 
430.05 48.47 1.90 
430.39 48.28 1.80 
436.32 46.80 1.65 
429.80 48.66 1.86 
430.25 48.94 1.88 
437.16 46.77 2.03 
428.73 49.37 2.11 
429.70 49.21 2.06 
429.96 49.28 1.92 
430.10 49.10 1.90 
427.61 50.39 2.12 
428.79 49.90 2.10 
430.03 49.74 1.97 
436.98 47.62 1.98 
437.31 47.64 1.96 
437.62 47.49 1.93 
427.62 50.57 2.14 
429.86 49.88 1.99 
430.03 50.08 2.01 
437.51 48.09 2.00 
429.65 50.52 2.07 
427.62 52.40 2.35 
420.99 55.53 2.92 
421.14 55.34 2.89 
432.82 52.14 2.31 
433.17 52.10 2.30 
420.06 56.07 3.01 
433.78 52.33 2.31 
434.47 52.20 2.59 
433.14 52.91 2.39 
433.66 52.62 2.51 
434.63 52.60 2.71 
433.16 53.03 2.76 
434.34 53.08 2.74 
432.52 53.94 2.52 
433.18 53.46 2.81 
433.68 53.69 2.64 
433.49 54.16 2.88 
433.65 53.80 2.83 
435.00 53.54 2.73 
435.18 53.55 2.78 
433.64 54.30 2.89 
433.87 54.42 2.54 
434.26 54.18 2.84 
433.03 54.76 2.97 
433.52 54.61 2.93 
434.13 54.63 2.96 
433.82 55.13 2.98 
433.95 54.92 2.97 
434.39 55.51 3.00 
427.70 45.67 2.22 
427.84 45.45 2.19 
428.73 45.54 2.15 
428.64 45.69 2.18 
428.74 45.57 2.16 
428.35 46.33 2.26 
418.94 49.59 2.26 
423.04 48.30 2.13 
427.70 46.87 2.34 
427.91 46.81 2.33 
428.27 46.65 2.29 
428.84 46.71 2.27 
416.60 50.36 2.41 
422.94 48.48 2.16 
418.13 50.48 2.38 
418.56 51.05 2.44 
427.07 49.30 2.64 
429.47 48.55 2.44 
418.77 51.75 2.64 
426.90 50.02 2.73 
427.94 49.64 2.63 
429.81 49.19 2.58 
430.19 49.20 2.57 
426.97 50.23 2.75 
429.64 49.80 2.57 
437.32 47.39 2.36 
426.69 51.13 2.87 
419.94 54.85 2.98 
418.93 55.89 3.02 
432.80 52.09 2.74 
434.33 51.64 2.62 
433.87 52.78 2.76 
434.14 52.63 3.13 
434.74 52.57 3.08 
434.29 53.44 3.22 
434.68 53.34 3.17 
433.52 54.06 2.92 
432.88 54.46 3.00 
433.89 54.14 2.91 
435.35 53.89 3.19 
421.98 45.60 2.49 
421.51 45.96 2.55 
421.93 45.80 2.51 
423.02 46.31 2.51 
423.18 46.81 2.56 
423.30 46.66 2.54 
428.42 45.52 2.29 
422.79 47.28 2.72 
423.31 47.28 2.60 
423.53 47.21 2.63 
423.81 47.00 2.55 
424.63 46.94 2.50 
427.30 46.15 2.40 
421.83 48.20 2.86 
423.32 47.70 2.68 
427.78 46.57 2.42 
429.00 45.99 2.31 
420.15 48.76 2.93 
424.02 48.09 2.66 
427.83 46.71 2.43 
419.60 49.59 3.05 
423.31 48.41 2.73 
420.92 49.54 2.97 
423.19 48.83 2.78 
423.52 49.06 2.79 
420.09 51.30 3.22 
421.61 51.25 3.14 
427.24 49.71 2.76 
437.24 47.18 2.85 
427.07 50.23 2.82 
420.03 55.02 3.67 
419.90 55.49 3.73 
432.72 52.66 3.24 
432.92 52.56 3.22 
433.96 52.10 3.10 
432.65 52.95 3.28 
433.97 52.48 3.12 
433.22 53.12 3.25 
433.04 53.80 3.35 
433.20 53.71 3.32 
434.06 53.43 3.23 
433.25 54.12 3.36 
433.80 53.84 3.29 
433.95 53.72 3.27 
432.89 54.69 3.47 
433.09 54.35 3.40 
432.95 54.94 3.48 
428.03 45.54 2.87 
428.43 45.39 2.79 
427.79 45.95 2.89 
428.06 46.02 2.87 
428.20 46.30 2.89 
426.13 47.02 3.17 
417.75 49.88 3.17 
426.49 47.58 3.14 
425.76 49.01 3.38 
425.27 49.53 3.44 
425.97 49.48 3.41 
418.18 51.87 3.38 
426.15 49.69 3.42 
426.17 50.07 3.46 
426.66 49.95 3.38 
427.35 49.66 3.30 
424.58 51.02 3.65 
427.69 49.97 3.34 
428.59 49.69 3.21 
427.22 50.57 3.41 
425.04 51.48 3.67 
427.59 51.11 3.44 
427.69 51.55 3.48 
419.65 54.79 3.71 
433.06 53.35 3.78 
433.45 53.92 3.81 
434.17 53.55 3.70 
422.01 45.51 3.25 
422.57 45.93 3.26 
421.13 46.70 3.44 
421.13 46.50 3.42 
422.66 46.14 3.27 
422.66 46.37 3.29 
422.37 47.12 3.39 
422.22 47.64 3.46 
422.84 47.58 3.41 
423.94 49.81 3.57 
423.99 50.27 3.63 
424.02 50.71 3.68 
427.73 50.03 3.93 
423.97 51.87 3.80 
433.68 53.48 4.21 
433.11 54.03 4.35 
433.43 53.61 4.26 
433.76 53.81 4.24 
433.30 54.18 4.34 
418.88 45.57 3.49 
419.06 48.70 3.80 
425.90 49.34 4.03 
427.24 49.60 3.93 
423.94 51.09 4.41 
426.66 50.87 4.09 
420.43 46.45 4.27 
423.18 45.99 3.97 
423.26 46.21 3.98 
421.19 47.25 4.27 
420.96 47.52 4.32 
421.13 47.82 4.34 
421.14 48.02 4.36 
423.54 46.67 4.73 
425.30 48.34 4.68 
429.52 47.30 4.61 
428.99 48.00 4.82 
424.73 50.68 4.98 
423.87 51.61 5.19 
421.57 48.06 5.09 
421.57 48.37 5.12 
420.64 48.80 5.28 
421.40 49.14 5.22 
421.54 49.61 5.26 
421.56 49.38 5.23 
428.66 47.95 5.34 
429.86 47.77 5.14 
423.49 46.35 5.45 
427.24 48.49 5.60 
428.14 49.01 5.65 
428.44 48.69 5.57 
427.53 49.98 5.84 
427.57 50.19 5.86 
428.02 50.60 5.82 
420.83 47.13 5.90 
420.95 47.58 5.92 
421.48 47.46 5.83 
420.23 49.84 6.25 
422.03 49.83 5.98 
421.76 46.32 6.47 
419.81 49.90 7.13 
416.61 48.08 0.71 
429.00 45.38 0.59 
424.85 47.92 0.84 
423.09 48.90 0.93 
423.62 48.82 0.93 
423.89 48.68 0.91 
430.89 46.98 0.83 
430.92 47.16 0.85 
430.89 47.84 0.93 
430.95 47.68 0.91 
431.49 47.73 0.93 
431.77 47.66 0.93 
430.70 48.28 0.99 
431.05 48.07 0.96 
430.56 48.84 1.05 
430.90 48.63 1.03 
431.26 48.52 1.02 
437.70 46.64 0.90 
438.31 46.33 0.87 
429.59 49.49 1.12 
429.85 49.40 1.11 
430.81 49.18 1.10 
436.76 47.38 0.75 
438.04 46.84 0.85 
427.81 50.27 1.18 
427.95 50.15 1.17 
429.34 49.77 1.15 
429.71 49.73 1.15 
430.75 49.42 1.13 
431.42 49.12 0.86 
436.87 47.46 0.99 
437.44 47.45 0.77 
437.70 47.20 0.91 
430.09 50.01 1.19 
437.40 47.88 0.93 
428.45 51.51 1.34 
428.42 51.85 1.38 
420.73 54.71 1.59 
420.31 55.19 1.64 
421.13 54.95 1.63 
421.94 54.59 1.60 
428.93 52.81 1.51 
428.64 53.25 1.56 
433.58 53.98 1.61 
433.89 54.07 1.75 
434.12 53.82 1.73 
434.80 53.53 1.70 
433.22 54.66 1.81 
434.36 54.19 1.78 
433.25 54.96 1.85 
428.04 45.75 1.06 
428.28 45.52 1.04 
423.71 47.57 1.30 
427.23 46.17 1.12 
422.37 49.18 1.49 
428.14 47.20 1.23 
423.94 48.92 1.46 
427.93 47.58 1.28 
429.37 47.32 1.24 
430.65 47.97 1.31 
429.45 48.63 1.39 
429.78 48.43 1.37 
429.89 48.34 1.36 
430.74 48.17 1.33 
429.37 49.00 1.44 
430.07 48.93 1.43 
428.95 49.69 1.52 
429.73 49.41 1.48 
437.72 47.03 1.17 
437.97 46.71 1.13 
438.78 46.78 0.93 
439.21 46.60 0.92 
427.44 50.42 1.61 
428.61 50.19 1.58 
429.01 49.86 1.54 
429.17 49.99 1.56 
430.22 49.68 1.51 
437.15 47.55 1.23 
437.74 47.17 1.18 
438.20 46.95 1.16 
438.93 47.03 0.97 
439.07 46.70 0.93 
427.48 50.91 1.67 
428.73 50.38 1.60 
436.16 48.10 1.30 
439.16 47.09 1.37 
440.05 47.06 1.36 
438.10 47.81 1.45 
427.95 52.00 1.80 
427.21 52.47 1.86 
427.92 52.29 1.84 
427.36 52.75 1.89 
428.03 52.96 1.92 
421.10 55.64 2.27 
433.51 53.24 1.92 
434.04 53.33 1.93 
432.78 54.03 2.02 
432.91 54.16 2.03 
433.60 53.85 1.99 
433.67 53.87 1.99 
434.14 53.69 1.97 
433.26 54.56 2.08 
433.60 54.23 2.04 
433.99 54.43 2.06 
433.00 55.03 2.14 
416.52 48.15 1.59 
428.82 45.33 1.21 
429.21 45.31 1.20 
423.78 47.19 1.44 
428.23 46.07 1.29 
428.57 46.03 1.29 
424.52 47.96 1.53 
424.52 48.32 1.57 
430.41 46.62 1.35 
430.96 47.43 1.44 
429.69 48.16 1.53 
437.98 45.71 1.21 
429.76 48.55 1.57 
430.12 48.14 1.52 
430.51 48.10 1.52 
430.70 48.01 1.51 
438.02 45.86 1.23 
438.47 46.32 1.51 
429.97 49.00 1.62 
430.29 49.28 1.65 
438.06 46.95 1.35 
438.84 46.28 1.68 
430.24 49.41 1.67 
430.88 49.26 1.65 
437.35 47.29 1.65 
437.78 47.32 1.40 
438.02 47.05 1.37 
439.19 46.79 1.72 
429.95 50.00 1.74 
436.52 47.87 1.73 
438.81 47.91 1.84 
439.02 47.86 1.66 
439.38 48.13 1.85 
428.57 51.75 1.95 
419.12 55.42 2.44 
421.42 54.82 2.35 
420.52 55.23 2.41 
421.26 55.03 2.38 
433.16 51.48 2.24 
433.93 52.22 1.98 
434.95 51.68 1.91 
433.68 52.59 2.35 
434.59 52.49 2.31 
434.44 52.85 2.36 
435.89 52.35 1.99 
433.65 53.53 2.30 
434.13 53.20 2.09 
435.10 53.26 2.10 
435.30 53.05 2.22 
435.83 52.82 2.04 
433.13 53.97 2.53 
433.54 53.80 2.50 
434.41 53.66 2.46 
435.37 53.23 2.38 
435.77 53.13 2.08 
433.49 54.34 2.57 
434.07 53.99 2.19 
434.59 54.07 2.50 
435.11 53.77 2.16 
432.62 55.08 2.68 
432.89 55.11 2.33 
434.48 54.55 2.25 
435.22 54.40 2.23 
434.15 55.15 2.49 
434.64 54.84 2.44 
423.75 45.90 1.86 
427.37 45.39 1.71 
423.99 46.73 1.95 
427.35 45.73 1.75 
428.24 45.57 1.71 
428.76 45.46 1.83 
423.95 47.05 1.99 
427.44 46.14 1.79 
428.07 46.12 1.85 
428.80 45.67 1.86 
423.08 47.83 2.10 
428.39 46.81 1.84 
422.78 48.70 2.21 
423.71 48.59 2.17 
423.23 49.07 2.24 
428.72 47.95 2.10 
430.02 48.05 2.08 
429.62 48.52 2.00 
429.89 48.86 2.03 
429.87 49.25 2.14 
430.26 48.86 2.16 
437.84 46.71 1.74 
427.35 50.38 2.41 
428.86 49.98 2.18 
429.33 49.80 2.29 
429.52 49.60 2.12 
430.07 49.37 2.15 
437.31 47.23 2.09 
437.96 47.06 1.77 
438.96 46.87 2.12 
429.03 50.16 2.20 
436.94 47.81 1.88 
437.60 48.00 2.16 
421.19 55.58 3.07 
434.01 51.91 2.39 
434.92 51.87 2.36 
435.35 53.13 2.49 
434.91 53.30 2.88 
433.49 54.14 2.66 
435.47 53.73 2.56 
434.25 54.51 2.68 
434.39 54.63 2.69 
435.24 54.46 2.65 
421.68 45.48 1.88 
416.64 48.36 2.48 
418.72 49.23 2.38 
423.77 47.81 2.22 
422.43 48.32 2.31 
428.72 46.41 2.43 
420.17 50.28 2.47 
437.39 46.28 2.14 
437.88 46.90 2.17 
438.51 46.44 2.10 
429.53 49.44 2.72 
437.25 47.28 2.56 
437.19 47.82 2.61 
437.43 47.51 2.56 
420.29 54.57 3.09 
420.65 55.34 3.06 
434.13 51.91 2.76 
433.13 52.75 2.91 
434.50 52.25 2.85 
435.08 52.27 2.83 
432.47 53.43 3.03 
432.62 53.13 2.98 
434.02 53.46 2.95 
434.90 52.98 2.91 
432.64 54.01 3.14 
433.44 53.84 3.02 
433.96 53.58 2.97 
433.12 54.28 3.12 
433.98 54.02 3.02 
433.77 54.63 3.10 
434.60 54.47 3.04 
434.93 54.38 3.07 
434.12 54.89 3.14 
434.89 54.63 3.10 
421.81 46.51 2.79 
421.96 46.79 2.81 
423.17 46.57 2.73 
423.11 46.95 2.77 
427.59 45.69 2.41 
423.17 47.39 2.82 
427.53 45.92 2.44 
428.15 45.97 2.42 
428.52 45.78 2.49 
428.88 45.64 2.46 
421.87 48.24 2.98 
423.68 47.82 2.84 
427.29 46.44 2.51 
423.36 48.01 2.88 
427.65 46.86 2.53 
428.51 46.56 2.46 
427.57 47.13 2.57 
421.69 50.07 3.19 
426.52 49.03 2.91 
428.05 48.45 2.78 
426.34 49.45 2.97 
427.58 49.55 2.83 
427.33 49.90 2.96 
427.79 49.85 2.85 
426.24 50.58 3.02 
438.00 46.98 2.58 
438.04 47.25 2.60 
425.87 51.52 3.21 
428.06 53.11 3.28 
433.43 52.25 3.37 
433.20 52.79 3.44 
433.58 52.47 3.37 
433.96 52.35 3.33 
433.24 53.16 3.48 
433.71 52.93 3.42 
433.84 52.66 3.38 
433.52 53.56 3.51 
433.57 53.46 3.49 
434.74 53.16 3.37 
433.73 53.82 3.52 
433.61 54.19 3.57 
433.76 53.97 3.54 
432.94 54.86 3.71 
433.19 54.58 3.64 
433.85 54.37 3.57 
434.39 54.28 3.53 
422.87 45.36 2.72 
422.55 45.99 2.80 
428.07 45.57 3.05 
427.99 45.86 3.09 
417.62 49.91 3.39 
420.42 49.48 3.19 
420.04 50.19 3.29 
417.91 51.23 3.52 
418.03 51.40 3.54 
427.85 49.32 3.45 
418.17 52.58 3.67 
426.30 50.10 3.65 
426.78 49.89 3.62 
427.58 49.83 3.53 
427.01 50.33 3.65 
428.29 49.90 3.51 
437.16 47.37 3.02 
437.65 47.08 3.02 
427.29 50.82 3.66 
427.75 50.68 3.63 
427.16 50.97 3.69 
428.07 50.86 3.60 
426.45 51.74 3.83 
426.78 52.74 3.92 
432.72 53.16 4.06 
433.82 53.28 3.93 
434.35 53.19 3.84 
432.82 53.93 4.14 
432.88 53.96 4.14 
433.56 53.89 3.99 
433.69 53.75 3.96 
433.20 54.70 4.20 
423.42 46.06 3.49 
422.27 46.77 3.60 
422.75 46.53 3.54 
422.29 47.15 3.64 
422.09 47.45 3.68 
424.82 47.11 3.44 
426.56 46.73 3.28 
423.55 48.43 3.68 
426.26 48.46 3.48 
423.93 50.00 3.82 
426.03 49.84 3.64 
424.61 51.03 3.88 
425.17 52.16 3.97 
425.42 52.88 4.04 
420.93 46.75 3.69 
420.97 46.55 3.67 
418.76 48.70 4.06 
427.46 49.58 4.17 
426.98 50.28 4.30 
426.03 52.62 4.66 
433.26 53.37 4.55 
423.68 45.97 4.19 
423.20 46.41 4.27 
423.75 46.24 4.20 
423.18 46.64 4.29 
421.81 47.47 4.50 
424.19 47.76 4.31 
429.50 47.46 4.35 
423.88 51.24 4.71 
424.11 51.60 4.73 
424.47 51.93 4.73 
420.77 47.65 4.63 
421.02 47.20 4.56 
420.72 47.87 4.66 
421.08 47.67 4.60 
420.98 48.40 4.69 
420.81 48.60 4.72 
423.71 46.62 5.01 
424.28 46.55 4.89 
416.59 49.89 5.28 
421.84 48.88 5.45 
421.88 49.04 5.47 
421.59 49.56 5.56 
428.88 47.32 5.02 
428.59 49.20 5.32 
425.06 47.11 5.63 
420.54 49.19 5.65 
420.37 49.67 5.72 
421.26 50.00 5.64 
429.91 48.04 5.50 
428.95 48.66 5.86 
428.66 49.71 6.00 
429.09 49.55 5.74 
428.93 51.60 6.15 
423.19 45.69 5.77 
428.36 49.13 6.00 
428.42 49.49 6.02 
428.19 50.60 6.17 
428.22 50.79 6.19 
421.62 46.91 6.11 
426.31 45.86 6.06 
419.80 48.27 6.50 
425.31 46.65 6.29 
425.26 47.33 6.36 
419.87 49.77 6.64 
422.41 49.27 7.02 
419.11 49.88 7.42 
419.10 50.08 7.44 
416.61 47.95 0.76 
428.60 45.40 0.65 
429.01 45.39 0.66 
423.63 48.78 0.98 
430.58 46.93 0.88 
430.67 47.20 0.91 
430.74 47.68 0.97 
431.04 47.51 0.96 
430.89 48.18 1.04 
430.89 48.00 1.02 
428.98 48.88 1.09 
430.29 48.62 1.08 
430.92 48.46 1.07 
429.81 49.29 1.16 
430.63 48.99 1.13 
428.06 50.06 1.22 
429.16 49.85 1.21 
429.89 49.60 1.20 
430.70 49.20 1.16 
437.42 47.30 0.93 
437.92 47.04 0.90 
438.08 46.86 1.00 
438.89 46.51 0.97 
439.27 46.48 0.97 
429.90 49.85 1.23 
436.92 47.55 1.06 
439.37 46.90 1.02 
427.71 51.22 1.36 
428.39 51.36 1.38 
427.83 51.99 1.45 
428.38 51.92 1.45 
428.22 52.23 1.49 
428.57 52.46 1.52 
428.58 53.36 1.63 
434.66 52.75 1.67 
434.04 53.33 1.73 
433.48 53.82 1.65 
434.13 54.21 1.83 
434.17 53.99 1.81 
434.97 53.72 1.79 
433.24 55.00 1.91 
426.71 45.65 1.15 
427.38 46.22 1.21 
427.73 46.12 1.20 
428.08 46.59 1.25 
428.17 47.14 1.31 
429.46 47.22 1.32 
429.99 48.02 1.41 
429.23 48.58 1.48 
429.69 48.31 1.44 
429.91 48.18 1.43 
430.15 48.02 1.41 
431.00 48.02 1.40 
427.26 49.78 1.63 
428.38 49.32 1.57 
429.38 49.02 1.53 
430.26 48.60 1.47 
437.31 46.39 1.18 
428.99 49.56 1.59 
429.96 48.93 1.51 
438.12 46.52 1.19 
426.94 50.34 1.70 
427.32 50.58 1.72 
428.81 49.92 1.64 
429.08 49.76 1.62 
430.17 49.43 1.57 
437.43 47.31 1.29 
429.13 50.35 1.69 
437.55 47.49 1.31 
439.10 47.47 1.49 
439.14 47.38 1.48 
427.32 51.80 1.87 
438.10 48.32 1.40 
427.88 52.02 1.89 
427.59 52.44 1.95 
427.98 52.42 1.94 
428.15 52.22 1.92 
433.35 52.73 1.95 
433.52 52.86 1.96 
432.95 53.68 2.06 
433.65 53.50 2.04 
434.04 53.34 2.02 
434.58 53.21 2.00 
432.52 54.02 2.11 
433.58 53.82 2.08 
434.58 54.10 2.11 
433.58 54.64 2.18 
434.52 54.33 2.13 
419.44 48.10 1.66 
419.50 48.36 1.69 
427.96 45.47 1.31 
428.51 45.44 1.31 
428.26 46.00 1.37 
429.29 45.36 1.29 
422.10 48.23 1.66 
428.21 46.36 1.41 
428.76 47.15 1.50 
430.49 46.66 1.44 
420.05 50.50 1.75 
430.59 48.50 1.65 
429.30 49.25 1.74 
430.74 48.76 1.68 
436.81 46.80 1.43 
437.41 46.84 1.43 
438.62 46.33 1.37 
430.42 49.17 1.73 
437.52 47.19 1.47 
437.73 46.84 1.43 
438.44 46.81 1.42 
437.27 47.47 1.50 
437.53 48.18 1.58 
437.85 48.37 1.86 
419.36 54.52 2.42 
420.98 54.81 2.45 
433.60 52.20 2.42 
434.24 52.14 2.06 
433.64 52.81 2.50 
434.03 52.95 2.15 
434.41 52.61 2.11 
435.01 52.43 2.09 
433.63 53.38 2.56 
434.25 53.20 2.18 
433.60 53.77 2.61 
433.75 53.60 2.59 
434.29 53.69 2.24 
434.80 53.43 2.54 
434.33 53.99 2.45 
434.70 54.20 2.47 
435.20 54.07 2.28 
432.83 55.16 2.42 
434.77 54.65 2.69 
435.07 54.84 2.37 
423.86 46.29 2.02 
424.12 46.78 2.07 
424.20 46.56 2.04 
428.29 45.55 1.81 
422.73 47.72 2.22 
423.66 47.20 2.13 
427.47 45.99 1.89 
428.05 45.89 1.86 
428.21 45.71 1.83 
424.41 47.56 2.15 
428.13 46.35 1.91 
428.37 46.15 2.03 
428.60 46.03 2.01 
423.86 48.16 2.23 
428.50 46.55 1.97 
424.15 48.40 2.25 
428.52 46.83 1.95 
422.30 49.33 2.41 
430.05 47.94 2.18 
428.37 48.63 2.16 
429.58 48.32 2.09 
429.51 48.60 2.12 
437.90 46.18 1.79 
429.74 49.23 2.19 
430.14 48.84 2.27 
438.88 46.01 1.75 
428.88 49.89 2.29 
429.43 49.66 2.25 
429.78 49.43 2.21 
438.07 46.99 1.87 
428.88 50.21 2.33 
429.80 49.97 2.27 
438.06 47.43 1.91 
437.68 47.64 1.94 
437.67 48.39 2.33 
433.12 51.57 2.49 
434.23 51.52 2.46 
433.13 52.34 2.45 
433.99 52.04 2.52 
435.04 51.58 2.44 
433.19 52.65 2.49 
434.68 52.73 2.58 
433.51 53.86 2.75 
435.57 53.65 2.66 
434.22 54.47 2.80 
435.07 53.88 2.70 
434.92 54.85 2.82 
421.73 45.47 1.99 
421.56 45.79 2.03 
424.62 45.87 2.10 
424.48 46.05 2.12 
424.87 45.99 2.11 
419.84 48.10 2.48 
418.38 49.10 2.63 
418.52 49.50 2.54 
418.22 49.97 2.60 
424.47 47.84 2.32 
419.94 49.72 2.59 
421.21 49.37 2.58 
417.52 50.99 2.75 
418.34 50.78 2.70 
419.75 50.38 2.61 
418.31 51.30 2.76 
437.87 46.86 2.29 
438.14 47.99 2.38 
419.93 54.89 3.26 
420.55 55.44 3.19 
420.93 55.37 3.17 
432.75 52.24 3.02 
433.24 52.02 3.03 
432.93 52.58 3.05 
432.73 53.07 3.11 
434.97 52.45 2.99 
433.32 53.26 3.11 
433.89 53.00 3.11 
434.95 52.86 3.04 
434.97 52.61 3.01 
433.49 53.71 3.15 
433.24 54.36 3.25 
433.60 54.06 3.21 
434.10 53.99 3.21 
434.29 53.87 3.19 
433.18 54.53 3.27 
433.54 54.69 3.27 
434.86 54.12 3.13 
433.70 54.90 3.29 
423.25 46.53 2.86 
427.47 45.70 2.56 
422.72 47.63 3.01 
423.35 47.26 2.94 
423.49 47.09 2.91 
428.34 45.76 2.58 
422.98 47.95 3.03 
428.70 46.22 2.55 
426.25 47.21 2.88 
428.60 46.36 2.57 
423.19 48.41 3.07 
423.84 49.66 3.18 
426.11 48.88 3.06 
423.99 50.16 3.23 
424.00 49.90 3.20 
424.99 49.59 3.11 
426.54 49.33 3.00 
428.24 48.60 2.92 
426.14 49.68 3.06 
427.02 49.47 3.08 
424.92 50.44 3.29 
427.29 49.72 3.09 
437.82 46.94 2.73 
427.80 50.45 3.14 
437.26 47.55 2.74 
437.48 47.45 2.71 
438.30 47.04 2.71 
437.44 47.72 2.74 
427.01 54.08 3.54 
432.93 52.61 3.61 
433.49 52.21 3.52 
433.01 53.17 3.67 
433.45 53.36 3.66 
433.41 53.72 3.71 
434.27 53.48 3.61 
434.53 53.20 3.56 
433.85 53.98 3.71 
432.81 54.85 3.90 
433.26 54.49 3.82 
433.15 54.80 3.86 
422.22 45.63 2.82 
422.99 45.36 2.85 
421.40 46.21 2.92 
422.23 45.84 2.84 
421.34 46.66 2.97 
421.93 46.54 2.93 
422.25 47.35 3.00 
422.51 47.63 3.02 
421.72 48.60 3.17 
423.93 48.07 3.08 
419.81 50.04 3.43 
418.07 51.23 3.66 
418.14 51.46 3.69 
421.16 50.60 3.43 
418.16 51.91 3.74 
421.30 50.90 3.46 
427.95 49.25 3.61 
427.96 49.41 3.62 
427.62 50.08 3.72 
427.97 50.42 3.73 
428.41 50.11 3.69 
437.12 47.44 3.21 
427.91 50.61 3.76 
433.67 53.13 4.10 
434.16 53.36 4.08 
433.78 53.77 4.23 
422.90 46.42 3.68 
422.86 47.57 3.81 
428.03 45.74 3.23 
428.04 45.54 3.21 
424.12 50.50 4.04 
426.71 49.67 3.75 
427.11 49.54 3.70 
423.97 50.74 4.07 
426.38 50.30 3.84 
424.02 51.63 4.17 
424.58 51.43 4.11 
427.16 50.60 3.83 
424.22 52.09 4.21 
426.34 53.02 4.16 
433.47 53.53 4.23 
433.64 53.59 4.22 
420.87 46.52 3.84 
420.91 46.76 3.87 
421.48 46.62 3.85 
422.79 46.15 3.66 
423.51 46.09 3.65 
423.57 45.87 3.63 
422.70 46.67 3.74 
421.12 47.58 3.94 
421.24 47.44 3.91 
421.57 47.37 3.92 
422.06 47.24 3.83 
423.23 46.36 4.45 
423.79 46.29 4.39 
423.30 46.61 4.47 
424.66 48.33 4.50 
429.42 47.64 4.59 
424.67 49.59 4.65 
425.00 50.09 4.67 
424.66 50.47 4.75 
425.15 50.32 4.68 
424.38 50.93 4.83 
424.58 51.17 4.83 
424.20 51.78 4.94 
420.69 48.14 4.89 
421.28 47.72 4.78 
420.68 48.18 4.89 
421.29 47.97 4.81 
421.20 48.58 4.88 
424.00 46.75 5.20 
416.67 50.38 5.53 
428.28 48.07 5.50 
429.77 47.95 5.28 
428.21 50.65 5.78 
421.34 47.64 5.61 
420.18 48.52 5.85 
421.78 48.80 5.68 
420.31 49.62 5.95 
421.57 49.42 5.77 
421.83 49.20 5.72 
429.26 49.51 5.98 
428.58 49.40 6.27 
428.97 49.65 6.23 
428.87 51.57 6.45 
425.82 45.76 6.40 
425.82 46.23 6.44 
425.28 48.00 6.69 
425.55 48.35 6.68 
425.54 48.57 6.70 
424.91 46.49 6.62 
419.52 49.75 6.95 
421.00 46.69 7.29 
419.36 45.60 7.47 
418.86 50.05 7.88 
418.38 50.46 8.12 
418.60 50.35 7.84 
428.94 45.45 0.76 
428.86 46.05 0.83 
422.66 48.79 1.06 
424.66 47.86 0.98 
429.84 46.03 0.84 
423.65 48.76 1.08 
430.56 47.04 0.98 
430.06 47.83 1.07 
430.77 47.49 1.04 
431.16 47.43 1.04 
430.10 48.04 1.10 
430.63 47.82 1.08 
431.03 47.76 1.08 
429.18 48.93 1.19 
430.36 48.58 1.17 
430.79 48.42 1.16 
427.77 50.03 1.30 
429.59 49.23 1.24 
430.66 48.97 1.22 
427.80 50.19 1.32 
429.50 49.77 1.30 
429.89 49.58 1.28 
430.59 49.10 1.24 
430.86 48.99 1.23 
437.83 46.94 1.09 
438.10 46.80 1.08 
429.03 50.05 1.33 
436.83 47.69 1.17 
437.21 47.34 1.13 
437.84 47.18 1.12 
427.81 51.38 1.47 
428.33 51.49 1.49 
428.38 51.88 1.54 
428.17 52.43 1.60 
435.28 52.21 1.70 
433.56 53.17 1.79 
434.04 53.35 1.81 
433.61 53.86 1.62 
434.25 53.52 1.84 
433.61 54.00 1.64 
435.02 53.74 1.88 
434.22 54.34 1.94 
434.91 54.13 1.93 
434.97 53.94 1.90 
434.38 54.72 1.99 
427.34 45.71 1.27 
427.72 46.11 1.31 
428.02 46.70 1.38 
428.13 47.22 1.44 
429.50 47.18 1.43 
428.91 48.71 1.61 
429.50 48.43 1.57 
429.77 48.25 1.55 
429.98 48.07 1.53 
428.40 49.31 1.68 
429.50 48.80 1.62 
430.21 48.50 1.58 
426.98 50.22 1.80 
428.96 49.54 1.71 
427.48 50.47 1.83 
428.78 49.71 1.73 
428.82 49.75 1.73 
430.27 49.38 1.68 
429.11 50.10 1.78 
429.79 50.01 1.76 
437.43 47.36 1.40 
429.30 50.36 1.80 
427.29 51.70 1.98 
427.84 51.91 2.00 
438.13 48.43 1.52 
427.44 52.57 2.08 
427.96 52.34 2.05 
427.93 52.12 2.02 
433.79 52.54 2.04 
434.45 52.73 2.06 
433.84 53.14 2.11 
433.61 53.65 2.17 
432.85 54.47 2.28 
433.79 53.96 2.21 
433.69 54.56 2.28 
434.52 54.32 2.25 
434.59 54.18 2.23 
433.74 55.21 2.36 
427.68 45.52 1.44 
427.98 45.42 1.42 
416.84 49.59 1.97 
427.97 45.80 1.47 
428.27 46.25 1.52 
420.34 49.38 1.93 
420.74 49.68 1.96 
430.39 47.65 1.67 
430.74 47.35 1.63 
430.67 48.12 1.72 
429.25 48.64 1.79 
430.45 48.24 1.74 
436.97 46.74 1.53 
437.24 46.59 1.51 
438.19 46.62 1.79 
438.81 46.37 1.75 
430.18 49.80 1.92 
437.35 47.69 1.64 
438.03 47.56 1.62 
438.48 47.31 1.59 
439.28 47.42 1.59 
439.18 47.81 1.64 
421.72 54.85 2.57 
420.06 56.04 2.72 
434.17 52.99 2.27 
434.88 52.63 2.23 
435.27 52.83 2.25 
433.31 53.81 2.37 
434.62 53.24 2.30 
434.86 53.13 2.64 
433.37 54.09 2.41 
434.60 53.88 2.38 
435.32 53.60 2.34 
434.76 54.06 2.58 
434.93 53.93 2.74 
432.72 55.15 2.54 
424.17 46.71 2.20 
428.92 45.57 2.09 
429.33 45.48 2.07 
423.67 47.93 2.36 
428.65 46.03 2.12 
428.79 45.82 2.12 
429.14 45.78 2.11 
423.91 48.20 2.38 
424.02 48.73 2.44 
428.35 47.85 2.21 
429.70 48.35 2.23 
429.83 48.58 2.25 
427.10 49.86 2.61 
428.46 49.38 2.52 
429.62 48.97 2.30 
430.30 48.66 2.25 
429.48 49.52 2.37 
429.69 49.35 2.35 
430.05 49.19 2.32 
430.79 48.98 2.41 
436.71 47.19 2.05 
437.38 46.82 2.00 
427.90 50.61 2.68 
437.53 47.26 2.04 
438.33 46.90 1.98 
438.15 47.28 2.02 
433.58 52.34 2.58 
434.46 52.49 2.58 
433.43 53.35 2.71 
433.86 53.03 2.78 
434.49 53.00 2.64 
435.26 52.47 2.68 
433.44 53.76 2.76 
433.93 53.57 2.78 
434.27 53.49 2.70 
433.80 53.98 2.78 
434.05 54.27 2.84 
435.58 53.63 2.80 
434.18 54.53 2.95 
434.51 54.69 2.96 
423.56 45.64 2.25 
423.73 45.98 2.28 
424.28 46.34 2.30 
419.81 48.17 2.63 
425.65 46.32 2.26 
420.75 48.15 2.60 
426.67 46.29 2.23 
418.47 49.59 2.70 
427.89 46.15 2.18 
421.44 49.04 2.68 
420.34 49.58 2.65 
422.74 48.82 2.49 
419.85 50.23 2.74 
422.27 49.27 2.55 
423.09 49.10 2.51 
420.52 50.60 2.89 
420.84 50.39 2.73 
422.10 50.07 2.78 
420.39 50.83 2.92 
419.67 51.63 2.91 
437.79 46.32 2.26 
426.87 50.23 2.66 
437.87 46.80 2.43 
437.46 47.33 2.50 
437.93 46.97 2.45 
420.24 54.49 3.35 
420.04 54.69 3.38 
432.94 52.39 3.26 
433.45 52.33 3.23 
434.12 52.10 3.17 
434.40 51.84 3.12 
433.50 52.79 3.21 
433.04 53.30 3.30 
433.22 53.13 3.27 
433.46 53.58 3.34 
433.74 53.52 3.29 
434.40 53.40 3.24 
435.18 53.00 3.21 
433.84 53.86 3.38 
433.30 54.59 3.49 
433.59 54.32 3.45 
434.17 54.06 3.33 
435.22 53.84 3.25 
434.09 54.56 3.40 
435.26 54.15 3.29 
428.20 45.74 2.80 
428.61 45.47 2.75 
428.82 45.59 2.75 
426.67 46.78 2.98 
427.59 46.24 2.78 
428.71 45.72 2.77 
426.55 46.92 3.00 
423.53 49.02 3.30 
423.79 49.29 3.31 
423.88 49.65 3.35 
424.88 49.43 3.27 
423.99 50.02 3.39 
426.75 49.09 3.22 
424.04 50.37 3.43 
428.05 49.10 3.15 
428.52 48.93 3.11 
424.98 50.49 3.46 
429.08 49.04 3.09 
426.91 50.16 3.33 
428.38 49.85 3.22 
427.68 50.50 3.32 
437.44 47.00 2.93 
437.77 47.01 2.91 
426.65 51.34 3.47 
437.82 47.59 2.96 
437.41 47.82 2.94 
437.68 48.03 2.94 
425.58 52.62 3.61 
427.07 51.78 3.43 
425.71 52.81 3.63 
427.44 52.16 3.46 
433.32 52.90 3.82 
433.37 53.74 3.92 
434.76 53.19 3.74 
433.58 53.88 3.91 
434.29 53.51 3.82 
418.78 45.51 3.15 
423.06 45.40 3.02 
421.38 46.28 3.10 
422.28 45.89 3.01 
423.16 45.68 3.04 
423.19 45.49 3.02 
421.85 46.57 3.11 
423.32 46.37 3.01 
422.13 47.25 3.22 
423.30 47.30 3.12 
423.49 47.13 3.09 
423.05 48.05 3.21 
423.24 48.32 3.23 
423.26 48.52 3.25 
423.43 48.78 3.28 
417.69 51.48 3.89 
420.07 51.28 3.74 
433.09 52.83 3.83 
433.16 53.97 3.96 
428.03 45.43 3.39 
428.11 45.62 3.41 
424.13 48.21 4.01 
427.03 49.13 3.86 
423.93 50.44 4.25 
426.21 49.44 3.96 
424.37 50.76 4.26 
428.04 49.51 3.85 
423.71 51.32 4.37 
423.97 51.14 4.32 
424.62 50.98 4.27 
426.43 50.45 4.06 
427.63 50.05 3.92 
424.49 51.58 4.34 
427.27 50.56 4.02 
427.76 50.23 3.93 
427.86 50.27 3.93 
423.97 52.03 4.43 
424.24 51.81 4.38 
424.22 52.51 4.47 
425.72 52.33 4.33 
426.44 53.38 4.40 
433.65 53.14 4.33 
433.90 53.02 4.29 
433.31 53.34 4.45 
433.75 53.66 4.45 
420.46 46.51 4.07 
420.93 46.90 4.08 
422.90 46.21 3.86 
423.64 45.99 3.83 
421.43 47.06 4.08 
423.58 46.21 3.85 
421.17 47.50 4.13 
422.12 47.30 4.03 
423.65 48.52 4.05 
425.21 50.40 4.91 
424.05 51.49 5.16 
424.17 51.95 5.20 
424.22 51.75 5.17 
424.05 46.17 4.58 
421.31 47.86 5.02 
421.34 48.25 5.06 
422.10 48.14 4.95 
421.16 48.65 5.11 
421.30 49.00 5.15 
421.86 49.07 5.07 
422.00 49.33 5.08 
428.11 49.62 5.16 
424.35 46.97 5.43 
416.79 50.44 5.76 
430.12 47.76 5.38 
429.22 49.32 5.77 
420.93 47.18 5.87 
423.53 46.35 5.47 
421.39 47.51 5.85 
421.69 48.56 5.92 
421.91 49.21 5.96 
421.89 49.51 6.00 
428.82 48.09 5.70 
428.34 50.78 6.06 
420.13 48.43 6.10 
425.27 46.81 6.09 
420.25 49.75 6.23 
426.49 46.36 6.50 
422.10 48.94 6.63 
425.74 47.89 6.73 
422.04 49.51 6.84 
426.25 49.38 6.97 
426.91 50.31 6.96 
419.31 49.86 7.28 
425.25 48.35 7.03 
425.26 48.58 7.06 
423.57 45.98 7.09 
423.49 47.42 7.24 
421.07 46.50 7.57 
418.54 50.26 8.16 
419.03 50.06 8.06 
418.06 50.98 8.31 
419.27 45.70 7.79 
419.25 45.93 7.82 
417.94 50.71 8.54 
418.14 50.48 8.48 
427.83 45.38 0.72 
428.97 45.32 0.73 
424.59 47.87 0.96 
429.85 46.12 0.85 
430.04 47.69 1.04 
430.67 47.53 1.04 
431.12 47.25 1.01 
431.22 47.25 1.01 
430.34 47.89 1.07 
431.92 47.30 1.03 
429.76 48.81 1.18 
430.16 48.33 1.12 
430.43 48.58 1.16 
430.79 48.29 1.13 
428.09 49.69 1.25 
429.83 49.04 1.21 
427.78 50.04 1.29 
429.23 49.68 1.27 
429.85 49.60 1.27 
429.94 49.34 1.24 
430.89 48.88 1.21 
437.12 47.21 1.12 
437.69 46.98 1.10 
438.06 46.91 1.10 
437.02 47.56 1.16 
437.49 47.35 0.91 
428.34 51.36 1.46 
428.40 51.53 1.48 
428.74 53.17 1.69 
433.87 52.34 1.69 
433.64 52.82 1.74 
433.34 53.42 1.81 
434.07 53.18 1.79 
433.56 53.75 1.85 
433.24 53.93 1.86 
435.45 53.43 1.85 
434.22 54.41 1.94 
434.27 54.13 1.91 
435.00 53.97 1.90 
427.56 46.64 1.38 
428.31 46.98 1.42 
429.55 48.44 1.59 
430.00 47.92 1.53 
429.42 48.74 1.63 
430.08 48.38 1.58 
430.39 48.30 1.57 
427.16 49.88 1.77 
428.58 49.47 1.71 
429.11 49.80 1.75 
430.43 49.21 1.68 
438.21 46.46 1.32 
429.14 50.13 1.79 
429.85 49.89 1.76 
437.73 47.14 1.40 
429.37 50.44 1.83 
437.50 47.56 1.46 
427.29 51.64 1.98 
438.20 47.68 1.47 
427.84 51.89 2.01 
427.81 52.34 2.06 
428.00 52.16 2.04 
433.89 53.11 2.13 
434.38 52.88 2.10 
433.60 53.56 2.19 
434.11 53.27 2.15 
432.86 54.28 2.27 
433.81 53.91 2.23 
433.75 54.54 2.30 
434.98 53.90 2.22 
433.68 54.79 2.33 
434.53 54.30 2.27 
419.31 48.41 1.81 
427.90 45.45 1.44 
418.75 49.13 1.90 
428.02 45.82 1.48 
420.44 49.17 1.90 
427.83 46.30 1.53 
428.40 46.26 1.53 
423.73 48.28 1.78 
423.86 48.02 1.75 
420.69 49.68 1.96 
423.89 48.73 1.65 
430.34 47.64 1.68 
430.87 47.25 1.63 
430.52 48.30 1.76 
438.27 45.93 1.46 
429.60 49.42 1.89 
437.25 46.79 1.89 
437.17 47.29 1.62 
437.25 47.50 1.64 
437.98 47.48 1.64 
420.26 54.25 2.50 
438.49 47.36 1.62 
439.55 46.97 1.57 
439.19 47.94 1.69 
420.62 55.28 2.44 
420.88 55.46 2.65 
434.11 51.79 2.15 
434.34 52.16 2.20 
434.99 52.09 2.19 
435.45 52.57 2.24 
434.73 53.10 2.31 
435.31 53.00 2.29 
435.45 52.71 2.26 
433.33 54.15 2.44 
434.66 53.71 2.38 
435.44 53.48 2.35 
434.68 53.88 2.40 
432.77 55.09 2.55 
429.32 45.85 2.15 
428.33 47.56 2.22 
429.79 48.39 2.27 
429.86 48.77 2.32 
430.30 48.65 2.43 
428.92 49.64 2.44 
429.37 49.55 2.42 
429.75 49.17 2.37 
430.13 49.03 2.34 
437.41 46.72 2.04 
429.18 50.15 2.50 
430.11 49.81 2.43 
437.47 47.36 2.10 
434.76 51.38 2.62 
432.72 52.90 2.85 
433.15 52.59 2.80 
433.57 52.74 2.68 
433.97 52.50 2.77 
434.49 52.35 2.61 
433.09 53.17 2.75 
434.83 52.62 2.76 
435.08 52.32 2.72 
435.37 52.51 2.73 
434.84 53.04 2.69 
433.54 54.02 2.90 
434.53 53.55 2.76 
432.94 54.56 2.92 
434.34 54.06 2.88 
434.74 53.94 2.80 
434.96 53.69 2.88 
435.57 53.41 2.83 
434.26 54.41 2.87 
423.60 45.45 2.25 
423.82 45.91 2.29 
424.08 46.31 2.33 
418.28 49.01 2.79 
423.91 46.71 2.38 
418.36 49.19 2.68 
429.07 45.45 2.11 
418.38 49.65 2.80 
421.00 48.62 2.67 
423.82 47.69 2.49 
426.57 46.53 2.29 
428.02 46.07 2.20 
428.22 45.92 2.18 
428.91 45.93 2.16 
420.02 49.54 2.80 
421.51 48.97 2.70 
423.76 48.06 2.54 
417.36 50.85 2.90 
419.96 50.12 2.74 
422.30 49.34 2.72 
422.07 50.04 2.81 
419.49 51.50 2.92 
422.02 50.57 2.87 
421.66 51.24 2.83 
437.82 46.84 2.51 
437.65 47.38 2.57 
437.98 47.05 2.53 
419.78 55.30 3.37 
420.43 55.48 3.38 
434.09 51.94 3.23 
433.75 52.47 3.24 
433.48 53.56 3.39 
433.83 53.51 3.36 
434.97 52.86 3.29 
433.29 54.11 3.47 
433.84 53.86 3.41 
434.27 53.73 3.42 
434.47 53.31 3.31 
434.93 53.46 3.36 
433.58 54.13 3.48 
435.23 53.78 3.33 
433.50 54.49 3.55 
427.76 45.58 2.76 
428.28 45.43 2.82 
428.65 45.34 2.79 
426.68 46.74 3.03 
425.98 49.41 3.27 
426.01 49.79 3.32 
428.76 48.84 3.15 
427.66 49.57 3.21 
428.20 49.21 3.22 
427.14 50.71 3.44 
427.74 50.60 3.40 
427.79 50.40 3.37 
428.52 50.11 3.30 
426.67 51.25 3.52 
427.25 50.90 3.45 
427.12 52.84 3.62 
427.33 53.13 3.65 
428.04 53.46 3.65 
421.53 45.81 3.19 
422.34 45.56 3.02 
421.52 46.43 3.16 
421.53 46.09 3.22 
422.33 45.82 3.05 
423.20 45.50 3.07 
421.43 46.69 3.20 
421.65 47.54 3.28 
421.30 48.25 3.38 
423.32 47.21 3.16 
423.58 47.04 3.13 
423.23 48.22 3.28 
423.41 48.71 3.32 
423.56 48.77 3.32 
421.23 50.12 3.60 
417.67 51.90 3.99 
419.94 51.10 3.78 
424.44 49.61 3.45 
424.21 50.71 3.52 
425.38 51.31 3.60 
433.04 52.77 3.93 
433.36 52.68 3.90 
433.39 53.47 3.99 
433.80 53.25 3.93 
433.81 53.68 3.99 
434.05 53.46 3.94 
433.33 54.19 4.09 
433.20 54.56 4.15 
427.89 49.11 3.91 
426.18 50.03 4.12 
427.37 49.69 3.99 
426.48 50.49 4.15 
426.46 50.30 4.13 
427.54 49.89 4.00 
428.18 49.66 3.95 
426.76 50.77 4.16 
427.93 50.35 4.02 
426.70 50.95 4.18 
425.84 52.34 4.41 
433.35 53.32 4.59 
420.97 46.85 4.14 
421.57 46.78 4.13 
423.71 45.85 3.88 
423.50 46.25 3.94 
423.71 46.07 3.91 
421.13 47.64 4.22 
424.21 47.85 4.05 
429.50 47.35 4.27 
423.82 50.61 4.36 
423.64 51.34 4.46 
424.57 51.17 4.38 
424.66 50.97 4.35 
424.25 51.63 4.45 
424.20 51.83 4.48 
424.17 46.12 4.66 
421.77 47.27 5.00 
424.07 46.31 4.69 
421.48 48.13 5.14 
422.13 48.07 5.05 
422.20 48.33 5.07 
420.88 49.14 5.28 
421.41 49.01 5.24 
422.00 49.04 5.16 
422.33 48.60 5.08 
424.72 50.36 5.07 
424.48 51.06 5.18 
423.74 51.50 5.30 
428.30 50.06 5.33 
428.58 50.32 5.32 
420.61 48.55 5.27 
429.62 49.61 5.78 
423.74 45.43 5.44 
423.43 45.99 5.57 
424.28 46.09 5.43 
424.57 46.88 5.53 
422.03 49.33 6.10 
422.08 49.60 6.12 
428.01 47.85 5.85 
428.68 49.06 5.86 
428.05 50.76 6.27 
428.94 51.01 6.17 
428.70 51.20 6.23 
420.95 47.40 6.02 
421.50 47.24 5.94 
425.99 46.21 6.00 
420.09 48.38 6.23 
420.31 49.43 6.22 
420.16 49.74 6.37 
428.49 48.16 6.66 
426.22 46.06 6.84 
426.73 45.90 6.61 
425.35 48.24 7.20 
425.25 48.73 7.27 
426.02 49.22 7.19 
426.81 50.29 7.18 
423.59 47.83 7.45 
419.02 50.00 7.50 
420.87 46.40 7.77 
419.03 45.89 8.03 
417.98 50.69 8.72 
428.59 45.64 0.81 
428.95 45.31 0.77 
424.50 47.89 1.00 
429.64 46.21 0.90 
429.85 45.84 0.86 
428.55 47.59 1.05 
430.79 47.41 1.07 
431.16 47.21 1.05 
431.63 47.18 1.06 
429.82 48.09 1.13 
431.01 47.77 1.12 
427.87 49.37 1.25 
430.18 48.37 1.17 
430.99 48.08 1.16 
427.84 49.84 1.31 
428.24 49.64 1.29 
429.87 49.11 1.26 
430.82 48.71 1.23 
437.95 45.66 0.99 
427.70 50.20 1.35 
427.95 50.03 1.33 
429.77 49.39 1.29 
430.75 48.98 1.26 
430.03 49.77 1.34 
427.64 51.08 1.46 
437.45 47.39 0.96 
437.99 47.40 1.21 
427.96 51.91 1.56 
428.26 51.53 1.52 
433.83 52.42 1.75 
434.01 53.10 1.83 
434.74 52.71 1.80 
434.00 53.25 1.85 
434.61 52.94 1.82 
433.41 53.88 1.91 
434.93 53.60 1.91 
434.00 54.13 1.96 
434.15 53.93 1.94 
434.91 53.76 1.93 
428.18 46.27 1.41 
430.89 47.70 1.57 
428.37 49.21 1.76 
429.43 48.64 1.68 
427.12 49.89 1.84 
428.95 49.43 1.78 
428.80 49.66 1.81 
429.10 49.65 1.81 
430.28 49.30 1.76 
429.11 50.11 1.86 
429.20 49.86 1.83 
438.73 46.28 1.37 
429.25 50.51 1.91 
437.67 47.17 1.48 
427.32 51.62 2.05 
427.83 51.84 2.07 
427.47 52.51 2.16 
428.00 52.16 2.11 
433.84 53.06 2.20 
434.41 52.84 2.17 
434.50 52.66 2.15 
433.63 53.51 2.26 
434.02 53.21 2.22 
434.34 53.00 2.19 
432.72 54.43 2.37 
433.75 54.13 2.33 
434.91 53.87 2.30 
433.69 54.62 2.39 
434.46 54.27 2.35 
418.47 49.57 2.02 
421.79 48.18 1.84 
427.92 45.97 1.56 
427.91 45.74 1.53 
428.25 46.10 1.58 
418.92 50.21 2.09 
420.72 49.57 2.01 
423.85 48.05 1.82 
430.21 47.64 1.75 
430.48 47.51 1.74 
430.76 47.29 1.71 
430.60 47.93 1.79 
430.41 48.21 1.82 
430.23 48.86 1.90 
430.53 48.61 1.87 
430.94 48.63 1.87 
430.18 49.66 1.99 
439.15 47.89 1.76 
419.72 55.59 2.56 
433.98 51.66 2.22 
434.03 51.81 2.23 
433.94 52.46 2.31 
433.69 52.95 2.37 
433.94 53.29 2.41 
434.48 53.02 2.38 
435.20 52.89 2.36 
433.16 54.10 2.51 
434.59 53.96 2.49 
428.13 45.47 2.07 
428.91 45.38 2.04 
429.12 48.93 2.45 
430.27 48.74 2.54 
430.30 48.59 2.52 
429.28 49.49 2.51 
430.19 48.97 2.56 
428.64 49.98 2.59 
429.96 49.42 2.49 
438.18 47.35 2.18 
433.41 51.86 2.75 
432.78 52.48 2.78 
433.08 52.44 2.77 
433.38 52.04 2.84 
433.88 52.08 2.70 
433.81 52.39 2.86 
433.82 52.23 2.72 
433.22 53.10 2.84 
433.89 53.24 2.90 
434.74 53.11 2.80 
433.53 53.74 2.92 
434.05 53.43 2.98 
434.56 53.48 2.86 
434.85 53.43 2.84 
433.93 53.89 3.04 
434.45 54.00 2.92 
434.64 53.63 2.87 
435.65 53.62 2.96 
434.27 54.56 3.00 
434.34 54.31 2.96 
434.91 54.13 2.93 
423.75 45.57 2.34 
423.52 46.06 2.34 
419.80 48.06 2.73 
423.68 46.46 2.45 
423.83 46.86 2.49 
419.99 48.59 2.79 
420.19 48.66 2.79 
426.71 46.05 2.32 
428.85 45.44 2.20 
418.39 49.76 2.96 
419.86 49.14 2.85 
427.91 46.12 2.30 
428.17 45.89 2.27 
428.66 46.00 2.27 
423.61 48.16 2.64 
424.02 48.00 2.61 
418.34 51.22 3.01 
418.37 50.93 2.98 
419.23 50.70 2.92 
422.07 49.96 2.89 
421.90 50.40 2.95 
428.12 49.02 2.62 
426.73 50.06 2.78 
437.25 47.27 2.59 
437.96 47.06 2.64 
437.96 47.19 2.66 
420.12 54.44 3.47 
420.03 55.12 3.44 
432.75 52.19 3.39 
433.91 51.84 3.36 
433.50 52.57 3.40 
433.00 52.97 3.47 
434.93 52.93 3.43 
435.14 52.79 3.40 
433.76 53.52 3.50 
434.45 53.25 3.44 
435.01 53.07 3.44 
433.95 53.90 3.54 
434.04 53.79 3.52 
427.81 45.35 2.84 
425.90 49.32 3.39 
427.16 49.14 3.30 
428.19 49.77 3.41 
427.18 50.73 3.56 
427.40 50.56 3.46 
437.53 47.00 3.16 
426.19 52.40 3.74 
426.63 52.60 3.75 
427.51 53.49 3.81 
421.45 45.97 3.32 
423.16 45.48 3.18 
423.17 45.74 3.21 
423.21 45.54 3.19 
422.61 46.88 3.36 
423.23 46.56 3.29 
422.51 47.28 3.32 
422.59 47.50 3.34 
423.27 47.32 3.29 
423.21 48.24 3.40 
423.95 47.90 3.41 
426.60 46.82 3.16 
426.72 47.53 3.23 
420.30 50.31 3.79 
421.12 50.06 3.72 
423.62 48.93 3.46 
424.38 49.51 3.56 
426.33 49.03 3.41 
420.40 51.68 3.95 
425.48 52.18 3.75 
426.47 51.48 3.69 
432.68 53.08 4.16 
433.32 53.44 4.16 
433.83 53.27 4.09 
433.91 53.22 4.08 
432.75 54.02 4.27 
433.89 53.37 4.11 
433.16 54.58 4.32 
428.04 45.32 3.60 
426.53 49.35 4.18 
427.37 49.75 4.14 
427.82 49.21 4.07 
426.74 50.91 4.33 
428.05 50.68 4.20 
423.68 45.92 4.03 
423.01 46.47 4.09 
423.48 46.24 4.08 
424.36 48.13 4.21 
424.92 49.87 4.36 
423.79 50.82 4.53 
424.19 50.76 4.51 
424.58 51.23 4.53 
423.98 51.71 4.63 
433.22 53.35 4.79 
421.56 46.71 4.26 
421.34 47.05 4.31 
421.05 47.79 4.38 
424.09 46.05 4.82 
424.12 46.30 4.85 
422.14 48.14 5.22 
421.95 48.91 5.32 
422.36 48.69 5.25 
428.96 47.43 5.19 
429.17 47.88 5.21 
423.80 51.48 5.47 
428.36 50.62 5.58 
421.70 47.29 5.17 
421.56 48.29 5.32 
420.85 49.22 5.46 
421.42 49.11 5.42 
421.53 49.39 5.45 
428.61 47.52 5.24 
427.41 48.55 5.48 
428.66 47.94 5.34 
427.55 48.90 5.50 
427.77 49.26 5.51 
423.32 46.02 5.78 
429.26 49.45 6.04 
429.17 51.28 6.24 
428.84 51.53 6.49 
421.30 47.34 6.16 
426.16 45.97 6.16 
426.73 45.86 6.08 
426.77 45.66 6.05 
421.47 49.02 6.33 
420.09 49.72 6.58 
422.07 49.57 6.32 
428.04 48.88 6.29 
425.69 46.28 6.26 
425.98 46.61 6.35 
429.63 48.02 6.54 
429.36 48.48 6.80 
429.81 48.27 6.53 
425.94 49.25 7.26 
428.39 48.20 6.93 
426.68 50.07 7.43 
426.77 50.53 7.47 
427.54 50.78 7.37 
418.51 50.16 7.82 
425.33 48.12 7.44 
418.11 50.77 8.73 
418.00 50.87 8.99 
428.65 45.51 0.80 
428.68 45.80 0.84 
424.18 48.01 1.02 
429.85 45.64 0.84 
430.43 46.01 0.90 
430.70 47.13 1.05 
431.09 46.94 1.03 
429.86 48.00 1.14 
431.01 47.59 1.11 
431.75 46.94 1.05 
430.30 48.20 1.17 
430.96 47.81 1.14 
427.99 49.73 1.31 
429.21 48.97 1.25 
430.76 48.49 1.22 
427.85 49.92 1.33 
429.18 49.65 1.33 
429.94 49.20 1.29 
430.79 48.80 1.26 
429.25 49.83 1.35 
429.86 49.48 1.32 
427.40 51.65 1.54 
428.31 51.26 1.51 
428.45 51.09 1.49 
427.87 51.71 1.55 
428.58 51.50 1.54 
433.87 52.22 1.75 
434.24 52.61 1.80 
434.74 52.42 1.79 
434.08 53.03 1.85 
434.51 52.76 1.83 
435.40 53.30 1.92 
435.00 53.82 1.97 
428.28 45.58 1.37 
428.22 46.52 1.48 
429.78 48.27 1.69 
430.35 47.91 1.65 
429.93 48.51 1.72 
430.11 49.00 1.78 
430.55 48.97 1.78 
429.44 50.31 1.94 
437.47 47.27 1.56 
437.67 47.16 1.55 
427.34 51.69 2.12 
427.58 52.40 2.20 
427.96 52.05 2.16 
427.57 52.63 2.23 
433.34 52.52 2.21 
433.56 53.26 2.30 
434.06 53.01 2.27 
434.31 52.80 2.24 
433.57 53.67 2.35 
434.09 53.41 2.32 
433.62 53.89 2.38 
433.90 53.81 2.37 
432.81 54.56 2.46 
433.86 54.45 2.45 
435.02 53.88 2.37 
418.73 48.95 1.98 
427.77 46.07 1.62 
428.26 45.96 1.61 
423.74 48.24 1.89 
430.29 47.21 1.76 
430.76 46.81 1.71 
430.24 47.51 1.79 
430.65 47.91 1.84 
430.63 48.21 1.87 
429.27 49.48 2.03 
429.58 49.30 2.01 
430.17 48.77 1.94 
431.17 48.76 1.94 
420.76 55.20 2.74 
434.16 51.92 2.32 
433.02 53.55 2.52 
433.97 53.16 2.47 
435.21 52.67 2.41 
434.02 53.33 2.49 
435.26 52.86 2.43 
434.84 54.03 2.57 
428.20 45.48 2.16 
428.89 49.52 2.62 
429.81 48.86 2.52 
437.31 46.51 2.06 
438.33 46.15 1.99 
436.51 47.10 2.15 
437.44 47.38 2.16 
433.12 53.02 2.95 
434.23 52.19 2.82 
434.76 52.17 2.93 
435.09 51.94 2.89 
433.89 53.09 3.06 
434.26 52.96 2.91 
434.91 52.42 2.95 
432.58 54.13 3.10 
433.25 53.45 3.00 
433.95 53.30 3.09 
433.98 53.15 2.95 
434.57 53.29 2.95 
434.94 52.79 3.00 
432.61 54.51 3.15 
433.60 53.88 3.05 
433.49 54.21 3.21 
434.61 53.80 3.13 
434.84 53.67 2.99 
433.76 54.56 3.13 
434.29 54.68 3.13 
434.52 54.48 3.10 
435.02 54.22 3.06 
423.85 45.90 2.39 
423.45 46.67 2.42 
423.78 46.25 2.50 
425.25 45.94 2.43 
423.94 46.57 2.46 
423.97 47.03 2.59 
420.70 48.85 2.88 
423.91 47.71 2.67 
427.96 45.84 2.35 
420.69 49.38 2.94 
423.73 47.93 2.70 
427.47 46.34 2.28 
422.11 49.27 2.89 
421.90 49.78 2.96 
421.95 50.05 2.99 
420.93 50.77 3.10 
426.81 48.97 2.74 
428.36 48.84 2.69 
426.65 49.76 2.84 
430.28 48.50 2.60 
430.46 48.74 2.63 
428.42 50.61 2.90 
437.29 47.15 2.72 
427.91 51.45 3.01 
426.36 52.51 3.18 
434.53 53.22 3.59 
427.88 45.34 2.96 
418.65 50.30 3.10 
432.77 52.37 3.57 
433.43 52.32 3.59 
433.25 52.71 3.62 
433.69 52.51 3.54 
433.84 52.99 3.62 
434.14 52.67 3.60 
433.27 53.74 3.72 
433.32 53.48 3.71 
433.76 53.49 3.66 
421.19 46.10 3.37 
422.39 45.65 3.26 
423.31 45.64 3.31 
421.93 46.41 3.37 
422.70 46.62 3.45 
423.31 46.95 3.45 
427.59 46.02 3.05 
423.96 47.88 3.53 
425.90 47.47 3.39 
424.44 49.65 3.71 
427.21 49.04 3.51 
424.57 50.65 3.82 
427.92 49.36 3.51 
424.62 51.15 3.87 
424.92 50.72 3.81 
426.76 50.07 3.57 
428.38 49.65 3.52 
427.06 50.63 3.70 
427.24 50.36 3.58 
428.40 49.87 3.54 
425.53 51.97 3.86 
426.73 51.33 3.79 
426.62 51.78 3.79 
427.19 51.58 3.80 
426.91 52.90 3.97 
433.75 52.92 4.26 
433.45 53.36 4.34 
433.20 54.08 4.45 
433.39 53.69 4.39 
421.46 46.07 3.44 
421.42 45.79 3.41 
423.11 46.48 4.24 
424.81 48.42 4.38 
424.94 48.66 4.40 
425.13 49.01 4.42 
426.78 50.72 4.48 
426.06 52.59 4.77 
426.27 52.97 4.80 
421.67 46.97 4.44 
421.63 47.79 4.53 
429.12 47.69 4.73 
428.66 49.75 4.98 
424.27 45.98 5.00 
423.55 46.39 5.11 
420.73 49.09 5.66 
422.16 48.42 5.45 
420.72 49.32 5.69 
422.09 48.99 5.52 
422.33 48.71 5.47 
421.62 49.52 5.66 
427.94 48.23 5.64 
428.62 48.23 5.63 
428.72 50.34 5.77 
428.90 50.55 5.78 
425.33 47.24 5.91 
426.95 48.60 5.88 
426.95 48.40 5.85 
427.12 48.89 5.89 
427.74 50.06 5.96 
423.06 45.73 6.01 
423.30 45.61 5.97 
422.07 49.47 6.56 
426.79 45.86 6.44 
425.34 47.94 6.87 
423.12 46.14 6.99 
423.48 47.29 7.06 
425.14 46.62 6.75 
423.20 47.53 7.13 
420.73 46.76 7.40 
427.08 46.98 7.36 
425.81 49.14 7.61 
427.36 50.36 7.70 
423.70 45.88 7.80 
418.54 50.32 7.96 
425.60 50.09 7.96 
428.59 46.07 0.89 
430.52 47.13 1.06 
429.79 47.89 1.14 
431.07 47.50 1.12 
427.87 49.21 1.26 
430.30 48.18 1.19 
430.97 47.81 1.16 
431.04 47.70 1.15 
427.95 49.73 1.33 
429.22 49.14 1.28 
429.83 48.99 1.28 
430.69 48.42 1.23 
427.93 49.92 1.35 
429.13 49.57 1.34 
429.86 49.26 1.31 
429.91 49.04 1.29 
430.80 48.71 1.27 
429.91 49.48 1.34 
427.79 50.86 1.46 
428.37 51.26 1.53 
427.83 51.78 1.58 
428.12 51.76 1.58 
428.56 51.57 1.57 
428.72 52.90 1.74 
433.92 52.15 1.77 
434.22 52.56 1.83 
434.74 52.37 1.82 
434.05 53.01 1.88 
434.49 52.72 1.85 
433.15 53.79 1.95 
435.41 53.34 1.95 
434.99 53.84 2.00 
430.15 47.65 1.66 
429.74 48.36 1.75 
430.07 48.33 1.75 
429.57 48.82 1.81 
430.47 49.04 1.83 
429.13 49.96 1.95 
428.08 52.15 2.22 
438.32 47.73 1.68 
434.49 52.83 2.30 
433.64 53.65 2.41 
433.70 53.61 2.40 
433.97 53.20 2.35 
432.92 54.14 2.47 
433.72 53.81 2.43 
434.03 53.81 2.43 
432.71 54.62 2.53 
433.45 54.30 2.49 
434.56 54.51 2.51 
416.59 48.71 1.97 
428.23 45.38 1.39 
427.75 46.00 1.65 
428.35 45.90 1.64 
423.78 48.09 1.90 
428.09 46.34 1.50 
430.30 47.28 1.81 
430.58 46.99 1.77 
430.45 47.88 1.88 
430.17 48.71 1.98 
430.20 48.46 1.95 
430.62 48.13 1.91 
429.39 49.34 2.06 
430.28 49.12 2.03 
420.37 54.16 2.64 
427.55 52.39 2.25 
427.56 52.64 2.28 
433.44 51.82 2.36 
434.37 52.59 2.46 
433.88 53.33 2.55 
434.92 52.78 2.48 
435.34 52.96 2.50 
434.20 54.08 2.64 
435.41 53.85 2.61 
435.01 54.07 2.64 
429.44 47.99 2.50 
429.01 49.41 2.68 
437.32 46.46 2.13 
438.37 45.90 2.04 
432.92 52.34 3.08 
433.72 51.92 2.88 
434.27 51.81 2.98 
433.64 52.54 2.96 
434.45 52.06 2.88 
434.82 52.17 3.01 
433.12 53.40 3.08 
434.33 52.90 3.11 
434.07 53.08 3.02 
434.47 53.29 3.16 
434.97 52.74 3.08 
433.62 53.75 3.12 
434.87 53.42 3.05 
434.97 53.21 3.02 
433.50 54.25 3.30 
434.11 53.92 3.13 
435.06 53.68 3.08 
434.76 54.28 3.22 
435.12 53.95 3.11 
434.67 54.62 3.20 
435.03 54.39 3.17 
422.89 45.94 2.40 
423.89 46.51 2.52 
423.97 46.36 2.43 
422.35 47.53 2.74 
423.02 47.32 2.70 
423.51 46.83 2.49 
423.81 46.68 2.61 
418.41 49.57 2.94 
423.37 47.41 2.57 
428.18 45.49 2.23 
420.22 49.23 2.86 
427.82 45.94 2.29 
428.54 45.78 2.25 
420.90 49.53 3.01 
423.56 48.48 2.69 
423.99 48.26 2.65 
421.95 49.93 3.04 
421.80 50.15 3.07 
426.76 48.87 2.80 
426.87 49.33 2.85 
430.26 48.52 2.68 
429.92 48.82 2.72 
427.83 51.08 3.04 
427.98 51.52 3.09 
420.34 48.93 2.95 
419.97 49.50 3.03 
418.57 50.22 3.15 
420.12 54.34 3.62 
432.49 52.57 3.72 
433.20 52.66 3.76 
433.60 52.43 3.65 
434.44 52.80 3.68 
433.40 53.49 3.79 
434.20 53.60 3.77 
434.59 53.27 3.74 
422.18 45.53 3.33 
421.91 46.31 3.44 
422.49 46.07 3.38 
422.53 45.84 3.35 
422.47 47.20 3.52 
427.62 45.33 3.06 
427.74 45.61 3.09 
427.94 45.89 3.11 
423.40 48.41 3.62 
423.38 48.64 3.65 
424.37 49.78 3.82 
427.36 48.59 3.54 
427.25 49.28 3.63 
426.84 49.73 3.70 
427.99 49.41 3.61 
424.60 51.07 3.96 
426.93 50.24 3.75 
428.27 49.63 3.62 
427.38 50.98 3.75 
426.21 51.86 3.98 
418.89 45.79 3.52 
421.17 46.54 3.50 
419.18 47.82 3.83 
421.49 46.85 3.52 
419.03 48.15 3.87 
422.58 46.88 3.56 
433.00 53.28 4.51 
433.73 52.97 4.41 
433.38 53.41 4.50 
