# .PCD v0.7 - Point Cloud Data file format
VERSION 0.7
FIELDS x y z
SIZE 4 4 4
TYPE F F F
COUNT 1 1 1
WIDTH 373
HEIGHT 1
VIEWPOINT 0 0 0 1 0 0 0
POINTS 373
DATA ascii
464.69 -5.26 -2.41 
461.71 -4.81 -1.26 
464.50 -4.69 -2.27 
462.98 -5.16 -2.33 
461.61 -4.91 -1.20 
465.76 -7.15 -1.38 
460.28 -4.80 1.04 
462.22 -6.49 -2.33 
462.62 -6.44 -2.33 
461.28 -4.79 -2.17 
464.49 -5.28 -2.21 
461.86 -5.76 -0.04 
463.25 -6.79 -0.11 
462.21 -5.80 -0.04 
462.60 -6.67 1.02 
458.93 -5.49 -2.20 
462.20 -6.50 -2.29 
461.10 -4.97 -2.14 
463.21 -6.71 -2.30 
461.83 -6.59 -1.17 
462.04 -6.79 -1.19 
461.28 -6.24 -0.02 
462.15 -6.76 -0.06 
462.35 -6.99 -0.08 
462.13 -5.86 -0.01 
462.39 -6.58 1.06 
464.22 -4.76 -2.04 
462.31 -6.52 -2.22 
461.15 -5.03 -2.08 
466.37 -8.42 -2.38 
464.23 -6.18 -2.18 
461.89 -6.66 -1.12 
462.08 -6.91 -1.14 
459.40 -5.70 0.10 
459.92 -6.03 -2.11 
466.28 -9.14 -2.39 
463.26 -6.22 -2.12 
463.95 -6.72 -2.17 
461.41 -4.79 -1.99 
463.61 -6.22 -2.12 
465.61 -7.53 -1.14 
459.41 -5.83 0.16 
464.14 -4.91 -1.88 
459.85 -5.90 -2.00 
462.30 -6.35 -2.03 
464.40 -6.57 -2.04 
465.52 -7.26 -2.10 
465.29 -6.86 -2.07 
462.00 -6.82 -0.97 
466.07 -9.15 -1.16 
462.15 -6.76 0.15 
462.32 -7.13 0.12 
462.61 -6.57 1.24 
461.34 -4.70 -1.82 
459.76 -5.88 -1.94 
464.08 -8.36 -2.17 
462.19 -6.43 -1.99 
466.29 -9.30 -2.25 
466.15 -8.68 -2.19 
462.96 -6.30 -1.97 
463.63 -6.56 -2.00 
463.52 -6.11 -1.95 
465.50 -7.17 -2.05 
461.80 -6.49 -0.89 
462.06 -6.72 -0.91 
462.32 -6.82 -0.92 
465.58 -8.54 -1.08 
466.04 -8.98 -1.11 
459.50 -5.73 0.32 
461.22 -6.86 0.21 
462.53 -7.30 0.16 
463.01 -7.69 0.12 
462.15 -6.65 0.20 
463.15 -6.78 0.17 
458.25 -5.36 1.50 
459.78 -5.98 1.41 
459.44 -5.32 1.45 
459.81 -5.44 1.43 
460.18 -6.01 1.39 
462.53 -6.64 1.29 
458.41 -5.42 -1.59 
458.98 -5.44 -1.86 
462.33 -6.38 -1.95 
461.04 -4.89 -1.80 
463.78 -6.62 -1.97 
464.09 -6.64 -1.97 
458.93 -5.61 -0.75 
462.18 -6.69 -0.88 
459.73 -6.23 0.31 
458.97 -5.63 0.37 
462.67 -7.33 0.18 
461.89 -6.60 0.24 
462.18 -6.76 0.22 
461.90 -5.38 0.31 
462.12 -5.65 0.29 
459.72 -5.74 1.46 
460.01 -4.79 1.49 
462.41 -6.57 1.32 
462.23 -5.87 -2.67 
461.40 -4.71 -1.70 
459.27 -5.58 0.45 
459.98 -6.20 0.39 
463.04 -6.56 0.30 
463.27 -6.70 0.28 
459.51 -5.81 1.55 
459.42 -5.38 1.57 
464.48 -6.69 -2.92 
464.76 -6.75 -2.92 
463.65 -6.18 -1.80 
465.40 -7.13 -1.89 
458.17 -5.21 -1.45 
458.94 -5.39 -1.74 
465.96 -8.94 -2.06 
461.25 -5.31 -1.45 
465.77 -8.36 -2.01 
465.53 -7.48 -0.85 
462.21 -5.23 -0.33 
458.91 -5.61 0.50 
459.33 -5.53 0.49 
462.10 -6.92 0.33 
459.13 -5.43 1.62 
464.69 -6.77 -2.87 
464.95 -7.27 -1.85 
458.15 -5.13 -1.40 
460.54 -6.47 -1.52 
464.00 -8.30 -1.96 
465.55 -9.05 -2.02 
463.61 -7.40 -1.59 
466.27 -9.08 -2.02 
461.11 -5.17 -1.39 
462.24 -5.89 -1.45 
462.00 -6.69 -0.70 
464.45 -8.30 -0.86 
464.53 -7.71 -0.81 
465.47 -7.39 -0.79 
461.09 -5.29 -0.27 
462.37 -5.78 -0.32 
459.56 -6.12 0.51 
461.17 -6.17 0.46 
462.11 -6.59 0.41 
462.21 -6.99 0.38 
462.86 -6.69 0.38 
464.69 -6.77 -2.83 
463.37 -6.01 -1.68 
464.25 -6.44 -1.73 
465.35 -7.11 -1.79 
460.46 -6.45 -1.48 
462.14 -6.41 -1.73 
466.19 -9.31 -2.00 
461.26 -5.32 -1.36 
466.01 -8.39 -1.91 
462.82 -6.18 -1.70 
463.67 -6.60 -1.74 
461.75 -6.45 -0.63 
464.59 -7.70 -0.76 
458.58 -5.54 -0.22 
458.98 -5.53 -0.52 
462.07 -6.65 0.46 
462.91 -6.67 0.43 
461.73 -5.53 0.54 
463.20 -6.18 -2.48 
464.42 -5.08 -1.51 
458.84 -5.32 -1.55 
460.42 -6.54 -1.41 
461.22 -7.18 -1.74 
461.01 -6.46 -1.66 
466.17 -9.07 -1.90 
462.11 -6.28 -1.64 
466.11 -8.51 -1.85 
461.15 -4.82 -1.49 
462.98 -6.20 -1.63 
463.16 -5.75 -1.32 
461.67 -6.36 -0.54 
461.90 -6.61 -0.57 
458.86 -5.41 -0.42 
461.10 -5.32 -0.16 
458.26 -5.55 0.73 
459.15 -6.09 0.66 
459.15 -5.60 0.69 
462.70 -7.69 0.45 
461.65 -6.46 0.56 
461.94 -6.64 0.54 
462.88 -6.56 0.52 
461.69 -5.37 0.63 
458.93 -5.52 1.84 
459.30 -5.56 1.82 
462.17 -6.46 1.64 
462.17 -6.32 -2.68 
463.14 -6.17 -2.42 
464.55 -6.66 -2.68 
465.36 -7.19 -1.65 
464.38 -5.04 -1.44 
465.37 -11.32 -1.79 
458.85 -6.00 -1.30 
460.47 -6.79 -1.63 
460.69 -7.30 -1.55 
465.32 -10.10 -1.67 
460.57 -6.61 -1.61 
464.27 -9.03 -1.84 
464.67 -8.66 -1.80 
463.49 -7.43 -1.42 
465.70 -8.95 -1.82 
462.17 -6.42 -1.59 
466.29 -9.15 -1.84 
465.81 -8.28 -1.76 
463.46 -5.74 -1.25 
461.78 -6.43 -0.48 
462.11 -6.65 -0.50 
464.99 -8.86 -0.72 
465.74 -10.15 -0.52 
461.20 -5.46 -0.10 
459.02 -5.56 0.78 
461.93 -6.45 0.63 
462.96 -6.68 0.59 
461.55 -5.40 0.71 
461.88 -5.53 0.70 
463.11 -7.45 0.86 
459.21 -5.01 1.94 
462.27 -6.57 1.71 
463.15 -6.18 -2.38 
465.38 -7.16 -1.61 
465.15 -11.12 -1.74 
458.67 -5.87 -1.25 
460.55 -6.55 -1.57 
464.13 -9.09 -1.81 
465.16 -9.88 -1.62 
458.87 -5.33 -1.44 
461.06 -6.46 -1.55 
463.89 -8.35 -1.74 
464.63 -8.60 -1.76 
462.11 -6.36 -1.54 
464.14 -7.71 -1.41 
462.77 -6.23 -1.52 
463.43 -6.50 -1.55 
466.39 -8.47 -1.74 
463.43 -6.03 -1.50 
465.76 -7.87 -1.41 
463.31 -5.63 -1.20 
461.87 -6.69 -0.46 
465.36 -7.35 -0.55 
465.79 -10.17 -0.49 
458.86 -5.44 -0.31 
461.92 -6.33 0.69 
462.00 -6.64 0.67 
462.91 -6.66 0.64 
461.63 -5.26 0.78 
459.03 -5.41 1.99 
459.29 -5.64 1.96 
462.20 -6.54 1.77 
463.14 -6.20 -2.34 
463.62 -6.28 -2.57 
465.28 -7.02 -1.54 
465.07 -11.03 -1.69 
460.43 -6.70 -1.28 
465.31 -10.07 -1.59 
458.74 -5.32 -1.39 
461.02 -6.45 -1.50 
464.67 -8.59 -1.71 
462.10 -6.37 -1.49 
463.47 -7.53 -1.35 
464.17 -7.75 -1.37 
465.80 -8.75 -1.72 
466.14 -8.95 -1.74 
461.14 -5.48 -1.15 
465.73 -8.35 -1.68 
463.85 -6.54 -1.50 
463.35 -5.64 -1.16 
461.81 -6.51 -0.38 
460.17 -6.65 -0.10 
463.33 -7.70 -0.22 
466.14 -7.98 -0.27 
461.01 -6.65 0.77 
460.03 -4.83 0.94 
458.70 -5.47 0.93 
463.03 -7.70 0.94 
461.16 -5.64 1.13 
462.93 -6.05 -2.28 
463.65 -6.20 -2.51 
464.98 -11.02 -1.65 
460.32 -6.76 -1.24 
465.08 -9.88 -1.53 
465.27 -10.12 -1.55 
463.71 -8.04 -1.60 
464.65 -8.52 -1.65 
462.07 -6.30 -1.43 
463.54 -7.47 -1.29 
464.50 -7.93 -1.33 
465.73 -8.78 -1.67 
466.05 -8.94 -1.68 
461.09 -5.52 -1.10 
464.82 -7.99 -1.34 
465.96 -8.14 -1.60 
465.06 -7.14 -1.50 
463.40 -5.58 -1.10 
460.13 -6.63 -0.04 
461.67 -6.29 -0.29 
462.28 -5.93 0.00 
461.48 -5.25 0.93 
458.92 -5.30 2.18 
464.28 -8.93 -1.64 
463.75 -8.11 -1.56 
464.79 -8.52 -1.60 
462.02 -6.41 -1.39 
465.43 -8.83 -1.62 
463.31 -7.01 -1.20 
464.40 -7.82 -1.28 
464.75 -7.93 -1.28 
465.97 -8.77 -1.62 
464.21 -6.37 -1.37 
465.32 -7.06 -1.44 
464.91 -6.55 -1.39 
463.78 -5.38 -1.27 
465.46 -8.90 -0.52 
465.68 -10.07 -0.34 
463.18 -7.64 -0.11 
461.50 -5.84 0.07 
461.48 -4.97 1.02 
461.20 -5.82 1.24 
462.63 -6.63 -2.40 
462.57 -6.23 -2.35 
462.20 -4.83 -2.20 
465.01 -9.97 -1.34 
464.89 -9.26 -1.51 
466.05 -9.59 -1.54 
462.54 -6.79 -1.27 
463.40 -7.58 -1.11 
464.54 -8.22 -1.41 
465.92 -8.74 -1.45 
465.47 -7.01 -1.28 
465.96 -7.45 -1.32 
464.34 -5.77 -1.15 
464.43 -5.28 -1.10 
464.34 -4.98 -0.83 
463.01 -7.64 0.05 
460.67 -4.95 1.23 
462.67 -6.38 -2.37 
464.95 -9.99 -1.34 
464.40 -8.97 -1.48 
463.82 -8.19 -1.40 
464.01 -8.47 -1.43 
463.33 -7.62 -1.11 
465.19 -8.76 -1.45 
461.53 -5.89 -0.94 
462.14 -6.39 -1.22 
465.06 -6.75 -1.24 
464.30 -4.99 -0.82 
465.94 -10.01 -0.17 
461.90 -6.63 -0.08 
462.97 -7.64 0.06 
462.67 -6.94 -0.12 
463.85 -8.60 -2.57 
462.92 -6.36 -2.32 
463.61 -6.67 -2.12 
463.29 -7.67 -1.07 
461.69 -6.08 -0.91 
462.47 -5.93 -1.11 
464.66 -6.90 -1.21 
463.73 -5.86 -0.87 
465.23 -6.83 -1.20 
464.26 -4.94 -0.77 
463.18 -6.48 -2.30 
462.89 -6.66 -0.92 
463.01 -4.99 -0.97 
463.72 -5.65 -0.81 
465.11 -7.18 -2.22 
465.89 -9.24 -1.30 
464.86 -7.54 -0.89 
464.78 -5.02 -0.62 
465.36 -7.56 -2.12 
465.05 -6.58 -0.86 
466.50 -7.93 -0.96 
466.50 -7.68 -0.90 
466.46 -7.83 -0.81 
