# .PCD v0.7 - Point Cloud Data file format
VERSION 0.7
FIELDS x y z
SIZE 4 4 4
TYPE F F F
COUNT 1 1 1
WIDTH 2518
HEIGHT 1
VIEWPOINT 0 0 0 1 0 0 0
POINTS 2518
DATA ascii
445.52 10.95 1.58 
442.45 15.99 2.39 
453.89 11.64 2.13 
452.23 13.30 2.33 
452.71 13.02 2.28 
454.17 12.21 2.15 
452.46 13.78 2.34 
454.89 11.84 2.09 
452.29 13.98 2.37 
453.49 13.32 2.25 
454.94 12.60 2.12 
455.16 12.48 2.11 
453.55 14.09 2.29 
454.52 13.77 2.22 
454.84 13.37 2.17 
444.22 10.18 1.85 
454.31 7.73 1.90 
454.51 8.37 1.92 
445.67 15.93 2.95 
445.98 16.46 2.97 
449.67 14.61 2.58 
450.18 14.66 2.55 
446.80 18.23 3.28 
448.66 16.89 2.81 
452.90 1.41 1.67 
452.66 2.07 1.71 
453.17 2.28 1.70 
460.04 -1.52 1.27 
450.47 5.27 1.98 
458.31 0.50 1.40 
444.00 11.21 2.74 
445.41 11.15 2.64 
443.74 12.61 2.85 
444.25 12.20 2.79 
449.79 8.50 2.20 
447.84 11.43 2.49 
448.07 11.05 2.46 
449.57 10.16 2.62 
446.86 12.58 2.63 
448.03 11.91 2.80 
442.30 17.96 3.57 
446.42 15.19 3.10 
447.76 15.55 3.04 
446.59 17.39 3.23 
452.93 13.08 3.14 
453.44 12.90 3.10 
454.18 12.33 3.02 
453.46 13.20 3.11 
454.14 13.13 3.05 
445.04 4.45 2.25 
451.06 1.64 1.77 
452.70 0.62 1.64 
459.21 -3.76 1.21 
459.68 -4.14 1.18 
460.02 -4.21 1.17 
460.38 -4.34 1.16 
460.81 -4.45 1.14 
453.39 0.93 1.62 
449.40 4.20 1.98 
443.50 8.47 2.59 
444.79 9.42 2.56 
442.93 11.61 2.84 
442.44 16.63 3.47 
441.68 18.01 3.62 
453.49 10.80 3.01 
454.11 10.59 2.95 
452.97 11.70 3.08 
453.71 11.32 3.01 
453.88 11.11 2.99 
454.00 10.87 2.97 
453.02 12.19 3.10 
453.75 11.72 3.02 
451.23 5.57 2.98 
448.32 10.20 3.38 
446.20 12.38 3.67 
447.86 11.34 3.48 
448.12 10.87 3.43 
443.81 15.09 4.04 
442.31 17.29 4.33 
445.61 16.13 3.94 
450.00 5.12 3.05 
446.79 7.75 3.40 
446.76 8.06 3.41 
450.77 5.49 3.01 
442.89 11.86 3.93 
445.12 10.76 3.68 
445.40 10.56 3.64 
444.22 12.39 3.84 
442.90 16.46 4.45 
442.80 16.76 4.47 
447.76 18.03 4.77 
447.75 18.28 4.79 
448.36 0.93 3.02 
448.16 1.21 3.04 
448.66 0.84 2.99 
443.22 7.90 3.69 
443.03 8.41 3.74 
448.14 11.10 4.44 
450.50 9.80 4.17 
450.47 10.51 4.19 
447.01 13.87 4.66 
452.72 10.84 4.37 
449.03 13.44 4.75 
443.85 17.73 5.21 
450.06 13.32 4.65 
445.27 17.82 5.05 
446.81 18.10 5.13 
446.76 18.34 5.14 
446.04 12.82 4.72 
445.86 13.42 4.77 
441.93 18.31 5.68 
447.16 14.87 4.97 
444.13 10.69 4.84 
444.43 10.20 4.79 
449.50 11.01 5.27 
449.54 11.41 5.27 
450.45 13.98 5.55 
448.31 8.88 5.37 
448.96 9.06 5.30 
448.93 9.82 5.32 
449.29 9.69 5.27 
445.75 12.16 5.75 
446.21 13.21 5.72 
448.31 11.88 5.43 
445.29 16.12 5.94 
447.14 16.83 5.99 
446.85 9.23 5.55 
445.37 12.03 6.10 
442.76 11.99 6.12 
442.68 12.29 6.14 
446.72 15.27 -1.72 
450.22 12.98 -1.94 
450.45 12.42 -2.01 
449.43 14.12 -1.81 
444.05 18.42 -1.37 
447.92 16.52 -1.52 
443.07 6.53 -2.05 
443.55 6.55 -1.82 
441.94 8.27 -1.85 
442.04 8.26 -1.85 
444.16 6.76 -1.90 
443.73 7.47 -1.93 
443.57 8.12 -1.85 
443.81 7.88 -1.88 
443.52 8.58 -1.80 
443.66 8.61 -1.79 
444.52 10.19 -1.37 
458.05 1.19 -2.55 
442.77 11.98 -1.39 
455.25 3.58 -2.29 
445.79 10.44 -1.33 
454.29 4.69 -2.17 
457.68 3.53 -2.27 
445.48 11.94 -1.37 
441.83 15.04 -0.80 
450.72 9.15 -1.66 
448.08 11.14 -1.22 
449.49 10.47 -1.29 
446.45 12.90 -1.24 
451.42 10.52 -1.49 
453.96 8.98 -1.65 
454.10 8.80 -1.67 
452.52 10.38 -1.50 
446.70 14.54 -1.04 
453.08 10.13 -1.52 
446.97 14.94 -0.77 
453.05 10.78 -1.44 
454.81 9.42 -1.36 
445.21 16.38 -0.82 
446.87 15.17 -0.74 
445.37 16.75 -0.78 
454.45 11.05 -1.17 
442.24 19.58 -0.45 
444.69 17.63 -0.46 
452.47 12.83 -1.20 
444.76 18.36 -0.37 
446.64 16.95 -0.53 
452.98 12.91 -1.18 
455.09 11.38 -1.12 
445.18 18.35 -0.58 
452.33 13.68 -1.10 
452.94 13.16 -1.15 
453.38 12.84 -1.19 
443.52 20.09 -0.38 
443.81 19.89 -0.40 
445.28 18.72 -0.53 
452.45 14.03 -0.83 
452.66 13.86 -0.85 
448.65 16.91 -0.51 
447.42 18.24 -0.58 
446.83 19.12 -0.47 
448.09 19.52 -0.41 
451.75 16.83 -0.72 
448.29 19.57 -0.41 
449.36 19.24 -0.44 
450.60 19.67 -0.37 
452.68 18.36 -0.30 
451.09 19.61 -0.38 
459.63 -1.00 -1.75 
459.92 -1.03 -1.76 
461.24 -1.91 -1.84 
457.91 0.89 -1.56 
458.23 0.92 -1.56 
444.02 11.97 -0.31 
445.20 11.20 -0.41 
445.49 11.83 -0.34 
457.54 3.97 -1.25 
446.41 12.83 -0.24 
446.66 12.94 -0.23 
447.87 11.98 -0.35 
458.83 4.77 -1.18 
459.06 4.69 -1.18 
453.10 10.74 -0.53 
445.21 16.56 0.19 
455.88 9.96 -0.37 
452.64 12.19 -0.37 
455.39 10.41 -0.32 
442.71 19.30 0.53 
443.25 19.22 0.51 
455.14 11.37 -0.22 
442.88 19.74 0.58 
445.07 18.46 0.40 
451.93 13.96 -0.18 
453.56 12.91 -0.30 
453.72 12.70 -0.33 
453.48 13.51 -0.24 
453.37 13.78 -0.21 
453.62 13.69 -0.22 
445.95 19.21 0.48 
446.63 18.92 0.44 
449.54 16.75 0.38 
451.98 15.30 -0.03 
452.08 15.68 0.01 
450.11 17.48 0.23 
452.07 16.30 0.08 
454.08 14.81 0.14 
448.29 19.18 0.44 
449.58 18.12 0.31 
453.45 15.79 0.01 
451.82 17.04 0.16 
451.82 17.69 0.23 
450.00 19.54 0.46 
450.18 19.06 0.41 
450.23 19.04 0.40 
452.29 17.93 0.48 
452.54 17.85 0.47 
449.93 19.75 0.49 
450.32 19.55 0.46 
445.41 4.38 -0.89 
442.82 7.08 -0.83 
443.14 6.83 -0.86 
444.14 6.05 -0.71 
459.92 -4.28 -2.08 
443.87 6.75 -0.64 
444.02 6.41 -0.67 
443.02 7.60 -0.78 
447.10 6.26 -0.96 
444.49 10.23 -0.27 
445.81 10.34 -0.27 
445.63 10.55 -0.25 
441.93 14.99 0.27 
448.17 11.20 -0.20 
449.30 10.54 -0.28 
449.57 10.45 -0.29 
453.22 8.25 -0.54 
455.85 7.43 -0.63 
454.68 9.11 -0.45 
446.81 17.15 0.45 
456.93 4.11 -0.27 
458.17 3.36 -0.35 
457.04 4.64 -0.23 
456.26 6.02 -0.10 
458.79 4.15 -0.30 
453.04 10.29 0.35 
447.61 14.17 0.86 
450.68 12.91 0.65 
451.26 13.69 0.71 
452.82 12.94 0.59 
453.43 12.71 0.56 
454.17 12.37 0.51 
454.78 11.82 0.44 
444.94 18.61 1.39 
445.17 19.04 1.43 
453.80 14.08 0.67 
449.78 16.88 1.06 
453.71 14.27 0.69 
454.52 14.28 0.67 
455.32 14.36 0.66 
448.15 19.65 1.39 
449.02 19.51 1.35 
459.90 -4.38 -0.99 
460.16 -4.57 -1.01 
458.09 1.07 -0.54 
442.87 11.50 0.75 
459.24 0.74 -0.58 
460.71 -0.32 -0.68 
444.00 11.85 0.74 
445.38 11.66 0.68 
446.41 12.70 0.75 
447.81 11.83 0.63 
448.05 11.70 0.61 
447.59 13.88 0.83 
446.79 15.34 1.23 
446.91 14.99 1.20 
445.07 16.77 1.20 
445.38 16.41 1.15 
454.35 10.77 0.64 
456.78 10.34 0.55 
457.13 10.37 0.55 
446.81 17.39 1.43 
447.39 17.11 1.38 
448.32 17.83 1.42 
452.86 11.43 1.37 
453.22 11.46 1.35 
452.44 12.83 1.49 
453.48 12.50 1.42 
453.43 14.02 1.54 
455.58 12.82 1.35 
455.41 13.33 1.40 
455.87 12.81 1.34 
453.73 15.16 1.62 
454.21 15.12 1.59 
448.14 19.55 2.28 
453.88 15.59 1.64 
448.13 19.80 2.30 
448.40 19.64 2.27 
459.16 -0.63 0.35 
457.33 1.03 0.50 
460.03 -1.06 0.30 
457.92 0.75 0.46 
461.21 -1.35 0.26 
457.64 1.40 0.51 
457.91 1.36 0.50 
458.89 0.57 0.43 
453.63 5.47 0.91 
455.94 4.56 0.77 
457.88 3.30 0.62 
458.03 3.09 0.61 
457.70 4.02 0.67 
457.44 4.70 0.73 
446.43 12.61 1.76 
447.91 11.51 1.60 
446.53 13.00 1.79 
447.74 12.04 1.65 
457.69 5.40 0.76 
448.86 11.85 1.58 
449.22 11.33 1.52 
449.63 11.29 1.50 
445.46 16.36 2.13 
447.00 16.76 2.09 
447.83 17.06 2.07 
446.00 19.40 2.38 
446.24 19.21 2.35 
459.60 -4.43 0.12 
460.74 -4.37 0.10 
458.16 -1.65 0.31 
458.75 -2.01 0.28 
459.12 -1.89 0.28 
446.91 7.52 1.33 
442.78 11.65 1.86 
442.66 11.97 1.90 
443.15 11.58 1.84 
444.06 11.73 1.81 
444.10 12.12 1.84 
445.40 11.12 1.69 
445.36 11.54 1.73 
444.73 13.69 2.18 
443.00 15.18 2.16 
447.00 14.97 2.18 
454.57 10.45 2.11 
454.80 11.02 2.13 
453.47 12.63 2.31 
454.17 12.21 2.24 
452.72 13.65 2.42 
452.32 14.04 2.47 
453.11 13.68 2.40 
454.98 12.58 2.21 
455.19 12.31 2.18 
453.55 13.98 2.39 
453.56 13.68 2.37 
455.05 12.77 2.22 
454.76 13.67 2.29 
454.92 13.21 2.25 
448.13 20.00 3.21 
448.07 20.26 3.24 
448.63 20.00 3.17 
450.51 9.73 2.31 
454.95 7.74 1.95 
450.93 10.79 2.35 
454.53 8.49 2.01 
446.90 13.91 2.83 
445.70 15.91 3.07 
452.92 11.40 2.27 
445.77 16.57 3.11 
450.18 14.72 2.66 
450.57 14.67 2.63 
444.84 19.16 3.39 
445.22 18.91 3.34 
449.08 16.89 2.89 
460.70 -3.71 1.21 
451.42 3.41 1.91 
452.83 2.15 1.77 
460.17 -1.41 1.31 
458.24 0.69 1.46 
444.19 12.27 2.90 
447.96 11.38 2.58 
446.20 12.68 2.79 
442.94 15.33 3.22 
446.80 12.74 2.75 
442.81 16.02 3.29 
444.77 16.68 3.19 
453.31 13.09 3.22 
454.00 12.46 3.14 
449.62 1.02 1.88 
450.82 1.79 1.86 
459.82 -4.09 1.22 
459.99 -4.46 1.20 
460.74 -4.32 1.18 
451.34 2.44 1.86 
451.75 1.87 1.81 
442.52 8.64 2.76 
443.25 8.69 2.72 
444.74 8.16 2.58 
444.77 9.45 2.67 
443.12 11.83 2.94 
442.27 16.69 3.60 
451.39 11.44 3.30 
450.87 12.50 3.39 
453.01 11.10 3.15 
453.55 10.87 3.10 
453.99 11.20 3.08 
453.76 11.41 3.11 
453.47 12.49 3.18 
448.65 16.53 3.82 
445.47 19.25 4.30 
446.28 20.20 4.30 
448.36 10.08 3.48 
451.24 7.88 3.15 
448.07 10.68 3.53 
446.13 12.53 3.80 
448.00 11.37 3.58 
446.39 13.41 3.83 
444.72 16.54 4.18 
445.13 16.44 4.14 
445.63 16.10 4.07 
444.87 17.01 4.20 
442.09 19.29 4.64 
444.71 19.97 4.43 
445.24 19.40 4.34 
450.06 5.50 3.14 
446.75 8.07 3.51 
450.56 5.57 3.11 
450.39 6.26 3.15 
451.15 5.80 3.07 
445.41 10.60 3.76 
444.22 12.43 3.97 
443.75 13.24 4.06 
444.05 13.00 4.02 
443.71 13.94 4.11 
447.58 18.37 4.96 
448.32 1.42 3.11 
448.48 1.09 3.09 
448.94 0.68 3.04 
442.93 8.75 3.87 
450.56 10.72 4.30 
446.83 19.34 5.32 
447.24 18.96 5.26 
444.45 12.84 5.03 
447.53 10.86 4.61 
446.48 11.94 4.76 
445.66 13.55 4.93 
446.08 15.07 5.21 
443.98 18.04 5.37 
442.08 15.35 5.43 
443.78 14.20 5.42 
448.76 12.80 5.53 
449.17 12.40 5.46 
449.51 12.25 5.42 
448.06 14.03 5.65 
447.92 14.63 5.69 
448.72 9.47 5.45 
448.90 9.18 5.43 
449.20 9.81 5.40 
446.47 12.25 5.80 
445.99 12.94 5.88 
449.33 11.03 5.41 
448.29 12.05 5.56 
448.98 11.49 5.46 
443.98 16.61 6.30 
445.15 15.91 6.11 
445.34 15.73 6.07 
444.34 17.46 6.29 
444.57 10.55 5.99 
447.11 9.34 5.64 
445.50 12.99 5.95 
442.76 12.02 6.27 
444.32 10.70 6.02 
446.82 15.11 -1.72 
450.31 12.59 -1.96 
447.90 16.50 -1.49 
443.44 6.69 -2.00 
443.54 6.45 -1.81 
442.73 7.54 -1.90 
444.13 6.59 -1.78 
451.12 1.81 -2.50 
443.85 7.42 -1.91 
442.88 8.47 -1.79 
443.70 7.90 -1.85 
443.34 8.72 -1.75 
443.61 8.56 -1.77 
454.80 3.06 -2.30 
444.39 10.26 -1.33 
444.51 10.01 -1.36 
452.87 4.67 -1.90 
457.93 1.10 -2.50 
458.17 1.00 -2.50 
442.79 11.94 -1.36 
457.71 3.39 -2.22 
445.42 12.06 -1.32 
457.65 3.70 -2.19 
441.75 15.02 -0.78 
448.05 11.23 -1.17 
449.36 10.36 -1.26 
452.58 8.15 -1.49 
446.50 12.81 -1.22 
449.49 10.88 -1.20 
450.84 10.01 -1.51 
443.58 15.31 -0.94 
454.60 9.45 -1.31 
445.17 16.48 -0.78 
446.74 15.14 -0.71 
446.97 15.01 -0.72 
444.63 17.66 -0.43 
446.62 16.53 -0.54 
454.10 11.34 -1.09 
454.47 11.02 -1.12 
444.61 18.00 -0.38 
454.57 11.45 -1.07 
455.04 11.39 -1.07 
443.52 19.68 -0.40 
443.97 19.27 -0.45 
445.11 18.44 -0.54 
452.33 13.67 -1.05 
453.05 13.15 -1.10 
453.19 12.98 -1.12 
453.43 12.77 -1.14 
443.58 20.07 -0.35 
443.76 19.83 -0.38 
445.23 18.81 -0.49 
453.54 13.19 -1.09 
443.40 20.26 -0.33 
443.72 20.08 -0.35 
448.68 16.91 -0.47 
447.41 18.32 -0.53 
451.36 15.53 -0.83 
453.16 15.16 -0.86 
451.11 16.67 -0.69 
452.35 15.85 -0.78 
448.22 19.59 -0.36 
449.37 19.26 -0.39 
449.82 19.76 -0.33 
450.76 19.66 -0.33 
450.92 19.63 -0.11 
459.77 -1.08 -1.70 
454.62 3.22 -1.26 
458.22 0.98 -1.49 
443.98 12.01 -0.26 
454.42 4.88 -1.09 
457.72 3.32 -1.26 
445.40 11.94 -0.28 
457.52 3.93 -1.19 
443.52 15.18 0.09 
446.54 12.88 -0.19 
448.01 11.83 -0.32 
456.52 6.27 -0.95 
458.90 4.77 -1.11 
457.53 6.63 -0.92 
457.63 7.17 -0.86 
445.23 16.47 0.22 
449.81 13.13 -0.19 
455.41 10.34 -0.27 
455.85 9.99 -0.31 
442.77 19.26 0.57 
443.33 19.16 0.55 
454.65 11.46 -0.16 
455.07 11.32 -0.17 
442.90 19.69 0.62 
445.11 18.39 0.44 
454.82 12.01 -0.10 
453.54 13.16 -0.22 
445.48 18.83 0.49 
453.36 13.95 -0.13 
446.49 18.98 0.49 
449.53 16.68 0.43 
451.86 15.13 0.01 
453.42 14.34 0.15 
446.75 18.84 0.48 
452.16 15.70 0.07 
449.62 17.85 0.33 
452.15 15.95 0.10 
448.15 19.16 0.50 
449.60 18.13 0.37 
453.32 15.83 0.08 
451.77 16.98 0.22 
449.73 19.06 0.47 
451.02 18.01 0.34 
450.04 19.53 0.52 
450.26 19.03 0.46 
450.14 19.69 0.54 
450.41 19.44 0.50 
452.06 18.19 0.57 
445.11 5.03 -0.79 
445.20 4.58 -0.83 
445.49 4.44 -0.85 
443.10 6.76 -0.83 
444.69 5.59 -0.73 
445.35 5.18 -0.77 
459.76 -4.26 -2.01 
443.91 6.67 -0.61 
444.11 6.39 -0.64 
442.95 7.58 -0.74 
445.47 6.24 -0.66 
445.70 6.07 -0.68 
442.79 11.83 -0.27 
447.27 10.12 -0.26 
441.80 15.09 0.32 
441.94 14.86 0.29 
448.12 11.20 -0.15 
453.15 8.21 -0.49 
455.67 7.56 -0.56 
455.03 8.14 -0.50 
454.80 9.24 -0.38 
446.96 15.20 0.29 
447.29 17.16 0.50 
456.96 4.70 -0.16 
458.85 4.16 -0.23 
450.72 12.94 0.72 
452.73 11.76 0.55 
452.70 12.08 0.58 
451.34 13.72 0.77 
449.64 15.59 1.00 
457.60 10.38 0.61 
449.70 16.82 1.12 
454.61 14.22 0.73 
448.14 19.71 1.47 
459.77 -4.33 -0.92 
457.72 0.64 -0.50 
458.01 0.53 -0.52 
454.57 3.16 -0.25 
455.08 2.83 -0.28 
442.73 11.68 0.82 
454.15 4.07 -0.16 
460.59 -0.41 -0.62 
459.22 1.31 -0.47 
443.99 11.74 0.79 
453.92 5.06 -0.07 
457.51 3.44 -0.27 
457.56 3.03 -0.31 
445.30 11.77 0.75 
456.92 4.11 -0.21 
446.45 12.57 0.80 
448.38 11.33 0.63 
446.33 12.79 0.82 
448.07 11.77 0.68 
455.63 7.42 0.39 
454.79 9.15 0.55 
444.99 16.86 1.27 
445.40 16.40 1.21 
455.74 9.39 0.55 
455.77 10.67 0.66 
455.59 11.20 0.71 
456.83 10.28 0.61 
457.16 10.25 0.60 
445.28 18.95 1.48 
454.90 8.88 1.17 
455.88 8.70 1.12 
455.70 8.90 1.14 
453.48 12.96 1.53 
453.43 14.15 1.63 
453.57 13.94 1.61 
449.54 17.00 2.06 
453.81 15.12 1.69 
454.22 15.05 1.67 
448.25 19.37 2.34 
453.86 15.45 1.72 
454.15 15.30 1.69 
448.44 19.70 2.36 
454.42 2.81 0.76 
457.50 0.79 0.54 
457.94 0.35 0.50 
458.13 0.18 0.48 
459.21 -0.48 0.42 
460.06 -0.85 0.37 
460.70 -1.47 0.32 
458.94 0.83 0.50 
459.08 0.51 0.48 
453.68 4.80 0.92 
458.95 1.28 0.53 
454.00 5.07 0.93 
457.93 3.15 0.68 
457.67 3.95 0.74 
459.38 2.97 0.62 
455.32 6.05 0.95 
457.25 4.80 0.80 
447.87 11.54 1.67 
454.01 7.17 1.08 
455.86 6.21 0.94 
456.21 5.76 0.90 
457.59 4.84 0.80 
446.33 12.69 1.84 
447.82 11.93 1.71 
446.50 13.15 1.87 
454.10 8.44 1.17 
455.18 7.53 1.06 
455.48 7.52 1.05 
448.89 11.90 1.66 
450.54 11.01 1.51 
454.69 8.30 1.13 
445.32 16.25 2.21 
445.49 16.06 2.18 
445.94 16.91 2.24 
445.65 19.07 2.45 
446.27 19.30 2.44 
459.67 -4.45 0.17 
451.58 1.10 0.74 
452.43 1.11 0.71 
458.84 -1.61 0.36 
459.09 -1.82 0.34 
443.05 11.37 1.89 
442.69 11.92 1.95 
442.81 11.62 1.92 
445.44 11.07 1.75 
445.30 11.66 1.81 
443.03 15.47 2.26 
452.60 13.17 2.48 
453.36 12.71 2.40 
453.62 13.62 2.45 
454.55 13.70 2.39 
454.90 13.29 2.35 
455.00 13.09 2.33 
454.44 13.92 2.42 
448.64 20.00 3.27 
454.20 7.73 2.06 
453.91 8.61 2.12 
454.59 8.66 2.09 
450.37 12.17 2.56 
452.99 11.40 2.34 
451.06 13.06 2.57 
446.05 16.53 3.18 
452.31 13.24 2.51 
450.84 14.50 2.69 
452.22 13.56 2.53 
444.78 19.47 3.52 
445.49 19.16 3.44 
448.63 16.97 3.03 
448.85 16.64 2.99 
444.57 20.02 3.58 
448.50 19.69 3.26 
451.29 3.48 1.98 
452.90 2.43 1.84 
453.96 1.73 1.76 
451.38 4.02 2.01 
451.53 3.79 1.99 
450.07 5.41 2.16 
460.15 -1.35 1.37 
451.61 5.12 2.05 
458.17 0.60 1.52 
454.94 3.34 1.79 
445.19 11.17 2.83 
447.98 11.16 2.65 
448.13 10.90 2.62 
442.77 14.87 3.28 
446.34 12.94 2.88 
448.05 11.57 2.67 
446.81 12.90 2.85 
442.73 15.91 3.37 
446.84 13.96 2.92 
445.66 15.71 3.14 
444.77 16.59 3.28 
454.16 12.32 3.21 
454.11 13.21 3.26 
459.24 -4.64 1.27 
451.99 0.93 1.81 
452.57 0.66 1.77 
450.47 2.17 1.96 
451.01 1.79 1.91 
452.27 1.03 1.81 
459.65 -4.02 1.28 
459.92 -4.11 1.27 
460.16 -4.35 1.25 
460.49 -4.40 1.24 
451.86 1.83 1.87 
453.12 0.81 1.75 
451.26 2.53 1.93 
443.10 8.58 2.79 
444.68 9.60 2.76 
442.99 11.99 3.04 
442.13 14.89 3.33 
450.94 11.84 3.44 
453.39 10.92 3.20 
452.97 11.63 3.27 
453.68 11.52 3.21 
451.41 13.50 3.49 
453.45 12.90 3.29 
453.71 12.56 3.26 
453.31 13.24 3.32 
448.55 9.97 3.54 
448.08 10.76 3.62 
446.23 12.77 3.90 
447.99 11.42 3.67 
446.91 13.90 3.91 
445.56 16.17 4.18 
445.90 16.08 4.14 
446.02 17.07 4.20 
445.28 19.64 4.46 
449.85 5.50 3.23 
450.21 5.47 3.20 
451.07 5.36 3.14 
450.81 5.62 3.17 
442.97 11.93 4.14 
445.45 10.47 3.83 
450.00 7.28 3.30 
445.02 11.64 3.94 
444.17 12.58 4.07 
443.92 13.89 4.18 
442.19 15.46 4.45 
441.77 18.78 4.74 
448.40 1.00 3.16 
443.21 7.72 3.87 
443.14 8.50 3.92 
442.80 11.44 4.12 
450.49 10.70 4.40 
445.27 18.22 5.35 
445.97 12.50 4.95 
446.59 12.25 4.87 
448.12 11.06 4.65 
446.11 13.02 4.96 
444.55 16.22 5.31 
443.38 18.37 5.58 
443.32 18.62 5.61 
449.63 12.09 5.51 
448.93 9.76 5.53 
448.28 10.34 5.63 
448.92 10.50 5.55 
446.91 12.70 5.87 
448.99 12.68 5.61 
444.35 16.68 6.38 
443.97 17.50 6.48 
445.77 16.42 6.18 
448.04 9.40 5.63 
447.24 10.33 5.75 
448.68 9.14 5.55 
445.59 13.94 6.09 
444.24 16.34 6.38 
443.83 17.10 6.48 
444.93 10.29 6.04 
444.98 10.65 6.05 
450.36 12.59 -1.87 
450.13 12.97 -1.83 
449.51 13.94 -1.71 
447.86 16.35 -1.44 
450.48 19.83 -0.88 
450.32 20.04 -0.86 
443.88 6.82 -1.67 
451.20 1.85 -2.41 
442.30 8.17 -1.74 
445.34 6.71 -1.67 
443.61 8.13 -1.73 
443.43 8.82 -1.65 
443.74 8.63 -1.67 
444.32 10.20 -1.25 
453.11 4.59 -2.06 
458.08 0.99 -2.43 
442.78 11.99 -1.27 
445.71 10.43 -1.21 
454.37 4.62 -2.04 
444.07 12.01 -1.25 
457.69 3.39 -2.14 
445.43 12.01 -1.24 
457.64 3.73 -2.10 
458.30 4.03 -1.83 
448.08 11.16 -1.09 
449.41 10.47 -1.16 
452.62 8.37 -1.38 
443.41 15.31 -0.85 
446.41 12.95 -1.11 
443.55 15.32 -0.85 
455.14 7.81 -1.64 
453.31 9.60 -1.45 
453.95 8.96 -1.52 
454.09 8.78 -1.54 
449.15 12.94 -1.08 
446.86 15.07 -0.63 
445.39 16.61 -0.67 
442.19 19.26 -0.37 
454.05 11.31 -1.00 
443.16 19.30 -0.35 
446.61 16.64 -0.44 
454.54 11.42 -0.98 
454.95 11.44 -0.98 
455.10 11.28 -1.00 
442.89 19.82 -0.29 
442.97 19.50 -0.33 
443.37 19.32 -0.35 
444.45 18.88 -0.18 
445.18 18.43 -0.44 
446.72 17.06 -0.38 
442.92 20.12 -0.25 
445.35 18.83 -0.39 
452.44 13.96 -0.70 
452.60 13.74 -0.73 
447.65 18.27 -0.44 
452.78 14.62 -0.84 
451.11 16.41 -0.63 
452.17 15.74 -0.70 
451.33 17.39 -0.51 
451.59 18.40 -0.38 
450.58 19.98 -0.20 
452.46 18.54 -0.14 
459.48 -1.28 -1.64 
454.88 1.94 -1.31 
459.71 -1.03 -1.62 
455.56 2.24 -1.28 
454.68 3.09 -1.19 
458.15 1.01 -1.41 
454.37 4.89 -1.00 
457.67 3.32 -1.17 
445.43 11.90 -0.18 
457.45 3.88 -1.12 
456.31 5.63 -0.93 
443.42 15.15 0.20 
446.49 12.90 -0.08 
453.93 8.49 -0.62 
454.50 7.92 -0.69 
459.30 4.78 -1.03 
453.87 8.81 -0.59 
454.45 8.63 -0.61 
455.64 7.78 -0.71 
455.62 8.14 -0.67 
458.10 7.14 -0.78 
455.86 9.11 -0.57 
445.29 16.45 0.33 
456.65 9.17 -0.56 
457.21 8.60 -0.63 
445.10 16.99 0.39 
455.98 9.76 -0.25 
454.66 11.46 -0.07 
455.21 11.25 -0.09 
442.83 20.01 0.77 
443.03 19.78 0.74 
445.12 18.63 0.58 
445.84 18.30 0.53 
454.81 11.97 -0.01 
445.68 18.54 0.56 
450.36 16.33 0.48 
445.99 19.32 0.65 
453.40 14.67 0.28 
447.70 18.83 0.57 
451.52 16.49 0.27 
452.94 15.31 0.35 
450.98 17.08 0.56 
452.10 16.27 0.46 
448.27 19.41 0.63 
451.04 17.48 0.38 
451.92 17.07 0.33 
452.48 16.79 0.29 
451.06 18.09 0.67 
450.20 19.12 0.58 
445.30 4.32 -0.77 
445.07 4.96 -0.70 
445.58 5.03 -0.70 
459.88 -4.28 -1.94 
443.68 6.55 -0.52 
443.94 6.38 -0.54 
445.28 6.08 -0.58 
445.52 5.85 -0.61 
460.99 -4.34 -1.94 
444.45 10.19 -0.14 
442.80 11.89 -0.16 
445.69 10.38 -0.13 
448.09 11.02 -0.08 
458.45 4.18 -0.82 
449.38 10.52 -0.14 
455.78 7.35 -0.50 
451.02 11.59 -0.03 
454.63 9.05 -0.32 
455.32 8.55 -0.37 
447.35 17.07 0.59 
459.04 3.55 -0.20 
459.30 3.35 -0.22 
456.40 5.71 0.03 
453.92 8.01 0.28 
454.43 7.70 0.24 
456.46 6.19 0.07 
459.14 4.50 -0.12 
454.02 8.54 0.33 
454.54 8.63 0.33 
456.00 8.48 0.28 
456.63 7.95 0.22 
455.46 11.49 0.56 
454.94 12.46 0.67 
455.62 12.32 0.90 
453.77 14.74 0.92 
454.21 14.20 1.10 
455.32 13.46 1.01 
454.49 14.83 1.15 
448.38 19.92 1.61 
449.17 19.67 1.56 
459.88 -4.36 -0.86 
459.62 -1.24 -0.60 
459.84 -1.37 -0.62 
442.70 11.71 0.94 
458.22 1.00 -0.40 
442.52 12.06 0.98 
459.50 0.72 -0.44 
453.35 5.48 0.07 
458.78 1.82 -0.34 
444.06 11.79 0.91 
457.30 3.17 -0.21 
457.61 3.09 -0.22 
445.32 11.72 0.86 
456.20 4.66 -0.06 
456.84 4.00 -0.13 
457.35 3.68 -0.16 
451.98 8.30 0.36 
446.37 12.72 0.93 
448.09 11.71 0.78 
447.83 13.94 1.01 
451.12 12.32 1.00 
451.62 11.64 0.93 
444.97 16.81 1.39 
445.42 16.35 1.33 
451.86 13.31 1.07 
455.78 10.60 0.75 
455.58 11.15 0.80 
445.05 18.55 1.57 
445.38 18.95 1.60 
455.12 12.18 0.90 
445.11 19.47 1.67 
446.71 18.52 1.72 
447.51 4.04 0.07 
450.64 5.71 0.42 
455.46 8.57 1.23 
455.83 8.61 1.21 
454.01 10.20 1.41 
454.86 9.90 1.35 
453.63 11.30 1.51 
454.98 10.29 1.37 
451.29 14.29 1.86 
455.21 11.60 1.46 
451.30 14.63 1.89 
448.38 19.55 2.49 
460.39 -1.16 0.42 
460.23 -0.87 0.44 
454.27 3.81 0.93 
457.86 1.47 0.65 
454.47 4.37 0.96 
457.97 2.05 0.69 
454.19 5.38 1.04 
455.46 4.20 0.91 
454.74 5.59 1.04 
456.83 4.42 0.88 
457.52 4.69 0.88 
458.77 3.97 0.79 
446.40 12.63 1.96 
447.71 11.65 1.81 
452.45 8.52 1.35 
453.95 7.94 1.24 
454.45 7.25 1.17 
446.55 13.14 2.00 
453.78 8.55 1.29 
454.81 8.35 1.23 
455.69 7.72 1.15 
455.61 7.96 1.17 
453.11 10.19 1.45 
453.87 9.80 1.38 
454.91 8.99 1.43 
445.03 15.78 2.32 
444.85 16.65 2.41 
445.38 16.23 2.34 
450.53 13.20 1.81 
446.14 16.93 2.36 
453.23 11.81 1.84 
444.93 18.66 2.60 
445.23 19.15 2.63 
453.86 13.45 1.94 
455.31 13.37 1.87 
451.62 0.95 0.82 
452.80 1.72 0.84 
459.30 -2.35 0.37 
447.54 5.76 1.34 
442.94 11.34 2.02 
442.79 11.65 2.06 
442.44 12.61 2.16 
444.14 11.66 1.99 
445.31 11.61 1.93 
459.11 2.34 1.02 
449.89 10.35 1.87 
443.03 15.50 2.40 
453.41 12.73 2.53 
455.07 11.71 2.36 
453.48 13.80 2.60 
453.64 13.86 2.59 
454.20 7.76 2.17 
454.71 7.98 2.15 
454.36 8.98 2.23 
454.60 8.66 2.20 
450.11 13.16 2.78 
450.07 13.76 2.82 
450.20 13.56 2.80 
452.98 11.40 2.47 
449.89 14.35 2.88 
449.87 14.67 2.91 
450.61 14.74 2.86 
450.33 15.25 2.92 
452.58 13.76 2.65 
448.18 17.20 3.23 
448.96 20.02 3.41 
448.91 20.28 3.44 
452.23 2.43 1.98 
451.35 3.43 2.08 
451.61 3.24 2.06 
451.45 3.90 2.10 
450.80 5.01 2.20 
450.64 6.90 2.33 
450.82 7.13 2.33 
450.75 7.86 2.38 
450.04 9.24 2.80 
448.04 11.10 2.77 
449.50 9.99 2.87 
443.06 15.33 3.45 
446.44 12.92 3.01 
443.07 16.05 3.51 
447.35 14.19 3.05 
444.71 16.53 3.43 
445.45 16.16 3.34 
445.73 16.01 3.31 
445.60 16.62 3.37 
445.87 16.42 3.33 
445.11 18.99 3.61 
449.58 1.19 2.05 
450.84 1.53 2.00 
450.81 1.93 2.03 
452.68 0.62 1.86 
452.02 1.75 1.95 
453.41 0.89 1.84 
451.80 2.07 1.98 
452.56 1.84 1.93 
453.70 0.81 1.82 
454.02 0.69 1.80 
442.84 11.57 3.16 
445.87 9.60 2.81 
443.00 12.03 3.19 
453.05 11.42 3.38 
453.37 11.60 3.37 
453.54 11.39 3.34 
452.71 12.51 3.47 
455.45 11.91 3.53 
456.02 11.80 3.49 
448.23 17.48 4.19 
450.14 7.96 3.45 
449.24 9.23 3.58 
451.05 7.94 3.37 
447.78 11.19 3.82 
447.95 11.24 3.81 
448.75 10.71 3.71 
445.56 16.27 4.36 
446.19 16.09 4.28 
452.56 11.76 3.74 
454.47 10.62 3.55 
445.11 17.23 4.47 
444.96 17.86 4.54 
444.94 18.12 4.56 
446.73 17.33 4.32 
448.01 16.69 4.15 
444.37 20.18 4.78 
445.11 19.53 4.65 
445.04 20.12 4.71 
445.53 19.95 4.65 
446.50 19.78 4.54 
446.31 19.96 4.57 
450.03 5.13 3.32 
448.82 6.53 3.48 
450.14 5.58 3.33 
449.21 6.50 3.45 
451.18 5.67 3.26 
445.29 10.69 4.01 
445.49 10.45 3.97 
448.64 8.37 3.59 
443.76 13.13 4.30 
444.01 12.85 4.26 
447.97 10.53 3.76 
442.48 15.01 4.56 
444.00 13.92 4.34 
446.24 12.54 4.04 
450.93 9.92 3.78 
444.51 16.61 4.48 
441.89 18.85 4.92 
448.57 1.12 3.26 
442.98 8.77 4.09 
443.59 11.17 4.19 
452.68 11.04 4.66 
455.08 11.51 4.45 
446.10 12.93 5.12 
444.27 16.78 5.56 
444.37 10.77 5.20 
445.73 9.73 5.00 
447.47 11.58 5.17 
441.82 15.60 5.77 
448.81 10.18 5.72 
448.00 11.79 5.87 
446.51 13.69 6.14 
446.27 14.24 6.20 
447.03 14.38 6.10 
447.17 10.20 5.93 
447.84 9.92 5.83 
448.90 9.18 5.68 
448.75 9.53 5.71 
448.10 10.78 5.83 
448.58 10.07 5.75 
447.59 11.18 6.19 
446.83 12.12 6.04 
445.58 13.52 6.26 
445.87 14.42 6.26 
444.98 10.60 6.22 
454.08 11.11 -1.90 
454.26 11.21 -1.88 
446.73 16.68 -1.37 
447.00 16.55 -1.38 
462.38 19.92 -0.44 
462.29 20.11 -0.42 
451.12 1.92 -2.32 
445.08 6.32 -1.64 
445.39 7.02 -1.56 
444.35 10.05 -1.20 
454.84 2.98 -2.14 
458.10 1.08 -2.32 
442.78 11.92 -1.21 
445.70 10.27 -1.16 
452.90 5.37 -1.88 
454.34 4.63 -1.95 
445.46 11.94 -1.18 
441.64 15.03 -0.63 
448.01 11.13 -1.03 
458.36 4.03 -1.73 
449.31 10.58 -1.08 
452.56 8.29 -1.31 
446.48 12.82 -1.06 
450.86 9.90 -1.36 
443.56 15.30 -0.79 
455.00 7.80 -1.56 
453.96 8.91 -1.44 
454.09 8.72 -1.46 
446.86 15.00 -0.57 
445.35 16.73 -0.59 
453.74 11.59 -1.12 
454.07 11.26 -0.93 
454.29 11.03 -0.96 
444.77 17.78 -0.25 
445.21 17.68 -0.26 
454.14 11.57 -1.12 
455.00 11.31 -0.91 
442.71 19.68 -0.25 
443.04 19.46 -0.28 
443.35 19.14 -0.10 
443.08 20.14 -0.19 
445.30 18.73 -0.34 
452.65 13.61 -0.67 
452.43 14.12 -0.61 
447.46 18.29 -0.37 
451.09 16.38 -0.57 
451.54 16.31 -0.57 
451.44 17.16 -0.47 
450.68 19.12 -0.02 
450.78 20.28 -0.09 
461.37 -4.62 -1.87 
459.65 -1.04 -1.52 
459.92 -1.20 -1.53 
457.59 0.82 -1.33 
454.58 3.06 -1.10 
458.14 1.01 -1.31 
458.43 0.95 -1.32 
454.36 4.91 -0.91 
457.25 3.70 -1.04 
456.29 5.57 -0.85 
459.50 3.21 -1.09 
453.83 7.66 -0.62 
455.45 7.56 -0.64 
453.95 8.82 -0.50 
454.17 8.67 -0.52 
454.48 8.58 -0.53 
455.67 8.14 -0.58 
453.03 10.61 -0.30 
445.20 16.56 0.42 
445.42 16.38 0.40 
453.86 10.88 -0.28 
454.18 10.85 -0.04 
456.52 9.20 -0.47 
456.78 8.71 -0.52 
445.16 16.88 0.46 
453.61 11.44 -0.22 
442.97 19.71 0.81 
443.10 20.04 0.84 
445.07 18.49 0.64 
445.61 18.43 0.63 
445.14 18.88 0.69 
445.59 18.73 0.67 
455.82 12.02 -0.17 
454.09 13.67 0.25 
446.02 19.17 0.71 
450.95 16.05 0.53 
447.76 18.98 0.67 
451.37 16.61 0.58 
448.22 19.43 0.72 
452.70 16.42 0.55 
450.56 18.05 0.75 
452.85 16.98 0.61 
449.50 19.37 0.70 
449.98 19.28 0.68 
450.14 19.10 0.66 
456.90 -4.26 -1.84 
445.19 4.95 -0.62 
445.65 4.95 -0.63 
459.75 -4.23 -1.83 
445.64 5.79 -0.54 
445.50 6.12 -0.50 
444.46 10.09 -0.07 
456.16 3.13 -0.84 
445.58 10.42 -0.04 
448.04 11.12 0.02 
449.40 10.55 -0.05 
443.44 15.12 0.28 
455.74 7.20 -0.42 
454.83 8.80 -0.26 
451.10 11.56 0.04 
446.81 14.87 0.43 
451.38 12.21 0.11 
446.71 15.33 0.48 
451.41 12.54 0.15 
447.46 17.18 0.68 
453.93 7.97 0.38 
454.46 7.67 0.34 
456.74 6.32 0.17 
454.12 8.56 0.43 
455.67 7.68 0.31 
452.55 10.19 0.61 
454.92 8.44 0.40 
456.60 7.33 0.26 
453.03 10.22 0.60 
456.11 8.45 0.37 
455.37 11.32 0.65 
449.87 15.22 1.17 
454.16 12.34 0.77 
455.79 11.31 0.64 
448.93 19.68 1.66 
459.74 -4.22 -0.75 
461.03 -4.12 -0.75 
446.25 6.40 0.42 
460.08 -1.59 -0.54 
454.49 3.24 -0.05 
458.24 1.04 -0.30 
453.36 5.54 0.17 
445.33 11.65 0.95 
456.23 4.59 0.03 
451.28 8.47 0.48 
447.94 11.27 1.07 
451.83 8.52 0.48 
452.78 8.21 0.42 
448.75 11.94 1.11 
446.83 14.93 1.45 
451.61 11.50 1.00 
444.98 16.74 1.48 
445.20 16.45 1.44 
445.44 16.28 1.42 
455.12 11.26 0.91 
455.64 11.08 0.88 
445.32 18.85 1.69 
451.53 14.98 1.33 
452.70 14.55 1.26 
455.68 12.15 0.97 
451.33 15.73 1.40 
447.60 3.97 0.16 
461.04 -2.09 -0.27 
456.54 1.52 0.06 
442.72 11.65 1.03 
445.56 10.29 1.04 
454.84 9.94 1.46 
455.32 9.48 1.40 
453.27 12.62 1.74 
453.77 12.32 1.69 
454.19 12.35 1.67 
454.06 12.89 1.73 
455.12 13.32 1.71 
452.28 8.48 1.45 
452.62 8.37 1.43 
453.91 7.87 1.34 
453.83 8.54 1.39 
445.33 16.07 2.44 
453.11 11.24 1.63 
450.43 13.10 2.15 
452.73 11.93 1.71 
452.30 12.69 1.79 
453.57 13.04 2.01 
445.21 19.28 2.75 
446.47 19.20 2.68 
442.82 11.59 2.16 
444.14 12.00 2.13 
447.92 11.15 2.11 
442.23 15.36 2.53 
443.01 15.07 2.46 
447.87 11.50 2.14 
450.10 10.23 1.94 
446.47 13.20 2.12 
450.20 10.69 1.98 
446.91 14.88 2.46 
444.89 16.59 2.51 
446.37 15.26 2.52 
447.59 14.96 2.43 
454.87 11.76 2.49 
453.09 14.03 2.76 
445.52 10.36 2.15 
453.33 10.21 2.48 
454.37 10.37 2.43 
450.25 13.28 2.90 
450.26 13.89 2.94 
450.28 13.58 2.92 
454.83 11.40 2.47 
447.43 16.62 3.36 
453.40 12.68 2.64 
447.16 20.23 3.70 
450.48 5.35 2.35 
449.42 7.64 2.56 
450.66 7.10 2.45 
451.40 8.01 2.46 
447.96 11.13 2.89 
446.39 13.05 3.15 
451.87 9.65 2.82 
446.75 14.29 3.22 
444.63 16.65 3.57 
445.65 16.30 3.46 
447.45 15.97 3.30 
445.06 19.12 3.76 
447.37 5.35 2.54 
442.88 11.51 3.28 
444.07 11.09 3.16 
445.03 11.20 3.10 
445.24 11.01 3.07 
446.84 9.90 3.13 
444.34 11.99 3.21 
445.57 10.90 3.28 
444.23 12.30 3.24 
447.70 11.28 3.17 
449.28 10.17 3.00 
449.46 9.94 2.98 
443.05 15.27 3.57 
442.54 16.09 3.68 
455.81 10.56 3.56 
454.46 11.86 3.71 
454.86 11.51 3.67 
455.77 11.33 3.59 
447.97 12.51 4.01 
448.06 12.50 4.00 
448.85 11.99 3.90 
448.31 14.72 4.13 
452.81 12.24 3.85 
446.10 17.19 4.51 
448.05 16.81 4.30 
448.39 17.02 4.28 
445.05 19.64 4.81 
447.97 17.71 4.37 
448.27 17.53 4.33 
446.53 19.94 4.69 
445.65 10.39 4.09 
447.65 11.19 3.96 
449.28 10.07 4.03 
444.03 13.89 4.47 
446.26 12.58 4.17 
444.00 14.17 4.49 
446.01 15.19 4.58 
444.13 17.00 4.69 
444.54 16.84 4.64 
444.12 10.94 4.26 
443.31 12.44 4.43 
442.33 15.23 4.73 
454.50 9.96 4.58 
454.49 10.41 4.59 
446.02 13.00 5.28 
448.92 10.81 4.85 
444.39 16.39 5.68 
445.95 17.79 5.76 
449.39 8.48 5.00 
450.09 8.31 4.93 
449.41 9.30 5.03 
449.72 8.84 4.98 
446.10 12.38 5.24 
447.52 11.71 5.30 
448.45 11.89 5.97 
448.53 11.88 5.96 
447.08 9.94 6.08 
447.49 10.52 6.05 
448.64 9.44 5.87 
446.44 11.54 6.22 
448.12 10.38 5.96 
448.93 10.06 5.85 
445.58 12.35 6.37 
445.13 13.47 6.48 
445.81 13.35 6.38 
446.65 12.88 6.25 
451.27 9.62 5.87 
446.57 13.88 6.30 
450.10 11.31 6.03 
446.12 14.50 6.40 
445.59 16.18 6.74 
454.09 11.20 -1.82 
462.45 19.81 -0.39 
462.56 19.65 -0.41 
462.16 20.24 -0.34 
462.35 19.94 -0.37 
443.71 7.68 -1.64 
443.66 7.98 -1.60 
444.41 10.16 -1.11 
454.87 2.98 -2.07 
455.23 2.92 -1.85 
458.15 1.10 -2.25 
453.08 4.64 -1.90 
445.69 10.29 -1.08 
454.37 4.63 -1.88 
457.77 3.34 -1.99 
457.71 3.71 -1.95 
441.67 14.87 -0.56 
447.99 11.09 -0.95 
458.46 3.95 -1.68 
449.31 10.48 -1.01 
456.69 5.57 -1.74 
446.42 12.95 -0.96 
447.01 12.65 -0.77 
449.67 10.82 -0.97 
443.52 15.32 -0.70 
455.03 7.84 -1.48 
455.29 7.74 -1.49 
454.00 8.87 -1.37 
446.70 14.64 -0.54 
450.45 12.08 -0.80 
454.72 9.29 -1.09 
446.78 15.04 -0.48 
445.41 16.67 -0.51 
442.18 19.19 -0.23 
444.63 17.73 -0.18 
452.81 12.17 -0.98 
453.61 11.67 -1.03 
453.95 11.44 -1.06 
454.01 11.63 -1.04 
454.52 11.30 -0.85 
454.99 11.33 -0.84 
443.11 19.44 -0.19 
443.35 19.19 -0.22 
445.02 18.26 -0.11 
452.96 12.97 -0.88 
453.33 12.82 -0.90 
442.90 20.07 -0.11 
443.25 19.87 -0.13 
452.83 13.54 -0.60 
453.12 13.34 -0.84 
445.31 18.88 -0.24 
448.07 18.35 -0.27 
447.34 19.31 -0.16 
450.13 18.75 0.01 
450.96 18.16 -0.05 
450.53 19.90 -0.06 
450.48 20.23 -0.02 
461.07 -4.44 -1.79 
459.69 -1.04 -1.46 
452.17 4.17 -0.90 
455.16 2.24 -1.11 
455.49 2.19 -1.12 
454.68 3.13 -1.02 
458.11 0.96 -1.25 
454.67 3.48 -0.98 
458.23 1.02 -1.25 
457.58 3.41 -1.00 
457.53 3.85 -0.96 
459.02 3.26 -1.02 
456.35 5.55 -0.77 
453.67 7.77 -0.53 
456.26 5.86 -0.74 
458.59 4.88 -0.85 
454.40 7.97 -0.51 
454.07 8.81 -0.42 
454.39 8.70 -0.43 
455.61 8.22 -0.49 
457.33 7.16 -0.61 
457.97 7.00 -0.63 
457.04 8.40 -0.48 
457.14 8.78 -0.44 
452.73 12.02 -0.06 
453.46 11.48 -0.12 
453.72 11.38 -0.14 
443.58 18.82 0.80 
453.97 12.22 -0.05 
454.55 11.61 0.11 
455.09 11.34 0.08 
455.26 11.13 0.06 
442.85 19.91 0.94 
445.07 18.41 0.74 
452.47 13.52 0.33 
453.47 12.82 0.02 
453.95 12.53 -0.01 
452.54 13.86 0.37 
445.98 19.33 0.84 
450.54 16.19 0.64 
451.14 15.95 0.61 
452.83 14.73 0.46 
451.68 16.53 0.45 
455.32 14.29 0.17 
450.03 17.85 0.83 
452.59 16.56 0.66 
452.97 16.17 0.61 
452.58 16.94 0.49 
452.88 16.70 0.67 
453.10 16.55 0.66 
449.73 19.84 0.85 
456.67 -3.82 -1.74 
456.85 -4.15 -1.77 
459.93 -4.37 -1.79 
444.59 6.39 -0.38 
445.54 5.80 -0.45 
445.75 5.58 -0.48 
461.05 -2.12 -1.29 
444.43 10.06 0.02 
445.70 10.18 0.02 
445.53 10.41 0.04 
459.61 1.95 -0.89 
459.51 2.30 -0.85 
441.61 15.04 0.59 
441.95 14.89 0.57 
448.03 11.04 0.09 
444.98 13.52 0.39 
449.44 10.49 0.03 
451.16 11.47 0.12 
446.66 14.87 0.52 
446.72 15.26 0.57 
451.74 12.64 0.24 
442.68 18.90 0.82 
444.30 17.86 0.88 
444.13 18.41 0.95 
446.77 17.07 0.77 
447.31 17.30 0.79 
447.53 17.13 0.77 
458.96 3.11 -0.07 
459.01 3.67 -0.02 
457.27 5.85 0.20 
453.98 8.65 0.53 
455.65 7.80 0.41 
455.00 8.43 0.48 
455.07 8.78 0.51 
456.52 8.02 0.41 
452.82 11.71 0.85 
453.54 12.50 0.90 
452.85 13.31 1.00 
453.41 12.69 0.93 
454.23 12.31 0.87 
454.99 12.48 0.86 
455.67 14.74 1.06 
448.83 20.24 1.85 
449.52 19.67 1.76 
458.99 -4.18 -0.68 
459.90 -4.49 -0.71 
460.17 -4.68 -0.73 
459.65 -1.18 -0.44 
459.92 -1.34 -0.46 
457.78 0.50 -0.27 
456.13 3.71 0.32 
457.32 3.13 -0.04 
457.64 3.04 -0.05 
459.56 1.81 0.11 
456.91 3.99 0.04 
457.41 3.65 0.00 
459.37 1.98 0.13 
461.05 1.84 0.10 
453.97 7.97 0.47 
453.86 8.19 0.49 
446.51 15.10 1.58 
446.84 14.87 1.55 
444.94 16.87 1.61 
446.72 17.27 1.79 
451.91 14.66 1.39 
445.15 19.62 1.90 
451.38 15.70 1.50 
446.64 19.79 2.05 
450.13 17.77 1.74 
447.58 3.97 0.25 
461.12 -2.06 -0.21 
447.96 11.21 1.16 
442.53 15.39 1.73 
460.12 -1.67 0.55 
457.48 0.55 0.77 
458.04 0.25 0.74 
459.90 -0.94 0.60 
457.19 1.15 0.82 
458.65 0.41 0.73 
459.19 -0.36 0.66 
460.18 -1.06 0.59 
459.30 0.36 0.70 
459.53 1.02 0.74 
459.06 1.90 0.81 
458.17 3.10 0.92 
458.03 3.72 0.97 
457.46 6.12 1.47 
446.23 16.96 2.61 
444.98 18.75 2.86 
449.52 15.71 2.52 
450.53 15.66 2.47 
446.48 19.97 2.90 
447.85 19.84 2.80 
448.48 19.47 2.73 
448.59 19.75 2.76 
459.33 -4.34 0.41 
459.63 -4.38 0.40 
460.59 -4.22 0.38 
461.25 -4.42 0.35 
461.63 -4.32 0.35 
461.91 -4.58 0.33 
458.81 -1.31 0.61 
457.15 0.56 0.79 
459.05 2.47 1.18 
447.97 11.12 2.21 
447.89 11.45 2.24 
446.33 15.19 2.63 
446.89 14.79 2.57 
444.80 16.71 2.66 
447.33 17.76 2.81 
447.68 5.21 1.76 
445.65 10.27 2.25 
442.24 16.26 2.94 
454.94 11.32 2.85 
454.83 12.29 2.91 
447.62 19.00 3.71 
448.51 20.22 3.75 
451.95 9.51 2.91 
444.62 16.57 3.72 
454.43 10.14 2.80 
445.12 19.07 3.91 
445.15 19.40 3.94 
446.54 19.83 3.87 
459.77 -4.37 1.48 
445.62 10.95 3.40 
449.30 10.08 3.11 
441.71 15.69 3.86 
447.81 11.29 3.28 
455.70 11.53 3.71 
446.63 7.19 3.09 
449.85 12.56 3.99 
452.22 10.77 3.95 
445.06 19.85 5.01 
449.25 9.94 4.14 
448.71 12.17 4.31 
448.24 12.94 4.39 
446.00 15.14 4.73 
447.21 14.78 4.59 
443.39 18.68 5.08 
443.46 18.65 5.07 
446.36 18.05 4.89 
446.81 8.55 4.27 
442.57 10.50 4.74 
450.16 12.01 5.18 
448.21 14.26 5.49 
449.93 13.35 5.26 
449.82 13.56 5.28 
450.28 13.23 5.22 
449.08 14.86 5.42 
449.10 14.53 5.40 
446.65 16.82 5.80 
448.43 15.40 5.52 
449.43 15.67 5.42 
447.52 11.62 5.44 
443.03 17.34 6.25 
445.76 15.25 5.81 
445.98 9.38 5.50 
446.89 8.84 5.39 
442.32 17.72 6.35 
449.98 11.42 6.19 
446.44 14.53 6.74 
446.33 14.77 6.76 
445.40 16.34 6.96 
447.10 12.36 6.57 
462.92 18.94 -0.44 
462.51 19.59 -0.36 
462.84 19.09 -0.42 
462.08 20.27 -0.28 
462.24 20.01 -0.31 
451.06 1.89 -2.22 
444.91 7.15 -1.43 
454.79 3.07 -2.02 
458.08 1.13 -2.21 
452.96 4.72 -1.84 
452.96 5.51 -1.75 
454.28 4.68 -1.83 
457.58 3.54 -1.92 
445.44 12.07 -1.04 
458.42 3.90 -1.64 
449.34 10.37 -0.98 
456.54 5.77 -1.67 
447.76 12.20 -0.99 
449.63 10.89 -0.91 
450.83 10.06 -1.22 
454.99 7.90 -1.43 
453.96 8.88 -1.32 
453.13 10.14 -1.18 
446.72 14.60 -0.49 
449.06 13.18 -0.86 
453.07 10.38 -1.15 
446.84 14.96 -0.45 
453.04 10.76 -1.11 
445.37 16.65 -0.47 
445.32 16.91 -0.43 
452.74 12.18 -0.93 
453.96 11.29 -1.03 
442.38 19.38 -0.16 
445.11 17.63 -0.14 
452.39 12.98 -0.84 
442.59 19.79 -0.11 
442.66 19.74 -0.11 
446.68 16.94 -0.21 
453.34 12.86 -0.84 
453.44 12.66 -0.87 
445.35 18.36 -0.05 
453.04 13.08 -0.82 
445.44 18.94 -0.18 
447.92 17.24 -0.15 
448.72 16.65 -0.22 
452.49 14.37 -0.67 
453.32 13.56 -0.76 
447.63 18.16 -0.25 
450.22 19.07 0.10 
450.72 19.82 -0.01 
461.00 -4.29 -1.74 
459.61 -1.13 -1.42 
456.54 1.21 -1.18 
457.42 0.78 -1.23 
454.57 3.12 -0.97 
454.59 3.57 -0.93 
458.15 1.07 -1.20 
461.55 -0.95 -1.40 
461.31 0.11 -1.30 
457.58 3.11 -0.98 
457.55 3.43 -0.95 
456.01 4.88 -0.79 
453.70 7.57 -0.49 
447.84 11.95 0.03 
453.91 8.45 -0.40 
455.39 7.70 -0.49 
457.17 7.34 -0.54 
457.37 7.20 -0.55 
458.82 5.84 -0.70 
453.26 10.12 -0.21 
454.96 8.87 -0.36 
455.70 8.35 -0.42 
454.78 9.43 -0.30 
455.14 9.63 -0.28 
456.97 8.24 -0.44 
452.67 12.05 0.00 
453.37 11.49 -0.06 
452.42 12.90 0.10 
454.01 12.21 0.01 
453.45 12.83 0.08 
453.95 12.54 0.05 
454.94 11.83 -0.04 
453.44 13.53 0.16 
453.72 13.33 0.14 
453.94 12.85 0.08 
455.97 11.86 -0.04 
453.38 14.38 0.26 
453.84 14.32 0.25 
452.23 15.96 0.66 
452.33 16.65 0.74 
451.38 18.02 0.90 
456.71 -3.97 -1.71 
445.27 6.00 -0.38 
460.99 -2.09 -1.25 
444.39 10.00 0.06 
456.56 1.55 -0.89 
448.76 7.47 -0.47 
456.19 3.08 -0.73 
459.47 2.28 -0.81 
459.57 1.91 -0.85 
447.95 11.16 0.16 
458.38 4.15 -0.62 
444.96 13.51 0.44 
446.69 15.16 0.61 
446.79 14.83 0.58 
444.25 17.42 0.89 
444.71 17.33 0.88 
444.27 17.82 0.94 
446.76 16.55 0.77 
446.54 16.78 0.80 
446.90 17.29 0.85 
457.43 5.99 0.27 
454.93 8.04 0.51 
457.01 6.44 0.32 
456.52 7.43 0.42 
455.66 14.94 1.16 
460.06 -4.63 -0.69 
461.59 -4.65 -0.71 
448.79 5.80 0.45 
459.56 -1.18 -0.39 
460.00 -1.53 -0.43 
449.56 5.94 0.45 
457.67 0.52 -0.22 
454.29 3.28 0.09 
457.60 0.89 -0.19 
459.83 0.64 -0.25 
459.44 1.60 0.14 
457.21 3.83 0.08 
457.65 3.09 0.00 
459.37 1.99 0.17 
456.72 4.17 0.12 
458.75 2.96 -0.03 
460.78 1.89 0.15 
458.09 4.27 0.38 
447.68 11.91 1.09 
453.89 8.11 0.54 
455.78 6.94 0.65 
448.82 12.05 1.29 
453.94 8.68 0.60 
452.97 10.12 0.76 
446.41 15.21 1.67 
446.62 14.98 1.64 
446.84 14.81 1.61 
452.00 11.72 1.17 
445.21 16.64 1.66 
446.42 16.94 1.84 
446.84 16.68 1.61 
457.48 9.66 0.86 
446.51 17.38 1.89 
451.37 15.40 1.55 
449.60 18.20 1.88 
450.24 17.96 1.83 
458.65 -0.42 -0.02 
456.36 1.69 0.19 
444.05 10.39 1.04 
444.67 13.55 1.55 
458.93 -0.49 0.71 
457.71 0.92 0.84 
460.00 -0.72 0.66 
458.70 0.64 0.79 
459.26 0.28 0.75 
454.63 3.48 1.14 
457.86 1.52 0.88 
458.54 1.27 0.84 
454.30 4.74 1.25 
454.54 4.62 1.23 
459.40 1.34 0.82 
453.59 5.72 1.35 
454.19 5.50 1.31 
458.19 3.14 0.98 
458.51 3.05 0.97 
456.60 4.77 1.16 
458.18 3.95 1.04 
457.33 5.05 1.15 
457.84 4.35 1.08 
458.75 4.04 1.03 
457.62 4.92 1.13 
457.16 5.66 1.20 
454.04 8.31 1.54 
454.94 7.89 1.47 
455.53 7.63 1.42 
457.43 6.07 1.52 
454.82 8.22 1.50 
455.38 7.87 1.45 
455.13 8.75 1.53 
454.33 9.91 1.66 
454.60 10.43 1.69 
451.58 1.14 1.08 
458.73 -3.69 0.50 
459.53 -4.35 0.44 
447.64 4.89 1.54 
458.93 -1.92 0.61 
457.94 -0.68 0.73 
459.62 -1.68 0.61 
459.85 -1.80 0.59 
459.25 -0.52 1.03 
453.96 3.72 1.18 
460.04 -0.26 1.03 
453.22 5.04 1.31 
449.23 10.31 2.16 
456.12 5.94 1.56 
448.65 11.48 2.29 
446.29 15.12 2.72 
446.84 14.71 2.65 
445.17 16.24 2.69 
446.82 14.99 2.68 
445.47 16.63 2.72 
445.46 16.96 2.75 
446.45 17.53 2.93 
447.21 17.62 2.90 
450.93 2.01 1.46 
445.49 10.48 2.35 
442.12 16.21 3.03 
442.02 16.89 3.10 
441.90 17.20 3.14 
454.92 11.28 2.92 
454.15 7.19 2.43 
450.99 12.94 3.28 
445.45 19.14 4.01 
449.48 1.02 2.32 
459.48 -4.49 1.52 
450.19 2.06 2.34 
451.06 1.48 2.25 
452.44 0.47 2.12 
459.59 -3.81 1.55 
460.04 -4.21 1.51 
451.02 1.88 2.28 
451.89 1.37 2.20 
452.62 1.52 2.17 
453.73 0.84 2.07 
451.12 3.65 2.39 
449.33 9.90 3.17 
455.79 11.21 3.78 
452.12 11.46 4.08 
455.79 10.44 3.74 
449.50 15.46 4.54 
454.69 12.00 3.90 
449.22 10.10 4.24 
448.28 12.49 4.46 
445.89 15.32 4.86 
446.24 18.93 5.10 
447.62 11.32 4.45 
444.63 14.00 4.88 
450.50 13.39 5.32 
449.34 14.45 5.49 
450.03 13.99 5.40 
447.22 16.92 5.87 
449.54 9.08 5.23 
448.06 10.78 5.45 
447.45 11.79 5.56 
445.30 15.26 5.99 
447.25 14.56 5.73 
447.10 14.83 5.76 
446.52 17.24 5.97 
447.01 9.28 5.50 
447.20 9.34 5.48 
450.86 10.02 6.16 
456.49 6.22 -2.31 
455.37 7.52 -2.17 
452.20 13.55 -1.45 
463.72 17.66 -0.52 
462.77 19.02 -0.36 
462.97 18.76 -0.39 
463.15 18.54 -0.42 
454.76 3.12 -1.94 
452.79 4.65 -1.56 
453.07 4.58 -1.78 
458.07 1.14 -2.13 
442.75 11.96 -1.01 
445.59 10.31 -0.97 
444.00 12.16 -0.97 
452.02 6.91 -1.51 
457.57 3.51 -1.85 
441.66 14.79 -0.46 
445.41 12.05 -0.97 
457.52 3.85 -1.81 
441.51 15.04 -0.44 
449.14 10.57 -0.89 
451.37 9.07 -1.26 
456.56 5.74 -1.59 
446.41 12.83 -0.86 
447.80 12.10 -0.93 
453.96 8.89 -1.25 
455.06 7.88 -1.35 
446.64 14.65 -0.42 
449.06 13.05 -0.80 
446.76 15.01 -0.37 
452.73 12.20 -0.86 
452.34 12.98 -0.76 
453.67 11.76 -0.90 
453.94 11.58 -0.92 
446.59 16.98 -0.13 
452.91 13.02 -0.75 
453.34 12.86 -0.77 
448.92 18.49 -0.12 
449.54 17.90 0.02 
451.11 18.15 0.07 
451.69 17.89 0.05 
451.77 18.18 0.08 
452.26 18.10 0.08 
451.00 20.08 0.10 
461.18 -4.55 -1.69 
459.59 -1.00 -1.33 
454.59 3.23 -0.88 
457.57 0.91 -1.13 
458.21 1.12 -1.11 
462.17 -1.64 -1.39 
461.18 -0.56 -1.28 
454.33 5.06 -0.68 
457.55 3.41 -0.87 
456.07 4.92 -0.70 
457.28 3.96 -0.81 
456.00 5.95 -0.59 
456.18 5.72 -0.62 
447.87 11.97 0.12 
453.77 7.65 -0.40 
458.52 4.73 -0.73 
454.29 7.96 -0.37 
453.96 8.80 -0.27 
454.62 8.89 -0.27 
455.73 7.92 -0.38 
458.82 5.76 -0.62 
448.96 13.24 0.26 
449.88 13.01 0.22 
449.75 13.23 0.25 
452.71 12.10 0.10 
453.36 11.49 0.03 
453.68 11.06 -0.02 
454.47 10.82 -0.06 
452.39 12.91 0.19 
456.69 10.24 0.10 
457.45 9.81 0.05 
453.44 12.82 0.17 
453.91 12.50 0.13 
454.97 11.79 0.05 
457.95 9.95 0.06 
444.99 18.67 0.93 
453.74 13.30 0.23 
455.63 11.86 0.05 
455.93 11.78 0.04 
457.89 10.24 0.10 
446.12 19.33 0.99 
453.37 14.36 0.35 
452.33 15.45 0.48 
453.82 14.28 0.34 
451.19 17.80 0.96 
453.17 16.37 0.79 
451.54 18.01 0.98 
451.75 17.75 0.95 
456.57 -3.82 -1.61 
459.77 -4.23 -1.66 
451.92 4.34 -0.75 
456.53 1.52 -0.81 
456.01 3.22 -0.63 
459.37 2.39 -0.72 
459.42 1.97 -0.76 
444.99 12.04 0.16 
445.40 11.87 0.13 
458.19 4.22 -0.53 
458.47 4.15 -0.54 
444.92 13.58 0.54 
456.94 6.29 -0.32 
455.58 7.40 -0.20 
446.72 14.88 0.67 
444.45 18.05 1.05 
446.46 16.82 0.89 
447.36 17.57 0.97 
448.94 17.38 0.93 
451.01 16.17 0.78 
457.42 5.95 0.36 
454.38 8.98 0.71 
455.09 8.83 0.68 
456.64 8.14 0.58 
452.79 11.77 1.03 
452.33 12.78 1.14 
454.09 12.46 1.06 
454.30 12.31 1.04 
454.49 11.79 0.98 
455.27 11.61 0.94 
455.68 11.48 0.92 
455.66 14.09 1.18 
459.75 -4.35 -0.58 
460.76 -4.13 -0.57 
448.40 5.76 0.55 
448.86 5.74 0.54 
459.52 -1.16 -0.31 
449.20 5.90 0.55 
457.54 0.88 -0.10 
454.30 3.29 0.18 
458.15 1.04 -0.10 
455.70 3.69 0.46 
459.62 0.74 -0.15 
453.84 5.30 0.38 
458.75 1.99 -0.02 
457.60 3.03 0.09 
445.26 11.75 1.24 
456.74 4.17 0.21 
457.21 3.80 0.17 
458.21 3.12 0.09 
452.06 8.51 0.73 
453.79 8.23 0.65 
453.89 7.94 0.62 
455.61 7.34 0.78 
456.20 7.47 0.78 
453.33 10.36 0.87 
456.91 9.97 0.99 
446.41 17.77 2.03 
450.14 18.16 1.96 
446.08 6.73 0.71 
456.30 1.68 0.27 
449.38 10.21 1.19 
442.34 15.55 1.92 
446.63 14.90 1.73 
446.32 15.27 1.78 
455.35 11.88 1.89 
454.71 12.72 1.99 
455.16 13.58 2.05 
455.30 13.40 2.03 
453.88 14.73 2.22 
454.17 14.27 2.16 
454.63 14.26 2.14 
454.77 14.03 2.11 
457.98 0.27 0.88 
458.41 0.27 0.87 
459.06 -0.31 0.81 
459.90 -0.73 0.75 
456.91 1.46 1.00 
457.61 1.04 0.95 
459.18 0.28 0.84 
458.54 1.27 0.93 
458.80 1.96 0.97 
459.22 1.62 0.93 
453.56 5.76 1.46 
454.17 5.52 1.42 
458.22 3.11 1.08 
456.73 4.69 1.25 
457.18 4.14 1.19 
458.13 3.82 1.13 
453.62 7.36 1.59 
457.61 4.45 1.20 
457.80 4.24 1.17 
458.08 4.13 1.16 
458.71 3.90 1.12 
453.91 7.86 1.62 
457.18 5.61 1.30 
449.96 11.14 2.08 
451.56 10.64 1.96 
454.10 8.70 1.68 
455.18 8.04 1.58 
455.57 7.97 1.55 
455.17 8.79 1.64 
454.27 9.84 1.76 
453.11 11.47 1.96 
453.75 11.19 1.90 
454.78 10.83 1.83 
452.27 12.97 2.14 
454.87 11.21 1.85 
455.01 11.03 1.83 
453.46 12.70 2.05 
452.04 13.87 2.23 
454.68 12.07 1.94 
453.18 14.69 2.25 
453.53 14.25 2.19 
447.02 19.75 3.08 
459.42 -4.32 0.53 
458.71 -3.57 0.60 
460.57 -4.45 0.49 
460.65 -4.26 0.50 
458.80 -2.46 0.67 
447.28 5.75 1.74 
448.03 5.50 1.68 
458.58 -1.37 0.75 
450.73 4.05 1.45 
457.92 -0.62 0.82 
459.81 -1.77 0.68 
454.70 3.60 1.25 
453.22 5.12 1.42 
453.77 4.59 1.36 
454.20 4.31 1.32 
445.40 10.96 2.29 
445.26 11.57 2.36 
446.45 12.84 2.42 
448.23 12.62 2.31 
446.72 14.71 2.77 
446.75 15.01 2.80 
447.58 18.45 3.08 
445.53 10.26 2.43 
445.49 10.63 2.47 
442.13 16.46 3.17 
454.28 8.43 2.62 
441.82 17.44 3.28 
453.07 11.41 2.92 
453.62 11.02 2.85 
454.12 11.00 2.82 
453.85 12.45 2.95 
454.60 12.24 2.88 
454.18 12.95 2.96 
453.32 14.10 3.12 
453.96 13.61 3.03 
454.36 13.36 2.98 
453.73 14.00 3.08 
451.03 7.34 2.76 
450.66 8.16 2.84 
451.56 7.31 2.72 
447.72 11.56 3.31 
454.18 7.23 2.55 
453.79 7.68 2.60 
454.09 7.53 2.57 
449.32 11.38 3.18 
449.71 11.24 3.14 
451.31 10.04 2.94 
451.23 10.64 2.99 
449.08 12.59 3.29 
454.17 10.11 3.00 
450.18 13.46 3.29 
449.64 1.43 2.44 
450.68 1.39 2.38 
459.70 -4.50 1.60 
451.17 1.42 2.35 
459.95 -4.27 1.60 
450.83 1.93 2.40 
451.86 1.49 2.32 
459.79 -3.87 1.62 
452.68 1.38 2.26 
447.40 5.31 2.85 
452.07 2.09 2.34 
453.44 1.60 2.23 
451.41 3.30 2.46 
446.81 7.35 3.04 
449.89 5.36 2.69 
449.60 7.71 2.88 
444.95 11.31 3.48 
445.87 15.24 3.93 
446.68 14.88 3.84 
446.71 15.26 3.87 
446.21 17.75 4.12 
453.32 12.75 3.95 
446.88 4.55 2.83 
449.76 13.48 4.33 
452.97 12.18 3.95 
454.81 11.88 4.01 
449.38 6.54 3.90 
448.08 8.73 4.15 
448.52 8.24 4.08 
450.08 7.75 3.92 
449.17 13.41 4.58 
446.34 18.67 5.22 
447.20 7.83 4.17 
447.79 7.41 4.09 
448.19 7.28 4.05 
448.34 7.01 4.02 
449.14 6.70 3.93 
446.66 8.74 4.28 
446.53 8.98 4.31 
449.40 9.85 4.34 
447.48 11.23 4.59 
447.50 11.62 4.61 
445.66 15.35 5.03 
445.50 9.62 4.66 
449.34 14.04 5.62 
449.81 13.62 5.55 
448.39 15.54 5.82 
449.52 9.08 5.37 
448.23 10.17 5.33 
449.50 10.26 5.42 
449.68 11.79 5.47 
446.34 12.03 6.76 
445.65 12.72 6.89 
447.19 11.68 6.62 
446.47 12.76 6.78 
446.64 12.47 6.74 
463.64 17.63 -0.48 
463.81 17.40 -0.51 
462.82 18.83 -0.35 
463.13 18.43 -0.39 
451.23 1.88 -2.11 
458.00 1.21 -2.08 
443.92 12.24 -0.94 
452.08 6.87 -1.48 
457.67 3.42 -1.82 
445.37 12.10 -0.93 
457.60 3.74 -1.78 
441.53 14.79 -0.44 
458.30 3.96 -1.52 
456.64 5.64 -1.57 
446.40 12.91 -0.82 
451.10 9.57 -1.17 
452.97 8.56 -1.05 
447.77 12.15 -0.89 
452.82 8.76 -1.02 
454.00 8.83 -1.22 
455.06 7.89 -1.32 
455.53 7.44 -1.14 
453.09 9.95 -1.09 
453.88 9.04 -1.19 
454.69 8.73 -1.00 
448.99 13.05 -0.77 
453.10 10.36 -1.04 
454.57 9.31 -0.93 
452.92 10.87 -0.98 
441.64 19.46 -0.06 
445.33 16.75 -0.35 
452.71 12.16 -0.82 
453.75 11.71 -0.86 
454.97 11.09 -0.71 
445.12 18.01 0.01 
446.62 16.91 -0.11 
452.92 12.91 -0.73 
454.86 11.30 -0.68 
452.77 13.10 -0.71 
453.36 12.78 -0.74 
442.98 20.13 0.04 
445.29 18.75 -0.10 
452.21 14.11 -0.59 
451.00 16.48 -0.31 
451.36 16.25 -0.33 
449.59 17.87 0.05 
459.31 -1.07 -1.29 
455.11 2.30 -0.93 
459.66 -1.08 -1.29 
454.63 3.51 -0.80 
454.63 3.17 -0.84 
458.00 1.12 -1.06 
458.28 1.03 -1.07 
460.65 -0.48 -1.23 
461.20 -0.38 -1.22 
454.15 5.12 -0.63 
457.47 3.49 -0.81 
457.79 3.03 -0.86 
459.39 2.02 -0.97 
457.44 3.92 -0.77 
456.28 5.62 -0.58 
459.57 4.16 -0.74 
453.98 8.71 -0.24 
456.83 6.77 -0.46 
456.69 7.02 -0.43 
457.56 6.56 -0.49 
455.58 8.29 -0.29 
448.91 13.23 0.30 
449.76 13.23 0.30 
456.70 8.76 -0.24 
456.88 8.50 -0.27 
454.16 10.81 0.00 
456.43 9.26 -0.19 
450.63 14.32 0.42 
456.56 10.10 0.13 
453.46 12.76 0.22 
453.91 12.45 0.18 
457.78 10.01 0.12 
453.43 13.38 0.29 
453.72 13.02 0.25 
455.63 11.97 0.12 
455.73 11.76 0.09 
453.61 13.73 0.33 
450.78 15.79 0.59 
453.81 14.18 0.38 
452.48 16.94 0.71 
456.08 -3.41 -1.54 
456.57 -3.88 -1.58 
461.43 -2.45 -1.16 
452.17 4.12 -0.73 
456.47 1.52 -0.77 
448.66 7.33 -0.36 
459.38 1.96 -0.72 
445.35 11.97 0.19 
459.44 2.46 -0.67 
458.16 4.15 -0.50 
458.51 4.14 -0.50 
446.78 13.01 0.30 
447.85 12.02 0.17 
455.71 7.13 -0.18 
456.92 6.23 -0.28 
454.78 8.33 -0.05 
446.56 14.74 0.70 
446.59 15.11 0.74 
457.26 8.81 -0.01 
457.45 8.65 -0.02 
444.46 18.04 1.09 
455.50 10.69 0.20 
442.77 19.96 1.15 
445.04 18.56 0.96 
447.36 17.46 1.00 
448.71 17.38 0.98 
450.78 16.45 0.86 
456.48 8.13 0.64 
455.33 10.41 0.89 
454.14 12.37 1.12 
454.31 11.82 1.06 
455.74 11.62 1.00 
454.29 13.09 1.19 
455.07 12.55 1.11 
454.12 14.79 1.37 
455.69 14.05 1.25 
454.96 14.88 1.35 
454.85 15.42 1.41 
455.64 14.91 1.34 
459.58 -1.24 -0.27 
459.78 -1.50 -0.29 
457.89 0.48 -0.09 
457.60 1.06 -0.03 
458.12 1.13 -0.04 
457.24 3.57 0.20 
456.80 4.06 0.25 
457.35 3.75 0.21 
446.28 12.69 1.37 
453.87 8.01 0.69 
456.24 6.54 0.50 
455.47 7.78 0.63 
449.07 12.69 1.50 
453.37 10.31 0.93 
452.69 11.88 1.11 
452.42 12.78 1.21 
450.83 14.89 1.47 
445.83 6.72 0.77 
446.15 6.57 0.74 
448.21 5.71 0.61 
461.41 -2.47 -0.10 
445.45 10.26 1.35 
445.20 11.79 1.31 
446.78 14.74 1.77 
455.50 12.33 2.00 
454.77 14.10 2.20 
455.23 13.47 2.12 
455.18 14.00 2.17 
458.98 -0.25 0.86 
459.98 -1.00 0.78 
460.25 -1.08 0.77 
457.35 1.58 1.05 
457.81 1.59 1.04 
454.45 4.76 1.41 
458.90 1.85 1.02 
459.26 1.31 0.97 
454.18 5.50 1.48 
