# .PCD v0.7 - Point Cloud Data file format
VERSION 0.7
FIELDS x y z
SIZE 4 4 4
TYPE F F F
COUNT 1 1 1
WIDTH 2268
HEIGHT 1
VIEWPOINT 0 0 0 1 0 0 0
POINTS 2268
DATA ascii
460.78 -635.48 2.00 
460.39 -635.48 2.04 
460.01 -635.47 2.07 
459.57 -635.50 1.97 
459.19 -635.52 2.01 
458.80 -635.54 2.05 
458.37 -635.52 1.95 
458.03 -635.57 2.13 
457.59 -635.58 2.12 
457.14 -635.60 2.11 
456.87 -635.60 2.11 
456.43 -635.61 2.10 
455.98 -635.61 2.10 
455.60 -635.62 2.09 
455.19 -635.63 2.08 
454.81 -635.59 2.08 
454.55 -635.51 2.07 
454.05 -635.62 2.07 
453.63 -635.62 2.06 
464.50 -635.06 3.03 
461.91 -635.26 2.94 
461.63 -635.26 2.93 
461.23 -635.25 2.91 
460.88 -635.20 2.90 
465.34 -634.76 3.33 
466.42 -635.08 3.37 
465.96 -635.10 3.35 
465.55 -635.07 3.34 
463.01 -634.99 3.25 
460.48 -635.26 3.18 
460.02 -635.27 3.17 
459.57 -635.28 3.16 
456.41 -635.14 3.10 
456.01 -635.16 3.09 
455.62 -635.22 3.08 
455.20 -635.41 3.08 
454.82 -635.45 3.07 
454.43 -635.44 3.06 
454.02 -635.43 3.06 
453.64 -635.46 3.05 
453.23 -635.46 3.05 
452.72 -635.49 3.04 
452.43 -635.49 3.04 
451.99 -635.48 3.04 
451.55 -635.49 3.03 
451.25 -635.49 3.03 
450.82 -635.51 3.03 
450.38 -635.51 3.02 
449.66 -635.46 3.02 
449.19 -635.46 3.02 
448.95 -635.48 3.02 
454.40 -634.75 3.70 
453.97 -634.74 3.69 
454.79 -634.97 3.70 
460.80 -634.76 3.90 
461.54 -634.98 3.92 
461.16 -634.99 3.91 
460.35 -635.05 4.19 
459.90 -635.07 4.18 
459.59 -635.09 4.17 
459.36 -634.95 4.17 
456.90 -634.90 4.11 
453.64 -635.21 4.05 
453.21 -635.13 4.04 
450.70 -635.13 4.02 
448.31 -635.05 4.02 
465.59 -634.77 4.38 
466.37 -634.88 4.41 
465.91 -634.88 4.39 
465.61 -634.85 4.38 
462.03 -634.70 4.96 
461.56 -634.70 4.93 
461.11 -634.68 4.91 
460.85 -634.49 4.91 
460.24 -634.44 4.88 
459.92 -634.49 4.87 
459.63 -634.46 4.86 
459.16 -634.50 4.84 
458.71 -634.57 4.82 
458.39 -634.60 4.80 
457.94 -634.59 4.79 
457.49 -634.58 4.77 
457.25 -634.56 4.76 
456.92 -634.58 4.75 
455.11 -634.68 4.69 
454.81 -634.70 4.68 
454.42 -634.57 4.68 
449.35 -634.67 4.58 
465.62 -634.55 5.44 
464.98 -634.57 5.41 
464.65 -634.49 5.10 
464.33 -634.60 5.38 
454.35 -634.99 5.06 
453.92 -634.98 5.06 
453.61 -635.01 5.05 
453.34 -634.93 5.05 
455.59 -634.34 5.71 
455.14 -634.36 5.70 
454.85 -634.34 5.69 
456.08 -634.11 5.74 
450.93 -634.61 6.06 
450.33 -634.56 6.07 
449.74 -634.58 6.06 
449.14 -634.60 6.06 
448.84 -634.62 6.06 
448.53 -634.62 6.06 
453.92 -634.73 6.08 
448.25 -634.77 6.05 
461.12 -634.32 6.31 
442.51 -633.91 6.62 
460.73 -633.72 7.00 
460.45 -633.69 6.98 
460.14 -633.68 6.97 
466.45 -633.97 7.36 
465.94 -634.00 7.32 
465.45 -634.00 7.28 
465.11 -634.00 7.25 
464.78 -633.99 7.23 
464.32 -633.98 7.20 
463.92 -633.99 7.17 
463.51 -633.97 7.15 
463.18 -633.99 7.12 
462.78 -633.93 7.10 
462.42 -633.86 7.08 
461.96 -633.92 7.05 
461.64 -633.93 7.03 
459.74 -634.22 7.30 
447.94 -634.47 7.10 
447.63 -634.51 7.10 
462.68 -632.11 0.00 
462.33 -632.13 0.00 
461.87 -632.12 -0.01 
458.02 -632.25 -0.05 
457.70 -632.25 -0.05 
457.05 -632.29 -0.06 
456.73 -632.28 -0.06 
466.30 -632.39 -0.15 
465.95 -632.38 -0.15 
465.55 -632.41 -0.16 
465.20 -632.38 -0.16 
464.86 -632.39 -0.17 
464.33 -632.40 -0.18 
463.81 -632.39 -0.18 
463.47 -632.39 -0.19 
463.20 -632.36 -0.19 
461.45 -632.39 -0.22 
461.15 -632.38 -0.22 
460.72 -632.37 -0.23 
460.26 -632.38 -0.23 
459.84 -632.37 -0.24 
459.51 -632.38 -0.24 
459.19 -632.37 -0.25 
458.70 -632.37 -0.26 
458.22 -632.37 -0.26 
457.90 -632.37 -0.27 
457.57 -632.37 -0.27 
457.10 -632.37 -0.28 
456.62 -632.37 -0.28 
455.00 -632.37 -0.30 
454.69 -632.39 -0.31 
454.39 -632.38 -0.31 
453.45 -632.38 -0.32 
452.80 -632.38 -0.21 
452.38 -632.40 -0.22 
451.97 -632.42 -0.10 
451.44 -632.41 -0.23 
451.10 -632.41 -0.23 
450.69 -632.42 -0.23 
450.38 -632.43 -0.24 
449.94 -632.43 -0.24 
449.43 -632.50 -0.12 
449.08 -632.51 -0.13 
448.76 -632.50 -0.13 
448.32 -632.44 -0.26 
461.35 -635.86 0.02 
460.82 -635.56 -0.01 
454.00 -635.85 0.15 
453.42 -635.87 0.15 
453.12 -635.88 0.14 
461.03 -635.88 0.02 
448.24 -633.38 0.68 
447.94 -633.33 0.68 
447.49 -633.34 0.67 
447.04 -633.33 0.67 
446.74 -633.34 0.67 
446.26 -633.37 0.66 
445.81 -633.41 0.66 
445.51 -633.39 0.66 
445.21 -633.39 0.66 
444.75 -633.38 0.65 
444.30 -633.43 0.65 
443.85 -633.45 0.65 
443.45 -633.48 0.65 
441.88 -633.49 0.64 
456.35 -633.78 0.81 
454.55 -633.64 0.78 
454.36 -633.65 0.77 
453.93 -633.61 0.77 
441.58 -633.55 0.64 
459.97 -634.20 0.90 
459.52 -634.14 0.89 
459.06 -634.09 0.88 
458.75 -634.07 0.87 
458.24 -634.01 0.86 
457.88 -633.94 0.85 
457.25 -633.85 0.83 
462.42 -634.58 0.97 
460.68 -634.27 0.92 
460.28 -634.22 0.91 
464.55 -634.93 1.03 
464.22 -634.88 1.02 
463.93 -634.82 1.01 
463.61 -634.76 1.00 
463.15 -634.70 0.99 
462.69 -634.61 0.97 
460.73 -634.92 0.95 
454.65 -634.72 0.83 
443.58 -634.97 0.72 
466.43 -635.23 1.09 
465.94 -635.18 1.08 
465.45 -635.15 1.06 
465.15 -635.07 1.05 
464.84 -635.01 1.04 
462.00 -635.72 1.01 
461.53 -635.70 1.00 
461.07 -635.70 0.99 
460.83 -635.46 0.97 
455.72 -635.68 0.89 
455.53 -635.70 0.89 
455.11 -635.69 0.88 
454.82 -635.69 0.87 
449.36 -635.70 0.80 
449.09 -635.71 0.80 
448.80 -635.72 0.79 
443.37 -635.71 0.75 
443.10 -635.72 0.75 
442.74 -635.72 0.75 
442.27 -635.74 0.74 
465.81 -631.87 1.15 
465.46 -631.89 1.14 
465.11 -631.91 1.14 
464.77 -631.90 1.13 
464.41 -631.92 1.12 
463.89 -631.94 1.11 
463.37 -631.95 1.10 
463.03 -631.95 1.10 
462.69 -631.97 1.09 
462.35 -631.98 1.09 
462.02 -631.99 1.08 
461.51 -632.01 1.07 
459.37 -632.05 1.04 
459.04 -632.07 1.03 
458.72 -632.07 1.03 
458.39 -632.09 1.02 
457.94 -632.10 1.02 
457.40 -632.13 1.01 
457.06 -632.13 1.01 
456.74 -632.15 1.00 
456.26 -632.16 1.00 
455.77 -632.17 0.99 
455.46 -632.18 0.99 
455.13 -632.20 0.98 
454.81 -632.19 0.98 
452.26 -632.29 0.95 
451.94 -632.30 0.95 
451.47 -632.31 0.95 
451.01 -632.34 0.94 
450.69 -632.34 0.94 
450.38 -632.36 0.94 
449.90 -632.36 0.93 
449.43 -632.37 0.93 
449.11 -632.37 0.93 
448.79 -632.38 0.92 
448.36 -632.39 0.92 
465.32 -634.62 1.27 
459.19 -634.99 1.17 
466.14 -635.33 1.32 
465.80 -635.35 1.31 
465.90 -635.39 1.31 
465.40 -635.39 1.30 
460.32 -635.54 1.21 
460.01 -635.55 1.21 
459.71 -635.55 1.20 
459.14 -635.54 1.19 
454.01 -635.74 1.13 
453.57 -635.75 1.12 
453.13 -635.74 1.12 
447.84 -635.87 1.07 
453.95 -635.50 1.81 
452.68 -635.50 1.78 
447.40 -635.49 1.72 
447.11 -635.49 1.71 
446.63 -635.51 1.71 
446.26 -635.50 1.71 
445.97 -635.50 1.70 
445.51 -635.50 1.70 
445.09 -635.50 1.70 
444.65 -635.51 1.70 
444.22 -635.52 1.69 
443.94 -635.51 1.69 
443.47 -635.51 1.69 
443.10 -635.51 1.69 
442.72 -635.52 1.69 
442.35 -635.49 1.69 
441.91 -635.51 1.69 
449.28 -634.52 2.03 
450.17 -634.81 2.05 
449.87 -634.73 2.04 
449.53 -634.58 2.04 
465.16 -635.22 2.33 
464.67 -635.23 2.31 
451.50 -635.20 2.07 
451.05 -635.18 2.06 
450.75 -635.16 2.06 
450.46 -634.98 2.05 
466.33 -635.39 2.13 
465.93 -635.50 2.12 
465.58 -635.53 2.11 
465.10 -635.53 2.09 
464.60 -635.53 2.08 
464.28 -635.53 2.07 
463.98 -635.53 2.06 
463.56 -635.51 2.04 
463.17 -635.52 2.03 
462.52 -635.30 2.26 
462.19 -635.34 2.25 
461.89 -635.34 2.25 
461.57 -635.35 2.24 
461.11 -635.37 2.23 
460.64 -635.39 2.22 
460.33 -635.40 2.21 
459.87 -635.41 2.20 
459.41 -635.41 2.19 
459.10 -635.42 2.19 
458.73 -635.42 2.18 
458.30 -635.48 2.17 
457.91 -635.49 2.17 
457.51 -635.53 2.16 
457.09 -635.53 2.15 
456.71 -635.55 2.15 
456.31 -635.57 2.14 
455.90 -635.57 2.13 
455.51 -635.57 2.13 
455.19 -635.60 2.12 
454.74 -635.62 2.12 
454.30 -635.57 2.11 
453.86 -635.59 2.10 
453.42 -635.59 2.10 
453.13 -635.66 2.10 
452.83 -635.65 2.09 
452.24 -635.58 2.08 
452.00 -635.51 2.08 
448.14 -635.69 2.05 
466.33 -635.18 2.36 
465.83 -635.20 2.35 
465.49 -635.21 2.34 
464.50 -635.04 3.09 
443.36 -635.26 2.65 
443.08 -635.29 2.65 
442.76 -635.27 2.65 
442.48 -635.29 2.65 
466.27 -635.02 3.41 
465.83 -635.03 3.40 
465.52 -634.96 3.39 
464.92 -634.89 3.36 
464.73 -634.89 3.36 
464.25 -634.87 3.34 
463.96 -634.86 3.33 
459.89 -635.22 3.21 
459.43 -635.23 3.20 
459.21 -635.02 3.20 
456.78 -635.15 3.14 
454.92 -635.14 3.11 
454.62 -635.18 3.11 
453.87 -635.40 3.10 
453.43 -635.42 3.09 
453.14 -635.35 3.09 
452.69 -635.46 3.08 
452.25 -635.50 3.07 
451.95 -635.51 3.07 
451.51 -635.52 3.07 
451.07 -635.55 3.06 
450.77 -635.54 3.06 
450.33 -635.55 3.06 
449.89 -635.49 3.05 
449.47 -635.52 3.05 
449.03 -635.54 3.05 
448.73 -635.51 3.05 
445.92 -634.83 3.62 
442.13 -634.79 3.62 
441.82 -634.79 3.63 
443.34 -635.01 3.61 
443.04 -635.01 3.61 
442.74 -635.02 3.62 
442.45 -635.02 3.62 
459.25 -634.70 4.22 
460.73 -634.84 4.26 
459.92 -635.00 4.23 
459.46 -634.98 4.22 
456.80 -634.85 4.15 
454.03 -635.19 4.09 
453.15 -634.94 4.08 
450.77 -635.10 4.06 
453.73 -635.19 4.09 
453.44 -635.20 4.08 
448.13 -635.30 4.04 
447.83 -635.32 4.04 
447.56 -635.33 4.04 
465.58 -634.58 4.44 
463.02 -634.66 4.34 
466.22 -634.77 4.47 
465.88 -634.80 4.45 
465.58 -634.75 4.44 
459.78 -634.49 4.93 
459.54 -634.46 4.92 
459.11 -634.48 4.90 
444.50 -634.61 4.59 
444.27 -634.62 4.59 
443.88 -634.62 4.59 
443.58 -634.65 4.59 
443.01 -634.74 4.59 
442.71 -634.75 4.59 
442.26 -634.67 4.60 
441.84 -634.62 4.61 
464.93 -634.49 5.47 
464.59 -634.50 5.17 
457.97 -634.65 5.20 
457.51 -634.61 5.19 
457.06 -634.68 5.17 
456.63 -634.63 5.17 
456.46 -634.59 5.16 
454.64 -634.70 5.12 
458.57 -634.69 5.22 
458.27 -634.69 5.21 
454.35 -634.92 5.10 
453.85 -634.96 5.09 
453.44 -634.97 5.09 
453.20 -634.79 5.09 
448.09 -635.07 5.05 
465.89 -634.57 5.51 
465.43 -634.47 5.50 
443.26 -634.39 5.60 
442.98 -634.41 5.60 
442.67 -634.38 5.60 
442.38 -634.39 5.60 
462.01 -634.35 6.07 
461.38 -634.32 6.04 
461.06 -634.34 6.02 
453.21 -634.45 6.13 
454.09 -634.65 6.13 
453.50 -634.68 6.12 
448.37 -634.79 6.07 
442.02 -633.80 6.65 
448.57 -634.00 6.62 
442.39 -634.05 6.62 
459.97 -633.65 7.04 
466.45 -633.92 7.46 
466.11 -633.90 7.43 
465.78 -633.91 7.41 
465.41 -633.96 7.38 
465.07 -633.98 7.35 
464.60 -633.96 7.31 
464.19 -633.97 7.28 
463.76 -633.97 7.25 
463.43 -633.96 7.23 
463.11 -633.96 7.21 
462.77 -633.98 7.18 
462.43 -633.97 7.16 
460.91 -633.72 7.09 
460.58 -633.74 7.07 
460.27 -633.72 7.05 
447.46 -634.51 7.12 
466.30 -631.94 0.10 
464.52 -632.01 0.08 
464.00 -632.01 0.07 
463.49 -632.03 0.07 
463.14 -632.04 0.07 
462.79 -632.05 0.06 
462.46 -632.05 0.06 
462.10 -632.07 0.06 
461.76 -632.09 0.05 
459.43 -632.16 0.03 
459.09 -632.16 0.03 
458.79 -632.17 0.02 
458.44 -632.19 0.02 
457.98 -632.19 0.02 
457.45 -632.20 0.01 
457.18 -632.20 0.01 
466.41 -632.36 -0.09 
466.09 -632.33 -0.10 
465.72 -632.32 -0.10 
465.26 -632.32 -0.11 
464.77 -632.34 -0.11 
464.27 -632.34 -0.12 
463.93 -632.35 -0.12 
463.58 -632.36 -0.13 
461.52 -632.34 -0.15 
461.19 -632.36 -0.16 
460.86 -632.35 -0.16 
460.52 -632.35 -0.17 
459.99 -632.34 -0.17 
459.56 -632.34 -0.18 
459.23 -632.34 -0.18 
458.91 -632.33 -0.19 
458.42 -632.34 -0.19 
457.97 -632.32 -0.20 
457.65 -632.21 0.02 
457.12 -632.21 0.01 
456.89 -632.30 -0.10 
456.51 -632.23 0.00 
456.02 -632.25 0.00 
455.55 -632.27 0.00 
455.14 -632.31 -0.12 
454.80 -632.32 -0.12 
454.43 -632.35 -0.24 
454.02 -632.35 -0.24 
453.58 -632.35 -0.25 
453.23 -632.35 -0.13 
452.83 -632.36 -0.14 
452.36 -632.36 -0.14 
451.97 -632.37 -0.15 
451.65 -632.37 -0.15 
451.22 -632.38 -0.15 
450.76 -632.39 -0.16 
450.40 -632.39 -0.16 
450.10 -632.39 -0.16 
448.31 -632.43 -0.18 
447.91 -632.37 -0.30 
447.60 -632.38 -0.30 
446.33 -632.44 -0.19 
446.03 -632.45 -0.19 
466.47 -635.44 0.34 
466.15 -635.44 0.34 
465.65 -635.41 0.33 
455.65 -635.83 0.02 
454.30 -635.79 0.23 
454.00 -635.80 0.22 
453.69 -635.82 0.22 
453.38 -635.82 0.22 
461.98 -635.84 0.09 
461.66 -635.84 0.09 
461.34 -635.83 0.08 
461.04 -635.84 0.08 
455.89 -635.84 0.02 
455.59 -635.85 0.02 
453.94 -633.34 0.83 
453.63 -633.29 0.83 
453.18 -633.28 0.82 
452.73 -633.28 0.81 
452.42 -633.35 0.81 
451.97 -633.29 0.80 
451.51 -633.30 0.80 
451.21 -633.28 0.79 
450.91 -633.30 0.79 
450.46 -633.29 0.79 
450.05 -633.31 0.78 
448.50 -633.30 0.77 
448.02 -633.30 0.76 
447.63 -633.32 0.76 
447.24 -633.34 0.76 
446.83 -633.36 0.75 
446.42 -633.41 0.75 
446.11 -633.43 0.75 
460.43 -633.68 0.96 
460.10 -633.67 0.95 
459.64 -633.63 0.94 
445.67 -633.46 0.75 
445.22 -633.47 0.75 
444.92 -633.51 0.75 
444.47 -633.53 0.74 
444.01 -633.57 0.74 
443.72 -633.62 0.74 
442.23 -633.69 0.74 
441.96 -633.73 0.74 
441.66 -633.75 0.74 
463.99 -634.05 1.05 
461.06 -633.74 0.97 
460.75 -633.71 0.96 
466.00 -634.44 1.11 
465.53 -634.34 1.09 
465.23 -634.27 1.08 
464.91 -634.22 1.07 
464.50 -634.14 1.06 
466.49 -634.50 1.13 
460.98 -634.96 1.03 
462.02 -635.68 1.08 
461.70 -635.67 1.08 
461.22 -635.68 1.07 
449.87 -635.68 0.89 
449.58 -635.70 0.88 
449.30 -635.70 0.88 
448.88 -635.70 0.88 
443.20 -635.71 0.83 
442.78 -635.70 0.83 
466.33 -631.79 1.22 
466.00 -631.79 1.21 
465.61 -631.82 1.21 
465.26 -631.83 1.20 
464.90 -631.84 1.19 
464.55 -631.84 1.19 
464.02 -631.87 1.18 
463.51 -631.88 1.17 
463.16 -631.90 1.16 
462.81 -631.90 1.16 
462.47 -631.92 1.15 
462.13 -631.92 1.15 
461.62 -631.95 1.14 
459.61 -632.01 1.11 
459.10 -632.03 1.10 
458.77 -632.03 1.10 
458.46 -632.04 1.09 
458.13 -632.07 1.09 
457.60 -632.06 1.08 
457.16 -632.08 1.08 
456.83 -632.09 1.07 
456.42 -632.10 1.07 
455.97 -632.11 1.06 
455.58 -632.13 1.06 
455.25 -632.14 1.05 
455.53 -632.14 1.06 
455.20 -632.14 1.05 
454.90 -632.15 1.05 
453.28 -632.22 1.04 
452.81 -632.22 1.03 
452.33 -632.25 1.03 
452.01 -632.25 1.02 
465.42 -634.70 1.34 
465.53 -635.22 1.36 
466.04 -635.28 1.38 
465.69 -635.30 1.37 
460.03 -635.49 1.27 
459.72 -635.50 1.27 
459.42 -635.47 1.26 
454.28 -635.67 1.20 
454.01 -635.67 1.20 
453.72 -635.68 1.20 
453.39 -635.70 1.19 
451.59 -635.48 1.85 
450.87 -635.48 1.84 
450.45 -635.50 1.83 
450.02 -635.49 1.83 
449.59 -635.49 1.82 
449.30 -635.48 1.82 
448.88 -635.49 1.81 
448.45 -635.49 1.81 
448.03 -635.48 1.80 
447.63 -635.48 1.80 
447.20 -635.49 1.80 
446.78 -635.50 1.79 
446.41 -635.49 1.79 
446.01 -635.49 1.79 
445.61 -635.50 1.78 
445.19 -635.50 1.78 
444.76 -635.50 1.78 
444.47 -635.49 1.78 
444.04 -635.51 1.78 
443.62 -635.50 1.78 
443.18 -635.49 1.77 
442.78 -635.51 1.77 
442.50 -635.51 1.77 
442.00 -635.50 1.77 
441.61 -635.51 1.77 
464.26 -635.17 2.37 
452.83 -635.25 2.16 
452.56 -635.14 2.15 
464.51 -635.21 2.38 
463.99 -635.22 2.37 
463.56 -635.22 2.36 
463.24 -635.23 2.35 
462.82 -635.24 2.34 
462.38 -635.26 2.33 
461.96 -635.27 2.32 
461.61 -635.30 2.31 
461.29 -635.30 2.30 
460.82 -635.32 2.29 
460.35 -635.35 2.29 
460.04 -635.34 2.28 
459.57 -635.37 2.27 
459.11 -635.42 2.26 
458.80 -635.43 2.26 
458.48 -635.45 2.25 
458.03 -635.47 2.15 
457.58 -635.47 2.05 
457.20 -635.48 2.09 
456.82 -635.51 2.22 
456.38 -635.52 2.21 
455.94 -635.52 2.21 
455.62 -635.55 2.20 
455.18 -635.55 2.20 
454.82 -635.56 2.19 
454.40 -635.51 2.18 
454.02 -635.52 2.18 
453.63 -635.54 2.17 
453.14 -635.47 2.17 
452.88 -635.33 2.16 
466.20 -635.14 2.43 
465.51 -635.17 2.41 
465.25 -635.14 2.40 
464.91 -635.17 2.39 
464.59 -635.16 2.38 
465.84 -635.18 2.42 
465.17 -635.20 2.40 
464.85 -635.18 2.39 
449.90 -635.07 2.78 
449.60 -635.24 2.77 
449.03 -635.25 2.77 
448.80 -635.25 2.76 
448.52 -635.07 2.76 
446.18 -635.09 2.74 
443.61 -635.28 2.73 
443.20 -635.27 2.73 
442.43 -635.14 2.73 
449.32 -635.25 2.77 
448.75 -635.27 2.76 
466.40 -634.98 3.49 
465.88 -635.00 3.48 
465.62 -634.79 3.47 
465.27 -634.83 3.45 
464.78 -634.81 3.44 
459.50 -634.96 3.28 
457.03 -635.04 3.23 
455.53 -635.07 3.20 
455.23 -635.11 3.19 
454.80 -635.09 3.18 
460.69 -635.15 3.31 
460.38 -635.14 3.30 
460.07 -635.16 3.30 
459.76 -635.17 3.29 
454.45 -635.32 3.18 
454.03 -635.36 3.17 
453.65 -635.37 3.17 
453.23 -635.40 3.16 
452.85 -635.44 3.16 
452.58 -635.44 3.15 
451.06 -635.44 3.14 
447.82 -635.56 3.12 
443.61 -634.80 3.69 
441.81 -634.79 3.70 
441.54 -634.79 3.70 
449.62 -634.99 3.73 
449.21 -634.99 3.72 
448.78 -635.00 3.72 
448.52 -634.85 3.72 
443.59 -635.00 3.69 
443.22 -635.02 3.69 
442.74 -635.00 3.69 
442.42 -634.91 3.69 
460.44 -634.93 4.33 
460.10 -634.93 4.32 
459.79 -634.94 4.31 
457.10 -634.87 4.24 
454.32 -635.13 4.17 
454.04 -635.14 4.17 
453.60 -635.16 4.16 
448.40 -635.29 4.11 
466.29 -634.74 4.55 
465.94 -634.76 4.54 
463.35 -634.62 4.43 
460.73 -634.92 4.34 
457.30 -634.57 4.91 
449.36 -634.69 4.70 
448.76 -634.70 4.69 
448.47 -634.60 4.69 
448.05 -634.60 4.68 
447.61 -634.60 4.68 
447.18 -634.61 4.68 
446.75 -634.60 4.67 
446.46 -634.60 4.67 
446.03 -634.61 4.67 
445.59 -634.61 4.67 
445.19 -634.61 4.67 
444.75 -634.62 4.66 
444.37 -634.61 4.66 
443.99 -634.62 4.67 
443.57 -634.74 4.66 
443.28 -634.74 4.66 
442.85 -634.73 4.66 
442.40 -634.70 4.67 
441.80 -634.62 4.68 
441.52 -634.61 4.68 
449.63 -634.70 4.70 
449.05 -634.72 4.69 
464.35 -634.47 5.53 
463.03 -634.52 5.47 
462.72 -634.51 5.46 
462.43 -634.50 5.45 
461.97 -634.51 5.43 
461.46 -634.54 5.40 
461.16 -634.53 5.39 
458.30 -634.58 5.29 
458.01 -634.56 5.28 
457.54 -634.57 5.27 
457.08 -634.58 5.26 
456.84 -634.48 5.26 
461.10 -634.56 5.39 
460.80 -634.65 5.37 
460.38 -634.70 5.36 
459.95 -634.70 5.34 
459.56 -634.62 5.33 
459.25 -634.61 5.32 
458.75 -634.64 5.30 
454.03 -634.89 5.17 
453.59 -634.83 5.17 
464.68 -634.46 5.55 
449.07 -634.37 5.69 
442.45 -634.39 5.67 
462.06 -634.30 6.18 
461.73 -634.30 6.16 
453.46 -634.41 6.21 
449.87 -634.48 6.16 
449.63 -634.56 6.16 
448.68 -634.61 6.15 
447.94 -634.84 6.14 
442.06 -633.73 6.72 
445.91 -633.83 6.69 
442.69 -634.02 6.68 
465.52 -633.90 7.50 
463.98 -633.94 7.38 
463.47 -633.94 7.35 
455.00 -634.07 7.29 
466.27 -633.83 7.57 
465.88 -633.86 7.53 
463.19 -633.82 7.65 
466.03 -631.87 0.15 
465.30 -631.89 0.15 
464.94 -631.92 0.14 
464.21 -631.93 0.14 
463.87 -631.94 0.13 
463.34 -631.96 0.13 
462.81 -631.97 0.12 
462.48 -632.00 0.12 
462.13 -632.00 0.12 
461.43 -632.03 0.11 
459.74 -632.07 0.10 
459.43 -632.08 0.09 
458.96 -632.09 0.09 
458.47 -632.09 0.09 
458.13 -632.12 0.08 
466.40 -632.31 -0.03 
466.03 -632.32 -0.03 
465.66 -632.31 -0.04 
465.30 -632.32 -0.04 
464.94 -632.32 -0.05 
464.62 -632.30 -0.05 
464.25 -632.31 -0.05 
463.79 -632.29 -0.06 
463.50 -632.31 -0.06 
461.75 -632.34 -0.08 
461.42 -632.33 -0.09 
461.06 -632.32 -0.09 
460.56 -632.33 -0.10 
460.05 -632.34 -0.10 
459.72 -632.32 -0.11 
459.37 -632.33 -0.11 
459.05 -632.34 -0.11 
458.56 -632.34 -0.12 
458.09 -632.32 -0.13 
457.78 -632.22 -0.03 
457.45 -632.23 -0.03 
457.00 -632.24 -0.03 
456.43 -632.20 0.07 
456.11 -632.19 0.07 
455.78 -632.21 0.07 
455.45 -632.23 0.06 
454.96 -632.34 -0.16 
454.55 -632.34 -0.16 
454.22 -632.35 -0.17 
453.75 -632.34 -0.17 
453.27 -632.36 -0.18 
452.93 -632.35 -0.18 
452.50 -632.35 -0.18 
452.12 -632.36 -0.19 
451.71 -632.36 -0.19 
451.40 -632.35 -0.19 
450.94 -632.36 -0.20 
450.47 -632.37 -0.20 
450.16 -632.37 -0.20 
449.70 -632.40 0.03 
449.44 -632.42 0.02 
448.97 -632.43 0.02 
448.59 -632.38 -0.22 
448.14 -632.41 -0.10 
447.70 -632.37 -0.23 
446.56 -632.45 -0.11 
446.18 -632.46 -0.11 
445.86 -632.48 -0.12 
460.78 -635.23 0.11 
459.15 -635.04 0.29 
466.49 -635.35 0.40 
466.22 -635.34 0.40 
465.53 -635.35 0.39 
460.23 -635.54 0.34 
459.75 -635.57 0.34 
459.28 -635.57 0.33 
460.91 -635.78 0.14 
455.73 -635.83 0.09 
447.81 -635.96 0.26 
453.33 -633.67 0.92 
453.03 -633.65 0.91 
452.58 -633.66 0.91 
452.12 -633.68 0.90 
451.83 -633.61 0.89 
451.37 -633.61 0.89 
450.93 -633.58 0.88 
450.63 -633.59 0.88 
450.18 -633.54 0.87 
448.54 -633.48 0.85 
448.24 -633.47 0.85 
447.79 -633.43 0.84 
447.34 -633.43 0.84 
447.03 -633.43 0.83 
446.59 -633.44 0.83 
446.14 -633.47 0.83 
445.72 -633.48 0.83 
445.36 -633.49 0.82 
444.97 -633.46 0.82 
444.58 -633.48 0.82 
444.20 -633.48 0.82 
443.77 -633.53 0.82 
443.49 -633.52 0.81 
441.81 -633.58 0.81 
457.58 -634.06 1.00 
457.28 -634.01 0.99 
456.98 -633.98 0.99 
456.54 -633.94 0.98 
454.85 -633.80 0.94 
454.55 -633.78 0.94 
454.24 -633.79 0.93 
453.78 -633.73 0.93 
458.50 -634.17 1.02 
458.19 -634.15 1.02 
457.89 -634.08 1.01 
464.80 -635.10 1.19 
464.54 -635.08 1.19 
463.76 -635.00 1.17 
463.51 -634.91 1.16 
460.79 -635.13 1.11 
454.64 -635.04 1.00 
466.11 -635.26 1.23 
465.69 -635.30 1.22 
465.38 -635.22 1.21 
455.79 -635.66 1.05 
455.35 -635.67 1.04 
455.06 -635.67 1.03 
454.76 -635.65 1.03 
449.41 -635.68 0.96 
448.98 -635.71 0.96 
448.57 -635.67 0.95 
443.31 -635.73 0.91 
443.02 -635.73 0.91 
442.60 -635.74 0.91 
460.89 -635.62 1.14 
466.07 -631.72 1.28 
465.70 -631.72 1.28 
465.33 -631.75 1.27 
464.98 -631.74 1.26 
464.62 -631.77 1.26 
464.24 -631.78 1.25 
463.72 -631.80 1.24 
463.20 -631.81 1.23 
462.84 -631.82 1.23 
462.50 -631.84 1.22 
462.16 -631.85 1.22 
461.79 -631.87 1.21 
461.46 -631.86 1.21 
459.76 -631.94 1.18 
459.42 -631.94 1.18 
458.95 -631.95 1.17 
458.45 -631.98 1.16 
458.12 -631.97 1.16 
457.78 -631.99 1.15 
457.35 -632.00 1.15 
456.90 -632.02 1.14 
456.47 -632.03 1.14 
456.17 -632.03 1.13 
455.84 -632.06 1.13 
456.12 -632.07 1.14 
455.79 -632.07 1.13 
455.47 -632.08 1.13 
454.97 -632.10 1.12 
453.20 -632.15 1.11 
451.62 -632.20 1.09 
451.34 -632.22 1.09 
448.17 -632.33 1.07 
465.39 -634.59 1.41 
466.21 -635.19 1.45 
465.86 -635.21 1.44 
465.52 -635.22 1.44 
459.77 -635.43 1.34 
459.30 -635.44 1.34 
454.13 -635.62 1.27 
453.84 -635.64 1.27 
453.39 -635.65 1.27 
447.41 -635.87 1.22 
447.12 -635.89 1.22 
454.79 -635.47 1.98 
454.49 -635.47 1.98 
454.20 -635.46 1.97 
453.75 -635.47 1.96 
453.31 -635.47 1.96 
452.90 -635.46 1.95 
452.46 -635.47 1.94 
452.15 -635.49 1.94 
451.86 -635.47 1.93 
451.43 -635.48 1.93 
450.99 -635.48 1.92 
450.57 -635.49 1.91 
450.14 -635.48 1.91 
449.84 -635.51 1.90 
449.42 -635.49 1.90 
448.99 -635.50 1.89 
448.56 -635.50 1.89 
448.14 -635.50 1.88 
447.86 -635.50 1.88 
447.42 -635.49 1.87 
446.99 -635.50 1.87 
446.57 -635.50 1.87 
446.14 -635.49 1.86 
445.69 -635.51 1.86 
445.32 -635.50 1.86 
444.95 -635.51 1.86 
444.56 -635.51 1.85 
444.19 -635.52 1.85 
443.79 -635.52 1.85 
443.30 -635.51 1.85 
443.01 -635.53 1.85 
442.59 -635.53 1.85 
442.16 -635.52 1.84 
441.73 -635.53 1.84 
462.99 -635.18 2.42 
462.51 -635.18 2.41 
462.18 -635.22 2.41 
461.85 -635.21 2.40 
461.38 -635.24 2.39 
460.88 -635.24 2.38 
460.57 -635.26 2.37 
460.26 -635.26 2.36 
459.79 -635.29 2.35 
459.32 -635.29 2.34 
459.00 -635.31 2.34 
458.53 -635.33 2.33 
458.08 -635.34 2.32 
457.77 -635.37 2.31 
457.45 -635.40 2.31 
456.99 -635.44 2.30 
456.54 -635.46 2.29 
456.24 -635.46 2.29 
466.27 -635.04 2.51 
465.75 -635.05 2.50 
466.18 -635.08 2.51 
465.86 -635.08 2.50 
465.31 -635.09 2.48 
464.87 -635.09 2.47 
464.52 -635.12 2.46 
464.19 -635.12 2.45 
463.82 -635.16 2.45 
463.53 -635.15 2.44 
454.62 -635.03 2.95 
452.21 -635.06 2.90 
449.88 -635.05 2.86 
448.45 -635.03 2.84 
445.91 -635.13 2.81 
443.58 -635.19 2.80 
442.18 -635.09 2.80 
454.98 -635.22 2.96 
449.58 -635.26 2.85 
449.29 -635.25 2.85 
449.01 -635.27 2.84 
448.72 -635.26 2.84 
443.30 -635.29 2.80 
443.01 -635.31 2.80 
442.72 -635.29 2.80 
466.18 -634.86 3.58 
465.70 -634.87 3.56 
464.03 -634.64 3.50 
463.73 -634.77 3.49 
463.28 -634.79 3.48 
459.40 -634.90 3.36 
456.90 -635.00 3.30 
460.14 -635.09 3.38 
459.66 -635.12 3.37 
451.78 -635.42 3.22 
451.36 -635.44 3.21 
450.94 -635.45 3.21 
450.96 -634.62 3.84 
455.47 -634.94 3.95 
454.18 -634.73 3.92 
453.72 -634.74 3.91 
453.42 -634.75 3.90 
452.98 -634.75 3.89 
452.53 -634.74 3.88 
452.25 -634.79 3.87 
451.81 -634.74 3.86 
451.37 -634.74 3.85 
449.60 -634.97 3.81 
449.31 -634.99 3.81 
449.03 -635.01 3.80 
448.60 -634.89 3.80 
445.91 -634.84 3.77 
443.57 -634.92 3.76 
443.29 -635.04 3.75 
442.57 -635.04 3.75 
442.16 -634.83 3.76 
456.98 -634.79 4.32 
455.77 -634.95 3.96 
454.62 -634.72 3.93 
466.13 -634.66 4.65 
465.69 -634.62 4.63 
460.65 -634.85 4.43 
460.18 -634.87 4.41 
459.70 -634.89 4.39 
459.44 -634.64 4.39 
454.39 -634.56 4.91 
453.77 -634.57 4.89 
453.38 -634.56 4.88 
452.96 -634.58 4.87 
452.54 -634.58 4.86 
452.08 -634.58 4.84 
451.70 -634.58 4.83 
451.40 -634.58 4.83 
450.96 -634.59 4.82 
450.53 -634.58 4.81 
450.15 -634.59 4.80 
449.92 -634.58 4.79 
448.47 -634.60 4.77 
448.21 -634.60 4.76 
447.77 -634.60 4.76 
447.31 -634.61 4.75 
447.02 -634.61 4.75 
446.59 -634.62 4.74 
446.15 -634.61 4.74 
445.72 -634.62 4.74 
445.29 -634.63 4.73 
445.01 -634.63 4.73 
444.57 -634.63 4.73 
444.14 -634.63 4.73 
443.70 -634.66 4.73 
442.11 -634.65 4.73 
441.82 -634.65 4.73 
454.04 -634.59 4.90 
449.62 -634.70 4.78 
449.33 -634.72 4.78 
449.04 -634.70 4.77 
448.74 -634.72 4.77 
443.28 -634.75 4.72 
442.98 -634.76 4.72 
442.55 -634.75 4.73 
462.99 -634.43 5.58 
462.61 -634.41 5.56 
462.05 -634.43 5.53 
461.75 -634.43 5.52 
461.43 -634.45 5.51 
461.11 -634.45 5.49 
462.34 -634.46 5.55 
461.69 -634.49 5.52 
461.37 -634.47 5.50 
461.03 -634.48 5.49 
460.53 -634.64 5.46 
460.05 -634.66 5.44 
459.73 -634.65 5.43 
459.44 -634.55 5.43 
458.97 -634.58 5.41 
458.49 -634.59 5.39 
458.19 -634.59 5.38 
457.72 -634.61 5.36 
457.26 -634.61 5.35 
456.95 -634.61 5.34 
456.51 -634.55 5.33 
454.19 -634.85 5.26 
448.50 -634.16 5.77 
465.71 -634.34 5.71 
465.37 -634.33 5.70 
464.90 -634.34 5.67 
464.48 -634.35 5.65 
464.04 -634.38 5.63 
463.71 -634.38 5.61 
463.37 -634.39 5.60 
463.05 -634.40 5.58 
452.32 -634.17 5.86 
448.92 -634.37 5.77 
442.53 -634.41 5.72 
466.36 -634.41 5.75 
466.02 -634.43 5.73 
454.73 -634.08 5.95 
455.61 -634.32 5.97 
455.29 -634.34 5.96 
455.01 -634.33 5.95 
460.48 -634.33 6.53 
460.16 -634.35 6.51 
449.68 -633.98 6.80 
449.38 -634.00 6.79 
445.92 -633.82 6.76 
443.53 -633.82 6.75 
443.25 -634.05 6.73 
442.95 -634.05 6.73 
460.85 -634.01 7.62 
459.90 -634.05 7.57 
464.79 -631.82 0.18 
464.43 -631.86 0.18 
464.07 -631.86 0.17 
463.70 -631.86 0.17 
463.34 -631.90 0.17 
462.11 -631.93 0.16 
466.39 -632.24 0.01 
466.01 -632.24 0.01 
465.64 -632.24 0.00 
465.31 -632.22 0.00 
464.94 -632.22 -0.01 
464.57 -632.23 -0.01 
464.20 -632.23 -0.02 
463.79 -632.26 -0.02 
463.52 -632.19 -0.03 
461.66 -632.28 -0.04 
461.31 -632.27 -0.05 
460.96 -632.28 -0.05 
460.49 -632.26 -0.06 
460.14 -632.27 -0.06 
459.73 -632.27 -0.06 
459.28 -632.26 -0.07 
458.94 -632.27 -0.07 
458.58 -632.28 -0.08 
458.28 -632.28 -0.08 
457.73 -632.29 -0.08 
457.25 -632.28 -0.09 
456.92 -632.19 0.01 
456.52 -632.14 0.12 
456.19 -632.12 0.11 
455.70 -632.15 0.11 
455.28 -632.30 -0.11 
454.96 -632.31 -0.11 
454.63 -632.31 -0.11 
454.16 -632.32 -0.12 
453.68 -632.32 -0.12 
453.36 -632.34 -0.12 
453.05 -632.31 -0.13 
452.57 -632.33 -0.13 
452.11 -632.33 -0.13 
451.79 -632.35 -0.14 
451.32 -632.34 -0.14 
450.84 -632.34 -0.15 
450.53 -632.34 -0.15 
450.18 -632.35 -0.04 
448.82 -632.39 0.07 
448.52 -632.36 -0.16 
448.06 -632.36 -0.17 
447.75 -632.36 -0.17 
447.29 -632.38 -0.17 
446.88 -632.42 -0.05 
446.52 -632.43 -0.06 
446.12 -632.44 -0.06 
445.74 -632.44 -0.06 
445.35 -632.46 -0.06 
444.96 -632.47 -0.06 
444.49 -632.47 -0.07 
444.12 -632.48 -0.07 
443.80 -632.49 -0.07 
443.51 -632.43 -0.20 
465.34 -634.36 0.36 
465.46 -634.80 0.39 
466.33 -635.26 0.44 
465.77 -635.30 0.43 
461.65 -635.76 0.20 
461.31 -635.75 0.20 
460.99 -635.75 0.19 
455.82 -635.80 0.14 
454.17 -635.68 0.34 
453.86 -635.68 0.34 
453.27 -635.70 0.34 
449.81 -635.83 0.09 
449.25 -635.85 0.08 
448.97 -635.85 0.08 
447.63 -635.92 0.31 
450.93 -633.23 0.92 
450.54 -633.23 0.92 
450.17 -633.18 0.91 
448.49 -633.12 0.89 
448.13 -633.10 0.89 
447.71 -633.11 0.88 
447.41 -633.12 0.88 
446.96 -633.11 0.88 
446.50 -633.11 0.87 
446.20 -633.16 0.87 
445.75 -633.16 0.87 
445.30 -633.16 0.87 
445.00 -633.17 0.86 
444.54 -633.20 0.86 
444.10 -633.20 0.86 
443.79 -633.23 0.86 
443.54 -633.26 0.86 
442.01 -633.28 0.85 
441.72 -633.30 0.85 
454.60 -633.47 0.98 
454.07 -633.43 0.97 
453.79 -633.39 0.97 
453.28 -633.35 0.96 
452.88 -633.32 0.95 
452.57 -633.31 0.95 
452.12 -633.31 0.94 
451.67 -633.27 0.93 
451.36 -633.27 0.93 
451.02 -633.26 0.93 
458.57 -633.91 1.07 
458.11 -633.82 1.06 
457.81 -633.76 1.05 
457.34 -633.70 1.04 
456.87 -633.65 1.03 
456.59 -633.64 1.02 
460.91 -634.20 1.13 
460.58 -634.17 1.12 
460.11 -634.11 1.11 
459.65 -634.04 1.09 
459.33 -634.00 1.09 
459.04 -633.96 1.08 
454.72 -634.65 1.04 
460.91 -635.07 1.17 
466.05 -635.11 1.28 
465.78 -635.05 1.27 
449.83 -635.67 1.02 
448.98 -635.67 1.01 
443.60 -635.72 0.97 
443.32 -635.72 0.97 
443.02 -635.74 0.97 
461.72 -635.57 1.21 
461.39 -635.57 1.20 
461.03 -635.58 1.19 
455.99 -635.64 1.11 
455.71 -635.61 1.10 
455.39 -635.64 1.10 
454.95 -635.62 1.09 
449.41 -635.68 1.02 
448.69 -635.70 1.01 
466.10 -631.64 1.33 
465.56 -631.67 1.32 
465.18 -631.67 1.31 
464.81 -631.69 1.31 
464.46 -631.70 1.30 
464.09 -631.72 1.30 
463.72 -631.74 1.29 
463.38 -631.72 1.28 
463.02 -631.76 1.28 
462.65 -631.76 1.27 
462.14 -631.79 1.26 
461.62 -631.79 1.26 
459.72 -631.87 1.23 
459.26 -631.87 1.22 
453.02 -632.12 1.15 
452.16 -632.15 1.15 
451.73 -632.16 1.14 
445.03 -632.41 1.11 
444.56 -632.40 1.11 
444.09 -632.43 1.11 
443.76 -632.41 1.10 
443.45 -632.42 1.10 
443.13 -632.44 1.10 
465.34 -634.28 1.44 
465.48 -634.68 1.46 
466.40 -635.08 1.50 
466.18 -635.11 1.50 
465.76 -635.15 1.49 
460.30 -635.34 1.40 
459.66 -635.36 1.39 
459.36 -635.30 1.38 
453.63 -635.44 2.02 
453.34 -635.44 2.02 
453.06 -635.42 2.01 
452.61 -635.43 2.01 
452.17 -635.44 2.00 
451.73 -635.45 1.99 
450.56 -635.47 1.97 
450.13 -635.46 1.97 
449.85 -635.47 1.96 
449.42 -635.46 1.96 
448.99 -635.48 1.95 
448.56 -635.48 1.95 
448.13 -635.47 1.94 
447.79 -635.48 1.94 
447.39 -635.47 1.93 
447.02 -635.48 1.93 
446.59 -635.48 1.93 
446.17 -635.50 1.92 
445.74 -635.50 1.92 
445.29 -635.50 1.91 
445.01 -635.52 1.91 
444.57 -635.51 1.91 
444.16 -635.53 1.91 
443.73 -635.51 1.91 
443.31 -635.52 1.90 
443.01 -635.51 1.90 
442.59 -635.53 1.90 
442.16 -635.53 1.90 
441.71 -635.54 1.90 
462.26 -635.14 2.46 
461.76 -635.15 2.45 
461.28 -635.18 2.44 
460.96 -635.18 2.43 
460.63 -635.20 2.43 
460.19 -635.19 2.42 
458.51 -635.38 2.13 
458.20 -635.41 2.12 
457.73 -635.40 2.11 
457.27 -635.41 2.10 
456.99 -635.39 2.09 
456.58 -635.39 2.08 
456.16 -635.41 2.08 
455.77 -635.41 2.07 
455.37 -635.40 2.06 
454.95 -635.42 2.05 
454.56 -635.41 2.04 
454.23 -635.42 2.04 
453.93 -635.42 2.03 
466.14 -634.98 2.57 
465.68 -635.00 2.55 
465.35 -635.01 2.54 
465.00 -635.02 2.53 
464.64 -635.04 2.52 
464.18 -635.03 2.51 
463.73 -635.07 2.50 
463.29 -635.08 2.49 
462.96 -635.11 2.48 
462.63 -635.09 2.47 
454.63 -634.95 3.02 
452.23 -635.03 2.96 
448.46 -635.00 2.90 
446.16 -635.09 2.87 
442.19 -635.10 2.85 
460.90 -635.09 3.21 
455.36 -635.17 3.04 
454.91 -635.17 3.03 
454.66 -635.08 3.02 
449.61 -635.23 2.91 
449.33 -635.25 2.91 
448.96 -635.24 2.90 
448.61 -635.24 2.90 
443.59 -635.27 2.85 
443.31 -635.29 2.85 
443.01 -635.31 2.85 
442.73 -635.30 2.85 
466.40 -634.81 3.66 
466.08 -634.80 3.64 
465.70 -634.84 3.63 
465.52 -634.57 3.62 
463.74 -634.68 3.56 
463.40 -634.72 3.55 
463.10 -634.72 3.54 
460.67 -635.01 3.46 
460.19 -635.03 3.45 
459.77 -635.02 3.44 
444.18 -635.51 3.23 
453.32 -634.71 3.96 
452.87 -634.71 3.95 
452.58 -634.71 3.94 
452.13 -634.72 3.93 
449.64 -634.97 3.87 
449.35 -634.97 3.87 
448.92 -634.98 3.86 
448.61 -634.87 3.86 
446.17 -634.71 3.83 
443.33 -635.04 3.80 
442.95 -635.04 3.80 
442.60 -635.05 3.80 
442.18 -634.83 3.81 
458.43 -634.59 4.14 
457.01 -634.70 4.39 
455.38 -634.91 4.02 
454.93 -634.93 4.01 
454.53 -634.69 4.00 
454.07 -634.70 3.99 
453.77 -634.71 3.98 
463.20 -634.32 4.60 
466.47 -634.57 4.74 
466.11 -634.59 4.73 
465.80 -634.53 4.71 
460.52 -634.79 4.49 
460.08 -634.80 4.48 
459.78 -634.82 4.47 
459.51 -634.70 4.46 
458.46 -634.41 5.16 
457.34 -634.35 5.11 
456.87 -634.41 5.09 
447.62 -634.59 4.81 
447.33 -634.59 4.81 
446.17 -634.61 4.80 
445.60 -634.62 4.79 
445.31 -634.61 4.79 
445.08 -634.63 4.79 
444.44 -634.64 4.78 
443.89 -634.64 4.78 
442.13 -634.66 4.78 
441.70 -634.66 4.78 
456.56 -634.46 5.07 
456.22 -634.53 5.06 
455.75 -634.62 5.03 
455.28 -634.63 5.02 
454.98 -634.63 5.00 
454.54 -634.54 4.99 
454.09 -634.53 4.98 
453.79 -634.55 4.97 
453.34 -634.54 4.95 
452.89 -634.55 4.94 
452.59 -634.55 4.93 
452.15 -634.54 4.92 
451.71 -634.56 4.90 
451.42 -634.56 4.89 
450.97 -634.56 4.88 
450.52 -634.56 4.87 
450.23 -634.57 4.86 
449.79 -634.64 4.85 
449.35 -634.71 4.84 
448.91 -634.69 4.83 
448.49 -634.61 4.83 
448.20 -634.60 4.82 
447.91 -634.60 4.82 
446.90 -634.61 4.80 
446.46 -634.63 4.80 
445.89 -634.62 4.79 
444.90 -634.64 4.78 
444.61 -634.64 4.78 
444.18 -634.65 4.78 
443.59 -634.71 4.77 
443.30 -634.75 4.77 
443.00 -634.76 4.77 
442.57 -634.76 4.77 
461.80 -634.39 5.60 
461.45 -634.42 5.58 
460.43 -634.57 5.54 
460.12 -634.59 5.52 
459.79 -634.61 5.51 
459.34 -634.51 5.50 
458.86 -634.51 5.48 
465.53 -634.25 5.79 
465.16 -634.28 5.77 
464.21 -634.29 5.72 
463.86 -634.28 5.70 
445.95 -634.22 5.79 
443.58 -634.31 5.77 
443.30 -634.40 5.77 
442.99 -634.42 5.76 
442.71 -634.42 5.76 
466.18 -634.35 5.82 
465.86 -634.29 5.81 
464.82 -634.29 5.75 
464.48 -634.30 5.73 
464.13 -634.33 5.71 
463.78 -634.34 5.70 
463.32 -634.34 5.67 
462.91 -634.34 5.65 
462.47 -634.37 5.63 
462.14 -634.37 5.62 
458.56 -634.05 6.21 
463.54 -634.01 6.78 
458.04 -634.20 6.51 
455.81 -633.88 7.11 
455.33 -633.87 7.08 
454.88 -633.88 7.06 
454.62 -633.62 7.07 
452.17 -633.74 6.96 
449.78 -633.75 6.89 
448.88 -633.97 6.84 
461.30 -633.75 7.45 
458.34 -633.64 7.27 
458.03 -633.64 7.25 
457.71 -633.64 7.23 
461.62 -633.72 7.77 
466.46 -631.67 0.30 
466.09 -631.66 0.30 
465.71 -631.69 0.29 
466.37 -632.16 0.12 
465.99 -632.18 0.12 
465.60 -632.18 0.11 
465.27 -632.16 0.10 
464.89 -632.17 0.10 
464.51 -632.17 0.10 
464.13 -632.18 0.09 
463.73 -632.17 0.08 
461.90 -632.21 0.06 
461.54 -632.22 0.06 
461.19 -632.23 0.06 
460.87 -632.20 0.05 
460.52 -632.20 0.05 
460.07 -632.20 0.04 
459.64 -632.22 0.04 
459.23 -632.23 0.03 
458.75 -632.24 0.03 
458.41 -632.25 0.02 
458.07 -632.25 0.02 
457.73 -632.25 0.02 
457.23 -632.25 0.01 
456.43 -632.03 0.21 
455.95 -632.05 0.20 
455.61 -632.06 0.20 
455.26 -632.18 0.09 
454.76 -632.29 -0.02 
454.44 -632.29 -0.02 
454.12 -632.30 -0.02 
453.62 -632.29 -0.03 
453.17 -632.29 -0.03 
452.83 -632.31 -0.04 
452.52 -632.31 -0.04 
452.04 -632.32 -0.04 
451.59 -632.31 -0.05 
451.27 -632.32 -0.05 
450.86 -632.31 -0.06 
450.48 -632.32 -0.06 
448.77 -632.34 -0.08 
448.43 -632.36 -0.08 
448.00 -632.35 -0.08 
447.66 -632.36 -0.08 
447.19 -632.36 -0.09 
446.89 -632.39 0.03 
446.43 -632.42 0.02 
445.96 -632.42 0.02 
445.67 -632.43 0.02 
445.21 -632.44 0.02 
444.74 -632.46 0.01 
444.43 -632.46 0.01 
444.11 -632.47 0.01 
443.73 -632.49 0.01 
465.31 -634.58 0.49 
465.43 -634.99 0.52 
460.81 -635.01 0.25 
466.47 -635.13 0.54 
466.08 -635.18 0.54 
465.76 -635.18 0.54 
465.44 -635.15 0.53 
461.84 -635.68 0.31 
461.30 -635.71 0.30 
455.70 -635.76 0.24 
449.65 -635.82 0.17 
449.21 -635.84 0.17 
448.93 -635.83 0.17 
448.11 -635.86 0.39 
447.81 -635.86 0.39 
442.37 -634.11 0.97 
442.10 -634.12 0.97 
441.63 -634.13 0.96 
448.52 -634.37 1.04 
448.08 -634.35 1.03 
447.66 -634.33 1.03 
447.36 -634.31 1.02 
446.91 -634.28 1.01 
446.48 -634.30 1.01 
446.03 -634.28 1.01 
445.59 -634.24 1.00 
445.30 -634.23 1.00 
444.87 -634.20 0.99 
444.43 -634.17 0.99 
444.13 -634.15 0.98 
443.84 -634.16 0.98 
441.83 -634.16 0.97 
452.36 -634.76 1.11 
452.06 -634.74 1.10 
451.67 -634.69 1.10 
451.26 -634.66 1.09 
450.88 -634.62 1.08 
450.49 -634.59 1.07 
450.14 -634.52 1.07 
448.54 -634.54 1.05 
454.48 -635.04 1.16 
454.07 -635.01 1.15 
453.67 -634.93 1.14 
453.22 -634.86 1.13 
452.92 -634.84 1.12 
452.52 -634.81 1.11 
457.64 -635.46 1.23 
457.29 -635.35 1.22 
456.88 -635.26 1.21 
456.50 -635.17 1.20 
456.19 -635.18 1.19 
443.61 -635.72 1.05 
464.60 -635.56 1.39 
464.08 -635.56 1.38 
463.54 -635.58 1.37 
463.20 -635.57 1.36 
462.54 -635.56 1.34 
462.11 -635.53 1.33 
461.72 -635.51 1.32 
461.18 -635.55 1.31 
460.82 -635.59 1.31 
460.49 -635.60 1.30 
460.17 -635.60 1.29 
459.67 -635.60 1.28 
459.18 -635.60 1.27 
458.87 -635.60 1.27 
458.54 -635.60 1.26 
457.96 -635.52 1.24 
457.68 -635.48 1.24 
455.74 -635.60 1.20 
455.28 -635.60 1.20 
454.82 -635.60 1.19 
449.82 -635.67 1.11 
449.23 -635.67 1.11 
448.95 -635.68 1.10 
448.66 -635.66 1.10 
443.56 -635.72 1.05 
443.30 -635.73 1.05 
442.94 -635.74 1.05 
466.49 -631.52 1.45 
466.11 -631.53 1.45 
465.75 -631.53 1.44 
465.36 -631.56 1.43 
464.84 -631.55 1.42 
456.94 -631.89 1.29 
456.55 -631.90 1.29 
450.38 -632.15 1.22 
465.36 -634.38 1.57 
466.47 -635.02 1.62 
466.12 -635.02 1.62 
465.75 -635.05 1.61 
465.47 -635.01 1.60 
454.33 -635.50 1.42 
454.05 -635.49 1.42 
452.75 -635.44 2.11 
452.46 -635.43 2.10 
452.03 -635.43 2.10 
451.59 -635.44 2.09 
451.29 -635.44 2.08 
450.85 -635.44 2.07 
450.41 -635.42 2.07 
450.00 -635.44 2.06 
449.54 -635.45 2.05 
449.25 -635.47 2.05 
448.96 -635.45 2.04 
448.53 -635.46 2.04 
448.10 -635.46 2.03 
447.67 -635.47 2.02 
447.25 -635.48 2.02 
446.96 -635.48 2.02 
446.54 -635.49 2.01 
446.11 -635.48 2.00 
445.68 -635.49 2.00 
445.26 -635.50 2.00 
444.86 -635.51 1.99 
444.44 -635.51 1.99 
444.07 -635.52 1.99 
443.67 -635.52 1.98 
443.30 -635.54 1.98 
442.86 -635.53 1.98 
442.43 -635.53 1.97 
442.14 -635.54 1.97 
441.72 -635.54 1.97 
443.96 -634.35 2.28 
445.19 -634.77 2.29 
446.05 -635.11 2.31 
445.75 -634.99 2.30 
445.44 -634.90 2.30 
461.28 -635.29 2.33 
460.89 -635.16 2.31 
460.01 -635.09 2.29 
459.67 -635.09 2.28 
459.34 -635.10 2.27 
458.85 -635.12 2.25 
458.37 -635.13 2.24 
458.01 -635.21 2.23 
457.75 -635.22 2.23 
457.36 -635.36 2.22 
456.95 -635.38 2.21 
456.41 -635.40 2.19 
456.11 -635.39 2.19 
455.72 -635.37 2.18 
455.32 -635.38 2.17 
454.86 -635.39 2.16 
454.55 -635.42 2.15 
454.09 -635.44 2.14 
453.65 -635.46 2.13 
453.36 -635.44 2.12 
453.05 -635.43 2.12 
446.99 -635.55 2.32 
446.35 -635.20 2.31 
456.69 -635.41 2.20 
448.69 -635.63 2.34 
448.41 -635.59 2.34 
447.67 -635.62 2.33 
447.23 -635.64 2.33 
466.50 -634.86 2.71 
465.64 -634.88 2.68 
465.27 -634.89 2.67 
465.05 -634.93 2.66 
458.44 -634.85 3.26 
454.69 -634.85 3.13 
448.49 -634.99 2.99 
446.13 -635.10 2.95 
442.42 -635.11 2.92 
460.98 -635.05 3.35 
455.91 -635.09 3.17 
455.64 -635.13 3.16 
455.25 -635.13 3.15 
454.86 -635.08 3.14 
449.88 -635.09 3.02 
449.57 -635.23 3.01 
449.28 -635.22 3.00 
448.84 -635.23 3.00 
443.56 -635.29 2.93 
443.28 -635.29 2.93 
442.86 -635.29 2.92 
463.17 -634.58 3.67 
460.82 -634.78 3.34 
461.66 -635.04 3.38 
461.32 -635.06 3.37 
461.05 -635.04 3.35 
448.42 -635.40 3.32 
448.12 -635.43 3.32 
447.53 -635.46 3.31 
444.89 -635.49 3.30 
447.24 -635.50 3.31 
446.95 -635.49 3.31 
446.51 -635.53 3.31 
445.63 -635.53 3.30 
445.19 -635.55 3.30 
444.45 -635.54 3.30 
444.02 -635.56 3.30 
443.78 -635.57 3.30 
466.19 -634.68 3.79 
465.72 -634.63 3.77 
452.29 -634.75 4.05 
449.92 -634.81 3.98 
449.63 -634.94 3.97 
449.21 -634.94 3.96 
448.84 -634.95 3.96 
448.49 -634.74 3.95 
448.05 -634.74 3.95 
447.61 -634.76 3.94 
447.19 -634.75 3.93 
446.83 -634.76 3.92 
446.45 -634.76 3.92 
446.00 -634.79 3.91 
445.57 -634.79 3.91 
445.29 -634.77 3.90 
444.86 -634.79 3.90 
444.43 -634.78 3.89 
444.00 -634.78 3.89 
443.56 -635.01 3.88 
443.29 -635.03 3.88 
442.72 -635.04 3.87 
442.42 -634.85 3.88 
442.01 -634.82 3.88 
441.66 -634.82 3.88 
463.55 -634.62 4.52 
463.23 -634.61 4.50 
460.82 -634.56 4.38 
460.53 -634.47 4.37 
458.50 -634.64 4.28 
455.58 -634.86 4.15 
455.28 -634.87 4.14 
454.91 -634.79 4.13 
461.75 -634.77 4.43 
461.24 -634.77 4.40 
455.89 -634.87 4.17 
465.70 -634.24 4.86 
466.45 -634.44 4.90 
465.89 -634.49 4.87 
464.44 -634.62 4.57 
454.78 -634.36 5.14 
453.25 -634.35 5.08 
452.94 -634.38 5.07 
452.64 -634.39 5.05 
455.96 -634.56 5.18 
455.64 -634.57 5.16 
455.34 -634.58 5.15 
455.02 -634.57 5.14 
452.34 -634.46 5.04 
452.03 -634.47 5.03 
451.72 -634.54 5.02 
451.25 -634.52 5.00 
450.85 -634.53 4.99 
450.47 -634.53 4.98 
450.09 -634.54 4.97 
449.63 -634.66 4.95 
449.34 -634.66 4.94 
448.90 -634.67 4.93 
448.47 -634.57 4.93 
448.10 -634.57 4.92 
447.63 -634.57 4.91 
447.32 -634.59 4.90 
446.87 -634.58 4.89 
446.45 -634.60 4.89 
446.01 -634.60 4.88 
445.58 -634.60 4.87 
445.29 -634.60 4.87 
444.86 -634.62 4.86 
444.43 -634.63 4.86 
444.00 -634.63 4.85 
443.56 -634.75 4.85 
443.28 -634.73 4.84 
442.85 -634.75 4.84 
442.41 -634.68 4.84 
442.06 -634.66 4.84 
441.66 -634.66 4.84 
462.65 -634.19 5.55 
460.97 -634.12 5.45 
463.32 -634.25 5.58 
462.97 -634.28 5.56 
462.19 -634.47 5.51 
461.67 -634.47 5.48 
461.15 -634.49 5.45 
459.64 -634.44 5.64 
458.57 -634.35 5.31 
450.01 -634.04 5.98 
449.67 -634.33 5.95 
449.23 -634.33 5.94 
448.79 -634.33 5.93 
443.62 -634.21 5.85 
462.05 -634.08 6.59 
454.04 -633.60 7.18 
453.78 -633.54 7.18 
448.56 -633.75 6.96 
443.29 -634.03 6.84 
442.85 -634.04 6.84 
442.41 -633.96 6.85 
461.50 -633.67 7.65 
461.14 -633.68 7.62 
455.88 -633.80 7.26 
455.56 -633.81 7.24 
455.25 -633.82 7.23 
454.65 -633.61 7.21 
454.34 -633.60 7.20 
460.74 -633.73 7.59 
460.40 -633.75 7.56 
460.06 -633.73 7.54 
459.71 -633.77 7.51 
459.20 -633.83 7.47 
458.71 -633.84 7.43 
458.38 -633.82 7.41 
458.05 -633.84 7.39 
457.65 -633.84 7.37 
457.20 -633.85 7.34 
456.78 -633.85 7.31 
456.47 -633.85 7.29 
456.19 -633.82 7.28 
461.83 -633.66 7.67 
463.89 -633.67 7.84 
463.53 -633.66 7.81 
463.17 -633.69 7.78 
462.81 -633.69 7.75 
462.47 -633.68 7.72 
465.76 -633.69 8.22 
465.22 -633.72 8.18 
466.27 -631.49 0.32 
465.89 -631.54 0.32 
465.12 -631.56 0.32 
463.91 -632.04 0.12 
461.59 -632.12 0.10 
461.22 -632.13 0.09 
460.68 -632.13 0.09 
460.13 -632.15 0.08 
459.82 -632.12 0.08 
459.47 -632.13 0.07 
459.13 -632.14 0.07 
458.77 -632.13 0.06 
458.31 -632.14 0.06 
457.86 -632.16 0.06 
457.35 -632.18 0.05 
457.07 -632.15 0.05 
455.42 -632.08 0.13 
455.00 -632.21 0.03 
454.66 -632.23 0.03 
454.33 -632.23 0.02 
453.85 -632.24 0.02 
453.36 -632.24 0.01 
453.04 -632.25 0.01 
452.74 -632.23 0.01 
452.20 -632.25 0.00 
451.78 -632.25 0.00 
451.46 -632.25 -0.01 
451.14 -632.26 -0.01 
450.67 -632.26 -0.01 
448.91 -632.31 -0.03 
448.62 -632.31 -0.03 
448.30 -632.32 -0.03 
447.90 -632.31 -0.04 
447.47 -632.33 -0.04 
447.07 -632.33 -0.04 
446.73 -632.35 0.07 
446.27 -632.36 0.07 
445.83 -632.37 0.07 
445.52 -632.39 0.07 
445.08 -632.40 0.06 
444.57 -632.42 0.06 
444.26 -632.42 0.06 
443.83 -632.44 0.06 
443.30 -632.51 0.18 
442.68 -632.53 0.17 
466.14 -632.05 0.15 
465.75 -632.07 0.15 
465.36 -632.06 0.14 
464.96 -632.08 0.14 
464.58 -632.10 0.13 
464.20 -632.09 0.13 
463.82 -632.09 0.12 
443.00 -632.53 0.17 
465.24 -634.06 0.49 
465.36 -634.46 0.52 
460.81 -634.71 0.27 
466.19 -635.02 0.57 
465.83 -635.04 0.57 
465.46 -635.04 0.57 
460.32 -635.22 0.52 
459.98 -635.24 0.51 
459.66 -635.25 0.51 
461.87 -635.58 0.34 
461.48 -635.59 0.34 
461.13 -635.60 0.34 
460.83 -635.57 0.33 
455.87 -635.68 0.28 
455.56 -635.71 0.28 
455.10 -635.70 0.27 
449.59 -635.78 0.22 
449.16 -635.78 0.22 
447.49 -635.81 0.44 
447.05 -635.83 0.43 
441.85 -636.06 0.41 
446.73 -633.95 1.05 
446.28 -633.94 1.05 
445.99 -633.94 1.04 
445.55 -633.91 1.04 
445.11 -633.89 1.03 
444.67 -633.86 1.03 
444.22 -633.86 1.02 
443.92 -633.84 1.02 
443.67 -633.84 1.02 
442.16 -633.81 1.00 
441.88 -633.80 1.00 
450.30 -634.25 1.11 
448.29 -634.02 1.07 
447.91 -634.01 1.07 
447.47 -633.98 1.06 
447.17 -633.97 1.06 
453.41 -634.60 1.17 
453.12 -634.56 1.17 
452.72 -634.52 1.16 
452.31 -634.50 1.15 
451.93 -634.43 1.14 
451.48 -634.38 1.13 
451.03 -634.34 1.12 
450.74 -634.32 1.12 
456.14 -634.94 1.24 
454.59 -634.83 1.20 
454.30 -634.74 1.19 
453.91 -634.69 1.19 
453.68 -634.66 1.18 
448.55 -634.79 1.11 
457.94 -635.20 1.28 
457.48 -635.08 1.27 
457.02 -635.01 1.26 
456.71 -634.98 1.25 
456.40 -634.97 1.24 
454.72 -635.35 1.23 
464.68 -635.45 1.44 
464.35 -635.43 1.43 
463.98 -635.44 1.43 
463.62 -635.44 1.42 
463.21 -635.48 1.41 
462.87 -635.48 1.40 
462.34 -635.48 1.39 
461.84 -635.43 1.38 
461.50 -635.44 1.37 
461.18 -635.42 1.36 
460.82 -635.45 1.36 
460.47 -635.49 1.35 
459.94 -635.51 1.34 
459.44 -635.50 1.33 
459.12 -635.49 1.32 
458.80 -635.45 1.31 
458.36 -635.36 1.30 
455.90 -635.53 1.26 
455.60 -635.52 1.25 
455.13 -635.53 1.25 
449.59 -635.61 1.16 
449.15 -635.63 1.16 
443.59 -635.71 1.10 
443.17 -635.72 1.10 
442.75 -635.73 1.10 
442.47 -635.73 1.10 
459.65 -631.65 1.38 
459.30 -631.66 1.37 
458.95 -631.69 1.36 
453.06 -631.94 1.29 
452.59 -631.95 1.28 
452.27 -631.96 1.28 
451.94 -631.97 1.28 
451.45 -632.00 1.27 
450.97 -632.03 1.27 
450.65 -632.04 1.27 
450.33 -632.06 1.26 
449.85 -632.07 1.26 
449.33 -632.09 1.25 
449.02 -632.13 1.25 
448.69 -632.13 1.25 
443.94 -632.36 1.23 
443.31 -632.40 1.22 
443.01 -632.40 1.22 
442.69 -632.43 1.22 
453.11 -634.66 1.42 
466.17 -635.44 1.48 
465.78 -635.43 1.47 
465.41 -635.44 1.46 
465.04 -635.44 1.45 
451.38 -635.38 2.14 
451.08 -635.38 2.14 
450.79 -635.40 2.13 
450.35 -635.41 2.12 
449.91 -635.40 2.11 
449.61 -635.42 2.11 
449.17 -635.41 2.10 
448.74 -635.41 2.10 
448.31 -635.43 2.09 
447.87 -635.45 2.08 
447.59 -635.42 2.08 
447.15 -635.45 2.07 
446.73 -635.46 2.07 
446.30 -635.46 2.06 
445.87 -635.47 2.06 
445.58 -635.45 2.05 
445.16 -635.48 2.05 
444.73 -635.49 2.04 
444.30 -635.50 2.04 
443.88 -635.50 2.04 
443.59 -635.51 2.03 
443.17 -635.51 2.03 
442.75 -635.50 2.03 
442.35 -635.52 2.03 
441.92 -635.53 2.02 
443.78 -634.72 2.33 
443.50 -634.64 2.33 
443.17 -634.56 2.33 
442.85 -634.38 2.32 
445.00 -635.06 2.35 
444.40 -635.00 2.34 
444.08 -634.90 2.34 
464.54 -634.92 2.49 
460.80 -635.04 2.37 
460.00 -634.97 2.35 
459.54 -635.00 2.33 
459.11 -635.02 2.32 
458.60 -635.04 2.31 
458.28 -635.08 2.30 
457.90 -635.22 2.29 
455.55 -635.27 2.23 
455.08 -635.30 2.22 
454.78 -635.29 2.21 
452.57 -635.36 2.17 
451.97 -635.37 2.15 
451.68 -635.38 2.15 
444.69 -635.12 2.35 
461.91 -635.19 2.41 
461.57 -635.21 2.40 
461.07 -635.20 2.39 
457.53 -635.30 2.29 
456.95 -635.30 2.27 
456.70 -635.32 2.26 
456.28 -635.32 2.25 
455.97 -635.31 2.24 
455.49 -635.32 2.23 
455.02 -635.31 2.22 
454.69 -635.36 2.21 
454.40 -635.35 2.21 
453.93 -635.37 2.20 
453.47 -635.36 2.19 
453.18 -635.37 2.18 
452.87 -635.38 2.17 
452.27 -635.39 2.16 
451.49 -635.42 2.42 
451.18 -635.43 2.42 
450.77 -635.43 2.41 
450.34 -635.48 2.41 
449.90 -635.48 2.40 
449.46 -635.50 2.40 
449.16 -635.52 2.39 
448.72 -635.54 2.39 
447.96 -635.52 2.38 
447.50 -635.54 2.38 
447.06 -635.61 2.38 
446.76 -635.65 2.37 
446.32 -635.63 2.37 
445.88 -635.60 2.37 
441.89 -635.70 2.35 
441.51 -635.74 2.35 
448.51 -634.98 3.05 
442.24 -635.06 2.97 
458.40 -634.81 3.33 
456.06 -634.92 3.25 
455.51 -635.06 3.23 
455.11 -635.07 3.22 
454.80 -635.06 3.21 
452.12 -634.93 3.13 
449.35 -635.17 3.07 
449.06 -635.20 3.06 
448.77 -635.19 3.05 
445.95 -635.06 3.01 
443.49 -635.22 2.98 
443.14 -635.28 2.98 
442.69 -635.29 2.97 
442.47 -635.29 2.97 
464.60 -634.73 3.58 
461.99 -634.96 3.47 
461.65 -634.96 3.45 
461.11 -634.97 3.43 
460.78 -634.71 3.42 
450.68 -635.03 3.40 
448.60 -635.06 3.38 
448.26 -635.27 3.37 
447.97 -635.33 3.37 
447.53 -635.35 3.36 
447.07 -635.31 3.36 
447.12 -635.39 3.36 
446.77 -635.43 3.36 
446.32 -635.46 3.35 
445.59 -635.48 3.35 
445.17 -635.50 3.35 
444.72 -635.53 3.34 
444.43 -635.52 3.34 
443.84 -635.48 3.34 
442.12 -635.58 3.34 
442.08 -635.59 3.34 
449.89 -634.69 4.05 
448.55 -634.71 4.02 
448.28 -634.69 4.01 
447.89 -634.71 4.00 
447.49 -634.71 4.00 
447.11 -634.73 3.99 
446.67 -634.73 3.98 
446.24 -634.73 3.97 
445.94 -634.76 3.97 
445.52 -634.70 3.96 
445.11 -634.69 3.96 
443.47 -634.95 3.93 
443.06 -635.02 3.93 
442.76 -635.02 3.92 
442.36 -634.92 3.92 
449.39 -634.91 4.03 
449.10 -634.90 4.03 
448.80 -634.93 4.02 
443.37 -635.02 3.93 
462.55 -634.51 4.56 
462.23 -634.50 4.54 
460.80 -634.45 4.47 
460.29 -634.48 4.44 
458.43 -634.56 4.35 
454.63 -634.57 4.20 
452.16 -634.67 4.11 
450.96 -634.79 4.41 
461.93 -634.66 4.52 
461.38 -634.68 4.49 
461.04 -634.68 4.48 
455.77 -634.79 4.24 
455.45 -634.81 4.23 
455.14 -634.80 4.21 
454.82 -634.82 4.20 
442.34 -635.14 4.33 
441.88 -635.34 4.33 
466.26 -634.43 4.76 
465.90 -634.41 4.74 
465.49 -634.45 4.72 
465.08 -634.49 4.70 
464.69 -634.50 4.67 
464.33 -634.50 4.65 
463.95 -634.52 4.63 
463.59 -634.51 4.61 
463.09 -634.51 4.58 
462.87 -634.54 4.57 
465.81 -634.48 4.74 
455.84 -634.50 5.26 
455.52 -634.51 5.24 
455.21 -634.50 5.23 
454.88 -634.52 5.21 
452.77 -634.34 5.13 
452.32 -634.35 5.12 
451.85 -634.43 5.10 
451.57 -634.46 5.09 
