# .PCD v0.7 - Point Cloud Data file format
VERSION 0.7
FIELDS x y z
SIZE 4 4 4
TYPE F F F
COUNT 1 1 1
WIDTH 2470
HEIGHT 1
VIEWPOINT 0 0 0 1 0 0 0
POINTS 2470
DATA ascii
483.43 -8.20 2.03 
487.10 -4.80 4.05 
485.77 -6.58 4.09 
486.05 -6.32 4.08 
486.35 -6.46 4.10 
482.08 -6.06 -1.89 
481.91 -4.81 -1.78 
482.40 -5.02 -0.85 
482.18 -4.83 -0.84 
484.67 -5.42 -0.83 
487.25 -5.32 -0.76 
481.46 -6.58 0.02 
482.53 -5.09 0.10 
482.69 -5.30 0.10 
479.84 -4.91 1.02 
480.11 -4.92 1.02 
482.08 -5.61 1.02 
483.21 -6.30 1.03 
482.38 -5.16 1.04 
481.48 -9.68 0.92 
481.84 -8.97 0.94 
481.33 -7.35 0.97 
483.45 -7.97 0.99 
484.52 -7.93 1.01 
484.98 -8.23 1.01 
479.49 -7.45 1.95 
480.40 -7.94 1.96 
482.76 -8.50 1.98 
481.68 -7.05 1.97 
483.07 -8.11 1.99 
483.38 -8.20 1.99 
481.18 -5.80 1.97 
481.45 -6.02 1.97 
482.01 -6.52 1.98 
481.96 -5.84 2.94 
479.74 -8.27 2.98 
482.23 -5.97 3.91 
486.26 -5.55 3.97 
486.49 -5.26 3.96 
487.04 -5.04 3.97 
486.00 -6.31 4.00 
482.44 -7.09 -1.87 
482.19 -5.97 -1.77 
482.73 -6.48 -1.81 
480.88 -5.18 -0.79 
482.03 -4.83 -0.74 
482.48 -5.50 -0.78 
482.28 -4.88 -0.74 
487.33 -5.26 -0.66 
483.55 -7.47 0.09 
484.37 -8.13 0.07 
482.60 -5.06 0.18 
479.75 -4.90 1.08 
480.30 -4.93 1.08 
482.14 -5.74 1.08 
483.00 -6.36 1.08 
484.65 -7.38 1.09 
481.89 -5.36 1.09 
488.64 -5.19 1.24 
480.96 -9.28 0.99 
481.25 -8.98 1.00 
481.90 -9.24 1.00 
483.13 -9.37 1.01 
481.44 -7.57 1.03 
480.96 -6.04 2.01 
489.93 -5.09 2.21 
480.44 -7.90 2.01 
482.81 -9.09 2.03 
483.11 -8.07 2.03 
481.80 -6.64 2.02 
482.11 -9.52 2.02 
482.09 -6.06 3.92 
486.05 -6.31 4.00 
486.01 -6.23 3.99 
485.76 -4.70 3.91 
486.28 -5.43 3.96 
481.28 -8.59 4.03 
482.40 -6.90 -1.83 
481.91 -6.04 -1.76 
481.79 -4.79 -1.64 
480.90 -5.17 -0.78 
482.02 -4.80 -0.74 
482.26 -4.92 -0.74 
484.22 -5.28 -0.73 
486.70 -6.83 -0.79 
486.93 -6.92 -0.79 
482.50 -5.08 0.17 
480.94 -8.46 -0.01 
481.25 -6.51 0.09 
484.93 -7.27 0.10 
480.29 -6.74 1.02 
480.69 -6.32 1.03 
481.42 -6.99 1.02 
483.13 -7.61 1.02 
484.01 -7.75 1.03 
485.15 -8.24 1.04 
480.31 -4.93 1.06 
482.50 -5.38 1.07 
486.05 -7.22 1.08 
485.77 -6.61 1.09 
491.18 -4.89 1.27 
480.30 -8.66 0.97 
481.40 -9.50 0.96 
481.22 -8.86 0.97 
481.77 -8.89 0.98 
482.36 -9.69 0.96 
482.65 -9.35 0.98 
482.72 -8.89 0.99 
481.02 -5.80 1.97 
482.35 -6.14 1.98 
482.63 -6.19 1.98 
481.13 -6.83 1.97 
482.57 -7.38 1.98 
483.12 -7.50 1.99 
485.11 -8.79 2.01 
482.83 -7.17 1.98 
488.29 -5.10 2.99 
487.34 -4.89 3.86 
481.12 -9.26 3.99 
482.29 -6.64 -1.77 
481.83 -6.00 -1.72 
481.72 -4.72 -1.60 
480.80 -5.14 -0.75 
482.00 -4.81 -0.71 
482.20 -4.94 -0.72 
484.10 -5.23 -0.71 
486.49 -6.70 -0.77 
486.80 -5.38 -0.67 
480.53 -5.03 0.16 
480.89 -6.40 0.10 
481.12 -6.42 0.10 
490.19 -4.91 1.21 
490.45 -4.73 1.23 
490.95 -4.94 1.24 
481.34 -8.73 0.97 
482.53 -8.88 0.97 
481.03 -7.12 1.01 
480.56 -6.36 1.02 
482.93 -7.92 1.00 
482.51 -6.75 1.03 
484.91 -8.52 1.01 
485.16 -8.39 1.02 
480.26 -4.96 1.06 
482.42 -5.36 1.06 
485.32 -6.67 1.06 
485.96 -7.34 1.06 
485.60 -6.57 1.07 
479.40 -9.61 0.94 
481.00 -9.12 0.96 
473.79 -4.70 2.04 
474.66 -4.91 2.02 
481.00 -6.96 1.95 
480.00 -5.11 1.95 
480.68 -5.61 1.95 
480.94 -5.99 1.95 
483.28 -7.29 1.96 
482.26 -6.11 1.95 
482.31 -6.10 1.95 
481.53 -5.47 1.95 
479.99 -8.05 1.95 
482.37 -7.77 1.95 
481.63 -6.49 2.88 
481.64 -8.31 2.92 
482.04 -7.51 3.85 
482.24 -6.57 -1.69 
481.79 -6.00 -1.65 
481.73 -4.83 -1.54 
480.58 -5.14 -0.69 
480.85 -5.19 -0.69 
481.96 -4.77 -0.65 
483.10 -4.70 -0.63 
483.30 -4.81 -0.63 
484.08 -5.22 -0.65 
480.87 -6.34 0.15 
480.54 -5.07 0.21 
486.35 -5.84 0.24 
480.58 -7.51 0.09 
480.08 -4.89 1.10 
480.28 -5.04 1.09 
490.32 -4.98 1.23 
480.87 -9.14 0.99 
480.18 -6.85 1.05 
480.97 -7.18 1.04 
482.33 -7.50 1.04 
484.71 -8.97 1.02 
484.00 -7.68 1.04 
484.50 -8.33 1.03 
485.01 -8.38 1.04 
484.33 -7.24 1.06 
485.70 -7.58 1.07 
485.45 -6.72 1.09 
481.87 -10.00 0.97 
474.91 -13.69 0.88 
481.78 -7.36 1.97 
482.26 -7.85 1.97 
483.03 -8.07 1.97 
480.04 -5.06 1.98 
480.94 -5.74 1.97 
481.25 -5.55 1.97 
482.29 -6.05 1.97 
487.88 -4.85 2.89 
481.74 -5.99 2.88 
478.28 -6.45 2.92 
481.55 -8.30 2.92 
486.79 -5.64 3.77 
486.59 -5.22 3.75 
482.08 -8.52 3.89 
481.73 -5.98 -1.59 
482.19 -6.43 -1.63 
485.96 -6.35 -1.55 
486.22 -6.44 -1.55 
480.55 -5.14 -0.66 
480.84 -5.14 -0.65 
483.30 -4.85 -0.60 
484.02 -5.19 -0.61 
485.70 -6.16 -0.66 
486.61 -5.42 -0.59 
480.53 -5.05 0.23 
484.74 -7.46 0.15 
480.54 -7.46 0.11 
480.07 -4.88 1.11 
482.40 -5.27 1.10 
490.92 -5.01 1.24 
490.66 -4.71 1.24 
479.52 -8.95 1.00 
481.41 -8.64 1.01 
482.16 -9.06 1.00 
480.16 -6.62 1.06 
480.92 -6.97 1.05 
481.12 -7.14 1.05 
484.28 -8.36 1.04 
482.62 -6.90 1.06 
482.90 -6.64 1.07 
484.19 -7.31 1.06 
480.03 -5.04 1.98 
474.77 -14.00 0.89 
474.12 -4.88 2.09 
479.78 -8.10 1.97 
481.67 -7.94 1.96 
480.90 -5.92 1.97 
483.02 -7.37 1.96 
485.06 -8.69 1.97 
482.90 -6.54 1.96 
482.26 -5.91 1.97 
482.50 -5.85 1.97 
480.59 -9.65 1.96 
487.79 -4.92 2.86 
488.07 -5.13 2.87 
481.66 -6.14 2.86 
479.49 -8.08 2.92 
481.47 -8.28 2.91 
481.97 -8.43 2.91 
486.47 -5.24 3.70 
481.25 -5.50 3.73 
481.66 -8.48 3.85 
481.92 -7.47 3.81 
482.62 -8.27 -1.74 
482.14 -6.46 -1.58 
481.74 -4.87 -1.44 
484.60 -6.43 -1.53 
484.27 -5.56 -1.45 
485.70 -6.40 -1.51 
486.20 -6.44 -1.50 
485.57 -5.23 -1.40 
480.75 -5.11 -0.61 
483.30 -4.90 -0.56 
483.82 -5.14 -0.57 
485.48 -6.05 -0.61 
486.07 -5.50 -0.56 
486.30 -5.42 -0.55 
487.34 -5.17 -0.52 
481.06 -7.37 0.15 
481.10 -6.36 0.20 
484.00 -6.88 0.20 
480.55 -6.36 1.09 
479.91 -4.85 1.13 
480.14 -4.98 1.13 
482.33 -5.27 1.12 
484.83 -6.54 1.09 
488.59 -4.70 1.19 
490.59 -5.05 1.22 
480.08 -8.88 1.02 
477.60 -6.67 1.10 
481.02 -8.79 1.02 
481.73 -9.34 1.01 
480.91 -7.03 1.07 
481.61 -7.42 1.06 
483.84 -7.64 1.06 
483.75 -7.81 1.06 
484.79 -8.15 1.05 
479.88 -4.96 1.99 
480.50 -5.43 1.98 
487.58 -5.13 1.99 
488.33 -5.14 2.00 
488.59 -5.08 2.01 
474.99 -14.68 0.89 
474.55 -4.81 2.11 
481.25 -7.90 1.97 
481.50 -7.83 1.96 
483.35 -8.45 1.96 
480.92 -5.87 1.98 
484.97 -8.69 1.96 
485.99 -5.25 2.82 
487.54 -4.93 2.82 
488.59 -4.72 2.83 
489.81 -4.99 2.86 
478.32 -6.29 2.92 
472.23 -13.54 2.07 
479.50 -7.84 2.92 
479.59 -7.72 2.91 
481.72 -8.31 2.89 
485.77 -5.21 3.66 
487.29 -4.77 3.64 
481.27 -5.52 3.72 
482.43 -6.42 3.73 
482.06 -6.67 -1.57 
482.07 -6.47 -1.55 
481.73 -4.89 -1.40 
484.61 -6.14 -1.47 
484.25 -5.39 -1.41 
480.75 -5.07 -0.58 
482.01 -4.81 -0.55 
483.29 -5.08 -0.56 
483.80 -5.10 -0.55 
483.99 -5.20 -0.56 
485.22 -5.67 -0.57 
485.42 -5.70 -0.57 
485.75 -5.59 -0.56 
481.31 -6.38 0.21 
484.50 -7.86 0.16 
483.96 -6.63 0.21 
482.28 -4.76 0.30 
480.49 -6.35 1.09 
479.45 -5.36 1.13 
480.02 -4.91 1.14 
483.76 -7.45 1.06 
482.41 -5.24 1.12 
486.30 -4.95 1.14 
480.03 -8.67 1.03 
480.73 -9.27 1.01 
481.51 -7.44 1.06 
484.40 -8.10 1.04 
480.16 -5.73 1.98 
479.97 -5.00 1.99 
474.32 -14.60 0.90 
474.27 -4.72 2.14 
481.10 -8.02 1.95 
481.39 -7.84 1.95 
481.07 -7.04 1.96 
478.24 -6.40 2.91 
478.91 -6.87 2.90 
479.84 -7.49 2.89 
481.66 -6.14 2.83 
481.35 -5.39 3.68 
486.28 -6.32 3.65 
486.63 -5.98 3.63 
485.98 -5.16 3.60 
486.84 -5.99 3.63 
487.84 -5.09 3.59 
480.16 -7.25 3.78 
481.84 -7.24 3.74 
481.41 -6.83 3.73 
481.96 -6.00 3.69 
482.08 -6.71 -1.50 
481.93 -6.46 -1.48 
484.79 -5.65 -1.35 
485.18 -6.13 -1.39 
484.35 -4.97 -1.30 
480.57 -5.09 -0.52 
481.82 -4.74 -0.49 
483.17 -5.08 -0.50 
483.40 -5.15 -0.50 
483.68 -5.09 -0.49 
480.92 -6.21 0.27 
482.93 -6.76 0.25 
483.52 -6.59 0.26 
482.19 -4.71 0.35 
487.48 -5.96 0.33 
480.24 -6.57 1.13 
480.52 -6.45 1.13 
479.58 -5.34 1.18 
480.04 -4.92 1.19 
480.21 -5.06 1.18 
482.33 -5.24 1.16 
483.86 -5.17 1.15 
486.39 -5.10 1.16 
486.79 -5.61 1.15 
479.83 -8.48 1.08 
487.23 -4.70 1.97 
480.24 -5.74 2.02 
479.89 -4.98 2.03 
482.31 -5.66 1.98 
479.30 -9.13 2.00 
474.03 -4.84 2.20 
479.80 -7.64 2.01 
480.94 -6.98 1.99 
481.98 -7.93 1.97 
484.18 -7.95 1.96 
487.36 -4.97 2.77 
481.70 -6.21 2.85 
480.32 -7.17 2.90 
487.61 -5.07 3.57 
487.82 -5.03 3.57 
484.89 -5.19 3.60 
485.23 -4.81 3.58 
486.46 -5.85 3.61 
486.71 -6.02 3.62 
484.64 -4.89 -1.21 
481.79 -6.46 -1.41 
481.93 -6.70 -1.43 
484.53 -6.30 -1.35 
484.75 -6.31 -1.34 
485.21 -6.54 -1.36 
484.51 -5.45 -1.27 
484.34 -5.17 -1.24 
485.68 -4.92 -0.40 
480.66 -5.08 -0.46 
481.87 -4.75 -0.42 
485.19 -5.82 -0.47 
487.57 -5.14 0.41 
480.92 -7.21 0.27 
481.02 -6.24 0.32 
480.64 -5.14 0.38 
482.37 -4.85 0.39 
486.98 -6.75 0.32 
487.57 -7.34 0.30 
490.59 -5.20 1.23 
477.73 -4.82 1.28 
479.52 -5.33 1.23 
480.02 -5.09 1.23 
485.89 -7.91 1.12 
486.23 -7.56 1.13 
479.98 -4.95 2.07 
484.96 -8.38 1.98 
485.83 -7.22 1.98 
474.29 -14.43 1.02 
474.41 -14.28 1.02 
484.72 -8.43 1.98 
489.44 -4.82 2.77 
481.60 -6.32 2.88 
480.84 -6.87 2.91 
487.44 -5.54 3.58 
484.42 -5.07 -1.21 
481.90 -6.70 -1.40 
482.60 -7.13 -1.44 
481.58 -6.14 -1.36 
481.77 -6.44 -1.38 
482.61 -6.31 -1.36 
483.14 -6.42 -1.36 
481.58 -4.98 -1.24 
483.49 -6.55 -1.37 
484.59 -5.97 -1.29 
480.76 -6.13 -0.51 
481.69 -4.71 -0.40 
484.95 -6.57 -0.51 
483.36 -5.17 -0.43 
471.95 -14.78 -1.19 
480.93 -6.15 0.34 
480.65 -5.17 0.40 
483.15 -6.31 0.33 
482.27 -4.78 0.41 
486.48 -6.45 0.33 
486.31 -6.31 0.34 
481.53 -7.79 1.13 
477.55 -4.72 1.30 
480.80 -6.85 1.17 
480.00 -4.93 1.24 
480.18 -5.04 1.24 
485.22 -7.83 1.11 
485.66 -7.68 1.11 
485.99 -7.46 1.12 
488.98 -5.28 1.95 
480.90 -7.19 2.03 
480.96 -6.51 2.03 
480.63 -6.00 2.05 
483.85 -8.21 1.97 
479.82 -4.76 2.08 
485.34 -8.62 1.95 
480.01 -4.84 2.08 
481.84 -5.11 2.03 
482.21 -5.48 2.02 
482.41 -5.51 2.01 
478.61 -7.11 2.09 
482.85 -9.64 1.97 
479.37 -6.89 2.07 
479.51 -7.19 2.06 
482.40 -9.13 1.98 
484.95 -9.19 1.95 
481.07 -6.82 2.89 
485.50 -5.62 3.57 
486.10 -5.95 3.57 
485.80 -5.33 3.55 
486.62 -5.90 3.55 
487.79 -5.21 3.51 
487.66 -4.77 3.49 
479.58 -8.28 3.86 
482.00 -6.75 -2.21 
485.07 -6.22 -1.26 
484.18 -5.20 -1.18 
484.46 -5.05 -1.16 
482.60 -7.02 -1.38 
482.42 -6.15 -1.30 
483.33 -6.49 -1.31 
481.58 -4.98 -1.19 
484.52 -6.17 -1.27 
484.54 -5.60 -0.41 
480.56 -6.00 -0.46 
471.88 -14.63 -1.14 
482.21 -4.97 0.43 
484.06 -5.44 0.40 
484.44 -5.85 0.37 
472.76 -15.68 -1.22 
467.40 -10.27 -0.46 
480.65 -6.98 0.33 
478.68 -5.25 0.45 
480.82 -6.10 0.38 
482.99 -6.20 0.36 
483.30 -6.59 0.34 
485.63 -4.79 1.20 
477.84 -5.14 1.32 
480.40 -6.39 1.22 
480.03 -4.97 1.27 
484.27 -7.54 1.12 
484.83 -7.61 1.12 
489.88 -4.71 1.92 
490.68 -5.18 1.92 
490.50 -4.94 1.92 
490.88 -5.12 1.92 
479.62 -5.75 2.10 
479.74 -5.96 2.09 
479.64 -4.70 2.12 
484.57 -8.31 1.95 
479.85 -4.77 2.11 
481.52 -5.24 2.05 
482.27 -5.48 2.02 
480.73 -9.20 2.02 
481.82 -9.42 1.99 
481.11 -7.22 2.90 
482.47 -7.96 2.86 
481.18 -6.61 2.89 
480.30 -5.57 2.92 
481.65 -6.21 2.87 
487.57 -4.74 3.44 
484.44 -4.72 3.54 
486.23 -5.85 3.52 
472.05 -14.56 2.21 
471.67 -13.94 2.24 
481.49 -5.93 3.70 
481.93 -8.67 3.76 
481.95 -6.65 -2.14 
481.53 -4.80 -1.12 
484.35 -5.04 -1.11 
481.72 -6.59 -1.30 
483.30 -5.15 -0.34 
480.59 -6.03 -0.42 
472.68 -15.69 -1.18 
467.40 -10.22 -0.41 
481.37 -8.35 0.29 
482.84 -6.11 0.41 
483.01 -6.21 0.40 
476.87 -17.30 -0.18 
477.25 -17.15 -0.17 
481.58 -8.00 1.17 
477.69 -5.04 1.38 
480.74 -6.84 1.23 
477.62 -4.70 1.40 
479.89 -4.88 1.33 
490.13 -5.05 1.93 
490.46 -4.73 1.93 
490.73 -5.07 1.92 
488.66 -5.36 1.93 
488.44 -5.08 1.94 
480.32 -6.68 2.10 
480.85 -7.28 2.07 
481.73 -7.72 2.04 
480.44 -5.94 2.11 
479.71 -4.70 2.16 
479.91 -4.81 2.15 
482.15 -5.39 2.06 
482.30 -5.53 2.06 
480.41 -9.24 2.05 
482.11 -8.14 2.89 
483.15 -8.45 2.86 
482.21 -6.28 2.88 
487.27 -4.74 3.44 
485.56 -5.39 3.53 
485.90 -5.47 3.52 
486.17 -5.62 3.51 
486.32 -5.88 3.51 
471.65 -13.82 2.29 
481.66 -9.19 3.81 
482.44 -8.79 3.76 
481.98 -6.47 -2.06 
472.39 -14.46 -2.14 
487.02 -7.23 -0.43 
471.81 -14.76 -1.06 
487.09 -5.93 0.44 
487.19 -5.09 0.49 
490.28 -4.87 1.22 
486.97 -4.96 1.24 
479.84 -4.83 1.38 
488.44 -4.97 1.96 
490.34 -4.78 1.94 
490.59 -5.07 1.93 
482.13 -5.39 2.11 
479.35 -7.08 2.17 
484.92 -9.22 1.97 
479.27 -9.21 2.13 
478.96 -8.08 2.17 
480.49 -6.67 2.99 
481.06 -7.30 2.97 
481.19 -6.53 2.96 
482.10 -6.00 2.92 
486.36 -4.77 3.49 
489.53 -5.06 3.39 
478.06 -6.25 3.12 
480.30 -7.56 3.00 
484.87 -4.76 3.56 
472.06 -14.61 2.30 
481.05 -8.94 3.86 
481.14 -9.22 3.86 
482.16 -8.41 3.79 
481.54 -5.14 -1.75 
481.85 -5.23 -1.75 
481.95 -6.73 -1.93 
482.12 -6.84 -1.93 
482.10 -5.73 -1.57 
485.09 -6.78 -1.05 
485.62 -6.79 -1.04 
483.15 -7.60 -1.16 
482.28 -5.65 -0.70 
482.51 -5.76 -0.71 
481.84 -4.86 -0.63 
482.16 -5.00 -0.64 
471.67 -14.93 -2.02 
486.03 -7.59 -0.31 
485.83 -6.35 -0.22 
481.82 -5.94 0.13 
482.20 -5.35 0.17 
482.42 -5.42 0.17 
482.65 -5.48 0.16 
486.42 -6.83 0.53 
486.74 -6.74 0.54 
487.69 -6.34 0.56 
487.03 -5.57 0.60 
487.54 -5.64 0.59 
487.78 -5.65 0.59 
478.05 -6.97 0.62 
479.57 -5.46 0.69 
486.37 -7.95 1.27 
477.85 -5.14 1.59 
483.90 -8.00 1.31 
484.64 -8.62 1.28 
485.06 -7.91 1.30 
488.08 -4.97 2.07 
489.01 -5.04 2.05 
488.92 -4.81 2.05 
490.45 -5.52 2.02 
489.81 -4.85 2.03 
490.02 -4.91 2.03 
490.95 -5.28 2.01 
491.11 -5.57 2.01 
474.32 -4.73 1.75 
485.70 -4.79 2.13 
483.14 -8.27 2.16 
483.01 -8.08 2.17 
485.81 -8.64 2.08 
489.16 -4.77 2.76 
484.88 -4.95 2.92 
481.71 -7.74 3.07 
481.08 -6.51 3.11 
482.18 -6.65 3.05 
486.00 -4.86 3.61 
486.19 -4.91 3.60 
486.79 -5.18 3.58 
486.99 -5.26 3.57 
487.74 -5.48 3.54 
488.12 -5.43 3.53 
489.81 -5.43 3.46 
472.45 -13.71 2.48 
478.98 -6.82 3.22 
481.81 -7.17 3.91 
481.70 -8.75 3.95 
482.58 -8.88 3.90 
481.58 -6.35 -1.90 
481.77 -6.51 -1.91 
482.50 -6.41 -1.64 
485.01 -6.44 -1.03 
484.58 -5.44 -0.93 
484.80 -5.96 -0.98 
484.98 -6.06 -0.99 
481.95 -6.66 -1.09 
482.30 -6.61 -1.08 
482.45 -6.01 -0.74 
482.14 -5.54 -0.70 
482.42 -5.55 -0.70 
481.72 -4.79 -0.63 
482.09 -4.85 -0.63 
482.27 -5.23 -0.67 
482.05 -4.71 -0.62 
483.33 -5.06 -0.13 
485.35 -5.92 -0.20 
482.56 -5.36 0.16 
486.02 -6.26 0.55 
486.26 -6.28 0.55 
487.34 -7.13 0.50 
486.49 -6.29 0.55 
486.13 -5.37 0.60 
487.14 -6.13 0.55 
486.16 -5.15 0.62 
487.21 -5.10 0.61 
480.69 -9.01 0.45 
480.54 -8.29 0.50 
480.89 -7.44 0.54 
482.75 -6.55 0.57 
483.17 -6.36 0.58 
482.25 -5.15 1.46 
483.17 -4.70 1.45 
478.09 -17.26 -0.01 
478.14 -17.26 -0.01 
481.03 -8.19 1.36 
483.32 -7.50 1.33 
483.74 -7.78 1.31 
488.46 -5.12 2.04 
488.35 -4.86 2.04 
490.36 -4.81 2.00 
490.55 -5.06 1.99 
482.16 -5.40 2.25 
485.54 -7.17 2.09 
480.70 -6.94 2.28 
481.92 -7.79 2.20 
480.99 -5.67 2.30 
482.14 -6.17 2.23 
476.59 -17.33 1.10 
475.07 -16.05 1.20 
479.01 -9.14 2.29 
480.55 -9.32 2.22 
481.40 -9.01 2.20 
480.56 -5.95 3.15 
479.95 -7.57 3.17 
484.72 -5.06 3.68 
485.37 -5.30 3.64 
481.22 -6.71 3.94 
481.33 -5.81 3.92 
479.12 -7.01 4.10 
481.09 -8.27 3.97 
481.69 -6.43 -1.86 
481.93 -5.59 -1.52 
481.52 -4.69 -0.85 
484.89 -6.47 -0.99 
484.26 -5.45 -0.89 
484.50 -5.79 -0.93 
484.89 -6.01 -0.94 
484.11 -5.06 -0.86 
482.08 -5.40 -0.65 
482.40 -5.58 -0.66 
486.26 -7.45 -0.27 
485.04 -5.80 -0.15 
480.75 -5.12 -0.08 
486.05 -7.38 0.53 
486.49 -7.48 0.52 
485.84 -6.39 0.59 
486.17 -6.25 0.59 
485.49 -5.60 0.64 
485.53 -5.13 0.66 
486.23 -5.37 0.64 
487.11 -6.08 0.59 
486.20 -5.00 0.66 
486.25 -5.26 0.65 
480.51 -7.51 0.59 
482.13 -5.10 1.52 
478.46 -19.67 -0.12 
477.70 -17.76 0.00 
478.42 -17.86 -0.02 
478.21 -16.52 0.07 
480.99 -8.21 1.41 
481.23 -7.07 1.45 
488.03 -5.03 2.08 
488.46 -5.05 2.06 
488.33 -4.75 2.07 
490.13 -4.69 2.02 
490.41 -5.06 2.01 
490.36 -4.69 2.02 
490.49 -4.80 2.01 
485.28 -6.48 2.14 
479.03 -6.50 2.42 
479.51 -6.74 2.39 
480.63 -5.82 2.36 
484.47 -8.16 2.14 
481.44 -5.62 2.33 
487.19 -4.72 2.84 
474.75 -15.83 1.26 
474.13 -14.52 1.34 
479.54 -7.51 2.37 
482.22 -8.84 3.08 
480.73 -6.60 3.19 
484.87 -4.69 3.71 
484.48 -5.29 3.74 
485.50 -5.42 3.68 
486.02 -5.85 3.65 
479.62 -8.85 4.13 
481.72 -6.42 -1.81 
482.57 -6.41 -1.56 
481.56 -4.85 -0.82 
484.48 -6.21 -0.92 
484.92 -6.41 -0.93 
484.16 -4.90 -0.79 
484.51 -5.42 -0.84 
485.36 -5.37 -0.82 
481.97 -6.58 -0.99 
482.45 -6.07 -0.93 
482.22 -5.62 -0.62 
482.45 -5.66 -0.62 
485.25 -7.64 -0.25 
484.84 -5.17 -0.05 
480.82 -5.30 -0.04 
486.49 -7.48 0.56 
485.93 -6.32 0.63 
486.42 -6.80 0.60 
486.72 -6.70 0.60 
485.60 -5.58 0.69 
485.60 -5.20 0.71 
486.29 -5.41 0.69 
486.32 -4.98 0.71 
487.22 -5.16 0.69 
482.78 -6.54 0.67 
485.23 -6.05 1.02 
486.05 -6.48 0.99 
482.09 -5.10 1.58 
475.29 -17.35 0.10 
477.37 -17.21 0.07 
478.27 -17.09 0.07 
480.27 -6.44 1.57 
479.80 -4.75 1.68 
488.35 -4.79 2.11 
488.43 -4.98 2.10 
489.19 -5.02 2.08 
490.24 -4.81 2.05 
479.37 -7.05 2.45 
479.03 -6.42 2.49 
479.51 -6.58 2.46 
479.97 -5.74 2.47 
480.59 -5.80 2.43 
484.35 -8.22 2.19 
479.78 -4.83 2.51 
482.29 -6.42 2.33 
484.00 -7.86 2.21 
484.26 -7.84 2.20 
481.39 -5.64 2.40 
482.21 -5.46 2.36 
482.20 -5.78 2.35 
487.53 -4.83 2.86 
488.81 -4.82 2.80 
475.07 -16.08 1.28 
479.49 -7.70 2.43 
481.10 -7.50 3.21 
480.88 -6.64 3.24 
488.15 -4.71 3.54 
477.86 -6.11 3.46 
483.80 -4.72 3.85 
485.38 -5.27 3.73 
472.23 -14.33 2.58 
481.14 -6.81 4.07 
479.68 -8.89 4.19 
480.12 -7.90 4.15 
481.69 -6.41 -1.72 
482.24 -6.01 -1.43 
483.01 -6.70 -1.49 
483.40 -5.11 -0.73 
483.89 -4.98 -0.71 
485.44 -5.59 -0.76 
482.33 -7.89 -1.03 
481.81 -6.94 -0.93 
483.54 -7.74 -0.73 
481.61 -5.97 -0.84 
482.58 -5.66 -0.79 
472.27 -14.54 -1.81 
483.77 -5.17 0.05 
483.99 -5.21 0.05 
484.37 -5.37 0.03 
485.51 -5.62 0.01 
482.86 -7.92 0.13 
480.68 -5.21 0.07 
480.58 -4.99 0.09 
486.80 -6.53 0.70 
485.84 -5.25 0.79 
486.40 -5.26 0.78 
487.11 -5.79 0.74 
486.37 -4.88 0.81 
487.09 -5.08 0.78 
487.30 -5.10 0.78 
472.72 -15.62 -0.78 
478.29 -8.12 0.75 
480.63 -8.71 0.66 
480.46 -7.71 0.73 
480.70 -7.14 0.77 
480.11 -4.86 0.94 
482.78 -6.66 0.76 
482.92 -6.55 0.76 
483.28 -6.45 0.76 
484.73 -6.00 1.10 
484.61 -5.83 1.12 
490.12 -4.83 1.44 
480.13 -6.31 1.70 
479.81 -4.85 1.79 
485.12 -7.74 1.45 
481.96 -5.08 1.69 
488.45 -5.06 2.18 
490.33 -4.91 2.12 
485.43 -7.31 2.25 
485.24 -6.48 2.28 
484.91 -9.25 2.22 
479.75 -5.68 2.60 
479.61 -4.78 2.64 
482.04 -5.47 2.48 
484.77 -5.24 2.75 
471.77 -14.35 1.60 
471.74 -13.89 1.62 
478.85 -7.70 2.57 
479.16 -6.92 2.58 
478.78 -6.28 2.63 
481.38 -6.23 3.33 
480.02 -6.93 3.41 
481.22 -5.74 4.18 
485.42 -4.79 -1.30 
481.82 -6.46 -1.59 
482.12 -6.57 -1.60 
482.35 -6.03 -1.30 
481.87 -5.40 -1.24 
482.14 -5.47 -1.24 
482.36 -5.57 -1.24 
483.89 -5.45 -0.63 
483.73 -4.96 -0.58 
486.07 -6.20 -0.68 
486.21 -6.39 -0.70 
485.43 -5.53 -0.62 
482.01 -7.36 -0.58 
482.14 -5.52 -0.39 
482.39 -6.03 -0.44 
483.39 -6.36 -0.73 
481.58 -4.74 -0.57 
482.42 -5.61 -0.53 
483.03 -5.02 0.21 
483.92 -5.11 0.19 
484.50 -5.19 0.18 
485.50 -5.51 0.15 
480.62 -6.34 0.11 
482.48 -7.65 0.28 
482.43 -5.24 0.47 
482.82 -5.48 0.45 
487.03 -6.79 0.35 
477.09 -18.59 -0.91 
478.24 -18.28 -0.88 
479.69 -19.06 -0.95 
484.03 -5.80 0.93 
484.23 -5.86 0.92 
485.99 -6.32 0.85 
486.61 -6.73 0.82 
487.35 -7.20 0.77 
486.71 -6.25 0.85 
486.08 -5.35 0.92 
486.47 -4.79 0.94 
479.78 -9.15 0.80 
478.43 -7.02 0.98 
480.60 -7.90 0.86 
482.80 -6.78 0.89 
482.87 -7.00 0.87 
480.16 -4.85 1.09 
483.71 -4.87 1.32 
487.22 -5.98 1.20 
487.18 -4.82 1.27 
485.57 -7.66 1.57 
478.17 -20.04 0.12 
478.23 -19.49 0.15 
477.34 -16.87 0.33 
478.88 -17.52 0.26 
479.13 -17.63 0.25 
478.72 -17.20 0.29 
478.33 -16.59 0.33 
481.00 -8.38 1.70 
479.85 -4.85 1.95 
484.83 -7.48 1.98 
483.33 -5.02 2.13 
488.35 -4.96 2.32 
488.49 -5.13 2.31 
489.80 -4.92 2.26 
490.08 -4.73 2.25 
490.33 -4.90 2.23 
490.54 -5.07 2.22 
475.13 -18.45 0.27 
485.35 -6.50 2.42 
482.64 -9.36 2.47 
480.97 -7.65 2.61 
482.15 -7.91 2.54 
484.69 -9.20 2.37 
479.75 -4.95 2.79 
480.51 -5.66 2.72 
484.53 -8.28 2.40 
479.63 -4.78 2.81 
478.35 -7.25 2.78 
480.54 -8.46 2.61 
479.14 -6.89 2.75 
479.28 -8.30 3.60 
479.30 -7.97 3.61 
481.24 -6.84 4.34 
481.89 -8.68 4.28 
481.76 -5.45 -2.09 
482.06 -5.62 -2.10 
481.99 -6.59 -1.58 
481.83 -5.95 -1.28 
481.96 -5.41 -1.21 
481.80 -5.22 -1.19 
485.47 -5.58 -0.59 
482.17 -7.22 -0.79 
481.62 -5.83 -0.65 
481.96 -5.80 -0.39 
483.46 -6.80 -0.74 
481.64 -4.82 -0.54 
482.47 -5.71 -0.63 
483.57 -6.35 -0.69 
484.75 -5.66 -0.35 
485.43 -5.17 -0.29 
485.47 -6.12 0.13 
485.48 -6.17 0.13 
486.02 -5.07 0.22 
480.65 -6.37 0.15 
480.72 -5.36 0.24 
483.15 -7.24 0.34 
480.66 -5.02 0.27 
485.13 -7.54 0.01 
482.29 -5.00 0.53 
477.80 -18.22 -0.86 
478.11 -18.33 -0.87 
478.54 -18.33 -0.87 
479.69 -19.03 -0.93 
480.06 -19.03 -0.93 
478.45 -16.40 -0.71 
484.44 -6.64 0.90 
484.14 -5.91 0.96 
486.06 -6.29 0.89 
486.85 -6.71 0.85 
486.07 -5.60 0.94 
486.70 -6.25 0.88 
485.99 -5.29 0.96 
486.58 -5.32 0.95 
487.28 -5.86 0.90 
486.51 -4.80 0.99 
487.40 -5.07 0.95 
476.63 -19.04 -0.92 
478.47 -7.35 1.01 
480.58 -7.97 0.90 
480.40 -7.37 0.95 
480.85 -7.35 0.94 
480.87 -7.29 0.95 
482.87 -6.85 0.93 
480.13 -4.87 1.15 
480.34 -5.02 1.13 
483.67 -6.66 0.92 
483.88 -6.51 0.93 
485.58 -7.57 1.62 
484.84 -6.28 1.71 
478.10 -20.01 0.13 
475.22 -17.90 0.33 
478.99 -20.06 0.12 
478.56 -18.90 0.20 
477.99 -17.10 0.33 
477.88 -16.73 0.35 
478.86 -17.49 0.28 
479.33 -17.51 0.27 
478.90 -17.03 0.31 
480.05 -6.41 1.91 
483.84 -8.36 1.64 
483.99 -7.89 1.66 
479.90 -4.80 2.01 
484.45 -7.03 1.69 
482.72 -5.57 2.16 
488.58 -5.14 2.34 
489.75 -4.77 2.30 
490.17 -4.73 2.28 
490.52 -4.91 2.26 
481.05 -9.16 2.05 
482.07 -7.77 2.60 
484.42 -9.34 2.42 
479.65 -5.75 2.84 
484.22 -8.36 2.46 
479.74 -5.00 2.87 
484.57 -8.20 2.45 
479.66 -4.80 2.88 
484.16 -7.77 2.48 
485.14 -8.44 2.41 
482.03 -9.60 2.53 
478.64 -6.30 2.88 
489.33 -4.99 3.71 
479.43 -8.11 3.66 
481.17 -7.91 3.53 
480.84 -7.04 3.95 
481.49 -5.69 4.40 
479.44 -6.81 4.59 
479.65 -6.93 4.57 
481.27 -6.91 4.41 
484.63 -4.72 -1.24 
485.41 -4.89 -1.23 
481.86 -6.46 -1.52 
482.34 -6.31 -1.26 
482.40 -5.72 -1.19 
482.00 -5.39 -1.16 
482.21 -5.55 -1.17 
483.65 -5.29 -0.53 
483.73 -4.95 -0.49 
485.46 -5.54 -0.53 
485.31 -5.05 -0.48 
481.69 -8.87 -0.66 
481.87 -7.89 -0.56 
482.20 -8.01 -0.82 
482.45 -8.08 -0.83 
482.12 -7.26 -0.58 
483.06 -7.73 -0.53 
484.07 -7.68 -0.51 
481.67 -5.76 -0.59 
482.06 -5.71 -0.58 
481.82 -4.74 -0.36 
483.01 -4.70 0.34 
483.73 -5.02 0.30 
485.32 -6.12 0.19 
485.54 -6.23 0.18 
486.52 -4.89 0.29 
480.56 -6.35 0.21 
480.68 -5.26 0.31 
480.60 -5.06 0.33 
482.90 -5.31 0.55 
479.69 -18.96 -0.87 
486.08 -6.34 0.95 
486.10 -5.67 1.00 
485.93 -5.20 1.03 
486.16 -5.35 1.02 
487.20 -5.83 0.96 
486.56 -5.27 1.02 
486.47 -4.74 1.05 
480.30 -7.34 1.02 
480.80 -7.31 1.01 
478.39 -4.85 1.27 
480.23 -5.10 1.19 
482.90 -6.95 0.98 
480.27 -5.02 1.20 
483.00 -6.04 1.05 
483.67 -6.70 0.98 
484.13 -6.60 0.98 
487.02 -7.27 1.20 
487.57 -6.28 1.25 
488.81 -4.81 1.70 
489.98 -4.75 1.67 
478.42 -7.20 1.08 
484.50 -6.36 1.79 
475.02 -17.73 0.41 
475.24 -17.95 0.39 
478.85 -20.06 0.18 
478.32 -19.54 0.22 
473.83 -14.59 0.66 
477.38 -16.70 0.43 
477.86 -17.16 0.39 
477.84 -16.68 0.42 
478.71 -17.18 0.37 
478.95 -17.35 0.35 
479.34 -17.62 0.33 
482.94 -8.57 1.73 
484.25 -8.63 1.68 
479.85 -4.76 2.09 
484.47 -7.02 1.75 
485.06 -7.15 1.72 
488.52 -5.04 2.42 
490.21 -4.75 2.34 
490.56 -4.91 2.32 
475.68 -5.11 2.28 
480.82 -5.75 2.28 
491.22 -4.77 2.71 
482.60 -7.91 2.64 
484.45 -9.28 2.49 
479.64 -4.99 2.95 
482.16 -6.93 2.70 
482.34 -7.05 2.69 
479.57 -4.78 2.97 
483.72 -7.46 2.59 
481.73 -9.46 2.63 
482.72 -9.54 2.57 
478.53 -6.24 2.97 
480.85 -7.35 2.76 
490.72 -5.15 3.44 
481.22 -5.81 3.67 
481.02 -7.82 3.63 
481.28 -6.14 4.00 
480.73 -5.27 4.58 
481.85 -8.70 4.43 
480.81 -6.51 4.55 
481.91 -5.94 -2.03 
482.23 -5.94 -2.02 
482.49 -5.97 -2.01 
485.36 -4.87 -1.15 
486.21 -4.74 -1.11 
481.83 -6.48 -1.44 
482.02 -6.71 -1.46 
482.33 -5.72 -1.11 
482.03 -5.48 -1.09 
485.84 -5.73 -0.46 
486.01 -6.17 -0.51 
486.23 -6.21 -0.51 
486.13 -5.79 -0.47 
481.38 -8.24 -0.52 
482.17 -8.01 -0.73 
482.42 -8.09 -0.74 
483.10 -7.91 -0.47 
483.32 -7.35 -0.41 
483.81 -7.60 -0.42 
481.89 -5.72 -0.49 
482.38 -6.11 -0.29 
483.45 -6.85 -0.60 
483.42 -6.27 -0.54 
486.23 -5.60 -0.19 
467.75 -9.80 -0.80 
467.59 -9.49 -0.77 
485.64 -6.30 0.27 
485.90 -5.45 0.34 
487.01 -4.98 0.37 
480.61 -5.03 0.43 
480.66 -5.26 0.41 
482.18 -5.13 0.66 
482.55 -5.27 0.65 
486.51 -7.18 0.47 
479.88 -20.22 -0.89 
479.78 -19.01 -0.79 
485.94 -5.31 1.12 
487.17 -5.87 1.05 
487.45 -5.00 1.11 
480.55 -8.08 1.06 
480.75 -7.29 1.12 
478.45 -4.97 1.37 
480.14 -5.11 1.31 
482.92 -6.99 1.08 
480.12 -4.92 1.32 
484.19 -7.70 0.99 
482.24 -5.14 1.24 
485.62 -6.35 1.36 
486.42 -6.95 1.31 
486.99 -7.40 1.27 
487.35 -7.53 1.26 
486.70 -6.99 1.30 
487.47 -6.41 1.32 
490.12 -4.91 1.74 
478.67 -6.79 1.22 
481.42 -6.09 1.47 
481.32 -5.83 1.49 
484.85 -6.46 1.87 
485.91 -7.43 1.77 
485.91 -4.79 1.92 
477.93 -19.98 0.28 
475.27 -17.81 0.49 
474.65 -16.91 0.57 
478.07 -19.23 0.33 
479.04 -20.14 0.25 
473.64 -14.29 0.79 
478.85 -17.88 0.40 
477.34 -16.61 0.52 
477.55 -16.48 0.53 
477.90 -16.79 0.50 
478.62 -17.26 0.45 
479.42 -17.82 0.40 
479.04 -17.28 0.44 
479.33 -17.45 0.42 
482.27 -8.09 1.89 
481.47 -7.07 1.99 
479.98 -5.91 2.13 
483.26 -7.59 1.87 
484.10 -7.85 1.82 
488.51 -4.93 2.52 
490.20 -4.90 2.43 
490.58 -5.06 2.40 
481.07 -21.51 0.48 
480.30 -20.33 0.56 
482.11 -8.46 2.19 
485.20 -6.53 2.65 
491.03 -5.46 2.77 
491.22 -5.13 2.77 
491.37 -5.28 2.76 
482.39 -7.04 2.80 
479.53 -4.76 3.11 
489.07 -4.77 3.21 
478.60 -20.83 1.36 
476.66 -16.93 1.63 
482.02 -9.79 2.71 
482.79 -9.43 2.67 
478.45 -6.16 3.11 
481.12 -7.89 3.74 
481.55 -5.80 4.63 
480.38 -4.93 4.77 
480.67 -5.03 4.74 
481.08 -5.63 4.68 
481.99 -5.91 -2.00 
482.57 -6.41 -2.04 
482.30 -5.92 -1.99 
482.49 -6.02 -1.99 
484.39 -5.28 -1.20 
485.30 -4.87 -1.12 
481.91 -6.50 -1.41 
482.09 -6.69 -1.43 
482.32 -5.79 -1.09 
481.76 -5.25 -1.04 
481.97 -5.40 -1.05 
482.15 -5.59 -1.07 
486.25 -6.12 -0.46 
486.47 -6.34 -0.48 
485.86 -5.69 -0.42 
486.05 -5.83 -0.43 
482.28 -8.00 -0.70 
482.37 -8.21 -0.72 
483.69 -7.40 -0.37 
481.81 -5.61 -0.21 
482.29 -5.71 -0.21 
483.50 -6.30 -0.51 
483.62 -6.26 -0.50 
481.67 -4.84 -0.36 
483.67 -4.99 -0.36 
485.28 -6.12 -0.22 
486.11 -5.61 -0.16 
486.61 -5.42 -0.14 
486.85 -5.45 -0.14 
473.30 -15.53 -1.33 
485.78 -6.38 0.30 
484.16 -5.00 0.44 
485.27 -5.94 0.35 
486.04 -5.55 0.38 
486.78 -4.99 0.42 
480.52 -6.41 0.35 
483.88 -5.16 0.43 
485.95 -6.84 0.53 
486.83 -7.39 0.49 
486.59 -5.10 0.68 
479.36 -19.82 -0.83 
479.60 -19.07 -0.77 
479.89 -18.83 -0.75 
478.09 -16.39 -0.53 
485.22 -5.69 1.17 
485.60 -5.98 1.14 
486.03 -6.28 1.10 
485.98 -5.27 1.18 
487.14 -5.86 1.11 
476.68 -18.69 -0.72 
477.23 -18.23 -0.69 
480.62 -8.42 1.09 
480.79 -8.58 1.07 
480.86 -7.38 1.16 
478.24 -4.78 1.46 
482.95 -7.06 1.13 
479.86 -4.70 1.41 
480.09 -4.87 1.39 
482.28 -5.17 1.29 
482.18 -4.98 1.31 
484.45 -6.06 1.16 
486.94 -7.69 1.29 
487.60 -7.57 1.28 
486.16 -6.02 1.41 
487.62 -6.45 1.36 
490.14 -4.82 1.80 
479.98 -8.87 1.07 
479.82 -8.65 1.09 
478.24 -5.41 1.40 
489.21 -5.00 2.16 
490.74 -5.17 2.11 
478.54 -20.30 0.28 
474.60 -16.60 0.63 
474.21 -16.04 0.68 
478.66 -18.70 0.39 
477.54 -17.54 0.49 
477.34 -16.82 0.55 
479.02 -17.94 0.43 
477.17 -16.52 0.57 
477.59 -16.50 0.56 
478.59 -17.42 0.48 
481.51 -7.10 2.04 
484.22 -8.87 1.82 
484.22 -7.58 1.89 
482.67 -6.27 2.04 
485.15 -7.10 1.88 
484.59 -6.32 1.95 
488.28 -5.02 2.59 
489.71 -5.00 2.51 
490.18 -4.93 2.49 
490.55 -5.15 2.46 
477.80 -20.03 0.63 
481.09 -22.12 0.46 
475.29 -17.82 0.52 
475.04 -17.58 0.55 
480.86 -21.23 0.52 
481.34 -21.16 0.52 
480.52 -19.87 0.60 
480.29 -19.07 0.66 
480.90 -8.28 2.00 
481.04 -8.46 1.98 
480.53 -5.55 2.47 
480.77 -5.69 2.45 
480.77 -5.65 2.45 
488.69 -5.37 2.91 
491.44 -5.32 2.79 
491.39 -4.77 2.81 
482.28 -7.88 2.84 
484.89 -9.35 2.61 
484.36 -8.18 2.69 
485.11 -8.12 2.65 
474.40 -14.24 1.93 
481.78 -8.00 2.86 
489.94 -4.95 3.60 
490.57 -5.18 3.56 
490.97 -5.37 3.53 
482.08 -8.86 3.71 
481.05 -5.96 3.90 
484.98 -4.95 4.38 
480.45 -4.93 4.87 
480.95 -5.52 4.80 
481.10 -5.69 4.78 
482.00 -6.41 -2.00 
481.97 -6.15 -1.97 
481.88 -5.54 -1.89 
482.01 -5.78 -1.91 
486.07 -4.75 -1.01 
482.03 -6.74 -1.36 
481.71 -5.86 -1.04 
481.76 -6.11 -1.07 
481.59 -5.24 -0.97 
481.79 -5.58 -1.00 
485.38 -5.63 -0.33 
486.16 -5.97 -0.36 
486.42 -6.38 -0.40 
485.89 -5.58 -0.32 
486.13 -5.70 -0.33 
482.33 -7.96 -0.61 
482.13 -7.07 -0.51 
482.24 -6.67 -0.47 
481.88 -5.73 -0.14 
483.54 -6.73 -0.47 
481.71 -5.22 -0.08 
481.88 -5.39 -0.10 
483.63 -5.13 -0.29 
486.11 -6.33 -0.15 
485.57 -5.23 -0.05 
485.52 -5.89 0.44 
485.92 -6.23 0.41 
486.87 -4.91 0.52 
480.62 -5.00 0.59 
485.02 -7.51 0.30 
483.72 -5.65 0.74 
485.27 -6.58 0.64 
485.99 -7.21 0.59 
483.80 -5.09 0.54 
485.21 -6.31 0.67 
486.66 -7.23 0.58 
479.15 -19.66 -0.75 
477.82 -18.12 -0.60 
479.44 -18.41 -0.64 
479.62 -18.70 -0.66 
477.95 -16.19 -0.43 
485.57 -5.91 1.25 
486.10 -6.16 1.21 
486.12 -6.38 1.19 
485.95 -5.09 1.30 
486.15 -5.64 1.25 
487.26 -5.83 1.21 
476.69 -18.66 -0.65 
480.22 -20.04 -0.49 
481.06 -20.53 -0.53 
480.22 -18.96 -0.40 
480.95 -7.40 1.26 
480.14 -5.12 1.48 
482.68 -6.88 1.25 
482.90 -6.97 1.24 
480.08 -4.81 1.51 
480.18 -5.03 1.49 
483.73 -6.69 1.24 
482.34 -5.20 1.40 
482.27 -4.95 1.43 
486.43 -7.17 1.42 
486.02 -6.59 1.47 
486.38 -6.59 1.46 
487.30 -7.31 1.39 
486.25 -5.64 1.53 
487.22 -6.06 1.48 
490.23 -4.89 1.90 
479.80 -8.73 1.19 
480.85 -8.54 1.17 
480.52 -8.10 1.22 
480.19 -7.34 1.29 
478.21 -5.32 1.53 
479.08 -5.40 1.73 
480.88 -5.66 1.66 
482.95 -6.40 1.55 
485.91 -4.84 2.10 
486.08 -5.01 2.08 
478.89 -20.01 0.37 
476.47 -17.64 0.59 
478.30 -18.69 0.47 
474.58 -15.17 0.83 
475.83 -15.97 0.73 
477.67 -17.37 0.58 
474.76 -14.67 0.86 
477.24 -16.51 0.66 
477.75 -16.86 0.62 
478.65 -17.42 0.56 
479.12 -17.45 0.54 
484.33 -7.57 2.00 
482.86 -6.50 2.14 
488.64 -5.06 2.69 
489.79 -4.83 2.63 
490.01 -5.01 2.60 
490.59 -5.05 2.57 
480.49 -21.93 0.54 
480.81 -22.07 0.53 
475.27 -17.76 0.61 
475.07 -17.50 0.64 
480.67 -21.22 0.58 
479.79 -19.56 0.70 
480.29 -19.49 0.70 
479.41 -17.84 0.82 
479.89 -18.39 0.78 
480.59 -8.82 2.09 
480.61 -7.41 2.19 
481.62 -7.21 2.43 
480.28 -5.41 2.60 
480.04 -5.11 2.63 
482.43 -6.89 3.00 
484.43 -8.20 2.80 
476.37 -16.47 1.80 
482.67 -9.36 2.86 
480.49 -5.62 3.21 
479.52 -4.72 3.34 
490.33 -5.12 3.67 
490.49 -5.00 3.66 
480.91 -7.73 3.98 
481.02 -6.01 4.04 
485.02 -4.73 4.54 
480.27 -4.74 5.06 
482.30 -6.73 -1.98 
481.62 -5.91 -1.90 
481.93 -5.95 -1.89 
482.43 -6.25 -1.91 
482.13 -5.83 -1.86 
482.37 -5.99 -1.88 
485.08 -4.79 -0.98 
481.82 -6.43 -1.27 
482.04 -6.43 -1.04 
481.94 -5.50 -0.93 
482.14 -5.84 -0.97 
481.79 -5.28 -0.91 
485.61 -5.83 -0.28 
485.82 -5.98 -0.30 
486.40 -6.16 -0.31 
485.95 -5.54 -0.25 
480.92 -8.43 -0.60 
482.18 -7.94 -0.54 
481.81 -7.39 -0.25 
482.28 -7.70 -0.28 
482.22 -6.63 -0.40 
482.20 -6.03 -0.10 
483.78 -7.11 -0.20 
482.02 -5.51 -0.05 
481.72 -4.87 -0.09 
483.72 -6.20 -0.34 
483.36 -5.26 -0.24 
485.62 -6.77 -0.14 
483.64 -4.75 -0.18 
485.72 -5.99 -0.06 
486.32 -6.53 0.45 
486.59 -5.44 0.55 
480.95 -8.21 0.35 
481.91 -5.30 0.62 
481.83 -5.10 0.64 
485.78 -7.41 0.64 
485.63 -6.87 0.68 
485.57 -6.59 0.71 
487.02 -7.52 0.62 
487.28 -7.67 0.60 
483.87 -5.02 0.62 
477.82 -16.22 -0.36 
486.01 -5.63 1.34 
486.10 -5.13 1.38 
487.49 -4.91 1.35 
479.22 -19.90 -0.70 
480.87 -7.35 1.36 
480.51 -6.30 1.46 
480.94 -6.34 1.44 
479.84 -4.81 1.61 
483.74 -6.68 1.32 
482.15 -4.94 1.52 
487.07 -7.88 1.42 
485.39 -6.37 1.30 
486.85 -7.41 1.46 
486.70 -6.92 1.50 
487.68 -7.61 1.43 
485.06 -5.47 1.38 
485.48 -5.76 1.34 
486.73 -5.85 1.57 
487.59 -6.39 1.52 
490.23 -4.85 1.98 
480.51 -8.20 1.30 
480.16 -7.43 1.37 
478.11 -5.46 1.61 
481.47 -7.76 1.56 
491.28 -4.87 2.25 
491.44 -5.00 2.24 
478.78 -20.02 0.44 
474.54 -15.51 0.89 
478.50 -17.96 0.60 
479.01 -17.93 0.59 
474.91 -14.88 0.93 
475.42 -15.34 0.88 
477.20 -16.48 0.74 
478.01 -17.00 0.68 
478.64 -17.35 0.64 
481.98 -7.30 2.22 
484.15 -8.69 2.02 
481.83 -6.44 2.29 
483.28 -7.71 2.13 
484.83 -8.44 2.00 
481.67 -5.93 2.33 
481.77 -6.16 2.31 
485.05 -7.05 2.08 
489.79 -4.93 2.71 
490.39 -4.99 2.67 
490.41 -4.70 2.68 
490.57 -5.06 2.65 
480.87 -22.23 0.58 
477.53 -19.77 0.80 
480.10 -21.08 0.66 
481.01 -22.16 0.58 
474.00 -15.99 0.87 
480.24 -19.83 0.74 
480.64 -19.79 0.74 
480.24 -19.21 0.78 
480.68 -7.51 2.27 
481.55 -7.31 2.24 
481.57 -6.96 2.26 
480.59 -5.48 2.67 
487.81 -5.04 2.84 
488.52 -5.06 2.79 
491.06 -5.16 2.96 
490.61 -5.38 3.71 
485.26 -4.76 4.63 
481.02 -8.19 4.99 
482.35 -6.68 -1.94 
481.67 -5.89 -1.86 
481.98 -5.94 -1.86 
482.38 -6.05 -1.85 
482.36 -6.36 -1.89 
482.18 -5.85 -1.83 
485.03 -4.71 -0.93 
481.57 -7.17 -1.10 
481.71 -6.74 -1.05 
481.78 -6.37 -1.22 
482.11 -6.08 -0.96 
481.85 -5.61 -0.91 
482.15 -5.73 -0.91 
481.83 -5.30 -0.87 
486.52 -6.14 -0.26 
480.63 -8.41 -0.55 
482.11 -7.85 -0.48 
482.38 -7.99 -0.49 
482.66 -7.09 -0.16 
480.59 -5.26 -0.20 
482.19 -6.51 -0.33 
482.34 -6.69 -0.35 
481.80 -5.51 -0.22 
482.16 -5.47 0.01 
481.81 -4.70 0.09 
483.46 -5.16 -0.17 
485.21 -6.37 -0.06 
486.07 -6.94 -0.11 
483.51 -4.82 -0.13 
484.72 -5.56 -0.21 
485.80 -6.51 -0.07 
485.93 -5.95 -0.24 
486.77 -6.66 -0.07 
485.84 -5.51 0.04 
481.43 -8.78 -0.35 
486.82 -5.37 0.62 
480.63 -5.58 0.68 
481.89 -5.19 0.70 
482.06 -4.97 0.95 
483.08 -5.20 0.91 
484.09 -5.98 0.83 
486.35 -7.72 0.66 
486.47 -7.67 0.66 
487.08 -7.77 0.65 
487.40 -7.74 0.65 
483.87 -5.00 0.69 
485.45 -5.47 0.62 
477.80 -16.16 -0.30 
477.58 -19.51 -0.60 
479.19 -19.81 -0.64 
479.42 -20.07 -0.66 
477.01 -18.18 -0.48 
479.87 -20.18 -0.67 
476.70 -16.60 -0.33 
479.45 -18.73 -0.27 
480.91 -6.19 1.53 
483.09 -7.38 1.36 
484.74 -7.77 1.28 
483.74 -6.64 1.40 
482.28 -5.10 1.58 
485.33 -6.16 1.39 
486.07 -6.29 1.36 
487.17 -7.36 1.52 
487.75 -6.49 1.57 
480.11 -8.29 1.38 
480.49 -8.33 1.36 
479.97 -7.67 1.44 
481.39 -7.89 1.62 
480.91 -7.40 1.43 
483.77 -7.03 1.62 
482.94 -5.68 1.75 
489.76 -4.72 2.09 
490.03 -4.95 2.07 
490.78 -5.22 2.32 
490.73 -4.71 2.35 
475.34 -15.26 0.95 
477.57 -16.44 0.80 
482.38 -6.96 2.31 
483.63 -7.71 2.19 
484.95 -8.37 2.08 
481.59 -5.57 2.45 
483.82 -6.92 2.24 
484.97 -6.22 2.23 
483.92 -5.02 2.62 
484.81 -5.73 2.27 
490.41 -5.00 2.76 
490.44 -4.71 2.77 
490.59 -5.08 2.74 
479.76 -21.45 0.69 
480.39 -21.79 0.66 
480.00 -20.74 0.73 
480.44 -21.20 0.70 
475.02 -16.78 0.84 
474.19 -15.57 0.96 
474.51 -15.42 0.96 
474.51 -15.00 1.00 
481.00 -8.42 2.28 
480.31 -7.55 2.38 
482.05 -8.73 2.20 
480.52 -6.81 2.42 
484.22 -8.44 2.40 
488.99 -5.52 3.13 
490.86 -5.25 3.04 
479.12 -9.29 2.31 
484.46 -5.02 3.43 
481.74 -9.41 3.11 
481.97 -7.88 3.18 
482.52 -6.89 3.20 
486.80 -4.83 3.80 
489.51 -5.39 3.87 
490.66 -5.20 3.79 
480.99 -9.86 3.13 
481.02 -5.45 4.31 
481.69 -8.61 5.32 
482.35 -6.68 -1.89 
482.16 -5.88 -1.79 
482.34 -6.05 -1.80 
482.34 -6.38 -1.85 
481.56 -7.14 -1.04 
481.67 -6.73 -0.99 
482.10 -6.10 -0.90 
481.53 -5.11 -0.80 
481.82 -5.46 -0.83 
482.13 -5.74 -0.85 
481.67 -5.07 -0.79 
481.80 -5.26 -0.81 
485.25 -4.83 -0.87 
480.53 -8.28 -0.46 
481.45 -6.73 -0.29 
482.63 -7.11 -0.09 
482.94 -7.23 -0.10 
482.26 -6.63 -0.27 
482.29 -5.98 0.03 
484.34 -7.51 -0.11 
481.78 -4.72 0.16 
484.30 -6.63 -0.25 
483.17 -4.94 -0.07 
485.82 -6.80 -0.02 
483.56 -4.98 -0.08 
485.86 -5.85 -0.15 
485.73 -5.52 -0.12 
486.75 -5.27 0.72 
480.55 -5.49 0.77 
481.88 -5.11 0.79 
485.95 -7.60 0.75 
486.01 -7.83 0.73 
486.32 -7.96 0.72 
484.00 -5.88 0.92 
485.24 -6.18 0.77 
485.80 -6.37 0.62 
486.01 -6.58 0.84 
487.15 -7.71 0.73 
487.52 -7.85 0.72 
483.83 -4.96 0.78 
485.45 -6.01 0.66 
487.00 -5.42 0.94 
481.42 -6.00 0.94 
481.95 -4.74 1.05 
479.16 -19.79 -0.56 
479.65 -19.80 -0.56 
479.23 -19.21 -0.51 
479.10 -18.57 -0.18 
482.21 -5.03 1.69 
482.06 -4.81 1.71 
486.29 -7.38 1.62 
487.06 -7.66 1.58 
487.12 -7.33 1.61 
486.58 -6.18 1.70 
486.91 -5.62 1.74 
487.82 -5.78 1.70 
481.42 -7.82 1.71 
481.57 -6.97 1.78 
480.91 -5.75 1.90 
483.76 -7.09 1.71 
482.97 -5.66 1.84 
482.95 -5.74 1.84 
490.62 -4.90 2.43 
491.34 -4.86 2.41 
478.09 -18.91 0.68 
479.00 -17.80 0.74 
480.40 -21.81 0.73 
480.00 -20.78 0.81 
479.41 -18.34 0.98 
479.93 -18.78 0.94 
482.04 -7.74 2.63 
480.50 -5.50 2.86 
480.54 -5.75 2.84 
484.38 -8.35 2.49 
483.78 -4.91 2.74 
488.93 -4.70 3.27 
489.69 -5.53 3.19 
489.98 -4.70 3.21 
490.14 -4.84 3.19 
490.71 -5.16 3.15 
490.89 -5.22 3.14 
481.74 -9.00 2.56 
482.37 -8.86 2.54 
485.44 -9.62 3.26 
484.81 -8.42 3.35 
484.07 -4.79 3.58 
480.22 -5.44 3.81 
482.23 -6.38 -1.79 
482.25 -6.64 -1.83 
481.93 -5.90 -1.74 
482.29 -6.09 -1.75 
481.82 -7.12 -0.96 
482.08 -6.01 -0.82 
481.76 -5.41 -0.75 
482.05 -5.71 -0.78 
481.62 -5.01 -0.71 
485.10 -4.87 -0.81 
482.14 -7.95 -0.33 
483.01 -8.46 -0.15 
480.52 -5.32 -0.05 
481.68 -5.39 -0.05 
482.31 -5.90 0.12 
484.39 -7.39 -0.03 
482.09 -5.44 0.17 
482.68 -5.80 -0.09 
483.77 -5.84 -0.09 
484.92 -6.64 -0.17 
485.64 -6.85 0.04 
483.46 -4.82 0.03 
483.55 -4.73 0.04 
485.27 -5.55 0.18 
485.68 -5.68 -0.05 
485.80 -5.85 -0.07 
481.77 -7.63 -0.08 
480.60 -5.63 0.86 
482.05 -5.30 0.87 
485.69 -7.86 0.81 
485.97 -7.98 0.80 
481.90 -4.73 0.93 
483.20 -5.09 1.10 
483.91 -5.88 1.01 
487.66 -7.85 0.80 
484.21 -5.11 0.86 
484.49 -5.26 0.84 
485.37 -5.87 1.00 
486.35 -6.40 0.94 
485.96 -4.99 0.85 
486.34 -5.39 0.80 
486.51 -4.98 0.84 
487.56 -6.05 0.96 
479.47 -18.71 -0.39 
479.14 -17.76 -0.30 
482.56 -5.81 1.03 
482.01 -4.95 1.12 
479.79 -20.19 -0.53 
479.26 -18.95 -0.41 
479.40 -19.20 -0.43 
479.17 -18.59 -0.38 
482.94 -7.01 1.60 
484.03 -7.01 1.56 
485.09 -7.89 1.45 
484.63 -6.96 1.55 
487.04 -8.10 1.64 
487.07 -7.50 1.68 
486.54 -6.94 1.74 
485.70 -5.54 1.64 
481.24 -8.44 1.77 
481.07 -7.93 1.81 
481.52 -6.96 1.88 
480.89 -5.70 2.01 
481.02 -5.90 1.99 
483.43 -7.31 1.80 
483.99 -7.24 1.79 
482.92 -5.71 1.94 
490.79 -5.36 2.49 
477.29 -16.72 0.96 
477.66 -17.04 0.92 
477.88 -17.12 0.91 
478.40 -17.15 0.89 
478.80 -17.40 0.86 
479.04 -17.85 0.82 
477.45 -16.12 1.00 
478.21 -19.37 0.73 
478.09 -19.03 0.76 
475.19 -16.00 1.08 
475.81 -16.01 1.06 
476.47 -16.39 1.01 
474.18 -14.24 1.26 
474.79 -14.69 1.20 
475.47 -15.00 1.16 
484.42 -8.61 2.57 
483.81 -4.86 2.85 
489.75 -5.46 3.29 
490.44 -5.14 3.26 
491.05 -5.53 3.21 
482.08 -7.66 2.74 
479.88 -5.41 3.02 
480.41 -5.50 2.98 
475.89 -16.48 2.18 
476.31 -16.67 2.15 
476.12 -15.97 2.21 
481.74 -8.40 4.62 
482.17 -6.68 -1.81 
481.83 -5.91 -1.72 
482.21 -6.16 -1.74 
481.77 -7.05 -0.92 
482.01 -7.24 -0.93 
482.84 -7.71 -0.97 
481.68 -5.80 -0.77 
482.09 -5.94 -0.77 
481.98 -6.32 -0.82 
481.77 -5.45 -0.72 
482.03 -5.78 -0.75 
481.51 -4.96 -0.67 
481.74 -5.18 -0.69 
481.07 -6.73 -0.15 
480.56 -5.21 0.02 
481.87 -5.46 0.21 
482.18 -5.89 -0.05 
482.18 -5.60 0.20 
484.83 -6.84 0.08 
485.14 -6.94 0.08 
483.28 -5.09 0.05 
484.83 -6.22 0.15 
485.63 -7.04 0.07 
483.35 -4.78 0.08 
483.96 -5.02 0.06 
484.83 -5.90 0.19 
485.01 -4.81 0.09 
481.74 -7.54 -0.02 
480.40 -4.88 1.01 
481.98 -5.29 0.94 
484.37 -5.92 1.06 
484.82 -6.06 1.04 
485.39 -6.49 1.00 
487.70 -7.97 0.84 
484.13 -5.07 0.93 
484.29 -5.23 0.91 
485.54 -6.04 0.81 
485.99 -5.84 1.05 
485.99 -4.97 0.92 
486.61 -5.13 1.12 
487.46 -5.98 1.03 
479.23 -19.68 -0.44 
476.59 -16.51 -0.12 
479.56 -18.83 -0.36 
475.30 -14.85 0.06 
477.82 -16.08 -0.09 
482.87 -6.97 1.68 
485.02 -7.93 1.52 
483.95 -6.81 1.66 
485.06 -7.87 1.53 
482.21 -5.10 1.88 
486.73 -6.26 1.85 
486.69 -6.04 1.87 
487.73 -6.50 1.80 
485.75 -4.90 1.77 
479.94 -7.46 1.74 
481.02 -8.12 1.87 
481.53 -8.13 1.85 
480.24 -6.03 1.86 
481.57 -7.09 1.94 
482.94 -8.17 1.57 
480.96 -6.34 1.81 
483.51 -7.57 1.84 
481.50 -5.72 1.85 
482.88 -5.71 2.01 
482.94 -5.94 1.99 
477.62 -17.21 0.96 
478.42 -17.08 0.95 
477.35 -16.16 1.06 
485.07 -8.23 2.38 
485.10 -7.08 2.47 
485.88 -7.24 2.42 
486.49 -5.35 2.76 
478.27 -18.64 0.83 
474.76 -14.88 1.25 
477.15 -16.70 1.02 
480.93 -8.34 2.60 
481.12 -8.56 2.57 
484.04 -8.56 2.41 
482.24 -7.04 2.63 
489.79 -4.72 3.15 
479.98 -7.53 2.72 
482.15 -7.82 2.80 
480.33 -5.48 3.07 
482.37 -7.65 3.51 
484.24 -8.17 3.33 
482.48 -6.71 3.57 
484.95 -8.38 3.27 
476.27 -16.58 2.22 
480.61 -10.57 3.44 
481.65 -9.35 3.45 
485.05 -4.94 4.58 
480.66 -7.70 4.62 
481.36 -8.00 4.53 
481.69 -8.22 5.45 
481.60 -8.91 5.43 
480.90 -7.99 5.56 
482.13 -6.41 -1.74 
482.15 -6.67 -1.78 
482.05 -5.81 -1.66 
482.20 -6.05 -1.69 
481.67 -6.86 -0.85 
481.80 -7.06 -0.87 
481.62 -5.61 -0.70 
481.99 -6.01 -0.74 
481.22 -4.82 -0.71 
481.70 -5.37 -0.66 
481.98 -5.71 -0.70 
481.59 -4.96 -0.62 
480.57 -5.25 0.08 
482.09 -5.45 0.27 
485.10 -6.79 0.15 
484.70 -6.13 0.22 
484.94 -6.25 0.20 
485.61 -6.81 0.15 
486.68 -6.08 0.02 
481.29 -8.88 -0.12 
481.67 -7.62 0.02 
481.64 -6.28 0.18 
481.75 -5.30 0.29 
482.18 -5.71 0.25 
480.37 -4.80 1.10 
482.07 -5.34 1.01 
482.11 -5.38 1.01 
485.60 -6.12 0.88 
486.07 -6.37 0.84 
486.49 -6.54 0.82 
480.58 -5.64 1.01 
482.46 -5.65 1.18 
483.66 -5.54 1.18 
479.56 -20.12 -0.46 
479.12 -19.59 -0.40 
481.33 -21.02 -0.29 
479.57 -18.79 -0.33 
477.74 -15.97 -0.03 
484.96 -7.70 1.62 
485.49 -5.69 1.80 
481.42 -9.20 1.61 
481.08 -7.42 1.79 
481.46 -6.94 2.04 
480.91 -6.28 1.91 
483.31 -7.37 1.71 
481.99 -4.88 2.01 
482.88 -5.77 2.09 
478.50 -17.10 0.99 
478.69 -17.24 0.98 
478.90 -17.73 0.93 
485.15 -7.15 2.56 
485.62 -7.45 2.51 
484.97 -6.06 2.66 
485.10 -6.24 2.64 
478.38 -18.86 0.85 
477.87 -17.14 1.01 
475.45 -14.96 1.28 
477.71 -16.90 1.03 
480.56 -6.85 2.85 
482.33 -8.20 2.63 
484.02 -8.33 2.52 
484.33 -8.77 2.47 
483.32 -7.14 2.66 
483.59 -7.32 2.63 
484.34 -7.85 2.54 
485.17 -8.28 2.46 
481.57 -5.49 2.91 
478.51 -6.70 2.98 
482.35 -7.65 3.63 
482.74 -7.77 3.59 
484.98 -8.22 3.38 
480.59 -10.50 3.55 
480.98 -9.95 3.56 
481.64 -9.34 3.56 
481.88 -7.61 3.67 
480.52 -6.28 3.88 
481.20 -5.69 3.87 
481.09 -8.73 4.64 
480.72 -7.62 4.75 
484.73 -5.29 5.39 
480.12 -7.66 5.82 
481.72 -5.90 -1.66 
482.02 -5.80 -1.63 
482.17 -5.99 -1.65 
481.49 -5.62 -0.65 
481.96 -5.71 -0.65 
482.05 -5.93 -0.68 
481.16 -4.77 -0.76 
481.70 -5.20 -0.59 
481.67 -4.90 -0.55 
481.48 -6.49 0.00 
484.90 -6.49 0.02 
484.86 -6.26 0.05 
485.56 -6.49 0.03 
485.65 -5.60 0.13 
485.87 -6.11 0.08 
482.98 -8.76 -0.04 
482.27 -5.60 1.07 
485.97 -6.44 0.92 
486.56 -6.41 0.91 
485.33 -4.98 1.09 
486.51 -5.32 1.03 
480.38 -6.38 1.01 
480.60 -5.62 1.09 
480.77 -20.81 -0.22 
481.18 -21.07 -0.25 
478.85 -17.96 -0.19 
484.94 -7.60 1.73 
484.58 -6.87 1.81 
485.03 -7.09 1.77 
481.36 -7.95 1.82 
480.18 -5.88 2.08 
479.37 -4.92 2.21 
481.21 -5.86 2.04 
478.97 -17.58 1.01 
479.26 -17.73 0.99 
485.01 -5.90 2.78 
479.80 -19.89 1.06 
477.32 -16.58 1.15 
477.83 -17.04 1.09 
477.28 -16.19 1.18 
482.15 -8.51 2.72 
481.70 -7.27 2.85 
484.05 -8.72 2.59 
483.91 -8.44 2.62 
481.84 -6.59 2.91 
481.35 -5.42 3.05 
483.49 -7.14 2.76 
484.62 -7.82 2.64 
483.73 -6.70 2.79 
484.63 -7.48 2.67 
478.06 -7.50 3.05 
478.57 -5.99 3.16 
480.97 -9.02 3.75 
481.59 -9.39 3.67 
481.91 -8.26 3.74 
482.26 -7.49 3.77 
481.09 -5.43 4.04 
480.39 -10.59 3.67 
480.93 -8.81 4.79 
484.71 -5.73 5.53 
484.69 -5.26 5.56 
485.55 -5.10 5.47 
480.49 -8.14 5.90 
481.91 -6.74 -1.79 
481.79 -5.82 -1.66 
482.04 -6.34 -1.72 
481.61 -7.02 -0.84 
481.74 -6.19 -0.94 
481.77 -6.35 -0.74 
481.61 -5.57 -0.65 
481.95 -5.92 -0.68 
481.11 -4.87 -0.78 
481.43 -4.88 -0.56 
481.64 -5.11 -0.58 
481.04 -5.62 0.12 
484.74 -6.52 0.03 
484.78 -6.16 0.28 
485.50 -6.38 0.05 
483.64 -4.76 0.24 
484.54 -5.37 0.38 
485.24 -5.29 0.18 
485.53 -5.51 0.16 
485.29 -5.03 0.22 
482.18 -5.59 0.33 
482.15 -5.38 1.12 
485.86 -6.57 0.93 
485.66 -6.08 0.99 
486.45 -6.37 0.94 
485.27 -4.85 1.13 
486.41 -5.27 1.07 
486.18 -4.75 1.13 
480.29 -6.35 1.04 
480.52 -5.59 1.12 
477.66 -15.99 -0.01 
484.88 -6.83 1.84 
485.09 -7.04 1.81 
485.95 -6.10 1.88 
485.60 -5.34 1.97 
481.21 -9.34 1.71 
481.29 -7.94 1.85 
484.92 -7.65 1.75 
481.87 -4.69 2.18 
479.48 -19.31 1.06 
477.69 -16.93 1.08 
477.19 -16.04 1.18 
477.55 -16.24 1.15 
478.62 -17.15 1.03 
478.75 -17.47 0.99 
484.25 -8.40 2.65 
484.13 -8.72 2.62 
484.02 -7.84 2.71 
484.54 -7.92 2.67 
481.88 -5.04 3.12 
485.16 -7.06 2.72 
480.61 -9.04 2.79 
478.90 -7.07 3.09 
481.74 -9.21 2.71 
481.68 -8.26 2.81 
480.34 -6.50 3.06 
481.37 -7.12 2.94 
484.17 -7.93 3.64 
481.81 -8.32 3.79 
480.75 -7.09 3.99 
482.35 -7.72 3.80 
482.24 -7.51 3.83 
484.90 -8.70 3.74 
489.45 -4.95 4.49 
480.85 -10.05 3.72 
479.31 -6.71 4.14 
481.85 -8.83 4.96 
480.66 -7.55 4.98 
484.60 -5.26 5.68 
485.18 -5.61 5.58 
485.32 -5.32 5.59 
484.41 -5.09 5.72 
482.03 -6.13 -1.76 
481.65 -6.87 -1.08 
481.52 -5.70 -0.72 
481.01 -4.94 -0.84 
481.45 -5.47 -0.69 
481.93 -5.85 -0.72 
481.46 -4.83 -0.60 
481.60 -5.10 -0.64 
480.83 -6.68 -0.05 
482.23 -7.74 -0.17 
482.05 -6.53 -0.02 
481.55 -5.45 0.11 
483.74 -4.80 0.21 
485.74 -5.70 0.12 
482.16 -5.58 0.30 
485.26 -5.80 1.02 
485.51 -6.00 0.99 
484.30 -5.02 1.12 
486.31 -6.32 0.95 
486.45 -4.81 1.12 
487.60 -5.57 1.22 
480.53 -5.57 1.11 
480.29 -4.69 1.22 
482.39 -5.91 1.24 
481.99 -5.16 1.14 
482.36 -5.60 1.27 
484.38 -5.88 1.22 
485.82 -6.71 1.11 
477.76 -15.93 -0.05 
481.28 -9.00 1.73 
481.37 -8.58 1.78 
480.99 -7.44 1.91 
480.12 -5.86 2.12 
481.05 -5.88 2.08 
482.94 -7.35 1.86 
482.82 -5.82 2.21 
483.90 -6.44 1.92 
484.43 -6.49 1.90 
480.17 -8.78 1.80 
478.68 -17.06 1.00 
478.63 -17.18 1.23 
484.04 -8.43 2.67 
484.22 -7.92 2.71 
483.28 -7.07 2.85 
484.14 -7.60 2.75 
485.05 -6.99 2.75 
485.15 -6.66 2.78 
483.93 -4.81 3.21 
479.00 -6.60 3.14 
479.52 -5.19 3.26 
482.10 -7.15 2.90 
484.88 -9.29 2.76 
481.09 -4.99 3.19 
481.74 -5.15 3.13 
481.76 -4.84 3.16 
481.88 -5.06 3.13 
490.34 -5.23 3.64 
482.30 -7.55 3.85 
482.32 -7.17 3.89 
482.72 -7.69 3.81 
481.00 -5.44 4.16 
480.85 -9.73 3.77 
480.86 -9.06 3.83 
480.68 -6.99 4.03 
481.45 -7.28 4.12 
480.96 -8.80 4.89 
480.71 -7.55 5.02 
481.49 -7.96 4.91 
484.56 -5.15 5.77 
485.23 -5.49 5.66 
481.57 -6.68 -1.04 
481.54 -6.08 -0.96 
481.55 -6.39 -1.00 
481.79 -5.95 -0.72 
481.05 -4.91 -0.82 
481.51 -5.10 -0.62 
481.79 -5.64 -0.68 
482.07 -7.60 -0.12 
481.53 -5.24 0.17 
482.19 -5.95 0.09 
483.88 -4.83 0.25 
485.64 -5.51 0.18 
485.64 -5.75 0.15 
486.35 -5.85 0.15 
480.88 -9.13 -0.12 
482.79 -8.55 -0.02 
481.56 -5.18 0.38 
485.51 -5.95 1.06 
486.30 -6.25 1.02 
485.33 -4.80 1.20 
486.49 -4.74 1.19 
487.26 -5.63 1.28 
480.43 -5.35 1.19 
482.03 -5.21 1.18 
485.63 -6.62 1.18 
482.97 -6.90 1.98 
484.94 -7.67 1.83 
484.09 -6.21 2.01 
482.96 -4.85 2.38 
480.29 -8.78 1.86 
480.39 -8.67 1.86 
481.28 -9.07 1.79 
480.27 -6.16 2.15 
481.05 -6.89 2.22 
490.05 -4.74 2.99 
484.05 -8.41 2.76 
484.21 -8.52 2.74 
480.54 -9.08 2.88 
481.79 -8.99 2.82 
481.66 -8.34 2.89 
482.15 -8.54 2.85 
480.52 -6.79 3.12 
482.01 -7.32 2.98 
483.09 -7.56 2.89 
481.97 -6.38 3.08 
483.30 -7.15 2.93 
484.70 -8.52 2.91 
481.56 -5.52 3.19 
481.84 -5.14 3.22 
481.80 -4.89 3.25 
490.13 -4.84 3.79 
490.44 -5.17 3.74 
490.44 -4.95 3.75 
478.82 -6.36 3.26 
488.38 -5.11 3.89 
482.32 -7.33 3.97 
484.80 -8.22 3.70 
489.42 -4.93 4.67 
480.86 -9.07 3.92 
479.09 -7.35 4.22 
479.17 -6.86 4.26 
481.50 -7.92 3.98 
481.95 -8.34 3.91 
480.75 -7.14 4.11 
481.35 -8.35 5.17 
484.38 -5.06 5.95 
485.29 -5.03 5.84 
485.52 -5.27 5.79 
481.29 -5.75 -0.66 
481.68 -6.03 -0.89 
485.74 -5.28 -0.44 
480.84 -6.71 0.05 
482.06 -7.65 -0.05 
484.79 -6.20 0.16 
485.45 -6.29 0.16 
486.05 -6.80 0.31 
485.95 -5.89 0.22 
486.18 -6.45 0.35 
485.32 -5.01 0.32 
481.15 -7.51 0.15 
480.76 -6.00 0.34 
485.43 -5.57 1.20 
480.33 -6.30 1.17 
480.54 -5.34 1.28 
481.97 -5.09 1.48 
482.21 -5.24 1.28 
482.30 -5.47 1.25 
484.44 -5.70 1.38 
485.51 -6.48 1.28 
485.89 -6.68 1.26 
486.67 -5.41 1.40 
480.53 -6.93 1.27 
483.35 -7.82 1.97 
482.97 -6.70 2.11 
483.17 -6.94 2.08 
483.65 -7.41 2.01 
484.32 -5.94 2.15 
484.76 -5.87 2.15 
485.27 -6.61 2.04 
480.72 -9.02 1.92 
481.32 -9.09 1.89 
480.99 -6.24 2.23 
489.98 -4.83 3.11 
484.62 -7.77 2.92 
484.77 -7.42 2.95 
480.91 -8.36 3.06 
481.30 -8.60 3.01 
482.31 -8.60 2.96 
482.40 -8.85 2.92 
480.67 -6.84 3.24 
481.64 -7.20 3.14 
484.42 -9.04 2.99 
480.20 -5.00 3.47 
484.44 -8.45 2.86 
483.36 -6.99 3.07 
482.04 -5.55 3.46 
484.09 -7.38 2.99 
481.77 -4.95 3.38 
483.82 -6.25 3.12 
479.25 -7.36 4.36 
480.87 -7.17 4.25 
480.92 -7.43 4.38 
481.81 -8.23 4.07 
482.28 -7.50 4.19 
482.31 -7.12 4.14 
478.73 -7.10 4.43 
481.58 -9.23 5.23 
480.77 -7.94 5.41 
481.67 -8.23 5.30 
484.66 -5.44 6.08 
484.60 -5.12 6.12 
484.92 -6.03 6.13 
484.47 -4.91 6.16 
482.13 -7.37 -0.68 
481.75 -6.36 -0.67 
481.69 -5.79 -0.49 
481.88 -5.90 -0.70 
480.92 -4.84 -0.59 
484.31 -4.95 -0.49 
484.56 -5.65 0.41 
485.28 -6.07 0.36 
485.25 -6.33 0.33 
485.98 -6.46 0.32 
486.20 -6.51 0.32 
485.14 -4.87 0.52 
485.13 -5.21 0.47 
485.81 -5.59 0.43 
