# .PCD v0.7 - Point Cloud Data file format
VERSION 0.7
FIELDS x y z
SIZE 4 4 4
TYPE F F F
COUNT 1 1 1
WIDTH 2277
HEIGHT 1
VIEWPOINT 0 0 0 1 0 0 0
POINTS 2277
DATA ascii
467.59 -690.68 2.94 
476.77 -690.99 3.48 
472.39 -691.17 2.93 
467.95 -691.05 2.97 
467.71 -690.89 2.96 
480.20 -691.42 3.44 
476.85 -691.49 3.43 
476.39 -691.34 3.31 
472.32 -691.62 2.98 
480.86 -691.98 3.49 
480.32 -691.86 3.49 
479.83 -691.90 3.51 
472.14 -691.94 3.01 
481.86 -692.32 3.93 
475.75 -692.29 3.42 
481.29 -692.66 3.57 
480.56 -693.39 3.68 
477.98 -684.90 3.31 
478.38 -685.14 3.31 
478.04 -685.02 3.32 
474.83 -689.13 3.33 
475.07 -689.47 3.36 
475.29 -689.99 3.41 
472.09 -689.75 3.49 
467.01 -690.42 2.93 
480.37 -690.81 3.80 
472.52 -690.81 3.59 
473.01 -691.00 3.60 
467.35 -691.07 2.98 
481.37 -691.38 3.93 
467.62 -691.43 3.01 
467.33 -691.34 3.01 
481.26 -691.89 3.90 
481.09 -692.35 4.08 
480.77 -692.29 4.09 
480.50 -692.17 4.08 
480.84 -692.73 4.15 
478.00 -684.61 3.82 
476.14 -689.45 3.93 
475.57 -690.24 4.06 
467.24 -690.40 3.36 
475.86 -690.55 4.08 
467.30 -690.64 3.38 
481.34 -691.15 4.43 
476.26 -691.04 4.04 
475.77 -690.93 4.14 
475.28 -690.96 4.16 
481.12 -691.66 4.52 
475.98 -689.90 4.62 
466.66 -689.94 3.70 
466.66 -690.20 3.73 
466.75 -690.56 3.76 
471.76 -690.83 4.34 
471.69 -691.06 4.37 
471.30 -690.80 4.36 
475.58 -689.32 4.57 
475.98 -690.95 4.76 
475.91 -689.67 5.22 
466.61 -689.76 4.51 
483.33 -682.98 0.68 
483.29 -683.92 0.74 
483.53 -684.69 0.81 
483.41 -684.51 0.79 
480.09 -684.46 0.36 
479.74 -684.42 0.33 
483.69 -684.92 0.84 
483.82 -685.23 0.87 
487.25 -688.66 1.15 
486.88 -688.54 1.12 
486.56 -688.41 1.09 
485.64 -688.33 1.21 
487.47 -688.74 1.17 
486.19 -689.33 1.31 
489.91 -689.89 1.42 
489.68 -689.79 1.40 
489.32 -689.62 1.36 
490.77 -690.33 1.50 
490.48 -690.18 1.48 
490.15 -690.03 1.44 
491.24 -690.57 1.55 
490.94 -690.42 1.52 
476.57 -690.93 1.11 
481.30 -692.50 1.48 
475.58 -689.75 1.22 
475.76 -689.95 1.24 
476.46 -690.38 1.31 
481.28 -692.45 2.00 
478.27 -685.26 1.61 
476.53 -690.88 1.70 
476.06 -690.82 1.98 
467.47 -690.89 1.42 
472.81 -691.53 1.64 
480.79 -692.39 2.26 
473.37 -695.90 2.03 
478.68 -685.23 1.80 
476.49 -689.35 2.15 
476.01 -689.23 2.13 
477.26 -689.74 2.19 
476.38 -689.57 2.17 
477.24 -690.05 2.22 
476.31 -689.96 2.20 
477.16 -690.38 2.25 
476.67 -690.27 2.24 
476.42 -690.20 2.23 
477.11 -690.70 2.28 
466.98 -690.86 1.71 
476.88 -691.18 2.33 
477.30 -691.61 2.38 
476.94 -691.50 2.36 
472.34 -691.58 1.92 
481.87 -692.11 2.50 
480.91 -692.06 2.47 
477.30 -691.98 2.41 
481.66 -692.55 2.54 
481.20 -692.34 2.51 
481.61 -692.71 2.55 
481.55 -693.27 2.61 
481.34 -693.14 2.59 
481.09 -696.19 2.92 
478.63 -685.19 2.30 
478.60 -685.08 2.29 
476.98 -689.47 2.74 
475.78 -689.43 2.51 
472.85 -689.99 2.17 
477.57 -690.26 2.82 
477.31 -690.25 2.82 
477.87 -690.77 2.87 
477.54 -690.70 2.87 
476.92 -690.61 2.63 
468.45 -690.67 2.19 
468.17 -690.58 2.18 
467.36 -690.64 2.18 
477.70 -691.00 2.90 
476.71 -691.11 2.67 
467.93 -691.15 2.23 
481.27 -691.52 2.94 
480.87 -691.46 2.93 
479.98 -691.70 2.96 
479.66 -691.56 2.74 
467.97 -691.47 2.26 
481.97 -691.96 2.99 
481.55 -691.91 2.98 
480.99 -692.13 3.01 
480.85 -692.04 3.00 
479.97 -691.82 2.87 
479.57 -691.81 2.76 
476.23 -692.12 2.76 
468.05 -691.82 2.29 
481.29 -692.30 3.03 
480.76 -692.20 2.92 
482.28 -692.87 3.10 
481.92 -692.68 3.08 
481.59 -692.81 2.99 
482.31 -693.25 3.15 
481.62 -693.23 3.14 
480.62 -696.13 3.20 
480.50 -696.03 3.19 
473.37 -695.81 2.74 
478.38 -685.17 2.77 
475.84 -689.64 2.77 
476.84 -689.92 2.79 
476.44 -689.92 2.79 
475.94 -689.75 2.78 
475.61 -690.10 2.82 
472.74 -689.97 2.84 
476.73 -690.25 2.83 
476.53 -690.47 2.85 
467.89 -690.27 2.52 
480.73 -690.75 3.37 
477.27 -690.85 2.89 
476.59 -690.83 2.89 
472.99 -690.51 2.89 
467.88 -690.52 2.54 
480.70 -691.22 3.43 
472.92 -690.97 2.94 
480.70 -691.61 3.48 
477.71 -691.39 2.94 
477.04 -691.59 2.97 
481.85 -691.99 3.50 
481.16 -691.94 3.51 
480.76 -691.86 3.51 
477.02 -692.02 3.02 
481.81 -692.33 3.47 
481.22 -692.24 3.47 
480.87 -692.21 3.39 
476.72 -692.37 3.06 
482.28 -692.77 3.60 
481.91 -692.79 3.53 
481.61 -692.77 3.61 
481.03 -696.07 3.49 
472.88 -695.84 3.07 
478.46 -685.02 3.28 
476.01 -689.00 3.29 
477.42 -689.60 3.32 
476.22 -689.37 3.24 
475.99 -689.30 3.33 
467.25 -689.48 2.86 
477.46 -689.84 3.34 
475.90 -689.81 3.39 
475.31 -689.82 3.41 
467.54 -689.75 2.88 
476.18 -690.23 3.24 
467.44 -690.16 2.92 
481.10 -690.77 3.87 
480.12 -690.83 3.83 
477.07 -690.58 3.44 
476.62 -690.64 3.46 
475.41 -690.71 3.30 
471.88 -690.79 2.93 
471.49 -690.78 2.94 
468.20 -690.59 2.96 
467.46 -690.52 2.96 
480.84 -691.01 3.83 
476.92 -691.18 3.52 
476.65 -691.13 3.52 
467.52 -691.12 3.02 
476.63 -691.53 3.57 
467.74 -691.41 3.04 
467.65 -691.40 3.04 
482.06 -691.92 3.99 
481.61 -691.73 3.98 
480.66 -691.78 3.92 
482.12 -692.28 4.05 
481.85 -692.28 4.06 
481.37 -692.82 4.03 
477.08 -689.48 3.88 
476.40 -689.52 3.92 
476.62 -689.86 3.96 
471.30 -689.89 3.55 
472.72 -690.16 3.53 
472.40 -690.08 3.53 
475.81 -690.71 3.96 
481.09 -691.55 3.98 
472.60 -691.29 3.66 
481.43 -692.06 4.04 
481.97 -692.79 4.13 
480.39 -693.06 4.23 
478.04 -685.26 3.92 
475.93 -689.07 3.89 
475.60 -689.62 3.98 
476.20 -690.11 4.01 
475.95 -690.44 4.06 
467.13 -690.31 3.73 
466.78 -690.18 3.73 
476.15 -690.63 4.08 
467.06 -690.59 3.77 
466.86 -690.73 3.42 
481.89 -691.27 4.41 
476.64 -691.03 4.11 
476.25 -690.88 4.11 
466.89 -690.90 3.81 
481.48 -691.39 4.41 
481.65 -692.01 4.55 
481.52 -691.92 4.54 
478.04 -684.72 4.46 
478.02 -684.89 4.47 
475.59 -689.51 4.58 
476.13 -689.88 4.59 
476.66 -690.39 4.62 
476.19 -690.32 4.64 
476.65 -690.75 4.67 
476.45 -691.06 4.73 
472.21 -690.97 4.33 
466.99 -689.99 4.50 
471.98 -690.52 4.98 
472.01 -690.03 5.61 
481.97 -684.06 0.79 
482.50 -684.97 0.89 
483.48 -685.73 1.01 
483.17 -685.48 0.97 
483.87 -686.07 1.06 
483.67 -685.87 1.03 
484.49 -686.66 0.96 
484.23 -686.53 0.99 
483.99 -686.38 0.99 
484.94 -687.59 1.23 
485.73 -688.19 1.14 
485.60 -687.95 1.11 
485.84 -688.45 1.16 
486.48 -689.07 1.24 
486.25 -688.99 1.22 
485.99 -688.80 1.19 
487.47 -689.40 1.33 
487.04 -689.26 1.29 
486.73 -689.16 1.27 
491.15 -689.75 1.49 
488.61 -689.84 1.44 
488.23 -689.69 1.40 
489.66 -690.26 1.53 
489.41 -690.17 1.51 
489.01 -690.00 1.47 
488.81 -689.92 1.46 
490.21 -690.49 1.59 
489.87 -690.35 1.55 
476.83 -690.84 1.23 
484.84 -695.48 2.00 
488.43 -704.21 2.89 
481.56 -692.46 2.10 
481.03 -692.36 1.80 
478.96 -685.20 1.87 
478.54 -685.22 1.70 
476.82 -690.95 1.81 
476.76 -690.81 1.79 
476.31 -690.77 2.07 
473.11 -691.55 1.74 
481.05 -692.37 2.35 
478.52 -685.18 2.24 
476.60 -689.19 2.21 
476.64 -689.57 2.24 
477.53 -689.76 2.27 
476.58 -689.98 2.28 
476.21 -689.90 2.27 
473.06 -690.00 2.25 
477.58 -690.25 2.32 
477.41 -690.29 2.32 
477.00 -690.23 2.31 
477.28 -690.63 2.35 
472.87 -690.55 2.30 
467.26 -690.81 1.81 
477.22 -691.25 2.41 
477.04 -691.08 2.39 
480.02 -691.49 2.80 
477.62 -691.57 2.45 
477.37 -691.55 2.44 
477.06 -691.56 2.44 
472.64 -691.47 2.02 
481.17 -692.16 2.56 
481.15 -691.98 2.54 
480.33 -692.04 2.86 
477.59 -691.79 2.47 
477.34 -691.98 2.49 
481.73 -692.46 2.60 
481.34 -692.40 2.75 
481.75 -692.82 2.64 
481.78 -693.19 2.68 
477.26 -689.65 2.81 
476.12 -689.65 2.82 
477.16 -689.97 2.64 
477.08 -689.93 2.84 
476.14 -689.84 2.73 
468.53 -689.93 2.21 
477.95 -690.19 2.86 
476.93 -690.27 2.77 
476.25 -690.11 2.64 
478.00 -690.80 2.93 
477.76 -690.67 2.91 
477.50 -690.83 2.93 
477.05 -690.52 2.90 
467.66 -690.74 2.27 
478.46 -691.19 2.97 
477.77 -691.21 2.97 
468.16 -691.06 2.30 
479.93 -691.72 2.82 
479.88 -691.53 2.81 
477.95 -691.32 2.98 
477.60 -691.35 2.99 
468.24 -691.39 2.33 
480.90 -692.00 3.05 
480.34 -691.75 3.02 
480.08 -691.82 2.84 
479.86 -691.74 2.83 
477.41 -691.93 3.06 
468.35 -691.90 2.38 
468.29 -691.73 2.37 
481.81 -692.44 3.10 
481.48 -692.32 3.09 
480.96 -692.24 3.08 
480.28 -692.18 3.07 
477.04 -692.20 2.84 
482.35 -692.82 3.15 
482.14 -692.60 3.12 
482.50 -693.08 3.18 
481.87 -693.06 3.18 
481.28 -693.37 3.21 
481.27 -696.06 3.55 
480.82 -696.03 3.26 
473.60 -695.86 2.82 
478.78 -685.02 2.79 
467.70 -689.60 2.55 
476.30 -689.82 3.25 
473.05 -690.39 2.93 
468.14 -690.22 2.60 
467.61 -690.13 2.59 
480.99 -690.76 3.39 
473.07 -690.59 2.95 
471.74 -690.79 2.99 
481.68 -691.27 3.33 
480.97 -691.25 3.46 
473.10 -690.96 2.99 
471.86 -690.91 3.00 
481.38 -691.56 3.45 
473.10 -691.44 3.04 
467.91 -691.50 2.71 
482.57 -691.98 3.52 
481.70 -691.88 3.52 
481.16 -692.03 3.55 
482.17 -692.14 3.55 
481.79 -692.16 3.56 
481.12 -692.28 3.44 
482.45 -692.76 3.63 
482.09 -692.79 3.64 
481.76 -692.85 3.66 
476.76 -692.67 3.14 
482.55 -692.94 3.66 
480.56 -693.58 3.59 
478.75 -685.10 3.28 
478.72 -684.99 3.27 
476.33 -689.15 3.33 
476.38 -689.36 3.35 
468.49 -689.62 2.92 
467.55 -689.30 2.90 
477.54 -689.99 3.39 
477.34 -689.82 3.37 
475.64 -689.67 3.24 
467.80 -689.68 2.93 
477.79 -690.41 3.43 
476.07 -690.11 3.45 
467.66 -690.10 2.97 
481.47 -690.79 3.87 
480.42 -690.78 3.84 
477.35 -690.47 3.45 
476.62 -690.70 3.50 
468.86 -690.65 3.01 
468.49 -690.60 3.01 
467.71 -690.58 3.02 
481.57 -690.89 3.88 
480.49 -690.92 3.85 
477.12 -691.19 3.55 
476.83 -691.16 3.55 
476.12 -691.08 3.37 
481.07 -691.45 3.98 
477.07 -691.38 3.57 
468.01 -691.41 3.10 
467.02 -691.45 3.12 
482.06 -691.89 4.01 
481.72 -691.82 4.01 
476.80 -691.77 3.63 
482.35 -692.29 4.06 
481.89 -692.33 3.98 
481.62 -692.32 4.09 
482.31 -692.89 4.15 
481.93 -693.06 4.19 
481.34 -693.05 4.08 
477.23 -689.52 3.89 
476.64 -689.27 3.89 
476.09 -689.48 3.95 
475.38 -689.54 3.99 
476.89 -689.88 3.95 
476.64 -689.85 3.96 
476.13 -689.84 3.99 
475.32 -689.95 3.92 
472.44 -689.96 3.55 
476.38 -690.26 4.03 
473.10 -690.08 3.54 
471.79 -690.04 3.58 
476.39 -690.57 4.07 
472.79 -690.44 3.59 
471.76 -690.48 3.63 
467.16 -690.68 3.47 
476.79 -690.93 4.10 
476.43 -690.92 4.05 
473.54 -690.88 3.62 
482.10 -691.34 4.41 
481.64 -691.49 4.44 
476.90 -691.32 4.01 
474.08 -691.27 3.64 
467.16 -691.19 3.52 
473.19 -691.93 3.75 
481.54 -693.21 4.23 
480.85 -693.17 4.25 
478.36 -685.20 3.89 
466.86 -689.42 3.69 
467.32 -690.26 3.76 
466.94 -690.17 3.76 
468.35 -690.54 3.75 
467.32 -690.63 3.80 
466.89 -691.17 3.87 
481.44 -692.24 4.59 
480.21 -692.11 4.57 
466.75 -690.20 4.27 
476.53 -690.42 4.63 
476.80 -690.81 4.66 
475.56 -689.13 5.10 
476.01 -689.77 5.15 
472.06 -689.99 4.90 
467.32 -690.15 4.51 
476.74 -690.59 5.21 
472.28 -690.53 4.95 
466.86 -690.09 5.10 
471.63 -690.46 5.59 
480.73 -683.98 0.82 
481.01 -684.41 0.86 
480.79 -684.25 0.84 
482.29 -684.92 0.99 
481.98 -684.79 0.96 
482.69 -685.14 1.03 
481.08 -685.41 0.75 
480.79 -685.35 0.73 
481.21 -685.48 0.77 
483.77 -686.59 1.02 
483.55 -686.53 1.00 
483.07 -686.46 0.96 
482.73 -686.38 0.93 
484.25 -686.72 1.06 
483.96 -686.65 1.03 
485.33 -687.31 1.17 
485.53 -687.64 1.20 
485.74 -688.04 1.24 
485.92 -688.44 1.28 
486.15 -688.94 1.32 
486.02 -688.71 1.30 
487.41 -689.42 1.44 
487.02 -689.31 1.41 
486.62 -689.19 1.37 
486.34 -689.10 1.35 
488.51 -689.84 1.54 
488.22 -689.73 1.51 
487.86 -689.59 1.48 
489.41 -690.20 1.62 
489.06 -690.05 1.59 
488.71 -689.93 1.56 
490.26 -690.54 1.69 
489.84 -690.37 1.66 
485.71 -691.84 1.67 
485.21 -688.01 1.39 
485.19 -695.20 2.11 
485.04 -695.16 2.09 
484.69 -695.17 2.08 
486.01 -696.40 2.24 
487.69 -702.40 2.81 
488.86 -703.32 2.95 
488.57 -703.09 2.91 
489.03 -703.50 2.97 
489.66 -704.08 3.05 
490.33 -704.49 3.12 
490.06 -704.41 3.10 
489.83 -704.23 3.07 
479.09 -685.23 1.48 
476.45 -690.86 1.57 
481.65 -692.45 2.19 
481.13 -692.39 1.91 
478.98 -685.23 1.92 
478.66 -685.24 1.78 
476.88 -690.84 1.89 
476.42 -690.80 2.16 
473.22 -691.56 1.84 
473.14 -691.43 1.83 
481.49 -692.04 2.62 
481.66 -692.38 2.66 
481.49 -692.23 2.64 
473.71 -695.85 2.23 
478.96 -685.06 2.35 
476.70 -689.16 2.27 
476.79 -689.44 2.30 
476.63 -689.47 2.30 
476.63 -689.81 2.33 
476.96 -690.24 2.38 
476.61 -690.18 2.37 
477.35 -690.77 2.43 
476.94 -690.61 2.41 
472.37 -690.67 2.38 
472.22 -690.57 2.37 
467.27 -690.68 1.91 
477.27 -691.12 2.47 
467.37 -690.86 1.92 
477.18 -691.43 2.50 
476.86 -691.58 2.51 
472.75 -691.49 2.12 
480.03 -691.75 2.89 
476.99 -691.77 2.53 
481.55 -692.99 2.72 
481.13 -693.18 2.73 
481.42 -696.16 3.07 
478.91 -685.03 2.79 
476.28 -689.09 2.61 
477.37 -689.53 2.83 
476.30 -689.28 2.63 
467.97 -689.56 2.25 
477.81 -689.80 2.86 
477.15 -690.01 2.89 
476.13 -689.85 2.88 
478.27 -690.38 2.92 
477.29 -690.08 2.89 
476.27 -690.31 2.93 
478.45 -690.63 2.94 
477.77 -690.64 2.95 
477.28 -690.48 2.94 
477.05 -690.82 2.98 
476.70 -690.65 2.96 
468.54 -690.54 2.34 
480.83 -690.93 2.96 
478.54 -690.93 2.98 
477.96 -691.14 3.01 
477.90 -691.02 2.99 
468.21 -691.08 2.39 
481.54 -691.67 3.41 
478.04 -691.47 3.04 
468.37 -691.37 2.41 
481.69 -691.94 3.08 
481.29 -692.05 3.10 
480.92 -691.85 3.07 
480.53 -691.77 3.07 
477.25 -691.87 2.98 
477.11 -691.78 2.87 
482.19 -692.12 3.11 
481.76 -692.18 3.11 
477.18 -692.12 2.90 
476.91 -692.27 3.14 
482.45 -692.71 3.18 
481.87 -692.58 3.16 
482.59 -693.07 3.23 
481.70 -692.97 3.21 
481.41 -693.25 3.25 
481.26 -696.06 3.61 
475.95 -695.85 3.25 
481.46 -696.08 3.61 
480.92 -696.08 3.34 
478.57 -685.16 2.81 
477.38 -689.47 3.35 
476.54 -689.55 3.38 
467.58 -689.40 2.60 
477.95 -689.84 3.37 
477.26 -689.79 3.39 
467.77 -689.93 2.65 
477.92 -690.39 3.44 
477.83 -690.08 3.41 
477.25 -690.24 3.34 
475.89 -690.28 3.34 
472.96 -690.33 2.97 
472.61 -690.06 2.95 
468.22 -690.27 2.68 
467.73 -690.18 2.67 
478.48 -690.57 3.45 
478.06 -690.48 3.45 
477.19 -690.63 3.49 
472.56 -690.74 3.02 
471.50 -690.63 3.02 
481.18 -690.92 3.43 
477.71 -690.99 3.45 
473.26 -691.09 3.05 
472.94 -690.88 3.03 
471.94 -690.81 3.04 
481.27 -691.36 3.49 
473.24 -691.41 3.08 
481.38 -691.84 3.55 
480.85 -691.74 3.55 
480.13 -691.78 3.43 
482.21 -692.38 3.61 
481.61 -692.19 3.59 
481.21 -692.22 3.47 
482.42 -692.57 3.63 
482.09 -692.73 3.66 
481.45 -692.62 3.66 
482.19 -693.23 3.58 
473.22 -695.78 3.22 
478.87 -685.05 3.24 
478.55 -685.12 3.32 
476.49 -689.59 3.39 
468.77 -689.18 2.92 
468.50 -689.51 2.96 
468.18 -689.86 3.00 
476.63 -690.04 3.44 
472.79 -690.24 3.59 
481.31 -690.74 3.86 
480.81 -690.73 3.88 
476.90 -690.74 3.52 
472.84 -690.65 3.53 
481.61 -690.95 3.88 
480.85 -690.89 3.84 
477.25 -690.97 3.53 
473.45 -691.05 3.66 
472.96 -690.85 3.65 
481.21 -691.57 3.99 
480.80 -691.36 3.98 
481.69 -691.88 4.02 
481.27 -691.69 4.01 
480.48 -691.91 3.98 
477.14 -691.65 3.62 
482.48 -692.35 4.07 
482.16 -692.21 4.06 
481.71 -692.25 4.08 
476.80 -692.08 3.69 
482.19 -692.75 4.14 
481.10 -692.81 4.07 
481.33 -693.01 4.09 
476.82 -689.44 3.89 
476.95 -689.72 3.92 
476.47 -689.91 3.97 
477.13 -690.26 3.99 
476.91 -690.03 3.97 
476.64 -690.34 4.02 
476.52 -690.44 4.04 
476.96 -691.12 4.06 
476.23 -690.99 4.13 
472.82 -690.95 3.67 
482.11 -691.36 4.39 
481.73 -691.46 4.39 
476.96 -691.32 4.14 
476.32 -691.33 4.17 
480.70 -691.92 4.56 
481.95 -692.34 4.57 
481.55 -692.33 4.59 
481.18 -692.49 4.56 
478.60 -684.86 4.14 
476.00 -689.56 4.51 
466.97 -689.66 3.74 
476.48 -690.03 4.54 
472.70 -690.12 4.20 
467.24 -690.05 3.77 
467.02 -690.00 3.77 
476.70 -690.64 4.62 
468.10 -690.61 3.80 
467.32 -690.47 3.81 
476.77 -690.98 4.66 
472.66 -690.76 4.29 
467.81 -691.09 3.86 
467.53 -691.42 3.91 
467.18 -691.13 3.89 
481.89 -691.76 4.94 
468.27 -690.09 4.46 
466.53 -689.92 4.28 
468.12 -690.39 4.50 
475.74 -691.00 4.66 
476.12 -688.89 4.95 
476.26 -689.33 5.01 
476.19 -689.57 5.05 
476.56 -690.10 5.10 
467.36 -690.14 4.52 
476.83 -690.77 5.18 
472.94 -690.41 5.44 
472.22 -690.62 5.59 
472.02 -690.57 5.54 
478.79 -683.97 0.81 
485.71 -684.52 1.00 
480.88 -684.45 0.99 
480.44 -684.37 0.95 
479.82 -684.28 0.91 
479.17 -684.26 0.86 
478.83 -684.18 0.83 
485.85 -684.73 1.03 
485.78 -684.65 1.02 
480.02 -685.45 0.82 
482.67 -686.43 1.25 
485.15 -687.33 1.29 
484.78 -687.28 1.26 
484.38 -687.21 1.23 
484.03 -687.11 1.20 
483.65 -687.01 1.16 
485.82 -687.76 1.36 
485.63 -687.58 1.33 
485.39 -687.39 1.30 
485.94 -687.98 1.38 
486.20 -688.56 1.43 
486.11 -688.36 1.41 
486.24 -688.72 1.44 
486.37 -689.17 1.48 
487.20 -689.73 1.57 
486.79 -689.60 1.53 
486.52 -689.47 1.51 
488.36 -690.11 1.66 
487.94 -689.97 1.63 
487.57 -689.84 1.60 
489.52 -690.54 1.76 
489.16 -690.41 1.73 
488.76 -690.25 1.70 
490.35 -690.88 1.84 
489.94 -690.69 1.80 
489.70 -690.60 1.78 
485.89 -691.86 1.81 
479.51 -685.15 1.17 
483.86 -687.81 1.42 
484.68 -688.66 1.53 
484.99 -689.04 1.57 
481.85 -692.46 1.84 
485.54 -695.46 2.26 
485.04 -695.36 2.23 
484.86 -695.38 2.22 
485.93 -695.82 2.31 
486.04 -696.38 2.36 
486.19 -696.71 2.40 
486.07 -696.57 2.38 
486.25 -697.48 2.46 
488.64 -703.54 3.07 
489.70 -704.42 3.20 
489.45 -704.28 3.18 
489.86 -704.54 3.22 
479.29 -685.13 1.57 
477.12 -690.78 1.99 
477.14 -690.92 2.01 
481.86 -692.38 2.29 
481.40 -692.42 2.04 
481.32 -692.32 2.03 
479.28 -685.15 1.98 
478.87 -685.16 1.87 
476.62 -690.72 2.26 
476.67 -690.85 2.28 
473.43 -691.50 1.95 
472.96 -691.42 2.23 
481.76 -692.25 2.73 
481.38 -692.39 2.54 
481.59 -693.07 2.82 
473.96 -695.85 2.35 
466.95 -695.54 2.12 
479.24 -685.12 2.40 
478.86 -685.11 2.35 
477.11 -689.13 2.35 
476.77 -689.50 2.38 
476.83 -689.81 2.41 
477.30 -690.32 2.81 
477.14 -690.14 2.45 
476.65 -690.29 2.46 
476.40 -690.26 2.45 
477.50 -690.52 2.66 
477.14 -690.61 2.50 
476.71 -690.61 2.49 
473.88 -690.74 2.48 
473.61 -690.69 2.47 
472.97 -690.55 2.46 
467.50 -690.66 2.02 
481.06 -691.07 3.04 
476.97 -691.20 2.55 
472.79 -690.77 2.48 
467.61 -690.83 2.04 
480.97 -691.43 3.09 
480.43 -691.36 2.93 
477.15 -691.35 2.57 
481.30 -691.86 3.14 
481.11 -691.86 3.06 
480.63 -691.91 2.98 
480.29 -691.70 2.96 
477.10 -691.75 2.61 
482.24 -692.23 3.11 
481.82 -692.22 3.19 
481.51 -692.21 3.13 
482.95 -693.16 3.31 
482.79 -693.03 3.29 
481.91 -692.83 3.09 
481.15 -696.04 3.42 
479.14 -685.04 2.81 
478.82 -685.20 2.85 
477.54 -689.51 2.89 
476.34 -689.28 2.71 
468.74 -689.51 2.34 
468.33 -689.24 2.31 
468.04 -689.31 2.31 
467.51 -689.23 2.30 
477.82 -689.68 2.90 
476.53 -689.96 2.77 
476.39 -689.84 2.76 
477.85 -690.33 2.98 
477.29 -690.36 2.99 
477.17 -690.23 2.89 
475.50 -689.96 2.96 
468.54 -690.17 2.39 
467.99 -690.05 2.38 
478.54 -690.56 3.00 
478.32 -690.50 2.99 
477.81 -690.56 3.00 
477.46 -690.61 3.01 
468.82 -690.48 2.42 
482.49 -691.15 3.48 
478.48 -691.18 3.07 
478.21 -691.01 3.05 
477.38 -691.04 2.88 
477.08 -690.85 2.95 
478.63 -691.22 3.08 
477.49 -691.35 2.91 
477.16 -691.33 2.90 
481.98 -691.81 3.58 
480.99 -691.79 3.48 
480.68 -691.78 3.13 
478.09 -691.64 3.13 
477.40 -691.85 2.95 
468.49 -691.60 2.53 
482.54 -692.36 3.65 
482.06 -692.31 3.53 
481.38 -692.26 3.19 
480.75 -692.10 3.17 
477.41 -692.15 2.98 
482.73 -692.55 3.68 
481.81 -692.77 3.26 
477.40 -692.37 3.22 
481.90 -693.00 3.29 
482.46 -693.26 3.64 
482.14 -693.22 3.32 
482.00 -693.30 3.33 
481.50 -693.53 3.35 
481.67 -696.06 3.69 
481.49 -696.04 3.68 
479.12 -685.02 3.22 
477.44 -689.51 3.39 
476.06 -689.25 3.40 
468.83 -689.40 3.01 
477.43 -689.77 3.42 
476.91 -689.88 3.33 
476.57 -689.64 3.43 
468.91 -689.79 3.04 
468.78 -689.65 3.03 
467.48 -689.64 2.71 
478.07 -690.24 3.46 
478.02 -690.01 3.43 
477.64 -690.07 3.45 
476.89 -690.25 3.37 
476.83 -690.32 3.38 
475.83 -690.10 3.51 
473.21 -690.27 3.03 
472.79 -690.16 3.02 
469.04 -690.08 3.07 
481.72 -690.76 3.88 
478.73 -690.57 3.49 
478.13 -690.46 3.49 
477.89 -690.71 3.40 
477.11 -690.38 3.51 
468.78 -690.53 3.12 
468.38 -690.53 2.79 
482.04 -690.96 3.90 
481.82 -691.01 3.91 
481.13 -690.97 3.88 
477.82 -690.92 3.56 
473.70 -691.01 3.10 
473.15 -691.01 3.11 
472.78 -690.83 3.09 
468.50 -690.72 2.81 
481.33 -691.26 3.71 
481.23 -691.24 3.52 
476.99 -691.51 3.50 
473.43 -691.33 3.14 
468.18 -691.31 2.86 
467.91 -691.16 2.85 
481.68 -691.89 3.60 
481.44 -691.68 3.57 
477.23 -691.60 3.66 
473.26 -691.62 3.17 
473.18 -691.72 3.19 
482.30 -692.29 3.65 
481.89 -692.16 3.63 
477.05 -691.96 3.71 
473.16 -691.93 3.21 
482.89 -692.77 3.71 
482.42 -692.65 3.70 
482.97 -692.85 3.72 
479.02 -685.02 3.65 
467.60 -689.01 2.99 
467.69 -689.16 3.00 
477.02 -689.86 3.96 
472.20 -690.09 3.64 
481.07 -690.69 3.89 
473.02 -690.50 3.46 
481.22 -690.84 3.91 
477.82 -690.86 4.06 
473.22 -691.00 3.71 
472.53 -690.95 3.73 
472.14 -690.73 3.71 
468.47 -690.86 3.16 
480.99 -691.31 3.92 
473.97 -691.38 3.73 
473.06 -691.30 3.75 
472.58 -691.12 3.74 
468.45 -691.35 3.21 
468.03 -691.32 3.22 
468.48 -691.53 3.23 
482.10 -692.18 4.09 
481.94 -692.07 4.08 
481.13 -692.00 4.09 
480.47 -692.09 4.04 
482.56 -692.56 4.14 
482.36 -692.68 4.16 
481.95 -692.72 4.18 
480.94 -692.53 4.18 
482.52 -692.90 4.20 
478.86 -684.90 4.08 
476.95 -690.17 4.00 
476.48 -690.03 4.01 
477.22 -690.64 4.06 
476.86 -690.51 4.06 
476.78 -690.56 4.07 
468.10 -690.41 3.82 
477.37 -690.99 4.10 
477.08 -690.93 4.10 
482.26 -691.24 4.38 
467.79 -691.11 3.91 
481.77 -691.72 4.44 
482.11 -692.30 4.57 
481.78 -692.25 4.58 
481.07 -692.14 4.60 
480.72 -692.05 4.54 
477.07 -689.43 4.41 
477.15 -689.57 4.43 
476.62 -690.23 4.56 
473.52 -690.38 4.21 
473.10 -690.36 4.23 
472.92 -690.90 4.32 
467.61 -690.97 3.90 
482.07 -691.71 4.92 
482.19 -692.07 4.99 
476.01 -688.93 4.95 
476.39 -689.41 4.99 
476.47 -689.62 5.01 
475.90 -689.60 5.09 
468.21 -690.14 4.49 
467.51 -690.02 4.52 
477.33 -690.33 5.05 
472.69 -690.54 4.90 
467.48 -690.26 4.55 
476.98 -690.83 5.16 
467.30 -690.75 4.62 
476.06 -689.30 5.63 
467.82 -689.55 5.15 
472.51 -690.33 5.50 
472.20 -690.24 5.50 
478.41 -683.87 0.85 
480.79 -684.42 1.06 
480.12 -684.31 1.00 
479.80 -684.27 0.98 
479.34 -684.23 0.94 
478.84 -684.20 0.90 
478.50 -684.13 0.88 
480.72 -684.56 1.06 
479.94 -685.23 0.87 
479.68 -685.05 0.84 
480.11 -685.47 0.89 
484.01 -687.23 1.27 
483.65 -687.11 1.24 
485.56 -687.56 1.40 
485.21 -687.47 1.37 
484.82 -687.41 1.34 
484.42 -687.33 1.31 
485.99 -687.94 1.45 
485.75 -687.75 1.42 
486.21 -688.42 1.50 
486.14 -688.23 1.48 
486.32 -688.71 1.52 
486.44 -689.11 1.55 
486.59 -689.66 1.59 
486.52 -689.45 1.58 
488.49 -690.03 1.63 
487.51 -690.03 1.68 
487.17 -689.90 1.65 
486.77 -689.76 1.61 
488.70 -690.49 1.78 
488.35 -690.35 1.75 
487.97 -690.20 1.72 
487.75 -690.12 1.70 
489.52 -690.86 1.85 
488.91 -690.57 1.80 
490.25 -691.26 1.92 
489.94 -691.10 1.89 
489.69 -690.96 1.87 
490.48 -691.37 1.94 
485.55 -692.27 1.88 
479.56 -685.07 1.21 
479.59 -685.36 1.24 
482.08 -686.64 1.29 
483.13 -688.19 1.46 
484.21 -689.82 1.64 
484.11 -689.75 1.63 
484.89 -690.75 1.75 
485.44 -691.80 1.85 
485.79 -695.60 2.34 
485.62 -695.49 2.32 
484.97 -695.43 2.28 
484.85 -695.36 2.27 
486.10 -696.65 2.44 
486.22 -696.91 2.47 
487.40 -703.38 3.05 
487.76 -703.75 3.10 
479.81 -685.17 1.48 
479.60 -685.04 1.50 
479.77 -685.32 1.49 
477.14 -690.72 2.01 
477.24 -690.80 2.02 
481.93 -692.37 2.32 
481.99 -692.48 2.33 
481.89 -696.17 2.69 
479.38 -685.18 1.98 
479.37 -685.08 1.97 
476.98 -689.05 2.34 
477.39 -690.79 2.31 
473.59 -691.53 1.98 
481.93 -692.32 2.75 
481.98 -692.41 2.77 
474.04 -695.85 2.38 
479.61 -685.16 2.35 
479.35 -685.14 2.37 
478.04 -690.18 2.80 
477.96 -690.63 2.84 
477.06 -690.70 2.51 
476.82 -690.49 2.48 
476.20 -690.55 2.48 
475.90 -690.60 2.48 
475.60 -690.42 2.46 
474.35 -690.52 2.46 
473.02 -690.63 2.46 
472.81 -690.55 2.45 
476.18 -690.74 2.50 
475.97 -690.73 2.50 
474.04 -690.98 2.50 
473.07 -690.80 2.48 
468.32 -690.74 2.06 
481.04 -691.47 3.09 
480.74 -691.32 3.07 
478.31 -691.52 2.93 
477.86 -691.31 2.90 
477.19 -691.32 2.57 
473.57 -691.30 2.53 
482.53 -691.96 3.15 
481.02 -691.72 3.04 
473.34 -691.65 2.56 
481.91 -692.25 3.19 
481.07 -692.20 3.18 
478.16 -692.14 2.99 
482.53 -692.42 3.21 
482.36 -692.38 3.13 
481.25 -692.36 3.20 
481.14 -692.51 3.22 
483.06 -693.01 3.21 
482.74 -692.87 3.27 
482.12 -693.02 3.29 
481.75 -692.80 3.26 
482.31 -693.37 3.25 
481.80 -696.04 3.31 
476.76 -695.91 3.06 
479.55 -685.13 2.80 
479.28 -685.01 2.74 
477.51 -689.16 2.83 
468.32 -689.23 2.30 
477.48 -689.74 2.89 
468.25 -689.62 2.33 
477.85 -690.10 2.93 
477.43 -690.05 2.93 
477.18 -690.04 2.93 
476.39 -690.04 2.94 
473.26 -690.24 2.99 
468.56 -690.02 2.55 
468.47 -690.04 2.37 
478.47 -690.66 2.99 
478.29 -690.65 2.99 
477.87 -690.43 2.97 
477.26 -690.31 2.96 
473.88 -690.58 2.91 
473.39 -690.40 3.01 
473.22 -690.64 3.04 
469.17 -690.47 2.53 
468.80 -690.28 2.39 
478.64 -691.09 3.04 
477.46 -691.08 3.05 
474.27 -690.77 3.04 
469.27 -690.88 2.81 
482.53 -691.53 3.51 
482.43 -691.43 3.50 
481.68 -691.40 3.41 
478.10 -691.33 3.08 
474.02 -691.32 3.11 
473.43 -691.22 3.10 
469.13 -691.27 2.73 
482.25 -691.73 3.49 
481.80 -691.73 3.45 
481.53 -691.72 3.45 
480.86 -691.69 3.45 
477.22 -691.64 3.12 
473.90 -691.79 3.16 
468.67 -691.71 2.53 
482.59 -692.23 3.62 
482.22 -692.08 3.49 
477.98 -692.18 3.18 
477.43 -692.25 3.19 
481.68 -692.64 3.69 
480.55 -692.50 3.22 
477.37 -692.48 3.22 
482.61 -692.73 3.69 
483.08 -693.29 3.70 
482.13 -693.48 3.66 
481.89 -693.13 3.61 
476.89 -695.83 3.35 
474.19 -695.75 3.31 
481.77 -696.06 3.69 
481.54 -696.02 3.68 
479.54 -685.09 3.24 
479.22 -685.01 3.14 
479.49 -685.21 3.25 
467.90 -688.92 2.94 
468.54 -689.30 2.96 
467.86 -689.26 2.97 
477.05 -689.71 3.38 
476.77 -689.65 3.38 
468.77 -689.41 2.97 
478.50 -690.07 3.39 
478.07 -690.24 3.42 
478.02 -690.10 3.40 
477.08 -690.03 3.42 
468.98 -690.01 3.03 
468.81 -689.81 3.01 
468.22 -690.16 2.74 
478.19 -690.47 3.40 
477.97 -690.47 3.45 
477.48 -690.28 3.44 
477.13 -690.45 3.47 
476.71 -690.37 3.47 
472.72 -690.34 3.01 
469.27 -690.24 3.05 
481.33 -691.09 3.90 
478.72 -690.76 3.47 
478.15 -690.78 3.49 
477.79 -690.82 3.39 
473.11 -690.85 3.26 
468.73 -690.82 3.12 
482.09 -691.19 3.89 
481.79 -691.26 3.91 
481.40 -691.28 3.92 
478.26 -691.31 3.56 
477.44 -691.19 3.56 
468.52 -691.26 3.17 
481.98 -691.78 3.92 
481.53 -691.78 3.97 
478.08 -691.67 3.54 
477.37 -691.62 3.62 
477.16 -691.70 3.64 
468.85 -691.76 2.89 
482.87 -691.99 4.00 
482.12 -692.13 4.04 
481.56 -691.90 4.02 
473.65 -692.16 3.20 
482.97 -692.62 4.10 
482.45 -692.66 4.12 
483.09 -692.75 4.07 
482.71 -692.94 4.05 
482.01 -693.48 3.81 
481.70 -693.63 3.83 
476.72 -688.67 3.74 
478.22 -689.37 3.77 
476.69 -689.22 3.82 
468.44 -689.34 3.40 
478.30 -689.58 3.79 
475.95 -689.49 3.89 
468.57 -689.75 3.43 
476.96 -690.07 3.92 
476.56 -689.98 3.93 
474.03 -690.09 3.52 
473.53 -690.10 3.54 
477.82 -690.46 3.94 
471.87 -690.51 3.64 
481.94 -690.78 4.25 
477.87 -690.83 3.99 
477.53 -690.88 4.01 
476.89 -690.65 4.01 
472.96 -690.93 3.66 
472.75 -690.84 3.65 
472.00 -690.63 3.65 
477.85 -691.22 4.05 
477.58 -691.21 4.06 
473.39 -691.16 3.67 
472.98 -691.11 3.68 
468.70 -691.15 3.57 
482.46 -691.66 4.38 
482.27 -691.64 4.39 
481.97 -691.60 4.40 
468.76 -691.45 3.59 
483.21 -692.10 4.37 
482.65 -692.08 4.45 
482.84 -692.31 4.49 
479.01 -684.90 3.93 
477.08 -689.39 4.31 
477.76 -689.45 4.28 
477.21 -689.67 4.35 
477.11 -689.49 4.33 
473.16 -689.59 4.05 
469.31 -689.73 3.64 
468.02 -689.62 3.68 
467.90 -689.48 3.67 
469.23 -689.94 3.67 
468.38 -689.93 3.70 
473.19 -690.53 4.18 
468.51 -690.52 3.76 
468.07 -690.50 3.77 
472.99 -690.89 4.17 
469.21 -690.85 3.77 
468.98 -690.74 3.77 
468.50 -690.72 3.78 
482.51 -691.35 4.75 
469.18 -691.05 3.80 
468.03 -690.97 3.83 
482.40 -691.81 4.85 
482.62 -692.81 4.59 
477.43 -688.98 4.70 
476.29 -689.20 4.34 
476.50 -689.58 4.38 
476.84 -690.44 4.49 
476.64 -690.40 4.50 
477.35 -690.80 4.51 
467.09 -689.53 4.40 
477.22 -690.47 4.97 
467.56 -690.44 4.48 
477.14 -690.69 5.02 
472.49 -689.80 5.30 
473.53 -690.20 5.26 
472.53 -690.37 5.38 
472.62 -690.52 5.39 
467.68 -690.76 5.05 
467.76 -689.57 5.66 
467.97 -689.72 5.66 
483.56 -684.30 1.09 
479.00 -684.33 1.10 
478.75 -684.25 1.08 
478.29 -684.22 1.05 
477.95 -684.17 1.02 
483.73 -684.65 1.13 
479.94 -684.75 1.20 
479.55 -684.53 1.16 
478.97 -684.45 1.11 
475.16 -684.52 0.67 
474.78 -684.44 0.64 
479.94 -685.15 1.04 
478.22 -685.17 0.92 
477.80 -685.12 0.89 
477.50 -685.08 0.87 
477.16 -685.03 0.84 
476.74 -684.93 0.81 
479.98 -685.36 1.06 
478.36 -685.24 0.94 
485.48 -687.15 1.42 
481.90 -687.52 1.32 
485.44 -688.04 1.59 
485.07 -688.01 1.56 
484.61 -687.96 1.53 
484.25 -687.89 1.50 
483.87 -687.82 1.47 
483.47 -687.77 1.44 
483.03 -687.75 1.41 
482.65 -687.69 1.38 
481.35 -687.93 1.50 
486.49 -688.47 1.68 
486.23 -688.27 1.65 
485.83 -688.10 1.62 
486.59 -688.69 1.70 
481.83 -688.62 1.58 
486.72 -689.07 1.73 
486.85 -689.62 1.77 
486.79 -689.39 1.75 
486.88 -689.83 1.79 
487.72 -690.45 1.87 
487.42 -690.34 1.85 
487.07 -690.21 1.82 
487.92 -690.51 1.89 
489.65 -691.28 2.04 
490.17 -691.50 2.09 
489.87 -691.37 2.06 
484.19 -691.89 1.94 
485.18 -694.81 2.18 
485.07 -694.73 2.17 
485.93 -697.44 2.38 
479.90 -685.12 1.39 
483.61 -690.80 1.83 
482.23 -692.41 2.06 
485.58 -695.72 2.49 
485.36 -695.72 2.48 
485.11 -695.73 2.47 
486.14 -696.18 2.56 
472.80 -696.55 1.91 
482.94 -697.01 2.46 
487.14 -703.21 3.17 
486.85 -702.95 3.14 
487.50 -703.54 3.22 
487.29 -703.36 3.19 
487.96 -703.87 3.27 
487.71 -703.72 3.25 
488.19 -704.09 3.30 
479.73 -685.15 1.74 
479.45 -685.07 1.61 
479.24 -684.93 1.59 
479.42 -685.38 1.63 
477.06 -690.72 1.91 
477.58 -690.81 2.18 
477.47 -690.74 2.17 
477.09 -690.85 1.92 
482.22 -692.36 2.47 
481.72 -692.32 2.26 
482.31 -692.41 2.48 
481.79 -692.41 2.27 
482.14 -696.13 2.84 
467.19 -696.16 1.85 
479.69 -685.14 2.10 
477.29 -689.04 2.46 
477.01 -690.69 2.43 
477.47 -690.76 2.64 
477.05 -690.81 2.44 
468.47 -690.82 1.92 
477.53 -691.33 2.70 
473.84 -691.45 2.13 
473.35 -691.38 2.39 
482.23 -692.28 2.88 
481.77 -692.30 2.71 
482.30 -692.36 2.90 
469.75 -693.44 2.18 
474.37 -695.81 2.54 
481.57 -696.04 3.05 
479.68 -685.09 2.46 
479.27 -685.10 2.46 
468.68 -689.01 2.41 
477.76 -689.39 2.96 
477.26 -689.42 2.97 
468.83 -689.36 2.44 
468.27 -689.40 2.44 
477.81 -689.65 2.95 
476.90 -689.66 2.86 
468.89 -689.74 2.48 
468.60 -689.66 2.47 
477.99 -690.23 3.05 
477.75 -689.95 3.02 
468.79 -690.08 2.51 
478.83 -690.67 3.10 
478.57 -690.63 3.10 
478.12 -690.54 3.09 
477.67 -690.46 2.94 
476.04 -690.48 2.60 
474.70 -690.46 2.58 
474.25 -690.53 2.59 
473.40 -690.64 2.59 
469.39 -690.43 2.54 
478.89 -691.05 3.15 
477.20 -691.05 2.99 
476.48 -690.71 2.63 
474.29 -690.88 2.62 
467.97 -690.65 2.20 
481.59 -691.43 3.19 
481.27 -691.43 3.19 
479.15 -691.36 3.18 
478.99 -691.15 3.16 
478.52 -691.19 3.17 
478.00 -691.30 3.02 
477.48 -691.39 3.03 
482.82 -691.86 3.26 
481.21 -691.92 3.12 
480.78 -691.72 3.13 
477.69 -691.70 2.90 
474.04 -691.74 2.71 
473.73 -691.63 2.69 
469.25 -691.57 2.65 
482.87 -691.99 3.27 
482.19 -692.16 3.29 
481.80 -692.17 3.26 
481.28 -692.01 3.13 
477.84 -692.08 3.10 
482.83 -692.55 3.35 
482.69 -692.43 3.33 
481.25 -692.37 3.31 
480.88 -692.43 3.32 
483.22 -692.95 3.41 
482.95 -692.80 3.38 
482.30 -692.76 3.22 
474.31 -695.79 3.14 
482.08 -696.10 3.32 
481.59 -696.03 3.56 
477.08 -695.94 3.20 
479.60 -685.11 2.82 
479.46 -685.01 3.01 
479.56 -685.09 3.18 
467.41 -689.22 2.42 
476.37 -689.81 3.02 
476.31 -689.55 2.99 
478.73 -690.07 3.47 
477.36 -690.05 3.42 
468.42 -690.10 2.87 
478.90 -690.61 3.54 
477.40 -690.57 3.10 
474.02 -690.27 3.10 
472.84 -690.60 3.15 
469.04 -690.20 2.88 
478.97 -690.75 3.56 
477.97 -690.77 3.30 
474.19 -690.72 3.15 
473.22 -690.94 3.18 
473.03 -690.68 3.15 
482.92 -691.50 3.60 
482.44 -691.43 3.60 
481.85 -691.39 3.51 
478.21 -691.29 3.54 
473.71 -691.38 3.23 
482.58 -691.54 3.61 
481.79 -691.88 3.67 
481.25 -691.76 3.59 
480.89 -691.68 3.65 
480.53 -691.68 3.56 
468.50 -691.70 3.01 
482.88 -692.21 3.71 
482.23 -692.15 3.71 
481.69 -692.12 3.64 
481.40 -692.03 3.59 
478.70 -691.95 3.26 
473.54 -691.89 3.29 
483.01 -692.35 3.73 
481.65 -692.53 3.65 
477.74 -692.43 3.32 
483.26 -693.24 3.87 
482.87 -693.32 3.74 
481.55 -693.12 3.72 
482.30 -693.49 3.91 
482.01 -693.63 3.94 
481.65 -693.51 3.77 
476.56 -695.80 3.47 
473.86 -695.69 3.43 
482.00 -696.05 3.81 
479.19 -685.03 3.32 
477.31 -689.28 3.41 
477.02 -689.19 3.40 
468.84 -689.04 3.04 
468.36 -689.07 3.06 
468.21 -689.35 3.09 
478.44 -689.58 3.86 
477.63 -689.66 3.45 
477.39 -689.60 3.44 
468.90 -689.56 3.10 
468.52 -689.39 3.08 
468.27 -689.54 3.10 
477.90 -690.05 3.49 
477.61 -690.11 3.51 
477.45 -690.07 3.50 
476.69 -690.04 3.43 
474.23 -689.98 3.59 
472.68 -690.18 3.51 
469.20 -689.90 3.13 
468.76 -689.93 3.14 
478.34 -690.58 3.55 
477.74 -690.47 3.55 
477.43 -690.58 3.57 
474.09 -690.51 3.66 
473.86 -690.30 3.64 
469.98 -690.54 3.18 
469.28 -690.41 3.18 
481.72 -690.76 3.91 
478.45 -690.78 3.57 
473.03 -690.82 3.57 
469.33 -690.80 3.22 
482.13 -691.45 4.02 
481.53 -691.22 3.99 
481.29 -691.23 3.95 
478.85 -691.17 3.62 
478.42 -691.39 3.66 
477.11 -691.21 3.54 
468.95 -691.29 3.28 
483.18 -691.87 4.06 
482.97 -691.76 4.05 
482.07 -691.64 4.05 
481.52 -691.67 4.07 
481.20 -691.64 4.00 
478.08 -691.48 3.68 
468.37 -691.62 3.32 
483.29 -692.72 4.21 
482.78 -692.69 4.21 
481.36 -692.89 4.16 
476.99 -689.24 3.88 
478.44 -689.71 3.88 
477.15 -689.71 3.93 
476.92 -689.62 3.93 
478.46 -689.90 3.90 
476.72 -690.17 4.02 
473.50 -690.11 3.63 
473.44 -689.97 3.61 
468.80 -689.79 3.54 
478.49 -690.41 3.98 
478.23 -690.44 3.99 
477.76 -690.46 4.02 
473.86 -690.49 3.67 
469.67 -690.46 3.80 
469.43 -690.14 3.77 
468.33 -690.38 3.61 
482.28 -690.94 4.33 
482.17 -690.79 4.31 
481.74 -690.73 4.30 
477.54 -690.79 4.07 
472.46 -690.75 3.74 
478.00 -691.24 4.12 
477.72 -691.17 4.12 
477.23 -691.24 4.07 
482.70 -691.84 4.48 
482.37 -691.66 4.46 
483.16 -692.00 4.50 
482.93 -691.92 4.49 
481.64 -692.00 4.52 
482.98 -692.25 4.55 
482.87 -692.80 4.66 
481.58 -693.04 4.30 
477.50 -689.09 4.29 
468.18 -689.29 3.73 
478.03 -689.70 4.35 
477.80 -689.70 4.36 
475.98 -689.41 4.44 
472.16 -689.71 4.19 
468.31 -689.64 3.76 
468.02 -689.58 3.76 
478.30 -690.15 4.41 
473.91 -689.81 4.11 
473.40 -689.85 4.15 
468.49 -689.87 3.78 
468.21 -689.91 3.79 
474.39 -690.47 4.18 
474.01 -690.53 4.20 
472.84 -690.27 4.23 
469.20 -690.45 3.82 
468.30 -690.26 3.83 
477.65 -690.98 4.58 
477.21 -690.60 4.55 
472.49 -690.67 4.30 
469.17 -690.89 3.87 
468.56 -690.58 3.86 
482.96 -691.23 4.76 
472.66 -690.96 4.33 
482.79 -691.54 4.83 
482.55 -691.54 4.84 
482.69 -692.37 5.01 
477.61 -689.12 4.74 
477.33 -689.46 4.83 
477.19 -689.90 4.91 
468.03 -690.27 4.41 
477.72 -691.04 5.07 
476.41 -690.15 5.06 
472.30 -690.67 4.90 
468.05 -690.74 4.56 
467.96 -690.99 4.60 
467.95 -689.85 5.12 
468.12 -690.28 5.03 
473.05 -690.57 5.39 
472.68 -690.62 5.44 
467.90 -688.96 5.67 
467.53 -689.64 5.74 
467.58 -689.98 5.77 
476.26 -683.76 1.02 
478.27 -684.26 1.19 
478.05 -684.20 1.17 
477.62 -684.17 1.14 
477.11 -684.14 1.10 
476.67 -684.10 1.07 
478.76 -684.47 1.24 
478.48 -684.42 1.22 
475.07 -684.43 0.80 
474.86 -684.38 0.78 
480.04 -685.08 1.19 
478.38 -685.14 1.08 
478.02 -685.08 1.05 
477.65 -685.03 1.02 
477.17 -684.93 0.98 
476.75 -684.81 0.94 
480.16 -685.31 1.21 
478.48 -685.19 1.09 
485.26 -686.66 1.54 
481.99 -687.49 1.47 
481.54 -687.41 1.43 
485.47 -688.03 1.73 
485.10 -688.00 1.70 
484.74 -687.95 1.68 
484.34 -687.89 1.65 
483.97 -687.81 1.62 
483.58 -687.77 1.59 
483.11 -687.75 1.56 
482.72 -687.67 1.53 
486.65 -688.44 1.83 
486.36 -688.23 1.80 
485.94 -688.09 1.76 
485.66 -688.05 1.74 
486.72 -688.60 1.84 
486.89 -689.04 1.88 
486.97 -689.43 1.91 
487.05 -689.85 1.94 
487.86 -690.40 2.02 
487.52 -690.29 1.99 
487.19 -690.16 1.96 
488.26 -690.54 2.05 
488.06 -690.47 2.04 
489.81 -691.23 2.19 
489.53 -691.09 2.16 
490.25 -691.43 2.23 
490.00 -691.32 2.20 
483.61 -692.43 2.07 
484.50 -694.92 2.28 
485.52 -695.73 2.39 
485.82 -697.35 2.51 
480.07 -685.09 1.52 
479.57 -685.00 1.73 
480.08 -685.40 1.47 
482.29 -689.60 1.81 
483.00 -690.48 1.91 
486.15 -695.48 2.63 
485.93 -695.38 2.61 
484.97 -695.42 2.56 
486.45 -695.77 2.67 
486.36 -695.64 2.66 
473.50 -696.54 2.06 
468.43 -696.24 1.79 
483.30 -697.03 2.60 
483.17 -696.97 2.59 
475.06 -696.99 2.17 
474.76 -696.81 2.14 
486.80 -697.75 2.85 
486.71 -699.42 2.97 
486.48 -701.26 3.11 
487.15 -701.94 3.20 
487.56 -702.33 3.25 
487.36 -702.20 3.23 
488.30 -703.18 3.36 
488.14 -703.08 3.35 
488.74 -703.54 3.42 
488.51 -703.34 3.39 
489.56 -704.37 3.53 
489.30 -704.10 3.49 
489.72 -704.55 3.55 
477.72 -690.79 2.28 
477.24 -690.75 2.04 
474.03 -691.44 2.22 
481.89 -692.34 2.39 
482.48 -692.45 2.60 
482.42 -692.36 2.59 
481.96 -692.42 2.39 
482.31 -696.12 2.95 
466.86 -696.05 1.93 
467.81 -696.29 1.99 
479.86 -685.09 2.34 
479.91 -685.17 2.18 
477.66 -690.78 2.73 
477.26 -690.83 2.55 
477.20 -690.72 2.53 
481.91 -692.26 2.81 
482.49 -692.37 2.99 
481.97 -692.39 2.82 
469.97 -693.39 2.28 
474.61 -695.83 2.64 
467.53 -695.52 2.39 
481.74 -696.05 3.16 
474.00 -695.86 2.89 
479.80 -685.04 2.84 
479.83 -685.14 2.85 
477.85 -689.22 3.00 
477.44 -689.31 3.01 
468.17 -689.20 2.49 
478.54 -689.50 3.02 
477.70 -689.58 3.04 
477.38 -689.67 3.05 
468.77 -689.65 2.53 
468.35 -689.56 2.52 
478.63 -690.14 3.10 
477.83 -689.95 3.02 
477.62 -689.90 3.08 
469.18 -690.07 2.58 
468.61 -690.03 2.57 
478.56 -690.49 3.14 
477.73 -690.43 3.08 
477.48 -690.42 3.11 
474.43 -690.55 2.67 
473.89 -690.58 2.66 
469.37 -690.33 2.60 
478.86 -690.71 3.17 
478.69 -690.67 3.17 
473.69 -690.85 2.69 
469.66 -690.94 2.66 
469.52 -690.81 2.65 
468.16 -690.69 2.29 
481.54 -691.44 3.27 
478.88 -691.20 3.23 
478.55 -691.25 3.24 
473.90 -691.37 2.74 
469.64 -691.34 2.70 
469.35 -691.31 2.70 
481.52 -691.75 3.31 
481.13 -691.71 3.30 
478.72 -691.69 3.29 
478.14 -691.81 3.15 
477.82 -691.49 3.12 
470.08 -691.49 2.72 
482.41 -692.24 3.38 
482.29 -692.05 3.35 
481.73 -691.99 3.32 
478.72 -691.92 3.32 
469.02 -691.90 2.75 
483.36 -692.46 3.42 
482.80 -692.41 3.27 
482.57 -692.44 3.41 
482.12 -692.38 3.33 
483.49 -692.95 3.49 
482.94 -692.78 3.46 
481.70 -696.03 3.65 
479.75 -685.05 3.18 
479.42 -685.16 2.94 
467.64 -689.09 2.84 
478.15 -689.57 3.46 
477.78 -689.56 3.47 
477.57 -689.72 3.49 
473.93 -689.70 3.09 
478.59 -690.04 3.51 
478.02 -690.02 3.52 
477.91 -689.95 3.52 
468.35 -689.87 2.91 
478.99 -690.53 3.57 
478.61 -690.38 3.56 
477.83 -690.38 3.58 
477.20 -690.60 3.53 
474.19 -690.24 3.14 
473.76 -690.46 2.99 
473.28 -690.32 2.97 
479.03 -690.77 3.61 
478.48 -690.81 3.62 
474.55 -690.76 3.20 
474.33 -690.72 3.20 
473.33 -690.74 3.21 
473.04 -690.62 3.10 
469.26 -690.59 2.98 
469.01 -690.73 2.99 
479.39 -691.16 3.66 
478.71 -691.12 3.66 
468.97 -691.17 3.03 
468.63 -691.09 3.02 
482.55 -691.68 3.70 
482.08 -691.62 3.69 
481.38 -691.74 3.72 
480.98 -691.67 3.66 
468.91 -691.41 3.05 
483.01 -692.12 3.77 
482.52 -692.12 3.73 
482.14 -692.18 3.72 
481.95 -691.99 3.75 
474.10 -691.80 3.32 
468.79 -691.85 3.09 
483.44 -692.51 3.83 
482.84 -692.66 3.73 
482.40 -692.48 3.82 
481.91 -692.49 3.70 
483.02 -692.74 3.86 
483.48 -693.23 3.94 
483.05 -693.26 3.80 
482.18 -693.11 3.92 
481.73 -693.16 3.79 
482.25 -693.54 3.99 
474.07 -695.73 3.51 
473.85 -695.70 3.50 
470.26 -695.65 3.14 
482.36 -696.09 3.91 
482.07 -696.08 3.90 
476.81 -695.87 3.55 
479.41 -685.08 3.34 
477.32 -689.37 3.90 
468.91 -689.03 3.09 
468.68 -689.30 3.12 
478.20 -689.57 3.89 
476.90 -689.73 3.51 
469.12 -689.53 3.13 
468.65 -689.48 3.14 
478.41 -689.98 3.94 
478.25 -689.94 3.94 
469.21 -690.08 3.19 
469.11 -689.92 3.17 
478.62 -690.47 4.01 
478.28 -690.42 4.01 
477.28 -690.27 3.58 
474.20 -690.36 3.67 
473.74 -690.31 3.68 
472.94 -690.33 3.56 
469.64 -690.24 3.20 
469.30 -690.25 3.21 
483.10 -690.94 3.95 
482.07 -690.86 3.96 
481.96 -690.82 3.96 
481.52 -690.81 3.93 
474.02 -690.87 3.74 
473.81 -690.64 3.72 
469.52 -690.84 3.27 
483.14 -691.07 3.98 
482.18 -691.08 4.00 
481.77 -691.22 3.97 
481.52 -691.28 3.99 
474.21 -691.09 3.76 
473.75 -691.19 3.71 
473.18 -691.07 3.63 
469.81 -690.95 3.27 
469.48 -691.17 3.30 
482.13 -691.51 4.07 
474.01 -691.42 3.81 
473.93 -691.67 3.85 
469.26 -691.46 3.34 
483.47 -691.89 4.11 
482.98 -692.11 4.16 
482.58 -692.17 4.18 
482.30 -692.05 4.16 
481.87 -691.96 4.07 
483.50 -692.59 4.24 
483.30 -692.77 4.27 
477.27 -689.63 3.94 
469.25 -689.57 3.74 
468.94 -689.60 3.66 
468.42 -689.51 3.76 
477.38 -689.88 3.97 
468.61 -689.93 3.70 
474.28 -690.46 4.19 
472.58 -690.48 3.73 
469.46 -690.10 3.79 
469.02 -690.41 3.64 
468.46 -690.28 3.85 
482.43 -690.96 4.36 
481.67 -690.75 4.35 
481.26 -690.78 4.35 
478.21 -690.62 4.04 
474.48 -690.66 4.21 
469.15 -690.73 3.77 
481.62 -691.34 4.46 
478.38 -691.02 4.10 
478.14 -691.30 4.15 
469.71 -690.97 3.89 
468.88 -691.13 3.71 
468.48 -691.08 3.71 
468.26 -690.91 3.70 
482.07 -691.68 4.51 
481.81 -691.58 4.46 
469.19 -691.43 3.96 
469.00 -691.33 3.95 
483.32 -692.10 4.55 
483.01 -691.99 4.54 
482.63 -691.91 4.53 
477.19 -692.10 4.21 
483.14 -692.81 4.70 
477.50 -692.57 4.37 
482.73 -693.03 4.75 
482.47 -693.07 4.65 
477.57 -689.45 4.34 
477.66 -690.00 4.42 
477.30 -690.11 4.46 
473.33 -690.05 4.18 
473.13 -689.92 4.18 
477.96 -690.29 4.45 
477.36 -690.27 4.49 
473.60 -690.25 4.20 
473.68 -690.60 4.24 
471.88 -690.60 4.22 
469.31 -690.65 4.32 
482.89 -691.32 4.80 
477.83 -691.18 4.61 
477.28 -691.02 4.61 
468.85 -691.24 3.95 
482.99 -691.55 4.84 
482.40 -691.59 4.88 
482.17 -692.09 4.99 
477.45 -689.16 4.74 
477.67 -689.48 4.78 
473.63 -690.05 4.70 
468.79 -690.03 4.28 
467.81 -689.91 4.47 
473.64 -690.23 4.72 
468.15 -690.16 4.48 
478.08 -690.87 5.00 
477.48 -690.63 5.00 
468.40 -690.60 4.35 
468.28 -690.52 4.52 
468.10 -690.89 4.58 
476.37 -691.39 5.22 
468.11 -689.98 5.10 
467.54 -688.97 5.66 
467.96 -689.19 5.64 
472.64 -689.73 5.88 
477.43 -684.22 1.25 
477.15 -684.16 1.23 
476.72 -684.13 1.20 
476.48 -684.08 1.18 
475.97 -684.05 1.14 
475.57 -684.00 1.11 
475.36 -683.96 1.10 
473.47 -684.23 0.81 
473.16 -684.20 0.78 
472.90 -684.20 0.77 
472.41 -684.15 0.73 
471.98 -684.14 0.70 
471.66 -684.08 0.68 
475.25 -684.52 0.95 
474.88 -684.47 0.92 
474.45 -684.43 0.89 
483.54 -685.05 1.44 
480.23 -685.09 1.32 
480.12 -685.00 1.30 
476.78 -685.00 1.08 
480.27 -685.24 1.33 
477.94 -685.42 1.18 
477.67 -685.29 1.16 
477.22 -685.15 1.12 
478.12 -685.52 1.20 
485.71 -687.66 1.75 
482.27 -687.91 1.62 
481.96 -687.85 1.60 
481.56 -687.77 1.57 
481.17 -687.68 1.54 
485.15 -688.32 1.83 
484.78 -688.29 1.80 
484.37 -688.23 1.77 
483.95 -688.18 1.74 
483.56 -688.17 1.72 
483.14 -688.12 1.69 
482.78 -688.02 1.66 
482.48 -687.94 1.64 
486.66 -688.64 1.94 
486.36 -688.48 1.91 
486.00 -688.42 1.89 
485.58 -688.37 1.86 
485.31 -688.35 1.84 
486.98 -689.02 1.98 
486.84 -688.81 1.96 
487.07 -689.38 2.01 
487.14 -689.81 2.03 
487.19 -690.12 2.05 
486.64 -690.05 1.93 
487.27 -690.46 2.08 
488.62 -691.09 2.20 
489.46 -691.52 2.27 
489.11 -691.37 2.24 
488.82 -691.22 2.21 
490.33 -691.89 2.34 
489.91 -691.72 2.31 
489.64 -691.61 2.28 
482.83 -696.87 2.39 
480.14 -684.98 1.61 
479.67 -684.97 1.83 
480.24 -685.13 1.62 
480.19 -685.33 1.64 
479.78 -685.13 1.84 
481.41 -690.44 1.91 
482.65 -691.50 2.06 
474.13 -691.46 1.81 
482.56 -692.39 2.29 
486.05 -695.87 2.74 
485.83 -695.76 2.72 
485.05 -695.75 2.68 
486.23 -695.98 2.76 
474.50 -696.54 2.21 
473.10 -696.50 2.14 
471.31 -696.43 2.05 
470.80 -696.39 2.02 
468.46 -696.30 1.91 
484.22 -696.86 2.73 
483.34 -696.96 2.69 
483.04 -696.94 2.67 
482.52 -696.92 2.64 
482.23 -696.89 2.62 
481.83 -696.88 2.60 
474.84 -696.68 2.24 
474.80 -697.47 2.30 
486.82 -698.31 2.98 
486.80 -699.09 3.04 
486.86 -699.44 3.07 
487.27 -703.50 3.41 
486.95 -703.36 3.39 
487.42 -703.66 3.44 
488.13 -704.42 3.54 
480.03 -685.12 1.92 
477.80 -690.74 2.36 
477.36 -690.75 2.14 
477.27 -690.64 2.13 
474.14 -691.39 2.31 
482.03 -692.33 2.48 
482.42 -696.08 3.03 
481.88 -696.07 2.76 
467.87 -696.26 2.11 
466.88 -696.13 2.06 
479.97 -685.03 2.53 
477.81 -690.73 2.79 
477.35 -690.70 2.61 
473.66 -691.38 2.58 
482.94 -692.37 3.32 
482.50 -692.28 3.05 
482.09 -692.30 2.89 
470.10 -693.42 2.37 
469.56 -693.38 2.64 
470.46 -695.59 2.58 
481.87 -696.00 3.23 
476.92 -695.87 3.06 
474.66 -695.78 2.73 
479.93 -685.06 2.84 
479.56 -685.09 2.95 
468.27 -688.76 2.52 
477.88 -689.34 3.05 
477.40 -689.25 3.04 
468.92 -689.04 2.55 
468.31 -689.07 2.55 
478.66 -689.59 3.07 
477.74 -689.58 3.08 
477.39 -689.46 3.07 
468.49 -689.66 2.60 
468.42 -689.40 2.58 
478.66 -689.91 3.11 
477.76 -690.00 3.13 
477.45 -690.01 3.13 
469.39 -689.98 2.64 
469.27 -689.86 2.62 
468.68 -689.97 2.63 
468.44 -689.88 2.62 
478.60 -690.35 3.17 
477.88 -690.49 3.07 
474.65 -690.37 3.04 
469.98 -690.24 2.67 
469.51 -690.22 2.66 
478.94 -690.72 3.21 
478.70 -690.64 3.20 
473.77 -690.86 2.75 
473.32 -690.76 3.07 
469.55 -690.60 2.70 
478.96 -691.15 3.27 
478.71 -691.06 3.26 
473.83 -691.05 2.77 
469.47 -691.01 2.74 
481.94 -691.73 3.24 
481.44 -691.70 3.35 
478.79 -691.61 3.33 
474.09 -691.36 2.81 
473.83 -691.37 2.81 
470.08 -691.37 2.78 
469.93 -691.35 2.77 
483.26 -692.20 3.44 
482.20 -692.10 3.38 
482.01 -691.91 3.38 
481.58 -691.85 3.37 
480.92 -691.99 3.25 
478.68 -691.96 3.37 
483.35 -692.50 3.48 
482.93 -692.33 3.45 
482.65 -692.34 3.45 
482.17 -692.31 3.37 
483.08 -692.78 3.52 
482.66 -692.83 3.37 
482.67 -693.61 3.63 
482.23 -693.56 3.44 
481.77 -696.04 3.71 
477.31 -695.85 3.35 
476.72 -695.80 3.61 
479.92 -685.08 3.16 
478.57 -689.33 3.44 
477.93 -689.56 3.48 
469.45 -689.38 3.16 
468.05 -689.54 2.95 
478.17 -690.13 3.56 
477.85 -690.11 3.56 
477.44 -690.11 3.54 
477.12 -689.82 3.54 
476.69 -690.07 3.58 
474.18 -690.05 3.16 
473.98 -689.81 3.14 
469.62 -689.99 3.22 
478.88 -690.29 3.57 
478.62 -690.31 3.57 
478.15 -690.41 3.60 
478.00 -690.14 3.56 
477.08 -690.41 3.54 
474.25 -690.24 3.18 
469.84 -690.14 3.23 
469.10 -690.26 3.01 
482.11 -690.87 3.98 
481.70 -690.89 3.94 
481.30 -690.95 3.55 
479.27 -690.75 3.62 
479.02 -690.77 3.63 
478.72 -690.63 3.62 
477.92 -690.57 3.54 
477.40 -690.64 3.56 
474.56 -690.76 3.24 
474.40 -690.70 3.24 
473.02 -690.54 3.05 
479.00 -691.20 3.69 
478.48 -691.01 3.59 
473.52 -690.97 3.28 
469.05 -690.99 3.08 
482.96 -691.78 3.75 
481.64 -691.74 3.75 
481.36 -691.65 3.73 
480.97 -691.68 3.64 
478.40 -691.53 3.70 
474.17 -691.61 3.35 
468.94 -691.43 3.12 
468.61 -691.61 3.13 
483.65 -691.87 4.14 
483.29 -691.87 3.77 
483.17 -691.89 3.77 
482.59 -691.99 3.79 
482.29 -692.02 3.79 
481.83 -691.99 3.73 
481.33 -691.89 3.67 
478.39 -691.87 3.80 
468.61 -691.79 3.15 
483.49 -692.44 3.86 
483.01 -692.57 3.81 
482.69 -692.26 3.83 
482.27 -692.45 3.86 
481.57 -692.31 3.72 
480.78 -692.18 3.71 
483.48 -692.69 3.90 
482.31 -692.65 3.76 
483.67 -693.21 3.99 
483.21 -693.27 3.84 
483.07 -693.23 3.91 
482.67 -693.19 3.98 
481.79 -693.34 3.85 
482.26 -693.37 4.00 
474.16 -695.67 3.56 
482.28 -696.01 3.96 
474.72 -695.76 3.86 
479.85 -685.00 3.46 
477.98 -688.83 3.78 
468.60 -689.16 3.15 
478.25 -689.45 3.87 
477.25 -689.56 3.93 
469.32 -689.57 3.18 
467.20 -689.41 3.20 
478.79 -689.99 3.93 
478.19 -689.92 3.94 
476.91 -689.86 3.98 
469.32 -689.86 3.21 
469.18 -689.80 3.21 
478.90 -690.39 3.99 
478.60 -690.37 4.00 
474.33 -690.33 3.68 
473.04 -690.31 3.59 
469.55 -690.23 3.24 
482.29 -690.74 4.33 
481.79 -690.77 4.35 
481.52 -690.77 4.33 
479.42 -690.56 4.00 
477.99 -690.77 4.08 
474.17 -690.79 3.75 
473.11 -690.63 3.72 
469.83 -690.65 3.29 
482.52 -690.97 4.36 
482.19 -691.10 4.02 
474.14 -691.01 3.78 
473.73 -691.08 3.73 
473.53 -690.96 3.65 
473.19 -690.95 3.80 
472.55 -691.17 3.84 
478.16 -691.31 4.16 
474.69 -691.52 3.83 
474.28 -691.27 3.81 
473.95 -691.31 3.82 
483.24 -692.10 4.18 
483.18 -692.02 4.17 
473.25 -691.69 3.73 
483.20 -692.19 4.20 
482.47 -692.53 4.27 
477.98 -692.46 3.89 
481.80 -692.59 4.29 
481.20 -692.80 4.22 
469.97 -693.28 3.58 
477.22 -688.93 4.25 
478.88 -689.47 4.24 
476.88 -689.51 4.37 
468.53 -689.51 3.78 
477.69 -689.98 4.40 
469.23 -689.94 3.80 
469.15 -689.77 3.79 
468.80 -689.77 3.80 
473.76 -690.18 4.18 
469.85 -690.37 3.83 
469.47 -690.29 3.84 
469.00 -690.19 3.75 
467.78 -690.08 3.87 
482.62 -690.76 4.69 
478.61 -690.78 4.49 
477.66 -690.67 4.52 
473.78 -690.66 4.25 
472.37 -690.75 4.23 
469.54 -690.72 3.89 
469.14 -690.66 3.89 
478.51 -690.90 4.51 
478.10 -690.95 4.54 
474.79 -691.19 4.28 
469.01 -691.01 3.74 
482.94 -691.63 4.86 
482.63 -691.51 4.85 
482.33 -691.63 4.50 
468.96 -691.25 3.97 
468.64 -691.37 3.89 
482.00 -691.83 4.47 
481.93 -691.73 4.46 
481.39 -691.79 4.49 
477.75 -691.97 4.28 
477.36 -692.02 4.21 
483.35 -692.27 4.60 
482.64 -692.19 4.60 
482.86 -692.95 4.75 
477.57 -689.07 4.67 
