# .PCD v0.7 - Point Cloud Data file format
VERSION 0.7
FIELDS x y z
SIZE 4 4 4
TYPE F F F
COUNT 1 1 1
WIDTH 2517
HEIGHT 1
VIEWPOINT 0 0 0 1 0 0 0
POINTS 2517
DATA ascii
482.45 29.03 1.31 
481.70 29.93 1.35 
481.78 29.92 1.35 
480.79 30.75 1.38 
480.88 30.72 1.38 
482.31 29.98 1.38 
481.48 31.04 1.66 
482.73 30.19 1.41 
482.14 31.05 1.45 
482.38 31.41 1.72 
491.41 39.72 2.59 
469.12 24.61 0.88 
469.41 24.58 0.88 
469.86 24.37 0.86 
470.39 23.89 0.81 
468.78 25.45 0.95 
469.68 24.61 0.88 
470.18 24.49 0.86 
470.51 24.14 0.83 
469.94 25.07 0.91 
470.54 24.69 0.87 
470.35 25.38 0.93 
474.08 28.74 1.43 
474.35 28.37 1.41 
474.54 28.38 1.41 
474.92 28.18 1.40 
475.15 28.30 1.40 
475.22 28.68 1.42 
480.19 29.31 1.65 
480.52 29.31 1.79 
480.85 28.92 1.52 
481.24 28.87 1.54 
480.71 29.35 1.80 
480.98 29.16 1.54 
481.69 29.34 1.58 
480.75 30.59 1.60 
480.85 30.45 1.84 
481.42 30.14 1.86 
482.01 29.77 1.88 
480.48 30.95 1.84 
480.89 30.82 1.74 
481.06 30.61 1.73 
481.38 30.50 1.74 
481.71 30.20 1.62 
482.30 29.97 1.90 
482.33 29.80 1.63 
482.98 29.35 1.64 
481.79 30.70 1.89 
482.05 30.62 1.91 
482.19 30.35 1.78 
482.23 31.02 1.93 
482.46 30.73 1.93 
481.49 31.60 2.13 
482.07 31.35 1.93 
482.48 31.35 1.72 
481.98 31.93 2.16 
482.18 31.83 1.96 
482.35 32.16 1.98 
491.44 39.59 3.22 
469.97 23.73 1.23 
469.45 24.50 1.29 
469.84 24.34 1.27 
469.66 24.76 1.30 
470.01 24.65 1.28 
470.33 24.34 1.26 
470.49 24.22 1.25 
470.12 25.43 1.32 
474.16 28.31 1.70 
475.41 27.91 1.67 
474.74 28.79 1.70 
474.90 28.46 1.69 
480.92 29.01 1.94 
481.14 28.66 2.08 
480.68 29.35 2.06 
481.16 28.91 2.08 
480.27 30.19 2.29 
480.54 30.04 2.06 
481.62 29.56 2.11 
482.28 29.43 1.88 
481.91 30.09 2.14 
482.04 29.97 2.14 
481.19 30.93 2.10 
481.81 30.47 2.38 
481.98 30.87 2.39 
481.73 31.48 2.14 
481.94 31.45 2.15 
483.25 31.17 2.50 
482.66 31.81 2.21 
483.53 31.29 2.52 
491.40 39.45 3.52 
480.52 29.28 2.32 
481.59 28.33 2.40 
481.86 28.53 2.41 
481.58 29.48 2.38 
481.64 29.86 2.46 
481.74 29.72 2.39 
481.80 30.00 2.39 
481.94 29.96 2.40 
481.97 30.28 2.40 
482.10 30.28 2.66 
482.74 30.07 2.46 
482.77 29.82 2.46 
482.61 30.61 2.69 
482.17 31.19 2.64 
483.37 30.90 2.51 
483.45 30.86 2.52 
483.74 31.09 2.54 
469.65 23.90 2.10 
469.99 24.26 2.09 
481.82 28.36 2.70 
481.38 29.13 2.64 
481.45 29.17 2.65 
469.67 24.70 -0.25 
474.83 28.27 0.36 
481.71 29.96 0.72 
469.65 24.66 0.15 
469.86 24.55 0.14 
473.93 27.70 0.56 
474.28 27.46 0.54 
474.60 27.38 0.53 
473.86 28.14 0.61 
474.28 28.66 0.95 
474.84 28.20 0.63 
473.92 28.97 0.98 
474.12 28.81 0.97 
474.63 28.68 0.95 
474.95 28.49 0.94 
475.00 28.73 0.96 
481.68 29.94 1.06 
491.41 39.72 2.40 
469.75 24.32 0.53 
469.31 25.00 0.59 
469.61 24.82 0.57 
469.92 24.53 0.55 
470.34 24.37 0.53 
469.21 25.32 0.63 
469.81 25.16 0.61 
470.23 24.77 0.57 
473.96 28.23 1.19 
474.19 27.96 1.03 
474.54 28.02 0.89 
473.92 28.69 0.95 
474.42 28.35 1.20 
474.74 28.10 1.04 
475.19 27.89 1.02 
475.49 27.59 1.14 
474.15 28.90 1.24 
474.72 28.68 1.22 
474.97 28.43 1.20 
475.32 28.18 1.19 
475.49 28.02 1.03 
475.21 28.66 1.22 
475.44 28.52 1.21 
474.70 29.36 1.27 
480.94 28.27 1.27 
481.13 28.75 1.31 
481.12 28.62 1.30 
480.53 29.35 1.33 
481.31 29.02 1.33 
481.40 28.97 1.33 
481.68 29.21 1.36 
481.57 29.86 1.40 
481.84 29.65 1.39 
480.87 30.55 1.64 
481.10 30.42 1.64 
481.35 30.40 1.65 
482.45 29.66 1.42 
482.70 29.63 1.42 
481.41 30.72 1.67 
481.89 30.60 1.68 
482.01 30.44 1.68 
482.21 30.26 1.68 
482.60 30.07 1.45 
482.19 30.89 1.60 
491.40 39.67 2.84 
468.73 24.77 0.99 
469.01 24.78 0.98 
469.44 24.42 0.95 
469.93 24.15 0.92 
470.18 24.06 0.91 
470.44 23.76 0.88 
468.73 25.30 1.03 
469.35 24.85 0.98 
469.82 24.41 0.94 
470.35 24.13 0.91 
469.81 25.08 1.00 
470.16 25.43 1.02 
474.17 27.98 1.46 
474.14 28.53 1.49 
474.34 28.38 1.48 
474.00 28.92 1.52 
474.22 28.71 1.50 
474.61 28.59 1.49 
474.80 28.39 1.48 
475.28 28.28 1.47 
474.69 28.80 1.76 
475.11 28.55 1.48 
475.30 28.89 1.63 
480.56 29.01 1.63 
480.83 29.25 1.62 
481.73 29.25 1.61 
481.99 29.60 1.88 
480.20 31.15 2.04 
481.26 30.54 1.97 
482.03 30.10 1.89 
482.17 29.85 1.77 
482.48 29.85 1.67 
481.00 30.88 1.87 
481.39 30.78 2.09 
481.65 30.61 1.99 
481.81 30.37 1.89 
482.40 30.32 1.92 
482.73 30.09 1.69 
482.98 29.93 1.70 
481.71 31.04 2.11 
482.00 30.92 2.02 
482.23 30.58 1.92 
482.42 30.42 1.92 
482.05 31.54 1.94 
482.36 31.14 1.94 
491.36 39.46 3.25 
469.66 23.92 1.33 
469.21 24.56 1.38 
469.72 24.21 1.34 
468.98 25.09 1.42 
469.22 24.89 1.40 
469.74 24.63 1.37 
470.28 24.22 1.33 
470.58 24.24 1.33 
469.66 24.93 1.39 
474.13 28.28 1.76 
474.52 28.15 1.75 
474.82 28.45 1.75 
475.27 27.97 1.73 
480.60 28.28 2.04 
480.04 29.29 2.03 
480.90 29.22 2.22 
479.84 30.13 2.24 
480.77 29.99 2.06 
481.07 29.79 2.30 
481.35 29.63 2.32 
481.80 29.96 2.34 
481.83 30.28 2.11 
482.40 30.16 2.14 
481.97 30.81 2.34 
481.76 31.49 2.44 
483.64 30.39 2.47 
491.41 39.47 3.56 
469.08 24.57 1.80 
469.41 24.40 1.78 
469.91 24.03 1.74 
470.08 24.07 1.74 
470.38 23.89 1.72 
469.83 24.36 1.76 
470.17 24.08 1.74 
480.85 28.33 2.32 
480.39 29.32 2.51 
480.75 29.76 2.51 
481.44 29.25 2.57 
481.55 29.11 2.46 
481.63 29.62 2.57 
481.79 29.96 2.57 
481.86 30.27 2.56 
482.71 29.95 2.64 
482.67 30.23 2.63 
482.77 30.24 2.63 
483.28 30.01 2.69 
483.19 30.73 2.66 
483.49 30.10 2.70 
482.82 31.02 2.62 
483.19 30.87 2.65 
483.55 31.17 2.68 
469.70 24.05 2.17 
469.62 24.57 2.18 
469.64 24.71 -0.17 
474.81 28.27 0.45 
481.64 29.96 0.82 
481.77 29.93 0.81 
491.42 39.72 2.22 
470.01 24.19 0.18 
469.67 24.65 0.23 
469.95 24.50 0.21 
473.83 27.87 0.66 
473.98 27.59 0.63 
474.41 27.41 0.61 
473.94 28.71 1.03 
474.72 28.28 0.99 
474.80 28.21 0.85 
475.33 27.83 0.95 
473.99 28.93 1.06 
474.70 28.40 1.00 
475.03 28.26 0.99 
475.30 28.01 0.97 
474.97 28.94 1.06 
481.59 29.92 1.12 
481.65 29.95 1.13 
481.72 29.92 1.12 
491.39 39.66 2.76 
491.41 39.70 2.49 
469.62 24.43 0.61 
469.28 25.18 0.69 
469.45 25.02 0.67 
469.78 24.71 0.64 
470.06 24.42 0.61 
470.45 24.34 0.60 
469.74 25.18 0.69 
470.20 24.82 0.65 
474.00 28.00 0.96 
474.27 27.90 0.95 
474.98 27.57 0.92 
473.97 28.72 1.31 
474.09 28.28 1.27 
474.47 28.20 1.26 
474.93 28.10 1.25 
475.19 27.67 1.07 
475.42 27.59 1.20 
474.20 28.97 1.32 
474.66 28.54 1.28 
475.06 28.46 1.27 
475.22 28.00 1.24 
474.87 28.78 1.30 
475.11 28.69 1.29 
475.66 28.40 1.26 
475.35 28.81 1.30 
481.19 28.72 1.33 
481.31 28.65 1.33 
480.62 29.16 1.57 
481.08 29.19 1.59 
481.27 28.97 1.47 
481.49 28.84 1.35 
482.23 28.49 1.34 
480.63 29.95 1.61 
480.74 29.77 1.61 
481.15 29.28 1.59 
481.42 29.19 1.60 
481.66 29.16 1.60 
481.93 28.79 1.36 
481.97 29.38 1.62 
481.62 29.90 1.64 
481.83 29.81 1.64 
482.73 29.52 1.55 
483.10 29.35 1.67 
481.82 30.49 1.68 
482.85 29.65 1.45 
483.05 29.73 1.68 
481.92 30.74 1.69 
491.40 39.63 3.02 
491.39 39.69 3.03 
470.24 23.54 0.94 
468.94 24.70 1.06 
469.12 24.46 1.03 
469.55 24.12 1.00 
469.81 24.26 1.00 
470.28 23.94 0.97 
468.78 25.31 1.11 
469.06 25.09 1.09 
469.67 24.60 1.04 
470.06 24.45 1.02 
470.30 24.29 1.00 
470.49 23.96 0.97 
469.12 25.54 1.12 
470.39 25.24 1.08 
473.96 28.21 1.55 
474.15 27.78 1.52 
474.25 28.46 1.55 
474.39 28.31 1.54 
473.97 28.81 1.58 
474.28 28.58 1.56 
474.78 28.45 1.67 
475.07 28.30 1.53 
475.36 27.87 1.50 
475.03 28.67 1.55 
474.70 29.21 1.59 
480.54 28.58 1.78 
480.65 28.59 1.78 
480.44 29.28 2.01 
481.26 29.59 1.82 
481.57 29.06 1.82 
481.35 29.72 1.90 
481.94 29.59 1.85 
481.17 30.44 2.03 
481.61 30.14 2.05 
481.72 29.94 2.05 
482.12 29.69 1.86 
482.75 29.29 1.87 
481.51 30.87 1.87 
481.70 30.43 2.06 
481.98 30.24 2.02 
482.41 29.97 1.88 
481.75 31.07 2.15 
481.92 30.84 2.01 
482.07 31.34 2.08 
482.12 31.02 2.17 
491.35 39.45 3.40 
469.68 23.83 1.39 
469.18 24.59 1.46 
469.56 24.19 1.42 
469.68 24.01 1.40 
470.11 23.99 1.39 
469.10 24.99 1.49 
469.19 24.79 1.47 
469.61 24.67 1.45 
470.21 24.33 1.41 
470.46 24.19 1.39 
470.38 24.41 1.41 
470.42 24.86 1.44 
474.10 28.29 1.82 
474.51 28.17 1.80 
475.04 27.97 1.78 
475.17 28.02 1.78 
480.88 29.01 2.25 
481.07 28.81 2.26 
480.54 29.95 2.32 
481.22 29.47 2.25 
481.20 29.12 2.25 
480.66 30.13 2.31 
480.93 29.96 2.43 
481.51 29.74 2.46 
481.68 29.68 2.47 
481.52 30.06 2.45 
481.23 30.64 2.23 
482.13 30.71 2.27 
482.27 30.62 2.28 
482.93 30.23 2.33 
483.48 30.38 2.57 
483.12 30.93 2.53 
483.60 30.49 2.58 
468.93 24.62 1.88 
469.22 24.41 1.86 
469.74 23.98 1.82 
469.21 24.60 1.87 
469.69 24.42 1.84 
470.07 24.10 1.81 
470.27 23.98 1.79 
469.64 24.94 1.86 
469.54 24.17 2.25 
469.77 24.10 2.23 
469.63 24.40 2.25 
469.94 24.23 2.22 
469.66 24.67 -0.09 
474.80 28.27 0.54 
481.60 29.93 0.73 
481.65 29.97 0.83 
491.39 39.73 2.32 
469.19 24.25 0.27 
469.91 24.14 0.26 
469.44 24.71 0.33 
469.79 24.56 0.31 
470.04 24.36 0.29 
470.28 24.79 0.34 
473.97 27.76 0.74 
474.19 27.53 0.71 
473.71 27.98 0.76 
473.91 27.94 0.76 
474.56 27.46 0.71 
474.72 28.24 0.80 
474.94 27.91 1.04 
475.45 27.73 1.02 
473.92 28.90 1.14 
474.12 28.75 1.12 
474.53 28.80 1.13 
474.73 28.34 1.08 
475.24 28.00 1.05 
474.94 28.85 1.13 
475.15 28.44 1.09 
481.64 29.94 1.10 
491.39 39.69 2.69 
469.48 23.57 0.62 
470.09 23.70 0.63 
469.35 24.92 0.76 
469.53 24.70 0.73 
469.83 24.47 0.71 
470.15 24.25 0.69 
468.99 25.42 0.81 
469.24 25.23 0.79 
469.55 24.96 0.76 
470.23 24.87 0.75 
473.84 28.22 1.35 
474.01 27.99 1.05 
474.74 27.58 1.01 
474.03 28.36 1.36 
474.20 28.30 1.35 
474.53 28.20 1.34 
474.96 27.76 1.16 
475.42 27.63 1.28 
473.94 28.91 1.41 
474.38 28.61 1.37 
474.85 28.36 1.35 
475.49 28.08 1.32 
474.33 29.14 1.42 
475.08 28.48 1.35 
475.31 28.49 1.35 
475.32 28.83 1.38 
475.61 28.62 1.36 
481.16 28.68 1.37 
480.34 29.34 1.60 
480.85 29.35 1.61 
481.15 29.16 1.61 
481.30 28.85 1.49 
480.50 29.93 1.63 
480.85 29.42 1.62 
481.21 29.19 1.61 
481.53 29.02 1.51 
481.89 29.08 1.42 
482.21 28.49 1.38 
481.94 29.55 1.64 
481.23 30.33 1.84 
481.59 29.95 1.56 
482.68 29.52 1.57 
481.95 30.39 1.86 
482.25 30.00 1.67 
482.51 29.88 1.68 
482.80 29.70 1.58 
481.85 30.73 1.78 
482.58 30.18 1.78 
482.12 31.01 1.88 
491.39 39.65 3.05 
469.35 23.95 1.08 
469.86 23.61 1.04 
469.12 24.67 1.15 
469.06 25.12 1.19 
469.53 24.55 1.13 
469.71 24.41 1.11 
469.71 24.94 1.16 
470.26 24.58 1.12 
470.10 25.72 1.22 
473.93 27.63 1.59 
474.08 28.51 1.64 
474.34 28.28 1.62 
474.95 27.92 1.85 
473.83 28.98 1.68 
474.04 28.79 1.66 
474.49 28.41 1.63 
474.81 28.42 1.75 
475.18 28.01 1.85 
475.39 27.90 1.57 
474.61 28.83 1.90 
474.89 28.60 1.63 
475.15 28.40 1.61 
474.63 29.25 1.67 
475.21 28.92 1.88 
480.62 28.95 1.80 
480.95 28.45 2.01 
481.34 28.66 1.80 
480.61 29.77 2.19 
481.05 29.60 1.82 
480.47 30.14 2.18 
481.16 29.70 1.82 
481.42 29.51 2.01 
481.77 29.45 1.92 
482.47 29.21 1.85 
480.52 30.64 2.00 
481.07 30.52 2.01 
481.28 30.41 2.18 
481.63 29.94 2.20 
482.03 29.87 2.09 
482.56 29.27 1.85 
481.47 30.46 2.10 
482.44 30.03 1.87 
482.82 29.80 1.87 
481.95 31.00 2.35 
491.33 39.45 3.52 
491.45 39.62 3.43 
469.59 24.10 1.51 
470.02 23.98 1.49 
469.14 24.98 1.58 
469.48 24.65 1.55 
470.22 24.20 1.49 
469.92 24.69 1.54 
470.25 24.43 1.51 
470.61 24.29 1.49 
474.04 28.31 1.91 
474.42 28.17 1.88 
480.60 29.41 2.39 
479.93 30.01 2.36 
480.24 29.90 2.31 
480.40 29.75 2.19 
480.80 29.99 2.37 
480.90 29.86 2.37 
481.57 29.74 2.21 
481.90 29.53 2.22 
481.90 29.78 2.22 
482.72 29.29 2.46 
483.29 29.30 2.29 
483.45 29.29 2.33 
482.20 30.90 2.37 
491.33 39.29 3.74 
491.51 39.66 3.82 
468.94 24.55 1.98 
469.25 24.45 1.96 
469.73 24.08 1.92 
469.83 23.87 1.90 
469.44 24.55 1.95 
469.62 24.31 1.93 
470.04 24.10 1.90 
470.31 23.88 1.88 
469.49 24.00 2.34 
469.61 24.53 2.35 
469.90 24.31 2.33 
469.59 24.77 0.00 
473.69 27.92 0.40 
474.80 28.29 0.63 
491.38 39.71 2.43 
469.61 24.70 0.41 
469.93 24.51 0.39 
473.83 28.00 0.85 
474.40 27.48 0.79 
474.31 28.04 0.86 
474.84 28.00 1.13 
474.95 27.98 1.13 
475.28 27.61 1.09 
473.61 29.15 1.26 
473.89 28.99 1.24 
474.57 28.53 1.19 
474.78 28.25 1.16 
475.22 28.08 1.14 
474.52 28.84 1.22 
474.89 28.65 1.20 
475.40 28.19 1.15 
491.37 39.67 2.88 
469.80 23.62 0.71 
470.04 23.78 0.72 
469.33 24.82 0.83 
469.68 24.63 0.81 
470.02 24.48 0.79 
470.23 24.42 0.79 
469.16 25.34 0.89 
469.34 25.07 0.86 
469.57 24.99 0.85 
470.24 24.60 0.81 
474.16 27.94 1.41 
474.62 27.59 1.09 
473.74 28.33 1.45 
474.11 28.31 1.44 
474.68 28.14 1.42 
474.88 27.75 1.24 
475.40 27.63 1.36 
474.17 28.90 1.49 
474.55 28.36 1.44 
475.01 28.06 1.40 
474.03 29.21 1.53 
474.73 28.88 1.48 
475.10 28.46 1.44 
475.69 28.28 1.41 
475.59 28.67 1.45 
481.14 28.59 1.41 
480.15 29.46 1.65 
480.55 29.24 1.64 
480.74 29.28 1.64 
481.17 29.06 1.63 
481.33 28.76 1.43 
480.71 29.46 1.65 
480.98 29.62 1.66 
481.34 29.20 1.64 
481.64 29.05 1.64 
481.13 29.70 1.66 
482.31 29.02 1.65 
482.30 29.38 1.84 
482.51 29.72 1.77 
482.91 29.43 1.68 
491.39 39.63 3.21 
468.87 24.63 1.24 
468.61 25.24 1.30 
469.57 24.53 1.22 
469.78 24.44 1.20 
470.38 24.14 1.03 
470.45 24.03 1.02 
469.12 25.20 1.29 
469.55 25.09 1.27 
469.79 25.00 1.25 
470.03 25.68 1.31 
474.11 28.47 1.73 
474.32 28.34 1.72 
473.75 29.01 1.79 
474.29 28.59 1.73 
474.72 28.52 1.98 
474.90 28.19 1.82 
475.23 28.01 1.80 
474.57 28.91 2.00 
474.81 28.69 1.72 
475.15 28.44 1.69 
474.59 29.28 1.77 
475.16 29.01 1.98 
475.21 28.97 1.97 
479.73 29.38 2.21 
480.94 28.55 1.80 
480.10 29.35 1.83 
480.78 29.30 2.00 
480.91 29.60 2.01 
481.36 29.10 1.94 
481.38 29.75 2.01 
481.64 29.59 2.01 
482.25 29.10 1.83 
481.82 29.64 2.01 
482.00 29.73 2.01 
482.82 29.30 2.03 
482.33 29.80 2.02 
491.28 39.39 3.51 
491.43 39.62 3.56 
491.46 39.60 3.56 
469.61 23.53 1.56 
469.28 24.47 1.64 
469.52 23.96 1.59 
469.21 24.66 1.66 
469.62 24.27 1.61 
470.17 24.28 1.59 
470.59 23.99 1.46 
470.98 23.81 1.44 
471.38 23.20 1.39 
469.01 25.21 1.70 
469.44 25.18 1.68 
469.73 24.70 1.64 
470.20 24.49 1.60 
470.43 24.37 1.54 
471.50 23.72 1.43 
469.95 25.09 1.66 
471.39 24.30 1.47 
474.04 28.37 2.00 
479.38 29.04 2.22 
480.68 29.60 2.36 
481.15 29.63 2.35 
483.36 29.32 2.41 
469.04 24.51 2.07 
469.70 24.02 2.01 
471.07 23.17 1.84 
468.90 24.72 2.09 
469.19 24.65 2.07 
469.55 24.30 2.03 
469.61 24.19 2.02 
470.87 23.59 1.87 
469.72 24.75 2.05 
469.75 24.46 2.44 
469.87 24.25 2.42 
470.29 23.89 2.35 
470.40 23.83 2.35 
470.94 23.58 2.32 
471.21 23.37 2.30 
474.72 28.33 0.72 
491.39 39.68 2.57 
469.28 24.74 0.50 
469.76 24.66 0.49 
469.89 24.25 0.44 
469.26 25.21 0.55 
470.05 24.88 0.52 
470.20 24.85 0.52 
473.79 27.84 0.93 
474.11 27.60 0.90 
474.61 27.49 0.89 
474.26 28.05 0.96 
474.30 28.79 1.32 
474.78 28.32 1.18 
475.05 28.23 1.26 
475.63 28.31 1.26 
475.17 28.90 1.33 
491.37 39.66 2.88 
469.00 24.62 0.91 
469.61 24.62 0.91 
469.94 24.44 0.88 
468.75 25.69 1.03 
468.99 25.43 1.00 
469.22 25.27 0.98 
469.56 24.93 0.94 
469.86 25.01 0.95 
474.43 27.69 1.49 
474.93 27.30 1.30 
474.18 28.21 1.54 
474.98 27.85 1.49 
475.19 27.56 1.32 
473.70 29.08 1.36 
474.11 28.72 1.45 
474.51 28.27 1.54 
474.92 27.96 1.50 
474.13 29.11 1.63 
474.65 28.67 1.57 
474.83 28.57 1.56 
475.16 28.47 1.54 
474.49 29.61 1.66 
474.75 29.04 1.60 
475.36 28.66 1.56 
481.84 28.72 1.68 
491.37 39.62 3.29 
468.60 25.26 1.41 
469.56 24.38 1.30 
470.21 24.19 1.12 
470.39 23.99 1.10 
470.73 23.78 1.07 
471.02 23.69 1.07 
468.59 25.53 1.43 
469.73 24.71 1.33 
470.98 23.95 1.09 
471.39 23.96 1.09 
471.67 23.53 1.05 
471.74 24.15 1.11 
473.85 27.60 1.79 
475.01 27.27 1.76 
473.99 28.70 1.87 
474.82 28.29 1.81 
475.13 28.07 2.05 
475.32 27.94 1.76 
474.54 28.92 2.13 
474.75 28.50 1.96 
475.19 28.50 1.81 
474.58 29.29 1.89 
475.19 29.00 1.84 
475.45 28.54 1.85 
491.26 39.36 3.55 
491.36 39.51 3.59 
469.45 24.01 1.70 
470.55 23.38 1.49 
469.28 24.45 1.74 
469.62 24.58 1.74 
471.25 23.33 1.48 
469.52 24.95 1.77 
469.78 24.68 1.74 
470.17 24.39 1.70 
470.57 24.10 1.55 
470.89 24.02 1.54 
471.70 23.31 1.47 
471.40 24.30 1.55 
471.26 24.75 1.59 
475.36 28.13 2.12 
491.48 39.59 4.05 
469.59 23.99 2.12 
469.73 23.88 2.11 
468.89 24.66 2.21 
469.54 24.28 2.14 
469.84 24.07 2.11 
470.27 23.94 2.08 
470.96 23.44 1.94 
471.46 23.38 1.93 
469.80 24.77 2.16 
470.90 23.97 1.97 
471.64 23.43 1.92 
471.07 24.45 2.00 
470.31 23.53 2.41 
469.92 24.27 2.54 
470.38 23.87 2.43 
470.66 23.57 2.40 
471.01 23.28 2.38 
471.29 23.27 2.37 
469.46 24.83 2.60 
471.15 23.61 2.39 
469.60 24.75 0.16 
469.94 23.85 0.48 
469.12 25.03 0.62 
469.58 24.73 0.59 
470.13 24.13 0.52 
469.05 25.14 0.63 
469.38 25.11 0.63 
470.02 24.58 0.57 
474.10 27.91 1.03 
474.28 27.60 0.99 
473.98 28.11 1.05 
474.36 28.20 1.06 
474.66 28.26 1.07 
475.27 27.96 1.32 
475.35 27.93 1.32 
474.82 28.80 1.41 
475.19 28.23 1.35 
474.79 28.92 1.43 
470.18 23.50 0.88 
469.60 24.55 0.99 
470.38 24.18 0.95 
469.89 25.19 1.06 
474.22 27.79 1.31 
474.68 27.74 1.44 
474.89 27.77 1.44 
474.69 28.46 1.38 
474.73 28.18 1.35 
475.38 27.70 1.57 
474.79 28.59 1.67 
475.02 28.52 1.65 
475.39 28.13 1.61 
469.46 24.24 1.40 
469.66 24.07 1.37 
470.38 23.89 1.25 
471.20 23.47 1.12 
470.12 24.39 1.39 
470.31 24.24 1.37 
471.06 23.73 1.15 
471.91 23.59 1.14 
469.77 25.24 1.48 
471.28 24.21 1.20 
475.23 27.43 1.84 
474.42 28.33 1.94 
474.69 28.20 1.91 
474.62 28.71 1.96 
474.93 28.27 1.91 
475.32 28.21 1.90 
475.04 28.94 1.96 
475.14 28.62 1.93 
475.73 28.72 1.94 
471.27 22.82 1.51 
470.69 23.82 1.61 
471.19 23.45 1.57 
471.39 23.21 1.54 
469.27 24.92 1.90 
470.38 24.29 1.65 
471.48 23.79 1.59 
472.06 23.32 1.54 
475.01 28.14 2.20 
475.18 27.54 2.47 
474.64 28.64 2.23 
474.48 29.02 2.27 
472.67 33.94 2.87 
472.68 33.70 2.85 
472.81 34.12 2.88 
472.78 33.96 2.87 
469.74 23.86 2.22 
469.79 23.75 2.21 
468.90 24.70 2.34 
469.47 24.37 2.27 
469.74 24.27 2.25 
470.46 23.96 2.07 
470.97 23.19 2.00 
471.77 23.08 1.97 
469.41 24.75 2.30 
469.58 24.77 2.29 
470.06 24.27 2.23 
470.81 24.05 2.06 
470.91 23.76 2.04 
471.64 23.34 1.99 
470.83 23.08 2.45 
470.21 23.80 2.51 
470.41 23.84 2.51 
470.74 23.40 2.47 
471.12 23.28 2.45 
471.48 23.13 2.43 
470.69 23.75 2.49 
469.59 24.74 0.23 
474.68 28.35 0.88 
470.05 23.89 0.58 
469.32 24.79 0.68 
470.14 24.25 0.62 
469.33 25.10 0.71 
469.99 24.75 0.68 
470.16 24.57 0.66 
470.32 24.81 0.69 
474.14 27.74 1.09 
474.07 28.19 1.15 
475.02 27.32 1.28 
475.07 29.00 1.54 
469.09 23.97 1.03 
469.83 23.50 0.97 
469.87 23.55 0.98 
470.36 23.72 0.99 
468.83 25.40 1.19 
470.14 24.51 1.08 
470.39 24.20 1.05 
469.04 25.67 1.22 
469.35 25.60 1.21 
474.09 28.11 1.60 
474.26 27.86 1.42 
474.71 27.85 1.56 
474.85 27.60 1.38 
475.47 27.35 1.60 
474.14 28.67 1.81 
474.66 28.20 1.60 
474.96 27.98 1.57 
475.20 27.87 1.62 
473.54 29.20 1.88 
474.68 28.51 1.63 
475.45 28.06 1.67 
475.13 28.63 1.77 
473.53 34.28 2.46 
469.35 24.10 1.49 
470.87 22.90 1.15 
469.38 24.58 1.54 
470.03 24.23 1.49 
470.39 23.88 1.44 
471.06 23.33 1.20 
469.50 24.68 1.54 
469.62 24.61 1.53 
470.09 24.42 1.50 
470.39 24.24 1.48 
471.42 23.78 1.24 
469.74 25.28 1.60 
471.22 24.14 1.28 
469.75 25.41 1.61 
475.36 27.25 1.91 
474.56 28.34 2.05 
474.95 28.15 1.99 
475.15 27.68 1.94 
474.52 28.86 2.10 
474.67 28.53 2.07 
474.91 28.20 2.03 
475.37 27.93 1.96 
469.62 24.24 1.94 
470.92 23.42 1.66 
471.54 23.13 1.62 
469.19 25.13 2.04 
469.70 24.62 1.97 
470.89 23.70 1.68 
471.43 23.62 1.66 
469.55 25.10 2.02 
471.04 24.06 1.71 
471.33 24.66 1.75 
475.30 27.52 2.24 
474.83 28.23 2.30 
476.58 27.13 2.18 
472.62 34.03 3.07 
470.70 23.04 2.09 
469.40 24.54 2.42 
469.56 24.39 2.40 
470.41 23.73 2.15 
470.82 23.22 2.10 
469.54 24.75 2.43 
471.03 23.74 2.13 
471.42 23.31 2.08 
471.68 23.29 2.08 
473.42 35.11 3.72 
470.83 23.07 2.54 
470.21 23.50 2.59 
470.84 23.37 2.56 
471.17 23.26 2.54 
471.49 22.93 2.51 
470.99 23.94 2.58 
471.02 23.81 2.57 
472.96 34.89 4.05 
471.19 23.54 2.99 
469.58 24.80 0.30 
469.27 24.78 0.75 
470.08 24.03 0.67 
469.33 25.10 0.79 
469.57 24.77 0.75 
469.95 24.68 0.74 
470.26 24.47 0.72 
469.95 25.26 0.82 
470.07 24.81 0.76 
470.33 24.75 0.76 
474.12 27.76 1.17 
474.27 27.58 1.15 
474.20 29.19 1.35 
474.19 35.60 2.36 
469.39 24.16 1.14 
469.67 24.25 1.14 
470.03 23.99 1.11 
470.44 23.86 1.09 
469.53 24.70 1.20 
469.90 24.77 1.20 
470.20 24.41 1.16 
470.48 24.01 1.11 
469.17 25.64 1.30 
469.82 25.02 1.23 
474.68 28.03 1.68 
475.04 27.99 1.81 
475.20 27.62 1.70 
473.87 28.92 1.95 
474.21 28.83 1.77 
474.35 28.58 1.90 
474.90 28.52 1.87 
475.24 28.03 1.51 
474.43 29.23 1.81 
474.82 28.95 1.62 
475.37 28.68 1.59 
472.86 34.35 2.63 
473.78 34.07 2.42 
473.61 34.49 2.52 
474.37 33.96 2.40 
473.81 35.19 2.41 
474.39 34.80 2.35 
473.93 35.64 2.47 
469.33 23.79 1.56 
469.75 23.87 1.56 
469.52 24.34 1.61 
469.59 24.25 1.60 
470.14 23.92 1.55 
470.40 23.95 1.55 
469.30 24.87 1.67 
469.57 24.64 1.64 
469.93 24.41 1.61 
470.33 24.34 1.59 
470.81 23.79 1.32 
471.61 23.38 1.27 
469.90 25.02 1.67 
469.79 25.40 1.71 
474.00 28.41 2.21 
474.39 28.35 2.19 
474.69 28.09 2.11 
475.13 27.80 2.03 
475.40 27.66 2.01 
475.60 27.20 1.97 
476.17 27.02 1.94 
474.95 28.21 2.14 
475.12 28.02 2.05 
474.52 28.96 2.24 
475.82 28.33 2.06 
476.90 27.76 1.99 
474.57 33.08 2.81 
473.32 34.29 2.92 
473.36 34.27 2.92 
473.41 34.64 2.97 
474.12 35.89 2.89 
473.89 36.57 3.21 
470.58 22.98 1.70 
469.16 24.44 2.10 
469.56 24.34 2.07 
471.30 22.90 1.68 
469.14 24.89 2.14 
469.62 24.58 2.09 
469.84 24.50 1.85 
470.77 23.71 1.76 
471.10 23.47 1.73 
471.57 23.53 1.73 
471.40 24.67 1.83 
475.71 27.43 2.30 
475.75 27.99 2.33 
476.22 28.00 2.32 
473.75 34.66 3.25 
474.42 34.37 3.16 
474.03 34.91 3.26 
474.43 35.33 3.58 
474.55 35.18 3.55 
474.40 35.85 3.66 
474.37 35.70 3.60 
474.42 36.17 3.56 
470.87 23.39 2.19 
470.63 24.09 2.25 
471.04 23.60 2.20 
471.54 23.33 2.16 
472.89 34.59 3.64 
472.93 34.60 3.64 
473.95 34.75 3.55 
474.54 34.60 3.71 
474.59 34.55 3.70 
474.31 35.30 3.79 
474.51 35.54 3.90 
474.29 36.30 3.74 
474.57 35.97 3.85 
470.94 22.84 2.61 
470.12 23.76 2.70 
470.14 23.62 2.70 
470.86 23.34 2.64 
471.14 23.25 2.62 
469.48 24.71 2.56 
470.83 23.77 2.67 
471.34 23.29 2.61 
474.66 34.94 4.08 
473.97 35.76 4.31 
475.03 34.79 1.84 
468.84 25.33 0.89 
469.09 25.07 0.86 
469.47 25.02 0.86 
470.23 24.59 0.81 
470.30 24.46 0.80 
469.77 25.27 0.89 
470.21 24.67 0.82 
469.72 25.42 0.91 
474.26 27.72 1.25 
474.40 27.58 1.23 
474.83 28.53 1.36 
474.91 28.28 1.33 
474.71 29.21 1.44 
474.84 28.82 1.39 
474.66 29.29 1.45 
473.70 34.87 2.35 
474.57 34.34 2.29 
474.34 35.10 2.39 
475.06 34.69 2.08 
474.59 35.31 2.23 
475.16 35.57 2.46 
475.26 35.68 2.47 
469.55 24.40 1.25 
470.03 24.14 1.22 
470.13 23.89 1.19 
469.09 25.24 1.35 
469.83 24.50 1.26 
469.95 24.43 1.25 
470.50 24.55 1.26 
469.87 25.35 1.36 
470.10 25.24 1.34 
469.89 25.85 1.41 
474.25 28.00 1.62 
474.80 27.33 1.76 
474.44 28.09 1.63 
474.89 27.89 1.60 
475.30 27.61 1.78 
473.99 29.02 1.74 
474.33 28.76 1.71 
474.65 28.52 1.78 
475.24 28.28 1.64 
475.28 27.97 1.87 
474.29 29.45 1.79 
474.57 28.98 1.73 
474.69 28.75 2.02 
475.05 28.59 1.68 
474.52 29.56 1.80 
474.98 29.25 1.76 
474.84 33.31 2.43 
473.99 34.74 2.63 
474.23 34.45 2.43 
473.23 35.44 2.57 
473.76 35.36 2.56 
473.78 35.26 2.54 
474.66 34.81 2.47 
474.97 34.61 2.59 
473.87 35.62 2.59 
474.60 35.35 2.54 
474.85 35.16 2.52 
474.94 35.51 2.70 
474.38 36.25 2.99 
474.42 36.16 2.98 
469.15 23.65 1.65 
469.07 25.02 1.80 
470.13 24.45 1.71 
469.44 25.03 1.79 
469.77 25.61 1.84 
473.78 27.92 1.96 
474.18 28.48 2.01 
474.48 27.95 1.94 
475.22 27.76 2.12 
475.37 27.59 2.10 
475.80 27.08 2.04 
476.26 27.06 2.03 
476.38 26.81 2.01 
474.00 28.87 2.06 
474.97 28.14 2.21 
475.40 27.80 2.12 
475.73 28.40 2.17 
475.87 28.42 2.16 
472.65 34.28 2.78 
474.31 33.13 2.69 
473.21 34.12 2.74 
473.18 34.64 2.81 
473.56 34.40 2.76 
473.75 34.80 2.81 
474.39 34.44 3.06 
474.53 34.26 3.02 
475.37 33.70 2.98 
474.96 34.61 3.05 
475.60 34.03 3.00 
474.83 35.09 3.12 
475.10 34.78 3.06 
475.30 34.49 3.01 
474.41 35.86 3.02 
475.54 35.07 3.08 
474.60 36.70 3.38 
474.67 36.51 3.34 
475.11 36.03 3.25 
474.93 36.72 3.37 
470.72 23.43 1.82 
471.21 23.42 1.81 
476.13 27.24 2.36 
475.69 28.02 2.44 
473.71 32.84 2.98 
472.67 33.86 3.08 
472.88 34.21 3.11 
474.24 34.52 3.40 
474.73 34.00 3.31 
474.22 34.87 3.45 
475.61 34.58 3.29 
475.61 34.42 3.27 
474.91 35.31 3.46 
474.81 36.47 3.65 
475.11 36.20 3.58 
470.63 22.94 2.25 
470.85 23.33 2.28 
470.95 23.67 2.30 
470.69 24.41 2.36 
470.70 24.08 2.34 
474.55 33.75 3.84 
473.98 34.62 3.76 
475.06 33.96 3.54 
474.23 34.82 3.77 
475.44 34.24 3.78 
474.03 35.35 3.87 
474.40 35.38 3.83 
474.83 35.10 3.74 
475.06 34.60 3.95 
474.76 35.49 3.81 
474.88 35.42 4.11 
475.36 35.16 4.00 
475.07 35.79 3.83 
475.14 35.71 3.96 
475.65 35.30 3.87 
474.59 36.28 3.96 
475.22 36.08 4.01 
475.40 36.32 4.04 
470.85 23.18 2.73 
471.25 23.26 2.71 
474.17 35.48 4.20 
474.70 35.04 4.07 
474.56 35.84 4.21 
474.77 35.67 4.16 
474.65 28.41 1.08 
475.03 34.76 1.88 
468.59 25.51 0.99 
469.19 25.07 0.94 
469.35 24.82 0.92 
470.13 24.32 0.86 
469.93 24.73 0.91 
470.25 24.72 0.91 
474.13 27.91 1.36 
474.35 27.67 1.33 
474.88 28.58 1.45 
474.35 29.21 1.53 
474.78 28.87 1.49 
474.94 28.67 1.46 
474.69 29.26 1.54 
474.47 34.28 2.37 
475.63 33.60 2.30 
475.66 33.53 2.29 
474.07 35.01 2.46 
475.44 34.10 2.36 
475.01 34.74 2.15 
476.06 34.75 2.45 
475.74 35.53 2.55 
475.90 35.65 2.56 
476.31 36.02 2.62 
469.19 24.39 1.35 
469.88 23.97 1.30 
470.22 23.91 1.29 
469.52 24.81 1.40 
469.82 24.43 1.35 
470.34 24.33 1.34 
468.74 25.63 1.50 
469.06 25.45 1.48 
469.48 25.14 1.44 
470.49 24.61 1.37 
470.05 25.33 1.45 
469.90 25.79 1.51 
474.57 28.00 1.72 
475.04 27.87 1.80 
475.25 27.53 1.77 
473.94 29.02 1.85 
474.53 28.69 1.81 
475.18 28.28 1.95 
473.98 29.22 1.88 
474.65 28.98 1.84 
475.12 28.73 1.80 
474.47 29.69 1.93 
475.62 28.68 1.99 
473.34 34.46 2.56 
473.37 34.35 2.54 
473.51 34.83 2.61 
473.71 35.35 2.67 
473.89 34.99 2.62 
475.20 34.40 2.69 
476.10 33.80 2.58 
476.26 33.56 2.55 
473.43 36.09 2.78 
474.54 35.22 2.78 
475.41 34.72 2.89 
475.47 34.46 2.75 
476.17 34.34 2.65 
476.52 34.09 2.61 
473.83 36.19 2.92 
473.94 35.91 2.88 
474.88 35.44 2.81 
475.34 34.95 2.93 
475.94 34.83 2.58 
476.01 34.78 2.71 
474.36 36.34 2.93 
474.99 35.77 2.72 
475.46 35.64 2.82 
475.59 35.34 2.72 
475.89 35.04 2.76 
476.27 35.09 2.74 
475.37 36.02 2.75 
475.57 35.94 2.89 
475.89 35.73 2.83 
476.35 35.54 2.80 
476.39 35.18 2.84 
475.67 36.19 2.99 
476.36 35.94 2.85 
471.29 23.17 1.42 
469.75 25.49 1.95 
475.00 27.70 2.22 
473.64 29.18 2.24 
473.85 29.01 2.21 
473.95 29.35 2.25 
473.13 34.29 2.91 
473.22 34.12 2.88 
474.35 33.15 2.82 
474.53 33.09 2.81 
473.40 34.52 2.93 
474.30 34.33 3.22 
475.48 33.51 2.93 
474.58 34.39 3.22 
475.16 34.32 3.17 
475.46 34.11 3.04 
475.78 33.94 2.92 
475.97 33.84 2.85 
475.12 34.56 3.04 
475.40 34.53 3.19 
476.14 34.21 3.14 
475.48 34.99 3.25 
474.68 35.93 3.09 
475.43 35.68 3.36 
476.02 35.24 3.26 
473.77 36.85 3.25 
475.23 36.16 3.27 
475.48 35.79 3.20 
476.41 35.52 3.04 
474.84 36.72 3.55 
475.03 36.62 3.52 
475.46 36.26 3.44 
471.56 22.88 1.85 
471.68 23.24 1.88 
475.56 28.13 2.57 
473.66 32.97 3.14 
472.65 34.09 3.28 
472.62 33.91 3.26 
473.71 34.56 3.65 
474.60 33.93 3.20 
474.82 34.59 3.57 
474.25 35.42 3.74 
474.65 35.13 3.66 
474.71 34.80 3.61 
474.65 35.34 3.69 
474.24 36.26 3.51 
474.84 36.01 3.78 
475.02 35.65 3.71 
475.13 35.43 3.67 
474.58 36.50 3.88 
475.24 35.89 3.73 
476.07 35.66 3.84 
474.63 36.87 3.58 
475.13 36.35 3.76 
470.81 23.04 2.36 
470.37 23.93 2.45 
470.71 23.49 2.40 
473.78 34.66 4.03 
474.03 34.38 3.95 
474.11 35.24 4.08 
474.97 34.81 3.92 
474.74 35.47 4.05 
474.41 35.86 4.15 
475.56 35.85 4.03 
475.97 35.56 4.10 
470.81 23.02 2.83 
470.64 23.74 2.89 
470.96 23.31 2.84 
469.49 24.86 0.48 
474.59 28.41 1.14 
470.00 23.84 0.87 
468.96 25.19 1.02 
469.53 24.77 0.98 
469.96 24.45 0.94 
470.15 24.14 0.91 
468.83 25.35 1.04 
469.40 25.01 1.01 
470.18 24.83 1.00 
474.14 27.89 1.43 
474.38 27.62 1.40 
474.75 28.46 1.51 
474.79 28.11 1.68 
474.80 28.78 1.56 
475.02 28.72 1.55 
474.76 29.45 1.64 
473.95 34.45 2.47 
475.29 33.59 2.37 
475.53 33.62 2.38 
474.05 35.05 2.55 
475.71 33.89 2.42 
474.52 35.28 2.40 
474.95 34.81 2.22 
475.23 34.74 2.52 
476.00 34.05 2.44 
474.23 35.90 2.66 
475.25 35.19 2.58 
476.06 34.83 2.54 
476.38 34.50 2.50 
475.77 35.38 2.61 
476.07 34.94 2.56 
475.94 35.62 2.64 
476.26 35.97 2.69 
468.79 23.99 1.40 
469.78 23.94 1.38 
470.00 23.97 1.38 
471.17 23.08 1.00 
469.62 24.59 1.46 
470.23 23.88 1.37 
470.68 23.70 1.07 
468.74 25.60 1.59 
469.14 25.39 1.56 
469.46 24.93 1.50 
470.41 24.49 1.44 
468.95 25.75 1.60 
469.95 25.48 1.56 
470.06 25.36 1.55 
469.86 25.73 1.59 
474.87 27.42 1.94 
473.97 28.40 1.88 
474.28 27.99 1.82 
474.67 28.03 1.82 
474.99 27.71 1.78 
474.19 28.76 1.92 
474.54 28.35 1.87 
474.88 28.12 2.02 
475.21 28.08 2.02 
473.95 29.35 1.99 
474.80 28.77 1.91 
475.11 28.70 1.90 
474.80 29.07 1.95 
475.20 28.84 1.92 
473.32 34.52 2.68 
474.60 33.40 2.66 
474.96 33.54 2.67 
474.83 33.82 2.71 
473.63 35.40 2.79 
475.08 34.29 2.63 
475.40 34.18 2.75 
476.13 33.72 2.68 
474.62 35.09 2.87 
474.92 34.87 2.71 
475.46 34.55 2.66 
475.56 34.45 2.78 
476.23 34.05 2.72 
474.89 35.18 2.88 
475.31 35.24 2.88 
475.88 34.76 2.75 
474.07 36.48 3.06 
474.19 36.06 3.00 
475.38 35.33 2.80 
475.72 35.45 2.78 
476.08 34.99 2.78 
476.78 34.79 2.81 
474.29 36.55 3.07 
474.97 36.41 2.92 
475.35 35.99 2.86 
475.81 35.73 2.94 
475.95 35.55 2.92 
476.11 35.79 2.95 
476.37 35.60 2.92 
470.70 22.96 1.47 
470.85 23.24 1.50 
470.74 23.53 1.53 
471.62 23.25 1.50 
471.11 24.40 1.63 
471.16 24.29 1.62 
474.91 26.69 2.22 
474.67 28.21 2.38 
476.36 27.10 2.23 
473.79 33.28 2.98 
473.79 33.08 2.96 
473.21 34.15 3.02 
474.34 33.07 2.94 
473.02 34.55 3.09 
473.15 34.39 3.06 
474.91 33.59 2.98 
473.92 34.37 3.03 
475.50 33.47 2.95 
474.48 34.58 3.04 
474.81 34.40 3.01 
475.10 34.24 2.98 
475.50 33.88 3.00 
475.85 33.67 3.25 
475.12 34.65 3.03 
475.31 34.52 3.01 
475.70 34.07 3.02 
475.92 34.04 3.15 
475.22 34.91 3.07 
475.56 34.80 3.04 
475.13 35.69 3.20 
475.83 35.05 3.24 
475.96 35.08 3.07 
475.06 36.19 3.30 
475.23 35.91 3.21 
476.37 35.21 3.07 
475.01 36.41 3.35 
476.02 36.12 3.22 
476.02 36.33 3.25 
469.23 23.76 1.88 
469.42 24.31 1.93 
470.29 23.85 2.06 
470.63 23.65 2.03 
468.99 25.15 2.04 
470.06 24.40 1.92 
469.65 25.16 2.02 
472.58 33.97 3.44 
475.05 33.79 3.62 
475.35 33.63 3.27 
475.41 33.50 3.25 
474.99 34.17 3.33 
475.23 34.56 3.38 
475.70 34.22 3.33 
475.10 34.96 3.44 
474.57 36.00 3.63 
475.71 35.34 3.47 
474.73 36.33 3.67 
475.56 35.68 3.53 
474.93 36.53 3.69 
469.63 23.88 2.39 
468.83 24.86 2.53 
469.61 24.40 2.44 
469.92 24.27 2.41 
469.63 24.95 2.50 
473.55 34.35 3.83 
473.58 35.27 3.97 
474.01 34.82 3.87 
474.59 34.51 3.77 
474.55 34.31 3.75 
473.26 35.83 4.08 
474.25 35.07 3.89 
474.57 35.04 3.86 
475.09 34.75 4.13 
474.50 35.45 3.93 
474.65 35.12 3.86 
474.83 35.52 3.91 
475.23 35.63 3.90 
475.26 35.24 4.20 
474.71 36.13 4.02 
475.08 35.98 4.22 
475.25 35.74 3.92 
475.18 36.20 4.00 
470.59 23.60 2.99 
470.86 23.44 2.96 
469.82 24.65 2.95 
473.57 34.63 4.27 
474.10 35.58 4.37 
474.71 35.17 4.24 
474.43 36.04 4.41 
474.79 35.71 4.32 
474.73 36.32 4.43 
469.50 24.78 0.52 
474.59 28.48 1.20 
474.62 28.38 1.19 
474.38 35.31 2.07 
474.93 34.79 1.93 
474.52 35.39 2.08 
469.25 24.77 1.04 
469.48 24.80 1.05 
468.90 25.25 1.10 
469.26 25.07 1.08 
470.06 24.73 1.05 
470.21 24.61 1.04 
469.63 25.47 1.14 
469.87 25.22 1.11 
470.35 24.90 1.07 
474.15 27.86 1.50 
474.33 27.72 1.49 
473.64 28.30 1.55 
474.10 28.03 1.53 
474.76 28.31 1.57 
474.87 28.03 1.74 
473.74 29.44 1.70 
473.90 29.27 1.68 
474.92 28.49 1.60 
474.86 29.22 1.69 
474.32 33.34 2.40 
473.87 34.53 2.55 
475.31 33.59 2.45 
475.66 33.79 2.48 
474.28 35.34 2.66 
474.52 35.30 2.48 
474.93 34.76 2.26 
475.03 34.67 2.42 
476.05 33.89 2.50 
474.54 35.40 2.49 
475.74 34.78 2.61 
476.34 34.51 2.58 
475.99 35.02 2.64 
476.11 34.90 2.63 
475.81 35.76 2.74 
476.04 35.39 2.69 
476.44 35.04 2.65 
476.04 35.91 2.76 
476.42 36.03 2.78 
469.36 23.44 1.41 
469.29 24.21 1.50 
469.76 23.71 1.44 
471.23 22.92 1.05 
469.53 24.60 1.55 
470.20 24.16 1.49 
470.58 23.88 1.16 
471.14 23.69 1.14 
471.22 23.23 1.09 
468.95 25.43 1.65 
469.20 25.13 1.61 
469.79 24.98 1.59 
470.07 24.61 1.55 
470.43 24.38 1.51 
471.33 23.63 1.14 
468.79 25.71 1.69 
475.79 26.76 1.95 
474.12 28.25 1.95 
474.38 27.87 1.90 
474.76 27.58 2.05 
474.36 28.44 1.98 
474.80 28.18 2.12 
475.05 27.85 1.89 
475.19 27.77 1.88 
474.03 29.24 2.08 
474.41 28.93 2.04 
474.69 28.94 2.03 
474.96 28.55 1.98 
474.55 29.22 2.07 
474.63 29.10 2.06 
475.19 28.83 2.02 
473.06 34.30 2.75 
474.16 33.13 2.73 
474.62 33.25 2.74 
473.19 34.41 2.77 
474.63 33.54 2.77 
474.61 33.39 2.75 
474.01 34.33 2.75 
474.65 33.75 2.80 
474.88 33.65 2.78 
474.86 34.31 2.74 
475.63 33.81 2.80 
475.55 34.45 2.75 
475.99 34.22 2.85 
475.90 33.86 2.80 
475.15 35.32 2.88 
475.39 35.10 2.97 
475.73 34.73 2.79 
476.13 34.48 2.88 
474.13 36.38 3.15 
475.37 35.35 2.88 
475.54 35.31 2.91 
475.83 34.97 2.82 
476.61 34.68 2.90 
476.85 34.55 2.88 
475.60 35.83 2.95 
475.81 35.61 2.94 
476.79 34.71 2.90 
475.66 36.09 2.98 
476.32 35.65 3.03 
471.27 22.88 1.54 
471.51 22.88 1.54 
471.76 22.70 1.52 
471.72 22.84 1.53 
470.79 23.94 1.66 
473.59 32.89 3.06 
473.64 33.09 3.09 
472.72 34.14 3.17 
473.28 34.33 3.18 
473.38 34.14 3.15 
473.96 34.47 3.18 
475.44 33.47 3.08 
474.27 34.52 3.18 
474.97 34.17 3.11 
475.08 33.99 3.08 
475.55 33.81 3.12 
475.75 33.58 3.08 
474.65 34.79 3.21 
475.23 34.59 3.16 
475.31 34.39 3.13 
475.82 34.09 3.14 
474.33 35.37 3.30 
474.96 35.01 3.23 
475.25 34.88 3.20 
476.02 34.54 3.20 
476.31 34.44 3.17 
474.94 35.55 3.37 
475.46 35.17 3.27 
475.92 35.12 3.28 
475.13 35.87 3.41 
475.49 35.81 3.33 
475.74 35.58 3.32 
476.56 35.09 3.21 
474.79 36.61 3.47 
475.47 36.28 3.45 
475.90 36.09 3.36 
475.86 35.94 3.34 
469.48 24.04 2.01 
469.17 24.70 2.09 
469.40 24.51 2.06 
470.63 23.81 2.14 
468.89 25.35 2.18 
469.24 25.03 2.13 
469.45 24.84 2.10 
469.40 25.30 2.15 
474.24 34.36 3.57 
475.04 33.68 3.45 
474.22 34.75 3.63 
474.97 34.07 3.48 
475.18 34.00 3.48 
475.38 33.68 3.43 
474.38 35.08 3.67 
474.85 34.76 3.60 
475.10 34.57 3.56 
475.44 34.27 3.49 
475.89 34.24 3.48 
474.85 35.29 3.68 
474.87 35.16 3.65 
475.81 34.33 3.49 
474.95 35.45 3.69 
475.39 35.48 3.68 
474.98 36.02 3.77 
475.37 35.61 3.70 
476.34 35.52 3.63 
476.57 35.78 3.66 
469.42 24.54 2.59 
469.57 24.18 2.55 
469.33 24.75 2.62 
469.86 24.42 2.56 
469.63 25.07 2.64 
474.15 34.16 3.92 
474.46 33.99 3.87 
473.81 34.73 4.07 
473.97 34.49 4.02 
474.04 34.97 4.09 
474.43 34.88 4.04 
474.74 34.91 4.02 
475.39 34.41 3.85 
474.68 35.24 4.08 
474.91 35.10 4.04 
474.61 35.56 4.14 
474.85 35.61 4.13 
474.06 36.40 4.32 
475.16 35.63 4.11 
475.44 35.78 4.11 
475.56 35.98 4.14 
469.51 24.83 0.59 
474.62 28.42 1.25 
469.45 24.46 1.09 
469.75 24.22 1.06 
469.57 24.93 1.15 
469.57 24.73 1.12 
469.87 25.05 1.17 
469.76 25.59 1.24 
474.49 27.39 1.53 
474.32 28.06 1.62 
474.71 27.66 1.57 
474.79 27.50 1.55 
473.64 28.89 1.71 
474.52 28.37 1.66 
474.55 28.82 1.72 
474.83 28.64 1.70 
475.13 28.26 1.75 
475.29 28.15 1.64 
474.71 29.17 1.77 
474.91 28.94 1.74 
473.77 33.58 2.52 
474.14 33.41 2.50 
474.75 33.66 2.54 
475.23 33.43 2.52 
475.87 33.71 2.56 
474.41 35.16 2.55 
476.11 34.02 2.61 
476.13 33.86 2.59 
474.52 35.31 2.57 
475.83 34.43 2.66 
476.17 34.75 2.70 
476.19 35.23 2.77 
476.25 35.73 2.84 
476.39 35.57 2.82 
469.83 24.11 1.59 
470.05 23.99 1.57 
470.56 23.59 1.20 
471.31 23.43 1.19 
471.54 23.24 1.17 
469.63 25.01 1.70 
469.86 24.58 1.64 
470.11 24.48 1.63 
471.01 24.11 1.27 
469.62 25.34 1.74 
469.96 25.64 1.77 
474.05 28.22 2.06 
474.40 27.88 2.02 
474.91 27.71 1.99 
473.89 28.74 2.13 
474.62 28.15 2.05 
474.89 27.95 2.11 
475.13 27.86 2.01 
474.55 29.38 2.21 
474.57 29.31 2.20 
474.16 33.30 2.86 
474.19 33.08 2.83 
480.09 29.67 2.19 
473.50 34.46 2.90 
474.14 34.11 2.84 
474.43 34.16 2.85 
475.47 33.50 2.88 
474.64 34.23 2.86 
475.45 33.61 2.89 
475.79 33.39 2.86 
475.62 34.27 2.92 
473.99 35.77 3.08 
475.51 34.57 2.90 
475.72 34.61 2.96 
474.92 35.67 3.17 
475.79 34.98 2.95 
475.93 34.75 2.92 
476.65 34.60 3.01 
475.08 35.92 3.21 
475.13 35.85 3.20 
475.82 35.66 3.05 
475.87 35.42 3.01 
476.23 35.21 3.10 
476.75 34.77 3.04 
475.84 35.92 3.08 
475.80 36.39 3.15 
475.95 36.15 3.12 
469.53 23.67 1.54 
470.54 22.98 1.64 
471.19 22.64 1.60 
470.95 23.37 1.68 
469.18 25.09 1.71 
469.45 24.81 1.68 
468.89 25.72 1.79 
474.90 28.26 2.47 
472.64 33.80 3.28 
473.61 33.08 3.23 
472.68 34.13 3.33 
474.35 34.12 3.27 
474.68 33.70 3.28 
475.41 33.38 3.21 
474.65 34.33 3.30 
474.97 34.10 3.28 
475.46 33.61 3.24 
475.83 33.74 3.25 
474.99 34.53 3.33 
475.26 34.37 3.32 
475.88 33.93 3.27 
474.89 35.06 3.40 
475.37 35.00 3.37 
475.29 34.65 3.32 
475.43 35.24 3.46 
475.79 35.07 3.37 
474.58 36.06 3.55 
475.72 35.60 3.45 
475.86 35.34 3.41 
475.28 36.20 3.56 
475.32 36.06 3.53 
475.98 35.68 3.46 
477.05 35.28 3.42 
469.35 24.07 2.14 
470.59 23.31 2.19 
469.28 24.58 2.20 
469.47 24.44 2.18 
469.56 24.84 2.22 
470.10 24.41 2.15 
469.49 25.11 2.25 
479.96 28.25 2.88 
473.51 34.16 3.76 
473.85 33.69 3.69 
473.55 34.27 3.78 
473.77 34.37 3.78 
474.31 34.10 3.72 
474.06 34.57 3.80 
474.45 34.31 3.74 
474.67 34.27 3.72 
475.01 33.85 3.65 
473.68 35.34 3.93 
474.54 34.87 3.82 
474.84 34.51 3.75 
475.38 34.36 3.70 
474.39 35.33 3.90 
474.70 35.05 3.84 
475.39 34.88 3.77 
475.14 35.42 3.87 
475.35 34.97 3.79 
475.76 35.03 3.77 
474.71 36.25 4.02 
475.14 35.74 3.92 
475.50 35.51 3.86 
474.64 36.42 4.06 
469.60 23.93 2.66 
469.55 24.12 2.69 
469.36 24.75 2.77 
469.69 24.48 2.72 
480.87 28.45 3.37 
475.10 34.69 4.18 
474.86 35.58 4.35 
474.89 35.46 4.32 
475.31 35.21 4.21 
474.55 35.96 4.43 
474.87 35.85 4.39 
475.08 36.03 4.40 
475.29 36.10 4.40 
475.93 35.68 4.20 
476.02 35.77 4.21 
473.62 34.63 4.28 
469.51 24.87 0.64 
474.61 28.41 1.30 
474.56 35.42 2.19 
469.62 24.26 1.13 
469.53 24.74 1.19 
469.66 25.18 1.25 
470.11 25.09 1.24 
474.33 27.52 1.62 
474.48 27.14 1.57 
474.22 27.91 1.67 
474.59 27.78 1.66 
474.82 27.66 1.64 
475.40 27.03 1.77 
473.93 28.84 1.78 
474.72 28.25 1.72 
475.40 27.64 1.85 
473.45 29.30 1.84 
474.35 28.96 1.81 
474.87 28.43 1.75 
474.98 28.18 1.71 
474.83 29.00 1.82 
474.93 28.68 1.78 
474.48 33.41 2.57 
474.86 33.48 2.59 
474.60 34.36 2.30 
475.33 34.01 2.67 
476.15 33.48 2.61 
474.30 35.05 2.60 
474.90 34.72 2.36 
476.11 33.60 2.62 
474.69 35.34 2.74 
475.77 34.51 2.74 
475.92 34.34 2.72 
474.99 35.51 2.86 
475.16 35.55 2.87 
476.80 34.48 2.75 
475.24 35.63 2.88 
475.82 35.53 2.87 
475.53 36.10 2.94 
476.03 35.67 2.89 
470.97 22.98 1.20 
470.32 23.73 1.28 
470.77 23.59 1.27 
470.48 24.13 1.33 
474.55 27.74 2.09 
474.83 28.15 2.14 
475.03 27.95 2.12 
474.72 28.52 2.19 
474.87 28.63 2.20 
475.05 28.13 2.14 
480.56 28.50 2.14 
474.24 33.26 2.75 
480.64 28.84 2.48 
480.70 28.80 2.33 
473.03 34.21 2.97 
474.30 33.38 2.77 
480.32 29.60 2.29 
480.93 29.01 2.20 
473.59 34.27 2.97 
474.13 34.10 2.94 
474.19 33.96 2.92 
474.84 33.45 2.97 
475.24 33.52 2.98 
480.26 30.15 2.36 
481.12 29.55 2.27 
481.18 29.46 2.26 
474.46 34.30 2.97 
475.29 33.75 3.01 
475.37 33.67 3.00 
474.73 34.64 3.01 
475.74 34.08 2.99 
479.98 31.36 2.84 
480.07 31.33 2.84 
480.53 30.86 2.45 
480.75 30.79 2.74 
475.41 34.76 3.03 
475.65 34.48 3.11 
480.38 31.46 2.85 
480.99 31.00 2.76 
474.90 35.30 3.22 
475.55 35.06 3.07 
475.88 34.95 3.17 
476.14 34.63 3.12 
474.65 36.18 3.23 
475.76 35.49 3.18 
476.53 35.10 3.07 
481.10 31.89 2.59 
474.96 36.43 3.34 
475.35 36.15 3.30 
475.79 35.71 3.27 
476.56 35.31 3.10 
475.48 36.44 3.26 
475.66 36.27 3.24 
470.07 23.86 1.65 
469.57 24.69 1.75 
470.09 24.27 1.70 
468.53 25.66 1.88 
469.48 25.38 1.84 
469.68 25.04 1.79 
470.05 25.83 1.89 
473.74 33.02 2.93 
473.84 32.90 2.91 
473.87 33.16 2.94 
475.00 33.61 3.38 
480.51 29.87 2.93 
474.95 34.03 3.41 
475.21 33.83 3.40 
475.50 33.67 3.37 
481.19 29.98 2.91 
474.85 34.44 3.50 
475.09 34.45 3.46 
480.70 30.64 2.82 
481.15 30.42 2.97 
475.31 34.78 3.48 
475.51 34.66 3.48 
475.90 34.19 3.43 
475.18 35.44 3.63 
475.55 35.01 3.53 
475.70 34.91 3.51 
474.30 36.20 3.72 
474.97 36.08 3.72 
474.98 35.96 3.71 
475.20 35.57 3.65 
475.68 35.44 3.56 
475.94 35.14 3.51 
480.89 32.10 3.23 
481.06 31.91 3.19 
474.86 36.51 3.75 
475.18 36.09 3.70 
476.14 35.42 3.55 
475.08 36.69 3.77 
469.45 24.25 2.27 
469.03 24.95 2.36 
469.28 24.74 2.33 
469.50 24.52 2.30 
469.18 25.18 2.39 
469.40 25.27 2.39 
481.34 27.63 2.98 
480.53 28.90 3.10 
473.99 33.57 3.41 
481.16 28.98 3.25 
481.30 28.92 3.33 
481.03 29.53 3.18 
481.24 29.25 3.16 
474.64 34.28 3.89 
481.01 30.05 3.51 
481.03 29.85 3.48 
474.69 34.52 3.92 
475.41 34.26 3.84 
481.05 30.49 3.28 
475.01 34.96 3.97 
475.52 34.59 3.88 
475.23 35.14 3.98 
475.22 35.79 4.09 
475.32 35.73 4.08 
475.18 36.00 4.13 
475.75 35.85 4.05 
476.51 35.19 3.91 
481.23 32.02 3.49 
469.37 24.30 2.85 
469.34 24.87 2.92 
469.64 24.66 2.88 
469.37 24.97 2.93 
481.97 27.44 3.42 
481.43 28.72 3.57 
481.64 28.47 3.51 
473.49 34.25 3.94 
480.70 29.57 3.78 
480.79 29.52 3.46 
481.09 29.21 3.68 
473.99 34.76 3.99 
474.18 34.41 3.93 
480.53 30.23 3.90 
474.18 35.05 4.03 
474.39 34.77 3.97 
480.75 30.70 3.94 
481.04 30.33 3.85 
481.22 30.48 3.85 
474.42 35.49 4.08 
474.82 35.55 4.07 
481.27 31.62 4.02 
481.74 28.57 3.77 
480.93 30.85 4.24 
473.89 35.91 4.67 
474.61 28.44 1.33 
475.78 28.27 1.59 
474.41 34.26 2.31 
481.34 30.05 1.81 
474.19 34.97 2.39 
474.89 34.70 2.38 
475.21 34.50 2.37 
481.38 30.12 1.82 
474.07 35.51 2.45 
474.55 35.36 2.20 
469.11 23.88 1.13 
469.37 24.45 1.21 
469.43 24.25 1.19 
469.62 24.56 1.23 
469.64 25.36 1.33 
470.05 25.04 1.30 
469.58 25.50 1.35 
474.29 27.51 1.68 
474.48 27.82 1.72 
474.64 27.58 1.69 
474.83 27.93 1.74 
473.98 28.87 1.85 
474.75 28.41 1.80 
475.01 28.21 1.78 
474.12 29.28 1.90 
474.43 28.93 1.86 
474.93 28.69 1.84 
481.13 29.19 2.20 
481.31 30.06 2.12 
474.13 34.99 2.65 
475.76 34.09 2.74 
475.70 33.90 2.72 
481.36 30.15 2.14 
474.58 35.31 2.70 
476.06 34.26 2.77 
476.06 34.77 2.44 
476.29 34.53 2.81 
482.12 30.82 2.42 
482.18 30.65 2.40 
476.50 34.88 2.86 
476.78 34.54 2.82 
476.30 35.64 2.95 
476.33 35.48 2.93 
470.59 23.73 1.34 
470.79 23.38 1.30 
471.37 23.27 1.30 
471.50 23.05 1.27 
470.89 23.99 1.38 
471.06 23.72 1.35 
471.34 23.31 1.30 
471.52 23.21 1.29 
473.72 28.47 2.28 
474.01 28.32 2.26 
474.56 28.04 2.22 
474.92 27.75 2.18 
474.75 28.56 2.28 
475.10 28.23 2.11 
474.83 28.91 2.33 
480.59 28.50 2.24 
473.73 33.27 2.60 
480.75 28.87 2.28 
473.21 34.06 3.03 
473.73 33.99 3.02 
474.59 33.32 2.62 
480.99 29.03 2.46 
474.24 34.05 3.02 
474.84 33.59 2.66 
480.39 30.17 2.46 
480.40 29.97 2.43 
480.90 29.66 2.39 
481.18 29.30 2.34 
481.41 29.38 2.34 
481.60 28.99 2.29 
474.30 34.49 3.09 
474.48 34.22 3.05 
475.67 33.59 2.87 
481.53 29.79 2.55 
482.02 29.28 2.62 
474.37 34.57 3.10 
481.76 30.10 2.74 
481.96 29.90 2.60 
475.20 34.71 3.11 
475.47 34.62 3.10 
475.75 34.23 2.96 
481.57 30.83 2.54 
482.02 30.17 2.61 
482.21 29.98 2.42 
475.38 35.08 3.01 
475.56 34.96 3.15 
476.59 34.26 3.16 
481.16 31.47 2.63 
481.64 30.98 2.71 
481.96 30.73 2.82 
475.52 35.47 2.92 
475.83 35.13 3.17 
476.62 34.92 3.25 
481.18 31.65 2.65 
481.84 31.30 2.76 
475.38 36.01 3.29 
476.41 35.20 3.17 
476.75 35.13 3.28 
482.27 31.58 2.94 
475.90 36.11 3.31 
468.95 24.29 1.79 
469.62 23.72 1.71 
470.98 22.60 1.75 
470.10 23.95 1.74 
470.58 23.55 1.87 
470.70 23.38 1.84 
471.20 23.12 1.81 
471.43 22.85 1.78 
469.46 24.67 1.83 
469.77 24.51 1.81 
470.11 24.21 1.77 
471.22 23.38 1.84 
469.70 25.20 1.89 
469.97 24.89 1.85 
469.39 25.62 1.95 
470.25 25.00 1.87 
470.11 25.83 1.97 
473.59 33.03 3.01 
473.62 32.82 2.99 
481.62 27.83 2.85 
473.72 33.15 3.03 
480.97 28.61 2.89 
481.34 28.39 2.78 
481.61 28.23 2.89 
482.28 27.63 2.80 
480.47 29.29 3.00 
481.16 28.67 2.88 
475.22 33.32 3.04 
475.43 33.37 3.05 
481.10 29.34 2.98 
482.20 28.48 2.89 
474.90 34.16 3.16 
474.97 34.00 3.49 
475.36 33.60 3.08 
481.53 29.69 3.00 
474.99 34.13 3.51 
481.60 30.18 3.07 
481.79 29.97 3.03 
475.00 34.88 3.62 
475.61 34.53 3.55 
475.06 35.30 3.68 
475.20 34.95 3.63 
475.57 34.99 3.62 
475.19 35.58 3.72 
475.43 35.47 3.70 
481.54 31.45 3.26 
481.70 31.27 3.22 
475.28 36.12 3.42 
475.83 35.59 3.34 
476.24 35.47 3.68 
476.34 35.41 3.67 
476.40 35.67 3.70 
470.72 22.96 2.34 
469.50 24.31 2.38 
470.60 23.30 2.38 
470.71 23.22 2.37 
468.99 24.95 2.47 
469.30 24.74 2.43 
469.59 24.50 2.40 
469.09 25.13 2.49 
469.69 24.86 2.44 
480.38 28.71 3.26 
481.54 27.93 3.13 
482.41 27.67 3.30 
482.65 27.45 3.26 
473.85 33.62 3.53 
480.07 29.69 3.42 
481.06 28.97 3.25 
482.36 28.05 3.34 
482.49 28.05 3.32 
481.16 29.29 3.28 
481.22 29.10 3.25 
482.15 28.72 3.42 
482.34 28.41 3.12 
474.40 34.19 3.59 
475.01 33.82 3.53 
481.27 29.65 3.33 
481.64 29.60 3.29 
482.35 28.95 3.18 
474.69 34.34 3.61 
481.83 29.84 3.31 
474.79 34.89 3.68 
475.04 34.97 3.68 
475.36 34.53 3.61 
481.49 30.44 3.42 
481.78 30.30 3.38 
474.62 35.31 3.70 
475.52 35.26 3.71 
475.73 35.19 3.70 
481.43 31.41 3.58 
482.29 31.13 3.43 
475.79 35.86 3.79 
481.96 31.51 3.55 
480.77 28.20 3.49 
480.88 28.61 3.54 
480.86 28.38 3.51 
482.14 27.85 3.34 
481.43 28.70 3.49 
482.56 27.79 3.55 
482.77 27.54 3.50 
473.92 34.10 4.04 
481.10 29.39 3.62 
473.23 35.13 4.24 
473.78 34.63 4.14 
474.03 34.53 4.11 
480.87 30.13 3.75 
481.10 29.97 3.71 
481.96 29.24 3.82 
473.28 35.25 4.26 
473.87 34.74 4.15 
480.93 30.23 3.76 
481.18 29.99 3.70 
481.81 29.64 3.59 
474.31 35.24 4.20 
474.68 35.08 4.16 
475.05 34.54 4.05 
481.35 30.44 3.75 
481.70 30.44 4.03 
474.61 35.26 4.19 
475.16 35.24 4.15 
481.41 31.09 3.85 
481.46 30.89 3.81 
474.58 36.05 4.32 
474.96 35.60 4.23 
474.99 35.59 4.23 
481.47 31.25 3.87 
475.73 35.68 4.21 
469.35 24.22 2.97 
469.55 24.46 2.99 
480.68 30.93 4.24 
480.97 30.76 4.17 
481.44 30.56 4.08 
474.59 28.45 1.37 
473.92 34.08 2.30 
475.12 33.74 2.31 
475.37 33.56 2.30 
482.37 29.13 1.74 
475.22 34.38 2.39 
475.53 34.19 2.38 
475.78 34.03 2.37 
481.34 30.11 1.85 
474.49 35.33 2.24 
474.87 34.87 2.44 
476.23 34.20 2.41 
474.90 35.17 2.48 
475.88 34.66 2.46 
476.20 34.44 2.44 
476.25 34.30 2.43 
475.63 35.38 2.54 
469.28 24.08 1.22 
469.39 23.91 1.20 
469.32 24.30 1.25 
469.43 24.86 1.32 
469.48 24.82 1.32 
469.81 24.68 1.31 
470.24 24.37 1.27 
469.56 25.45 1.40 
474.53 27.71 1.77 
474.56 27.97 1.81 
474.55 28.51 1.88 
474.82 28.41 1.87 
475.15 28.06 1.83 
474.42 29.01 1.94 
474.43 29.41 1.99 
474.88 29.19 1.97 
481.74 28.27 2.16 
481.43 28.65 2.20 
481.52 28.59 2.19 
482.04 28.41 2.18 
474.06 34.23 2.62 
482.12 28.51 2.19 
474.15 34.34 2.63 
474.75 34.16 2.62 
481.69 29.70 2.34 
482.35 29.10 2.00 
473.33 35.47 2.77 
474.86 34.58 2.68 
474.93 34.31 2.64 
481.29 30.14 2.20 
474.96 34.87 2.72 
482.10 30.38 2.43 
482.56 29.91 2.38 
482.83 29.64 2.35 
474.53 35.35 2.78 
482.11 30.54 2.45 
482.77 30.19 2.42 
475.58 35.28 2.78 
470.15 22.86 1.28 
471.08 23.18 1.34 
471.12 22.86 1.30 
470.98 23.84 1.42 
471.27 23.44 1.37 
470.95 24.00 1.44 
473.70 27.98 2.31 
474.09 28.62 2.39 
474.57 28.53 2.37 
474.51 28.90 2.42 
474.91 29.13 2.45 
481.67 27.70 2.37 
473.93 33.16 2.66 
474.09 33.06 2.65 
473.95 33.41 2.69 
474.32 33.44 2.70 
473.74 34.08 3.13 
474.33 33.77 2.74 
474.44 33.62 2.73 
481.14 29.28 2.43 
481.53 29.06 2.40 
483.24 28.16 2.42 
474.10 34.29 3.16 
475.50 33.59 2.74 
481.56 29.55 2.53 
481.83 29.42 2.61 
474.23 34.60 3.20 
474.82 34.64 2.87 
475.06 34.21 3.14 
475.69 33.88 2.78 
482.07 29.79 2.61 
482.32 29.58 2.56 
475.25 34.55 3.19 
475.39 34.49 3.18 
481.63 30.65 2.61 
481.92 30.40 2.58 
482.13 30.01 2.64 
482.55 29.94 2.65 
482.84 29.48 2.44 
483.03 29.41 2.58 
475.30 34.96 3.25 
475.79 34.63 2.88 
481.14 31.25 2.70 
481.49 30.94 2.65 
481.62 30.77 2.63 
482.48 30.35 2.63 
482.64 30.17 2.67 
475.14 35.46 3.32 
476.04 35.12 3.11 
476.23 34.73 2.90 
476.62 34.74 2.91 
481.76 31.38 2.71 
482.72 30.78 2.75 
482.92 30.48 2.71 
476.22 35.34 2.98 
476.41 35.26 3.28 
482.73 31.20 2.81 
482.79 31.22 2.81 
482.85 31.35 2.82 
470.81 22.34 1.80 
470.50 22.92 1.87 
469.44 24.13 1.85 
469.96 23.91 1.82 
470.26 23.58 1.95 
470.67 23.43 1.93 
470.98 23.25 1.90 
471.25 22.92 1.86 
471.46 22.74 1.84 
469.25 24.93 1.95 
469.51 24.43 1.88 
470.17 24.22 1.85 
470.41 23.80 1.97 
471.59 23.11 1.88 
469.73 24.72 1.92 
470.22 24.48 1.89 
470.85 24.28 2.03 
471.68 23.51 1.93 
