# .PCD v0.7 - Point Cloud Data file format
VERSION 0.7
FIELDS x y z
SIZE 4 4 4
TYPE F F F
COUNT 1 1 1
WIDTH 2616
HEIGHT 1
VIEWPOINT 0 0 0 1 0 0 0
POINTS 2616
DATA ascii
509.71 8.21 2.42 
501.27 14.94 3.03 
501.65 14.57 2.97 
502.38 14.30 2.63 
502.03 14.90 3.03 
502.54 14.61 2.68 
510.19 9.19 2.34 
501.14 0.77 1.28 
501.15 1.60 1.38 
501.87 0.90 1.30 
501.38 2.03 1.44 
502.44 1.43 1.38 
502.56 1.17 1.35 
502.36 1.70 1.41 
502.56 1.36 1.37 
502.37 2.03 1.45 
492.79 11.44 2.44 
492.62 12.26 2.56 
493.28 11.98 2.53 
493.94 11.48 2.60 
492.94 12.74 2.63 
493.17 12.78 2.64 
493.43 12.33 2.58 
493.78 12.10 2.55 
493.93 11.76 2.64 
493.12 13.02 2.67 
502.14 13.87 3.00 
502.55 13.51 2.95 
502.25 14.32 3.07 
502.81 13.97 3.02 
509.63 8.52 2.76 
502.46 14.44 3.09 
510.22 8.69 2.77 
509.79 9.70 2.99 
510.19 9.93 2.95 
500.97 2.22 1.77 
501.24 2.11 1.75 
501.89 1.41 1.86 
502.02 1.40 1.66 
502.64 0.70 1.77 
501.19 2.65 1.82 
502.71 1.24 1.83 
501.04 14.24 3.44 
501.28 14.30 3.45 
501.96 13.95 3.45 
502.28 13.37 3.36 
510.02 7.61 2.91 
501.02 14.88 3.54 
501.18 14.68 3.51 
501.80 14.24 3.50 
502.08 14.04 3.46 
510.18 8.36 3.00 
510.38 8.18 2.97 
502.40 14.26 3.49 
510.01 9.51 3.34 
510.27 8.98 3.37 
510.31 8.91 3.36 
510.05 9.67 3.31 
510.30 9.66 3.48 
510.08 10.32 3.31 
510.17 10.02 3.26 
510.15 10.54 3.35 
501.87 0.46 2.26 
501.72 0.95 2.31 
501.52 1.84 2.40 
501.81 1.46 2.26 
501.01 2.49 2.32 
501.87 1.85 2.39 
493.59 11.12 3.18 
493.72 11.49 3.23 
501.92 13.37 3.81 
501.77 13.83 3.89 
502.00 13.99 3.90 
502.22 14.15 3.92 
502.40 14.32 3.94 
509.68 8.98 3.73 
510.41 8.61 3.59 
510.15 9.06 3.64 
509.58 10.12 3.93 
510.20 9.42 3.75 
501.36 1.74 2.72 
501.67 13.61 4.31 
501.69 14.06 4.38 
501.36 14.63 4.55 
509.81 9.07 4.03 
510.42 8.31 3.83 
510.15 9.18 3.91 
510.39 8.72 3.82 
510.36 9.32 4.00 
510.18 10.03 4.15 
501.66 1.13 2.82 
501.96 1.53 0.45 
508.78 -3.47 0.11 
509.06 -3.36 0.14 
509.64 -3.18 0.19 
510.04 -3.02 0.24 
510.40 -2.96 0.27 
510.55 -2.81 0.30 
493.54 11.57 1.36 
493.77 11.40 1.35 
493.89 11.59 1.38 
510.32 1.92 0.64 
510.57 1.87 0.65 
510.75 1.84 0.65 
511.01 1.90 0.68 
511.48 2.08 0.75 
511.75 1.98 0.75 
511.92 1.92 0.75 
512.81 2.13 0.85 
513.12 1.97 0.85 
512.72 2.38 0.88 
513.01 2.28 0.89 
513.26 2.04 0.87 
513.46 2.29 0.92 
513.86 2.21 0.94 
514.19 2.04 0.93 
513.84 2.44 0.97 
514.17 2.22 0.96 
514.28 2.13 0.95 
501.79 13.64 2.11 
501.90 14.22 2.19 
502.15 13.99 2.17 
510.16 9.15 1.74 
510.70 8.66 1.68 
510.27 9.26 1.76 
500.86 2.65 0.86 
501.07 2.44 0.84 
501.08 2.59 0.86 
510.73 -2.78 0.31 
511.07 -2.74 0.33 
492.72 11.54 1.80 
511.41 -2.66 0.36 
493.22 11.67 1.83 
492.89 12.60 1.95 
493.33 11.99 1.88 
493.52 11.83 1.87 
493.82 12.20 1.93 
492.99 13.47 2.08 
493.17 13.10 2.03 
512.60 -1.53 0.59 
512.93 -1.71 0.58 
513.60 -1.90 0.59 
513.82 -1.90 0.60 
514.04 -1.96 0.60 
514.01 -1.60 0.65 
514.36 -1.73 0.65 
501.12 14.94 2.56 
501.26 15.12 2.59 
510.66 8.67 2.07 
510.25 9.25 2.07 
500.78 1.19 1.20 
500.96 1.55 1.25 
501.33 2.13 1.33 
501.62 1.72 0.97 
502.03 1.55 0.96 
501.31 2.89 1.43 
493.48 10.26 1.84 
493.27 10.85 1.91 
493.53 10.29 1.85 
493.34 11.24 1.97 
494.05 12.46 2.16 
501.35 14.11 2.99 
501.72 13.97 2.63 
501.39 14.24 3.01 
502.10 14.18 2.67 
502.15 14.03 2.65 
502.36 13.57 2.59 
509.51 8.53 2.60 
510.09 7.84 2.34 
502.04 14.68 3.09 
502.23 14.18 2.67 
502.85 13.91 2.66 
510.31 8.32 2.56 
510.40 8.12 2.53 
501.96 14.90 3.12 
503.03 14.12 2.69 
510.18 9.07 2.36 
510.68 8.40 2.50 
510.95 8.24 2.40 
509.86 9.75 2.61 
509.93 9.58 2.43 
510.25 9.29 2.39 
510.74 8.86 2.48 
510.90 8.81 2.55 
510.22 9.72 2.77 
510.33 9.48 2.42 
510.87 9.24 2.53 
510.94 9.06 2.51 
510.93 9.57 2.74 
500.53 1.62 1.26 
501.88 1.43 1.44 
502.27 1.45 1.45 
502.47 1.20 1.42 
502.39 1.83 1.50 
502.36 2.05 1.53 
492.71 11.48 2.52 
492.69 12.14 2.61 
493.03 11.72 2.55 
493.68 11.15 2.62 
493.10 12.03 2.60 
493.68 12.12 2.76 
500.54 14.98 3.11 
502.07 13.99 3.11 
502.16 13.69 3.06 
502.51 13.50 3.04 
509.28 8.37 2.58 
510.02 8.06 2.84 
510.21 7.94 2.82 
501.18 15.11 3.14 
502.22 14.32 3.16 
502.76 13.99 3.11 
509.92 8.44 2.90 
510.12 8.26 2.87 
510.33 8.00 2.82 
511.21 7.62 2.83 
502.42 14.48 3.18 
510.07 8.88 2.96 
510.92 8.24 2.91 
511.28 7.75 2.59 
510.26 9.04 2.98 
510.45 8.98 2.97 
510.86 9.64 3.05 
510.66 10.36 3.17 
511.25 9.70 3.05 
501.44 1.57 1.88 
501.76 1.32 1.94 
502.54 0.69 1.86 
501.21 2.10 1.85 
502.74 1.12 1.91 
500.84 14.74 3.64 
502.00 13.97 3.57 
510.00 7.69 3.10 
511.14 7.62 3.33 
511.38 7.44 3.05 
509.85 8.69 3.26 
510.93 8.21 3.42 
511.32 7.62 3.07 
510.51 9.12 3.29 
510.58 8.97 3.26 
511.18 8.33 3.16 
509.75 9.97 3.47 
510.64 9.21 3.30 
511.03 8.80 3.51 
510.13 10.34 3.51 
510.54 9.90 3.42 
510.30 10.65 3.56 
501.72 1.27 2.44 
502.03 1.25 2.43 
501.84 1.97 2.35 
493.50 10.91 3.25 
493.56 11.17 3.28 
493.66 11.46 3.32 
500.55 14.59 4.20 
501.77 13.58 3.99 
500.59 14.72 4.22 
501.92 13.97 4.05 
502.14 13.88 4.03 
510.06 7.86 3.44 
510.08 7.78 3.43 
501.91 14.18 4.08 
502.57 13.66 3.98 
510.21 7.95 3.44 
510.12 9.06 3.62 
510.66 8.76 3.69 
510.50 9.41 3.65 
510.78 8.98 3.86 
510.09 10.21 3.82 
510.77 9.71 3.99 
510.58 10.09 3.76 
509.89 8.39 4.02 
510.00 8.48 3.86 
510.34 8.57 4.15 
509.64 9.30 4.04 
509.91 9.26 4.00 
510.30 9.63 4.02 
510.71 9.33 4.24 
510.47 9.94 4.06 
501.68 1.18 2.94 
509.62 9.18 4.35 
509.70 9.77 4.45 
508.84 -3.77 0.13 
509.19 -3.62 0.17 
509.44 -3.57 0.19 
509.74 -3.46 0.22 
510.19 -3.47 0.25 
510.48 -3.41 0.27 
510.74 -3.38 0.29 
511.14 -3.26 0.33 
493.40 12.02 1.48 
493.66 11.66 1.45 
510.86 1.59 0.69 
511.04 1.47 0.68 
510.78 1.88 0.73 
511.33 2.12 0.81 
511.50 1.88 0.78 
511.78 1.62 0.76 
511.92 1.93 0.82 
512.24 2.47 0.93 
512.67 2.00 0.89 
512.88 1.88 0.88 
513.26 1.57 0.86 
513.56 1.34 0.85 
513.81 1.18 0.84 
514.20 1.30 0.89 
514.57 1.28 0.91 
514.84 1.10 0.90 
513.83 2.05 0.98 
514.34 1.54 0.94 
514.65 1.50 0.95 
514.95 1.12 0.91 
515.28 1.02 0.92 
515.61 1.00 0.94 
515.61 1.06 0.95 
501.69 14.12 2.24 
501.70 14.50 2.30 
501.70 14.35 2.28 
510.79 8.59 1.73 
510.37 9.28 1.84 
510.38 9.22 1.84 
500.79 2.36 0.90 
500.76 3.02 0.99 
511.32 -3.25 0.34 
511.55 -3.26 0.35 
511.91 -3.29 0.37 
492.85 11.63 1.92 
512.46 -3.31 0.39 
512.73 -3.37 0.40 
493.31 11.77 1.95 
512.95 -3.37 0.41 
513.26 -3.43 0.42 
492.83 12.81 2.08 
493.04 12.73 2.08 
493.39 12.29 2.03 
493.72 11.90 1.99 
514.22 -3.58 0.45 
514.66 -3.78 0.44 
493.25 13.40 2.18 
493.29 13.35 2.17 
493.96 12.96 2.14 
493.96 12.74 2.11 
513.88 -2.42 0.60 
514.11 -2.48 0.60 
515.12 -3.14 0.56 
514.42 -2.21 0.66 
514.68 -2.56 0.62 
515.80 -1.87 0.78 
501.55 14.80 2.67 
501.18 15.48 2.75 
501.51 15.04 2.70 
510.76 8.60 2.20 
510.35 9.29 2.19 
510.43 9.04 2.35 
510.91 8.94 2.35 
501.70 1.64 1.38 
501.43 3.19 1.58 
492.98 11.36 2.07 
493.09 10.85 2.01 
493.42 11.61 2.12 
493.73 11.80 2.16 
494.08 11.97 2.20 
493.95 12.38 2.25 
500.92 14.09 2.73 
501.13 14.35 2.77 
501.83 13.75 2.71 
501.47 14.74 2.84 
501.73 14.36 2.79 
502.48 14.05 2.78 
501.72 14.84 2.86 
502.38 14.35 2.81 
509.50 8.93 2.47 
510.31 8.30 2.46 
510.76 7.90 2.63 
510.04 8.92 2.47 
510.26 8.65 2.44 
511.05 8.24 2.71 
511.01 8.06 2.68 
510.22 9.29 2.53 
510.37 9.15 2.51 
510.97 8.74 2.78 
511.11 8.51 2.57 
511.61 8.34 2.55 
509.98 10.10 2.65 
510.60 9.51 2.70 
510.80 9.48 2.63 
511.10 9.21 2.85 
511.61 8.92 2.63 
511.66 8.73 2.61 
511.71 9.19 2.67 
500.86 1.18 1.50 
501.14 0.69 1.44 
501.04 1.20 1.31 
501.00 1.86 1.40 
501.63 1.62 1.56 
501.01 2.58 1.68 
501.39 2.22 1.45 
501.52 1.77 1.39 
500.92 3.00 1.55 
501.19 2.84 1.53 
501.29 2.61 1.59 
492.60 11.37 2.63 
492.75 11.57 2.66 
492.89 12.22 2.76 
493.36 11.77 2.70 
493.16 12.64 2.82 
501.39 13.76 3.21 
501.46 14.05 3.25 
509.82 7.69 2.99 
510.82 7.55 2.72 
501.41 14.96 3.27 
501.75 14.97 3.28 
510.39 8.21 2.88 
510.88 7.94 2.99 
510.86 7.76 2.86 
510.57 8.48 2.92 
510.84 8.29 3.05 
510.71 8.96 3.16 
510.05 10.14 3.01 
510.29 9.86 2.96 
510.55 9.60 2.92 
512.22 8.44 3.07 
510.15 10.27 3.03 
510.33 10.13 3.18 
510.47 9.90 2.97 
510.69 10.35 3.04 
501.06 1.36 2.06 
500.99 1.95 1.97 
501.35 1.69 2.01 
501.09 2.37 2.18 
501.11 2.60 2.05 
493.19 11.14 2.75 
493.14 11.98 2.86 
493.65 11.72 2.83 
493.74 12.45 2.94 
510.04 7.51 3.03 
501.07 14.68 3.84 
501.57 14.43 3.82 
501.73 14.22 3.79 
509.71 7.98 3.21 
510.18 7.79 3.33 
510.16 7.54 3.30 
510.60 8.54 3.43 
511.05 8.18 3.34 
509.93 9.31 3.24 
510.85 8.83 3.46 
511.35 8.10 3.31 
510.04 9.78 3.67 
510.47 9.29 3.56 
510.90 9.07 3.50 
510.23 10.38 3.40 
510.28 10.17 3.37 
510.72 9.85 3.64 
510.25 10.48 3.42 
510.46 10.42 3.58 
510.76 10.17 3.69 
511.44 9.72 3.58 
500.83 1.70 2.50 
500.92 2.51 2.60 
501.11 2.24 2.56 
492.89 11.73 3.53 
501.58 14.35 4.33 
501.62 14.81 4.40 
501.79 14.53 4.35 
510.35 7.95 3.69 
510.21 8.65 3.82 
510.51 8.43 3.75 
510.77 8.18 3.69 
510.15 9.11 3.90 
510.39 8.97 3.85 
510.68 8.64 3.78 
510.21 9.75 4.01 
510.37 9.53 3.95 
510.89 9.44 3.90 
501.78 1.73 2.62 
500.95 14.38 4.36 
500.89 14.73 4.42 
500.74 15.25 4.52 
501.19 14.94 4.45 
509.70 8.43 4.18 
509.46 8.92 4.29 
509.84 9.16 4.29 
510.13 8.96 4.23 
509.87 9.78 4.40 
509.87 9.69 4.39 
510.78 9.27 4.22 
510.28 9.87 4.38 
511.24 9.77 4.26 
509.54 9.29 4.72 
510.28 9.30 4.63 
510.46 -3.95 0.31 
510.80 -3.90 0.33 
511.03 -3.93 0.34 
511.31 -3.91 0.36 
511.76 -3.79 0.40 
511.88 -3.85 0.40 
493.40 11.53 1.53 
493.93 11.79 1.59 
513.18 1.28 0.91 
513.37 1.19 0.91 
513.60 0.98 0.90 
512.45 2.09 0.99 
513.37 1.57 0.97 
513.44 1.22 0.92 
513.88 0.91 0.91 
514.07 0.73 0.89 
514.64 1.09 0.99 
514.73 0.77 0.95 
514.98 0.58 0.93 
515.40 0.49 0.95 
515.72 0.33 0.94 
515.04 1.11 1.02 
515.92 0.41 0.97 
502.16 13.21 2.25 
502.24 13.54 2.30 
502.19 13.92 2.35 
502.22 14.47 2.42 
511.16 8.21 1.78 
510.21 9.24 1.92 
501.59 2.10 1.03 
501.00 2.87 1.11 
511.91 -3.80 0.41 
512.15 -3.81 0.42 
512.45 -3.85 0.43 
492.63 11.68 2.06 
493.05 11.40 2.03 
512.73 -3.80 0.45 
512.98 -3.85 0.46 
513.44 -3.96 0.47 
493.39 11.75 2.09 
513.65 -3.93 0.48 
513.96 -3.98 0.49 
514.25 -4.08 0.49 
492.61 13.10 2.26 
493.32 12.48 2.19 
493.50 12.07 2.14 
514.50 -4.14 0.49 
493.27 12.71 2.22 
493.60 12.66 2.23 
493.14 13.59 2.34 
493.43 13.13 2.29 
515.25 -3.45 0.63 
515.48 -3.46 0.64 
516.36 -2.96 0.76 
501.36 15.14 2.84 
511.03 8.27 2.23 
511.17 8.12 2.21 
510.19 9.26 2.30 
510.47 8.88 2.44 
510.97 8.77 2.45 
511.22 8.54 2.42 
511.32 8.38 2.40 
511.56 8.64 2.45 
501.60 1.63 1.17 
501.62 1.83 1.20 
502.02 1.62 1.18 
493.40 10.13 2.06 
493.39 10.74 2.14 
494.00 10.30 2.10 
494.54 10.88 2.20 
494.15 11.75 2.31 
494.42 11.47 2.28 
494.30 11.90 2.33 
501.31 13.77 2.82 
502.15 13.89 2.87 
509.63 8.38 2.54 
509.67 8.26 2.52 
509.72 8.64 2.58 
511.36 7.51 2.58 
511.06 8.30 2.68 
511.88 7.63 2.60 
510.08 9.53 2.84 
510.22 9.14 2.66 
510.59 8.83 2.61 
510.81 8.76 2.65 
511.82 7.80 2.62 
512.09 7.86 2.63 
511.12 9.18 2.69 
511.78 8.70 2.74 
511.13 9.52 2.72 
511.24 9.55 2.73 
511.51 9.75 2.76 
501.59 0.55 1.57 
502.03 0.72 1.60 
502.05 1.21 1.66 
501.44 2.24 1.61 
493.34 11.70 2.85 
501.54 13.35 3.31 
501.65 13.70 3.36 
510.14 7.31 2.86 
501.46 14.65 3.38 
501.99 13.89 3.39 
509.87 8.00 2.86 
510.82 7.45 2.76 
500.70 15.35 3.48 
501.20 15.13 3.45 
501.42 14.83 3.40 
510.08 8.24 2.89 
510.33 8.28 2.89 
510.79 7.94 2.84 
510.80 7.54 2.78 
511.17 7.39 2.85 
510.15 8.66 2.95 
510.58 8.34 2.90 
510.89 7.91 3.18 
512.04 7.49 3.13 
512.12 7.43 3.12 
510.55 9.05 3.01 
510.67 8.85 2.98 
511.08 8.39 3.12 
510.87 9.29 3.04 
510.99 9.15 3.06 
512.19 8.07 2.93 
510.82 9.90 3.14 
510.89 9.52 3.10 
510.51 10.31 3.21 
511.05 9.99 3.15 
511.57 9.52 3.14 
501.48 1.35 2.14 
502.02 0.84 2.15 
501.10 2.13 2.16 
501.26 1.98 2.14 
493.56 10.24 2.79 
493.80 10.42 2.81 
493.85 10.61 2.84 
494.02 11.32 2.94 
493.68 11.89 3.02 
493.91 11.65 2.99 
501.32 13.79 3.91 
501.83 13.83 3.91 
501.68 13.54 3.87 
510.43 7.16 3.15 
501.89 13.98 3.93 
510.00 7.73 3.19 
502.22 14.05 3.94 
510.25 8.27 3.26 
511.40 7.35 3.14 
510.60 8.28 3.61 
510.86 8.16 3.22 
509.49 9.73 3.52 
510.65 9.02 3.37 
510.80 8.69 3.43 
511.99 7.86 3.46 
512.42 7.55 3.39 
510.74 9.30 3.59 
509.88 10.45 3.63 
510.01 10.38 3.61 
510.50 10.11 3.55 
510.55 9.95 3.52 
510.23 10.55 3.63 
510.50 10.43 3.61 
511.23 9.79 3.48 
501.03 2.06 2.73 
509.38 7.83 3.61 
510.20 8.05 3.60 
510.06 8.94 3.75 
510.37 8.46 4.02 
510.39 8.35 4.00 
510.52 8.87 4.08 
512.24 7.66 3.96 
509.16 10.14 4.01 
510.62 9.29 3.96 
510.71 10.08 3.91 
501.60 1.28 2.76 
501.24 1.70 2.82 
501.70 13.66 4.42 
500.61 14.99 4.69 
501.78 14.19 4.51 
509.95 8.69 4.09 
510.14 8.67 4.33 
509.85 9.17 4.19 
510.21 9.01 4.51 
510.45 9.67 4.23 
509.91 8.30 4.41 
509.16 9.72 4.75 
509.65 9.33 4.62 
510.09 9.11 4.54 
501.89 1.35 0.85 
493.67 11.39 1.82 
493.85 12.25 1.95 
494.00 11.90 1.91 
494.42 11.51 1.87 
501.89 13.51 2.51 
502.09 13.93 2.58 
501.95 13.63 2.53 
502.32 14.21 2.63 
511.14 8.16 1.93 
500.79 1.58 1.22 
500.67 1.93 1.26 
501.23 1.94 1.28 
501.08 2.55 1.35 
501.36 2.22 1.32 
500.97 2.80 1.39 
501.43 2.47 1.35 
492.57 11.69 2.39 
492.55 12.20 2.46 
492.51 12.45 2.49 
493.40 11.79 2.42 
493.04 12.56 2.52 
493.64 12.89 2.58 
493.72 12.63 2.55 
493.12 13.65 2.67 
493.61 13.14 2.62 
510.20 7.29 2.43 
501.25 14.93 3.07 
501.60 14.74 3.06 
510.61 7.63 2.49 
510.91 7.44 2.47 
501.26 15.09 3.10 
511.10 8.21 2.26 
511.37 7.85 2.54 
511.93 7.62 2.52 
510.15 9.19 2.51 
510.75 9.30 2.72 
511.31 9.13 2.72 
512.00 8.45 2.64 
512.08 8.32 2.62 
512.28 8.73 2.69 
512.28 8.61 2.67 
501.80 1.36 1.42 
501.83 1.20 1.39 
502.38 0.96 1.38 
502.16 1.62 1.46 
501.76 2.06 1.51 
494.03 12.06 2.66 
494.00 11.84 2.63 
501.62 14.15 3.16 
501.97 13.87 3.13 
502.05 14.09 3.16 
509.00 8.47 2.80 
511.31 7.11 2.75 
511.63 6.80 2.71 
510.41 8.11 2.75 
510.89 7.60 2.82 
511.05 7.49 2.81 
511.45 7.20 2.77 
511.59 7.03 2.74 
510.52 8.53 2.81 
510.60 8.40 2.80 
511.43 7.81 2.85 
511.76 7.34 2.79 
510.91 8.77 2.85 
511.57 8.32 2.92 
512.21 7.74 2.84 
510.08 10.06 3.04 
510.27 9.97 3.03 
511.11 9.26 2.99 
511.19 9.07 2.92 
511.83 8.56 2.96 
512.17 8.00 2.88 
512.38 7.90 2.87 
510.15 10.14 3.05 
510.84 9.65 2.98 
511.22 9.46 3.08 
511.36 9.27 3.06 
511.87 8.74 2.98 
501.36 1.01 1.93 
501.45 1.72 1.84 
501.57 1.41 1.98 
501.15 2.21 1.90 
501.76 1.63 2.01 
501.32 2.57 1.95 
492.76 11.64 3.20 
493.18 12.42 3.31 
509.72 7.73 3.10 
510.67 6.76 3.04 
510.79 6.78 3.04 
501.28 14.58 3.67 
501.98 13.93 3.69 
509.58 8.20 3.17 
509.82 7.95 3.13 
501.25 15.21 3.76 
501.75 14.62 3.68 
510.17 8.41 3.19 
511.04 7.36 3.11 
511.76 7.08 3.06 
501.52 15.51 3.81 
510.36 8.53 3.21 
510.75 8.13 3.14 
511.66 7.65 3.14 
510.00 9.38 3.35 
510.36 9.28 3.32 
510.55 8.96 3.27 
510.89 8.70 3.22 
511.38 8.47 3.26 
510.04 9.93 3.43 
511.09 9.27 3.31 
511.29 8.90 3.32 
511.46 8.48 3.26 
512.26 8.22 3.21 
512.59 8.04 3.17 
510.14 10.31 3.49 
510.95 9.59 3.43 
511.09 9.48 3.36 
511.46 9.06 3.27 
512.67 8.11 3.18 
509.85 10.73 3.56 
510.68 10.41 3.50 
501.10 2.14 2.49 
501.38 1.82 2.59 
501.99 1.22 2.51 
502.18 1.03 2.48 
501.59 2.03 2.47 
492.67 12.31 3.29 
492.67 12.06 3.26 
501.75 13.44 4.18 
501.66 13.78 4.23 
502.04 13.70 4.21 
510.94 6.65 3.35 
502.53 13.70 4.21 
509.64 8.06 3.56 
509.73 7.85 3.52 
510.09 7.73 3.49 
511.04 6.85 3.37 
511.36 7.98 3.48 
511.73 7.38 3.41 
511.98 7.20 3.37 
512.17 7.05 3.34 
510.54 8.92 3.66 
510.88 8.46 3.57 
511.56 8.04 3.49 
511.90 7.90 3.78 
512.16 7.51 3.41 
509.89 9.69 3.81 
510.40 9.34 3.74 
510.82 9.05 3.67 
511.69 8.68 3.59 
511.86 8.12 3.51 
510.62 9.85 3.81 
510.89 9.63 3.76 
510.96 10.05 3.83 
511.59 9.54 3.73 
501.74 0.40 2.41 
513.21 -4.65 2.56 
513.09 -4.43 2.59 
513.32 -4.64 2.56 
509.26 8.50 4.07 
510.28 7.92 3.91 
510.27 8.57 4.02 
511.35 7.51 4.08 
509.98 9.30 4.16 
510.58 8.65 4.01 
511.07 8.68 3.98 
510.44 9.88 4.23 
511.17 9.35 4.09 
510.61 10.05 4.25 
501.50 1.27 3.09 
509.94 8.38 4.41 
510.02 8.59 4.44 
509.30 9.58 4.68 
510.33 9.11 4.51 
510.63 8.91 4.45 
510.18 9.35 4.56 
510.16 9.11 4.94 
510.24 8.91 4.89 
501.82 1.39 0.90 
493.97 11.77 1.91 
494.01 12.21 1.97 
494.16 11.96 1.94 
514.38 -1.82 0.74 
514.61 -1.99 0.73 
514.84 -2.33 0.69 
514.82 -1.97 0.75 
515.23 -2.11 0.75 
515.54 -2.26 0.75 
515.95 -2.51 0.74 
515.76 -2.20 0.77 
516.07 -2.41 0.76 
516.30 -2.57 0.75 
502.08 13.91 2.60 
502.25 13.71 2.58 
502.46 13.97 2.63 
500.61 1.49 1.26 
500.58 2.04 1.33 
500.76 1.67 1.29 
500.98 2.60 1.42 
501.26 2.35 1.39 
500.90 2.87 1.45 
493.64 12.77 2.62 
510.31 7.45 2.53 
510.54 7.22 2.50 
510.29 7.56 2.54 
510.86 7.61 2.56 
511.04 8.23 2.30 
511.46 7.87 2.61 
511.85 7.68 2.60 
510.14 9.30 2.59 
511.88 8.12 2.66 
512.07 8.00 2.65 
511.10 8.96 2.75 
511.68 8.75 2.74 
512.00 8.31 2.69 
501.45 0.81 1.39 
501.79 1.35 1.47 
501.68 2.09 1.57 
492.20 11.94 2.46 
492.23 12.46 2.53 
492.50 12.23 2.51 
492.71 12.54 2.56 
493.28 11.87 2.48 
492.87 12.90 2.61 
492.94 13.51 2.70 
493.44 13.14 2.66 
493.55 13.06 2.65 
494.06 12.30 2.75 
493.02 13.74 2.73 
501.44 13.64 3.14 
501.97 13.99 3.20 
502.08 13.63 3.15 
502.10 14.31 3.25 
509.25 8.31 2.87 
511.12 7.19 2.86 
511.26 7.04 2.84 
511.68 6.78 2.80 
510.23 8.05 2.84 
510.63 8.05 2.84 
511.25 7.49 2.90 
511.48 7.28 2.87 
511.68 6.92 2.82 
510.32 8.80 2.95 
510.59 8.49 2.91 
510.75 8.19 2.86 
511.09 7.96 2.97 
511.43 7.80 2.94 
510.45 8.86 2.96 
510.88 8.59 2.92 
511.49 8.02 2.97 
511.12 9.23 3.08 
511.13 8.94 2.98 
511.78 8.63 3.06 
511.98 8.37 3.03 
512.09 8.15 3.00 
511.22 9.46 3.18 
511.81 8.84 3.09 
511.96 8.68 3.07 
511.52 9.61 3.20 
501.74 0.99 2.01 
501.40 1.45 2.06 
501.62 1.24 2.04 
501.87 1.50 1.90 
500.79 2.89 2.08 
501.14 2.62 2.04 
501.22 13.78 3.75 
501.15 14.62 3.76 
501.92 13.77 3.75 
502.17 13.70 3.75 
509.55 7.91 3.25 
509.69 7.73 3.22 
510.89 6.80 3.16 
510.95 6.70 3.14 
501.14 15.06 3.82 
501.29 14.69 3.77 
502.24 14.01 3.79 
509.46 8.08 3.28 
509.90 7.93 3.25 
501.20 15.38 3.87 
510.31 8.34 3.31 
510.80 7.95 3.24 
510.87 7.83 3.22 
511.81 7.05 3.17 
510.17 8.57 3.34 
510.88 8.22 3.31 
511.38 7.60 3.26 
511.81 7.26 3.20 
512.12 7.38 3.21 
510.52 9.12 3.42 
510.72 8.71 3.36 
511.08 8.59 3.33 
511.20 8.32 3.36 
511.57 7.97 3.30 
512.07 7.65 3.25 
510.10 10.04 3.58 
510.43 9.69 3.52 
510.42 9.35 3.46 
510.75 9.09 3.42 
511.41 9.00 3.42 
511.47 8.59 3.40 
510.00 10.40 3.63 
510.08 10.17 3.60 
510.38 9.90 3.55 
511.55 9.15 3.45 
511.91 8.74 3.41 
512.41 8.31 3.34 
511.69 9.35 3.50 
500.87 2.27 2.62 
501.26 2.09 2.59 
492.59 11.47 3.25 
492.48 12.24 3.36 
492.82 11.76 3.29 
492.94 12.37 3.38 
492.74 12.97 3.46 
492.92 12.72 3.43 
509.59 7.85 3.68 
509.44 8.14 3.74 
509.58 7.96 3.70 
510.09 7.98 3.68 
510.99 6.96 3.53 
509.43 8.84 3.85 
510.18 8.12 3.70 
511.11 7.69 3.62 
511.23 7.14 3.54 
510.57 8.58 3.76 
510.86 8.17 3.68 
511.70 7.32 3.55 
510.39 9.17 3.87 
511.01 8.68 3.76 
510.45 9.63 3.94 
510.72 9.38 3.89 
511.22 8.99 3.81 
510.56 9.77 3.96 
511.18 9.66 3.92 
511.36 9.77 3.93 
501.75 1.83 2.69 
509.84 8.52 4.22 
511.27 7.51 3.94 
509.78 8.79 4.27 
510.36 8.48 4.18 
511.28 7.53 3.94 
512.07 7.74 3.92 
509.87 9.71 4.42 
510.38 9.44 4.34 
511.12 8.79 4.19 
512.01 8.04 3.96 
510.95 9.69 4.36 
511.09 9.77 4.36 
501.29 1.47 3.24 
509.09 8.61 4.28 
509.90 8.29 4.61 
510.03 9.19 4.76 
510.36 8.82 4.67 
510.75 8.66 4.61 
511.63 7.94 4.31 
509.77 9.27 4.80 
501.74 1.41 1.06 
494.28 11.33 2.01 
493.97 12.05 2.09 
493.89 11.82 2.06 
494.38 11.50 2.04 
493.96 12.29 2.12 
515.67 -2.95 0.79 
515.91 -3.12 0.78 
516.24 -3.45 0.75 
515.53 -2.22 0.90 
515.70 -2.58 0.85 
516.12 -2.98 0.82 
502.20 13.77 2.72 
510.15 9.39 2.29 
500.89 1.82 1.49 
501.08 2.01 1.52 
501.23 2.36 1.57 
501.31 2.82 1.64 
501.55 2.57 1.61 
501.24 3.29 1.70 
501.14 15.09 3.31 
501.38 14.94 3.29 
511.37 7.47 2.71 
511.48 7.26 2.69 
509.80 9.30 2.74 
510.07 9.31 2.74 
510.96 8.27 2.43 
511.56 7.67 2.74 
510.93 9.11 2.92 
511.90 8.04 2.80 
512.14 8.10 2.82 
511.05 9.15 2.93 
501.00 0.94 1.58 
501.42 0.87 1.58 
501.70 1.25 1.64 
501.53 1.80 1.71 
501.67 1.42 1.66 
501.51 1.94 1.72 
502.12 1.67 1.70 
501.72 2.33 1.78 
492.48 11.83 2.63 
492.55 12.46 2.72 
493.11 11.97 2.67 
493.03 12.73 2.77 
493.59 12.86 2.80 
493.00 13.68 2.90 
493.41 13.20 2.84 
493.57 13.10 2.83 
501.91 13.69 3.32 
501.91 14.07 3.37 
502.41 13.71 3.33 
509.19 8.27 3.05 
510.60 7.00 3.01 
502.06 14.41 3.42 
510.40 7.54 3.08 
510.26 8.32 3.07 
510.61 8.08 3.03 
510.93 7.59 3.09 
511.27 7.56 3.09 
511.74 7.17 3.04 
509.87 9.19 3.19 
510.37 8.76 3.13 
510.63 8.41 3.08 
510.83 8.40 3.08 
510.97 8.03 3.15 
510.55 9.07 3.18 
510.77 8.86 3.15 
510.30 9.89 3.30 
510.94 9.38 3.28 
510.99 9.23 3.27 
511.32 8.90 3.15 
511.97 8.73 3.26 
511.91 8.42 3.21 
510.64 9.84 3.41 
511.84 8.88 3.28 
501.02 1.43 2.26 
501.62 0.99 2.20 
501.59 0.83 2.18 
501.20 1.90 2.15 
501.43 1.71 2.29 
501.24 2.87 2.28 
501.73 2.64 2.25 
500.79 14.67 3.95 
501.82 14.02 3.98 
509.22 8.12 3.51 
509.84 7.84 3.45 
510.86 6.81 3.36 
500.89 15.08 4.02 
509.78 8.08 3.49 
510.93 7.09 3.40 
501.26 15.49 4.08 
510.77 8.10 3.47 
511.22 7.50 3.45 
511.78 7.03 3.37 
509.62 9.53 3.72 
510.31 8.69 3.57 
510.68 8.46 3.53 
510.76 8.24 3.50 
511.37 8.03 3.52 
511.88 7.63 3.46 
512.11 7.24 3.40 
512.27 7.09 3.37 
510.02 9.51 3.71 
510.08 9.33 3.68 
510.65 9.04 3.65 
510.92 8.73 3.57 
511.11 8.59 3.58 
511.64 8.15 3.54 
512.07 7.68 3.46 
510.18 10.05 3.79 
510.30 9.54 3.71 
510.99 9.12 3.69 
511.52 8.79 3.63 
511.59 8.76 3.63 
510.08 10.23 3.82 
511.38 9.29 3.68 
511.56 9.16 3.66 
512.54 8.42 3.56 
500.92 2.39 2.86 
492.78 11.68 3.48 
492.54 12.28 3.57 
492.86 11.88 3.51 
492.94 12.70 3.63 
493.05 12.46 3.60 
492.52 13.36 3.73 
492.94 12.93 3.66 
515.58 -4.35 2.41 
509.77 7.95 3.93 
510.06 8.02 3.93 
511.02 7.15 3.78 
510.08 8.15 3.95 
510.16 8.10 3.94 
511.07 7.75 3.87 
510.52 8.40 3.98 
510.84 8.11 3.92 
511.61 7.52 3.81 
511.60 7.43 3.80 
510.73 9.01 4.07 
510.84 8.62 4.00 
511.49 8.08 3.90 
510.68 9.60 4.17 
510.71 9.36 4.13 
501.08 1.00 2.82 
501.49 1.29 2.84 
500.55 2.59 2.89 
509.33 7.88 3.94 
510.36 7.63 4.27 
511.29 7.73 4.23 
510.58 8.73 4.48 
511.77 8.11 4.25 
512.24 7.72 4.16 
511.32 8.61 4.41 
511.27 9.16 4.51 
500.89 1.93 3.45 
501.60 1.24 3.44 
501.00 2.13 3.47 
509.56 8.60 4.52 
510.15 8.69 4.50 
509.97 9.33 4.62 
510.04 9.89 4.72 
510.44 9.52 4.63 
513.37 -4.45 3.30 
509.41 9.42 5.16 
509.54 9.06 5.08 
510.26 9.00 5.01 
501.67 1.45 1.23 
501.03 2.02 1.27 
501.35 1.75 1.25 
501.82 1.65 1.26 
493.24 10.49 2.02 
493.77 10.20 2.00 
493.19 11.75 2.17 
493.83 12.36 2.28 
502.13 13.81 2.84 
501.97 14.07 2.86 
510.08 9.38 2.39 
510.86 8.41 2.55 
500.91 1.85 1.69 
500.81 2.26 1.74 
501.19 2.08 1.72 
501.18 2.44 1.77 
501.15 3.06 1.85 
501.57 2.84 1.83 
501.56 2.64 1.81 
511.36 7.17 2.81 
511.44 7.07 2.80 
511.17 7.72 2.88 
511.67 7.28 2.83 
509.79 9.23 2.86 
510.13 9.24 2.87 
509.74 9.83 2.94 
510.16 9.54 2.91 
510.16 9.41 2.89 
511.60 8.35 2.97 
512.07 8.07 2.94 
511.80 8.48 2.99 
501.67 0.91 1.78 
501.47 2.01 1.92 
501.67 1.38 1.84 
501.27 2.21 1.94 
492.44 11.65 2.79 
492.34 12.36 2.89 
492.49 12.03 2.85 
493.01 12.42 2.91 
493.28 12.61 2.94 
492.98 13.26 3.02 
493.43 12.86 2.98 
493.04 13.80 3.09 
493.50 13.41 3.05 
501.52 13.56 3.44 
501.83 14.01 3.50 
501.82 13.57 3.44 
501.88 14.60 3.59 
502.13 14.47 3.57 
510.68 7.67 3.14 
511.19 7.37 3.23 
511.68 6.85 3.15 
510.51 8.28 3.23 
510.64 7.92 3.17 
511.58 7.13 3.19 
510.12 8.96 3.32 
510.61 8.53 3.26 
511.36 7.93 3.30 
511.86 7.72 3.27 
510.49 9.18 3.35 
510.60 9.09 3.34 
511.01 8.85 3.02 
510.76 9.62 3.42 
511.05 9.43 3.25 
512.38 8.12 3.33 
511.29 9.49 3.11 
501.44 1.38 2.46 
501.74 0.70 2.38 
501.06 2.20 2.40 
501.14 1.81 2.35 
501.72 1.26 2.45 
500.85 2.77 2.48 
501.33 2.11 2.55 
501.99 1.66 2.50 
502.12 2.01 2.54 
501.74 13.94 4.14 
510.47 6.78 3.15 
501.05 15.09 4.19 
509.89 7.82 3.65 
510.79 6.90 3.36 
501.33 15.16 4.21 
510.94 7.38 3.63 
510.81 8.03 3.66 
511.42 7.54 3.64 
511.63 7.30 3.60 
511.97 6.98 3.55 
510.81 8.42 3.72 
511.68 7.48 3.63 
512.12 7.08 3.56 
512.37 6.93 3.53 
510.43 9.30 3.86 
510.76 9.08 3.64 
511.02 8.75 3.76 
511.25 8.76 3.82 
511.71 8.17 3.72 
511.75 7.92 3.69 
512.32 7.59 3.63 
512.43 7.48 3.61 
510.76 9.51 3.52 
511.34 9.24 3.83 
510.92 9.72 3.91 
511.42 9.32 3.84 
511.98 8.81 3.81 
492.56 12.19 3.77 
492.79 11.83 3.72 
492.85 11.58 3.69 
492.62 12.45 3.81 
492.97 12.76 3.85 
509.47 8.15 3.70 
510.38 7.19 3.62 
509.61 8.23 3.71 
509.69 8.05 3.68 
510.45 7.81 3.70 
511.06 7.06 3.99 
511.11 7.69 4.07 
510.29 9.44 3.88 
511.88 7.86 4.06 
510.44 9.60 3.90 
510.48 10.18 3.99 
511.20 9.58 3.94 
512.50 8.75 4.17 
501.06 1.44 3.10 
500.91 2.13 3.06 
501.02 1.82 3.15 
513.04 -4.39 2.78 
513.30 -4.67 2.73 
510.13 8.01 4.16 
509.90 8.55 4.25 
510.14 8.37 4.21 
510.82 7.57 4.07 
509.98 8.80 4.29 
510.37 8.75 4.27 
510.64 8.40 4.20 
511.40 7.80 4.47 
510.45 9.32 4.35 
510.52 8.89 4.28 
510.87 8.85 4.26 
510.22 9.65 4.42 
510.62 9.26 4.33 
510.92 9.03 4.29 
510.69 7.55 4.48 
509.87 8.54 4.75 
510.93 7.87 4.52 
509.21 9.55 4.96 
509.58 9.37 4.91 
509.76 9.01 4.84 
510.07 8.73 4.77 
510.27 8.62 4.74 
510.71 8.41 4.61 
509.98 9.36 4.88 
510.64 8.80 4.74 
510.89 8.71 4.68 
510.55 9.43 4.86 
501.21 1.06 1.16 
501.57 1.48 1.24 
501.88 1.73 1.28 
493.23 10.27 1.98 
493.15 11.11 2.08 
493.42 11.29 2.12 
493.63 11.79 2.19 
493.96 11.41 2.16 
494.09 11.63 2.19 
494.26 11.38 2.17 
501.39 13.78 2.80 
501.84 14.01 2.85 
502.20 13.66 2.82 
502.54 14.00 2.88 
510.87 8.25 2.54 
510.13 9.46 2.42 
510.90 8.51 2.58 
511.12 8.45 2.58 
511.23 8.70 2.62 
500.62 1.41 1.66 
500.90 1.99 1.74 
501.01 1.81 1.72 
501.15 2.31 1.79 
501.60 2.54 1.83 
501.62 2.96 1.88 
510.02 9.30 2.92 
509.81 9.76 2.98 
510.19 9.64 2.97 
501.80 1.21 1.86 
492.40 11.74 2.82 
492.66 11.94 2.85 
492.42 12.59 2.93 
492.47 12.29 2.90 
493.17 12.64 2.96 
493.15 12.93 3.00 
493.01 13.55 3.08 
493.65 13.04 3.02 
493.06 13.81 3.11 
501.46 13.89 3.51 
501.84 14.07 3.54 
511.53 6.66 2.79 
509.78 8.24 3.29 
509.89 8.14 3.28 
510.68 7.72 3.06 
511.25 7.17 2.85 
511.46 6.93 2.82 
510.01 8.82 3.38 
510.55 8.50 3.33 
510.63 8.26 3.30 
511.10 7.97 2.95 
509.86 9.12 3.42 
510.53 8.99 3.40 
511.34 8.17 2.98 
511.44 8.14 2.98 
510.57 9.24 3.44 
511.58 8.57 3.04 
511.73 8.28 3.01 
510.84 9.52 3.48 
511.07 9.45 3.15 
511.37 9.35 3.14 
511.80 8.81 3.08 
510.91 9.83 3.53 
511.81 9.11 3.12 
500.64 1.95 2.43 
501.18 1.72 2.40 
501.42 1.46 2.53 
501.70 1.09 2.48 
501.91 0.95 2.46 
500.97 2.21 2.46 
501.23 1.89 2.42 
501.83 1.30 2.51 
510.74 6.88 3.23 
511.70 6.96 3.25 
511.64 7.28 3.29 
511.64 7.15 3.27 
511.51 7.95 3.38 
511.94 7.47 3.31 
511.64 8.69 3.48 
512.30 8.25 3.42 
511.07 9.81 3.64 
511.56 9.51 3.60 
492.56 12.43 3.85 
492.66 12.15 3.81 
492.86 11.77 3.76 
492.66 12.71 3.89 
492.97 13.04 3.94 
493.15 12.81 3.91 
501.65 13.42 4.13 
501.74 13.93 4.20 
510.19 6.93 3.69 
508.84 8.65 3.90 
509.91 7.81 3.75 
510.00 8.10 3.79 
510.97 7.18 3.70 
511.26 7.20 3.70 
510.83 8.10 3.78 
511.46 7.46 3.73 
511.74 7.21 3.69 
510.61 8.65 3.86 
510.83 8.21 3.85 
511.26 8.14 3.77 
511.48 8.16 3.83 
509.59 10.06 4.10 
510.32 9.59 4.01 
510.57 9.18 3.95 
511.15 8.74 3.87 
511.86 8.27 3.84 
510.54 9.75 4.03 
511.79 8.74 3.91 
511.07 9.84 4.04 
511.58 9.42 3.96 
501.57 1.24 3.14 
512.89 -4.16 2.93 
513.31 -4.51 2.87 
513.36 -4.68 2.84 
515.70 -4.55 3.07 
509.45 8.65 4.43 
510.19 8.06 4.30 
510.41 7.65 4.23 
509.91 8.63 4.40 
510.69 7.77 4.24 
509.83 9.17 4.49 
510.26 8.73 4.40 
511.65 7.94 4.22 
510.40 9.45 4.52 
510.79 8.97 4.42 
511.06 8.79 4.38 
511.60 8.47 4.30 
511.66 8.06 4.24 
512.18 7.69 4.16 
510.14 9.87 4.60 
510.33 9.62 4.55 
510.71 9.27 4.48 
510.03 8.48 4.86 
510.38 8.19 4.76 
510.15 8.63 4.91 
511.00 8.12 4.71 
510.70 8.75 4.90 
513.13 -4.55 4.15 
500.79 1.63 1.32 
500.72 2.45 1.42 
501.06 2.25 1.41 
493.17 10.93 2.19 
493.22 10.65 2.16 
493.52 11.12 2.23 
493.03 11.91 2.31 
493.67 11.38 2.27 
493.60 12.12 2.37 
493.66 11.67 2.31 
493.37 12.77 2.44 
493.65 12.45 2.41 
500.91 14.33 3.00 
501.63 14.09 3.00 
510.19 9.55 2.56 
510.73 9.01 2.76 
511.50 9.42 2.85 
511.73 9.19 2.83 
501.21 2.40 1.93 
501.39 2.07 1.89 
501.06 3.05 2.01 
501.56 2.61 1.96 
501.34 3.47 2.07 
501.46 3.62 2.10 
509.24 8.65 2.97 
509.33 8.79 2.99 
509.91 9.26 3.07 
510.10 9.00 3.04 
510.07 8.74 3.01 
509.98 9.62 3.13 
510.12 9.41 3.10 
510.11 9.71 3.14 
510.52 9.69 3.15 
510.64 9.89 3.18 
511.22 10.05 3.21 
501.48 1.52 2.01 
500.86 2.50 2.13 
492.37 11.83 3.00 
492.85 11.35 3.13 
492.46 12.04 3.03 
493.13 12.41 3.10 
493.11 12.13 3.06 
493.56 12.56 3.13 
493.20 13.33 3.23 
493.30 12.94 3.18 
493.40 13.50 3.25 
493.62 13.13 3.21 
501.32 14.45 3.76 
509.99 7.45 3.01 
510.11 7.86 3.07 
510.25 7.65 3.04 
511.06 6.98 2.97 
510.36 8.15 3.11 
510.43 8.33 3.14 
510.96 8.27 3.14 
510.66 8.93 3.59 
510.83 8.51 3.17 
511.03 8.59 3.19 
510.62 9.21 3.63 
511.08 9.30 3.29 
511.44 8.73 3.22 
510.85 9.89 3.55 
511.08 9.57 3.50 
511.42 9.34 3.30 
511.39 9.06 3.26 
510.94 10.02 3.57 
501.28 1.67 2.54 
500.99 2.55 2.66 
501.19 2.33 2.63 
501.52 1.88 2.73 
501.59 2.72 2.69 
510.28 7.24 3.46 
509.68 8.14 3.47 
510.05 7.72 3.53 
510.22 7.53 3.50 
509.92 8.38 3.50 
511.11 7.54 3.51 
509.74 8.93 3.58 
510.21 8.74 3.56 
511.15 7.93 3.56 
511.61 7.67 3.53 
511.71 7.51 3.50 
510.26 9.41 3.66 
510.53 9.13 3.73 
511.53 7.99 3.57 
510.74 9.36 3.71 
511.34 9.31 3.76 
510.96 10.00 3.80 
511.53 9.40 3.78 
492.40 12.29 4.03 
492.42 12.53 4.07 
492.74 13.07 4.15 
492.69 12.74 4.10 
492.86 13.28 4.18 
515.44 -4.50 2.51 
516.16 -4.61 2.46 
516.22 -4.15 2.51 
501.44 14.43 4.49 
509.58 8.18 4.03 
509.64 8.19 4.03 
510.50 7.50 3.97 
509.28 8.84 4.14 
509.60 8.35 4.06 
510.15 8.31 4.04 
510.54 7.60 3.99 
510.12 8.51 4.07 
510.54 8.89 4.13 
510.77 8.47 4.06 
511.37 8.40 4.09 
511.36 8.26 4.07 
510.43 9.41 4.21 
511.02 9.03 4.14 
511.59 8.54 4.05 
510.50 10.00 4.30 
510.71 9.62 4.24 
511.20 9.26 4.20 
511.37 8.94 4.17 
511.24 9.88 4.27 
511.82 9.08 4.18 
500.57 2.13 3.45 
500.74 1.77 3.40 
500.93 2.29 3.35 
509.56 8.68 4.68 
510.19 8.01 4.54 
509.65 8.79 4.69 
510.29 8.54 4.63 
510.40 8.18 4.56 
509.85 9.17 4.75 
510.16 8.92 4.70 
510.35 8.71 4.65 
511.16 8.09 4.51 
510.13 9.47 4.79 
510.89 9.39 4.75 
511.35 9.20 4.69 
513.42 -4.29 3.49 
515.84 -4.61 3.24 
513.53 -4.54 3.62 
501.47 1.79 1.41 
501.51 1.50 1.38 
501.74 1.18 1.34 
492.87 11.27 2.26 
493.18 11.37 2.28 
493.64 11.64 2.34 
493.46 11.97 2.37 
494.11 12.07 2.41 
501.29 14.08 3.00 
501.79 14.11 3.03 
502.00 13.74 2.99 
510.73 7.55 2.59 
510.77 7.81 2.63 
510.76 7.67 2.61 
510.61 8.33 2.69 
510.93 8.23 2.69 
510.97 7.91 2.65 
511.64 8.60 2.77 
512.01 8.85 2.82 
512.21 9.00 2.85 
501.03 2.49 2.00 
501.20 2.32 1.98 
501.72 2.60 2.03 
501.13 3.31 2.11 
501.63 2.79 2.05 
509.55 8.40 2.99 
509.46 8.92 3.06 
509.52 8.57 3.02 
509.53 9.15 3.10 
510.23 9.00 3.09 
510.43 9.30 3.14 
510.45 9.11 3.11 
510.80 8.91 3.09 
510.40 9.47 3.16 
510.78 9.47 3.17 
510.93 9.02 3.11 
510.48 9.85 3.22 
510.92 9.79 3.22 
510.86 9.61 3.19 
511.17 9.85 3.23 
501.38 1.44 2.06 
493.32 10.67 3.11 
492.41 11.75 3.05 
493.47 10.93 3.15 
492.71 12.08 3.10 
492.70 12.64 3.18 
493.11 12.07 3.11 
492.66 13.16 3.25 
492.95 13.50 3.30 
514.50 -4.58 1.80 
501.76 14.15 3.78 
510.37 6.99 3.01 
510.49 7.47 3.07 
510.84 7.41 3.07 
510.75 7.71 3.11 
511.29 7.86 3.14 
511.27 8.31 3.20 
511.40 8.28 3.20 
511.54 7.93 3.16 
511.73 8.54 3.25 
510.59 9.81 3.39 
511.21 9.60 3.38 
511.46 9.35 3.35 
511.31 9.69 3.39 
501.04 1.70 2.63 
500.97 2.40 2.73 
501.37 2.31 2.72 
501.62 1.87 2.66 
500.86 2.81 2.79 
501.60 2.96 2.81 
510.70 6.78 3.47 
509.29 8.60 3.61 
509.49 8.24 3.56 
509.65 8.07 3.53 
510.38 7.29 3.55 
510.78 7.05 3.51 
511.67 7.04 3.51 
510.02 8.93 3.66 
510.66 8.27 3.57 
510.75 8.05 3.53 
511.06 7.72 3.61 
511.55 7.59 3.59 
512.18 7.12 3.52 
510.49 9.19 3.70 
510.70 8.80 3.64 
511.09 8.61 3.73 
511.56 8.16 3.67 
512.06 7.73 3.61 
510.34 9.63 3.77 
510.55 9.32 3.72 
511.11 8.84 3.71 
511.50 8.80 3.76 
511.60 8.29 3.69 
510.01 10.59 3.91 
510.16 10.30 3.86 
510.32 10.05 3.83 
511.78 8.83 3.77 
511.93 8.93 3.78 
512.45 8.45 3.71 
501.05 0.96 2.69 
500.99 1.14 2.72 
501.88 1.40 2.75 
492.43 12.23 4.11 
492.45 12.79 4.19 
492.46 12.48 4.15 
513.19 -4.55 2.72 
515.58 -4.63 2.60 
515.71 -4.49 2.61 
509.98 7.80 4.13 
510.05 8.23 4.15 
510.72 7.62 4.09 
510.94 7.47 4.06 
510.63 8.39 4.15 
511.15 7.77 4.10 
510.32 8.99 4.25 
510.62 8.66 4.19 
510.65 8.49 4.17 
510.48 9.39 4.31 
510.85 9.10 4.26 
511.04 8.72 4.24 
511.85 8.15 4.14 
510.47 9.95 4.40 
510.95 9.43 4.31 
500.83 2.51 3.50 
510.61 7.58 4.58 
510.89 7.79 4.60 
510.24 8.76 4.80 
510.58 8.66 4.76 
510.90 8.55 4.72 
511.51 7.99 4.61 
510.65 8.94 4.81 
509.33 9.22 4.91 
509.74 8.80 4.83 
509.89 9.49 4.94 
513.54 -4.56 3.60 
513.22 -4.39 4.12 
513.23 -4.55 4.10 
500.95 0.88 1.34 
501.71 1.89 1.52 
492.98 10.40 2.24 
493.08 10.95 2.32 
493.08 10.66 2.28 
493.82 11.37 2.41 
494.00 11.60 2.45 
510.17 7.46 2.66 
510.24 7.34 2.64 
510.23 7.74 2.70 
511.00 7.83 2.74 
511.48 7.70 2.75 
511.62 8.18 2.82 
511.65 8.73 2.89 
511.72 9.02 2.93 
501.08 2.18 2.06 
501.40 2.32 2.09 
501.81 2.48 2.12 
508.92 8.79 3.17 
509.13 9.00 3.20 
510.07 9.06 3.23 
510.62 9.18 3.26 
510.68 8.96 3.23 
510.90 9.30 3.29 
510.70 9.94 3.37 
510.92 9.63 3.33 
501.29 1.35 2.15 
501.39 1.53 2.18 
493.01 11.05 3.28 
492.32 12.19 3.24 
493.15 11.19 3.30 
493.32 11.83 3.40 
492.79 12.61 3.31 
493.02 12.23 3.26 
492.77 13.08 3.37 
492.99 13.49 3.44 
492.93 13.84 3.48 
514.52 -4.51 1.92 
501.60 14.06 3.91 
510.32 7.07 3.14 
511.42 7.18 3.19 
511.48 6.96 3.16 
511.41 7.74 3.26 
510.96 8.53 3.36 
511.32 8.24 3.33 
511.66 7.84 3.28 
510.65 9.66 3.51 
500.88 2.33 2.85 
500.99 2.98 2.94 
501.44 2.44 2.87 
509.15 8.20 3.71 
510.11 7.09 3.67 
510.67 6.96 3.66 
509.72 8.22 3.72 
509.76 7.96 3.68 
510.77 7.15 3.68 
510.90 7.35 3.71 
510.73 8.17 3.71 
511.08 7.94 3.80 
511.36 7.61 3.75 
511.53 7.32 3.71 
510.46 9.18 3.87 
510.70 8.89 3.82 
510.92 8.65 3.79 
511.30 8.26 3.85 
511.57 7.90 3.79 
510.33 9.72 3.95 
510.41 9.40 3.90 
511.41 8.80 3.93 
511.39 8.55 3.89 
509.89 10.54 4.07 
511.35 9.50 3.92 
511.74 8.69 3.91 
511.56 9.58 3.93 
501.18 1.26 2.86 
501.39 14.08 4.68 
510.22 7.64 4.29 
509.86 8.10 4.37 
510.29 7.79 4.31 
510.90 7.79 4.30 
511.21 7.82 4.30 
510.77 8.62 4.43 
511.50 8.00 4.32 
512.08 7.72 4.26 
511.53 8.68 4.42 
511.77 8.27 4.35 
512.93 -4.15 2.94 
513.16 -4.41 2.89 
515.53 -4.18 3.23 
513.43 -4.64 3.80 
512.81 -4.47 4.37 
513.25 -4.29 4.34 
501.35 1.47 1.48 
501.47 1.24 1.46 
501.17 1.88 1.53 
501.70 1.89 1.56 
493.91 11.40 2.50 
509.83 7.89 2.78 
511.00 7.71 2.81 
511.41 7.93 2.86 
510.60 9.02 2.97 
510.89 8.94 2.98 
511.41 8.18 2.90 
511.73 8.07 2.90 
511.33 8.91 2.99 
501.16 1.94 2.10 
500.88 2.70 2.20 
501.05 2.44 2.17 
501.19 2.17 2.13 
501.61 2.80 2.23 
509.07 8.81 3.29 
509.64 8.93 3.32 
510.11 9.10 3.36 
510.13 8.90 3.33 
510.57 9.09 3.37 
510.74 9.19 3.39 
501.21 1.38 2.21 
501.06 1.76 2.26 
492.07 11.56 3.25 
492.89 11.02 3.38 
492.73 11.91 3.32 
493.07 11.47 3.45 
492.54 12.64 3.42 
492.90 12.05 3.35 
492.66 12.93 3.47 
492.60 13.29 3.52 
492.93 13.83 3.61 
493.01 13.48 3.56 
493.14 13.78 3.60 
514.50 -4.56 1.97 
510.11 7.32 3.28 
510.33 7.10 3.26 
510.45 6.84 3.22 
511.40 7.12 3.29 
511.60 7.56 3.36 
511.09 8.43 3.47 
511.38 8.06 3.42 
510.58 9.61 3.63 
512.02 8.43 3.49 
510.77 9.72 3.65 
501.09 2.36 2.95 
509.39 8.53 3.91 
509.67 8.06 3.84 
510.04 7.76 3.91 
510.74 7.19 3.83 
510.69 7.90 3.93 
510.58 8.47 3.91 
510.64 8.15 3.86 
511.22 7.87 3.93 
511.28 7.52 3.88 
510.61 8.96 3.98 
510.78 8.74 4.06 
510.99 8.52 3.97 
511.41 8.35 4.01 
511.49 7.97 3.95 
510.25 9.82 4.12 
510.55 9.21 4.02 
511.58 8.46 4.02 
511.21 9.49 4.07 
511.22 9.68 4.10 
492.36 12.42 4.44 
510.44 7.58 4.44 
509.97 8.20 4.50 
510.61 7.77 4.47 
511.34 7.92 4.48 
512.87 -4.13 3.05 
515.74 -4.51 3.31 
516.03 -4.51 3.29 
508.96 8.86 4.63 
509.43 8.84 4.62 
510.24 8.14 4.54 
513.09 -4.53 3.49 
500.89 2.10 1.55 
501.30 2.33 1.60 
493.42 11.48 2.53 
509.39 8.14 2.86 
509.63 7.86 2.83 
510.05 8.17 2.90 
510.43 8.14 2.91 
510.42 8.30 2.94 
510.97 8.45 2.98 
501.09 2.12 2.15 
501.00 2.63 2.23 
501.45 3.27 2.33 
501.35 3.04 2.30 
508.93 9.28 3.46 
509.19 8.93 3.41 
509.31 8.66 3.38 
509.64 9.14 3.46 
510.02 9.20 3.48 
510.22 9.04 3.46 
510.72 9.10 3.48 
510.89 9.58 3.56 
510.90 9.36 3.53 
510.88 9.83 3.60 
500.73 1.72 2.18 
500.69 1.93 2.31 
492.38 11.49 3.50 
492.43 11.97 3.39 
492.56 11.76 3.55 
492.81 12.36 3.46 
492.93 11.98 3.41 
492.63 12.71 3.51 
493.02 12.22 3.45 
492.79 13.34 3.61 
492.76 13.00 3.56 
492.95 13.62 3.66 
514.55 -4.58 2.02 
509.80 7.81 3.44 
509.97 7.56 3.41 
510.03 7.36 3.38 
510.95 7.43 3.42 
510.87 7.81 3.47 
510.93 7.61 3.44 
510.72 8.41 3.56 
511.25 7.86 3.49 
510.56 9.82 3.77 
511.14 9.36 3.72 
509.64 8.47 4.04 
509.76 8.10 3.98 
510.27 7.59 4.02 
510.80 7.95 4.08 
510.75 8.39 4.06 
511.06 8.40 4.15 
510.47 9.37 4.19 
510.52 9.04 4.14 
511.05 8.83 4.17 
511.33 8.48 4.17 
510.35 9.87 4.27 
510.91 9.38 4.31 
511.18 9.07 4.26 
511.33 9.57 4.23 
500.60 1.88 3.08 
501.03 1.78 2.92 
500.91 2.53 3.04 
492.47 12.67 4.59 
512.92 -4.04 3.16 
509.10 8.98 4.82 
509.60 8.83 4.81 
510.24 8.07 4.69 
510.15 8.88 4.79 
510.28 8.63 4.79 
513.28 -4.58 3.68 
500.78 1.38 1.41 
500.77 1.19 1.39 
501.12 1.59 1.46 
501.14 1.83 1.50 
501.21 1.63 1.47 
510.02 7.41 2.78 
509.81 7.85 2.83 
510.00 7.57 2.81 
510.08 8.14 2.89 
510.31 7.86 2.86 
510.80 7.89 2.89 
511.19 7.91 2.92 
511.37 8.15 2.96 
511.49 8.53 3.02 
508.88 8.84 3.41 
509.18 9.05 3.45 
509.28 9.35 3.50 
509.90 9.38 3.52 
510.21 9.31 3.52 
509.87 9.76 3.58 
510.20 9.79 3.59 
510.67 9.66 3.59 
500.50 2.51 2.19 
500.74 2.20 2.15 
501.09 1.65 2.28 
500.86 2.69 2.23 
500.29 3.35 2.31 
500.77 3.02 2.28 
500.96 3.44 2.34 
501.27 3.15 2.31 
491.81 12.18 3.35 
492.79 11.14 3.41 
492.41 12.23 3.38 
493.02 11.54 3.48 
492.66 12.40 3.41 
493.16 12.65 3.46 
492.89 13.44 3.57 
492.79 13.12 3.52 
509.79 7.31 3.39 
510.36 7.21 3.39 
511.31 7.13 3.41 
511.29 7.42 3.46 
511.05 8.57 3.62 
511.08 8.27 3.57 
511.59 7.68 3.50 
510.76 8.90 3.66 
509.53 8.17 4.04 
509.36 8.64 4.11 
509.54 8.40 4.07 
510.65 7.29 4.02 
510.45 8.29 4.07 
510.07 9.11 4.31 
510.40 8.72 4.14 
509.64 10.01 4.33 
510.60 9.10 4.20 
511.73 8.19 4.18 
510.14 9.97 4.33 
511.33 8.96 4.30 
511.55 8.66 4.25 
511.97 8.70 4.26 
511.19 9.61 4.29 
500.97 1.56 3.06 
500.80 2.59 3.07 
500.88 2.31 3.03 
501.34 3.01 3.14 
492.01 12.58 4.54 
492.29 12.82 4.58 
509.21 8.93 4.88 
509.63 8.95 4.88 
509.90 8.35 4.77 
510.13 8.38 4.82 
510.05 8.94 4.87 
510.35 8.69 4.87 
510.69 8.34 4.81 
510.24 9.60 4.99 
510.29 9.09 4.90 
510.80 9.00 4.88 
510.01 9.93 5.05 
510.76 9.25 4.92 
509.27 9.26 5.67 
501.16 1.68 1.34 
509.66 7.79 2.72 
510.41 7.80 2.77 
510.57 8.05 2.82 
510.76 8.38 2.87 
510.67 8.74 2.92 
511.40 8.82 2.97 
511.37 8.64 2.95 
508.76 8.90 3.34 
509.63 8.90 3.38 
509.48 9.46 3.45 
509.64 9.13 3.41 
509.61 9.90 3.52 
509.70 9.62 3.49 
510.06 9.89 3.54 
500.76 2.69 2.11 
500.98 3.08 2.18 
492.08 12.47 3.21 
492.03 12.07 3.15 
492.00 12.84 3.26 
492.68 12.92 3.30 
492.48 13.72 3.41 
493.14 13.09 3.35 
509.96 7.03 3.29 
509.72 7.72 3.38 
509.85 7.34 3.33 
510.36 7.25 3.34 
510.36 7.57 3.39 
510.42 7.85 3.43 
511.02 7.53 3.41 
511.44 7.82 3.47 
510.33 8.94 3.59 
510.50 9.76 3.72 
510.59 9.47 3.68 
511.93 8.61 3.60 
509.11 8.81 4.09 
508.98 8.41 4.03 
509.51 8.23 4.01 
510.56 7.31 4.00 
509.74 8.71 4.09 
510.58 7.92 4.10 
509.81 8.95 4.13 
510.37 8.50 4.07 
510.27 8.91 4.13 
510.61 8.97 4.15 
509.91 9.87 4.28 
510.65 9.18 4.18 
510.40 9.84 4.29 
511.41 8.97 4.28 
511.72 9.03 4.29 
500.83 1.63 2.91 
500.09 2.77 3.00 
500.52 2.40 2.95 
501.03 1.98 2.89 
500.80 2.56 2.97 
501.20 2.98 3.05 
516.27 -4.56 2.78 
492.04 12.31 4.34 
492.08 12.63 4.39 
492.27 12.93 4.44 
508.98 9.01 4.88 
510.64 7.80 4.72 
509.68 9.17 4.91 
509.79 8.93 4.87 
510.01 8.45 4.83 
510.06 9.16 4.91 
510.72 9.27 4.93 
510.83 8.96 4.87 
513.11 -4.32 4.43 
501.07 1.76 1.47 
510.31 7.88 2.90 
510.59 8.20 2.97 
510.32 8.88 3.05 
510.50 8.57 3.01 
511.23 8.88 3.10 
509.07 8.94 3.52 
509.12 9.41 3.60 
509.93 9.33 3.62 
509.93 9.76 3.68 
510.34 9.35 3.63 
510.51 9.80 3.71 
500.38 2.64 2.25 
500.67 2.30 2.20 
500.91 1.64 2.31 
500.74 2.82 2.29 
500.90 2.36 2.41 
501.01 3.35 2.37 
501.15 3.04 2.33 
491.74 12.39 3.39 
491.83 12.04 3.34 
492.86 11.49 3.48 
493.19 11.03 3.42 
492.27 12.25 3.39 
492.55 12.66 3.46 
492.60 12.42 3.42 
492.52 13.57 3.59 
492.88 13.79 3.64 
510.12 7.68 3.55 
510.24 8.07 3.62 
510.40 7.61 3.55 
510.93 7.78 3.60 
510.54 8.85 3.75 
511.26 8.05 3.65 
510.29 9.66 3.86 
510.79 8.97 3.77 
511.47 8.17 3.68 
514.09 -4.63 2.24 
514.26 -4.39 2.28 
508.71 8.90 4.30 
509.34 8.81 4.29 
509.40 8.61 4.26 
509.46 8.23 4.20 
510.55 7.40 4.20 
510.00 8.95 4.33 
510.45 8.53 4.27 
509.81 9.86 4.47 
510.27 9.27 4.39 
510.77 8.74 4.31 
509.97 10.13 4.52 
510.90 9.16 4.38 
511.41 8.78 4.43 
511.14 9.79 4.49 
500.80 1.53 3.14 
501.02 2.38 3.13 
500.57 3.04 3.23 
500.89 2.65 3.17 
501.28 3.14 3.26 
510.31 7.94 4.28 
492.05 12.54 4.60 
492.03 12.91 4.66 
492.12 13.19 4.71 
509.11 9.03 5.11 
509.43 9.11 5.13 
509.89 8.46 5.05 
510.29 8.32 5.03 
509.30 9.50 5.20 
509.69 9.23 5.15 
510.57 8.50 5.06 
509.45 9.95 5.27 
510.17 9.21 5.14 
510.45 9.57 5.20 
510.96 9.01 5.11 
500.35 2.03 1.54 
500.53 2.27 1.59 
509.32 8.32 2.99 
510.00 8.78 3.10 
510.10 8.53 3.07 
510.55 8.74 3.12 
510.72 8.71 3.13 
510.78 8.87 3.16 
509.17 8.92 3.64 
509.17 9.29 3.70 
509.13 9.72 3.76 
509.98 9.49 3.76 
510.38 9.84 3.83 
510.59 9.53 3.79 
510.53 10.01 3.86 
500.34 2.20 2.47 
500.58 2.48 2.33 
500.79 2.99 2.41 
501.28 3.17 2.46 
491.71 12.25 3.67 
491.92 12.60 3.55 
492.43 12.15 3.68 
492.70 12.64 3.58 
493.06 12.87 3.63 
492.91 13.77 3.76 
493.06 13.29 3.70 
493.31 13.53 3.74 
510.59 8.54 3.82 
510.99 8.12 3.77 
510.01 9.56 3.95 
510.27 9.18 3.90 
511.00 8.58 3.84 
510.35 9.63 3.97 
514.28 -4.27 2.41 
509.29 8.70 4.42 
509.54 8.31 4.36 
509.66 8.74 4.44 
509.78 8.95 4.47 
510.49 8.56 4.42 
510.40 9.12 4.51 
510.51 8.77 4.46 
510.91 8.58 4.43 
510.21 9.81 4.62 
510.88 9.23 4.54 
510.11 10.41 4.72 
500.18 2.10 3.35 
500.72 2.87 3.34 
509.88 10.26 4.69 
510.81 9.28 4.66 
492.12 13.17 4.86 
492.26 12.89 4.82 
510.01 9.22 5.33 
510.37 9.27 5.34 
509.09 9.25 5.33 
508.95 9.56 5.39 
500.82 1.97 1.56 
509.51 8.00 2.95 
509.64 7.70 2.91 
509.60 8.46 3.02 
509.66 8.18 2.98 
510.76 8.38 3.08 
510.95 8.21 3.06 
511.09 8.50 3.11 
510.25 9.35 3.76 
510.36 9.56 3.80 
500.22 2.10 2.28 
500.73 1.49 2.40 
499.91 2.74 2.36 
500.29 2.33 2.32 
500.72 1.78 2.44 
500.54 2.91 2.41 
500.45 3.47 2.49 
491.86 12.34 3.48 
492.07 11.92 3.61 
492.02 12.60 3.53 
492.38 12.83 3.58 
493.03 12.93 3.62 
492.86 13.41 3.68 
509.85 7.41 3.64 
509.96 7.17 3.60 
508.68 9.20 3.68 
508.97 8.97 3.66 
510.13 7.53 3.66 
508.96 9.41 3.72 
511.00 7.50 3.70 
509.70 9.39 3.75 
510.36 9.13 3.91 
510.85 8.63 3.86 
511.36 8.13 3.80 
509.68 10.28 3.88 
510.28 10.23 3.90 
510.41 10.10 3.88 
511.46 9.30 3.98 
515.79 -4.60 2.47 
515.74 -4.16 2.54 
510.84 8.57 4.47 
510.75 9.19 4.57 
500.53 1.69 3.34 
509.25 8.69 4.46 
509.35 8.35 4.41 
509.52 8.83 4.49 
510.01 8.83 4.50 
510.32 8.61 4.47 
510.15 9.16 4.56 
509.60 10.24 4.72 
510.30 9.75 4.66 
509.97 10.26 4.73 
509.26 9.11 5.38 
508.68 9.80 5.50 
509.76 9.09 5.37 
509.42 9.88 5.51 
510.28 9.06 5.37 
500.81 1.94 1.59 
509.32 7.95 2.97 
509.51 8.13 3.00 
510.40 8.14 3.06 
499.89 2.65 2.41 
500.18 2.25 2.37 
500.64 1.81 2.51 
500.53 3.02 2.49 
500.35 3.43 2.55 
509.98 7.13 3.67 
508.90 8.89 3.71 
510.02 7.36 3.70 
510.26 7.56 3.74 
508.79 9.36 3.77 
510.98 7.42 3.75 
508.90 9.75 3.84 
510.80 7.99 3.83 
511.49 7.40 3.77 
509.53 9.66 3.85 
510.24 9.65 3.88 
509.69 10.52 3.99 
510.35 9.90 3.92 
510.93 9.22 4.02 
515.77 -4.28 2.62 
515.83 -4.12 2.64 
500.61 1.68 3.43 
500.42 2.91 3.48 
508.93 8.73 4.56 
509.41 8.55 4.54 
509.62 8.86 4.60 
509.94 9.12 4.65 
510.24 9.37 4.69 
510.10 10.37 4.85 
510.26 9.69 4.75 
510.81 9.30 4.69 
510.47 10.43 4.87 
509.33 9.10 5.51 
509.04 9.68 5.61 
509.55 9.97 5.66 
510.06 9.35 5.55 
509.59 10.29 5.72 
500.75 2.02 1.59 
509.42 8.21 2.99 
509.61 7.85 2.96 
509.62 8.37 3.03 
510.35 8.26 3.06 
510.84 8.39 3.11 
511.07 8.69 3.16 
500.53 1.90 2.54 
500.48 2.93 2.50 
508.92 8.25 3.81 
509.99 7.36 3.72 
508.89 9.08 3.75 
510.24 7.74 3.79 
508.86 9.67 3.84 
508.86 9.42 3.80 
510.44 8.01 3.83 
509.65 9.58 3.86 
510.77 8.11 3.86 
510.26 9.51 3.87 
510.32 9.76 3.91 
515.70 -4.02 2.73 
515.74 -4.14 2.71 
516.04 -4.60 2.65 
509.31 8.56 4.59 
509.82 7.98 4.62 
509.45 8.91 4.65 
510.18 8.07 4.64 
510.30 8.70 4.63 
510.11 9.36 4.74 
510.70 8.73 4.65 
510.33 9.90 4.83 
510.80 9.30 4.74 
510.15 10.50 4.92 
510.28 10.62 4.94 
500.39 1.79 3.49 
508.90 9.81 5.71 
509.26 9.20 5.60 
509.51 9.34 5.63 
509.46 10.01 5.74 
509.36 9.77 5.70 
500.57 2.01 1.65 
508.87 8.49 3.07 
508.84 8.27 3.03 
509.50 8.50 3.11 
509.42 8.78 3.14 
510.59 8.46 3.17 
510.85 8.90 3.24 
510.90 8.56 3.20 
500.48 2.05 2.66 
500.31 2.78 2.57 
500.40 3.13 2.62 
509.31 7.81 3.86 
508.42 9.31 3.86 
509.14 8.40 3.94 
508.73 9.55 3.91 
510.24 8.12 3.94 
510.84 7.58 3.89 
508.80 10.05 3.99 
509.70 9.78 3.98 
510.67 8.45 4.01 
509.62 10.17 4.04 
511.07 8.79 4.07 
511.43 8.31 4.02 
510.19 10.11 4.05 
515.68 -3.94 2.88 
515.91 -4.39 2.82 
515.74 -3.76 2.91 
516.51 -4.39 2.83 
508.63 9.13 4.90 
509.30 8.94 4.78 
509.27 8.61 4.72 
509.54 9.09 4.80 
509.83 9.39 4.86 
510.67 8.73 4.77 
510.30 9.58 4.90 
509.93 10.50 5.04 
510.17 9.97 4.96 
509.90 11.00 5.12 
500.23 1.97 3.64 
509.02 9.93 5.88 
509.43 9.39 5.79 
509.65 9.86 5.87 
508.83 8.48 3.11 
508.83 8.93 3.18 
509.60 8.96 3.23 
510.10 8.98 3.26 
510.30 9.17 3.30 
510.15 9.85 3.38 
511.15 9.43 3.39 
500.01 2.63 2.63 
499.74 3.06 2.68 
500.41 3.43 2.76 
500.40 3.09 2.71 
508.93 8.07 3.96 
508.55 9.06 4.09 
509.24 8.08 3.98 
508.66 9.74 4.02 
508.82 9.29 3.96 
508.75 10.05 4.07 
508.76 9.73 4.02 
509.54 9.87 4.07 
510.14 9.80 4.09 
510.12 10.07 4.31 
510.23 10.06 4.13 
508.56 9.48 5.07 
508.82 9.14 4.91 
509.22 8.55 4.94 
508.75 9.87 5.03 
509.33 9.20 4.93 
509.74 9.60 5.00 
509.84 9.82 5.04 
510.06 9.54 5.00 
509.93 10.16 5.10 
510.95 9.42 5.00 
509.94 10.80 5.20 
510.46 10.08 5.10 
510.29 11.24 5.28 
510.46 10.77 5.21 
508.78 10.09 6.06 
509.32 10.02 6.04 
508.59 8.93 3.21 
508.74 8.53 3.16 
508.80 9.13 3.25 
509.52 9.03 3.28 
499.71 3.38 2.79 
500.03 2.90 2.73 
500.25 3.50 2.83 
513.96 -4.37 2.42 
515.67 -4.50 2.47 
508.75 8.34 4.07 
508.70 9.32 4.04 
509.36 8.50 4.12 
508.69 9.91 4.12 
508.67 9.64 4.08 
509.59 9.06 4.22 
509.91 8.62 4.16 
508.63 10.39 4.19 
510.02 9.06 4.23 
509.56 10.10 4.37 
509.78 9.99 4.18 
510.01 9.57 4.31 
510.14 10.10 4.21 
510.34 10.20 4.42 
513.12 -4.61 2.93 
516.41 -4.34 3.03 
508.64 9.15 5.02 
509.21 9.12 5.03 
509.36 8.79 5.09 
509.39 9.39 5.07 
509.78 9.86 5.16 
509.92 9.55 5.11 
510.08 9.96 5.18 
509.71 10.93 5.33 
509.90 10.43 5.25 
510.28 10.87 5.33 
510.64 10.96 5.36 
509.56 10.15 6.21 
508.65 8.72 3.11 
508.65 9.36 3.20 
509.77 9.19 3.25 
510.06 9.49 3.31 
510.19 10.23 3.42 
510.21 9.90 3.37 
499.68 3.07 2.66 
500.21 3.58 2.76 
515.65 -4.39 2.48 
508.67 8.46 4.04 
509.31 8.59 4.09 
508.47 9.99 4.08 
509.56 8.74 4.12 
509.97 8.55 4.11 
508.78 10.16 4.12 
509.60 9.36 4.22 
509.90 8.86 4.16 
509.39 10.10 4.14 
509.92 9.43 4.24 
509.42 10.46 4.37 
509.98 10.03 4.24 
509.85 10.54 4.40 
510.15 10.29 4.20 
512.96 -4.39 2.98 
508.42 9.17 5.00 
508.79 9.24 5.02 
509.47 9.52 5.08 
510.00 9.51 5.10 
509.67 10.12 5.18 
509.88 10.73 5.29 
509.88 10.36 5.23 
510.19 10.86 5.32 
509.28 9.45 5.18 
512.09 8.28 3.28 
510.63 7.53 4.13 
510.79 7.81 4.00 
511.86 6.49 4.04 
511.82 7.49 4.17 
512.09 7.03 4.12 
512.05 7.47 4.00 
512.10 8.21 4.10 
512.61 7.57 4.12 
512.67 7.29 4.18 
511.90 9.20 4.23 
512.35 8.62 4.35 
512.65 8.17 4.12 
512.80 7.90 4.26 
513.00 8.30 4.15 
511.45 8.13 5.15 
511.94 7.40 5.05 
512.13 8.04 5.15 
512.62 8.04 5.15 
512.20 9.21 5.32 
512.82 8.68 5.25 
512.68 8.39 5.21 
512.77 9.11 5.32 
511.31 7.37 5.14 
511.86 7.38 5.15 
512.20 7.46 5.17 
510.30 7.57 4.09 
510.47 7.96 3.96 
512.07 6.82 4.05 
511.79 7.40 4.03 
512.01 7.27 4.11 
512.18 6.81 4.06 
511.72 8.20 4.22 
512.15 7.74 4.00 
512.32 7.58 4.16 
512.56 7.21 4.12 
512.13 8.32 4.17 
512.60 7.91 4.22 
512.00 9.31 4.20 
512.75 8.28 4.10 
511.09 8.17 5.13 
511.71 7.38 5.03 
511.90 7.97 5.12 
512.18 8.17 5.15 
511.93 9.17 5.30 
512.62 8.23 5.17 
