# .PCD v0.7 - Point Cloud Data file format
VERSION 0.7
FIELDS x y z
SIZE 4 4 4
TYPE F F F
COUNT 1 1 1
WIDTH 2172
HEIGHT 1
VIEWPOINT 0 0 0 1 0 0 0
POINTS 2172
DATA ascii
-168.23 -215.20 1.55 
-168.33 -220.10 1.63 
-168.50 -217.27 1.60 
-168.61 -216.35 1.53 
-168.54 -216.16 1.52 
-168.76 -220.10 1.69 
-168.83 -219.83 1.77 
-168.77 -218.13 1.70 
-168.90 -217.63 1.62 
-168.87 -217.45 1.60 
-169.13 -215.83 1.67 
-169.20 -218.15 1.71 
-169.14 -217.65 1.65 
-169.38 -219.70 1.83 
-169.52 -218.50 1.81 
-170.36 -218.15 1.82 
-170.83 -218.20 1.94 
-170.71 -217.95 1.86 
-171.18 -218.19 1.97 
-171.63 -219.26 2.03 
-172.46 -219.42 2.15 
-172.37 -219.20 2.13 
-172.26 -218.88 2.10 
-159.18 -217.48 0.56 
-160.15 -217.88 0.55 
-164.84 -214.29 1.70 
-164.94 -214.43 1.72 
-164.96 -214.08 1.70 
-165.34 -214.01 1.74 
-166.81 -224.96 1.62 
-167.82 -215.61 2.09 
-167.57 -224.61 1.70 
-168.27 -216.04 2.16 
-168.15 -215.54 2.12 
-168.18 -215.21 2.16 
-168.09 -214.99 2.14 
-167.84 -225.18 1.76 
-167.75 -224.80 1.73 
-168.55 -216.15 2.22 
-168.57 -215.28 2.20 
-168.32 -224.69 1.80 
-168.83 -216.49 2.27 
-168.72 -216.13 2.24 
-170.15 -218.01 2.49 
-169.97 -217.84 2.46 
-170.36 -217.96 2.51 
-171.24 -218.50 2.65 
-171.02 -218.44 2.62 
-171.41 -216.57 2.58 
-171.05 -225.35 2.20 
-171.26 -224.71 2.20 
-171.45 -218.49 2.68 
-171.27 -225.34 2.23 
-172.15 -216.30 2.65 
-172.40 -218.86 2.82 
-172.69 -218.70 2.84 
-173.21 -219.19 2.93 
-173.78 -217.45 2.90 
-173.77 -217.60 2.91 
-161.90 -215.56 1.45 
-161.78 -215.16 1.48 
-162.01 -215.78 1.48 
-162.90 -215.62 1.56 
-162.91 -215.14 1.54 
-162.89 -214.89 1.62 
-164.06 -214.23 1.61 
-164.08 -217.83 1.86 
-163.95 -216.58 1.72 
-164.28 -218.19 1.83 
-164.41 -216.87 1.82 
-164.59 -216.32 1.81 
-164.60 -214.24 1.76 
-164.61 -213.97 1.75 
-164.67 -217.67 1.85 
-165.04 -215.65 1.79 
-164.90 -215.37 1.80 
-164.97 -215.04 1.75 
-164.90 -214.79 1.73 
-165.58 -215.96 1.86 
-166.51 -217.89 2.06 
-166.67 -216.22 1.99 
-166.60 -215.97 1.97 
-166.88 -216.60 2.04 
-166.83 -216.24 2.04 
-166.79 -221.21 2.28 
-168.17 -218.53 2.29 
-168.27 -218.13 2.28 
-169.22 -217.61 2.37 
-169.06 -217.45 2.33 
-169.19 -220.96 2.57 
-169.52 -217.74 2.41 
-169.87 -219.42 2.54 
-169.91 -218.02 2.46 
-169.84 -217.82 2.46 
-171.08 -219.48 2.70 
-171.54 -220.27 2.79 
-171.43 -219.78 2.75 
-171.41 -219.11 2.71 
-171.42 -223.15 2.95 
-172.00 -219.05 2.78 
-171.88 -218.90 2.76 
-171.96 -221.86 2.95 
-172.26 -219.56 2.84 
-172.32 -221.99 3.00 
-172.51 -219.92 2.89 
-172.80 -219.44 2.90 
-172.63 -219.31 2.87 
-158.85 -217.70 1.24 
-158.80 -217.46 1.23 
-159.19 -218.08 1.29 
-163.44 -214.46 2.28 
-163.68 -214.81 2.32 
-163.58 -214.60 2.30 
-164.06 -214.97 2.36 
-164.50 -215.47 2.44 
-164.81 -215.76 2.48 
-165.33 -215.45 2.51 
-167.51 -215.29 2.71 
-167.48 -223.70 2.50 
-167.84 -216.57 2.83 
-167.87 -216.13 2.80 
-167.91 -215.71 2.78 
-168.13 -214.39 2.70 
-168.09 -217.84 2.94 
-168.85 -214.86 2.81 
-169.11 -218.13 3.08 
-169.55 -218.51 3.16 
-169.37 -218.33 3.12 
-169.72 -218.56 3.18 
-171.43 -216.60 3.21 
-171.75 -216.39 3.23 
-171.57 -224.40 3.05 
-171.70 -219.81 3.45 
-171.60 -219.50 3.46 
-171.89 -219.29 3.48 
-172.00 -218.08 3.39 
-171.70 -224.61 3.08 
-172.31 -218.83 3.49 
-172.11 -218.30 3.42 
-172.35 -216.87 3.34 
-172.35 -219.83 3.55 
-172.58 -218.77 3.52 
-172.68 -220.14 3.64 
-172.82 -218.65 3.54 
-161.90 -214.83 2.17 
-162.18 -214.85 2.19 
-162.64 -214.68 2.22 
-162.86 -214.63 2.24 
-163.33 -214.80 2.32 
-163.38 -214.40 2.33 
-163.52 -216.17 2.41 
-163.67 -214.86 2.32 
-163.87 -215.37 2.42 
-164.62 -215.66 2.46 
-164.65 -215.42 2.49 
-164.85 -215.78 2.53 
-164.81 -215.54 2.51 
-165.23 -217.31 2.63 
-166.39 -220.86 3.01 
-166.93 -219.08 2.93 
-167.08 -218.83 2.92 
-167.80 -219.54 3.03 
-168.20 -214.54 3.37 
-168.26 -219.88 3.13 
-168.67 -214.47 3.40 
-169.12 -215.85 3.57 
-169.92 -221.04 3.40 
-171.47 -222.32 3.62 
-171.80 -222.21 3.71 
-172.06 -217.30 4.00 
-165.22 -216.21 3.27 
-165.16 -215.87 3.24 
-165.19 -222.27 2.98 
-165.45 -215.85 3.26 
-165.38 -215.33 3.21 
-168.02 -218.80 3.75 
-168.20 -218.17 3.71 
-168.59 -219.17 3.84 
-168.88 -216.67 3.63 
-169.38 -217.73 3.77 
-169.66 -219.36 3.96 
-169.91 -219.54 4.01 
-170.31 -217.75 3.87 
-170.19 -219.71 4.05 
-171.79 -217.40 3.98 
-171.82 -219.71 4.22 
-162.50 -216.69 3.11 
-164.05 -216.23 3.18 
-167.43 -214.46 3.96 
-167.72 -219.38 3.78 
-168.07 -219.15 3.79 
-168.71 -219.33 3.87 
-171.29 -222.05 4.41 
-171.74 -218.23 4.75 
-171.61 -222.40 4.48 
-172.13 -218.34 4.80 
-172.07 -222.46 4.54 
-171.96 -222.14 4.49 
-173.01 -217.98 4.65 
-159.16 -219.42 3.09 
-159.46 -218.28 3.02 
-159.29 -217.51 2.98 
-159.45 -219.78 3.14 
-159.70 -218.40 3.04 
-159.92 -218.51 3.07 
-160.67 -217.87 3.09 
-160.79 -218.08 3.11 
-165.08 -216.95 4.07 
-165.05 -216.60 4.03 
-165.76 -216.01 4.01 
-167.32 -217.39 4.28 
-167.39 -216.91 4.23 
-167.60 -218.98 4.48 
-167.83 -216.99 4.27 
-170.54 -219.29 4.77 
-171.03 -219.81 4.88 
-171.16 -218.97 4.79 
-172.27 -221.12 5.17 
-165.84 -215.46 4.66 
-165.70 -219.91 4.44 
-166.01 -215.57 4.68 
-167.23 -215.73 4.77 
-167.80 -214.48 4.64 
-169.88 -217.74 5.22 
-170.73 -217.01 5.18 
-170.99 -218.20 5.37 
-160.00 -219.82 4.05 
-159.85 -219.63 4.02 
-160.16 -218.86 3.96 
-160.64 -219.29 4.04 
-164.77 -215.52 4.61 
-165.01 -217.27 4.84 
-166.21 -217.45 4.93 
-166.90 -217.57 4.99 
-167.21 -217.48 5.00 
-167.21 -216.69 4.89 
-167.50 -218.57 5.16 
-167.61 -217.62 5.04 
-167.83 -217.99 5.11 
-167.83 -217.59 5.05 
-171.21 -220.71 5.75 
-171.80 -220.96 5.84 
-171.91 -221.18 5.89 
-172.46 -220.97 5.91 
-172.78 -220.73 5.90 
-164.43 -217.99 4.90 
-166.28 -219.61 5.23 
-166.65 -220.30 5.34 
-160.62 -219.77 4.94 
-160.83 -220.05 4.98 
-168.15 -219.96 0.83 
-168.25 -220.27 0.85 
-161.04 -220.02 -0.02 
-161.40 -220.61 -0.12 
-163.93 -217.34 0.34 
-164.20 -214.68 0.34 
-166.64 -220.30 0.76 
-167.72 -219.58 0.90 
-167.54 -219.37 0.87 
-168.16 -219.74 0.97 
-168.30 -217.39 0.95 
-163.74 -214.64 0.84 
-164.03 -214.85 0.88 
-164.44 -214.75 0.93 
-165.38 -214.02 1.15 
-165.73 -215.95 1.25 
-165.65 -214.98 1.09 
-166.13 -216.76 1.21 
-165.90 -216.53 1.29 
-165.78 -216.19 1.27 
-165.92 -215.68 1.21 
-166.05 -215.27 1.15 
-165.88 -214.96 1.11 
-166.18 -216.76 1.22 
-166.53 -216.56 1.26 
-166.37 -215.86 1.21 
-166.33 -214.70 1.16 
-166.66 -216.88 1.29 
-167.21 -217.06 1.36 
-167.57 -216.91 1.51 
-168.10 -217.24 1.49 
-167.91 -216.80 1.55 
-167.77 -216.59 1.42 
-168.05 -215.46 1.52 
-168.18 -220.17 1.61 
-168.15 -219.55 1.68 
-168.49 -218.02 1.67 
-168.39 -217.47 1.53 
-168.39 -216.18 1.48 
-168.66 -220.33 1.68 
-168.55 -219.96 1.66 
-168.83 -219.69 1.77 
-168.84 -218.27 1.72 
-168.68 -217.65 1.58 
-169.05 -217.69 1.63 
-169.32 -218.59 1.79 
-170.09 -218.05 1.78 
-170.44 -218.53 1.89 
-170.30 -218.23 1.82 
-170.71 -218.22 1.90 
-171.20 -218.60 1.96 
-171.05 -218.30 1.98 
-171.31 -222.19 2.13 
-171.50 -219.37 2.03 
-171.92 -218.97 2.07 
-172.30 -219.67 2.16 
-172.24 -219.31 2.13 
-172.15 -218.93 2.10 
-158.80 -219.61 0.39 
-159.10 -218.87 0.41 
-160.06 -217.92 0.49 
-159.88 -217.30 0.59 
-162.11 -214.81 0.79 
-162.17 -222.10 0.90 
-163.09 -218.12 1.00 
-163.51 -221.22 1.15 
-166.28 -224.78 1.55 
-167.62 -225.13 1.74 
-167.70 -215.79 2.08 
-168.35 -215.53 2.14 
-168.26 -215.35 2.15 
-168.26 -215.12 2.17 
-168.55 -216.34 2.21 
-168.54 -216.00 2.19 
-171.04 -224.85 2.21 
-171.44 -216.51 2.60 
-171.44 -216.32 2.59 
-171.86 -216.32 2.64 
-173.50 -217.49 2.91 
-173.64 -217.70 2.93 
-161.54 -214.88 1.47 
-161.87 -215.61 1.42 
-162.66 -215.58 1.50 
-162.77 -215.26 1.50 
-162.54 -214.60 1.55 
-162.90 -215.51 1.52 
-163.55 -217.51 1.70 
-163.96 -218.91 1.82 
-164.01 -216.44 1.78 
-164.13 -217.96 1.79 
-164.28 -216.84 1.79 
-164.10 -216.03 1.78 
-164.50 -217.77 1.82 
-164.49 -216.36 1.74 
-164.77 -215.59 1.73 
-164.77 -214.95 1.76 
-164.82 -214.51 1.68 
-164.67 -214.20 1.65 
-164.90 -215.07 1.72 
-165.26 -216.97 1.94 
-165.45 -216.10 1.84 
-165.41 -215.86 1.82 
-165.34 -214.19 1.72 
-166.35 -216.03 1.97 
-166.71 -216.75 2.02 
-166.68 -216.39 1.99 
-166.54 -216.13 2.00 
-166.96 -221.03 2.30 
-167.84 -215.26 2.13 
-167.90 -214.94 2.12 
-168.10 -218.75 2.30 
-168.17 -218.19 2.27 
-168.14 -216.20 2.18 
-168.32 -215.57 2.20 
-168.43 -215.49 2.21 
-168.77 -216.83 2.26 
-168.70 -216.55 2.25 
-168.55 -216.21 2.26 
-168.76 -220.91 2.51 
-169.04 -217.95 2.37 
-169.03 -217.62 2.34 
-168.91 -217.33 2.36 
-169.36 -217.82 2.40 
-169.88 -219.19 2.55 
-169.81 -218.12 2.47 
-169.64 -217.78 2.46 
-169.96 -221.59 2.71 
-170.12 -219.33 2.60 
-170.13 -218.14 2.51 
-170.47 -218.67 2.59 
-170.86 -220.06 2.72 
-171.01 -219.21 2.69 
-171.00 -218.59 2.65 
-171.42 -219.66 2.77 
-171.54 -219.05 2.75 
-171.80 -221.98 2.98 
-171.87 -218.83 2.79 
-172.04 -222.20 3.02 
-172.04 -220.61 2.91 
-172.05 -220.13 2.90 
-172.11 -219.04 2.82 
-172.37 -219.32 2.87 
-172.43 -219.09 2.87 
-172.81 -220.43 3.01 
-158.78 -217.56 1.25 
-158.65 -217.05 1.27 
-159.17 -218.24 1.26 
-158.99 -218.11 1.24 
-158.95 -217.72 1.21 
-166.35 -214.43 2.53 
-166.61 -214.75 2.58 
-166.54 -214.51 2.55 
-166.75 -216.38 2.72 
-167.47 -216.81 2.82 
-167.55 -215.15 2.70 
-167.98 -217.17 2.91 
-168.77 -216.66 2.95 
-170.90 -224.10 2.99 
-170.80 -223.81 2.96 
-170.83 -217.47 3.25 
-171.84 -218.68 3.47 
-171.79 -218.31 3.43 
-171.82 -216.78 3.30 
-172.17 -218.94 3.53 
-172.18 -216.93 3.36 
-172.48 -219.09 3.56 
-161.68 -214.45 2.19 
-162.32 -214.67 2.17 
-162.55 -217.17 2.42 
-162.56 -214.72 2.19 
-162.77 -214.36 2.27 
-163.45 -216.41 2.39 
-163.32 -216.27 2.37 
-163.45 -214.76 2.28 
-163.34 -214.52 2.25 
-163.25 -214.28 2.22 
-163.85 -218.97 2.62 
-163.65 -215.50 2.41 
-163.96 -215.11 2.35 
-163.80 -214.87 2.35 
-163.70 -214.62 2.36 
-163.97 -216.90 2.48 
-164.22 -215.13 2.37 
-164.47 -215.68 2.44 
-164.75 -215.83 2.47 
-166.39 -220.62 3.02 
-166.87 -218.89 2.94 
-167.51 -220.11 3.09 
-167.99 -219.50 3.09 
-168.47 -219.94 3.17 
-168.69 -217.89 3.04 
-169.24 -218.36 3.14 
-169.15 -218.27 3.12 
-169.71 -218.77 3.23 
-169.56 -218.61 3.20 
-171.33 -222.30 3.67 
-171.64 -219.43 3.51 
-171.86 -219.97 3.54 
-173.00 -220.25 3.75 
-158.66 -217.60 2.03 
-158.82 -217.75 2.06 
-164.82 -222.32 2.99 
-165.22 -216.14 3.28 
-165.38 -215.61 3.24 
-165.37 -215.25 3.21 
-165.74 -223.19 3.15 
-166.02 -221.98 3.08 
-165.87 -221.03 2.99 
-166.45 -220.96 3.05 
-166.84 -216.78 3.48 
-166.68 -216.72 3.46 
-167.26 -217.31 3.57 
-167.94 -216.46 3.55 
-168.02 -215.74 3.49 
-168.06 -214.60 3.38 
-168.50 -217.35 3.69 
-168.26 -216.56 3.59 
-170.02 -217.87 3.90 
-169.88 -216.91 3.78 
-170.53 -223.53 3.73 
-170.46 -218.09 3.97 
-170.27 -217.93 3.93 
-170.50 -216.19 3.77 
-170.65 -218.10 3.99 
-171.30 -218.62 4.11 
-171.17 -216.58 3.88 
-171.63 -217.71 4.05 
-172.11 -218.92 4.24 
-173.09 -218.60 4.31 
-173.21 -217.76 4.23 
-162.35 -216.76 3.10 
-163.09 -216.43 3.13 
-163.50 -216.57 3.17 
-164.04 -218.11 3.36 
-164.41 -215.83 3.18 
-164.92 -216.61 3.29 
-168.28 -218.51 3.79 
-170.05 -219.81 4.10 
-171.68 -220.49 4.36 
-172.08 -222.41 4.61 
-172.28 -221.26 4.51 
-159.27 -217.96 3.02 
-159.09 -217.46 2.97 
-159.55 -218.36 3.02 
-160.39 -218.17 3.07 
-164.99 -216.68 4.06 
-165.56 -216.62 4.09 
-165.35 -214.86 3.88 
-165.87 -216.56 4.11 
-165.95 -215.03 3.94 
-167.09 -217.89 4.36 
-167.09 -217.03 4.26 
-167.44 -218.07 4.41 
-168.57 -222.42 4.22 
-170.15 -218.99 4.77 
-170.96 -219.66 4.93 
-159.21 -219.68 3.11 
-159.51 -219.91 3.15 
-163.01 -217.05 3.96 
-165.69 -220.03 4.50 
-167.19 -215.61 4.80 
-167.43 -218.92 4.51 
-167.48 -215.75 4.84 
-167.97 -219.40 4.62 
-168.04 -219.18 4.60 
-169.19 -216.47 4.92 
-169.16 -221.49 4.99 
-169.23 -216.99 5.13 
-169.98 -217.23 5.23 
-170.92 -217.15 5.30 
-171.50 -222.35 5.34 
-171.62 -222.15 5.33 
-160.59 -219.28 4.04 
-165.33 -216.49 4.80 
-165.60 -215.72 4.72 
-167.28 -217.35 5.04 
-167.58 -216.12 4.89 
-167.71 -217.87 5.15 
-168.94 -218.27 5.30 
-169.30 -218.09 5.30 
-171.62 -218.98 5.63 
-171.98 -220.88 5.96 
-172.11 -218.89 5.67 
-159.86 -219.75 4.05 
-164.19 -218.44 4.99 
-165.05 -217.57 4.93 
-164.95 -217.33 4.89 
-165.48 -217.73 4.98 
-166.66 -220.50 5.44 
-166.74 -218.62 5.18 
-167.28 -218.64 5.22 
-171.79 -220.85 5.93 
-172.19 -221.54 6.08 
-165.83 -221.51 5.52 
-160.59 -219.91 4.98 
-173.88 -217.77 0.90 
-160.86 -219.94 -0.10 
-161.41 -220.96 -0.17 
-161.31 -220.59 -0.19 
-161.69 -222.29 0.05 
-161.71 -221.37 -0.04 
-167.19 -219.30 0.78 
-167.40 -219.39 0.81 
-168.08 -217.35 0.87 
-163.43 -216.41 0.81 
-163.82 -214.82 0.80 
-163.64 -214.69 0.77 
-163.70 -214.06 0.91 
-164.12 -214.97 0.85 
-165.02 -213.98 1.06 
-165.40 -215.78 1.17 
-165.29 -215.11 1.13 
-165.44 -213.98 1.04 
-165.85 -216.78 1.20 
-165.97 -216.01 1.12 
-165.73 -215.69 1.12 
-165.88 -215.31 1.08 
-166.37 -217.71 1.36 
-166.35 -216.60 1.20 
-166.11 -215.94 1.14 
-166.34 -215.78 1.16 
-166.50 -217.58 1.25 
-166.50 -216.87 1.23 
-166.40 -216.06 1.18 
-166.91 -215.79 1.36 
-167.49 -216.81 1.35 
-168.04 -219.91 1.56 
-167.95 -217.39 1.55 
-167.74 -216.74 1.38 
-167.88 -215.50 1.47 
-167.74 -215.36 1.45 
-168.10 -220.20 1.58 
-168.48 -219.98 1.62 
-168.17 -217.53 1.47 
-168.23 -216.65 1.45 
-168.18 -215.75 1.52 
-168.72 -220.02 1.65 
-168.67 -217.95 1.56 
-168.42 -217.71 1.52 
-170.31 -218.35 1.80 
-170.13 -217.86 1.85 
-170.65 -218.29 1.85 
-171.09 -218.62 1.92 
-170.94 -218.42 1.89 
-171.84 -219.01 2.07 
-172.21 -219.03 2.12 
-172.72 -218.52 2.22 
-173.47 -217.47 2.28 
-159.19 -218.98 0.37 
-159.54 -216.96 0.49 
-159.99 -218.17 0.44 
-159.95 -217.63 0.42 
-164.27 -221.53 1.12 
-166.75 -224.04 1.56 
-167.63 -222.74 1.62 
-167.86 -222.84 1.66 
-168.25 -224.50 1.78 
-171.18 -222.63 2.11 
-173.41 -217.72 2.91 
-161.43 -215.44 1.32 
-161.43 -215.15 1.30 
-162.05 -215.78 1.41 
-162.57 -215.70 1.46 
-164.22 -217.58 1.75 
-164.20 -217.14 1.72 
-164.11 -216.94 1.70 
-164.19 -216.43 1.68 
-163.88 -214.33 1.53 
-164.05 -213.94 1.64 
-164.35 -217.73 1.77 
-164.37 -217.32 1.84 
-164.32 -216.58 1.70 
-164.53 -214.90 1.64 
-164.46 -214.51 1.61 
-164.39 -214.25 1.64 
-164.81 -217.93 1.84 
-164.83 -215.34 1.69 
-164.67 -214.92 1.70 
-165.14 -217.06 1.83 
-165.38 -215.88 1.79 
-165.18 -214.00 1.66 
-166.62 -216.81 1.99 
-166.50 -216.44 1.95 
-167.02 -216.13 2.07 
-167.83 -219.06 2.27 
-167.61 -218.79 2.29 
-168.19 -216.34 2.22 
-168.16 -215.99 2.16 
-167.99 -215.52 2.07 
-168.03 -215.21 2.14 
-168.50 -216.57 2.20 
-168.45 -216.27 2.21 
-168.43 -215.85 2.15 
-168.29 -215.66 2.12 
-168.79 -220.77 2.50 
-169.03 -217.76 2.34 
-168.90 -217.55 2.35 
-168.73 -216.71 2.24 
-169.56 -220.77 2.60 
-169.33 -219.57 2.49 
-169.28 -217.83 2.40 
-169.87 -221.70 2.70 
-169.90 -219.43 2.56 
-169.83 -219.15 2.53 
-169.70 -218.22 2.45 
-169.69 -217.89 2.43 
-170.31 -220.23 2.66 
-170.59 -218.46 2.58 
-170.96 -218.68 2.65 
-171.30 -220.19 2.79 
-171.49 -219.30 2.78 
-171.20 -218.77 2.68 
-171.13 -216.44 2.56 
-171.71 -219.78 2.82 
-171.70 -219.42 2.79 
-171.53 -218.82 2.76 
-172.00 -219.55 2.84 
-172.51 -220.66 2.98 
-172.50 -220.30 2.96 
-172.54 -219.08 2.88 
-172.90 -220.30 3.03 
-158.91 -217.92 1.17 
-160.54 -216.96 1.30 
-161.34 -214.71 1.40 
-162.20 -221.71 1.75 
-161.87 -215.37 1.49 
-166.66 -214.79 2.58 
-166.58 -214.41 2.54 
-166.51 -214.19 2.57 
-167.60 -214.34 2.64 
-167.90 -214.25 2.66 
-167.78 -213.96 2.67 
-168.39 -215.41 2.81 
-168.48 -214.55 2.78 
-168.66 -216.29 2.91 
-169.66 -217.35 3.11 
-170.93 -217.04 3.23 
-171.56 -223.94 3.08 
-171.13 -217.74 3.30 
-171.11 -217.04 3.24 
-171.46 -216.85 3.28 
-172.12 -218.81 3.50 
-171.79 -218.59 3.45 
-172.03 -217.56 3.41 
-172.34 -218.87 3.53 
-161.25 -214.39 2.13 
-161.89 -214.86 2.11 
-162.40 -214.92 2.16 
-162.26 -214.72 2.14 
-162.59 -215.02 2.19 
-163.27 -216.09 2.41 
-163.29 -214.54 2.22 
-163.38 -216.57 2.38 
-163.69 -215.48 2.33 
-163.56 -215.02 2.28 
-163.44 -214.69 2.25 
-164.15 -217.26 2.51 
-163.87 -216.91 2.48 
-164.13 -215.65 2.38 
-163.88 -215.41 2.34 
-164.27 -215.77 2.41 
-164.37 -215.28 2.45 
-164.55 -216.12 2.46 
-164.54 -215.77 2.43 
-166.70 -216.52 2.72 
-167.56 -219.90 3.09 
-168.16 -217.54 2.97 
-168.32 -218.07 3.02 
-168.90 -218.29 3.10 
-168.80 -218.12 3.08 
-169.26 -219.57 3.25 
-169.07 -218.40 3.13 
-169.61 -219.30 3.27 
-169.98 -217.79 3.19 
-169.77 -217.53 3.14 
-170.86 -220.90 3.56 
-171.24 -222.13 3.68 
-171.74 -218.87 3.49 
-172.14 -220.46 3.68 
-172.09 -218.88 3.53 
-172.49 -219.19 3.61 
-172.44 -218.73 3.57 
-158.74 -217.62 2.01 
-162.81 -217.53 2.46 
-165.43 -222.67 3.08 
-165.43 -215.15 3.20 
-166.09 -220.91 3.01 
-165.73 -215.11 3.22 
-167.37 -215.65 3.43 
-167.40 -214.49 3.32 
-167.68 -214.86 3.38 
-168.67 -216.36 3.63 
-168.73 -215.97 3.57 
-169.47 -215.96 3.67 
-169.66 -216.62 3.75 
-170.05 -217.68 3.91 
-170.70 -218.27 4.04 
-170.42 -215.94 3.72 
-171.23 -218.13 4.08 
-171.59 -218.88 4.21 
-171.40 -218.77 4.17 
-171.88 -218.75 4.23 
-172.18 -218.09 4.10 
-172.56 -218.73 4.30 
-173.19 -218.25 4.23 
-162.79 -216.44 3.10 
-162.75 -216.19 3.12 
-163.09 -216.63 3.16 
-164.60 -215.91 3.20 
-164.42 -215.84 3.18 
-165.42 -215.77 3.26 
-165.97 -219.13 3.64 
-166.03 -218.16 3.55 
-166.61 -217.73 3.56 
-167.48 -217.50 3.62 
-167.55 -214.26 3.96 
-168.70 -217.99 3.80 
-169.63 -219.01 4.00 
-169.58 -218.21 3.91 
-170.96 -216.09 4.52 
-172.10 -221.25 4.53 
-172.10 -221.15 4.52 
-172.24 -221.41 4.57 
-159.60 -218.26 3.06 
-160.41 -217.83 3.08 
-160.50 -219.38 3.18 
-161.15 -217.16 3.08 
-162.03 -220.68 3.43 
-162.03 -218.24 3.20 
-162.07 -218.12 3.19 
-165.94 -215.29 3.99 
-168.84 -222.87 4.33 
-170.09 -218.85 4.79 
-171.86 -220.69 5.07 
-172.35 -220.73 5.12 
-172.57 -220.76 5.14 
-159.02 -219.54 3.07 
-163.26 -222.66 3.74 
-166.89 -220.15 4.65 
-167.05 -218.04 4.41 
-167.37 -218.82 4.53 
-167.44 -218.25 4.47 
-167.35 -217.96 4.42 
-167.70 -218.78 4.56 
-168.17 -219.70 4.72 
-168.24 -219.10 4.64 
-168.98 -221.27 4.99 
-168.91 -216.02 5.02 
-169.72 -219.20 4.80 
-170.85 -221.24 5.04 
-172.13 -222.15 5.45 
-171.96 -217.54 5.52 
-172.76 -221.24 5.22 
-166.38 -217.27 5.02 
-167.08 -221.90 4.89 
-166.75 -217.31 5.05 
-167.27 -217.15 5.06 
-168.84 -218.23 5.34 
-169.06 -218.29 5.37 
-169.03 -217.41 5.24 
-169.24 -216.62 5.14 
-170.18 -217.48 5.34 
-171.36 -219.47 5.76 
-159.32 -219.62 4.00 
-159.63 -219.84 4.05 
-160.32 -220.30 4.15 
-164.58 -217.16 4.88 
-165.22 -217.50 4.97 
-165.34 -217.24 4.94 
-165.67 -217.97 5.06 
-165.55 -217.56 5.00 
-169.88 -220.76 5.81 
-171.51 -221.47 6.08 
-171.53 -220.80 5.98 
-171.63 -219.94 5.86 
-173.83 -217.71 0.88 
-160.01 -219.76 -1.10 
-160.41 -219.71 -1.04 
-161.27 -220.93 -0.91 
-161.30 -220.89 -0.19 
-160.89 -220.27 -0.09 
-161.58 -222.10 0.04 
-161.74 -221.65 -0.11 
-161.48 -221.17 0.01 
-161.65 -220.86 -0.14 
-161.93 -222.29 -0.07 
-166.26 -216.07 0.59 
-166.95 -219.18 0.74 
-167.78 -219.56 0.87 
-167.79 -217.26 0.83 
-167.93 -217.38 0.85 
-162.59 -215.57 0.69 
-163.30 -215.41 0.77 
-163.93 -214.95 0.84 
-163.80 -214.39 0.80 
-164.19 -215.41 0.89 
-164.08 -214.97 0.86 
-164.53 -217.27 1.00 
-165.41 -215.70 1.19 
-165.38 -215.04 1.16 
-165.37 -214.18 0.99 
-165.23 -213.98 1.04 
-165.72 -216.77 1.14 
-165.74 -216.30 1.12 
-165.69 -216.00 1.10 
-165.71 -215.38 1.08 
-165.88 -214.88 1.09 
-166.31 -217.09 1.23 
-166.09 -216.63 1.18 
-166.37 -215.70 1.18 
-166.62 -216.98 1.26 
-166.89 -217.01 1.30 
-167.52 -216.82 1.38 
-167.47 -215.18 1.43 
-167.93 -217.59 1.47 
-167.82 -216.91 1.42 
-167.80 -215.53 1.48 
-168.41 -219.95 1.63 
-168.52 -218.27 1.68 
-168.45 -217.85 1.55 
-168.21 -217.78 1.51 
-168.20 -216.22 1.56 
-168.60 -216.28 1.61 
-168.41 -215.21 1.55 
-169.09 -217.65 1.73 
-169.02 -217.20 1.70 
-169.91 -217.65 1.84 
-170.46 -218.51 1.85 
-170.22 -218.28 1.86 
-170.65 -218.42 1.87 
-170.90 -218.29 1.90 
-171.12 -218.67 1.95 
-170.99 -218.25 2.00 
-171.59 -218.96 2.03 
-171.92 -219.32 2.09 
-171.81 -218.95 2.06 
-173.24 -217.45 2.28 
-173.44 -217.74 2.24 
-159.09 -216.89 0.46 
-159.81 -218.25 0.43 
-161.34 -215.44 0.68 
-163.04 -224.03 1.07 
-163.74 -217.28 1.03 
-163.74 -214.60 0.95 
-164.36 -219.27 1.06 
-165.40 -219.91 1.22 
-165.32 -216.12 1.19 
-166.52 -220.51 1.50 
-167.23 -224.13 1.64 
-167.43 -222.71 1.61 
-168.01 -220.27 1.59 
-167.91 -218.01 1.59 
-170.99 -224.17 2.25 
-161.42 -215.38 1.35 
-161.33 -215.12 1.32 
-162.50 -215.60 1.48 
-163.89 -216.46 1.68 
-163.73 -214.00 1.53 
-163.60 -213.63 1.62 
-164.11 -217.13 1.75 
-164.07 -216.55 1.71 
-164.05 -214.34 1.66 
-164.05 -213.89 1.68 
-164.44 -215.02 1.66 
-164.28 -214.69 1.67 
-164.24 -214.41 1.61 
-165.02 -217.69 1.89 
-165.11 -217.09 1.86 
-165.02 -216.77 1.83 
-164.72 -216.38 1.87 
-164.75 -215.21 1.71 
-165.52 -216.86 1.90 
-166.09 -216.46 1.94 
-166.59 -216.85 2.02 
-166.41 -216.51 1.98 
-167.43 -215.94 2.07 
-167.88 -219.19 2.32 
-167.74 -219.04 2.30 
-167.84 -215.60 2.10 
-167.71 -215.24 2.06 
-167.46 -214.91 2.10 
-168.08 -216.33 2.21 
-168.07 -215.93 2.18 
-168.09 -215.54 2.16 
-168.67 -217.62 2.36 
-168.57 -217.34 2.36 
-168.47 -216.64 2.24 
-168.32 -216.47 2.21 
-168.29 -216.10 2.18 
-169.07 -217.89 2.39 
-169.00 -217.59 2.36 
-168.81 -216.66 2.28 
-169.65 -219.24 2.55 
-169.35 -218.81 2.54 
-169.56 -218.20 2.50 
-169.38 -217.92 2.45 
-169.97 -220.19 2.66 
-169.80 -219.43 2.58 
-169.82 -218.32 2.52 
-170.16 -219.98 2.71 
-170.48 -219.59 2.68 
-170.67 -219.71 2.72 
-171.22 -218.51 2.71 
-170.91 -216.63 2.60 
-171.67 -219.64 2.84 
-171.56 -219.42 2.81 
-171.63 -219.12 2.81 
-171.36 -218.64 2.74 
-171.21 -217.70 2.70 
-171.40 -217.03 2.68 
-171.43 -216.21 2.63 
-172.10 -220.55 2.96 
-172.05 -220.08 2.95 
-171.90 -219.69 2.90 
-171.92 -218.94 2.86 
-171.61 -216.21 2.66 
-172.29 -220.59 2.99 
-172.40 -220.19 3.00 
-172.41 -218.94 2.90 
-172.68 -220.26 3.04 
-172.56 -219.18 2.93 
-158.77 -218.77 1.23 
-158.58 -218.02 1.17 
-163.11 -217.98 1.68 
-163.81 -217.99 1.76 
-163.76 -216.74 1.79 
-163.72 -216.18 1.75 
-163.98 -216.84 1.82 
-167.45 -214.31 2.67 
-167.63 -214.20 2.68 
-167.85 -214.43 2.73 
-168.69 -220.85 2.53 
-168.36 -215.11 2.84 
-168.38 -214.52 2.79 
-169.15 -220.98 2.60 
-168.55 -215.45 2.89 
-168.87 -215.29 2.91 
-170.83 -216.91 3.27 
-171.87 -222.48 3.06 
-171.37 -217.24 3.36 
-171.25 -217.11 3.34 
-171.83 -217.63 3.44 
-171.97 -217.46 3.46 
-173.18 -217.80 3.64 
-161.54 -214.76 2.12 
-162.02 -214.57 2.25 
-162.28 -215.31 2.23 
-162.85 -216.10 2.34 
-162.56 -214.61 2.20 
-163.29 -216.71 2.43 
-163.22 -216.44 2.40 
-163.13 -215.68 2.42 
-163.12 -215.18 2.30 
-162.92 -214.94 2.26 
-163.61 -215.50 2.37 
-163.47 -215.06 2.41 
-164.13 -215.92 2.45 
-163.77 -215.64 2.40 
-164.46 -215.99 2.49 
-164.21 -215.48 2.51 
-165.29 -215.44 2.54 
-165.71 -215.22 2.56 
-165.91 -215.29 2.59 
-166.18 -215.68 2.65 
-166.20 -214.84 2.65 
-166.21 -214.51 2.62 
-167.52 -219.67 3.12 
-167.34 -217.47 2.95 
-167.59 -219.11 3.08 
-168.13 -217.67 3.04 
-168.55 -218.18 3.11 
-168.45 -216.28 2.95 
-169.12 -219.63 3.30 
-168.82 -218.39 3.16 
-168.62 -216.36 2.99 
-169.55 -217.73 3.19 
-169.68 -217.64 3.20 
-169.70 -216.76 3.14 
-169.97 -217.48 3.22 
-170.97 -217.21 3.31 
-171.46 -217.60 3.41 
-171.14 -217.27 3.34 
-171.72 -219.01 3.55 
-171.77 -217.70 3.46 
-172.21 -218.80 3.61 
-172.09 -218.05 3.52 
-172.01 -217.90 3.50 
-159.12 -217.97 2.11 
-166.05 -214.99 3.31 
-166.91 -214.09 3.30 
-168.74 -221.02 3.38 
-168.82 -220.79 3.37 
-169.56 -216.92 3.85 
-170.93 -222.16 3.72 
-170.08 -216.35 3.85 
-171.04 -222.47 3.76 
-170.48 -216.48 3.90 
-171.21 -217.92 4.14 
-170.95 -217.02 3.96 
-170.96 -216.50 3.96 
-172.84 -218.06 4.26 
-164.81 -223.45 3.12 
-164.24 -215.62 3.21 
-164.11 -215.22 3.21 
-165.13 -215.90 3.31 
-165.47 -217.87 3.54 
-165.49 -216.15 3.37 
-165.22 -215.38 3.27 
-166.12 -218.66 3.68 
-166.01 -218.15 3.62 
-166.27 -218.79 3.71 
-166.66 -218.65 3.73 
-167.65 -219.70 3.94 
-169.94 -219.72 4.19 
-170.03 -218.45 4.07 
-170.75 -218.54 4.16 
-171.81 -221.28 4.58 
-171.62 -218.61 4.26 
-172.03 -221.35 4.62 
-172.10 -221.04 4.50 
-172.11 -218.66 4.33 
-160.42 -218.73 3.17 
-160.35 -217.86 3.12 
-165.71 -220.24 3.80 
-166.16 -215.85 4.16 
-165.92 -215.35 4.08 
-165.88 -215.02 4.04 
-167.32 -214.76 4.12 
-167.83 -214.34 4.11 
-168.75 -223.07 4.42 
-171.82 -218.42 5.02 
-172.38 -218.27 5.06 
-158.83 -219.49 3.11 
-159.29 -219.70 3.16 
-159.20 -218.55 3.05 
-159.83 -220.32 3.27 
-159.43 -218.34 3.05 
-159.96 -219.71 3.22 
-165.05 -217.30 4.24 
-164.76 -215.51 4.01 
-165.73 -216.04 4.15 
-167.11 -218.14 4.52 
-167.13 -217.12 4.39 
-167.62 -218.58 4.62 
-167.61 -218.10 4.56 
-167.53 -217.76 4.51 
-167.89 -218.58 4.64 
-168.10 -218.63 4.67 
-168.76 -217.83 4.63 
-169.25 -218.32 4.74 
-169.52 -219.40 4.90 
-169.31 -217.71 4.67 
-170.08 -218.63 4.86 
-170.32 -218.63 4.89 
-171.17 -218.98 5.02 
-171.51 -221.11 5.34 
-171.89 -220.75 5.33 
-172.31 -220.93 5.41 
-168.70 -216.42 5.18 
-168.77 -216.09 5.03 
-169.78 -217.53 5.43 
-169.54 -217.03 5.34 
-170.06 -217.44 5.45 
-170.62 -217.73 5.54 
-170.82 -218.34 5.65 
-159.26 -219.44 4.09 
-160.10 -220.23 4.20 
-160.37 -221.22 4.33 
-160.63 -220.24 4.24 
-164.68 -217.04 4.97 
-165.20 -217.51 5.07 
-165.81 -217.66 5.14 
-165.75 -217.51 5.11 
-166.64 -222.50 5.02 
-166.77 -217.11 5.13 
-166.70 -216.86 5.09 
-167.32 -217.96 5.29 
-167.19 -217.28 5.18 
-169.24 -218.71 5.56 
-170.03 -220.24 5.87 
-170.11 -220.67 5.94 
-171.19 -219.82 5.92 
-171.15 -219.24 5.82 
-171.43 -220.06 5.98 
-171.33 -219.37 5.86 
-163.69 -219.93 5.30 
-171.65 -221.86 6.28 
-171.80 -222.04 6.33 
-173.69 -217.77 0.87 
-161.13 -220.98 -0.93 
-160.97 -220.39 -0.23 
-161.73 -222.33 -0.08 
-161.76 -221.68 -0.09 
-161.62 -220.88 -0.13 
-164.30 -213.93 0.30 
-166.02 -215.93 0.57 
-166.94 -219.24 0.77 
-166.75 -219.13 0.75 
-167.78 -219.67 0.91 
-167.62 -217.05 0.83 
-167.83 -217.17 0.86 
-162.11 -215.22 0.64 
-162.38 -215.50 0.68 
-163.77 -215.00 0.84 
-163.71 -214.29 0.81 
-164.04 -215.14 0.89 
-163.78 -214.56 0.83 
-164.70 -213.71 1.06 
-165.51 -216.51 1.13 
-165.42 -216.28 1.11 
-165.27 -216.06 1.08 
-165.07 -214.58 1.14 
-165.21 -214.33 1.01 
-165.23 -214.05 1.00 
-165.72 -217.08 1.19 
-165.63 -216.72 1.16 
-165.62 -215.90 1.12 
-165.46 -215.33 1.08 
-166.13 -217.03 1.24 
-166.99 -216.24 1.32 
-167.29 -217.15 1.40 
-167.81 -217.65 1.50 
-167.81 -217.11 1.47 
-167.69 -216.82 1.44 
-167.67 -215.56 1.47 
-168.18 -218.44 1.58 
-168.33 -218.04 1.58 
-168.06 -217.57 1.53 
-168.58 -217.39 1.70 
-168.75 -216.71 1.58 
-168.47 -216.30 1.53 
-168.36 -215.47 1.59 
-168.95 -217.29 1.75 
-169.43 -217.73 1.83 
-169.95 -218.42 1.83 
-169.93 -218.13 1.91 
-169.67 -217.66 1.86 
-170.22 -218.23 1.96 
-170.79 -218.52 1.95 
-170.66 -218.07 2.01 
-171.14 -218.49 2.00 
-171.74 -219.51 2.13 
-171.58 -219.15 2.09 
-171.89 -218.89 2.22 
-172.29 -219.27 2.20 
-158.66 -217.53 0.28 
-159.06 -218.71 0.38 
-163.34 -213.63 0.89 
-163.74 -214.41 0.97 
-165.21 -219.81 1.23 
-164.78 -216.33 1.17 
-164.93 -215.06 1.14 
-165.35 -215.24 1.20 
-167.03 -224.43 1.69 
-167.47 -223.98 1.73 
-167.16 -222.24 1.61 
-167.83 -220.23 1.61 
-167.56 -219.83 1.67 
-167.65 -218.00 1.60 
-168.70 -220.01 1.72 
-168.91 -217.75 1.76 
-169.73 -218.41 1.90 
-162.43 -215.52 1.50 
-162.20 -215.04 1.45 
-162.51 -214.96 1.48 
-163.19 -214.89 1.56 
-163.17 -214.47 1.53 
-163.51 -214.78 1.59 
-163.43 -214.51 1.56 
-164.00 -216.51 1.74 
-163.88 -214.57 1.68 
-164.21 -215.86 1.73 
-164.17 -215.64 1.71 
-164.21 -214.83 1.67 
-165.03 -217.09 1.90 
-164.85 -216.76 1.86 
-165.76 -216.34 1.95 
-166.43 -215.68 1.99 
-166.95 -216.13 2.08 
-166.82 -215.89 2.05 
-167.11 -214.81 2.02 
-167.69 -216.10 2.25 
-167.60 -215.26 2.16 
-168.16 -217.32 2.38 
-168.14 -216.72 2.27 
-168.00 -216.51 2.23 
-168.06 -216.02 2.21 
-167.89 -215.57 2.16 
-167.89 -214.02 2.15 
-168.37 -217.63 2.42 
-168.30 -217.34 2.39 
-168.42 -216.68 2.30 
-168.15 -215.76 2.20 
-168.33 -214.68 2.24 
-169.31 -219.62 2.61 
-169.18 -218.82 2.59 
-168.93 -217.91 2.44 
-169.52 -218.23 2.54 
-169.20 -218.02 2.52 
-169.81 -218.42 2.59 
-170.56 -219.60 2.77 
-170.35 -216.43 2.59 
-171.19 -218.62 2.79 
-170.97 -216.84 2.64 
-170.68 -216.61 2.64 
-171.68 -219.93 2.95 
-171.54 -219.61 2.91 
-171.46 -219.24 2.87 
-171.36 -218.79 2.82 
-171.26 -216.71 2.67 
-171.33 -216.34 2.70 
-171.20 -216.17 2.68 
-172.13 -220.73 3.06 
-171.92 -220.37 3.03 
-172.07 -219.49 2.97 
-172.00 -218.96 2.96 
-171.99 -218.49 2.92 
-171.72 -216.71 2.78 
-171.61 -216.48 2.70 
-172.36 -220.79 3.10 
-172.38 -218.75 2.96 
-158.70 -217.37 1.18 
-158.88 -217.29 1.20 
-161.30 -215.34 1.36 
-160.84 -214.65 1.41 
-161.40 -215.97 1.41 
-161.39 -215.61 1.39 
-161.29 -215.20 1.49 
-162.92 -221.02 1.89 
-163.11 -215.64 1.71 
-163.85 -217.18 1.77 
-164.08 -217.28 1.80 
-165.36 -220.89 2.26 
-166.58 -221.30 2.36 
-166.41 -221.19 2.33 
-167.31 -219.94 2.37 
-167.46 -219.02 2.33 
-166.86 -214.02 2.65 
-167.18 -213.88 2.68 
-167.50 -213.74 2.76 
-168.10 -214.59 2.84 
-168.52 -214.94 2.92 
-168.67 -214.21 2.87 
-170.96 -224.03 3.16 
-170.33 -220.26 2.79 
-161.67 -214.74 2.17 
-162.33 -215.43 2.29 
-162.26 -214.78 2.24 
-162.43 -214.91 2.26 
-163.25 -216.22 2.45 
-162.87 -215.11 2.32 
-163.40 -216.37 2.47 
-163.34 -215.67 2.41 
-163.32 -214.93 2.40 
-163.92 -216.47 2.54 
-163.71 -215.54 2.44 
-164.37 -216.20 2.56 
-164.20 -216.01 2.61 
-165.06 -215.59 2.59 
-164.84 -214.93 2.59 
-165.52 -215.31 2.61 
-165.99 -214.26 2.65 
-166.48 -215.43 2.73 
-166.38 -214.60 2.68 
-167.12 -217.68 3.02 
-167.07 -214.53 2.72 
-167.49 -218.25 3.08 
-167.17 -214.78 2.75 
-167.50 -214.57 2.77 
-167.23 -214.03 2.76 
-168.04 -217.67 3.09 
-168.03 -216.03 2.99 
-167.68 -214.70 2.80 
-168.60 -218.70 3.25 
-168.28 -218.22 3.17 
-168.41 -216.54 3.04 
-168.31 -216.31 3.02 
-168.24 -215.03 2.91 
-169.05 -219.22 3.36 
-168.67 -217.41 3.17 
-168.50 -215.39 2.95 
-168.79 -215.33 3.01 
-169.72 -217.66 3.30 
-170.18 -218.09 3.39 
-170.91 -217.51 3.42 
-170.91 -217.37 3.41 
-171.38 -219.05 3.61 
-171.29 -218.76 3.57 
-171.23 -218.49 3.54 
-171.19 -217.48 3.46 
-171.36 -217.30 3.46 
-171.74 -219.17 3.68 
-171.71 -218.86 3.65 
-171.76 -217.48 3.53 
-171.66 -217.21 3.49 
-172.07 -218.61 3.65 
-171.84 -217.89 3.58 
-172.59 -218.49 3.71 
-172.45 -218.31 3.67 
-173.02 -217.90 3.73 
-161.41 -214.33 2.23 
-162.75 -216.05 2.38 
-162.59 -215.93 2.36 
-163.32 -216.93 2.51 
-163.12 -215.52 2.47 
-163.44 -216.20 2.55 
-167.17 -222.88 3.44 
-167.45 -218.82 3.15 
-168.00 -221.68 3.44 
-167.69 -219.70 3.23 
-167.59 -219.08 3.16 
-168.37 -220.78 3.40 
-168.18 -220.10 3.32 
-168.18 -219.47 3.26 
-167.50 -214.39 3.47 
-168.77 -221.09 3.48 
-170.92 -222.37 3.87 
-170.76 -222.21 3.83 
-170.21 -216.47 3.95 
-171.16 -222.45 3.90 
-170.73 -216.89 4.09 
-170.61 -216.57 4.01 
-171.88 -221.05 3.84 
-172.67 -217.73 4.33 
-165.03 -215.26 3.36 
-165.26 -216.01 3.42 
-165.36 -215.37 3.37 
-165.51 -215.56 3.40 
-168.55 -218.46 4.01 
-168.65 -217.72 3.94 
-168.91 -216.24 3.81 
-169.74 -216.58 3.94 
-170.71 -217.49 4.15 
-171.20 -219.36 4.42 
-170.96 -217.46 4.18 
-171.73 -221.14 4.60 
-172.46 -218.43 4.46 
-163.20 -216.93 3.32 
-162.87 -216.42 3.29 
-163.32 -217.58 3.39 
-166.23 -218.95 3.82 
-165.96 -214.70 4.10 
-165.95 -214.38 4.07 
-166.63 -218.64 3.83 
-167.01 -215.71 4.29 
-167.48 -214.68 4.23 
-168.97 -222.36 4.49 
-169.86 -220.82 4.42 
-170.14 -221.32 4.51 
-171.47 -221.32 4.67 
-171.90 -221.50 4.75 
-158.80 -219.86 3.21 
-158.79 -219.42 3.17 
-159.42 -219.85 3.32 
-159.26 -218.38 3.11 
-159.25 -217.99 3.07 
-159.88 -220.34 3.35 
-159.70 -219.17 3.22 
-159.94 -219.26 3.25 
-160.81 -218.97 3.30 
-165.53 -216.17 4.25 
-166.60 -216.60 4.39 
-167.18 -217.98 4.62 
-166.93 -217.86 4.58 
-167.22 -216.05 4.38 
-167.86 -217.58 4.63 
-168.33 -217.73 4.70 
-168.72 -217.86 4.75 
-168.95 -217.94 4.79 
-170.33 -218.69 5.03 
-171.26 -219.43 5.23 
-171.09 -218.62 5.10 
-170.90 -218.01 5.00 
-165.93 -218.77 4.60 
-166.45 -220.60 4.88 
-166.66 -220.97 4.95 
-170.50 -221.57 5.43 
-170.47 -217.32 5.61 
-160.02 -219.97 4.26 
-160.38 -220.49 4.34 
-160.23 -220.06 4.28 
-164.48 -216.86 5.05 
-164.80 -216.98 5.09 
-165.30 -217.49 5.20 
-165.05 -217.13 5.11 
-165.79 -217.78 5.28 
-165.78 -217.35 5.22 
-168.30 -217.01 5.37 
-164.62 -219.84 5.49 
-165.49 -218.76 5.40 
-165.86 -220.15 5.63 
-165.86 -219.68 5.56 
-167.48 -220.81 5.87 
-167.73 -220.79 5.89 
-169.60 -220.25 5.98 
-170.05 -220.38 6.05 
-170.29 -220.97 6.17 
-170.34 -220.21 6.05 
-170.79 -221.72 6.34 
-170.71 -220.56 6.14 
-170.99 -220.52 6.17 
-164.79 -220.06 5.53 
-164.95 -220.20 5.56 
-173.57 -217.85 0.81 
-161.09 -222.09 -0.14 
-160.75 -220.35 -0.32 
-166.70 -219.24 0.70 
-166.23 -215.90 0.56 
-167.48 -219.60 0.83 
-167.34 -217.06 0.75 
-167.63 -217.21 0.79 
-172.98 -217.44 1.60 
-163.86 -215.09 0.82 
-163.60 -214.68 0.77 
-163.76 -214.39 0.78 
-163.98 -215.29 0.85 
-165.14 -216.53 1.06 
-165.15 -215.62 1.02 
-164.93 -214.28 0.93 
-165.48 -216.87 1.12 
-165.38 -216.59 1.09 
-165.29 -215.01 1.01 
-165.26 -214.60 0.99 
-165.16 -214.33 0.97 
-166.09 -217.25 1.22 
-165.97 -217.05 1.19 
-165.64 -215.26 1.07 
-166.39 -217.30 1.26 
-166.29 -215.96 1.19 
-166.62 -217.29 1.29 
-166.84 -216.40 1.28 
-167.06 -217.43 1.36 
-167.87 -218.04 1.50 
-167.69 -217.24 1.44 
-167.92 -216.32 1.43 
-167.75 -215.68 1.38 
-168.37 -216.42 1.50 
-168.15 -215.40 1.54 
-170.52 -218.65 1.91 
-171.87 -219.31 2.14 
-172.35 -220.07 2.25 
-172.19 -219.37 2.19 
-158.54 -217.61 0.22 
-159.75 -219.58 0.46 
-160.45 -214.73 0.52 
-160.74 -214.73 0.56 
-162.06 -215.94 0.62 
-161.87 -214.92 0.71 
-163.27 -213.76 0.84 
-163.73 -214.26 0.92 
-163.45 -213.89 0.87 
-163.79 -213.86 0.91 
-164.54 -216.14 1.10 
-165.03 -216.58 1.18 
-164.80 -215.06 1.09 
-164.93 -214.55 1.08 
-164.77 -213.94 1.04 
-166.35 -222.36 1.49 
-165.53 -217.37 1.15 
-166.91 -224.42 1.66 
-167.37 -223.93 1.70 
-166.30 -216.08 1.32 
-165.90 -215.09 1.23 
-166.87 -219.52 1.43 
-167.96 -221.88 1.69 
-167.76 -220.55 1.60 
-167.82 -220.30 1.60 
-167.64 -218.03 1.58 
-168.37 -220.16 1.72 
-168.27 -220.03 1.65 
-168.14 -218.46 1.56 
-167.94 -218.43 1.53 
-169.05 -219.22 1.83 
-168.86 -217.74 1.74 
-169.66 -218.20 1.87 
-170.13 -218.26 1.94 
-169.93 -218.18 1.90 
-163.32 -214.91 1.55 
-163.14 -214.53 1.50 
-163.39 -215.15 1.57 
-163.34 -214.82 1.54 
-163.32 -214.44 1.52 
-164.01 -214.70 1.62 
-164.21 -214.82 1.65 
-164.84 -216.36 1.82 
-164.85 -215.95 1.80 
-165.94 -215.54 1.91 
-166.65 -216.06 2.03 
-166.39 -214.72 1.91 
-166.81 -214.91 1.98 
-167.66 -217.61 2.26 
-167.46 -216.11 2.22 
-167.33 -215.19 2.15 
-167.12 -214.85 2.01 
-167.89 -216.68 2.23 
-167.88 -216.18 2.19 
-167.61 -215.49 2.11 
-167.40 -215.26 2.07 
-167.87 -215.75 2.16 
-168.75 -218.07 2.43 
-168.62 -217.84 2.40 
-168.52 -215.01 2.20 
-168.22 -214.66 2.22 
-169.37 -218.34 2.54 
-169.08 -218.16 2.48 
-169.54 -218.55 2.57 
-170.06 -217.30 2.61 
-170.20 -216.62 2.59 
-170.94 -218.95 2.79 
-171.18 -218.84 2.82 
-171.02 -216.36 2.68 
-171.70 -218.45 2.88 
-171.57 -217.17 2.75 
-171.42 -216.65 2.70 
-171.94 -218.98 2.97 
-158.52 -217.43 1.13 
-160.25 -214.47 1.31 
-160.89 -215.32 1.28 
-161.14 -215.52 1.32 
-161.54 -215.32 1.36 
-161.84 -215.26 1.39 
-162.72 -217.81 1.76 
-162.19 -215.18 1.43 
-163.42 -216.38 1.65 
-163.05 -214.55 1.62 
-163.96 -216.89 1.74 
-163.56 -216.06 1.76 
-164.06 -216.27 1.72 
-163.95 -216.04 1.69 
-164.00 -214.23 1.71 
-164.48 -216.76 1.90 
-164.65 -215.83 1.87 
-165.66 -220.58 2.27 
-166.19 -221.10 2.30 
-167.13 -219.86 2.34 
-167.36 -219.86 2.37 
-167.92 -217.41 2.35 
-168.77 -221.02 2.64 
-168.37 -217.95 2.44 
-168.15 -217.49 2.39 
-168.94 -218.39 2.54 
-168.82 -218.16 2.51 
-169.41 -220.09 2.66 
-169.32 -219.19 2.59 
-168.38 -214.15 2.85 
-171.07 -224.20 3.21 
-170.96 -223.80 3.17 
-171.36 -220.42 2.96 
-171.35 -219.72 2.90 
-171.81 -220.29 3.01 
-172.17 -220.55 3.08 
-162.32 -220.94 1.80 
-163.15 -221.70 1.95 
-162.86 -214.91 2.30 
-163.41 -215.43 2.39 
-164.83 -215.41 2.55 
-165.01 -215.91 2.61 
-165.06 -215.41 2.57 
-166.00 -214.75 2.62 
-166.71 -215.30 2.75 
-167.13 -214.63 2.74 
-166.85 -214.02 2.66 
-168.02 -218.23 3.16 
-167.48 -215.99 2.94 
-167.48 -214.63 2.78 
-167.30 -213.99 2.73 
-168.01 -216.57 3.02 
-167.80 -214.99 2.85 
-167.91 -214.53 2.82 
-167.79 -214.12 2.83 
-168.69 -217.82 3.22 
-168.30 -216.69 3.06 
-168.38 -215.75 3.02 
-168.06 -214.05 2.85 
-168.95 -217.90 3.24 
-168.98 -216.84 3.18 
-168.81 -216.70 3.15 
-168.52 -214.91 2.93 
-168.48 -214.34 2.87 
-169.00 -215.77 3.06 
-169.95 -218.03 3.38 
-169.67 -217.72 3.33 
-170.43 -218.56 3.49 
-170.03 -216.04 3.23 
-170.62 -219.22 3.57 
-170.75 -218.47 3.52 
-171.10 -217.47 3.48 
-171.63 -219.32 3.72 
-171.48 -219.14 3.68 
-171.64 -218.63 3.64 
-171.37 -218.19 3.57 
-171.34 -217.78 3.54 
-171.87 -218.64 3.67 
-171.68 -217.87 3.59 
-172.27 -218.54 3.73 
-172.86 -217.92 3.75 
-159.97 -217.20 2.17 
-162.34 -218.80 2.55 
-162.15 -216.75 2.36 
-161.83 -216.41 2.30 
-162.31 -216.23 2.39 
-162.25 -215.36 2.27 
-162.18 -215.04 2.23 
-163.01 -216.88 2.47 
-162.63 -215.66 2.33 
-163.15 -217.11 2.50 
-163.30 -216.81 2.49 
-163.17 -216.57 2.46 
-163.10 -216.05 2.41 
-163.57 -216.84 2.53 
-164.37 -216.54 2.59 
-167.23 -218.31 3.07 
-167.77 -219.32 3.23 
-168.56 -219.35 3.32 
-168.71 -218.97 3.32 
-169.32 -220.65 3.54 
-169.37 -219.98 3.48 
-169.41 -219.80 3.47 
-169.16 -219.17 3.38 
-169.53 -219.36 3.45 
-169.90 -219.15 3.48 
-170.97 -222.75 3.95 
-171.36 -222.33 3.96 
-171.69 -221.20 3.88 
-159.37 -218.37 2.20 
-160.10 -219.73 2.38 
-160.52 -219.58 2.50 
-165.58 -222.07 3.20 
-165.01 -214.54 3.26 
-164.90 -214.22 3.27 
-165.42 -215.94 3.45 
-165.27 -215.37 3.39 
-166.10 -215.25 3.45 
-166.42 -214.38 3.42 
-166.92 -214.40 3.44 
-167.68 -216.70 3.76 
-167.14 -214.38 3.46 
-167.00 -213.97 3.43 
-168.15 -217.82 3.94 
-168.50 -218.04 4.00 
-169.65 -216.65 3.98 
-170.13 -216.64 4.04 
-170.84 -216.65 4.12 
-171.54 -217.18 4.21 
-172.16 -218.48 4.49 
-172.63 -218.98 4.61 
-172.57 -218.32 4.53 
-161.83 -216.35 3.21 
-162.34 -216.80 3.24 
-162.59 -216.98 3.28 
-163.53 -216.73 3.34 
-166.06 -218.97 3.84 
-166.68 -218.52 3.85 
-167.35 -214.68 4.27 
-169.98 -219.42 4.33 
-170.13 -219.64 4.37 
-170.69 -216.89 4.80 
-171.89 -221.11 4.76 
-158.56 -219.79 3.18 
-158.84 -217.40 3.07 
-159.20 -218.55 3.20 
-159.83 -219.38 3.26 
-159.74 -219.12 3.22 
-160.49 -218.91 3.27 
-164.60 -215.77 4.16 
-166.91 -222.06 4.27 
-166.92 -216.82 4.50 
-166.91 -215.92 4.38 
-167.47 -217.89 4.69 
-168.42 -217.44 4.73 
-168.83 -218.47 4.91 
-168.72 -217.32 4.74 
-169.28 -218.45 4.95 
-169.10 -217.06 4.75 
-169.78 -218.93 5.07 
-170.77 -217.23 4.95 
-171.50 -219.09 5.29 
-171.71 -217.14 5.05 
-158.55 -220.26 3.23 
-163.22 -217.97 4.31 
-164.71 -217.94 4.43 
-165.01 -217.81 4.44 
-165.58 -219.41 4.70 
-167.05 -219.25 4.83 
-167.23 -217.83 4.66 
-167.55 -218.17 4.73 
-168.49 -218.47 4.87 
-170.95 -219.82 5.32 
-171.60 -220.98 5.56 
-171.93 -221.42 5.66 
-171.83 -221.05 5.60 
-162.00 -218.85 4.31 
-163.71 -219.12 4.49 
-166.49 -220.98 4.99 
-166.37 -217.12 5.22 
-168.14 -216.74 5.39 
-169.45 -218.30 5.75 
-169.81 -218.00 5.74 
-160.33 -220.38 4.35 
-160.52 -220.59 4.39 
-164.86 -217.00 5.15 
-165.42 -217.46 5.26 
-166.12 -219.67 5.65 
-165.75 -217.86 5.35 
-165.83 -217.16 5.25 
-165.95 -217.43 5.30 
-169.72 -220.80 6.18 
-169.69 -220.45 6.12 
-170.20 -221.21 6.29 
-169.97 -220.73 6.19 
-170.45 -220.18 6.15 
-164.24 -219.41 5.46 
-164.79 -220.02 5.59 
-165.45 -220.38 5.70 
-170.34 -221.94 6.42 
-170.55 -222.00 6.46 
-160.36 -220.18 -1.28 
-160.57 -221.23 -0.36 
-161.36 -222.62 -0.21 
-160.85 -220.24 -0.34 
-164.89 -219.61 0.41 
-166.22 -218.93 0.59 
-167.15 -217.09 0.69 
-167.68 -217.02 0.77 
-167.62 -216.76 0.76 
-172.74 -217.41 1.55 
-163.22 -214.54 0.69 
-163.60 -214.39 0.74 
-163.94 -214.77 0.80 
-163.87 -214.45 0.78 
-164.99 -215.28 0.97 
-165.26 -215.55 1.02 
-165.08 -214.51 0.95 
-164.99 -214.39 0.93 
-166.30 -216.33 1.20 
-166.13 -215.72 1.15 
-166.60 -216.26 1.24 
-166.35 -215.78 1.18 
-167.45 -215.71 1.33 
-167.71 -215.88 1.38 
-168.32 -216.52 1.49 
-168.24 -215.69 1.44 
-168.64 -216.88 1.56 
-168.49 -216.71 1.53 
-168.38 -215.82 1.47 
-169.04 -217.70 1.65 
-169.65 -218.08 1.76 
-172.60 -217.49 2.26 
-158.89 -217.55 0.23 
-159.53 -219.51 0.40 
-159.36 -219.26 0.36 
-158.91 -217.44 0.23 
-160.65 -214.49 0.51 
-161.24 -215.64 0.47 
-161.23 -215.29 0.46 
-162.06 -215.35 0.57 
-161.87 -215.27 0.54 
-162.52 -217.37 0.72 
-162.26 -215.49 0.60 
-163.37 -216.12 0.78 
-164.39 -221.04 1.14 
-165.12 -216.45 1.04 
-164.74 -215.50 1.08 
-164.79 -215.12 1.07 
-164.77 -214.04 1.03 
-165.32 -216.60 1.07 
-166.05 -217.81 1.23 
-165.85 -217.23 1.17 
-165.79 -215.82 1.23 
-165.75 -215.28 1.21 
-166.18 -216.23 1.30 
-167.80 -222.01 1.68 
-167.64 -220.40 1.58 
-167.55 -219.97 1.54 
-167.12 -218.17 1.51 
-167.31 -217.48 1.39 
-167.31 -215.39 1.42 
-168.31 -220.05 1.66 
-167.85 -215.77 1.51 
-167.94 -216.02 1.53 
-169.12 -218.94 1.83 
-168.64 -217.45 1.69 
-169.32 -218.26 1.72 
-169.16 -218.14 1.69 
-169.27 -217.70 1.79 
-169.87 -219.61 1.96 
-169.80 -218.47 1.80 
-170.57 -218.68 1.96 
-170.96 -218.66 1.98 
-171.05 -218.17 2.07 
-171.85 -219.36 2.15 
-171.58 -219.05 2.09 
-163.81 -214.75 1.59 
-164.37 -214.75 1.66 
-164.47 -214.68 1.67 
-165.95 -215.64 1.92 
-165.81 -215.07 1.87 
-165.84 -214.65 1.84 
-165.55 -214.02 1.87 
-166.28 -214.73 1.90 
-165.97 -214.11 1.93 
-166.79 -214.82 1.98 
-167.11 -215.09 2.03 
-166.96 -214.89 2.00 
-167.76 -216.64 2.22 
-167.58 -215.75 2.14 
-167.58 -215.65 2.13 
-168.28 -215.06 2.24 
-168.02 -214.65 2.21 
-170.28 -217.60 2.63 
-171.22 -218.42 2.82 
-170.84 -216.89 2.71 
-170.65 -216.32 2.65 
-171.59 -218.65 2.89 
-171.16 -217.21 2.77 
-171.62 -217.17 2.79 
-171.54 -216.79 2.75 
-160.17 -214.51 1.28 
-160.75 -215.28 1.25 
-161.02 -215.77 1.32 
-160.93 -215.46 1.29 
-161.91 -215.18 1.39 
-162.31 -215.25 1.44 
-162.96 -216.08 1.69 
-162.92 -215.75 1.66 
-162.87 -214.87 1.49 
-162.82 -214.42 1.58 
-162.75 -214.14 1.55 
-163.74 -216.73 1.71 
-163.81 -216.56 1.71 
-163.28 -215.13 1.55 
-163.20 -214.81 1.52 
-163.29 -214.58 1.64 
-163.34 -214.18 1.62 
-163.97 -215.92 1.69 
-163.92 -215.77 1.73 
-163.83 -215.16 1.62 
-164.39 -216.06 1.75 
-163.98 -214.13 1.69 
-164.72 -216.46 1.82 
-164.67 -216.08 1.79 
-165.97 -221.25 2.30 
-166.31 -221.14 2.33 
-166.23 -218.85 2.17 
-166.14 -217.48 2.07 
-166.24 -216.78 2.03 
-165.85 -216.41 1.96 
-166.83 -219.87 2.39 
-166.36 -216.98 2.06 
-167.84 -217.49 2.33 
-168.50 -219.37 2.57 
-168.42 -218.17 2.45 
-168.91 -219.72 2.59 
-168.75 -218.10 2.46 
-168.42 -217.66 2.38 
-169.41 -220.48 2.71 
-169.13 -219.72 2.62 
-169.14 -218.41 2.53 
-169.73 -218.88 2.65 
-169.30 -217.44 2.55 
-170.10 -219.25 2.72 
-171.25 -220.43 2.97 
-171.25 -218.70 2.87 
-171.77 -219.62 2.99 
-171.65 -218.74 2.94 
-171.49 -218.56 2.91 
-165.25 -221.08 2.26 
-165.03 -215.30 2.58 
-164.82 -215.24 2.55 
-166.09 -214.86 2.67 
-167.19 -216.10 2.95 
-167.05 -215.06 2.85 
-166.98 -214.19 2.72 
-166.74 -213.93 2.70 
-167.71 -217.04 3.05 
-167.27 -214.29 2.78 
-167.17 -213.80 2.76 
-167.72 -216.25 2.98 
-167.77 -214.65 2.85 
-167.57 -214.27 2.79 
-167.36 -213.89 2.79 
-168.42 -216.85 3.12 
-168.24 -215.65 2.99 
-168.05 -215.13 2.97 
-168.10 -214.62 2.89 
-167.86 -214.40 2.84 
-168.78 -216.82 3.19 
-168.59 -215.75 3.05 
-168.35 -214.90 2.94 
-170.34 -223.50 3.09 
-169.04 -217.16 3.23 
-170.68 -223.80 3.13 
-170.56 -223.64 3.13 
-169.76 -217.96 3.40 
-169.61 -217.15 3.31 
-169.94 -218.00 3.43 
-170.09 -216.45 3.30 
-169.77 -216.00 3.23 
-170.38 -218.04 3.49 
-170.33 -216.29 3.33 
-171.16 -218.50 3.62 
-171.03 -217.90 3.56 
-171.41 -218.48 3.65 
-172.42 -218.76 3.83 
-172.71 -217.94 3.79 
-160.89 -214.36 2.17 
-161.09 -214.44 2.19 
-162.02 -216.88 2.37 
-161.73 -214.16 2.24 
-162.66 -217.71 2.51 
-162.23 -217.21 2.51 
-162.37 -215.86 2.33 
-162.83 -216.57 2.44 
-162.53 -216.08 2.45 
-162.96 -216.84 2.48 
-162.66 -214.59 2.26 
-164.26 -217.02 2.64 
-165.04 -215.79 2.63 
-167.07 -218.79 3.16 
-167.41 -219.63 3.25 
-168.06 -219.49 3.32 
-168.03 -218.84 3.25 
-168.23 -219.65 3.35 
-169.28 -219.76 3.50 
-169.22 -219.21 3.44 
-168.92 -218.12 3.30 
-169.79 -222.04 3.78 
-169.69 -220.02 3.57 
-170.10 -220.31 3.66 
-170.12 -219.65 3.60 
-170.01 -219.27 3.55 
-170.19 -219.38 3.58 
-171.22 -219.51 3.73 
-171.46 -219.41 3.76 
-171.39 -218.90 3.70 
-171.79 -219.17 3.78 
-172.12 -218.91 3.80 
-158.84 -220.51 2.32 
-159.52 -218.57 2.24 
-159.35 -218.33 2.20 
-159.22 -218.11 2.17 
-160.10 -219.67 2.39 
-160.05 -218.36 2.28 
-161.73 -218.19 2.45 
-161.52 -217.73 2.48 
-162.28 -218.81 2.56 
-165.09 -214.76 3.34 
-166.32 -215.16 3.50 
-167.26 -214.39 3.52 
-167.83 -215.30 3.68 
-167.93 -214.63 3.62 
-170.40 -223.07 3.94 
-169.96 -216.48 4.06 
-170.28 -216.96 4.15 
-170.12 -216.69 4.11 
-170.85 -217.31 4.27 
-170.56 -216.90 4.18 
-171.97 -217.89 4.48 
-172.35 -218.60 4.61 
-172.34 -217.85 4.52 
-162.28 -216.61 3.30 
-164.61 -216.70 3.49 
-164.24 -215.53 3.33 
-165.31 -216.43 3.53 
-166.11 -219.23 3.92 
-166.81 -218.86 3.96 
-166.81 -218.28 3.90 
-167.36 -219.44 4.09 
-167.18 -218.41 3.94 
-168.31 -218.03 4.04 
-170.43 -220.51 4.58 
-170.24 -219.01 4.38 
-170.01 -218.85 4.34 
-170.82 -220.15 4.59 
-170.41 -219.13 4.42 
-171.69 -221.49 4.86 
-171.56 -221.00 4.71 
-159.30 -218.52 3.22 
-159.74 -219.57 3.29 
-159.67 -219.00 3.23 
-159.63 -218.55 3.25 
-160.17 -219.36 3.31 
-159.96 -219.16 3.27 
-160.74 -219.07 3.34 
-166.67 -222.22 4.32 
-165.57 -215.40 4.26 
-165.25 -214.97 4.17 
-166.73 -216.61 4.52 
-166.96 -215.75 4.43 
-167.08 -215.44 4.41 
-168.91 -216.92 4.79 
-169.77 -217.96 5.03 
-169.82 -217.12 4.92 
-169.72 -216.89 4.88 
-170.37 -217.60 5.05 
-170.50 -216.98 4.88 
-159.50 -220.42 3.36 
-164.20 -217.27 4.36 
-164.46 -217.23 4.38 
-165.19 -218.03 4.55 
-164.99 -217.84 4.51 
-164.81 -217.61 4.46 
-166.51 -217.63 4.63 
-167.12 -219.06 4.88 
-167.09 -216.93 4.60 
-167.43 -217.87 4.76 
-167.42 -217.35 4.69 
-168.72 -218.51 4.98 
-168.81 -217.72 4.89 
-170.31 -219.88 5.35 
-171.27 -219.37 5.40 
-171.63 -219.64 5.48 
-171.52 -219.25 5.41 
-162.28 -219.38 4.45 
-163.86 -218.83 4.53 
-167.63 -216.04 5.25 
-168.23 -216.47 5.46 
-171.26 -221.58 5.70 
-160.21 -220.14 4.36 
-160.06 -219.97 4.35 
-160.45 -220.20 4.39 
-161.28 -220.56 4.51 
-166.65 -216.62 5.33 
-167.67 -217.98 5.63 
-168.54 -217.46 5.64 
-169.76 -220.18 6.19 
-164.12 -219.19 5.50 
-164.82 -219.99 5.68 
-169.37 -220.51 6.20 
-169.73 -220.97 6.32 
-169.94 -221.13 6.37 
-160.30 -220.49 -1.24 
-160.27 -220.13 -1.35 
-173.20 -217.90 1.47 
-160.37 -221.11 -0.43 
-160.58 -220.24 -0.42 
-161.46 -222.67 -0.24 
-161.31 -222.36 -0.27 
-161.18 -221.48 -0.30 
-164.44 -219.52 0.31 
-164.86 -219.62 0.37 
-164.14 -214.82 0.17 
-166.03 -218.91 0.53 
-164.75 -214.20 0.89 
-165.19 -214.83 0.97 
-165.01 -214.42 0.93 
-165.60 -215.04 1.04 
-167.70 -216.20 1.39 
-168.19 -215.68 1.43 
-161.68 -215.40 0.51 
-161.55 -214.79 0.62 
-161.35 -214.71 0.60 
-162.73 -213.51 0.73 
-163.08 -213.76 0.79 
-162.90 -213.61 0.76 
-163.78 -215.29 0.80 
-163.65 -215.08 0.77 
-163.46 -214.25 0.71 
-163.37 -213.78 0.83 
-164.36 -217.35 0.96 
-165.06 -216.81 1.04 
-165.71 -218.87 1.22 
-165.62 -216.88 1.18 
-165.20 -216.27 1.03 
-165.15 -215.39 0.99 
-165.68 -215.79 1.21 
-165.54 -215.19 1.17 
-166.34 -217.28 1.24 
-166.37 -216.20 1.20 
-166.01 -215.78 1.13 
-166.86 -217.35 1.31 
-166.53 -216.36 1.23 
-166.34 -215.78 1.17 
-167.68 -221.91 1.64 
-167.58 -220.46 1.56 
-167.34 -219.95 1.50 
-167.16 -217.78 1.49 
-167.73 -218.44 1.49 
-167.68 -218.04 1.46 
-167.52 -217.69 1.42 
-167.20 -215.52 1.40 
-168.19 -220.08 1.63 
-168.00 -216.73 1.45 
-168.54 -218.83 1.62 
-168.43 -217.47 1.65 
-168.20 -216.77 1.48 
-168.71 -217.44 1.69 
-168.48 -216.83 1.53 
-169.28 -218.35 1.81 
-169.78 -218.38 1.79 
-169.73 -218.24 1.87 
-170.19 -219.18 1.98 
-170.31 -218.68 1.88 
-170.05 -218.66 1.84 
-170.94 -218.68 1.97 
-170.96 -218.08 2.04 
-171.64 -219.30 2.11 
-171.88 -219.39 2.15 
-172.43 -217.52 2.23 
-158.81 -220.60 0.33 
-159.04 -220.71 0.36 
-167.08 -215.58 2.08 
-166.96 -214.98 2.03 
-167.44 -215.68 2.13 
-170.38 -223.79 2.21 
-171.48 -217.13 2.79 
-171.28 -216.67 2.73 
-172.75 -217.91 3.02 
-160.89 -215.37 1.29 
-160.68 -215.23 1.25 
-160.52 -214.78 1.34 
-161.27 -215.81 1.36 
-161.04 -215.61 1.32 
-161.51 -214.41 1.43 
-162.12 -216.76 1.52 
-161.99 -215.13 1.41 
-161.72 -215.08 1.37 
-162.30 -215.12 1.44 
-162.84 -216.61 1.60 
-162.58 -213.85 1.53 
-162.32 -213.79 1.49 
-163.04 -216.00 1.70 
