# .PCD v0.7 - Point Cloud Data file format
VERSION 0.7
FIELDS x y z
SIZE 4 4 4
TYPE F F F
COUNT 1 1 1
WIDTH 2155
HEIGHT 1
VIEWPOINT 0 0 0 1 0 0 0
POINTS 2155
DATA ascii
-167.48 -187.36 2.80 
-167.33 -186.83 2.73 
-167.85 -187.03 2.82 
-167.65 -186.68 2.75 
-168.23 -188.72 2.98 
-168.18 -187.87 2.91 
-168.04 -187.13 2.84 
-168.56 -188.78 3.01 
-168.45 -188.01 2.96 
-168.71 -188.66 3.03 
-168.95 -187.54 2.98 
-169.19 -188.89 3.11 
-169.62 -188.65 3.14 
-169.67 -188.45 3.13 
-170.00 -188.14 3.15 
-170.64 -188.57 3.20 
-170.27 -188.05 3.17 
-170.81 -188.63 3.22 
-171.00 -188.40 3.29 
-162.59 -185.75 2.22 
-162.92 -185.78 2.25 
-164.90 -188.81 2.62 
-166.37 -185.49 3.17 
-167.75 -189.55 2.96 
-168.18 -190.56 3.12 
-167.95 -189.61 2.98 
-164.38 -187.22 3.15 
-166.67 -188.46 3.51 
-166.73 -186.51 3.34 
-167.26 -187.72 3.50 
-167.00 -187.21 3.36 
-167.39 -187.83 3.53 
-167.67 -187.72 3.55 
-167.73 -186.20 3.41 
-167.84 -187.92 3.58 
-168.56 -189.34 3.80 
-168.71 -187.12 3.60 
-169.98 -189.10 3.87 
-170.21 -189.09 3.96 
-167.20 -189.27 3.64 
-167.87 -190.00 3.78 
-168.47 -191.37 3.99 
-163.97 -188.33 3.92 
-166.77 -189.48 4.37 
-169.73 -188.96 4.61 
-164.59 -190.40 4.28 
-164.59 -189.89 4.23 
-164.50 -189.67 4.19 
-167.91 -190.18 4.57 
-168.10 -190.26 4.59 
-163.21 -186.52 4.47 
-164.04 -189.18 4.73 
-160.86 -180.97 -1.39 
-161.34 -181.02 -1.31 
-161.63 -185.20 -1.40 
-161.54 -184.77 -1.40 
-161.48 -184.55 -1.40 
-162.02 -185.34 -1.33 
-162.06 -181.01 -1.19 
-162.39 -185.36 -1.27 
-162.49 -181.00 -1.12 
-163.23 -185.32 -1.14 
-160.88 -181.85 -0.94 
-160.69 -181.80 -0.96 
-161.16 -181.84 -0.90 
-161.43 -181.82 -0.86 
-161.70 -181.81 -0.81 
-162.10 -186.03 -0.82 
-161.98 -181.79 -0.77 
-162.42 -186.09 -0.77 
-162.77 -186.09 -0.72 
-163.17 -186.08 -0.66 
-163.56 -186.06 -0.60 
-163.93 -186.01 -0.54 
-164.33 -185.92 -0.48 
-165.44 -187.11 -0.33 
-165.40 -186.76 -0.33 
-158.93 -181.08 -1.01 
-159.26 -181.08 -0.96 
-159.60 -181.06 -0.91 
-160.01 -181.03 -0.85 
-160.53 -181.07 -0.78 
-160.82 -181.07 -0.73 
-161.13 -181.06 -0.69 
-161.45 -184.41 -0.69 
-161.91 -185.41 -0.64 
-162.23 -185.38 -0.59 
-162.36 -181.01 -0.50 
-162.73 -181.03 -0.45 
-163.09 -181.03 -0.40 
-159.92 -181.05 -0.20 
-160.79 -181.86 -0.26 
-160.60 -181.81 -0.28 
-160.73 -181.10 -0.09 
-161.07 -181.86 -0.22 
-161.48 -181.83 -0.16 
-162.03 -185.86 -0.07 
-161.88 -181.81 -0.11 
-162.26 -185.89 -0.04 
-163.02 -181.76 0.04 
-163.40 -184.38 0.26 
-163.38 -183.95 0.26 
-163.38 -183.66 0.26 
-163.33 -182.85 0.25 
-163.31 -182.59 0.25 
-163.33 -181.74 0.08 
-163.82 -186.04 0.17 
-163.86 -182.81 0.16 
-163.85 -182.49 0.16 
-163.81 -182.06 0.15 
-163.76 -181.77 0.14 
-164.18 -185.94 0.22 
-164.51 -185.97 0.27 
-164.70 -185.77 0.44 
-165.26 -187.82 0.38 
-165.41 -189.97 0.42 
-165.32 -189.69 0.41 
-165.34 -188.84 0.40 
-165.36 -188.51 0.40 
-165.34 -188.07 0.40 
-165.31 -187.18 0.39 
-166.37 -185.83 0.67 
-166.66 -183.44 0.70 
-167.20 -185.21 0.78 
-167.01 -184.37 0.60 
-167.52 -188.11 0.71 
-167.43 -186.80 0.82 
-167.79 -188.52 0.75 
-167.70 -188.15 0.73 
-167.80 -187.04 0.80 
-168.17 -188.45 0.80 
-168.21 -181.52 0.90 
-168.77 -183.74 0.98 
-168.72 -182.29 0.97 
-168.51 -181.62 0.94 
-169.09 -187.57 0.92 
-169.02 -182.19 1.01 
-168.95 -181.54 1.00 
-168.93 -181.18 0.99 
-169.48 -187.91 0.98 
-169.27 -187.69 0.95 
-169.50 -184.77 0.96 
-169.65 -187.92 1.01 
-169.69 -185.06 0.99 
-170.37 -188.41 1.12 
-170.36 -186.57 1.10 
-170.04 -183.64 1.16 
-170.72 -189.38 1.18 
-170.61 -186.41 1.13 
-170.94 -189.37 1.21 
-171.20 -189.21 1.24 
-170.87 -186.28 1.17 
-171.07 -185.60 1.19 
-171.38 -185.28 1.23 
-171.44 -183.75 1.35 
-163.47 -185.23 0.27 
-163.41 -184.82 0.26 
-163.75 -185.35 0.31 
-164.25 -193.63 0.29 
-164.24 -192.99 0.28 
-164.68 -187.58 0.45 
-164.70 -186.78 0.45 
-166.56 -187.71 0.70 
-167.52 -182.19 1.37 
-168.23 -182.62 1.46 
-168.32 -182.77 1.48 
-168.39 -181.82 1.46 
-168.33 -181.67 1.45 
-168.80 -183.15 1.50 
-169.59 -183.19 1.57 
-170.22 -184.02 1.68 
-170.12 -183.50 1.65 
-169.99 -182.85 1.61 
-170.53 -183.64 1.71 
-170.29 -183.35 1.74 
-170.49 -182.35 1.66 
-171.33 -183.52 1.81 
-171.36 -183.01 1.80 
-171.33 -182.76 1.82 
-171.63 -184.29 1.87 
-172.28 -186.02 2.02 
-171.94 -184.23 1.92 
-171.99 -183.76 1.91 
-172.51 -185.80 2.04 
-172.35 -185.65 2.02 
-172.45 -184.91 2.07 
-172.40 -184.33 1.98 
-172.43 -183.88 1.97 
-172.86 -185.97 2.10 
-172.81 -185.41 2.07 
-160.54 -181.90 0.41 
-160.96 -181.88 0.46 
-161.22 -181.88 0.49 
-163.08 -185.49 0.91 
-163.34 -185.44 0.94 
-163.85 -185.45 1.00 
-163.60 -185.43 0.97 
-164.11 -185.42 1.03 
-164.39 -186.01 0.97 
-164.48 -185.45 1.08 
-164.96 -184.42 1.11 
-165.67 -185.18 1.21 
-166.66 -183.39 1.29 
-166.79 -183.47 1.31 
-167.78 -186.80 1.49 
-167.63 -186.35 1.40 
-168.18 -188.57 1.54 
-168.26 -183.16 1.48 
-168.34 -188.65 1.56 
-168.35 -183.35 1.50 
-169.69 -186.26 1.74 
-170.33 -185.71 1.74 
-170.39 -184.21 1.78 
-170.71 -188.98 1.90 
-171.65 -185.49 1.98 
-172.00 -185.53 2.03 
-172.70 -186.48 2.09 
-166.60 -183.08 1.87 
-167.13 -183.36 1.94 
-167.56 -186.30 2.09 
-168.03 -184.14 2.04 
-168.20 -183.04 2.00 
-168.11 -182.98 2.03 
-168.46 -183.13 2.08 
-168.47 -182.83 2.02 
-168.73 -183.52 2.09 
-170.03 -183.70 2.28 
-170.12 -182.23 2.19 
-170.43 -185.11 2.40 
-170.56 -183.09 2.31 
-170.22 -182.35 2.21 
-170.80 -185.89 2.47 
-170.65 -184.19 2.36 
-170.66 -183.59 2.33 
-170.73 -183.12 2.33 
-170.94 -182.95 2.33 
-171.19 -185.33 2.50 
-171.21 -183.91 2.42 
-171.07 -183.49 2.38 
-171.10 -183.09 2.37 
-171.57 -185.97 2.58 
-171.52 -185.30 2.54 
-172.12 -186.27 2.67 
-172.17 -185.06 2.60 
-172.13 -184.31 2.56 
-172.30 -185.94 2.67 
-172.37 -185.07 2.63 
-172.45 -184.48 2.61 
-164.03 -185.50 1.70 
-164.30 -188.24 1.85 
-164.50 -186.83 1.81 
-164.48 -186.17 1.78 
-164.37 -185.52 1.74 
-165.76 -185.60 1.89 
-166.21 -186.83 1.99 
-165.91 -185.85 1.92 
-166.33 -185.93 1.97 
-166.22 -185.81 1.95 
-166.93 -186.48 2.02 
-166.98 -186.00 2.04 
-167.37 -187.44 2.12 
-167.08 -186.57 2.04 
-167.62 -189.70 2.27 
-167.80 -187.00 2.15 
-168.10 -187.88 2.24 
-167.95 -187.15 2.18 
-168.54 -189.69 2.39 
-168.54 -187.34 2.26 
-168.82 -187.76 2.32 
-169.39 -188.12 2.41 
-169.72 -187.86 2.44 
-170.79 -187.68 2.57 
-163.34 -182.52 2.09 
-164.83 -185.95 2.47 
-166.78 -187.28 2.75 
-166.60 -186.11 2.65 
-167.23 -187.02 2.80 
-167.22 -186.36 2.75 
-167.20 -185.86 2.69 
-167.94 -187.30 2.87 
-168.49 -187.81 3.00 
-168.25 -186.32 2.83 
-168.70 -187.89 3.03 
-169.39 -188.32 3.09 
-169.64 -188.07 3.15 
-170.34 -187.93 3.23 
-171.13 -185.28 3.12 
-163.79 -185.63 2.36 
-164.33 -188.01 2.55 
-164.35 -187.63 2.53 
-164.29 -187.05 2.49 
-165.67 -187.17 2.63 
-166.52 -188.16 2.78 
-166.34 -187.58 2.73 
-166.84 -187.44 2.78 
-167.56 -190.03 3.01 
-168.72 -190.21 3.21 
-168.74 -189.61 3.16 
-168.73 -188.76 3.10 
-168.92 -190.99 3.29 
-168.90 -189.08 3.14 
-167.06 -187.05 3.42 
-167.20 -185.56 3.37 
-167.49 -188.70 3.60 
-167.42 -187.22 3.55 
-167.75 -187.80 3.64 
-167.78 -186.12 3.48 
-168.98 -188.70 3.86 
-169.45 -188.38 3.77 
-169.95 -189.07 4.00 
-169.69 -188.86 3.95 
-167.02 -190.05 3.77 
-167.15 -189.09 3.70 
-167.04 -188.83 3.66 
-167.26 -189.41 3.74 
-167.65 -190.22 3.86 
-168.95 -189.96 3.98 
-163.39 -186.32 3.83 
-163.57 -186.37 3.84 
-162.72 -186.49 3.79 
-164.06 -189.30 4.10 
-166.44 -189.39 4.43 
-162.76 -184.37 4.29 
-163.10 -185.59 4.46 
-164.06 -186.23 4.60 
-164.30 -186.65 4.67 
-164.30 -186.23 4.62 
-164.09 -189.37 5.01 
-164.11 -188.80 4.94 
-164.04 -188.52 4.90 
-164.15 -189.70 5.06 
-160.71 -181.31 -1.44 
-161.16 -181.30 -1.36 
-162.15 -181.29 -1.20 
-162.76 -185.64 -1.24 
-163.17 -185.64 -1.17 
-161.10 -181.74 -0.90 
-161.48 -181.72 -0.84 
-161.99 -185.88 -0.83 
-161.82 -181.71 -0.79 
-162.25 -186.03 -0.79 
-162.15 -181.68 -0.74 
-162.66 -186.01 -0.73 
-163.07 -186.01 -0.67 
-163.46 -186.00 -0.61 
-163.89 -185.93 -0.54 
-164.31 -185.87 -0.48 
-165.37 -187.17 -0.34 
-165.32 -186.80 -0.34 
-160.66 -181.34 -0.76 
-161.13 -181.33 -0.69 
-161.89 -185.68 -0.64 
-162.22 -185.64 -0.59 
-162.63 -185.65 -0.53 
-163.09 -185.69 -0.47 
-163.57 -185.58 -0.39 
-163.85 -185.58 -0.35 
-164.22 -185.59 -0.30 
-164.73 -186.49 -0.23 
-164.73 -186.13 -0.23 
-164.66 -185.69 -0.23 
-160.93 -181.77 -0.22 
-161.39 -181.73 -0.16 
-161.73 -181.73 -0.11 
-162.19 -181.70 -0.05 
-162.41 -181.72 -0.02 
-162.83 -184.38 0.05 
-163.34 -181.66 0.11 
-163.95 -185.90 0.22 
-163.80 -185.78 0.20 
-163.73 -182.70 0.17 
-163.79 -182.56 0.17 
-163.75 -182.13 0.17 
-163.79 -181.86 0.17 
-164.21 -185.88 0.25 
-164.58 -185.89 0.30 
-165.05 -185.98 0.37 
-165.27 -188.68 0.42 
-165.18 -185.93 0.39 
-166.29 -185.57 0.68 
-167.89 -188.41 0.79 
-167.54 -188.16 0.74 
-167.79 -186.91 0.76 
-167.50 -184.02 0.84 
-167.85 -181.92 0.87 
-168.27 -186.33 0.83 
-168.05 -183.66 0.77 
-168.06 -183.38 0.77 
-168.06 -181.87 0.90 
-168.65 -183.01 0.85 
-168.97 -187.51 0.94 
-168.90 -187.31 0.93 
-168.77 -185.17 1.02 
-168.87 -183.71 0.96 
-168.74 -183.33 0.93 
-168.80 -182.76 1.01 
-168.75 -182.36 1.00 
-168.90 -181.52 1.01 
-168.78 -181.42 1.00 
-169.37 -187.95 1.00 
-169.20 -187.65 0.97 
-169.32 -182.80 1.08 
-169.26 -182.23 1.07 
-169.69 -188.32 1.05 
-169.53 -184.84 0.99 
-169.84 -183.90 1.16 
-169.56 -182.72 1.04 
-170.08 -183.66 1.19 
-170.17 -182.32 1.19 
-170.01 -182.19 1.17 
-170.49 -189.05 1.17 
-170.42 -188.17 1.15 
-170.32 -187.55 1.25 
-170.89 -189.34 1.23 
-170.84 -188.71 1.22 
-170.72 -186.22 1.18 
-170.87 -185.25 1.19 
-171.26 -188.76 1.28 
-171.27 -185.19 1.25 
-159.14 -181.38 -0.28 
-159.45 -181.38 -0.24 
-163.30 -185.35 0.27 
-163.74 -185.62 0.33 
-164.10 -193.63 0.30 
-164.10 -185.64 0.38 
-164.57 -187.42 0.46 
-164.61 -186.54 0.46 
-164.61 -186.18 0.45 
-164.54 -185.75 0.44 
-165.25 -189.93 0.43 
-167.48 -186.98 0.85 
-169.39 -183.95 1.61 
-169.36 -183.12 1.58 
-169.63 -182.95 1.62 
-169.81 -183.03 1.64 
-170.56 -183.15 1.82 
-171.27 -184.32 1.88 
-171.27 -183.83 1.86 
-171.26 -183.73 1.86 
-171.13 -182.82 1.81 
-171.70 -184.02 1.93 
-171.44 -183.62 1.95 
-172.00 -184.18 1.98 
-171.92 -183.58 2.01 
-172.38 -183.86 2.02 
-160.50 -181.75 0.44 
-160.81 -181.81 0.48 
-161.31 -181.74 0.54 
-161.83 -181.75 0.60 
-162.02 -181.77 0.62 
-162.75 -185.79 0.92 
-163.09 -185.70 0.96 
-163.55 -185.75 1.01 
-164.06 -185.74 1.08 
-164.48 -186.09 1.13 
-164.46 -185.77 1.12 
-166.02 -185.07 1.30 
-166.71 -187.05 1.43 
-166.79 -185.32 1.40 
-167.29 -182.33 1.39 
-167.45 -188.05 1.48 
-167.39 -182.43 1.40 
-167.93 -187.70 1.61 
-168.06 -187.04 1.61 
-168.11 -183.64 1.52 
-167.98 -183.01 1.49 
-168.14 -182.00 1.48 
-168.46 -187.71 1.60 
-168.30 -182.01 1.50 
-168.64 -187.43 1.62 
-168.76 -184.02 1.53 
-169.12 -187.16 1.68 
-169.42 -187.16 1.72 
-169.39 -183.14 1.67 
-169.53 -182.63 1.67 
-169.88 -187.21 1.78 
-170.41 -183.13 1.80 
-170.94 -187.87 2.01 
-171.24 -186.66 2.01 
-171.16 -186.38 1.99 
-171.26 -183.59 1.92 
-172.04 -187.16 2.08 
-172.09 -186.23 2.06 
-172.11 -186.00 2.10 
-171.82 -184.43 2.02 
-172.36 -188.06 2.15 
-172.75 -185.31 2.12 
-167.12 -183.72 2.02 
-167.57 -183.67 2.03 
-167.98 -184.10 2.10 
-170.35 -185.32 2.47 
-170.13 -183.87 2.37 
-170.80 -185.57 2.53 
-171.10 -185.20 2.55 
-170.95 -183.83 2.46 
-171.10 -182.95 2.43 
-171.49 -185.60 2.63 
-171.36 -184.98 2.57 
-171.56 -183.60 2.53 
-171.80 -185.50 2.66 
-171.95 -185.41 2.68 
-164.00 -185.79 1.77 
-164.33 -186.04 1.82 
-164.21 -185.82 1.80 
-165.82 -184.97 1.93 
-166.25 -186.79 2.06 
-166.46 -185.77 2.04 
-166.88 -187.00 2.14 
-167.25 -187.27 2.18 
-166.96 -186.41 2.13 
-167.01 -185.21 2.08 
-167.42 -187.32 2.20 
-167.62 -186.87 2.22 
-167.56 -186.46 2.17 
-167.40 -185.30 2.12 
-167.91 -190.42 2.42 
-167.75 -190.21 2.39 
-167.89 -187.69 2.28 
-167.82 -186.99 2.23 
-168.14 -189.71 2.42 
-168.41 -187.88 2.35 
-168.35 -187.34 2.32 
-168.15 -186.71 2.26 
-168.59 -187.90 2.38 
-168.68 -187.10 2.34 
-168.89 -188.48 2.44 
-169.81 -187.82 2.53 
-170.44 -187.93 2.61 
-170.61 -188.02 2.64 
-166.22 -185.61 2.67 
-166.13 -185.44 2.65 
-167.18 -185.98 2.79 
-167.00 -185.88 2.76 
-167.32 -186.06 2.81 
-168.24 -187.07 2.97 
-168.34 -186.62 2.95 
-164.20 -187.57 2.60 
-164.25 -187.43 2.59 
-164.24 -187.07 2.57 
-164.19 -186.46 2.53 
-165.81 -187.42 2.75 
-166.69 -187.81 2.88 
-166.68 -186.73 2.79 
-167.08 -187.67 2.89 
-167.17 -186.70 2.86 
-167.51 -188.01 3.00 
-167.34 -187.76 2.94 
-167.37 -186.69 2.89 
-167.78 -186.93 2.93 
-168.19 -190.66 3.28 
-168.28 -188.51 3.13 
-168.33 -187.74 3.08 
-168.49 -188.59 3.16 
-169.09 -188.81 3.25 
-169.10 -188.28 3.15 
-168.79 -187.74 3.13 
-169.48 -187.81 3.22 
-169.57 -189.48 3.36 
-169.73 -187.92 3.26 
-170.00 -189.25 3.33 
-170.30 -187.95 3.33 
-170.35 -188.52 3.38 
-166.68 -187.36 3.52 
-167.11 -185.21 3.38 
-167.90 -190.73 3.25 
-165.83 -188.46 3.54 
-166.52 -188.48 3.61 
-167.11 -189.42 3.85 
-167.23 -189.03 3.82 
-167.12 -188.69 3.78 
-167.17 -188.06 3.72 
-167.77 -188.89 3.87 
-167.70 -188.46 3.82 
-168.38 -187.94 3.84 
-170.02 -189.24 4.16 
-164.24 -186.32 4.03 
-164.07 -189.05 4.32 
-164.18 -190.53 4.37 
-163.37 -186.78 4.78 
-163.99 -188.48 5.05 
-160.93 -180.98 -1.46 
-161.57 -185.36 -1.50 
-161.43 -185.18 -1.52 
-161.39 -184.88 -1.52 
-161.37 -180.96 -1.39 
-160.92 -181.70 -0.98 
-161.26 -181.73 -0.93 
-161.66 -181.73 -0.87 
-161.74 -181.68 -0.85 
-162.13 -186.02 -0.86 
-162.07 -181.71 -0.81 
-162.14 -181.68 -0.79 
-162.55 -186.02 -0.80 
-162.46 -181.71 -0.75 
-162.96 -186.01 -0.74 
-163.37 -186.01 -0.68 
-163.65 -185.99 -0.63 
-164.10 -185.87 -0.56 
-164.49 -185.87 -0.50 
-165.20 -187.03 -0.41 
-161.02 -181.00 -0.75 
-161.39 -180.97 -0.70 
-161.67 -180.98 -0.66 
-161.94 -180.98 -0.62 
-162.46 -185.32 -0.61 
-162.89 -185.31 -0.54 
-163.40 -192.12 -0.57 
-163.21 -185.23 -0.49 
-164.07 -185.28 -0.37 
-164.44 -187.86 -0.35 
-164.60 -186.59 -0.31 
-164.45 -185.27 -0.31 
-168.08 -187.40 0.20 
-168.48 -187.18 0.27 
-169.67 -185.38 0.47 
-160.83 -181.70 -0.26 
-161.15 -181.76 -0.21 
-161.56 -181.75 -0.16 
-161.83 -181.74 -0.12 
-161.92 -181.68 -0.11 
-162.37 -181.72 -0.05 
-162.43 -181.68 -0.04 
-162.82 -184.45 0.02 
-162.79 -181.69 0.01 
-163.14 -181.71 0.06 
-163.66 -182.64 0.13 
-163.68 -182.39 0.13 
-164.03 -185.87 0.20 
-164.38 -185.90 0.25 
-164.65 -185.88 0.29 
-165.10 -187.50 0.36 
-165.02 -187.23 0.35 
-165.08 -186.52 0.35 
-165.00 -186.25 0.34 
-166.72 -184.25 0.57 
-167.44 -188.29 0.70 
-167.39 -184.01 0.79 
-167.90 -188.39 0.76 
-168.11 -186.29 0.78 
-167.74 -183.76 0.84 
-168.35 -181.08 0.91 
-168.82 -187.57 0.89 
-168.70 -187.21 0.87 
-168.84 -183.83 0.86 
-168.68 -183.30 0.83 
-168.87 -182.27 0.99 
-168.69 -181.05 0.96 
-169.21 -187.74 0.95 
-169.02 -187.68 0.92 
-169.24 -182.64 1.04 
-169.26 -181.89 1.04 
-169.63 -188.33 1.01 
-169.45 -188.08 0.98 
-169.43 -185.85 0.96 
-169.38 -184.87 0.95 
-169.63 -183.03 1.10 
-169.77 -185.50 1.01 
-169.99 -181.90 1.14 
-170.48 -188.98 1.14 
-170.37 -188.23 1.12 
-170.31 -183.26 1.19 
-170.77 -188.78 1.18 
-170.95 -185.33 1.18 
-171.16 -185.25 1.21 
-164.47 -186.26 0.40 
-164.46 -185.90 0.40 
-164.33 -185.32 0.38 
-165.08 -189.32 0.37 
-165.07 -188.76 0.36 
-166.90 -185.55 0.73 
-167.18 -185.88 0.77 
-167.56 -185.68 0.83 
-169.80 -182.91 1.64 
-170.46 -182.25 1.71 
-171.06 -182.77 1.81 
-171.49 -183.37 1.89 
-160.98 -181.75 0.49 
-162.32 -181.72 0.66 
-163.55 -185.41 1.00 
-163.98 -185.39 1.05 
-164.31 -186.04 1.11 
-165.90 -185.54 1.29 
-166.57 -185.55 1.37 
-166.85 -186.37 1.43 
-167.14 -184.23 1.41 
-166.88 -183.21 1.35 
-167.23 -182.08 1.37 
-167.42 -187.40 1.53 
-167.82 -187.55 1.59 
-167.73 -187.28 1.57 
-167.96 -183.33 1.49 
-167.97 -182.54 1.47 
-168.00 -182.16 1.47 
-168.41 -187.40 1.66 
-168.18 -183.25 1.52 
-168.10 -181.74 1.47 
-168.57 -187.66 1.62 
-168.45 -187.07 1.59 
-169.02 -187.30 1.67 
-169.34 -187.13 1.71 
-169.34 -182.33 1.64 
-169.76 -187.21 1.77 
-169.79 -185.29 1.71 
-169.97 -183.00 1.67 
-169.79 -181.92 1.69 
-170.18 -185.49 1.83 
-170.14 -183.85 1.78 
-170.58 -183.34 1.83 
-171.10 -184.48 1.87 
-171.14 -183.73 1.85 
-170.97 -183.36 1.88 
-171.10 -183.16 1.89 
-171.31 -185.24 1.98 
-171.56 -183.68 1.91 
-171.97 -188.24 2.11 
-171.66 -185.88 2.04 
-171.78 -184.23 1.95 
-171.67 -184.01 1.99 
-172.09 -186.92 2.08 
-172.00 -184.19 1.98 
-172.31 -183.83 2.01 
-172.64 -187.47 2.18 
-172.55 -185.31 2.10 
-172.82 -186.57 2.17 
-173.29 -185.66 2.21 
-165.82 -188.97 1.37 
-167.95 -183.15 2.11 
-170.92 -183.51 2.47 
-171.80 -185.41 2.69 
-171.51 -184.83 2.62 
-171.69 -183.71 2.58 
-164.24 -186.33 1.84 
-165.03 -186.30 1.92 
-166.10 -186.60 2.06 
-166.67 -186.87 2.13 
-167.05 -184.70 2.08 
-166.89 -183.50 2.01 
-167.41 -188.87 2.30 
-167.49 -187.57 2.26 
-167.36 -186.71 2.21 
-167.25 -185.05 2.12 
-167.14 -184.92 2.10 
-167.82 -188.33 2.34 
-167.75 -187.28 2.27 
-167.77 -186.59 2.25 
-167.61 -184.67 2.14 
-168.26 -187.95 2.36 
-168.01 -187.55 2.31 
-168.40 -188.10 2.39 
-168.54 -187.10 2.36 
-168.83 -187.60 2.42 
-169.10 -188.17 2.48 
-169.78 -187.61 2.54 
-170.03 -188.35 2.61 
-170.38 -188.35 2.65 
-170.35 -187.93 2.63 
-170.67 -185.50 2.55 
-170.38 -185.33 2.50 
-170.85 -185.64 2.58 
-166.94 -189.40 2.27 
-167.06 -185.23 2.77 
-168.23 -189.90 2.46 
-164.08 -187.22 2.60 
-164.11 -186.79 2.58 
-165.33 -186.94 2.71 
-166.57 -187.77 2.89 
-166.58 -186.46 2.81 
-166.64 -187.19 2.86 
-166.80 -185.29 2.75 
-167.23 -187.43 2.94 
-167.10 -187.23 2.91 
-167.23 -185.74 2.82 
-167.77 -187.78 3.02 
-167.79 -187.28 2.99 
-167.90 -188.06 3.05 
-167.81 -186.81 2.96 
-168.51 -188.18 3.13 
-168.38 -187.90 3.15 
-168.23 -187.69 3.12 
-168.30 -186.85 3.06 
-168.79 -189.48 3.32 
-168.69 -189.04 3.27 
-169.52 -188.83 3.36 
-169.57 -187.94 3.30 
-169.77 -187.96 3.32 
-170.28 -188.57 3.43 
-170.26 -187.91 3.38 
-162.85 -182.81 2.92 
-167.44 -191.82 3.33 
-167.58 -190.80 3.27 
-168.06 -190.95 3.34 
-167.82 -190.03 3.24 
-164.25 -186.94 3.40 
-165.71 -188.22 3.58 
-166.68 -187.17 3.58 
-167.23 -189.62 3.85 
-167.37 -189.85 3.88 
-167.60 -189.00 3.94 
-167.64 -188.37 3.88 
-163.96 -189.82 3.56 
-162.30 -186.44 3.98 
-162.52 -186.45 4.00 
-163.12 -186.32 4.04 
-163.46 -186.30 4.06 
-163.64 -186.35 4.08 
-164.08 -190.30 4.56 
-164.14 -190.08 4.54 
-164.06 -189.75 4.50 
-160.54 -180.84 -1.54 
-160.87 -180.89 -1.48 
-161.31 -185.23 -1.56 
-161.20 -184.99 -1.57 
-161.31 -180.89 -1.41 
-161.60 -185.23 -1.51 
-162.03 -185.23 -1.44 
-162.45 -185.23 -1.38 
-161.21 -181.66 -0.93 
-161.60 -181.62 -0.87 
-161.94 -185.96 -0.89 
-161.99 -181.60 -0.82 
-162.37 -185.94 -0.83 
-162.41 -181.61 -0.75 
-162.79 -185.94 -0.76 
-163.20 -185.94 -0.70 
-163.62 -185.90 -0.64 
-163.95 -185.79 -0.59 
-164.35 -185.79 -0.53 
-159.62 -180.92 -0.96 
-160.89 -180.90 -0.77 
-161.18 -180.90 -0.73 
-161.56 -180.92 -0.67 
-162.27 -185.26 -0.64 
-163.13 -185.21 -0.51 
-163.93 -185.20 -0.39 
-164.47 -189.03 -0.37 
-164.48 -188.56 -0.36 
-164.46 -186.82 -0.34 
-164.44 -186.42 -0.33 
-164.45 -186.02 -0.33 
-164.43 -185.64 -0.32 
-164.31 -185.23 -0.33 
-168.05 -186.76 0.20 
-168.33 -187.09 0.24 
-168.18 -186.90 0.22 
-168.89 -184.56 0.36 
-170.50 -184.80 0.60 
-161.01 -181.65 -0.21 
-161.52 -181.66 -0.15 
-161.93 -181.65 -0.09 
-162.20 -181.64 -0.05 
-162.74 -181.62 0.02 
-163.08 -181.61 0.07 
-163.49 -183.73 0.13 
-163.45 -182.94 0.12 
-163.51 -182.44 0.13 
-163.40 -181.58 0.11 
-164.63 -185.82 0.30 
-164.96 -187.23 0.35 
-164.96 -186.71 0.35 
-164.87 -186.44 0.34 
-166.76 -184.49 0.59 
-167.95 -186.18 0.77 
-168.34 -187.80 0.84 
-168.18 -183.65 0.78 
-168.16 -182.39 0.91 
-168.49 -188.64 0.87 
-168.62 -187.58 0.88 
-168.72 -184.87 0.87 
-168.59 -183.76 0.84 
-168.62 -182.31 0.84 
-169.08 -188.82 0.95 
-169.02 -187.66 0.93 
-169.14 -184.88 0.93 
-168.90 -184.07 0.89 
-169.30 -185.07 0.95 
-169.49 -182.45 1.09 
-169.45 -182.14 1.08 
-169.77 -183.15 1.13 
-170.77 -185.30 1.17 
-170.85 -187.43 1.20 
-170.94 -185.30 1.19 
-171.24 -188.58 1.26 
-171.49 -185.17 1.33 
-171.32 -185.02 1.24 
-161.91 -180.95 0.06 
-164.32 -186.89 0.40 
-164.26 -186.22 0.39 
-164.95 -189.71 0.37 
-165.01 -188.87 0.37 
-164.97 -187.79 0.36 
-164.90 -187.46 0.35 
-165.69 -184.79 0.58 
-166.59 -185.75 0.71 
-167.33 -186.14 0.81 
-168.00 -187.18 0.91 
-170.16 -186.40 1.21 
-171.16 -186.60 1.35 
-166.07 -185.40 1.34 
-166.40 -186.05 1.40 
-167.37 -187.97 1.50 
-167.38 -186.71 1.54 
-167.19 -186.60 1.51 
-167.31 -183.56 1.45 
-167.65 -186.88 1.58 
-167.89 -182.96 1.51 
-167.67 -182.54 1.47 
-168.02 -187.36 1.64 
-167.99 -187.01 1.63 
-168.05 -183.07 1.53 
-168.30 -187.50 1.62 
-168.58 -185.00 1.58 
-168.68 -187.13 1.65 
-168.98 -186.95 1.69 
-170.12 -186.35 1.83 
-169.99 -185.08 1.83 
-170.48 -185.03 1.90 
-170.48 -184.56 1.82 
-170.57 -183.66 1.81 
-170.29 -182.78 1.81 
-170.91 -184.51 1.94 
-170.96 -183.40 1.91 
-171.15 -185.60 2.00 
-171.15 -184.43 1.97 
-171.29 -183.10 1.95 
-171.70 -184.17 1.98 
-171.49 -183.37 1.93 
-171.98 -188.05 2.14 
-171.91 -186.39 2.08 
-171.99 -184.19 2.02 
-172.53 -186.56 2.17 
-172.52 -185.26 2.13 
-172.51 -185.03 2.12 
-163.89 -185.39 1.07 
-164.16 -185.39 1.10 
-166.21 -187.55 1.41 
-166.71 -187.05 1.46 
-168.03 -189.05 1.62 
-168.39 -189.36 1.68 
-170.13 -184.05 2.46 
-171.15 -183.51 2.56 
-171.11 -183.02 2.53 
-171.38 -183.55 2.60 
-166.14 -187.02 2.13 
-166.43 -186.93 2.16 
-166.56 -185.84 2.13 
-166.84 -186.64 2.20 
-166.74 -183.54 2.04 
-167.02 -186.76 2.22 
-167.12 -183.37 2.08 
-167.53 -187.41 2.31 
-167.50 -186.53 2.27 
-167.66 -183.15 2.13 
-167.51 -183.03 2.11 
-168.08 -188.51 2.43 
-168.03 -188.06 2.40 
-167.96 -187.28 2.36 
-168.15 -186.50 2.34 
-168.30 -188.58 2.46 
-168.16 -187.35 2.39 
-169.29 -188.52 2.58 
-169.18 -188.19 2.55 
-169.10 -187.56 2.51 
-169.39 -187.85 2.56 
-170.22 -188.53 2.70 
-170.70 -185.63 2.62 
-171.19 -185.27 2.66 
-171.24 -184.72 2.64 
-171.35 -185.68 2.71 
-164.03 -187.30 1.91 
-167.24 -190.33 2.42 
-163.93 -186.25 2.60 
-163.92 -185.86 2.57 
-166.02 -185.36 2.75 
-166.37 -188.27 2.98 
-166.51 -187.08 2.91 
-166.78 -185.31 2.82 
-166.67 -185.07 2.80 
-167.36 -188.13 3.12 
-167.86 -187.49 3.14 
-168.13 -188.13 3.22 
-168.20 -186.90 3.11 
-169.06 -188.25 3.34 
-169.45 -188.64 3.42 
-169.46 -187.88 3.36 
-169.63 -187.97 3.39 
-166.49 -189.77 3.14 
-166.49 -189.01 3.04 
-166.47 -188.57 3.01 
-166.97 -189.61 3.14 
-167.89 -190.94 3.40 
-167.81 -190.08 3.32 
-167.98 -189.19 3.28 
-163.54 -186.12 3.36 
-163.79 -186.14 3.38 
-162.65 -186.26 3.29 
-165.73 -188.83 3.73 
-163.07 -185.74 3.99 
-161.38 -186.42 4.02 
-162.82 -193.42 3.95 
-163.92 -189.44 4.57 
-163.96 -189.94 4.63 
-164.18 -190.07 4.66 
-162.40 -188.43 5.19 
-162.65 -188.41 5.20 
-162.76 -188.27 5.19 
-163.00 -188.27 5.21 
-160.36 -189.36 5.16 
-160.34 -188.87 5.10 
-160.34 -188.36 5.04 
-160.30 -190.05 5.25 
-161.08 -185.28 -1.67 
-162.39 -185.44 -1.46 
-161.06 -181.54 -1.00 
-161.48 -181.53 -0.94 
-161.90 -181.53 -0.88 
-162.30 -181.52 -0.82 
-163.05 -185.84 -0.78 
-163.38 -185.80 -0.73 
-163.88 -185.69 -0.65 
-164.25 -185.68 -0.60 
-160.22 -181.14 -0.92 
-161.48 -181.11 -0.74 
-161.94 -185.84 -0.94 
-161.88 -181.12 -0.68 
-162.22 -185.86 -0.90 
-162.22 -181.16 -0.63 
-162.65 -185.84 -0.84 
-163.15 -185.37 -0.56 
-163.01 -181.18 -0.51 
-163.42 -185.39 -0.52 
-164.35 -189.17 -0.45 
-167.92 -186.94 0.12 
-168.20 -187.38 0.16 
-168.06 -187.07 0.14 
-168.40 -187.44 0.19 
-170.19 -185.10 0.49 
-170.41 -185.00 0.53 
-170.85 -184.88 0.60 
-160.96 -181.56 -0.25 
-161.38 -181.55 -0.20 
-161.79 -181.56 -0.14 
-162.20 -181.54 -0.09 
-162.98 -181.53 0.02 
-163.50 -183.92 0.10 
-163.45 -181.84 0.09 
-163.40 -181.50 0.08 
-164.70 -185.66 0.27 
-166.58 -184.37 0.53 
-167.18 -186.63 0.63 
-168.25 -187.56 0.79 
-168.02 -184.92 0.74 
-168.12 -183.19 0.87 
-168.24 -182.52 0.89 
-168.05 -182.30 0.86 
-168.03 -181.80 0.85 
-167.92 -181.61 0.84 
-168.63 -185.73 0.83 
-168.53 -182.85 0.93 
-168.95 -187.58 0.89 
-168.89 -184.46 0.86 
-168.80 -184.11 0.84 
-168.77 -182.76 0.96 
-169.09 -187.91 0.91 
-169.29 -186.68 0.93 
-169.13 -184.98 0.90 
-169.31 -182.68 0.91 
-169.72 -184.06 0.98 
-169.96 -184.27 1.13 
-170.48 -182.67 1.20 
-170.79 -185.16 1.14 
-171.30 -186.29 1.22 
-171.30 -184.94 1.21 
-160.11 -181.17 -0.21 
-164.19 -186.93 0.35 
-164.92 -189.82 0.33 
-164.82 -189.51 0.31 
-164.86 -189.06 0.32 
-164.88 -188.03 0.31 
-164.79 -187.14 0.29 
-166.44 -183.65 0.64 
-167.84 -187.33 0.85 
-167.76 -187.07 0.84 
-168.36 -188.61 0.81 
-168.87 -188.72 0.89 
-169.21 -188.38 0.93 
-171.09 -185.69 1.30 
-160.86 -181.59 0.50 
-167.94 -187.32 1.55 
-167.95 -183.29 1.51 
-167.78 -183.20 1.49 
-168.32 -187.65 1.61 
-168.31 -187.10 1.59 
-168.36 -183.72 1.50 
-168.63 -187.49 1.65 
-169.61 -182.59 1.64 
-170.35 -184.59 1.80 
-170.69 -184.84 1.91 
-170.82 -183.77 1.84 
-170.69 -183.39 1.81 
-171.09 -185.86 1.94 
-171.20 -185.28 1.99 
-171.11 -183.75 1.88 
-171.06 -183.55 1.92 
-171.39 -185.46 1.97 
-171.97 -185.38 2.09 
-171.98 -184.11 2.01 
-172.42 -184.72 2.14 
-166.49 -187.32 1.43 
-166.86 -186.18 1.44 
-166.85 -185.98 1.44 
-167.14 -188.07 1.46 
-167.12 -187.60 1.51 
-167.05 -186.77 1.48 
-167.39 -186.57 1.52 
-168.11 -189.09 1.62 
-167.94 -186.92 1.60 
-168.22 -187.36 1.65 
-168.53 -189.43 1.69 
-168.85 -187.65 1.74 
-169.84 -188.66 1.90 
-171.10 -183.28 2.56 
-166.72 -186.79 2.19 
-166.62 -186.46 2.17 
-166.60 -186.03 2.14 
-167.56 -186.59 2.28 
-167.68 -186.75 2.31 
-168.90 -187.79 2.50 
-169.66 -187.80 2.61 
-170.25 -185.16 2.55 
-170.13 -183.90 2.46 
-170.60 -185.51 2.61 
-170.94 -185.54 2.66 
-171.25 -185.62 2.70 
-171.40 -183.57 2.61 
-163.29 -185.87 1.72 
-165.71 -187.18 2.09 
-166.02 -188.53 2.19 
-166.12 -187.84 2.17 
-166.65 -188.94 2.29 
-166.67 -187.78 2.23 
-166.67 -187.63 2.23 
-166.86 -187.93 2.26 
-167.32 -189.64 2.40 
-167.46 -188.31 2.35 
-167.56 -187.50 2.33 
-167.72 -188.30 2.38 
-168.23 -187.99 2.43 
-168.61 -188.40 2.50 
-169.02 -188.23 2.55 
-169.88 -188.67 2.67 
-166.61 -187.22 2.96 
-167.48 -187.58 3.07 
-168.98 -188.52 3.31 
-165.81 -188.24 2.94 
-166.48 -188.74 3.04 
-166.46 -187.60 2.97 
-166.81 -189.95 3.16 
-167.27 -188.65 3.18 
-167.12 -188.22 3.08 
-167.82 -190.74 3.40 
-167.79 -190.03 3.35 
-168.16 -188.24 3.26 
-168.10 -187.68 3.21 
-168.70 -188.25 3.32 
-169.02 -188.04 3.35 
-166.99 -191.66 3.37 
-164.04 -186.60 3.50 
-163.97 -189.76 3.77 
-162.55 -185.18 4.05 
-163.08 -193.77 4.05 
-163.18 -185.99 4.19 
-163.62 -186.18 4.25 
-163.38 -186.13 4.22 
-163.82 -187.96 4.46 
-163.80 -186.86 4.34 
-160.13 -188.74 5.15 
-160.12 -188.23 5.08 
-160.20 -187.52 5.00 
-160.21 -186.52 4.88 
-160.22 -189.56 5.26 
-160.22 -189.03 5.19 
-160.35 -189.87 5.31 
-160.69 -180.80 -1.68 
-161.06 -180.81 -1.62 
-161.47 -185.17 -1.71 
-161.11 -181.51 -1.08 
-161.44 -181.53 -1.03 
-161.91 -181.51 -0.96 
-162.15 -181.52 -0.92 
-159.68 -180.83 -1.08 
-160.00 -180.83 -1.03 
-160.77 -180.91 -0.92 
-161.11 -185.23 -0.95 
-161.08 -180.89 -0.87 
-161.77 -185.88 -1.05 
-162.54 -185.82 -0.94 
-162.46 -185.24 -0.75 
-162.92 -185.84 -0.88 
-162.92 -185.15 -0.68 
-163.38 -185.79 -0.81 
-163.33 -185.17 -0.62 
-164.13 -185.71 -0.69 
-164.37 -185.72 -0.66 
-164.44 -185.66 -0.65 
-166.48 -187.48 -0.18 
-167.82 -186.72 0.03 
-168.04 -187.08 0.06 
-170.07 -184.86 0.41 
-170.41 -184.86 0.46 
-170.78 -184.76 0.52 
-161.01 -181.51 -0.31 
-161.25 -181.54 -0.27 
-161.66 -181.54 -0.22 
-162.07 -181.53 -0.16 
-162.34 -181.52 -0.12 
-162.92 -181.49 -0.04 
-163.41 -184.25 0.03 
-163.34 -182.93 0.02 
-163.33 -182.56 0.02 
-163.39 -182.37 0.02 
-163.39 -181.94 0.02 
-163.25 -181.55 0.00 
-167.62 -183.35 0.62 
-167.56 -181.71 0.74 
-167.89 -185.73 0.67 
-167.86 -185.24 0.67 
-167.96 -181.94 0.79 
-168.39 -182.62 0.86 
-168.91 -185.04 0.82 
-168.96 -184.79 0.82 
-168.82 -184.29 0.80 
-168.82 -182.60 0.92 
-169.27 -186.76 0.88 
-169.20 -184.93 0.86 
-169.22 -182.29 0.97 
-169.69 -181.69 1.03 
-170.17 -185.55 1.00 
-170.47 -185.33 1.05 
-170.39 -182.44 1.14 
-170.86 -185.15 1.10 
-171.12 -186.40 1.15 
-171.23 -185.09 1.15 
-171.38 -186.30 1.18 
-159.79 -180.90 -0.31 
-159.57 -180.86 -0.34 
-163.43 -184.70 0.04 
-164.69 -189.82 0.24 
-164.77 -189.53 0.25 
-165.78 -185.16 0.50 
-165.70 -184.83 0.49 
-166.55 -185.58 0.61 
-167.07 -186.66 0.56 
-167.61 -186.96 0.76 
-168.16 -187.82 0.72 
-167.77 -187.19 0.79 
-168.19 -188.53 0.73 
-168.87 -188.85 0.83 
-168.90 -188.03 0.83 
-168.77 -187.59 0.81 
-169.25 -188.47 0.89 
-169.56 -188.28 0.93 
-171.43 -184.89 1.30 
-161.26 -181.59 0.51 
-161.53 -181.59 0.54 
-169.47 -185.93 1.69 
-169.51 -183.71 1.69 
-169.39 -182.67 1.59 
-169.67 -182.51 1.62 
-169.65 -186.00 1.72 
-170.42 -184.42 1.78 
-170.18 -183.64 1.72 
-170.46 -183.02 1.80 
-170.79 -187.06 1.91 
-170.62 -185.58 1.87 
-170.68 -184.58 1.87 
-170.62 -184.39 1.81 
-171.14 -185.09 1.95 
-171.23 -183.23 1.86 
-171.91 -184.25 1.98 
-166.03 -185.90 1.30 
-166.37 -188.82 1.41 
-166.35 -186.85 1.36 
-166.81 -187.36 1.43 
-166.58 -186.82 1.39 
-167.08 -189.70 1.53 
-166.93 -186.61 1.43 
-167.55 -187.15 1.46 
-167.97 -187.16 1.58 
-168.33 -187.62 1.61 
-168.22 -187.32 1.56 
-168.62 -186.92 1.60 
-167.55 -186.18 2.25 
-167.61 -186.14 2.26 
-170.16 -185.25 2.54 
-170.61 -185.66 2.62 
-171.10 -184.87 2.64 
-171.33 -183.62 2.61 
-163.98 -185.87 1.79 
-166.70 -187.39 2.21 
-166.87 -190.42 2.37 
-167.09 -189.33 2.35 
-166.99 -186.30 2.19 
-167.38 -190.50 2.44 
-167.41 -188.06 2.33 
-167.57 -187.23 2.31 
-167.64 -186.49 2.28 
-167.95 -188.59 2.42 
-168.67 -187.60 2.46 
-168.92 -188.38 2.54 
-168.92 -187.54 2.49 
-169.19 -188.64 2.57 
-169.43 -188.10 2.59 
-166.63 -185.84 2.88 
-166.40 -188.33 3.02 
-166.61 -189.66 3.13 
-168.40 -188.44 3.32 
-168.83 -188.04 3.35 
-169.19 -187.98 3.39 
-169.37 -187.91 3.40 
-163.92 -186.10 3.47 
-163.59 -188.65 3.67 
-163.17 -185.86 4.23 
-162.81 -185.41 4.15 
-163.38 -185.90 4.25 
-163.61 -187.17 4.41 
-163.92 -186.45 4.36 
-163.62 -185.95 4.28 
-163.68 -189.36 4.66 
-163.68 -188.71 4.59 
-163.68 -188.12 4.52 
-163.65 -187.64 4.46 
-160.01 -187.14 5.01 
-160.09 -186.92 4.99 
-160.08 -185.95 4.87 
-160.01 -185.66 4.82 
-160.11 -189.57 5.32 
-160.08 -189.08 5.26 
-160.01 -188.74 5.21 
-160.08 -188.53 5.19 
-160.41 -189.63 5.35 
-160.72 -180.72 -1.71 
-160.97 -180.75 -1.67 
-161.45 -185.07 -1.75 
-161.40 -180.76 -1.60 
-161.31 -181.42 -1.07 
-161.70 -181.43 -1.01 
-162.11 -181.43 -0.95 
-160.18 -180.79 -1.03 
-160.45 -180.80 -0.99 
-160.95 -185.17 -1.00 
-160.88 -180.81 -0.92 
-161.26 -185.16 -0.95 
-161.36 -180.80 -0.85 
-161.73 -185.77 -1.08 
-162.03 -185.73 -1.03 
-162.68 -185.71 -0.94 
-162.90 -185.74 -0.90 
-162.82 -185.06 -0.71 
-163.18 -185.75 -0.86 
-163.29 -185.04 -0.64 
-164.07 -187.71 -0.57 
-164.00 -186.91 -0.57 
-163.99 -186.44 -0.56 
-163.98 -185.96 -0.56 
-164.49 -187.96 -0.70 
-168.05 -187.10 0.04 
-168.48 -185.23 0.14 
-169.98 -184.82 0.37 
-161.20 -181.44 -0.28 
-161.58 -181.46 -0.23 
-162.07 -181.44 -0.16 
-162.44 -181.44 -0.11 
-162.97 -181.42 -0.04 
-163.23 -183.31 0.01 
-163.23 -182.85 0.00 
-163.25 -182.36 0.00 
-163.27 -181.82 0.01 
-163.22 -181.43 0.00 
-168.47 -182.28 0.74 
-169.13 -182.46 0.84 
-169.70 -184.98 0.94 
-170.23 -185.63 1.02 
-170.18 -182.31 1.11 
-170.78 -184.92 1.09 
-171.00 -186.29 1.13 
-170.92 -184.87 1.11 
-160.05 -180.84 -0.28 
-160.34 -180.82 -0.24 
-163.24 -184.97 0.01 
-163.30 -184.76 0.02 
-164.53 -188.92 0.21 
-164.59 -186.71 0.21 
-166.90 -183.40 0.65 
-167.00 -187.16 0.68 
-167.23 -185.61 0.58 
-167.60 -187.06 0.77 
-167.60 -186.75 0.76 
-167.53 -186.55 0.75 
-167.99 -188.71 0.71 
-168.07 -186.53 0.83 
-167.91 -182.76 0.79 
-167.97 -181.99 0.80 
-168.42 -182.68 0.86 
-168.77 -188.71 0.82 
-168.61 -187.50 0.79 
-169.14 -188.32 0.87 
-169.13 -186.69 0.86 
-169.21 -184.45 0.98 
-169.10 -182.21 0.96 
-168.94 -182.15 0.94 
-169.95 -183.25 1.08 
-170.48 -187.27 1.06 
-170.13 -182.92 1.11 
-170.84 -187.05 1.12 
-171.21 -184.69 1.27 
-171.35 -186.79 1.30 
-161.51 -181.48 0.56 
-161.90 -181.50 0.61 
-167.81 -182.88 1.48 
-169.39 -183.62 1.70 
-169.33 -182.94 1.62 
-170.01 -183.57 1.73 
-170.35 -183.15 1.82 
-170.49 -185.96 1.86 
-170.56 -184.86 1.89 
-170.69 -183.65 1.83 
-170.66 -182.90 1.80 
-170.93 -183.53 1.86 
-171.37 -184.89 1.96 
-171.22 -183.43 1.90 
-171.46 -183.40 1.93 
-171.89 -184.24 2.01 
-166.68 -186.51 1.42 
-167.18 -187.08 1.50 
-166.96 -186.79 1.46 
-166.94 -186.52 1.45 
-167.50 -187.55 1.55 
-167.25 -187.06 1.51 
-167.86 -187.92 1.55 
-167.83 -187.13 1.53 
-167.65 -186.64 1.55 
-168.26 -187.69 1.66 
-168.27 -187.35 1.59 
-168.63 -188.04 1.66 
-169.94 -185.24 1.82 
-171.55 -185.91 2.06 
-170.25 -185.55 2.62 
-171.10 -183.50 2.63 
-165.83 -189.17 2.23 
-166.54 -185.62 2.16 
-166.54 -185.06 2.13 
-166.64 -184.96 2.14 
-166.71 -185.75 2.18 
-167.14 -186.52 2.27 
-167.60 -187.32 2.36 
-167.71 -186.30 2.33 
-167.59 -186.11 2.31 
-168.18 -187.63 2.45 
-168.40 -187.62 2.48 
-168.81 -187.52 2.52 
-169.18 -188.31 2.62 
-162.19 -182.21 2.28 
-166.84 -190.34 2.41 
-161.12 -185.67 2.37 
-163.48 -185.62 2.60 
-165.43 -188.63 3.00 
-166.42 -188.89 3.13 
-166.30 -188.54 3.09 
-168.40 -188.34 3.36 
-168.69 -188.33 3.39 
-164.96 -189.01 2.98 
-166.41 -189.58 3.18 
-168.16 -189.63 3.46 
-160.51 -181.71 2.88 
-163.51 -188.73 3.76 
-163.76 -189.48 3.86 
-163.78 -188.79 3.80 
-163.69 -187.16 3.64 
-162.35 -186.66 4.36 
-162.80 -186.43 4.38 
-163.44 -188.73 4.69 
-163.39 -186.28 4.41 
-163.54 -187.75 4.59 
-163.78 -186.63 4.49 
-159.29 -184.13 4.73 
-159.89 -185.30 4.91 
-159.94 -188.68 5.33 
-159.93 -188.09 5.26 
-159.89 -187.67 5.20 
-159.94 -186.99 5.12 
-159.88 -186.65 5.07 
-160.24 -189.28 5.43 
-159.95 -189.24 5.40 
-160.21 -189.44 5.45 
-161.46 -180.74 -1.68 
-161.40 -180.70 -1.69 
-161.40 -181.36 -1.13 
-161.79 -181.38 -1.07 
-162.21 -181.38 -1.01 
-160.20 -180.79 -1.10 
-160.67 -184.96 -1.12 
-160.51 -180.78 -1.06 
-160.95 -180.79 -0.99 
-161.19 -185.13 -1.04 
-161.38 -180.80 -0.93 
-161.81 -185.70 -1.15 
-162.30 -185.67 -1.08 
-163.14 -185.68 -0.95 
-162.99 -185.07 -0.77 
-163.36 -185.57 -0.91 
-163.29 -185.06 -0.72 
-167.45 -186.58 -0.12 
-169.72 -184.77 0.26 
-169.97 -184.86 0.29 
-170.44 -185.24 0.36 
-170.34 -184.88 0.35 
-171.26 -185.00 0.49 
-171.48 -184.91 0.52 
-161.97 -181.39 -0.23 
-162.37 -181.40 -0.17 
-163.17 -181.67 -0.06 
-163.06 -181.38 -0.08 
-168.35 -182.29 0.67 
-168.77 -182.09 0.73 
-168.80 -181.93 0.74 
-168.74 -181.45 0.73 
-169.51 -184.97 0.85 
-170.51 -184.92 1.00 
-170.70 -185.00 1.03 
-171.46 -185.27 1.14 
-160.09 -180.82 -0.34 
-161.29 -181.38 -0.32 
-161.67 -181.41 -0.27 
-163.18 -185.37 -0.06 
-163.14 -183.77 -0.06 
-163.14 -183.24 -0.07 
-163.04 -182.97 -0.08 
-163.77 -188.64 0.17 
-164.49 -189.72 0.14 
-166.92 -187.45 0.61 
-167.41 -186.92 0.68 
-167.53 -183.46 0.69 
-167.74 -186.78 0.72 
-168.49 -186.33 0.83 
-168.75 -188.21 0.76 
-168.88 -185.98 0.89 
-168.91 -182.11 0.88 
-168.99 -188.34 0.79 
-168.96 -186.65 0.78 
-169.06 -182.28 0.90 
-169.53 -183.17 0.97 
-170.01 -185.36 0.93 
-170.12 -182.33 1.05 
-170.27 -183.62 1.08 
-170.18 -182.73 1.06 
-171.22 -184.72 1.22 
-162.10 -181.46 0.60 
-169.38 -183.58 1.67 
-169.95 -184.81 1.72 
-169.81 -183.52 1.67 
-170.08 -184.22 1.73 
-170.69 -183.43 1.81 
-171.06 -185.09 1.89 
-170.93 -183.75 1.83 
-171.43 -184.57 1.93 
-171.24 -183.48 1.87 
-171.76 -184.22 1.96 
-160.21 -180.94 0.46 
-161.15 -181.45 0.48 
-161.82 -181.47 0.56 
-166.21 -186.44 1.32 
-167.07 -187.44 1.46 
-167.34 -187.45 1.49 
-167.26 -186.44 1.46 
-167.89 -187.52 1.57 
-168.18 -187.69 1.58 
-168.47 -187.98 1.60 
-169.25 -186.16 1.66 
-170.18 -185.72 1.78 
-170.60 -185.25 1.88 
-170.90 -185.88 1.89 
-171.44 -185.88 2.01 
-165.93 -188.51 2.20 
-166.99 -188.61 2.33 
-167.60 -186.62 2.32 
-168.08 -188.00 2.45 
-168.35 -187.94 2.47 
-168.95 -187.82 2.55 
-168.78 -187.50 2.50 
-169.14 -188.08 2.59 
-169.44 -187.80 2.62 
-165.57 -189.92 2.22 
-166.93 -190.48 2.41 
-166.86 -189.69 2.37 
-160.90 -181.56 2.10 
-163.32 -186.32 2.63 
-163.62 -185.89 2.66 
-163.84 -186.29 2.72 
-168.38 -188.37 3.33 
-168.84 -188.56 3.47 
-168.59 -188.40 3.35 
-163.30 -186.85 2.66 
-163.83 -186.96 2.76 
-166.31 -188.77 3.11 
-167.54 -190.98 3.48 
-168.18 -189.82 3.48 
-160.74 -181.66 2.92 
-163.60 -189.22 3.84 
-160.77 -181.61 3.75 
-163.51 -189.52 3.86 
-162.53 -186.79 4.44 
-163.30 -187.72 4.61 
-163.60 -186.94 4.55 
-163.54 -186.56 4.50 
-163.35 -188.82 4.74 
-163.36 -188.13 4.66 
-159.19 -184.48 4.82 
-159.48 -184.45 4.83 
-159.71 -187.86 5.27 
-159.69 -187.35 5.21 
-159.70 -185.67 5.00 
-159.79 -187.10 5.18 
-159.79 -186.53 5.11 
-159.85 -189.07 5.44 
-159.76 -188.87 5.40 
-159.75 -188.29 5.33 
-160.47 -180.73 -1.13 
-160.91 -185.05 -1.16 
-160.91 -180.73 -1.07 
-161.35 -180.74 -1.00 
-161.70 -185.62 -1.24 
-161.76 -180.75 -0.94 
-162.11 -185.62 -1.18 
-162.05 -180.77 -0.90 
-162.53 -185.61 -1.11 
-162.32 -180.78 -0.85 
-163.29 -185.49 -0.99 
-163.26 -185.03 -0.80 
-164.44 -186.79 -0.84 
-167.42 -186.69 -0.20 
-169.72 -184.85 0.19 
-169.98 -184.77 0.23 
-170.11 -184.53 0.26 
-170.27 -184.62 0.28 
-170.32 -184.56 0.29 
-168.73 -181.88 0.69 
-168.59 -181.38 0.67 
-161.30 -181.34 -0.37 
-161.59 -181.34 -0.33 
-162.01 -181.34 -0.28 
-162.38 -181.32 -0.22 
-162.93 -183.63 -0.14 
-162.94 -182.54 -0.14 
-163.16 -185.52 -0.11 
-163.03 -183.93 -0.13 
-162.98 -182.92 -0.14 
-163.03 -182.26 -0.13 
-162.99 -181.32 -0.14 
-166.43 -185.77 0.49 
-166.83 -188.45 0.55 
-166.57 -187.87 0.51 
-167.16 -187.05 0.60 
-167.36 -183.22 0.62 
-167.50 -182.42 0.64 
-168.40 -186.09 0.77 
-168.41 -182.60 0.77 
-168.75 -188.30 0.71 
-168.82 -186.22 0.83 
-168.66 -184.71 0.81 
-168.75 -182.30 0.82 
-169.17 -183.01 0.88 
-169.02 -182.23 0.85 
-169.44 -183.21 0.92 
-169.97 -185.42 0.88 
-169.77 -185.34 0.85 
-169.99 -183.33 1.00 
-169.89 -182.90 0.98 
-170.42 -186.05 1.07 
-170.41 -184.87 0.95 
-170.79 -185.57 1.12 
-170.49 -182.53 1.07 
-171.16 -185.28 1.06 
-171.11 -184.95 1.05 
-171.40 -185.33 1.10 
-170.30 -183.83 1.73 
-170.05 -183.15 1.68 
-170.65 -183.61 1.78 
-170.65 -183.22 1.79 
-170.78 -184.04 1.80 
-170.89 -183.46 1.81 
-171.30 -183.14 1.86 
-161.44 -181.40 0.48 
-162.29 -181.42 0.59 
-162.08 -181.37 0.56 
-162.64 -181.36 0.63 
-166.77 -186.45 1.37 
-167.02 -186.51 1.40 
-167.36 -187.62 1.47 
-167.39 -186.88 1.46 
-167.68 -187.86 1.52 
-168.00 -188.02 1.57 
-169.15 -186.95 1.65 
-169.21 -185.84 1.63 
-169.32 -184.79 1.67 
-169.31 -183.52 1.64 
-169.58 -185.28 1.72 
-171.36 -185.45 1.93 
-171.33 -184.54 1.90 
-163.93 -185.78 1.81 
-167.32 -186.19 2.26 
-168.03 -187.78 2.42 
-168.24 -187.80 2.45 
-168.99 -188.79 2.59 
-168.73 -188.61 2.55 
-168.65 -188.24 2.54 
-169.21 -188.78 2.62 
-169.46 -188.33 2.65 
-170.07 -185.15 2.58 
-166.80 -190.45 2.39 
-166.80 -189.59 2.35 
-168.16 -188.99 2.50 
-166.21 -185.47 2.95 
-162.19 -185.26 2.47 
-165.50 -187.95 3.04 
-166.34 -189.31 3.17 
-160.49 -181.59 2.91 
-160.98 -181.66 2.96 
-163.11 -185.88 3.52 
-163.34 -185.91 3.55 
-160.60 -181.40 3.76 
-163.34 -190.18 3.93 
-163.46 -189.77 3.91 
-163.37 -189.38 3.86 
-163.46 -189.03 3.84 
-163.31 -188.66 3.79 
-163.11 -188.24 4.70 
-159.26 -184.72 4.91 
-159.55 -186.97 5.21 
-159.65 -186.72 5.19 
-159.54 -184.71 4.93 
-159.56 -188.77 5.44 
-159.63 -188.53 5.41 
-159.78 -188.89 5.47 
-159.69 -187.83 5.33 
-160.66 -180.62 -1.16 
-161.16 -180.68 -1.08 
-161.59 -180.70 -1.02 
-162.07 -185.57 -1.24 
-162.11 -181.24 -1.14 
-162.03 -180.69 -0.95 
-162.54 -185.56 -1.16 
-162.37 -181.15 -1.01 
-162.31 -180.69 -0.91 
-162.85 -185.54 -1.12 
-163.39 -184.99 -0.83 
-163.58 -186.82 -0.84 
-164.35 -186.89 -0.91 
-167.27 -186.96 -0.28 
-169.90 -184.59 0.17 
-168.73 -182.18 0.66 
-168.67 -181.72 0.65 
-161.56 -181.26 -0.37 
-161.98 -181.28 -0.31 
-162.27 -181.26 -0.27 
-162.69 -181.27 -0.21 
-162.92 -181.65 -0.18 
-166.70 -188.38 0.38 
-167.13 -186.47 0.56 
-167.72 -187.03 0.65 
-168.81 -182.67 0.67 
-169.06 -183.12 0.83 
-169.06 -183.03 0.83 
-169.45 -183.92 0.89 
-169.90 -183.33 0.95 
-169.61 -182.82 0.91 
-169.77 -182.53 0.93 
-170.18 -184.55 0.88 
-170.26 -182.48 1.00 
-170.43 -182.56 1.03 
-171.23 -185.23 1.15 
-171.33 -184.51 1.05 
-171.34 -182.90 1.85 
-162.73 -181.79 0.65 
-162.58 -181.36 0.62 
-167.25 -187.93 1.46 
-167.65 -187.79 1.51 
-168.10 -188.54 1.59 
-168.02 -188.05 1.57 
-167.89 -187.75 1.54 
-169.05 -186.88 1.63 
-169.80 -184.01 1.66 
-170.17 -187.84 1.81 
-170.13 -185.64 1.75 
-170.33 -184.55 1.80 
-170.47 -183.30 1.76 
-170.95 -183.46 1.81 
-171.39 -184.92 1.91 
-166.87 -188.19 1.41 
-167.23 -186.28 2.27 
-168.37 -187.50 2.47 
-166.02 -191.30 2.34 
-166.14 -190.28 2.31 
-167.62 -188.01 2.40 
-167.93 -187.64 2.42 
-168.33 -188.43 2.51 
-168.56 -189.18 2.59 
-168.92 -187.73 2.57 
-162.01 -185.77 2.53 
-163.03 -185.93 2.62 
-160.50 -181.60 2.97 
-161.15 -181.56 3.03 
-163.06 -185.84 3.58 
-163.24 -186.77 3.68 
-162.74 -188.04 3.64 
-163.38 -190.03 3.99 
-163.28 -189.49 3.93 
-163.18 -189.08 3.88 
-163.32 -187.16 3.72 
-163.26 -188.45 4.83 
-163.29 -187.65 4.74 
-158.97 -185.41 5.08 
-159.34 -185.29 5.09 
-159.85 -185.53 5.16 
-159.74 -185.17 5.11 
-159.42 -188.20 5.46 
-159.52 -187.35 5.36 
-159.57 -188.51 5.51 
-159.82 -188.68 5.55 
-160.64 -180.62 -1.20 
-161.15 -184.99 -1.21 
-160.95 -180.62 -1.15 
-161.48 -185.46 -1.36 
-161.96 -181.18 -1.20 
-162.35 -185.51 -1.23 
-162.35 -181.15 -1.14 
-162.66 -185.49 -1.18 
-162.99 -185.40 -1.12 
-167.01 -186.96 -0.35 
-167.43 -187.03 -0.29 
-167.22 -186.56 -0.31 
-160.21 -180.68 -0.43 
-161.45 -181.18 -0.40 
-161.82 -181.19 -0.35 
-162.22 -181.19 -0.29 
-162.59 -181.19 -0.24 
-162.93 -185.39 -0.19 
-162.82 -181.26 -0.21 
-167.37 -187.18 0.59 
-167.99 -185.72 0.67 
-168.64 -185.33 0.77 
-168.68 -182.79 0.65 
-169.01 -182.46 0.69 
-169.34 -183.59 0.86 
-169.36 -182.77 0.87 
-169.64 -185.47 0.91 
-169.67 -183.26 0.91 
-169.85 -182.86 0.94 
-170.10 -183.16 0.97 
-170.95 -184.69 1.05 
-171.25 -184.49 1.09 
-162.65 -181.36 0.63 
-168.25 -187.64 1.60 
-169.53 -184.79 1.71 
-170.12 -185.23 1.80 
-170.05 -184.97 1.74 
-170.27 -184.98 1.77 
-170.35 -183.65 1.75 
-170.18 -183.31 1.71 
-170.63 -184.57 1.81 
-171.25 -184.30 1.90 
-171.29 -182.88 1.86 
-166.28 -188.28 1.35 
-166.74 -188.21 1.41 
-167.20 -188.17 1.47 
-167.81 -188.06 1.55 
-169.35 -188.36 1.77 
-166.43 -190.60 2.40 
-167.08 -186.62 2.30 
-167.37 -188.05 2.40 
-168.11 -188.34 2.51 
-168.53 -188.77 2.59 
-162.36 -185.72 2.62 
-164.86 -187.94 3.06 
-160.54 -181.53 3.04 
-160.76 -181.57 3.06 
-162.04 -185.70 3.45 
-163.12 -185.92 3.67 
-161.51 -185.98 3.51 
-162.67 -185.83 3.62 
-163.04 -189.06 3.94 
-163.13 -188.71 3.92 
-163.16 -187.87 3.85 
-163.16 -187.11 3.78 
-163.09 -186.68 3.74 
-163.19 -186.34 3.72 
-163.08 -189.78 4.01 
-163.35 -189.78 4.04 
-163.00 -188.09 4.86 
-159.33 -187.21 5.45 
-159.68 -185.91 5.31 
-159.29 -187.97 5.54 
-159.22 -187.50 5.47 
-159.54 -188.12 5.58 
-160.58 -180.62 -1.32 
-161.03 -180.63 -1.25 
-161.41 -180.61 -1.19 
-162.06 -181.83 -1.12 
-162.07 -181.35 -1.11 
-162.13 -180.76 -1.08 
-161.99 -180.61 -1.10 
-162.46 -185.39 -1.33 
-166.96 -186.66 -0.48 
-167.34 -187.01 -0.43 
-167.21 -186.63 -0.44 
-161.35 -181.14 -0.51 
-161.73 -184.08 -0.46 
-161.65 -181.13 -0.46 
-161.95 -184.16 -0.43 
-161.95 -181.13 -0.42 
-162.56 -184.85 -0.34 
-162.24 -181.13 -0.38 
-162.96 -185.36 -0.28 
-166.78 -188.26 0.28 
-167.01 -186.84 0.43 
-167.03 -185.75 0.31 
-167.02 -183.29 0.31 
-167.68 -184.58 0.41 
-167.53 -183.38 0.39 
-167.96 -184.58 0.45 
-167.94 -183.65 0.45 
-168.15 -184.75 0.48 
-169.24 -185.32 0.76 
-169.88 -186.62 0.85 
-169.71 -186.30 0.83 
-169.86 -185.10 0.74 
-170.33 -184.83 0.81 
-170.23 -183.19 0.91 
-170.73 -184.75 0.98 
-170.93 -184.54 0.90 
-162.35 -181.94 0.54 
-169.94 -185.24 1.71 
-170.25 -186.89 1.75 
-170.32 -183.44 1.68 
-170.18 -183.06 1.65 
-170.63 -183.28 1.72 
-171.02 -184.27 1.80 
-170.84 -183.30 1.75 
-170.90 -183.21 1.76 
-166.53 -187.84 1.29 
-167.09 -187.79 1.36 
-167.20 -188.29 1.39 
-167.85 -188.92 1.49 
-167.88 -188.16 1.48 
-167.77 -187.69 1.46 
-167.79 -187.44 1.45 
-168.08 -187.46 1.49 
-168.69 -188.17 1.60 
-168.41 -187.48 1.54 
-167.89 -188.13 2.41 
-168.39 -188.77 2.51 
-161.91 -185.49 2.48 
-162.46 -185.63 2.58 
-163.07 -185.63 2.66 
-160.79 -181.42 3.05 
-161.61 -181.46 3.13 
-162.03 -185.71 3.52 
-162.66 -187.91 3.78 
-162.50 -187.70 3.64 
-162.86 -188.21 3.82 
-162.84 -188.11 3.81 
-163.04 -190.25 4.02 
-162.94 -188.67 3.87 
-163.12 -189.87 4.00 
-159.06 -185.31 5.21 
-159.54 -185.56 5.27 
-159.37 -185.30 5.23 
-159.15 -187.63 5.50 
-159.06 -187.24 5.44 
-159.34 -188.28 5.59 
-161.14 -185.28 -1.60 
-162.02 -185.36 -1.46 
-162.34 -185.35 -1.41 
-167.21 -186.92 -0.51 
-161.43 -181.02 -0.54 
-161.81 -181.05 -0.49 
-162.25 -181.05 -0.42 
-162.50 -181.41 -0.39 
-167.55 -187.40 0.47 
-168.33 -182.37 0.47 
-169.18 -187.59 0.71 
-169.34 -184.60 0.73 
-169.37 -182.98 0.74 
-169.74 -186.60 0.68 
-169.57 -183.15 0.77 
-170.72 -184.66 0.83 
-171.15 -185.41 0.90 
-166.16 -189.37 0.27 
-169.70 -185.06 1.61 
-169.96 -184.95 1.65 
-170.35 -184.50 1.69 
-171.06 -182.85 1.75 
-166.26 -189.55 1.28 
-166.47 -188.34 1.28 
-166.62 -189.45 1.32 
-166.62 -187.06 1.27 
-167.30 -187.74 1.38 
-167.46 -188.11 1.41 
-167.68 -187.38 1.42 
-167.74 -188.17 1.45 
-168.36 -188.02 1.53 
-168.33 -187.32 1.51 
-168.60 -188.25 1.57 
-160.69 -181.31 2.14 
-161.79 -182.24 2.32 
-161.86 -181.99 2.32 
-161.80 -185.53 2.53 
-162.39 -185.58 2.61 
-165.04 -187.81 3.07 
-160.51 -181.40 3.06 
-160.81 -181.43 3.09 
-161.58 -181.44 3.17 
-161.99 -185.49 3.55 
-162.34 -185.45 3.59 
-162.73 -189.20 3.96 
-162.76 -188.19 3.87 
-162.67 -187.72 3.82 
-162.94 -189.43 4.00 
-159.30 -187.75 5.63 
-159.28 -187.10 5.55 
-159.08 -186.78 5.49 
-160.54 -184.92 -1.54 
-160.59 -180.57 -1.43 
-161.06 -185.23 -1.65 
-160.90 -180.59 -1.39 
-161.26 -185.21 -1.62 
-161.42 -180.89 -1.50 
-162.05 -185.25 -1.50 
-162.41 -185.17 -1.44 
-169.99 -184.54 -0.07 
-160.53 -180.60 -0.55 
-160.83 -180.61 -0.51 
-161.29 -180.92 -0.58 
-161.65 -180.92 -0.53 
-162.04 -180.95 -0.48 
-162.33 -181.55 -0.44 
-162.30 -181.03 -0.44 
-168.18 -183.89 0.54 
-168.23 -182.83 0.43 
-169.41 -184.72 0.72 
-169.99 -185.06 0.81 
-170.28 -186.15 0.74 
-170.38 -184.67 0.86 
-170.34 -183.40 0.75 
-170.59 -184.61 0.78 
-170.47 -182.67 0.87 
-169.87 -184.65 1.62 
-170.00 -185.53 1.67 
-170.46 -183.36 1.68 
-166.15 -189.85 1.26 
-165.91 -189.78 1.23 
-167.36 -187.38 1.38 
-167.56 -188.70 1.43 
-167.68 -187.40 1.42 
-167.86 -188.56 1.47 
-168.58 -188.39 1.57 
-168.30 -187.41 1.51 
-161.93 -181.89 1.41 
-160.73 -181.19 2.18 
-161.22 -181.22 2.24 
-161.63 -182.36 2.35 
-161.69 -182.14 2.35 
-161.45 -185.52 2.53 
-161.73 -185.47 2.52 
-162.26 -186.97 2.67 
-162.38 -185.51 2.64 
-165.08 -187.76 3.12 
-160.42 -181.32 3.10 
-160.80 -181.30 3.14 
-161.11 -181.30 3.17 
-161.34 -181.34 3.20 
-162.00 -185.31 3.60 
-162.39 -185.28 3.64 
-162.52 -189.03 3.99 
-162.59 -187.90 3.89 
-162.50 -187.43 3.84 
-162.51 -186.54 3.77 
-162.75 -189.16 4.02 
-158.82 -187.22 5.63 
-159.09 -187.39 5.67 
-160.46 -180.37 -1.51 
-160.99 -185.15 -1.72 
-161.08 -180.40 -1.41 
-161.32 -185.18 -1.67 
-161.35 -180.86 -1.57 
-161.42 -180.82 -1.56 
-167.30 -187.15 -0.79 
-161.28 -180.87 -0.62 
-161.68 -180.91 -0.56 
-161.59 -180.87 -0.58 
-162.14 -180.93 -0.50 
-161.90 -180.88 -0.53 
-168.41 -182.24 0.42 
-168.75 -184.72 0.59 
-168.98 -184.75 0.62 
-169.08 -182.80 0.63 
-169.45 -184.16 0.69 
-169.81 -187.29 0.64 
-169.93 -185.45 0.76 
-169.93 -184.50 0.76 
-170.11 -183.30 0.68 
-169.90 -183.08 0.64 
-166.96 -187.67 1.32 
-167.30 -187.21 1.35 
-162.80 -185.37 1.68 
-163.98 -185.47 1.84 
-162.00 -188.02 1.70 
-164.88 -187.82 2.05 
-164.73 -186.61 1.98 
-165.78 -186.95 2.14 
-160.45 -181.14 2.18 
-160.86 -181.19 2.23 
-161.33 -181.21 2.28 
-160.80 -185.22 2.43 
-161.26 -185.56 2.55 
-161.99 -185.37 2.57 
-162.61 -185.50 2.70 
-160.29 -181.23 3.14 
-160.68 -181.29 3.18 
-161.17 -186.19 3.65 
-161.60 -186.05 3.68 
-162.25 -187.89 3.92 
-162.55 -188.74 4.03 
-162.33 -188.42 3.97 
-160.49 -180.35 -1.42 
-160.95 -185.17 -1.61 
-160.82 -180.35 -1.36 
-161.28 -185.16 -1.55 
-161.32 -180.83 -1.48 
-161.12 -180.40 -1.32 
-161.48 -185.16 -1.52 
-161.98 -185.13 -1.44 
-162.16 -181.67 -1.35 
-162.33 -185.09 -1.38 
-163.18 -188.41 -1.28 
-163.06 -187.79 -1.29 
-163.30 -187.92 -1.26 
-167.23 -187.12 -0.58 
-170.16 -184.84 0.14 
-161.44 -180.88 -0.48 
-161.90 -180.91 -0.40 
-167.88 -183.33 0.57 
-168.24 -182.94 0.63 
-169.09 -185.11 0.90 
-169.46 -183.04 0.94 
-169.64 -187.19 0.89 
