# .PCD v0.7 - Point Cloud Data file format
VERSION 0.7
FIELDS x y z
SIZE 4 4 4
TYPE F F F
COUNT 1 1 1
WIDTH 1149
HEIGHT 1
VIEWPOINT 0 0 0 1 0 0 0
POINTS 1149
DATA ascii
522.50 47.61 8.31 
522.96 48.51 7.53 
520.43 46.87 9.15 
528.14 47.40 10.37 
520.29 46.82 9.24 
527.29 45.80 10.06 
528.74 45.82 10.27 
530.07 45.52 10.42 
530.08 47.49 10.75 
528.08 46.05 10.24 
527.43 46.83 10.28 
527.96 47.35 10.44 
530.24 47.34 10.71 
531.13 45.97 10.66 
530.50 46.09 10.98 
520.53 46.78 9.63 
529.68 45.59 11.47 
530.65 45.95 9.72 
529.03 46.11 11.46 
530.07 46.34 11.68 
529.84 46.16 8.72 
527.82 46.10 11.25 
526.87 47.30 11.35 
527.27 48.55 11.69 
529.58 46.05 12.49 
528.54 47.42 8.90 
531.75 45.88 8.95 
527.28 46.09 9.41 
528.25 45.56 9.42 
528.94 47.54 9.88 
526.59 46.13 10.20 
529.18 45.68 10.47 
529.57 45.36 10.46 
526.81 45.88 11.07 
527.73 46.17 11.27 
526.95 45.91 8.54 
529.93 45.93 8.83 
528.94 47.29 8.98 
525.40 45.85 9.20 
527.59 45.59 9.40 
528.47 45.63 9.51 
527.55 47.77 9.82 
531.91 47.31 10.24 
525.49 46.07 10.09 
529.67 45.41 10.52 
530.17 46.06 10.72 
527.85 47.95 10.80 
530.10 46.28 10.76 
530.22 46.72 10.87 
526.88 45.86 11.11 
527.79 46.15 11.31 
529.55 46.47 11.66 
528.60 45.40 12.18 
529.09 45.41 12.27 
531.18 52.12 9.14 
527.09 45.87 8.63 
526.51 47.64 8.89 
526.66 47.43 8.87 
526.44 47.90 8.94 
529.99 45.85 8.90 
529.44 47.06 9.07 
524.61 46.21 9.26 
532.72 47.19 9.61 
528.71 46.04 9.69 
529.09 45.69 9.67 
529.72 46.46 9.89 
528.73 47.39 9.96 
520.38 46.79 9.76 
529.46 46.10 9.98 
530.21 46.22 9.90 
526.27 45.65 10.17 
526.52 45.56 10.18 
525.44 46.78 10.30 
529.57 45.60 10.60 
527.56 47.61 10.76 
532.30 46.78 10.45 
520.35 46.91 10.52 
528.75 45.88 10.72 
527.79 46.06 11.34 
526.93 47.97 11.66 
529.24 46.21 11.60 
527.10 48.45 11.79 
527.87 45.45 12.10 
529.19 45.48 12.34 
530.49 46.41 8.39 
531.00 45.82 8.33 
530.81 47.15 8.35 
525.83 45.65 8.52 
526.30 45.71 8.57 
526.11 46.18 8.64 
533.38 49.98 9.02 
527.35 45.43 8.62 
527.77 45.43 8.66 
527.99 46.32 8.84 
528.53 45.81 8.80 
530.26 46.26 9.05 
530.41 45.59 9.12 
530.61 46.02 9.22 
530.14 46.64 9.28 
532.88 46.50 9.54 
533.02 46.91 9.62 
527.96 47.15 9.86 
528.40 46.92 9.86 
530.13 46.38 9.95 
520.78 46.42 9.74 
526.40 45.32 10.14 
530.26 46.62 10.17 
520.75 46.54 10.50 
526.35 45.91 10.26 
526.05 46.61 10.38 
528.13 45.89 10.49 
528.42 46.51 10.66 
528.67 46.39 10.80 
529.04 46.28 11.59 
528.19 47.56 11.76 
531.74 45.61 8.23 
525.61 45.85 8.60 
526.10 46.42 8.75 
532.20 50.66 9.11 
526.13 45.34 8.70 
526.81 45.58 8.81 
526.72 46.38 8.80 
527.07 46.04 8.77 
524.63 48.48 9.02 
526.40 47.53 8.99 
526.58 47.26 8.95 
527.22 46.84 9.08 
526.14 48.04 9.06 
526.55 47.76 9.05 
529.57 47.09 9.36 
529.79 46.94 9.35 
529.09 49.05 9.52 
524.63 45.42 9.21 
524.95 45.48 9.25 
524.68 46.16 9.37 
525.40 45.61 9.33 
524.98 46.80 9.53 
524.57 47.44 9.62 
530.84 45.83 9.26 
530.51 49.76 9.78 
527.06 45.39 9.60 
528.08 45.87 9.67 
525.45 48.09 9.85 
527.15 47.00 9.80 
525.15 48.42 9.89 
525.77 48.76 10.02 
526.03 48.36 9.97 
528.90 47.30 10.06 
528.44 49.03 10.36 
524.71 45.81 10.09 
525.52 46.14 10.26 
526.67 45.47 10.26 
530.79 45.95 10.16 
531.06 46.76 10.34 
525.70 46.79 10.43 
528.04 46.05 10.56 
528.94 46.22 10.71 
528.80 46.82 10.83 
528.90 46.52 10.78 
528.30 47.34 10.88 
527.80 47.97 10.96 
528.17 47.93 10.99 
530.63 46.10 11.05 
528.16 49.02 11.24 
526.42 46.12 11.21 
528.13 46.09 11.45 
527.06 47.05 11.53 
527.51 46.88 11.55 
528.04 46.63 11.57 
527.31 48.39 11.89 
528.59 47.57 11.87 
530.29 46.38 11.96 
527.94 45.45 12.14 
527.99 46.20 12.34 
528.94 45.74 12.38 
531.71 45.60 8.29 
529.58 47.88 8.67 
530.43 51.10 9.13 
530.12 51.65 9.20 
530.33 51.47 9.19 
524.83 46.56 8.73 
525.66 45.78 8.66 
526.13 46.25 8.79 
526.91 46.05 8.82 
532.73 46.06 8.63 
532.39 48.17 8.95 
540.66 47.11 9.26 
526.71 46.92 9.10 
524.59 48.51 9.09 
526.33 47.60 9.06 
526.44 47.33 9.02 
526.62 47.20 9.01 
527.32 46.82 9.00 
525.40 48.37 9.13 
525.53 48.28 9.13 
529.79 45.43 9.13 
529.53 46.20 9.24 
526.60 49.06 9.37 
526.85 48.91 9.36 
529.46 47.08 9.39 
532.14 46.29 9.35 
531.55 47.47 9.52 
532.08 61.12 11.01 
524.83 45.39 9.28 
524.72 46.16 9.44 
525.55 45.91 9.47 
526.14 45.81 9.51 
526.36 45.75 9.52 
524.52 47.51 9.70 
525.25 46.98 9.66 
530.48 49.88 9.87 
525.72 46.56 9.72 
527.21 45.74 9.73 
527.52 45.62 9.62 
528.15 45.86 9.73 
525.35 47.85 9.86 
527.73 46.46 9.93 
525.96 48.53 10.06 
529.54 46.06 10.06 
525.46 49.31 10.18 
529.29 47.04 10.10 
525.93 49.69 10.31 
527.08 50.30 10.55 
525.36 46.26 10.33 
525.19 47.19 10.52 
525.69 46.69 10.47 
527.74 45.36 10.42 
525.54 47.23 10.58 
526.31 46.68 10.54 
527.50 46.48 10.64 
527.82 46.46 10.68 
526.80 47.16 10.71 
527.64 46.97 10.86 
526.21 47.98 10.83 
528.00 47.81 11.00 
529.94 46.51 10.95 
527.18 46.94 11.57 
527.73 48.92 12.14 
527.23 45.68 12.12 
527.92 45.40 12.16 
527.32 46.46 12.34 
528.25 46.22 12.42 
529.61 45.65 12.50 
522.07 47.84 8.06 
522.96 48.80 8.29 
531.82 45.74 8.40 
530.53 50.97 9.20 
530.06 51.85 9.32 
525.60 45.76 8.73 
526.67 46.31 8.93 
532.32 48.20 9.02 
526.02 45.65 8.86 
527.82 45.65 9.04 
528.49 45.60 9.09 
524.30 48.59 9.17 
528.44 46.08 9.04 
524.88 48.85 9.27 
525.19 48.69 9.26 
525.39 48.54 9.25 
525.75 48.21 9.22 
526.07 48.02 9.21 
526.44 47.73 9.18 
526.70 47.47 9.15 
530.08 45.72 9.12 
528.43 47.46 9.43 
530.10 46.46 9.26 
524.13 50.55 9.55 
526.47 49.09 9.45 
529.22 47.18 9.45 
528.92 49.36 9.71 
532.25 61.49 11.18 
521.49 46.79 9.34 
524.64 45.50 9.36 
524.60 46.23 9.52 
525.26 45.56 9.44 
525.52 45.93 9.55 
526.02 46.12 9.64 
524.42 47.48 9.77 
524.70 47.33 9.77 
525.01 47.15 9.76 
530.29 50.08 9.97 
520.37 46.76 9.97 
526.00 46.01 9.70 
527.49 46.50 9.97 
528.54 45.86 9.96 
529.31 46.47 10.17 
525.28 49.52 10.30 
525.67 49.69 10.37 
527.60 48.22 10.33 
528.40 47.85 10.35 
525.95 49.65 10.39 
526.92 50.47 10.66 
524.79 46.73 10.45 
525.55 46.20 10.42 
526.77 45.53 10.41 
525.14 47.25 10.62 
525.76 46.84 10.59 
525.52 47.36 10.68 
525.65 47.13 10.65 
525.02 47.81 10.73 
526.56 47.51 10.84 
527.68 46.51 10.74 
528.96 46.46 10.88 
527.77 48.14 11.13 
527.87 47.93 11.09 
528.40 47.78 11.12 
528.30 46.07 11.58 
529.66 45.37 11.68 
526.84 46.47 12.33 
527.36 46.39 12.39 
527.66 46.00 12.33 
529.24 45.53 12.46 
522.04 47.91 8.17 
532.08 62.63 10.28 
526.15 48.30 8.64 
528.22 47.36 8.63 
528.25 48.14 8.63 
528.50 48.04 8.63 
530.40 46.73 8.69 
530.20 47.22 8.76 
529.69 47.89 8.68 
525.31 52.54 9.22 
530.32 51.13 9.30 
529.93 51.99 9.43 
521.15 46.90 8.68 
524.30 45.93 8.74 
525.41 45.93 8.83 
540.42 47.23 9.39 
540.77 50.37 9.95 
520.25 45.43 9.03 
524.16 48.64 9.27 
527.19 46.74 9.25 
524.80 48.92 9.37 
525.11 48.55 9.32 
525.48 48.38 9.32 
525.67 48.21 9.30 
526.13 47.90 9.28 
526.52 47.66 9.31 
526.72 47.62 9.27 
527.09 47.08 9.30 
527.36 48.12 9.42 
530.75 45.90 9.43 
526.42 49.11 9.54 
529.56 46.88 9.49 
528.82 49.10 9.74 
532.51 61.90 11.37 
524.17 45.61 9.43 
524.38 45.53 9.43 
524.25 46.34 9.60 
524.54 47.37 9.85 
524.75 47.30 9.86 
526.15 47.16 9.96 
527.90 46.20 10.02 
528.62 45.63 9.88 
529.86 46.06 10.21 
525.20 49.25 10.33 
527.79 48.06 10.39 
527.98 47.90 10.38 
525.39 49.94 10.49 
528.78 47.71 10.43 
528.22 49.16 10.60 
524.84 45.38 10.23 
524.58 46.91 10.56 
524.99 46.75 10.57 
525.04 46.36 10.48 
524.41 47.49 10.68 
525.35 46.85 10.63 
525.93 46.77 10.68 
525.26 47.47 10.77 
527.52 46.56 10.81 
529.46 45.62 10.90 
527.54 48.11 11.17 
528.01 47.97 11.20 
527.94 49.12 11.46 
529.80 45.43 11.76 
527.00 45.74 12.24 
526.96 46.45 12.42 
527.86 45.97 12.42 
527.82 46.37 12.53 
532.91 61.29 10.30 
532.69 61.47 10.32 
533.00 61.35 10.31 
525.20 48.48 8.65 
525.65 48.68 8.72 
526.22 48.20 8.67 
527.70 47.76 8.70 
527.94 48.08 8.78 
528.79 47.90 8.67 
528.74 47.97 8.68 
529.17 47.73 8.67 
529.36 47.72 8.68 
529.88 47.63 8.70 
530.21 51.15 9.34 
524.77 45.35 8.81 
523.93 46.56 8.90 
522.10 47.94 9.04 
524.87 46.27 8.95 
525.35 45.83 8.86 
525.41 46.41 8.98 
522.71 48.68 9.23 
526.08 46.48 9.05 
526.23 46.36 9.04 
526.63 46.10 9.02 
541.49 45.79 9.27 
526.82 46.00 9.11 
524.35 48.61 9.34 
526.23 47.55 9.27 
526.30 47.29 9.23 
526.95 46.95 9.21 
527.88 46.14 9.13 
525.62 48.39 9.39 
525.87 47.87 9.31 
526.07 47.74 9.30 
529.96 45.70 9.22 
523.85 50.30 9.64 
530.80 45.71 9.42 
526.40 49.23 9.62 
529.31 47.27 9.58 
529.47 46.97 9.43 
532.12 61.31 11.28 
532.57 61.51 11.35 
532.84 61.68 11.51 
524.02 45.45 9.44 
521.87 47.51 9.71 
524.89 45.54 9.54 
525.26 45.68 9.61 
524.55 46.20 9.66 
525.59 45.76 9.66 
526.88 45.38 9.77 
527.17 45.33 9.79 
527.45 46.60 10.08 
525.15 48.47 10.21 
526.24 47.48 10.09 
525.73 48.48 10.27 
525.33 49.30 10.41 
525.66 48.84 10.34 
525.26 49.60 10.47 
527.72 48.37 10.48 
528.21 48.14 10.48 
528.35 47.99 10.47 
530.90 46.72 10.48 
526.39 50.57 10.79 
524.24 45.71 10.30 
524.74 46.85 10.63 
525.41 46.17 10.53 
520.16 46.95 10.87 
527.28 45.72 10.67 
526.43 48.13 11.11 
527.47 48.39 11.30 
528.90 45.96 11.76 
526.64 46.53 12.45 
527.11 46.42 12.48 
525.83 52.97 7.84 
522.05 48.06 7.73 
522.59 48.46 7.82 
523.62 49.79 8.09 
525.68 52.64 8.65 
520.69 45.70 7.95 
521.36 46.76 8.19 
532.15 61.71 10.44 
532.43 61.61 10.44 
522.24 47.88 8.45 
524.30 46.63 8.36 
525.56 46.09 8.35 
522.98 49.03 8.70 
525.52 47.20 8.54 
526.13 47.41 8.63 
524.56 48.77 8.76 
525.11 48.52 8.75 
525.13 49.03 8.84 
526.15 48.44 8.81 
526.94 48.25 8.83 
527.08 48.11 8.82 
524.09 50.49 9.04 
531.66 45.83 8.61 
529.17 47.65 8.76 
529.53 47.48 8.75 
528.66 49.71 9.21 
530.25 51.49 9.52 
530.40 51.29 9.49 
520.43 45.51 8.58 
521.17 46.36 8.81 
525.56 45.62 8.94 
526.43 46.03 9.09 
525.60 46.79 9.25 
526.46 46.47 9.26 
525.41 47.74 9.42 
525.75 47.61 9.42 
526.12 47.16 9.36 
526.34 47.23 9.32 
528.49 45.71 9.29 
525.34 48.39 9.48 
526.11 47.80 9.42 
528.66 45.94 9.25 
525.58 49.11 9.71 
526.53 48.96 9.69 
528.58 47.58 9.66 
526.99 48.84 9.70 
532.08 62.15 11.66 
532.61 61.78 11.63 
525.19 45.38 9.64 
524.98 45.89 9.74 
524.56 47.41 10.04 
527.90 46.29 10.15 
525.63 49.40 10.58 
526.63 50.06 10.81 
525.62 46.00 10.63 
525.26 47.19 10.88 
525.66 47.41 10.97 
528.15 46.37 10.98 
527.06 47.74 11.20 
527.10 48.66 11.41 
528.61 48.58 11.57 
528.39 46.12 11.81 
522.53 47.73 7.01 
526.10 52.76 7.85 
526.34 52.65 7.85 
522.54 47.68 7.74 
523.51 48.70 7.95 
525.07 50.92 8.39 
526.68 53.13 8.82 
521.35 45.72 8.04 
532.42 61.34 10.43 
532.51 61.59 10.48 
532.76 61.35 10.45 
533.10 61.23 10.45 
522.52 47.37 8.42 
527.07 46.89 8.64 
523.91 49.33 8.86 
525.02 48.47 8.78 
525.48 48.76 8.86 
525.46 49.08 8.92 
527.45 47.86 8.84 
526.61 49.16 9.01 
528.33 48.05 8.82 
528.53 47.96 8.82 
528.81 47.85 8.82 
525.11 50.91 9.22 
529.68 47.79 8.87 
529.84 47.65 8.85 
521.29 45.55 8.70 
526.30 46.55 9.30 
527.19 45.92 9.26 
525.77 47.39 9.43 
528.01 45.77 9.30 
528.51 46.02 9.31 
526.29 47.89 9.51 
532.48 61.98 11.69 
532.92 61.50 11.64 
526.15 45.69 9.86 
526.32 46.98 10.16 
526.52 47.75 11.20 
528.20 45.47 11.64 
522.48 47.74 7.10 
522.75 47.56 7.09 
526.07 52.75 7.94 
526.30 52.68 7.94 
526.86 53.20 8.04 
522.18 47.80 7.83 
522.49 47.69 7.83 
522.96 47.89 7.89 
523.93 49.25 8.15 
524.99 50.75 8.45 
525.48 51.58 8.61 
526.18 52.42 8.78 
526.64 53.19 8.92 
521.47 45.85 8.18 
522.26 46.96 8.43 
531.92 62.18 10.64 
533.25 61.14 10.54 
532.17 62.04 10.63 
533.39 61.28 10.57 
523.16 48.22 8.71 
525.95 47.09 8.69 
528.08 46.53 8.74 
524.15 49.60 9.02 
526.73 47.94 8.89 
525.27 49.13 9.01 
525.72 49.00 9.02 
526.95 47.86 8.89 
524.89 50.51 9.23 
526.49 49.29 9.12 
528.54 47.93 8.91 
528.76 47.89 8.92 
529.75 47.76 8.96 
525.13 45.42 9.07 
525.18 45.89 9.17 
540.83 49.48 10.05 
526.55 45.90 9.28 
525.66 46.99 9.43 
526.36 46.89 9.46 
525.90 47.88 9.63 
532.02 46.25 9.73 
530.96 61.12 11.54 
531.65 61.70 11.69 
529.34 46.09 10.37 
527.10 47.02 11.16 
528.75 46.02 11.11 
527.48 48.43 11.54 
522.20 47.81 7.17 
522.57 47.70 7.17 
522.86 47.66 7.17 
524.61 50.77 7.68 
525.94 52.46 7.97 
526.31 52.62 8.01 
521.63 47.00 7.75 
522.22 47.79 7.91 
522.53 47.67 7.91 
523.07 48.05 7.99 
523.35 48.58 8.09 
523.82 49.11 8.20 
524.13 49.69 8.31 
524.60 50.20 8.42 
524.95 50.85 8.54 
525.49 51.46 8.67 
525.86 52.13 8.79 
526.39 52.69 8.91 
521.25 45.53 8.19 
521.87 46.43 8.39 
531.93 62.13 10.71 
532.63 61.39 10.63 
532.52 61.78 10.69 
522.52 47.32 8.59 
523.21 48.29 8.81 
525.46 46.76 8.67 
527.14 46.47 8.73 
524.85 48.53 8.95 
523.94 49.33 9.04 
525.32 48.40 8.96 
526.05 48.66 9.05 
524.48 49.90 9.18 
526.08 49.28 9.17 
526.38 48.83 9.11 
532.67 45.39 8.82 
540.88 49.48 10.13 
527.11 46.34 9.50 
525.61 47.79 9.67 
530.16 61.53 11.65 
530.38 61.29 11.62 
530.70 61.12 11.61 
530.99 61.10 11.62 
530.98 61.82 11.75 
528.11 46.67 10.45 
529.56 47.30 10.73 
520.09 46.83 10.53 
528.81 46.15 11.25 
528.93 48.09 11.70 
522.04 48.09 7.32 
522.35 48.02 7.33 
523.82 50.53 7.74 
524.01 50.93 7.80 
524.40 51.35 7.88 
524.67 51.84 7.96 
525.08 52.28 8.03 
525.70 53.08 8.17 
526.00 53.09 8.19 
521.16 47.38 7.92 
521.63 48.04 8.05 
522.00 48.07 8.07 
522.36 48.06 8.09 
522.89 48.78 8.23 
523.11 49.23 8.32 
523.49 49.65 8.40 
523.69 50.09 8.49 
524.08 50.49 8.57 
524.33 50.97 8.66 
524.73 51.38 8.75 
524.99 51.91 8.85 
525.43 52.37 8.94 
526.14 53.36 9.14 
520.54 45.58 8.29 
520.94 46.08 8.41 
530.20 61.84 10.72 
530.30 61.93 10.74 
521.61 47.20 8.65 
521.92 47.53 8.73 
522.45 48.25 8.90 
522.95 48.88 9.04 
523.39 49.35 9.15 
524.33 49.02 9.15 
525.02 48.82 9.15 
539.89 46.80 9.71 
527.56 46.06 9.60 
532.18 45.67 9.91 
541.20 45.49 11.61 
541.39 46.11 11.76 
521.52 46.99 7.18 
522.09 47.88 7.32 
522.38 47.81 7.33 
522.69 47.67 7.32 
524.07 50.08 7.71 
524.62 50.84 7.84 
524.85 51.32 7.92 
525.46 52.16 8.06 
525.92 52.68 8.15 
526.19 52.68 8.16 
526.33 52.92 8.20 
526.68 53.18 8.25 
521.48 47.12 7.93 
522.01 47.73 8.06 
522.38 47.76 8.08 
522.75 47.79 8.10 
523.25 48.49 8.24 
523.79 49.26 8.39 
524.34 50.05 8.55 
524.94 50.90 8.71 
525.17 51.37 8.80 
525.55 51.74 8.88 
525.80 52.26 8.98 
526.22 52.70 9.07 
526.48 53.21 9.16 
521.05 45.48 8.35 
521.18 45.78 8.41 
530.18 61.49 10.69 
530.56 61.53 10.71 
521.93 46.76 8.64 
522.33 47.26 8.75 
522.83 47.98 8.91 
523.40 48.74 9.08 
523.72 49.03 9.16 
532.78 45.36 8.97 
541.22 45.74 9.64 
540.46 48.50 10.07 
526.30 46.10 9.55 
533.47 46.40 10.13 
540.84 45.56 10.59 
541.50 45.50 10.64 
527.90 47.66 10.82 
529.16 46.86 11.60 
529.58 46.54 11.56 
540.94 46.97 11.91 
521.48 47.14 7.26 
522.12 47.88 7.39 
522.35 47.85 7.40 
522.54 47.70 7.38 
522.88 48.00 7.44 
523.30 48.54 7.53 
524.12 50.27 7.81 
524.28 50.63 7.86 
524.61 50.94 7.92 
524.80 51.36 7.99 
525.14 51.69 8.05 
525.34 52.12 8.11 
525.72 52.53 8.19 
526.07 52.74 8.23 
526.47 53.02 8.29 
520.92 46.39 7.86 
521.35 46.77 7.94 
521.71 46.85 7.98 
522.12 47.04 8.03 
522.52 47.59 8.13 
522.97 48.24 8.26 
523.42 48.86 8.38 
523.88 49.51 8.51 
528.62 46.24 8.23 
524.39 50.25 8.66 
524.58 50.68 8.73 
524.91 50.98 8.80 
525.11 51.42 8.88 
525.46 51.76 8.95 
525.66 52.21 9.04 
526.02 52.54 9.11 
526.25 53.03 9.20 
526.62 53.36 9.27 
520.77 45.32 8.39 
521.01 45.55 8.45 
521.36 45.99 8.55 
530.06 61.49 10.76 
530.52 61.71 10.81 
521.75 46.56 8.67 
522.16 47.15 8.81 
522.59 47.78 8.95 
522.92 48.05 9.02 
530.62 45.64 9.05 
520.05 46.82 9.39 
540.73 49.61 10.36 
520.04 46.91 10.16 
541.00 45.46 10.66 
540.49 47.62 11.04 
541.29 47.26 11.03 
521.54 47.11 7.34 
522.01 47.90 7.47 
522.32 47.85 7.47 
522.64 47.71 7.47 
523.41 48.73 7.64 
524.11 50.29 7.89 
524.26 50.63 7.94 
524.56 50.90 7.99 
524.73 51.30 8.05 
525.03 51.55 8.10 
525.19 51.90 8.16 
526.00 52.74 8.31 
526.31 52.89 8.34 
520.59 45.34 7.77 
520.86 45.51 7.81 
520.93 45.43 7.80 
521.23 45.81 7.87 
521.58 46.32 7.97 
521.94 46.81 8.07 
522.30 47.31 8.17 
522.69 47.88 8.28 
523.10 48.47 8.39 
523.50 49.01 8.50 
527.96 46.44 8.31 
523.94 49.65 8.63 
528.20 46.48 8.33 
524.38 50.25 8.74 
524.53 50.64 8.82 
524.86 50.96 8.88 
525.02 51.32 8.95 
525.88 52.39 9.16 
526.04 52.76 9.23 
520.94 45.50 8.54 
521.03 45.73 8.59 
521.31 46.06 8.66 
521.60 46.41 8.74 
521.96 46.90 8.85 
522.64 47.65 9.03 
539.80 45.90 9.74 
541.07 46.59 9.96 
541.41 46.38 9.94 
525.87 45.57 9.61 
540.78 46.09 10.86 
541.33 45.93 10.88 
541.46 45.60 10.83 
540.81 47.66 11.17 
540.99 45.87 11.85 
541.03 46.35 11.96 
521.49 47.18 7.42 
522.09 47.93 7.55 
522.31 47.89 7.55 
522.53 47.74 7.54 
522.82 47.98 7.59 
523.19 48.50 7.67 
523.79 49.87 7.89 
524.17 50.37 7.98 
525.74 52.11 8.28 
525.86 52.35 8.32 
526.18 52.67 8.38 
526.34 53.02 8.44 
520.86 45.33 7.87 
521.18 45.80 7.96 
521.38 46.15 8.03 
521.58 46.45 8.08 
521.86 46.79 8.15 
522.15 47.13 8.22 
522.25 47.39 8.27 
522.86 48.14 8.42 
523.24 48.70 8.53 
523.64 49.26 8.64 
524.03 49.79 8.74 
524.42 50.30 8.84 
524.88 50.99 8.98 
525.48 52.00 9.17 
520.88 45.41 8.62 
521.18 45.83 8.71 
521.84 46.65 8.90 
524.80 46.13 8.96 
539.71 46.03 9.82 
540.05 46.00 9.84 
540.98 46.23 9.94 
540.53 47.16 10.08 
541.12 46.54 10.01 
541.48 46.48 10.02 
540.02 46.30 10.90 
540.34 46.27 10.92 
540.52 46.09 10.90 
540.99 45.73 10.87 
540.87 46.09 10.93 
541.37 45.76 10.91 
540.69 47.87 11.27 
540.92 45.96 11.93 
540.99 46.38 12.03 
541.39 46.20 12.03 
521.53 47.18 7.52 
521.93 47.94 7.64 
522.25 47.89 7.65 
522.58 47.74 7.64 
522.91 48.16 7.71 
523.25 48.61 7.79 
523.62 49.16 7.88 
523.99 49.70 7.97 
524.11 50.00 8.02 
524.44 50.38 8.09 
524.78 50.76 8.16 
524.89 51.03 8.20 
525.19 51.33 8.25 
525.32 51.68 8.31 
525.62 51.96 8.36 
525.75 52.26 8.41 
526.05 52.52 8.46 
526.51 53.19 8.57 
520.84 45.51 8.01 
521.08 45.76 8.06 
521.34 46.06 8.12 
521.97 46.97 8.30 
522.27 47.39 8.38 
522.60 47.85 8.47 
522.95 48.31 8.56 
523.30 48.85 8.67 
523.66 49.33 8.76 
524.04 49.87 8.87 
524.43 50.46 8.98 
524.95 51.27 9.14 
530.71 49.95 9.21 
541.06 46.68 9.27 
540.41 45.40 9.87 
540.82 46.14 10.03 
541.36 45.58 10.08 
541.38 46.44 10.12 
526.64 45.37 9.85 
540.53 46.10 11.02 
540.69 46.02 11.02 
541.12 45.90 11.03 
541.48 45.95 11.07 
540.55 47.16 11.24 
528.24 46.96 11.13 
540.83 46.44 12.15 
541.16 46.47 12.18 
522.04 48.05 7.01 
522.37 47.90 7.01 
522.61 47.85 7.01 
525.99 52.93 7.74 
526.27 52.96 7.75 
521.46 47.23 7.70 
521.86 48.05 7.84 
522.17 47.98 7.84 
522.52 47.80 7.83 
522.82 48.15 7.89 
523.15 48.61 7.97 
523.49 49.09 8.05 
523.84 49.61 8.14 
524.20 50.10 8.22 
524.56 50.61 8.31 
524.94 51.14 8.40 
525.06 51.47 8.46 
525.48 52.08 8.56 
520.77 45.42 8.18 
521.09 45.97 8.29 
521.36 46.30 8.35 
522.22 47.46 8.59 
522.53 47.88 8.67 
522.85 48.34 8.76 
523.88 49.84 9.06 
532.16 45.49 8.74 
541.17 46.08 9.34 
540.88 46.66 9.42 
540.97 47.30 9.52 
525.98 46.40 10.23 
540.94 45.94 11.19 
540.94 46.45 12.33 
522.10 48.05 7.10 
522.41 47.88 7.09 
522.67 47.94 7.10 
526.14 52.87 7.82 
526.51 53.26 7.88 
521.86 48.07 7.94 
522.07 48.07 7.95 
522.31 47.92 7.93 
522.55 47.84 7.93 
522.85 48.22 8.00 
523.16 48.66 8.07 
523.48 49.11 8.15 
523.81 49.60 8.24 
523.90 49.86 8.28 
524.25 50.34 8.36 
525.61 52.10 8.67 
520.65 45.41 8.29 
520.89 45.70 8.35 
521.12 45.94 8.40 
521.73 46.92 8.59 
523.18 48.85 8.97 
523.58 49.56 9.11 
541.33 45.46 9.34 
541.20 46.12 9.44 
540.69 46.84 9.53 
541.22 46.40 11.46 
521.25 47.21 7.22 
521.46 47.21 7.22 
522.04 48.03 7.35 
522.36 47.88 7.34 
522.79 48.12 7.39 
523.40 48.95 7.52 
524.12 50.51 7.74 
524.45 50.97 7.81 
524.81 51.48 7.89 
525.66 53.02 8.11 
520.31 45.83 7.82 
522.04 47.99 8.21 
522.47 47.89 8.21 
522.70 48.14 8.26 
523.70 49.62 8.52 
524.37 50.60 8.69 
526.08 52.86 9.10 
522.12 47.44 8.99 
541.13 45.50 9.62 
541.40 47.05 9.90 
527.65 45.50 9.74 
532.70 46.18 10.16 
532.18 47.21 10.32 
541.17 47.16 10.90 
528.73 45.53 10.66 
521.33 47.24 7.31 
521.97 48.08 7.44 
522.34 47.91 7.43 
522.66 48.16 7.48 
523.02 48.72 7.56 
523.26 48.92 7.60 
523.60 50.00 7.75 
523.92 50.44 7.82 
524.24 50.85 7.88 
524.57 51.29 7.95 
525.94 52.94 8.21 
520.22 45.77 7.91 
520.48 46.28 7.99 
520.73 46.58 8.05 
520.97 46.84 8.10 
523.77 49.84 8.67 
524.15 50.43 8.77 
524.48 50.97 8.86 
521.45 46.72 8.95 
521.76 47.27 9.06 
541.01 45.92 9.85 
541.35 45.94 9.88 
540.76 47.23 10.06 
540.46 48.46 10.25 
541.37 45.33 10.74 
541.30 48.65 11.37 
541.43 48.35 11.32 
521.19 47.22 7.36 
522.47 47.91 7.50 
522.75 48.22 7.55 
523.03 48.66 7.62 
523.33 49.02 7.68 
523.65 50.05 7.82 
524.94 51.82 8.10 
525.27 52.28 8.17 
520.09 45.83 7.99 
522.69 48.43 8.49 
540.64 46.58 9.09 
540.55 47.05 9.15 
520.53 45.38 8.78 
540.68 45.96 9.97 
541.40 45.76 9.98 
541.44 46.77 10.15 
541.15 47.49 10.25 
541.05 47.94 10.32 
541.02 47.05 11.18 
541.40 47.14 11.22 
541.28 48.32 11.44 
520.97 47.62 7.56 
522.09 48.34 7.70 
522.31 48.55 7.74 
522.59 48.93 7.80 
523.46 50.66 8.06 
523.77 51.10 8.13 
522.80 49.48 8.84 
532.57 45.56 8.72 
530.48 50.32 9.33 
529.26 45.52 9.43 
540.19 46.22 10.18 
540.16 49.06 10.66 
541.16 46.71 11.33 
541.41 47.91 11.58 
527.55 46.50 11.35 
521.25 47.42 7.60 
521.88 48.17 7.72 
522.17 47.96 7.71 
522.35 47.94 7.71 
520.48 45.36 8.19 
529.83 46.18 9.65 
533.33 45.61 9.73 
540.10 48.69 10.64 
541.42 46.36 11.33 
522.74 48.41 7.85 
523.06 48.93 7.93 
520.61 45.50 8.32 
520.99 46.09 8.43 
521.33 46.51 8.50 
521.48 46.80 8.55 
521.62 47.06 8.59 
521.84 47.29 8.63 
522.39 48.20 8.79 
522.90 48.70 8.88 
524.04 50.37 9.17 
532.65 45.67 8.81 
532.59 45.56 9.73 
533.45 45.59 9.77 
532.20 46.28 9.83 
528.15 45.88 12.41 
522.29 47.99 7.81 
522.55 48.41 7.87 
522.83 48.77 7.92 
520.89 46.23 8.49 
521.36 46.72 8.58 
523.49 49.75 9.10 
524.35 50.96 9.32 
532.34 45.73 9.81 
520.51 46.68 7.62 
521.01 47.31 7.71 
520.38 45.53 8.43 
520.76 46.11 8.53 
521.50 47.18 8.71 
522.54 48.68 8.97 
522.82 48.99 9.02 
523.08 49.41 9.10 
523.65 50.20 9.23 
531.88 45.64 8.88 
530.18 45.92 9.82 
532.65 47.10 10.12 
532.34 47.08 11.11 
520.41 46.51 7.53 
523.57 50.01 9.14 
527.38 48.68 9.07 
520.35 45.55 9.39 
531.76 45.62 9.77 
532.13 46.27 9.89 
532.49 46.86 10.00 
529.17 45.95 8.80 
530.90 45.86 8.84 
525.06 52.22 9.54 
520.15 45.34 9.41 
530.29 45.77 9.81 
531.76 45.60 9.84 
530.27 46.04 10.87 
530.24 45.68 11.82 
530.09 46.01 9.15 
530.69 45.55 9.10 
527.95 46.25 10.14 
528.30 45.75 10.07 
528.55 45.88 10.10 
528.89 46.35 10.19 
520.18 45.53 8.72 
520.46 45.75 8.76 
520.71 46.12 8.82 
520.96 46.47 8.88 
521.20 46.88 8.94 
521.75 47.70 9.08 
521.98 47.94 9.12 
530.56 45.66 9.08 
529.55 48.41 9.44 
520.33 46.06 9.05 
520.54 46.31 9.10 
532.63 46.74 9.57 
519.92 45.63 9.32 
520.16 46.00 9.38 
531.27 45.82 9.74 
532.49 46.01 9.81 
531.89 46.85 9.92 
