# .PCD v0.7 - Point Cloud Data file format
VERSION 0.7
FIELDS x y z
SIZE 4 4 4
TYPE F F F
COUNT 1 1 1
WIDTH 2255
HEIGHT 1
VIEWPOINT 0 0 0 1 0 0 0
POINTS 2255
DATA ascii
540.83 -641.85 2.68 
540.43 -641.70 2.65 
519.81 -642.60 0.92 
518.89 -643.51 0.87 
518.67 -643.72 0.86 
523.59 -647.05 1.86 
523.42 -647.30 1.84 
524.26 -647.88 1.85 
521.94 -647.78 1.78 
521.70 -647.78 1.77 
520.61 -648.05 1.74 
520.04 -648.42 1.71 
519.76 -648.62 1.70 
523.26 -643.32 2.00 
521.02 -644.54 1.87 
521.42 -645.80 1.84 
520.37 -645.76 1.81 
520.22 -646.63 1.78 
521.02 -647.15 1.78 
517.29 -646.94 1.71 
518.99 -648.13 1.70 
518.63 -648.26 1.69 
522.63 -640.92 2.07 
520.70 -642.47 1.94 
518.06 -642.62 1.86 
517.38 -642.66 1.85 
517.74 -643.84 1.82 
522.26 -639.11 2.13 
520.55 -639.22 2.06 
520.42 -639.58 2.04 
519.49 -639.96 2.00 
518.37 -641.25 1.92 
523.69 -644.47 2.89 
522.30 -644.83 2.83 
522.96 -645.18 2.83 
522.32 -645.55 2.79 
520.35 -646.45 2.70 
520.21 -646.76 2.68 
518.76 -646.96 2.66 
518.30 -647.25 2.64 
517.98 -647.25 2.64 
517.79 -647.46 2.62 
522.92 -644.19 2.89 
520.62 -645.16 2.78 
520.27 -644.96 2.78 
519.29 -644.90 2.77 
517.82 -645.89 2.70 
516.68 -646.20 2.68 
519.12 -640.58 3.02 
519.66 -641.12 3.00 
522.29 -641.46 3.04 
521.87 -641.75 4.00 
541.13 -641.63 -1.00 
525.28 -639.16 -1.67 
524.34 -639.08 -1.74 
525.09 -639.45 -1.67 
540.99 -643.37 0.03 
525.14 -642.80 -1.52 
523.60 -642.67 -1.63 
521.52 -642.71 -1.77 
540.17 -643.62 -0.03 
524.94 -642.94 -1.52 
524.38 -643.21 -1.55 
526.26 -643.63 -1.40 
525.97 -643.65 -1.42 
520.41 -643.08 -1.83 
523.23 -643.97 -1.60 
520.29 -643.53 -1.82 
523.00 -644.27 -1.60 
523.49 -644.80 -1.54 
522.16 -644.43 -1.65 
520.37 -644.51 -1.77 
519.11 -644.49 -1.86 
517.83 -644.53 -1.94 
523.07 -645.14 -1.56 
522.63 -644.84 -1.60 
520.08 -644.81 -1.78 
519.58 -644.70 -1.81 
522.32 -645.54 -1.59 
521.89 -645.21 -1.63 
521.07 -645.35 -1.68 
518.96 -645.98 -1.79 
517.33 -645.92 -1.90 
519.10 -646.35 -1.77 
517.95 -646.54 -1.83 
518.05 -647.27 -1.79 
541.35 -641.16 -0.04 
539.90 -642.68 -0.09 
524.97 -641.85 -0.62 
524.57 -641.90 -0.64 
524.19 -642.59 -0.65 
521.70 -642.60 -0.80 
521.35 -643.30 -0.81 
520.84 -643.56 -0.83 
525.03 -644.41 -0.55 
520.07 -643.94 -0.87 
520.75 -644.61 -0.81 
520.18 -645.35 -0.82 
520.13 -646.00 -0.81 
519.94 -646.24 -0.81 
519.43 -646.93 -0.82 
520.11 -647.21 -0.78 
519.19 -647.72 -0.82 
518.70 -647.61 -0.85 
518.96 -647.76 -0.83 
520.03 -648.70 -0.74 
536.97 -637.14 0.17 
526.49 -639.17 -0.57 
524.22 -639.02 -0.73 
526.01 -639.55 -0.60 
526.32 -639.76 -0.57 
524.88 -639.91 -0.67 
523.59 -639.87 -0.75 
540.08 -641.33 0.84 
525.92 -640.52 -0.58 
525.51 -640.63 -0.61 
541.22 -642.21 0.95 
540.52 -642.18 0.89 
540.93 -642.62 0.93 
541.48 -642.93 0.99 
521.37 -642.59 -0.82 
519.62 -642.21 -0.94 
519.23 -642.70 -0.95 
524.87 -644.74 0.34 
523.58 -644.46 0.27 
523.23 -644.30 0.25 
522.43 -644.38 0.21 
525.48 -645.04 0.38 
525.19 -644.93 0.36 
521.90 -644.70 0.18 
524.79 -645.33 0.34 
523.42 -645.42 0.26 
524.32 -645.71 0.31 
520.15 -645.99 0.10 
523.71 -647.01 0.28 
521.56 -646.92 0.17 
523.27 -647.31 0.26 
518.65 -647.04 0.04 
521.17 -647.61 0.16 
518.42 -647.38 0.03 
523.01 -647.89 0.25 
521.67 -648.06 0.18 
521.11 -648.08 0.16 
518.06 -648.47 0.03 
517.87 -648.57 0.02 
521.15 -649.32 0.17 
521.63 -649.66 0.19 
521.10 -649.75 0.17 
521.07 -650.12 0.17 
526.20 -639.49 0.42 
525.98 -639.61 0.41 
540.87 -642.06 1.88 
526.46 -641.56 0.43 
525.92 -641.57 0.40 
525.22 -641.43 0.36 
526.20 -641.68 0.42 
525.73 -641.72 0.39 
525.33 -642.77 0.37 
520.53 -642.18 0.11 
525.08 -642.87 0.35 
517.02 -643.62 -0.05 
521.32 -644.74 0.15 
525.29 -644.57 1.26 
525.38 -646.08 1.23 
524.48 -646.13 1.18 
521.83 -645.87 1.07 
523.71 -646.38 1.14 
525.25 -646.89 1.20 
520.07 -646.62 0.99 
523.77 -647.81 1.12 
519.67 -647.58 0.97 
524.04 -647.93 1.13 
523.90 -648.23 1.12 
522.80 -648.18 1.07 
519.38 -647.84 0.95 
523.71 -648.46 1.10 
523.50 -648.59 1.09 
522.70 -648.56 1.06 
520.36 -648.34 0.98 
520.28 -648.13 0.98 
520.76 -648.59 0.99 
522.71 -649.09 1.05 
526.30 -642.19 1.36 
525.42 -642.25 1.31 
524.86 -642.18 1.29 
526.05 -642.38 1.34 
525.65 -642.38 1.32 
525.17 -642.83 1.29 
524.80 -642.90 1.27 
519.10 -643.33 1.01 
518.88 -643.54 1.00 
523.66 -643.97 1.19 
523.57 -644.52 1.17 
519.88 -644.22 1.03 
519.15 -644.64 0.99 
517.15 -645.14 0.92 
520.55 -645.71 1.03 
520.34 -645.82 1.02 
516.79 -645.77 0.90 
517.36 -646.13 0.91 
518.55 -646.61 0.94 
517.07 -647.00 0.89 
517.95 -647.67 0.91 
521.60 -640.08 1.17 
540.53 -641.32 2.82 
541.48 -641.78 2.89 
541.12 -641.55 2.86 
540.86 -641.72 2.84 
519.54 -642.17 1.05 
522.77 -646.26 1.98 
523.88 -646.92 1.99 
522.75 -646.76 1.96 
522.40 -646.71 1.95 
521.62 -646.85 1.92 
524.76 -647.12 2.01 
523.46 -647.23 1.96 
521.33 -647.12 1.90 
522.19 -647.45 1.91 
520.80 -648.44 1.84 
520.35 -648.37 1.83 
519.35 -648.15 1.81 
521.60 -648.52 1.86 
521.32 -648.53 1.85 
520.45 -648.49 1.83 
520.06 -648.61 1.81 
525.34 -641.90 2.27 
526.29 -642.86 2.27 
525.96 -643.19 2.24 
524.27 -643.35 2.16 
524.73 -643.84 2.15 
521.97 -645.58 1.98 
521.57 -645.45 1.97 
522.31 -645.83 1.98 
520.10 -646.61 1.89 
517.61 -646.66 1.83 
516.78 -646.35 1.82 
517.47 -646.98 1.82 
516.70 -647.30 1.79 
522.74 -640.56 2.21 
526.44 -641.30 2.35 
524.80 -641.35 2.27 
524.46 -641.18 2.26 
524.23 -641.43 2.24 
518.44 -641.29 2.04 
518.36 -642.54 1.99 
516.55 -644.10 1.89 
516.60 -645.36 1.85 
522.53 -639.03 2.27 
520.85 -638.95 2.21 
520.84 -639.93 2.17 
525.63 -643.21 3.15 
525.06 -643.21 3.13 
524.99 -644.31 3.05 
524.75 -644.87 3.01 
524.40 -644.66 3.01 
523.36 -644.93 2.96 
523.10 -644.99 2.95 
522.26 -645.08 2.92 
521.22 -645.37 2.88 
520.79 -645.75 2.85 
520.18 -645.71 2.84 
519.12 -646.62 2.77 
520.53 -647.05 2.77 
519.66 -647.09 2.75 
518.86 -646.98 2.75 
518.14 -647.08 2.74 
522.34 -641.42 3.15 
525.77 -642.68 3.19 
525.08 -642.75 3.16 
522.67 -642.98 3.06 
518.13 -643.47 2.94 
521.60 -644.22 2.96 
521.26 -644.11 2.96 
520.97 -644.14 2.95 
520.34 -643.98 2.94 
519.73 -644.11 2.93 
517.28 -646.11 2.78 
516.88 -646.22 2.77 
521.96 -639.01 3.30 
518.75 -641.19 3.08 
522.05 -645.35 3.80 
521.82 -645.48 3.79 
521.66 -645.80 3.76 
519.44 -646.12 3.71 
520.76 -646.35 3.70 
518.91 -646.84 3.66 
520.85 -647.16 3.64 
520.24 -647.10 3.64 
521.49 -643.15 3.98 
520.09 -645.47 3.77 
519.02 -645.87 3.73 
518.75 -645.97 3.72 
517.93 -646.42 3.69 
520.73 -641.48 4.10 
541.09 -641.62 -1.02 
540.85 -641.28 -1.06 
524.40 -639.26 -1.53 
541.09 -640.69 -0.13 
540.86 -640.62 -0.16 
541.31 -643.57 0.28 
541.02 -643.52 0.25 
540.75 -643.51 0.23 
523.85 -642.71 -1.42 
540.48 -643.59 0.21 
526.02 -643.22 -1.24 
525.36 -642.92 -1.30 
524.84 -642.94 -1.34 
523.66 -643.03 -1.42 
521.91 -643.02 -1.54 
524.46 -643.75 -1.33 
523.70 -643.92 -1.38 
523.45 -644.16 -1.38 
523.08 -644.33 -1.40 
521.84 -644.55 -1.48 
521.60 -644.64 -1.49 
520.66 -644.55 -1.56 
520.40 -644.65 -1.58 
518.73 -644.35 -1.70 
522.85 -644.90 -1.39 
520.51 -644.79 -1.56 
520.20 -644.78 -1.58 
519.86 -644.68 -1.61 
522.80 -645.57 -1.37 
522.54 -645.57 -1.39 
519.32 -646.25 -1.58 
518.17 -646.36 -1.65 
518.03 -646.66 -1.64 
519.43 -647.66 -1.51 
518.21 -647.63 -1.59 
517.75 -647.78 -1.61 
518.25 -648.24 -1.56 
539.73 -641.19 0.05 
539.43 -641.31 0.03 
540.23 -642.63 0.15 
526.18 -640.61 -0.37 
525.14 -641.19 -0.43 
541.36 -642.66 0.87 
521.81 -642.17 -0.63 
524.63 -642.53 -0.44 
521.69 -642.52 -0.63 
522.59 -643.47 -0.55 
521.65 -643.35 -0.61 
520.39 -643.87 -0.68 
517.47 -644.46 -0.83 
516.80 -644.43 -0.87 
518.70 -644.91 -0.75 
520.89 -646.52 -0.58 
520.67 -646.67 -0.59 
520.38 -646.69 -0.61 
519.70 -646.80 -0.65 
520.34 -647.22 -0.60 
519.37 -647.51 -0.65 
519.10 -648.13 -0.65 
520.17 -648.54 -0.58 
518.91 -648.33 -0.65 
518.80 -648.70 -0.65 
537.46 -637.09 0.43 
524.85 -637.77 -0.52 
526.78 -639.18 -0.36 
526.51 -639.24 -0.38 
524.90 -639.19 -0.49 
526.27 -639.54 -0.39 
525.62 -639.36 -0.44 
524.69 -639.36 -0.50 
524.24 -640.18 -0.51 
540.18 -641.39 1.06 
539.78 -641.28 1.02 
525.87 -640.61 -0.39 
525.62 -640.60 -0.41 
524.68 -640.66 -0.47 
540.46 -641.63 1.09 
541.01 -642.01 1.14 
540.72 -642.20 1.12 
519.97 -642.25 -0.74 
519.58 -642.69 -0.75 
521.74 -649.61 0.35 
521.28 -649.77 0.33 
520.24 -654.27 0.30 
520.09 -654.35 0.29 
525.09 -643.12 0.53 
525.21 -644.63 0.53 
523.87 -644.63 0.45 
522.33 -644.34 0.37 
526.05 -645.09 0.58 
525.53 -644.81 0.55 
522.22 -644.83 0.36 
521.54 -644.67 0.33 
525.16 -645.38 0.53 
524.98 -645.50 0.52 
524.77 -645.71 0.51 
523.85 -645.56 0.45 
520.57 -645.85 0.28 
524.15 -647.08 0.47 
521.83 -646.83 0.35 
519.76 -646.66 0.24 
524.14 -647.17 0.47 
522.83 -647.11 0.40 
521.34 -646.98 0.32 
518.86 -647.23 0.20 
521.95 -647.74 0.35 
521.64 -648.79 0.34 
520.03 -648.90 0.26 
518.21 -648.53 0.18 
520.68 -649.19 0.30 
526.49 -639.62 0.62 
526.66 -641.59 0.63 
526.35 -641.50 0.61 
525.43 -641.33 0.55 
541.21 -642.65 2.11 
526.71 -641.61 0.63 
526.09 -641.64 0.59 
525.79 -641.58 0.57 
523.68 -642.45 0.45 
523.00 -642.58 0.41 
521.16 -642.17 0.31 
525.59 -642.81 0.56 
518.58 -642.80 0.17 
517.60 -642.66 0.13 
518.35 -642.87 0.16 
520.78 -643.57 0.29 
516.94 -643.32 0.10 
520.98 -643.89 0.30 
523.65 -648.76 1.24 
523.21 -648.95 1.22 
522.81 -649.17 1.20 
525.70 -644.59 1.44 
524.87 -644.40 1.40 
524.22 -645.10 1.35 
524.06 -645.35 1.34 
525.85 -646.05 1.41 
525.07 -646.09 1.37 
524.89 -646.22 1.36 
520.77 -647.00 1.16 
523.51 -647.75 1.26 
521.93 -647.69 1.19 
519.84 -647.49 1.11 
519.58 -647.56 1.10 
518.92 -647.29 1.08 
524.68 -647.97 1.31 
524.28 -648.03 1.29 
523.96 -648.10 1.27 
523.05 -647.90 1.23 
520.31 -647.88 1.12 
519.37 -647.66 1.09 
518.41 -647.57 1.06 
524.00 -648.31 1.27 
523.03 -648.42 1.22 
521.18 -648.44 1.15 
522.92 -648.90 1.21 
520.90 -648.53 1.13 
518.48 -648.79 1.04 
521.53 -649.33 1.14 
526.48 -641.79 1.55 
526.12 -641.74 1.53 
523.41 -641.74 1.39 
525.95 -642.25 1.51 
524.16 -642.21 1.41 
526.09 -642.39 1.52 
525.45 -642.49 1.48 
525.85 -642.93 1.49 
525.77 -642.79 1.49 
525.34 -643.10 1.46 
523.03 -643.28 1.33 
519.88 -642.94 1.20 
521.68 -644.25 1.25 
520.74 -645.67 1.18 
517.01 -645.43 1.05 
520.53 -645.75 1.17 
516.90 -645.82 1.04 
516.92 -646.51 1.03 
516.80 -646.79 1.02 
516.73 -647.28 1.01 
541.47 -641.79 3.10 
541.20 -641.42 3.09 
523.20 -646.12 2.14 
522.51 -645.79 2.13 
523.17 -646.18 2.14 
521.32 -646.43 2.06 
523.11 -646.70 2.11 
521.11 -646.47 2.05 
525.41 -647.13 2.19 
525.12 -647.20 2.17 
523.88 -647.26 2.12 
522.95 -647.02 2.09 
522.60 -647.00 2.08 
521.84 -647.00 2.05 
525.01 -647.65 2.15 
524.54 -647.65 2.13 
522.65 -647.64 2.06 
522.30 -647.38 2.05 
521.48 -648.06 2.00 
521.90 -648.42 2.00 
521.33 -648.34 1.98 
520.90 -648.31 1.97 
520.55 -648.33 1.96 
520.45 -648.54 1.95 
526.79 -641.38 2.53 
524.94 -642.09 2.40 
526.74 -642.92 2.45 
525.90 -642.82 2.41 
525.75 -642.91 2.40 
526.36 -643.11 2.42 
525.07 -643.91 2.32 
524.75 -644.31 2.29 
523.06 -645.10 2.18 
516.80 -645.75 1.97 
516.62 -645.90 1.96 
517.78 -646.96 1.94 
516.93 -647.13 1.92 
522.80 -639.01 2.44 
521.34 -639.46 2.36 
524.78 -641.28 2.43 
525.06 -641.40 2.44 
524.53 -641.51 2.41 
523.90 -641.34 2.38 
517.61 -644.15 2.04 
516.94 -644.15 2.03 
516.57 -644.08 2.02 
525.69 -642.84 3.33 
524.53 -642.77 3.28 
526.10 -643.33 3.31 
525.82 -643.14 3.31 
525.28 -644.39 3.20 
525.05 -644.35 3.19 
522.40 -644.04 3.12 
524.62 -644.75 3.15 
523.42 -644.66 3.11 
522.86 -644.67 3.09 
522.35 -644.75 3.07 
523.90 -645.23 3.09 
521.58 -645.79 2.99 
521.36 -645.82 2.98 
517.65 -645.63 2.92 
521.11 -646.00 2.96 
521.16 -646.65 2.92 
521.10 -646.64 2.92 
519.35 -646.60 2.89 
519.07 -646.63 2.88 
520.18 -647.11 2.87 
519.83 -646.86 2.88 
519.15 -647.37 2.84 
518.93 -647.41 2.83 
526.32 -640.79 3.50 
522.98 -640.52 3.38 
523.65 -641.84 3.31 
522.49 -642.80 3.21 
518.55 -642.23 3.14 
518.44 -642.72 3.11 
518.33 -644.37 3.00 
517.80 -645.31 2.94 
517.31 -645.59 2.92 
522.16 -638.96 3.45 
522.11 -639.77 3.39 
519.75 -639.70 3.33 
519.56 -639.91 3.31 
519.56 -640.66 3.26 
524.48 -643.67 4.13 
523.61 -644.50 4.03 
522.13 -645.07 3.94 
521.97 -645.42 3.91 
521.71 -645.75 3.88 
521.63 -646.64 3.80 
519.78 -646.24 3.81 
518.09 -646.51 3.78 
522.74 -641.78 4.25 
526.44 -642.62 4.30 
522.64 -643.70 4.07 
518.64 -643.88 3.99 
524.09 -639.29 4.51 
521.06 -641.52 4.23 
541.03 -642.38 -0.72 
541.27 -642.60 -0.69 
540.73 -642.55 -0.74 
521.73 -643.44 -2.27 
521.50 -643.60 -2.27 
524.96 -639.13 -1.29 
541.33 -643.03 0.51 
541.03 -643.24 0.49 
524.36 -642.65 -1.18 
524.10 -642.72 -1.20 
523.13 -642.45 -1.28 
522.90 -642.64 -1.29 
525.59 -643.06 -1.07 
525.28 -642.93 -1.10 
523.86 -642.83 -1.21 
521.25 -643.02 -1.39 
524.12 -643.86 -1.15 
522.10 -644.47 -1.27 
521.49 -644.44 -1.31 
521.23 -644.51 -1.33 
520.74 -644.38 -1.37 
520.27 -644.36 -1.40 
519.95 -644.29 -1.43 
519.36 -644.29 -1.47 
516.86 -644.29 -1.65 
523.31 -644.84 -1.16 
523.07 -644.83 -1.18 
519.75 -644.54 -1.43 
523.27 -645.58 -1.13 
523.04 -645.72 -1.14 
519.81 -646.10 -1.36 
519.57 -646.10 -1.38 
517.99 -645.99 -1.49 
518.65 -646.68 -1.41 
519.91 -647.60 -1.29 
519.55 -647.41 -1.32 
519.31 -647.41 -1.34 
540.01 -641.40 0.33 
540.85 -641.94 0.42 
540.55 -642.34 0.41 
539.55 -642.36 0.33 
539.13 -642.53 0.30 
525.75 -640.32 -0.21 
526.12 -640.50 -0.18 
525.44 -641.39 -0.21 
525.17 -641.36 -0.23 
522.53 -641.60 -0.40 
519.95 -642.45 -0.55 
523.71 -643.40 -0.29 
522.62 -643.75 -0.35 
522.29 -643.60 -0.38 
523.12 -644.39 -0.31 
521.47 -644.42 -0.41 
517.98 -644.73 -0.62 
521.38 -645.09 -0.40 
517.79 -644.85 -0.63 
516.65 -645.07 -0.69 
520.92 -645.98 -0.41 
520.62 -646.05 -0.43 
520.45 -646.32 -0.43 
520.48 -647.41 -0.41 
519.60 -647.49 -0.46 
519.38 -647.64 -0.47 
520.05 -647.98 -0.42 
519.17 -647.92 -0.47 
520.55 -648.52 -0.38 
519.12 -648.34 -0.47 
518.84 -648.39 -0.48 
537.70 -637.12 0.69 
524.07 -638.12 -0.37 
526.12 -639.17 -0.20 
527.09 -639.42 -0.13 
539.97 -640.55 1.27 
525.44 -640.27 -0.23 
540.30 -641.25 1.31 
524.31 -640.29 -0.31 
541.44 -642.00 1.43 
541.07 -642.03 1.39 
540.66 -641.92 1.36 
520.99 -641.56 -0.51 
522.25 -648.80 0.54 
521.99 -648.84 0.53 
525.61 -644.61 0.74 
526.08 -644.92 0.78 
525.10 -645.69 0.71 
524.70 -646.01 0.68 
522.21 -645.77 0.54 
522.41 -646.46 0.55 
523.36 -646.90 0.60 
522.22 -646.54 0.54 
520.09 -646.52 0.42 
523.16 -647.09 0.59 
522.97 -647.17 0.58 
524.73 -647.55 0.68 
524.28 -647.72 0.66 
522.57 -647.63 0.56 
522.20 -647.36 0.54 
521.93 -647.36 0.52 
520.54 -647.93 0.45 
521.49 -648.25 0.50 
520.04 -648.51 0.42 
520.73 -648.87 0.46 
520.49 -649.01 0.45 
526.78 -639.50 0.84 
521.14 -639.78 0.48 
522.71 -640.18 0.57 
541.26 -641.95 2.37 
541.03 -641.96 2.35 
526.55 -641.49 0.82 
526.24 -641.44 0.79 
525.41 -641.37 0.74 
526.99 -641.56 0.85 
525.84 -641.59 0.77 
541.24 -642.78 2.37 
524.28 -642.55 0.66 
523.69 -642.68 0.63 
518.92 -642.73 0.35 
517.62 -643.34 0.29 
517.33 -643.40 0.27 
517.07 -643.55 0.26 
525.03 -647.84 1.50 
524.41 -647.84 1.47 
524.07 -648.24 1.44 
523.93 -648.46 1.43 
523.63 -648.54 1.41 
523.47 -648.79 1.40 
521.83 -649.17 1.31 
526.10 -644.62 1.64 
525.66 -644.47 1.62 
524.66 -644.27 1.57 
524.49 -644.66 1.55 
524.79 -645.52 1.54 
525.56 -646.04 1.58 
519.81 -645.65 1.29 
524.73 -646.28 1.52 
520.98 -646.31 1.33 
522.33 -647.07 1.38 
524.62 -647.74 1.48 
524.22 -647.59 1.46 
522.16 -647.36 1.37 
521.98 -647.57 1.35 
521.65 -647.36 1.34 
520.20 -647.23 1.28 
519.91 -647.45 1.26 
519.22 -647.50 1.23 
518.87 -647.39 1.22 
519.76 -647.73 1.25 
519.63 -647.80 1.25 
518.87 -648.54 1.20 
526.85 -641.80 1.76 
525.92 -641.52 1.71 
526.62 -642.04 1.74 
526.37 -642.26 1.72 
525.85 -642.44 1.68 
517.43 -645.01 1.21 
517.24 -645.84 1.19 
517.26 -646.51 1.18 
521.77 -649.11 2.11 
521.47 -649.00 2.10 
523.65 -639.50 1.63 
523.53 -646.38 2.30 
524.29 -646.82 2.31 
523.89 -646.68 2.30 
523.05 -646.53 2.27 
525.44 -647.24 2.35 
522.58 -647.14 2.22 
519.74 -646.79 2.13 
523.02 -647.58 2.22 
522.42 -647.44 2.20 
522.20 -647.56 2.19 
521.32 -647.34 2.17 
521.82 -647.92 2.16 
522.17 -648.17 2.16 
520.60 -648.22 2.10 
520.48 -648.56 2.09 
521.17 -648.78 2.10 
527.16 -642.83 2.66 
526.89 -642.85 2.64 
526.48 -642.87 2.61 
526.15 -642.78 2.60 
526.79 -643.12 2.62 
525.24 -643.35 2.52 
525.89 -643.98 2.53 
525.63 -643.90 2.52 
517.77 -643.82 2.19 
518.00 -644.20 2.18 
517.51 -645.51 2.12 
517.41 -645.90 2.10 
517.37 -646.17 2.09 
517.19 -646.32 2.08 
520.52 -639.71 2.46 
522.66 -640.56 2.52 
524.32 -641.07 2.58 
517.43 -643.75 2.18 
517.18 -643.94 2.17 
516.93 -643.95 2.16 
521.30 -646.70 3.05 
520.94 -646.48 3.06 
520.72 -646.62 3.04 
520.16 -646.63 3.03 
523.88 -642.61 3.42 
526.77 -643.24 3.51 
525.31 -642.89 3.47 
525.03 -643.43 3.41 
524.62 -643.44 3.39 
525.75 -644.48 3.37 
523.73 -644.04 3.31 
521.72 -643.94 3.25 
524.07 -644.43 3.30 
523.00 -644.52 3.25 
521.43 -644.73 3.18 
520.92 -644.90 3.16 
518.22 -644.86 3.09 
523.00 -645.30 3.20 
521.44 -646.01 3.10 
520.21 -646.06 3.06 
519.69 -646.20 3.04 
519.10 -646.15 3.03 
518.45 -646.50 3.00 
519.61 -646.67 3.01 
517.60 -647.17 2.94 
524.97 -640.16 3.64 
526.82 -640.80 3.69 
526.60 -640.86 3.68 
521.03 -641.30 3.40 
523.95 -641.84 3.48 
516.65 -643.81 3.12 
517.68 -644.24 3.12 
522.02 -646.49 3.94 
522.07 -639.78 3.54 
521.82 -639.78 3.53 
521.91 -640.22 3.50 
521.54 -639.87 3.51 
519.71 -640.23 3.42 
520.53 -640.73 3.42 
526.53 -643.43 4.38 
524.48 -645.08 4.14 
523.13 -645.06 4.10 
521.91 -644.72 4.09 
519.56 -645.31 3.99 
520.19 -645.40 4.00 
520.69 -645.84 3.97 
519.09 -646.11 3.92 
525.52 -640.99 4.57 
524.86 -641.29 4.51 
523.50 -641.49 4.44 
522.03 -641.53 4.38 
520.86 -642.61 4.25 
520.23 -644.08 4.11 
517.37 -644.45 4.04 
524.78 -639.19 4.70 
541.47 -642.55 -0.32 
541.21 -642.49 -0.35 
540.81 -642.55 -0.39 
521.81 -643.53 -2.01 
537.86 -637.33 0.03 
525.31 -639.06 -1.00 
526.26 -639.21 -0.91 
524.36 -642.65 -0.93 
524.12 -642.64 -0.95 
523.20 -642.46 -1.03 
525.56 -642.99 -0.82 
523.53 -642.71 -0.99 
522.99 -642.65 -1.04 
525.87 -643.16 -0.78 
525.36 -643.32 -0.82 
524.38 -643.83 -0.88 
521.79 -643.61 -1.09 
524.17 -643.93 -0.89 
520.67 -643.69 -1.18 
523.11 -644.21 -0.97 
521.71 -644.21 -1.08 
520.28 -644.23 -1.19 
520.03 -644.26 -1.20 
519.71 -644.24 -1.23 
524.39 -644.94 -0.83 
523.56 -644.83 -0.90 
521.66 -644.80 -1.05 
520.70 -644.58 -1.14 
523.30 -645.67 -0.89 
519.82 -646.02 -1.15 
518.14 -646.08 -1.27 
517.95 -646.21 -1.28 
518.68 -646.64 -1.21 
519.50 -647.18 -1.12 
520.05 -647.57 -1.06 
518.01 -647.69 -1.21 
517.85 -647.86 -1.21 
519.81 -648.27 -1.05 
518.74 -648.04 -1.14 
518.57 -648.26 -1.14 
520.56 -648.64 -0.17 
525.79 -640.26 0.05 
526.78 -640.64 0.14 
526.42 -640.47 0.10 
525.84 -640.27 0.05 
525.58 -640.40 0.04 
525.73 -641.43 0.07 
521.07 -641.50 -0.28 
520.74 -641.43 -0.30 
520.50 -641.45 -0.32 
520.17 -642.41 -0.33 
519.94 -642.48 -0.34 
523.97 -643.34 -0.03 
522.80 -643.17 -0.12 
524.65 -643.87 0.03 
523.01 -644.06 -0.09 
520.95 -643.83 -0.24 
523.69 -644.50 -0.03 
523.34 -644.26 -0.06 
521.73 -644.28 -0.18 
518.16 -644.09 -0.43 
518.11 -644.67 -0.42 
521.59 -644.88 -0.18 
520.94 -645.40 -0.21 
516.78 -645.20 -0.49 
520.99 -646.28 -0.19 
520.53 -646.39 -0.22 
520.85 -647.33 -0.18 
520.64 -647.47 -0.19 
519.81 -647.45 -0.25 
519.39 -647.76 -0.27 
518.66 -647.93 -0.31 
520.70 -648.33 -0.17 
519.19 -648.20 -0.27 
518.52 -648.14 -0.32 
537.80 -637.09 1.04 
524.73 -638.02 -0.07 
524.43 -638.03 -0.10 
526.74 -638.97 0.10 
527.38 -639.22 0.16 
525.94 -639.20 0.04 
521.96 -639.17 -0.26 
527.15 -639.64 0.15 
525.93 -639.47 0.05 
524.91 -640.04 -0.02 
524.67 -647.35 0.90 
524.97 -647.53 0.92 
524.42 -647.69 0.88 
520.86 -648.75 0.66 
525.78 -642.50 1.00 
523.98 -642.67 0.87 
525.49 -644.16 0.97 
526.06 -644.61 1.01 
519.91 -644.24 0.61 
525.84 -644.68 1.00 
525.29 -644.67 0.96 
525.27 -645.73 0.95 
519.85 -645.45 0.60 
520.23 -645.84 0.62 
519.85 -645.56 0.60 
525.14 -647.05 0.94 
522.54 -647.02 0.76 
522.46 -647.56 0.76 
522.17 -647.35 0.74 
520.22 -648.40 0.62 
520.92 -654.21 1.34 
527.33 -638.94 1.14 
521.92 -640.32 0.74 
526.44 -640.92 1.06 
526.19 -641.14 1.04 
527.10 -641.47 1.11 
526.82 -641.48 1.09 
525.85 -641.46 1.01 
519.16 -641.45 0.57 
519.30 -642.49 0.57 
518.23 -643.77 0.51 
517.87 -643.64 0.49 
517.55 -643.48 0.47 
524.69 -647.45 1.70 
524.43 -647.49 1.69 
525.05 -647.99 1.71 
524.25 -648.27 1.65 
521.81 -649.04 1.50 
520.98 -648.81 1.46 
524.21 -643.61 1.78 
524.79 -643.95 1.80 
525.58 -644.31 1.85 
524.65 -644.43 1.78 
526.28 -644.65 1.88 
526.01 -644.61 1.87 
524.46 -644.72 1.76 
525.81 -646.00 1.81 
525.62 -646.11 1.80 
521.18 -646.29 1.53 
523.98 -646.65 1.68 
521.12 -646.73 1.52 
520.50 -646.63 1.49 
518.54 -646.59 1.39 
522.74 -646.95 1.60 
522.53 -647.11 1.58 
520.35 -646.83 1.47 
517.46 -646.64 1.34 
522.27 -647.49 1.56 
521.85 -647.36 1.54 
520.16 -647.73 1.44 
519.96 -647.73 1.43 
519.51 -647.55 1.42 
519.29 -647.68 1.40 
519.17 -648.60 1.38 
518.96 -648.65 1.37 
526.92 -641.65 2.01 
526.19 -641.45 1.97 
525.94 -641.62 1.95 
527.12 -641.95 2.02 
526.64 -642.30 1.97 
524.65 -642.15 1.84 
524.04 -648.06 2.44 
521.89 -649.04 2.29 
521.33 -648.77 2.27 
520.51 -648.77 2.24 
522.33 -639.80 1.76 
526.14 -643.98 2.76 
523.98 -646.07 2.53 
520.18 -645.92 2.35 
523.79 -647.04 2.47 
522.58 -647.39 2.40 
521.35 -647.46 2.33 
518.12 -646.99 2.22 
517.99 -647.22 2.21 
522.38 -647.58 2.38 
521.85 -647.89 2.34 
522.27 -647.99 2.35 
520.80 -648.17 2.28 
519.64 -647.96 2.24 
520.67 -648.53 2.26 
519.53 -648.31 2.22 
526.72 -641.30 2.94 
526.42 -641.22 2.92 
524.94 -640.96 2.84 
527.23 -642.92 2.89 
526.66 -642.74 2.86 
526.39 -642.80 2.84 
527.00 -643.19 2.86 
525.40 -643.26 2.75 
517.94 -643.27 2.38 
517.79 -643.51 2.36 
521.91 -644.55 2.50 
516.81 -644.82 2.27 
518.13 -644.99 2.31 
517.49 -645.24 2.27 
516.69 -645.08 2.25 
517.31 -646.52 2.22 
520.47 -639.95 2.64 
523.26 -645.40 3.39 
521.81 -646.03 3.28 
521.39 -646.35 3.24 
520.06 -646.41 3.19 
519.79 -647.11 3.13 
521.58 -648.18 3.12 
525.35 -642.00 3.74 
524.04 -642.40 3.64 
527.53 -643.17 3.79 
527.08 -643.16 3.76 
525.03 -642.84 3.66 
526.77 -643.67 3.71 
522.98 -643.48 3.51 
522.92 -643.46 3.51 
526.58 -643.81 3.68 
525.16 -643.62 3.61 
524.26 -644.33 3.51 
521.72 -643.93 3.42 
521.51 -644.18 3.40 
521.62 -644.64 3.37 
518.52 -644.75 3.25 
519.01 -645.11 3.24 
518.42 -645.08 3.22 
517.31 -645.33 3.18 
517.11 -645.52 3.16 
516.73 -645.37 3.16 
516.56 -645.63 3.14 
518.56 -646.18 3.16 
518.42 -646.48 3.13 
518.27 -646.78 3.11 
517.84 -646.96 3.09 
522.76 -639.76 3.77 
525.22 -640.11 3.88 
522.53 -640.00 3.74 
522.21 -639.92 3.73 
527.11 -640.91 3.93 
526.87 -640.87 3.92 
524.84 -640.96 3.79 
524.31 -641.67 3.71 
518.87 -641.86 3.45 
519.03 -642.92 3.39 
517.59 -643.27 3.32 
524.64 -644.99 4.35 
524.24 -645.46 4.28 
523.95 -645.35 4.28 
522.19 -646.48 4.11 
519.79 -646.55 4.03 
519.32 -647.37 3.95 
526.57 -642.89 4.65 
525.46 -643.39 4.54 
524.56 -643.65 4.47 
523.46 -644.95 4.30 
520.91 -644.68 4.23 
520.89 -645.71 4.13 
525.39 -641.14 4.75 
525.86 -642.06 4.69 
520.70 -641.89 4.47 
518.41 -642.35 4.36 
519.96 -642.48 4.40 
519.84 -643.64 4.29 
519.38 -644.06 4.24 
517.43 -644.34 4.17 
516.67 -644.57 4.14 
522.13 -643.54 -1.81 
521.86 -643.60 -1.83 
538.16 -637.38 0.15 
525.69 -639.08 -0.82 
526.91 -639.35 -0.71 
526.62 -639.27 -0.74 
526.41 -639.81 -0.73 
525.87 -643.10 -0.64 
525.56 -642.93 -0.67 
524.94 -642.75 -0.73 
524.54 -642.76 -0.76 
523.56 -642.63 -0.84 
526.11 -643.18 -0.62 
525.20 -643.85 -0.67 
522.12 -643.66 -0.90 
525.45 -643.94 -0.64 
524.64 -643.90 -0.71 
524.42 -643.93 -0.72 
523.91 -644.22 -0.75 
523.69 -644.28 -0.76 
522.77 -644.44 -0.83 
522.06 -644.44 -0.88 
521.63 -644.37 -0.91 
521.24 -644.48 -0.94 
520.66 -644.41 -0.98 
520.37 -644.32 -1.00 
519.78 -644.29 -1.05 
523.79 -644.83 -0.73 
523.58 -644.88 -0.75 
520.99 -644.55 -0.95 
520.20 -644.70 -1.00 
520.19 -644.53 -1.01 
518.42 -645.96 -1.07 
517.43 -645.62 -1.16 
520.15 -646.11 -0.95 
519.96 -646.22 -0.96 
519.08 -646.64 -1.00 
520.42 -647.58 -0.87 
519.95 -647.63 -0.90 
520.24 -647.70 -0.87 
518.39 -647.74 -1.00 
520.11 -648.13 -0.87 
519.09 -648.23 -0.93 
536.59 -637.45 0.29 
541.34 -642.05 0.88 
540.53 -641.98 0.80 
540.89 -642.31 0.85 
540.04 -642.32 0.77 
539.61 -642.32 0.74 
521.03 -648.66 0.01 
521.06 -654.46 0.13 
527.48 -639.72 0.31 
526.88 -640.53 0.27 
526.50 -640.51 0.25 
526.16 -640.32 0.22 
525.89 -640.27 0.20 
521.32 -640.86 -0.11 
526.04 -641.47 0.23 
523.01 -641.69 0.02 
521.25 -641.61 -0.11 
520.83 -641.42 -0.14 
527.58 -642.34 0.36 
520.46 -642.52 -0.14 
523.08 -643.10 0.05 
524.48 -643.44 0.15 
522.68 -643.71 0.03 
522.29 -643.45 0.00 
522.02 -643.48 -0.02 
524.66 -644.03 0.17 
521.08 -643.95 -0.07 
523.63 -644.37 0.11 
518.22 -643.99 -0.26 
517.32 -644.10 -0.31 
522.89 -644.67 0.06 
518.41 -644.59 -0.23 
517.24 -644.59 -0.30 
521.74 -645.18 -0.01 
517.88 -644.74 -0.26 
517.06 -645.21 -0.30 
521.38 -645.86 -0.02 
521.27 -646.37 -0.02 
520.98 -646.22 -0.04 
516.77 -646.20 -0.30 
518.36 -646.46 -0.20 
521.03 -647.21 -0.02 
520.88 -647.51 -0.02 
520.09 -647.51 -0.07 
520.54 -648.02 -0.03 
520.22 -647.72 -0.06 
519.66 -648.45 -0.08 
520.93 -654.29 0.79 
524.91 -638.10 0.09 
527.07 -638.85 0.26 
527.74 -639.20 0.32 
526.27 -639.33 0.21 
522.84 -639.83 -0.03 
541.16 -641.78 1.81 
540.72 -641.76 1.77 
525.48 -647.08 1.09 
524.03 -647.14 0.99 
525.36 -647.61 1.07 
525.10 -647.54 1.06 
522.64 -647.54 0.90 
524.49 -647.82 1.02 
522.96 -647.78 0.92 
524.19 -648.52 0.99 
522.24 -648.54 0.88 
521.78 -648.75 0.85 
520.48 -648.51 0.78 
522.80 -648.90 0.91 
521.08 -648.89 0.81 
527.43 -641.56 1.26 
527.37 -641.51 1.25 
526.88 -641.57 1.22 
525.94 -642.51 1.14 
518.65 -643.79 0.69 
525.98 -644.50 1.13 
520.79 -644.18 0.81 
526.57 -644.89 1.17 
526.17 -644.70 1.15 
525.52 -644.83 1.10 
525.96 -645.78 1.13 
525.48 -645.88 1.09 
522.69 -645.78 0.91 
520.20 -645.72 0.77 
520.60 -646.08 0.79 
522.86 -646.53 0.92 
523.54 -647.18 0.96 
523.44 -647.14 0.95 
522.81 -647.09 0.92 
520.81 -654.50 1.45 
520.60 -654.52 1.44 
527.63 -639.01 1.29 
526.54 -639.56 1.21 
526.87 -639.93 1.23 
522.33 -640.34 0.92 
525.91 -640.69 1.15 
526.53 -641.35 1.19 
540.66 -642.26 2.72 
526.27 -641.49 1.17 
521.85 -642.00 0.88 
519.69 -641.74 0.75 
519.72 -642.54 0.75 
517.88 -643.33 0.65 
518.22 -643.45 0.67 
517.53 -643.57 0.63 
525.03 -647.41 1.85 
522.61 -647.57 1.70 
525.38 -647.87 1.85 
524.38 -648.30 1.78 
524.13 -648.47 1.76 
524.11 -648.54 1.76 
519.43 -648.65 1.53 
523.98 -648.94 1.74 
521.33 -648.96 1.60 
524.48 -643.68 1.92 
526.20 -644.51 2.00 
525.85 -644.37 1.98 
524.86 -644.37 1.92 
526.48 -644.66 2.02 
525.51 -644.97 1.94 
525.38 -645.59 1.92 
525.99 -646.16 1.94 
522.05 -646.60 1.70 
521.46 -646.36 1.68 
520.79 -646.71 1.63 
522.94 -646.84 1.74 
521.38 -646.76 1.66 
520.60 -646.82 1.62 
518.87 -646.65 1.55 
522.79 -647.33 1.72 
522.09 -647.51 1.68 
520.46 -647.62 1.60 
520.18 -647.86 1.58 
519.70 -647.67 1.56 
519.44 -648.59 1.53 
519.20 -648.63 1.52 
522.95 -639.64 1.94 
527.38 -641.67 2.17 
526.50 -641.49 2.11 
524.31 -641.59 1.97 
527.38 -641.93 2.16 
527.00 -642.02 2.13 
526.90 -642.32 2.11 
526.40 -642.43 2.08 
523.03 -642.16 1.87 
519.23 -642.12 1.67 
523.57 -643.25 1.88 
523.54 -647.49 2.56 
522.63 -647.77 2.50 
521.99 -647.99 2.46 
521.06 -648.20 2.41 
520.94 -648.55 2.39 
520.90 -648.57 2.39 
520.77 -648.77 2.37 
527.25 -643.36 2.98 
526.00 -643.71 2.88 
526.42 -644.34 2.88 
522.40 -644.29 2.66 
522.15 -644.40 2.64 
520.21 -645.03 2.52 
520.47 -645.93 2.49 
517.62 -646.68 2.35 
517.30 -646.82 2.34 
518.28 -647.26 2.35 
527.24 -641.40 3.09 
527.02 -641.43 3.07 
526.68 -642.99 2.96 
525.65 -643.26 2.89 
518.14 -643.30 2.52 
523.60 -643.73 2.75 
521.75 -643.78 2.65 
518.04 -643.80 2.50 
517.66 -643.76 2.48 
518.47 -645.01 2.46 
517.70 -645.24 2.42 
517.02 -644.90 2.41 
521.67 -639.57 2.86 
519.60 -640.80 2.70 
524.50 -644.33 3.64 
524.82 -644.67 3.63 
523.47 -645.47 3.50 
523.53 -645.54 3.50 
523.15 -645.59 3.48 
522.88 -646.14 3.43 
522.13 -646.09 3.40 
518.85 -646.06 3.29 
521.94 -646.49 3.37 
521.62 -646.31 3.37 
520.66 -646.57 3.32 
518.67 -646.65 3.25 
520.03 -647.00 3.27 
518.36 -646.90 3.23 
519.93 -647.44 3.23 
525.64 -642.00 3.87 
525.38 -642.11 3.85 
525.23 -642.77 3.79 
524.61 -642.37 3.79 
527.74 -643.26 3.90 
527.31 -643.24 3.88 
523.11 -643.05 3.66 
522.21 -642.81 3.64 
524.63 -643.53 3.70 
521.32 -643.58 3.55 
519.95 -643.60 3.50 
524.15 -643.98 3.65 
521.77 -643.98 3.54 
519.31 -644.19 3.43 
521.92 -644.69 3.49 
518.75 -645.10 3.36 
519.57 -645.65 3.34 
517.19 -645.47 3.29 
517.02 -645.74 3.27 
525.59 -640.13 4.01 
522.65 -639.87 3.88 
522.39 -640.01 3.85 
523.05 -640.50 3.85 
526.38 -641.15 3.98 
524.57 -640.84 3.90 
519.36 -642.03 3.59 
518.40 -641.86 3.57 
519.16 -642.14 3.57 
525.28 -644.54 4.52 
523.81 -644.95 4.42 
523.57 -645.02 4.40 
524.19 -645.47 4.38 
519.46 -646.19 4.16 
520.07 -646.50 4.15 
519.62 -647.41 4.06 
525.94 -642.17 4.79 
526.84 -642.99 4.76 
525.14 -643.69 4.60 
520.20 -643.76 4.40 
519.75 -643.97 4.37 
525.02 -644.56 4.51 
521.09 -644.77 4.33 
517.90 -644.52 4.28 
517.63 -644.47 4.28 
517.62 -645.86 4.16 
526.01 -641.21 4.89 
520.98 -641.67 4.62 
519.88 -642.66 4.49 
519.03 -642.75 4.46 
516.85 -644.67 4.25 
541.37 -642.60 -0.09 
523.91 -643.00 -1.48 
522.27 -643.61 -1.57 
518.06 -647.05 -1.67 
520.64 -647.68 -0.63 
520.33 -648.15 -0.63 
519.47 -648.02 -0.70 
519.28 -648.22 -0.70 
526.40 -639.56 -0.53 
521.51 -641.15 -0.83 
525.17 -642.63 -0.50 
525.52 -642.88 -0.47 
524.90 -642.66 -0.52 
524.69 -643.02 -0.52 
521.91 -642.89 -0.73 
524.45 -644.37 -0.49 
523.89 -644.36 -0.53 
521.78 -644.45 -0.68 
521.59 -644.78 -0.68 
521.32 -644.76 -0.70 
520.86 -644.53 -0.74 
520.46 -644.50 -0.77 
519.06 -644.63 -0.86 
524.45 -645.19 -0.46 
523.28 -645.16 -0.54 
522.97 -644.99 -0.57 
522.29 -645.36 -0.61 
522.07 -645.38 -0.62 
520.45 -645.45 -0.73 
520.46 -646.33 -0.70 
519.16 -646.33 -0.79 
519.50 -646.63 -0.75 
519.42 -647.17 -0.73 
519.27 -647.36 -0.74 
518.86 -647.69 -0.75 
536.83 -637.43 0.49 
540.93 -641.73 1.00 
541.12 -642.37 1.05 
540.57 -642.24 0.99 
540.16 -642.19 0.96 
539.76 -642.31 0.93 
525.43 -646.79 0.48 
524.41 -647.07 0.41 
521.01 -648.15 0.21 
520.23 -648.08 0.16 
520.04 -648.28 0.15 
521.37 -648.47 0.24 
521.20 -648.59 0.23 
519.74 -648.71 0.14 
521.40 -654.40 0.35 
527.80 -639.16 0.53 
527.24 -639.39 0.49 
527.82 -639.87 0.54 
527.49 -639.51 0.51 
527.31 -640.45 0.51 
527.10 -640.63 0.50 
526.82 -640.76 0.48 
521.69 -640.90 0.12 
526.12 -641.82 0.44 
522.86 -642.38 0.23 
525.47 -642.87 0.41 
522.72 -642.75 0.22 
521.04 -642.98 0.12 
517.23 -642.90 -0.12 
523.92 -643.47 0.32 
523.70 -643.52 0.30 
522.40 -643.40 0.21 
521.56 -643.81 0.16 
521.33 -643.82 0.15 
526.45 -644.38 0.51 
522.32 -644.56 0.23 
518.10 -644.43 -0.04 
519.36 -644.81 0.04 
517.44 -644.91 -0.07 
519.28 -645.22 0.05 
517.35 -645.45 -0.06 
516.97 -645.78 -0.08 
517.23 -645.84 -0.06 
521.81 -646.62 0.23 
521.58 -646.72 0.22 
520.84 -646.67 0.17 
521.48 -647.22 0.22 
521.25 -647.32 0.21 
521.32 -654.26 1.00 
521.16 -654.30 0.99 
540.99 -640.82 1.95 
540.48 -640.61 1.91 
541.27 -641.82 1.99 
523.81 -647.17 1.17 
523.28 -647.59 1.14 
522.98 -647.35 1.12 
525.51 -647.94 1.27 
524.81 -647.82 1.23 
524.46 -648.50 1.20 
520.81 -648.27 0.99 
522.83 -648.63 1.10 
522.60 -648.66 1.09 
520.80 -648.38 0.99 
519.30 -648.42 0.91 
521.44 -648.80 1.02 
519.18 -648.67 0.91 
527.92 -641.55 1.49 
527.67 -641.58 1.47 
527.37 -641.53 1.45 
526.94 -641.46 1.42 
524.81 -642.42 1.27 
526.49 -642.89 1.38 
523.42 -642.60 1.18 
525.89 -644.19 1.33 
522.95 -644.12 1.14 
521.08 -644.22 1.03 
526.70 -644.80 1.38 
526.34 -644.68 1.35 
525.17 -644.72 1.27 
520.95 -644.72 1.02 
526.99 -645.10 1.40 
525.07 -645.33 1.26 
525.80 -645.47 1.31 
524.71 -645.68 1.24 
524.25 -645.31 1.21 
526.12 -645.89 1.33 
525.66 -645.85 1.30 
523.15 -645.87 1.14 
520.78 -645.76 1.00 
523.04 -646.45 1.13 
522.61 -646.89 1.10 
520.09 -646.98 0.96 
540.99 -642.24 2.93 
540.74 -642.33 2.91 
522.19 -642.13 1.10 
520.02 -642.54 0.97 
519.77 -642.64 0.96 
518.04 -643.10 0.86 
523.21 -647.39 1.93 
522.93 -647.32 1.91 
522.60 -647.45 1.89 
525.68 -647.84 2.06 
525.32 -647.81 2.04 
522.25 -647.56 1.87 
520.34 -647.85 1.77 
525.09 -648.44 2.01 
523.67 -648.36 1.93 
524.89 -648.55 1.99 
524.54 -648.54 1.97 
524.22 -648.66 1.95 
519.84 -648.57 1.73 
519.62 -648.68 1.72 
527.41 -642.33 2.34 
526.40 -642.92 2.25 
526.14 -644.39 2.19 
526.90 -644.74 2.23 
526.67 -644.63 2.22 
526.40 -644.61 2.20 
525.43 -644.81 2.13 
523.60 -644.66 2.03 
520.62 -644.50 1.87 
518.03 -645.07 1.74 
526.34 -646.04 2.15 
520.65 -645.59 1.84 
526.15 -646.15 2.14 
519.93 -645.90 1.80 
517.99 -645.80 1.72 
519.06 -646.35 1.75 
518.01 -646.51 1.70 
522.36 -646.89 1.90 
517.81 -646.73 1.69 
521.63 -647.13 1.85 
520.95 -647.39 1.81 
520.70 -647.39 1.80 
519.82 -647.45 1.76 
527.65 -641.66 2.38 
526.78 -641.68 2.32 
527.62 -641.81 2.37 
527.27 -641.94 2.34 
527.11 -642.19 2.32 
526.90 -642.38 2.30 
519.76 -641.82 1.90 
519.89 -643.03 1.88 
523.29 -646.96 2.75 
525.04 -647.23 2.83 
522.94 -647.52 2.70 
521.44 -648.25 2.60 
521.26 -648.32 2.59 
522.41 -649.10 2.60 
527.44 -643.12 3.19 
518.57 -645.09 2.64 
518.36 -645.27 2.62 
521.67 -645.64 2.74 
518.35 -645.39 2.61 
524.37 -646.32 2.84 
518.19 -645.70 2.59 
517.94 -646.33 2.56 
521.36 -647.19 2.65 
518.56 -647.22 2.54 
517.71 -646.91 2.52 
517.36 -647.05 2.51 
524.78 -641.26 3.13 
527.08 -641.89 3.24 
524.38 -642.13 3.06 
527.93 -642.88 3.24 
527.12 -642.81 3.19 
526.87 -642.85 3.17 
517.99 -643.65 2.68 
518.36 -643.86 2.69 
519.10 -644.24 2.70 
518.78 -644.19 2.69 
517.35 -644.96 2.60 
527.20 -643.86 4.00 
525.79 -644.68 3.86 
524.76 -644.43 3.82 
524.74 -644.52 3.81 
523.77 -645.34 3.70 
522.57 -645.27 3.65 
523.71 -645.73 3.67 
522.01 -646.50 3.54 
519.23 -646.39 3.45 
518.71 -646.43 3.43 
520.46 -646.88 3.45 
518.62 -646.77 3.41 
518.48 -647.11 3.38 
518.22 -647.12 3.37 
527.70 -641.03 4.26 
527.48 -641.03 4.24 
524.67 -641.85 4.01 
525.03 -642.33 3.99 
524.65 -642.65 3.95 
522.47 -642.46 3.85 
522.52 -642.87 3.83 
521.09 -642.55 3.79 
528.22 -643.29 4.12 
527.66 -643.29 4.08 
519.44 -642.90 3.70 
518.80 -643.47 3.64 
522.09 -644.24 3.71 
519.23 -644.85 3.56 
518.93 -644.78 3.55 
517.65 -645.45 3.47 
517.07 -645.77 3.44 
525.92 -640.24 4.21 
523.33 -640.17 4.07 
523.09 -640.16 4.06 
522.75 -639.94 4.05 
525.71 -640.36 4.18 
525.43 -640.75 4.14 
519.37 -640.83 3.85 
521.60 -641.28 3.90 
521.92 -641.37 3.91 
523.99 -644.90 4.60 
525.07 -645.19 4.62 
521.35 -645.69 4.42 
520.91 -645.95 4.38 
519.50 -645.73 4.36 
522.64 -646.54 4.38 
517.64 -646.41 4.27 
519.84 -647.44 4.21 
526.21 -642.33 4.96 
525.73 -642.96 4.87 
525.58 -643.46 4.82 
527.64 -643.61 4.92 
520.04 -644.01 4.54 
521.61 -644.73 4.52 
521.34 -644.75 4.51 
518.00 -644.50 4.44 
518.76 -645.56 4.36 
526.30 -641.36 5.07 
523.62 -641.83 4.88 
519.23 -642.38 4.67 
522.43 -643.63 -1.37 
520.81 -647.63 -0.45 
519.51 -648.11 -0.53 
519.32 -648.33 -0.53 
518.51 -648.16 -0.59 
520.81 -648.45 -0.42 
519.30 -648.37 -0.53 
538.71 -637.47 0.59 
527.38 -639.40 -0.28 
521.21 -640.74 -0.69 
521.70 -641.58 -0.62 
524.07 -642.30 -0.42 
525.47 -642.91 -0.29 
525.17 -642.64 -0.33 
524.35 -642.64 -0.39 
526.33 -643.10 -0.22 
523.37 -643.15 -0.44 
522.56 -643.67 -0.48 
524.98 -643.95 -0.29 
521.96 -644.14 -0.51 
525.23 -644.99 -0.23 
524.47 -644.90 -0.29 
524.26 -644.94 -0.31 
521.54 -644.55 -0.52 
517.84 -645.62 -0.74 
520.79 -646.12 -0.51 
520.63 -646.07 -0.53 
519.03 -646.01 -0.64 
519.79 -646.75 -0.56 
519.54 -646.76 -0.58 
537.07 -637.41 0.71 
541.37 -642.28 1.27 
540.96 -642.18 1.23 
540.65 -642.32 1.20 
540.35 -642.38 1.18 
540.05 -642.53 1.16 
521.37 -647.06 0.37 
521.55 -647.56 0.39 
520.30 -647.70 0.31 
521.21 -648.24 0.38 
521.60 -648.77 0.41 
519.78 -648.40 0.29 
519.57 -648.39 0.28 
526.68 -639.36 0.63 
526.38 -639.16 0.60 
528.14 -639.62 0.74 
527.88 -639.99 0.73 
527.34 -640.46 0.69 
527.12 -640.61 0.68 
521.61 -640.34 0.28 
527.08 -640.67 0.68 
522.93 -641.08 0.38 
528.08 -642.43 0.78 
526.46 -642.27 0.65 
520.36 -642.10 0.22 
521.31 -642.70 0.29 
521.00 -642.40 0.27 
523.32 -642.88 0.43 
522.99 -643.41 0.42 
521.82 -643.74 0.34 
526.02 -644.40 0.65 
523.02 -644.36 0.44 
522.53 -644.27 0.40 
521.67 -644.04 0.34 
518.52 -643.92 0.13 
516.51 -644.51 0.02 
522.39 -645.07 0.40 
519.92 -645.48 0.25 
518.17 -645.24 0.13 
517.65 -645.23 0.10 
517.18 -645.15 0.07 
521.93 -646.34 0.39 
521.69 -646.20 0.38 
521.47 -646.48 0.37 
520.31 -646.91 0.30 
521.53 -654.32 1.15 
541.23 -641.83 2.20 
526.13 -646.50 1.49 
526.11 -646.66 1.49 
525.82 -647.16 1.46 
524.56 -647.16 1.38 
523.60 -647.13 1.32 
525.53 -647.64 1.44 
524.33 -647.41 1.36 
523.42 -647.61 1.30 
522.61 -648.19 1.25 
522.36 -648.20 1.23 
524.75 -648.52 1.38 
523.23 -648.91 1.28 
521.61 -648.94 1.18 
521.42 -649.01 1.17 
527.90 -641.26 1.67 
527.34 -641.11 1.63 
526.85 -641.24 1.59 
527.64 -641.46 1.65 
527.10 -641.52 1.60 
526.71 -642.62 1.57 
520.51 -642.49 1.15 
521.44 -643.26 1.21 
518.69 -643.37 1.04 
519.57 -643.66 1.09 
518.46 -643.51 1.03 
526.31 -644.23 1.52 
526.13 -644.51 1.51 
518.71 -644.00 1.04 
526.76 -644.84 1.55 
526.09 -644.57 1.50 
523.54 -645.06 1.33 
524.76 -645.61 1.40 
522.71 -645.52 1.27 
521.10 -646.04 1.17 
521.30 -646.95 1.17 
528.04 -638.96 1.70 
526.65 -639.56 1.59 
523.63 -640.55 1.37 
518.47 -641.84 1.04 
527.02 -646.33 2.35 
526.58 -646.22 2.33 
525.30 -646.40 2.23 
523.23 -646.80 2.09 
523.84 -647.55 2.11 
523.57 -647.44 2.09 
522.54 -647.14 2.04 
521.11 -647.17 1.96 
520.93 -647.53 1.94 
520.26 -647.80 1.90 
524.88 -648.12 2.15 
524.69 -648.37 2.13 
524.24 -648.41 2.10 
523.35 -648.05 2.06 
520.57 -647.99 1.91 
519.99 -648.46 1.87 
524.58 -648.98 2.11 
522.48 -648.81 1.99 
522.20 -649.08 1.97 
521.80 -648.76 1.95 
527.41 -642.15 2.51 
527.39 -642.44 2.50 
527.05 -644.26 2.42 
526.78 -644.31 2.40 
524.69 -644.74 2.25 
526.11 -645.12 2.33 
518.24 -644.75 1.89 
518.13 -645.19 1.87 
525.75 -645.80 2.28 
525.50 -646.07 2.26 
521.97 -646.63 2.03 
527.04 -641.53 2.51 
527.99 -641.96 2.56 
527.65 -642.06 2.54 
519.48 -641.46 2.04 
519.24 -641.49 2.03 
525.23 -642.27 2.36 
518.98 -641.79 2.00 
521.20 -642.49 2.10 
521.57 -642.85 2.11 
523.62 -646.70 2.92 
523.70 -646.89 2.91 
522.68 -646.87 2.86 
525.18 -647.43 2.97 
526.14 -647.66 3.02 
520.55 -648.07 2.69 
520.35 -648.20 2.68 
527.37 -642.92 3.36 
527.92 -643.30 3.38 
526.70 -644.03 3.26 
519.02 -645.62 2.75 
517.85 -645.26 2.72 
518.92 -646.14 2.72 
518.72 -646.19 2.71 
517.58 -646.12 2.67 
517.36 -646.20 2.66 
520.92 -646.63 2.78 
518.64 -646.73 2.68 
518.33 -646.75 2.67 
518.13 -646.93 2.65 
527.50 -641.11 3.47 
520.30 -641.47 3.02 
527.39 -642.61 3.38 
527.07 -642.55 3.36 
522.27 -648.32 3.54 
521.80 -639.19 3.22 
520.43 -639.66 3.12 
520.19 -639.71 3.10 
528.38 -643.36 4.29 
524.88 -644.10 4.00 
527.32 -644.55 4.12 
524.25 -644.76 3.91 
520.87 -644.66 3.75 
522.70 -645.80 3.75 
523.17 -645.96 3.76 
522.26 -646.15 3.70 
517.97 -645.69 3.57 
517.81 -645.77 3.56 
522.09 -646.47 3.67 
520.01 -646.40 3.59 
519.59 -646.30 3.58 
517.52 -646.07 3.53 
525.43 -641.73 4.21 
525.10 -641.80 4.19 
523.92 -641.55 4.14 
526.47 -642.30 4.24 
526.24 -642.22 4.23 
525.13 -642.30 4.15 
522.71 -642.39 4.01 
526.16 -642.90 4.17 
523.34 -642.82 4.01 
528.42 -643.30 4.29 
528.12 -643.27 4.27 
523.73 -643.40 3.98 
519.32 -643.03 3.81 
519.69 -644.50 3.72 
518.52 -644.90 3.64 
523.36 -647.04 4.48 
523.33 -639.73 4.25 
519.17 -640.61 3.98 
520.26 -641.50 3.96 
525.40 -644.64 4.83 
523.10 -644.53 4.72 
525.19 -644.91 4.79 
523.74 -645.20 4.69 
522.26 -645.43 4.59 
521.52 -645.48 4.56 
521.29 -645.45 4.55 
520.54 -645.67 4.51 
520.14 -645.94 4.47 
518.97 -645.68 4.46 
518.45 -646.14 4.40 
521.23 -647.11 4.39 
520.44 -647.12 4.36 
527.53 -643.03 5.13 
523.16 -643.53 4.82 
522.22 -643.88 4.75 
521.56 -644.62 4.65 
526.10 -639.33 5.41 
523.73 -640.46 5.16 
525.56 -641.58 5.15 
522.84 -643.59 -1.14 
519.28 -647.76 -0.38 
518.89 -648.18 -0.39 
521.15 -648.52 -0.21 
520.90 -648.44 -0.23 
527.13 -640.23 -0.06 
520.79 -641.52 -0.51 
521.99 -641.63 -0.41 
520.57 -641.59 -0.52 
524.55 -642.49 -0.18 
525.90 -642.66 -0.06 
525.53 -642.70 -0.09 
523.81 -642.89 -0.22 
526.24 -643.02 -0.02 
523.58 -643.14 -0.23 
523.11 -643.57 -0.25 
522.85 -643.64 -0.27 
525.50 -643.90 -0.05 
525.04 -644.04 -0.08 
522.91 -643.68 -0.26 
522.21 -644.16 -0.30 
521.69 -644.35 -0.33 
525.36 -644.96 -0.02 
522.52 -644.62 -0.25 
521.98 -644.50 -0.30 
517.80 -645.69 -0.57 
521.02 -646.01 -0.32 
519.94 -646.72 -0.37 
519.98 -646.73 -0.37 
537.37 -637.42 0.98 
540.89 -640.48 1.41 
541.49 -642.34 1.54 
541.09 -642.18 1.49 
540.82 -642.10 1.47 
521.86 -647.67 0.59 
521.14 -647.71 0.54 
520.70 -647.71 0.51 
520.19 -647.77 0.48 
521.58 -648.30 0.58 
519.86 -648.11 0.46 
521.87 -648.54 0.60 
528.68 -639.17 0.99 
528.45 -639.24 0.97 
527.25 -639.26 0.88 
528.18 -639.77 0.96 
524.09 -639.27 0.63 
527.59 -640.56 0.92 
527.02 -640.36 0.87 
523.38 -641.93 0.61 
520.85 -642.05 0.43 
523.73 -642.76 0.65 
523.32 -643.41 0.63 
525.97 -644.06 0.84 
523.62 -643.74 0.66 
522.33 -643.87 0.57 
521.86 -643.93 0.53 
526.50 -644.38 0.89 
524.22 -644.20 0.71 
523.17 -644.25 0.63 
522.91 -644.25 0.61 
522.09 -644.01 0.55 
518.34 -644.10 0.29 
524.79 -644.49 0.76 
519.56 -644.55 0.38 
522.79 -644.98 0.62 
517.43 -644.70 0.24 
516.82 -644.53 0.20 
520.36 -645.41 0.45 
518.47 -645.23 0.32 
517.93 -645.23 0.28 
517.92 -645.33 0.29 
517.34 -645.22 0.25 
519.02 -645.45 0.36 
522.02 -646.14 0.58 
521.82 -654.32 1.33 
539.04 -637.26 1.89 
527.86 -638.78 0.92 
526.39 -646.69 1.70 
526.20 -647.14 1.69 
526.02 -647.23 1.67 
524.09 -647.12 1.53 
525.88 -647.64 1.66 
524.65 -647.46 1.57 
523.69 -647.58 1.50 
523.94 -647.63 1.52 
523.53 -647.76 1.49 
523.28 -647.89 1.47 
523.08 -648.05 1.45 
521.85 -648.19 1.37 
521.72 -649.06 1.36 
537.57 -637.25 2.05 
527.33 -641.12 1.83 
528.27 -641.50 1.90 
527.85 -641.55 1.87 
527.57 -641.55 1.84 
521.12 -642.15 1.37 
527.14 -642.58 1.80 
520.68 -642.49 1.34 
520.96 -642.73 1.35 
522.50 -643.46 1.45 
522.03 -643.73 1.42 
520.11 -643.54 1.29 
519.71 -643.68 1.27 
518.98 -643.42 1.22 
526.72 -644.28 1.75 
526.50 -644.45 1.73 
521.61 -644.21 1.38 
519.06 -643.87 1.22 
527.22 -644.85 1.79 
526.98 -644.82 1.77 
524.01 -645.00 1.54 
523.81 -645.04 1.53 
521.98 -644.98 1.40 
525.11 -645.62 1.62 
523.08 -645.47 1.47 
526.56 -645.78 1.73 
521.74 -654.20 1.95 
528.38 -638.91 1.93 
528.06 -639.57 1.90 
527.54 -639.60 1.86 
519.03 -639.44 1.25 
524.16 -640.29 1.59 
518.80 -641.76 1.22 
527.14 -646.29 2.56 
526.82 -646.21 2.54 
525.85 -646.14 2.47 
522.30 -646.56 2.21 
521.59 -646.82 2.16 
525.96 -647.53 2.43 
523.98 -647.42 2.30 
520.97 -647.34 2.11 
523.71 -647.93 2.26 
523.47 -647.93 2.25 
521.25 -647.49 2.12 
520.60 -647.62 2.08 
525.34 -648.12 2.37 
525.06 -648.20 2.34 
522.12 -647.96 2.16 
520.62 -647.86 2.07 
524.51 -648.39 2.30 
521.69 -648.26 2.12 
520.52 -648.36 2.05 
524.78 -648.97 2.30 
522.66 -649.02 2.16 
522.06 -648.76 2.13 
528.34 -642.10 2.79 
528.07 -641.97 2.77 
527.83 -642.06 2.75 
528.11 -642.13 2.77 
525.69 -642.25 2.58 
522.03 -642.81 2.31 
525.02 -643.36 2.50 
527.42 -644.20 2.65 
527.17 -644.26 2.63 
525.92 -644.24 2.53 
520.20 -644.10 2.16 
527.40 -644.60 2.64 
525.21 -644.67 2.47 
526.71 -645.19 2.56 
526.46 -645.09 2.55 
518.47 -644.79 2.05 
522.45 -646.10 2.24 
527.51 -641.55 2.74 
528.37 -641.74 2.81 
523.48 -641.78 2.44 
520.65 -641.57 2.26 
519.81 -641.34 2.22 
523.90 -646.53 3.11 
522.36 -647.26 2.98 
521.60 -647.07 2.95 
526.86 -647.97 3.24 
524.53 -647.56 3.10 
520.70 -647.38 2.88 
521.30 -647.88 2.89 
528.03 -642.78 3.62 
527.77 -642.87 3.59 
528.31 -643.40 3.61 
527.36 -644.03 3.50 
527.06 -643.95 3.48 
519.28 -645.72 2.90 
520.21 -646.48 2.91 
519.35 -646.09 2.88 
519.16 -646.16 2.87 
517.56 -646.20 2.80 
519.11 -646.60 2.85 
518.57 -646.91 2.81 
518.42 -647.08 2.79 
521.40 -641.33 3.24 
527.50 -642.57 3.59 
519.02 -642.89 3.03 
522.55 -648.33 3.70 
520.61 -640.29 3.25 
528.78 -643.34 4.52 
528.37 -643.25 4.49 
525.30 -644.19 4.19 
523.49 -643.95 4.09 
522.42 -643.90 4.04 
527.91 -644.64 4.35 
527.54 -644.66 4.32 
525.59 -644.57 4.18 
523.78 -644.48 4.07 
524.83 -644.76 4.11 
522.80 -644.73 3.99 
521.29 -644.59 3.92 
520.67 -645.50 3.82 
518.56 -645.34 3.74 
518.03 -645.22 3.73 
518.02 -645.32 3.72 
522.61 -646.19 3.87 
520.06 -646.07 3.75 
519.72 -646.67 3.69 
519.49 -646.58 3.69 
518.25 -646.69 3.63 
525.73 -641.08 4.47 
525.54 -641.87 4.39 
520.83 -641.53 4.13 
526.76 -642.21 4.45 
525.59 -641.88 4.39 
526.19 -642.60 4.38 
525.33 -642.42 4.33 
526.42 -642.82 4.38 
523.84 -642.85 4.20 
522.75 -642.65 4.15 
524.39 -643.38 4.19 
519.78 -642.99 3.97 
519.27 -642.95 3.95 
524.14 -643.43 4.17 
520.72 -643.46 3.98 
520.51 -643.72 3.95 
521.71 -646.92 4.57 
520.78 -647.08 4.51 
525.96 -640.41 4.54 
526.70 -643.88 5.17 
525.73 -644.40 5.05 
521.72 -644.61 4.80 
525.58 -645.31 4.95 
524.60 -645.29 4.89 
524.13 -645.22 4.87 
523.05 -644.95 4.83 
525.36 -645.50 4.91 
522.14 -645.43 4.74 
519.64 -645.61 4.61 
522.79 -646.23 4.69 
521.14 -646.50 4.58 
523.85 -643.57 5.02 
522.62 -643.76 4.93 
518.61 -646.90 -1.11 
538.17 -637.46 0.29 
523.69 -639.08 -1.11 
541.44 -642.30 0.85 
541.10 -642.34 0.82 
526.13 -643.20 -0.68 
524.20 -643.01 -0.85 
523.06 -643.15 -0.94 
523.63 -643.68 -0.86 
522.96 -643.67 -0.92 
522.80 -643.60 -0.94 
523.85 -643.76 -0.84 
522.57 -643.81 -0.95 
524.26 -646.11 0.12 
524.30 -646.13 0.13 
520.44 -647.60 -0.14 
521.02 -648.15 -0.07 
520.82 -648.16 -0.09 
520.07 -648.11 -0.15 
526.29 -639.71 0.09 
527.94 -639.89 0.24 
527.54 -640.19 0.21 
528.20 -640.54 0.28 
521.13 -641.60 -0.28 
520.84 -641.61 -0.30 
524.55 -642.89 0.05 
524.29 -643.51 0.04 
523.85 -643.98 0.02 
523.01 -643.68 -0.06 
525.38 -644.56 0.17 
524.88 -644.53 0.13 
522.07 -644.28 -0.11 
522.87 -644.63 -0.04 
522.35 -644.45 -0.09 
520.98 -644.62 -0.19 
524.48 -645.29 0.12 
522.71 -645.03 -0.04 
522.66 -644.91 -0.05 
521.70 -644.94 -0.12 
521.45 -644.99 -0.14 
524.69 -645.37 0.14 
523.37 -645.46 0.03 
518.96 -645.28 -0.33 
518.84 -645.62 -0.33 
518.45 -645.49 -0.36 
538.10 -637.35 1.34 
525.68 -646.15 1.04 
526.37 -646.63 1.10 
522.59 -646.60 0.79 
521.35 -646.38 0.70 
525.45 -646.95 1.03 
525.25 -647.13 1.01 
522.20 -647.17 0.77 
521.67 -646.84 0.72 
524.24 -647.60 0.93 
522.01 -647.23 0.75 
521.32 -647.31 0.70 
524.20 -648.44 0.94 
523.97 -648.40 0.92 
520.96 -648.10 0.68 
519.79 -648.10 0.60 
523.33 -648.75 0.87 
522.20 -648.65 0.78 
528.26 -640.57 1.21 
528.97 -640.81 1.28 
528.72 -640.69 1.25 
528.63 -642.37 1.26 
527.87 -642.49 1.19 
526.80 -642.29 1.10 
523.47 -643.19 0.83 
517.97 -642.74 0.41 
523.21 -643.44 0.81 
521.85 -643.20 0.70 
522.90 -644.08 0.79 
527.30 -644.85 1.17 
519.31 -644.41 0.52 
518.62 -644.27 0.47 
526.37 -645.14 1.09 
519.03 -644.69 0.51 
518.22 -644.79 0.45 
518.12 -645.39 0.45 
517.97 -645.82 0.44 
517.78 -645.90 0.43 
521.98 -654.30 1.44 
526.76 -645.82 1.93 
526.29 -645.92 1.89 
524.45 -646.81 1.73 
525.87 -647.08 1.84 
520.92 -646.93 1.46 
520.73 -646.95 1.45 
523.40 -647.45 1.64 
522.69 -647.38 1.59 
520.73 -647.20 1.45 
525.67 -647.82 1.81 
523.84 -647.67 1.67 
525.42 -648.16 1.79 
524.92 -648.11 1.75 
523.68 -648.10 1.65 
521.83 -648.07 1.51 
521.62 -648.06 1.50 
522.83 -648.61 1.58 
519.90 -648.61 1.37 
523.30 -648.81 1.61 
522.46 -649.15 1.54 
522.18 -648.81 1.53 
523.61 -649.59 1.62 
521.92 -654.25 2.05 
521.54 -654.25 2.03 
521.74 -654.32 2.04 
538.10 -637.08 2.39 
528.36 -641.61 2.14 
527.72 -641.65 2.08 
528.84 -641.85 2.18 
528.46 -641.96 2.14 
528.02 -642.37 2.09 
523.34 -642.49 1.70 
527.29 -643.19 2.02 
527.03 -643.42 1.99 
519.09 -643.05 1.39 
518.83 -643.07 1.37 
526.99 -644.04 1.98 
519.53 -643.78 1.41 
519.24 -643.48 1.39 
525.78 -644.34 1.87 
524.48 -644.08 1.77 
523.72 -644.12 1.71 
526.00 -644.72 1.89 
524.01 -644.58 1.73 
526.52 -645.59 1.92 
526.08 -645.60 1.88 
521.99 -645.22 1.56 
527.24 -639.49 2.07 
518.55 -638.98 1.40 
523.19 -646.18 2.44 
527.08 -646.64 2.73 
526.26 -646.54 2.67 
527.42 -647.04 2.75 
526.63 -646.95 2.68 
523.73 -647.04 2.45 
523.53 -647.03 2.43 
525.15 -647.52 2.54 
524.02 -647.32 2.46 
521.65 -647.29 2.29 
521.50 -647.75 2.26 
