# .PCD v0.7 - Point Cloud Data file format
VERSION 0.7
FIELDS x y z
SIZE 4 4 4
TYPE F F F
COUNT 1 1 1
WIDTH 2411
HEIGHT 1
VIEWPOINT 0 0 0 1 0 0 0
POINTS 2411
DATA ascii
563.63 -13.62 3.77 
558.17 -6.78 4.54 
558.48 -6.97 4.54 
558.66 -7.10 4.53 
557.95 -5.89 4.66 
558.12 -6.14 4.58 
558.56 -6.44 4.63 
558.78 -6.95 4.57 
558.12 -5.79 4.69 
558.48 -5.79 4.72 
558.64 -6.25 4.66 
558.59 -5.40 4.79 
543.21 -27.24 1.19 
543.57 -26.79 1.23 
543.54 -26.26 1.26 
543.80 -26.10 1.28 
544.15 -26.41 1.28 
544.25 -26.55 1.27 
543.98 -25.67 1.58 
544.38 -26.24 1.30 
544.64 -26.39 1.30 
544.67 -25.88 1.34 
545.02 -26.12 1.34 
545.42 -26.12 1.36 
546.22 -26.64 1.38 
545.78 -25.86 1.40 
545.94 -25.72 1.42 
550.64 -29.50 1.13 
550.84 -29.39 1.15 
551.11 -29.41 1.17 
559.88 -20.82 2.85 
559.86 -21.06 2.82 
559.78 -20.17 2.92 
559.90 -20.44 2.90 
560.23 -21.00 2.78 
560.67 -21.12 2.80 
553.41 -13.13 3.71 
553.64 -13.32 3.81 
560.01 -19.75 3.00 
560.26 -20.17 2.97 
553.79 -13.15 3.86 
554.36 -13.70 3.76 
554.59 -13.87 3.77 
560.02 -19.61 3.02 
553.97 -12.53 3.77 
554.03 -12.84 3.73 
554.43 -12.97 3.59 
554.58 -13.46 3.65 
554.79 -13.62 3.55 
560.72 -19.41 3.12 
553.56 -11.52 3.88 
553.84 -12.09 3.89 
554.07 -12.42 3.84 
555.32 -13.42 3.63 
561.95 -20.32 3.01 
554.26 -11.60 3.73 
554.54 -12.08 3.72 
554.54 -12.27 3.69 
555.10 -12.63 3.71 
563.17 -14.67 4.02 
563.18 -14.95 3.98 
563.32 -14.33 4.08 
563.52 -13.80 4.18 
563.60 -14.10 4.15 
563.72 -14.45 4.11 
563.52 -13.42 4.24 
563.60 -13.61 4.22 
557.86 -7.21 4.80 
564.05 -13.24 4.32 
557.67 -6.27 4.82 
557.88 -6.47 4.73 
558.21 -6.75 4.86 
558.36 -7.00 4.89 
558.63 -7.16 4.89 
557.66 -5.46 4.88 
557.72 -5.92 4.81 
558.11 -6.39 4.96 
558.40 -6.44 4.79 
558.78 -7.11 4.92 
543.39 -28.23 1.46 
544.05 -27.89 1.50 
543.77 -27.06 1.52 
544.51 -27.58 1.54 
544.26 -26.72 1.56 
544.05 -25.80 1.58 
544.36 -26.20 1.58 
544.54 -26.27 1.59 
544.93 -26.66 1.74 
544.97 -27.07 1.58 
544.78 -25.74 1.62 
545.23 -26.41 1.76 
545.39 -26.74 1.91 
545.43 -25.85 1.65 
545.49 -25.95 1.65 
545.80 -26.31 1.66 
548.66 -29.35 1.38 
548.85 -29.46 1.38 
545.96 -26.15 1.67 
549.37 -29.60 1.41 
549.91 -29.45 1.46 
549.97 -29.13 1.49 
550.16 -29.32 1.49 
550.41 -29.66 1.49 
550.70 -29.14 1.55 
550.76 -29.19 1.55 
550.97 -29.20 1.57 
566.30 -29.29 2.55 
566.07 -28.44 2.62 
566.18 -28.33 2.64 
559.55 -20.50 3.23 
559.84 -20.82 3.24 
560.10 -21.16 3.21 
560.15 -21.36 3.20 
553.69 -14.01 3.89 
560.60 -21.01 3.32 
554.04 -13.68 3.83 
560.27 -20.23 3.36 
560.60 -20.75 3.35 
560.75 -20.85 3.34 
554.28 -13.50 3.90 
560.16 -19.78 3.40 
553.25 -12.25 4.36 
553.74 -12.33 4.22 
553.92 -12.59 4.14 
554.05 -12.68 3.99 
553.78 -12.03 4.29 
554.63 -13.07 4.28 
555.02 -13.05 4.11 
554.44 -12.27 4.13 
562.83 -14.77 4.40 
563.08 -15.29 4.36 
563.71 -15.28 4.38 
563.63 -14.65 4.53 
563.58 -14.39 4.56 
563.96 -13.88 4.68 
557.50 -6.73 5.37 
557.87 -6.91 5.02 
557.46 -6.17 5.11 
557.69 -6.45 5.08 
558.19 -6.87 5.26 
558.45 -7.13 5.25 
557.58 -5.67 5.22 
557.70 -6.07 5.16 
558.03 -6.37 5.14 
558.43 -6.55 5.25 
558.51 -6.89 5.29 
557.98 -5.29 5.34 
543.75 -27.69 1.81 
543.98 -27.59 1.83 
544.22 -27.37 1.84 
544.43 -26.79 1.86 
544.62 -27.15 2.17 
544.71 -27.37 2.17 
545.22 -27.22 2.20 
545.59 -27.28 2.22 
545.75 -27.20 2.00 
549.99 -29.15 1.86 
566.04 -29.26 2.93 
560.17 -21.32 3.68 
559.50 -20.24 3.64 
559.96 -20.57 3.68 
560.11 -20.51 3.71 
560.45 -20.44 3.77 
560.69 -20.75 3.80 
561.16 -21.53 3.78 
560.35 -19.86 3.84 
560.36 -20.10 3.79 
560.60 -20.40 3.81 
553.48 -12.46 4.37 
554.04 -12.82 4.44 
554.25 -13.33 4.59 
562.16 -20.69 3.98 
562.94 -15.40 4.77 
562.55 -14.45 4.84 
563.10 -15.10 4.83 
563.50 -14.58 4.97 
563.57 -14.78 4.95 
563.07 -13.68 5.03 
563.62 -14.34 5.02 
557.64 -6.28 5.86 
557.75 -6.53 5.45 
558.19 -6.83 5.57 
558.41 -7.07 5.62 
558.71 -7.25 5.64 
557.74 -5.99 5.55 
558.11 -6.44 5.52 
558.29 -6.72 5.48 
557.89 -5.67 5.64 
543.99 -27.70 2.14 
544.37 -27.95 2.16 
544.19 -27.23 2.45 
544.56 -27.76 2.49 
544.87 -27.71 2.19 
544.30 -26.78 2.44 
545.08 -27.73 2.51 
545.44 -27.91 2.22 
545.29 -27.60 2.52 
545.58 -27.76 2.55 
546.10 -27.22 2.56 
549.70 -29.59 2.20 
550.02 -29.66 2.23 
550.65 -29.48 2.29 
566.48 -28.86 3.24 
559.65 -20.95 3.99 
559.79 -20.82 4.02 
560.28 -21.08 4.18 
560.84 -20.84 4.28 
560.69 -20.48 4.21 
561.02 -20.79 4.31 
563.66 -14.98 4.94 
563.77 -14.46 5.03 
563.91 -13.41 5.21 
557.90 -6.50 5.85 
558.31 -6.88 5.84 
557.82 -6.21 5.90 
557.95 -6.32 5.90 
558.49 -6.89 5.87 
558.08 -5.86 6.02 
544.47 -28.05 2.49 
563.40 -14.65 5.40 
563.94 -14.93 5.46 
561.18 -22.37 1.89 
561.39 -22.09 1.94 
560.67 -20.73 2.11 
561.73 -21.56 2.04 
553.96 -12.47 2.80 
554.34 -12.89 2.73 
563.03 -14.41 2.93 
563.33 -14.80 2.89 
563.57 -15.09 2.86 
563.83 -15.38 2.83 
563.97 -15.51 2.82 
562.08 -12.83 3.11 
562.20 -13.05 3.09 
562.38 -13.38 3.05 
562.62 -13.72 3.01 
562.82 -14.06 2.97 
564.18 -15.09 3.08 
564.35 -15.64 2.82 
560.96 -11.10 3.30 
561.10 -11.34 3.28 
561.33 -11.67 3.24 
561.55 -11.99 3.21 
561.85 -12.41 3.16 
562.00 -12.67 3.13 
564.33 -14.88 3.12 
560.28 -9.89 3.44 
560.48 -10.22 3.40 
560.70 -10.63 3.36 
560.89 -10.94 3.32 
564.49 -14.71 3.15 
557.31 -6.23 3.80 
557.46 -6.50 3.77 
557.72 -6.84 3.74 
558.06 -7.09 3.72 
558.84 -8.06 3.63 
559.18 -8.17 3.63 
559.43 -8.49 3.59 
559.70 -8.85 3.56 
559.92 -9.22 3.52 
560.07 -9.51 3.48 
560.25 -9.72 3.46 
557.32 -5.71 3.87 
557.27 -6.00 3.83 
558.54 -7.28 3.72 
558.76 -7.52 3.70 
558.89 -7.75 3.67 
557.37 -5.10 3.96 
557.39 -5.45 3.91 
557.25 -4.91 3.98 
544.75 -27.04 0.48 
560.29 -20.24 2.35 
553.99 -12.53 3.11 
554.33 -12.93 2.96 
553.84 -12.28 3.24 
554.11 -12.39 3.15 
554.49 -12.79 3.23 
554.78 -13.24 3.19 
554.47 -11.81 3.37 
554.55 -11.92 3.36 
563.74 -13.79 3.49 
558.18 -6.11 4.33 
558.38 -6.41 4.41 
558.65 -6.60 4.40 
558.71 -6.83 4.37 
558.28 -5.77 4.49 
558.49 -6.20 4.44 
543.12 -26.93 0.97 
543.57 -27.09 0.98 
543.85 -27.23 0.98 
543.39 -26.44 1.02 
544.06 -27.23 0.99 
544.49 -26.83 1.04 
544.70 -27.00 0.90 
544.82 -27.10 0.76 
545.21 -27.55 1.02 
544.33 -26.37 1.07 
544.43 -26.54 1.06 
544.86 -26.87 1.06 
545.08 -27.05 1.05 
545.52 -26.88 1.09 
545.66 -27.06 1.09 
546.15 -26.55 1.16 
546.41 -26.81 1.15 
559.64 -20.75 2.59 
559.63 -20.84 2.58 
559.30 -19.85 2.68 
559.73 -20.55 2.63 
559.56 -19.64 2.73 
559.64 -19.75 2.72 
560.29 -20.45 2.69 
560.46 -20.70 2.67 
559.54 -19.20 2.79 
559.51 -19.28 2.77 
553.77 -12.46 3.63 
554.02 -12.67 3.42 
554.09 -12.91 3.38 
553.76 -12.08 3.48 
554.10 -12.44 3.46 
554.15 -12.14 3.53 
554.43 -12.09 3.80 
553.90 -11.27 3.63 
554.19 -11.50 3.85 
554.49 -11.79 3.85 
555.30 -12.41 3.60 
562.87 -14.03 3.80 
563.10 -14.49 3.76 
563.54 -14.62 3.78 
563.57 -13.61 3.93 
563.66 -13.90 3.90 
557.90 -6.69 4.67 
557.98 -6.14 4.72 
558.04 -6.48 4.72 
558.67 -6.84 4.72 
558.76 -6.98 4.71 
557.98 -5.77 4.82 
558.47 -5.97 4.84 
558.68 -6.00 4.85 
543.54 -27.97 1.21 
544.28 -27.13 1.29 
543.75 -26.31 1.32 
543.96 -26.32 1.32 
544.14 -26.76 1.31 
544.61 -27.19 1.30 
543.73 -25.82 1.59 
543.92 -25.90 1.60 
544.18 -26.32 1.46 
544.79 -26.75 1.34 
546.04 -27.94 1.34 
546.16 -28.10 1.33 
544.64 -25.92 1.63 
544.82 -26.34 1.36 
545.10 -26.58 1.36 
545.21 -26.81 1.36 
546.29 -27.83 1.36 
545.29 -25.98 1.66 
545.46 -26.26 1.53 
545.70 -26.72 1.39 
546.50 -27.66 1.38 
548.59 -29.50 1.41 
544.89 -25.31 1.66 
545.54 -26.09 1.54 
545.77 -26.31 1.55 
549.00 -29.52 1.44 
549.50 -29.42 1.31 
549.68 -28.89 1.19 
549.77 -29.31 1.51 
550.70 -29.23 1.24 
550.66 -29.37 1.23 
550.79 -29.07 1.44 
566.35 -29.14 2.35 
559.36 -20.57 2.94 
559.89 -21.04 2.89 
559.93 -21.21 2.87 
566.24 -27.64 2.31 
559.86 -20.70 2.98 
560.55 -21.15 2.93 
559.24 -19.31 3.08 
559.33 -19.83 3.03 
559.64 -20.02 3.04 
559.86 -20.32 3.03 
553.74 -13.08 3.94 
553.97 -13.39 3.93 
554.26 -13.62 3.94 
554.36 -13.78 3.81 
559.24 -19.15 3.10 
560.00 -19.81 3.11 
560.11 -19.92 3.11 
553.92 -12.81 3.86 
553.76 -11.92 3.98 
553.88 -12.36 3.88 
554.15 -12.70 3.86 
560.64 -19.38 3.23 
561.85 -20.22 3.16 
554.28 -12.35 4.17 
562.00 -20.17 3.18 
563.20 -14.43 4.20 
563.47 -14.72 4.19 
563.62 -14.98 4.17 
563.94 -15.29 4.07 
564.24 -15.35 4.01 
562.94 -13.46 4.31 
563.26 -13.94 4.28 
563.36 -14.11 4.26 
563.75 -14.67 4.23 
563.46 -13.61 4.35 
557.91 -7.07 4.96 
563.66 -13.26 4.42 
557.52 -6.08 4.91 
557.78 -6.38 4.91 
558.03 -6.77 4.96 
558.61 -7.17 5.02 
557.33 -5.59 4.98 
557.65 -5.85 4.97 
558.18 -6.57 5.01 
558.71 -6.98 5.06 
557.68 -5.36 5.06 
558.23 -6.10 5.15 
543.74 -27.66 1.82 
543.95 -27.46 1.54 
543.39 -26.70 1.55 
544.34 -26.87 1.58 
544.56 -27.40 1.86 
545.09 -27.44 1.60 
544.24 -26.35 1.86 
545.03 -26.82 1.62 
545.36 -27.51 1.90 
545.93 -28.26 1.62 
544.71 -26.24 1.88 
546.19 -27.54 1.95 
545.79 -26.61 1.93 
545.97 -26.68 1.94 
546.30 -27.56 1.95 
548.19 -29.46 1.72 
548.51 -29.33 1.75 
549.73 -29.13 1.86 
549.91 -29.20 1.87 
550.17 -29.54 1.53 
550.05 -29.15 1.89 
550.79 -29.10 1.61 
565.90 -29.51 2.63 
566.34 -29.17 2.72 
565.93 -28.49 2.75 
566.25 -28.63 2.77 
560.06 -21.36 3.30 
559.40 -20.21 3.69 
559.76 -20.63 3.34 
560.06 -20.85 3.36 
560.08 -21.17 3.32 
553.74 -13.76 3.96 
559.42 -20.08 3.71 
560.02 -20.32 3.41 
560.18 -20.60 3.40 
553.61 -13.22 4.10 
553.88 -13.63 4.00 
559.97 -19.75 3.47 
560.15 -20.01 3.47 
560.35 -20.40 3.45 
560.91 -20.57 3.48 
553.64 -12.52 4.34 
553.85 -12.84 4.22 
554.22 -13.08 4.12 
553.61 -12.02 4.33 
553.75 -12.27 4.31 
553.97 -12.51 4.53 
554.42 -12.86 4.21 
554.86 -13.29 4.45 
554.29 -12.17 4.43 
554.91 -13.03 4.40 
563.02 -14.88 4.53 
563.05 -15.10 4.51 
563.54 -15.54 4.38 
562.83 -13.92 4.65 
562.95 -14.40 4.59 
563.29 -14.50 4.63 
563.63 -14.73 4.57 
563.83 -14.99 4.63 
564.07 -15.23 4.48 
562.80 -13.78 4.66 
563.06 -13.83 4.69 
563.54 -14.23 4.70 
563.75 -14.63 4.53 
557.04 -6.23 5.20 
564.00 -13.55 4.87 
557.25 -5.90 5.28 
557.49 -6.20 5.62 
557.62 -6.41 5.41 
557.79 -6.77 5.37 
558.29 -7.11 5.35 
557.30 -5.62 5.35 
557.63 -6.04 5.30 
557.91 -6.24 5.30 
558.17 -6.54 5.39 
558.40 -6.81 5.41 
558.71 -7.14 5.40 
558.30 -6.03 5.53 
558.37 -6.32 5.49 
543.40 -28.10 1.80 
543.76 -27.97 1.82 
543.76 -27.57 1.97 
543.93 -27.52 2.12 
543.95 -28.05 2.13 
544.02 -27.40 2.12 
544.23 -27.21 2.13 
544.88 -27.49 2.16 
544.97 -27.82 1.87 
545.50 -28.15 1.90 
545.18 -27.23 2.17 
545.31 -27.62 2.19 
545.65 -27.79 2.21 
545.82 -27.42 2.21 
545.73 -26.99 2.20 
549.68 -29.61 2.19 
549.95 -29.48 2.22 
550.39 -29.44 2.26 
550.66 -29.49 2.29 
566.13 -29.25 3.08 
559.78 -20.67 4.07 
560.04 -21.23 3.75 
559.86 -20.61 4.09 
561.04 -21.46 3.86 
560.23 -19.91 3.86 
560.37 -20.26 3.84 
560.70 -20.59 3.90 
554.10 -13.34 4.79 
560.32 -19.83 3.93 
554.18 -12.84 4.51 
555.03 -13.55 4.46 
562.66 -14.45 4.96 
562.84 -15.00 4.91 
563.10 -15.20 4.92 
563.51 -15.49 4.85 
563.27 -14.56 5.04 
563.28 -14.87 5.00 
563.15 -14.06 5.10 
563.39 -14.30 5.10 
563.83 -14.78 5.10 
563.22 -13.58 5.18 
563.63 -14.05 5.18 
557.77 -6.53 5.78 
557.96 -6.65 5.60 
558.10 -7.05 5.68 
557.65 -6.01 5.78 
557.96 -6.38 5.65 
558.14 -6.61 5.68 
558.40 -6.76 5.83 
558.64 -7.26 5.73 
557.87 -5.64 5.79 
543.54 -27.64 2.40 
544.12 -27.26 2.41 
544.59 -27.71 2.44 
544.27 -26.95 2.40 
544.75 -27.35 2.44 
545.07 -27.72 2.47 
544.44 -26.78 2.41 
544.94 -27.37 2.45 
545.54 -27.28 2.48 
549.97 -29.47 2.57 
550.66 -29.27 2.64 
560.50 -20.39 4.23 
560.76 -20.71 4.34 
564.25 -15.59 5.43 
563.20 -14.36 5.49 
563.64 -14.80 5.51 
563.39 -13.98 5.58 
557.90 -6.21 6.06 
558.56 -6.79 6.04 
557.89 -5.54 6.21 
560.83 -20.47 4.67 
565.24 -25.11 1.72 
565.44 -24.90 1.76 
563.36 -14.23 2.88 
563.57 -14.50 2.86 
563.81 -14.83 2.82 
564.04 -15.16 2.79 
564.23 -15.48 2.76 
562.61 -12.83 3.03 
562.76 -13.04 3.01 
563.15 -13.77 2.93 
563.34 -14.08 2.90 
563.47 -14.31 2.88 
559.67 -9.06 3.39 
559.81 -9.28 3.37 
560.04 -9.62 3.33 
560.31 -9.85 3.31 
561.13 -10.84 3.22 
561.47 -11.05 3.21 
561.81 -11.40 3.18 
561.96 -11.62 3.16 
562.17 -11.92 3.13 
562.36 -12.24 3.10 
562.56 -12.64 3.05 
559.64 -8.81 3.42 
560.52 -9.95 3.31 
560.74 -10.02 3.31 
561.51 -10.99 3.22 
561.71 -11.22 3.20 
559.77 -8.33 3.48 
546.72 -29.66 0.68 
562.43 -23.08 2.05 
556.95 -15.87 2.88 
556.93 -15.29 2.95 
560.46 -8.93 3.80 
560.67 -9.27 3.97 
560.91 -9.36 3.97 
561.11 -9.62 3.95 
560.63 -8.57 4.06 
560.77 -8.96 4.01 
561.05 -9.43 3.97 
545.25 -28.91 0.94 
546.58 -29.32 0.95 
547.77 -28.82 1.27 
548.03 -29.35 1.01 
548.28 -29.37 1.02 
561.42 -24.16 2.50 
561.55 -23.91 2.54 
561.48 -23.18 2.62 
561.60 -23.28 2.62 
561.87 -23.47 2.30 
561.67 -22.61 2.38 
561.83 -23.22 2.65 
562.13 -23.31 2.34 
561.37 -22.06 2.73 
561.54 -22.20 2.62 
561.74 -22.48 2.40 
562.26 -22.98 2.39 
562.40 -23.08 2.39 
562.71 -23.55 2.25 
556.91 -15.89 3.30 
556.85 -15.10 3.19 
557.33 -15.45 3.18 
557.01 -15.04 3.21 
557.47 -15.21 3.23 
557.43 -14.89 3.50 
557.63 -15.14 3.25 
560.28 -9.42 4.25 
560.48 -9.57 4.25 
560.35 -8.95 4.24 
560.53 -9.10 4.32 
560.76 -9.59 4.27 
560.34 -8.42 4.40 
560.72 -8.68 4.40 
560.90 -8.82 4.39 
561.04 -9.32 4.33 
561.19 -9.55 4.31 
560.66 -8.37 4.44 
560.93 -8.68 4.41 
546.08 -28.63 1.46 
546.63 -29.32 1.20 
546.89 -29.61 1.20 
546.30 -28.68 1.23 
546.69 -28.91 1.23 
547.01 -29.14 1.27 
547.11 -29.42 1.22 
547.31 -28.84 1.48 
547.54 -29.19 1.34 
547.76 -29.67 1.48 
547.97 -29.69 1.36 
547.18 -28.48 1.49 
548.23 -29.19 1.51 
548.38 -29.55 1.26 
547.84 -28.47 1.51 
548.30 -29.14 1.51 
561.56 -23.82 2.89 
561.19 -22.75 2.95 
561.85 -23.36 2.97 
561.98 -23.69 2.78 
562.18 -23.86 2.80 
561.98 -23.18 2.84 
562.13 -23.42 3.02 
562.22 -23.68 3.00 
561.67 -22.09 3.08 
562.26 -22.78 3.10 
562.43 -23.10 2.90 
563.03 -23.48 2.74 
562.55 -22.65 3.13 
562.68 -22.89 3.12 
556.84 -16.03 3.46 
556.90 -16.10 3.46 
563.12 -22.43 2.87 
556.94 -15.45 3.60 
557.10 -15.60 3.58 
566.16 -18.21 3.56 
566.30 -18.35 3.56 
565.70 -17.08 3.77 
565.83 -17.60 3.77 
566.06 -17.83 3.76 
566.26 -18.06 3.75 
565.13 -16.09 3.90 
565.67 -16.46 3.90 
565.74 -16.84 3.86 
566.07 -17.28 3.83 
566.21 -17.40 3.83 
560.11 -9.14 4.47 
560.31 -9.50 4.51 
559.99 -8.69 4.54 
560.19 -8.92 4.59 
560.58 -9.38 4.62 
560.78 -9.64 4.60 
561.06 -9.84 4.60 
559.93 -8.18 4.62 
560.21 -8.19 4.64 
560.50 -8.92 4.69 
561.23 -9.60 4.65 
545.07 -29.44 1.67 
545.19 -29.46 1.68 
545.39 -29.44 1.68 
545.93 -29.07 1.69 
546.34 -29.43 1.69 
546.20 -29.06 1.69 
546.58 -29.42 1.70 
546.76 -29.61 1.70 
546.49 -28.72 1.93 
546.71 -29.05 1.70 
547.01 -29.08 1.71 
547.10 -29.32 1.71 
547.46 -29.56 1.72 
547.23 -28.92 1.95 
547.33 -29.28 1.96 
547.83 -28.71 1.73 
547.90 -28.68 1.74 
562.17 -23.99 3.37 
562.32 -22.86 3.42 
562.40 -23.06 3.43 
562.71 -23.54 3.23 
563.01 -23.46 3.10 
562.15 -22.24 3.46 
562.54 -22.87 3.51 
556.89 -15.78 4.17 
557.11 -16.06 4.00 
563.14 -22.60 3.20 
557.08 -15.67 4.01 
557.32 -15.81 3.84 
557.34 -15.29 3.90 
565.45 -17.99 4.08 
565.82 -18.53 3.93 
565.38 -17.49 4.14 
565.53 -17.92 3.98 
565.81 -18.08 3.99 
565.85 -18.20 3.98 
565.48 -16.80 4.25 
565.57 -17.14 4.16 
565.95 -17.71 4.11 
566.24 -17.90 4.05 
565.28 -16.30 4.29 
565.55 -16.59 4.28 
565.87 -16.89 4.28 
565.56 -16.07 4.36 
559.67 -9.04 4.99 
559.91 -9.24 4.98 
560.26 -9.51 5.15 
560.59 -9.90 4.88 
559.67 -8.58 4.89 
559.94 -8.71 4.90 
560.33 -9.02 4.88 
560.35 -9.29 5.02 
560.89 -9.57 4.97 
561.03 -9.84 4.95 
560.78 -9.11 4.95 
561.02 -9.16 4.94 
546.57 -29.41 2.13 
546.85 -29.65 2.21 
562.06 -23.33 3.67 
562.36 -23.76 3.81 
562.83 -24.10 3.44 
562.51 -23.16 3.76 
563.12 -24.14 3.47 
562.98 -23.38 3.52 
556.83 -15.99 4.19 
563.70 -23.13 3.60 
563.98 -23.47 3.63 
556.77 -15.41 4.25 
556.93 -15.78 4.46 
563.78 -23.05 3.62 
564.98 -17.51 4.48 
565.11 -17.42 4.51 
565.47 -17.80 4.51 
565.74 -18.14 4.44 
565.46 -16.98 4.62 
565.79 -17.63 4.48 
565.97 -17.77 4.48 
565.34 -16.40 4.69 
565.46 -16.69 4.67 
565.82 -16.97 4.68 
566.12 -17.34 4.55 
565.77 -16.10 4.80 
565.85 -16.34 4.78 
565.94 -16.55 4.76 
559.97 -8.84 5.43 
560.15 -9.18 5.57 
560.51 -9.42 5.33 
560.67 -9.75 5.33 
560.20 -8.37 5.37 
560.88 -9.45 5.24 
561.76 -23.59 3.93 
561.82 -23.74 3.98 
562.86 -23.50 3.90 
562.79 -23.15 4.17 
564.97 -16.69 4.99 
565.29 -16.81 5.03 
565.55 -17.25 5.01 
565.78 -17.44 5.02 
566.09 -17.82 5.03 
566.47 -18.07 4.97 
566.47 -18.32 4.94 
565.16 -16.15 5.11 
565.67 -17.12 5.05 
566.05 -17.48 4.97 
566.38 -17.25 5.05 
560.24 -8.58 5.72 
560.93 -9.59 5.60 
563.02 -23.54 4.34 
563.12 -23.46 4.36 
565.02 -17.01 5.36 
566.27 -16.77 5.64 
562.31 -22.92 1.87 
563.93 -13.93 3.05 
564.13 -14.21 3.02 
564.30 -14.51 2.99 
564.48 -14.83 2.96 
560.42 -9.60 3.43 
563.39 -12.73 3.17 
563.51 -13.07 3.13 
563.69 -13.38 3.11 
563.85 -13.69 3.07 
560.75 -9.21 3.39 
560.76 -9.65 3.44 
561.25 -9.81 3.44 
561.40 -10.13 3.40 
562.09 -10.71 3.36 
562.29 -11.03 3.33 
562.45 -11.32 3.30 
562.71 -11.64 3.28 
562.94 -11.97 3.25 
563.17 -12.35 3.21 
563.39 -12.65 3.18 
561.31 -9.65 3.46 
561.65 -10.16 3.41 
561.82 -10.23 3.41 
562.03 -10.47 3.39 
546.59 -29.54 0.67 
562.29 -22.93 2.18 
562.58 -23.40 2.38 
562.53 -22.68 2.46 
549.05 -6.99 3.49 
549.20 -7.04 3.60 
557.78 -15.70 3.04 
557.53 -15.08 3.10 
560.40 -9.13 4.05 
560.51 -9.22 4.04 
560.44 -8.51 4.13 
560.41 -8.77 4.00 
560.71 -9.23 4.05 
561.00 -9.34 4.05 
560.61 -8.47 4.14 
546.37 -29.03 1.28 
546.53 -29.31 1.04 
546.77 -29.18 1.17 
547.27 -29.46 1.17 
547.53 -29.21 1.30 
547.95 -29.18 1.32 
548.33 -29.12 1.33 
561.38 -23.79 2.61 
562.12 -24.46 2.62 
561.37 -23.19 2.68 
561.46 -23.67 2.63 
562.17 -24.23 2.65 
561.67 -23.06 2.72 
561.93 -23.13 2.44 
562.02 -23.59 2.70 
562.25 -23.83 2.70 
561.47 -22.08 2.67 
561.55 -22.34 2.64 
561.79 -22.63 2.78 
562.11 -22.94 2.63 
562.26 -22.68 2.83 
549.05 -7.04 4.03 
549.11 -7.05 4.03 
562.98 -22.15 2.96 
563.97 -22.89 2.92 
565.23 -17.30 3.44 
564.95 -16.73 3.49 
565.74 -17.34 3.48 
565.34 -16.54 3.79 
565.73 -16.69 3.56 
566.10 -17.19 3.35 
560.10 -9.39 4.32 
560.33 -9.19 4.36 
560.40 -9.46 4.33 
560.60 -9.64 4.32 
560.03 -8.51 4.44 
560.54 -8.43 4.49 
545.00 -29.40 1.36 
545.24 -29.11 1.25 
545.64 -29.32 1.37 
545.97 -28.73 1.56 
546.47 -29.54 1.37 
546.19 -28.64 1.62 
546.86 -29.27 1.50 
546.82 -28.60 1.52 
547.18 -28.94 1.63 
547.57 -29.53 1.52 
561.04 -22.71 2.98 
561.54 -23.53 2.96 
561.73 -23.72 2.96 
562.05 -23.97 3.02 
561.15 -22.62 3.00 
561.63 -22.87 3.04 
561.91 -23.24 3.05 
562.17 -23.02 3.13 
561.59 -22.02 3.13 
562.23 -22.65 3.17 
562.41 -22.40 3.19 
562.96 -22.49 3.26 
548.98 -6.98 4.48 
563.04 -22.43 3.27 
565.48 -17.08 3.88 
565.73 -17.54 3.84 
566.03 -17.86 3.79 
566.22 -18.19 3.66 
565.01 -16.19 3.95 
565.39 -16.29 3.98 
565.60 -16.74 3.94 
565.78 -17.15 3.90 
566.00 -17.24 3.83 
565.08 -15.88 4.00 
565.60 -16.28 4.00 
559.80 -8.94 4.56 
560.02 -9.47 4.62 
560.37 -9.70 4.62 
560.07 -8.92 4.59 
560.24 -9.05 4.64 
560.45 -9.40 4.67 
560.83 -9.67 4.67 
560.40 -8.88 4.62 
560.99 -9.59 4.70 
545.40 -29.44 1.72 
545.55 -28.71 1.95 
546.11 -29.10 1.95 
546.14 -29.21 1.95 
546.52 -29.66 1.84 
546.27 -28.45 2.15 
546.34 -28.66 2.05 
546.52 -28.77 1.94 
546.70 -29.30 1.84 
547.35 -29.20 1.96 
547.45 -29.06 1.96 
561.37 -22.75 3.60 
561.81 -23.44 3.31 
562.07 -23.79 3.41 
562.39 -23.81 3.45 
562.37 -23.22 3.46 
562.80 -23.70 3.51 
562.06 -22.28 3.46 
562.10 -22.50 3.45 
562.30 -22.85 3.48 
562.63 -23.14 3.54 
557.40 -16.04 4.05 
565.69 -18.53 3.98 
565.31 -17.66 4.17 
565.53 -17.95 4.16 
565.64 -18.10 4.03 
564.54 -16.40 4.25 
565.34 -17.05 4.26 
565.63 -17.33 4.25 
565.74 -17.54 4.18 
565.12 -16.05 4.37 
565.24 -16.47 4.33 
565.49 -16.84 4.31 
565.70 -17.03 4.30 
566.06 -17.31 4.17 
565.40 -15.91 4.43 
565.59 -16.39 4.38 
565.75 -16.56 4.30 
566.15 -16.74 4.25 
559.60 -8.80 4.93 
559.66 -9.16 5.05 
560.01 -9.32 5.24 
565.81 -16.01 4.47 
559.95 -8.81 4.97 
560.30 -9.15 4.94 
560.59 -9.51 5.01 
560.78 -9.67 5.00 
560.44 -8.91 5.03 
560.67 -9.23 5.06 
561.01 -9.72 5.02 
545.38 -29.45 2.20 
545.62 -29.42 2.20 
547.20 -29.16 2.18 
561.68 -23.17 3.77 
561.82 -23.34 3.94 
562.04 -23.10 3.69 
562.21 -22.68 3.76 
562.38 -22.66 3.79 
565.07 -17.24 4.58 
565.26 -17.66 4.54 
565.70 -17.94 4.57 
565.80 -18.08 4.52 
564.69 -16.64 4.61 
565.07 -17.14 4.59 
565.51 -17.33 4.63 
565.69 -17.77 4.53 
565.37 -16.49 4.87 
565.53 -16.81 4.71 
565.65 -17.03 4.63 
565.93 -17.41 4.56 
565.56 -16.12 4.82 
565.58 -16.58 4.75 
559.89 -9.32 5.60 
565.75 -16.19 4.84 
560.04 -9.02 5.50 
560.23 -9.27 5.41 
560.51 -9.44 5.31 
560.08 -8.40 5.44 
561.99 -23.70 4.15 
562.50 -23.02 4.10 
562.57 -23.03 4.11 
562.88 -23.36 4.31 
565.36 -17.07 5.04 
565.71 -17.41 5.05 
565.85 -17.58 5.05 
566.23 -17.99 4.96 
564.88 -16.24 5.08 
565.17 -16.76 5.05 
565.68 -16.85 5.13 
565.69 -17.25 5.07 
565.90 -17.50 5.07 
566.03 -17.73 4.96 
566.35 -17.99 4.98 
566.10 -17.23 5.14 
565.00 -17.01 5.37 
565.19 -16.99 5.42 
565.71 -17.38 5.37 
566.19 -16.69 5.66 
562.08 -23.12 1.84 
548.90 -6.95 3.33 
549.02 -6.98 3.33 
564.24 -13.89 3.19 
564.38 -14.14 3.17 
564.58 -14.47 3.13 
564.83 -14.80 3.11 
564.96 -15.12 3.07 
563.35 -12.35 3.34 
563.59 -12.72 3.30 
563.84 -13.12 3.27 
563.99 -13.43 3.24 
564.17 -13.71 3.21 
560.59 -9.11 3.51 
562.20 -10.43 3.52 
562.35 -10.64 3.50 
562.50 -10.98 3.46 
562.76 -11.30 3.44 
563.00 -11.69 3.40 
563.21 -11.99 3.37 
561.98 -10.02 3.55 
562.13 -10.18 3.54 
561.73 -23.07 2.53 
561.43 -22.24 2.60 
561.56 -22.64 2.57 
561.97 -22.85 2.43 
561.99 -23.21 2.49 
562.45 -23.34 2.33 
561.38 -21.91 2.64 
561.43 -21.99 2.63 
562.28 -22.62 2.58 
562.37 -22.80 2.56 
548.89 -6.96 3.57 
548.97 -6.96 3.69 
565.44 -17.78 3.36 
566.01 -17.10 3.48 
565.79 -16.66 3.41 
560.41 -9.72 4.08 
559.88 -8.57 4.20 
560.11 -8.99 4.16 
560.32 -9.26 4.13 
560.10 -8.39 4.23 
560.29 -8.61 4.22 
560.63 -9.17 4.00 
560.71 -9.34 4.15 
560.37 -8.33 4.26 
560.58 -8.27 4.28 
544.93 -28.94 1.34 
545.44 -28.95 1.34 
545.75 -29.28 1.33 
545.95 -28.39 1.37 
546.58 -29.11 1.35 
546.93 -29.42 1.23 
546.91 -29.54 1.33 
547.31 -29.26 1.35 
547.75 -29.65 1.35 
547.62 -29.06 1.37 
547.87 -29.26 1.37 
547.92 -29.01 1.38 
548.17 -29.09 1.38 
561.09 -22.94 2.78 
561.30 -23.56 2.70 
561.70 -23.66 2.75 
561.70 -23.89 2.72 
562.11 -24.23 2.72 
561.31 -22.94 2.80 
561.97 -23.44 2.65 
562.37 -23.80 2.79 
561.21 -22.08 2.86 
561.39 -22.29 2.86 
561.73 -22.59 2.86 
561.93 -22.90 2.71 
562.27 -23.30 2.84 
562.09 -22.86 2.87 
548.91 -6.97 4.05 
563.65 -22.88 2.99 
565.65 -18.07 3.73 
564.79 -16.68 3.60 
565.12 -17.25 3.55 
565.67 -17.50 3.80 
565.85 -17.77 3.78 
566.23 -18.23 3.76 
565.35 -16.57 3.77 
565.78 -16.93 3.88 
565.82 -17.20 3.85 
565.98 -17.62 3.81 
566.15 -17.76 3.81 
565.40 -16.22 3.71 
566.00 -16.82 3.91 
559.48 -9.15 4.41 
559.97 -9.25 4.43 
559.97 -9.37 4.42 
560.34 -9.68 4.40 
559.85 -8.64 4.51 
560.17 -8.93 4.49 
560.28 -9.38 4.44 
560.06 -8.45 4.56 
560.21 -8.73 4.53 
560.56 -9.19 4.49 
560.83 -9.35 4.49 
561.07 -9.43 4.49 
560.40 -8.31 4.60 
544.90 -29.57 1.30 
545.11 -29.37 1.54 
545.05 -28.44 1.58 
545.13 -28.52 1.57 
545.97 -29.64 1.54 
545.38 -28.39 1.64 
545.87 -28.77 1.56 
546.21 -29.37 1.76 
546.42 -28.80 1.56 
546.58 -29.10 1.55 
545.96 -28.04 1.78 
546.20 -28.31 1.58 
546.78 -28.79 1.56 
547.12 -29.34 1.76 
548.27 -29.68 1.78 
561.59 -23.62 3.01 
561.91 -23.93 3.08 
561.34 -22.68 3.08 
561.51 -23.19 3.04 
561.63 -23.43 3.03 
561.94 -23.78 3.09 
561.53 -22.80 3.09 
561.69 -23.03 3.08 
561.49 -21.84 3.19 
561.63 -22.06 3.19 
561.77 -22.26 3.18 
562.01 -22.64 3.20 
562.18 -22.89 3.16 
562.96 -23.50 3.20 
562.50 -22.60 3.24 
548.93 -6.97 4.30 
562.82 -22.40 3.32 
565.27 -17.59 3.88 
565.53 -18.17 4.09 
565.73 -18.35 4.09 
565.35 -17.06 3.96 
565.52 -17.36 3.94 
565.87 -17.81 4.02 
566.27 -18.34 3.75 
564.83 -15.98 4.06 
564.91 -16.18 4.04 
565.42 -16.67 4.03 
565.47 -16.98 3.99 
565.82 -17.33 4.23 
566.14 -17.91 4.19 
564.86 -15.76 4.10 
565.36 -16.16 4.09 
565.46 -16.39 4.07 
565.82 -16.88 4.28 
560.08 -9.51 4.72 
559.93 -9.08 4.78 
560.29 -9.36 4.77 
560.59 -9.43 4.78 
560.14 -8.55 4.88 
560.31 -8.73 4.87 
560.51 -9.25 4.81 
560.82 -9.40 4.81 
560.98 -9.60 4.80 
545.30 -29.28 1.77 
545.34 -29.20 1.77 
545.43 -29.31 1.77 
545.62 -28.83 1.98 
545.90 -29.12 1.98 
546.18 -29.26 2.19 
546.00 -28.46 2.17 
546.40 -28.82 1.97 
546.94 -29.11 2.03 
561.63 -23.22 3.33 
561.88 -23.64 3.44 
561.41 -22.73 3.62 
561.89 -22.85 3.41 
562.28 -23.69 3.48 
561.93 -22.40 3.47 
562.07 -22.68 3.48 
562.37 -23.27 3.74 
561.80 -21.85 3.79 
565.11 -17.52 4.25 
565.16 -17.70 4.23 
565.51 -18.00 4.50 
564.47 -16.38 4.33 
564.55 -16.65 4.66 
565.04 -16.87 4.33 
565.44 -17.20 4.33 
565.57 -17.46 4.31 
565.65 -17.92 4.53 
564.98 -16.49 4.38 
565.23 -16.76 4.37 
565.40 -16.98 4.36 
565.81 -17.19 4.51 
565.86 -17.63 4.59 
565.04 -16.07 4.45 
565.14 -16.16 4.45 
565.85 -17.05 4.66 
560.22 -9.14 5.13 
560.44 -9.40 5.11 
560.58 -9.49 5.11 
560.12 -8.92 5.15 
560.43 -9.16 5.15 
560.79 -9.54 5.12 
561.08 -9.75 5.12 
560.89 -9.14 5.21 
545.49 -29.48 2.22 
561.74 -23.11 3.93 
562.29 -22.95 4.06 
562.55 -23.48 3.75 
564.95 -17.69 4.93 
564.82 -16.67 5.07 
565.00 -16.92 4.94 
565.19 -17.36 4.71 
565.27 -17.62 4.62 
564.68 -16.27 5.11 
564.89 -16.56 5.10 
565.42 -17.09 4.73 
566.11 -17.79 5.01 
565.24 -16.41 4.80 
565.52 -16.15 4.89 
560.33 -8.87 5.52 
560.44 -9.27 5.46 
561.48 -23.26 4.14 
565.38 -17.86 4.98 
564.80 -16.84 5.41 
564.84 -16.12 5.16 
565.13 -16.81 5.10 
565.43 -17.06 5.11 
566.20 -17.91 5.01 
565.65 -15.74 5.37 
562.39 -23.26 1.99 
548.81 -6.82 3.39 
548.92 -6.85 3.39 
564.93 -15.41 3.15 
563.57 -13.19 3.35 
563.81 -13.47 3.33 
563.88 -13.67 3.31 
564.15 -14.02 3.28 
564.36 -14.33 3.25 
564.67 -14.72 3.22 
564.83 -15.02 3.19 
562.71 -11.67 3.49 
562.90 -11.97 3.46 
563.11 -12.29 3.44 
563.31 -12.63 3.41 
563.51 -13.01 3.37 
563.72 -13.30 3.35 
564.02 -13.66 3.32 
562.58 -11.38 3.52 
561.43 -22.30 2.69 
561.70 -22.70 2.66 
561.85 -23.04 2.63 
562.23 -23.26 2.45 
561.33 -22.05 2.71 
562.08 -22.69 2.56 
562.39 -23.11 2.48 
548.78 -6.82 3.79 
562.06 -22.28 2.74 
562.27 -22.50 2.70 
548.89 -6.85 3.79 
565.21 -16.99 3.55 
565.31 -17.39 3.50 
565.45 -17.60 3.49 
565.18 -16.32 3.63 
565.75 -16.94 3.58 
565.92 -17.70 3.50 
565.61 -16.50 3.49 
565.93 -16.81 3.42 
559.99 -8.67 4.29 
560.11 -9.14 4.23 
560.43 -9.33 4.22 
559.96 -8.23 4.34 
560.00 -8.45 4.31 
560.47 -8.97 3.94 
560.81 -9.25 4.26 
561.34 -9.00 4.32 
544.76 -28.74 1.47 
544.91 -28.90 1.46 
544.87 -28.65 1.47 
545.28 -28.76 1.46 
545.54 -29.12 1.44 
545.76 -29.30 1.32 
545.85 -29.63 1.31 
545.39 -28.68 1.47 
545.72 -28.61 1.47 
546.05 -29.10 1.34 
546.56 -29.62 1.31 
545.82 -28.35 1.48 
546.23 -28.91 1.45 
546.41 -29.14 1.44 
546.78 -29.39 1.43 
547.07 -29.13 1.45 
547.87 -29.17 1.46 
547.99 -28.95 1.47 
548.12 -29.17 1.46 
561.21 -23.43 2.78 
561.40 -23.31 2.81 
561.89 -23.76 2.81 
562.20 -23.77 2.86 
561.23 -22.08 2.94 
561.43 -22.35 2.93 
561.67 -22.69 2.94 
561.97 -22.96 2.92 
562.13 -23.29 2.90 
562.41 -23.66 2.89 
562.66 -23.73 2.91 
562.00 -22.72 2.94 
562.41 -22.97 2.96 
548.84 -6.84 4.20 
564.70 -16.63 3.69 
565.05 -17.15 3.65 
565.69 -17.64 3.86 
565.90 -17.91 3.85 
566.16 -18.11 3.85 
565.06 -16.41 3.96 
565.73 -17.08 3.94 
565.87 -17.42 3.91 
565.95 -17.74 3.87 
565.63 -16.56 3.92 
565.73 -16.83 3.97 
565.88 -16.22 4.06 
559.76 -8.59 4.61 
559.76 -8.85 4.57 
560.12 -9.16 4.55 
560.38 -9.32 4.55 
559.74 -8.35 4.64 
560.17 -8.59 4.64 
560.24 -8.81 4.61 
560.80 -9.22 4.59 
560.97 -9.34 4.59 
561.17 -9.43 4.59 
544.91 -29.27 1.66 
545.00 -28.37 1.69 
545.72 -29.31 1.75 
545.16 -28.30 1.69 
545.39 -28.49 1.72 
545.57 -28.65 1.67 
546.07 -29.20 1.64 
546.26 -29.37 1.63 
545.35 -28.02 1.89 
546.14 -28.83 1.69 
546.06 -28.13 1.68 
546.65 -28.70 1.65 
546.76 -29.11 1.64 
561.20 -23.46 3.26 
560.69 -22.43 3.30 
561.28 -23.06 3.20 
561.55 -23.28 3.21 
561.84 -23.68 3.15 
561.35 -22.62 3.13 
561.54 -22.92 3.27 
561.84 -23.05 3.20 
561.21 -21.78 3.46 
561.68 -22.15 3.23 
561.93 -22.55 3.36 
562.03 -22.74 3.21 
562.31 -23.09 3.26 
548.83 -6.81 4.47 
562.37 -21.90 3.36 
564.83 -18.00 4.21 
564.63 -17.27 4.29 
565.00 -17.75 4.27 
565.42 -17.98 4.16 
565.18 -17.10 4.02 
565.16 -17.37 3.98 
564.77 -15.96 4.14 
564.93 -16.12 4.14 
565.08 -16.56 4.09 
565.32 -16.88 4.07 
565.88 -17.40 4.29 
565.91 -17.73 4.17 
564.79 -15.86 4.16 
564.99 -16.11 4.15 
565.29 -16.35 4.19 
565.53 -16.62 4.35 
565.97 -17.02 4.34 
559.79 -8.98 4.87 
560.06 -9.37 4.83 
560.07 -8.63 4.96 
560.40 -8.94 4.94 
560.76 -9.22 4.92 
560.90 -9.48 4.90 
545.70 -28.84 2.12 
545.99 -29.11 2.05 
545.67 -28.15 2.07 
545.87 -28.78 2.26 
546.31 -28.92 2.14 
547.16 -29.64 2.03 
561.49 -23.24 3.58 
561.17 -22.56 3.85 
562.51 -23.73 3.71 
561.91 -22.49 3.74 
562.33 -23.23 3.74 
562.42 -23.48 3.64 
561.74 -21.82 3.80 
562.03 -22.13 3.93 
562.38 -22.61 3.82 
565.05 -17.56 4.30 
564.54 -16.55 4.74 
565.03 -17.17 4.53 
565.13 -17.36 4.52 
565.52 -17.53 4.60 
565.77 -17.95 4.58 
564.56 -16.18 4.80 
564.76 -16.25 4.46 
565.06 -16.59 4.63 
565.21 -16.91 4.60 
565.58 -16.99 4.68 
565.18 -15.85 4.58 
565.42 -16.36 4.53 
565.61 -16.61 4.73 
560.25 -9.17 5.22 
560.19 -8.63 5.31 
560.29 -8.95 5.26 
560.64 -9.40 5.22 
560.86 -9.52 5.22 
560.84 -8.98 5.31 
545.11 -29.36 2.31 
561.70 -22.95 4.05 
561.75 -22.97 3.93 
562.18 -22.71 4.04 
562.00 -22.43 4.04 
564.22 -16.92 4.97 
564.71 -17.64 4.94 
564.92 -17.68 4.97 
565.13 -18.11 4.84 
564.57 -16.67 5.08 
565.11 -17.09 5.10 
565.05 -17.55 5.01 
565.87 -18.00 4.97 
564.64 -16.31 5.15 
565.07 -17.00 5.11 
565.72 -17.55 4.88 
566.08 -17.78 5.03 
565.06 -16.35 5.06 
565.51 -15.75 5.01 
560.07 -9.04 5.55 
561.57 -23.58 4.35 
564.96 -16.90 5.47 
565.71 -17.14 5.58 
566.31 -17.71 5.47 
563.61 -24.81 1.95 
549.91 -8.36 3.09 
549.94 -8.41 3.09 
550.06 -8.37 3.10 
565.30 -14.44 3.20 
565.42 -14.72 3.18 
563.34 -24.81 2.44 
563.34 -25.02 2.42 
563.54 -25.30 2.40 
562.89 -24.09 2.49 
562.99 -24.20 2.49 
563.28 -24.62 2.46 
563.59 -24.93 2.32 
549.89 -8.39 3.56 
549.93 -8.41 3.40 
563.69 -24.35 2.53 
563.78 -24.49 2.51 
549.95 -8.40 3.72 
550.04 -8.36 3.57 
566.29 -17.85 3.43 
566.49 -18.04 3.42 
560.93 -10.07 4.07 
561.11 -10.62 4.01 
561.37 -10.77 4.00 
561.02 -9.74 4.11 
561.13 -10.08 4.08 
561.43 -10.35 3.83 
561.70 -10.60 3.96 
561.94 -10.85 4.02 
561.94 -10.26 3.75 
562.63 -25.90 2.69 
562.65 -25.34 2.60 
562.75 -25.69 2.62 
562.35 -24.45 2.61 
562.75 -25.17 2.68 
562.94 -25.41 2.56 
562.80 -24.45 2.77 
562.96 -24.78 2.86 
563.33 -25.14 2.76 
563.53 -25.33 2.63 
562.58 -23.77 2.94 
562.68 -23.96 2.84 
563.08 -24.37 2.82 
563.48 -24.66 2.74 
563.67 -24.88 2.71 
563.92 -25.31 2.70 
549.85 -8.38 4.03 
563.33 -24.20 2.98 
564.00 -24.61 2.77 
564.14 -25.03 2.75 
549.98 -8.37 4.03 
566.32 -18.68 3.46 
560.85 -10.83 4.28 
560.61 -10.11 4.37 
560.75 -10.34 4.35 
561.31 -10.63 4.35 
561.08 -10.13 4.40 
561.39 -10.44 4.38 
561.57 -10.64 4.36 
562.05 -10.75 4.38 
562.42 -25.84 2.78 
562.44 -24.55 3.04 
562.99 -25.41 3.02 
563.10 -25.64 3.01 
563.12 -25.04 3.08 
563.16 -25.22 3.07 
562.90 -23.89 3.19 
563.45 -24.46 2.97 
563.72 -24.76 3.21 
563.13 -23.94 3.04 
563.37 -24.26 2.98 
563.86 -24.53 3.16 
564.30 -25.29 3.01 
549.91 -8.35 4.35 
563.89 -23.74 3.14 
563.89 -24.11 3.19 
566.29 -19.27 4.05 
566.32 -18.29 4.03 
566.34 -17.76 4.02 
566.47 -18.15 3.98 
560.69 -10.58 4.63 
560.79 -10.59 4.64 
561.03 -10.76 4.63 
561.40 -10.99 4.63 
561.40 -10.55 4.70 
561.57 -10.73 4.68 
561.92 -10.97 4.68 
562.01 -10.69 4.73 
563.10 -25.21 3.29 
563.54 -24.67 3.44 
563.84 -25.25 3.67 
564.00 -25.53 3.42 
563.23 -23.75 3.65 
563.43 -24.24 3.47 
563.54 -24.45 3.56 
563.21 -23.61 3.60 
566.15 -18.66 4.47 
566.12 -18.35 4.52 
561.32 -10.73 5.00 
561.33 -10.56 5.03 
561.86 -11.02 5.00 
561.38 -10.02 5.13 
563.28 -25.04 3.82 
563.37 -24.96 3.85 
565.92 -19.06 4.71 
566.50 -18.74 4.86 
566.26 -17.95 4.76 
566.37 -18.18 4.94 
563.98 -24.55 4.49 
566.35 -18.58 5.03 
549.82 -8.43 3.69 
564.11 -24.96 2.72 
549.92 -8.41 3.70 
564.24 -24.54 2.78 
566.22 -18.50 3.43 
566.25 -18.06 3.64 
566.37 -18.34 3.61 
560.70 -10.66 4.18 
560.69 -10.23 4.24 
560.84 -10.30 4.24 
561.16 -10.61 4.04 
561.16 -10.21 3.90 
561.47 -10.52 4.06 
561.20 -9.83 3.94 
561.79 -10.46 4.09 
561.95 -10.52 4.09 
562.32 -10.49 4.30 
549.74 -8.39 4.28 
549.86 -8.39 4.28 
564.51 -23.92 3.11 
566.39 -19.44 3.78 
566.03 -18.40 3.72 
566.26 -18.73 3.69 
566.49 -18.24 3.86 
560.57 -10.92 4.49 
560.75 -10.66 4.54 
560.99 -10.85 4.53 
561.02 -10.32 4.60 
561.78 -10.80 4.59 
561.30 -9.93 4.68 
561.84 -10.70 4.61 
562.01 -10.95 4.58 
544.67 -22.04 2.74 
549.73 -8.40 4.67 
564.08 -25.16 3.43 
564.17 -25.38 3.52 
549.82 -8.37 4.68 
565.86 -19.57 4.18 
566.20 -19.13 4.30 
566.08 -18.31 4.36 
566.22 -18.61 4.27 
566.45 -18.81 4.10 
566.09 -17.77 4.51 
566.25 -18.01 4.31 
566.41 -18.40 4.19 
566.37 -17.69 4.20 
561.25 -10.81 4.91 
561.21 -10.41 4.97 
561.39 -10.76 4.93 
561.74 -10.86 4.94 
561.97 -11.06 4.92 
561.92 -10.89 4.95 
544.14 -23.52 2.83 
544.21 -23.56 2.83 
544.42 -23.04 3.15 
544.51 -22.71 3.24 
544.42 -22.93 3.21 
565.77 -18.59 4.67 
566.20 -18.70 4.71 
566.41 -18.81 4.48 
566.09 -17.89 4.89 
566.14 -18.10 4.81 
544.38 -23.23 3.45 
544.45 -23.49 3.34 
544.34 -22.58 3.47 
544.54 -23.08 3.38 
544.63 -22.38 3.58 
565.24 -18.46 4.96 
566.03 -19.03 4.96 
566.13 -19.24 4.93 
565.88 -18.10 5.12 
565.93 -18.61 5.03 
566.11 -18.23 5.13 
544.63 -22.73 3.81 
544.61 -23.28 3.71 
544.56 -22.47 3.87 
544.69 -22.00 3.95 
544.70 -22.09 3.93 
565.97 -18.26 5.46 
549.68 -8.32 3.55 
549.79 -8.32 3.56 
557.27 -15.78 3.00 
544.56 -24.46 1.86 
544.66 -23.88 1.67 
545.13 -24.23 1.91 
545.07 -24.01 1.93 
544.90 -22.99 1.94 
545.27 -22.72 1.96 
556.26 -15.78 3.17 
556.39 -15.83 3.18 
558.00 -16.38 3.20 
558.30 -16.16 3.24 
566.10 -18.45 3.36 
566.17 -17.90 3.72 
566.33 -18.13 3.71 
560.43 -10.43 4.27 
566.20 -17.31 3.79 
560.48 -10.17 4.31 
560.78 -10.28 4.31 
560.95 -10.59 4.10 
561.22 -10.82 4.27 
560.88 -9.77 3.99 
561.03 -9.87 3.99 
561.22 -10.41 4.13 
561.51 -10.48 4.14 
560.99 -9.60 4.01 
561.67 -10.32 4.36 
561.78 -10.48 4.15 
544.98 -24.24 2.15 
544.67 -23.50 2.39 
544.98 -23.68 2.07 
545.10 -23.95 2.26 
544.95 -23.17 2.35 
545.24 -23.45 2.14 
544.49 -22.03 2.59 
545.11 -22.93 2.30 
544.98 -22.08 2.27 
549.71 -8.30 3.98 
549.83 -8.27 3.99 
556.96 -16.23 3.60 
557.60 -16.38 3.83 
557.65 -16.40 3.83 
557.61 -16.15 3.87 
558.17 -16.70 3.82 
566.20 -19.36 3.84 
566.37 -19.46 3.84 
565.93 -18.46 3.94 
566.26 -18.66 3.94 
566.30 -18.23 4.00 
560.44 -10.80 4.59 
560.57 -10.75 4.61 
566.37 -17.69 4.07 
566.37 -17.92 4.04 
560.68 -10.57 4.64 
560.99 -10.68 4.64 
561.07 -10.29 4.70 
561.26 -10.44 4.70 
561.48 -10.65 4.68 
561.83 -10.81 4.68 
561.74 -10.56 4.71 
561.92 -10.87 4.68 
545.02 -24.64 2.35 
544.31 -23.15 2.76 
544.42 -23.52 2.70 
545.06 -24.01 2.59 
543.90 -22.09 2.93 
544.06 -22.14 2.58 
544.41 -21.69 2.98 
544.90 -22.85 2.79 
545.20 -22.94 2.66 
544.67 -21.90 2.95 
549.62 -8.30 4.40 
556.98 -16.39 4.23 
557.05 -16.45 4.22 
557.24 -16.47 4.23 
565.97 -19.03 4.16 
566.12 -18.52 4.24 
566.29 -18.29 4.29 
560.83 -10.34 5.06 
561.00 -10.31 5.08 
561.31 -10.49 5.07 
561.63 -10.75 5.05 
561.77 -10.96 5.03 
561.83 -10.85 5.05 
544.06 -23.60 3.02 
544.26 -23.67 3.00 
544.70 -24.26 2.91 
544.46 -23.48 3.02 
544.79 -23.98 3.07 
545.21 -24.22 3.13 
544.88 -23.27 3.04 
545.38 -23.66 3.25 
545.08 -22.57 3.14 
545.21 -23.15 3.04 
545.14 -22.33 3.18 
545.48 -22.79 3.09 
549.63 -8.26 4.83 
549.75 -8.20 4.84 
557.33 -16.65 4.41 
564.62 -24.52 3.96 
565.74 -18.17 4.55 
566.14 -18.57 4.82 
566.22 -18.69 4.81 
566.45 -19.28 4.47 
565.97 -17.71 4.96 
566.02 -17.94 4.93 
566.42 -18.24 4.92 
544.57 -22.65 3.47 
544.54 -22.88 3.43 
544.91 -23.45 3.62 
544.53 -22.30 3.53 
544.83 -22.66 3.57 
545.29 -23.32 3.49 
556.72 -16.45 4.86 
557.43 -16.09 5.02 
564.36 -24.09 4.28 
565.76 -19.01 5.03 
566.18 -18.82 5.12 
566.24 -18.30 5.24 
544.23 -23.53 3.66 
544.26 -23.22 4.04 
544.26 -22.83 3.79 
544.62 -22.94 3.90 
544.56 -22.12 3.89 
544.68 -22.42 3.83 
544.57 -21.95 3.92 
544.85 -22.24 4.17 
545.26 -22.67 3.84 
566.22 -18.23 5.61 
544.39 -22.62 4.14 
545.13 -22.83 1.65 
549.29 -7.80 3.65 
556.49 -16.15 2.99 
556.35 -16.48 2.96 
556.64 -15.90 3.02 
556.81 -16.24 3.00 
557.21 -16.36 3.01 
557.08 -15.92 3.04 
557.38 -16.38 3.02 
557.51 -16.43 3.02 
558.18 -16.43 3.06 
557.92 -15.86 3.09 
558.37 -16.30 3.07 
560.51 -9.92 4.05 
560.37 -8.99 4.13 
560.50 -9.48 4.09 
561.06 -9.95 4.07 
544.88 -22.96 2.00 
545.26 -23.28 2.12 
544.76 -22.20 2.23 
545.11 -22.42 2.22 
545.05 -22.86 1.98 
545.51 -22.98 2.17 
555.53 -16.41 3.40 
555.87 -16.26 3.43 
555.85 -15.37 3.28 
556.11 -15.65 3.26 
556.44 -16.09 3.24 
556.70 -16.41 3.34 
557.08 -16.90 3.30 
556.21 -15.68 3.27 
556.33 -15.86 3.25 
556.72 -16.26 3.36 
557.03 -16.52 3.35 
557.25 -16.79 3.33 
557.47 -17.00 3.32 
557.31 -16.10 3.41 
557.70 -16.62 3.49 
565.73 -17.91 3.50 
566.10 -18.51 3.46 
566.26 -18.68 3.74 
565.67 -17.22 3.72 
565.82 -17.36 3.87 
566.11 -17.74 3.54 
566.31 -18.25 3.80 
566.49 -18.53 3.62 
560.24 -10.33 4.39 
566.01 -17.31 3.73 
566.37 -17.58 3.72 
566.44 -17.84 3.69 
560.30 -9.87 4.04 
560.52 -10.11 4.23 
560.83 -10.11 4.04 
560.95 -10.12 4.25 
544.46 -23.47 2.22 
544.66 -23.56 2.35 
545.14 -23.89 2.35 
544.06 -22.37 2.48 
544.78 -22.96 2.43 
545.05 -23.47 2.37 
545.34 -23.65 2.38 
544.63 -21.89 2.55 
544.85 -22.34 2.50 
545.16 -22.62 2.35 
545.40 -22.98 2.44 
549.30 -7.76 4.13 
556.93 -16.84 3.65 
556.74 -16.31 3.83 
557.06 -16.57 3.81 
557.36 -16.59 3.71 
557.10 -15.99 3.78 
557.27 -16.35 3.85 
557.58 -16.55 3.84 
557.69 -16.16 3.79 
566.07 -19.04 3.98 
565.37 -17.60 4.11 
565.75 -18.16 4.07 
566.00 -18.44 4.05 
565.81 -17.59 4.15 
565.93 -17.87 4.12 
566.33 -18.22 4.10 
566.42 -18.45 4.08 
560.16 -10.17 4.80 
565.97 -17.44 4.18 
560.24 -9.82 4.45 
560.37 -10.06 4.82 
560.73 -9.85 4.47 
561.00 -10.06 4.66 
561.23 -10.29 4.84 
561.30 -10.08 4.47 
561.49 -10.06 4.49 
544.39 -23.51 2.64 
544.72 -23.87 2.51 
544.88 -24.13 2.57 
544.45 -23.07 2.62 
544.62 -23.37 2.92 
544.79 -23.79 2.52 
545.15 -24.02 2.58 
545.06 -24.18 2.79 
544.31 -22.25 2.73 
544.59 -22.84 3.00 
544.75 -22.68 3.02 
545.19 -22.76 2.84 
544.80 -21.63 2.88 
544.78 -21.82 2.80 
545.35 -22.32 2.76 
545.97 -22.29 3.06 
549.23 -7.78 4.60 
556.28 -16.02 3.98 
557.10 -17.00 4.09 
556.49 -16.06 4.17 
556.58 -16.28 4.07 
556.92 -16.46 4.18 
557.46 -16.77 4.15 
556.97 -15.66 4.08 
565.11 -18.10 4.31 
565.86 -19.12 4.23 
566.09 -19.37 4.22 
565.56 -17.91 4.38 
565.97 -18.25 4.37 
566.25 -18.59 4.35 
565.56 -17.44 4.45 
565.79 -17.82 4.42 
565.87 -17.93 4.41 
566.29 -18.33 4.39 
566.46 -18.66 4.36 
566.50 -18.85 4.33 
566.32 -17.78 4.47 
566.35 -18.04 4.44 
560.49 -10.04 5.24 
560.68 -9.77 4.88 
560.95 -10.16 5.05 
561.05 -10.47 5.20 
561.66 -9.71 4.95 
544.01 -23.32 2.94 
544.36 -23.71 2.91 
544.32 -23.79 2.90 
544.17 -22.84 3.01 
544.79 -23.65 3.20 
545.11 -23.93 3.16 
545.09 -23.28 3.26 
545.27 -23.25 3.26 
544.91 -21.87 3.50 
546.16 -22.48 3.35 
549.18 -7.75 5.07 
556.43 -16.55 4.54 
556.98 -16.55 4.41 
556.99 -16.26 4.47 
557.19 -16.36 4.71 
565.44 -18.27 4.61 
565.52 -18.21 4.63 
565.86 -18.71 4.59 
566.38 -18.87 4.92 
565.72 -17.43 4.78 
566.12 -18.03 4.73 
566.21 -18.26 4.70 
565.42 -17.08 5.12 
565.78 -17.24 4.82 
565.95 -17.51 4.79 
566.32 -17.80 4.79 
560.78 -9.83 5.29 
544.20 -23.13 3.67 
544.25 -23.43 3.62 
544.86 -22.96 3.66 
544.61 -22.27 3.80 
544.91 -22.53 3.74 
545.08 -22.75 3.69 
544.98 -22.19 3.80 
545.13 -22.43 3.74 
557.08 -15.80 4.84 
565.69 -17.75 5.34 
566.30 -17.77 5.11 
566.47 -18.02 5.24 
544.64 -22.87 4.05 
545.40 -23.70 3.83 
544.91 -22.61 4.08 
545.24 -22.42 4.09 
544.13 -23.09 4.41 
544.27 -22.58 4.50 
544.44 -22.98 4.40 
544.25 -22.21 4.58 
545.11 -22.26 4.48 
545.38 -22.32 4.45 
544.78 -22.62 1.67 
545.14 -23.22 1.57 
549.50 -8.07 3.65 
556.42 -16.40 2.98 
556.65 -16.56 2.98 
557.10 -17.15 2.97 
556.80 -16.22 3.02 
556.99 -16.58 3.00 
557.44 -16.69 3.02 
557.11 -15.99 3.05 
557.55 -16.63 3.03 
557.73 -16.62 3.04 
557.26 -15.47 3.10 
558.05 -16.17 3.09 
558.39 -16.69 3.07 
558.12 -16.12 3.09 
558.61 -16.60 3.08 
560.68 -10.25 4.06 
560.96 -10.40 4.06 
560.62 -9.26 4.15 
561.26 -10.18 4.09 
561.47 -10.14 4.11 
544.80 -23.40 2.14 
544.84 -23.69 2.11 
545.45 -24.40 2.05 
545.12 -23.26 2.02 
545.33 -23.55 2.14 
545.36 -23.77 1.83 
544.88 -22.54 2.05 
545.09 -22.72 2.23 
545.83 -23.32 2.19 
544.88 -21.88 2.13 
545.82 -23.19 2.20 
555.82 -16.69 3.43 
556.09 -16.64 3.45 
556.76 -16.45 3.25 
556.44 -15.85 3.43 
556.94 -16.42 3.39 
557.17 -16.71 3.50 
557.49 -17.11 3.23 
557.77 -17.33 3.34 
557.95 -16.91 3.52 
565.96 -18.14 3.54 
566.30 -18.69 3.50 
565.88 -17.49 3.76 
566.07 -17.73 3.74 
566.24 -18.09 3.87 
566.50 -18.35 3.85 
566.28 -17.55 3.77 
546.64 -29.27 1.91 
544.41 -23.21 2.45 
545.12 -23.99 2.38 
544.86 -22.57 2.42 
545.61 -22.63 2.43 
545.54 -22.26 2.47 
556.69 -17.09 3.67 
556.92 -17.53 3.62 
549.48 -8.07 4.14 
557.26 -17.43 3.65 
557.26 -17.59 3.63 
556.56 -16.06 3.81 
556.85 -16.46 3.77 
557.36 -16.20 3.83 
557.58 -16.63 3.78 
557.83 -16.85 3.77 
557.81 -16.50 3.82 
558.13 -16.38 3.85 
566.20 -19.36 4.00 
565.55 -17.82 4.15 
566.01 -18.35 4.12 
566.05 -18.67 4.08 
566.02 -17.84 4.19 
566.16 -18.06 4.17 
566.37 -18.45 4.13 
560.58 -10.53 4.43 
566.18 -17.73 4.22 
566.46 -18.02 4.20 
560.10 -9.74 4.50 
560.42 -10.08 4.47 
560.87 -10.09 4.50 
561.16 -10.27 4.49 
561.71 -10.29 4.52 
546.31 -29.50 2.16 
544.54 -23.86 2.69 
545.14 -24.38 2.62 
544.79 -23.84 2.69 
545.36 -24.11 2.94 
544.44 -22.59 2.78 
544.66 -23.12 2.71 
545.57 -24.26 2.92 
544.80 -22.63 2.78 
545.87 -24.00 2.94 
544.55 -21.59 2.95 
544.79 -21.97 2.93 
545.29 -22.64 2.78 
545.84 -23.24 2.76 
546.11 -22.99 2.79 
549.44 -8.06 4.63 
556.49 -16.35 4.29 
556.71 -16.72 4.23 
557.12 -17.01 3.95 
556.70 -16.11 4.35 
556.94 -16.59 4.14 
557.30 -16.78 4.06 
557.49 -16.75 4.01 
557.81 -16.77 4.03 
565.75 -18.15 4.43 
565.88 -18.24 4.42 
566.25 -18.76 4.38 
565.67 -17.75 4.48 
565.91 -18.03 4.46 
566.10 -18.21 4.45 
566.35 -18.50 4.43 
566.43 -18.13 4.49 
560.52 -10.14 4.89 
560.64 -10.19 4.89 
560.81 -10.64 4.83 
560.94 -10.21 4.90 
561.22 -10.43 4.89 
561.55 -10.59 4.89 
560.98 -9.76 4.97 
546.69 -28.69 2.80 
543.88 -23.22 3.07 
544.59 -24.13 2.96 
544.14 -22.70 3.15 
544.25 -23.04 3.10 
544.43 -23.03 3.09 
544.62 -23.72 3.01 
545.33 -24.26 3.21 
543.99 -21.95 3.27 
544.67 -22.67 3.15 
544.71 -22.80 3.12 
544.99 -23.51 3.37 
545.26 -23.66 3.15 
545.43 -24.12 3.23 
544.61 -22.11 3.23 
545.18 -22.36 3.19 
556.42 -17.01 4.66 
549.34 -8.04 5.12 
549.45 -8.00 5.13 
557.02 -17.14 4.41 
556.72 -16.58 4.52 
557.39 -16.77 4.51 
557.53 -16.68 4.80 
565.53 -18.50 4.65 
565.84 -18.31 4.71 
566.03 -18.97 4.62 
566.44 -19.01 4.66 
566.21 -18.24 4.76 
566.43 -18.55 4.81 
565.95 -17.55 4.85 
566.04 -17.70 4.84 
560.68 -10.33 5.28 
560.93 -10.18 5.32 
561.00 -10.32 5.31 
546.82 -29.65 2.93 
544.30 -23.00 3.48 
544.41 -22.42 3.57 
544.35 -22.77 3.51 
544.32 -22.08 3.63 
545.33 -22.93 3.81 
545.62 -23.53 3.59 
545.50 -22.92 3.81 
556.53 -16.38 4.82 
557.23 -16.06 4.93 
557.31 -15.95 4.97 
565.83 -18.24 5.33 
566.04 -18.29 5.35 
544.23 -22.62 3.93 
544.64 -22.47 3.93 
545.57 -23.83 3.83 
544.49 -21.72 4.08 
545.13 -22.31 4.31 
544.42 -23.71 4.27 
544.43 -22.66 4.30 
544.79 -22.04 4.39 
545.13 -22.41 4.41 
545.51 -22.38 4.38 
543.75 -22.75 4.73 
544.09 -22.23 4.80 
544.25 -22.07 4.82 
544.96 -22.69 1.73 
545.03 -22.62 1.74 
549.05 -7.68 3.74 
556.12 -16.33 3.02 
549.17 -7.62 3.75 
556.32 -15.99 3.06 
556.50 -16.22 3.05 
556.66 -16.60 3.03 
556.67 -15.80 3.09 
556.92 -16.11 3.08 
557.10 -16.24 3.09 
556.73 -15.62 3.11 
557.33 -16.22 3.10 
558.04 -16.23 3.14 
557.74 -15.68 3.16 
558.19 -16.21 3.15 
560.32 -9.87 4.17 
560.52 -9.89 4.18 
560.16 -9.16 4.23 
560.82 -9.76 4.21 
561.14 -9.63 4.24 
561.34 -9.42 4.27 
561.46 -9.53 4.27 
544.38 -23.39 2.03 
544.50 -23.35 2.04 
544.11 -21.82 2.38 
544.71 -22.80 2.18 
544.88 -23.15 1.92 
555.61 -16.16 3.60 
556.09 -15.68 3.37 
556.31 -16.16 3.49 
556.52 -16.59 3.60 
555.96 -15.25 3.73 
556.25 -15.55 3.71 
556.53 -16.02 3.37 
556.70 -16.20 3.50 
565.89 -18.21 3.95 
565.55 -17.30 3.71 
565.58 -17.59 3.69 
566.26 -18.32 3.80 
566.44 -18.45 3.80 
565.98 -17.36 3.73 
566.48 -17.92 4.02 
546.66 -29.61 1.89 
546.84 -29.09 2.08 
546.98 -29.27 2.05 
543.75 -21.80 2.74 
544.65 -22.75 2.64 
544.89 -23.24 2.46 
544.53 -21.45 2.80 
545.17 -22.14 2.73 
548.92 -7.62 4.28 
549.08 -7.64 4.29 
556.37 -16.11 3.94 
556.45 -16.13 3.94 
556.64 -16.23 3.94 
557.02 -15.62 4.05 
557.35 -16.23 3.98 
557.53 -16.53 3.94 
557.69 -15.98 4.03 
565.39 -17.92 4.26 
565.88 -18.69 4.19 
565.68 -17.91 4.28 
565.96 -17.84 4.31 
559.93 -10.03 4.58 
560.13 -10.12 4.58 
565.58 -16.76 4.43 
566.04 -17.56 4.36 
566.16 -17.87 4.32 
566.47 -17.95 4.33 
560.03 -9.55 4.64 
560.29 -9.78 4.63 
560.52 -9.96 4.62 
565.91 -16.75 4.46 
560.45 -9.48 4.67 
560.81 -9.83 4.65 
561.06 -9.99 4.65 
561.31 -9.76 4.69 
546.32 -28.76 2.25 
547.03 -28.78 2.25 
547.62 -29.12 2.46 
543.81 -23.41 2.90 
544.13 -23.30 2.91 
544.94 -23.84 2.77 
544.67 -22.85 2.91 
545.08 -23.54 2.88 
545.06 -22.63 2.94 
545.41 -22.37 2.98 
545.51 -22.25 3.03 
548.98 -7.63 4.82 
556.45 -16.22 4.23 
556.77 -16.78 4.29 
556.48 -15.87 4.29 
556.67 -16.23 4.24 
557.09 -16.39 4.23 
557.26 -16.61 4.20 
565.26 -17.54 4.61 
566.03 -17.92 4.62 
566.21 -18.34 4.57 
566.38 -18.51 4.56 
566.22 -17.80 4.66 
560.21 -9.67 5.09 
560.46 -9.91 5.07 
560.41 -9.70 5.09 
560.73 -9.82 5.10 
560.97 -10.02 5.08 
561.17 -10.04 5.09 
546.97 -29.36 2.75 
547.24 -29.10 2.89 
547.40 -29.55 2.65 
544.41 -23.29 3.25 
544.62 -23.50 3.22 
544.52 -22.72 3.34 
545.27 -23.59 3.20 
545.34 -23.76 3.17 
545.23 -22.87 3.31 
545.16 -22.10 3.43 
545.27 -22.30 3.40 
545.40 -22.14 3.42 
545.94 -22.26 3.40 
556.41 -16.16 4.54 
556.89 -16.35 4.52 
556.77 -15.83 4.78 
557.12 -16.26 4.85 
565.56 -18.72 4.75 
565.87 -18.60 4.81 
565.27 -17.20 4.99 
565.67 -17.70 4.94 
565.75 -18.10 4.88 
566.12 -18.50 4.85 
565.48 -17.07 5.04 
565.60 -17.10 5.04 
565.93 -17.75 4.96 
566.12 -17.81 4.97 
566.46 -18.30 4.92 
543.94 -23.31 3.62 
544.16 -22.99 3.72 
544.67 -22.16 3.84 
544.69 -22.48 3.79 
545.54 -23.40 3.60 
544.84 -21.98 3.87 
544.91 -22.11 3.84 
566.12 -17.85 5.29 
544.27 -22.61 4.20 
544.78 -22.37 4.22 
545.10 -22.86 4.11 
543.93 -23.01 4.57 
544.19 -22.32 4.69 
544.39 -22.88 4.56 
544.46 -23.08 4.52 
544.21 -22.18 4.71 
544.65 -22.77 4.57 
544.80 -21.81 4.53 
545.06 -22.05 4.68 
543.94 -22.95 5.01 
544.35 -22.75 5.01 
544.42 -22.21 5.12 
544.80 -22.54 1.77 
556.54 -16.74 3.03 
549.49 -8.03 3.76 
556.39 -16.38 3.05 
556.54 -16.68 3.03 
556.71 -16.11 3.09 
556.98 -16.51 3.07 
556.96 -15.82 3.12 
557.31 -16.33 3.11 
557.75 -16.61 3.11 
558.02 -16.09 3.17 
558.32 -16.66 3.14 
558.45 -16.78 3.14 
558.14 -16.06 3.18 
558.54 -16.64 3.16 
560.62 -10.22 4.20 
560.86 -10.27 4.20 
560.44 -9.52 4.25 
561.17 -10.12 4.24 
561.54 -9.85 4.28 
561.69 -9.80 4.30 
561.82 -9.87 4.30 
544.24 -23.16 2.10 
544.47 -23.80 1.86 
544.39 -22.82 2.05 
544.30 -23.07 2.12 
544.84 -23.69 2.08 
544.99 -22.85 1.99 
544.98 -23.32 2.30 
545.36 -23.66 2.28 
544.71 -22.07 2.34 
544.82 -22.50 2.21 
556.62 -16.96 3.62 
556.85 -17.22 3.60 
556.40 -16.11 3.39 
556.75 -16.85 3.49 
557.08 -17.01 3.64 
556.59 -16.07 3.40 
557.03 -16.54 3.54 
557.32 -16.81 3.68 
557.43 -16.53 3.41 
557.12 -15.56 3.48 
565.62 -18.56 3.95 
565.67 -18.63 3.95 
565.71 -18.28 3.84 
565.99 -18.55 3.98 
566.07 -19.03 3.93 
565.85 -17.58 3.76 
566.12 -18.07 3.72 
565.97 -17.62 3.76 
546.69 -29.48 1.81 
547.48 -29.67 2.11 
547.83 -29.06 2.19 
547.90 -28.86 2.21 
548.04 -28.79 2.22 
548.19 -28.62 2.25 
544.35 -23.29 2.53 
544.69 -23.42 2.64 
544.78 -22.99 2.58 
544.93 -23.25 2.61 
544.77 -22.50 2.64 
545.10 -22.13 2.70 
545.60 -22.44 2.79 
545.57 -22.67 2.76 
549.34 -8.07 4.31 
549.47 -8.02 4.32 
556.68 -16.48 4.00 
556.98 -16.50 4.01 
557.21 -16.74 3.99 
557.21 -16.01 4.09 
557.71 -16.73 4.01 
565.69 -18.38 4.29 
560.22 -10.50 4.60 
565.85 -17.13 4.48 
560.54 -10.12 4.67 
560.78 -10.47 4.64 
561.09 -10.16 4.69 
561.41 -10.48 4.67 
561.43 -10.22 4.70 
546.59 -29.33 2.48 
546.44 -28.96 2.53 
546.44 -29.07 2.52 
547.15 -29.49 2.44 
547.36 -29.23 2.29 
547.33 -29.45 2.44 
547.66 -28.90 2.51 
547.77 -29.32 2.45 
544.30 -23.99 2.93 
547.81 -28.68 2.54 
544.54 -23.76 2.96 
544.55 -23.65 2.97 
544.81 -23.79 2.89 
544.49 -22.54 3.07 
544.92 -23.25 3.00 
544.79 -22.55 3.09 
545.10 -22.63 3.11 
545.49 -23.14 3.04 
