# .PCD v0.7 - Point Cloud Data file format
VERSION 0.7
FIELDS x y z
SIZE 4 4 4
TYPE F F F
COUNT 1 1 1
WIDTH 453
HEIGHT 1
VIEWPOINT 0 0 0 1 0 0 0
POINTS 453
DATA ascii
542.50 50.99 9.52 
543.39 51.12 8.91 
548.31 47.15 10.00 
542.40 50.01 8.93 
544.18 47.47 8.55 
544.82 47.48 8.59 
544.63 48.12 8.68 
543.26 50.47 8.94 
544.45 47.65 8.65 
544.66 47.41 8.63 
543.73 45.45 9.37 
543.89 45.95 9.46 
545.53 45.42 9.51 
544.09 47.52 8.65 
544.65 47.53 8.68 
544.48 48.24 8.78 
543.10 50.54 9.04 
543.42 51.26 9.17 
544.63 50.96 9.20 
545.45 45.52 9.54 
546.97 45.74 9.70 
547.21 45.50 9.68 
546.85 46.88 9.88 
544.65 47.41 8.76 
544.68 47.86 8.83 
544.57 48.13 8.86 
542.72 50.93 9.18 
543.09 50.77 9.18 
544.60 50.86 9.28 
545.05 50.79 9.30 
541.56 46.32 9.44 
544.23 45.36 9.49 
544.84 46.63 9.75 
546.51 45.45 9.69 
546.99 45.40 9.72 
545.31 47.34 9.91 
545.38 47.47 9.93 
545.04 45.37 10.66 
542.61 45.47 8.60 
544.23 47.49 8.81 
544.64 47.44 8.83 
544.46 48.14 8.92 
543.00 50.72 9.22 
543.12 50.44 9.19 
541.98 51.56 9.29 
543.84 50.68 9.27 
543.46 51.23 9.33 
544.99 50.38 9.29 
544.56 50.91 9.35 
545.24 51.09 9.42 
543.90 45.48 9.54 
542.93 47.04 9.73 
545.47 45.46 9.67 
546.27 46.15 9.85 
546.69 45.65 9.80 
544.39 47.96 10.00 
546.66 46.88 10.00 
546.10 45.81 10.90 
544.06 47.46 8.86 
544.87 46.87 8.82 
544.74 47.17 9.05 
544.38 48.13 8.99 
544.73 47.66 8.94 
542.55 50.95 9.31 
543.05 50.51 9.27 
542.06 51.39 9.35 
542.35 51.19 9.33 
542.97 50.91 9.33 
543.86 50.90 9.38 
544.47 50.98 9.43 
545.02 50.64 9.41 
545.04 51.14 9.49 
546.57 45.69 9.86 
546.81 45.44 9.84 
543.27 48.36 10.04 
548.32 46.20 10.08 
544.63 45.45 11.83 
544.00 47.42 8.93 
544.83 46.83 8.90 
543.34 46.39 8.92 
545.43 46.12 9.01 
544.34 48.14 9.07 
542.36 50.73 9.35 
542.99 50.45 9.34 
542.00 51.37 9.42 
542.29 51.18 9.41 
542.50 50.97 9.39 
542.91 50.93 9.41 
543.05 50.60 9.37 
543.64 50.68 9.42 
544.37 50.99 9.51 
544.89 50.62 9.48 
544.73 50.95 9.52 
543.06 45.55 9.62 
542.85 46.99 9.85 
546.40 45.64 9.91 
546.70 45.47 9.90 
544.17 47.39 10.02 
546.60 45.74 9.94 
541.96 51.22 10.51 
542.58 45.33 10.59 
546.10 45.67 10.99 
542.63 45.31 11.63 
543.68 45.90 11.87 
546.38 45.36 12.07 
546.98 45.45 12.16 
543.84 48.14 13.47 
542.54 45.44 8.65 
544.23 47.22 9.03 
545.25 46.49 8.98 
544.54 47.94 9.16 
543.40 50.10 9.43 
542.19 51.21 9.53 
542.51 51.08 9.53 
542.67 50.72 9.49 
543.11 50.51 9.48 
543.21 50.31 9.45 
542.36 51.34 9.56 
544.07 50.39 9.52 
544.92 50.84 9.64 
545.36 50.33 9.58 
545.33 50.78 9.65 
541.77 46.25 9.75 
543.32 45.33 9.72 
543.30 46.16 9.86 
543.91 47.69 10.17 
546.66 45.50 10.01 
545.27 47.20 10.19 
542.55 49.42 10.37 
543.63 48.74 10.33 
546.72 46.62 10.20 
541.79 50.62 10.52 
542.62 46.16 10.85 
546.14 45.33 11.03 
543.75 45.95 11.99 
542.79 46.74 12.05 
543.89 47.48 9.07 
544.90 46.73 9.02 
542.28 51.15 9.55 
542.49 50.77 9.50 
542.87 50.66 9.51 
543.06 50.39 9.48 
542.03 51.48 9.59 
542.81 51.09 9.57 
543.66 50.64 9.55 
543.28 51.22 9.62 
545.05 50.76 9.65 
544.58 51.25 9.70 
544.99 51.21 9.72 
543.77 45.45 9.79 
545.40 45.35 9.90 
544.59 46.68 10.06 
546.58 45.61 10.03 
545.79 46.53 10.13 
542.98 49.14 10.37 
546.44 46.75 10.22 
546.51 46.88 10.24 
542.76 46.01 10.85 
543.58 46.27 12.04 
546.05 45.75 12.21 
546.56 46.68 12.46 
543.80 45.50 12.98 
542.67 48.44 13.51 
543.79 47.54 9.15 
544.84 46.91 9.12 
545.21 46.84 9.13 
542.41 51.03 9.62 
542.47 50.57 9.55 
542.90 50.60 9.58 
543.12 50.35 9.55 
542.06 51.67 9.70 
542.32 51.47 9.68 
543.74 50.62 9.63 
544.51 50.99 9.73 
544.81 50.63 9.69 
544.98 50.49 9.68 
544.59 51.15 9.76 
546.64 51.51 9.94 
541.61 46.32 9.85 
544.16 47.46 10.24 
546.08 46.21 10.17 
546.44 46.67 10.28 
542.96 49.19 10.45 
546.39 47.00 10.33 
541.51 50.81 10.63 
543.76 49.48 10.56 
541.61 47.08 11.03 
541.92 47.07 11.05 
542.84 46.19 10.97 
545.73 45.80 11.16 
542.18 46.31 11.97 
542.45 46.17 11.97 
542.22 46.77 12.07 
543.35 46.23 12.08 
545.58 45.97 12.27 
546.12 46.09 12.35 
546.37 45.63 12.28 
546.86 45.47 12.31 
544.32 47.41 12.43 
542.74 46.33 13.10 
543.20 45.94 13.07 
543.87 45.40 13.02 
543.04 46.29 13.13 
544.21 46.22 13.25 
543.44 47.25 13.40 
543.13 47.87 13.50 
543.01 48.22 13.57 
542.59 45.33 8.84 
542.54 45.68 8.89 
543.84 47.38 9.23 
542.09 45.50 9.00 
545.43 46.01 9.29 
544.48 47.22 9.41 
544.73 47.04 9.40 
545.24 47.95 9.57 
542.52 50.85 9.70 
542.98 50.40 9.65 
544.92 49.17 9.57 
541.90 51.71 9.79 
542.17 51.53 9.78 
542.45 51.43 9.78 
542.92 50.92 9.73 
543.56 50.62 9.72 
545.09 49.15 9.75 
542.69 51.71 9.84 
543.84 50.53 9.72 
542.47 52.06 9.88 
542.95 51.58 9.83 
544.74 50.42 9.76 
544.05 51.41 9.87 
544.68 51.12 9.87 
544.07 51.98 9.96 
544.59 51.49 9.92 
542.37 45.79 10.04 
542.40 46.22 10.12 
542.61 47.21 10.18 
544.35 46.04 10.24 
541.73 46.96 11.12 
541.77 46.22 11.07 
543.74 45.73 11.16 
543.89 45.54 11.14 
544.94 45.51 11.13 
543.72 46.65 11.33 
546.31 45.70 11.41 
546.45 46.34 11.43 
542.49 46.35 12.11 
542.68 46.10 12.08 
542.29 47.01 12.23 
543.49 46.09 12.16 
543.90 47.11 12.49 
543.28 45.79 13.14 
543.29 46.19 13.23 
542.37 48.06 13.56 
543.00 47.84 13.58 
543.39 47.33 13.51 
542.41 45.31 8.88 
542.35 45.73 8.94 
542.58 45.61 8.93 
544.93 46.64 9.23 
541.71 46.01 9.10 
542.21 45.44 9.04 
545.47 45.39 9.24 
543.81 48.05 9.55 
545.77 47.46 9.58 
542.98 50.45 9.72 
546.24 47.75 9.49 
542.50 50.92 9.76 
542.78 50.76 9.75 
544.93 49.26 9.64 
546.33 48.31 9.58 
543.54 50.63 9.78 
543.84 50.57 9.79 
544.79 50.46 9.82 
544.71 51.22 9.94 
546.16 51.49 10.07 
542.00 45.88 10.07 
542.31 45.80 10.08 
543.69 45.89 10.08 
544.35 45.35 10.17 
544.70 45.36 10.19 
544.61 46.12 10.32 
546.38 45.78 10.40 
545.77 47.01 10.43 
546.28 47.10 10.49 
542.31 46.04 11.04 
543.52 47.05 11.43 
542.41 46.28 12.15 
542.35 47.03 12.30 
543.16 46.52 12.27 
541.84 47.93 12.45 
546.04 46.17 12.50 
542.53 45.64 13.07 
543.70 45.60 13.20 
544.20 46.31 13.42 
544.58 46.30 13.46 
543.04 47.89 13.66 
543.38 47.29 13.55 
545.56 46.65 8.51 
544.20 47.88 8.61 
542.78 49.55 8.78 
543.66 50.18 8.90 
542.59 45.65 9.05 
544.66 45.36 9.13 
544.72 45.97 9.23 
544.85 46.64 9.34 
544.14 45.38 9.26 
545.38 45.88 9.41 
544.73 46.98 9.54 
542.22 49.20 9.74 
544.22 48.70 9.78 
544.23 49.60 9.77 
544.81 49.38 9.77 
544.69 49.71 9.81 
544.35 50.47 9.91 
544.79 50.53 9.95 
541.82 45.42 9.97 
542.01 45.42 10.10 
542.57 45.43 10.03 
542.14 46.09 10.23 
543.57 45.55 10.24 
544.23 45.86 10.35 
544.74 45.95 10.28 
543.29 47.45 10.55 
545.95 46.78 10.64 
543.55 46.19 11.30 
544.35 45.42 11.30 
543.07 47.07 11.50 
544.37 45.80 11.38 
544.21 47.49 11.69 
542.32 45.43 12.07 
542.18 46.37 12.26 
542.28 46.98 12.41 
541.62 47.72 12.51 
543.09 47.13 12.52 
543.61 47.35 12.62 
543.93 47.13 12.64 
543.18 46.11 13.38 
543.67 45.65 13.32 
544.15 48.03 13.94 
544.22 47.75 8.56 
544.27 49.38 8.99 
542.58 45.49 9.18 
542.83 45.33 9.17 
544.72 45.86 9.36 
542.12 45.45 9.30 
542.44 47.25 9.60 
543.49 46.74 9.58 
545.41 45.71 9.54 
543.45 47.66 9.73 
546.49 46.54 9.73 
543.97 48.87 9.95 
546.49 47.01 9.81 
541.93 45.82 10.32 
542.50 47.31 10.63 
543.64 46.83 10.63 
542.09 49.33 10.96 
542.70 48.62 10.88 
544.07 47.79 10.83 
541.64 45.94 11.25 
541.85 45.80 11.24 
544.01 47.20 11.77 
543.89 47.45 11.80 
543.86 47.99 11.91 
542.02 46.46 12.44 
543.46 45.44 12.35 
542.83 46.13 12.44 
543.07 45.94 12.42 
543.11 47.68 12.81 
543.36 47.44 12.78 
542.61 46.23 8.56 
543.54 46.93 8.70 
541.52 49.43 8.96 
545.60 47.23 8.84 
544.69 45.54 9.40 
544.86 45.84 9.46 
541.89 45.55 9.39 
542.17 45.53 9.40 
542.28 45.60 9.42 
541.68 47.27 9.66 
542.41 46.37 9.55 
544.31 45.39 9.51 
542.48 47.42 9.73 
545.29 45.75 9.63 
547.84 46.25 9.70 
541.71 45.70 10.37 
541.99 45.69 10.39 
541.76 46.27 10.48 
543.18 45.83 10.50 
541.55 47.51 10.69 
541.89 47.06 10.63 
542.69 47.18 10.71 
541.95 48.67 10.93 
543.97 47.84 10.93 
544.52 47.14 10.84 
544.26 47.81 10.94 
543.81 45.61 11.52 
544.45 45.45 11.55 
544.06 45.83 11.59 
543.79 47.48 11.90 
543.20 45.84 12.52 
541.85 46.16 8.80 
543.09 46.50 8.91 
544.13 46.40 8.94 
544.77 47.22 9.09 
543.06 49.83 9.39 
541.79 46.03 9.75 
541.91 45.65 9.70 
542.10 45.46 9.67 
541.64 46.87 9.88 
543.85 46.90 10.02 
544.72 47.63 10.19 
541.80 45.96 10.72 
541.83 46.80 10.88 
541.82 47.63 11.04 
543.40 46.76 10.99 
543.21 47.54 11.12 
543.77 47.84 11.21 
542.02 46.64 11.88 
543.31 45.49 11.75 
543.78 46.03 11.90 
543.97 45.80 11.87 
544.79 46.41 12.07 
543.80 47.41 12.19 
542.06 46.08 8.96 
543.00 45.39 8.91 
543.16 48.47 9.37 
543.09 49.46 9.51 
543.38 49.44 9.52 
541.92 45.76 9.88 
543.89 49.58 10.64 
541.51 46.03 10.89 
541.62 46.88 11.05 
542.34 46.36 11.01 
541.69 48.09 11.29 
543.66 47.24 11.27 
544.31 47.21 11.32 
543.73 46.23 12.12 
544.38 45.57 12.04 
543.75 47.28 12.34 
541.67 46.65 9.15 
541.89 45.75 10.01 
542.28 51.05 10.92 
542.52 46.20 11.13 
542.87 46.21 11.15 
541.96 47.66 11.36 
542.98 48.03 12.57 
541.55 46.94 11.40 
542.76 46.65 11.43 
541.91 51.39 11.21 
542.04 46.27 11.36 
545.36 46.13 9.36 
543.56 46.33 9.38 
544.06 48.32 10.01 
