# .PCD v0.7 - Point Cloud Data file format
VERSION 0.7
FIELDS x y z
SIZE 4 4 4
TYPE F F F
COUNT 1 1 1
WIDTH 2371
HEIGHT 1
VIEWPOINT 0 0 0 1 0 0 0
POINTS 2371
DATA ascii
575.87 -80.14 1.73 
577.09 -81.82 1.41 
577.22 -82.04 1.39 
575.96 -79.84 1.75 
576.53 -80.09 1.56 
576.96 -80.54 1.72 
577.32 -80.08 1.66 
582.22 -86.43 1.44 
582.75 -87.15 1.40 
582.94 -87.52 1.65 
578.31 -80.64 1.87 
578.54 -81.26 1.69 
581.79 -85.16 1.77 
583.00 -86.72 1.68 
583.09 -87.20 1.40 
583.32 -87.34 1.40 
582.35 -85.53 1.74 
582.76 -85.89 1.55 
582.98 -86.47 1.44 
583.16 -86.71 1.43 
583.86 -87.32 1.65 
584.07 -87.44 1.64 
582.93 -85.60 1.48 
583.52 -86.27 1.69 
590.38 -90.23 1.75 
590.32 -89.50 1.93 
590.56 -89.78 1.96 
590.67 -89.92 1.83 
591.02 -89.83 1.96 
591.41 -89.68 1.80 
583.88 -95.23 1.19 
584.36 -95.36 1.21 
584.28 -95.59 1.20 
590.00 -103.26 0.90 
584.30 -94.92 1.21 
590.20 -102.80 0.93 
585.14 -95.10 1.24 
584.97 -94.38 1.59 
585.37 -94.95 1.61 
585.97 -95.52 1.27 
586.16 -95.78 1.27 
576.63 -82.21 1.74 
584.94 -93.91 1.59 
585.27 -94.15 1.60 
585.52 -94.32 1.61 
585.85 -94.75 1.44 
586.03 -95.09 1.45 
586.37 -95.35 1.64 
577.03 -82.64 1.93 
586.06 -94.55 1.62 
586.28 -94.96 1.63 
586.58 -94.90 1.64 
576.65 -80.95 2.04 
577.06 -81.42 1.81 
576.04 -79.72 1.97 
576.31 -79.97 2.11 
576.37 -80.35 2.09 
576.70 -80.56 2.07 
577.22 -81.48 1.80 
581.27 -86.66 2.00 
581.74 -87.66 1.95 
576.87 -80.04 1.93 
576.92 -80.15 1.92 
577.21 -80.62 1.97 
577.71 -81.26 2.02 
577.91 -81.47 2.00 
581.66 -86.46 1.85 
582.29 -87.47 1.66 
582.71 -87.98 1.91 
577.31 -80.09 2.28 
578.09 -80.82 2.05 
578.08 -81.37 2.01 
578.58 -81.68 1.99 
578.59 -81.98 1.97 
581.81 -86.13 1.99 
582.87 -87.82 1.91 
578.82 -81.54 2.00 
578.92 -81.65 1.99 
582.73 -86.62 1.94 
583.02 -87.09 1.92 
582.66 -85.65 1.97 
582.70 -86.21 1.95 
583.16 -86.71 1.92 
583.30 -86.90 1.92 
583.79 -87.49 2.14 
582.45 -84.88 2.26 
582.44 -85.04 2.26 
583.11 -85.93 1.95 
584.02 -86.87 2.13 
583.08 -84.65 2.00 
589.35 -89.96 2.34 
589.57 -89.97 2.35 
589.74 -89.40 2.11 
589.95 -89.36 2.11 
590.05 -89.43 2.12 
590.49 -89.89 2.16 
590.68 -89.94 2.38 
590.95 -89.62 2.37 
591.24 -89.83 2.20 
591.29 -89.91 2.21 
590.45 -88.21 2.23 
591.47 -89.64 2.20 
583.54 -94.85 1.56 
583.69 -94.91 1.57 
583.88 -95.06 1.57 
584.82 -95.06 1.78 
585.15 -95.25 1.97 
585.38 -95.41 1.98 
576.26 -82.68 2.31 
586.01 -95.57 1.99 
575.45 -81.01 2.25 
575.77 -81.11 2.23 
585.91 -95.28 1.98 
586.02 -95.32 1.99 
576.43 -81.92 2.35 
577.19 -82.48 2.30 
585.84 -94.22 1.95 
576.71 -81.23 2.19 
577.27 -82.12 2.32 
576.31 -79.92 2.48 
576.16 -80.24 2.30 
576.40 -79.76 2.49 
577.22 -80.63 2.41 
577.95 -81.59 2.33 
580.94 -85.77 2.33 
581.51 -86.08 2.29 
582.35 -86.77 2.35 
583.23 -87.79 2.17 
583.14 -88.05 2.44 
582.40 -86.04 2.23 
582.40 -86.28 2.23 
582.85 -86.66 2.19 
583.28 -87.55 2.16 
583.40 -87.85 2.16 
581.76 -84.98 2.57 
582.26 -85.38 2.36 
582.70 -85.82 2.22 
582.77 -86.37 2.33 
583.11 -86.85 2.18 
583.79 -87.75 2.39 
582.34 -84.93 2.52 
582.77 -85.62 2.47 
583.02 -85.83 2.44 
583.60 -86.41 2.39 
583.89 -86.89 2.37 
583.90 -87.15 2.37 
591.32 -91.00 2.50 
583.81 -94.82 1.94 
584.09 -95.09 1.95 
584.29 -94.87 2.32 
584.42 -95.07 2.20 
584.72 -94.99 2.32 
585.39 -95.55 2.35 
585.25 -95.16 2.33 
575.82 -81.39 2.59 
575.94 -81.48 2.58 
575.97 -81.25 2.59 
581.16 -85.80 2.60 
581.72 -87.10 2.53 
581.32 -85.90 2.58 
582.17 -87.04 2.50 
583.96 -94.94 2.32 
584.27 -95.08 2.33 
585.09 -94.97 2.68 
575.99 -81.53 2.96 
589.45 -102.42 0.44 
589.74 -102.37 0.47 
589.95 -101.98 0.50 
590.07 -102.11 0.51 
590.49 -102.37 0.52 
585.34 -94.80 0.59 
590.72 -102.37 0.54 
590.95 -102.33 0.56 
591.21 -102.63 0.56 
576.65 -81.70 1.31 
575.57 -79.94 1.41 
577.06 -81.98 1.31 
576.81 -80.24 1.44 
583.24 -84.92 1.36 
589.59 -89.28 1.51 
589.76 -89.31 1.52 
590.04 -89.59 1.53 
590.55 -90.38 1.55 
589.97 -89.29 1.53 
590.29 -89.56 1.54 
590.48 -89.67 1.55 
590.97 -89.57 1.58 
591.16 -89.46 1.67 
591.34 -89.67 1.59 
583.52 -94.78 0.85 
583.83 -94.59 0.87 
584.09 -95.08 0.86 
584.47 -95.57 0.86 
589.91 -102.88 0.94 
590.01 -103.02 0.94 
585.56 -96.28 0.88 
585.60 -96.35 0.88 
590.08 -102.75 0.95 
590.18 -103.07 0.95 
584.97 -95.00 0.90 
590.40 -102.52 0.98 
575.60 -81.67 1.48 
585.25 -94.78 1.09 
586.12 -95.72 0.93 
590.88 -102.52 1.02 
591.08 -102.88 1.02 
575.81 -81.45 1.50 
576.48 -82.36 1.44 
585.83 -94.95 1.28 
585.90 -95.21 1.28 
576.62 -81.84 1.48 
577.05 -82.53 1.54 
576.91 -81.70 1.70 
576.67 -80.65 1.68 
577.25 -79.84 1.85 
577.33 -80.22 1.65 
582.53 -87.14 1.47 
582.91 -87.50 1.72 
577.38 -79.71 1.78 
578.24 -80.50 1.81 
582.34 -85.98 1.54 
582.71 -86.44 1.77 
582.72 -86.54 1.50 
583.04 -86.97 1.74 
583.27 -87.26 1.47 
577.95 -79.94 1.85 
577.99 -80.02 1.85 
578.27 -80.41 1.82 
582.21 -85.68 1.55 
582.91 -86.64 1.63 
583.22 -86.88 1.74 
583.08 -85.89 1.54 
583.46 -86.36 1.51 
583.40 -86.49 1.75 
584.01 -87.36 1.71 
583.71 -86.11 1.53 
589.33 -89.39 2.06 
589.84 -90.14 1.90 
589.46 -89.37 2.06 
589.64 -89.42 2.06 
590.12 -89.79 1.90 
590.23 -90.01 1.91 
589.98 -89.37 2.06 
590.33 -89.40 2.07 
590.52 -89.90 2.02 
590.75 -90.25 1.81 
591.26 -89.41 2.03 
591.47 -89.53 1.94 
583.84 -95.01 1.22 
584.02 -95.21 1.22 
584.08 -95.49 1.22 
583.76 -94.48 1.58 
584.08 -94.74 1.59 
584.25 -94.88 1.23 
590.29 -103.18 0.95 
590.46 -103.13 0.97 
584.94 -94.96 1.25 
585.12 -95.34 1.25 
591.32 -103.41 1.02 
591.44 -103.70 1.02 
584.83 -94.22 1.60 
584.84 -94.42 1.60 
585.88 -95.49 1.28 
585.91 -95.69 1.45 
575.43 -81.28 1.93 
575.64 -81.41 1.92 
576.09 -81.56 1.90 
584.96 -94.04 1.60 
585.28 -94.21 1.61 
585.68 -94.60 1.62 
585.84 -94.83 1.62 
576.44 -81.84 1.87 
576.75 -82.25 1.93 
576.94 -82.49 1.91 
585.66 -94.19 1.62 
586.04 -94.77 1.63 
586.18 -94.90 1.63 
575.80 -79.93 2.20 
577.26 -82.31 2.02 
586.50 -94.86 1.64 
575.86 -79.69 2.22 
576.32 -80.11 2.19 
576.95 -81.15 2.11 
576.57 -79.72 2.07 
576.84 -80.20 2.10 
577.02 -80.35 2.01 
577.51 -81.24 1.98 
581.52 -86.62 1.93 
582.38 -87.53 2.00 
582.73 -87.93 1.98 
577.12 -80.23 2.18 
578.61 -81.68 2.07 
581.75 -85.92 2.09 
582.79 -87.71 1.98 
578.56 -81.43 2.08 
578.82 -81.57 2.07 
582.01 -85.93 1.81 
582.07 -86.00 1.81 
582.56 -86.58 2.03 
582.77 -86.66 2.02 
583.08 -87.12 1.99 
582.04 -85.27 2.12 
583.69 -87.17 1.96 
582.90 -85.66 2.06 
583.00 -85.79 2.05 
583.21 -86.26 2.27 
583.85 -86.92 1.97 
583.13 -85.59 2.30 
583.54 -85.70 2.26 
583.65 -86.06 2.01 
584.26 -87.03 1.95 
583.30 -85.26 2.15 
589.49 -90.04 2.29 
590.01 -89.64 2.26 
591.01 -89.73 2.29 
591.07 -89.76 2.29 
591.16 -89.68 2.29 
583.39 -94.77 1.58 
583.52 -94.76 1.58 
583.79 -94.88 1.76 
584.06 -94.60 1.94 
584.44 -94.98 1.95 
584.94 -95.69 1.60 
584.26 -94.51 1.94 
585.28 -95.76 1.97 
584.65 -94.15 1.93 
585.12 -95.10 1.95 
585.77 -95.43 1.97 
585.67 -95.15 1.96 
585.77 -95.23 1.96 
576.00 -80.87 2.37 
576.10 -81.29 2.32 
576.65 -82.07 2.42 
577.10 -82.40 2.39 
585.56 -93.88 1.93 
575.76 -80.00 2.46 
575.95 -80.47 2.41 
576.07 -80.71 2.38 
576.94 -81.84 2.25 
577.42 -82.12 2.40 
575.85 -79.87 2.47 
581.08 -86.60 2.09 
582.05 -87.71 2.30 
580.75 -85.69 2.45 
582.20 -87.63 2.29 
577.25 -80.46 2.52 
581.41 -85.92 2.40 
581.56 -86.10 2.38 
581.94 -86.41 2.34 
582.32 -86.70 2.31 
583.04 -87.96 2.50 
577.69 -79.98 2.41 
577.93 -80.74 2.48 
583.15 -87.79 2.23 
581.98 -85.26 2.44 
583.16 -87.02 2.25 
583.35 -87.01 2.49 
583.69 -87.41 2.21 
582.16 -84.69 2.67 
582.30 -84.98 2.47 
582.48 -85.44 2.48 
583.87 -87.34 2.44 
582.23 -84.52 2.67 
584.25 -86.94 2.42 
583.32 -85.16 2.41 
584.08 -94.83 2.30 
584.34 -95.08 2.31 
584.48 -95.24 2.31 
584.47 -94.73 2.29 
584.76 -95.11 2.31 
585.11 -95.46 2.32 
575.29 -81.33 2.76 
585.01 -95.02 2.30 
585.43 -95.38 2.32 
575.44 -81.22 2.76 
575.86 -81.61 2.70 
575.73 -81.77 2.70 
575.94 -81.14 2.75 
576.23 -81.87 2.66 
575.90 -80.54 2.81 
576.27 -81.05 2.74 
575.90 -79.79 2.89 
581.46 -87.00 2.65 
576.97 -80.64 2.74 
581.15 -86.22 2.70 
581.43 -85.61 2.69 
584.91 -95.00 2.65 
584.86 -94.88 2.64 
590.96 -102.20 0.18 
590.87 -101.90 0.20 
591.06 -102.00 0.21 
591.38 -102.06 0.23 
589.11 -102.64 0.47 
589.35 -102.54 0.49 
589.63 -102.22 0.53 
589.78 -102.46 0.53 
590.00 -102.07 0.56 
590.34 -102.17 0.58 
590.48 -102.44 0.58 
585.27 -94.77 0.64 
590.77 -102.31 0.60 
591.07 -102.48 0.62 
590.83 -101.98 0.63 
591.37 -102.39 0.64 
575.67 -80.56 1.23 
576.10 -80.29 1.36 
576.26 -80.21 1.46 
577.20 -80.46 1.49 
582.24 -86.43 1.31 
583.14 -85.07 1.42 
583.31 -85.53 1.39 
583.14 -84.88 1.44 
590.53 -90.49 1.55 
588.93 -102.93 0.91 
589.58 -103.91 0.92 
589.06 -103.03 0.91 
583.70 -94.53 0.91 
583.89 -94.90 0.90 
589.92 -102.98 0.97 
584.18 -94.87 1.00 
590.12 -102.73 0.99 
590.31 -103.10 1.00 
584.13 -94.19 0.94 
584.79 -94.90 1.28 
585.16 -95.55 0.93 
590.44 -102.50 1.02 
591.43 -103.70 1.06 
585.20 -94.87 1.13 
590.71 -102.42 1.04 
590.96 -102.61 1.05 
576.51 -82.48 1.50 
576.72 -82.57 1.50 
575.99 -80.97 1.51 
577.00 -82.12 1.54 
575.88 -80.38 1.68 
575.82 -79.75 1.48 
576.75 -79.89 1.75 
577.04 -80.23 1.88 
577.23 -80.00 1.82 
577.48 -80.37 1.79 
577.70 -80.62 1.78 
581.86 -85.99 1.62 
582.44 -86.98 1.55 
577.40 -79.74 1.77 
577.71 -80.40 1.88 
582.46 -86.54 1.58 
582.88 -87.02 1.55 
577.92 -79.87 1.93 
581.84 -85.10 1.68 
582.80 -86.30 1.60 
583.01 -86.53 1.58 
583.96 -87.64 1.85 
582.58 -85.42 1.92 
582.98 -85.62 1.64 
583.01 -85.93 1.62 
583.69 -86.61 1.82 
584.00 -87.28 1.78 
582.77 -84.49 1.98 
590.12 -89.90 1.88 
590.48 -90.02 1.89 
590.84 -90.10 1.90 
588.69 -103.80 0.87 
583.64 -94.56 1.61 
583.70 -94.93 1.43 
584.02 -95.11 1.26 
583.96 -94.36 1.61 
584.02 -94.71 1.27 
584.38 -94.97 1.62 
575.16 -81.85 1.97 
583.86 -94.04 1.62 
575.60 -81.65 1.99 
584.79 -94.25 1.62 
575.39 -81.02 2.05 
575.62 -81.20 2.03 
576.35 -82.15 1.94 
584.95 -93.80 1.63 
585.20 -94.16 1.63 
576.01 -81.42 2.01 
576.45 -81.66 1.98 
576.47 -81.91 1.96 
576.98 -82.60 2.08 
585.41 -94.06 1.63 
575.83 -79.96 1.87 
576.26 -80.18 2.20 
576.88 -80.83 2.06 
577.11 -81.08 2.04 
577.41 -81.79 2.13 
576.71 -79.86 2.16 
576.88 -80.32 2.11 
577.02 -80.54 2.09 
577.49 -80.90 2.06 
577.56 -81.24 2.10 
577.81 -81.57 2.15 
577.87 -81.94 2.12 
582.01 -87.48 1.81 
582.64 -87.91 2.06 
576.94 -79.84 2.16 
577.69 -80.82 2.06 
581.62 -85.72 1.93 
582.68 -87.44 1.90 
582.66 -87.71 2.07 
578.28 -81.04 2.19 
582.82 -86.90 2.10 
583.00 -87.09 2.08 
583.39 -87.66 1.84 
581.70 -84.86 2.27 
582.77 -86.17 2.14 
582.97 -86.60 2.10 
583.63 -87.13 2.05 
582.40 -85.10 2.22 
582.45 -85.41 2.20 
583.98 -87.02 2.29 
584.16 -87.35 2.14 
582.84 -84.81 2.22 
583.38 -85.75 2.13 
583.60 -86.11 2.10 
583.83 -86.58 2.07 
584.06 -86.76 2.29 
584.31 -87.13 2.15 
591.49 -90.84 2.31 
589.53 -103.31 1.41 
583.69 -94.67 1.96 
575.28 -82.95 2.06 
583.76 -94.73 1.96 
584.84 -94.92 1.96 
585.23 -95.58 1.97 
575.64 -81.79 2.40 
575.97 -82.23 2.11 
585.62 -95.10 1.96 
575.34 -80.22 2.57 
575.70 -80.65 2.51 
576.01 -81.10 2.46 
576.22 -81.44 2.42 
576.26 -81.74 2.39 
577.07 -82.48 2.47 
575.75 -79.97 2.58 
575.92 -80.48 2.52 
576.10 -80.86 2.48 
577.19 -82.07 2.49 
580.79 -86.72 2.20 
576.33 -80.27 2.54 
576.87 -81.33 2.42 
576.39 -79.71 2.60 
581.93 -86.46 2.45 
581.29 -85.36 2.55 
583.08 -87.71 2.32 
581.71 -84.79 2.56 
582.54 -86.07 2.43 
583.21 -86.95 2.60 
582.10 -84.77 2.54 
582.42 -85.28 2.48 
582.95 -85.65 2.42 
583.77 -87.33 2.54 
584.30 -87.54 2.69 
582.23 -84.56 2.54 
582.89 -85.43 2.44 
583.90 -86.75 2.55 
584.58 -87.47 2.68 
584.57 -87.12 2.68 
584.15 -94.78 2.31 
584.31 -94.68 2.30 
584.61 -94.85 2.30 
585.04 -95.30 2.31 
584.91 -94.66 2.29 
585.01 -95.01 2.30 
585.25 -95.26 2.31 
575.57 -81.26 2.89 
576.00 -82.12 2.52 
576.49 -82.42 2.88 
585.25 -94.68 2.29 
575.81 -81.09 2.89 
575.58 -80.20 3.00 
575.91 -80.68 2.63 
576.18 -80.81 3.01 
576.01 -79.91 3.01 
576.71 -80.87 2.87 
580.80 -86.20 2.85 
580.56 -85.55 2.60 
581.81 -86.95 2.73 
581.39 -85.67 2.83 
582.07 -87.01 2.70 
582.97 -87.88 2.60 
581.88 -85.95 2.77 
582.11 -86.39 2.72 
582.93 -87.56 2.61 
581.96 -85.02 2.81 
582.53 -86.08 2.70 
582.70 -86.46 2.67 
582.08 -84.51 2.83 
584.26 -87.60 2.70 
582.17 -84.34 2.84 
582.60 -84.97 3.05 
584.46 -87.31 2.96 
584.72 -87.71 2.96 
583.72 -94.94 2.68 
584.09 -94.65 2.65 
576.08 -82.38 2.90 
590.60 -102.00 0.22 
590.99 -101.91 0.25 
591.02 -102.10 0.24 
591.39 -102.51 0.24 
591.37 -101.96 0.28 
589.26 -102.43 0.51 
589.61 -102.17 0.55 
589.79 -102.46 0.55 
585.00 -95.32 0.62 
589.98 -102.26 0.57 
590.40 -102.14 0.61 
590.69 -102.29 0.62 
590.97 -102.51 0.63 
591.02 -102.23 0.65 
591.28 -102.42 0.66 
591.50 -102.45 0.68 
577.09 -81.71 1.29 
576.22 -79.94 1.38 
582.71 -85.60 1.45 
582.84 -85.87 1.44 
583.21 -85.91 1.44 
582.97 -84.95 1.51 
583.07 -85.15 1.50 
583.29 -85.73 1.46 
589.13 -102.99 0.92 
589.54 -103.82 0.93 
583.78 -94.73 0.94 
583.82 -94.87 0.93 
589.60 -103.27 0.94 
583.85 -94.59 1.29 
584.04 -94.75 1.11 
584.28 -95.15 0.94 
584.82 -95.71 0.93 
589.99 -102.60 0.99 
590.25 -103.12 0.99 
590.43 -103.48 0.99 
584.04 -94.11 0.97 
584.67 -94.91 0.96 
585.08 -95.52 0.95 
585.39 -96.09 0.94 
585.46 -96.17 0.94 
590.12 -102.64 1.00 
590.31 -102.67 1.01 
590.41 -103.00 1.01 
585.81 -95.54 1.31 
590.76 -102.42 1.05 
590.91 -102.76 1.05 
591.18 -103.28 1.05 
591.29 -103.43 1.06 
576.53 -82.35 1.60 
576.66 -82.54 1.47 
585.73 -94.91 1.32 
585.71 -95.15 1.32 
585.94 -95.49 1.32 
591.18 -102.57 1.07 
575.71 -80.87 1.72 
575.87 -81.02 1.57 
576.27 -81.38 1.68 
576.69 -82.01 1.63 
576.82 -82.26 1.61 
586.32 -94.94 1.34 
575.76 -79.80 1.54 
575.75 -79.69 1.55 
576.72 -81.10 1.72 
577.04 -81.03 1.73 
576.56 -80.10 1.55 
577.31 -80.89 1.75 
576.99 -79.92 1.84 
577.56 -80.39 1.81 
577.72 -80.70 1.86 
581.45 -86.11 1.70 
582.24 -87.01 1.63 
577.33 -79.81 1.86 
577.73 -80.04 1.85 
577.81 -80.53 1.95 
582.16 -86.04 1.70 
582.12 -86.39 1.68 
582.58 -86.93 1.64 
581.74 -85.01 1.78 
582.64 -86.08 1.70 
582.61 -85.48 1.75 
583.38 -86.39 1.68 
584.04 -87.51 1.90 
582.73 -84.69 1.81 
582.76 -85.07 1.78 
583.31 -86.00 1.70 
583.51 -86.29 1.68 
582.65 -84.41 1.83 
589.86 -103.25 1.41 
590.16 -103.72 1.43 
590.11 -103.02 1.43 
590.49 -103.57 1.45 
590.89 -103.90 1.47 
584.68 -95.00 1.63 
590.67 -103.52 1.46 
591.00 -103.97 1.48 
591.22 -103.96 1.50 
575.28 -81.66 2.09 
575.69 -81.98 2.06 
575.69 -81.31 2.13 
576.09 -81.93 2.07 
576.39 -82.21 2.04 
585.05 -93.96 1.64 
575.48 -80.61 2.20 
576.37 -81.75 2.08 
585.40 -94.03 1.64 
576.27 -80.77 2.18 
576.53 -81.48 2.11 
585.45 -93.71 1.65 
576.05 -79.98 2.26 
576.33 -80.23 2.09 
576.49 -80.80 2.18 
576.90 -81.04 2.15 
576.92 -81.17 2.14 
576.67 -79.82 2.28 
577.34 -80.86 2.17 
581.17 -86.26 2.00 
581.97 -87.53 1.90 
576.89 -79.73 2.29 
577.46 -80.54 2.33 
582.42 -87.25 1.91 
582.65 -87.55 2.03 
581.66 -85.76 2.03 
582.76 -86.93 2.20 
582.97 -87.25 2.08 
583.26 -87.67 1.88 
582.66 -86.03 2.27 
582.83 -86.33 2.24 
583.54 -87.19 2.19 
582.21 -84.94 2.37 
582.30 -85.13 2.35 
582.91 -85.79 2.13 
583.36 -86.27 2.22 
583.34 -86.34 2.21 
583.58 -87.09 2.15 
584.07 -87.35 2.18 
582.83 -84.44 2.24 
574.51 -81.84 2.08 
575.57 -82.68 2.15 
576.76 -82.76 2.15 
575.91 -81.15 2.59 
575.92 -81.53 2.55 
576.30 -81.82 2.51 
576.37 -82.01 2.49 
576.18 -80.73 2.63 
576.56 -81.19 2.42 
576.19 -80.31 2.67 
576.28 -80.67 2.63 
576.74 -80.90 2.30 
580.89 -86.30 2.33 
581.57 -87.45 2.22 
576.61 -80.30 2.35 
580.78 -85.45 2.40 
580.84 -85.47 2.39 
581.39 -85.60 2.36 
582.05 -86.65 2.55 
582.84 -87.71 2.44 
582.08 -86.53 2.56 
582.80 -87.32 2.46 
582.97 -87.63 2.43 
583.54 -88.02 2.46 
581.44 -84.52 2.75 
581.58 -84.63 2.73 
582.02 -85.31 2.65 
582.13 -85.76 2.60 
582.04 -84.90 2.68 
584.07 -87.76 2.45 
582.13 -84.38 2.72 
582.38 -84.62 2.68 
583.43 -86.21 2.75 
583.85 -86.61 2.69 
584.21 -87.07 2.46 
584.24 -87.17 2.55 
584.53 -87.44 2.72 
583.18 -85.18 2.57 
583.52 -84.66 2.85 
583.87 -85.24 2.52 
589.46 -103.86 1.85 
590.23 -103.82 1.89 
590.69 -104.60 1.93 
583.95 -94.88 2.31 
574.58 -81.32 2.60 
574.55 -81.44 2.59 
584.06 -94.44 2.30 
584.37 -94.63 2.30 
584.83 -94.33 2.28 
575.73 -80.82 2.63 
575.65 -81.07 2.60 
576.14 -81.68 2.65 
576.03 -80.56 2.75 
576.40 -81.04 2.70 
575.75 -79.78 2.76 
575.77 -80.01 2.71 
581.02 -86.83 2.93 
581.01 -85.93 2.67 
581.41 -86.67 2.91 
581.27 -85.56 2.99 
582.09 -86.82 2.84 
582.88 -87.80 2.72 
581.80 -85.79 2.93 
582.19 -86.72 2.83 
582.66 -87.15 2.77 
583.55 -88.29 2.76 
582.37 -85.93 2.87 
581.75 -84.39 3.05 
584.09 -87.95 2.74 
581.96 -84.18 3.04 
582.07 -84.57 3.00 
584.51 -87.35 2.98 
584.63 -87.65 2.98 
583.97 -85.61 3.02 
590.06 -104.18 2.35 
590.18 -104.26 2.36 
585.00 -95.12 2.62 
575.86 -81.29 3.02 
580.58 -86.01 3.03 
590.34 -101.81 0.29 
590.61 -101.79 0.32 
590.83 -101.83 0.33 
591.34 -102.41 0.33 
575.51 -80.50 0.93 
575.86 -80.47 0.96 
591.11 -101.74 0.36 
575.90 -80.34 0.97 
575.88 -80.46 0.96 
588.76 -102.57 0.54 
588.94 -102.58 0.55 
589.14 -102.57 0.57 
589.38 -102.15 0.60 
589.74 -102.39 0.62 
585.07 -95.42 0.71 
585.20 -95.47 0.71 
589.70 -101.94 0.64 
589.99 -102.21 0.64 
590.36 -101.87 0.68 
590.55 -102.16 0.68 
576.48 -82.25 1.30 
590.80 -102.07 0.71 
590.97 -102.32 0.71 
591.10 -101.86 0.74 
591.32 -102.17 0.74 
576.07 -80.14 1.47 
576.79 -79.99 1.52 
576.99 -80.25 1.51 
582.57 -86.69 1.49 
582.57 -85.88 1.55 
582.97 -86.45 1.52 
583.16 -86.78 1.46 
582.66 -85.28 1.61 
582.79 -85.62 1.43 
583.28 -86.21 1.52 
583.70 -86.64 1.47 
582.72 -85.09 1.62 
583.33 -85.57 1.60 
589.03 -102.87 0.97 
589.17 -103.01 0.97 
583.44 -94.34 1.03 
589.53 -103.13 0.99 
583.77 -94.36 1.04 
583.96 -94.50 1.21 
590.35 -103.46 1.03 
583.81 -93.83 1.07 
583.93 -94.22 1.05 
584.08 -94.40 1.21 
590.03 -102.42 1.04 
590.27 -102.85 1.05 
590.46 -103.17 1.05 
584.65 -94.16 1.40 
590.35 -102.39 1.06 
591.23 -103.19 1.10 
576.66 -82.68 1.45 
590.92 -102.44 1.10 
591.11 -102.58 1.11 
575.38 -80.29 1.60 
576.19 -81.42 1.82 
576.41 -81.65 1.80 
575.71 -80.35 1.91 
575.90 -80.55 1.90 
576.26 -81.09 1.85 
576.57 -81.22 1.85 
577.12 -82.29 1.51 
576.31 -80.54 1.91 
576.83 -80.90 1.88 
577.01 -80.60 1.92 
577.24 -79.98 1.99 
578.16 -81.25 2.03 
578.27 -81.43 2.01 
581.79 -86.48 1.81 
577.85 -80.29 1.97 
577.97 -80.51 1.95 
582.71 -86.97 1.77 
581.47 -84.67 1.96 
582.45 -85.69 1.87 
582.67 -85.98 1.85 
583.33 -87.25 1.70 
583.48 -87.37 1.70 
582.42 -85.18 1.91 
583.00 -86.33 1.82 
583.58 -86.87 1.77 
584.09 -87.54 1.99 
583.23 -85.63 1.87 
583.34 -86.13 1.83 
589.44 -103.02 1.42 
589.48 -103.36 1.42 
589.89 -103.04 1.44 
590.20 -103.49 1.46 
590.31 -102.89 1.47 
590.41 -103.24 1.47 
590.85 -103.75 1.49 
574.63 -80.51 1.87 
576.29 -83.24 1.82 
590.80 -103.18 1.49 
591.14 -103.45 1.51 
591.46 -103.92 1.53 
576.31 -81.95 1.93 
577.11 -82.54 1.90 
576.32 -80.56 2.37 
581.55 -87.29 2.07 
577.32 -80.85 2.04 
581.27 -86.62 2.13 
582.20 -87.12 2.07 
582.54 -87.40 2.04 
577.95 -80.43 2.49 
581.72 -85.75 2.19 
583.19 -87.67 1.98 
582.94 -86.92 2.06 
583.46 -87.35 2.29 
582.34 -85.12 2.22 
583.14 -86.34 2.10 
583.49 -86.91 2.19 
584.03 -87.26 2.28 
582.87 -85.54 2.32 
582.79 -84.53 2.27 
583.60 -85.04 2.48 
589.51 -103.80 1.86 
589.85 -103.67 1.87 
590.27 -104.03 1.90 
590.15 -103.55 1.88 
590.62 -104.33 1.92 
590.73 -104.36 1.93 
575.14 -81.35 2.29 
575.38 -81.63 2.26 
575.64 -82.37 2.33 
575.23 -81.18 2.31 
575.94 -81.06 2.32 
575.80 -80.19 2.41 
576.10 -80.66 2.36 
576.17 -80.83 2.34 
576.94 -82.20 2.34 
575.87 -79.73 2.46 
575.98 -80.04 2.43 
576.54 -80.07 2.52 
581.89 -87.36 2.37 
581.10 -85.37 2.57 
581.72 -86.70 2.43 
582.43 -87.57 2.33 
582.12 -86.25 2.76 
582.13 -86.42 2.59 
582.46 -86.83 2.38 
582.82 -87.15 2.34 
582.83 -87.54 2.61 
581.78 -84.82 2.58 
582.18 -85.59 2.50 
582.45 -85.86 2.46 
582.86 -86.57 2.68 
583.45 -87.75 2.57 
583.59 -87.98 2.56 
581.61 -84.54 2.62 
582.07 -84.49 2.60 
582.86 -85.28 2.79 
584.20 -87.10 2.83 
584.42 -87.30 2.75 
583.98 -85.87 2.65 
589.97 -103.65 2.31 
575.20 -80.98 2.81 
575.55 -81.48 2.75 
576.30 -82.19 2.77 
576.60 -82.51 2.74 
575.71 -80.82 2.82 
575.77 -81.34 2.76 
576.28 -81.81 2.80 
575.53 -80.11 2.90 
576.10 -80.71 2.82 
575.82 -79.89 2.92 
575.98 -80.08 2.92 
576.64 -80.55 2.83 
576.72 -79.98 2.96 
580.80 -85.70 2.90 
581.14 -86.46 2.81 
580.69 -85.29 2.94 
581.12 -85.99 2.85 
581.31 -85.39 2.89 
581.82 -85.61 2.83 
583.35 -88.20 2.87 
582.07 -85.51 2.82 
582.82 -86.67 2.97 
581.78 -84.39 3.05 
581.88 -84.69 3.07 
582.69 -85.63 3.07 
583.43 -86.55 2.92 
583.85 -87.07 2.85 
581.84 -83.90 3.32 
582.03 -84.12 2.96 
583.89 -85.59 3.16 
583.81 -84.54 3.06 
590.10 -104.06 2.33 
590.19 -104.19 2.34 
581.59 -86.96 3.07 
581.54 -86.48 3.11 
581.37 -85.15 3.24 
589.45 -101.71 0.29 
589.50 -101.86 0.28 
589.91 -101.72 0.32 
590.07 -101.95 0.31 
590.32 -101.68 0.35 
590.60 -101.76 0.37 
590.76 -102.03 0.36 
575.50 -80.41 1.03 
590.89 -101.74 0.39 
591.13 -101.79 0.41 
591.36 -102.25 0.39 
575.88 -80.34 1.06 
591.16 -101.65 0.42 
588.74 -102.58 0.58 
588.87 -102.53 0.59 
583.58 -94.01 0.78 
589.30 -101.99 0.64 
583.72 -94.04 0.79 
583.87 -94.13 0.79 
585.08 -95.42 0.93 
589.60 -101.88 0.67 
589.77 -102.21 0.66 
574.41 -80.31 1.49 
585.04 -94.91 1.12 
585.29 -95.21 0.95 
590.08 -102.04 0.69 
590.46 -102.15 0.71 
576.56 -82.25 1.41 
585.22 -94.71 0.98 
590.38 -101.92 0.72 
590.74 -102.08 0.73 
576.79 -82.33 1.41 
591.00 -102.05 0.75 
591.29 -102.14 0.77 
576.20 -80.49 1.27 
576.66 -79.79 1.65 
576.94 -80.08 1.63 
577.24 -80.52 1.60 
577.26 -80.31 1.62 
582.22 -86.88 1.58 
582.34 -86.71 1.60 
582.71 -86.70 1.60 
582.35 -85.75 1.68 
582.63 -85.84 1.52 
582.80 -86.19 1.49 
582.88 -86.53 1.62 
583.24 -86.82 1.56 
582.43 -84.89 1.76 
582.64 -85.37 1.56 
582.96 -86.09 1.53 
583.18 -86.34 1.56 
583.52 -86.62 1.54 
582.61 -84.81 1.77 
582.72 -85.12 1.74 
583.13 -85.54 1.56 
583.19 -85.80 1.69 
583.78 -85.94 1.69 
583.10 -84.32 1.83 
585.36 -79.93 2.35 
588.96 -103.62 0.96 
589.07 -103.03 0.98 
584.62 -96.20 1.04 
589.04 -102.82 0.99 
589.55 -103.18 1.01 
583.91 -94.81 1.43 
589.18 -102.21 1.01 
584.71 -95.22 1.09 
589.85 -102.32 1.05 
590.34 -103.15 1.05 
575.88 -82.01 1.89 
584.63 -94.19 1.46 
584.91 -94.86 1.44 
590.23 -102.18 1.07 
590.27 -102.28 1.07 
591.00 -103.06 1.09 
591.09 -103.18 1.10 
584.81 -94.17 1.46 
584.99 -94.27 1.46 
590.73 -102.16 1.10 
591.02 -102.40 1.11 
591.36 -103.03 1.12 
576.15 -81.27 1.97 
576.30 -81.52 1.95 
576.56 -81.86 1.92 
577.34 -82.57 1.59 
591.17 -102.46 1.12 
591.40 -102.74 1.13 
576.36 -81.07 1.99 
576.70 -79.84 2.13 
576.75 -80.33 2.08 
577.04 -80.57 2.06 
577.31 -80.81 2.04 
581.91 -87.01 1.89 
576.83 -79.76 2.14 
581.64 -86.42 1.95 
582.07 -86.98 1.57 
577.99 -80.40 2.10 
581.85 -86.00 1.65 
581.79 -84.98 1.74 
581.91 -85.11 1.73 
582.06 -85.62 1.85 
582.39 -85.93 1.92 
583.00 -86.72 1.92 
583.57 -87.27 1.79 
583.45 -87.50 1.78 
582.99 -86.28 1.95 
584.19 -87.60 2.07 
582.83 -85.43 2.03 
582.96 -85.55 2.02 
574.19 -82.37 1.82 
574.31 -82.25 1.83 
589.53 -103.15 1.42 
575.17 -82.85 1.95 
589.60 -102.99 1.42 
589.84 -103.04 1.43 
575.64 -82.56 1.98 
590.04 -102.70 1.44 
590.33 -102.92 1.46 
590.51 -103.26 1.46 
590.85 -103.65 1.48 
584.55 -94.71 1.76 
591.15 -103.29 1.50 
591.20 -103.74 1.50 
591.48 -103.88 1.51 
575.28 -80.70 2.00 
590.86 -102.30 1.49 
590.94 -102.37 1.49 
591.46 -103.51 1.51 
575.87 -80.78 2.01 
576.72 -81.82 2.07 
576.18 -80.59 2.04 
577.23 -81.47 2.11 
577.73 -81.76 2.10 
581.61 -87.23 2.22 
581.19 -85.37 2.39 
582.08 -87.13 2.21 
582.53 -87.38 2.18 
578.03 -80.80 2.19 
582.34 -86.27 2.28 
582.93 -87.60 2.07 
583.11 -87.74 2.06 
583.01 -86.67 2.23 
582.94 -87.02 2.20 
582.98 -86.40 2.25 
582.77 -85.35 2.35 
583.35 -85.79 2.30 
584.10 -87.19 2.38 
582.83 -84.24 2.46 
582.79 -84.50 2.44 
583.19 -84.95 2.53 
589.39 -103.77 1.83 
589.50 -102.85 1.82 
589.92 -103.46 1.84 
590.13 -103.58 1.85 
590.29 -103.82 1.86 
590.65 -104.15 1.89 
575.25 -82.04 2.50 
589.89 -102.87 1.83 
590.60 -103.53 1.87 
590.95 -103.86 1.90 
575.32 -81.46 2.44 
576.03 -81.62 2.42 
576.21 -82.07 2.49 
576.30 -82.36 2.47 
575.77 -80.95 2.49 
576.07 -81.15 2.52 
576.32 -81.69 2.52 
576.41 -81.97 2.50 
576.97 -82.25 2.47 
575.91 -80.17 2.58 
576.08 -80.71 2.52 
576.64 -81.49 2.43 
576.65 -81.52 2.43 
577.01 -81.87 2.51 
576.13 -80.01 2.59 
576.42 -79.88 2.61 
581.30 -85.92 2.68 
582.93 -88.05 2.36 
582.30 -86.38 2.59 
582.78 -87.24 2.57 
582.91 -87.40 2.48 
583.34 -88.10 2.66 
581.74 -85.17 2.74 
581.68 -85.37 2.72 
582.08 -85.51 2.69 
582.86 -86.76 2.85 
583.49 -87.71 2.67 
581.43 -84.30 2.84 
581.57 -84.43 2.82 
582.47 -85.62 2.66 
584.02 -87.40 2.66 
582.08 -84.11 2.83 
582.49 -84.81 2.86 
582.97 -85.80 2.93 
583.40 -85.73 2.60 
584.34 -87.19 2.65 
584.43 -87.36 2.92 
582.80 -84.45 2.76 
584.25 -86.63 2.68 
583.51 -84.72 2.85 
583.87 -85.54 2.89 
583.79 -84.38 3.02 
584.44 -85.60 2.99 
585.50 -80.35 3.49 
590.07 -104.00 2.28 
590.10 -103.62 2.27 
590.22 -104.01 2.28 
575.28 -81.09 2.98 
575.85 -81.69 2.99 
576.04 -82.17 2.94 
575.66 -80.91 2.99 
575.47 -80.13 3.09 
575.80 -80.32 3.06 
575.91 -79.86 3.14 
581.39 -86.47 2.98 
581.34 -86.87 2.95 
582.69 -87.53 2.80 
581.13 -85.32 3.11 
581.87 -86.19 2.97 
582.05 -86.59 2.92 
583.26 -87.91 2.98 
583.27 -88.20 2.97 
581.80 -85.19 3.07 
581.71 -85.50 3.05 
582.59 -86.13 2.92 
582.69 -86.73 3.18 
581.69 -84.56 3.15 
582.04 -84.92 3.08 
581.84 -83.99 3.20 
582.50 -85.03 3.36 
582.65 -85.21 3.01 
583.67 -84.84 3.27 
585.54 -80.90 3.68 
581.47 -86.90 3.28 
581.89 -86.91 3.24 
581.99 -86.42 3.27 
581.61 -84.79 3.47 
581.94 -85.45 3.37 
581.75 -84.70 3.47 
582.24 -84.40 3.46 
584.35 -95.09 0.49 
584.55 -95.37 0.48 
584.70 -95.52 0.48 
584.53 -95.15 0.50 
589.43 -101.58 0.35 
589.69 -101.66 0.36 
589.87 -101.68 0.37 
590.20 -101.61 0.40 
575.56 -80.27 1.15 
575.98 -80.29 1.18 
590.59 -101.54 0.43 
590.67 -101.72 0.43 
591.20 -102.26 0.43 
575.98 -80.05 1.20 
591.05 -101.55 0.47 
588.57 -102.69 0.60 
588.86 -102.49 0.63 
584.78 -95.83 0.80 
583.85 -93.93 0.88 
584.92 -95.17 0.85 
585.00 -95.87 0.81 
589.41 -101.92 0.69 
589.66 -102.04 0.70 
584.14 -93.90 0.90 
585.01 -94.99 1.03 
589.64 -101.73 0.71 
589.93 -101.90 0.72 
575.61 -80.67 1.65 
575.94 -80.98 1.64 
576.02 -81.40 1.60 
576.50 -81.89 1.57 
576.62 -82.30 1.39 
590.32 -101.59 0.76 
590.57 -102.03 0.75 
575.70 -80.56 1.66 
575.94 -80.82 1.65 
577.12 -81.95 1.31 
577.18 -82.23 1.29 
590.82 -101.90 0.78 
591.08 -102.20 0.78 
591.37 -102.36 0.79 
575.98 -79.90 1.41 
577.21 -81.96 1.31 
591.11 -101.63 0.81 
591.27 -102.03 0.80 
576.65 -80.10 1.75 
576.72 -80.23 1.59 
576.64 -79.75 1.62 
576.87 -80.03 1.77 
577.34 -80.69 1.72 
577.45 -80.10 1.79 
582.27 -86.15 1.62 
582.57 -86.50 1.61 
582.70 -85.91 1.53 
582.93 -86.21 1.58 
582.65 -85.43 1.70 
582.90 -85.62 1.50 
583.27 -85.92 1.70 
583.52 -86.52 1.76 
583.09 -85.22 1.69 
583.28 -85.59 1.68 
583.02 -84.37 1.80 
586.14 -80.31 2.38 
586.14 -80.68 2.34 
586.16 -80.15 2.49 
586.32 -79.80 2.54 
588.98 -103.65 0.98 
584.67 -96.28 1.11 
588.81 -102.60 1.01 
589.07 -102.85 1.01 
584.64 -95.81 1.13 
584.66 -96.14 1.12 
589.12 -101.96 1.04 
583.54 -93.86 1.22 
583.86 -93.97 1.22 
583.97 -94.20 1.20 
584.69 -95.43 1.15 
584.86 -95.50 1.32 
589.69 -102.17 1.06 
590.18 -102.84 1.07 
590.28 -102.85 1.07 
584.09 -93.73 1.24 
584.85 -94.54 1.53 
584.92 -95.07 1.51 
590.11 -102.19 1.08 
576.50 -81.96 1.73 
584.74 -93.87 1.56 
584.98 -94.00 1.55 
585.15 -94.46 1.53 
585.56 -94.83 1.52 
585.70 -95.16 1.51 
585.85 -95.37 1.50 
590.45 -101.99 1.11 
590.57 -102.27 1.10 
591.07 -103.08 1.11 
576.52 -81.35 1.79 
576.63 -81.91 1.74 
576.85 -82.23 1.73 
585.03 -93.94 1.56 
585.56 -94.34 1.54 
585.67 -94.48 1.53 
586.14 -95.20 1.51 
591.00 -102.12 1.13 
591.46 -102.68 1.14 
577.00 -81.12 1.83 
585.71 -93.71 1.57 
585.61 -94.05 1.55 
576.54 -79.76 1.93 
576.81 -80.69 1.86 
577.25 -80.07 1.93 
577.15 -80.61 1.88 
577.53 -80.71 2.05 
577.67 -81.01 2.19 
581.30 -85.89 1.96 
577.81 -80.48 2.09 
578.09 -80.63 1.92 
582.30 -86.87 1.90 
581.66 -85.53 1.82 
582.33 -86.08 1.78 
582.46 -86.84 2.06 
582.81 -86.72 1.80 
581.68 -84.81 1.97 
582.20 -85.52 1.83 
582.40 -85.47 2.10 
582.66 -85.93 1.98 
582.89 -86.24 1.99 
583.01 -86.59 1.87 
583.11 -86.93 1.92 
582.56 -85.24 1.98 
582.57 -85.43 2.19 
583.08 -86.17 1.95 
583.55 -86.46 2.09 
583.74 -86.89 1.93 
582.74 -84.81 1.91 
582.98 -85.36 1.86 
583.16 -85.49 1.85 
583.56 -85.99 2.13 
584.06 -86.42 2.09 
582.73 -84.39 1.95 
583.31 -85.03 2.14 
583.02 -83.95 2.00 
584.99 -81.60 2.67 
584.95 -81.71 2.66 
585.32 -81.40 2.64 
585.76 -81.36 2.56 
586.09 -81.28 2.63 
586.28 -81.70 2.66 
586.51 -81.01 2.49 
586.54 -81.08 2.48 
586.00 -79.91 2.84 
586.59 -79.81 2.86 
574.54 -81.91 2.03 
583.19 -94.47 1.88 
584.34 -96.23 1.45 
574.75 -81.71 2.06 
584.53 -95.41 1.82 
589.55 -102.80 1.42 
589.57 -103.03 1.42 
589.80 -103.36 1.43 
574.94 -81.43 2.09 
584.36 -95.04 1.84 
584.63 -95.23 1.83 
589.95 -102.72 1.44 
591.05 -104.39 1.47 
575.31 -81.06 2.26 
575.39 -81.26 2.11 
584.43 -94.46 1.86 
590.29 -102.69 1.45 
590.37 -102.93 1.45 
590.78 -103.09 1.47 
590.99 -103.48 1.48 
575.29 -80.54 2.19 
575.62 -80.76 2.17 
575.67 -81.15 2.13 
575.89 -81.45 2.24 
576.32 -81.71 2.15 
576.26 -81.99 2.19 
585.38 -95.03 1.82 
591.11 -102.93 1.49 
591.34 -103.22 1.50 
575.78 -80.48 2.20 
585.00 -93.61 1.88 
585.21 -94.02 1.86 
585.63 -94.67 1.83 
586.04 -94.94 1.82 
590.92 -102.23 1.48 
575.81 -79.80 2.39 
575.87 -80.26 2.35 
576.78 -81.15 2.28 
585.49 -93.53 1.87 
576.89 -80.40 2.23 
576.79 -80.66 2.20 
576.74 -79.72 2.36 
577.04 -80.30 2.25 
581.21 -86.06 2.14 
577.29 -80.01 2.28 
581.27 -85.85 2.16 
582.66 -87.23 2.21 
582.78 -87.11 2.22 
582.25 -85.40 2.55 
582.12 -85.67 2.52 
582.98 -86.74 2.32 
583.29 -86.03 2.53 
583.53 -86.38 2.41 
583.57 -86.78 2.37 
582.20 -84.25 2.67 
583.85 -86.24 2.42 
584.06 -86.56 2.26 
582.64 -84.11 2.45 
583.41 -85.15 2.67 
583.68 -84.89 2.56 
585.51 -81.64 2.92 
585.52 -81.06 3.00 
585.58 -81.57 2.93 
585.71 -80.59 3.07 
586.21 -80.15 3.09 
586.30 -80.46 3.08 
589.21 -102.91 1.79 
589.61 -103.55 1.81 
584.14 -95.18 2.18 
589.60 -102.76 1.80 
589.56 -103.25 1.81 
589.99 -103.44 1.82 
574.74 -81.16 2.66 
584.66 -95.33 2.16 
584.87 -95.81 2.14 
590.33 -103.50 1.84 
590.62 -103.90 1.85 
584.86 -94.68 2.16 
585.00 -95.20 2.15 
585.27 -95.22 2.14 
590.09 -102.64 1.82 
590.56 -103.32 1.84 
590.94 -103.77 1.86 
591.19 -103.74 1.87 
575.05 -80.41 2.74 
575.59 -80.78 2.79 
575.98 -81.42 2.73 
585.42 -94.67 2.14 
575.49 -79.92 2.80 
575.73 -80.19 2.77 
575.92 -80.97 2.72 
576.17 -81.20 2.65 
576.36 -81.54 2.62 
585.68 -94.95 2.13 
575.53 -79.76 2.81 
575.89 -80.28 2.84 
576.27 -80.52 2.73 
576.42 -79.92 2.80 
576.70 -80.31 2.83 
582.51 -87.49 2.53 
582.94 -86.99 2.55 
582.71 -87.36 2.86 
582.71 -86.00 2.81 
583.15 -87.23 2.53 
581.91 -84.47 2.84 
583.74 -86.93 2.84 
582.03 -83.98 3.07 
583.44 -85.83 2.79 
582.13 -83.76 3.09 
582.86 -84.16 3.08 
583.43 -84.96 2.89 
583.37 -85.34 2.85 
583.52 -85.66 2.81 
582.95 -84.11 3.01 
583.55 -84.84 2.90 
584.09 -85.67 2.78 
584.09 -85.73 2.89 
584.32 -84.64 3.19 
585.94 -80.63 3.38 
586.26 -80.04 3.46 
586.40 -80.53 3.38 
586.64 -80.07 3.49 
590.12 -103.55 2.22 
590.26 -103.65 2.23 
584.68 -94.45 2.50 
581.03 -85.59 2.94 
581.33 -85.70 2.91 
581.72 -85.36 3.29 
581.97 -84.30 3.40 
582.09 -84.79 3.33 
581.92 -83.68 3.51 
582.64 -85.00 3.27 
583.51 -86.19 3.39 
584.09 -86.78 3.12 
582.00 -83.55 3.49 
583.94 -86.36 3.16 
583.49 -84.53 3.29 
583.58 -84.73 3.23 
583.48 -84.31 3.30 
583.86 -84.12 3.33 
585.75 -80.80 3.68 
585.64 -80.39 3.75 
585.88 -80.77 3.67 
581.72 -86.88 3.50 
581.44 -85.10 3.72 
582.32 -85.17 3.63 
582.48 -84.57 3.68 
583.40 -85.94 3.53 
583.49 -86.29 3.50 
583.59 -84.76 3.56 
583.45 -84.03 3.67 
581.48 -86.80 3.67 
590.37 -101.44 0.14 
591.00 -101.65 0.17 
591.21 -101.80 0.18 
584.53 -95.41 0.54 
584.39 -95.09 0.55 
584.55 -95.20 0.55 
585.15 -95.09 0.47 
585.22 -95.21 0.65 
589.30 -101.37 0.41 
589.61 -101.55 0.41 
575.31 -80.25 1.22 
590.00 -101.40 0.45 
590.16 -101.44 0.46 
575.73 -80.27 1.24 
590.43 -101.47 0.48 
591.13 -102.08 0.48 
591.37 -102.43 0.48 
591.30 -102.79 0.44 
575.98 -80.07 1.28 
590.74 -101.45 0.50 
590.94 -101.48 0.51 
591.42 -101.85 0.52 
583.15 -86.28 1.41 
588.43 -102.51 0.64 
584.62 -95.77 0.85 
588.90 -102.23 0.68 
583.74 -93.82 0.95 
584.33 -94.53 0.93 
584.64 -95.00 0.91 
584.63 -95.10 0.90 
584.89 -95.77 0.87 
589.40 -101.79 0.73 
584.22 -93.72 0.98 
584.83 -94.80 0.93 
584.94 -95.11 0.91 
589.70 -101.86 0.75 
576.42 -82.04 1.49 
576.69 -82.30 1.48 
585.27 -94.86 1.26 
585.78 -95.21 1.25 
590.09 -101.71 0.78 
590.44 -101.84 0.79 
575.75 -80.28 1.44 
575.63 -80.38 1.42 
576.14 -80.75 1.59 
576.30 -81.14 1.73 
576.64 -81.77 1.69 
576.95 -82.01 1.36 
590.35 -101.57 0.80 
590.89 -102.12 0.80 
575.80 -79.95 1.47 
576.36 -80.92 1.76 
577.26 -81.86 1.40 
590.90 -101.52 0.84 
591.18 -101.85 0.84 
577.00 -80.65 1.81 
577.13 -80.06 1.88 
577.17 -80.41 1.85 
577.23 -79.93 1.90 
577.63 -79.87 1.92 
582.28 -85.66 1.57 
582.57 -86.18 1.63 
582.92 -86.49 1.71 
583.01 -86.90 1.68 
583.04 -86.99 1.67 
582.58 -85.19 1.63 
582.61 -85.51 1.60 
582.93 -85.84 1.67 
583.15 -86.09 1.75 
583.39 -86.30 1.74 
583.52 -86.65 1.72 
582.95 -84.96 1.66 
583.01 -85.30 1.63 
583.58 -86.06 1.77 
582.92 -84.17 1.74 
583.06 -84.74 1.78 
583.24 -84.89 1.77 
585.82 -80.66 2.23 
586.17 -81.57 2.28 
586.44 -80.89 2.23 
586.62 -81.37 2.32 
586.23 -80.34 2.28 
586.57 -80.77 2.32 
586.81 -81.23 2.35 
586.78 -80.47 2.46 
588.72 -103.50 0.99 
584.40 -96.09 1.17 
584.52 -96.18 1.17 
588.51 -102.39 1.02 
588.82 -102.62 1.03 
583.31 -93.78 1.29 
584.24 -95.08 1.22 
584.47 -95.63 1.20 
584.44 -95.94 1.35 
583.52 -93.71 1.29 
583.71 -93.92 1.46 
584.41 -94.99 1.23 
584.61 -95.27 1.22 
589.04 -101.82 1.06 
589.46 -101.94 1.08 
584.46 -94.38 1.60 
584.81 -94.82 1.58 
584.84 -95.23 1.23 
589.74 -102.07 1.09 
576.11 -81.47 1.85 
576.32 -81.81 1.83 
576.50 -81.99 1.82 
584.53 -93.85 1.63 
584.79 -94.41 1.60 
585.04 -94.53 1.60 
585.39 -94.86 1.58 
585.64 -95.08 1.57 
590.14 -101.91 1.11 
590.36 -101.95 1.29 
575.95 -80.49 1.78 
577.21 -82.46 1.81 
585.13 -94.29 1.61 
585.46 -94.76 1.59 
585.80 -95.08 1.57 
590.06 -101.19 1.13 
590.77 -101.83 1.31 
590.95 -102.09 1.32 
576.09 -79.95 1.84 
576.90 -81.34 1.90 
577.01 -81.48 1.89 
585.36 -93.90 1.63 
591.09 -101.88 1.16 
577.34 -80.56 1.99 
577.99 -81.33 1.95 
577.44 -80.29 2.02 
577.87 -81.11 1.96 
582.06 -86.64 1.84 
582.41 -87.19 1.97 
582.37 -87.40 1.96 
578.36 -81.08 1.99 
581.59 -85.22 2.12 
581.61 -85.67 1.92 
581.72 -85.90 1.90 
582.18 -86.37 2.03 
582.56 -86.64 1.85 
582.94 -87.41 1.97 
581.46 -84.45 2.04 
582.69 -86.00 1.91 
582.88 -86.32 1.94 
582.96 -86.53 2.04 
583.21 -87.00 2.00 
582.18 -85.00 2.00 
582.51 -84.98 2.01 
582.51 -85.49 2.11 
582.84 -85.84 2.01 
583.01 -86.00 2.00 
583.74 -86.82 2.03 
583.85 -87.29 1.99 
583.93 -87.36 1.99 
582.81 -84.83 2.17 
582.88 -85.24 1.99 
583.43 -85.96 2.09 
583.52 -86.37 2.06 
583.72 -86.69 2.04 
582.57 -84.20 2.09 
582.76 -84.27 2.09 
583.00 -84.67 2.10 
583.33 -85.06 2.23 
584.93 -81.45 2.80 
585.53 -81.96 2.50 
585.49 -81.09 2.51 
585.67 -81.50 2.83 
585.79 -81.90 2.79 
585.81 -80.85 2.72 
585.94 -81.16 2.85 
586.18 -81.60 2.67 
586.27 -81.77 2.53 
586.08 -80.68 2.74 
586.23 -80.90 2.55 
586.52 -81.20 2.73 
586.68 -81.64 2.82 
586.40 -80.62 2.76 
586.68 -80.54 2.94 
584.26 -96.11 1.52 
575.25 -82.76 2.21 
583.31 -93.90 1.81 
583.26 -94.36 1.96 
575.07 -81.51 2.20 
575.53 -82.27 2.26 
575.50 -82.49 2.24 
583.39 -93.88 1.81 
584.47 -95.09 1.90 
589.61 -102.68 1.43 
575.22 -81.31 2.22 
575.52 -81.79 2.31 
575.63 -81.96 2.29 
584.47 -94.55 1.92 
590.18 -102.66 1.45 
590.66 -103.29 1.46 
575.96 -81.62 2.33 
576.21 -81.76 2.20 
585.26 -94.95 1.89 
575.72 -80.21 2.35 
575.58 -80.47 2.32 
575.96 -80.93 2.34 
576.24 -81.30 2.29 
584.17 -92.92 2.01 
584.35 -93.07 2.00 
584.76 -93.23 1.98 
591.04 -102.76 1.48 
591.09 -102.85 1.48 
575.94 -80.10 2.48 
576.05 -80.30 2.41 
576.26 -80.77 2.30 
576.78 -81.14 2.28 
577.00 -81.69 2.35 
585.04 -93.25 1.98 
585.84 -94.20 1.91 
576.22 -79.87 2.40 
576.19 -80.05 2.38 
576.69 -80.77 2.31 
582.01 -87.91 2.27 
576.78 -79.99 2.51 
582.84 -87.85 2.27 
583.27 -87.20 2.32 
582.53 -85.52 2.45 
583.06 -85.86 2.42 
583.21 -86.14 2.40 
583.52 -86.88 2.34 
582.18 -84.51 2.43 
583.51 -85.98 2.41 
583.59 -86.31 2.38 
583.94 -86.74 2.35 
584.10 -86.92 2.64 
584.10 -87.20 2.62 
582.50 -83.85 2.50 
583.02 -84.88 2.50 
583.77 -85.61 2.59 
583.91 -86.27 2.38 
584.32 -86.57 2.51 
583.84 -85.21 2.78 
584.04 -85.50 2.65 
585.86 -80.71 3.25 
586.09 -80.25 3.31 
583.99 -95.21 2.25 
589.42 -102.83 1.79 
589.57 -103.18 1.79 
584.71 -95.67 2.21 
589.48 -102.67 1.79 
589.84 -103.16 1.80 
589.97 -103.30 1.80 
590.17 -103.49 1.81 
590.58 -103.89 1.83 
575.40 -81.50 2.85 
584.19 -94.15 2.28 
584.46 -94.37 2.26 
584.73 -94.58 2.24 
584.76 -95.15 2.22 
590.58 -103.40 1.82 
575.46 -80.75 2.89 
575.41 -81.13 2.89 
575.83 -81.41 2.86 
576.01 -81.85 2.81 
576.26 -82.04 2.79 
584.51 -94.09 2.27 
584.73 -94.48 2.25 
584.76 -94.55 2.24 
575.22 -80.06 2.93 
575.44 -80.40 2.89 
575.88 -80.68 2.85 
575.88 -81.01 2.82 
575.99 -81.23 2.79 
576.22 -81.48 2.76 
584.68 -93.68 2.28 
585.32 -94.54 2.22 
585.37 -94.70 2.21 
575.45 -79.76 2.96 
575.71 -79.94 3.01 
576.33 -80.85 2.91 
576.23 -79.95 2.94 
576.63 -80.36 2.89 
576.71 -79.99 2.94 
582.26 -87.78 2.63 
582.70 -88.01 2.60 
583.32 -87.21 2.64 
583.39 -87.44 2.73 
583.12 -86.27 2.71 
583.59 -87.01 2.96 
583.64 -87.10 2.95 
583.81 -87.51 2.60 
583.65 -86.44 3.00 
583.71 -86.06 3.02 
584.37 -86.47 2.96 
584.35 -86.67 2.95 
583.75 -85.41 3.07 
584.02 -84.95 3.10 
584.36 -85.39 3.05 
585.68 -80.73 3.59 
585.69 -80.76 3.58 
585.47 -80.28 3.67 
585.74 -80.66 3.60 
586.38 -80.46 3.62 
586.83 -80.54 3.47 
589.34 -103.51 2.17 
589.34 -103.55 2.17 
583.63 -93.85 2.66 
583.61 -94.10 2.65 
583.91 -94.26 2.63 
590.08 -103.25 2.18 
590.13 -103.53 2.19 
583.91 -93.94 2.64 
584.17 -94.28 2.61 
584.31 -94.54 2.60 
584.64 -94.84 2.57 
584.95 -94.65 2.55 
582.79 -87.81 2.95 
583.14 -87.95 2.92 
583.42 -86.57 3.32 
582.21 -84.27 3.26 
582.62 -84.80 3.50 
582.98 -85.54 3.43 
584.22 -87.13 3.23 
582.74 -84.74 3.50 
583.00 -85.02 3.44 
583.78 -85.89 3.35 
583.75 -86.17 3.33 
584.39 -86.56 3.25 
583.57 -85.07 3.41 
583.78 -85.44 3.38 
583.29 -84.01 3.56 
583.67 -84.59 3.45 
584.48 -85.34 3.34 
584.52 -85.17 3.35 
581.71 -84.55 3.59 
582.04 -84.18 3.62 
582.08 -84.47 3.58 
582.45 -84.08 3.60 
583.68 -86.02 3.66 
583.86 -85.81 3.66 
589.93 -101.43 0.14 
590.17 -101.38 0.17 
590.36 -101.60 0.16 
590.90 -101.66 0.20 
591.18 -102.07 0.19 
584.38 -95.39 0.55 
584.43 -95.06 0.58 
584.53 -95.23 0.57 
584.90 -95.64 0.56 
585.07 -95.06 0.67 
589.33 -101.33 0.44 
589.55 -101.52 0.44 
589.90 -101.35 0.48 
575.80 -80.13 1.27 
590.23 -101.33 0.50 
590.44 -101.45 0.51 
590.79 -102.24 0.47 
576.09 -79.90 1.30 
590.74 -101.39 0.53 
590.95 -101.53 0.54 
591.04 -102.03 0.51 
591.34 -102.28 0.51 
591.44 -101.81 0.55 
587.04 -80.72 2.17 
588.30 -102.35 0.65 
584.58 -95.66 0.89 
588.66 -102.16 0.68 
584.15 -94.79 1.18 
584.44 -94.95 0.93 
584.49 -95.25 0.91 
584.81 -95.69 0.89 
585.25 -96.06 1.16 
585.26 -96.31 1.14 
589.07 -101.69 0.73 
576.37 -82.59 1.28 
584.86 -94.82 1.09 
584.85 -95.03 0.94 
589.38 -101.68 0.75 
576.86 -82.30 1.34 
576.89 -82.60 1.65 
585.29 -94.85 1.10 
590.09 -101.67 0.79 
576.79 -81.71 1.73 
585.58 -94.76 1.25 
585.71 -95.18 1.28 
589.84 -101.19 1.12 
590.00 -101.34 0.96 
590.31 -101.69 0.80 
590.75 -101.99 0.81 
590.76 -102.08 0.81 
591.32 -102.84 0.80 
585.31 -93.79 1.37 
586.17 -95.08 1.26 
590.62 -101.44 0.83 
590.88 -101.65 0.84 
591.12 -101.94 0.84 
591.50 -102.65 0.82 
576.72 -80.02 1.53 
576.71 -80.34 1.50 
591.46 -101.82 0.86 
577.39 -80.39 1.89 
582.61 -86.96 1.69 
582.60 -86.12 1.67 
582.81 -86.39 1.74 
583.05 -86.82 1.72 
583.16 -87.11 1.70 
582.53 -85.25 1.66 
582.72 -85.62 1.72 
582.94 -85.82 1.71 
583.22 -86.15 1.78 
583.43 -86.60 1.75 
582.96 -85.01 1.78 
583.45 -86.04 1.80 
582.87 -84.02 1.79 
583.12 -84.83 1.81 
585.75 -81.64 2.30 
586.02 -81.47 2.33 
586.33 -81.45 2.35 
585.83 -80.56 2.29 
586.18 -80.85 2.27 
586.58 -81.38 2.37 
586.23 -79.91 2.37 
586.25 -80.15 2.35 
586.48 -80.42 2.37 
587.04 -81.15 2.29 
586.81 -80.27 2.37 
575.53 -82.79 1.74 
584.30 -95.47 1.58 
584.43 -95.89 1.21 
588.72 -102.42 1.03 
576.07 -82.75 1.76 
583.55 -93.70 1.33 
583.58 -93.91 1.32 
584.38 -94.78 1.28 
584.36 -95.10 1.26 
584.58 -95.38 1.42 
585.29 -96.30 1.51 
584.49 -94.24 1.65 
584.72 -94.73 1.46 
584.88 -95.37 1.59 
584.95 -95.43 1.59 
585.40 -95.95 1.53 
575.93 -81.51 1.71 
576.38 -81.76 1.79 
576.47 -82.06 1.76 
576.71 -82.39 1.82 
584.58 -93.74 1.52 
584.75 -94.23 1.49 
584.91 -94.73 1.62 
585.36 -94.97 1.61 
585.59 -95.66 1.55 
575.62 -80.28 1.82 
575.93 -80.52 1.81 
575.96 -80.80 1.78 
576.31 -81.07 1.77 
576.58 -81.61 1.89 
576.67 -81.94 1.86 
576.80 -82.09 1.86 
585.06 -93.98 1.67 
585.43 -94.64 1.63 
586.02 -95.04 1.61 
586.02 -95.60 1.57 
590.42 -101.69 1.45 
576.00 -79.85 2.03 
576.47 -80.87 1.80 
576.82 -81.27 1.93 
577.07 -81.56 1.92 
585.28 -93.73 1.69 
576.55 -80.18 2.02 
576.77 -80.38 1.94 
577.00 -81.10 1.96 
577.27 -80.17 1.98 
577.51 -81.08 1.98 
582.26 -87.43 2.00 
582.39 -87.64 1.98 
577.41 -79.98 1.93 
578.19 -80.97 2.02 
578.10 -81.21 1.99 
581.91 -86.90 2.03 
581.77 -85.29 2.02 
582.02 -85.93 2.12 
582.81 -87.25 2.02 
582.59 -86.10 2.11 
582.76 -86.42 2.09 
583.19 -86.76 2.07 
583.18 -87.05 2.05 
584.00 -87.34 2.04 
583.40 -85.93 2.07 
583.78 -86.57 2.10 
584.01 -86.86 2.08 
582.88 -84.59 2.25 
583.40 -85.37 2.19 
585.16 -81.99 2.55 
585.33 -81.06 2.58 
585.44 -81.09 2.58 
585.90 -81.79 2.59 
585.90 -80.80 2.63 
586.06 -81.23 2.64 
586.17 -81.71 2.61 
585.97 -80.53 2.67 
586.10 -80.63 2.66 
586.24 -81.11 2.64 
586.47 -81.42 2.65 
586.38 -80.58 2.67 
587.05 -81.45 2.66 
588.64 -102.53 1.39 
583.78 -95.11 1.96 
583.97 -95.25 1.94 
575.42 -82.20 2.32 
583.35 -93.91 2.03 
584.31 -95.15 1.94 
589.81 -102.71 1.42 
575.53 -81.72 2.36 
575.72 -81.91 2.35 
590.66 -103.51 1.79 
576.16 -81.39 2.41 
576.21 -81.57 2.39 
585.29 -95.02 1.93 
586.12 -96.02 1.91 
590.25 -102.62 1.77 
591.26 -103.53 1.80 
591.31 -103.67 1.81 
575.88 -80.61 2.48 
576.21 -80.94 2.45 
576.22 -81.17 2.43 
576.75 -81.85 2.38 
584.19 -92.95 2.07 
584.27 -93.07 2.06 
586.19 -95.80 1.91 
576.39 -80.50 2.50 
584.71 -93.08 2.05 
584.88 -93.35 2.03 
576.32 -79.75 2.53 
576.60 -80.32 2.52 
576.65 -79.94 2.56 
582.71 -87.65 2.34 
582.72 -87.81 2.33 
582.28 -86.07 2.47 
583.16 -86.80 2.41 
583.18 -87.11 2.38 
583.38 -87.29 2.37 
582.33 -84.97 2.57 
583.41 -86.50 2.43 
583.66 -87.19 2.37 
583.18 -85.69 2.50 
583.56 -86.30 2.45 
583.87 -86.65 2.42 
583.00 -84.54 2.61 
583.05 -84.86 2.58 
583.71 -85.51 2.52 
584.08 -84.86 2.58 
585.52 -82.08 2.86 
585.39 -80.87 2.98 
585.45 -81.26 2.94 
585.74 -81.40 3.24 
585.62 -80.72 3.01 
585.78 -81.32 3.25 
585.91 -80.53 3.04 
586.16 -80.79 3.01 
586.16 -81.10 2.97 
586.10 -80.27 3.08 
586.48 -80.57 3.04 
586.74 -80.46 3.35 
583.67 -95.25 2.31 
589.42 -103.27 2.12 
584.52 -95.10 2.28 
590.00 -103.34 2.13 
590.15 -103.70 2.14 
584.22 -94.21 2.33 
584.44 -94.39 2.31 
584.57 -94.75 2.29 
584.68 -95.13 2.27 
589.95 -103.05 2.12 
584.02 -93.34 2.39 
584.19 -93.82 2.36 
584.49 -93.95 2.33 
584.80 -94.39 2.30 
585.29 -94.44 2.27 
582.38 -86.74 2.77 
582.89 -87.56 2.70 
583.13 -87.74 2.68 
583.08 -87.24 2.72 
582.04 -84.44 2.99 
583.75 -87.17 2.70 
583.40 -85.93 2.82 
583.51 -86.33 2.78 
583.90 -86.82 2.89 
584.14 -87.01 2.92 
583.68 -85.43 2.85 
583.86 -85.95 3.13 
584.15 -86.09 2.78 
584.20 -86.52 2.74 
583.75 -85.06 2.89 
584.09 -85.57 2.83 
583.95 -84.74 3.07 
584.39 -85.25 3.17 
584.13 -84.59 3.23 
585.49 -80.44 3.42 
585.70 -80.68 3.39 
585.81 -81.24 3.57 
585.74 -80.30 3.44 
585.67 -80.46 3.42 
586.07 -79.75 3.53 
586.16 -80.27 3.45 
586.41 -79.91 3.50 
583.45 -93.81 2.75 
583.59 -94.09 2.72 
575.62 -81.93 2.88 
575.80 -81.82 2.89 
583.65 -93.66 2.74 
583.99 -94.06 2.70 
584.19 -94.29 2.67 
584.38 -94.52 2.65 
575.69 -81.33 2.94 
584.65 -94.39 2.64 
575.92 -80.75 3.00 
576.00 -80.11 3.07 
582.99 -87.47 3.05 
583.06 -87.88 3.01 
582.10 -85.12 3.29 
582.13 -84.04 3.40 
582.93 -85.42 3.22 
583.39 -85.21 3.18 
583.70 -85.87 3.25 
583.30 -84.35 3.30 
583.61 -84.84 3.41 
583.97 -85.14 3.53 
583.12 -85.76 3.53 
583.63 -84.73 3.93 
582.48 -86.29 3.89 
582.60 -85.34 3.96 
589.40 -101.45 0.18 
589.48 -101.66 0.17 
589.70 -101.47 0.20 
590.08 -101.29 0.25 
590.33 -101.61 0.25 
590.72 -102.05 0.24 
590.66 -102.25 0.21 
590.70 -101.44 0.29 
590.76 -101.71 0.27 
591.29 -102.07 0.29 
591.45 -101.96 0.31 
588.26 -102.15 0.37 
584.42 -95.02 0.66 
584.66 -95.35 0.65 
584.21 -93.75 0.75 
585.00 -95.04 0.75 
589.12 -101.19 0.51 
591.44 -104.59 0.42 
589.48 -101.28 0.52 
575.81 -79.94 1.37 
589.83 -101.25 0.55 
590.04 -101.33 0.56 
590.23 -101.51 0.56 
590.73 -102.06 0.55 
590.29 -101.17 0.59 
590.69 -101.31 0.61 
590.87 -101.90 0.58 
591.16 -102.22 0.57 
590.78 -101.27 0.62 
590.95 -101.51 0.61 
582.74 -85.42 1.36 
583.12 -85.99 1.54 
583.12 -86.20 1.52 
583.13 -84.99 1.62 
587.14 -80.74 2.27 
584.72 -96.05 1.21 
584.84 -96.36 1.19 
584.02 -94.54 1.03 
584.22 -94.65 1.03 
584.37 -95.08 1.01 
584.99 -95.76 1.24 
585.04 -96.06 1.22 
585.31 -96.27 1.22 
588.96 -101.57 0.80 
575.82 -81.24 1.45 
576.50 -82.51 1.39 
584.73 -94.88 1.04 
585.31 -95.45 1.27 
585.47 -96.34 1.22 
589.19 -101.22 0.83 
589.28 -101.50 0.82 
589.36 -101.74 0.81 
585.33 -94.88 1.07 
576.88 -81.78 1.48 
577.22 -82.19 1.46 
585.27 -94.18 1.44 
585.31 -94.43 1.34 
590.00 -101.41 0.86 
590.19 -101.60 0.86 
590.64 -101.95 0.87 
585.21 -93.74 1.47 
585.24 -93.82 1.47 
590.51 -101.33 0.90 
590.74 -101.59 0.89 
576.77 -79.84 1.64 
577.02 -80.42 1.60 
590.70 -101.22 0.91 
591.01 -101.69 0.90 
591.44 -101.88 0.92 
581.82 -85.27 1.90 
582.29 -86.02 1.86 
582.72 -87.07 1.79 
581.76 -85.16 1.91 
582.76 -86.31 1.85 
582.89 -86.49 1.84 
582.95 -86.70 1.83 
583.36 -87.09 1.81 
582.51 -85.40 1.84 
582.74 -85.65 1.91 
582.99 -85.95 1.89 
583.33 -86.15 1.89 
583.50 -86.48 1.87 
582.72 -85.08 1.80 
583.08 -85.21 1.80 
583.49 -85.83 1.93 
582.81 -83.90 1.92 
583.03 -84.46 2.03 
583.81 -85.88 1.94 
585.62 -81.69 2.41 
585.71 -81.59 2.42 
585.33 -80.12 2.43 
586.06 -81.15 2.48 
586.08 -81.37 2.42 
586.30 -81.70 2.44 
585.84 -80.17 2.45 
586.02 -80.44 2.55 
586.38 -80.94 2.52 
586.44 -81.13 2.50 
586.17 -79.82 2.51 
586.69 -80.73 2.56 
586.99 -81.16 2.41 
586.70 -80.20 2.55 
583.93 -95.76 1.30 
584.11 -96.08 1.28 
583.85 -94.81 1.36 
584.36 -95.80 1.31 
584.23 -95.95 1.29 
575.17 -81.27 1.97 
575.69 -82.43 1.89 
576.04 -82.74 1.87 
583.38 -93.79 1.43 
584.22 -94.85 1.37 
584.37 -95.13 1.35 
584.43 -95.33 1.34 
575.74 -81.23 2.00 
576.35 -82.26 1.93 
584.64 -94.67 1.74 
584.69 -94.77 1.56 
584.84 -95.24 1.70 
585.02 -95.50 1.62 
585.51 -95.96 1.61 
585.59 -96.03 1.61 
589.40 -101.85 1.13 
575.78 -81.28 2.00 
576.35 -81.76 1.98 
576.78 -82.50 1.93 
584.65 -94.00 1.61 
584.89 -94.23 1.77 
585.06 -94.87 1.66 
585.19 -95.25 1.36 
585.64 -95.39 1.64 
585.70 -95.58 1.64 
576.00 -80.30 1.95 
576.05 -80.71 1.91 
576.37 -81.15 1.96 
576.60 -81.43 1.87 
584.43 -93.04 1.85 
584.76 -93.53 1.81 
584.89 -93.81 1.63 
584.99 -94.21 1.60 
585.35 -94.44 1.72 
585.62 -94.89 1.72 
585.91 -95.53 1.64 
576.52 -80.75 1.93 
576.84 -80.92 2.08 
585.40 -93.73 1.80 
585.65 -94.53 1.69 
585.99 -95.04 1.71 
590.66 -101.87 1.49 
576.39 -79.75 2.17 
576.70 -80.12 2.08 
576.82 -80.37 2.06 
577.15 -80.69 2.12 
577.42 -81.17 2.08 
577.44 -81.42 2.06 
577.20 -80.13 2.03 
577.53 -80.49 2.15 
577.53 -80.98 2.11 
581.58 -86.69 2.16 
577.74 -80.47 2.16 
582.59 -87.30 2.13 
582.84 -87.09 2.16 
582.45 -85.95 2.25 
582.87 -86.35 2.22 
583.10 -86.82 2.18 
583.02 -85.93 2.26 
583.48 -86.62 2.21 
583.64 -86.92 2.19 
583.38 -85.63 2.30 
583.88 -86.34 2.24 
584.08 -86.86 2.20 
582.74 -84.44 2.39 
583.53 -85.63 2.30 
584.05 -86.29 2.25 
583.77 -85.16 2.35 
585.17 -81.21 2.71 
585.25 -81.06 2.73 
585.67 -81.32 2.78 
585.77 -81.70 2.74 
585.80 -80.74 2.79 
586.03 -81.07 2.76 
586.06 -80.56 2.82 
586.27 -80.90 2.83 
586.23 -80.34 2.85 
584.11 -95.24 2.06 
589.34 -103.09 1.78 
575.43 -81.83 2.49 
584.10 -94.90 2.08 
584.29 -95.14 2.06 
584.40 -95.37 1.69 
589.07 -102.48 1.78 
589.49 -102.60 1.78 
589.74 -103.10 1.79 
584.50 -94.67 2.08 
584.43 -94.84 2.07 
589.80 -102.40 1.79 
