# .PCD v0.7 - Point Cloud Data file format
VERSION 0.7
FIELDS x y z
SIZE 4 4 4
TYPE F F F
COUNT 1 1 1
WIDTH 2255
HEIGHT 1
VIEWPOINT 0 0 0 1 0 0 0
POINTS 2255
DATA ascii
571.18 -638.94 -1.07 
570.71 -638.90 -1.12 
570.41 -638.90 -1.15 
570.09 -638.87 -1.19 
569.61 -638.87 -1.24 
569.15 -638.82 -1.29 
568.83 -638.82 -1.32 
568.38 -638.81 -1.37 
567.91 -638.80 -1.42 
567.57 -638.76 -1.46 
567.24 -638.76 -1.50 
566.98 -638.77 -1.52 
567.60 -643.63 -1.24 
585.89 -647.64 1.27 
577.08 -648.85 0.04 
582.86 -652.63 1.14 
576.81 -653.29 0.48 
576.53 -653.36 0.45 
578.27 -654.54 0.70 
576.11 -639.28 -0.22 
575.79 -639.25 -0.26 
575.47 -639.21 -0.30 
580.18 -652.05 1.29 
577.25 -653.41 0.97 
582.32 -654.15 1.61 
577.89 -653.65 1.05 
577.64 -653.61 1.02 
583.11 -654.55 1.73 
583.74 -654.68 1.81 
583.48 -654.66 1.78 
583.25 -654.67 1.75 
567.67 -644.75 -0.27 
567.23 -644.60 -0.32 
566.80 -644.48 -0.36 
567.96 -644.87 -0.24 
575.87 -650.58 1.07 
580.90 -651.96 1.67 
580.45 -651.80 1.61 
580.69 -652.12 1.65 
581.08 -652.59 1.71 
570.29 -638.70 -0.13 
569.97 -638.68 -0.16 
569.50 -638.66 -0.21 
569.03 -638.65 -0.26 
568.74 -638.63 -0.29 
568.33 -638.61 -0.33 
567.92 -638.59 -0.38 
574.70 -653.41 1.38 
575.04 -639.14 0.73 
574.74 -639.10 0.70 
574.08 -639.06 0.63 
567.17 -643.79 0.60 
567.50 -644.07 0.63 
566.98 -644.06 0.58 
566.80 -644.10 0.56 
570.49 -638.48 0.95 
570.18 -638.48 0.92 
569.73 -638.47 0.87 
569.35 -638.44 0.83 
568.94 -638.43 0.79 
568.63 -638.41 0.76 
568.29 -638.39 0.72 
567.80 -638.37 0.67 
567.33 -638.34 0.62 
567.00 -638.33 0.59 
566.74 -638.35 0.56 
570.07 -638.22 1.96 
569.68 -638.21 1.92 
569.23 -638.19 1.88 
568.80 -638.18 1.83 
568.48 -638.16 1.80 
568.03 -638.12 1.76 
566.87 -638.00 1.65 
566.55 -638.06 1.61 
569.98 -637.96 3.02 
569.56 -637.96 2.98 
569.15 -637.92 2.94 
568.68 -637.91 2.89 
568.35 -637.88 2.86 
568.04 -637.88 2.83 
566.73 -637.71 2.72 
569.83 -637.64 4.10 
569.51 -637.61 4.07 
569.18 -637.60 4.04 
567.88 -637.32 3.94 
567.42 -637.53 3.88 
566.96 -637.49 3.84 
566.64 -637.49 3.81 
570.02 -637.29 5.23 
568.78 -637.24 5.12 
567.33 -637.17 4.99 
580.91 -652.21 -0.50 
580.45 -652.14 -0.56 
580.22 -652.14 -0.58 
579.86 -652.16 -0.62 
579.40 -652.12 -0.67 
582.59 -652.67 -0.28 
582.17 -652.54 -0.34 
581.72 -652.42 -0.40 
581.39 -652.27 -0.44 
581.15 -652.28 -0.47 
580.67 -652.26 -0.52 
578.93 -652.21 -0.71 
578.59 -652.14 -0.76 
591.22 -653.34 0.69 
590.81 -653.33 0.64 
590.56 -653.32 0.61 
590.11 -653.38 0.57 
589.71 -653.40 0.53 
589.31 -653.39 0.49 
584.01 -653.15 -0.09 
583.68 -653.08 -0.13 
583.34 -653.00 -0.17 
583.02 -652.86 -0.22 
588.91 -653.40 0.45 
588.38 -653.42 0.40 
588.14 -653.39 0.37 
587.76 -653.38 0.33 
587.11 -653.42 0.26 
586.88 -653.41 0.24 
586.47 -653.48 0.20 
585.74 -653.38 0.12 
585.31 -653.35 0.07 
584.94 -653.29 0.03 
584.59 -653.24 -0.02 
579.83 -653.15 0.01 
579.21 -653.49 -0.04 
578.94 -653.58 -0.06 
580.03 -654.03 0.09 
579.65 -653.93 0.04 
580.21 -654.24 0.12 
576.40 -639.31 -1.32 
575.91 -639.30 -1.37 
575.60 -639.28 -1.41 
575.28 -639.27 -1.44 
574.83 -639.25 -1.50 
574.37 -639.23 -1.55 
574.06 -639.20 -1.58 
573.60 -639.20 -1.63 
573.14 -639.16 -1.69 
572.83 -639.16 -1.72 
572.52 -639.13 -1.76 
572.07 -639.12 -1.81 
571.63 -639.09 -1.86 
571.22 -639.08 -1.90 
570.79 -639.06 -1.95 
570.39 -639.05 -1.99 
570.06 -639.02 -2.03 
569.73 -639.01 -2.07 
569.27 -638.98 -2.12 
568.80 -638.98 -2.17 
568.49 -638.95 -2.20 
568.23 -638.94 -2.23 
567.54 -638.89 -2.31 
567.25 -638.91 -2.34 
566.95 -638.89 -2.37 
566.65 -638.85 -2.41 
589.40 -646.02 0.81 
589.07 -646.04 0.78 
588.77 -646.02 0.74 
588.38 -646.03 0.70 
587.98 -646.07 0.66 
585.56 -646.26 0.40 
583.61 -646.75 0.22 
583.12 -646.88 0.17 
582.71 -647.05 0.14 
590.74 -648.35 0.91 
587.80 -648.11 0.56 
586.25 -648.37 0.62 
591.04 -648.83 0.98 
588.47 -648.53 0.66 
587.92 -648.75 0.62 
586.59 -648.59 0.68 
585.91 -648.57 0.60 
589.42 -649.02 1.02 
589.07 -649.18 0.89 
588.75 -649.12 0.85 
588.32 -649.18 0.69 
591.05 -649.65 1.03 
589.80 -649.49 1.10 
589.56 -649.38 1.06 
588.64 -649.38 0.74 
591.45 -650.03 1.11 
583.06 -650.82 1.01 
583.10 -651.39 1.04 
577.55 -650.85 0.37 
573.44 -650.94 -0.09 
579.52 -651.50 0.62 
577.88 -651.38 0.43 
572.72 -651.23 -0.16 
584.70 -652.46 1.29 
579.53 -652.27 0.66 
584.85 -652.99 1.33 
578.31 -652.80 0.54 
585.28 -653.42 1.41 
578.48 -652.85 0.57 
572.80 -652.73 -0.08 
579.54 -653.52 0.72 
578.86 -653.58 0.64 
578.58 -653.41 0.60 
577.92 -653.48 0.53 
577.55 -653.31 0.48 
578.05 -653.86 0.56 
585.27 -654.51 1.46 
581.90 -654.25 1.03 
570.27 -638.89 -0.98 
568.70 -638.82 -1.15 
567.44 -638.74 -1.28 
577.06 -639.20 -0.22 
576.18 -639.18 -0.32 
574.63 -639.10 -0.49 
572.73 -639.00 -0.71 
572.27 -638.99 -0.76 
571.84 -638.96 -0.80 
571.53 -638.96 -0.84 
571.12 -638.93 -0.88 
570.69 -638.92 -0.93 
569.96 -638.89 -1.01 
569.63 -638.86 -1.05 
569.17 -638.84 -1.10 
568.39 -638.82 -1.18 
568.12 -638.83 -1.21 
567.54 -644.90 -1.00 
580.86 -648.07 0.62 
577.50 -648.94 0.27 
581.89 -652.00 1.18 
582.75 -652.40 1.30 
582.08 -652.44 1.22 
576.79 -653.46 0.67 
576.49 -653.47 0.64 
577.75 -653.88 0.79 
583.43 -654.52 1.47 
576.79 -636.30 -0.10 
576.49 -636.26 -0.14 
576.20 -639.27 -0.03 
575.79 -639.24 -0.08 
575.43 -639.27 -0.12 
574.94 -639.24 -0.17 
574.61 -639.25 -0.21 
574.30 -639.25 -0.24 
573.50 -639.20 -0.33 
575.61 -652.84 0.95 
572.17 -653.29 0.58 
578.19 -653.80 1.28 
578.02 -653.64 1.26 
571.86 -653.71 0.55 
567.62 -644.10 -0.10 
566.53 -644.26 -0.21 
567.95 -644.72 -0.06 
567.43 -644.66 -0.11 
567.10 -644.45 -0.15 
566.82 -644.39 -0.18 
579.55 -648.68 1.33 
579.37 -648.58 1.30 
575.40 -649.97 1.18 
575.97 -652.34 1.30 
576.39 -653.37 1.36 
577.28 -653.86 1.47 
581.34 -654.48 1.96 
571.40 -638.75 0.18 
571.11 -638.73 0.15 
570.62 -638.72 0.10 
570.16 -638.71 0.05 
569.85 -638.69 0.01 
569.52 -638.68 -0.02 
569.06 -638.64 -0.07 
568.59 -638.62 -0.12 
568.27 -638.61 -0.15 
568.02 -638.62 -0.18 
574.40 -653.34 1.53 
571.90 -653.38 1.25 
575.35 -639.12 0.94 
575.01 -639.13 0.91 
567.15 -644.32 0.78 
566.75 -644.45 0.74 
574.46 -652.92 1.90 
578.36 -653.31 2.73 
571.61 -638.54 1.25 
571.30 -638.53 1.22 
570.99 -638.52 1.18 
570.52 -638.49 1.13 
570.06 -638.47 1.09 
569.74 -638.47 1.05 
569.42 -638.45 1.02 
568.95 -638.42 0.97 
568.48 -638.40 0.92 
568.19 -638.40 0.89 
567.91 -638.40 0.86 
567.21 -638.32 0.79 
566.91 -638.32 0.76 
566.65 -638.32 0.74 
566.58 -643.69 1.65 
571.20 -638.29 2.26 
570.89 -638.26 2.23 
570.42 -638.24 2.18 
569.95 -638.23 2.13 
569.64 -638.22 2.10 
569.31 -638.17 2.06 
568.84 -638.17 2.01 
568.40 -638.14 1.97 
567.09 -638.07 1.84 
566.79 -638.07 1.81 
571.09 -637.99 3.31 
570.78 -638.01 3.28 
570.31 -637.98 3.23 
569.84 -637.96 3.18 
569.55 -637.94 3.15 
569.13 -637.93 3.11 
568.69 -637.89 3.07 
568.28 -637.89 3.03 
566.97 -637.80 2.90 
566.67 -637.82 2.88 
570.98 -637.67 4.39 
570.54 -637.65 4.35 
570.16 -637.64 4.31 
569.73 -637.62 4.27 
569.41 -637.62 4.23 
568.12 -637.50 4.11 
567.81 -637.53 4.08 
567.55 -637.54 4.06 
566.84 -637.48 3.99 
566.54 -637.46 3.97 
569.01 -637.09 5.32 
570.93 -637.31 5.50 
570.61 -637.30 5.46 
569.61 -637.25 5.36 
569.29 -637.22 5.33 
581.74 -652.14 -0.22 
581.28 -652.04 -0.27 
580.93 -652.01 -0.31 
580.58 -651.95 -0.36 
580.09 -651.89 -0.42 
579.78 -651.86 -0.45 
579.43 -651.84 -0.49 
583.64 -652.72 0.04 
583.34 -652.61 -0.01 
582.87 -652.46 -0.07 
582.53 -652.38 -0.11 
582.20 -652.27 -0.16 
591.37 -653.20 0.88 
590.74 -653.25 0.82 
590.46 -653.25 0.79 
590.10 -653.24 0.76 
589.33 -653.29 0.68 
588.92 -653.29 0.64 
588.40 -653.26 0.58 
588.01 -653.25 0.54 
585.72 -653.19 0.30 
585.37 -653.12 0.25 
584.90 -653.05 0.20 
584.50 -652.96 0.15 
584.16 -652.94 0.11 
583.82 -652.80 0.06 
575.60 -653.33 -0.76 
575.37 -653.52 -0.77 
577.45 -653.65 -0.54 
575.14 -653.88 -0.76 
585.59 -653.07 0.86 
580.12 -653.13 0.24 
579.53 -653.53 0.21 
579.19 -653.67 0.18 
578.93 -653.59 0.14 
578.60 -653.60 0.11 
580.33 -654.10 0.33 
579.93 -653.96 0.28 
580.59 -654.32 0.38 
566.89 -638.75 -2.18 
576.41 -639.33 -1.11 
575.95 -639.31 -1.16 
575.50 -639.27 -1.21 
575.17 -639.28 -1.25 
574.73 -639.25 -1.30 
574.26 -639.24 -1.35 
573.95 -639.21 -1.38 
573.65 -639.22 -1.42 
573.19 -639.18 -1.47 
572.72 -639.16 -1.52 
572.42 -639.14 -1.55 
571.98 -639.13 -1.60 
571.52 -639.10 -1.66 
571.22 -639.09 -1.69 
570.81 -639.07 -1.73 
570.39 -639.04 -1.78 
569.98 -639.02 -1.83 
569.64 -639.01 -1.87 
569.18 -638.99 -1.92 
568.71 -638.97 -1.97 
568.40 -638.96 -2.00 
568.10 -638.94 -2.04 
567.63 -638.90 -2.09 
567.22 -638.91 -2.13 
589.52 -646.06 1.04 
589.05 -646.04 0.99 
588.75 -646.04 0.95 
588.31 -645.97 0.90 
586.40 -645.95 0.68 
586.33 -646.01 0.68 
585.97 -646.00 0.64 
585.54 -646.09 0.59 
585.14 -646.14 0.55 
584.83 -646.19 0.52 
584.53 -646.17 0.49 
584.21 -646.30 0.46 
583.92 -646.31 0.43 
589.04 -648.38 1.14 
588.13 -648.34 0.82 
588.70 -648.88 0.92 
588.31 -648.75 0.87 
586.89 -648.68 0.92 
586.71 -648.40 0.88 
586.24 -648.52 0.84 
585.85 -648.44 0.79 
589.71 -649.24 1.28 
589.36 -649.21 1.13 
589.03 -649.11 0.98 
591.27 -649.56 1.26 
590.13 -649.56 1.35 
591.33 -649.83 1.29 
577.53 -653.56 0.22 
577.23 -653.42 0.17 
576.92 -653.44 0.14 
577.73 -653.79 0.25 
577.28 -650.26 0.52 
577.05 -650.23 0.49 
577.20 -650.50 0.52 
572.81 -650.29 0.02 
577.81 -650.91 0.61 
573.68 -650.83 0.14 
583.52 -652.01 1.34 
583.60 -652.42 1.37 
579.54 -652.48 0.88 
578.74 -652.77 0.80 
578.56 -652.73 0.78 
573.29 -652.75 0.18 
579.86 -653.66 0.98 
579.67 -653.47 0.94 
578.98 -653.52 0.87 
578.80 -653.37 0.84 
578.13 -653.42 0.76 
579.95 -654.00 1.00 
579.12 -653.79 0.89 
578.21 -653.93 0.79 
585.36 -654.55 1.69 
583.76 -654.39 1.48 
573.10 -639.04 -0.45 
572.66 -639.01 -0.50 
572.35 -639.00 -0.54 
571.89 -638.97 -0.59 
571.43 -638.96 -0.64 
571.12 -638.94 -0.67 
570.81 -638.94 -0.71 
570.32 -638.90 -0.76 
569.85 -638.88 -0.81 
569.54 -638.86 -0.85 
569.08 -638.85 -0.90 
568.61 -638.82 -0.95 
568.31 -638.82 -0.98 
567.87 -638.80 -1.03 
566.52 -644.06 -0.94 
567.97 -644.67 -0.76 
567.53 -644.59 -0.81 
567.30 -644.61 -0.83 
567.81 -644.82 -0.77 
579.95 -648.36 0.74 
577.76 -648.91 0.51 
583.51 -652.78 1.61 
583.16 -652.66 1.57 
577.03 -653.45 0.90 
576.59 -653.38 0.85 
576.41 -653.34 0.82 
583.47 -654.13 1.67 
583.79 -654.52 1.73 
583.63 -654.28 1.70 
579.12 -654.24 1.17 
579.36 -636.34 0.13 
576.98 -636.28 0.13 
576.70 -636.26 0.10 
576.27 -639.28 0.18 
575.95 -639.25 0.15 
575.57 -639.24 0.11 
575.04 -639.24 0.05 
574.73 -639.23 0.01 
574.25 -639.24 -0.04 
573.77 -639.21 -0.09 
572.53 -653.30 0.82 
572.33 -653.22 0.79 
580.44 -653.71 1.77 
572.72 -653.58 0.85 
571.90 -653.81 0.76 
567.95 -644.02 0.13 
567.73 -644.07 0.11 
567.54 -644.45 0.10 
567.15 -644.33 0.05 
566.61 -644.35 0.00 
568.67 -644.83 0.22 
568.27 -644.73 0.18 
568.06 -645.01 0.16 
566.97 -644.76 0.04 
575.12 -650.11 1.36 
575.81 -650.81 1.45 
576.31 -652.47 1.54 
575.24 -652.98 1.43 
576.64 -653.39 1.60 
577.99 -653.90 1.76 
581.99 -654.20 2.25 
575.84 -653.83 1.52 
573.04 -654.33 1.58 
572.56 -638.81 0.52 
572.11 -638.78 0.47 
571.73 -638.78 0.42 
571.33 -638.76 0.38 
570.99 -638.75 0.34 
570.68 -638.72 0.31 
570.22 -638.70 0.26 
569.74 -638.67 0.21 
569.44 -638.66 0.17 
568.97 -638.64 0.12 
568.56 -638.65 0.08 
580.05 -653.26 2.45 
575.33 -653.54 2.20 
572.08 -653.46 1.47 
567.37 -644.41 0.99 
567.12 -644.37 0.97 
566.54 -644.43 0.91 
567.11 -644.69 0.97 
566.81 -643.89 0.94 
573.14 -652.21 2.32 
573.67 -638.65 1.69 
572.76 -638.53 1.59 
572.48 -638.50 1.55 
572.14 -638.47 1.52 
571.67 -638.54 1.46 
571.21 -638.54 1.41 
570.90 -638.51 1.38 
570.58 -638.51 1.34 
570.12 -638.48 1.30 
569.64 -638.46 1.24 
569.33 -638.43 1.21 
568.87 -638.42 1.16 
568.42 -638.31 1.12 
568.11 -638.29 1.08 
567.71 -638.25 1.04 
567.28 -638.34 1.00 
571.73 -638.22 2.52 
567.20 -638.08 2.05 
566.72 -638.05 2.00 
573.15 -638.36 2.68 
571.42 -638.28 2.49 
571.11 -638.26 2.45 
570.80 -638.25 2.42 
570.33 -638.23 2.37 
569.86 -638.22 2.32 
569.54 -638.19 2.29 
569.23 -638.18 2.25 
568.80 -638.16 2.21 
574.13 -638.16 3.86 
573.88 -638.14 3.83 
573.04 -638.10 3.73 
571.48 -638.00 3.56 
571.01 -638.01 3.50 
570.70 -637.99 3.47 
570.23 -637.97 3.42 
569.78 -637.94 3.38 
569.46 -637.93 3.34 
569.15 -637.91 3.31 
568.74 -637.89 3.27 
568.17 -637.65 3.22 
567.85 -637.65 3.19 
567.54 -637.63 3.16 
567.08 -637.81 3.10 
571.38 -637.66 4.64 
570.94 -637.67 4.59 
570.62 -637.63 4.56 
570.20 -637.62 4.51 
569.65 -637.57 4.46 
568.38 -637.55 4.33 
568.07 -637.55 4.29 
567.75 -637.52 4.26 
567.44 -637.48 4.24 
566.96 -637.48 4.19 
571.17 -637.31 5.72 
569.87 -637.24 5.58 
569.54 -637.24 5.55 
566.73 -637.11 5.28 
582.13 -651.79 0.00 
581.64 -651.77 -0.05 
581.29 -651.71 -0.10 
580.94 -651.64 -0.14 
580.47 -651.57 -0.19 
580.12 -651.48 -0.24 
578.95 -651.43 -0.36 
578.58 -651.42 -0.40 
584.40 -652.31 0.28 
584.03 -652.23 0.23 
583.67 -652.16 0.19 
583.33 -652.05 0.14 
582.84 -651.94 0.08 
582.48 -651.87 0.04 
591.17 -652.70 1.00 
590.85 -652.68 0.96 
589.28 -652.67 0.80 
588.83 -652.72 0.76 
588.42 -652.71 0.72 
587.99 -652.75 0.68 
587.60 -652.70 0.64 
586.55 -652.67 0.53 
586.04 -652.63 0.47 
585.66 -652.60 0.43 
585.29 -652.56 0.39 
584.91 -652.47 0.34 
584.51 -652.40 0.30 
575.02 -652.84 -0.65 
577.85 -653.61 -0.28 
577.21 -653.49 -0.36 
574.44 -653.26 -0.67 
577.63 -653.70 -0.29 
577.43 -653.66 -0.32 
585.75 -653.11 1.08 
585.07 -652.80 0.99 
585.94 -653.18 1.11 
580.33 -653.12 0.48 
579.78 -653.60 0.46 
578.88 -653.62 0.36 
581.03 -653.98 0.62 
580.84 -653.98 0.60 
579.51 -653.75 0.44 
579.19 -653.73 0.40 
580.77 -654.40 0.62 
580.39 -654.13 0.56 
577.48 -639.40 -0.76 
577.02 -639.39 -0.81 
576.71 -639.38 -0.84 
576.40 -639.35 -0.88 
575.87 -639.33 -0.93 
575.44 -639.31 -0.98 
575.13 -639.30 -1.02 
574.66 -639.28 -1.07 
574.20 -639.24 -1.12 
573.90 -639.23 -1.15 
573.59 -639.23 -1.19 
573.13 -639.20 -1.24 
572.67 -639.16 -1.29 
572.36 -639.16 -1.32 
571.90 -639.14 -1.37 
571.44 -639.12 -1.42 
571.13 -639.10 -1.46 
570.83 -639.09 -1.49 
570.37 -639.07 -1.54 
569.93 -639.06 -1.59 
569.53 -639.03 -1.63 
569.10 -639.01 -1.68 
568.70 -638.99 -1.72 
568.39 -638.98 -1.76 
568.06 -638.97 -1.79 
567.58 -638.94 -1.84 
567.17 -638.85 -1.89 
586.17 -645.83 0.85 
585.86 -645.86 0.82 
585.56 -645.85 0.79 
585.26 -645.84 0.75 
584.69 -645.65 0.68 
586.10 -648.10 1.00 
591.32 -648.78 1.41 
588.97 -648.82 1.15 
588.62 -648.65 1.10 
587.19 -648.60 1.15 
586.86 -648.72 1.12 
586.39 -648.44 1.05 
591.39 -649.11 1.44 
590.77 -649.30 1.60 
589.64 -649.28 1.26 
589.01 -648.99 1.27 
588.68 -648.88 1.12 
591.51 -649.43 1.47 
589.50 -649.40 1.46 
589.26 -649.28 1.43 
577.62 -653.39 0.43 
577.18 -653.41 0.39 
578.33 -653.85 0.54 
577.99 -653.86 0.51 
576.78 -649.76 0.67 
579.84 -650.44 1.05 
577.36 -650.58 0.77 
576.92 -650.37 0.71 
580.32 -651.19 1.14 
577.93 -651.02 0.86 
578.57 -651.38 0.95 
579.60 -652.51 1.12 
578.89 -652.56 1.04 
584.11 -653.01 1.68 
577.42 -653.06 0.89 
580.48 -653.96 1.29 
579.02 -653.63 1.10 
580.14 -654.25 1.26 
579.98 -654.11 1.23 
578.20 -654.06 1.02 
573.33 -654.11 0.47 
572.68 -653.76 0.39 
584.31 -654.63 1.78 
573.81 -639.09 -0.14 
573.50 -639.07 -0.17 
573.04 -639.05 -0.22 
572.58 -639.03 -0.27 
572.27 -639.01 -0.31 
571.81 -638.99 -0.36 
571.35 -638.96 -0.41 
571.05 -638.95 -0.44 
570.55 -638.93 -0.50 
570.15 -638.92 -0.54 
569.84 -638.90 -0.57 
569.43 -638.89 -0.62 
569.01 -638.86 -0.66 
568.58 -638.84 -0.71 
568.27 -638.82 -0.74 
566.80 -644.11 -0.66 
566.53 -644.21 -0.69 
567.60 -644.66 -0.55 
567.08 -644.62 -0.61 
567.87 -644.74 -0.52 
580.44 -648.40 1.03 
581.20 -649.27 1.16 
582.68 -649.73 1.35 
576.78 -651.76 1.02 
583.89 -652.53 1.86 
583.16 -652.17 1.76 
582.77 -652.18 1.71 
583.46 -652.70 1.82 
577.68 -653.27 1.18 
577.23 -653.24 1.13 
577.41 -653.57 1.17 
584.05 -654.45 1.97 
583.84 -654.38 1.94 
576.95 -636.24 0.35 
576.19 -639.23 0.40 
575.62 -639.24 0.34 
575.31 -639.23 0.31 
575.04 -639.22 0.28 
574.55 -639.22 0.22 
574.08 -639.22 0.17 
573.39 -639.21 0.10 
573.08 -639.16 0.06 
572.11 -639.16 -0.04 
571.80 -639.15 -0.07 
582.01 -651.42 2.15 
572.96 -653.10 1.10 
572.73 -653.28 1.07 
572.51 -653.36 1.05 
572.31 -653.32 1.03 
568.32 -644.21 0.41 
568.05 -644.23 0.38 
567.78 -644.60 0.36 
567.51 -644.46 0.33 
568.89 -644.95 0.49 
568.63 -645.03 0.46 
567.27 -644.80 0.31 
567.01 -644.81 0.29 
566.80 -644.96 0.27 
580.05 -653.45 2.22 
575.97 -653.87 1.75 
572.41 -653.68 1.74 
574.02 -654.25 1.93 
573.26 -638.86 0.83 
572.80 -638.83 0.78 
572.49 -638.83 0.75 
572.18 -638.79 0.71 
571.72 -638.78 0.66 
571.28 -638.75 0.61 
570.98 -638.76 0.58 
570.51 -638.73 0.53 
570.05 -638.70 0.48 
569.74 -638.69 0.45 
569.34 -638.67 0.40 
573.65 -653.72 1.89 
566.88 -643.98 1.18 
567.98 -644.37 1.29 
567.42 -644.29 1.23 
567.20 -644.86 1.21 
573.39 -651.95 2.59 
573.09 -652.63 2.54 
572.04 -654.46 2.77 
573.64 -638.67 1.92 
573.21 -638.55 1.87 
571.84 -638.57 1.72 
571.60 -638.55 1.69 
571.20 -638.54 1.65 
570.89 -638.52 1.62 
570.48 -638.50 1.57 
569.93 -638.47 1.51 
569.62 -638.47 1.48 
569.31 -638.45 1.45 
569.00 -638.44 1.41 
573.00 -638.21 2.90 
567.65 -638.00 2.33 
574.50 -638.42 3.07 
574.19 -638.42 3.04 
573.88 -638.41 3.00 
573.49 -638.38 2.96 
573.26 -638.38 2.93 
571.75 -638.29 2.76 
571.51 -638.30 2.73 
571.08 -638.27 2.69 
570.77 -638.26 2.65 
570.31 -638.23 2.60 
569.84 -638.21 2.55 
569.52 -638.20 2.52 
569.21 -638.18 2.49 
568.90 -638.17 2.45 
567.17 -638.08 2.28 
566.75 -638.08 2.24 
575.39 -638.20 4.25 
574.98 -638.18 4.20 
574.54 -638.15 4.14 
574.13 -638.14 4.10 
573.79 -638.13 4.06 
573.48 -638.13 4.02 
573.01 -638.10 3.96 
572.55 -638.09 3.91 
572.24 -638.06 3.88 
571.76 -638.05 3.82 
571.30 -638.00 3.77 
570.98 -638.01 3.74 
570.67 -637.98 3.70 
570.21 -637.97 3.65 
569.74 -637.94 3.60 
569.42 -637.94 3.57 
569.11 -637.91 3.54 
568.64 -637.90 3.49 
568.17 -637.85 3.44 
567.89 -637.86 3.41 
567.58 -637.84 3.38 
567.03 -637.82 3.33 
566.60 -637.65 3.29 
572.79 -637.54 5.05 
572.48 -637.50 5.01 
571.85 -637.51 4.94 
569.96 -637.61 4.72 
569.67 -637.40 4.70 
569.36 -637.38 4.67 
568.94 -637.35 4.63 
568.51 -637.50 4.57 
568.07 -637.53 4.52 
567.75 -637.51 4.49 
567.44 -637.49 4.46 
566.95 -637.47 4.42 
573.25 -637.77 5.09 
569.91 -637.24 5.82 
575.88 -637.50 6.52 
573.65 -637.41 6.24 
567.96 -637.15 5.62 
567.65 -637.14 5.59 
567.33 -637.13 5.56 
579.74 -650.73 -0.22 
589.40 -651.58 0.81 
582.86 -651.38 0.15 
582.50 -651.28 0.10 
582.19 -651.21 0.07 
581.68 -651.08 0.00 
581.32 -651.07 -0.03 
580.95 -651.01 -0.08 
580.72 -650.93 -0.11 
577.01 -650.95 -0.48 
589.60 -651.91 0.86 
588.89 -651.98 0.79 
588.53 -651.89 0.75 
588.11 -651.87 0.71 
587.80 -651.91 0.68 
587.24 -651.92 0.63 
586.94 -651.91 0.60 
586.50 -651.92 0.55 
586.11 -651.87 0.51 
585.72 -651.83 0.47 
585.31 -651.83 0.43 
584.96 -651.73 0.39 
584.47 -651.62 0.33 
584.08 -651.59 0.29 
583.71 -651.53 0.24 
583.34 -651.47 0.20 
583.11 -651.40 0.17 
578.17 -653.56 -0.13 
577.50 -653.45 -0.21 
577.94 -653.65 -0.14 
577.72 -653.61 -0.17 
585.30 -652.81 1.12 
586.13 -653.24 1.24 
580.69 -653.19 0.65 
580.54 -653.07 0.62 
580.10 -653.56 0.61 
581.31 -653.96 0.77 
579.94 -653.82 0.61 
579.64 -653.77 0.57 
579.22 -653.65 0.52 
581.55 -654.37 0.82 
581.00 -654.17 0.75 
580.62 -654.13 0.70 
581.04 -654.65 0.78 
577.49 -639.41 -0.60 
577.03 -639.38 -0.65 
576.66 -639.36 -0.69 
576.26 -639.33 -0.74 
575.94 -639.32 -0.77 
575.47 -639.29 -0.82 
575.01 -639.28 -0.87 
574.70 -639.25 -0.91 
574.29 -639.24 -0.95 
573.87 -639.23 -0.99 
573.45 -639.20 -1.04 
573.15 -639.19 -1.07 
572.69 -639.16 -1.12 
572.24 -639.13 -1.17 
571.93 -639.12 -1.20 
571.62 -639.10 -1.24 
571.14 -639.08 -1.29 
570.67 -639.07 -1.34 
570.37 -639.05 -1.37 
569.91 -639.03 -1.42 
569.51 -639.00 -1.46 
569.14 -638.99 -1.50 
568.83 -638.97 -1.53 
568.37 -638.96 -1.58 
567.90 -638.92 -1.63 
567.59 -638.87 -1.67 
586.39 -648.06 1.14 
586.16 -648.02 1.11 
589.72 -648.75 1.54 
589.33 -648.62 1.50 
588.91 -648.71 1.24 
588.71 -648.40 1.20 
587.33 -648.62 1.28 
587.04 -648.61 1.25 
586.58 -648.29 1.18 
589.75 -649.13 1.47 
589.25 -648.92 1.29 
589.03 -648.96 1.27 
587.29 -648.84 1.29 
586.65 -648.89 1.22 
590.62 -649.41 1.69 
590.12 -649.40 1.63 
577.84 -653.33 0.58 
577.49 -653.41 0.55 
578.29 -653.82 0.66 
578.65 -654.21 0.72 
577.13 -649.92 0.85 
580.21 -650.47 1.23 
577.57 -650.43 0.93 
577.79 -650.89 0.97 
574.06 -650.68 0.55 
573.83 -650.64 0.52 
580.66 -651.26 1.31 
578.90 -651.36 1.12 
579.14 -652.64 1.20 
574.09 -652.92 0.64 
579.54 -653.55 1.29 
578.25 -653.17 1.12 
577.93 -653.15 1.08 
580.34 -653.81 1.39 
579.73 -653.57 1.31 
579.27 -653.63 1.26 
582.36 -654.23 1.65 
580.89 -654.22 1.47 
580.72 -654.05 1.45 
578.44 -654.04 1.18 
584.40 -654.60 1.91 
574.61 -639.11 0.11 
574.21 -639.08 0.07 
573.78 -639.07 0.02 
573.37 -639.05 -0.02 
573.06 -639.04 -0.06 
572.59 -639.02 -0.11 
572.13 -638.99 -0.16 
571.81 -638.98 -0.19 
571.51 -638.95 -0.22 
571.05 -638.95 -0.27 
570.59 -638.91 -0.32 
570.28 -638.90 -0.36 
569.82 -638.87 -0.41 
569.41 -638.85 -0.45 
569.05 -638.83 -0.49 
568.79 -638.82 -0.51 
566.75 -643.66 -0.52 
568.40 -644.61 -0.31 
567.21 -644.54 -0.44 
568.00 -644.74 -0.35 
567.59 -644.81 -0.39 
582.14 -648.09 1.35 
581.83 -649.68 1.38 
583.15 -650.38 1.57 
582.33 -651.40 1.75 
583.37 -652.17 1.90 
582.84 -652.14 1.84 
584.15 -652.71 2.02 
583.82 -652.67 1.98 
583.53 -652.59 1.94 
584.32 -652.97 2.05 
577.50 -653.43 1.30 
584.16 -654.28 2.09 
576.62 -639.21 0.60 
575.70 -639.20 0.50 
575.38 -639.18 0.47 
574.74 -639.17 0.40 
569.62 -639.05 -0.14 
569.29 -638.93 -0.17 
568.97 -638.95 -0.21 
568.70 -638.97 -0.23 
583.08 -652.04 2.44 
573.30 -653.24 1.28 
573.45 -653.64 1.30 
573.08 -653.29 1.25 
572.77 -653.41 1.22 
572.55 -654.00 1.21 
572.38 -654.01 1.19 
568.59 -644.10 0.60 
568.37 -643.96 0.57 
566.96 -643.90 0.43 
566.69 -644.11 0.40 
567.40 -644.54 0.48 
569.39 -644.76 0.69 
569.17 -644.77 0.67 
568.74 -644.97 0.63 
567.78 -644.67 0.52 
567.24 -644.63 0.47 
568.05 -645.04 0.56 
567.84 -645.24 0.54 
568.32 -645.48 0.59 
576.37 -651.76 1.89 
582.77 -654.14 2.69 
573.65 -654.39 2.03 
573.45 -654.36 2.00 
576.44 -639.00 1.35 
575.51 -638.92 1.25 
574.51 -638.90 1.13 
574.12 -638.88 1.09 
573.61 -638.86 1.03 
573.29 -638.85 1.00 
572.96 -638.82 0.96 
572.50 -638.81 0.91 
572.04 -638.77 0.86 
571.73 -638.77 0.83 
571.27 -638.75 0.78 
570.81 -638.71 0.73 
570.50 -638.71 0.69 
570.19 -638.69 0.66 
569.88 -638.68 0.63 
573.43 -652.29 2.01 
579.15 -653.52 2.72 
574.03 -653.53 2.07 
571.65 -653.36 2.15 
573.84 -653.62 2.05 
569.19 -638.85 0.89 
568.87 -638.80 0.86 
568.60 -638.81 0.83 
566.87 -643.65 1.34 
566.59 -643.64 1.31 
567.69 -643.94 1.42 
567.41 -643.85 1.39 
567.14 -643.81 1.36 
568.02 -643.35 1.45 
574.59 -651.40 2.90 
574.18 -651.25 2.85 
574.33 -651.63 2.86 
573.61 -651.92 2.77 
575.22 -638.72 2.27 
574.76 -638.69 2.21 
574.44 -638.68 2.18 
573.98 -638.66 2.12 
573.51 -638.53 2.07 
572.27 -638.57 1.93 
571.96 -638.56 1.90 
571.65 -638.54 1.86 
571.19 -638.51 1.81 
570.72 -638.50 1.76 
570.41 -638.49 1.73 
570.11 -638.46 1.70 
569.64 -638.46 1.65 
569.24 -638.43 1.61 
569.09 -638.71 1.97 
566.94 -637.93 2.42 
575.47 -638.47 3.35 
575.00 -638.44 3.30 
574.69 -638.44 3.26 
574.37 -638.42 3.22 
573.91 -638.39 3.17 
573.43 -638.33 3.11 
572.20 -638.31 2.97 
571.89 -638.29 2.94 
571.57 -638.28 2.90 
571.11 -638.26 2.85 
570.67 -638.25 2.81 
570.36 -638.21 2.77 
569.95 -638.21 2.73 
569.52 -638.17 2.68 
569.14 -638.16 2.64 
567.85 -638.10 2.51 
567.53 -638.10 2.48 
567.21 -638.07 2.45 
568.33 -638.41 2.98 
570.59 -638.56 3.20 
570.27 -638.56 3.17 
569.94 -638.52 3.13 
569.47 -638.53 3.09 
568.99 -638.50 3.04 
568.67 -638.49 3.01 
568.02 -638.43 2.95 
576.83 -638.25 4.59 
576.51 -638.26 4.55 
576.20 -638.22 4.51 
575.88 -638.21 4.47 
575.40 -638.19 4.41 
574.93 -638.20 4.36 
574.62 -638.16 4.32 
574.30 -638.14 4.28 
573.83 -638.12 4.23 
573.35 -638.10 4.17 
573.04 -638.08 4.13 
572.58 -638.07 4.08 
572.11 -638.05 4.03 
571.80 -638.04 3.99 
571.48 -638.01 3.96 
571.02 -637.99 3.91 
570.55 -637.96 3.86 
570.24 -637.96 3.82 
569.86 -637.93 3.78 
569.46 -637.92 3.74 
569.00 -637.90 3.69 
568.68 -637.89 3.66 
568.21 -637.85 3.61 
567.75 -637.85 3.56 
567.43 -637.82 3.53 
566.98 -637.77 3.49 
569.20 -638.27 4.16 
568.88 -638.30 4.13 
566.74 -637.30 4.57 
575.89 -637.86 5.58 
575.57 -637.84 5.54 
574.93 -637.83 5.46 
574.46 -637.80 5.40 
573.98 -637.77 5.34 
573.66 -637.77 5.30 
573.36 -637.76 5.27 
570.79 -637.64 4.97 
570.47 -637.63 4.94 
570.16 -637.56 4.91 
568.91 -637.56 4.77 
568.59 -637.53 4.74 
568.12 -637.52 4.69 
567.65 -637.50 4.64 
567.33 -637.50 4.61 
567.01 -637.46 4.58 
568.45 -638.03 5.21 
568.11 -637.98 5.18 
567.85 -638.00 5.15 
571.66 -637.32 6.18 
571.18 -637.30 6.12 
567.28 -637.12 5.71 
572.00 -637.03 6.24 
576.47 -637.53 6.77 
566.96 -637.08 5.69 
566.63 -637.08 5.65 
579.79 -650.36 -0.08 
579.55 -650.36 -0.11 
581.72 -650.81 0.15 
581.46 -650.78 0.12 
580.51 -650.53 0.00 
580.15 -650.46 -0.04 
578.16 -650.37 -0.24 
577.81 -650.36 -0.28 
577.52 -650.45 -0.30 
589.66 -651.35 0.97 
584.20 -651.36 0.44 
583.80 -651.28 0.39 
583.29 -651.21 0.34 
582.94 -651.10 0.29 
582.56 -651.05 0.25 
582.20 -650.93 0.21 
581.95 -650.90 0.18 
590.87 -651.92 1.13 
590.57 -651.90 1.10 
590.11 -651.89 1.06 
589.80 -651.63 1.01 
589.17 -651.67 0.95 
586.78 -651.75 0.72 
586.51 -651.72 0.70 
586.14 -651.66 0.66 
585.75 -651.57 0.61 
585.35 -651.56 0.57 
584.90 -651.46 0.52 
584.53 -651.42 0.48 
577.80 -653.41 -0.01 
578.47 -653.53 0.07 
578.00 -653.57 0.03 
580.93 -653.18 0.85 
580.01 -653.86 0.80 
579.60 -653.66 0.74 
579.30 -653.63 0.70 
582.08 -654.39 1.05 
581.51 -654.06 0.97 
581.11 -654.10 0.93 
580.79 -654.09 0.89 
581.45 -654.65 1.00 
577.03 -639.38 -0.48 
576.60 -639.36 -0.53 
576.29 -639.34 -0.57 
575.97 -639.33 -0.60 
575.47 -639.30 -0.65 
575.04 -639.28 -0.70 
574.73 -639.26 -0.73 
574.27 -639.24 -0.78 
573.80 -639.21 -0.83 
573.48 -639.21 -0.87 
573.08 -639.18 -0.91 
572.65 -639.16 -0.95 
572.26 -639.14 -1.00 
571.95 -639.13 -1.03 
571.54 -639.10 -1.07 
571.17 -639.08 -1.11 
570.70 -639.07 -1.16 
570.44 -639.06 -1.19 
569.47 -639.00 -1.29 
569.17 -638.99 -1.32 
568.74 -638.97 -1.37 
568.25 -638.96 -1.42 
567.94 -638.93 -1.45 
566.77 -638.68 -1.59 
590.24 -646.05 1.37 
569.17 -645.23 -0.67 
568.77 -645.23 -0.71 
588.89 -648.28 1.37 
586.85 -648.04 1.35 
586.55 -648.03 1.32 
586.35 -647.91 1.29 
589.23 -648.71 1.44 
587.61 -648.39 1.46 
589.79 -648.98 1.52 
589.48 -648.93 1.48 
587.69 -648.86 1.50 
586.96 -648.77 1.41 
590.34 -649.31 1.81 
590.13 -649.40 1.58 
589.79 -649.26 1.54 
590.91 -649.61 1.89 
590.45 -649.57 1.84 
586.56 -653.27 1.46 
586.34 -653.23 1.43 
578.41 -653.15 0.80 
577.89 -653.38 0.76 
577.62 -653.14 0.72 
578.68 -653.85 0.88 
578.51 -653.70 0.85 
579.05 -654.17 0.94 
578.81 -654.06 0.90 
579.22 -654.38 0.97 
577.87 -650.63 1.15 
574.90 -650.98 0.83 
581.06 -652.70 1.61 
579.07 -652.50 1.37 
577.85 -652.75 1.24 
580.43 -653.50 1.57 
579.93 -653.56 1.52 
579.47 -653.57 1.46 
566.79 -653.36 0.08 
582.88 -654.22 1.89 
581.31 -654.28 1.71 
581.17 -654.02 1.68 
580.66 -654.10 1.63 
566.76 -653.37 0.07 
575.36 -639.15 0.37 
574.96 -639.12 0.32 
574.65 -639.11 0.29 
574.19 -639.09 0.24 
573.72 -639.08 0.19 
573.40 -639.04 0.15 
573.00 -639.04 0.11 
572.57 -639.01 0.06 
572.17 -639.00 0.02 
571.87 -638.98 -0.01 
571.40 -638.95 -0.06 
570.96 -638.93 -0.11 
570.61 -638.93 -0.15 
570.35 -638.90 -0.18 
569.39 -638.86 -0.28 
566.98 -643.51 -0.33 
567.25 -644.00 -0.28 
568.82 -644.47 -0.10 
567.48 -644.25 -0.24 
567.21 -644.23 -0.27 
566.95 -644.33 -0.30 
568.41 -644.75 -0.13 
568.01 -644.82 -0.17 
567.74 -644.98 -0.19 
583.57 -650.29 1.79 
580.70 -650.57 1.47 
583.76 -651.02 1.85 
584.52 -653.03 2.25 
584.31 -652.90 2.22 
578.31 -653.22 1.56 
578.65 -653.80 1.62 
577.90 -653.48 1.52 
577.29 -653.66 1.46 
577.07 -653.61 1.44 
576.65 -653.49 1.39 
584.29 -654.10 2.28 
584.34 -654.55 2.30 
576.06 -639.16 0.71 
575.73 -639.15 0.67 
570.28 -639.05 0.10 
569.80 -639.03 0.05 
569.32 -639.00 0.00 
569.02 -639.00 -0.03 
568.58 -638.99 -0.07 
568.37 -638.98 -0.10 
567.75 -638.93 -0.16 
567.46 -638.86 -0.19 
573.61 -653.18 1.50 
573.37 -653.31 1.47 
573.02 -653.42 1.44 
572.20 -653.93 1.66 
568.75 -644.07 0.79 
569.81 -644.97 0.92 
568.98 -644.93 0.83 
568.33 -644.60 0.75 
567.93 -644.67 0.71 
567.52 -644.78 0.67 
578.06 -652.12 2.27 
572.45 -653.77 1.68 
572.41 -653.81 1.68 
571.91 -653.68 1.62 
571.60 -653.54 1.59 
574.07 -654.69 2.27 
573.88 -654.46 2.24 
577.23 -639.03 1.62 
575.54 -638.95 1.42 
575.29 -638.94 1.40 
574.89 -638.93 1.35 
574.49 -638.90 1.30 
574.05 -638.89 1.26 
573.65 -638.86 1.21 
573.33 -638.86 1.18 
572.92 -638.83 1.13 
572.49 -638.81 1.08 
572.07 -638.78 1.04 
571.76 -638.78 1.00 
571.29 -638.75 0.95 
570.83 -638.75 0.90 
570.53 -638.72 0.87 
573.63 -651.81 2.22 
573.94 -652.29 2.26 
574.31 -653.56 2.30 
573.00 -653.70 2.14 
571.67 -654.55 2.33 
569.70 -638.91 1.11 
569.22 -638.89 1.06 
568.92 -638.85 1.03 
568.45 -638.84 0.98 
568.00 -638.83 0.94 
567.65 -643.90 1.59 
567.34 -643.89 1.55 
567.05 -643.70 1.52 
566.78 -643.95 1.50 
567.58 -644.54 1.58 
574.88 -651.46 3.13 
574.60 -651.12 3.10 
573.90 -651.19 3.01 
574.21 -651.97 3.03 
576.11 -638.75 2.55 
575.54 -638.73 2.48 
575.11 -638.72 2.43 
574.80 -638.69 2.39 
574.48 -638.69 2.36 
574.02 -638.66 2.30 
572.61 -638.60 2.14 
572.30 -638.58 2.11 
571.99 -638.59 2.07 
571.69 -638.55 2.04 
571.21 -638.53 1.99 
570.76 -638.49 1.94 
570.45 -638.52 1.90 
570.13 -638.47 1.87 
573.21 -638.81 2.55 
572.00 -638.82 2.42 
569.45 -638.73 2.16 
569.13 -638.72 2.13 
568.83 -638.71 2.10 
572.50 -650.63 3.23 
573.56 -638.18 3.31 
576.32 -638.51 3.63 
575.84 -638.49 3.57 
575.35 -638.47 3.51 
575.05 -638.45 3.48 
574.74 -638.45 3.44 
574.27 -638.41 3.39 
573.80 -638.40 3.33 
572.54 -638.29 3.19 
572.23 -638.33 3.15 
571.93 -638.30 3.12 
571.62 -638.29 3.08 
571.14 -638.27 3.03 
570.68 -638.25 2.98 
570.37 -638.21 2.94 
569.92 -638.22 2.89 
568.21 -638.11 2.71 
567.92 -638.11 2.68 
567.61 -638.11 2.65 
567.32 -638.06 2.62 
573.03 -638.59 3.62 
572.60 -638.61 3.57 
572.29 -638.59 3.54 
570.96 -638.57 3.40 
570.65 -638.55 3.36 
570.31 -638.56 3.33 
569.83 -638.53 3.28 
569.35 -638.52 3.23 
569.03 -638.50 3.20 
568.73 -638.52 3.17 
568.39 -638.48 3.14 
574.36 -638.15 4.47 
573.73 -638.12 4.39 
573.41 -638.11 4.35 
573.09 -638.10 4.31 
572.15 -638.05 4.20 
571.85 -638.05 4.17 
571.37 -638.01 4.12 
570.90 -638.00 4.06 
570.60 -637.98 4.03 
570.03 -637.96 3.97 
569.84 -637.94 3.95 
568.61 -637.88 3.82 
568.12 -637.84 3.76 
567.83 -637.86 3.73 
567.49 -637.82 3.70 
567.01 -637.69 3.66 
566.55 -637.64 3.61 
578.49 -638.33 4.99 
578.18 -638.32 4.95 
577.85 -638.33 4.91 
577.36 -638.29 4.84 
576.87 -638.28 4.78 
576.57 -638.26 4.74 
576.25 -638.25 4.70 
575.77 -638.22 4.64 
575.29 -638.19 4.58 
574.99 -638.18 4.54 
574.67 -638.17 4.50 
574.04 -638.15 4.43 
572.62 -638.08 4.26 
570.21 -638.34 4.41 
569.25 -638.28 4.32 
568.93 -638.29 4.29 
567.96 -638.24 4.19 
569.57 -638.33 4.35 
573.28 -637.58 5.45 
572.80 -637.54 5.39 
572.48 -637.50 5.35 
566.92 -637.32 4.74 
574.68 -637.81 5.61 
574.36 -637.83 5.56 
574.05 -637.80 5.53 
573.73 -637.78 5.49 
572.14 -637.71 5.30 
571.21 -637.67 5.19 
567.40 -637.49 4.78 
570.50 -638.12 5.55 
570.19 -638.09 5.53 
567.22 -637.98 5.24 
571.56 -637.33 6.33 
570.81 -637.29 6.25 
576.38 -637.51 6.95 
575.90 -637.51 6.88 
575.59 -637.49 6.84 
575.26 -637.48 6.79 
566.78 -637.69 6.33 
580.64 -650.30 0.16 
580.26 -650.23 0.12 
579.91 -650.15 0.08 
578.22 -650.19 -0.09 
582.60 -650.80 0.40 
582.23 -650.73 0.36 
581.00 -650.41 0.21 
577.83 -650.24 -0.12 
589.97 -651.29 1.16 
589.67 -651.28 1.13 
585.22 -651.27 0.70 
584.93 -651.28 0.67 
584.53 -651.19 0.62 
584.14 -651.12 0.58 
583.77 -651.02 0.53 
583.36 -651.00 0.49 
582.96 -650.91 0.45 
590.15 -651.52 1.20 
589.10 -651.68 1.11 
588.07 -651.61 1.01 
586.90 -651.56 0.89 
586.50 -651.48 0.84 
586.10 -651.42 0.80 
585.71 -651.38 0.76 
585.34 -651.34 0.72 
584.87 -651.31 0.67 
578.01 -653.32 0.17 
578.38 -653.55 0.23 
578.17 -653.46 0.20 
573.04 -653.73 -0.29 
581.19 -653.12 1.05 
581.12 -653.80 1.08 
580.67 -653.65 1.02 
580.37 -653.76 1.00 
580.00 -653.74 0.96 
579.67 -653.67 0.92 
566.86 -653.25 -0.46 
581.90 -654.05 1.18 
581.44 -654.21 1.15 
581.16 -654.16 1.11 
566.66 -653.67 -0.45 
582.31 -654.47 1.26 
581.96 -654.63 1.23 
575.95 -639.30 -0.43 
575.47 -639.29 -0.48 
575.00 -639.25 -0.53 
574.70 -639.25 -0.56 
574.22 -639.23 -0.61 
573.76 -639.21 -0.66 
573.46 -639.18 -0.70 
573.13 -639.17 -0.73 
572.67 -639.14 -0.78 
572.21 -639.13 -0.83 
571.90 -639.11 -0.86 
571.44 -639.08 -0.91 
570.99 -639.07 -0.96 
570.68 -639.06 -0.99 
570.40 -639.03 -1.02 
569.88 -639.03 -1.08 
569.48 -639.00 -1.12 
569.17 -638.98 -1.16 
568.67 -638.96 -1.21 
568.26 -638.95 -1.25 
567.98 -638.80 -1.29 
577.05 -639.37 -0.31 
576.58 -639.34 -0.36 
576.25 -639.33 -0.39 
590.43 -645.99 1.57 
567.62 -645.75 -0.63 
567.22 -645.93 -0.66 
586.98 -647.99 1.54 
590.06 -648.57 1.91 
589.84 -648.39 1.88 
589.32 -648.44 1.61 
587.21 -648.48 1.60 
590.51 -648.94 1.99 
590.26 -648.79 1.95 
589.80 -648.99 1.70 
589.23 -648.73 1.62 
588.00 -648.79 1.71 
587.77 -648.61 1.67 
587.35 -648.82 1.64 
590.51 -649.24 1.90 
590.14 -649.12 1.75 
591.26 -649.60 2.11 
590.80 -649.62 2.06 
586.68 -653.12 1.64 
578.78 -653.07 1.00 
578.29 -653.30 0.97 
577.96 -653.21 0.93 
579.09 -653.78 1.08 
578.89 -653.71 1.06 
579.16 -654.01 1.11 
575.50 -651.06 1.07 
581.59 -652.24 1.83 
575.25 -652.00 1.09 
578.56 -653.19 1.52 
578.38 -653.07 1.49 
574.77 -652.83 1.07 
580.29 -653.53 1.74 
579.83 -653.65 1.69 
581.45 -653.97 1.90 
578.95 -654.06 1.60 
566.67 -653.44 0.22 
583.35 -654.38 2.14 
581.00 -654.28 1.86 
574.26 -654.13 1.07 
576.50 -639.21 0.67 
576.18 -639.18 0.64 
575.72 -639.16 0.58 
575.23 -639.13 0.53 
574.92 -639.13 0.49 
574.62 -639.10 0.46 
574.14 -639.09 0.41 
573.69 -639.07 0.36 
573.38 -639.05 0.32 
573.05 -639.03 0.29 
572.59 -639.01 0.24 
572.13 -638.97 0.19 
571.82 -638.98 0.15 
571.36 -638.95 0.10 
570.91 -638.94 0.05 
570.63 -638.91 0.02 
570.22 -638.91 -0.02 
569.86 -638.88 -0.06 
569.42 -638.86 -0.11 
568.65 -644.53 0.05 
567.87 -644.19 -0.04 
567.61 -644.12 -0.07 
567.34 -644.24 -0.10 
569.18 -644.63 0.11 
568.88 -644.92 0.09 
568.39 -644.64 0.03 
568.11 -644.82 0.01 
583.89 -650.49 2.03 
583.72 -650.35 2.00 
580.87 -650.34 1.66 
580.86 -651.01 1.69 
579.14 -652.58 1.80 
584.67 -653.94 2.50 
578.18 -653.40 1.72 
577.21 -653.57 1.62 
576.80 -653.37 1.57 
584.66 -654.04 2.50 
579.13 -653.77 1.85 
584.61 -654.58 2.52 
576.06 -639.12 0.88 
574.78 -639.09 0.74 
574.14 -639.08 0.67 
572.24 -639.02 0.47 
570.34 -638.99 0.27 
570.03 -639.00 0.24 
569.72 -638.98 0.21 
569.07 -638.96 0.14 
568.61 -638.96 0.09 
568.13 -638.94 0.04 
567.81 -638.93 0.01 
567.23 -638.88 -0.05 
567.04 -638.92 -0.07 
566.55 -638.85 -0.12 
580.17 -651.74 2.44 
566.77 -652.64 0.90 
578.51 -653.78 2.28 
566.52 -653.73 0.90 
569.02 -644.18 0.98 
568.85 -644.26 0.96 
568.34 -644.32 0.91 
567.77 -644.29 0.85 
567.52 -644.33 0.82 
568.56 -644.57 0.94 
568.08 -644.73 0.89 
568.03 -644.74 0.89 
572.32 -653.37 1.82 
572.13 -653.50 1.80 
571.87 -653.61 1.78 
574.20 -654.42 2.46 
576.75 -639.03 1.75 
576.43 -639.00 1.71 
576.15 -638.97 1.67 
575.61 -638.95 1.61 
575.19 -638.94 1.56 
574.85 -638.91 1.52 
574.42 -638.90 1.47 
574.07 -638.88 1.43 
573.61 -638.87 1.38 
573.33 -638.85 1.35 
573.01 -638.83 1.31 
572.48 -638.82 1.25 
572.05 -638.81 1.21 
571.67 -638.77 1.16 
571.25 -638.75 1.12 
570.85 -638.74 1.07 
570.57 -638.73 1.04 
574.22 -651.66 2.47 
573.97 -651.83 2.44 
575.09 -652.61 2.58 
574.63 -653.54 2.52 
573.29 -653.70 2.35 
572.46 -653.47 2.58 
572.01 -653.75 2.52 
572.55 -654.65 2.58 
572.14 -654.58 2.53 
573.42 -638.96 1.66 
572.14 -638.92 1.53 
567.99 -643.92 1.78 
567.46 -643.74 1.73 
567.08 -643.86 1.68 
568.53 -644.38 1.84 
568.27 -644.42 1.81 
567.71 -644.53 1.75 
574.92 -651.36 3.32 
574.27 -651.19 3.24 
575.35 -651.49 3.38 
575.10 -651.51 3.34 
572.65 -653.41 3.33 
569.83 -638.39 2.01 
569.52 -638.30 1.97 
569.21 -638.25 1.94 
567.06 -638.23 1.71 
566.76 -638.20 1.68 
577.01 -638.81 2.84 
576.73 -638.78 2.80 
576.41 -638.77 2.77 
575.99 -638.75 2.71 
575.55 -638.74 2.66 
575.13 -638.71 2.61 
574.81 -638.70 2.57 
574.35 -638.68 2.52 
573.03 -638.78 2.70 
572.72 -638.70 2.50 
572.36 -638.68 2.46 
571.97 -638.68 2.42 
571.52 -638.66 2.37 
571.13 -638.64 2.32 
570.78 -638.64 2.28 
570.46 -638.62 2.25 
570.13 -638.49 2.04 
569.53 -638.70 2.33 
568.88 -638.70 2.26 
577.29 -638.57 3.94 
576.97 -638.54 3.90 
576.65 -638.52 3.86 
576.19 -638.50 3.80 
575.85 -638.49 3.76 
575.38 -638.47 3.70 
575.08 -638.45 3.67 
574.75 -638.44 3.63 
574.23 -638.43 3.56 
573.88 -638.14 3.53 
572.65 -638.34 3.37 
572.22 -638.32 3.32 
571.91 -638.31 3.29 
571.45 -638.29 3.23 
570.98 -638.30 3.18 
570.68 -638.26 3.15 
570.37 -638.25 3.11 
569.90 -638.20 3.06 
568.52 -638.18 2.91 
568.21 -638.15 2.87 
567.88 -638.13 2.84 
567.62 -638.06 2.81 
566.67 -637.94 2.72 
573.43 -638.56 3.83 
572.92 -638.57 3.77 
570.06 -638.52 3.46 
569.74 -638.49 3.43 
569.44 -638.50 3.40 
568.63 -638.48 3.32 
568.19 -638.45 3.27 
573.76 -637.95 4.58 
573.44 -637.97 4.54 
573.13 -637.92 4.51 
566.57 -637.71 3.77 
578.85 -638.35 5.24 
578.52 -638.36 5.20 
578.20 -638.34 5.15 
577.72 -638.32 5.09 
577.23 -638.30 5.02 
576.91 -638.28 4.98 
576.59 -638.27 4.94 
576.11 -638.25 4.87 
575.63 -638.21 4.81 
575.31 -638.20 4.77 
574.98 -638.20 4.73 
574.51 -638.17 4.67 
574.04 -638.14 4.61 
572.78 -638.06 4.46 
572.46 -638.08 4.42 
572.15 -638.07 4.38 
571.37 -638.03 4.29 
570.90 -637.99 4.23 
570.60 -638.01 4.20 
570.29 -637.99 4.16 
569.82 -637.96 4.11 
568.43 -637.90 3.96 
568.12 -637.90 3.92 
567.79 -637.87 3.89 
567.54 -637.83 3.86 
574.43 -638.40 5.04 
572.56 -638.36 4.82 
570.98 -638.34 4.65 
570.34 -638.33 4.58 
570.03 -638.31 4.55 
566.76 -638.15 4.23 
571.78 -637.66 5.43 
569.31 -637.62 5.14 
568.89 -637.61 5.09 
568.64 -637.59 5.07 
567.46 -637.42 4.95 
573.71 -638.15 6.07 
573.23 -638.13 6.02 
572.00 -638.08 5.88 
571.52 -638.08 5.83 
569.60 -638.06 5.62 
567.00 -637.98 5.36 
568.27 -637.21 6.13 
567.96 -637.19 6.09 
567.63 -637.18 6.06 
570.53 -637.09 6.40 
571.07 -637.79 6.90 
572.49 -649.53 -0.56 
572.24 -649.47 -0.59 
571.19 -649.50 -0.70 
570.93 -649.55 -0.72 
570.54 -649.57 -0.75 
582.31 -650.12 0.44 
581.99 -650.11 0.41 
575.64 -650.05 -0.21 
575.28 -650.03 -0.25 
574.96 -649.97 -0.28 
570.14 -649.64 -0.79 
569.73 -649.75 -0.82 
584.73 -650.58 0.71 
584.44 -650.50 0.68 
584.12 -650.48 0.64 
582.89 -650.23 0.50 
582.58 -650.18 0.47 
581.61 -650.23 0.38 
581.24 -650.31 0.35 
580.90 -650.37 0.33 
580.44 -650.37 0.28 
579.96 -650.38 0.24 
579.65 -650.41 0.21 
578.09 -650.31 0.05 
577.69 -650.26 0.01 
577.30 -650.23 -0.03 
576.33 -650.13 -0.14 
576.06 -650.13 -0.16 
586.07 -650.94 0.87 
585.64 -650.85 0.82 
585.26 -650.74 0.78 
584.97 -650.67 0.74 
587.59 -651.31 1.05 
587.15 -651.23 1.00 
586.77 -651.11 0.95 
586.45 -651.04 0.91 
588.41 -651.65 1.15 
588.09 -651.53 1.11 
589.58 -652.00 1.29 
589.09 -651.89 1.24 
570.82 -652.94 -0.43 
570.54 -652.84 -0.46 
573.57 -652.46 0.39 
573.49 -653.08 0.42 
573.00 -653.03 0.36 
572.71 -653.09 0.34 
572.40 -653.08 0.30 
572.08 -652.96 0.26 
573.56 -653.48 0.45 
572.71 -653.20 0.34 
574.65 -653.81 0.59 
574.33 -653.91 0.57 
571.47 -638.86 -0.75 
571.00 -638.84 -0.80 
570.66 -638.85 -0.83 
570.34 -638.83 -0.87 
569.85 -638.83 -0.92 
569.37 -638.80 -0.97 
569.06 -638.83 -1.00 
568.74 -638.80 -1.04 
568.26 -638.79 -1.09 
567.78 -638.77 -1.14 
567.47 -638.77 -1.17 
567.16 -638.76 -1.21 
566.68 -638.76 -1.26 
571.75 -642.14 -0.28 
571.44 -642.19 -0.30 
571.11 -642.29 -0.33 
570.76 -642.48 -0.36 
567.37 -643.45 -0.64 
566.94 -643.58 -0.68 
566.64 -643.68 -0.70 
591.39 -646.20 2.10 
590.42 -646.47 2.01 
582.15 -647.15 1.16 
582.44 -647.51 1.22 
584.42 -648.11 1.26 
582.41 -647.98 1.24 
581.96 -648.08 0.99 
581.79 -647.74 0.95 
580.01 -647.83 0.98 
579.55 -647.81 0.93 
585.08 -648.22 1.34 
584.50 -648.49 1.30 
582.75 -648.44 1.21 
582.52 -648.24 1.17 
582.22 -648.13 1.02 
591.15 -648.90 2.26 
585.17 -648.60 1.38 
583.54 -648.67 1.41 
585.58 -649.06 1.45 
585.23 -649.00 1.41 
591.07 -649.69 2.30 
591.24 -649.98 2.34 
591.19 -650.51 2.37 
579.03 -652.26 0.96 
578.84 -652.18 0.93 
571.18 -652.45 0.35 
570.63 -652.71 0.31 
570.32 -652.57 0.27 
571.25 -653.01 0.40 
571.81 -653.49 0.49 
571.48 -653.41 0.45 
579.67 -654.02 1.15 
567.75 -650.51 0.42 
571.90 -650.77 0.90 
570.52 -652.27 0.81 
570.90 -652.60 0.87 
567.15 -652.62 0.44 
572.52 -652.83 1.07 
572.31 -653.00 1.05 
571.95 -652.92 1.00 
573.78 -653.34 1.24 
573.48 -653.48 1.21 
571.27 -653.43 0.95 
573.37 -653.61 1.20 
566.60 -653.68 0.43 
577.88 -654.21 1.77 
568.66 -638.67 0.00 
568.19 -638.65 -0.06 
567.70 -638.65 -0.11 
567.40 -638.63 -0.14 
567.08 -638.64 -0.18 
566.60 -638.61 -0.23 
574.98 -651.49 1.51 
570.21 -651.34 0.97 
577.00 -652.26 1.78 
571.07 -652.54 1.12 
570.52 -652.78 1.07 
569.57 -652.92 0.97 
569.14 -652.79 0.92 
577.00 -653.37 1.84 
571.59 -653.18 1.21 
577.39 -653.62 1.89 
568.48 -638.54 0.23 
567.15 -638.58 0.09 
566.88 -638.56 0.06 
566.55 -638.57 0.02 
567.01 -652.01 1.14 
566.98 -652.82 1.15 
566.98 -654.35 1.88 
567.63 -654.66 1.96 
567.35 -654.66 1.93 
570.60 -638.44 1.27 
569.23 -638.45 1.11 
568.92 -638.48 1.07 
568.51 -638.45 1.03 
567.96 -638.45 0.96 
567.63 -638.43 0.93 
567.32 -638.44 0.89 
566.84 -638.43 0.84 
566.54 -651.02 1.83 
566.53 -651.76 1.83 
567.04 -653.08 1.89 
568.05 -650.24 2.81 
566.73 -650.72 2.62 
567.60 -650.94 2.73 
569.20 -638.22 2.18 
568.74 -638.23 2.12 
568.34 -638.22 2.07 
567.92 -638.22 2.02 
567.61 -638.22 1.98 
567.19 -638.21 1.93 
566.75 -638.21 1.88 
568.97 -648.06 2.98 
568.73 -648.11 2.95 
567.61 -652.59 3.43 
569.78 -637.99 3.32 
569.48 -637.98 3.28 
569.15 -637.98 3.24 
568.62 -637.97 3.17 
568.19 -637.96 3.12 
567.87 -637.95 3.08 
567.55 -637.95 3.04 
567.07 -637.94 2.98 
566.59 -637.93 2.92 
569.00 -653.84 4.30 
571.36 -637.75 4.63 
571.04 -637.76 4.58 
570.54 -637.75 4.51 
570.06 -637.73 4.45 
569.72 -637.72 4.40 
569.39 -637.73 4.36 
568.91 -637.72 4.30 
568.43 -637.71 4.23 
568.10 -637.70 4.19 
567.79 -637.72 4.15 
567.45 -637.69 4.11 
566.98 -637.68 4.05 
573.36 -649.17 -0.27 
572.98 -649.05 -0.32 
571.61 -649.13 -0.45 
571.33 -649.17 -0.47 
571.05 -649.20 -0.50 
583.96 -649.74 0.80 
583.64 -649.69 0.77 
583.33 -649.65 0.73 
583.02 -649.59 0.70 
582.71 -649.55 0.66 
579.39 -649.67 0.36 
578.92 -649.67 0.31 
578.46 -649.68 0.27 
574.19 -649.38 -0.17 
570.66 -649.21 -0.53 
585.74 -650.15 1.01 
585.34 -650.04 0.96 
584.86 -649.95 0.91 
578.13 -649.73 0.24 
577.82 -649.75 0.21 
577.38 -649.75 0.17 
576.94 -649.73 0.13 
576.43 -649.70 0.07 
576.37 -649.71 0.07 
586.40 -650.36 1.09 
586.13 -650.27 1.05 
571.14 -652.94 -0.15 
570.87 -652.84 -0.19 
573.93 -652.54 0.68 
573.83 -653.14 0.71 
572.92 -653.14 0.61 
572.50 -653.08 0.56 
574.74 -653.47 0.83 
574.55 -653.40 0.81 
573.88 -653.55 0.74 
573.21 -653.30 0.66 
572.88 -653.23 0.62 
574.69 -653.98 0.86 
574.94 -654.02 0.89 
571.95 -638.92 -0.46 
571.45 -638.91 -0.51 
571.12 -638.89 -0.55 
570.82 -638.88 -0.58 
570.39 -638.87 -0.62 
569.94 -638.87 -0.67 
569.52 -638.85 -0.72 
569.20 -638.84 -0.75 
568.87 -638.84 -0.79 
568.44 -638.82 -0.83 
568.00 -638.82 -0.88 
567.60 -638.81 -0.92 
567.27 -638.81 -0.96 
566.86 -638.78 -1.00 
571.07 -640.95 -0.19 
591.15 -644.90 2.23 
591.15 -645.45 2.27 
591.06 -645.10 2.24 
591.05 -645.66 2.27 
580.23 -647.09 1.20 
582.72 -647.49 1.50 
582.51 -647.37 1.46 
581.93 -647.46 1.20 
584.27 -647.91 1.69 
580.48 -647.88 1.28 
580.16 -647.86 1.24 
585.29 -648.48 1.64 
584.83 -648.54 1.59 
583.20 -648.44 1.61 
582.95 -648.32 1.47 
582.63 -648.20 1.43 
585.49 -648.69 1.67 
583.37 -648.66 1.65 
585.65 -649.19 1.72 
591.48 -649.70 2.60 
579.26 -652.30 1.24 
578.53 -652.18 1.15 
571.50 -652.04 0.61 
571.64 -652.36 0.64 
571.07 -652.62 0.60 
570.80 -652.69 0.58 
570.53 -652.46 0.53 
571.64 -653.08 0.69 
571.96 -653.51 0.75 
571.82 -653.25 0.72 
579.98 -654.11 1.45 
567.82 -650.47 0.68 
572.05 -651.88 1.23 
567.86 -652.33 0.77 
573.39 -652.89 1.44 
572.72 -653.08 1.36 
572.51 -653.05 1.34 
571.67 -653.10 1.24 
567.52 -652.65 0.74 
575.78 -653.41 1.75 
566.97 -653.65 0.73 
569.42 -638.72 0.32 
569.12 -638.72 0.29 
568.69 -638.69 0.24 
568.24 -638.69 0.19 
567.83 -638.67 0.15 
567.52 -638.68 0.11 
567.10 -638.66 0.07 
566.72 -638.65 0.02 
568.60 -648.82 0.69 
576.63 -650.24 1.70 
576.47 -650.01 1.66 
577.02 -650.53 1.76 
576.81 -650.41 1.72 
575.95 -651.27 1.88 
571.46 -651.17 1.36 
574.22 -651.85 1.49 
574.28 -652.17 1.51 
572.03 -653.08 1.51 
569.92 -652.94 1.26 
570.08 -653.19 1.29 
567.81 -650.97 1.47 
567.37 -652.14 1.45 
567.23 -652.00 1.43 
566.83 -652.47 1.39 
567.37 -652.83 1.46 
566.65 -652.93 1.38 
566.81 -653.12 1.40 
567.49 -647.92 1.36 
567.28 -647.90 1.34 
571.20 -653.25 2.19 
570.00 -638.52 1.45 
569.66 -638.53 1.41 
569.35 -638.54 1.37 
569.02 -638.51 1.33 
568.69 -638.52 1.29 
568.17 -638.49 1.23 
567.74 -638.50 1.18 
567.42 -638.48 1.15 
567.03 -638.47 1.10 
566.65 -638.45 1.06 
566.88 -651.20 2.14 
566.61 -651.34 2.10 
567.70 -652.39 2.24 
567.41 -653.11 2.21 
566.91 -654.02 2.14 
567.47 -654.48 2.22 
567.88 -654.68 2.27 
568.36 -650.27 3.12 
568.07 -651.01 3.07 
567.87 -650.89 3.04 
567.54 -651.13 3.00 
567.21 -651.52 2.94 
566.90 -651.63 2.90 
568.00 -653.14 3.02 
568.63 -653.90 3.09 
570.85 -654.18 3.41 
570.27 -638.31 2.56 
569.94 -638.33 2.52 
569.61 -638.32 2.48 
569.30 -638.30 2.44 
568.97 -638.30 2.40 
568.47 -638.29 2.34 
567.98 -638.29 2.28 
567.68 -638.28 2.24 
567.36 -638.29 2.20 
566.86 -638.29 2.30 
569.35 -648.09 3.31 
573.65 -651.75 3.87 
569.25 -638.06 3.51 
568.75 -638.04 3.45 
568.26 -638.04 3.38 
567.94 -638.01 3.34 
567.63 -638.02 3.30 
567.15 -638.00 3.24 
566.66 -638.01 3.18 
569.14 -649.96 4.05 
569.27 -650.16 4.07 
568.79 -653.74 4.58 
570.56 -638.06 3.68 
570.23 -638.06 3.64 
569.90 -638.06 3.60 
569.57 -638.04 3.55 
571.86 -637.83 4.97 
571.52 -637.82 4.92 
571.02 -637.82 4.85 
570.51 -637.81 4.78 
570.17 -637.82 4.73 
569.86 -637.79 4.69 
569.51 -637.80 4.64 
569.04 -637.78 4.57 
568.53 -637.78 4.50 
568.21 -637.75 4.46 
567.88 -637.77 4.42 
567.58 -637.74 4.38 
567.09 -637.74 4.31 
566.60 -637.73 4.25 
571.86 -637.48 6.11 
571.18 -637.47 6.00 
568.58 -637.40 5.63 
568.24 -637.41 5.58 
567.91 -637.41 5.54 
567.27 -637.40 5.45 
566.95 -637.39 5.41 
566.62 -637.39 5.36 
571.50 -637.49 6.05 
570.81 -637.12 7.09 
570.48 -637.10 7.04 
570.14 -637.12 6.99 
569.64 -637.10 6.92 
569.15 -637.10 6.84 
568.81 -637.09 6.79 
567.51 -637.07 6.60 
573.52 -649.17 -0.03 
572.29 -649.09 -0.15 
572.02 -649.15 -0.17 
583.49 -649.65 0.96 
582.89 -649.57 0.90 
580.26 -649.70 0.66 
574.28 -649.39 0.06 
573.91 -649.27 0.02 
581.00 -649.74 0.73 
580.64 -649.80 0.70 
580.31 -649.78 0.67 
579.80 -649.76 0.62 
579.40 -649.74 0.58 
579.09 -649.73 0.55 
578.66 -649.76 0.52 
578.21 -649.80 0.48 
577.81 -649.79 0.44 
577.46 -649.82 0.41 
577.02 -649.78 0.36 
576.60 -649.73 0.32 
576.33 -649.69 0.29 
571.63 -652.93 0.13 
571.40 -652.86 0.10 
574.12 -652.51 0.94 
573.32 -652.63 0.86 
573.62 -653.05 0.92 
572.86 -653.04 0.84 
574.51 -653.45 1.05 
574.15 -653.54 1.02 
573.27 -653.18 0.90 
575.41 -653.79 1.17 
574.79 -653.77 1.10 
574.55 -653.79 1.08 
574.90 -654.12 1.14 
572.41 -638.97 -0.17 
572.12 -638.93 -0.20 
571.68 -638.91 -0.25 
571.24 -638.92 -0.30 
570.74 -638.92 -0.35 
570.40 -638.90 -0.39 
570.08 -638.90 -0.42 
569.74 -638.91 -0.45 
569.25 -638.88 -0.51 
568.77 -638.87 -0.56 
571.37 -641.20 0.10 
570.97 -641.50 0.07 
570.57 -641.83 0.05 
568.00 -643.73 -0.08 
567.21 -643.93 -0.15 
566.75 -644.09 -0.18 
590.57 -645.83 2.24 
590.78 -646.03 2.28 
582.81 -647.02 1.70 
582.92 -647.43 1.74 
579.84 -647.48 1.41 
585.17 -647.82 1.80 
584.80 -647.92 1.97 
582.99 -647.86 1.77 
582.61 -648.04 1.54 
582.37 -647.88 1.50 
580.50 -647.97 1.52 
585.13 -648.35 1.83 
583.69 -648.47 1.89 
583.39 -648.43 1.75 
583.12 -648.28 1.71 
585.41 -648.73 1.89 
583.89 -648.68 1.93 
586.20 -649.05 2.00 
585.79 -649.03 1.95 
572.00 -652.28 0.92 
