# .PCD v0.7 - Point Cloud Data file format
VERSION 0.7
FIELDS x y z
SIZE 4 4 4
TYPE F F F
COUNT 1 1 1
WIDTH 2276
HEIGHT 1
VIEWPOINT 0 0 0 1 0 0 0
POINTS 2276
DATA ascii
613.05 -713.42 5.86 
611.71 -714.08 5.76 
598.46 -713.49 4.06 
611.45 -714.26 5.75 
610.64 -714.33 5.65 
605.95 -714.13 5.03 
605.74 -714.74 5.08 
606.65 -715.06 5.23 
606.38 -715.13 5.20 
605.53 -714.84 5.06 
605.20 -715.20 5.07 
604.99 -715.32 5.05 
597.23 -715.03 4.10 
602.39 -704.85 3.91 
600.45 -704.95 3.70 
596.24 -708.19 3.56 
601.65 -709.01 4.41 
608.31 -709.65 5.35 
608.06 -709.67 5.32 
608.79 -709.99 5.46 
608.39 -709.71 5.37 
607.98 -709.77 5.32 
597.91 -709.48 3.93 
608.80 -710.18 5.49 
600.78 -710.18 4.48 
598.21 -710.15 4.19 
598.08 -710.11 4.17 
596.28 -709.96 3.95 
605.80 -710.51 5.14 
605.68 -710.93 5.19 
598.34 -710.76 4.17 
595.33 -711.00 3.85 
611.61 -714.20 5.76 
614.86 -715.02 6.29 
614.26 -714.71 6.17 
610.17 -714.86 5.65 
609.70 -715.07 5.62 
611.30 -715.49 5.88 
609.25 -715.37 5.60 
604.46 -715.82 5.05 
611.05 -716.43 5.95 
607.25 -716.77 5.51 
605.53 -716.70 5.28 
603.55 -718.03 5.20 
594.24 -727.46 5.07 
593.84 -727.37 5.01 
593.00 -729.14 5.13 
601.46 -705.70 4.36 
595.64 -707.44 3.91 
597.53 -708.80 4.35 
597.39 -708.78 4.33 
609.57 -710.45 5.64 
609.15 -710.33 5.56 
609.88 -710.60 5.70 
609.29 -711.33 5.72 
607.93 -711.67 5.58 
598.44 -711.73 4.44 
613.06 -712.55 6.42 
612.50 -712.23 6.29 
612.19 -712.47 6.28 
611.10 -712.51 6.13 
606.42 -712.36 5.48 
614.04 -712.84 6.60 
613.28 -712.59 6.46 
612.36 -712.91 6.37 
611.54 -712.91 6.25 
610.80 -712.62 6.11 
608.28 -712.54 5.75 
607.33 -712.75 5.66 
606.86 -712.73 5.59 
606.72 -712.82 5.59 
614.01 -713.26 6.65 
611.98 -712.97 6.32 
611.76 -712.95 6.29 
607.87 -713.02 5.77 
599.60 -713.04 4.64 
613.25 -713.52 6.58 
599.64 -713.07 4.65 
598.85 -713.05 4.55 
597.84 -713.16 4.57 
597.53 -713.53 4.46 
605.58 -714.04 5.62 
593.91 -713.85 4.10 
607.00 -715.23 5.97 
612.01 -716.15 6.77 
611.09 -716.11 6.64 
610.28 -716.40 6.57 
606.64 -716.04 6.03 
608.88 -716.78 6.43 
608.43 -716.69 6.36 
607.75 -716.44 6.23 
606.92 -716.59 6.15 
606.24 -717.76 6.23 
594.57 -727.61 5.29 
608.34 -708.76 5.77 
608.67 -709.12 5.88 
607.30 -709.17 5.69 
599.25 -709.74 4.78 
597.92 -709.70 4.64 
609.42 -710.14 6.15 
599.01 -709.89 4.78 
596.24 -710.05 4.41 
608.62 -710.44 6.08 
608.12 -710.57 6.03 
607.87 -710.51 5.99 
598.96 -710.28 4.77 
610.56 -711.12 6.48 
610.36 -711.39 6.49 
608.67 -711.24 6.22 
596.05 -711.21 4.69 
612.03 -712.02 6.84 
608.10 -711.92 6.25 
609.92 -712.40 6.59 
607.42 -712.26 6.22 
607.07 -712.15 6.15 
610.35 -712.53 6.67 
605.99 -713.72 6.27 
596.60 -713.78 5.07 
611.70 -716.57 6.79 
593.19 -725.89 5.73 
598.86 -705.19 4.86 
598.14 -705.38 4.84 
608.21 -709.12 6.35 
599.73 -708.74 5.16 
593.34 -708.78 4.47 
608.66 -709.55 6.50 
608.13 -709.43 6.40 
607.98 -709.52 6.40 
594.30 -709.05 4.61 
609.10 -709.87 6.63 
607.72 -709.93 6.44 
593.33 -709.55 4.61 
593.75 -709.91 4.72 
606.98 -711.12 6.55 
596.82 -711.16 5.35 
613.29 -712.46 7.10 
611.70 -712.41 6.85 
611.29 -712.38 6.79 
612.37 -712.57 6.98 
611.52 -712.57 6.85 
612.25 -713.34 7.09 
606.04 -713.76 6.28 
611.12 -714.31 7.08 
605.71 -714.17 6.30 
605.73 -714.38 6.34 
603.60 -714.44 6.08 
608.74 -715.69 6.96 
608.47 -715.73 6.93 
607.47 -716.66 6.95 
607.07 -716.71 6.90 
607.33 -717.18 7.02 
598.52 -709.22 5.69 
611.82 -710.91 7.25 
611.60 -711.53 7.33 
612.02 -711.87 7.45 
607.47 -711.81 6.75 
612.53 -712.18 7.59 
611.93 -712.21 7.51 
611.55 -712.26 7.45 
611.18 -712.26 7.39 
608.06 -712.04 6.88 
607.42 -712.44 6.87 
606.76 -713.45 6.96 
606.27 -713.33 6.87 
606.24 -713.30 6.86 
605.26 -713.44 6.76 
607.27 -713.75 7.09 
606.67 -713.58 6.97 
606.51 -713.60 6.96 
596.15 -713.44 5.64 
610.54 -714.05 7.63 
600.75 -713.83 6.27 
606.24 -714.41 7.07 
605.84 -714.39 7.02 
597.86 -714.40 6.02 
597.66 -714.59 6.03 
597.63 -715.57 6.22 
607.88 -710.01 7.04 
607.23 -710.91 7.14 
606.30 -711.59 7.15 
606.13 -711.61 7.12 
597.54 -711.42 6.04 
604.71 -713.29 7.29 
611.45 -714.24 7.80 
609.29 -715.55 7.72 
606.90 -716.38 7.54 
595.15 -727.04 7.12 
594.02 -727.21 7.02 
607.36 -710.28 7.61 
609.03 -710.77 7.99 
608.73 -710.85 7.96 
607.83 -712.95 7.66 
606.71 -713.01 7.51 
609.54 -713.26 7.99 
609.21 -713.13 7.91 
608.40 -713.33 7.83 
607.21 -713.15 7.61 
605.79 -713.30 7.44 
605.64 -713.30 7.42 
607.58 -713.61 7.76 
605.29 -713.48 7.41 
609.03 -713.96 8.06 
608.80 -713.99 8.03 
605.17 -714.22 7.55 
607.28 -715.17 8.05 
606.37 -715.16 7.92 
606.06 -715.13 7.87 
605.39 -709.75 7.75 
605.57 -709.94 7.83 
607.73 -711.28 7.90 
606.40 -713.85 8.31 
607.19 -710.69 8.27 
608.30 -711.58 8.69 
601.46 -712.88 8.05 
603.01 -716.44 8.47 
599.21 -711.35 2.94 
609.34 -712.36 4.20 
608.46 -712.92 4.14 
598.52 -712.52 2.94 
598.38 -712.59 2.93 
612.19 -713.60 4.61 
608.21 -713.73 4.17 
598.68 -713.41 3.03 
598.15 -713.33 2.96 
611.68 -714.18 4.59 
606.41 -714.09 3.98 
598.08 -713.63 2.97 
612.14 -714.54 4.67 
606.43 -714.16 3.99 
606.18 -714.30 3.97 
601.16 -704.84 3.12 
599.80 -704.77 2.96 
601.51 -705.37 3.22 
609.09 -709.43 4.52 
600.07 -710.19 3.51 
597.43 -710.16 3.19 
607.54 -710.63 4.44 
600.04 -710.35 3.52 
597.62 -710.41 3.24 
608.56 -711.14 4.61 
608.18 -711.09 4.56 
598.50 -711.17 3.41 
598.27 -711.14 3.38 
608.78 -712.45 4.76 
608.36 -712.34 4.70 
608.22 -712.39 4.69 
613.56 -713.20 5.42 
612.48 -713.25 5.29 
611.96 -713.31 5.23 
608.00 -713.05 4.73 
607.61 -713.22 4.70 
614.15 -713.74 5.54 
613.05 -713.71 5.41 
612.87 -713.65 5.38 
607.95 -713.53 4.77 
598.94 -713.18 3.66 
598.46 -713.26 3.61 
614.59 -714.07 5.63 
610.59 -714.16 5.15 
597.55 -713.54 3.53 
597.37 -713.46 3.50 
611.65 -714.36 5.30 
606.31 -714.19 4.63 
606.07 -714.30 4.61 
612.08 -714.72 5.38 
611.46 -714.73 5.31 
611.21 -714.66 5.27 
608.04 -716.49 5.06 
603.07 -716.70 4.48 
606.06 -717.38 4.90 
594.58 -726.96 4.46 
601.53 -704.93 3.59 
600.61 -705.09 3.50 
594.81 -706.42 3.01 
609.21 -709.50 5.10 
609.08 -709.55 5.09 
608.59 -709.65 5.04 
609.51 -709.76 5.17 
612.76 -710.57 5.70 
614.88 -710.94 6.02 
607.88 -710.79 5.08 
606.70 -710.45 4.89 
614.83 -711.22 6.05 
611.63 -711.26 5.62 
608.49 -711.01 5.18 
608.18 -711.18 5.16 
606.66 -710.89 4.93 
611.11 -711.44 5.58 
605.79 -711.73 4.92 
613.10 -712.33 5.94 
611.92 -713.11 5.88 
607.88 -713.23 5.37 
607.50 -713.12 5.30 
598.27 -712.80 4.15 
593.62 -712.95 3.65 
605.96 -714.10 5.23 
597.42 -715.04 4.32 
602.52 -704.80 4.12 
594.17 -708.10 3.50 
599.25 -708.78 4.29 
595.12 -708.89 3.72 
608.14 -709.84 5.56 
598.05 -709.55 4.16 
598.31 -710.12 4.38 
605.99 -710.42 5.36 
598.22 -710.65 4.33 
596.05 -710.78 4.10 
615.01 -711.96 6.16 
614.77 -712.08 6.14 
596.10 -711.66 4.23 
614.17 -712.44 6.10 
613.71 -712.88 6.09 
613.12 -713.14 6.04 
614.85 -714.21 6.39 
611.96 -713.97 5.98 
611.53 -714.28 5.96 
609.39 -714.55 5.71 
610.22 -715.14 5.89 
610.03 -715.21 5.87 
611.68 -715.59 6.13 
611.51 -715.67 6.12 
612.36 -716.08 6.28 
610.92 -715.90 6.07 
611.24 -716.18 6.14 
607.73 -716.25 5.70 
607.50 -716.18 5.66 
607.42 -716.79 5.73 
598.05 -716.76 4.59 
607.36 -718.17 5.88 
593.86 -727.06 5.17 
592.75 -729.07 5.28 
591.53 -728.84 5.12 
597.62 -708.72 4.55 
597.49 -708.72 4.53 
601.11 -709.08 5.08 
600.35 -709.10 4.99 
597.32 -709.27 4.61 
608.67 -710.06 5.67 
608.44 -709.90 5.61 
608.83 -710.25 5.72 
609.98 -710.74 5.95 
609.49 -710.72 5.87 
609.26 -710.74 5.84 
614.41 -711.16 6.64 
614.49 -711.53 6.70 
608.36 -711.37 5.81 
610.05 -711.86 6.11 
609.57 -711.70 6.02 
607.78 -711.94 5.81 
606.61 -711.79 5.63 
613.67 -712.54 6.72 
612.40 -712.55 6.54 
612.08 -712.33 6.46 
607.67 -712.39 5.86 
607.31 -712.30 5.80 
613.52 -712.61 6.71 
611.57 -712.70 6.44 
610.54 -712.64 6.29 
608.17 -712.67 5.97 
607.57 -712.61 5.88 
614.57 -713.33 6.96 
614.22 -713.10 6.88 
612.11 -713.19 6.59 
611.43 -713.19 6.49 
608.64 -712.93 6.07 
608.43 -712.90 6.03 
607.27 -713.00 5.89 
611.16 -714.40 6.62 
605.75 -714.04 5.84 
598.79 -713.86 4.97 
607.23 -715.28 6.21 
607.87 -716.41 6.45 
595.13 -728.16 5.61 
609.53 -709.14 6.23 
608.80 -709.13 6.12 
608.39 -709.13 6.06 
607.42 -709.12 5.92 
608.86 -709.26 6.15 
607.94 -709.35 6.03 
607.49 -709.25 5.95 
607.30 -709.20 5.91 
607.31 -709.82 6.02 
608.36 -710.22 6.23 
596.80 -710.09 4.68 
610.02 -711.95 6.76 
608.37 -711.73 6.48 
600.06 -713.32 5.66 
600.56 -713.71 5.79 
596.10 -713.43 5.16 
598.68 -705.50 5.09 
597.22 -705.97 5.04 
594.19 -709.00 4.78 
607.74 -709.82 6.65 
607.49 -709.57 6.57 
597.22 -709.30 5.17 
596.05 -709.49 5.07 
598.58 -709.73 5.42 
607.33 -710.76 6.76 
612.21 -711.83 7.07 
611.96 -711.71 7.01 
611.93 -712.13 7.07 
611.29 -712.70 7.07 
611.79 -713.38 7.25 
611.68 -714.22 7.37 
611.23 -714.19 7.30 
606.11 -714.28 6.58 
605.94 -714.25 6.56 
611.33 -714.77 7.41 
605.78 -714.44 6.57 
612.26 -714.99 7.58 
608.57 -715.52 7.13 
598.05 -715.30 5.70 
597.85 -715.35 5.68 
597.02 -715.49 5.61 
607.69 -716.74 7.21 
608.27 -717.38 7.39 
608.12 -717.68 7.42 
595.89 -729.30 6.72 
612.04 -710.68 7.49 
611.77 -710.71 7.45 
608.74 -710.92 7.01 
607.67 -710.81 6.82 
607.55 -710.92 6.83 
607.19 -710.93 6.78 
611.85 -711.60 7.63 
611.44 -711.86 7.61 
611.11 -711.89 7.56 
610.92 -712.18 7.58 
607.27 -711.96 6.98 
598.12 -712.12 5.82 
607.20 -713.34 7.23 
606.94 -713.32 7.19 
598.11 -713.19 6.02 
596.86 -713.18 5.91 
606.48 -713.60 7.17 
604.99 -713.84 7.01 
598.56 -714.23 6.28 
596.63 -714.72 6.14 
608.70 -710.15 7.45 
607.64 -710.17 7.29 
607.89 -710.54 7.40 
607.34 -711.02 7.41 
608.75 -711.44 7.73 
608.52 -711.93 7.79 
611.14 -714.61 8.06 
609.86 -715.49 8.03 
607.87 -715.17 7.67 
605.83 -715.23 7.39 
609.69 -715.54 8.01 
598.06 -708.78 6.32 
598.33 -709.18 6.45 
597.44 -709.73 6.43 
606.24 -710.41 7.71 
606.04 -710.66 7.74 
611.44 -711.84 8.26 
607.04 -712.84 7.75 
608.38 -713.46 8.09 
605.70 -713.21 7.63 
605.06 -713.30 7.56 
608.21 -713.56 8.09 
607.59 -713.50 7.98 
607.44 -713.67 7.99 
606.24 -713.54 7.78 
605.46 -713.48 7.66 
608.93 -713.93 8.28 
605.33 -713.81 7.71 
608.81 -711.22 8.32 
608.51 -711.19 8.26 
607.82 -711.16 8.14 
607.43 -711.08 8.06 
608.30 -711.52 8.30 
607.30 -711.86 8.22 
605.47 -710.31 8.16 
608.99 -713.15 8.80 
601.59 -704.95 3.01 
608.66 -712.89 4.39 
608.50 -712.91 4.37 
598.53 -712.59 3.20 
608.76 -713.06 4.41 
612.33 -713.63 4.85 
608.37 -713.72 4.42 
611.88 -714.19 4.84 
606.61 -714.08 4.24 
598.85 -713.47 3.30 
612.41 -714.55 4.93 
606.65 -714.11 4.25 
606.45 -714.16 4.23 
603.33 -704.73 3.62 
603.23 -704.88 3.62 
599.96 -704.76 3.23 
601.50 -705.51 3.48 
595.47 -708.17 3.03 
609.25 -709.58 4.79 
600.50 -709.75 3.76 
600.37 -709.90 3.76 
607.91 -710.65 4.73 
597.77 -710.42 3.51 
608.57 -711.18 4.86 
608.25 -711.06 4.81 
598.66 -711.20 3.69 
611.69 -712.59 5.37 
607.91 -712.41 4.90 
615.43 -712.97 5.87 
615.10 -712.88 5.82 
613.55 -713.05 5.64 
608.42 -712.69 4.99 
613.83 -713.21 5.69 
612.68 -713.20 5.55 
612.18 -713.31 5.50 
608.24 -713.06 5.00 
607.82 -713.16 4.96 
607.59 -713.18 4.93 
598.82 -712.92 3.87 
614.54 -713.80 5.84 
614.17 -713.74 5.79 
613.18 -713.71 5.66 
608.09 -713.49 5.02 
599.02 -713.14 3.91 
613.95 -714.26 5.81 
611.81 -714.23 5.54 
611.49 -714.53 5.53 
610.92 -714.26 5.44 
606.43 -714.15 4.89 
606.27 -714.18 4.87 
612.19 -714.64 5.63 
606.14 -714.50 4.88 
608.16 -716.54 5.32 
595.30 -727.16 4.82 
594.78 -726.81 4.72 
593.03 -726.95 4.54 
593.68 -728.37 4.75 
600.81 -705.09 3.78 
594.63 -706.90 3.29 
596.10 -707.48 3.52 
593.95 -707.79 3.33 
596.05 -708.23 3.61 
599.65 -708.78 4.08 
609.28 -709.55 5.37 
608.78 -709.66 5.32 
599.52 -709.00 4.09 
609.55 -709.73 5.43 
609.14 -709.71 5.37 
610.21 -710.34 5.59 
612.90 -710.74 5.99 
610.15 -710.72 5.62 
608.50 -710.87 5.42 
597.39 -710.43 4.02 
613.70 -711.18 6.15 
613.29 -711.03 6.08 
611.72 -711.36 5.90 
608.39 -711.11 5.44 
607.94 -710.89 5.35 
608.34 -711.51 5.48 
613.36 -711.96 6.19 
596.27 -711.46 4.01 
595.95 -711.35 3.97 
596.86 -712.05 4.15 
611.52 -712.74 6.04 
596.70 -712.21 4.15 
608.02 -713.21 5.63 
607.79 -713.13 5.60 
599.38 -713.01 4.55 
607.77 -714.10 5.71 
606.06 -714.08 5.49 
605.83 -714.32 5.49 
605.70 -714.63 5.51 
595.90 -706.66 3.87 
596.39 -707.98 4.11 
608.87 -708.75 5.79 
596.40 -708.12 4.02 
599.46 -708.78 4.57 
595.19 -708.83 3.98 
596.56 -709.95 4.41 
614.88 -711.26 6.32 
614.69 -712.23 6.40 
614.97 -712.35 6.45 
613.31 -712.28 6.22 
612.68 -712.47 6.16 
613.27 -712.64 6.26 
611.80 -712.90 6.09 
612.09 -713.06 6.15 
611.62 -713.04 6.08 
611.74 -714.23 6.24 
609.05 -714.74 5.95 
611.89 -715.72 6.43 
611.68 -715.70 6.40 
610.38 -715.33 6.19 
612.24 -715.97 6.50 
611.56 -716.06 6.43 
611.08 -715.95 6.35 
604.69 -715.90 5.53 
610.94 -716.18 6.36 
607.98 -716.17 5.98 
607.65 -718.44 6.20 
592.77 -729.25 5.57 
597.33 -706.00 4.39 
597.29 -707.21 4.59 
596.20 -707.10 4.45 
596.90 -708.14 4.70 
595.13 -708.53 4.49 
608.61 -709.82 5.90 
608.24 -709.82 5.85 
607.90 -709.92 5.81 
608.92 -710.14 5.98 
608.69 -710.32 5.98 
610.35 -710.76 6.27 
609.49 -710.60 6.13 
608.37 -710.68 5.98 
606.96 -710.44 5.76 
614.76 -711.34 6.99 
614.48 -711.27 6.94 
611.40 -711.24 6.49 
611.10 -711.14 6.43 
609.57 -710.87 6.18 
608.13 -711.06 6.00 
614.97 -711.59 7.06 
610.39 -711.39 6.37 
609.69 -711.66 6.30 
614.38 -712.44 7.09 
613.83 -712.48 7.01 
612.36 -712.31 6.77 
607.84 -712.18 6.12 
613.66 -712.61 7.00 
611.62 -712.61 6.71 
610.69 -712.55 6.57 
608.53 -712.76 6.29 
612.48 -713.08 6.89 
611.61 -713.06 6.77 
608.40 -712.99 6.31 
613.26 -713.72 7.09 
611.27 -714.33 6.89 
611.04 -714.87 6.94 
596.79 -707.88 5.12 
609.39 -708.83 6.45 
608.88 -709.05 6.41 
608.66 -709.17 6.39 
608.48 -709.46 6.41 
607.76 -709.33 6.28 
607.51 -709.51 6.28 
601.04 -708.97 5.31 
608.55 -709.82 6.48 
595.17 -709.17 4.69 
608.43 -710.05 6.50 
599.51 -709.71 5.25 
599.21 -709.98 5.26 
597.53 -710.12 5.04 
608.69 -711.29 6.74 
596.61 -711.41 5.21 
595.42 -713.42 5.42 
595.58 -713.58 5.46 
597.42 -706.12 5.37 
611.93 -711.58 7.27 
612.35 -711.76 7.37 
611.97 -712.09 7.36 
608.92 -712.34 6.94 
612.49 -713.62 7.68 
606.63 -713.41 6.79 
612.31 -713.76 7.68 
611.93 -713.84 7.63 
611.48 -714.11 7.61 
606.23 -714.24 6.87 
606.08 -714.29 6.86 
594.74 -714.21 5.48 
608.94 -715.48 7.45 
608.72 -715.45 7.42 
608.71 -715.55 7.43 
597.26 -715.73 6.00 
593.43 -726.41 6.28 
593.12 -726.71 6.29 
611.72 -710.65 7.74 
607.66 -710.66 7.09 
611.55 -710.94 7.76 
608.73 -710.94 7.31 
607.73 -710.82 7.13 
607.37 -710.85 7.08 
611.42 -711.53 7.85 
608.58 -711.15 7.32 
611.32 -711.84 7.89 
607.33 -711.91 7.27 
598.38 -712.21 6.14 
607.17 -713.34 7.51 
605.54 -713.55 7.31 
605.09 -713.85 7.31 
608.03 -710.54 7.73 
608.59 -710.71 7.86 
608.61 -711.38 8.00 
607.85 -711.16 7.83 
607.04 -711.80 7.84 
611.31 -714.51 8.37 
609.77 -715.58 8.32 
606.33 -715.67 7.83 
598.50 -709.17 6.76 
606.64 -710.06 8.01 
606.11 -710.05 7.92 
605.55 -709.90 7.79 
600.76 -709.62 7.03 
609.14 -711.65 8.15 
608.73 -711.65 8.08 
607.74 -712.18 8.03 
608.54 -713.38 8.41 
607.93 -713.40 8.31 
597.62 -708.34 6.88 
605.58 -709.61 8.31 
607.35 -710.60 8.25 
608.84 -711.03 8.61 
608.02 -710.99 8.46 
607.34 -710.67 8.27 
607.92 -711.16 8.48 
608.81 -712.00 8.83 
606.96 -710.49 8.77 
610.38 -712.42 4.67 
609.63 -713.19 4.64 
609.41 -713.08 4.61 
599.36 -712.85 3.46 
599.19 -712.87 3.44 
613.05 -713.71 5.06 
609.12 -713.71 4.62 
599.52 -713.03 3.49 
612.71 -714.26 5.06 
599.03 -713.42 3.46 
613.07 -714.50 5.12 
610.33 -709.72 5.08 
601.11 -709.69 3.98 
608.44 -710.44 4.92 
598.35 -710.46 3.73 
609.41 -711.18 5.11 
608.95 -711.06 5.04 
599.42 -711.35 3.94 
599.28 -711.36 3.92 
599.46 -711.42 3.95 
609.13 -712.46 5.19 
614.49 -712.99 5.89 
613.25 -713.38 5.78 
612.75 -713.37 5.72 
609.19 -713.14 5.26 
608.98 -713.11 5.24 
608.57 -713.19 5.19 
615.17 -713.68 6.04 
613.63 -713.61 5.84 
599.73 -713.21 4.15 
599.10 -713.30 4.08 
615.53 -714.15 6.13 
612.51 -714.27 5.77 
612.21 -714.25 5.73 
611.58 -714.15 5.65 
598.62 -713.52 4.05 
593.68 -713.21 3.45 
612.07 -714.36 5.72 
594.51 -713.93 3.62 
614.59 -714.81 6.07 
597.83 -717.26 4.31 
596.30 -727.08 5.06 
601.38 -705.13 4.02 
596.77 -707.51 3.75 
610.22 -709.68 5.67 
609.45 -709.70 5.57 
598.05 -709.24 4.10 
594.53 -708.96 3.67 
609.92 -709.88 5.66 
609.65 -709.76 5.61 
598.27 -709.37 4.14 
613.65 -710.59 6.24 
598.50 -709.94 4.24 
608.72 -710.73 5.60 
612.42 -711.23 6.14 
609.36 -710.99 5.71 
609.04 -710.95 5.66 
608.75 -711.19 5.65 
599.19 -710.72 4.41 
598.37 -710.94 4.34 
596.85 -711.20 4.20 
597.33 -711.65 4.30 
609.09 -712.47 5.84 
609.15 -713.14 5.93 
599.01 -713.14 4.67 
597.64 -713.70 4.58 
597.84 -708.74 4.53 
597.24 -708.68 4.46 
615.68 -711.00 6.56 
615.62 -711.26 6.58 
615.89 -712.01 6.70 
615.66 -712.08 6.68 
614.50 -712.24 6.54 
615.10 -712.45 6.64 
614.00 -712.32 6.48 
613.87 -712.44 6.47 
614.59 -712.86 6.62 
614.14 -712.95 6.57 
613.80 -712.80 6.50 
612.79 -713.12 6.41 
612.53 -713.08 6.37 
611.78 -713.44 6.31 
615.50 -714.20 6.89 
612.73 -714.10 6.51 
612.45 -714.28 6.49 
610.47 -714.62 6.27 
612.14 -715.61 6.60 
611.97 -715.78 6.60 
611.95 -715.82 6.60 
612.00 -716.36 6.67 
591.80 -729.25 5.59 
591.54 -729.11 5.55 
592.43 -729.47 5.69 
598.10 -705.98 4.63 
597.53 -706.40 4.63 
596.84 -707.04 4.66 
595.68 -707.60 4.56 
609.42 -709.99 6.21 
609.09 -709.93 6.16 
609.61 -710.12 6.26 
609.38 -710.31 6.25 
611.05 -710.64 6.53 
610.40 -710.53 6.43 
610.23 -710.61 6.41 
610.83 -710.94 6.54 
610.56 -710.97 6.51 
609.11 -711.22 6.34 
609.67 -711.52 6.46 
610.64 -711.75 6.63 
608.61 -711.97 6.37 
614.44 -712.54 7.28 
612.95 -712.37 7.04 
599.33 -711.84 5.15 
612.52 -712.77 7.03 
613.02 -713.17 7.16 
608.82 -712.96 6.53 
610.29 -713.33 6.79 
596.77 -713.95 5.15 
598.11 -714.88 5.43 
597.58 -729.04 6.38 
597.39 -705.71 4.95 
596.70 -705.95 4.92 
597.19 -707.10 5.19 
609.71 -709.08 6.73 
609.49 -709.20 6.72 
608.68 -709.20 6.60 
609.27 -709.46 6.73 
594.40 -708.91 4.71 
609.25 -709.93 6.80 
594.19 -709.18 4.73 
609.13 -710.06 6.80 
608.99 -710.19 6.80 
597.13 -709.70 5.13 
596.31 -709.58 5.02 
593.88 -709.96 4.83 
599.56 -710.83 5.60 
598.40 -712.11 5.68 
598.23 -713.34 5.86 
593.62 -726.20 6.42 
598.76 -709.49 5.83 
594.30 -709.64 5.33 
593.81 -709.60 5.27 
594.31 -710.02 5.40 
612.81 -711.91 7.66 
597.55 -711.45 6.06 
612.65 -712.21 7.68 
612.51 -712.81 7.75 
613.24 -713.71 8.01 
613.01 -713.78 7.98 
612.63 -713.92 7.95 
596.68 -714.03 5.80 
612.20 -714.98 8.04 
609.55 -715.50 7.73 
598.62 -715.35 6.24 
592.99 -726.63 6.41 
594.76 -727.10 6.68 
592.61 -727.13 6.43 
612.45 -710.40 8.04 
609.62 -710.83 7.64 
609.23 -711.07 7.62 
607.47 -713.08 7.71 
605.86 -713.85 7.60 
599.05 -713.68 6.66 
596.94 -715.09 6.68 
609.00 -710.46 8.10 
613.05 -711.97 8.42 
612.01 -711.85 8.22 
612.73 -712.28 8.42 
612.74 -713.85 8.69 
612.06 -714.44 8.69 
591.65 -728.11 7.50 
609.03 -710.59 8.13 
609.58 -712.18 8.55 
608.58 -710.64 8.71 
608.93 -710.96 8.85 
608.52 -710.87 8.76 
608.21 -710.90 8.71 
607.79 -710.28 9.12 
602.34 -704.70 3.29 
601.92 -705.00 3.26 
609.02 -712.99 4.68 
608.83 -713.05 4.66 
599.01 -712.80 3.44 
598.82 -712.67 3.41 
612.63 -713.61 5.15 
608.68 -713.73 4.69 
598.67 -713.14 3.42 
612.19 -714.17 5.14 
598.52 -713.58 3.43 
612.63 -714.50 5.22 
601.42 -705.22 3.66 
600.46 -710.35 4.01 
597.91 -710.31 3.68 
608.97 -711.12 5.18 
608.67 -711.12 5.14 
612.76 -711.80 5.74 
598.79 -711.23 3.88 
608.73 -712.34 5.26 
613.85 -713.05 6.00 
608.17 -712.54 5.21 
612.92 -713.21 5.89 
612.39 -713.21 5.82 
608.54 -712.99 5.30 
608.03 -713.22 5.25 
614.56 -713.74 6.15 
613.47 -713.68 6.00 
608.83 -713.55 5.38 
608.54 -713.47 5.34 
608.34 -713.44 5.31 
599.39 -713.22 4.14 
599.21 -713.20 4.12 
598.73 -713.27 4.06 
612.19 -714.18 5.88 
611.64 -714.10 5.80 
611.14 -714.09 5.74 
593.35 -713.21 3.39 
612.02 -714.26 5.87 
611.65 -714.49 5.84 
611.21 -714.39 5.77 
594.03 -713.93 3.54 
598.72 -714.82 4.21 
597.80 -716.83 4.28 
597.64 -717.44 4.31 
597.22 -717.25 4.24 
597.01 -717.26 4.22 
593.03 -727.09 4.64 
595.22 -706.43 3.45 
595.25 -707.31 3.55 
609.52 -709.65 5.73 
597.57 -709.13 4.05 
609.34 -709.85 5.73 
609.05 -709.72 5.67 
597.73 -709.39 4.11 
595.16 -709.25 3.77 
611.03 -710.23 6.01 
610.53 -710.45 5.97 
610.52 -710.88 6.01 
608.95 -710.78 5.78 
608.68 -711.09 5.77 
598.93 -710.69 4.41 
598.76 -710.65 4.38 
608.62 -711.33 5.79 
597.92 -710.94 4.31 
596.68 -711.54 4.22 
596.34 -711.43 4.17 
597.46 -712.07 4.38 
598.73 -712.86 4.64 
599.66 -712.99 4.77 
599.33 -713.53 4.79 
597.09 -713.72 4.53 
598.23 -714.24 4.74 
597.15 -705.93 4.08 
597.90 -707.79 4.43 
613.32 -710.86 6.41 
615.26 -711.40 6.76 
615.06 -711.43 6.73 
613.91 -711.35 6.55 
611.98 -711.35 6.28 
613.69 -711.76 6.57 
613.30 -711.53 6.49 
611.58 -711.48 6.23 
614.87 -712.17 6.79 
613.73 -712.23 6.63 
612.62 -711.99 6.44 
613.56 -712.30 6.61 
613.06 -712.35 6.54 
613.86 -713.16 6.75 
612.27 -713.06 6.51 
608.34 -713.16 5.96 
613.47 -714.22 6.81 
611.92 -715.98 6.79 
611.35 -716.06 6.72 
612.25 -717.29 6.98 
592.10 -729.21 5.57 
592.36 -729.36 5.62 
591.78 -729.55 5.57 
597.62 -706.04 4.61 
597.53 -706.77 4.72 
597.51 -707.12 4.78 
609.53 -708.79 6.24 
597.12 -708.15 4.90 
609.83 -708.97 6.31 
608.32 -709.57 6.16 
608.83 -709.86 6.27 
608.63 -709.85 6.24 
610.27 -710.72 6.61 
611.38 -711.30 6.86 
610.21 -711.01 6.64 
609.86 -710.93 6.58 
608.80 -710.96 6.42 
609.78 -711.62 6.65 
609.36 -711.24 6.54 
613.45 -711.91 7.27 
612.58 -712.02 7.14 
612.62 -712.17 7.17 
612.20 -712.22 7.11 
612.68 -712.60 7.24 
612.34 -712.85 7.21 
611.86 -712.94 7.15 
610.71 -712.97 6.98 
598.26 -712.72 5.17 
596.85 -728.79 6.26 
596.37 -706.02 4.91 
609.63 -708.78 6.87 
609.63 -709.07 6.91 
609.60 -709.38 6.95 
609.38 -709.45 6.93 
609.15 -709.76 6.94 
609.01 -709.92 6.94 
608.45 -709.94 6.85 
600.12 -709.38 5.50 
596.20 -709.20 4.95 
594.31 -709.05 4.70 
609.23 -710.28 7.03 
608.97 -710.16 6.97 
598.39 -709.72 5.32 
595.21 -709.51 4.88 
613.96 -712.61 7.44 
597.05 -707.78 5.33 
597.50 -708.30 5.48 
612.01 -711.60 7.70 
612.48 -712.04 7.85 
611.97 -711.98 7.75 
611.59 -711.76 7.65 
597.36 -711.31 6.03 
612.87 -712.27 7.95 
612.27 -713.79 8.08 
612.12 -714.17 8.11 
599.91 -715.54 6.48 
591.91 -729.19 6.59 
608.68 -710.14 7.55 
608.54 -710.69 7.63 
607.77 -710.81 7.51 
612.92 -714.40 8.28 
612.12 -714.89 8.23 
612.17 -713.66 8.79 
611.83 -714.48 8.88 
593.59 -727.66 7.61 
608.87 -711.95 8.59 
608.02 -710.36 8.76 
607.94 -710.63 8.81 
607.23 -710.09 9.19 
607.55 -710.36 9.32 
602.71 -704.70 3.63 
602.30 -704.82 3.59 
609.61 -713.00 5.04 
599.49 -712.68 3.81 
613.40 -713.65 5.54 
599.38 -713.21 3.83 
612.87 -714.26 5.52 
599.24 -713.66 3.84 
613.29 -714.53 5.59 
607.50 -714.21 4.88 
596.82 -708.15 3.66 
596.53 -708.34 3.64 
610.21 -709.65 5.52 
610.53 -709.79 5.57 
608.79 -710.31 5.39 
601.17 -710.51 4.43 
598.59 -710.11 4.07 
599.43 -711.23 4.28 
599.33 -711.21 4.26 
612.67 -712.29 6.08 
609.46 -712.36 5.67 
613.77 -713.31 6.32 
613.08 -713.30 6.23 
609.67 -713.18 5.77 
599.37 -713.46 4.48 
598.66 -713.59 4.40 
594.36 -713.17 3.83 
612.92 -714.31 6.30 
596.41 -727.28 5.41 
594.31 -727.22 5.15 
592.57 -727.35 4.94 
596.80 -727.82 5.51 
592.19 -728.41 5.00 
591.60 -728.55 4.94 
598.22 -709.18 4.46 
611.34 -710.05 6.37 
610.37 -709.84 6.21 
599.52 -710.67 4.81 
598.21 -710.50 4.62 
595.59 -711.33 4.39 
599.42 -712.84 5.05 
599.74 -713.67 5.19 
595.00 -713.61 4.58 
598.38 -708.27 4.89 
600.44 -708.84 5.25 
614.24 -710.72 6.87 
613.86 -710.92 6.83 
613.46 -710.90 6.77 
599.45 -710.22 5.31 
599.27 -710.08 5.27 
615.81 -711.26 7.16 
610.98 -711.02 6.43 
615.69 -711.61 7.18 
613.52 -711.62 6.86 
612.77 -711.44 6.73 
614.68 -712.16 7.09 
613.36 -711.85 6.86 
612.78 -711.84 6.78 
613.24 -712.90 6.96 
612.76 -712.92 6.90 
614.91 -713.23 7.24 
613.09 -713.01 6.95 
614.49 -714.25 7.30 
613.24 -714.04 7.09 
592.84 -726.43 5.83 
591.90 -729.21 5.89 
598.49 -705.63 4.99 
597.84 -708.10 5.31 
610.08 -708.93 6.70 
612.90 -711.69 7.51 
612.31 -711.62 7.40 
610.04 -711.51 7.03 
612.77 -711.91 7.51 
612.29 -711.97 7.45 
612.13 -712.10 7.44 
594.74 -714.15 5.26 
594.90 -714.23 5.29 
601.04 -709.35 5.97 
599.14 -709.70 5.75 
594.97 -709.76 5.22 
614.58 -712.13 7.83 
614.15 -711.93 7.74 
613.76 -711.95 7.68 
613.44 -712.10 7.65 
613.57 -712.22 7.68 
612.73 -712.56 7.59 
601.20 -712.20 6.46 
601.04 -712.33 6.45 
613.85 -713.40 7.88 
613.56 -713.39 7.83 
613.11 -711.66 8.28 
613.08 -712.06 8.33 
612.40 -711.97 8.20 
594.05 -727.21 7.02 
592.61 -727.18 6.74 
598.79 -709.25 6.73 
609.25 -710.11 8.04 
608.53 -711.00 8.07 
607.15 -710.75 9.10 
602.63 -705.27 3.86 
600.43 -711.52 4.03 
609.62 -712.86 5.22 
599.80 -712.43 4.02 
599.48 -712.65 4.00 
613.43 -713.64 5.72 
599.36 -713.48 4.04 
613.44 -714.64 5.80 
599.22 -713.77 4.04 
610.26 -709.65 5.73 
610.02 -709.64 5.70 
598.67 -709.92 4.27 
601.12 -710.79 4.66 
599.53 -711.20 4.49 
599.24 -711.08 4.45 
612.91 -712.09 6.30 
613.05 -712.92 6.40 
612.96 -713.11 6.40 
600.23 -713.27 4.77 
594.53 -713.15 4.05 
594.83 -714.15 4.18 
595.90 -726.87 5.50 
593.14 -726.83 5.15 
596.82 -727.48 5.67 
594.28 -727.15 5.32 
593.38 -727.81 5.27 
596.53 -706.53 4.15 
595.94 -707.57 4.20 
599.56 -710.55 5.01 
594.34 -712.72 4.60 
600.15 -713.97 5.49 
598.94 -705.55 4.82 
610.59 -709.90 6.47 
613.55 -711.71 7.10 
613.10 -713.00 7.18 
600.79 -705.55 5.56 
600.29 -706.12 5.58 
600.22 -709.88 5.59 
599.40 -710.02 5.50 
601.63 -711.02 5.95 
600.20 -715.53 6.38 
598.53 -715.73 6.18 
608.97 -709.73 7.54 
612.90 -711.80 8.53 
609.18 -710.52 8.38 
604.03 -704.81 4.27 
602.26 -709.28 4.38 
602.23 -709.47 4.39 
602.11 -710.03 4.42 
599.22 -711.55 4.18 
600.44 -711.89 4.35 
599.28 -712.40 4.25 
613.51 -713.63 6.04 
609.59 -713.90 5.60 
599.38 -713.57 4.34 
612.98 -714.34 6.03 
599.20 -713.97 4.35 
613.60 -714.79 6.13 
596.99 -707.49 4.12 
595.74 -708.81 4.08 
609.95 -709.75 6.02 
611.69 -710.37 6.31 
598.73 -709.66 4.54 
612.32 -711.46 6.49 
598.71 -710.88 4.66 
596.57 -710.79 4.38 
614.69 -712.54 6.90 
614.37 -712.71 6.88 
598.57 -713.68 4.90 
595.67 -727.10 5.81 
593.43 -727.18 5.54 
596.89 -727.53 6.01 
592.30 -727.53 5.43 
601.57 -705.29 4.99 
595.75 -708.74 4.60 
602.16 -709.82 5.59 
595.46 -710.58 4.78 
595.67 -710.72 4.83 
601.07 -713.44 5.87 
613.63 -712.50 7.55 
614.79 -712.73 7.75 
613.96 -712.53 7.60 
616.16 -713.18 8.00 
615.63 -713.34 7.94 
616.04 -713.44 8.01 
593.33 -726.19 6.36 
609.73 -710.00 7.39 
604.07 -714.29 7.09 
595.74 -713.90 5.86 
591.89 -729.31 6.55 
614.24 -711.42 8.31 
614.21 -711.92 8.37 
613.44 -711.90 8.24 
613.30 -712.86 8.34 
605.91 -714.78 7.43 
605.56 -714.96 7.41 
606.40 -713.95 8.14 
613.44 -711.98 9.05 
612.58 -711.71 8.85 
606.32 -709.19 10.00 
602.90 -705.12 4.32 
602.62 -709.11 4.57 
599.40 -711.36 4.35 
600.40 -712.05 4.52 
613.72 -713.52 6.19 
613.21 -714.28 6.19 
613.91 -714.62 6.29 
599.34 -714.11 4.54 
602.01 -704.96 4.70 
595.79 -706.96 4.10 
595.85 -707.12 4.12 
596.43 -707.83 4.26 
596.76 -709.12 4.43 
596.08 -709.02 4.33 
596.93 -710.78 4.60 
615.16 -712.34 7.10 
616.25 -712.64 7.27 
615.97 -712.69 7.24 
614.64 -712.66 7.06 
595.22 -713.30 4.63 
598.75 -713.60 5.10 
606.81 -715.58 6.32 
594.21 -726.75 5.78 
593.10 -728.12 5.77 
592.86 -728.05 5.73 
595.96 -729.08 6.22 
595.53 -728.97 6.15 
601.47 -705.11 5.15 
596.60 -706.81 4.68 
596.54 -707.19 4.72 
596.27 -708.77 4.87 
594.80 -709.50 4.76 
597.96 -713.81 5.68 
595.90 -709.78 5.50 
616.05 -710.98 7.92 
616.06 -711.35 7.96 
613.86 -712.26 7.74 
613.71 -712.40 7.73 
616.00 -713.09 8.14 
605.57 -714.42 7.54 
607.79 -716.09 8.10 
592.57 -728.94 7.80 
591.73 -728.92 7.69 
593.68 -712.67 6.89 
594.28 -712.88 7.01 
593.88 -712.22 8.10 
602.09 -709.21 4.48 
599.62 -711.93 4.37 
613.14 -713.52 6.05 
599.09 -713.34 4.41 
598.95 -713.52 4.40 
607.43 -714.19 5.44 
607.28 -714.39 5.44 
598.83 -714.16 4.43 
594.74 -707.81 4.03 
616.19 -711.97 7.16 
596.96 -711.16 4.61 
614.72 -712.28 6.99 
597.13 -711.37 4.65 
596.53 -711.63 4.60 
615.71 -712.59 7.15 
614.81 -712.76 7.05 
598.61 -712.45 4.94 
598.11 -713.63 4.98 
595.35 -713.81 4.65 
607.03 -714.81 6.22 
594.46 -714.41 4.60 
595.13 -727.22 5.86 
594.99 -728.14 5.93 
593.25 -728.26 5.72 
601.29 -705.37 5.15 
602.69 -710.58 5.93 
602.58 -710.70 5.93 
616.18 -710.93 7.91 
616.03 -711.08 7.90 
615.76 -711.18 7.87 
615.61 -711.39 7.87 
614.82 -712.44 7.87 
596.49 -709.58 5.55 
607.51 -713.66 7.72 
606.43 -713.99 7.59 
613.21 -711.85 9.23 
593.51 -712.06 8.01 
593.24 -712.92 8.17 
602.82 -705.48 4.51 
601.59 -709.54 4.66 
601.60 -709.90 4.68 
598.83 -710.53 4.41 
599.85 -711.50 4.59 
599.70 -711.65 4.58 
600.08 -713.08 4.73 
599.71 -713.26 4.70 
599.55 -713.40 4.69 
599.21 -713.41 4.65 
612.89 -714.26 6.29 
607.58 -714.17 5.67 
598.97 -714.30 4.68 
598.81 -714.36 4.67 
596.20 -706.44 4.32 
598.46 -709.14 4.85 
595.81 -709.27 4.53 
616.10 -711.23 7.31 
614.50 -712.20 7.19 
597.65 -711.59 4.97 
597.89 -711.72 5.02 
600.47 -713.07 5.47 
599.44 -713.19 5.35 
599.02 -714.35 5.40 
597.73 -729.05 6.59 
591.94 -728.79 5.85 
592.03 -729.24 5.90 
598.16 -708.55 5.33 
603.20 -710.08 6.20 
603.42 -710.51 6.28 
596.20 -713.68 5.65 
607.05 -713.92 7.16 
597.43 -713.77 5.83 
595.71 -728.73 7.32 
595.49 -729.04 7.33 
594.75 -708.15 6.46 
598.93 -713.68 8.12 
593.63 -712.87 8.50 
595.70 -713.37 8.95 
601.92 -704.71 4.53 
602.50 -705.24 4.64 
599.03 -710.43 4.60 
598.98 -710.42 4.59 
598.90 -710.62 4.60 
599.97 -711.44 4.78 
599.91 -711.87 4.80 
599.89 -713.29 4.90 
599.72 -713.42 4.89 
599.35 -713.42 4.85 
607.64 -714.27 5.86 
607.54 -714.46 5.86 
599.05 -714.34 4.87 
595.85 -707.42 4.56 
598.57 -709.08 5.05 
597.41 -711.44 5.12 
594.58 -726.58 6.16 
594.29 -726.40 6.11 
593.96 -726.36 6.07 
594.06 -726.63 6.10 
593.73 -726.74 6.07 
593.55 -727.17 6.09 
593.00 -727.43 6.05 
595.28 -728.78 6.45 
591.97 -728.75 6.04 
595.11 -729.45 6.49 
591.72 -729.30 6.06 
597.39 -706.67 5.22 
596.88 -707.45 5.24 
598.46 -708.49 5.57 
599.73 -709.91 5.91 
609.65 -712.53 7.59 
593.76 -709.99 5.70 
593.94 -726.59 7.05 
593.68 -727.18 7.09 
593.44 -727.22 7.06 
594.05 -727.68 7.19 
592.92 -727.74 7.05 
592.67 -728.02 7.06 
592.13 -728.69 7.07 
591.82 -728.54 7.01 
592.49 -729.17 7.17 
591.70 -728.51 8.00 
592.67 -729.04 8.20 
592.34 -728.95 8.15 
592.04 -728.96 8.11 
594.97 -707.54 7.18 
595.99 -712.57 8.38 
601.94 -704.84 4.80 
601.68 -710.18 5.16 
601.58 -710.40 5.16 
598.97 -710.15 4.84 
600.17 -711.24 5.06 
599.87 -711.25 5.02 
609.85 -712.47 6.25 
600.33 -713.24 5.22 
599.86 -713.31 5.17 
599.24 -713.53 5.11 
599.05 -713.54 5.09 
599.02 -714.55 5.16 
600.16 -714.98 5.32 
599.95 -712.57 5.83 
599.83 -712.70 5.83 
599.59 -713.19 5.84 
593.83 -725.73 6.28 
594.14 -725.91 6.33 
593.92 -725.98 6.31 
593.60 -725.92 6.27 
595.23 -726.89 6.56 
594.99 -726.92 6.53 
593.61 -727.53 6.42 
597.33 -728.08 6.93 
597.26 -728.85 6.99 
596.35 -729.02 6.90 
596.11 -729.36 6.90 
598.58 -714.79 6.60 
594.15 -726.51 7.36 
594.08 -726.68 7.38 
594.92 -727.16 7.54 
593.96 -727.04 7.40 
593.72 -727.25 7.40 
593.37 -727.06 7.33 
595.87 -727.44 7.70 
596.32 -728.05 7.83 
592.50 -727.82 7.31 
595.49 -728.52 7.77 
593.63 -728.32 7.51 
593.03 -728.37 7.44 
592.12 -728.30 7.31 
595.80 -728.73 7.84 
593.39 -728.71 7.52 
593.72 -729.57 8.72 
596.25 -712.44 8.75 
597.09 -710.13 9.08 
597.51 -707.00 9.07 
600.38 -707.30 9.77 
602.31 -704.77 5.05 
599.15 -709.93 5.07 
599.07 -710.18 5.08 
600.32 -712.86 5.41 
600.56 -713.21 5.46 
600.08 -713.28 5.41 
594.91 -713.21 4.81 
594.33 -713.12 4.74 
599.22 -714.71 5.42 
599.07 -716.82 5.55 
595.01 -727.41 5.82 
594.40 -726.06 6.63 
594.09 -725.97 6.59 
593.80 -725.99 6.56 
593.53 -726.25 6.55 
595.53 -726.91 6.85 
595.21 -726.85 6.81 
593.46 -727.08 6.61 
597.42 -728.13 7.20 
595.08 -727.79 6.88 
593.33 -727.95 6.68 
598.24 -728.74 7.35 
598.00 -728.99 7.35 
596.43 -729.21 7.18 
595.48 -729.24 7.06 
593.85 -729.28 6.87 
597.47 -729.46 7.33 
592.35 -729.64 6.72 
598.54 -714.81 6.85 
594.45 -726.63 7.68 
596.15 -727.33 7.98 
594.88 -727.19 7.80 
594.22 -726.99 7.69 
593.91 -727.15 7.67 
593.61 -727.04 7.62 
593.41 -727.44 7.64 
591.93 -727.49 7.46 
594.16 -728.05 7.81 
592.58 -727.91 7.59 
592.26 -727.69 7.53 
597.31 -728.33 8.25 
597.03 -728.28 8.20 
593.53 -728.20 7.75 
593.22 -728.21 7.71 
596.21 -728.81 8.16 
595.82 -728.52 8.08 
593.43 -729.08 7.84 
591.58 -729.11 7.61 
593.06 -713.08 7.29 
593.91 -714.66 7.66 
597.36 -705.03 8.36 
597.52 -706.24 8.65 
596.93 -709.19 8.53 
597.60 -711.80 9.17 
594.24 -712.17 8.67 
595.69 -713.64 9.21 
598.64 -706.79 9.63 
597.46 -712.70 10.06 
599.53 -712.47 10.41 
599.37 -710.01 5.17 
601.85 -710.64 5.48 
600.35 -711.15 5.36 
595.21 -713.01 4.91 
600.19 -713.36 5.49 
599.41 -713.54 5.42 
595.13 -713.27 4.92 
608.05 -714.37 6.43 
599.40 -714.64 5.50 
599.25 -716.94 5.64 
596.96 -707.53 5.32 
595.82 -713.28 5.71 
606.16 -716.17 7.25 
593.97 -725.98 6.66 
594.46 -726.16 6.73 
595.82 -726.85 6.96 
595.52 -726.72 6.91 
593.68 -726.63 6.68 
595.29 -726.98 6.91 
597.03 -727.55 7.17 
595.21 -727.84 6.98 
597.87 -728.32 7.34 
597.60 -728.32 7.31 
597.87 -729.35 7.44 
597.24 -729.26 7.35 
596.81 -729.16 7.29 
593.99 -729.29 6.96 
592.50 -729.66 6.82 
595.10 -715.71 6.60 
595.59 -715.82 6.68 
595.36 -715.77 6.64 
594.03 -713.12 6.86 
593.82 -713.03 6.82 
594.65 -726.72 7.81 
595.22 -727.13 7.93 
594.29 -727.08 7.80 
593.84 -727.14 7.75 
596.49 -727.36 8.11 
592.86 -727.54 7.68 
592.26 -727.54 7.60 
591.97 -727.53 7.56 
592.57 -727.61 7.65 
597.36 -728.32 8.33 
596.97 -728.31 8.28 
596.50 -728.28 8.22 
593.61 -728.11 7.83 
596.12 -728.64 8.21 
591.89 -729.10 7.74 
591.65 -729.22 7.72 
594.72 -714.63 7.16 
594.77 -715.78 7.33 
594.00 -712.64 7.48 
593.95 -713.00 7.53 
593.49 -712.92 7.45 
596.44 -713.55 7.99 
597.20 -705.68 8.07 
597.32 -706.49 8.25 
594.53 -713.56 8.43 
594.42 -713.94 8.48 
597.05 -709.17 8.72 
598.24 -710.11 9.12 
597.89 -710.25 9.09 
599.13 -705.69 9.09 
597.82 -711.44 9.31 
597.50 -711.65 9.29 
598.54 -712.25 9.60 
596.25 -713.44 9.43 
598.68 -706.35 9.76 
599.12 -706.65 9.93 
599.55 -711.52 10.40 
599.93 -711.73 10.52 
599.46 -710.15 5.34 
602.11 -710.57 5.66 
614.74 -713.23 7.21 
600.51 -713.29 5.68 
595.36 -713.08 5.10 
599.61 -713.58 5.60 
599.65 -714.63 5.68 
599.53 -714.80 5.68 
599.48 -716.71 5.81 
594.97 -726.44 5.99 
602.90 -711.15 6.56 
595.78 -713.05 5.86 
596.18 -713.39 5.94 
596.22 -713.86 5.99 
597.36 -715.30 6.26 
596.50 -715.06 6.13 
594.29 -726.05 6.88 
594.67 -726.29 6.95 
593.89 -726.29 6.85 
593.52 -726.81 6.86 
595.81 -726.94 7.14 
595.50 -726.95 7.11 
597.28 -727.67 7.38 
595.35 -727.55 7.14 
591.59 -727.40 6.68 
597.85 -728.17 7.50 
597.10 -727.95 7.39 
596.95 -728.46 7.42 
596.76 -728.90 7.44 
593.92 -729.35 7.14 
598.06 -709.25 6.46 
595.59 -715.89 6.88 
594.55 -709.88 6.70 
594.68 -726.67 7.99 
595.14 -727.19 8.11 
594.50 -727.18 8.03 
594.19 -727.19 7.99 
593.75 -727.29 7.95 
593.35 -727.53 7.92 
592.08 -727.43 7.76 
597.00 -727.95 8.43 
596.61 -727.76 8.36 
593.04 -727.57 7.89 
597.71 -728.24 8.56 
597.42 -728.22 8.52 
592.89 -728.23 7.95 
592.54 -728.00 7.88 
596.30 -728.84 8.45 
596.68 -728.99 8.51 
592.09 -728.84 7.92 
591.57 -729.53 7.93 
595.79 -714.83 7.54 
595.36 -714.50 7.44 
595.79 -714.90 7.55 
594.37 -715.27 7.41 
594.84 -711.48 7.65 
594.78 -711.74 7.68 
594.46 -711.82 7.64 
594.40 -712.69 7.77 
594.14 -712.92 7.77 
593.39 -713.20 7.70 
597.85 -705.06 8.36 
597.70 -705.44 8.40 
597.52 -705.50 8.38 
597.34 -706.57 8.54 
597.31 -707.00 8.62 
597.33 -712.27 8.90 
594.99 -712.40 8.53 
594.80 -712.41 8.50 
594.68 -714.26 8.81 
598.66 -709.38 9.33 
597.91 -709.83 9.28 
600.20 -712.31 9.40 
599.03 -704.98 9.22 
598.41 -710.06 9.41 
597.36 -711.54 9.51 
596.62 -711.52 9.37 
595.85 -712.89 9.50 
596.06 -713.75 9.71 
598.36 -709.68 10.05 
599.17 -706.53 10.24 
598.78 -706.66 10.18 
599.76 -709.74 5.51 
595.66 -713.23 5.31 
599.52 -713.59 5.76 
608.35 -714.51 6.77 
608.24 -714.78 6.78 
599.93 -714.72 5.88 
599.73 -714.78 5.87 
599.70 -716.62 5.99 
598.52 -713.77 6.44 
597.13 -713.59 6.26 
596.55 -713.53 6.18 
596.50 -713.83 6.21 
598.67 -714.38 6.52 
598.69 -715.83 6.65 
598.20 -715.95 6.60 
594.51 -726.23 7.11 
594.12 -726.38 7.08 
593.79 -726.35 7.03 
595.19 -726.78 7.24 
593.68 -727.00 7.08 
597.86 -727.77 7.65 
591.55 -727.22 6.85 
597.93 -728.08 7.68 
597.69 -728.29 7.68 
597.35 -728.36 7.64 
597.78 -729.36 7.79 
597.42 -729.31 7.74 
596.27 -729.14 7.58 
594.03 -729.29 7.33 
594.26 -709.83 6.22 
594.21 -710.10 6.24 
595.19 -712.88 6.68 
597.85 -713.57 7.11 
595.73 -713.47 6.82 
596.66 -713.79 6.98 
594.83 -714.72 6.84 
594.40 -727.11 8.20 
593.61 -727.14 8.11 
595.15 -727.43 8.34 
594.00 -727.38 8.19 
597.10 -727.88 8.63 
596.75 -727.84 8.59 
592.36 -727.75 8.02 
597.63 -728.38 8.76 
596.73 -728.72 8.68 
593.07 -728.62 8.21 
593.53 -729.08 8.32 
592.16 -728.82 8.12 
591.91 -729.16 8.13 
596.11 -713.44 7.62 
594.92 -713.42 7.45 
596.39 -714.46 7.80 
594.85 -714.31 7.56 
596.02 -714.63 7.77 
595.77 -714.63 7.73 
594.50 -714.64 7.55 
593.63 -714.39 7.40 
598.42 -715.20 8.19 
594.26 -715.29 7.61 
594.32 -711.47 7.80 
594.49 -711.72 7.86 
596.34 -712.94 8.34 
593.99 -713.11 8.01 
593.86 -713.33 8.02 
597.29 -705.21 7.95 
596.88 -713.46 8.51 
596.49 -713.71 8.48 
596.23 -713.67 8.44 
597.92 -705.10 8.68 
597.24 -712.85 9.24 
599.90 -705.33 9.12 
599.60 -705.91 9.16 
599.31 -705.84 9.09 
599.86 -706.16 9.26 
598.22 -706.34 8.96 
591.52 -706.48 8.31 
597.92 -709.23 9.44 
599.46 -709.54 9.80 
598.93 -709.61 9.71 
598.71 -709.60 9.66 
599.00 -709.63 9.73 
598.73 -709.69 9.69 
600.78 -710.97 10.33 
597.60 -711.47 9.81 
597.49 -711.63 9.82 
599.01 -706.79 9.90 
599.28 -707.06 10.01 
598.03 -706.80 9.69 
599.58 -707.80 10.22 
599.55 -708.36 10.33 
598.26 -709.42 10.28 
598.33 -709.58 10.32 
598.28 -709.88 10.38 
596.94 -709.11 5.30 
601.87 -711.87 6.03 
601.44 -713.29 6.09 
596.03 -713.29 5.50 
608.63 -714.24 6.93 
599.57 -713.67 5.91 
608.51 -714.53 6.94 
608.44 -714.87 6.95 
600.67 -714.56 6.10 
599.88 -714.92 6.04 
599.80 -716.26 6.12 
596.02 -709.52 5.92 
598.11 -713.59 6.54 
597.83 -713.55 6.50 
596.79 -713.65 6.39 
598.62 -713.90 6.63 
598.94 -714.79 6.75 
609.24 -716.02 8.12 
598.76 -715.90 6.83 
594.76 -726.18 7.29 
594.48 -726.21 7.26 
593.81 -726.22 7.18 
595.32 -726.76 7.41 
594.29 -726.69 7.28 
595.78 -727.19 7.50 
594.40 -726.83 7.31 
594.12 -726.97 7.29 
591.57 -727.46 7.03 
597.76 -727.88 7.80 
597.08 -727.76 7.71 
596.78 -728.02 7.70 
596.35 -727.80 7.63 
592.07 -727.56 7.10 
597.63 -728.27 7.83 
596.55 -728.15 7.68 
597.48 -728.91 7.86 
597.27 -729.13 7.86 
592.97 -729.57 7.39 
594.71 -708.72 6.33 
594.55 -709.92 6.45 
595.03 -709.98 6.52 
594.87 -710.05 6.50 
596.04 -712.92 6.98 
595.76 -712.98 6.95 
596.82 -714.18 7.22 
595.24 -714.69 7.07 
594.92 -714.59 7.02 
594.65 -727.06 8.40 
595.83 -727.56 8.61 
595.45 -727.32 8.53 
595.10 -727.34 8.49 
594.46 -727.31 8.40 
593.83 -727.40 8.33 
594.52 -727.63 8.45 
594.17 -727.56 8.40 
592.90 -727.68 8.25 
597.51 -728.35 8.91 
597.14 -728.19 8.85 
594.34 -727.94 8.46 
592.40 -728.00 8.22 
596.95 -728.58 8.87 
594.15 -728.50 8.50 
593.58 -728.64 8.44 
593.55 -728.72 8.45 
591.80 -728.71 8.23 
593.13 -729.37 8.47 
592.39 -729.08 8.35 
595.45 -712.37 7.58 
595.12 -715.64 7.97 
598.32 -705.67 8.47 
598.88 -715.08 9.29 
597.78 -711.69 9.37 
599.72 -705.17 9.34 
599.44 -705.12 9.27 
599.47 -705.62 9.37 
599.12 -707.14 9.56 
599.71 -707.19 9.70 
600.52 -707.47 9.91 
599.84 -707.39 9.76 
600.58 -707.89 10.00 
599.21 -708.21 9.78 
599.04 -709.79 10.03 
599.47 -706.72 10.28 
599.20 -706.99 10.28 
599.37 -707.81 10.48 
598.47 -709.41 10.61 
591.73 -706.42 4.71 
591.63 -706.53 4.71 
597.76 -710.75 5.66 
599.70 -713.68 6.08 
596.34 -713.42 5.70 
600.58 -714.04 6.19 
600.13 -714.94 6.21 
600.08 -715.32 6.23 
599.97 -715.80 6.26 
591.68 -706.44 5.29 
598.70 -713.92 6.81 
600.25 -715.32 7.12 
595.66 -715.50 6.59 
594.81 -726.22 7.47 
594.46 -726.60 7.47 
594.33 -727.14 7.50 
597.07 -727.97 7.90 
592.66 -727.64 7.35 
592.16 -727.51 7.28 
591.60 -727.79 7.25 
597.95 -728.33 8.04 
596.27 -728.77 7.88 
597.21 -729.17 8.03 
592.31 -729.02 7.44 
591.71 -706.37 5.87 
595.99 -709.43 6.78 
595.68 -709.29 6.72 
595.51 -710.15 6.79 
595.19 -710.04 6.74 
602.25 -712.94 8.01 
595.99 -712.98 7.17 
597.92 -713.37 7.47 
595.73 -714.54 7.31 
594.36 -714.78 7.16 
595.18 -727.88 8.75 
597.06 -728.35 9.04 
596.32 -728.22 8.93 
595.69 -728.30 8.86 
592.21 -727.99 8.39 
597.57 -728.66 9.14 
597.17 -728.43 9.06 
596.09 -728.40 8.92 
593.93 -728.31 8.64 
592.00 -728.39 8.41 
595.27 -729.01 8.89 
594.92 -729.02 8.85 
593.80 -728.78 8.68 
593.49 -728.86 8.65 
592.80 -728.82 8.56 
593.28 -729.23 8.66 
591.61 -729.28 8.46 
591.80 -706.38 7.07 
594.93 -714.41 7.98 
595.92 -714.78 8.17 
594.78 -714.72 8.00 
598.97 -715.36 8.69 
591.81 -706.43 7.68 
595.72 -714.00 8.85 
591.92 -706.39 8.30 
591.82 -706.50 8.30 
597.36 -711.58 9.52 
598.95 -709.63 10.26 
599.37 -706.80 10.58 
591.88 -706.50 4.83 
598.32 -710.92 5.81 
597.96 -710.77 5.76 
597.84 -711.37 5.80 
599.94 -713.69 6.18 
600.29 -714.98 6.31 
600.23 -715.30 6.32 
591.88 -706.47 5.43 
598.83 -714.01 6.93 
597.59 -713.77 6.76 
600.39 -715.45 7.25 
595.06 -726.19 7.60 
594.71 -726.41 7.58 
594.60 -727.12 7.63 
597.35 -727.79 8.01 
592.87 -727.77 7.49 
592.51 -727.70 7.44 
592.21 -727.78 7.41 
591.79 -727.52 7.34 
591.54 -727.76 7.33 
598.06 -728.37 8.15 
597.20 -728.11 8.02 
597.33 -729.21 8.14 
596.94 -729.15 8.09 
596.50 -728.98 8.02 
594.49 -728.96 7.79 
591.62 -729.05 7.46 
591.92 -706.40 6.03 
595.53 -707.75 6.66 
594.90 -707.92 6.59 
596.02 -709.04 6.87 
597.04 -709.34 7.03 
595.92 -709.61 6.91 
595.42 -710.07 6.90 
595.21 -710.10 6.87 
594.64 -710.03 6.79 
598.44 -713.58 7.68 
597.90 -713.44 7.59 
596.42 -713.44 7.40 
597.81 -714.25 7.67 
595.97 -714.52 7.46 
595.68 -715.06 7.48 
594.43 -714.77 7.29 
594.11 -714.68 7.24 
591.89 -706.42 6.64 
596.43 -728.22 9.05 
592.48 -727.92 8.53 
597.54 -728.39 9.21 
597.28 -728.50 9.19 
596.17 -728.45 9.05 
595.81 -728.45 9.00 
594.02 -728.36 8.77 
592.30 -728.35 8.55 
593.66 -728.79 8.77 
592.07 -728.69 8.56 
595.80 -729.29 9.09 
595.40 -729.19 9.03 
595.14 -729.44 9.03 
593.34 -729.37 8.80 
591.86 -729.06 8.58 
591.56 -729.20 8.56 
595.78 -713.00 8.06 
595.22 -712.96 7.97 
595.15 -714.46 8.16 
594.63 -714.24 8.06 
595.08 -715.12 8.23 
594.83 -715.09 8.19 
592.10 -706.49 4.99 
598.45 -710.85 5.95 
602.14 -713.32 6.50 
601.33 -713.24 6.42 
600.20 -713.69 6.33 
600.54 -714.93 6.45 
592.16 -706.40 5.61 
596.93 -709.72 6.47 
600.95 -713.30 7.27 
600.81 -713.52 7.27 
599.12 -713.95 7.11 
597.94 -713.74 6.95 
600.50 -714.91 7.36 
600.66 -715.47 7.43 
595.08 -726.42 7.76 
594.82 -726.95 7.78 
593.07 -727.73 7.65 
592.66 -727.57 7.59 
592.02 -727.64 7.52 
598.37 -728.32 8.31 
597.98 -728.24 8.26 
597.52 -728.12 8.20 
592.42 -727.81 7.58 
597.35 -728.48 8.21 
595.36 -728.29 7.96 
595.13 -728.45 7.95 
594.87 -728.84 7.95 
594.61 -728.95 7.94 
596.95 -729.22 8.23 
592.16 -729.14 7.67 
592.15 -706.41 6.24 
596.35 -707.50 6.92 
596.09 -707.83 6.92 
595.78 -707.80 6.87 
595.62 -707.88 6.86 
596.24 -708.96 7.06 
596.18 -709.57 7.11 
596.00 -709.71 7.11 
595.49 -710.12 7.08 
598.69 -713.54 7.88 
598.22 -713.34 7.79 
599.91 -714.66 8.16 
597.46 -714.37 7.80 
596.33 -714.51 7.67 
594.71 -714.76 7.49 
601.21 -715.38 8.41 
592.13 -706.41 6.87 
596.14 -727.69 9.11 
595.71 -727.67 9.05 
598.02 -728.63 9.45 
597.54 -728.36 9.36 
596.74 -728.30 9.25 
596.34 -728.27 9.20 
596.10 -728.42 9.18 
594.27 -728.37 8.95 
592.54 -728.39 8.74 
595.90 -728.91 9.21 
595.53 -728.89 9.17 
594.05 -728.75 8.97 
592.35 -728.83 8.76 
595.69 -729.15 9.22 
593.79 -728.93 8.95 
592.10 -729.08 8.76 
591.78 -729.19 8.73 
595.44 -729.41 9.21 
595.38 -729.41 9.21 
593.59 -729.33 8.97 
597.11 -710.10 8.07 
596.69 -709.89 7.98 
596.07 -712.18 8.18 
596.01 -712.92 8.27 
595.75 -712.96 8.23 
595.36 -712.82 8.16 
597.88 -713.39 8.60 
595.65 -713.16 8.24 
597.75 -713.56 8.60 
597.87 -715.01 8.81 
594.93 -715.21 8.41 
599.37 -715.26 9.06 
592.35 -706.51 8.20 
598.51 -712.23 9.39 
596.87 -713.28 9.28 
595.79 -713.53 9.15 
595.31 -714.15 9.16 
592.43 -706.46 5.17 
592.30 -706.55 5.16 
599.05 -709.33 6.04 
600.94 -710.81 6.33 
598.85 -710.88 6.13 
601.54 -712.98 6.55 
602.35 -713.37 6.66 
601.56 -713.34 6.58 
600.45 -713.73 6.49 
597.07 -713.36 6.12 
601.34 -713.99 6.60 
600.81 -714.96 6.62 
592.46 -706.44 5.82 
595.37 -708.97 6.38 
601.14 -712.81 7.40 
601.18 -713.33 7.45 
601.02 -713.49 7.44 
600.75 -714.89 7.54 
595.69 -726.12 7.96 
595.48 -726.36 7.96 
595.22 -726.49 7.94 
593.43 -727.67 7.85 
592.88 -727.54 7.77 
597.87 -728.09 8.39 
595.63 -728.24 8.15 
592.35 -727.94 7.75 
597.67 -728.39 8.40 
591.72 -728.14 7.70 
592.45 -729.10 7.87 
591.57 -729.58 7.81 
592.42 -706.39 6.46 
595.82 -707.83 7.06 
595.59 -707.90 7.04 
597.81 -708.36 7.38 
597.36 -708.52 7.34 
597.06 -708.43 7.29 
596.14 -708.84 7.21 
596.08 -709.11 7.23 
596.25 -709.70 7.32 
595.85 -709.88 7.29 
595.83 -710.28 7.33 
598.21 -713.09 7.94 
600.75 -713.31 8.30 
597.32 -713.27 7.84 
598.21 -714.34 8.08 
597.81 -714.31 8.02 
597.56 -714.35 7.99 
597.01 -714.48 7.94 
594.74 -715.26 7.73 
592.40 -706.41 7.11 
601.52 -715.40 8.63 
596.46 -727.72 9.33 
595.95 -727.53 9.24 
597.04 -728.24 9.46 
596.43 -728.42 9.40 
594.62 -728.48 9.18 
592.77 -728.38 8.94 
595.85 -728.89 9.38 
594.32 -728.65 9.16 
593.94 -728.61 9.11 
593.69 -728.87 9.11 
592.65 -728.96 8.99 
592.31 -729.15 8.97 
592.04 -729.24 8.95 
597.44 -707.02 7.94 
596.00 -711.98 8.34 
600.17 -712.72 9.05 
596.09 -712.90 8.47 
599.19 -713.20 8.97 
595.36 -713.14 8.40 
592.55 -706.39 7.80 
599.51 -716.12 9.38 
599.44 -705.59 8.85 
592.62 -706.46 8.49 
599.90 -712.80 9.92 
600.28 -713.70 10.11 
597.81 -713.56 9.69 
597.83 -714.05 9.77 
592.56 -706.50 5.35 
602.62 -713.36 6.84 
601.83 -713.16 6.75 
601.84 -713.41 6.77 
600.91 -713.65 6.69 
600.65 -713.71 6.67 
597.18 -713.37 6.30 
601.63 -714.01 6.79 
601.85 -714.58 6.85 
601.26 -714.85 6.81 
601.04 -714.95 6.80 
592.59 -706.49 6.02 
601.39 -712.80 7.61 
601.36 -713.39 7.65 
595.86 -726.14 8.16 
595.62 -726.33 8.15 
595.58 -726.37 8.15 
595.42 -726.64 8.15 
593.74 -727.73 8.06 
593.36 -727.68 8.01 
593.05 -727.80 7.99 
592.69 -727.93 7.96 
592.23 -727.68 7.88 
595.72 -728.39 8.34 
591.87 -728.37 7.90 
595.27 -728.74 8.32 
591.63 -728.66 7.90 
592.57 -729.18 8.06 
591.69 -729.68 8.00 
592.65 -706.34 6.69 
596.10 -707.81 7.30 
595.85 -707.88 7.28 
598.18 -708.58 7.66 
597.74 -708.48 7.59 
596.63 -709.04 7.50 
596.26 -708.98 7.45 
596.45 -709.52 7.53 
596.08 -709.88 7.52 
601.41 -712.87 8.54 
597.47 -713.34 8.07 
599.10 -713.60 8.31 
597.87 -714.28 8.22 
597.52 -714.42 8.19 
599.05 -714.79 8.43 
595.61 -714.81 7.99 
595.42 -714.98 7.98 
594.97 -715.19 7.94 
592.69 -706.40 7.38 
601.75 -715.35 8.85 
596.23 -727.78 9.49 
593.20 -728.35 9.18 
594.75 -728.52 9.39 
594.39 -728.60 9.35 
594.14 -728.80 9.34 
593.69 -728.75 9.28 
593.79 -728.86 9.31 
592.76 -729.01 9.20 
592.41 -729.16 9.17 
592.15 -729.29 9.15 
597.69 -708.13 8.34 
597.35 -708.52 8.34 
596.90 -708.34 8.25 
596.44 -711.83 8.61 
596.30 -712.84 8.72 
595.26 -712.67 8.54 
598.12 -713.33 9.04 
592.75 -706.49 8.09 
600.37 -712.70 9.30 
599.42 -713.26 9.23 
599.12 -713.26 9.18 
598.07 -713.68 9.08 
599.70 -716.14 9.63 
596.31 -712.44 9.53 
592.85 -706.39 8.79 
600.21 -711.80 10.08 
599.68 -712.04 10.02 
600.01 -712.29 10.12 
597.09 -713.05 9.74 
596.61 -713.20 9.69 
592.91 -706.44 9.51 
592.97 -706.54 5.54 
592.85 -706.66 5.54 
601.25 -709.84 6.58 
601.59 -710.89 6.69 
602.22 -711.24 6.77 
602.69 -712.43 6.90 
602.24 -713.35 6.93 
602.80 -713.48 6.99 
602.03 -713.55 6.92 
601.19 -713.59 6.84 
597.27 -713.36 6.44 
602.00 -713.92 6.94 
601.00 -713.73 6.83 
601.30 -714.88 6.94 
592.95 -706.45 6.23 
595.66 -708.98 6.76 
601.74 -712.85 7.80 
601.63 -713.07 7.80 
601.67 -713.35 7.83 
598.73 -713.78 7.53 
601.14 -715.75 7.98 
596.09 -726.10 8.33 
595.81 -726.30 8.32 
595.64 -726.69 8.33 
595.45 -727.05 8.34 
593.81 -727.65 8.21 
593.51 -727.66 8.18 
593.28 -727.97 8.19 
592.77 -727.67 8.10 
592.28 -728.20 8.09 
592.26 -728.98 8.16 
591.85 -728.91 8.11 
592.95 -706.44 6.93 
597.62 -707.27 7.63 
596.37 -707.73 7.51 
596.14 -707.83 7.49 
598.59 -708.49 7.89 
598.39 -708.59 7.87 
597.96 -708.52 7.80 
597.49 -708.41 7.73 
596.59 -708.89 7.66 
596.60 -709.09 7.68 
