# .PCD v0.7 - Point Cloud Data file format
VERSION 0.7
FIELDS x y z
SIZE 4 4 4
TYPE F F F
COUNT 1 1 1
WIDTH 2391
HEIGHT 1
VIEWPOINT 0 0 0 1 0 0 0
POINTS 2391
DATA ascii
597.41 -63.63 4.69 
594.54 -58.64 5.10 
595.57 -71.33 2.42 
603.10 -70.77 3.25 
595.58 -71.22 2.69 
602.99 -71.00 3.84 
599.02 -64.98 4.28 
607.41 -77.00 4.01 
596.94 -64.07 5.30 
602.83 -70.57 3.19 
602.96 -70.78 3.17 
594.58 -58.33 3.76 
598.84 -64.92 3.72 
598.24 -63.90 3.91 
595.07 -72.16 2.92 
596.83 -63.93 5.43 
602.65 -69.98 3.33 
595.84 -71.69 2.65 
594.19 -58.45 4.14 
599.01 -64.96 3.83 
595.63 -71.73 3.30 
596.11 -72.67 3.27 
603.36 -71.10 3.87 
607.50 -77.22 3.86 
594.23 -59.03 5.04 
599.12 -66.11 4.98 
595.94 -58.45 5.70 
607.00 -76.47 5.33 
607.41 -78.04 3.09 
593.91 -58.78 4.16 
603.16 -71.30 3.54 
602.48 -70.23 3.76 
607.26 -77.32 3.43 
597.91 -64.14 4.23 
595.00 -59.42 4.52 
595.02 -59.01 4.57 
607.43 -77.13 3.94 
602.41 -71.10 4.38 
598.16 -65.68 4.96 
598.91 -64.83 3.69 
602.42 -70.14 3.49 
593.33 -57.59 4.28 
603.18 -71.28 3.65 
597.99 -64.16 4.61 
607.15 -77.33 3.14 
607.68 -77.84 3.12 
598.76 -64.52 3.78 
602.54 -70.11 3.57 
603.15 -71.18 3.72 
595.47 -58.91 4.39 
598.30 -64.53 4.36 
603.46 -71.66 4.05 
593.10 -57.93 5.06 
597.88 -64.08 4.69 
593.72 -58.14 5.09 
593.54 -57.52 5.55 
593.98 -57.71 5.57 
595.67 -58.62 5.60 
594.87 -57.42 5.71 
601.33 -68.07 3.32 
595.93 -61.52 3.76 
601.00 -67.45 3.66 
598.11 -61.66 3.91 
600.87 -69.01 4.11 
596.26 -61.80 4.53 
595.43 -60.80 4.58 
604.82 -75.31 4.52 
597.94 -61.28 5.15 
595.18 -60.81 3.79 
591.69 -66.86 3.90 
604.40 -73.99 4.20 
604.93 -74.36 4.23 
600.05 -68.28 4.81 
601.79 -68.49 4.05 
596.52 -62.15 4.21 
597.80 -61.71 4.36 
601.79 -68.81 4.35 
604.85 -73.20 4.20 
600.68 -68.88 4.54 
596.17 -61.81 4.65 
591.70 -65.68 4.49 
595.49 -60.69 3.87 
592.70 -66.01 3.26 
604.98 -73.34 3.97 
605.24 -73.55 4.93 
597.34 -73.01 3.16 
601.90 -68.05 4.23 
597.54 -73.59 4.61 
608.27 -79.25 4.95 
597.59 -60.79 4.11 
601.41 -67.35 3.93 
605.57 -75.19 3.96 
592.16 -66.03 4.12 
597.12 -74.07 4.21 
597.60 -74.31 4.21 
591.52 -65.57 4.56 
601.38 -66.63 4.00 
596.13 -73.86 3.09 
604.70 -72.09 3.84 
604.66 -74.34 3.98 
600.53 -67.67 4.27 
601.20 -67.51 4.34 
596.21 -73.95 2.91 
601.06 -67.56 4.01 
596.46 -74.04 3.72 
591.73 -65.18 4.93 
592.09 -65.82 3.41 
598.09 -73.80 3.32 
605.48 -74.67 4.15 
591.95 -65.69 4.02 
605.90 -74.07 4.70 
600.27 -66.75 4.11 
600.81 -67.46 4.10 
608.51 -79.52 4.19 
603.70 -73.48 4.34 
597.97 -73.70 3.45 
598.65 -73.88 3.91 
600.24 -67.29 4.66 
604.17 -73.78 3.97 
600.30 -67.75 4.15 
605.40 -73.86 4.71 
605.93 -73.07 4.37 
610.06 -79.50 4.35 
599.34 -66.79 4.34 
595.85 -59.24 2.69 
595.54 -59.40 3.41 
596.02 -59.47 2.74 
594.58 -58.97 3.33 
595.49 -58.89 3.42 
595.22 -58.35 3.44 
595.27 -58.53 3.51 
595.38 -58.93 3.49 
595.97 -59.47 2.94 
595.52 -60.04 3.49 
595.08 -58.41 3.57 
595.32 -58.90 3.56 
595.49 -58.28 3.62 
595.75 -59.49 2.99 
596.03 -59.39 3.02 
595.01 -58.57 3.58 
595.96 -58.08 3.72 
600.47 -65.03 2.70 
594.46 -58.80 3.56 
595.35 -59.99 3.57 
595.15 -58.89 3.63 
595.46 -58.22 3.71 
595.66 -58.60 3.71 
595.23 -59.93 2.77 
595.51 -60.08 2.78 
599.64 -65.40 2.69 
599.91 -65.23 2.73 
600.16 -64.83 2.79 
596.89 -72.19 2.21 
599.79 -65.19 3.04 
595.15 -60.27 3.58 
595.19 -58.88 3.69 
595.29 -59.23 3.68 
595.06 -58.51 3.71 
595.46 -58.99 3.72 
595.98 -58.42 3.82 
596.54 -72.23 1.88 
596.95 -72.22 1.92 
595.51 -59.45 3.18 
599.75 -65.27 2.75 
599.92 -65.09 2.78 
594.65 -58.76 3.65 
595.02 -58.56 3.71 
595.51 -59.21 3.72 
595.81 -58.27 3.82 
596.67 -72.16 1.95 
595.46 -59.31 3.23 
599.88 -65.31 2.80 
594.17 -58.92 3.60 
594.53 -59.39 3.61 
594.49 -59.59 3.59 
594.50 -58.69 3.66 
595.01 -59.50 3.65 
594.90 -58.50 3.72 
595.15 -58.38 3.75 
595.82 -58.27 3.84 
595.90 -58.57 3.82 
594.82 -59.65 3.99 
598.90 -64.85 3.68 
595.23 -58.44 4.12 
599.83 -64.48 3.81 
595.18 -59.18 3.02 
595.14 -58.90 3.04 
596.85 -72.26 2.07 
594.87 -58.99 3.31 
599.88 -65.48 2.91 
595.37 -59.04 3.36 
599.89 -64.85 2.97 
600.13 -65.32 2.95 
596.47 -72.33 2.35 
594.15 -59.02 3.67 
599.54 -65.20 3.21 
599.66 -65.34 3.21 
604.11 -71.65 3.09 
604.49 -71.22 2.85 
595.12 -57.77 3.88 
595.86 -58.43 3.92 
594.55 -59.51 4.05 
598.84 -64.99 3.75 
594.27 -58.49 4.09 
595.51 -58.41 4.24 
599.78 -64.66 3.89 
595.61 -59.23 2.68 
594.73 -59.40 3.07 
594.88 -59.10 3.11 
595.15 -59.48 3.10 
595.15 -58.88 3.16 
595.25 -58.33 3.22 
596.63 -72.12 2.16 
603.97 -71.64 2.88 
599.63 -64.85 3.06 
599.95 -65.17 3.06 
599.94 -64.70 3.10 
597.09 -72.63 2.48 
591.66 -64.20 3.08 
594.69 -59.62 3.77 
594.51 -58.56 3.83 
594.69 -58.87 3.83 
594.80 -59.41 3.80 
594.60 -58.35 3.86 
595.16 -58.39 3.92 
595.75 -58.24 4.00 
595.82 -58.48 3.99 
598.51 -65.53 3.76 
594.63 -59.43 4.14 
598.83 -64.80 3.85 
599.35 -65.44 3.87 
599.73 -64.46 3.98 
600.36 -65.15 4.00 
594.81 -58.90 3.15 
594.86 -59.35 3.12 
595.10 -58.81 3.19 
595.08 -59.01 3.17 
595.28 -59.33 3.16 
595.28 -58.53 3.23 
595.48 -58.79 3.23 
596.70 -71.97 2.22 
597.20 -72.14 2.25 
603.77 -71.60 2.92 
599.45 -65.09 3.06 
599.75 -65.23 3.08 
599.88 -65.58 3.37 
604.19 -71.16 3.00 
599.91 -64.74 3.14 
596.89 -72.61 2.51 
594.63 -59.57 3.77 
594.29 -58.50 3.81 
594.40 -58.88 3.79 
594.66 -58.27 3.88 
594.60 -58.42 3.86 
594.78 -57.63 3.94 
594.78 -57.89 3.92 
595.70 -58.53 3.98 
595.48 -57.72 4.02 
596.11 -57.81 4.09 
598.55 -65.51 3.78 
594.72 -59.54 4.14 
599.34 -65.46 3.87 
599.64 -64.47 3.98 
600.39 -65.16 4.02 
600.74 -65.08 4.07 
596.71 -72.67 3.47 
594.95 -59.05 4.55 
595.24 -58.42 4.63 
596.12 -58.79 4.73 
596.52 -59.21 4.76 
595.52 -59.07 2.84 
594.84 -59.22 3.19 
594.81 -58.81 3.22 
595.08 -58.89 3.24 
595.35 -59.24 3.24 
595.16 -58.62 3.28 
595.34 -58.70 3.29 
595.53 -58.37 3.33 
595.61 -58.48 3.33 
596.18 -72.32 2.21 
596.32 -72.10 2.24 
596.60 -71.85 2.28 
596.59 -72.06 2.26 
594.20 -58.37 3.85 
599.36 -65.42 3.08 
599.44 -65.70 3.22 
603.76 -71.48 2.99 
599.46 -65.01 3.13 
599.65 -65.55 3.26 
599.89 -65.34 3.45 
604.23 -71.05 3.07 
596.80 -72.63 2.56 
597.13 -72.17 2.63 
594.60 -59.63 3.79 
594.92 -60.00 3.80 
594.48 -59.01 3.83 
594.78 -59.59 4.17 
594.59 -58.76 3.86 
595.74 -59.96 3.90 
594.98 -58.42 3.94 
595.12 -58.06 4.33 
595.41 -58.27 4.00 
595.61 -58.57 4.00 
596.42 -72.76 3.07 
594.85 -60.10 4.14 
598.69 -65.42 3.83 
599.10 -66.20 3.82 
593.89 -58.54 4.44 
598.98 -65.32 3.87 
599.08 -64.76 3.93 
595.12 -58.46 4.62 
595.01 -58.87 4.57 
595.55 -59.07 4.30 
599.60 -64.51 4.01 
600.21 -65.19 4.03 
596.08 -58.70 4.74 
596.54 -59.12 4.78 
596.49 -59.28 4.76 
595.97 -71.40 2.33 
594.61 -58.98 3.27 
598.95 -64.91 3.17 
599.25 -65.58 3.15 
594.78 -58.85 3.30 
594.89 -59.31 3.27 
595.61 -59.66 3.31 
599.39 -65.39 3.18 
595.10 -58.70 3.35 
599.84 -65.38 3.22 
595.60 -58.48 3.42 
595.99 -72.79 2.22 
596.08 -72.01 2.29 
596.72 -72.65 2.62 
596.48 -71.58 2.36 
596.45 -72.15 2.31 
597.16 -71.84 2.41 
591.68 -64.22 3.14 
594.84 -59.63 3.70 
603.63 -71.65 3.05 
594.45 -58.70 3.90 
594.89 -59.19 3.92 
594.93 -58.49 3.98 
604.17 -71.12 3.15 
594.88 -57.70 4.04 
595.29 -58.35 4.04 
604.51 -71.00 3.20 
595.53 -57.67 4.13 
595.59 -57.65 4.13 
598.89 -66.31 3.84 
598.60 -65.32 3.88 
599.04 -65.89 3.89 
599.13 -66.17 3.88 
595.09 -60.34 4.20 
599.00 -65.28 3.93 
599.34 -66.03 3.92 
595.36 -59.61 3.94 
599.07 -64.68 3.99 
594.84 -58.77 4.29 
595.21 -59.22 4.30 
595.73 -58.75 4.06 
595.96 -59.13 4.40 
599.66 -64.64 4.06 
595.96 -72.56 3.06 
596.00 -72.22 3.09 
596.74 -72.29 3.17 
593.89 -58.46 4.47 
594.56 -58.05 4.60 
594.74 -58.61 4.58 
599.78 -65.28 4.39 
600.11 -65.65 4.04 
595.20 -58.60 4.65 
600.59 -65.38 4.12 
596.19 -59.26 4.75 
600.56 -65.08 4.14 
604.86 -71.79 4.15 
596.61 -71.91 1.80 
596.17 -72.10 2.29 
596.47 -71.89 2.33 
597.05 -71.95 2.38 
598.93 -64.97 3.16 
599.30 -65.48 3.15 
594.80 -58.96 3.28 
594.96 -59.43 3.55 
599.19 -65.15 3.17 
595.05 -58.66 3.34 
595.32 -59.05 3.33 
599.38 -64.73 3.22 
595.18 -58.45 3.37 
596.50 -72.70 2.60 
594.66 -59.38 3.84 
603.58 -71.30 3.07 
594.67 -58.81 3.89 
594.80 -59.13 3.88 
595.26 -59.35 3.59 
603.64 -70.97 3.10 
594.75 -58.38 3.93 
594.91 -58.50 3.94 
599.91 -65.48 3.51 
604.31 -71.08 3.15 
594.79 -57.79 3.99 
595.39 -58.32 4.02 
595.08 -57.73 4.03 
595.65 -57.71 4.10 
596.10 -57.69 4.16 
595.93 -72.81 3.01 
596.27 -72.23 3.09 
596.36 -72.00 3.11 
596.83 -71.72 3.18 
598.36 -65.83 3.78 
598.89 -65.83 3.84 
598.84 -66.06 3.82 
594.76 -59.62 4.18 
595.06 -60.00 4.18 
599.00 -65.68 3.86 
594.33 -58.72 4.19 
599.07 -64.71 3.95 
599.49 -65.65 3.92 
604.33 -71.62 3.42 
595.10 -58.06 4.34 
600.40 -65.14 4.07 
595.65 -58.12 4.40 
596.41 -72.40 3.49 
593.88 -58.50 4.41 
594.65 -59.54 4.44 
594.73 -59.81 4.43 
599.41 -66.19 4.24 
594.30 -58.45 4.47 
594.72 -58.80 4.51 
594.51 -57.98 4.54 
594.65 -58.30 4.53 
599.95 -65.39 4.36 
603.69 -70.87 4.03 
604.40 -71.61 4.06 
594.79 -57.80 4.59 
595.02 -57.62 4.64 
595.24 -58.03 4.64 
595.55 -57.60 4.72 
594.95 -59.38 4.89 
596.55 -71.93 1.72 
599.67 -65.48 2.86 
595.30 -59.00 3.14 
596.02 -72.14 2.42 
596.24 -71.49 2.50 
596.37 -71.97 2.47 
596.28 -70.94 2.55 
596.95 -72.05 2.52 
597.01 -71.79 2.55 
598.51 -65.61 3.23 
599.18 -65.63 3.29 
594.74 -58.96 3.44 
594.88 -59.29 3.71 
599.11 -65.09 3.34 
595.16 -58.65 3.51 
595.33 -58.95 3.65 
595.08 -58.37 3.53 
596.67 -72.47 2.78 
597.13 -71.91 2.87 
607.92 -78.39 3.08 
603.39 -71.50 3.21 
594.55 -58.60 4.03 
594.71 -59.12 4.00 
594.99 -59.59 4.00 
603.56 -70.85 3.29 
594.81 -58.44 4.07 
595.52 -59.26 4.09 
603.93 -70.73 3.33 
594.83 -57.83 4.13 
594.93 -58.32 4.10 
595.41 -58.44 4.15 
595.25 -57.77 4.19 
595.44 -57.55 4.23 
596.02 -72.64 3.15 
596.02 -72.04 3.19 
596.08 -72.39 3.17 
593.81 -58.35 4.51 
594.80 -59.87 4.29 
598.56 -65.26 3.98 
599.02 -65.78 4.00 
593.93 -58.24 4.54 
595.00 -59.55 4.34 
599.63 -65.59 4.09 
604.16 -71.98 3.56 
594.43 -57.96 4.64 
594.48 -58.33 4.62 
599.41 -64.74 4.13 
604.24 -71.64 3.60 
594.58 -57.91 4.67 
594.72 -57.98 4.43 
599.46 -64.52 4.15 
594.88 -57.61 4.73 
595.65 -58.01 4.55 
595.85 -72.49 3.54 
596.48 -72.43 3.61 
594.73 -59.68 4.55 
603.23 -71.73 4.07 
594.77 -59.41 4.58 
599.38 -65.32 4.44 
594.86 -58.89 4.63 
595.01 -58.40 4.69 
595.27 -57.95 4.77 
595.45 -57.53 4.83 
595.58 -57.35 4.86 
595.05 -59.26 5.02 
595.29 -58.76 5.08 
599.60 -65.54 2.87 
595.26 -59.05 3.15 
595.73 -72.78 2.34 
595.87 -72.04 2.41 
596.43 -72.81 2.40 
595.81 -71.31 2.47 
596.14 -71.97 2.44 
596.12 -71.41 2.49 
594.52 -59.27 3.38 
599.12 -65.59 3.29 
599.01 -66.02 3.24 
594.66 -58.89 3.43 
594.80 -59.24 3.56 
598.87 -64.82 3.33 
599.21 -65.31 3.32 
599.44 -65.80 3.30 
594.88 -58.62 3.48 
595.27 -59.16 3.47 
595.54 -59.68 3.74 
599.36 -64.83 3.38 
599.50 -65.10 3.37 
595.06 -58.47 3.51 
595.34 -59.00 3.78 
599.73 -64.97 3.40 
599.07 -65.87 3.56 
594.55 -58.83 3.97 
594.67 -59.23 3.96 
594.95 -59.66 3.95 
599.46 -65.56 3.62 
603.33 -70.87 3.26 
594.49 -58.57 3.99 
595.10 -59.36 4.00 
604.05 -71.06 3.31 
594.77 -57.91 4.08 
594.89 -58.42 4.05 
604.12 -71.05 3.32 
604.37 -70.90 3.36 
595.10 -57.76 4.14 
595.39 -57.89 4.17 
595.37 -58.42 4.12 
595.32 -57.70 4.17 
595.59 -57.63 4.21 
596.77 -71.79 3.26 
598.29 -65.78 3.88 
594.69 -59.81 4.47 
598.86 -65.71 3.95 
603.88 -72.25 3.50 
593.85 -58.37 4.46 
594.59 -58.92 4.30 
594.77 -59.52 4.51 
594.82 -59.76 4.38 
595.10 -60.16 4.27 
599.10 -65.28 4.02 
599.36 -65.71 4.01 
594.43 -58.30 4.55 
594.58 -58.57 4.44 
594.86 -59.01 4.56 
595.51 -59.93 4.34 
599.03 -64.74 4.05 
599.37 -64.71 4.09 
604.23 -71.82 3.57 
594.54 -58.00 4.60 
595.13 -58.76 4.38 
594.90 -57.77 4.67 
595.49 -58.56 4.44 
595.41 -57.49 4.77 
595.40 -57.69 4.75 
595.83 -58.26 4.77 
595.84 -72.53 3.50 
596.48 -72.51 3.57 
598.69 -66.25 4.25 
595.12 -60.03 4.90 
594.61 -58.42 4.94 
595.06 -59.24 4.95 
604.37 -71.65 4.18 
599.72 -65.06 4.46 
596.36 -59.63 5.11 
596.68 -72.45 2.00 
594.69 -58.96 3.44 
594.78 -58.74 3.47 
595.28 -59.07 3.19 
599.63 -65.48 2.91 
595.00 -58.48 3.52 
595.39 -72.46 2.34 
596.01 -72.06 2.44 
596.13 -71.53 2.49 
596.32 -71.91 2.48 
596.83 -72.05 2.52 
596.16 -70.99 2.54 
596.88 -71.82 2.54 
598.47 -65.01 3.28 
598.96 -65.80 3.26 
594.76 -59.30 3.70 
594.87 -59.72 3.67 
598.82 -64.96 3.32 
599.10 -65.52 3.30 
594.99 -59.02 3.75 
595.09 -59.27 3.73 
595.26 -59.71 3.71 
599.24 -64.73 3.38 
595.26 -58.78 3.79 
595.98 -58.74 3.87 
597.35 -71.61 2.92 
607.58 -78.42 3.05 
593.77 -58.72 3.87 
594.09 -59.18 3.87 
594.11 -59.37 3.86 
607.74 -78.18 3.09 
594.52 -58.82 3.96 
594.87 -59.44 3.95 
603.96 -72.20 3.52 
594.30 -58.44 3.96 
594.77 -58.72 4.00 
595.30 -59.20 4.02 
599.66 -65.44 3.66 
603.69 -71.29 3.27 
604.19 -71.72 3.59 
594.74 -57.94 4.07 
594.91 -58.40 4.05 
599.70 -65.10 3.69 
595.15 -57.86 4.13 
595.25 -57.75 4.15 
595.17 -71.34 3.08 
596.22 -71.99 3.16 
596.38 -71.33 3.23 
596.49 -71.63 3.22 
598.19 -65.96 3.83 
598.34 -65.81 3.86 
594.08 -59.10 4.40 
598.54 -65.24 3.93 
598.99 -65.79 3.94 
593.85 -58.40 4.42 
594.63 -59.57 4.44 
594.92 -59.94 4.24 
595.28 -60.38 4.25 
598.90 -64.87 4.00 
599.07 -65.21 4.00 
594.47 -58.34 4.52 
594.73 -58.73 4.42 
595.49 -59.90 4.32 
598.96 -64.72 4.02 
599.54 -65.39 4.04 
594.68 -58.06 4.58 
599.44 -64.28 4.12 
599.45 -64.51 4.10 
599.76 -65.05 4.10 
594.75 -57.84 4.61 
595.48 -58.58 4.42 
595.80 -59.10 4.66 
599.39 -64.05 4.13 
595.24 -57.73 4.69 
596.09 -58.11 4.54 
596.07 -73.38 3.45 
595.80 -72.52 3.47 
596.42 -72.76 3.53 
594.86 -60.26 4.80 
599.16 -66.13 4.29 
594.95 -59.93 4.84 
599.27 -65.71 4.34 
594.83 -58.93 4.95 
595.01 -59.25 4.89 
603.44 -70.97 4.09 
594.73 -58.36 4.92 
594.69 -58.53 4.90 
599.68 -64.99 4.44 
595.10 -58.19 4.98 
596.38 -59.62 5.07 
595.97 -72.13 3.83 
595.82 -58.67 5.25 
596.34 -58.86 2.80 
596.59 -72.45 2.09 
594.76 -58.53 3.56 
594.76 -58.68 3.54 
595.25 -59.01 3.28 
599.55 -65.38 3.01 
594.98 -58.42 3.59 
595.26 -58.84 3.44 
595.01 -72.36 2.38 
595.54 -72.33 2.43 
595.32 -71.61 2.47 
596.09 -72.50 2.47 
596.06 -70.96 2.60 
596.33 -71.92 2.55 
596.78 -72.02 2.58 
596.82 -71.84 2.60 
594.08 -58.91 3.94 
598.67 -65.37 3.33 
603.17 -71.53 3.26 
603.18 -71.97 3.22 
593.90 -58.42 3.96 
593.97 -58.71 3.94 
594.74 -59.57 3.73 
598.74 -64.87 3.39 
598.97 -65.29 3.37 
599.19 -65.28 3.40 
595.06 -59.10 3.81 
595.41 -59.53 3.81 
595.35 -59.65 3.79 
599.28 -64.80 3.45 
603.12 -70.32 3.36 
603.91 -70.71 3.40 
596.01 -58.60 3.95 
597.40 -71.29 3.02 
598.17 -65.53 3.90 
594.15 -59.37 3.90 
594.70 -59.80 4.26 
598.46 -65.25 3.96 
598.45 -65.49 3.94 
607.84 -78.12 3.18 
594.55 -59.03 4.14 
594.87 -59.73 4.29 
595.12 -60.17 4.28 
598.51 -64.67 4.01 
598.64 -65.13 3.99 
598.89 -65.03 4.03 
608.23 -77.72 3.25 
608.32 -78.10 3.23 
594.63 -58.44 4.05 
594.68 -58.72 4.03 
595.11 -59.52 4.01 
595.40 -59.83 4.02 
598.89 -64.42 4.08 
598.84 -64.64 4.05 
599.23 -65.01 4.07 
599.53 -65.24 3.73 
604.05 -71.33 3.67 
604.14 -71.70 3.65 
608.81 -77.75 3.31 
594.55 -57.53 4.12 
594.72 -57.92 4.11 
594.75 -58.31 4.08 
595.11 -58.61 4.41 
599.61 -65.04 3.75 
594.77 -57.72 4.13 
595.18 -58.08 4.15 
595.26 -58.31 4.14 
595.64 -58.78 4.46 
599.15 -63.75 4.16 
599.48 -64.24 4.16 
599.80 -63.76 4.25 
595.35 -72.00 3.10 
596.00 -71.91 3.18 
595.78 -71.35 3.19 
596.42 -71.50 3.25 
598.46 -66.18 4.24 
593.73 -58.58 4.41 
594.13 -59.19 4.41 
599.25 -66.13 4.34 
599.38 -66.35 3.99 
594.10 -58.39 4.48 
594.15 -58.92 4.44 
599.39 -65.81 4.20 
594.09 -57.95 4.52 
594.22 -58.19 4.51 
594.38 -58.57 4.50 
594.68 -57.98 4.60 
595.16 -58.92 4.59 
599.65 -64.94 4.13 
594.84 -57.92 4.63 
595.17 -57.82 4.69 
595.44 -72.84 3.45 
596.08 -71.71 3.87 
596.76 -71.45 3.68 
597.80 -65.28 4.50 
594.07 -58.86 4.79 
594.79 -59.78 4.83 
598.58 -65.20 4.62 
598.88 -65.53 4.64 
594.61 -58.70 5.03 
594.81 -58.89 5.05 
594.67 -58.33 4.92 
595.20 -58.72 4.97 
594.97 -58.14 5.06 
596.35 -59.51 5.08 
595.83 -58.57 5.26 
596.07 -58.85 5.28 
593.32 -54.75 2.96 
593.43 -55.09 2.93 
594.76 -58.63 3.60 
595.08 -59.05 3.34 
599.53 -65.44 3.07 
594.90 -58.47 3.63 
595.22 -58.89 3.54 
595.23 -59.08 3.35 
595.33 -72.30 2.45 
595.69 -72.34 2.48 
596.15 -72.48 2.52 
596.17 -71.98 2.56 
596.69 -71.93 2.61 
593.80 -58.94 3.93 
594.22 -59.29 3.95 
594.54 -59.77 3.84 
598.61 -65.40 3.37 
603.01 -71.60 3.28 
593.83 -58.47 3.98 
594.03 -58.72 3.98 
594.21 -59.02 3.97 
598.94 -65.33 3.41 
594.41 -58.49 4.05 
595.10 -59.27 3.85 
595.30 -59.70 3.83 
599.30 -64.87 3.49 
599.29 -65.20 3.46 
603.65 -71.21 3.38 
594.65 -57.96 4.13 
594.62 -58.10 4.11 
595.32 -59.02 3.89 
594.68 -57.78 4.15 
595.06 -58.33 4.15 
595.13 -72.20 3.06 
596.19 -72.86 3.14 
595.29 -71.44 3.13 
595.85 -71.83 3.17 
596.06 -72.27 3.16 
596.53 -72.16 3.22 
596.29 -71.50 3.24 
596.47 -71.83 3.24 
597.17 -71.58 3.01 
598.66 -66.10 3.93 
607.54 -78.33 3.16 
598.43 -65.58 3.94 
607.84 -78.21 3.20 
593.96 -58.71 4.44 
594.77 -59.81 4.29 
594.94 -59.97 4.29 
595.22 -60.32 4.30 
598.28 -64.77 3.99 
598.56 -65.23 3.99 
598.89 -65.58 4.00 
599.30 -65.90 3.69 
608.36 -78.22 3.26 
594.03 -58.28 4.49 
594.55 -59.01 4.33 
595.30 -59.80 4.04 
598.93 -64.63 4.08 
599.30 -64.96 4.10 
599.84 -65.81 4.10 
600.02 -66.50 4.07 
604.04 -71.85 3.66 
608.33 -77.87 3.28 
599.37 -64.42 4.16 
599.39 -64.63 4.14 
599.81 -65.28 3.80 
604.40 -71.63 3.72 
594.85 -57.98 4.45 
595.51 -58.53 4.49 
595.62 -58.87 4.47 
599.80 -63.97 4.25 
595.95 -58.02 4.59 
595.65 -72.87 3.47 
596.13 -73.06 3.51 
596.31 -71.52 3.63 
594.21 -59.35 4.42 
594.35 -59.52 4.42 
598.75 -65.66 4.32 
598.65 -66.09 4.28 
608.20 -78.79 3.50 
593.98 -58.93 4.76 
594.26 -59.16 4.44 
594.51 -59.27 4.47 
598.71 -65.19 4.35 
599.66 -66.46 4.37 
608.46 -78.43 3.56 
594.12 -58.25 4.50 
594.74 -58.76 4.55 
594.32 -58.07 4.55 
594.52 -58.41 4.89 
604.34 -71.68 4.20 
594.64 -57.39 4.66 
595.13 -57.94 4.69 
595.49 -58.13 4.72 
595.36 -72.26 3.71 
596.09 -72.18 3.82 
596.06 -71.87 3.83 
597.97 -65.37 4.50 
593.62 -58.34 4.87 
594.87 -59.86 4.83 
594.92 -60.20 4.81 
598.75 -65.21 4.63 
598.89 -65.46 4.63 
594.62 -58.78 5.01 
594.91 -59.18 4.88 
599.02 -65.15 4.67 
594.28 -57.75 5.05 
594.27 -57.96 5.02 
598.77 -64.30 4.70 
594.85 -58.27 5.10 
599.21 -64.07 4.78 
599.26 -64.25 4.78 
600.11 -65.36 4.82 
595.74 -58.55 5.23 
596.28 -59.37 5.07 
596.37 -58.92 5.22 
594.84 -58.41 3.26 
596.51 -72.41 2.26 
599.45 -65.47 3.17 
594.78 -58.46 3.70 
595.08 -58.71 3.71 
595.17 -58.92 3.58 
595.34 -72.29 2.52 
595.74 -72.38 2.55 
595.42 -71.68 2.58 
596.07 -72.45 2.58 
595.67 -70.80 2.68 
596.16 -71.80 2.64 
596.12 -72.00 2.62 
596.50 -71.84 2.68 
594.43 -59.77 3.99 
598.80 -65.85 3.72 
603.24 -71.87 3.36 
593.95 -58.55 4.04 
594.10 -58.76 4.04 
594.34 -59.00 4.05 
594.45 -59.55 3.92 
594.75 -59.69 3.85 
598.86 -65.32 3.58 
599.12 -65.82 3.76 
594.43 -58.43 4.12 
594.94 -59.36 4.09 
595.31 -59.57 3.92 
598.98 -64.81 3.54 
599.23 -65.27 3.53 
599.22 -65.45 3.80 
594.62 -58.10 4.18 
594.52 -58.41 4.13 
595.24 -58.78 3.98 
599.39 -64.94 3.72 
594.61 -57.78 4.21 
594.68 -57.89 4.21 
594.97 -58.19 4.21 
595.93 -59.46 3.99 
600.18 -65.51 3.89 
595.85 -58.64 4.06 
595.00 -72.38 3.07 
595.31 -71.96 3.14 
595.66 -72.65 3.13 
595.63 -71.55 3.20 
595.99 -72.03 3.21 
595.97 -72.20 3.20 
596.00 -72.01 3.21 
596.40 -72.45 2.93 
596.07 -70.97 3.29 
596.35 -71.83 3.27 
597.44 -72.58 3.02 
598.48 -66.19 3.95 
594.11 -59.50 4.43 
598.37 -65.57 3.99 
598.66 -66.06 3.99 
607.77 -78.36 3.27 
593.89 -58.72 4.46 
594.13 -58.96 4.48 
594.28 -59.32 4.47 
594.66 -59.72 4.33 
595.10 -60.04 4.36 
598.44 -64.62 4.08 
598.59 -65.11 4.06 
598.68 -65.36 4.05 
599.03 -65.65 4.07 
607.97 -78.02 3.32 
593.97 -58.10 4.54 
594.15 -58.24 4.55 
594.22 -58.60 4.53 
594.52 -59.14 4.52 
594.85 -59.64 4.36 
598.94 -64.87 4.12 
599.07 -65.10 4.12 
599.67 -66.28 4.10 
603.94 -71.83 3.74 
608.33 -77.76 3.38 
594.36 -57.66 4.64 
594.62 -58.61 4.59 
598.92 -63.99 4.19 
599.25 -64.43 4.20 
594.46 -57.36 4.69 
594.87 -58.13 4.49 
604.32 -71.10 3.84 
595.39 -57.97 4.57 
596.39 -59.71 4.55 
599.64 -63.85 4.30 
595.67 -72.74 3.52 
596.15 -72.92 3.56 
596.51 -71.63 3.68 
598.05 -65.19 4.56 
598.53 -66.02 4.32 
593.61 -58.36 4.89 
593.86 -58.78 4.78 
594.87 -60.02 4.84 
598.33 -64.56 4.65 
598.67 -65.05 4.41 
599.51 -66.35 4.41 
594.92 -59.20 4.91 
599.62 -65.75 4.47 
608.54 -78.45 3.65 
594.27 -57.84 5.06 
594.66 -58.44 4.93 
603.96 -71.41 4.23 
595.02 -57.99 4.71 
599.75 -64.57 4.58 
603.73 -70.55 4.27 
595.38 -58.34 5.05 
595.96 -58.53 5.12 
595.49 -72.16 3.75 
595.63 -71.87 3.78 
596.18 -71.40 3.88 
608.04 -78.75 4.19 
594.39 -59.34 4.94 
594.50 -59.60 4.94 
598.87 -65.30 4.67 
594.73 -58.96 5.04 
599.70 -66.19 4.73 
604.11 -71.95 4.57 
608.02 -77.77 4.26 
594.65 -58.81 5.04 
598.75 -64.35 4.73 
594.61 -57.68 5.14 
599.17 -64.16 4.81 
599.46 -64.43 4.83 
599.76 -64.88 4.84 
600.11 -65.21 4.86 
600.09 -64.83 4.89 
596.28 -72.58 4.29 
595.13 -59.00 3.02 
594.88 -58.44 3.31 
596.49 -72.49 2.30 
599.39 -65.35 3.23 
599.32 -65.48 3.21 
594.63 -58.44 3.72 
594.80 -58.43 3.74 
595.11 -58.86 3.62 
595.36 -72.24 2.54 
595.49 -71.71 2.60 
595.95 -72.44 2.59 
596.22 -71.90 2.66 
595.65 -70.79 2.69 
596.32 -71.74 3.00 
597.01 -71.55 3.08 
597.47 -72.05 2.77 
594.37 -59.73 3.99 
598.73 -65.87 3.73 
594.03 -58.59 4.06 
594.23 -58.98 4.05 
594.45 -59.49 4.03 
594.50 -59.59 3.85 
598.73 -65.24 3.50 
599.04 -65.84 3.77 
594.11 -58.59 4.07 
594.68 -59.12 4.09 
594.94 -59.40 4.10 
595.13 -59.64 3.91 
598.89 -65.05 3.54 
599.15 -65.21 3.55 
599.29 -65.77 3.80 
594.56 -58.23 4.17 
594.92 -58.59 3.99 
594.79 -58.89 4.13 
599.21 -64.72 3.60 
603.71 -70.95 3.52 
604.19 -71.62 3.51 
594.53 -57.85 4.20 
594.85 -58.22 4.21 
594.89 -58.36 4.20 
595.13 -58.63 4.01 
595.66 -72.65 3.12 
595.27 -71.45 3.15 
595.95 -72.12 3.19 
595.63 -71.50 3.19 
595.75 -71.75 3.19 
595.65 -70.88 3.24 
596.14 -71.05 3.28 
596.68 -72.01 3.28 
597.30 -72.55 3.03 
594.13 -59.50 4.41 
598.56 -65.96 3.98 
607.24 -77.73 3.30 
607.61 -78.24 3.30 
594.21 -59.14 4.46 
594.24 -59.39 4.44 
594.56 -59.70 4.46 
594.84 -59.86 4.49 
598.19 -64.50 4.06 
598.54 -65.08 4.05 
598.81 -65.49 4.05 
607.96 -77.85 3.37 
607.88 -78.10 3.34 
593.83 -58.02 4.51 
593.98 -58.26 4.51 
594.10 -58.57 4.50 
594.41 -58.91 4.52 
594.64 -59.23 4.44 
595.11 -59.85 4.37 
598.37 -64.52 4.08 
598.51 -64.76 4.08 
598.72 -65.00 4.08 
608.31 -77.76 3.41 
594.28 -58.15 4.57 
594.60 -58.48 4.59 
594.72 -58.73 4.42 
595.18 -58.99 4.46 
595.34 -59.65 4.59 
598.92 -64.17 4.18 
594.32 -57.44 4.65 
594.97 -58.05 4.60 
599.00 -64.03 4.20 
595.16 -57.91 4.64 
600.19 -64.57 4.31 
595.62 -72.70 3.50 
595.58 -71.94 3.72 
596.07 -72.85 3.54 
596.17 -71.95 3.71 
596.14 -71.56 3.82 
596.47 -72.00 3.64 
598.67 -66.58 4.29 
598.09 -65.13 4.54 
598.61 -65.91 4.56 
593.60 -58.17 4.88 
593.66 -58.41 4.87 
593.90 -58.71 4.77 
594.40 -59.54 4.89 
594.72 -60.00 4.79 
598.53 -65.02 4.62 
608.16 -78.61 3.63 
594.59 -59.47 4.93 
598.56 -64.51 4.66 
600.06 -66.77 4.44 
594.19 -57.82 5.02 
594.25 -57.99 5.02 
594.67 -58.68 4.98 
594.84 -59.10 4.88 
598.61 -64.33 4.68 
599.36 -64.92 4.50 
603.94 -71.40 4.23 
594.24 -57.68 5.05 
599.33 -64.20 4.80 
599.61 -64.61 4.56 
594.67 -57.55 5.14 
595.89 -59.26 5.03 
595.51 -57.84 5.09 
595.89 -58.52 5.09 
598.09 -65.56 4.89 
599.10 -65.89 5.02 
599.12 -65.50 5.05 
607.89 -77.68 4.25 
595.69 -59.04 5.17 
599.85 -64.99 4.82 
599.91 -65.26 4.81 
608.91 -77.40 4.40 
600.26 -64.67 4.91 
595.31 -57.43 5.27 
594.90 -58.45 3.36 
594.96 -58.61 3.35 
595.42 -72.30 2.55 
595.40 -71.71 2.60 
595.65 -72.30 2.57 
596.09 -71.99 2.64 
595.65 -70.70 2.71 
595.89 -71.02 2.70 
598.87 -65.45 3.51 
598.97 -64.95 3.42 
599.04 -65.24 3.55 
603.56 -71.41 3.01 
594.70 -58.43 3.67 
595.00 -58.72 3.76 
599.25 -64.74 3.62 
595.94 -72.48 2.59 
596.00 -71.78 2.96 
596.47 -71.90 2.69 
594.04 -58.74 4.06 
594.39 -59.33 4.05 
594.42 -59.62 4.02 
598.65 -65.51 3.76 
603.03 -71.46 3.40 
594.13 -58.55 4.05 
594.33 -58.83 4.01 
594.65 -59.11 4.05 
594.81 -59.40 4.09 
598.95 -65.28 3.81 
603.31 -71.37 3.43 
594.60 -58.29 4.18 
595.18 -59.11 4.17 
599.17 -64.45 3.91 
599.48 -65.14 3.88 
603.52 -70.92 3.49 
604.08 -71.52 3.50 
594.51 -57.87 4.22 
594.70 -58.11 4.21 
594.86 -58.38 4.03 
595.16 -58.60 4.22 
599.47 -64.41 3.95 
604.04 -70.72 3.57 
595.26 -72.46 3.05 
595.73 -72.61 3.10 
595.19 -71.46 3.11 
595.50 -71.90 3.12 
595.68 -71.64 3.16 
595.72 -70.71 3.23 
596.09 -71.24 3.24 
596.25 -71.72 3.22 
598.62 -65.93 3.97 
594.31 -59.45 4.44 
594.83 -59.89 4.47 
598.60 -65.12 4.04 
598.80 -65.60 4.02 
607.77 -78.16 3.45 
594.09 -58.53 4.50 
594.34 -58.86 4.45 
594.60 -59.03 4.52 
594.77 -59.74 4.48 
594.86 -59.87 4.48 
598.30 -64.57 4.05 
598.75 -64.67 4.10 
598.70 -64.89 4.07 
598.84 -65.37 4.05 
608.32 -77.95 3.37 
608.21 -78.18 3.34 
594.23 -58.19 4.41 
594.41 -58.35 4.47 
594.61 -58.65 4.57 
595.08 -59.21 4.50 
595.46 -59.54 4.44 
598.95 -64.23 4.17 
599.09 -64.59 4.15 
594.43 -57.38 4.59 
594.74 -58.11 4.56 
598.96 -64.10 4.18 
599.17 -64.47 4.17 
594.78 -57.27 4.57 
594.79 -57.67 4.70 
594.95 -57.99 4.60 
599.50 -63.90 4.27 
595.09 -57.29 4.60 
595.61 -57.59 4.84 
595.32 -72.52 3.60 
595.44 -71.72 3.66 
595.65 -72.24 3.58 
595.88 -72.45 3.68 
595.96 -71.89 3.72 
595.99 -71.57 3.66 
602.70 -72.29 3.97 
598.10 -65.22 4.49 
593.76 -58.86 4.71 
594.49 -59.60 4.87 
598.67 -65.79 4.53 
598.86 -65.92 4.55 
599.42 -66.79 4.57 
593.57 -58.13 4.74 
593.87 -58.30 4.89 
594.49 -59.32 4.82 
598.56 -64.62 4.61 
599.74 -66.34 4.41 
604.32 -72.42 4.16 
594.26 -57.97 4.95 
594.50 -58.44 4.99 
594.54 -58.70 4.97 
594.66 -58.93 4.97 
598.66 -64.55 4.63 
599.27 -64.79 4.48 
594.74 -57.95 4.94 
595.63 -59.19 5.11 
599.23 -64.17 4.64 
594.69 -57.53 5.09 
594.98 -57.73 5.00 
595.81 -58.95 5.17 
595.13 -57.32 5.14 
595.70 -58.24 5.06 
595.72 -71.65 4.23 
595.94 -71.53 4.23 
598.61 -65.03 4.95 
607.70 -77.70 4.17 
594.47 -58.79 5.37 
599.00 -63.93 5.09 
595.47 -58.48 5.46 
595.63 -58.31 5.51 
595.68 -58.49 5.65 
593.91 -68.24 2.09 
594.29 -67.93 2.15 
595.00 -58.86 3.18 
595.82 -59.06 3.00 
596.12 -59.02 3.02 
603.58 -71.34 2.83 
594.65 -58.35 3.41 
594.87 -58.45 3.41 
599.09 -64.73 3.12 
603.70 -71.11 2.86 
595.31 -71.58 2.62 
595.70 -72.19 2.60 
596.12 -71.83 2.68 
595.71 -70.72 2.73 
595.90 -71.16 2.71 
596.23 -71.54 2.71 
596.30 -71.79 2.70 
597.26 -72.02 2.78 
598.85 -64.87 3.59 
599.31 -65.30 3.31 
599.35 -65.48 3.44 
594.64 -58.39 3.80 
594.93 -58.60 3.81 
595.07 -58.83 3.61 
599.09 -64.69 3.64 
596.38 -72.18 2.99 
595.54 -70.68 3.20 
597.08 -71.41 3.12 
598.57 -65.75 3.76 
602.83 -71.63 3.39 
594.09 -59.08 4.05 
594.36 -59.30 4.07 
594.58 -59.65 3.91 
599.09 -65.81 3.81 
603.42 -71.69 3.44 
593.99 -58.33 4.12 
594.11 -58.60 4.11 
594.42 -58.86 4.12 
594.77 -59.50 4.10 
598.99 -64.88 3.88 
599.14 -65.32 3.86 
599.35 -65.76 3.84 
603.45 -71.48 3.46 
594.48 -58.35 4.19 
594.78 -58.40 4.05 
599.34 -65.21 3.89 
599.60 -65.49 3.89 
603.49 -70.67 3.54 
603.60 -71.13 3.51 
604.12 -71.57 3.53 
594.45 -57.79 4.24 
594.69 -58.14 4.20 
594.92 -58.60 4.22 
595.16 -58.82 4.05 
595.20 -71.49 3.10 
595.71 -72.36 3.10 
596.08 -72.89 3.11 
595.45 -71.50 3.13 
595.64 -71.60 3.15 
595.69 -70.96 3.20 
596.03 -71.40 3.21 
596.14 -71.74 3.20 
596.75 -72.16 3.24 
596.83 -71.49 3.30 
598.67 -66.60 4.26 
602.04 -71.76 3.93 
602.43 -71.78 3.97 
598.59 -65.84 4.31 
598.60 -66.38 4.26 
602.37 -71.54 3.99 
593.44 -58.42 4.42 
594.71 -59.83 4.46 
598.65 -65.34 4.03 
598.64 -65.58 4.17 
602.66 -71.05 4.06 
607.89 -77.97 3.35 
607.72 -78.20 3.32 
608.12 -78.54 3.63 
594.08 -58.26 4.54 
594.08 -58.65 4.63 
594.40 -59.02 4.50 
594.69 -59.31 4.47 
594.70 -59.60 4.49 
598.33 -64.07 4.11 
598.35 -64.66 4.06 
598.61 -64.94 4.22 
598.59 -65.02 4.06 
599.07 -65.38 4.40 
602.62 -70.59 4.09 
608.23 -77.94 3.54 
608.39 -78.28 3.68 
594.32 -58.21 4.58 
594.59 -58.64 4.50 
595.51 -60.11 4.40 
598.81 -64.31 4.15 
598.98 -64.57 4.15 
599.04 -64.98 4.12 
599.44 -64.97 4.48 
608.62 -77.94 3.74 
594.41 -57.48 4.68 
594.65 -57.71 4.61 
594.74 -58.06 4.66 
595.20 -58.51 4.52 
598.94 -64.06 4.19 
599.20 -64.18 4.52 
599.57 -64.67 4.53 
594.48 -57.36 4.70 
595.07 -57.90 4.67 
595.23 -58.40 4.53 
596.07 -59.20 4.74 
599.50 -64.05 4.36 
595.14 -57.53 4.79 
595.54 -57.78 4.63 
594.93 -71.76 3.54 
595.10 -71.70 3.57 
595.51 -72.13 3.60 
595.54 -72.33 3.60 
596.14 -72.73 3.51 
595.46 -71.57 3.63 
595.86 -72.03 3.66 
596.14 -72.50 3.52 
596.22 -71.87 3.65 
596.10 -71.10 3.75 
596.37 -71.44 3.77 
597.04 -71.94 3.67 
602.35 -72.22 4.29 
603.22 -72.55 4.01 
593.74 -58.94 4.79 
594.09 -59.49 4.69 
598.57 -65.70 4.51 
599.32 -66.40 4.56 
599.56 -66.65 4.36 
603.22 -71.90 4.06 
593.64 -58.10 4.87 
594.41 -59.30 4.87 
594.72 -59.69 4.77 
598.47 -64.78 4.57 
599.10 -65.53 4.60 
599.53 -66.32 4.60 
603.22 -71.27 4.11 
594.21 -57.81 5.01 
594.26 -58.15 4.98 
594.61 -58.48 5.00 
594.69 -58.69 4.99 
594.93 -58.98 4.87 
598.63 -64.35 4.63 
599.33 -65.45 4.43 
594.79 -58.00 4.94 
595.08 -58.42 5.09 
599.14 -64.29 4.71 
594.65 -57.50 5.12 
594.60 -57.65 5.10 
595.04 -57.91 4.98 
595.50 -58.65 5.14 
595.62 -58.94 5.13 
604.08 -69.98 4.33 
595.07 -57.26 5.23 
595.38 -57.77 5.05 
595.64 -58.17 5.05 
595.81 -72.69 4.06 
595.43 -71.65 4.12 
596.08 -72.37 4.11 
595.95 -71.61 4.21 
596.27 -72.09 4.16 
596.77 -71.80 4.24 
598.17 -65.56 4.82 
607.33 -78.37 4.08 
602.80 -71.59 4.69 
594.17 -58.54 5.31 
598.47 -64.86 4.92 
599.04 -65.55 4.95 
603.02 -70.86 4.78 
594.62 -58.71 5.39 
594.83 -59.07 5.27 
594.72 -58.08 5.48 
595.01 -58.46 5.36 
599.30 -64.29 5.09 
599.37 -64.49 5.08 
600.12 -65.33 5.13 
607.84 -78.48 4.50 
594.49 -58.54 3.06 
594.98 -58.80 3.27 
595.16 -58.89 3.28 
599.85 -64.83 2.92 
596.08 -71.75 2.22 
603.63 -71.29 2.89 
594.58 -58.28 3.48 
594.84 -58.85 3.66 
599.01 -64.72 3.18 
603.65 -71.09 2.91 
594.91 -71.76 2.58 
594.97 -71.45 2.61 
595.85 -72.17 2.64 
595.57 -71.67 2.65 
595.95 -71.86 2.68 
596.36 -72.20 2.44 
596.34 -72.66 2.65 
595.85 -71.19 2.72 
596.95 -72.17 2.75 
596.65 -70.93 2.83 
596.83 -71.26 2.82 
594.53 -59.57 3.95 
594.69 -59.19 4.01 
594.74 -59.71 3.96 
598.81 -64.82 3.63 
599.21 -65.30 3.37 
594.88 -58.82 3.87 
599.04 -64.65 3.67 
599.33 -65.20 3.39 
594.81 -58.36 3.99 
594.95 -58.68 4.09 
595.33 -72.27 2.89 
595.53 -71.97 3.10 
595.79 -71.88 3.13 
596.26 -72.22 2.99 
595.66 -71.00 3.18 
596.08 -71.64 3.19 
596.34 -71.06 3.27 
596.39 -71.25 3.26 
596.77 -71.00 3.32 
596.89 -71.52 3.11 
593.87 -59.02 4.07 
594.29 -59.19 4.11 
598.57 -65.64 3.80 
598.91 -65.61 3.84 
603.25 -71.86 3.43 
607.90 -77.96 3.37 
607.81 -78.41 3.32 
594.27 -58.71 4.24 
594.81 -59.36 4.15 
594.94 -59.51 4.01 
598.85 -65.23 3.98 
599.34 -65.59 3.89 
599.56 -65.85 3.89 
603.35 -71.38 3.49 
608.10 -77.90 3.40 
594.38 -58.28 4.23 
594.47 -58.49 4.21 
594.70 -58.98 4.19 
599.09 -64.84 3.93 
599.41 -65.20 3.93 
603.61 -70.77 3.57 
603.67 -71.07 3.55 
604.08 -71.57 3.55 
594.41 -57.77 4.29 
594.59 -57.96 4.33 
595.10 -58.70 4.10 
595.30 -58.95 4.10 
595.59 -59.22 4.28 
595.48 -58.62 4.15 
594.95 -71.75 3.51 
594.94 -71.13 3.54 
595.47 -72.28 3.44 
596.02 -72.62 3.30 
595.34 -71.15 3.60 
596.18 -72.25 3.53 
596.25 -72.56 3.52 
596.37 -71.99 3.57 
602.95 -72.65 3.96 
598.52 -65.85 4.30 
602.38 -71.56 3.98 
593.46 -58.61 4.43 
594.12 -59.35 4.71 
598.39 -65.00 4.36 
598.65 -65.39 4.36 
598.92 -65.69 4.36 
603.12 -71.46 4.08 
603.56 -71.97 3.75 
593.94 -58.17 4.56 
594.30 -58.69 4.55 
594.32 -58.97 4.52 
594.69 -59.45 4.66 
599.67 -66.51 4.39 
603.17 -71.09 4.12 
608.28 -78.29 3.68 
594.17 -58.37 4.65 
594.47 -58.76 4.57 
595.18 -59.59 4.58 
598.96 -64.77 4.30 
599.40 -65.02 4.18 
599.49 -65.21 4.48 
603.41 -70.58 4.19 
604.26 -71.90 3.83 
594.38 -57.40 4.72 
594.46 -57.55 4.72 
595.67 -59.57 4.66 
596.08 -59.89 4.52 
599.23 -64.14 4.39 
599.40 -64.88 4.50 
594.94 -57.81 4.76 
595.91 -59.04 4.76 
596.53 -59.79 4.59 
595.33 -57.67 4.65 
599.81 -64.09 4.62 
595.75 -72.13 3.60 
596.39 -73.10 3.50 
595.80 -71.96 3.61 
596.03 -71.31 3.69 
596.05 -71.16 3.70 
597.09 -72.19 3.64 
598.02 -65.81 4.40 
606.98 -77.83 4.06 
593.79 -58.81 4.83 
593.85 -59.02 4.82 
598.44 -65.60 4.48 
602.92 -71.52 4.40 
603.75 -72.60 4.07 
593.40 -58.05 5.23 
593.68 -58.22 4.89 
593.92 -58.68 4.87 
594.56 -59.25 4.91 
594.86 -59.72 4.79 
598.44 -64.75 4.90 
602.83 -70.98 4.43 
607.49 -77.06 4.18 
594.29 -58.14 5.00 
594.55 -58.44 5.01 
594.72 -58.88 5.25 
607.88 -76.96 4.24 
608.28 -77.45 4.25 
594.42 -57.71 5.08 
594.93 -58.28 5.10 
599.22 -64.44 4.71 
594.53 -57.63 5.11 
594.98 -58.07 4.97 
595.53 -58.77 5.15 
595.83 -59.23 4.99 
594.91 -57.38 5.21 
595.28 -57.85 5.04 
595.43 -71.67 4.05 
595.94 -72.40 4.05 
595.86 -71.61 4.12 
596.25 -72.09 4.13 
596.65 -71.82 4.18 
607.87 -78.96 4.45 
598.81 -66.23 4.85 
602.78 -71.45 4.67 
608.10 -78.76 4.49 
602.99 -70.71 4.75 
608.24 -78.25 4.55 
594.43 -58.59 5.36 
603.10 -70.56 4.78 
603.88 -71.50 4.83 
594.63 -58.01 5.48 
599.31 -64.42 5.06 
603.99 -71.30 4.86 
604.44 -71.69 4.90 
595.90 -58.88 5.63 
596.25 -59.22 5.49 
594.12 -71.83 1.85 
594.35 -70.19 2.05 
594.45 -58.53 3.12 
603.54 -71.20 2.92 
594.55 -58.24 3.53 
594.86 -58.81 3.32 
598.93 -64.73 3.20 
603.59 -71.03 2.94 
594.76 -58.34 3.53 
595.03 -58.77 3.72 
594.87 -71.74 2.58 
595.47 -71.58 2.66 
595.96 -71.71 2.70 
595.81 -71.94 2.66 
596.22 -72.34 2.67 
595.85 -71.20 2.73 
596.35 -71.10 2.79 
596.77 -71.87 2.76 
594.31 -59.50 3.96 
594.13 -58.85 4.01 
594.59 -59.19 4.02 
595.04 -59.72 4.01 
598.79 -64.77 3.65 
594.46 -58.36 3.87 
594.65 -58.75 4.07 
594.81 -59.04 4.06 
595.09 -59.33 4.06 
599.01 -64.80 3.67 
599.26 -65.16 3.41 
594.66 -58.13 4.06 
594.85 -58.40 4.06 
595.00 -58.65 4.12 
595.01 -58.19 4.17 
595.33 -72.47 3.01 
594.82 -71.29 3.04 
595.43 -71.92 3.06 
595.96 -72.55 3.08 
595.36 -71.00 3.13 
595.44 -71.63 3.09 
595.76 -71.67 3.12 
601.35 -79.44 2.57 
595.57 -70.99 3.15 
596.02 -71.60 3.16 
596.56 -72.44 3.00 
601.92 -79.37 2.64 
596.74 -71.43 3.10 
596.70 -71.14 3.28 
598.56 -65.90 3.97 
593.29 -58.61 4.42 
594.04 -59.03 4.11 
598.68 -65.66 3.82 
603.35 -71.91 3.73 
607.58 -78.04 3.32 
594.08 -58.59 4.17 
594.32 -58.92 4.16 
594.60 -59.28 4.23 
594.84 -59.51 4.28 
598.33 -64.63 4.06 
598.55 -65.07 4.05 
599.04 -65.31 3.89 
599.18 -65.59 3.87 
603.34 -71.32 3.49 
603.80 -71.77 3.50 
594.35 -58.35 4.23 
594.51 -58.61 4.22 
598.68 -64.56 4.12 
599.21 -65.13 3.92 
603.51 -70.90 3.55 
603.80 -71.31 3.54 
603.92 -71.65 3.52 
593.87 -57.12 4.32 
594.40 -57.83 4.30 
594.59 -58.01 4.31 
594.95 -58.69 4.49 
595.46 -59.20 4.27 
595.44 -59.39 4.48 
599.57 -65.09 3.96 
604.02 -70.91 3.60 
594.72 -57.59 4.58 
595.23 -58.23 4.58 
595.74 -58.92 4.34 
599.73 -64.67 4.02 
594.90 -71.84 3.44 
595.27 -72.82 3.43 
595.12 -71.68 3.48 
595.86 -72.60 3.53 
595.19 -71.20 3.52 
595.74 -71.81 3.56 
596.03 -72.39 3.47 
595.94 -71.23 3.63 
596.05 -71.48 3.59 
596.07 -70.71 3.68 
595.92 -71.08 3.64 
596.68 -71.44 3.62 
597.00 -71.71 3.64 
602.39 -72.27 3.90 
602.48 -71.53 3.97 
603.06 -72.53 3.96 
593.45 -58.30 4.83 
593.42 -58.40 4.81 
593.78 -58.93 4.63 
593.89 -59.15 4.62 
598.52 -65.43 4.31 
599.02 -65.92 4.34 
602.95 -71.33 4.05 
603.26 -72.03 4.03 
593.80 -58.18 4.91 
593.95 -58.70 4.74 
594.23 -58.93 4.59 
594.56 -59.24 4.53 
594.65 -59.52 4.75 
598.61 -64.86 4.54 
598.61 -65.16 4.35 
602.69 -70.59 4.08 
603.09 -71.14 4.08 
603.90 -72.49 4.07 
608.28 -78.20 3.68 
593.76 -57.98 4.93 
594.06 -58.19 4.59 
594.30 -58.58 4.57 
594.67 -59.05 4.57 
594.99 -59.39 4.58 
598.83 -64.77 4.41 
602.79 -70.18 4.13 
603.54 -71.10 4.14 
604.32 -72.09 4.15 
608.44 -78.02 3.71 
594.03 -56.99 4.74 
594.61 -58.29 4.73 
595.57 -59.46 4.66 
595.84 -59.91 4.48 
599.12 -64.17 4.50 
599.39 -64.62 4.50 
603.45 -70.58 4.17 
593.97 -56.82 4.75 
594.25 -57.02 4.77 
594.43 -57.41 4.74 
594.57 -57.58 4.74 
594.75 -57.95 4.93 
596.19 -59.68 4.55 
603.76 -70.31 4.24 
595.03 -57.44 4.83 
595.26 -57.76 5.03 
599.67 -63.94 4.59 
599.86 -64.14 4.60 
604.17 -69.91 4.32 
604.89 -70.29 4.38 
595.39 -72.04 3.94 
595.55 -71.71 3.98 
595.95 -71.31 4.07 
596.27 -71.42 4.09 
597.76 -65.07 4.84 
594.24 -59.44 5.19 
598.21 -65.39 4.77 
593.73 -58.44 5.08 
594.30 -59.20 5.24 
598.80 -65.32 4.87 
603.27 -71.75 4.39 
594.10 -58.00 4.99 
594.29 -58.40 5.15 
594.55 -58.72 5.09 
598.83 -64.84 4.91 
608.37 -77.54 4.22 
593.56 -56.79 5.44 
593.59 -56.93 5.42 
593.74 -57.15 5.23 
593.92 -57.63 5.38 
595.68 -59.22 4.94 
599.09 -63.76 4.73 
599.37 -64.39 5.03 
599.50 -64.61 5.03 
595.58 -71.47 4.45 
595.78 -72.14 4.00 
595.92 -72.48 3.98 
596.18 -71.90 4.08 
596.48 -72.18 4.07 
596.31 -71.08 4.14 
596.39 -71.70 4.09 
602.61 -71.40 4.59 
608.26 -78.90 4.46 
594.02 -57.82 5.38 
594.56 -58.58 5.37 
603.15 -70.56 4.74 
603.47 -71.24 4.73 
603.52 -71.48 4.72 
608.71 -78.03 4.58 
593.81 -57.04 5.45 
594.10 -57.62 5.42 
604.06 -71.20 4.82 
598.91 -63.73 5.17 
599.00 -63.87 5.18 
603.92 -70.08 4.89 
595.93 -58.69 5.63 
600.37 -65.00 5.13 
595.58 -71.77 4.44 
595.73 -71.25 4.48 
595.01 -71.76 2.01 
594.20 -57.66 3.29 
596.01 -71.64 2.33 
594.12 -57.69 3.64 
594.86 -58.81 3.43 
598.97 -64.71 3.29 
603.55 -71.09 3.02 
594.34 -57.74 3.65 
595.03 -58.71 3.63 
595.12 -58.89 3.43 
595.46 -59.15 3.81 
594.96 -71.68 2.63 
595.00 -71.17 2.68 
595.29 -71.44 2.69 
595.81 -72.14 2.68 
595.82 -71.17 2.77 
596.37 -71.05 2.84 
596.73 -71.91 2.80 
596.57 -70.98 2.86 
594.53 -59.69 4.02 
594.12 -58.83 4.07 
594.65 -59.37 4.07 
594.82 -59.69 4.05 
608.24 -78.32 2.92 
594.48 -58.75 4.12 
594.71 -58.85 4.13 
594.93 -59.10 4.13 
595.14 -59.49 4.11 
598.89 -64.63 3.74 
599.14 -65.06 3.61 
599.26 -65.39 3.47 
594.38 -57.81 4.01 
594.58 -58.02 4.14 
594.82 -58.49 3.98 
595.31 -58.94 4.19 
595.25 -59.27 4.15 
595.08 -58.23 4.24 
595.17 -58.39 4.23 
595.03 -72.13 2.96 
594.84 -71.29 3.05 
595.53 -72.11 3.07 
595.57 -71.53 3.12 
595.90 -72.06 3.00 
595.97 -72.46 3.10 
601.45 -79.48 2.62 
595.63 -71.15 3.16 
595.97 -71.66 3.16 
596.22 -72.13 3.03 
601.77 -79.58 2.64 
596.50 -71.51 3.24 
596.10 -70.59 3.26 
596.65 -71.23 3.28 
597.23 -71.76 3.16 
592.93 -57.89 4.52 
593.09 -57.99 4.53 
593.45 -58.37 4.36 
593.84 -58.97 4.33 
598.65 -65.44 4.07 
598.61 -65.83 4.02 
598.89 -66.06 3.85 
603.27 -71.89 3.63 
603.53 -72.28 3.77 
607.48 -78.10 3.36 
593.52 -57.79 4.27 
593.65 -58.13 4.42 
593.97 -58.28 4.26 
593.99 -58.91 4.19 
594.30 -59.11 4.20 
594.53 -59.47 4.40 
594.89 -59.79 4.42 
597.96 -64.14 4.11 
598.39 -64.73 4.11 
598.52 -64.92 4.06 
598.85 -65.26 4.11 
599.26 -65.61 3.94 
603.30 -71.27 3.55 
603.63 -71.74 3.68 
608.32 -78.05 3.45 
593.90 -57.93 4.30 
594.17 -58.47 4.27 
594.40 -58.59 4.33 
594.73 -58.95 4.28 
594.81 -59.31 4.32 
595.44 -59.97 4.47 
598.36 -63.75 4.20 
598.45 -64.08 4.18 
598.90 -64.67 4.18 
599.31 -65.48 3.95 
603.50 -70.89 3.61 
603.97 -71.42 3.75 
593.93 -57.10 4.41 
593.98 -57.37 4.38 
594.48 -58.18 4.34 
595.53 -59.21 4.35 
599.22 -64.58 4.03 
603.76 -70.71 3.65 
594.94 -57.69 4.65 
596.31 -59.63 4.62 
595.73 -57.72 4.75 
594.79 -72.06 3.39 
595.32 -72.70 3.42 
595.07 -71.72 3.45 
595.65 -72.28 3.44 
595.05 -71.20 3.48 
595.33 -71.21 3.52 
595.75 -71.89 3.54 
601.17 -79.62 3.20 
596.10 -71.57 3.55 
596.21 -72.18 3.52 
596.51 -72.59 3.52 
595.91 -70.67 3.65 
596.35 -71.43 3.62 
597.26 -72.02 3.75 
602.36 -72.29 3.92 
597.85 -65.28 4.41 
598.12 -65.94 4.38 
598.98 -66.63 4.30 
602.50 -71.46 4.01 
602.95 -72.13 4.01 
603.06 -72.46 3.99 
593.63 -58.67 4.87 
593.88 -59.05 4.86 
598.07 -64.95 4.47 
598.81 -65.66 4.36 
602.98 -71.69 4.05 
603.16 -72.03 4.04 
593.24 -57.67 4.95 
593.44 -58.11 4.91 
593.53 -58.25 4.91 
594.03 -58.52 4.78 
594.13 -58.86 4.74 
594.53 -59.21 4.58 
594.64 -59.38 4.69 
594.85 -59.58 4.80 
598.39 -64.83 4.38 
598.64 -65.04 4.39 
598.63 -65.29 4.45 
599.19 -65.85 4.56 
602.62 -70.61 4.10 
602.82 -71.01 4.09 
602.97 -71.24 4.09 
603.21 -71.50 4.10 
603.45 -71.98 4.08 
593.59 -57.37 5.05 
593.76 -57.74 4.84 
593.82 -57.93 4.65 
594.14 -58.35 4.82 
594.49 -58.70 4.71 
594.71 -58.96 4.64 
594.98 -59.40 4.63 
595.09 -59.48 4.63 
598.33 -64.31 4.58 
599.06 -65.08 4.53 
602.67 -70.14 4.15 
603.59 -71.09 4.18 
593.94 -56.96 4.80 
594.47 -58.21 4.90 
599.18 -64.20 4.54 
599.48 -65.16 4.49 
603.41 -70.53 4.21 
603.55 -70.72 4.21 
593.95 -56.82 4.82 
594.32 -57.01 4.85 
594.75 -57.92 4.91 
595.00 -58.21 4.79 
595.35 -58.51 4.80 
595.69 -59.16 4.87 
598.99 -63.71 4.74 
599.17 -63.93 4.66 
603.85 -70.28 4.29 
594.45 -56.70 4.92 
594.68 -56.96 4.91 
599.63 -64.00 4.62 
604.00 -69.96 4.34 
604.89 -70.31 4.42 
595.17 -72.25 3.84 
595.32 -72.13 3.87 
595.27 -71.28 3.91 
595.56 -71.71 3.94 
595.65 -71.93 3.94 
596.43 -72.79 4.01 
595.94 -71.37 4.02 
596.30 -71.19 4.09 
596.28 -71.46 4.06 
602.48 -71.93 4.30 
607.57 -78.79 4.05 
593.79 -58.86 5.22 
597.94 -64.86 4.89 
599.37 -66.67 4.85 
602.67 -71.40 4.61 
592.97 -57.36 5.29 
593.00 -57.57 5.27 
593.90 -58.59 5.28 
594.13 -59.07 5.25 
594.26 -59.34 5.24 
602.75 -70.97 4.42 
593.67 -57.72 5.37 
593.99 -57.90 5.41 
594.62 -58.67 5.04 
603.06 -70.54 4.73 
607.88 -76.97 4.23 
593.57 -56.92 5.48 
593.74 -57.13 5.39 
593.84 -57.51 5.44 
594.29 -57.75 5.11 
599.26 -64.41 5.02 
608.37 -77.44 4.25 
599.47 -64.63 5.03 
595.81 -58.71 5.44 
596.27 -59.20 5.47 
595.15 -71.38 4.29 
595.78 -71.47 4.41 
607.58 -78.70 4.42 
599.13 -65.60 5.03 
607.81 -78.06 4.49 
603.50 -71.50 4.72 
604.09 -71.44 4.82 
604.23 -71.21 4.86 
595.34 -58.22 5.62 
595.34 -72.91 2.02 
594.16 -57.56 3.38 
600.04 -65.63 2.93 
595.94 -71.61 2.41 
603.34 -71.21 3.10 
594.73 -58.76 3.87 
594.80 -58.75 3.53 
598.97 -64.76 3.38 
603.48 -71.02 3.13 
594.05 -57.61 3.73 
594.30 -57.72 3.74 
594.91 -58.57 3.90 
595.01 -58.94 3.87 
595.34 -59.11 3.88 
594.98 -71.16 2.74 
595.28 -71.41 2.75 
595.71 -71.94 2.75 
595.56 -70.93 2.82 
595.76 -71.14 2.83 
595.82 -70.92 2.85 
596.82 -71.82 2.88 
596.49 -70.82 2.93 
596.40 -70.91 2.92 
594.36 -58.85 4.16 
594.49 -59.21 4.14 
594.72 -59.59 4.12 
594.94 -59.76 4.13 
608.13 -78.10 3.06 
594.23 -58.49 4.19 
594.62 -58.63 4.21 
594.70 -59.17 4.16 
595.05 -59.44 4.17 
598.83 -64.57 3.81 
598.97 -64.83 3.80 
599.19 -65.21 3.58 
603.73 -71.67 3.32 
594.44 -57.83 4.14 
594.61 -58.00 4.28 
594.82 -58.48 4.25 
594.93 -58.10 4.31 
595.19 -58.32 4.31 
594.96 -72.04 3.03 
594.80 -71.24 3.08 
595.45 -72.19 3.08 
595.46 -71.80 3.12 
595.94 -72.37 3.07 
595.55 -71.11 3.18 
595.92 -71.55 3.16 
596.18 -72.01 3.09 
595.78 -70.52 3.26 
596.54 -71.41 3.29 
596.54 -71.30 3.30 
592.87 -57.82 4.59 
593.29 -58.26 4.59 
593.30 -58.46 4.56 
598.52 -65.79 4.07 
603.05 -71.73 3.56 
603.44 -72.17 3.85 
607.27 -77.53 3.49 
607.60 -77.95 3.48 
593.38 -57.73 4.33 
593.70 -58.04 4.34 
593.82 -58.34 4.48 
594.11 -58.86 4.63 
594.49 -59.34 4.46 
597.89 -64.21 4.15 
598.23 -64.49 4.17 
598.48 -64.92 4.16 
598.59 -65.17 4.14 
598.94 -65.36 4.17 
599.06 -65.61 3.99 
603.24 -71.18 3.64 
603.44 -71.55 3.77 
603.54 -71.84 3.89 
593.57 -57.58 4.55 
593.72 -57.82 4.54 
594.18 -58.52 4.48 
594.33 -58.69 4.33 
595.00 -59.42 4.52 
595.29 -59.73 4.53 
595.43 -59.92 4.52 
598.43 -64.01 4.25 
598.66 -64.50 4.22 
598.83 -65.01 4.19 
603.51 -70.89 3.69 
603.84 -71.26 3.70 
593.89 -57.04 4.49 
593.97 -57.66 4.42 
594.20 -57.88 4.42 
594.83 -58.74 4.58 
595.05 -58.87 4.59 
595.11 -59.23 4.56 
598.56 -63.69 4.30 
599.24 -64.30 4.13 
600.00 -65.68 4.28 
603.56 -70.59 3.73 
594.09 -57.10 4.51 
594.62 -57.72 4.67 
594.91 -57.87 4.69 
595.18 -58.60 4.45 
596.15 -59.49 4.67 
595.60 -57.76 4.79 
594.81 -72.02 3.39 
595.01 -72.26 3.41 
595.23 -72.53 3.40 
595.07 -71.75 3.45 
595.39 -71.98 3.46 
595.40 -72.36 3.46 
595.24 -71.26 3.51 
595.47 -71.37 3.54 
595.71 -71.79 3.54 
595.85 -72.17 3.52 
596.18 -71.74 3.57 
595.72 -70.63 3.63 
595.92 -71.22 3.61 
596.11 -71.43 3.63 
596.55 -71.35 3.70 
602.30 -72.23 3.97 
597.76 -65.15 4.44 
598.12 -65.75 4.44 
598.08 -65.86 4.42 
602.42 -71.41 4.06 
602.87 -72.06 4.06 
602.99 -72.37 4.05 
593.51 -58.61 4.91 
593.60 -58.68 4.92 
597.90 -64.89 4.49 
598.08 -65.02 4.51 
598.28 -65.41 4.50 
598.85 -65.94 4.53 
599.04 -66.19 4.54 
602.94 -71.43 4.13 
603.13 -71.89 4.11 
593.09 -57.72 4.98 
593.53 -58.11 4.99 
593.59 -58.32 4.97 
594.13 -58.95 4.79 
594.46 -59.42 4.79 
598.41 -64.72 4.59 
598.67 -65.30 4.57 
598.88 -65.64 4.42 
602.67 -70.53 4.17 
602.88 -70.99 4.16 
603.00 -71.26 4.15 
608.22 -78.03 3.84 
593.54 -57.60 5.08 
593.70 -57.73 5.08 
594.04 -58.11 4.73 
594.26 -58.35 4.72 
594.54 -58.79 4.71 
594.80 -58.95 5.09 
594.77 -59.48 4.83 
598.38 -64.05 4.66 
598.60 -64.68 4.62 
599.38 -65.85 4.63 
602.60 -70.10 4.20 
602.70 -70.38 4.19 
603.36 -71.03 4.22 
603.67 -71.63 4.21 
593.51 -57.14 5.14 
593.87 -57.30 5.18 
593.98 -57.70 4.95 
594.60 -58.07 4.81 
594.95 -58.61 4.79 
595.18 -58.87 4.79 
599.05 -64.25 4.66 
599.32 -64.57 4.58 
599.85 -65.72 4.71 
603.34 -70.52 4.26 
593.86 -56.83 4.89 
594.18 -56.90 4.92 
594.49 -57.78 4.84 
595.24 -58.27 4.88 
595.21 -58.74 4.81 
595.67 -59.05 5.03 
598.94 -63.68 4.79 
599.10 -63.86 4.70 
603.73 -70.21 4.34 
599.56 -63.87 4.68 
604.33 -70.64 4.38 
595.29 -57.51 5.15 
604.79 -70.20 4.48 
594.97 -72.22 3.83 
595.48 -73.13 3.85 
594.70 -71.54 3.78 
595.34 -72.06 3.86 
595.35 -72.27 3.85 
595.26 -71.47 3.88 
595.52 -71.76 3.90 
595.71 -72.06 3.92 
595.58 -71.44 3.95 
596.11 -71.85 4.00 
596.38 -72.16 4.04 
595.97 -70.80 4.04 
596.24 -71.38 4.05 
596.37 -71.79 4.06 
596.42 -71.22 4.09 
602.50 -71.89 4.36 
603.08 -72.91 4.35 
598.19 -65.36 4.79 
598.36 -65.68 4.90 
602.13 -70.59 4.62 
602.55 -71.36 4.62 
603.76 -73.03 4.43 
607.30 -77.88 4.15 
607.90 -78.41 4.19 
592.91 -57.52 5.33 
593.77 -58.47 5.33 
593.78 -58.74 5.29 
594.48 -59.76 5.10 
598.06 -64.23 5.00 
598.74 -65.35 5.00 
603.37 -72.03 4.46 
593.87 -57.79 5.46 
593.98 -58.53 5.36 
594.59 -58.83 5.23 
594.77 -59.52 5.18 
598.57 -64.66 4.92 
599.08 -65.48 5.05 
602.98 -70.52 4.76 
602.99 -70.67 4.75 
603.45 -71.47 4.75 
607.91 -77.52 4.26 
593.50 -56.79 5.57 
593.51 -57.01 5.53 
594.00 -57.38 5.56 
594.07 -57.91 5.48 
594.74 -58.82 5.26 
603.24 -69.94 4.85 
603.21 -70.07 4.84 
603.75 -70.89 4.60 
603.84 -71.42 4.82 
607.87 -76.82 4.31 
593.64 -56.73 5.60 
594.51 -57.66 5.23 
594.78 -58.02 5.22 
598.82 -63.73 5.19 
598.81 -63.84 5.18 
599.30 -64.30 5.06 
599.64 -64.61 5.25 
600.03 -65.29 5.09 
608.79 -77.47 4.38 
595.84 -58.56 5.49 
596.29 -59.06 5.51 
603.78 -69.90 4.94 
596.25 -58.91 5.52 
594.97 -71.85 4.18 
595.23 -71.55 4.25 
595.70 -71.47 4.34 
596.09 -71.83 4.44 
596.32 -72.52 4.48 
602.90 -71.74 5.02 
608.04 -78.04 4.59 
604.14 -71.71 5.21 
594.95 -57.74 5.68 
596.23 -72.00 2.31 
594.16 -57.54 3.51 
594.80 -58.61 3.34 
595.89 -71.52 2.52 
594.57 -58.92 3.96 
594.99 -59.20 3.96 
603.44 -71.01 3.26 
593.98 -57.53 3.85 
594.19 -57.64 3.86 
594.82 -58.35 4.04 
594.90 -58.52 3.86 
595.11 -58.99 4.00 
595.43 -59.23 4.00 
595.15 -58.37 4.07 
595.56 -59.12 4.02 
594.72 -71.54 2.74 
594.95 -71.25 2.80 
595.20 -71.53 2.80 
596.19 -72.42 2.83 
595.59 -70.91 2.90 
595.82 -71.55 2.87 
595.58 -70.57 2.93 
595.71 -70.80 2.93 
596.43 -70.76 3.01 
596.87 -71.74 2.97 
596.53 -70.57 3.04 
594.48 -59.85 4.17 
594.06 -58.94 4.22 
594.32 -59.14 4.23 
594.37 -59.55 4.19 
603.08 -71.15 3.73 
603.14 -71.47 3.70 
603.49 -71.75 3.57 
608.06 -78.13 3.19 
593.97 -57.67 4.19 
594.56 -58.93 4.28 
594.62 -59.23 4.25 
595.08 -59.43 4.28 
598.82 -64.35 3.95 
598.70 -64.59 3.91 
598.98 -64.86 3.91 
603.26 -70.49 3.82 
603.43 -70.84 3.80 
603.72 -71.50 3.47 
594.03 -57.52 4.21 
594.37 -57.69 4.32 
594.44 -57.87 4.30 
595.23 -59.21 4.33 
603.54 -70.39 3.86 
603.57 -70.72 3.83 
603.95 -71.13 3.83 
595.04 -58.01 4.44 
603.66 -70.19 3.89 
594.76 -71.16 3.12 
595.10 -71.58 3.48 
595.02 -71.89 3.44 
594.92 -71.03 3.49 
595.07 -71.24 3.50 
595.54 -71.72 3.18 
595.51 -71.76 3.11 
595.82 -72.30 3.16 
595.91 -72.49 3.16 
595.51 -71.04 3.23 
595.68 -71.28 3.23 
596.21 -71.64 3.27 
595.52 -70.46 3.46 
602.17 -79.48 3.17 
595.98 -70.44 3.35 
596.56 -70.98 3.38 
596.52 -71.23 3.35 
607.06 -77.86 3.54 
607.24 -78.18 3.53 
607.52 -78.56 3.53 
592.78 -57.92 4.68 
593.23 -58.43 4.67 
598.46 -65.68 4.16 
598.77 -66.00 4.01 
603.25 -71.91 3.96 
607.10 -77.66 3.56 
607.16 -77.72 3.57 
607.59 -78.34 3.56 
592.89 -57.63 4.74 
593.44 -57.80 4.63 
593.62 -58.18 4.60 
593.86 -58.46 4.59 
594.11 -58.67 4.58 
594.34 -59.01 4.57 
594.42 -59.42 4.53 
594.84 -59.80 4.55 
594.88 -59.99 4.53 
597.87 -64.23 4.24 
598.16 -64.55 4.24 
598.51 -64.94 4.25 
598.76 -65.30 4.24 
598.94 -65.59 4.07 
593.42 -57.42 4.85 
