# .PCD v0.7 - Point Cloud Data file format
VERSION 0.7
FIELDS x y z
SIZE 4 4 4
TYPE F F F
COUNT 1 1 1
WIDTH 2274
HEIGHT 1
VIEWPOINT 0 0 0 1 0 0 0
POINTS 2274
DATA ascii
607.88 -161.71 -0.14 
608.07 -162.19 -0.15 
608.12 -162.41 -0.16 
609.33 -162.43 -0.06 
609.38 -162.54 -0.06 
613.68 -157.32 0.89 
614.08 -158.02 0.88 
614.60 -159.00 0.88 
614.64 -159.06 0.88 
614.70 -157.43 0.95 
614.96 -158.32 0.93 
614.54 -156.84 0.97 
614.92 -157.28 0.97 
615.18 -157.86 0.96 
615.23 -158.06 0.96 
615.22 -156.95 1.00 
615.15 -157.28 0.99 
615.37 -157.42 0.99 
615.42 -156.28 1.05 
615.63 -156.91 1.03 
615.98 -157.58 1.03 
616.49 -158.37 1.03 
615.45 -155.96 1.06 
615.90 -156.26 1.08 
616.36 -157.64 1.05 
616.39 -157.85 1.05 
615.96 -156.12 1.09 
607.38 -161.14 0.32 
613.57 -157.29 1.18 
614.51 -156.87 1.50 
614.79 -157.06 1.51 
615.05 -157.36 1.51 
614.47 -155.47 1.41 
614.58 -155.73 1.40 
614.67 -156.10 1.27 
614.78 -156.39 1.26 
615.00 -156.84 1.26 
615.14 -157.39 1.51 
615.26 -156.34 1.28 
615.41 -156.70 1.28 
615.91 -157.27 1.29 
616.08 -157.91 1.28 
616.18 -157.93 1.29 
615.41 -155.81 1.55 
615.60 -156.27 1.30 
615.88 -156.49 1.31 
615.98 -156.96 1.42 
616.12 -157.37 1.30 
616.04 -156.32 1.32 
613.03 -156.44 1.77 
613.36 -156.51 1.77 
614.43 -157.95 1.48 
614.16 -156.80 1.77 
614.33 -157.28 1.49 
615.22 -159.19 1.79 
614.17 -156.12 1.78 
614.31 -156.35 1.78 
614.51 -156.66 1.77 
615.54 -158.48 1.65 
615.76 -158.80 1.52 
615.79 -159.01 1.52 
614.65 -156.39 1.78 
614.83 -156.73 1.78 
615.47 -157.67 1.78 
615.85 -158.81 1.52 
616.16 -159.04 1.54 
616.16 -157.97 1.80 
615.87 -156.83 1.95 
615.97 -157.30 1.79 
616.33 -156.70 2.02 
608.71 -161.18 1.28 
614.03 -157.49 2.06 
614.48 -156.31 2.04 
615.01 -156.92 2.21 
615.39 -157.89 2.32 
615.55 -157.09 2.04 
615.86 -157.79 2.05 
616.17 -158.52 2.07 
616.22 -157.85 2.05 
614.63 -157.67 2.33 
614.46 -158.02 2.34 
614.85 -158.94 2.37 
615.03 -159.18 2.38 
614.48 -157.27 2.32 
614.67 -157.54 2.32 
615.45 -158.21 2.33 
607.91 -161.56 2.17 
614.98 -156.33 0.76 
615.13 -157.07 0.60 
614.95 -156.04 0.78 
615.00 -156.15 0.77 
607.03 -161.08 -0.18 
607.27 -161.26 -0.17 
607.83 -162.33 -0.19 
607.65 -161.29 -0.14 
607.89 -162.12 -0.18 
608.06 -162.34 -0.17 
608.34 -162.30 -0.15 
608.43 -161.46 -0.09 
609.24 -162.28 -0.07 
614.51 -158.85 0.86 
613.95 -157.46 0.89 
614.23 -156.66 0.95 
614.93 -158.23 0.92 
614.83 -157.10 0.96 
615.10 -157.73 0.95 
614.83 -156.11 1.02 
614.95 -156.78 0.99 
615.07 -157.10 0.98 
615.37 -157.42 0.98 
615.21 -156.04 1.04 
615.86 -157.43 1.01 
616.19 -158.04 1.01 
616.35 -158.26 1.01 
616.47 -158.43 1.01 
615.41 -155.76 1.07 
615.59 -156.09 1.06 
615.78 -156.28 1.18 
615.83 -156.78 1.04 
616.19 -157.41 1.04 
616.38 -157.63 1.04 
616.35 -158.06 1.02 
615.93 -156.16 1.31 
615.96 -155.43 1.12 
612.75 -157.19 1.14 
612.87 -157.21 1.15 
613.49 -156.98 1.18 
614.08 -156.36 1.50 
614.31 -156.75 1.22 
614.33 -156.66 1.49 
614.68 -156.91 1.49 
615.05 -157.64 1.22 
615.23 -157.85 1.22 
615.38 -158.28 1.48 
614.35 -155.33 1.41 
614.49 -155.60 1.41 
614.59 -156.02 1.26 
614.70 -156.38 1.38 
614.99 -156.52 1.26 
615.18 -156.98 1.50 
615.56 -157.82 1.36 
615.63 -158.22 1.23 
616.15 -158.99 1.49 
616.20 -159.07 1.49 
614.46 -155.28 1.55 
615.36 -156.34 1.28 
615.40 -156.91 1.26 
615.78 -157.83 1.24 
616.15 -157.90 1.26 
615.78 -156.52 1.29 
615.87 -156.79 1.40 
608.48 -161.56 0.80 
612.94 -156.27 1.78 
613.16 -156.24 1.78 
614.17 -157.15 1.48 
614.08 -155.99 1.78 
614.25 -156.19 1.77 
614.35 -156.41 1.77 
615.47 -158.74 1.47 
615.69 -159.30 1.47 
614.60 -156.45 1.76 
615.56 -157.21 1.75 
615.30 -156.14 2.01 
615.53 -156.59 2.00 
615.63 -156.78 1.76 
615.93 -157.18 1.75 
616.49 -157.87 1.75 
614.10 -155.84 2.05 
614.57 -156.67 2.28 
614.76 -157.10 2.28 
614.87 -157.66 2.01 
614.77 -156.86 2.28 
614.99 -157.22 2.27 
615.35 -157.87 2.27 
615.60 -158.27 2.27 
615.52 -157.47 2.00 
615.70 -157.49 2.00 
615.94 -158.24 2.00 
616.01 -158.47 2.01 
616.37 -158.76 2.01 
615.29 -155.52 2.26 
615.49 -155.89 2.24 
606.89 -160.74 1.23 
607.46 -160.60 1.24 
614.76 -158.64 2.30 
615.02 -159.01 2.30 
614.48 -157.35 2.29 
615.95 -158.18 0.22 
615.93 -155.44 0.36 
616.20 -155.73 0.38 
616.44 -156.10 0.38 
616.46 -156.07 0.38 
615.64 -157.46 0.75 
615.71 -157.65 0.75 
615.87 -158.24 0.60 
608.27 -162.79 -0.16 
609.81 -163.11 -0.06 
610.03 -163.44 -0.06 
609.64 -161.97 0.00 
610.32 -162.16 0.04 
614.56 -158.27 0.90 
615.74 -158.81 0.94 
615.73 -157.69 1.00 
615.88 -158.08 0.99 
616.19 -157.75 1.02 
616.31 -157.82 1.03 
616.45 -158.56 1.00 
616.04 -156.83 1.07 
616.40 -157.32 1.06 
616.38 -157.86 1.03 
609.80 -164.14 0.33 
614.41 -157.43 1.22 
615.13 -157.88 1.49 
615.26 -158.01 1.49 
616.18 -159.75 1.46 
616.42 -160.12 1.46 
615.32 -156.91 1.54 
615.34 -157.26 1.26 
615.49 -157.54 1.38 
615.59 -157.90 1.37 
615.71 -158.16 1.49 
615.99 -158.79 1.22 
616.15 -158.91 1.22 
616.19 -159.29 1.47 
615.33 -156.67 1.46 
615.99 -156.94 1.54 
616.50 -157.86 1.39 
608.80 -163.46 0.76 
609.00 -164.11 0.75 
609.42 -163.97 0.77 
609.52 -163.29 0.80 
609.74 -163.38 0.80 
609.79 -163.48 0.80 
610.03 -163.79 0.80 
614.31 -156.82 1.81 
614.43 -157.11 1.79 
614.78 -157.93 1.58 
614.84 -158.53 1.46 
615.95 -160.09 1.72 
615.93 -160.29 1.72 
614.57 -157.14 1.79 
614.88 -157.43 1.69 
614.94 -157.86 1.49 
615.04 -158.08 1.75 
615.63 -158.61 1.74 
615.36 -157.23 1.78 
616.05 -157.74 2.00 
615.88 -156.79 2.03 
609.36 -163.14 1.24 
609.40 -163.27 1.23 
609.61 -164.08 1.22 
615.58 -158.72 2.00 
615.07 -157.25 2.05 
615.49 -157.76 2.28 
615.74 -158.37 2.00 
615.88 -158.60 2.25 
616.00 -158.96 2.25 
615.76 -157.74 2.01 
616.25 -158.54 1.99 
616.49 -159.03 2.23 
609.36 -164.08 1.22 
609.55 -164.17 1.22 
614.87 -157.83 2.31 
615.06 -158.18 2.30 
607.24 -159.42 -0.69 
607.31 -159.55 -0.69 
607.39 -159.67 -0.69 
607.98 -159.64 -0.61 
615.29 -156.56 0.25 
615.52 -156.64 0.28 
615.77 -156.72 0.30 
616.04 -156.94 0.32 
608.37 -161.05 -0.43 
608.39 -161.16 -0.43 
614.80 -156.28 0.85 
615.03 -156.69 0.57 
614.95 -156.87 0.82 
615.47 -157.56 0.63 
614.88 -155.98 0.88 
614.90 -155.99 0.88 
616.25 -157.94 0.85 
616.07 -156.60 0.92 
608.08 -162.15 -0.08 
607.78 -160.68 0.00 
607.88 -161.64 -0.06 
607.90 -160.20 0.04 
608.03 -160.73 0.01 
608.76 -162.15 -0.09 
609.15 -162.60 -0.02 
608.12 -160.30 0.05 
608.40 -160.49 0.06 
608.71 -161.16 0.04 
609.04 -161.60 0.04 
609.14 -162.16 0.01 
609.00 -160.67 0.09 
609.04 -161.09 0.07 
609.79 -160.99 0.13 
613.41 -156.73 0.71 
613.44 -156.82 0.70 
613.77 -157.36 0.69 
613.92 -157.39 0.70 
614.68 -157.60 1.03 
614.96 -158.57 0.98 
614.41 -156.62 1.08 
614.21 -155.20 1.17 
614.38 -155.63 1.15 
614.91 -156.75 1.09 
615.18 -157.06 1.08 
615.06 -157.45 1.06 
614.21 -154.95 1.19 
614.69 -155.69 1.16 
615.12 -156.19 1.15 
615.25 -156.79 1.10 
616.27 -158.08 1.08 
615.15 -155.66 1.18 
615.30 -156.05 1.16 
615.53 -156.30 1.16 
616.12 -156.96 1.15 
616.05 -157.47 1.11 
616.19 -157.78 1.10 
616.27 -158.02 1.09 
615.98 -155.64 1.23 
607.86 -162.84 0.33 
607.97 -162.22 0.37 
607.57 -160.88 0.43 
608.09 -161.43 0.42 
608.21 -161.90 0.40 
608.28 -162.40 0.38 
608.15 -161.14 0.44 
608.37 -161.45 0.44 
608.71 -162.13 0.42 
608.96 -162.47 0.42 
608.46 -160.77 0.48 
609.18 -162.47 0.43 
609.27 -162.55 0.43 
609.86 -161.24 0.54 
614.33 -155.53 1.43 
614.94 -156.92 1.63 
615.32 -157.90 1.57 
615.56 -158.15 1.56 
615.76 -158.42 1.55 
615.70 -158.76 1.54 
614.30 -154.82 1.49 
614.84 -155.75 1.43 
614.94 -156.30 1.53 
614.98 -156.42 1.66 
607.34 -160.20 0.92 
608.45 -162.48 0.84 
608.50 -162.61 0.84 
608.16 -161.15 0.89 
608.38 -161.20 0.90 
608.54 -161.72 0.88 
608.70 -162.08 0.87 
608.50 -160.77 0.93 
608.62 -161.37 0.90 
608.74 -161.66 0.89 
609.05 -162.07 0.88 
608.52 -160.20 0.96 
608.84 -160.40 0.96 
608.75 -160.67 0.94 
608.70 -160.04 0.97 
608.81 -160.13 0.97 
609.11 -160.58 0.96 
609.31 -160.36 0.97 
614.22 -158.21 1.84 
614.40 -157.60 1.58 
613.91 -155.46 1.72 
613.97 -155.59 1.71 
613.82 -156.13 1.96 
614.46 -156.79 1.91 
615.10 -158.53 1.81 
614.25 -155.71 1.84 
614.45 -155.98 1.68 
614.56 -156.38 1.66 
614.73 -156.75 1.82 
615.02 -157.39 1.87 
615.86 -159.08 1.94 
615.17 -156.58 1.91 
616.19 -158.29 2.06 
615.47 -156.46 1.91 
616.37 -158.23 1.96 
615.20 -155.33 2.00 
616.24 -156.53 2.14 
606.61 -161.03 0.85 
607.63 -162.79 0.80 
606.97 -160.48 0.89 
608.07 -163.09 0.80 
608.31 -161.61 1.32 
608.40 -161.93 1.31 
608.74 -162.64 1.29 
608.50 -161.25 1.34 
608.77 -161.78 1.32 
608.91 -161.92 1.32 
614.56 -157.42 2.15 
614.10 -155.77 2.27 
614.60 -156.07 2.23 
614.63 -156.17 2.22 
608.09 -161.88 1.31 
608.32 -162.52 1.29 
608.56 -162.59 1.29 
608.50 -161.21 1.78 
608.87 -162.02 1.75 
608.20 -160.20 1.82 
608.71 -160.97 1.79 
608.96 -160.92 1.79 
614.59 -158.35 2.40 
614.72 -158.57 2.38 
614.07 -156.58 2.51 
614.74 -157.19 2.43 
615.80 -158.90 2.54 
614.47 -155.25 2.57 
607.67 -162.20 1.75 
607.49 -160.68 1.81 
607.69 -161.45 1.78 
607.39 -160.28 1.83 
607.54 -160.36 1.82 
607.60 -160.79 1.80 
608.46 -161.78 1.76 
608.62 -162.12 1.75 
608.86 -162.45 1.74 
608.16 -160.76 1.80 
608.22 -160.88 1.79 
608.37 -161.39 1.77 
607.24 -161.62 2.25 
608.29 -161.57 2.22 
616.39 -174.87 2.56 
616.50 -174.95 3.08 
607.94 -160.32 -0.63 
608.27 -160.39 -0.60 
613.26 -155.42 0.08 
614.97 -156.50 0.33 
615.02 -156.55 0.33 
615.49 -157.56 0.22 
615.49 -157.85 0.19 
615.76 -158.19 0.20 
615.04 -156.28 0.27 
615.34 -156.52 0.29 
615.55 -156.90 0.28 
615.59 -157.24 0.26 
616.39 -158.71 0.24 
608.27 -160.93 -0.38 
608.28 -160.95 -0.38 
615.02 -156.66 0.57 
615.23 -157.39 0.85 
615.39 -156.33 0.94 
616.12 -157.17 0.93 
616.08 -157.62 0.89 
616.14 -157.76 0.89 
615.59 -155.58 1.01 
615.81 -155.38 1.04 
607.86 -160.56 0.06 
608.42 -161.25 -0.16 
608.41 -161.77 0.02 
608.60 -161.99 0.02 
608.81 -162.24 0.02 
609.03 -162.41 0.03 
607.79 -159.96 0.10 
608.10 -160.25 0.10 
608.40 -160.65 0.10 
608.38 -161.01 0.07 
608.72 -161.34 0.07 
608.69 -160.59 0.12 
608.86 -160.93 0.11 
613.36 -156.83 0.98 
613.59 -157.03 0.87 
613.72 -157.42 0.97 
614.27 -157.21 1.08 
614.62 -157.99 1.05 
614.74 -158.27 1.03 
614.47 -157.21 1.09 
614.63 -157.27 1.10 
614.97 -157.85 1.07 
614.93 -158.06 1.06 
615.17 -158.29 1.06 
614.71 -156.13 1.02 
614.79 -156.40 0.89 
614.94 -156.75 1.01 
614.19 -154.92 1.25 
614.27 -155.15 1.24 
614.46 -155.46 1.22 
614.90 -155.88 1.07 
615.13 -156.34 1.19 
615.19 -157.00 1.15 
615.79 -157.31 1.16 
615.19 -155.94 1.23 
615.53 -156.10 1.23 
616.04 -156.94 1.20 
615.65 -155.57 1.24 
615.68 -155.90 1.25 
615.84 -156.41 1.20 
615.79 -155.44 1.30 
615.90 -155.61 1.29 
606.88 -161.47 0.18 
607.86 -162.00 0.23 
607.96 -162.21 0.42 
608.13 -162.56 0.41 
607.23 -160.38 0.49 
608.10 -161.77 0.46 
608.06 -162.04 0.34 
608.35 -162.65 0.42 
608.05 -160.96 0.50 
608.22 -161.25 0.45 
608.24 -161.56 0.48 
608.65 -162.04 0.47 
608.75 -162.10 0.47 
608.30 -160.43 0.55 
608.31 -160.97 0.52 
608.92 -162.19 0.48 
608.23 -159.91 0.58 
608.97 -160.13 0.60 
608.96 -160.42 0.59 
609.85 -161.86 0.55 
609.19 -159.59 0.65 
613.99 -158.61 1.25 
614.30 -157.67 1.35 
613.87 -155.58 1.49 
613.93 -155.82 1.47 
614.33 -157.01 1.36 
614.62 -157.38 1.38 
614.93 -157.52 1.38 
614.25 -155.79 1.49 
615.72 -158.17 1.62 
614.26 -154.90 1.53 
614.44 -155.23 1.50 
615.66 -157.70 1.65 
614.79 -155.18 1.55 
614.94 -155.36 1.54 
615.37 -156.37 1.74 
607.81 -161.37 0.93 
608.32 -162.46 0.84 
607.62 -160.59 0.97 
608.13 -160.95 0.96 
608.21 -161.15 0.95 
608.37 -161.67 0.93 
608.48 -161.96 0.92 
608.82 -162.36 0.76 
608.96 -162.58 0.76 
608.35 -160.76 0.98 
608.46 -161.01 0.97 
608.65 -161.50 0.95 
608.87 -161.80 0.90 
608.31 -159.88 1.03 
608.46 -160.20 1.01 
608.63 -160.43 1.01 
608.72 -159.96 1.04 
613.81 -156.28 1.74 
614.24 -155.50 1.80 
614.57 -156.32 2.03 
614.84 -156.63 2.00 
615.27 -158.07 1.63 
614.35 -155.04 1.77 
614.38 -155.12 1.77 
615.24 -156.87 1.98 
615.83 -158.21 1.96 
614.88 -155.71 1.79 
615.22 -156.16 1.89 
615.07 -155.25 2.11 
615.49 -155.52 2.08 
606.80 -160.19 0.96 
607.61 -161.75 0.90 
607.98 -162.95 0.85 
607.15 -160.56 0.95 
608.18 -162.36 1.22 
608.46 -162.72 1.22 
608.46 -161.65 1.38 
608.41 -160.82 1.42 
608.42 -161.11 1.41 
608.64 -161.64 1.27 
608.68 -161.80 1.38 
608.38 -160.58 1.43 
614.13 -158.53 1.89 
614.14 -157.47 2.26 
614.18 -156.47 2.02 
614.28 -156.71 2.30 
614.48 -156.93 2.28 
614.49 -156.28 2.33 
614.31 -156.51 2.32 
614.81 -156.83 2.27 
615.39 -156.96 2.24 
616.06 -158.17 2.25 
616.09 -158.17 2.25 
616.18 -158.21 2.14 
615.17 -155.04 2.36 
606.54 -160.26 1.43 
607.00 -159.75 1.47 
606.97 -159.95 1.46 
607.77 -160.56 1.43 
608.22 -161.43 1.39 
608.24 -161.50 1.39 
608.38 -162.21 1.54 
608.53 -162.37 1.54 
608.53 -162.66 1.71 
616.44 -174.47 1.49 
613.45 -157.43 2.29 
613.64 -156.26 2.67 
613.67 -156.25 2.67 
614.04 -156.65 2.62 
614.49 -156.78 2.58 
614.55 -156.85 2.57 
615.01 -157.32 2.51 
614.67 -156.09 2.62 
614.51 -155.24 2.70 
614.96 -155.59 2.64 
615.02 -155.81 2.62 
615.19 -155.50 2.90 
607.22 -161.27 1.86 
607.62 -161.91 1.83 
607.30 -160.48 1.90 
607.74 -161.99 1.82 
607.40 -160.12 1.91 
607.67 -160.62 1.88 
608.35 -161.90 1.82 
608.22 -160.70 1.87 
608.45 -161.47 1.84 
608.79 -162.38 1.80 
616.35 -174.56 1.97 
607.14 -161.45 2.33 
608.51 -161.67 2.28 
608.92 -162.27 2.21 
607.86 -159.88 2.37 
616.23 -174.78 2.97 
615.53 -157.66 0.20 
615.52 -158.00 0.17 
615.41 -157.29 0.22 
615.47 -157.45 0.21 
608.18 -160.84 -0.41 
615.20 -157.29 0.64 
614.85 -156.40 0.60 
615.40 -157.35 0.51 
615.47 -157.40 0.51 
615.96 -157.00 0.94 
615.95 -157.33 0.91 
606.76 -160.03 0.00 
607.88 -160.46 0.06 
608.31 -161.45 0.02 
608.47 -161.77 -0.03 
608.66 -162.14 0.00 
607.99 -160.18 0.08 
608.44 -160.65 0.09 
608.54 -161.15 0.06 
608.10 -159.89 0.11 
608.57 -160.46 0.11 
608.76 -160.70 0.11 
613.18 -156.47 0.76 
613.56 -156.88 0.76 
614.41 -156.79 1.14 
614.91 -157.77 0.95 
615.10 -158.16 1.08 
615.47 -158.60 1.03 
614.69 -156.30 1.04 
614.73 -156.61 1.05 
614.96 -156.91 1.07 
615.08 -157.34 0.99 
615.24 -157.73 1.09 
615.46 -158.50 1.03 
614.16 -154.96 1.27 
614.64 -155.81 0.93 
614.83 -156.12 1.07 
614.85 -156.46 1.02 
615.02 -156.85 1.10 
615.48 -157.25 1.16 
614.45 -154.79 1.31 
615.27 -156.04 1.25 
615.69 -157.03 1.17 
616.06 -157.41 1.18 
616.33 -157.95 1.14 
616.40 -158.44 1.11 
615.35 -155.44 1.16 
615.53 -155.70 1.29 
615.71 -155.98 1.28 
615.95 -156.44 1.25 
616.01 -157.01 1.17 
615.63 -155.22 1.05 
615.94 -155.69 1.25 
616.35 -156.41 1.28 
606.95 -160.79 0.45 
606.95 -160.06 0.49 
607.07 -160.34 0.48 
608.04 -162.03 0.43 
608.23 -162.50 0.41 
607.93 -160.77 0.50 
607.95 -161.24 0.47 
608.06 -161.45 0.47 
608.40 -161.72 0.47 
608.47 -162.21 0.44 
608.25 -160.42 0.54 
608.13 -160.88 0.51 
608.75 -161.59 0.50 
608.71 -162.01 0.47 
608.16 -159.61 0.59 
608.18 -160.07 0.56 
608.46 -160.47 0.55 
609.75 -161.74 0.54 
609.69 -160.87 0.59 
609.89 -160.71 0.62 
613.19 -156.30 1.45 
613.87 -157.69 1.36 
614.25 -157.52 1.39 
613.82 -155.69 1.52 
614.21 -156.86 1.44 
614.51 -157.32 1.41 
615.49 -158.99 1.31 
614.07 -155.83 1.52 
614.89 -157.07 1.44 
614.34 -155.09 1.59 
615.28 -157.18 1.44 
614.72 -155.46 1.57 
614.70 -155.55 1.56 
615.84 -156.14 1.55 
615.84 -156.65 1.46 
616.09 -156.84 1.46 
608.43 -163.12 0.68 
608.47 -161.78 0.93 
608.46 -162.15 0.91 
608.74 -162.65 0.72 
609.25 -163.20 0.73 
608.32 -161.03 0.96 
608.60 -161.36 0.95 
608.64 -161.62 0.94 
608.90 -161.82 0.94 
608.36 -160.04 1.03 
608.65 -160.38 1.01 
608.50 -160.83 0.98 
608.74 -161.20 0.97 
609.62 -162.20 0.80 
609.44 -162.46 0.77 
608.47 -160.01 1.03 
608.57 -160.15 1.03 
609.80 -161.90 0.82 
613.23 -154.84 1.91 
613.80 -155.81 1.83 
614.84 -157.71 1.69 
613.36 -154.77 1.92 
615.02 -157.44 1.71 
614.32 -155.14 1.90 
614.74 -155.84 1.84 
615.11 -157.21 2.01 
615.08 -156.35 2.09 
615.65 -156.88 1.76 
615.68 -157.40 1.70 
615.13 -155.23 2.19 
615.40 -156.05 2.11 
615.54 -156.20 1.81 
615.85 -155.66 1.86 
616.05 -155.54 1.88 
607.63 -163.02 1.15 
606.54 -160.04 0.97 
608.40 -163.45 1.17 
608.19 -162.41 1.04 
608.33 -162.85 1.18 
607.18 -159.77 1.01 
607.71 -160.55 0.97 
607.95 -160.79 0.97 
608.79 -162.94 1.20 
608.68 -161.64 1.39 
608.77 -162.14 1.23 
608.88 -162.33 1.23 
609.31 -162.81 1.23 
608.82 -161.14 1.27 
608.80 -160.00 1.48 
614.07 -155.41 2.19 
614.04 -155.50 2.18 
614.57 -156.77 2.36 
614.48 -156.01 2.43 
614.70 -156.25 2.40 
614.86 -156.57 2.25 
614.91 -156.91 2.34 
615.14 -157.15 2.31 
615.34 -157.49 2.27 
616.22 -158.67 2.23 
614.44 -155.12 2.52 
614.56 -155.50 2.48 
614.86 -155.65 2.45 
616.07 -156.00 2.64 
606.56 -160.13 1.45 
607.08 -159.71 1.48 
607.62 -160.30 1.45 
608.25 -161.87 1.37 
608.43 -162.22 1.36 
608.65 -162.68 1.69 
608.74 -162.88 1.68 
608.93 -163.18 1.68 
608.06 -160.71 1.43 
608.37 -161.01 1.42 
608.43 -161.53 1.39 
608.56 -161.64 1.39 
609.05 -162.32 1.71 
608.36 -160.61 1.44 
613.88 -156.17 2.44 
614.50 -156.97 2.65 
614.54 -157.10 2.64 
614.09 -155.33 2.51 
614.12 -155.44 2.50 
614.31 -154.96 2.54 
615.28 -156.58 2.64 
615.06 -155.53 2.75 
606.49 -161.08 1.89 
607.15 -161.23 1.88 
607.05 -160.81 1.90 
607.41 -161.21 1.87 
607.32 -161.35 1.87 
607.61 -161.72 1.85 
607.21 -160.24 1.93 
608.23 -161.73 1.84 
607.70 -160.43 1.91 
608.30 -161.32 1.86 
608.62 -162.15 1.81 
608.03 -159.86 1.94 
608.14 -159.98 1.93 
608.23 -160.51 1.90 
616.35 -174.37 1.88 
607.40 -160.63 2.38 
607.85 -160.17 2.39 
608.34 -161.19 2.32 
608.68 -162.37 2.18 
609.11 -162.92 2.17 
616.15 -174.57 2.36 
608.68 -161.34 2.67 
615.07 -158.20 0.09 
615.26 -157.44 0.18 
615.27 -157.92 0.14 
608.16 -160.72 -0.39 
615.13 -157.22 0.65 
614.87 -156.36 0.73 
614.73 -155.52 0.68 
607.65 -161.49 -0.01 
607.26 -160.10 0.05 
608.38 -161.66 0.03 
608.51 -162.00 -0.04 
607.54 -159.77 0.10 
607.98 -160.11 0.11 
607.96 -160.31 0.09 
608.36 -160.71 0.10 
608.64 -161.10 0.09 
608.58 -161.74 -0.20 
608.90 -162.16 0.04 
608.42 -160.29 0.13 
608.60 -160.56 0.13 
608.58 -160.98 0.10 
613.17 -157.63 0.71 
614.32 -157.65 1.12 
614.52 -157.65 0.81 
614.87 -157.66 0.99 
615.03 -158.36 1.03 
614.70 -156.56 0.91 
614.86 -156.88 0.98 
614.93 -157.29 1.05 
615.04 -157.54 1.10 
615.09 -157.99 1.14 
614.63 -155.67 0.98 
614.67 -156.12 1.11 
614.79 -156.38 1.09 
615.01 -156.70 1.08 
615.18 -157.26 1.15 
614.83 -155.21 1.36 
614.60 -155.44 1.32 
615.12 -155.97 1.30 
615.25 -156.07 1.13 
615.39 -156.74 1.25 
615.62 -156.97 1.25 
615.86 -157.13 1.25 
616.09 -158.08 1.13 
616.28 -158.28 1.13 
615.13 -155.31 1.21 
615.34 -155.53 1.15 
615.49 -156.01 1.02 
615.57 -156.34 1.30 
615.81 -156.82 1.19 
616.14 -156.97 0.99 
616.38 -157.79 1.17 
615.53 -155.12 1.10 
615.87 -155.53 1.29 
615.89 -155.78 1.27 
615.62 -154.71 1.14 
615.83 -155.04 1.13 
616.50 -155.98 1.38 
607.97 -161.93 0.46 
608.11 -162.37 0.44 
608.14 -162.53 0.20 
607.85 -160.65 0.54 
607.87 -161.07 0.51 
608.01 -161.38 0.50 
608.23 -161.65 0.49 
608.24 -162.14 0.46 
608.16 -160.34 0.58 
608.10 -160.74 0.54 
608.66 -161.61 0.52 
608.74 -161.95 0.50 
608.10 -159.88 0.61 
608.46 -160.36 0.59 
608.16 -159.35 0.65 
608.75 -160.09 0.63 
616.48 -174.15 0.45 
609.86 -160.59 0.65 
613.99 -157.82 1.09 
613.89 -158.06 1.06 
613.94 -157.54 1.44 
614.22 -157.72 1.44 
614.24 -157.86 1.42 
614.22 -157.15 1.48 
615.04 -158.75 1.32 
613.83 -155.36 1.63 
614.39 -156.13 1.58 
614.26 -155.21 1.66 
614.43 -155.65 1.62 
614.51 -156.01 1.59 
614.73 -156.43 1.51 
614.46 -154.89 1.36 
614.51 -155.04 1.35 
614.73 -155.65 1.50 
614.83 -155.83 1.49 
615.79 -157.10 1.46 
616.09 -157.92 1.43 
606.88 -160.72 0.48 
608.35 -163.13 0.68 
609.09 -163.08 0.73 
608.69 -161.63 0.98 
608.73 -161.86 0.87 
608.99 -162.21 0.77 
609.23 -163.19 0.73 
608.59 -161.09 1.01 
608.81 -161.34 0.90 
608.88 -161.65 0.79 
609.42 -162.42 0.78 
608.46 -159.66 1.10 
608.56 -160.04 1.08 
608.80 -160.51 1.05 
609.80 -161.91 0.83 
616.44 -174.16 0.90 
609.02 -160.28 1.08 
613.58 -155.80 1.93 
614.85 -158.29 1.72 
614.93 -157.42 1.79 
615.06 -157.74 1.77 
614.18 -155.50 1.96 
614.46 -156.02 1.78 
614.78 -156.51 1.87 
614.87 -155.95 1.93 
615.38 -156.53 1.88 
614.98 -154.98 2.03 
615.21 -155.59 2.05 
615.50 -155.83 1.94 
615.93 -155.69 2.26 
616.06 -155.88 2.24 
606.47 -159.90 1.02 
607.66 -162.14 0.91 
607.85 -162.69 0.89 
608.11 -162.33 0.92 
608.25 -162.82 1.19 
608.43 -163.15 1.18 
608.69 -163.60 1.17 
607.84 -161.08 0.99 
608.30 -162.18 0.93 
608.73 -162.86 1.21 
607.42 -159.54 1.08 
607.54 -159.99 1.05 
607.66 -160.34 1.03 
608.16 -160.86 1.01 
608.44 -161.64 1.06 
608.66 -162.04 1.24 
608.89 -162.26 1.24 
607.93 -159.66 1.09 
608.28 -159.92 1.08 
608.83 -160.91 1.30 
609.31 -161.07 1.31 
614.03 -158.07 2.06 
613.52 -156.52 2.20 
614.74 -158.03 2.05 
614.36 -156.81 2.16 
614.58 -156.93 2.15 
614.74 -156.45 2.19 
615.56 -157.19 2.11 
615.40 -156.24 2.21 
616.07 -157.17 2.32 
606.48 -159.93 1.52 
606.89 -159.61 1.55 
607.10 -160.04 1.52 
608.05 -161.39 1.44 
608.30 -161.77 1.42 
608.36 -162.09 1.56 
608.57 -162.54 1.70 
608.69 -162.78 1.69 
608.77 -163.09 1.68 
607.60 -160.15 1.52 
608.23 -161.00 1.47 
608.24 -161.14 1.46 
608.56 -161.63 1.51 
608.67 -162.20 1.71 
608.85 -162.43 1.71 
608.28 -160.23 1.52 
608.25 -160.66 1.49 
608.79 -161.27 1.46 
608.98 -161.76 1.74 
616.44 -174.15 1.35 
614.33 -158.90 2.26 
613.38 -156.94 2.51 
614.21 -157.74 2.41 
614.45 -157.93 2.38 
614.08 -156.30 2.55 
614.41 -156.64 2.50 
614.54 -156.91 2.47 
614.70 -157.59 2.40 
614.56 -155.84 2.58 
614.58 -156.66 2.82 
614.40 -154.93 2.69 
614.38 -155.43 2.63 
614.97 -155.37 2.62 
606.77 -160.51 1.98 
606.87 -160.70 1.97 
607.22 -161.07 1.94 
607.38 -161.18 1.93 
607.42 -161.64 1.91 
608.57 -163.02 1.68 
607.71 -160.17 1.99 
608.32 -161.21 1.92 
608.59 -162.01 1.87 
607.99 -159.74 2.02 
608.71 -160.48 1.96 
616.43 -174.23 1.80 
616.25 -174.46 2.71 
616.43 -174.91 2.75 
616.39 -174.54 2.72 
615.99 -162.12 -0.11 
616.12 -162.10 -0.09 
616.38 -161.74 -0.01 
614.77 -156.11 0.33 
608.04 -160.46 -0.36 
614.98 -157.08 0.66 
614.75 -156.10 0.77 
614.76 -156.26 0.86 
615.00 -156.99 0.67 
614.58 -155.22 0.72 
616.16 -156.75 0.97 
607.63 -161.44 0.02 
608.12 -162.01 0.01 
607.17 -159.85 0.10 
607.68 -160.94 0.06 
608.08 -161.15 0.07 
608.43 -161.74 0.06 
608.13 -160.71 0.11 
608.31 -160.91 0.11 
608.51 -161.64 0.07 
608.72 -162.08 0.06 
607.95 -159.63 0.18 
608.14 -159.97 0.17 
608.49 -160.55 0.15 
608.68 -160.00 0.21 
609.16 -160.12 0.24 
609.18 -160.25 0.23 
613.13 -157.47 0.76 
613.76 -158.09 0.76 
613.57 -156.56 0.87 
614.15 -155.62 1.00 
614.19 -155.73 0.99 
614.55 -156.77 1.13 
614.71 -157.21 0.91 
614.90 -157.65 1.09 
614.49 -155.68 1.02 
614.87 -156.43 0.99 
615.00 -156.76 1.10 
614.71 -155.23 1.08 
614.64 -155.43 1.05 
615.27 -156.36 1.22 
615.21 -156.56 1.33 
615.70 -156.92 1.01 
615.96 -157.32 1.10 
615.92 -157.69 1.17 
616.17 -157.93 1.18 
615.20 -155.15 1.12 
615.35 -156.08 1.25 
615.78 -156.37 1.11 
615.83 -156.87 1.03 
616.05 -157.30 1.21 
616.16 -157.42 1.11 
615.41 -154.91 1.16 
615.33 -155.10 1.14 
615.85 -155.98 1.34 
616.07 -156.26 1.40 
616.38 -156.48 1.40 
615.66 -154.70 1.20 
615.75 -154.88 1.19 
616.18 -155.78 1.46 
616.40 -156.02 1.30 
607.23 -161.62 0.20 
607.90 -161.08 0.55 
608.32 -161.86 0.52 
608.31 -162.14 0.50 
608.10 -160.56 0.60 
607.95 -160.88 0.57 
608.44 -161.35 0.56 
608.50 -161.72 0.42 
608.54 -162.00 0.52 
609.23 -162.53 0.31 
608.18 -160.10 0.64 
608.21 -160.57 0.60 
608.77 -161.14 0.59 
609.26 -162.25 0.33 
607.84 -158.87 0.71 
608.21 -159.74 0.67 
608.70 -159.67 0.70 
608.95 -159.25 0.75 
613.09 -157.27 1.14 
613.70 -157.35 1.17 
614.15 -158.63 1.31 
613.80 -157.26 1.18 
614.38 -158.09 1.36 
613.94 -156.12 1.29 
614.15 -156.97 1.34 
614.20 -157.13 1.22 
614.65 -157.43 1.22 
614.34 -156.24 1.30 
614.35 -156.65 1.61 
614.75 -156.95 1.43 
614.94 -157.20 1.58 
615.20 -157.72 1.43 
615.24 -158.02 1.52 
614.21 -155.00 1.57 
614.20 -155.52 1.53 
614.45 -155.88 1.56 
614.56 -156.15 1.50 
614.79 -156.48 1.38 
614.91 -156.86 1.28 
615.03 -157.31 1.57 
615.36 -157.59 1.50 
615.69 -157.87 1.55 
614.32 -154.89 1.48 
614.91 -155.60 1.74 
614.87 -156.06 1.53 
615.16 -156.58 1.65 
614.93 -155.16 1.61 
615.08 -155.38 1.59 
615.19 -155.76 1.40 
616.47 -157.18 1.54 
607.84 -162.96 0.68 
607.91 -162.32 0.46 
608.09 -162.93 0.69 
608.26 -163.12 0.69 
607.19 -159.88 0.60 
607.54 -160.77 0.55 
607.87 -161.32 0.65 
608.55 -162.49 0.74 
608.94 -162.95 0.74 
608.15 -161.09 0.81 
608.49 -161.43 0.80 
608.66 -161.85 0.79 
608.98 -160.68 0.88 
609.00 -160.85 0.87 
609.51 -161.46 0.86 
609.10 -160.16 1.14 
609.77 -161.66 0.87 
609.85 -161.93 0.85 
616.49 -173.87 0.86 
609.34 -160.09 0.94 
613.68 -157.49 1.51 
613.75 -157.74 1.84 
613.88 -157.56 1.86 
614.23 -157.00 1.92 
614.22 -157.17 1.90 
615.48 -159.07 1.67 
615.35 -158.10 1.72 
614.35 -155.82 2.04 
615.25 -157.11 1.92 
616.03 -158.74 1.71 
614.89 -156.14 2.01 
615.10 -156.30 2.00 
615.34 -156.49 1.83 
616.03 -157.68 1.77 
614.95 -154.89 2.15 
615.18 -155.30 2.23 
616.21 -157.48 1.79 
616.36 -157.82 2.06 
615.51 -155.62 2.08 
606.79 -160.67 1.03 
607.72 -162.43 1.08 
608.01 -162.97 1.19 
608.15 -163.23 1.19 
606.53 -159.43 1.12 
607.54 -161.85 0.97 
607.97 -162.05 0.97 
608.20 -161.91 0.99 
608.40 -162.70 1.22 
608.90 -163.12 1.22 
607.25 -159.22 1.16 
607.58 -159.60 1.14 
607.44 -159.91 1.11 
608.13 -160.60 1.08 
608.23 -160.91 1.06 
608.34 -161.29 1.09 
608.48 -161.64 1.11 
608.68 -162.00 1.27 
608.89 -162.54 1.25 
608.96 -162.97 1.23 
607.54 -159.48 1.15 
607.96 -160.20 1.10 
608.11 -160.48 1.09 
608.67 -160.86 1.08 
608.61 -161.21 1.31 
609.09 -162.18 1.27 
608.48 -159.64 1.16 
608.51 -159.75 1.16 
608.75 -160.71 1.09 
608.49 -159.21 1.20 
616.41 -173.92 1.29 
614.19 -158.44 2.00 
613.96 -155.71 2.40 
614.09 -156.04 2.36 
614.85 -157.87 2.36 
614.34 -155.64 2.41 
614.67 -156.10 2.35 
614.63 -156.43 2.32 
614.99 -156.82 2.27 
614.41 -155.04 2.48 
614.69 -155.38 2.43 
614.61 -155.45 2.43 
615.96 -157.65 2.18 
614.66 -154.90 2.49 
614.72 -155.29 2.44 
607.66 -161.11 1.52 
607.21 -159.58 1.63 
607.50 -159.94 1.60 
607.80 -160.24 1.58 
607.75 -160.66 1.55 
608.15 -161.51 1.49 
608.47 -161.71 1.76 
608.27 -160.21 1.59 
608.24 -160.36 1.58 
608.21 -160.79 1.54 
608.51 -161.32 1.78 
608.89 -162.11 1.75 
609.14 -162.18 1.75 
608.44 -160.34 1.58 
608.67 -159.64 1.63 
616.28 -173.97 1.72 
614.45 -156.50 2.66 
614.52 -154.83 2.86 
614.82 -155.04 2.82 
615.28 -155.91 2.70 
615.70 -155.97 2.99 
606.86 -160.29 2.08 
607.26 -161.39 1.99 
608.50 -162.68 1.72 
608.53 -162.98 1.71 
608.19 -160.97 2.01 
608.12 -161.37 1.98 
608.54 -161.93 1.94 
607.75 -159.54 2.12 
607.71 -159.88 2.10 
608.14 -160.51 2.04 
608.33 -160.96 2.01 
608.29 -160.03 2.08 
613.08 -155.42 2.83 
614.38 -156.50 3.00 
607.67 -161.85 2.25 
607.73 -162.32 2.23 
608.89 -162.57 2.21 
616.25 -174.07 2.16 
608.72 -162.01 2.72 
616.30 -174.48 2.62 
616.27 -174.27 2.61 
615.92 -161.83 -0.10 
616.12 -161.36 -0.03 
616.18 -161.63 -0.04 
614.72 -155.95 0.31 
608.00 -160.32 -0.37 
614.89 -156.99 0.47 
614.65 -155.98 0.66 
614.67 -156.15 0.85 
614.89 -156.88 0.65 
614.51 -155.07 0.72 
615.82 -156.54 0.94 
608.00 -161.90 0.01 
606.73 -159.60 0.08 
607.58 -160.73 0.06 
607.61 -160.86 0.06 
608.22 -161.69 0.05 
607.43 -159.66 0.13 
607.76 -159.98 0.14 
608.04 -160.59 0.11 
608.28 -161.07 0.10 
608.46 -161.47 0.08 
608.69 -162.04 0.06 
608.31 -160.45 0.15 
608.05 -159.40 0.20 
608.38 -159.99 0.19 
608.85 -160.32 0.20 
609.09 -159.91 0.25 
609.27 -160.19 0.24 
609.61 -160.46 0.25 
613.06 -157.25 0.78 
612.99 -157.45 0.76 
613.95 -158.88 0.93 
613.82 -157.82 0.80 
613.64 -157.95 0.77 
614.22 -158.44 0.98 
614.16 -158.76 0.96 
614.44 -157.12 0.91 
614.30 -156.08 0.98 
614.49 -156.87 0.93 
614.59 -157.06 0.92 
615.47 -158.31 1.09 
614.06 -155.09 1.22 
614.66 -156.24 1.00 
614.84 -156.48 1.18 
615.33 -157.56 0.94 
615.51 -158.22 1.10 
614.67 -155.06 1.10 
614.60 -155.20 1.09 
614.66 -155.62 1.05 
615.67 -157.18 1.19 
615.65 -157.40 1.18 
616.04 -157.74 1.18 
616.14 -158.03 1.17 
614.75 -154.72 1.14 
614.99 -155.07 1.13 
615.14 -155.48 1.11 
615.65 -156.29 1.15 
615.63 -156.68 1.04 
615.86 -157.05 1.03 
616.01 -157.38 1.11 
615.17 -155.03 1.15 
615.71 -155.70 1.31 
615.89 -155.95 1.24 
616.29 -156.67 1.28 
615.66 -155.02 1.19 
616.19 -156.04 1.14 
616.26 -156.14 1.30 
607.86 -162.31 0.20 
608.03 -160.61 0.33 
608.42 -161.36 0.57 
608.66 -161.78 0.56 
609.04 -162.22 0.30 
608.99 -162.38 0.29 
608.67 -160.94 0.49 
608.85 -161.29 0.35 
608.93 -161.73 0.33 
608.91 -161.93 0.31 
608.48 -160.17 0.67 
609.17 -160.94 0.40 
608.65 -159.41 0.73 
609.02 -159.09 0.78 
613.02 -157.15 1.18 
613.73 -156.87 1.24 
614.05 -157.61 1.20 
614.27 -157.98 1.37 
614.29 -158.28 1.35 
613.90 -156.75 1.27 
613.95 -156.98 1.25 
613.86 -155.89 1.42 
614.19 -156.13 1.34 
614.96 -157.60 1.44 
614.96 -157.69 1.43 
614.59 -155.99 1.54 
614.56 -156.09 1.37 
614.74 -156.66 1.32 
615.14 -157.49 1.45 
615.44 -157.51 1.62 
615.36 -157.93 1.58 
614.28 -155.12 1.59 
614.71 -155.34 1.45 
614.82 -155.60 1.58 
615.66 -157.19 1.59 
615.19 -156.10 1.75 
615.60 -156.28 1.41 
615.79 -156.55 1.56 
615.78 -156.96 1.53 
615.69 -155.81 1.63 
615.90 -156.00 1.46 
615.93 -156.40 1.50 
615.79 -155.04 1.89 
615.86 -155.64 1.49 
607.83 -162.84 0.68 
607.84 -163.03 0.67 
607.03 -159.80 0.61 
607.32 -160.61 0.57 
607.79 -160.95 0.57 
608.07 -161.64 0.53 
607.18 -159.69 0.63 
607.83 -160.40 0.61 
607.76 -160.74 0.58 
608.23 -161.23 0.69 
608.30 -161.51 0.79 
608.55 -161.99 0.77 
608.82 -162.52 0.76 
608.90 -162.86 0.74 
607.99 -159.59 0.68 
607.95 -160.06 0.64 
608.12 -160.31 0.71 
608.16 -160.60 0.61 
608.69 -160.97 0.84 
608.28 -160.04 0.66 
608.95 -160.72 0.88 
609.77 -161.46 0.88 
609.87 -161.95 0.85 
609.96 -161.27 0.90 
613.49 -157.34 1.57 
613.47 -157.18 1.58 
613.89 -156.81 1.63 
614.02 -156.86 1.63 
615.30 -158.08 1.75 
615.56 -158.63 1.72 
614.78 -156.47 1.70 
615.59 -157.78 1.78 
615.51 -158.02 1.76 
615.71 -158.36 1.74 
615.67 -157.64 1.79 
615.82 -157.96 1.98 
615.93 -158.19 2.07 
614.88 -155.34 1.82 
615.00 -155.50 1.81 
615.62 -156.61 1.99 
615.86 -156.84 1.85 
615.47 -155.24 1.85 
615.72 -156.13 2.11 
616.02 -155.06 2.24 
608.08 -163.29 1.18 
608.12 -163.41 1.18 
607.45 -162.01 0.98 
607.66 -160.89 1.30 
608.19 -161.80 1.02 
608.37 -162.58 1.23 
608.37 -162.80 1.22 
607.62 -160.05 1.13 
607.88 -160.63 1.10 
608.10 -160.94 1.08 
608.08 -161.17 1.06 
608.30 -161.48 1.19 
608.56 -162.00 1.27 
608.85 -162.21 1.27 
607.73 -159.58 1.17 
608.07 -159.92 1.16 
608.02 -160.35 1.12 
608.29 -160.64 1.11 
608.49 -160.06 1.16 
608.75 -161.00 1.33 
609.08 -161.07 1.34 
608.29 -159.05 1.24 
608.36 -159.33 1.22 
609.09 -159.95 1.19 
613.78 -157.34 1.95 
613.81 -157.63 1.92 
613.94 -157.10 1.98 
614.37 -157.68 2.28 
614.61 -156.33 2.43 
614.92 -156.75 2.38 
615.22 -156.85 2.16 
614.78 -155.02 2.58 
614.68 -155.21 2.56 
615.19 -155.81 2.48 
614.87 -154.95 2.59 
607.58 -162.92 1.18 
606.73 -160.58 1.29 
607.31 -161.13 1.55 
606.96 -159.74 1.66 
607.94 -160.90 1.58 
607.47 -159.46 1.68 
607.80 -159.77 1.66 
607.99 -160.24 1.63 
608.13 -160.61 1.60 
608.40 -160.95 1.58 
608.55 -161.36 1.71 
608.75 -161.75 1.78 
608.33 -160.10 1.64 
608.34 -159.36 1.70 
616.43 -173.95 1.68 
613.36 -156.45 2.42 
613.71 -157.06 2.35 
613.54 -156.10 2.46 
613.53 -156.32 2.43 
613.71 -156.94 2.49 
614.50 -158.08 2.40 
614.70 -158.56 2.37 
613.90 -155.80 2.49 
613.79 -155.46 2.53 
614.10 -155.80 2.49 
614.13 -155.99 2.47 
614.45 -156.20 2.81 
614.04 -154.95 2.59 
614.33 -155.20 2.56 
614.41 -155.47 2.56 
615.05 -155.70 2.58 
608.39 -162.36 1.74 
607.37 -159.95 2.15 
607.32 -160.08 2.14 
608.04 -161.20 2.05 
608.46 -161.65 1.78 
608.58 -161.94 1.76 
607.39 -159.65 2.18 
607.95 -160.42 2.11 
608.01 -160.71 2.08 
607.81 -159.23 2.21 
616.37 -174.16 2.11 
616.04 -156.48 3.11 
616.00 -155.70 3.17 
606.46 -160.22 2.14 
606.70 -160.59 2.11 
608.54 -161.81 2.75 
614.65 -155.89 0.25 
614.70 -155.79 0.26 
607.94 -160.24 -0.42 
614.62 -155.99 0.73 
614.56 -156.37 0.79 
614.81 -156.82 0.43 
614.41 -155.04 0.68 
614.63 -155.84 0.64 
615.25 -155.82 0.91 
615.59 -156.38 0.90 
615.51 -155.57 0.96 
615.57 -155.08 1.00 
607.52 -160.55 0.04 
607.99 -161.78 -0.02 
607.39 -159.75 0.09 
607.96 -160.65 0.07 
608.16 -161.05 0.05 
608.31 -161.37 -0.02 
608.49 -161.71 0.03 
608.62 -161.95 0.02 
607.85 -159.47 0.15 
608.08 -160.26 0.11 
608.03 -160.43 0.09 
608.16 -159.37 0.19 
608.34 -159.83 0.16 
609.20 -160.24 0.20 
613.83 -158.74 0.91 
613.11 -156.83 0.81 
613.61 -157.85 0.77 
613.84 -157.05 0.85 
613.88 -157.40 0.83 
613.80 -157.66 0.80 
614.51 -157.67 1.04 
614.62 -157.78 1.04 
614.82 -158.19 1.03 
614.79 -158.55 1.00 
614.09 -156.17 0.95 
614.44 -156.77 0.93 
614.47 -156.84 0.93 
615.04 -157.98 1.06 
614.06 -155.32 1.20 
614.93 -156.96 1.13 
615.06 -157.17 1.04 
615.22 -157.90 1.09 
614.38 -155.12 1.24 
614.76 -155.56 1.15 
614.81 -155.96 1.03 
614.92 -156.54 1.17 
615.75 -157.38 1.17 
615.80 -157.51 1.16 
615.28 -156.26 1.05 
615.57 -156.33 1.06 
615.77 -156.84 1.04 
615.76 -157.01 1.02 
616.03 -157.67 1.17 
614.96 -154.84 1.15 
615.10 -155.08 1.14 
615.64 -156.05 1.10 
615.88 -156.10 1.16 
615.62 -154.85 1.20 
616.12 -155.76 1.16 
616.17 -155.96 1.15 
607.50 -162.20 0.13 
607.64 -162.46 0.12 
606.55 -159.32 0.06 
608.57 -162.59 0.19 
608.05 -160.87 0.27 
608.40 -161.28 0.27 
608.71 -162.13 0.24 
608.89 -162.83 0.20 
608.46 -161.12 0.29 
608.92 -161.57 0.29 
609.06 -161.91 0.28 
609.05 -162.35 0.25 
609.56 -161.26 0.37 
616.35 -173.49 0.33 
614.19 -158.11 1.35 
613.92 -156.56 1.30 
613.95 -156.95 1.26 
614.04 -157.41 1.23 
614.24 -157.75 1.38 
614.24 -157.88 1.37 
613.85 -155.78 1.52 
614.17 -156.36 1.33 
614.59 -157.38 1.43 
615.32 -158.30 1.40 
614.18 -155.99 1.37 
614.44 -156.15 1.45 
614.59 -156.47 1.43 
615.29 -157.46 1.46 
615.31 -158.06 1.42 
614.56 -155.96 1.40 
614.87 -156.36 1.53 
615.21 -156.69 1.52 
615.45 -156.99 1.51 
615.52 -157.18 1.50 
614.52 -154.73 1.52 
615.22 -155.74 1.46 
615.34 -156.08 1.46 
615.48 -155.62 1.49 
615.63 -155.87 1.48 
615.85 -155.51 1.53 
615.90 -155.64 1.52 
606.36 -161.32 0.43 
607.88 -162.94 0.63 
607.56 -160.80 0.76 
607.79 -161.07 0.54 
607.92 -161.69 0.50 
608.11 -162.02 0.71 
608.11 -162.34 0.69 
608.47 -162.66 0.69 
607.07 -159.60 0.61 
607.75 -160.76 0.56 
608.07 -161.07 0.55 
608.40 -161.52 0.54 
608.66 -162.15 0.73 
608.79 -162.51 0.72 
607.98 -160.20 0.62 
608.10 -160.54 0.60 
608.37 -160.92 0.80 
608.56 -161.23 0.57 
607.91 -159.38 0.68 
608.20 -159.55 0.69 
608.28 -159.89 0.66 
608.80 -160.51 0.85 
608.93 -161.08 0.82 
608.55 -159.47 0.71 
609.11 -160.19 0.89 
609.00 -160.38 0.87 
609.80 -162.22 0.80 
616.27 -173.54 0.74 
608.72 -159.19 0.75 
609.21 -160.04 0.91 
609.98 -161.06 0.88 
613.82 -156.59 1.69 
614.14 -156.50 1.71 
614.91 -157.83 1.76 
614.96 -158.04 1.74 
613.75 -154.82 1.88 
614.82 -156.82 1.75 
615.10 -157.74 1.77 
615.00 -156.34 1.77 
615.03 -156.70 1.73 
615.37 -156.85 1.73 
615.55 -157.28 2.04 
615.01 -155.86 1.82 
615.54 -156.88 2.09 
614.96 -154.95 1.92 
615.32 -155.30 1.89 
615.53 -155.65 1.97 
615.46 -156.06 1.93 
615.26 -154.74 1.95 
607.32 -161.55 1.00 
607.41 -161.86 0.98 
608.12 -162.60 1.19 
608.35 -162.70 1.19 
607.49 -159.84 1.15 
607.86 -160.74 1.16 
608.10 -161.10 1.17 
608.17 -161.35 1.05 
608.35 -161.64 1.25 
608.60 -162.12 1.23 
608.65 -162.34 1.22 
607.66 -159.52 1.18 
607.88 -160.19 1.13 
608.03 -160.50 1.11 
608.26 -160.92 1.19 
608.34 -161.26 1.28 
608.70 -161.85 1.25 
609.04 -162.23 1.24 
607.95 -159.42 1.20 
608.05 -159.75 1.18 
608.32 -160.38 1.13 
608.93 -161.40 1.29 
609.02 -161.67 1.28 
608.33 -159.18 1.24 
608.77 -160.52 1.34 
616.18 -173.60 1.15 
616.45 -173.69 1.16 
616.50 -173.98 1.16 
613.78 -157.58 1.98 
614.19 -158.26 2.06 
613.89 -157.45 1.99 
614.77 -158.35 2.06 
614.85 -158.45 2.05 
613.85 -155.93 2.16 
614.13 -156.29 2.13 
614.32 -157.09 2.04 
614.52 -157.51 2.00 
614.06 -155.90 2.17 
614.41 -156.17 2.15 
614.57 -156.47 2.11 
614.22 -154.93 2.29 
614.38 -155.27 2.25 
615.70 -157.88 2.11 
615.98 -158.08 2.10 
614.33 -155.00 2.28 
614.46 -155.18 2.26 
615.33 -156.28 2.15 
615.89 -156.14 2.26 
616.11 -156.12 2.59 
615.77 -155.07 2.31 
616.35 -154.71 2.37 
607.50 -163.01 1.14 
607.83 -162.63 1.17 
607.53 -160.20 1.64 
607.62 -160.83 1.59 
607.28 -159.23 1.72 
607.54 -160.04 1.65 
608.03 -160.31 1.64 
608.01 -160.59 1.61 
608.30 -161.01 1.58 
608.53 -161.17 1.57 
607.81 -159.45 1.71 
607.93 -159.70 1.69 
608.10 -159.92 1.67 
608.22 -160.39 1.63 
608.51 -160.86 1.60 
616.11 -173.65 1.56 
616.32 -173.71 1.56 
616.44 -174.02 1.57 
614.54 -158.29 2.41 
613.26 -155.10 2.67 
613.44 -155.35 2.64 
614.31 -157.30 2.40 
614.35 -157.51 2.37 
614.55 -157.08 2.42 
614.78 -156.42 2.50 
615.09 -155.80 2.58 
615.33 -156.69 2.54 
614.94 -154.70 2.72 
608.22 -161.75 1.75 
608.50 -161.34 1.78 
608.64 -161.46 1.77 
608.78 -162.16 1.73 
608.29 -160.61 1.82 
608.55 -160.86 1.81 
608.69 -161.01 1.80 
615.98 -173.73 1.98 
608.34 -159.70 2.20 
616.22 -173.78 1.98 
616.28 -174.14 1.99 
606.38 -159.98 2.20 
608.83 -162.62 2.20 
607.39 -159.72 2.21 
608.50 -161.95 2.24 
607.76 -159.18 2.25 
614.62 -155.74 0.25 
607.89 -160.13 -0.40 
615.05 -157.92 0.74 
614.71 -156.62 0.62 
615.16 -157.41 0.79 
614.43 -154.99 0.71 
614.57 -155.78 0.74 
615.94 -157.71 0.85 
614.44 -154.69 0.74 
614.45 -154.86 0.72 
615.18 -155.66 0.93 
615.43 -156.16 0.92 
615.65 -155.26 1.02 
615.68 -155.50 0.80 
607.51 -160.60 0.06 
607.89 -161.60 0.01 
608.13 -160.99 0.08 
608.18 -161.17 -0.24 
608.01 -160.35 0.13 
608.26 -160.86 0.10 
608.36 -161.17 0.09 
608.44 -161.36 0.08 
607.98 -159.25 0.21 
608.28 -159.62 0.21 
608.58 -160.11 0.19 
608.51 -159.17 0.26 
608.45 -159.64 0.22 
609.00 -160.65 0.18 
616.43 -173.29 -0.08 
608.57 -158.88 0.29 
608.90 -159.55 0.26 
609.54 -160.05 0.28 
613.13 -156.93 0.85 
613.59 -157.65 0.82 
613.77 -158.57 0.94 
613.35 -156.63 0.89 
613.80 -157.20 0.88 
613.90 -157.37 0.87 
613.98 -157.07 0.91 
614.61 -158.08 1.05 
614.70 -158.41 1.03 
613.75 -156.23 0.96 
614.15 -156.48 0.97 
614.24 -156.83 0.95 
614.90 -157.62 1.11 
614.77 -157.93 1.07 
614.93 -158.27 1.06 
614.20 -156.17 1.01 
614.61 -156.24 1.20 
614.65 -156.70 1.17 
615.02 -156.91 1.01 
615.03 -157.42 1.14 
615.10 -157.69 1.12 
614.42 -155.15 1.28 
614.46 -155.45 1.26 
615.30 -157.18 1.18 
615.08 -155.91 1.11 
615.44 -156.37 1.18 
615.87 -157.43 1.21 
615.50 -155.72 1.16 
615.61 -155.96 1.23 
615.71 -156.35 1.12 
616.23 -156.78 1.29 
616.31 -156.90 1.29 
615.40 -154.79 1.24 
615.89 -155.61 1.20 
616.10 -156.33 1.32 
616.42 -156.90 1.30 
607.19 -162.02 0.13 
607.21 -161.08 0.00 
607.58 -161.95 0.17 
607.73 -161.77 0.20 
608.46 -162.49 0.20 
608.45 -162.11 0.23 
608.50 -162.33 0.22 
608.72 -162.59 0.22 
608.52 -161.26 0.30 
608.52 -161.41 0.29 
608.69 -160.64 0.36 
609.25 -160.76 0.40 
609.41 -161.17 0.38 
616.37 -173.33 0.32 
609.82 -161.28 0.41 
612.71 -155.71 1.37 
613.01 -156.61 1.30 
614.06 -158.00 1.39 
613.49 -156.03 1.39 
613.68 -156.94 1.31 
613.93 -157.22 1.30 
614.14 -157.79 1.41 
613.98 -156.64 1.36 
614.40 -157.25 1.48 
615.10 -158.10 1.44 
614.02 -155.84 1.44 
614.28 -156.52 1.39 
614.68 -156.57 1.55 
614.86 -157.05 1.45 
615.05 -157.34 1.43 
615.06 -157.72 1.47 
615.17 -158.00 1.46 
614.15 -154.80 1.56 
614.23 -154.98 1.55 
614.41 -155.41 1.51 
615.32 -156.95 1.56 
615.30 -157.05 1.55 
615.85 -158.37 1.47 
615.96 -158.48 1.46 
614.65 -155.35 1.54 
614.97 -155.72 1.58 
615.23 -156.01 1.57 
615.33 -156.32 1.55 
615.39 -156.86 1.57 
615.75 -157.24 1.56 
615.53 -155.77 1.67 
615.90 -156.52 1.63 
615.81 -155.67 1.70 
607.27 -160.48 0.60 
607.70 -161.17 0.57 
607.94 -161.64 0.54 
607.99 -162.27 0.71 
608.26 -162.55 0.70 
607.42 -160.21 0.73 
607.64 -160.69 0.60 
607.92 -160.96 0.70 
608.13 -161.48 0.77 
608.10 -161.71 0.75 
608.23 -161.93 0.75 
607.33 -159.01 0.73 
607.85 -160.11 0.67 
608.11 -160.40 0.66 
608.33 -161.07 0.71 
608.51 -161.53 0.59 
608.73 -162.03 0.77 
607.72 -159.08 0.75 
607.94 -159.53 0.72 
608.17 -159.89 0.70 
608.27 -160.24 0.87 
608.53 -160.65 0.86 
607.60 -158.40 0.80 
607.81 -158.75 0.78 
608.20 -159.31 0.76 
608.38 -159.84 0.72 
608.88 -160.04 0.92 
616.17 -173.38 0.71 
616.46 -173.52 0.72 
616.49 -173.81 0.71 
614.23 -157.49 1.83 
614.83 -158.51 1.76 
613.13 -154.76 1.96 
614.02 -156.32 1.82 
614.03 -156.52 1.80 
614.64 -157.35 1.73 
614.63 -157.53 1.71 
614.84 -158.28 1.78 
614.61 -156.45 1.83 
614.79 -157.22 1.75 
614.64 -156.23 1.85 
614.97 -156.47 1.84 
615.35 -157.52 1.86 
614.71 -155.16 1.98 
615.41 -156.79 1.93 
615.69 -156.93 1.93 
614.99 -155.10 2.00 
615.71 -156.20 2.00 
615.62 -156.51 1.96 
616.25 -157.13 1.93 
615.48 -155.10 2.02 
616.11 -156.38 1.90 
616.49 -156.27 2.02 
607.35 -161.50 1.06 
606.66 -159.44 1.22 
607.54 -160.55 1.15 
607.88 -161.07 1.12 
608.09 -161.31 1.11 
608.35 -161.63 1.29 
608.46 -162.01 1.27 
607.58 -159.90 1.21 
607.98 -160.35 1.19 
608.12 -160.81 1.15 
608.52 -161.59 1.30 
607.96 -159.53 1.26 
608.07 -159.98 1.22 
608.29 -160.42 1.38 
608.94 -161.26 1.34 
608.04 -159.35 1.28 
616.13 -173.42 1.11 
616.40 -173.60 1.12 
616.41 -173.87 1.12 
608.26 -158.89 1.33 
608.57 -159.29 1.30 
613.15 -156.54 2.19 
613.80 -156.87 2.17 
613.99 -157.71 2.18 
614.17 -156.04 2.27 
614.48 -156.50 2.22 
614.59 -156.87 2.18 
614.92 -157.49 2.21 
615.30 -157.84 2.18 
615.35 -158.01 2.17 
614.33 -155.27 2.37 
614.90 -156.73 2.28 
615.10 -157.06 2.17 
615.11 -157.25 2.19 
614.56 -154.97 2.42 
614.40 -155.33 2.37 
614.71 -155.77 2.32 
615.14 -156.22 2.27 
614.63 -154.87 2.43 
607.67 -162.41 1.21 
607.76 -159.96 1.75 
607.86 -160.64 1.52 
608.37 -161.07 1.66 
607.78 -159.18 1.82 
607.73 -159.82 1.76 
608.06 -160.31 1.55 
607.84 -159.03 1.84 
608.36 -159.76 1.78 
608.60 -159.93 1.76 
616.15 -173.47 1.52 
616.29 -173.59 1.52 
616.31 -173.93 1.52 
614.45 -155.95 2.70 
615.28 -155.74 2.73 
615.55 -155.62 2.75 
616.12 -156.17 3.04 
607.04 -160.84 1.66 
607.60 -161.73 1.79 
607.09 -160.11 1.73 
607.36 -160.74 1.67 
607.17 -159.55 1.78 
608.03 -160.46 1.88 
608.02 -160.92 1.85 
608.32 -161.29 1.83 
608.23 -161.50 1.81 
608.63 -161.85 1.79 
608.07 -160.15 1.91 
608.67 -160.86 1.86 
608.71 -161.48 1.82 
615.82 -173.54 1.93 
616.15 -174.04 1.94 
616.19 -173.88 1.93 
607.06 -159.73 2.31 
607.46 -160.37 2.42 
606.99 -159.31 2.36 
607.17 -159.53 2.33 
608.18 -161.38 2.34 
615.88 -173.61 2.35 
616.07 -173.81 2.35 
614.52 -155.52 0.34 
607.34 -160.56 -0.45 
607.84 -159.80 -0.34 
616.46 -173.06 -0.41 
614.38 -157.74 0.71 
614.65 -157.45 0.76 
614.69 -157.63 0.75 
614.64 -156.47 0.44 
614.69 -156.75 0.82 
614.49 -155.51 0.70 
614.65 -155.89 0.88 
614.32 -154.81 0.74 
614.89 -155.45 0.94 
615.02 -155.51 0.95 
615.76 -157.13 0.90 
615.86 -157.57 0.88 
614.99 -155.37 0.96 
615.79 -156.72 0.94 
615.38 -155.10 0.83 
615.64 -155.24 1.04 
616.14 -156.24 1.01 
608.34 -161.00 0.16 
608.40 -161.23 0.15 
608.43 -160.37 0.22 
608.55 -159.99 0.26 
608.80 -160.20 0.26 
616.42 -173.08 -0.02 
608.53 -159.08 0.33 
608.88 -159.73 0.31 
609.01 -159.91 0.31 
608.71 -158.79 0.37 
609.13 -159.61 0.34 
613.46 -157.07 0.92 
613.56 -157.25 0.91 
613.72 -157.04 0.94 
614.17 -156.79 1.00 
614.29 -157.07 0.99 
614.44 -156.64 1.04 
614.50 -156.75 1.03 
614.73 -157.19 1.10 
614.79 -156.34 1.09 
614.79 -156.62 1.07 
614.63 -154.99 1.20 
614.63 -155.31 1.21 
615.03 -156.17 1.13 
615.40 -156.27 1.15 
615.47 -156.72 1.28 
614.95 -154.97 1.23 
615.29 -155.94 1.17 
615.54 -156.16 1.17 
615.92 -156.52 1.33 
615.41 -155.02 1.27 
615.71 -155.18 1.28 
615.89 -156.05 1.37 
615.93 -155.18 1.30 
616.37 -155.24 1.33 
607.56 -161.90 0.23 
606.97 -160.69 0.08 
607.67 -161.29 0.08 
607.90 -161.58 0.08 
608.08 -162.33 0.24 
608.32 -162.64 0.24 
607.48 -160.61 0.12 
607.76 -161.16 0.10 
608.65 -162.14 0.30 
608.01 -160.56 0.27 
608.61 -161.52 0.34 
608.65 -161.97 0.31 
608.94 -162.43 0.30 
607.98 -160.01 0.21 
608.70 -161.34 0.36 
609.07 -161.65 0.37 
607.82 -158.49 0.33 
608.07 -159.22 0.28 
608.67 -160.28 0.44 
609.24 -161.04 0.43 
616.24 -173.11 0.37 
616.49 -173.58 0.37 
608.97 -159.83 0.50 
608.89 -159.98 0.48 
609.33 -160.73 0.46 
616.47 -173.26 0.38 
612.94 -157.73 0.99 
613.07 -157.57 1.01 
612.95 -156.62 1.38 
613.69 -157.54 1.06 
613.65 -157.65 1.05 
613.80 -158.05 1.03 
613.59 -156.68 1.41 
613.53 -156.84 1.39 
614.07 -157.46 1.50 
613.70 -156.50 1.43 
614.07 -155.81 1.53 
614.35 -156.23 1.56 
614.97 -157.60 1.41 
615.17 -157.88 1.53 
614.07 -154.84 1.32 
614.09 -155.37 1.28 
614.42 -155.84 1.55 
614.68 -156.33 1.51 
614.81 -156.72 1.48 
615.33 -157.42 1.58 
615.45 -157.53 1.58 
614.71 -155.38 1.61 
614.93 -155.82 1.58 
615.03 -156.02 1.63 
615.26 -156.58 1.65 
615.31 -156.90 1.56 
615.47 -157.18 1.48 
614.80 -154.86 1.73 
615.01 -155.30 1.69 
615.02 -155.52 1.73 
615.32 -155.99 1.65 
615.85 -156.91 1.65 
615.13 -154.76 1.70 
615.42 -155.45 1.65 
606.65 -160.54 0.64 
607.88 -162.85 0.73 
606.90 -160.37 0.67 
607.32 -161.12 0.82 
607.46 -161.39 0.62 
607.82 -161.67 0.81 
607.86 -162.22 0.77 
608.02 -162.51 0.76 
608.24 -162.65 0.76 
607.08 -160.13 0.88 
607.29 -160.47 0.68 
607.66 -160.87 0.67 
607.91 -161.16 0.66 
608.12 -162.05 0.80 
607.61 -159.68 0.77 
607.58 -159.91 0.75 
608.07 -160.71 0.89 
608.10 -160.92 0.79 
608.29 -161.33 0.86 
608.81 -161.85 0.85 
608.71 -162.33 0.81 
607.65 -159.52 0.79 
608.06 -159.83 0.96 
608.07 -160.19 0.75 
608.35 -160.46 0.93 
608.20 -159.27 0.84 
608.58 -160.01 0.98 
608.65 -160.32 0.96 
608.71 -160.60 0.94 
616.16 -173.16 0.77 
616.41 -173.39 0.77 
616.39 -173.63 0.76 
608.40 -159.09 0.87 
608.52 -159.54 0.84 
608.97 -160.14 0.99 
613.50 -157.68 1.45 
613.62 -157.81 1.44 
613.89 -158.14 1.84 
613.67 -156.94 1.68 
613.64 -157.22 1.80 
614.06 -157.56 1.89 
613.81 -156.47 1.89 
613.81 -156.74 1.86 
613.65 -155.16 1.68 
614.11 -156.20 1.77 
614.54 -156.82 1.98 
615.30 -156.46 1.96 
615.47 -156.77 1.96 
615.44 -157.13 1.98 
615.65 -157.52 1.95 
616.08 -157.85 1.94 
615.45 -156.40 1.97 
615.58 -156.62 1.95 
615.51 -155.37 2.09 
615.60 -155.81 2.04 
615.68 -154.84 2.16 
615.84 -155.11 2.14 
615.77 -155.51 2.15 
607.39 -160.50 1.25 
607.91 -161.26 1.20 
607.99 -160.71 1.25 
608.09 -161.04 1.23 
607.63 -159.48 1.35 
607.77 -159.76 1.33 
608.05 -160.15 1.31 
608.28 -160.48 1.28 
608.04 -159.32 1.38 
616.10 -173.20 1.17 
616.30 -173.38 1.17 
616.28 -173.70 1.16 
608.18 -158.75 1.44 
608.83 -159.14 1.43 
613.84 -157.89 1.86 
613.87 -157.71 1.87 
614.01 -156.73 2.31 
614.20 -156.96 2.29 
614.19 -157.59 2.29 
614.39 -157.87 2.27 
614.60 -158.02 2.25 
614.09 -156.64 2.32 
614.46 -156.94 2.29 
614.69 -157.57 2.30 
614.10 -155.48 2.46 
614.41 -156.00 2.41 
614.87 -156.79 2.37 
614.69 -155.98 2.42 
614.97 -155.35 2.50 
615.12 -155.16 2.53 
615.86 -154.88 2.59 
606.64 -160.16 1.42 
607.90 -162.48 1.30 
606.57 -158.78 1.38 
606.78 -159.63 1.47 
606.97 -159.81 1.46 
607.93 -161.54 1.36 
608.19 -161.92 1.35 
607.73 -160.63 1.42 
608.39 -161.06 1.77 
616.01 -173.24 1.57 
616.22 -173.54 1.57 
616.19 -173.75 1.57 
613.20 -156.07 2.37 
613.24 -155.88 2.40 
613.50 -154.99 2.51 
613.50 -154.78 2.54 
613.78 -155.16 2.50 
614.06 -155.44 2.47 
614.32 -155.78 2.87 
615.70 -156.14 2.82 
616.23 -156.18 2.81 
606.49 -159.73 1.87 
606.81 -160.28 1.82 
606.99 -160.79 1.86 
607.44 -161.74 1.88 
606.85 -159.77 1.87 
608.02 -161.46 1.90 
607.25 -159.36 1.92 
607.36 -159.53 1.90 
607.86 -160.62 1.81 
608.21 -161.08 1.93 
608.30 -161.31 1.92 
608.61 -161.92 1.88 
607.69 -159.26 1.93 
607.99 -160.50 1.82 
608.24 -160.82 1.95 
607.67 -158.75 1.98 
607.56 -158.90 1.97 
607.95 -159.34 1.93 
607.96 -159.68 1.90 
616.01 -173.31 1.98 
616.06 -173.41 1.98 
606.87 -160.19 2.41 
608.34 -161.32 2.44 
615.93 -173.78 2.40 
615.98 -173.58 2.39 
614.52 -156.50 0.42 
614.39 -155.55 0.47 
614.55 -156.40 0.43 
614.48 -155.43 0.37 
606.34 -160.07 -0.50 
607.37 -160.51 -0.43 
607.76 -159.78 -0.33 
616.36 -172.95 -0.40 
615.06 -157.78 0.80 
614.33 -155.49 0.71 
615.33 -157.21 0.87 
614.23 -154.72 0.76 
614.23 -154.86 0.75 
614.44 -155.43 0.73 
615.62 -157.10 0.91 
615.44 -157.34 0.87 
615.87 -157.59 0.90 
615.38 -156.36 0.94 
615.61 -156.40 0.97 
615.76 -156.15 0.61 
615.84 -156.27 1.00 
606.52 -161.22 -0.37 
607.55 -161.73 -0.30 
608.00 -160.91 -0.19 
616.20 -173.01 -0.01 
616.32 -172.97 0.00 
616.49 -173.18 0.00 
612.93 -157.89 0.57 
613.01 -157.73 0.59 
612.99 -156.46 0.98 
613.49 -157.50 0.65 
613.63 -156.93 0.99 
