# .PCD v0.7 - Point Cloud Data file format
VERSION 0.7
FIELDS x y z
SIZE 4 4 4
TYPE F F F
COUNT 1 1 1
WIDTH 2277
HEIGHT 1
VIEWPOINT 0 0 0 1 0 0 0
POINTS 2277
DATA ascii
638.47 -707.07 5.54 
638.08 -706.91 5.45 
639.36 -706.72 5.58 
638.15 -707.75 5.63 
640.15 -706.66 5.68 
641.11 -706.62 5.80 
640.68 -706.71 5.76 
638.31 -708.29 5.34 
639.86 -707.79 5.87 
638.69 -708.66 5.45 
638.34 -709.08 5.48 
640.28 -707.90 5.94 
638.94 -707.20 5.99 
639.14 -707.25 6.02 
638.57 -707.72 6.05 
640.16 -707.46 6.18 
639.57 -708.18 5.90 
639.14 -708.09 5.83 
639.56 -708.59 5.98 
640.67 -708.46 6.11 
640.36 -709.04 6.18 
641.37 -709.30 6.38 
641.00 -709.38 6.34 
617.21 -710.69 3.20 
617.64 -711.56 3.37 
616.88 -711.62 3.32 
617.83 -711.80 3.43 
617.72 -713.43 3.67 
618.40 -713.49 3.74 
617.89 -713.78 3.74 
639.29 -707.69 6.52 
640.04 -711.83 3.52 
639.82 -711.87 3.50 
640.24 -711.92 3.56 
640.73 -712.44 3.69 
640.59 -712.56 3.68 
616.93 -713.18 0.57 
617.13 -713.34 0.61 
638.30 -713.90 3.74 
641.42 -712.79 3.82 
641.18 -712.74 3.78 
617.34 -713.37 0.94 
617.17 -714.16 1.00 
636.77 -707.79 3.34 
638.90 -707.55 3.74 
637.23 -709.00 3.56 
637.03 -709.13 3.55 
636.05 -709.79 3.50 
635.80 -709.96 3.49 
637.29 -710.54 3.77 
637.46 -710.64 3.80 
637.64 -711.38 3.92 
638.33 -711.39 4.02 
637.82 -711.51 3.97 
638.80 -711.48 4.10 
638.56 -711.51 4.07 
639.96 -710.86 4.19 
639.22 -711.58 4.17 
640.33 -712.44 4.44 
640.37 -712.55 4.46 
617.86 -712.07 1.54 
619.42 -712.25 1.74 
638.16 -708.21 3.86 
641.02 -706.48 4.46 
639.00 -708.36 3.99 
637.00 -710.34 3.98 
636.48 -710.46 3.92 
641.32 -708.87 4.38 
640.84 -709.24 4.36 
641.05 -709.25 4.39 
638.63 -711.51 4.34 
640.79 -713.06 4.59 
641.04 -714.10 4.76 
638.37 -716.29 4.66 
616.53 -712.88 1.49 
618.33 -713.38 2.12 
636.68 -707.82 4.05 
637.75 -707.62 4.17 
636.76 -708.39 4.15 
641.37 -706.00 4.70 
638.72 -707.74 4.32 
638.15 -707.70 4.24 
637.92 -707.91 4.23 
638.28 -708.32 4.35 
636.33 -709.75 4.30 
638.81 -708.48 4.45 
638.48 -708.49 4.40 
636.76 -709.90 4.38 
639.78 -708.31 4.83 
639.09 -708.79 4.53 
639.30 -708.83 4.57 
637.17 -710.42 4.52 
636.71 -710.48 4.46 
636.44 -710.76 4.47 
640.53 -709.25 4.81 
640.35 -709.24 4.78 
639.63 -710.69 4.90 
639.83 -711.08 4.99 
616.71 -712.91 1.88 
638.27 -707.48 4.93 
640.83 -706.14 5.05 
641.50 -706.17 5.15 
639.54 -712.28 5.41 
618.69 -710.99 2.46 
616.59 -712.00 2.39 
616.85 -712.22 2.44 
617.03 -712.88 2.55 
616.72 -712.91 2.53 
619.00 -712.60 2.71 
618.52 -712.74 2.68 
617.47 -713.33 2.66 
637.60 -706.18 4.93 
637.80 -707.04 5.11 
638.58 -708.50 5.15 
639.62 -708.35 5.56 
638.78 -708.61 5.20 
639.59 -708.59 5.31 
639.35 -708.76 5.60 
639.06 -708.87 5.28 
637.96 -710.05 5.34 
639.11 -709.88 5.47 
640.43 -709.61 5.61 
640.05 -709.81 5.59 
639.76 -710.04 5.59 
641.49 -709.47 5.74 
641.31 -709.47 5.71 
640.84 -709.72 5.69 
639.50 -710.87 5.70 
638.01 -711.79 5.65 
641.26 -712.05 6.16 
616.78 -712.15 2.86 
640.23 -706.57 5.73 
640.03 -706.51 5.69 
639.20 -707.04 5.68 
638.76 -707.20 5.65 
640.79 -706.40 5.78 
639.56 -707.23 5.77 
638.07 -708.28 5.77 
641.01 -706.98 5.93 
639.66 -707.62 5.86 
639.35 -707.85 5.86 
638.59 -708.29 5.84 
640.15 -707.69 5.94 
639.03 -708.86 6.02 
641.38 -708.07 6.20 
639.11 -712.47 6.22 
641.13 -707.34 6.30 
637.95 -709.05 5.91 
640.18 -708.08 6.33 
638.79 -709.70 6.16 
640.55 -709.27 6.32 
616.96 -713.78 3.69 
617.55 -713.91 3.76 
638.45 -707.48 6.39 
640.24 -706.99 6.84 
639.82 -707.72 6.63 
640.34 -708.11 6.79 
641.43 -712.30 3.89 
641.15 -712.42 3.86 
617.64 -713.37 0.80 
637.10 -709.22 3.20 
637.07 -709.22 3.19 
639.22 -711.75 3.75 
640.95 -712.06 4.03 
640.18 -712.66 3.98 
638.00 -714.10 3.83 
638.14 -714.62 3.90 
616.82 -713.50 1.02 
616.65 -714.22 1.07 
637.62 -708.36 3.90 
637.59 -708.92 3.71 
636.50 -709.79 3.67 
636.31 -709.60 3.62 
638.64 -708.59 4.07 
636.29 -710.04 3.67 
637.17 -709.99 3.78 
640.07 -708.71 4.28 
638.63 -711.00 4.12 
638.15 -711.38 4.10 
639.25 -711.34 4.25 
639.06 -711.32 4.22 
640.51 -710.69 4.35 
639.62 -711.45 4.32 
639.92 -711.48 4.37 
640.98 -712.29 4.62 
641.12 -712.63 4.69 
617.68 -712.43 1.67 
618.24 -712.47 1.74 
619.74 -712.35 1.89 
637.91 -707.40 4.25 
638.88 -707.28 4.37 
638.07 -707.45 4.28 
641.35 -706.22 4.56 
638.49 -707.77 4.39 
636.49 -710.28 4.00 
636.54 -710.53 4.04 
639.60 -709.28 4.29 
636.85 -710.58 4.08 
640.91 -709.08 4.44 
640.74 -709.36 4.46 
639.71 -710.03 4.40 
638.30 -711.70 4.42 
638.34 -714.11 4.73 
640.66 -714.47 4.86 
641.40 -715.36 5.08 
617.16 -712.80 2.02 
618.32 -713.68 2.25 
637.06 -707.96 4.22 
637.25 -708.08 4.26 
637.20 -708.21 4.27 
636.82 -708.41 4.55 
638.13 -708.21 4.68 
637.38 -708.67 4.66 
638.87 -708.26 4.51 
639.21 -708.26 4.83 
639.05 -708.36 4.56 
639.46 -708.58 4.91 
638.51 -709.20 4.88 
637.24 -709.82 4.53 
639.80 -708.83 4.73 
637.39 -710.51 4.65 
638.09 -710.44 4.74 
641.11 -709.14 4.97 
640.07 -709.80 4.92 
640.25 -710.44 5.05 
640.74 -710.85 5.18 
619.60 -710.80 2.60 
619.13 -711.03 2.59 
619.67 -711.08 2.65 
619.25 -711.83 2.71 
637.35 -707.98 4.97 
637.81 -708.26 5.08 
637.46 -708.84 5.13 
640.19 -708.31 5.43 
617.24 -712.87 2.65 
619.19 -712.86 2.85 
617.85 -716.27 3.19 
639.98 -706.55 5.36 
638.23 -707.18 5.24 
641.22 -706.15 5.86 
640.55 -706.30 5.79 
641.06 -706.39 5.89 
637.64 -708.92 5.17 
640.68 -707.29 5.58 
638.51 -708.53 5.52 
638.98 -708.86 5.63 
638.79 -708.78 5.60 
638.06 -709.15 5.57 
636.86 -710.58 5.36 
639.43 -709.97 5.89 
639.01 -710.01 5.84 
640.72 -709.68 5.75 
640.39 -709.91 5.74 
641.04 -709.97 5.84 
639.08 -706.36 5.90 
637.90 -706.89 5.54 
637.58 -708.57 5.83 
640.70 -707.55 6.07 
641.35 -709.27 6.51 
638.79 -712.60 6.26 
641.09 -713.40 6.46 
640.60 -713.91 6.47 
616.92 -710.13 3.17 
616.56 -710.66 3.23 
616.90 -711.07 3.32 
616.62 -711.93 3.43 
617.97 -711.47 3.47 
617.59 -713.07 3.69 
617.71 -713.40 3.75 
618.19 -714.23 3.93 
617.87 -714.20 3.90 
618.46 -714.27 3.96 
638.69 -705.73 6.08 
639.60 -705.83 6.23 
639.23 -706.10 6.24 
638.10 -707.01 6.29 
639.99 -707.14 6.58 
639.50 -707.42 6.16 
640.30 -707.51 6.28 
638.48 -708.46 6.24 
639.77 -708.34 6.38 
640.04 -712.45 6.96 
616.54 -714.12 3.77 
617.56 -714.16 3.86 
640.75 -707.26 6.72 
640.01 -707.34 6.93 
641.18 -707.41 6.82 
640.08 -712.41 3.27 
636.12 -710.07 3.03 
635.83 -710.00 2.98 
640.13 -711.87 3.79 
640.36 -712.02 3.84 
640.61 -712.59 3.93 
640.84 -712.55 3.96 
641.43 -712.77 4.07 
617.22 -714.36 0.98 
637.16 -710.03 3.41 
636.72 -710.15 3.36 
641.39 -711.96 4.20 
640.67 -712.50 4.16 
639.68 -713.16 4.09 
639.20 -713.20 4.03 
638.67 -714.39 4.08 
617.23 -713.32 1.18 
617.02 -714.09 1.23 
617.31 -714.21 1.28 
637.19 -707.30 3.55 
637.01 -707.43 3.55 
638.95 -707.66 4.10 
638.04 -708.30 4.06 
637.07 -709.11 3.77 
635.74 -709.84 3.68 
639.52 -707.79 3.95 
637.27 -709.09 3.80 
635.92 -709.83 3.71 
639.25 -708.46 4.24 
637.65 -709.94 3.96 
636.50 -710.38 3.86 
640.01 -708.99 4.41 
641.46 -708.90 4.60 
641.23 -709.27 4.62 
638.03 -711.13 4.17 
637.76 -711.64 4.20 
640.00 -710.92 4.43 
640.18 -711.01 4.46 
639.35 -711.65 4.42 
640.23 -711.43 4.53 
638.12 -713.44 4.48 
640.49 -712.48 4.70 
638.59 -713.44 4.55 
640.69 -712.80 4.77 
639.58 -713.39 4.68 
616.59 -712.97 1.72 
619.82 -712.45 2.02 
637.45 -707.57 4.31 
636.62 -708.30 4.31 
641.12 -706.08 4.61 
640.76 -706.36 4.60 
638.66 -707.50 4.47 
638.24 -707.59 4.43 
637.95 -707.83 4.42 
637.67 -707.82 4.38 
637.44 -708.24 4.41 
641.31 -706.26 4.67 
640.93 -706.35 4.63 
639.12 -707.50 4.54 
638.82 -707.60 4.51 
636.32 -709.43 3.97 
638.84 -708.27 4.62 
639.04 -708.41 4.67 
635.83 -710.58 4.06 
636.73 -710.37 4.15 
635.97 -710.78 4.10 
640.12 -709.93 4.55 
640.39 -711.15 4.75 
637.72 -714.17 4.77 
638.73 -713.95 4.88 
638.37 -714.23 4.62 
639.08 -713.91 4.92 
641.02 -714.00 4.97 
641.28 -715.03 5.14 
640.83 -715.21 5.10 
616.84 -713.06 2.12 
617.69 -712.86 2.19 
618.39 -713.36 2.33 
616.71 -714.80 1.95 
636.76 -708.69 4.67 
638.39 -708.51 4.59 
639.69 -708.08 4.96 
638.20 -709.08 4.65 
641.01 -707.85 5.10 
639.97 -708.32 5.03 
639.42 -708.96 4.80 
639.24 -709.02 4.79 
636.88 -710.06 4.61 
636.16 -710.77 4.62 
635.96 -710.73 4.59 
636.61 -710.70 4.67 
639.97 -710.22 5.32 
641.27 -710.11 5.49 
641.48 -710.05 5.51 
639.89 -711.11 5.20 
618.61 -711.13 2.63 
619.32 -710.94 2.68 
619.18 -711.62 2.76 
638.64 -705.87 5.14 
638.79 -706.04 5.19 
638.86 -706.60 5.29 
637.98 -707.40 5.04 
638.13 -707.76 5.12 
637.54 -708.12 5.10 
637.10 -708.14 5.05 
641.49 -706.07 5.32 
638.14 -707.90 5.15 
636.64 -708.97 5.13 
640.97 -707.02 5.65 
640.69 -707.48 5.45 
640.53 -707.73 5.47 
637.03 -709.39 5.26 
616.61 -712.18 2.58 
618.76 -711.24 3.08 
618.02 -712.45 2.76 
618.65 -712.76 2.87 
617.15 -716.08 3.18 
617.27 -716.35 3.23 
637.35 -706.12 5.38 
637.51 -706.91 5.56 
638.71 -707.06 5.35 
641.35 -706.69 6.08 
640.93 -706.58 5.99 
641.50 -706.66 6.10 
640.91 -707.42 5.71 
640.48 -707.73 5.71 
639.04 -708.27 5.61 
641.14 -707.43 5.74 
639.50 -708.53 5.72 
639.19 -708.59 5.69 
638.70 -709.15 5.72 
637.13 -710.53 5.47 
641.02 -709.56 5.87 
641.47 -709.97 6.01 
616.85 -712.72 3.10 
618.92 -712.90 3.32 
637.74 -706.97 5.90 
639.40 -706.31 5.98 
637.88 -707.26 5.68 
637.69 -707.29 5.66 
638.06 -707.53 5.76 
639.85 -707.47 6.27 
641.10 -707.06 6.12 
639.39 -707.89 6.29 
640.60 -709.55 6.54 
639.36 -712.52 6.40 
616.80 -711.63 3.46 
617.05 -713.22 3.73 
616.95 -714.14 3.87 
617.31 -714.39 3.94 
618.01 -714.34 4.00 
617.62 -714.44 3.98 
638.38 -706.02 6.16 
640.28 -707.48 6.77 
638.82 -708.73 6.39 
638.52 -708.34 6.71 
640.06 -708.02 7.13 
639.57 -708.45 7.16 
638.70 -708.96 6.88 
638.46 -706.95 7.07 
640.01 -707.30 7.39 
639.42 -707.61 7.38 
639.51 -712.34 3.36 
639.93 -712.96 3.47 
640.38 -713.02 3.54 
636.05 -709.79 3.15 
636.23 -709.81 3.18 
637.47 -710.04 3.38 
640.51 -711.87 4.01 
640.65 -711.92 4.03 
640.34 -712.21 4.02 
640.82 -712.58 4.13 
641.03 -712.53 4.15 
617.37 -713.40 1.07 
617.57 -713.62 1.11 
637.29 -707.25 3.71 
638.40 -707.04 3.84 
639.18 -707.08 3.96 
638.77 -707.15 3.91 
639.34 -707.04 3.97 
636.73 -709.30 3.43 
636.36 -710.28 3.48 
635.82 -710.68 3.45 
636.82 -711.40 3.66 
639.21 -711.91 4.05 
638.98 -711.90 4.01 
638.41 -713.04 4.05 
638.19 -712.92 4.01 
640.04 -712.78 4.26 
637.75 -714.55 4.12 
641.13 -714.63 4.60 
638.32 -716.14 4.14 
616.71 -713.52 1.30 
616.72 -714.41 1.38 
616.51 -714.26 1.35 
637.81 -707.68 3.84 
637.35 -707.64 4.01 
637.89 -708.05 4.14 
637.14 -708.62 4.11 
638.00 -708.99 4.03 
637.83 -708.93 4.00 
636.33 -709.62 3.88 
636.13 -710.09 3.91 
637.20 -709.56 4.24 
636.33 -710.22 3.96 
639.18 -708.92 4.43 
637.35 -710.15 4.09 
638.84 -709.76 4.49 
638.22 -710.33 4.24 
640.56 -709.50 4.69 
638.01 -710.95 4.29 
640.36 -711.01 4.64 
640.17 -711.10 4.62 
639.67 -711.61 4.62 
640.70 -712.47 4.88 
640.92 -712.53 4.92 
641.28 -713.87 5.15 
617.88 -712.82 1.99 
617.04 -713.07 1.92 
616.62 -713.22 1.89 
619.88 -712.56 2.18 
617.07 -714.65 2.12 
637.83 -707.63 4.51 
641.09 -706.30 4.78 
640.51 -706.48 4.72 
639.06 -707.44 4.65 
641.42 -706.23 4.82 
641.27 -706.27 4.81 
640.59 -706.90 4.80 
639.10 -707.71 4.70 
638.41 -708.23 4.68 
638.23 -708.27 4.66 
637.52 -708.54 4.60 
639.41 -708.38 4.85 
636.45 -710.32 4.24 
635.95 -710.63 4.21 
635.43 -710.85 4.17 
635.22 -710.95 4.16 
636.62 -710.58 4.29 
635.69 -710.89 4.21 
640.89 -708.58 5.10 
637.68 -712.10 4.63 
640.85 -711.54 5.00 
639.91 -712.42 4.98 
641.05 -712.14 5.10 
638.18 -713.96 4.94 
639.16 -714.39 4.90 
641.31 -714.87 5.28 
617.03 -713.23 2.29 
618.03 -713.79 2.47 
639.50 -706.03 5.14 
638.97 -706.34 4.71 
636.50 -708.34 4.69 
636.42 -708.57 4.72 
640.78 -707.15 5.08 
639.32 -708.45 5.08 
636.75 -710.04 4.72 
636.43 -710.13 4.69 
638.73 -709.60 4.94 
637.44 -710.35 4.87 
641.34 -709.12 5.25 
640.56 -709.65 5.22 
637.63 -711.27 5.04 
640.10 -710.12 5.33 
639.54 -710.43 5.42 
639.83 -711.06 5.32 
638.94 -711.44 5.25 
619.43 -710.91 2.80 
618.87 -711.37 2.81 
617.44 -712.16 2.77 
617.04 -712.38 2.76 
617.04 -712.85 2.83 
619.31 -713.15 3.10 
619.59 -713.29 3.15 
638.12 -706.33 5.25 
638.37 -707.22 5.44 
638.88 -707.33 5.27 
637.11 -708.27 5.19 
638.61 -707.96 5.35 
637.73 -708.43 5.30 
637.39 -708.49 5.27 
637.02 -708.58 5.23 
639.17 -708.15 5.46 
638.81 -708.28 5.43 
638.02 -708.57 5.37 
640.63 -707.52 5.79 
639.76 -708.03 5.53 
638.98 -708.43 5.49 
640.17 -708.29 5.64 
639.91 -708.39 5.62 
640.98 -711.84 5.83 
640.71 -712.94 5.96 
638.86 -705.91 5.66 
639.78 -705.98 5.81 
639.02 -706.13 5.72 
638.66 -706.79 5.80 
639.62 -707.32 6.05 
640.83 -707.86 5.88 
636.52 -710.24 5.45 
638.18 -710.04 5.66 
640.31 -710.02 5.97 
617.41 -711.06 3.51 
617.45 -711.39 3.56 
617.49 -711.61 3.60 
617.95 -711.63 3.65 
638.29 -707.03 6.06 
639.21 -708.41 6.21 
640.69 -707.97 6.57 
639.95 -709.77 6.60 
639.03 -712.24 6.41 
616.64 -711.72 3.55 
616.77 -712.98 3.76 
616.60 -713.68 3.86 
617.17 -713.58 3.89 
616.79 -714.48 4.00 
617.17 -714.31 4.01 
617.76 -715.59 4.27 
638.55 -706.00 6.28 
638.40 -706.39 6.34 
639.47 -706.24 6.47 
638.93 -706.48 6.44 
637.81 -708.28 6.68 
639.84 -707.45 6.80 
617.24 -710.95 4.37 
639.06 -707.06 7.27 
639.81 -706.99 7.37 
640.41 -707.22 7.53 
640.25 -707.69 7.62 
640.82 -707.86 7.75 
640.06 -707.92 7.64 
636.30 -709.86 3.38 
636.50 -710.09 3.43 
637.32 -710.14 3.55 
637.30 -710.91 3.63 
637.12 -710.83 3.60 
640.61 -711.80 4.20 
640.81 -711.87 4.24 
641.47 -712.53 4.40 
641.03 -712.52 4.34 
617.44 -713.43 1.29 
617.68 -713.57 1.33 
637.73 -707.14 3.92 
637.40 -707.26 3.89 
638.60 -707.17 4.05 
636.58 -708.98 3.55 
636.95 -709.24 3.63 
636.72 -709.42 3.61 
635.80 -710.05 3.56 
636.19 -710.38 3.65 
635.94 -710.57 3.63 
637.87 -710.27 3.86 
636.91 -711.29 3.84 
639.48 -711.39 4.21 
639.68 -711.49 4.25 
640.97 -712.06 4.49 
637.76 -713.66 4.21 
640.17 -712.80 4.46 
638.15 -714.52 4.36 
637.86 -714.76 4.35 
639.77 -715.05 4.64 
638.57 -715.99 4.36 
641.44 -714.64 4.83 
639.17 -717.01 4.77 
616.70 -714.32 1.58 
637.49 -707.29 4.14 
637.48 -707.56 4.17 
637.73 -708.50 4.33 
636.38 -709.54 4.05 
638.72 -708.65 4.48 
637.99 -709.00 4.20 
637.71 -708.93 4.15 
636.05 -710.55 4.37 
636.47 -710.61 4.43 
641.07 -709.28 4.90 
640.66 -709.52 4.87 
639.19 -710.65 4.81 
638.25 -710.96 4.50 
640.41 -710.89 4.81 
640.59 -710.97 4.84 
640.21 -711.08 4.80 
639.83 -711.61 4.81 
639.60 -711.56 4.77 
640.90 -712.43 5.08 
641.04 -712.48 5.11 
640.16 -713.24 5.08 
639.30 -714.09 5.06 
639.35 -714.25 5.09 
641.44 -713.89 5.35 
617.11 -713.11 2.12 
616.76 -713.18 2.08 
617.97 -712.79 2.17 
617.23 -714.48 2.30 
617.14 -714.74 2.32 
637.76 -707.57 4.64 
641.19 -706.32 4.96 
640.23 -706.65 4.86 
639.31 -707.23 4.81 
637.11 -708.17 4.64 
640.69 -706.80 4.96 
639.20 -707.78 4.88 
638.42 -707.95 4.79 
638.27 -708.17 4.81 
637.50 -708.44 4.74 
638.56 -708.27 4.87 
641.10 -707.78 5.17 
639.53 -708.37 5.02 
641.03 -708.38 5.25 
640.69 -708.87 5.28 
640.51 -709.29 5.31 
636.74 -711.74 4.62 
639.97 -712.43 5.15 
637.79 -714.10 5.07 
638.52 -714.21 5.19 
618.08 -713.55 2.62 
641.08 -705.58 5.45 
640.00 -708.02 5.25 
639.37 -708.60 5.25 
636.67 -710.00 4.86 
639.78 -708.83 5.34 
638.65 -709.33 5.26 
637.49 -710.16 5.00 
637.08 -710.11 4.94 
637.96 -710.73 5.16 
637.72 -711.23 5.20 
640.02 -710.22 5.38 
640.43 -712.13 5.74 
618.66 -711.34 2.93 
619.41 -711.03 2.96 
618.85 -711.50 2.97 
617.57 -712.13 2.93 
617.11 -712.41 2.93 
616.56 -712.79 2.93 
618.89 -712.35 3.09 
618.90 -712.94 3.18 
619.53 -713.33 3.30 
638.44 -707.25 5.57 
637.01 -708.05 5.27 
636.82 -707.98 5.23 
637.94 -707.86 5.37 
637.59 -708.24 5.39 
637.17 -708.10 5.31 
641.41 -706.48 5.66 
639.47 -707.52 5.54 
638.73 -707.96 5.51 
637.99 -708.47 5.49 
637.79 -708.36 5.44 
637.40 -708.58 5.42 
637.21 -708.87 5.45 
639.46 -707.78 5.59 
638.55 -708.20 5.75 
638.18 -708.53 5.53 
641.16 -707.33 5.77 
640.91 -707.73 5.80 
640.68 -707.74 5.96 
639.73 -708.32 5.73 
640.29 -708.26 5.80 
640.03 -708.33 5.77 
639.15 -708.80 5.72 
639.00 -709.47 5.82 
638.40 -709.64 5.76 
638.21 -709.89 5.78 
641.45 -709.40 6.19 
640.93 -709.93 6.20 
640.52 -709.99 6.15 
639.76 -714.02 6.15 
639.52 -715.68 6.16 
617.99 -711.55 3.29 
618.50 -713.12 3.56 
617.59 -715.86 3.47 
638.83 -705.68 5.73 
617.98 -716.80 3.65 
638.18 -706.32 5.77 
637.83 -706.38 5.73 
637.39 -707.66 5.92 
641.43 -706.66 6.35 
641.01 -706.88 6.32 
641.23 -707.30 6.45 
641.30 -707.52 6.50 
641.26 -708.98 6.27 
639.18 -710.11 6.18 
636.54 -713.02 6.10 
617.16 -711.58 3.69 
617.78 -711.54 3.74 
619.20 -711.57 3.87 
618.76 -711.79 3.86 
618.56 -712.20 3.91 
618.74 -712.33 3.95 
639.24 -708.26 6.32 
638.46 -708.89 6.33 
640.92 -707.81 6.50 
640.68 -708.01 6.59 
616.91 -713.69 4.01 
617.92 -715.48 4.40 
617.60 -715.50 4.37 
639.54 -706.22 6.60 
640.41 -706.16 6.73 
640.05 -707.50 6.97 
641.01 -707.58 7.15 
640.28 -708.13 7.15 
641.44 -707.84 7.28 
617.40 -710.72 4.43 
639.97 -706.82 7.47 
637.65 -708.81 7.14 
617.01 -712.51 4.73 
640.53 -707.53 7.74 
641.24 -712.68 3.78 
639.84 -712.14 3.75 
639.53 -712.14 3.70 
638.69 -707.35 3.81 
637.02 -707.93 3.64 
636.79 -709.49 3.56 
636.38 -709.83 3.54 
637.20 -709.79 3.65 
636.59 -710.10 3.60 
637.39 -710.12 3.71 
637.00 -710.35 3.68 
637.23 -710.82 3.77 
640.53 -711.78 4.34 
641.10 -712.46 4.50 
640.96 -712.47 4.48 
641.43 -712.52 4.55 
640.54 -713.24 4.50 
617.72 -714.47 1.59 
638.43 -707.03 4.15 
637.37 -707.38 4.04 
639.35 -707.02 4.29 
638.78 -707.20 4.23 
637.91 -707.72 4.17 
635.79 -709.89 3.68 
635.64 -709.75 3.65 
636.20 -710.15 3.77 
635.93 -710.69 3.79 
636.36 -710.51 3.83 
639.72 -711.29 4.38 
639.42 -711.33 4.34 
640.03 -711.70 4.46 
638.98 -711.86 4.34 
640.05 -711.79 4.48 
640.26 -712.82 4.62 
639.38 -713.52 4.57 
641.40 -712.90 4.79 
638.24 -714.54 4.52 
639.87 -714.87 4.78 
638.47 -716.04 4.50 
638.78 -716.38 4.59 
640.82 -715.33 4.97 
639.14 -717.03 4.92 
640.77 -706.53 4.62 
638.56 -708.60 4.58 
637.66 -709.01 4.30 
636.30 -709.91 4.23 
638.07 -709.15 4.38 
637.28 -709.95 4.37 
636.48 -710.30 4.52 
637.41 -710.11 4.41 
641.26 -708.67 4.97 
638.35 -710.17 4.55 
637.00 -710.92 4.68 
636.54 -711.43 4.68 
640.31 -710.96 4.95 
640.55 -711.12 5.00 
639.81 -711.56 4.95 
639.54 -711.56 4.91 
640.94 -712.38 5.23 
641.42 -713.84 5.49 
616.63 -712.01 2.06 
616.90 -712.22 2.11 
617.89 -712.83 2.30 
618.48 -713.33 2.43 
617.09 -714.17 2.38 
617.12 -714.74 2.45 
617.33 -714.93 2.50 
641.01 -706.06 5.20 
637.92 -707.57 4.80 
641.24 -706.26 5.10 
639.06 -707.18 4.91 
638.54 -708.20 4.99 
638.26 -708.14 4.93 
640.84 -707.16 5.18 
639.39 -708.11 5.10 
639.23 -708.22 5.09 
639.59 -708.27 5.15 
636.78 -709.94 5.00 
639.12 -709.21 5.23 
636.99 -710.07 5.05 
640.15 -709.22 5.39 
640.35 -709.18 5.41 
641.50 -709.07 5.58 
641.18 -709.29 5.56 
640.62 -709.64 5.53 
638.03 -711.78 4.93 
640.64 -714.90 5.51 
640.14 -716.70 5.67 
619.55 -711.18 3.10 
618.48 -713.90 2.83 
641.13 -705.76 5.62 
639.15 -707.04 5.53 
637.14 -708.55 5.05 
636.53 -708.86 5.02 
637.21 -709.67 5.23 
635.75 -710.37 5.15 
636.83 -710.27 5.05 
636.62 -710.20 5.01 
637.42 -710.26 5.14 
638.04 -710.66 5.29 
640.08 -710.12 5.52 
640.26 -710.16 5.55 
637.91 -711.59 5.42 
637.74 -711.72 5.41 
640.00 -710.95 5.63 
637.14 -712.91 5.51 
618.85 -711.72 3.10 
616.76 -712.41 3.00 
618.36 -712.21 3.13 
616.77 -712.87 3.06 
618.91 -713.29 3.34 
619.34 -713.46 3.41 
620.12 -713.69 3.52 
637.37 -706.87 5.45 
637.12 -708.00 5.40 
637.73 -707.80 5.45 
637.60 -708.27 5.52 
637.42 -708.29 5.50 
639.59 -707.57 5.70 
639.02 -707.57 5.61 
638.80 -707.93 5.64 
638.01 -708.41 5.60 
640.45 -707.56 6.00 
639.86 -707.95 5.81 
638.92 -708.05 5.68 
640.17 -708.11 5.89 
639.82 -708.21 5.93 
636.71 -709.97 5.69 
640.12 -708.30 5.91 
639.55 -708.66 5.89 
639.33 -708.95 5.90 
638.48 -709.44 5.86 
637.68 -709.78 5.80 
636.80 -710.20 5.75 
638.30 -709.91 5.92 
637.96 -710.30 5.94 
641.28 -709.41 6.30 
641.03 -709.84 6.33 
641.17 -712.76 6.27 
618.45 -713.19 3.66 
617.53 -715.85 3.57 
638.96 -705.48 5.83 
618.26 -716.21 3.70 
617.95 -716.33 3.69 
639.12 -705.89 5.94 
638.01 -706.46 5.88 
637.28 -706.83 6.06 
638.28 -706.63 5.96 
638.83 -706.71 6.06 
638.70 -706.89 6.08 
641.21 -707.38 6.59 
638.73 -712.32 6.42 
616.80 -711.66 3.75 
617.02 -711.71 3.77 
618.49 -711.68 3.90 
616.74 -712.65 3.90 
619.00 -711.76 3.96 
618.48 -712.21 3.98 
638.32 -706.15 6.49 
638.54 -706.33 6.57 
637.43 -707.29 6.17 
637.03 -707.51 6.16 
639.80 -708.36 6.55 
617.30 -715.42 4.41 
617.49 -715.65 4.47 
617.70 -715.83 4.52 
638.07 -707.05 6.66 
637.71 -707.20 6.64 
639.16 -707.22 7.04 
640.98 -707.64 7.28 
641.35 -707.55 7.33 
640.83 -708.06 7.35 
639.39 -708.62 7.23 
617.13 -710.87 4.48 
616.87 -711.75 4.63 
639.81 -706.85 7.56 
638.28 -708.59 7.74 
640.83 -712.35 3.88 
637.56 -707.18 3.80 
638.61 -707.08 3.94 
638.94 -707.16 3.99 
638.77 -707.21 3.97 
636.53 -709.46 3.91 
636.26 -709.62 3.78 
638.16 -708.95 4.08 
637.78 -709.09 4.04 
636.71 -709.71 3.96 
636.22 -709.81 3.69 
637.28 -709.90 4.06 
636.85 -710.24 3.83 
636.44 -710.18 3.76 
637.40 -710.11 3.89 
640.64 -711.91 4.56 
640.51 -711.91 4.54 
641.07 -712.52 4.69 
640.47 -713.31 4.68 
617.55 -713.53 1.64 
617.74 -713.63 1.67 
617.64 -714.47 1.74 
617.96 -714.46 2.06 
638.08 -706.98 4.27 
638.50 -706.95 4.32 
637.82 -707.71 4.32 
637.01 -710.39 4.07 
640.71 -710.95 4.65 
639.85 -711.58 4.60 
640.96 -711.44 4.74 
639.47 -715.80 5.00 
638.59 -716.42 4.95 
640.47 -716.70 5.24 
639.24 -707.35 4.67 
638.63 -708.17 4.69 
637.61 -708.99 4.46 
637.96 -708.98 4.51 
637.81 -709.03 4.49 
637.41 -709.31 4.47 
639.82 -708.36 4.89 
637.12 -710.00 4.52 
636.56 -710.37 4.49 
637.33 -710.07 4.56 
636.39 -710.68 4.51 
640.78 -709.46 5.17 
637.64 -711.04 4.74 
640.35 -710.17 5.20 
640.61 -710.96 5.34 
640.36 -711.11 5.15 
639.19 -711.52 5.21 
640.10 -711.45 5.16 
639.72 -711.61 5.12 
640.96 -712.44 5.42 
639.12 -714.28 5.38 
616.75 -712.09 2.22 
617.00 -712.20 2.26 
617.20 -712.52 2.65 
616.92 -712.76 2.32 
616.99 -713.25 2.39 
618.50 -712.99 2.53 
617.85 -713.17 2.48 
617.21 -713.28 2.42 
618.09 -713.27 2.52 
619.36 -713.47 2.68 
618.95 -713.63 2.98 
617.03 -714.23 2.52 
638.10 -707.21 4.93 
641.28 -706.21 5.28 
641.44 -706.20 5.30 
639.35 -707.43 5.15 
639.20 -707.58 5.15 
640.77 -707.09 5.33 
639.71 -707.67 5.41 
638.32 -708.18 5.11 
638.17 -708.24 5.10 
639.28 -708.21 5.26 
639.14 -708.35 5.26 
639.07 -709.04 5.36 
637.14 -709.93 5.21 
636.04 -710.51 5.13 
640.17 -708.74 5.49 
636.63 -710.36 5.20 
636.07 -710.60 5.15 
641.48 -709.14 5.76 
641.19 -709.22 5.72 
639.49 -714.20 5.61 
639.13 -715.99 5.61 
640.25 -716.63 5.86 
640.00 -716.65 5.82 
617.60 -710.87 2.96 
618.80 -711.11 3.12 
619.08 -712.06 3.29 
618.82 -711.98 3.25 
617.13 -713.08 2.71 
619.77 -712.19 3.38 
639.80 -705.74 5.57 
639.69 -705.97 5.59 
639.18 -705.91 5.65 
639.02 -707.11 5.68 
641.49 -706.54 5.99 
641.38 -706.84 6.03 
640.29 -708.22 5.58 
638.65 -709.25 5.50 
639.61 -709.18 5.63 
640.72 -708.76 5.73 
637.69 -710.57 5.39 
636.92 -711.05 5.35 
640.09 -710.15 5.69 
640.07 -710.26 5.71 
637.97 -711.11 5.51 
637.58 -711.41 5.50 
641.43 -710.06 6.04 
640.64 -710.05 5.92 
639.07 -711.53 5.75 
641.21 -711.44 6.07 
638.56 -714.11 6.07 
617.03 -712.62 3.16 
618.45 -712.19 3.24 
616.52 -714.35 3.36 
619.56 -713.28 3.52 
616.70 -714.45 3.40 
620.02 -713.36 3.58 
619.82 -713.27 3.54 
620.34 -713.76 3.67 
619.96 -714.04 3.67 
639.13 -705.34 5.98 
638.63 -705.37 5.91 
617.54 -716.23 3.74 
638.49 -706.34 5.62 
638.69 -706.60 5.70 
637.78 -707.65 5.76 
636.93 -708.04 5.53 
637.78 -708.03 5.65 
637.16 -708.39 5.62 
636.87 -708.61 5.62 
641.02 -707.00 6.00 
639.16 -708.01 5.87 
638.98 -708.05 5.85 
637.56 -708.58 5.72 
637.36 -708.60 5.69 
640.89 -707.25 6.02 
640.77 -707.42 6.03 
639.37 -708.01 5.90 
638.58 -708.49 5.86 
641.35 -707.54 6.15 
639.80 -708.24 6.01 
638.40 -709.13 5.95 
638.19 -709.17 5.92 
636.62 -709.98 5.83 
640.79 -708.28 6.18 
640.36 -708.64 6.18 
640.04 -708.52 6.24 
638.99 -709.27 6.07 
638.26 -709.53 6.00 
640.68 -708.65 6.23 
639.81 -709.41 6.22 
638.86 -709.66 6.12 
638.05 -711.19 6.26 
641.12 -709.75 6.50 
640.16 -716.31 6.66 
619.40 -710.56 3.87 
618.93 -711.06 3.91 
619.41 -711.10 3.97 
638.54 -706.04 6.03 
640.08 -705.65 6.21 
638.45 -706.55 6.11 
637.69 -706.75 6.03 
639.12 -706.43 6.34 
638.51 -706.72 6.16 
639.09 -706.96 6.30 
637.92 -707.68 6.26 
640.70 -706.65 6.62 
639.70 -707.22 6.46 
638.16 -707.81 6.32 
641.44 -706.77 6.67 
616.88 -711.86 3.86 
617.06 -711.95 3.90 
616.98 -712.16 3.92 
617.26 -712.37 3.98 
617.94 -712.44 4.06 
618.75 -712.35 4.11 
618.14 -715.36 4.57 
638.90 -706.56 6.83 
640.48 -706.28 7.04 
639.43 -706.49 6.90 
640.70 -706.33 7.10 
637.72 -709.03 6.50 
616.94 -710.57 4.46 
617.32 -710.83 4.54 
617.08 -710.80 4.52 
617.39 -711.18 4.61 
638.28 -707.17 6.86 
640.45 -706.79 7.15 
638.73 -707.51 7.01 
640.77 -707.30 7.32 
639.85 -707.63 7.24 
641.09 -707.82 7.58 
640.39 -708.16 7.45 
640.36 -708.92 7.61 
638.06 -712.03 7.17 
617.22 -712.22 4.79 
616.56 -714.09 5.09 
639.25 -706.78 7.58 
639.85 -706.98 7.74 
639.67 -707.03 7.72 
639.50 -707.26 7.75 
640.35 -707.51 7.96 
639.24 -707.85 7.85 
640.87 -712.28 3.57 
640.75 -712.30 4.07 
640.55 -712.39 4.05 
641.14 -712.73 4.16 
641.33 -712.84 4.20 
637.42 -710.15 3.63 
636.65 -710.16 3.52 
637.25 -711.15 3.69 
640.57 -711.71 4.20 
640.78 -711.76 4.23 
641.48 -712.25 4.37 
638.69 -707.27 4.15 
637.88 -708.97 4.22 
637.63 -708.95 4.19 
636.59 -709.59 4.11 
636.12 -709.79 3.87 
638.07 -709.03 4.26 
636.44 -710.12 3.95 
637.34 -709.96 4.26 
636.74 -710.39 4.12 
637.16 -710.32 4.27 
636.97 -710.37 4.25 
638.52 -710.29 4.46 
636.99 -711.01 4.12 
638.74 -710.56 4.52 
640.65 -711.93 4.76 
640.41 -712.24 4.76 
641.02 -712.49 4.87 
640.42 -713.27 4.87 
617.61 -713.59 1.82 
617.57 -713.60 1.82 
617.89 -713.57 2.13 
617.06 -714.17 1.81 
617.69 -714.47 2.06 
617.94 -714.47 2.23 
638.30 -706.99 4.49 
637.95 -707.16 4.46 
637.30 -707.37 4.39 
640.02 -707.91 4.87 
637.94 -708.93 4.69 
637.56 -709.05 4.65 
637.18 -708.92 4.57 
637.78 -709.03 4.68 
638.37 -710.98 4.51 
639.83 -711.56 4.78 
639.62 -711.53 4.75 
640.98 -712.42 5.04 
640.22 -713.28 5.03 
639.42 -714.15 5.01 
639.78 -715.53 5.21 
638.42 -716.14 4.89 
616.61 -712.12 2.35 
616.77 -712.54 2.42 
638.10 -707.70 4.73 
638.87 -708.39 4.93 
638.59 -708.30 4.88 
639.75 -708.42 5.06 
637.13 -710.08 4.72 
636.95 -710.21 4.71 
636.57 -710.37 4.68 
637.52 -710.02 4.77 
637.34 -710.10 4.75 
636.40 -710.56 4.68 
637.09 -710.94 4.83 
638.43 -710.88 5.20 
638.27 -711.71 5.28 
640.54 -710.96 5.43 
640.23 -711.08 5.32 
639.62 -711.59 5.29 
639.91 -711.62 5.34 
641.32 -711.83 5.59 
640.91 -712.44 5.61 
616.89 -712.16 2.71 
617.09 -713.25 2.55 
618.14 -712.95 2.94 
617.82 -713.31 2.64 
617.71 -713.09 2.60 
618.12 -713.56 2.70 
617.08 -714.28 2.68 
616.81 -714.37 2.66 
618.45 -714.33 2.84 
638.23 -707.18 5.13 
637.99 -707.28 5.10 
641.37 -706.23 5.49 
641.15 -706.26 5.46 
639.20 -707.38 5.31 
639.12 -707.66 5.34 
638.46 -708.11 5.31 
637.69 -708.66 5.43 
641.22 -707.72 5.81 
640.67 -707.86 5.63 
639.09 -708.41 5.45 
637.69 -709.03 5.33 
640.53 -708.31 5.74 
639.01 -708.98 5.53 
638.12 -709.32 5.44 
637.25 -709.97 5.41 
637.04 -709.86 5.36 
636.66 -710.02 5.33 
636.51 -710.32 5.35 
635.94 -710.59 5.31 
640.22 -708.98 5.72 
637.53 -710.47 5.53 
641.34 -709.14 5.93 
641.12 -709.26 5.91 
640.33 -709.81 5.87 
640.10 -710.05 5.87 
639.95 -710.28 5.88 
641.22 -713.25 5.92 
640.36 -716.77 6.09 
640.02 -716.70 6.03 
639.80 -717.09 6.22 
640.66 -716.96 6.16 
617.01 -710.88 3.02 
617.76 -711.14 3.14 
617.43 -711.09 3.10 
616.66 -711.67 3.10 
619.59 -710.95 3.30 
618.62 -711.95 3.35 
618.19 -712.23 3.34 
619.87 -711.68 3.44 
618.76 -712.09 3.38 
618.97 -713.31 3.58 
617.36 -714.74 3.08 
620.35 -713.77 3.80 
639.62 -705.80 5.74 
639.17 -705.98 5.81 
641.30 -705.85 6.04 
637.33 -707.52 5.67 
641.51 -705.89 6.08 
637.24 -708.04 5.74 
641.45 -706.34 6.15 
639.02 -707.62 5.96 
639.54 -708.86 5.74 
638.84 -709.30 5.70 
637.36 -710.31 5.65 
636.96 -710.95 5.52 
637.20 -711.20 5.59 
638.43 -711.11 5.77 
636.85 -711.62 5.60 
637.93 -711.65 5.77 
641.41 -711.10 6.24 
636.83 -713.25 5.86 
641.26 -711.21 6.24 
640.26 -714.38 6.56 
619.35 -711.52 3.71 
617.11 -712.91 3.33 
617.07 -712.89 3.32 
617.02 -714.18 3.51 
616.63 -714.39 3.50 
618.42 -713.97 3.62 
618.02 -714.23 3.62 
619.79 -713.90 3.76 
639.10 -705.50 6.19 
638.69 -705.81 6.18 
617.57 -715.94 3.83 
618.31 -716.06 3.93 
618.50 -716.30 3.98 
637.09 -708.29 5.77 
639.21 -707.65 6.00 
638.69 -707.81 5.94 
637.76 -708.00 5.82 
637.66 -708.45 5.88 
637.29 -708.48 5.83 
636.93 -708.47 5.77 
641.18 -707.16 6.25 
641.03 -707.19 6.27 
638.93 -708.08 6.03 
638.61 -708.45 6.04 
637.86 -708.41 5.91 
641.36 -707.36 6.40 
640.86 -707.45 6.24 
640.74 -707.62 6.25 
640.09 -708.19 6.24 
639.63 -708.03 6.19 
639.39 -708.48 6.17 
638.51 -708.77 6.15 
638.12 -708.92 6.04 
640.71 -708.24 6.35 
638.40 -709.19 6.14 
636.73 -709.81 5.98 
636.46 -710.05 5.98 
640.56 -708.47 6.37 
640.43 -708.60 6.37 
638.99 -709.27 6.25 
638.03 -710.41 6.30 
641.11 -709.53 6.65 
641.43 -710.00 6.79 
639.22 -716.43 6.72 
640.42 -716.36 6.90 
618.99 -710.65 3.95 
619.50 -710.86 4.03 
617.18 -711.91 3.99 
618.17 -712.00 4.10 
617.87 -712.07 4.08 
617.49 -712.40 4.10 
618.80 -712.26 4.20 
618.49 -712.44 4.20 
619.34 -712.17 4.24 
618.96 -712.53 4.26 
616.75 -714.36 3.87 
638.53 -706.02 6.20 
638.22 -706.07 6.15 
640.04 -705.66 6.39 
639.90 -705.70 6.37 
638.96 -706.26 6.42 
638.48 -706.55 6.29 
637.73 -706.77 6.21 
639.11 -706.91 6.48 
637.37 -707.74 6.35 
641.32 -706.66 6.82 
639.73 -707.17 6.64 
641.03 -707.02 6.84 
641.39 -707.43 6.99 
639.54 -708.50 6.87 
641.37 -707.98 7.10 
638.46 -711.32 6.67 
639.65 -713.16 7.05 
641.44 -713.45 7.51 
617.18 -711.84 4.39 
640.46 -706.09 7.19 
638.19 -707.12 7.00 
640.67 -706.06 7.22 
640.47 -706.32 7.24 
638.12 -711.44 7.23 
616.89 -710.33 4.48 
617.94 -711.22 4.73 
617.70 -711.20 4.70 
617.45 -711.17 4.68 
616.91 -711.73 4.74 
616.88 -712.18 4.82 
638.97 -707.45 7.21 
639.80 -707.62 7.40 
638.76 -708.20 7.35 
637.97 -708.89 7.36 
641.13 -707.59 7.65 
640.70 -708.16 7.69 
640.54 -708.17 7.66 
638.46 -709.40 7.56 
640.36 -708.95 7.81 
616.73 -714.58 5.27 
638.61 -706.25 7.50 
639.69 -706.83 7.85 
639.42 -707.23 7.90 
640.23 -707.39 8.10 
639.33 -707.62 7.98 
640.07 -712.49 3.67 
639.78 -712.71 3.65 
640.45 -712.89 3.75 
640.69 -713.05 3.79 
641.07 -712.19 4.31 
640.86 -712.24 4.28 
641.42 -712.56 4.39 
617.00 -713.64 1.33 
617.03 -714.06 1.37 
636.29 -709.89 3.64 
635.92 -710.17 3.61 
639.84 -711.85 4.30 
640.06 -711.94 4.34 
640.77 -712.46 4.49 
640.38 -712.75 4.46 
637.93 -714.29 4.25 
640.74 -713.75 4.59 
639.18 -717.63 4.71 
618.01 -713.64 2.04 
617.77 -713.58 2.00 
637.06 -707.82 4.17 
637.91 -707.56 4.26 
638.78 -707.56 4.38 
639.76 -708.29 4.60 
636.96 -709.25 4.31 
635.48 -710.00 4.18 
637.38 -709.65 4.22 
636.81 -710.03 4.37 
635.87 -710.39 4.28 
637.56 -709.95 4.47 
636.35 -710.47 4.35 
637.82 -710.92 4.61 
637.39 -710.84 4.35 
640.92 -711.71 4.97 
640.75 -712.20 5.00 
641.45 -712.33 5.12 
641.26 -712.36 5.09 
617.13 -713.56 2.19 
616.95 -713.45 2.16 
617.92 -714.45 2.11 
640.31 -707.76 5.10 
638.19 -708.83 4.90 
637.82 -708.94 4.86 
639.80 -710.83 4.89 
637.66 -711.80 4.69 
636.68 -712.04 4.57 
640.03 -711.07 4.95 
638.91 -711.76 4.86 
638.58 -711.60 4.80 
639.10 -711.78 4.89 
638.25 -713.62 4.97 
640.57 -713.16 5.25 
638.50 -714.40 5.09 
641.43 -714.27 5.50 
641.17 -714.28 5.46 
640.12 -714.77 5.36 
640.05 -715.72 5.46 
617.52 -713.28 2.74 
618.03 -713.21 2.79 
618.42 -713.51 2.87 
620.16 -713.44 3.07 
637.47 -707.83 4.83 
641.17 -706.63 5.22 
640.82 -706.63 5.17 
638.89 -707.68 5.02 
638.55 -707.81 4.98 
641.42 -706.92 5.30 
637.90 -708.33 4.95 
638.82 -708.51 5.11 
636.68 -709.52 4.77 
637.81 -709.49 5.10 
636.21 -710.22 4.96 
637.48 -710.07 4.96 
637.19 -710.15 4.92 
636.58 -710.36 4.95 
641.10 -708.82 5.50 
640.94 -708.97 5.49 
637.09 -710.57 5.14 
637.34 -711.02 5.23 
637.18 -711.51 5.27 
636.98 -711.70 5.27 
640.71 -710.89 5.57 
640.49 -710.82 5.60 
639.97 -711.22 5.64 
638.76 -711.59 5.51 
640.36 -711.16 5.69 
640.11 -711.36 5.58 
639.80 -711.59 5.52 
617.46 -712.81 2.98 
616.61 -713.19 2.94 
617.34 -714.21 2.84 
616.77 -714.33 2.78 
617.67 -714.59 2.92 
617.68 -714.67 2.93 
641.44 -706.13 5.69 
639.18 -706.99 5.44 
638.50 -707.08 5.34 
638.33 -707.28 5.35 
640.99 -706.75 5.71 
639.44 -707.23 5.52 
639.36 -707.50 5.55 
640.97 -707.18 5.77 
639.59 -707.58 5.60 
638.79 -708.06 5.61 
637.25 -708.50 5.51 
638.19 -708.92 5.58 
637.45 -708.89 5.60 
640.92 -708.07 5.90 
639.33 -708.84 5.75 
638.57 -708.90 5.64 
637.15 -709.58 5.52 
639.85 -708.61 5.92 
637.60 -709.82 5.62 
637.44 -709.84 5.60 
636.95 -710.06 5.56 
636.33 -710.44 5.52 
637.98 -710.45 5.78 
636.83 -710.85 5.66 
640.69 -709.66 6.10 
640.44 -709.67 6.06 
640.44 -716.56 6.27 
617.39 -710.67 3.15 
617.90 -710.61 3.19 
618.89 -710.94 3.34 
618.64 -710.98 3.32 
616.73 -711.48 3.20 
617.45 -712.04 3.35 
618.95 -712.00 3.51 
618.40 -712.13 3.47 
617.26 -712.96 3.47 
620.35 -711.67 3.61 
619.79 -712.27 3.64 
618.44 -712.49 3.53 
617.47 -712.97 3.50 
618.98 -712.78 3.63 
620.31 -713.02 3.81 
639.82 -705.72 5.95 
638.08 -706.57 5.91 
620.05 -714.69 4.04 
637.72 -707.32 5.88 
638.00 -707.70 5.99 
637.70 -708.03 6.00 
639.30 -707.58 6.19 
637.72 -709.93 5.80 
637.19 -710.08 5.75 
636.44 -710.57 5.72 
641.08 -709.70 6.28 
638.26 -710.97 5.91 
636.74 -711.67 5.78 
638.91 -711.02 6.02 
637.98 -711.46 5.94 
636.25 -711.95 5.91 
638.65 -711.58 6.06 
641.48 -711.50 6.51 
640.85 -712.12 6.62 
618.71 -711.35 3.73 
616.55 -712.64 3.71 
618.45 -713.12 3.96 
616.89 -714.33 3.64 
638.89 -705.28 6.30 
639.43 -705.35 6.42 
638.68 -705.83 6.38 
617.34 -715.61 3.88 
640.14 -706.66 6.25 
639.03 -707.35 6.20 
639.22 -707.93 6.24 
638.17 -708.28 6.12 
637.55 -708.51 6.06 
637.17 -708.53 6.00 
641.46 -707.04 6.48 
641.21 -707.14 6.48 
641.03 -707.50 6.48 
640.00 -707.94 6.38 
639.42 -708.05 6.30 
638.91 -708.28 6.25 
637.86 -708.58 6.12 
640.54 -707.87 6.46 
640.35 -708.15 6.47 
639.70 -708.29 6.39 
638.93 -708.73 6.38 
638.65 -709.06 6.34 
638.31 -709.06 6.40 
636.76 -709.91 6.18 
640.09 -709.43 6.74 
641.32 -709.52 6.89 
640.44 -709.98 6.81 
640.96 -714.05 6.94 
640.24 -716.20 7.03 
619.42 -710.86 4.12 
617.30 -711.98 4.11 
616.92 -711.80 4.05 
619.58 -711.32 4.22 
617.84 -711.98 4.16 
617.47 -712.12 4.15 
616.79 -712.56 4.16 
617.94 -712.26 4.22 
619.17 -712.19 4.33 
619.56 -712.50 4.42 
619.22 -712.74 4.43 
617.75 -713.19 4.36 
619.74 -712.91 4.51 
620.07 -712.96 4.55 
638.73 -705.90 6.40 
640.42 -705.62 6.66 
640.26 -705.66 6.63 
638.89 -705.95 6.44 
638.03 -706.62 6.42 
641.33 -705.52 6.81 
639.92 -705.98 6.63 
639.20 -706.33 6.57 
637.79 -707.38 6.58 
637.57 -707.56 6.62 
640.42 -706.65 6.86 
638.37 -707.62 6.68 
637.76 -707.70 6.59 
641.18 -706.59 6.99 
637.56 -708.64 6.74 
638.91 -708.52 6.96 
640.11 -711.74 7.07 
637.48 -712.63 6.79 
639.78 -713.12 7.26 
637.79 -714.47 7.17 
639.53 -714.72 7.50 
616.52 -711.92 4.43 
639.15 -706.44 7.21 
640.73 -706.13 7.45 
638.58 -707.03 7.24 
641.01 -706.35 7.55 
640.85 -706.37 7.53 
616.94 -710.92 4.66 
617.08 -711.21 4.73 
616.85 -712.06 4.88 
618.41 -711.49 4.90 
618.08 -711.67 4.90 
617.71 -711.96 4.93 
617.21 -711.93 4.88 
618.20 -713.54 5.28 
617.81 -713.60 5.25 
638.58 -707.63 7.37 
640.88 -706.96 7.67 
640.08 -707.49 7.63 
639.05 -708.03 7.55 
638.04 -708.59 7.49 
640.71 -707.59 7.77 
639.56 -708.31 7.71 
638.60 -708.52 7.58 
638.46 -708.74 7.60 
638.69 -712.56 7.73 
616.79 -711.26 5.15 
618.65 -714.39 5.48 
618.33 -714.45 5.47 
640.11 -706.70 8.10 
639.49 -707.10 8.08 
639.69 -707.12 8.12 
640.75 -707.39 8.40 
639.50 -707.77 8.25 
616.56 -711.93 5.63 
640.17 -712.44 3.92 
639.97 -712.51 3.89 
640.59 -712.94 4.01 
618.17 -713.80 1.45 
618.26 -714.08 1.49 
641.04 -712.22 4.53 
617.28 -713.78 1.56 
617.29 -714.17 1.59 
636.05 -710.12 3.84 
636.47 -710.36 3.92 
636.72 -711.44 4.05 
640.01 -711.89 4.56 
638.32 -713.04 4.41 
640.42 -712.77 4.69 
640.59 -712.73 4.71 
640.06 -713.34 4.69 
640.85 -713.77 4.84 
639.39 -717.50 4.95 
639.22 -717.73 4.94 
640.43 -717.62 5.11 
640.39 -717.60 5.10 
617.87 -713.57 2.17 
617.93 -714.04 2.23 
617.99 -714.41 2.28 
641.32 -705.81 4.79 
637.67 -707.34 4.41 
638.67 -707.19 4.54 
638.04 -707.56 4.49 
638.91 -707.56 4.62 
637.38 -709.19 4.57 
637.20 -709.26 4.55 
635.94 -709.74 4.42 
636.51 -709.70 4.32 
635.60 -710.00 4.40 
637.79 -709.74 4.69 
637.18 -710.16 4.47 
636.36 -710.47 4.56 
635.78 -710.40 4.47 
637.75 -710.02 4.54 
637.94 -710.66 4.81 
639.99 -710.89 5.14 
640.86 -711.73 5.20 
640.79 -712.12 5.23 
641.43 -712.35 5.35 
640.89 -713.16 5.36 
617.20 -713.60 2.35 
616.63 -714.14 2.34 
617.22 -714.51 2.45 
638.30 -706.88 4.89 
638.87 -706.89 4.98 
637.97 -707.33 4.90 
637.75 -707.48 4.88 
637.82 -708.43 5.02 
637.71 -708.64 5.03 
636.74 -709.41 4.98 
636.95 -709.49 5.02 
639.26 -711.57 5.11 
638.98 -711.73 5.08 
637.14 -712.75 4.93 
636.96 -712.68 4.89 
640.50 -712.57 5.40 
640.81 -713.20 5.51 
638.73 -714.36 5.33 
640.23 -714.75 5.60 
639.28 -715.88 5.58 
640.67 -715.63 5.76 
619.10 -712.54 2.97 
618.08 -713.28 2.94 
617.61 -713.30 2.89 
618.21 -713.56 2.99 
617.43 -714.22 2.99 
616.93 -714.31 2.94 
618.36 -714.39 3.12 
618.20 -714.26 3.08 
618.61 -715.13 3.24 
620.33 -714.75 3.41 
641.06 -706.60 5.42 
640.89 -706.59 5.39 
638.86 -707.72 5.23 
637.91 -708.41 5.17 
637.54 -709.42 5.10 
637.17 -709.65 5.07 
637.43 -709.76 5.13 
636.47 -710.32 5.21 
637.82 -709.85 5.20 
636.65 -710.70 5.13 
636.32 -710.82 5.26 
641.00 -709.07 5.74 
640.51 -709.40 5.70 
639.04 -709.88 5.40 
639.66 -710.11 5.66 
637.66 -710.98 5.48 
640.83 -709.96 5.82 
637.88 -711.11 5.53 
637.31 -711.45 5.49 
637.56 -711.87 5.58 
640.72 -710.96 5.81 
640.29 -711.13 5.90 
640.05 -711.30 5.81 
640.25 -711.46 5.80 
640.62 -712.00 5.93 
617.36 -713.07 3.13 
616.72 -713.26 3.08 
616.64 -714.25 3.20 
618.90 -713.57 3.37 
618.14 -714.08 3.34 
616.95 -714.79 3.30 
637.49 -706.85 5.36 
639.20 -706.98 5.67 
637.78 -707.33 5.49 
641.48 -706.12 5.94 
641.14 -706.51 6.01 
640.55 -706.98 5.91 
639.55 -707.51 5.81 
638.67 -707.97 5.74 
638.24 -708.11 5.68 
637.18 -708.50 5.69 
641.03 -707.23 6.03 
639.57 -708.14 5.96 
638.49 -708.28 5.75 
637.50 -708.90 5.80 
639.33 -708.35 6.00 
637.04 -709.43 5.69 
636.90 -709.57 5.69 
640.64 -708.20 6.11 
639.09 -709.04 6.07 
638.83 -709.04 6.03 
637.30 -709.63 5.76 
640.59 -708.65 6.17 
639.25 -709.29 6.14 
636.63 -710.56 5.80 
636.31 -710.49 5.73 
637.86 -710.24 5.95 
636.94 -710.65 5.86 
640.70 -709.70 6.34 
640.37 -709.64 6.28 
639.33 -713.78 6.10 
639.57 -713.92 6.15 
639.83 -717.12 6.61 
616.86 -711.31 3.30 
618.90 -712.12 3.64 
618.51 -712.41 3.64 
618.29 -712.47 3.63 
617.33 -713.03 3.61 
616.86 -712.97 3.55 
620.53 -711.90 3.79 
620.19 -712.36 3.82 
619.91 -712.40 3.80 
619.22 -712.39 3.72 
618.91 -712.60 3.71 
617.52 -713.08 3.63 
619.34 -712.77 3.79 
617.50 -713.78 3.74 
617.07 -714.23 3.76 
619.87 -713.96 4.03 
619.98 -714.27 4.09 
620.03 -714.76 4.17 
639.11 -707.25 6.33 
637.69 -707.89 6.19 
637.55 -708.07 6.20 
639.47 -707.48 6.44 
638.10 -707.94 6.27 
637.92 -707.98 6.25 
636.15 -710.28 5.82 
637.52 -710.29 6.02 
636.57 -710.42 5.90 
640.78 -710.10 6.51 
636.91 -711.52 5.99 
638.94 -711.08 6.26 
637.95 -711.45 6.15 
638.84 -711.57 6.32 
640.67 -711.33 6.68 
641.01 -712.08 6.85 
640.88 -713.02 6.88 
639.01 -713.60 6.65 
638.62 -713.87 6.63 
617.44 -711.25 3.69 
617.28 -711.15 3.66 
617.92 -711.36 3.75 
619.97 -710.99 4.30 
619.56 -710.97 4.26 
616.65 -713.02 3.87 
639.49 -705.21 6.64 
617.30 -715.51 3.97 
638.60 -707.18 6.30 
617.42 -715.75 4.02 
637.48 -707.95 6.26 
618.34 -716.04 4.17 
617.76 -716.33 4.15 
617.61 -716.05 4.09 
640.95 -706.76 6.62 
639.70 -707.59 6.50 
637.48 -708.53 6.27 
641.27 -707.14 6.73 
640.21 -707.81 6.63 
639.44 -707.86 6.49 
640.40 -707.98 6.72 
640.12 -708.22 6.71 
639.71 -708.07 6.58 
639.00 -708.40 6.51 
638.73 -708.70 6.52 
638.52 -708.75 6.49 
640.85 -708.37 6.84 
639.56 -708.58 6.71 
639.27 -708.87 6.71 
638.24 -709.12 6.51 
636.71 -710.04 6.41 
639.16 -709.38 6.71 
637.90 -709.93 6.59 
637.11 -709.98 6.46 
636.89 -710.08 6.44 
637.02 -710.48 6.54 
641.46 -709.36 7.13 
640.93 -709.60 7.12 
640.65 -710.04 7.10 
637.70 -711.56 6.85 
637.55 -711.94 6.89 
617.34 -712.12 4.23 
617.51 -712.21 4.26 
616.76 -712.59 4.25 
618.67 -712.35 4.41 
617.36 -712.92 4.37 
617.66 -713.01 4.42 
617.63 -713.14 4.43 
619.42 -712.85 4.57 
620.30 -712.96 4.68 
619.60 -712.99 4.61 
640.32 -705.48 6.85 
638.13 -706.47 6.63 
639.36 -706.30 6.83 
638.80 -706.38 6.74 
638.39 -706.46 6.67 
639.76 -706.48 6.95 
639.31 -706.70 6.90 
638.94 -706.68 6.82 
640.47 -706.74 7.13 
638.59 -707.40 6.90 
638.36 -707.29 6.84 
640.17 -706.98 7.12 
638.97 -707.87 7.06 
637.63 -708.56 6.96 
641.10 -707.56 7.41 
638.36 -709.10 7.19 
638.18 -709.16 7.18 
637.62 -709.31 7.10 
637.76 -711.54 6.95 
638.85 -711.83 7.09 
618.27 -711.25 4.91 
617.90 -711.11 4.85 
618.48 -711.37 4.95 
617.79 -712.17 4.65 
618.16 -712.50 4.74 
640.83 -705.93 7.68 
640.79 -706.20 7.73 
638.82 -707.12 7.53 
639.76 -709.97 7.66 
616.53 -711.52 4.81 
617.18 -711.66 4.89 
616.64 -711.71 4.85 
617.90 -711.61 4.95 
617.40 -711.70 4.92 
618.50 -711.78 5.04 
617.99 -711.97 5.03 
618.23 -713.13 5.27 
617.83 -713.51 5.31 
640.24 -707.86 7.98 
640.88 -707.83 8.10 
640.80 -708.73 8.28 
617.55 -710.78 5.50 
638.96 -706.15 7.97 
640.32 -706.68 8.39 
640.18 -706.88 8.41 
639.76 -707.08 8.37 
640.77 -707.27 8.63 
639.69 -707.68 8.50 
638.80 -708.45 8.50 
638.19 -708.42 8.37 
617.30 -713.99 0.91 
617.07 -713.92 0.87 
640.36 -712.66 4.13 
640.74 -712.92 4.20 
618.21 -713.83 1.60 
618.29 -714.15 1.64 
640.98 -712.24 4.70 
617.15 -713.64 1.67 
617.16 -714.11 1.71 
636.74 -710.13 4.11 
636.26 -710.14 4.04 
636.84 -710.43 4.15 
635.93 -710.68 4.04 
636.77 -711.30 4.21 
640.13 -711.86 4.74 
639.97 -711.85 4.72 
638.30 -713.02 4.58 
640.59 -712.78 4.89 
640.06 -713.27 4.85 
638.05 -714.32 4.65 
640.06 -717.55 5.21 
617.94 -713.55 2.30 
617.91 -714.27 2.37 
641.35 -705.71 4.96 
641.44 -705.85 4.99 
636.91 -709.00 4.64 
636.74 -708.92 4.61 
637.21 -709.28 4.72 
636.46 -709.65 4.47 
635.80 -710.06 4.59 
636.00 -710.18 4.64 
637.69 -709.95 4.78 
637.16 -710.08 4.63 
636.39 -710.32 4.71 
638.09 -711.27 5.06 
639.89 -710.85 5.29 
638.42 -711.47 5.13 
640.98 -711.69 5.39 
640.80 -711.80 5.37 
640.74 -712.18 5.40 
641.38 -712.34 5.52 
617.08 -713.48 2.44 
617.24 -713.59 2.47 
617.12 -714.42 2.54 
617.30 -714.51 2.58 
638.20 -706.96 5.06 
637.74 -708.44 5.18 
638.22 -708.89 5.31 
637.89 -709.06 5.28 
637.08 -709.46 5.20 
636.79 -711.89 4.94 
638.87 -711.65 5.22 
639.39 -711.73 5.31 
637.11 -712.68 5.07 
640.81 -713.17 5.68 
639.57 -713.50 5.52 
640.27 -714.75 5.76 
640.85 -716.04 5.99 
618.11 -713.30 3.05 
617.65 -713.34 3.00 
617.06 -714.24 3.04 
616.56 -714.18 2.97 
617.50 -714.28 3.10 
617.90 -714.57 3.19 
618.48 -714.88 3.30 
640.97 -706.72 5.59 
638.21 -707.79 5.29 
618.66 -715.08 3.35 
641.28 -706.87 5.66 
638.85 -708.15 5.44 
638.93 -708.55 5.50 
636.95 -709.58 5.20 
636.27 -710.26 5.32 
639.28 -709.12 5.63 
637.66 -709.91 5.35 
637.48 -710.07 5.34 
636.98 -710.33 5.30 
636.67 -710.25 5.38 
636.12 -710.35 5.31 
641.17 -709.03 5.92 
640.58 -709.34 5.87 
636.65 -710.63 5.29 
640.66 -710.66 6.05 
639.15 -711.19 5.89 
636.16 -712.41 5.59 
640.72 -710.96 5.99 
636.13 -712.45 5.59 
640.32 -711.41 5.98 
640.14 -711.44 5.95 
638.21 -712.42 5.90 
637.82 -712.61 5.87 
638.03 -712.56 5.89 
640.59 -712.00 6.10 
639.80 -713.16 6.25 
641.07 -714.58 6.51 
640.97 -714.87 6.53 
616.79 -711.89 3.00 
616.55 -713.20 3.14 
617.44 -713.02 3.22 
617.39 -713.02 3.21 
617.81 -713.29 3.30 
618.30 -713.56 3.39 
637.52 -706.86 5.54 
641.01 -706.13 6.10 
641.25 -706.31 6.17 
641.13 -706.38 6.16 
639.78 -707.28 6.00 
639.47 -707.43 5.97 
638.81 -707.83 5.92 
638.14 -708.05 5.83 
639.11 -708.10 6.09 
638.64 -708.07 5.92 
638.37 -708.15 5.89 
639.69 -708.19 6.12 
639.39 -708.29 6.12 
637.82 -708.77 5.98 
637.01 -709.38 5.84 
641.03 -708.14 6.35 
640.64 -708.21 6.30 
637.26 -709.63 5.92 
640.60 -708.66 6.35 
639.10 -709.13 6.24 
638.67 -709.32 6.20 
637.02 -710.11 5.96 
636.69 -710.39 5.95 
636.32 -710.52 5.90 
637.88 -710.20 6.11 
636.52 -710.55 5.94 
640.64 -709.69 6.52 
637.03 -710.81 6.06 
641.29 -713.64 6.54 
617.09 -711.12 3.70 
616.83 -711.12 3.50 
618.43 -711.82 3.63 
616.80 -712.66 3.57 
619.19 -711.86 3.72 
618.91 -712.14 3.88 
618.54 -712.36 3.72 
618.52 -712.50 3.74 
617.48 -713.06 3.70 
620.35 -712.34 3.93 
620.08 -712.39 3.90 
620.69 -712.53 4.00 
619.40 -713.11 3.93 
618.65 -713.31 3.88 
617.19 -714.18 3.84 
638.30 -706.58 6.29 
619.83 -713.93 4.11 
639.48 -706.42 6.46 
619.97 -714.24 4.17 
640.77 -706.59 6.72 
638.63 -707.26 6.47 
637.96 -707.54 6.35 
637.61 -707.88 6.35 
637.55 -710.32 6.18 
641.44 -709.62 6.71 
640.36 -709.90 6.57 
637.91 -711.11 6.26 
636.98 -711.79 6.32 
640.26 -710.95 6.64 
638.77 -711.60 6.48 
638.83 -712.55 6.63 
636.74 -713.27 6.51 
639.43 -713.65 6.90 
619.74 -711.06 4.36 
619.54 -711.10 4.34 
620.09 -711.02 4.39 
619.26 -711.31 4.35 
618.97 -713.18 4.19 
637.62 -708.19 6.46 
637.23 -708.47 6.38 
640.51 -707.58 6.85 
639.52 -707.77 6.68 
639.15 -707.81 6.62 
638.44 -707.99 6.57 
637.45 -708.53 6.43 
640.31 -707.91 6.85 
638.85 -708.34 6.65 
638.53 -708.81 6.68 
640.50 -708.08 6.92 
640.15 -708.23 6.88 
639.51 -708.76 6.85 
638.53 -709.17 6.79 
638.36 -709.27 6.78 
637.70 -709.38 6.63 
640.84 -708.34 7.03 
636.99 -710.28 6.66 
640.83 -709.83 7.28 
638.33 -710.67 6.97 
637.66 -711.90 7.06 
640.54 -716.18 7.48 
617.51 -712.30 4.34 
618.44 -712.35 4.44 
618.06 -712.15 4.37 
617.35 -712.78 4.40 
616.89 -712.76 4.35 
618.83 -712.45 4.50 
618.68 -712.33 4.47 
617.57 -712.83 4.44 
616.95 -713.18 4.43 
620.03 -713.23 4.77 
639.22 -706.28 6.99 
638.86 -706.41 6.94 
638.40 -706.42 6.86 
638.14 -706.43 6.81 
617.26 -714.90 4.76 
639.85 -706.46 7.15 
639.14 -706.59 7.03 
639.01 -706.69 7.03 
638.38 -707.33 7.03 
639.04 -707.70 7.23 
637.74 -708.57 7.15 
641.20 -707.60 7.60 
641.08 -707.71 7.60 
637.35 -709.10 7.21 
641.00 -707.88 7.62 
639.75 -708.32 7.48 
638.35 -709.13 7.38 
638.16 -709.12 7.34 
637.70 -709.29 7.29 
637.86 -711.53 7.10 
640.63 -711.28 7.52 
637.21 -712.60 7.11 
637.41 -712.63 7.15 
640.25 -712.92 7.71 
616.84 -711.49 4.86 
617.33 -711.66 4.94 
616.55 -712.18 4.57 
618.86 -711.50 5.06 
618.76 -711.64 5.08 
619.46 -711.64 5.15 
618.99 -711.70 5.11 
618.05 -712.34 5.14 
618.99 -712.28 5.23 
618.19 -712.50 4.98 
639.48 -706.61 7.75 
638.69 -707.06 7.68 
618.46 -716.33 5.14 
640.94 -708.58 7.74 
640.90 -709.12 7.87 
638.16 -710.45 7.63 
638.48 -711.27 7.83 
637.93 -711.59 7.79 
617.67 -711.31 5.28 
617.60 -712.42 5.12 
616.81 -713.80 5.31 
640.37 -707.53 8.06 
640.04 -707.94 8.15 
638.13 -708.99 7.97 
639.99 -708.71 8.31 
616.59 -710.24 5.32 
617.53 -711.05 5.57 
617.91 -711.86 5.78 
616.73 -712.09 5.35 
639.98 -707.07 8.61 
639.84 -707.14 8.60 
639.75 -707.39 8.64 
638.21 -708.39 8.55 
617.25 -713.84 1.15 
617.41 -713.93 1.18 
640.11 -712.38 4.28 
640.67 -712.78 4.39 
640.94 -712.94 4.43 
618.24 -713.71 1.83 
618.25 -714.08 1.87 
617.28 -713.64 1.92 
617.29 -714.05 1.96 
637.94 -707.05 4.22 
637.82 -707.12 4.20 
639.13 -707.14 4.40 
636.23 -709.95 4.22 
636.74 -710.23 4.32 
636.06 -710.60 4.26 
637.12 -711.12 4.45 
640.17 -711.66 4.93 
639.97 -711.72 4.91 
641.33 -712.19 5.15 
640.61 -712.65 5.08 
638.61 -713.27 4.85 
638.46 -713.48 4.85 
640.12 -713.30 5.07 
641.26 -714.13 5.30 
640.68 -714.49 5.25 
640.29 -717.34 5.44 
618.06 -713.51 2.53 
617.68 -714.04 2.54 
618.03 -714.26 2.61 
637.35 -707.57 4.75 
637.00 -707.72 4.72 
638.68 -707.43 4.93 
636.90 -707.90 4.72 
636.34 -709.54 4.82 
635.64 -709.70 4.73 
640.16 -708.50 5.28 
639.89 -708.65 5.25 
637.53 -709.60 4.84 
636.57 -709.69 4.71 
636.04 -709.89 4.81 
635.86 -709.92 4.79 
636.97 -709.90 4.95 
636.28 -710.32 4.89 
637.80 -710.25 5.11 
637.28 -710.45 5.06 
637.41 -710.68 4.94 
637.11 -710.72 5.06 
638.12 -710.89 5.23 
640.07 -710.64 5.49 
639.90 -710.67 5.47 
617.29 -713.55 2.69 
616.64 -714.12 2.67 
617.27 -714.42 2.78 
638.16 -708.79 5.50 
637.94 -708.87 5.48 
639.56 -711.60 5.52 
639.19 -711.79 5.49 
639.00 -711.85 5.47 
637.27 -712.44 5.27 
640.56 -712.92 5.82 
641.08 -713.05 5.91 
639.32 -713.87 5.73 
