# .PCD v0.7 - Point Cloud Data file format
VERSION 0.7
FIELDS x y z
SIZE 4 4 4
TYPE F F F
COUNT 1 1 1
WIDTH 2208
HEIGHT 1
VIEWPOINT 0 0 0 1 0 0 0
POINTS 2208
DATA ascii
618.42 -651.95 -1.84 
619.66 -651.61 -1.72 
619.49 -651.72 -1.74 
619.25 -651.78 -1.76 
624.46 -651.14 -1.24 
624.44 -651.19 -1.25 
624.74 -651.29 -1.21 
626.41 -650.99 -1.04 
625.57 -651.47 -1.13 
625.21 -651.44 -1.17 
626.20 -651.53 -1.06 
625.94 -651.74 -1.09 
617.61 -647.05 -1.93 
617.20 -647.76 -1.97 
617.42 -647.69 -1.95 
617.75 -651.40 -1.90 
619.31 -650.81 -1.76 
619.11 -651.08 -1.78 
618.75 -651.51 -1.81 
625.99 -651.27 -0.73 
625.76 -651.33 -0.75 
623.89 -652.21 -0.93 
625.83 -651.85 -0.75 
625.58 -651.95 -0.77 
624.46 -652.29 -0.88 
625.51 -652.25 -0.78 
624.91 -652.54 -0.83 
624.14 -650.76 -0.52 
623.90 -650.80 -0.55 
624.69 -650.85 -0.47 
624.49 -650.90 -0.49 
625.79 -651.05 -0.37 
625.57 -651.26 -0.40 
625.20 -651.36 -0.44 
625.66 -651.76 -0.01 
625.44 -651.84 -0.03 
618.16 -650.81 -1.04 
618.83 -650.54 -0.98 
618.36 -650.72 -1.02 
623.95 -651.25 -0.14 
623.75 -651.53 -0.16 
624.29 -651.47 -0.12 
626.03 -651.08 0.04 
624.09 -650.80 0.23 
624.56 -650.69 0.27 
624.39 -650.80 0.25 
625.13 -650.89 0.31 
624.90 -650.92 0.29 
623.54 -651.16 0.62 
624.86 -650.63 0.73 
623.91 -651.25 0.64 
623.66 -651.27 0.62 
624.21 -651.28 0.66 
625.51 -651.21 0.76 
624.79 -651.70 0.69 
618.95 -652.36 -3.99 
619.96 -652.52 -3.84 
620.88 -652.74 -3.70 
620.63 -652.91 -3.73 
621.33 -652.77 -3.64 
621.97 -652.99 -3.54 
621.68 -652.95 -3.58 
622.36 -653.17 -3.48 
623.00 -653.23 -3.39 
624.10 -653.23 -3.24 
623.70 -653.30 -3.29 
626.03 -653.83 -2.93 
626.33 -653.99 -2.88 
619.94 -650.70 -3.14 
620.00 -651.25 -3.11 
620.25 -652.08 -3.05 
620.00 -652.15 -3.08 
619.64 -652.38 -3.11 
624.06 -651.79 -2.59 
624.35 -651.95 -2.54 
624.69 -652.15 -2.49 
625.44 -652.22 -2.39 
625.18 -652.43 -2.42 
626.35 -652.18 -2.28 
625.97 -652.38 -2.32 
625.76 -652.39 -2.35 
618.10 -647.30 -3.51 
625.54 -654.51 -2.01 
625.94 -654.53 -1.96 
620.04 -650.93 -2.32 
618.47 -651.87 -2.47 
620.14 -651.46 -2.30 
619.96 -651.74 -2.31 
619.27 -651.69 -2.39 
619.94 -652.33 -2.30 
624.63 -651.60 -1.79 
624.28 -651.73 -1.82 
625.27 -651.72 -1.71 
624.88 -651.96 -1.75 
625.70 -651.94 -1.65 
626.02 -652.14 -1.61 
625.61 -652.25 -1.66 
617.70 -644.53 -2.71 
617.72 -645.67 -2.68 
617.77 -646.35 -2.67 
617.84 -646.92 -2.65 
617.93 -647.15 -2.63 
617.83 -647.91 -2.63 
617.96 -651.58 -2.53 
623.23 -652.35 -1.61 
625.83 -651.34 -1.34 
626.21 -651.34 -1.30 
624.42 -652.71 -1.47 
623.94 -652.80 -1.52 
625.62 -652.52 -1.34 
625.43 -652.56 -1.36 
624.93 -652.87 -1.41 
624.48 -652.97 -1.46 
616.91 -642.65 -2.84 
617.63 -643.06 -2.75 
618.83 -651.98 -1.63 
618.51 -652.01 -1.66 
625.16 -651.13 -0.99 
624.61 -651.27 -1.05 
626.58 -650.85 -0.83 
625.55 -651.23 -0.95 
625.07 -651.74 -1.00 
617.68 -646.79 -1.75 
617.77 -647.01 -1.74 
617.74 -647.48 -1.74 
617.58 -647.72 -1.76 
619.22 -650.48 -1.59 
619.00 -650.73 -1.62 
619.33 -650.87 -1.58 
623.08 -652.05 -0.84 
625.68 -650.98 -0.58 
623.63 -652.03 -0.79 
623.29 -652.27 -0.82 
625.70 -651.45 -0.58 
624.51 -652.10 -0.70 
623.93 -652.40 -0.76 
623.65 -652.39 -0.78 
625.33 -652.15 -0.62 
624.30 -652.54 -0.72 
625.09 -652.60 -0.64 
624.78 -652.71 -0.67 
624.29 -650.76 -0.33 
624.85 -650.89 -0.28 
624.54 -650.77 -0.30 
625.59 -651.16 -0.21 
625.53 -651.34 -0.22 
618.47 -650.77 -0.85 
618.26 -650.82 -0.87 
618.97 -651.08 -0.81 
623.57 -651.57 -0.01 
623.34 -651.63 -0.03 
624.34 -651.51 0.06 
624.00 -651.63 0.03 
625.82 -651.33 0.19 
625.27 -651.30 0.14 
624.79 -651.82 0.09 
624.76 -650.88 0.46 
624.42 -650.79 0.44 
625.27 -650.92 0.50 
625.09 -650.97 0.49 
624.68 -651.76 0.85 
623.66 -651.42 0.79 
623.38 -651.35 0.77 
624.24 -651.46 0.83 
623.95 -651.44 0.81 
620.48 -652.83 -3.63 
620.09 -652.86 -3.68 
621.30 -652.88 -3.52 
620.96 -652.93 -3.56 
620.80 -652.93 -3.58 
621.61 -653.05 -3.47 
622.90 -653.23 -3.28 
622.63 -653.17 -3.32 
623.83 -653.16 -3.16 
623.57 -653.25 -3.19 
623.16 -653.25 -3.24 
624.42 -653.42 -3.06 
624.12 -653.29 -3.11 
625.41 -653.59 -2.92 
625.16 -653.79 -2.94 
625.92 -653.76 -2.84 
626.49 -654.09 -2.74 
626.20 -653.90 -2.79 
620.30 -651.18 -2.96 
619.76 -652.16 -2.99 
618.83 -652.44 -3.09 
620.51 -652.07 -2.90 
620.16 -652.17 -2.94 
619.63 -652.43 -2.99 
619.45 -652.54 -3.01 
624.08 -651.81 -2.47 
624.42 -652.02 -2.42 
625.45 -652.25 -2.28 
624.82 -652.34 -2.35 
626.38 -652.05 -2.17 
626.04 -652.29 -2.20 
625.74 -652.37 -2.24 
625.21 -652.49 -2.30 
617.91 -645.05 -3.51 
617.89 -646.62 -3.45 
618.04 -646.97 -3.42 
624.37 -653.78 -2.07 
624.10 -654.16 -2.09 
625.15 -654.20 -1.96 
625.64 -654.23 -1.90 
625.47 -654.34 -1.92 
618.19 -651.57 -2.40 
617.84 -651.91 -2.43 
620.14 -651.02 -2.20 
620.27 -651.51 -2.17 
619.30 -652.01 -2.27 
619.24 -652.34 -2.27 
619.85 -652.42 -2.20 
620.47 -652.30 -2.13 
624.17 -651.63 -1.72 
623.99 -651.66 -1.75 
625.45 -651.74 -1.57 
624.88 -651.84 -1.64 
624.51 -651.85 -1.68 
626.13 -651.81 -1.49 
625.23 -651.88 -1.60 
625.06 -652.03 -1.61 
626.34 -651.79 -1.47 
625.91 -652.14 -1.51 
625.64 -652.30 -1.54 
617.74 -644.89 -2.59 
623.15 -652.35 -1.51 
623.54 -652.56 -1.46 
623.94 -652.77 -1.41 
623.81 -652.91 -1.42 
624.46 -652.95 -1.35 
616.94 -642.69 -2.73 
617.71 -642.35 -2.65 
617.63 -642.73 -2.65 
617.72 -643.00 -2.63 
617.49 -643.22 -2.65 
619.40 -650.80 -1.47 
618.43 -652.03 -1.56 
619.61 -651.71 -1.45 
623.72 -650.67 -1.03 
623.94 -650.72 -1.00 
624.66 -651.15 -0.93 
624.50 -651.21 -0.95 
625.07 -651.07 -0.88 
624.88 -651.15 -0.91 
626.53 -650.87 -0.72 
625.42 -651.36 -0.85 
626.49 -651.12 -0.73 
626.31 -651.21 -0.75 
626.09 -651.59 -0.77 
625.86 -651.79 -0.80 
617.73 -646.69 -1.64 
617.65 -647.00 -1.65 
623.49 -652.09 -0.69 
623.19 -652.11 -0.72 
625.74 -651.03 -0.47 
623.95 -652.01 -0.65 
623.58 -652.29 -0.69 
625.72 -651.48 -0.47 
624.66 -652.77 -0.58 
618.91 -651.14 -0.71 
624.07 -650.83 -0.24 
624.63 -650.93 -0.19 
626.04 -650.73 -0.04 
624.96 -650.94 -0.15 
625.73 -651.14 -0.08 
625.45 -651.33 -0.11 
626.03 -651.34 -0.05 
618.89 -650.63 -0.71 
618.85 -650.95 -0.72 
618.48 -650.90 -0.75 
623.49 -651.55 0.09 
623.25 -651.61 0.07 
624.33 -651.43 0.16 
624.01 -651.56 0.13 
624.80 -651.78 0.20 
624.74 -650.64 0.58 
624.43 -650.76 0.55 
625.34 -650.93 0.63 
625.07 -650.87 0.60 
625.05 -651.45 0.99 
616.60 -652.73 -3.98 
618.21 -652.37 -3.79 
617.84 -652.67 -3.82 
619.12 -652.38 -3.67 
618.73 -652.40 -3.72 
618.09 -652.62 -3.79 
619.93 -652.42 -3.56 
619.44 -652.45 -3.62 
620.53 -652.55 -3.47 
621.64 -652.52 -3.32 
621.34 -652.43 -3.37 
620.80 -652.54 -3.43 
621.35 -652.91 -3.34 
621.86 -653.04 -3.26 
621.65 -653.10 -3.29 
622.59 -653.25 -3.15 
623.88 -653.32 -2.97 
624.55 -653.57 -2.87 
624.21 -653.55 -2.91 
625.36 -653.64 -2.75 
625.00 -653.86 -2.79 
625.83 -653.74 -2.68 
625.62 -653.77 -2.71 
625.23 -653.88 -2.76 
626.12 -653.96 -2.63 
626.39 -654.12 -2.58 
620.21 -650.84 -2.82 
620.47 -650.82 -2.79 
620.20 -651.26 -2.80 
620.55 -651.97 -2.73 
620.24 -652.08 -2.77 
619.72 -652.40 -2.81 
619.42 -652.53 -2.85 
619.06 -652.62 -2.89 
624.47 -652.10 -2.24 
625.44 -652.24 -2.11 
624.85 -652.43 -2.18 
626.45 -651.93 -1.99 
626.00 -652.25 -2.04 
625.74 -652.45 -2.06 
625.20 -652.51 -2.13 
626.35 -652.27 -1.99 
616.74 -642.82 -3.58 
617.86 -645.16 -3.34 
618.19 -646.84 -3.23 
624.35 -653.65 -1.92 
624.16 -653.75 -1.94 
624.58 -653.99 -1.87 
624.21 -653.77 -1.93 
617.80 -651.90 -2.27 
620.31 -650.88 -2.01 
618.37 -651.94 -2.21 
620.34 -651.23 -2.00 
620.25 -651.51 -2.01 
619.92 -651.83 -2.04 
619.58 -651.69 -2.08 
619.18 -651.95 -2.12 
620.25 -652.27 -1.99 
619.91 -652.38 -2.03 
623.78 -651.41 -1.61 
624.29 -651.78 -1.54 
624.71 -651.72 -1.49 
624.55 -651.87 -1.51 
626.43 -651.24 -1.29 
626.11 -651.75 -1.32 
625.22 -651.85 -1.43 
625.08 -652.03 -1.44 
626.50 -651.61 -1.28 
626.33 -651.79 -1.30 
625.90 -652.18 -1.34 
625.51 -652.27 -1.39 
617.63 -645.38 -2.43 
623.13 -652.43 -1.34 
623.61 -652.82 -1.28 
624.37 -652.89 -1.20 
624.07 -652.99 -1.23 
625.10 -652.78 -1.12 
616.62 -642.74 -2.59 
616.73 -643.31 -2.24 
619.65 -650.52 -1.28 
619.52 -650.79 -1.30 
619.39 -651.55 -1.31 
619.72 -651.66 -1.28 
619.26 -651.81 -1.32 
618.42 -652.13 -1.41 
623.75 -650.65 -0.86 
623.84 -650.73 -0.85 
624.43 -651.16 -0.78 
624.25 -651.28 -0.80 
625.10 -651.07 -0.71 
624.91 -651.13 -0.73 
624.70 -651.23 -0.75 
626.44 -650.93 -0.56 
626.29 -651.16 -0.57 
625.40 -651.24 -0.68 
626.15 -651.32 -0.59 
626.01 -651.59 -0.61 
626.13 -651.71 -0.60 
625.87 -651.89 -0.63 
617.98 -646.83 -1.45 
617.91 -647.17 -1.46 
623.85 -651.98 -0.50 
625.67 -652.08 -0.31 
624.47 -652.73 -0.44 
618.83 -650.97 -0.56 
624.01 -650.84 -0.07 
624.46 -650.80 -0.03 
624.24 -650.84 -0.05 
625.04 -651.04 0.03 
624.76 -650.97 0.00 
625.97 -651.12 0.12 
625.68 -651.25 0.09 
625.35 -651.31 0.05 
625.68 -651.74 0.44 
619.09 -650.63 -0.53 
618.89 -650.69 -0.55 
618.13 -650.83 -0.62 
623.11 -651.71 0.21 
624.79 -650.63 0.76 
624.49 -650.77 0.73 
625.39 -650.92 0.81 
625.15 -650.97 0.78 
617.11 -651.90 -3.78 
618.11 -651.74 -3.66 
617.75 -651.82 -3.70 
617.39 -651.91 -3.75 
618.41 -651.97 -3.61 
620.25 -651.79 -3.37 
619.67 -651.99 -3.44 
619.28 -652.08 -3.48 
618.86 -652.15 -3.54 
621.09 -651.97 -3.25 
621.58 -652.32 -3.16 
621.20 -652.30 -3.21 
621.90 -652.56 -3.10 
622.36 -652.78 -3.03 
623.67 -652.76 -2.85 
623.24 -652.95 -2.90 
624.54 -652.76 -2.74 
623.86 -652.76 -2.83 
623.46 -652.94 -2.87 
626.23 -653.65 -2.45 
625.91 -653.67 -2.49 
626.37 -653.66 -2.43 
617.61 -651.92 -2.91 
620.35 -651.62 -2.59 
620.40 -652.26 -2.56 
619.53 -652.54 -2.65 
623.94 -651.90 -2.13 
624.03 -652.06 -2.11 
624.72 -652.46 -2.01 
626.38 -652.16 -1.81 
626.10 -652.33 -1.84 
625.60 -652.51 -1.89 
625.18 -652.55 -1.95 
624.92 -652.66 -1.98 
617.64 -642.71 -3.29 
617.74 -643.05 -3.26 
617.63 -643.48 -3.26 
617.73 -644.46 -3.21 
617.67 -644.93 -3.20 
623.64 -652.56 -1.87 
623.29 -652.59 -1.91 
623.11 -652.74 -1.93 
622.83 -652.89 -1.96 
622.15 -653.15 -2.03 
624.35 -652.47 -1.79 
623.89 -652.55 -1.84 
625.06 -652.41 -1.70 
625.81 -653.04 -1.58 
625.62 -653.14 -1.60 
620.24 -650.97 -1.84 
617.68 -652.09 -2.11 
620.14 -651.55 -1.84 
619.05 -652.00 -1.96 
618.80 -652.28 -1.98 
620.31 -652.22 -1.81 
620.10 -652.31 -1.83 
619.69 -652.50 -1.87 
623.81 -651.62 -1.42 
626.48 -651.06 -1.10 
624.59 -651.89 -1.32 
624.32 -651.91 -1.35 
626.12 -651.75 -1.13 
624.95 -652.06 -1.27 
626.38 -651.70 -1.10 
626.04 -651.90 -1.14 
625.86 -652.14 -1.16 
625.36 -652.28 -1.22 
617.81 -646.25 -2.21 
623.11 -652.16 -1.18 
623.43 -652.28 -1.14 
623.81 -652.54 -1.09 
624.31 -652.81 -1.03 
616.75 -642.75 -2.40 
617.54 -642.82 -2.31 
617.42 -643.15 -2.32 
616.77 -643.16 -2.07 
617.42 -643.28 -2.31 
619.56 -650.74 -1.12 
619.33 -650.77 -1.14 
619.13 -651.52 -1.16 
619.47 -651.59 -1.13 
618.98 -651.73 -1.18 
624.08 -651.27 -0.64 
625.16 -651.11 -0.51 
624.86 -651.24 -0.55 
624.53 -651.23 -0.58 
626.49 -651.01 -0.36 
626.29 -651.11 -0.38 
625.42 -651.26 -0.48 
626.18 -651.56 -0.40 
625.86 -651.61 -0.43 
624.98 -652.54 -0.21 
623.27 -651.83 -0.38 
623.89 -652.07 -0.32 
625.76 -651.46 -0.12 
624.55 -652.35 -0.25 
618.73 -650.79 -0.40 
618.58 -651.07 -0.42 
623.67 -651.00 0.07 
624.57 -650.97 0.17 
624.19 -650.87 0.13 
623.87 -650.94 0.10 
626.10 -650.69 0.35 
625.67 -650.72 0.30 
625.02 -650.94 0.22 
624.78 -650.92 0.19 
625.58 -651.27 0.27 
625.31 -651.30 0.24 
626.03 -651.29 0.32 
618.16 -650.82 -0.45 
623.43 -651.28 0.42 
624.42 -651.47 0.51 
624.98 -651.61 0.56 
624.53 -650.75 0.93 
624.23 -650.90 0.89 
625.06 -650.97 0.97 
623.27 -651.26 1.20 
624.50 -651.27 1.30 
624.08 -651.33 1.26 
623.56 -651.41 1.21 
617.94 -652.26 -3.48 
617.61 -652.21 -3.53 
617.32 -652.39 -3.56 
618.43 -652.29 -3.42 
619.70 -652.30 -3.25 
619.45 -652.24 -3.28 
619.06 -652.27 -3.33 
618.74 -652.39 -3.37 
620.63 -652.17 -3.13 
620.31 -652.29 -3.16 
619.96 -652.32 -3.21 
621.51 -652.27 -3.00 
621.15 -652.23 -3.05 
620.96 -652.32 -3.08 
621.78 -652.34 -2.96 
622.20 -652.73 -2.88 
623.56 -652.71 -2.70 
623.15 -652.94 -2.74 
622.80 -652.93 -2.79 
624.63 -652.67 -2.56 
624.00 -652.72 -2.64 
623.65 -652.76 -2.69 
623.29 -652.91 -2.72 
625.31 -652.70 -2.46 
624.96 -652.67 -2.51 
624.45 -652.81 -2.57 
626.36 -653.53 -2.27 
625.81 -653.67 -2.34 
627.22 -653.70 -2.14 
617.54 -651.69 -2.77 
620.15 -651.19 -2.47 
618.62 -652.55 -2.60 
620.21 -652.20 -2.42 
619.85 -652.22 -2.46 
619.49 -652.52 -2.50 
619.16 -652.68 -2.53 
626.37 -650.80 -1.69 
623.89 -651.93 -1.96 
623.69 -651.92 -1.99 
624.18 -652.16 -1.92 
624.60 -652.42 -1.85 
626.30 -652.05 -1.65 
625.41 -652.55 -1.74 
625.10 -652.63 -1.78 
626.22 -652.34 -1.65 
625.67 -652.60 -1.71 
617.84 -643.31 -3.08 
617.58 -643.43 -3.11 
617.94 -645.12 -2.99 
617.88 -645.58 -2.98 
620.11 -652.62 -2.13 
625.64 -651.35 -1.50 
623.53 -652.27 -1.73 
623.36 -652.46 -1.74 
625.62 -651.80 -1.48 
625.15 -652.07 -1.53 
624.97 -652.20 -1.55 
624.67 -652.37 -1.58 
625.73 -652.96 -1.42 
627.26 -652.73 -1.24 
617.89 -651.47 -1.94 
620.05 -651.02 -1.70 
617.75 -651.74 -1.95 
617.57 -651.90 -1.96 
619.11 -651.86 -1.79 
618.88 -651.91 -1.82 
620.02 -651.89 -1.69 
619.65 -651.93 -1.73 
618.80 -652.27 -1.82 
619.67 -652.56 -1.71 
620.39 -652.53 -1.63 
624.41 -651.63 -1.17 
623.83 -651.70 -1.24 
626.37 -651.21 -0.93 
624.80 -651.72 -1.12 
624.26 -651.90 -1.18 
626.43 -651.63 -0.92 
626.03 -651.83 -0.96 
625.46 -652.05 -1.03 
624.74 -652.02 -1.12 
625.90 -652.04 -0.98 
625.84 -651.56 -0.70 
623.57 -652.55 -0.95 
625.64 -652.19 -0.72 
625.47 -652.48 -0.73 
625.56 -652.66 -0.72 
625.16 -652.77 -0.76 
617.40 -642.73 -2.17 
617.49 -643.10 -2.15 
617.29 -643.26 -2.17 
619.53 -650.67 -0.96 
619.43 -650.92 -0.97 
618.97 -651.70 -1.02 
619.75 -651.75 -0.94 
619.43 -651.87 -0.98 
623.69 -650.85 -0.50 
624.29 -651.16 -0.44 
624.03 -651.29 -0.47 
625.11 -651.09 -0.34 
624.85 -651.21 -0.37 
624.52 -651.29 -0.41 
626.24 -651.11 -0.20 
625.65 -651.47 -0.28 
625.37 -651.26 -0.31 
626.47 -651.16 -0.18 
626.11 -651.56 -0.22 
623.41 -651.78 -0.20 
623.04 -651.98 -0.24 
623.94 -651.86 -0.15 
625.74 -651.49 0.05 
625.56 -651.89 0.03 
625.06 -652.11 -0.03 
623.92 -652.36 -0.15 
618.03 -650.87 -0.31 
618.89 -650.83 -0.23 
618.32 -651.00 -0.29 
618.69 -651.21 -0.26 
624.53 -650.94 0.35 
624.16 -650.88 0.31 
623.83 -650.95 0.27 
625.59 -650.54 0.48 
624.99 -650.91 0.40 
624.78 -650.94 0.37 
626.01 -650.97 0.51 
625.49 -651.16 0.45 
625.31 -651.34 0.42 
625.76 -651.75 0.81 
617.68 -650.78 -0.34 
618.25 -651.23 0.12 
623.51 -651.29 0.60 
623.16 -651.50 0.56 
624.16 -651.37 0.66 
623.98 -651.52 0.64 
623.82 -651.66 0.62 
625.36 -651.63 0.77 
624.50 -650.70 1.11 
624.11 -650.90 1.06 
624.93 -650.95 1.14 
623.70 -651.03 1.41 
623.26 -651.19 1.36 
623.11 -651.32 1.34 
624.04 -651.26 1.43 
623.74 -651.34 1.40 
623.52 -651.47 1.37 
616.70 -652.38 -3.47 
618.28 -652.15 -3.27 
619.52 -652.14 -3.11 
618.95 -652.23 -3.18 
618.73 -652.26 -3.20 
620.69 -651.98 -2.96 
620.35 -651.99 -3.00 
620.02 -652.14 -3.04 
621.22 -652.11 -2.88 
620.91 -652.13 -2.92 
621.49 -652.48 -2.82 
622.08 -652.79 -2.72 
622.46 -652.98 -2.66 
624.00 -652.83 -2.46 
623.73 -652.92 -2.49 
623.39 -653.02 -2.53 
623.03 -653.07 -2.57 
622.72 -653.08 -2.62 
625.07 -652.85 -2.31 
624.68 -652.99 -2.35 
624.37 -653.05 -2.39 
625.30 -652.89 -2.28 
624.89 -652.99 -2.33 
625.62 -653.34 -2.20 
626.09 -653.63 -2.12 
625.90 -653.68 -2.15 
626.63 -653.74 -2.04 
626.28 -653.77 -2.09 
627.25 -653.75 -1.96 
626.99 -654.01 -1.98 
617.63 -651.72 -2.59 
618.41 -652.22 -2.47 
620.42 -651.66 -2.24 
618.75 -652.52 -2.42 
618.36 -652.49 -2.47 
619.88 -652.28 -2.29 
619.20 -652.71 -2.35 
620.58 -652.21 -2.20 
620.40 -652.26 -2.22 
623.78 -651.84 -1.80 
624.17 -652.10 -1.74 
624.69 -652.44 -1.66 
624.42 -652.24 -1.70 
626.36 -652.11 -1.45 
626.00 -652.29 -1.50 
625.58 -652.50 -1.54 
625.24 -652.45 -1.59 
624.94 -652.59 -1.62 
626.21 -652.42 -1.46 
625.80 -652.55 -1.51 
617.89 -643.25 -2.91 
617.94 -644.26 -2.86 
621.36 -653.03 -1.79 
621.09 -652.96 -1.83 
625.56 -651.30 -1.33 
625.31 -651.63 -1.35 
623.60 -652.44 -1.54 
622.25 -652.82 -1.69 
621.79 -652.92 -1.74 
624.89 -652.13 -1.39 
626.22 -652.65 -1.20 
627.64 -652.05 -1.04 
625.44 -653.03 -1.28 
627.05 -653.06 -1.07 
627.50 -653.22 -1.01 
627.25 -653.11 -1.04 
617.91 -651.36 -1.77 
620.21 -651.02 -1.51 
619.15 -651.65 -1.62 
618.88 -651.74 -1.65 
618.44 -651.99 -1.70 
620.05 -651.54 -1.52 
618.89 -652.20 -1.64 
620.37 -651.86 -1.48 
619.94 -652.27 -1.52 
620.35 -652.46 -1.47 
619.88 -652.48 -1.52 
624.20 -651.68 -1.01 
623.84 -651.69 -1.06 
626.54 -651.05 -0.73 
624.81 -651.87 -0.93 
624.49 -651.96 -0.97 
626.42 -651.64 -0.73 
626.17 -651.73 -0.76 
625.60 -651.96 -0.83 
625.29 -651.98 -0.87 
626.03 -651.91 -0.78 
625.87 -652.10 -0.80 
625.45 -652.29 -0.85 
625.27 -652.26 -0.87 
622.73 -652.30 -0.88 
625.46 -651.24 -0.58 
623.37 -652.72 -0.80 
624.64 -652.84 -0.65 
624.88 -652.86 -0.62 
617.63 -643.16 -1.96 
618.48 -651.05 -0.91 
619.51 -650.71 -0.80 
619.42 -651.50 -0.81 
618.97 -651.62 -0.86 
619.74 -651.67 -0.78 
619.30 -651.78 -0.82 
623.41 -650.53 -0.35 
623.70 -650.75 -0.32 
624.42 -651.02 -0.24 
624.13 -651.24 -0.27 
625.14 -651.00 -0.15 
624.99 -651.14 -0.17 
624.72 -651.26 -0.20 
626.26 -651.16 -0.01 
625.49 -651.28 -0.11 
626.47 -651.12 0.01 
625.92 -651.64 -0.06 
618.87 -652.09 -0.50 
622.89 -651.74 -0.08 
625.40 -651.18 0.20 
624.19 -652.47 0.06 
623.80 -652.44 0.01 
624.81 -652.34 0.12 
624.61 -652.44 0.10 
617.80 -650.86 -0.18 
618.23 -650.90 -0.13 
619.08 -650.84 -0.05 
618.81 -651.11 -0.08 
624.43 -650.92 0.52 
623.96 -650.88 0.47 
625.61 -650.51 0.67 
625.00 -650.90 0.59 
624.78 -650.92 0.56 
625.92 -650.99 0.69 
625.40 -651.22 0.63 
626.21 -651.35 0.72 
618.16 -651.36 0.27 
617.91 -651.96 0.23 
622.90 -651.64 0.70 
623.61 -651.56 0.77 
625.27 -651.13 0.96 
624.95 -651.60 0.91 
624.47 -651.59 0.86 
624.24 -651.62 0.84 
625.65 -651.56 0.98 
624.76 -651.73 0.89 
624.52 -650.70 1.30 
624.22 -650.89 1.26 
625.07 -650.90 1.35 
625.38 -650.99 1.38 
623.37 -651.34 1.54 
623.04 -651.25 1.51 
622.88 -651.39 1.49 
624.30 -651.33 1.63 
623.92 -651.32 1.59 
623.51 -651.37 1.55 
623.19 -651.52 1.51 
616.52 -651.75 -3.33 
616.79 -651.78 -3.29 
618.04 -651.67 -3.13 
618.70 -651.99 -3.02 
620.50 -651.69 -2.79 
619.44 -652.12 -2.91 
618.96 -652.14 -2.97 
621.34 -651.81 -2.67 
620.99 -651.83 -2.72 
621.78 -651.97 -2.60 
622.24 -652.11 -2.53 
623.10 -652.36 -2.39 
622.75 -652.32 -2.44 
622.54 -652.39 -2.47 
624.40 -652.30 -2.22 
624.00 -652.31 -2.27 
623.58 -652.42 -2.32 
625.20 -652.31 -2.11 
624.88 -652.40 -2.14 
624.57 -652.29 -2.19 
625.76 -652.41 -2.02 
625.43 -652.36 -2.07 
626.15 -652.61 -1.96 
626.47 -652.91 -1.89 
626.21 -653.25 -1.91 
617.45 -651.59 -2.42 
617.70 -651.67 -2.38 
618.40 -652.41 -2.26 
618.96 -652.64 -2.18 
618.59 -652.64 -2.23 
620.17 -652.35 -2.04 
623.82 -651.86 -1.58 
624.21 -652.15 -1.51 
624.82 -652.46 -1.42 
624.48 -652.32 -1.47 
625.69 -652.52 -1.30 
625.27 -652.55 -1.36 
626.42 -652.31 -1.21 
626.11 -652.45 -1.25 
618.26 -652.59 -1.99 
619.51 -652.24 -1.85 
625.96 -650.08 -1.11 
625.74 -650.20 -1.13 
620.70 -652.20 -1.70 
622.56 -651.90 -1.48 
621.97 -652.25 -1.54 
621.68 -652.16 -1.58 
621.41 -652.40 -1.60 
621.06 -652.42 -1.65 
623.11 -651.92 -1.40 
622.31 -652.51 -1.48 
623.93 -652.32 -1.28 
623.66 -652.25 -1.32 
625.11 -652.21 -1.13 
624.17 -652.33 -1.25 
624.20 -651.22 -0.79 
623.77 -651.46 -0.85 
626.61 -650.75 -0.49 
624.83 -651.16 -0.71 
624.47 -651.65 -0.75 
624.14 -651.72 -0.79 
624.75 -651.77 -0.71 
626.45 -651.56 -0.49 
626.27 -651.61 -0.52 
625.39 -651.89 -0.63 
625.21 -652.07 -0.65 
624.75 -652.01 -0.71 
626.68 -651.69 -0.46 
626.27 -651.85 -0.51 
625.97 -652.05 -0.55 
625.65 -652.11 -0.59 
618.95 -652.58 -1.10 
618.80 -652.81 -1.11 
622.92 -652.28 -0.64 
622.63 -652.17 -0.68 
625.47 -652.08 -0.33 
623.83 -652.97 -0.52 
623.75 -650.77 -0.09 
624.19 -651.14 -0.03 
625.30 -650.96 0.11 
625.06 -651.04 0.08 
624.65 -651.18 0.02 
626.63 -650.89 0.28 
625.68 -651.38 0.15 
626.36 -651.24 0.24 
626.04 -651.60 0.20 
626.01 -651.86 0.19 
618.90 -652.10 -0.30 
618.76 -652.34 -0.31 
618.77 -652.89 -0.31 
622.69 -651.59 0.11 
625.61 -651.38 0.45 
623.86 -651.87 0.24 
625.72 -650.51 0.93 
624.75 -650.91 0.80 
624.43 -651.05 0.76 
624.06 -650.91 0.72 
625.21 -650.89 0.86 
624.98 -651.00 0.82 
624.64 -651.04 0.78 
625.77 -651.09 0.92 
625.46 -651.25 0.88 
618.14 -651.25 0.46 
617.25 -651.68 0.37 
616.97 -651.61 0.34 
618.51 -651.47 0.49 
618.18 -651.87 0.45 
617.96 -651.98 0.43 
617.79 -652.17 0.41 
623.89 -651.42 1.03 
624.63 -650.76 1.55 
624.28 -650.85 1.51 
625.13 -651.03 1.60 
623.54 -651.28 1.78 
623.32 -651.35 1.76 
624.28 -651.32 1.86 
624.10 -651.32 1.84 
623.76 -651.26 1.81 
623.31 -651.43 1.75 
624.71 -651.29 1.90 
624.57 -651.47 1.88 
616.73 -651.83 -3.13 
618.28 -651.61 -2.93 
617.93 -651.68 -2.97 
617.48 -651.82 -3.03 
617.13 -651.88 -3.07 
618.51 -651.88 -2.88 
620.84 -651.53 -2.58 
620.46 -651.66 -2.63 
620.10 -651.59 -2.68 
619.71 -651.87 -2.72 
619.29 -652.07 -2.76 
618.93 -652.07 -2.81 
621.78 -651.67 -2.44 
621.28 -651.54 -2.52 
620.90 -651.68 -2.56 
624.53 -651.82 -2.05 
625.03 -652.06 -1.97 
626.28 -651.80 -1.81 
626.07 -651.88 -1.83 
625.75 -652.00 -1.87 
625.44 -652.10 -1.91 
617.47 -651.56 -2.25 
617.95 -652.02 -2.17 
620.27 -651.90 -1.87 
619.85 -652.19 -1.91 
619.00 -652.52 -2.01 
618.63 -652.50 -2.06 
620.67 -652.22 -1.80 
620.23 -652.32 -1.86 
619.71 -652.52 -1.92 
619.52 -652.68 -1.94 
619.30 -652.72 -1.96 
626.04 -652.48 -1.07 
626.47 -652.43 -1.01 
626.20 -652.46 -1.05 
625.84 -652.57 -1.10 
622.19 -650.91 -1.39 
619.97 -651.58 -1.65 
619.63 -651.97 -1.68 
617.62 -652.51 -1.91 
621.97 -651.44 -1.40 
621.65 -651.59 -1.43 
621.27 -651.58 -1.48 
620.89 -651.91 -1.52 
623.03 -651.66 -1.25 
623.42 -652.15 -1.18 
623.61 -652.31 -1.15 
625.48 -651.96 -0.91 
625.28 -651.95 -0.94 
624.82 -652.43 -0.98 
624.51 -652.56 -1.02 
620.40 -650.97 -1.10 
617.83 -652.07 -1.40 
620.31 -651.50 -1.11 
619.35 -651.63 -1.22 
619.16 -651.80 -1.24 
618.72 -651.92 -1.30 
620.19 -651.90 -1.11 
620.20 -652.12 -1.11 
619.06 -652.22 -1.25 
623.73 -650.83 -0.68 
620.05 -652.26 -1.13 
619.84 -652.45 -1.15 
620.54 -652.46 -1.06 
624.93 -651.23 -0.51 
626.65 -651.53 -0.27 
626.32 -651.81 -0.32 
626.10 -651.87 -0.34 
625.48 -652.10 -0.42 
625.16 -652.02 -0.47 
616.62 -648.03 -1.62 
619.00 -652.70 -0.93 
618.61 -652.80 -0.97 
622.72 -651.73 -0.50 
625.72 -651.31 -0.13 
623.36 -652.24 -0.41 
623.10 -652.34 -0.44 
623.65 -652.72 -0.37 
624.45 -652.79 -0.27 
624.07 -652.92 -0.31 
623.84 -652.93 -0.34 
619.93 -650.56 -0.37 
619.54 -650.81 -0.41 
619.85 -650.97 -0.38 
619.01 -651.55 -0.48 
619.73 -651.58 -0.40 
619.42 -651.72 -0.43 
618.93 -652.07 -0.49 
626.01 -651.36 0.39 
626.14 -651.47 0.41 
618.17 -650.51 -0.57 
618.75 -651.52 -0.15 
618.24 -652.11 -0.21 
617.82 -652.31 -0.25 
618.77 -652.40 -0.15 
617.64 -652.70 -0.27 
623.10 -651.57 0.34 
623.83 -651.68 0.42 
623.65 -651.72 0.40 
623.00 -652.02 0.32 
624.45 -651.78 0.50 
623.55 -652.33 0.39 
618.46 -650.88 0.26 
618.19 -650.70 0.23 
619.23 -650.88 0.34 
618.99 -650.84 0.31 
618.76 -651.02 0.28 
619.05 -651.16 0.31 
625.41 -651.10 1.08 
625.08 -651.02 1.04 
624.76 -651.02 0.99 
626.06 -650.92 1.17 
625.87 -651.26 1.13 
625.69 -651.35 1.10 
616.97 -651.39 0.50 
617.27 -651.44 0.53 
617.09 -651.53 0.51 
618.33 -651.95 0.62 
618.03 -652.00 0.59 
617.90 -652.16 0.57 
623.13 -651.21 1.14 
622.98 -651.45 1.11 
624.12 -651.30 1.24 
623.80 -651.43 1.20 
623.45 -651.49 1.16 
624.66 -651.54 1.30 
624.65 -650.84 1.75 
625.21 -650.99 1.82 
623.98 -651.12 2.02 
623.53 -651.22 1.97 
623.19 -651.29 1.93 
618.71 -652.24 -2.69 
618.27 -652.16 -2.75 
621.29 -651.79 -2.36 
620.98 -651.85 -2.40 
620.65 -652.01 -2.44 
620.28 -652.14 -2.48 
619.81 -652.14 -2.54 
619.33 -652.19 -2.61 
619.04 -652.26 -2.64 
621.90 -651.93 -2.27 
621.52 -651.78 -2.33 
620.88 -651.97 -2.41 
622.31 -652.18 -2.20 
623.24 -652.28 -2.06 
622.84 -652.29 -2.12 
622.57 -652.37 -2.15 
622.16 -652.54 -2.19 
624.53 -652.27 -1.88 
624.21 -652.21 -1.93 
623.81 -652.37 -1.98 
625.64 -652.29 -1.73 
625.30 -652.25 -1.78 
624.86 -652.31 -1.84 
626.08 -652.39 -1.66 
625.87 -652.37 -1.69 
617.77 -651.54 -2.07 
618.14 -651.97 -2.00 
618.69 -652.10 -1.92 
618.47 -652.27 -1.95 
619.01 -652.51 -1.87 
618.75 -652.44 -1.90 
620.67 -652.14 -1.66 
620.21 -652.15 -1.72 
619.80 -652.42 -1.77 
619.48 -652.55 -1.80 
619.30 -652.71 -1.82 
624.17 -651.82 -1.21 
623.97 -651.83 -1.24 
624.43 -652.14 -1.16 
624.78 -652.30 -1.11 
626.21 -652.38 -0.91 
625.85 -652.47 -0.95 
625.46 -652.50 -1.01 
625.15 -652.63 -1.04 
626.45 -652.42 -0.87 
626.41 -652.42 -0.88 
616.87 -652.31 -1.87 
622.24 -650.77 -1.25 
618.27 -652.17 -1.70 
617.64 -652.49 -1.77 
617.29 -652.50 -1.81 
621.94 -651.27 -1.27 
621.61 -651.55 -1.30 
621.22 -651.54 -1.35 
617.92 -652.53 -1.73 
620.95 -651.86 -1.37 
623.00 -651.66 -1.11 
623.45 -652.13 -1.04 
623.72 -652.22 -1.00 
618.10 -651.30 -1.24 
620.45 -650.86 -0.96 
619.50 -651.67 -1.06 
619.18 -651.72 -1.10 
618.81 -652.09 -1.14 
618.53 -651.96 -1.18 
619.09 -652.17 -1.10 
618.86 -652.10 -1.13 
620.53 -651.94 -0.93 
620.16 -652.30 -0.97 
623.80 -651.30 -0.52 
624.91 -651.21 -0.37 
624.52 -651.60 -0.41 
624.14 -651.59 -0.46 
624.74 -651.68 -0.38 
626.63 -651.47 -0.13 
625.44 -652.16 -0.28 
625.20 -651.88 -0.32 
626.08 -652.04 -0.20 
625.66 -652.26 -0.25 
616.88 -647.98 -1.45 
617.50 -652.91 -0.96 
622.81 -651.81 -0.35 
622.56 -651.64 -0.38 
623.40 -652.24 -0.27 
623.19 -652.31 -0.29 
625.28 -652.17 -0.03 
623.73 -652.61 -0.22 
625.09 -652.55 -0.05 
624.46 -652.76 -0.12 
623.99 -652.76 -0.18 
619.84 -650.67 -0.24 
619.84 -650.85 -0.24 
618.78 -651.26 -0.37 
619.57 -651.49 -0.27 
619.44 -651.76 -0.29 
619.07 -651.60 -0.33 
619.83 -651.68 -0.24 
618.78 -652.10 -0.37 
623.88 -650.84 0.27 
624.59 -651.05 0.36 
624.25 -651.14 0.31 
625.49 -651.01 0.48 
625.04 -651.01 0.42 
624.82 -651.17 0.39 
626.66 -651.16 0.64 
625.78 -651.45 0.51 
617.10 -647.81 -0.55 
616.73 -647.87 -0.59 
617.20 -652.39 -0.19 
619.07 -651.98 0.02 
617.66 -652.59 -0.14 
623.13 -651.52 0.48 
622.68 -651.46 0.43 
623.87 -651.62 0.57 
623.65 -651.68 0.54 
623.03 -651.99 0.47 
625.50 -651.49 0.77 
624.48 -651.70 0.64 
624.17 -651.86 0.61 
623.54 -652.19 0.53 
624.91 -652.06 0.69 
625.44 -652.29 0.76 
618.13 -650.71 0.36 
619.27 -650.75 0.49 
619.04 -650.78 0.46 
618.75 -650.96 0.42 
619.11 -651.16 0.46 
624.27 -650.73 1.10 
624.50 -651.00 1.12 
624.15 -650.89 1.08 
626.05 -650.66 1.33 
625.51 -651.01 1.25 
625.06 -650.96 1.19 
624.72 -651.05 1.14 
625.87 -651.16 1.29 
617.06 -651.39 0.64 
618.07 -651.95 0.72 
623.35 -651.28 1.30 
623.02 -651.40 1.26 
624.90 -651.32 1.48 
624.18 -651.26 1.40 
623.86 -651.39 1.36 
625.16 -651.45 1.51 
624.71 -651.50 1.45 
624.74 -650.76 1.93 
624.39 -650.87 1.88 
625.30 -650.98 1.99 
617.11 -651.35 1.48 
624.05 -651.08 2.18 
623.77 -651.16 2.14 
624.57 -651.17 2.23 
624.33 -651.26 2.20 
623.66 -651.27 2.13 
618.34 -652.33 -2.57 
619.39 -652.34 -2.42 
618.96 -652.39 -2.48 
618.73 -652.38 -2.51 
618.16 -652.48 -2.58 
617.98 -652.65 -2.60 
620.22 -652.42 -2.30 
619.85 -652.34 -2.35 
621.64 -652.48 -2.09 
621.16 -652.45 -2.16 
620.87 -652.42 -2.20 
620.50 -652.49 -2.25 
621.97 -652.60 -2.04 
622.57 -652.81 -1.94 
624.22 -652.69 -1.71 
623.79 -652.85 -1.76 
623.35 -652.92 -1.82 
623.04 -653.11 -1.85 
625.49 -652.71 -1.53 
625.12 -652.70 -1.58 
624.66 -652.76 -1.64 
625.84 -653.11 -1.45 
625.66 -652.85 -1.49 
627.01 -653.53 -1.26 
626.56 -653.49 -1.32 
626.18 -653.54 -1.37 
627.48 -653.57 -1.19 
626.94 -653.62 -1.26 
628.45 -653.80 -1.03 
617.83 -651.61 -1.90 
618.12 -651.81 -1.85 
620.60 -651.19 -1.54 
620.07 -652.08 -1.57 
618.78 -652.37 -1.74 
618.62 -652.46 -1.75 
620.54 -652.13 -1.51 
620.31 -652.11 -1.54 
619.78 -652.40 -1.60 
619.47 -652.57 -1.63 
619.01 -652.51 -1.70 
624.17 -651.87 -1.01 
623.97 -651.82 -1.04 
626.88 -650.97 -0.67 
624.44 -652.09 -0.97 
624.74 -652.29 -0.92 
626.50 -652.19 -0.67 
626.06 -652.38 -0.72 
625.63 -652.40 -0.79 
625.30 -652.45 -0.83 
616.64 -648.13 -2.21 
617.16 -652.66 -1.66 
617.38 -652.60 -1.64 
616.98 -652.87 -1.67 
623.37 -651.06 -0.91 
621.14 -651.86 -1.17 
620.95 -651.92 -1.20 
623.71 -651.54 -0.84 
623.25 -651.67 -0.90 
623.00 -651.61 -0.93 
624.05 -651.92 -0.78 
624.70 -651.89 -0.69 
624.28 -651.98 -0.74 
618.14 -651.29 -1.08 
620.44 -650.83 -0.79 
619.45 -651.61 -0.90 
618.52 -651.82 -1.02 
623.75 -650.70 -0.34 
620.20 -651.81 -0.80 
619.57 -651.82 -0.88 
619.07 -652.11 -0.94 
618.85 -652.16 -0.97 
620.48 -652.27 -0.75 
620.13 -652.27 -0.80 
619.34 -652.34 -0.90 
624.03 -651.35 -0.29 
624.97 -651.25 -0.16 
624.49 -651.41 -0.22 
624.07 -651.56 -0.28 
626.52 -651.40 0.06 
625.17 -651.55 -0.12 
624.96 -651.94 -0.15 
624.75 -651.84 -0.18 
626.74 -651.65 0.10 
626.31 -651.80 0.04 
625.84 -651.82 -0.02 
625.43 -652.07 -0.08 
626.78 -651.84 0.11 
626.07 -652.06 0.01 
625.64 -652.32 -0.04 
616.77 -647.96 -1.32 
616.53 -647.99 -1.35 
617.08 -647.98 -1.28 
623.35 -651.87 -0.09 
624.41 -652.57 0.06 
625.20 -652.74 0.17 
618.83 -651.35 -0.20 
619.56 -651.61 -0.10 
619.08 -651.56 -0.17 
619.84 -651.69 -0.07 
619.38 -651.79 -0.13 
618.95 -652.04 -0.18 
623.89 -650.67 0.47 
625.32 -650.87 0.67 
624.59 -650.95 0.57 
624.26 -651.12 0.52 
625.39 -650.91 0.68 
625.06 -651.08 0.63 
624.84 -651.25 0.60 
626.68 -651.21 0.86 
625.96 -651.41 0.76 
625.74 -651.27 0.72 
626.42 -651.57 0.82 
626.21 -651.58 0.79 
617.18 -647.77 -0.39 
616.79 -647.80 -0.44 
623.33 -651.32 0.70 
623.06 -651.41 0.66 
623.74 -651.47 0.75 
623.55 -651.50 0.72 
625.81 -651.21 1.02 
624.82 -651.64 0.89 
624.49 -651.71 0.84 
623.90 -652.05 0.77 
625.68 -651.98 1.00 
625.21 -651.91 0.94 
624.37 -652.13 0.83 
618.07 -650.71 0.52 
619.29 -650.65 0.66 
618.95 -650.78 0.62 
618.62 -650.89 0.57 
618.34 -650.79 0.54 
619.02 -651.07 0.62 
624.06 -650.74 1.27 
624.98 -650.82 1.40 
624.50 -650.90 1.33 
624.15 -650.86 1.28 
625.27 -650.95 1.44 
624.86 -650.97 1.38 
626.13 -651.07 1.55 
625.86 -651.14 1.51 
625.64 -651.14 1.48 
617.39 -651.26 0.82 
617.20 -651.33 0.80 
617.51 -651.46 0.83 
618.40 -651.86 0.91 
618.02 -651.83 0.87 
618.28 -652.14 0.89 
623.54 -650.91 1.53 
623.60 -650.98 1.53 
623.38 -651.21 1.50 
625.50 -651.29 1.76 
624.75 -650.76 2.15 
624.53 -650.92 2.11 
618.11 -651.31 1.72 
617.84 -651.23 1.70 
623.93 -650.98 2.37 
625.14 -651.14 2.51 
624.90 -651.09 2.48 
624.19 -651.06 2.40 
617.08 -651.78 -2.60 
616.83 -651.74 -2.64 
618.40 -651.75 -2.42 
617.90 -651.72 -2.49 
617.57 -651.82 -2.53 
617.34 -651.86 -2.56 
620.37 -651.62 -2.15 
620.15 -651.61 -2.19 
619.25 -651.96 -2.29 
618.88 -651.97 -2.34 
619.92 -651.78 -2.21 
619.71 -651.89 -2.23 
619.50 -652.00 -2.25 
620.73 -652.34 -2.06 
621.46 -652.28 -1.96 
621.05 -652.31 -2.01 
622.06 -652.52 -1.86 
622.76 -652.78 -1.74 
622.47 -652.72 -1.79 
624.96 -652.51 -1.45 
624.50 -652.69 -1.50 
624.19 -652.61 -1.55 
623.79 -652.72 -1.60 
623.36 -652.86 -1.65 
622.94 -652.96 -1.70 
625.60 -652.68 -1.35 
625.34 -652.58 -1.39 
625.81 -652.82 -1.31 
626.06 -653.48 -1.23 
627.21 -653.35 -1.08 
626.78 -653.34 -1.14 
626.41 -653.40 -1.19 
626.24 -653.50 -1.20 
628.38 -653.71 -0.89 
629.41 -653.92 -0.73 
617.64 -651.47 -1.75 
617.94 -651.73 -1.70 
618.26 -652.04 -1.64 
618.80 -652.42 -1.55 
618.45 -652.31 -1.61 
623.69 -651.16 -0.94 
620.80 -652.15 -1.29 
620.47 -652.14 -1.34 
620.14 -652.27 -1.38 
619.81 -652.34 -1.42 
619.38 -652.62 -1.47 
626.97 -650.76 -0.49 
624.17 -651.89 -0.84 
623.94 -651.71 -0.88 
624.40 -652.02 -0.80 
624.78 -652.27 -0.74 
626.04 -652.38 -0.56 
625.67 -652.41 -0.61 
625.24 -652.49 -0.66 
616.62 -648.11 -2.03 
619.98 -651.79 -1.16 
620.82 -651.88 -1.04 
622.96 -651.65 -0.77 
625.34 -652.00 -0.43 
618.04 -651.25 -0.91 
617.83 -651.63 -0.93 
619.41 -651.54 -0.73 
618.83 -651.85 -0.80 
618.38 -651.85 -0.86 
620.42 -651.61 -0.59 
619.88 -651.74 -0.66 
619.33 -651.81 -0.73 
619.08 -651.97 -0.76 
618.67 -652.01 -0.82 
620.67 -651.85 -0.56 
620.26 -652.08 -0.61 
625.01 -651.09 0.02 
623.85 -651.41 -0.13 
620.07 -652.40 -0.62 
624.42 -651.50 -0.05 
624.08 -651.53 -0.10 
625.20 -651.58 0.06 
624.85 -651.81 0.02 
626.78 -651.62 0.29 
626.51 -651.59 0.25 
626.21 -651.89 0.21 
625.86 -651.83 0.16 
625.53 -652.12 0.12 
616.61 -647.95 -1.16 
617.28 -647.90 -1.08 
625.61 -650.94 0.36 
618.57 -650.98 -0.05 
619.99 -650.86 0.13 
619.62 -651.45 0.08 
619.26 -651.39 0.04 
618.95 -651.52 0.00 
619.87 -651.67 0.11 
619.42 -651.75 0.06 
619.00 -652.00 0.00 
623.94 -650.89 0.66 
623.75 -650.74 0.63 
624.87 -651.01 0.79 
624.52 -651.05 0.74 
624.18 -651.22 0.69 
625.44 -650.98 0.87 
625.10 -651.02 0.82 
626.51 -651.28 1.02 
625.87 -651.38 0.93 
626.33 -651.52 0.99 
626.05 -651.57 0.95 
616.88 -647.80 -0.25 
616.61 -647.77 -0.28 
617.28 -647.77 -0.20 
616.57 -651.67 0.06 
617.81 -652.27 0.20 
617.52 -652.54 0.17 
618.75 -652.74 0.31 
625.52 -651.30 1.16 
625.11 -651.79 1.10 
624.89 -651.93 1.07 
625.37 -652.20 1.13 
618.40 -650.54 0.74 
618.22 -650.68 0.71 
619.61 -650.63 0.88 
619.38 -650.67 0.85 
618.70 -650.79 0.77 
619.09 -651.01 0.81 
624.11 -650.82 1.47 
624.89 -650.96 1.57 
624.42 -650.92 1.51 
625.68 -651.13 1.68 
625.35 -651.02 1.64 
625.92 -651.24 1.71 
616.97 -651.44 0.94 
618.25 -651.19 1.08 
617.23 -651.57 0.96 
618.08 -651.81 1.05 
617.59 -651.85 0.99 
617.94 -652.15 1.03 
624.00 -651.23 1.75 
623.66 -651.26 1.71 
623.06 -651.20 1.64 
622.89 -651.41 1.61 
624.47 -651.21 1.82 
624.24 -651.26 1.78 
623.81 -651.32 1.73 
624.74 -651.43 1.84 
624.71 -650.80 2.34 
624.44 -650.87 2.30 
625.26 -651.05 2.41 
617.28 -651.21 1.81 
617.58 -651.27 1.84 
623.90 -651.07 2.55 
623.56 -651.15 2.50 
624.37 -651.13 2.60 
624.16 -651.19 2.57 
618.44 -651.44 -2.28 
617.98 -651.50 -2.34 
617.29 -651.70 -2.42 
616.81 -651.68 -2.49 
620.41 -651.12 -2.03 
618.84 -651.72 -2.21 
618.50 -651.55 -2.27 
617.69 -651.70 -2.37 
621.55 -651.28 -1.86 
621.26 -651.30 -1.90 
620.68 -651.46 -1.97 
620.11 -651.63 -2.04 
619.09 -651.83 -2.17 
622.03 -651.52 -1.78 
621.75 -651.45 -1.82 
621.02 -651.56 -1.92 
619.81 -652.03 -2.05 
619.47 -652.02 -2.10 
623.19 -651.61 -1.61 
622.61 -651.62 -1.69 
622.26 -651.53 -1.75 
624.33 -651.69 -1.45 
624.00 -651.78 -1.49 
623.45 -651.85 -1.56 
622.95 -651.73 -1.64 
625.00 -651.75 -1.35 
624.66 -651.69 -1.40 
623.86 -651.89 -1.50 
623.57 -652.03 -1.53 
626.20 -651.78 -1.18 
625.56 -651.92 -1.26 
625.25 -651.96 -1.30 
627.52 -651.80 -0.99 
627.73 -652.22 -0.93 
627.94 -652.30 -0.90 
633.71 -654.07 0.04 
634.23 -654.26 0.13 
618.33 -651.97 -1.48 
620.18 -651.96 -1.23 
618.98 -652.41 -1.38 
618.60 -652.18 -1.44 
621.00 -652.10 -1.12 
620.61 -652.16 -1.17 
620.44 -652.27 -1.19 
620.01 -652.45 -1.24 
619.42 -652.50 -1.31 
618.92 -652.55 -1.38 
619.81 -652.67 -1.25 
624.34 -651.77 -0.67 
624.00 -651.79 -0.71 
624.67 -652.06 -0.61 
625.11 -652.48 -0.53 
624.89 -652.31 -0.57 
626.47 -652.35 -0.34 
626.00 -652.48 -0.40 
625.68 -652.48 -0.45 
625.33 -652.57 -0.49 
616.52 -648.15 -1.89 
617.15 -648.10 -1.81 
616.91 -648.12 -1.84 
619.45 -651.03 -1.11 
616.71 -651.76 -1.43 
619.83 -651.11 -1.06 
618.45 -652.14 -1.19 
617.24 -652.24 -1.34 
623.10 -651.83 -0.59 
623.69 -652.10 -0.50 
623.46 -652.03 -0.53 
624.07 -652.35 -0.43 
624.43 -652.48 -0.38 
618.34 -651.18 -0.72 
619.78 -651.35 -0.53 
618.92 -651.91 -0.63 
620.74 -651.46 -0.40 
620.57 -651.71 -0.41 
620.10 -651.78 -0.47 
619.60 -651.75 -0.54 
619.30 -652.08 -0.58 
624.27 -651.01 0.08 
623.92 -651.08 0.03 
620.47 -652.10 -0.42 
620.24 -652.36 -0.44 
624.13 -651.27 0.07 
620.85 -652.39 -0.36 
626.69 -651.00 0.43 
625.74 -651.39 0.30 
625.28 -651.44 0.23 
624.81 -651.56 0.17 
624.58 -651.67 0.14 
626.91 -651.18 0.46 
626.30 -651.70 0.38 
625.99 -651.84 0.34 
625.50 -651.95 0.27 
625.03 -651.84 0.21 
625.93 -651.99 0.34 
617.04 -647.93 -0.95 
616.78 -647.96 -0.99 
617.59 -647.89 -0.88 
617.28 -647.91 -0.92 
616.74 -652.48 -0.59 
617.31 -652.73 -0.51 
617.03 -652.66 -0.55 
619.28 -652.36 -0.27 
618.96 -652.53 -0.31 
617.88 -652.97 -0.44 
617.62 -652.94 -0.47 
622.83 -651.56 0.16 
622.61 -651.66 0.14 
623.37 -652.07 0.25 
623.15 -652.23 0.22 
623.86 -652.32 0.32 
623.61 -652.16 0.28 
620.31 -650.53 0.34 
620.12 -650.58 0.31 
618.81 -650.93 0.14 
620.57 -650.72 0.37 
619.92 -651.34 0.29 
619.33 -651.46 0.21 
620.18 -651.57 0.32 
619.74 -651.75 0.26 
624.52 -650.82 0.91 
624.17 -650.95 0.86 
625.14 -651.04 1.00 
624.75 -651.12 0.94 
624.26 -651.23 0.87 
626.03 -651.15 1.13 
625.59 -651.10 1.06 
624.96 -651.30 0.97 
626.80 -651.36 1.24 
626.56 -651.33 1.21 
616.59 -651.55 0.22 
617.80 -652.17 0.35 
619.01 -651.95 0.50 
618.69 -652.17 0.46 
618.37 -652.11 0.42 
618.05 -652.17 0.38 
617.36 -652.34 0.30 
617.13 -652.43 0.28 
623.40 -651.21 1.05 
623.04 -651.19 1.00 
622.73 -651.24 0.96 
624.14 -651.46 1.14 
623.91 -651.55 1.11 
623.72 -651.84 1.08 
618.58 -650.54 0.92 
619.06 -650.81 0.98 
618.82 -650.75 0.95 
624.40 -650.87 1.69 
625.80 -650.86 1.89 
625.35 -650.91 1.82 
625.00 -650.93 1.77 
624.65 -650.95 1.72 
626.02 -651.13 1.92 
625.57 -651.00 1.86 
626.24 -651.39 1.94 
626.05 -651.24 1.92 
618.60 -650.82 1.28 
618.40 -651.03 1.26 
617.44 -651.24 1.14 
617.10 -651.30 1.11 
618.47 -651.14 1.26 
618.36 -651.75 1.23 
618.11 -651.74 1.21 
617.90 -651.83 1.18 
624.11 -651.17 1.94 
623.73 -651.26 1.89 
623.55 -651.16 1.87 
624.39 -651.15 2.79 
624.05 -651.11 2.74 
623.69 -651.22 2.69 
624.54 -651.31 2.80 
617.16 -651.75 -2.27 
616.65 -651.81 -2.34 
618.75 -651.69 -2.06 
618.45 -651.61 -2.10 
618.05 -651.61 -2.16 
617.72 -651.78 -2.19 
617.35 -651.73 -2.25 
620.51 -651.46 -1.83 
620.18 -651.67 -1.86 
619.25 -651.99 -1.97 
618.91 -651.84 -2.03 
621.73 -651.60 -1.65 
621.39 -651.60 -1.70 
620.85 -651.58 -1.78 
619.83 -651.92 -1.89 
619.48 -651.94 -1.94 
622.22 -651.79 -1.57 
621.97 -651.65 -1.62 
623.12 -652.05 -1.43 
622.67 -651.96 -1.50 
624.98 -651.86 -1.18 
624.75 -651.80 -1.22 
624.38 -652.00 -1.26 
623.92 -652.09 -1.32 
623.46 -652.09 -1.38 
626.41 -651.74 -0.99 
626.04 -651.99 -1.03 
625.52 -652.02 -1.10 
625.20 -652.03 -1.14 
627.71 -652.22 -0.78 
631.41 -653.46 -0.17 
632.95 -653.72 0.07 
632.30 -653.56 -0.04 
633.49 -653.94 0.16 
633.19 -653.75 0.10 
634.13 -654.16 0.27 
633.78 -654.11 0.21 
617.93 -651.37 -1.39 
618.22 -651.77 -1.34 
618.47 -652.02 -1.29 
620.13 -651.97 -1.07 
618.74 -652.33 -1.24 
620.89 -652.01 -0.97 
620.56 -652.22 -1.00 
620.23 -652.31 -1.04 
619.83 -652.52 -1.09 
619.43 -652.36 -1.15 
619.10 -652.46 -1.19 
623.99 -651.60 -0.55 
623.95 -651.75 -0.55 
619.91 -652.56 -1.08 
619.68 -652.63 -1.10 
624.49 -651.80 -0.47 
624.20 -651.72 -0.52 
625.07 -652.27 -0.37 
624.83 -652.27 -0.41 
625.61 -652.40 -0.29 
625.28 -652.46 -0.33 
626.45 -652.34 -0.17 
626.06 -652.45 -0.22 
617.22 -648.07 -1.63 
616.96 -648.10 -1.67 
616.70 -648.10 -1.70 
620.49 -650.65 -0.82 
616.72 -651.68 -1.27 
620.06 -650.97 -0.87 
618.71 -651.63 -1.01 
617.38 -652.25 -1.16 
618.56 -652.10 -1.01 
617.81 -652.53 -1.09 
623.28 -651.70 -0.40 
623.09 -651.75 -0.43 
626.10 -651.22 -0.04 
625.87 -651.51 -0.06 
623.54 -652.04 -0.35 
625.52 -652.01 -0.08 
623.83 -652.26 -0.30 
624.72 -652.42 -0.17 
618.28 -651.23 -0.56 
618.12 -651.72 -0.57 
620.69 -651.36 -0.23 
619.86 -651.47 -0.34 
619.56 -651.72 -0.38 
618.71 -651.74 -0.49 
623.93 -650.68 0.20 
620.65 -651.53 -0.23 
620.22 -651.63 -0.29 
619.65 -651.92 -0.36 
619.19 -652.10 -0.42 
624.11 -651.00 0.23 
620.45 -651.93 -0.25 
625.07 -651.33 0.38 
624.44 -651.33 0.29 
625.94 -651.46 0.51 
625.76 -651.35 0.48 
625.27 -651.34 0.41 
624.78 -651.48 0.34 
626.80 -651.39 0.63 
626.41 -651.59 0.58 
626.17 -651.63 0.54 
625.66 -651.99 0.48 
625.45 -651.95 0.45 
624.99 -651.90 0.38 
626.59 -651.88 0.61 
616.83 -647.93 -0.81 
617.22 -647.91 -0.76 
616.84 -652.43 -0.41 
618.56 -652.26 -0.20 
617.30 -652.76 -0.35 
622.73 -651.46 0.32 
619.48 -652.26 -0.08 
619.25 -652.30 -0.11 
619.06 -652.51 -0.13 
617.81 -652.84 -0.28 
623.20 -651.65 0.39 
618.21 -653.02 -0.23 
623.22 -652.09 0.40 
624.20 -652.11 0.53 
623.82 -652.32 0.48 
625.12 -652.19 0.66 
624.67 -652.44 0.60 
624.43 -652.38 0.57 
620.08 -650.63 0.48 
618.76 -650.87 0.31 
620.52 -650.74 0.54 
619.11 -651.00 0.35 
620.10 -651.44 0.48 
619.80 -651.40 0.44 
619.39 -651.41 0.39 
619.69 -651.72 0.43 
624.58 -650.86 1.10 
624.02 -650.82 1.03 
625.42 -650.91 1.23 
625.06 -651.13 1.17 
624.23 -651.29 1.05 
626.67 -650.81 1.41 
626.13 -651.05 1.33 
625.91 -651.07 1.30 
625.63 -651.25 1.26 
627.03 -651.34 1.46 
626.68 -651.36 1.41 
626.33 -651.40 1.36 
617.87 -647.72 0.20 
617.54 -647.77 0.16 
620.26 -650.46 0.51 
617.85 -651.92 0.52 
616.91 -652.06 0.41 
623.00 -650.67 1.17 
619.11 -651.84 0.67 
618.61 -651.97 0.61 
618.27 -652.21 0.57 
617.99 -652.28 0.54 
617.46 -652.29 0.48 
617.24 -652.38 0.45 
617.77 -652.55 0.51 
623.89 -651.46 1.28 
623.42 -651.43 1.22 
625.70 -651.24 1.53 
624.77 -651.48 1.40 
625.47 -651.55 1.50 
625.24 -651.89 1.46 
625.01 -651.77 1.43 
624.31 -651.90 1.34 
619.00 -650.75 1.14 
618.79 -650.72 1.12 
619.51 -651.12 1.20 
619.26 -650.93 1.17 
624.39 -650.84 1.88 
625.66 -650.91 2.07 
625.23 -650.87 2.00 
624.88 -650.87 1.95 
624.61 -650.91 1.91 
624.18 -651.07 1.84 
626.04 -651.07 2.12 
626.23 -651.30 2.14 
618.53 -650.58 1.09 
618.64 -650.74 1.28 
617.48 -651.26 1.31 
617.09 -651.20 1.27 
617.69 -651.41 1.33 
618.46 -651.60 1.41 
618.07 -651.68 1.37 
624.39 -650.82 2.17 
623.68 -651.05 2.07 
624.05 -651.10 2.12 
623.91 -651.17 2.10 
617.46 -651.06 2.15 
624.35 -650.96 2.98 
624.05 -651.01 2.94 
624.76 -651.23 3.02 
624.56 -651.20 2.99 
621.85 -650.62 -1.50 
621.61 -650.67 -1.53 
621.41 -650.85 -1.55 
620.68 -651.10 -1.63 
618.79 -651.51 -1.86 
624.41 -650.34 -1.16 
624.01 -650.66 -1.20 
623.82 -650.62 -1.23 
622.83 -651.05 -1.33 
622.32 -650.82 -1.42 
622.08 -650.88 -1.45 
620.65 -651.42 -1.61 
619.02 -651.88 -1.81 
623.75 -650.96 -1.21 
623.40 -651.15 -1.25 
623.04 -651.16 -1.30 
622.64 -651.29 -1.35 
622.34 -651.45 -1.38 
620.30 -651.91 -1.63 
619.98 -652.18 -1.65 
619.60 -652.19 -1.71 
619.28 -652.11 -1.76 
624.71 -651.39 -1.05 
624.99 -651.41 -1.01 
626.55 -651.66 -0.77 
625.83 -651.53 -0.88 
625.56 -651.83 -0.90 
625.32 -651.84 -0.93 
626.12 -652.01 -0.81 
631.31 -652.05 -0.08 
630.99 -652.05 -0.12 
630.49 -652.29 -0.18 
630.29 -652.30 -0.21 
629.78 -652.39 -0.27 
631.87 -652.18 0.01 
631.45 -652.16 -0.05 
629.98 -652.45 -0.24 
632.33 -652.36 0.09 
631.28 -652.96 -0.02 
633.76 -653.26 0.35 
634.74 -653.45 0.51 
634.27 -653.34 0.43 
635.37 -653.59 0.61 
635.08 -653.53 0.56 
636.46 -653.74 0.77 
636.05 -653.77 0.72 
635.57 -653.91 0.66 
637.29 -654.55 0.95 
617.23 -648.18 -2.30 
617.02 -648.19 -2.33 
624.59 -650.15 -1.15 
628.03 -650.11 -0.67 
617.99 -651.44 -1.18 
618.26 -651.78 -1.13 
618.52 -652.08 -1.08 
621.02 -651.84 -0.75 
620.10 -652.10 -0.86 
619.09 -652.23 -1.00 
618.72 -652.14 -1.05 
621.27 -652.02 -0.71 
620.70 -652.17 -0.78 
620.35 -652.20 -0.82 
619.52 -652.50 -0.93 
619.21 -652.47 -0.97 
624.53 -651.74 -0.26 
624.31 -651.56 -0.30 
624.97 -651.95 -0.19 
624.75 -651.88 -0.22 
627.16 -651.76 0.12 
625.29 -652.19 -0.13 
627.07 -652.05 0.12 
626.78 -652.32 0.09 
626.54 -652.40 0.06 
626.15 -652.45 0.00 
625.76 -652.54 -0.05 
616.64 -648.09 -1.51 
617.63 -648.03 -1.38 
616.86 -648.07 -1.48 
616.80 -651.59 -1.07 
617.27 -651.88 -0.99 
617.38 -652.24 -0.96 
623.25 -651.20 -0.22 
618.67 -652.15 -0.79 
618.15 -652.56 -0.85 
617.91 -652.50 -0.88 
623.30 -651.62 -0.20 
623.53 -651.84 -0.15 
623.90 -652.11 -0.09 
619.75 -651.56 -0.14 
618.83 -651.81 -0.26 
624.41 -650.80 0.49 
620.92 -651.46 0.01 
620.57 -651.61 -0.03 
620.11 -651.73 -0.09 
619.43 -652.03 -0.18 
619.08 -651.97 -0.23 
624.71 -651.18 0.54 
625.41 -651.34 0.65 
624.88 -651.34 0.57 
626.62 -651.50 0.83 
626.06 -651.40 0.74 
625.75 -651.60 0.70 
625.11 -651.82 0.62 
626.66 -651.73 0.84 
626.27 -651.89 0.79 
625.55 -652.03 0.68 
626.79 -651.89 0.86 
617.02 -647.88 -0.58 
616.78 -647.89 -0.62 
618.03 -647.80 -0.45 
617.79 -647.83 -0.48 
617.40 -647.85 -0.53 
616.82 -652.30 -0.22 
619.65 -652.11 0.14 
623.15 -651.28 0.58 
622.94 -651.41 0.56 
619.45 -652.36 0.12 
619.12 -652.51 0.08 
617.58 -652.84 -0.11 
623.65 -651.81 0.66 
623.46 -651.83 0.64 
627.14 -651.03 0.90 
624.35 -651.96 0.76 
623.90 -652.22 0.71 
623.42 -652.02 0.64 
623.24 -652.16 0.61 
624.13 -652.21 0.74 
619.15 -650.83 0.57 
618.67 -650.88 0.51 
619.40 -650.95 0.61 
620.21 -651.27 0.71 
619.88 -651.35 0.67 
619.66 -651.34 0.64 
624.40 -651.15 1.31 
625.93 -651.10 1.53 
625.22 -651.04 1.43 
626.39 -651.19 1.60 
618.91 -650.75 0.54 
618.09 -651.95 0.76 
617.13 -652.04 0.64 
623.27 -650.71 1.42 
618.50 -652.17 0.81 
617.94 -652.40 0.74 
617.43 -652.31 0.68 
624.76 -650.85 1.36 
623.53 -651.04 1.46 
625.59 -650.94 1.48 
624.84 -651.31 1.64 
624.49 -651.28 1.59 
623.89 -651.37 1.51 
626.03 -651.31 1.80 
625.32 -651.52 1.70 
625.67 -651.67 1.75 
619.32 -650.82 1.40 
619.53 -650.89 1.43 
619.04 -650.57 1.37 
617.35 -651.16 1.50 
618.11 -651.25 1.59 
617.74 -651.27 1.55 
618.89 -651.53 1.68 
618.65 -651.53 1.65 
625.51 -650.77 2.29 
624.92 -650.83 2.20 
624.14 -650.96 2.36 
623.79 -651.08 2.31 
626.22 -650.85 2.40 
625.84 -650.97 2.33 
625.41 -651.01 2.40 
624.63 -651.15 2.43 
624.39 -651.13 2.39 
625.81 -651.37 2.59 
625.34 -651.38 2.52 
625.11 -651.35 2.49 
624.86 -651.39 2.45 
617.50 -650.95 2.36 
624.28 -650.95 3.21 
624.75 -651.19 3.26 
624.04 -651.17 3.16 
622.30 -650.41 -1.29 
621.95 -650.39 -1.34 
621.60 -650.63 -1.37 
624.72 -651.30 -0.89 
627.08 -651.26 -0.57 
625.80 -651.57 -0.73 
625.03 -651.58 -0.83 
626.68 -651.55 -0.60 
625.79 -651.83 -0.71 
625.53 -651.82 -0.75 
625.28 -651.82 -0.78 
626.43 -652.09 -0.60 
626.06 -652.08 -0.65 
629.82 -652.38 -0.11 
632.24 -652.58 0.24 
633.85 -653.26 0.52 
634.05 -653.29 0.55 
622.55 -650.35 -1.26 
628.12 -650.01 -0.51 
630.99 -651.89 0.02 
632.31 -651.82 0.20 
631.78 -652.08 0.15 
631.43 -651.98 0.09 
631.14 -652.08 0.06 
621.51 -654.68 -0.88 
632.67 -652.27 0.29 
632.17 -652.10 0.20 
623.96 -654.48 -0.56 
623.73 -654.50 -0.59 
623.39 -654.52 -0.64 
622.94 -654.58 -0.70 
632.74 -652.65 0.32 
624.17 -654.52 -0.53 
623.93 -654.57 -0.56 
633.55 -652.88 0.45 
628.67 -654.13 0.06 
628.11 -654.20 -0.01 
627.85 -654.20 -0.05 
637.16 -652.34 0.93 
636.82 -652.43 0.89 
633.87 -653.08 0.51 
633.67 -652.95 0.47 
629.77 -654.22 0.22 
629.49 -654.19 0.18 
629.00 -654.18 0.11 
628.44 -654.25 0.04 
628.39 -654.33 0.04 
634.88 -653.24 0.66 
634.46 -653.26 0.61 
634.12 -653.23 0.56 
631.89 -654.15 0.51 
631.43 -654.10 0.45 
631.07 -654.10 0.40 
630.58 -654.21 0.33 
630.24 -654.22 0.29 
630.01 -654.24 0.26 
636.13 -653.50 0.86 
635.29 -653.53 0.74 
635.01 -653.51 0.70 
632.59 -654.17 0.61 
632.39 -654.09 0.58 
637.70 -653.97 1.32 
637.20 -654.33 1.27 
636.59 -654.21 1.18 
637.17 -654.65 1.09 
620.20 -652.10 -0.68 
624.50 -651.44 -0.11 
624.30 -651.30 -0.14 
620.99 -652.05 -0.57 
620.01 -652.37 -0.69 
625.03 -651.96 -0.01 
624.68 -651.88 -0.06 
627.36 -651.75 0.32 
627.08 -651.97 0.29 
625.32 -652.29 0.05 
626.78 -652.19 0.25 
626.13 -652.46 0.17 
625.65 -652.49 0.10 
616.72 -648.29 -1.05 
617.62 -651.93 -0.77 
623.62 -650.76 -0.02 
619.57 -651.61 -0.53 
619.34 -651.84 -0.55 
617.90 -652.10 -0.73 
619.45 -652.01 -0.53 
619.13 -652.20 -0.56 
618.61 -652.43 -0.62 
618.40 -652.24 -0.66 
623.87 -651.37 0.04 
618.91 -652.47 -0.58 
624.10 -651.66 0.08 
624.57 -652.12 0.17 
625.15 -652.20 0.25 
624.80 -652.23 0.20 
620.61 -651.73 0.15 
624.71 -651.26 0.73 
625.24 -651.48 0.81 
625.11 -651.55 0.79 
624.62 -651.51 0.72 
626.79 -651.58 1.04 
625.83 -651.64 0.90 
626.95 -651.95 1.07 
626.51 -651.78 1.00 
617.84 -647.80 -0.30 
618.78 -651.92 0.19 
617.84 -652.18 0.08 
624.39 -650.71 0.67 
619.49 -652.17 0.29 
618.91 -652.13 0.21 
618.61 -652.37 0.18 
618.11 -652.35 0.12 
617.61 -652.41 0.05 
624.93 -651.12 0.76 
623.90 -651.31 0.86 
619.99 -652.32 0.36 
619.77 -652.45 0.33 
619.40 -652.44 0.28 
619.06 -652.48 0.24 
618.62 -652.69 0.19 
618.40 -652.80 0.16 
627.25 -650.79 1.09 
626.71 -650.87 1.25 
626.10 -651.36 0.93 
625.64 -651.23 0.86 
625.44 -651.22 0.83 
624.16 -651.76 0.91 
623.66 -651.79 0.84 
626.37 -651.45 1.09 
626.16 -651.60 1.18 
624.75 -651.87 0.99 
625.89 -651.92 1.15 
625.41 -652.12 1.09 
620.54 -650.60 0.94 
