# .PCD v0.7 - Point Cloud Data file format
VERSION 0.7
FIELDS x y z
SIZE 4 4 4
TYPE F F F
COUNT 1 1 1
WIDTH 1420
HEIGHT 1
VIEWPOINT 0 0 0 1 0 0 0
POINTS 1420
DATA ascii
642.22 -711.77 5.57 
641.78 -705.94 6.42 
642.53 -705.64 6.25 
642.51 -705.46 7.24 
643.06 -706.28 7.69 
642.30 -705.49 6.24 
642.43 -705.64 7.39 
642.53 -713.91 5.23 
643.07 -714.28 5.36 
642.76 -714.27 5.31 
641.83 -715.72 5.40 
656.77 -707.65 3.37 
641.75 -710.24 4.58 
643.02 -710.46 4.79 
643.30 -710.38 4.82 
642.98 -713.82 5.28 
643.40 -714.86 5.50 
642.54 -708.38 4.47 
642.63 -709.40 4.64 
642.82 -709.54 4.68 
643.03 -710.02 4.78 
643.81 -710.00 4.89 
643.63 -713.48 5.38 
644.00 -713.60 5.45 
644.42 -713.86 5.55 
643.08 -715.24 5.56 
642.11 -709.87 5.50 
641.92 -712.75 5.97 
641.55 -713.30 6.01 
642.68 -712.85 6.09 
642.39 -713.21 6.11 
643.05 -706.24 4.37 
643.26 -706.29 4.41 
642.78 -706.63 4.39 
642.25 -706.99 4.37 
643.74 -707.72 4.69 
641.90 -709.66 4.72 
643.84 -710.42 5.11 
644.00 -710.74 5.18 
643.15 -711.69 5.20 
644.63 -712.13 5.48 
644.88 -712.68 5.60 
645.15 -712.85 5.66 
642.68 -706.42 5.11 
641.70 -706.78 5.04 
642.84 -708.75 5.54 
644.21 -714.51 5.77 
641.86 -709.01 5.44 
642.60 -708.88 5.52 
641.56 -709.43 5.48 
643.25 -709.36 5.70 
642.98 -709.59 5.70 
642.06 -710.82 5.78 
641.62 -712.46 6.01 
643.27 -711.69 6.11 
642.63 -712.40 6.14 
643.45 -712.15 6.21 
643.70 -712.25 6.26 
643.22 -706.06 4.44 
642.99 -706.32 4.44 
641.58 -707.05 4.35 
641.53 -707.68 4.44 
643.36 -706.61 4.54 
641.81 -707.02 4.70 
641.64 -710.30 4.85 
643.34 -710.33 5.39 
643.84 -710.34 5.17 
642.52 -711.33 5.13 
641.72 -712.29 5.16 
641.84 -713.20 5.31 
642.06 -713.50 5.39 
646.25 -711.10 5.65 
646.51 -711.46 5.74 
644.20 -713.53 5.70 
644.46 -713.67 5.76 
642.65 -706.28 5.13 
642.83 -706.40 5.17 
641.80 -708.15 5.33 
643.36 -708.34 5.59 
641.89 -709.08 5.51 
642.80 -709.36 5.68 
643.95 -709.56 5.89 
642.87 -711.85 6.13 
643.34 -712.09 6.24 
643.06 -712.24 6.22 
642.59 -712.36 6.18 
641.53 -708.97 6.25 
642.40 -708.57 6.29 
641.56 -711.14 6.68 
642.47 -705.28 4.29 
642.97 -706.54 4.10 
643.27 -706.13 4.53 
641.69 -706.80 4.71 
643.45 -706.21 4.57 
642.83 -706.84 4.58 
643.84 -706.40 4.66 
643.66 -706.76 4.68 
642.70 -708.44 4.80 
641.53 -709.62 4.81 
644.83 -709.71 5.31 
644.00 -710.40 5.29 
645.16 -709.60 5.34 
641.55 -705.61 4.91 
642.14 -705.56 4.98 
642.30 -706.18 5.12 
642.74 -706.37 5.21 
641.69 -713.17 5.37 
645.00 -711.26 5.56 
646.70 -711.48 5.86 
645.52 -712.43 5.82 
645.29 -713.24 5.91 
644.23 -713.85 5.84 
645.90 -713.27 6.01 
646.31 -713.88 6.16 
642.46 -707.42 5.36 
642.63 -707.55 5.40 
642.82 -708.19 5.54 
643.47 -708.25 5.65 
641.67 -709.17 5.55 
643.50 -708.43 5.68 
642.98 -709.54 5.80 
643.11 -709.53 5.82 
643.89 -709.56 5.94 
644.61 -709.42 6.02 
642.07 -716.07 5.86 
642.04 -713.57 6.37 
642.32 -707.74 6.15 
642.49 -708.63 6.35 
641.55 -709.08 6.31 
642.59 -710.23 6.69 
641.66 -710.61 6.63 
642.46 -705.52 4.41 
643.46 -706.31 4.68 
643.07 -708.15 4.41 
641.99 -712.42 4.54 
644.31 -711.63 5.02 
642.56 -714.08 5.09 
643.03 -706.61 4.66 
642.86 -706.69 4.65 
643.23 -706.57 4.68 
643.64 -707.06 4.82 
642.50 -708.05 5.07 
643.99 -707.76 4.98 
644.81 -708.90 5.27 
644.40 -709.29 5.27 
644.18 -709.49 5.27 
645.24 -709.36 5.41 
645.07 -709.51 5.40 
643.74 -710.38 5.34 
644.64 -709.90 5.40 
645.42 -709.94 5.52 
641.97 -705.63 5.04 
641.56 -705.90 5.03 
642.33 -706.19 5.19 
642.93 -706.33 5.30 
642.52 -706.76 5.32 
643.58 -710.35 5.57 
646.38 -711.45 5.90 
646.58 -711.45 5.93 
645.77 -712.78 6.01 
645.97 -712.76 6.04 
641.58 -709.07 5.59 
643.48 -708.42 5.75 
643.82 -709.01 5.91 
644.48 -709.60 6.11 
644.30 -709.89 6.14 
642.30 -707.72 6.19 
643.05 -711.51 6.23 
641.97 -708.30 6.26 
642.47 -710.30 6.74 
643.27 -710.44 6.88 
642.76 -711.78 7.08 
643.91 -707.75 4.60 
643.09 -708.16 4.53 
641.80 -705.76 4.46 
642.87 -706.52 4.74 
642.38 -706.68 4.69 
642.80 -707.38 4.86 
643.40 -710.00 4.81 
643.17 -710.18 4.80 
644.05 -710.02 4.91 
644.16 -712.91 5.30 
644.62 -713.75 5.47 
642.60 -715.36 5.15 
642.05 -716.47 5.22 
641.56 -706.08 4.73 
642.21 -707.10 4.98 
643.25 -707.60 4.96 
643.05 -707.60 4.93 
643.45 -708.02 5.06 
641.83 -709.06 5.23 
643.53 -708.59 5.16 
644.68 -709.75 5.51 
644.41 -710.09 5.52 
644.41 -711.77 5.78 
645.59 -711.52 5.92 
642.37 -706.65 5.37 
642.01 -706.84 5.35 
642.72 -707.89 5.64 
641.90 -708.02 5.54 
643.71 -710.19 5.66 
641.84 -713.44 5.89 
644.02 -712.72 5.86 
644.08 -712.97 5.91 
645.27 -713.10 6.11 
644.83 -713.67 6.13 
645.15 -713.87 6.21 
642.97 -708.66 5.82 
642.79 -708.79 5.81 
642.38 -709.26 5.83 
643.04 -709.46 5.97 
643.73 -709.93 6.16 
643.92 -709.99 6.20 
643.54 -710.43 6.22 
641.82 -707.92 6.24 
641.58 -708.10 6.23 
642.65 -708.66 6.51 
641.62 -709.03 6.43 
642.06 -709.42 6.57 
642.47 -709.78 6.71 
642.78 -710.99 7.00 
642.06 -711.18 6.93 
642.66 -706.16 4.09 
645.44 -710.05 5.01 
642.53 -705.69 4.66 
642.73 -705.96 4.73 
642.39 -706.46 4.76 
642.19 -706.34 4.71 
641.84 -706.50 4.68 
643.08 -706.41 4.86 
643.37 -706.52 4.92 
643.94 -707.20 5.11 
643.87 -709.84 4.96 
643.54 -710.21 4.96 
641.63 -713.83 4.92 
642.87 -714.20 5.15 
642.13 -714.93 5.13 
641.73 -705.88 4.81 
641.81 -707.13 5.01 
641.93 -708.79 5.04 
641.84 -709.29 5.35 
645.22 -709.38 5.64 
643.56 -710.44 5.54 
645.43 -709.53 5.70 
645.06 -709.77 5.68 
646.22 -711.48 6.12 
642.27 -705.62 5.26 
642.08 -705.72 5.25 
642.44 -705.61 5.29 
641.88 -705.99 5.27 
641.54 -706.15 5.24 
642.91 -706.62 5.54 
642.74 -706.85 5.55 
643.12 -707.06 5.65 
643.30 -707.66 5.78 
642.22 -708.41 5.75 
643.51 -708.53 5.97 
644.37 -710.28 5.86 
646.01 -712.82 6.29 
643.76 -708.82 6.06 
643.94 -708.82 6.09 
644.28 -709.65 6.29 
644.82 -709.67 6.38 
644.15 -710.44 6.41 
641.55 -711.88 6.26 
641.81 -706.62 6.05 
642.09 -707.93 6.36 
641.51 -708.00 6.28 
642.32 -708.40 6.49 
642.59 -708.81 6.61 
642.19 -709.10 6.61 
643.17 -708.67 6.68 
642.41 -709.14 6.65 
645.03 -713.66 7.11 
641.54 -707.14 6.82 
643.47 -709.51 6.89 
642.79 -706.63 4.29 
644.93 -708.35 5.03 
641.84 -712.71 4.93 
645.50 -711.82 5.37 
641.62 -705.75 4.64 
642.04 -705.88 4.72 
641.92 -706.62 4.82 
642.71 -706.84 4.98 
642.30 -706.85 4.91 
642.55 -707.48 5.05 
644.16 -710.00 5.14 
643.96 -710.51 5.17 
642.23 -714.15 5.17 
641.57 -715.95 5.31 
642.06 -706.51 5.05 
642.24 -706.88 5.13 
641.67 -708.42 5.06 
644.76 -708.38 5.53 
643.51 -709.92 5.57 
643.84 -710.22 5.87 
645.59 -711.62 6.16 
645.78 -711.63 6.19 
642.10 -705.80 5.37 
641.88 -705.88 5.35 
642.61 -706.79 5.62 
642.46 -707.18 5.67 
642.91 -707.93 5.87 
643.15 -708.16 5.95 
643.99 -708.10 6.08 
643.18 -709.04 6.11 
644.16 -710.82 6.01 
641.57 -712.47 5.89 
645.57 -713.03 6.37 
642.85 -708.92 6.25 
642.01 -709.26 6.19 
642.55 -710.11 6.20 
643.66 -710.24 6.40 
643.91 -710.62 6.51 
643.69 -710.68 6.48 
644.28 -710.81 6.60 
642.00 -707.91 6.43 
641.93 -708.99 6.63 
641.72 -709.06 6.61 
642.91 -708.78 6.75 
642.54 -708.88 6.71 
642.25 -709.08 6.70 
642.76 -709.29 6.83 
643.23 -709.63 6.97 
642.83 -709.58 6.90 
643.27 -709.71 7.00 
643.17 -706.49 4.48 
642.92 -706.64 4.46 
644.25 -714.34 5.02 
644.05 -707.58 4.76 
644.11 -710.01 5.27 
645.37 -710.63 5.35 
643.29 -712.92 5.32 
642.92 -713.74 5.38 
641.77 -705.86 4.82 
641.97 -706.05 4.88 
642.42 -706.45 5.01 
642.77 -706.33 5.05 
642.62 -706.73 5.09 
643.30 -706.68 5.19 
642.55 -708.66 5.37 
645.14 -712.05 5.69 
645.83 -712.14 5.80 
642.88 -713.75 5.37 
642.27 -714.33 5.35 
642.73 -714.38 5.43 
642.48 -714.38 5.39 
645.21 -713.34 5.87 
641.90 -715.37 5.43 
641.66 -715.92 5.47 
645.05 -714.74 5.83 
645.79 -714.88 5.96 
641.54 -707.16 5.19 
642.11 -708.44 5.47 
642.27 -708.47 5.50 
643.14 -708.72 5.47 
646.86 -711.10 6.44 
646.49 -711.09 6.38 
646.36 -711.32 6.39 
646.44 -711.84 6.48 
646.73 -711.85 6.53 
642.41 -705.93 5.57 
642.27 -706.11 5.58 
642.84 -706.83 5.80 
642.62 -707.13 5.82 
643.28 -708.08 6.09 
643.72 -709.01 6.33 
642.40 -706.50 6.33 
642.17 -709.52 6.37 
641.98 -709.55 6.35 
644.61 -710.11 6.67 
643.95 -710.10 6.56 
644.98 -709.95 6.71 
644.31 -710.81 6.74 
643.18 -708.80 6.93 
642.91 -708.96 6.91 
644.91 -713.49 7.32 
641.66 -710.47 7.21 
641.85 -712.68 4.48 
643.00 -706.21 4.59 
643.19 -706.54 4.66 
642.14 -714.12 4.88 
642.48 -716.59 5.19 
641.62 -706.86 4.65 
644.10 -711.83 5.49 
643.88 -711.93 5.47 
643.40 -712.92 5.52 
642.78 -713.64 5.52 
642.57 -713.70 5.50 
642.83 -713.69 5.54 
641.85 -705.86 4.99 
641.52 -706.10 4.98 
642.41 -706.35 5.16 
642.66 -706.77 5.26 
643.21 -706.66 5.33 
643.12 -707.12 5.39 
642.21 -707.47 5.30 
642.96 -707.31 5.39 
643.08 -707.66 5.47 
644.26 -707.57 5.64 
642.05 -708.78 5.48 
642.46 -714.36 5.57 
641.53 -714.87 5.49 
641.85 -715.14 5.58 
643.37 -715.40 5.84 
642.30 -715.94 5.75 
641.66 -705.87 5.59 
641.56 -706.31 5.66 
642.08 -707.17 5.41 
641.68 -707.11 5.34 
642.26 -707.16 5.44 
641.56 -708.86 5.60 
642.55 -708.91 5.75 
644.98 -709.63 6.08 
643.53 -711.08 6.24 
647.00 -710.97 6.62 
642.31 -708.49 6.17 
641.82 -707.36 6.56 
645.18 -709.76 6.87 
642.50 -713.27 7.05 
641.83 -708.36 6.76 
642.06 -708.58 6.84 
641.61 -707.61 7.26 
641.76 -712.59 4.61 
641.81 -712.67 4.63 
642.95 -706.39 4.76 
643.24 -706.58 4.83 
642.73 -712.90 4.98 
642.73 -713.32 5.02 
645.33 -712.34 5.29 
645.18 -712.75 5.32 
642.14 -714.51 5.07 
642.45 -714.85 5.15 
642.67 -715.03 5.20 
642.27 -715.66 5.21 
641.61 -705.75 4.64 
641.78 -706.14 4.72 
642.46 -707.30 4.97 
642.82 -710.84 5.49 
644.26 -710.45 5.65 
641.93 -711.65 5.28 
641.75 -711.88 5.28 
644.22 -711.81 5.66 
643.84 -711.99 5.62 
643.51 -712.52 5.64 
643.37 -712.89 5.66 
642.81 -713.63 5.67 
643.03 -713.65 5.71 
642.72 -714.26 5.74 
641.85 -705.85 5.14 
641.58 -706.13 5.22 
642.41 -706.24 5.29 
643.30 -706.66 5.50 
642.65 -706.70 5.40 
642.94 -707.35 5.54 
643.61 -707.04 5.61 
643.47 -707.15 5.60 
643.19 -707.63 5.63 
641.67 -708.85 5.57 
644.36 -707.53 5.81 
642.67 -708.60 5.69 
642.48 -708.71 5.68 
641.68 -715.05 5.69 
643.50 -714.47 5.89 
641.96 -715.28 5.76 
645.84 -714.78 6.29 
642.37 -705.55 5.80 
641.71 -706.01 5.77 
641.55 -705.99 5.73 
642.39 -706.03 5.88 
642.21 -707.53 5.61 
642.46 -708.11 5.74 
642.20 -709.39 5.90 
643.49 -710.38 6.24 
643.33 -710.42 6.08 
642.09 -711.72 6.08 
646.13 -711.49 6.70 
642.28 -706.65 5.97 
643.40 -706.53 6.15 
643.06 -706.78 6.13 
643.63 -706.71 6.22 
642.92 -706.89 6.13 
642.32 -708.44 6.30 
641.61 -709.95 6.45 
641.57 -707.29 6.63 
642.20 -707.51 6.78 
641.79 -707.40 6.69 
642.42 -707.53 6.83 
644.55 -711.13 7.15 
645.00 -711.99 7.38 
642.87 -713.29 7.25 
642.53 -713.25 7.19 
642.12 -707.96 6.86 
643.23 -708.72 7.21 
642.93 -708.88 7.19 
643.35 -708.77 7.24 
642.83 -709.29 7.25 
642.48 -710.05 8.09 
643.26 -706.25 4.52 
642.97 -706.11 4.46 
643.18 -706.68 4.55 
644.15 -707.74 4.81 
641.56 -712.63 4.77 
642.46 -706.20 4.84 
643.18 -706.53 5.00 
645.11 -711.14 5.31 
641.63 -713.90 5.11 
643.06 -714.28 5.35 
642.84 -714.37 5.33 
641.52 -714.96 5.20 
642.06 -715.67 5.36 
643.64 -714.96 5.51 
643.41 -715.10 5.49 
642.33 -715.91 5.42 
642.60 -716.18 5.49 
642.58 -705.78 4.95 
641.64 -706.47 4.90 
642.83 -706.20 5.05 
643.76 -706.37 5.21 
643.70 -707.80 5.39 
641.59 -708.96 5.22 
645.42 -709.65 5.89 
643.62 -710.61 5.74 
641.83 -711.74 5.46 
645.22 -710.09 5.92 
641.80 -711.78 5.46 
644.08 -711.81 5.82 
643.71 -712.01 5.79 
643.41 -712.55 5.81 
643.26 -712.86 5.83 
642.52 -713.60 5.81 
643.21 -713.68 5.93 
645.17 -713.56 6.22 
642.72 -714.54 5.96 
641.78 -705.73 5.28 
642.54 -706.02 5.46 
642.76 -706.20 5.52 
642.48 -706.42 5.51 
643.56 -706.27 5.67 
643.31 -706.59 5.67 
643.28 -707.33 5.78 
642.47 -707.61 5.69 
643.73 -707.28 5.85 
644.24 -707.53 5.97 
641.96 -709.33 5.87 
646.49 -711.60 6.31 
644.64 -713.59 6.29 
641.94 -715.18 5.92 
645.63 -713.64 6.45 
643.48 -714.48 6.07 
643.18 -715.40 6.15 
641.85 -715.93 6.01 
646.06 -714.75 6.51 
641.90 -706.13 5.99 
641.62 -706.36 5.99 
642.65 -706.09 6.12 
642.55 -706.27 6.13 
645.23 -709.46 6.43 
645.05 -709.56 6.41 
643.60 -709.94 6.23 
644.90 -709.75 6.42 
644.46 -710.01 6.50 
642.79 -710.76 6.22 
646.52 -711.20 6.91 
646.26 -711.48 6.91 
642.86 -706.62 6.25 
642.45 -706.57 6.17 
643.48 -706.52 6.34 
643.35 -707.47 6.48 
642.45 -707.81 6.38 
642.32 -708.13 6.42 
644.30 -707.90 6.73 
644.14 -707.95 6.71 
643.02 -708.42 6.59 
643.69 -708.53 6.73 
642.48 -706.29 6.76 
641.69 -706.98 6.76 
644.49 -710.13 7.15 
642.75 -711.84 7.14 
642.62 -713.89 7.49 
642.37 -708.26 7.14 
641.61 -709.58 7.26 
643.30 -709.18 7.49 
642.43 -710.95 7.68 
642.19 -712.75 4.52 
641.88 -705.59 4.43 
642.88 -706.13 4.64 
643.46 -706.63 4.78 
644.04 -707.72 4.98 
643.27 -709.26 5.03 
641.53 -712.68 4.97 
642.35 -706.20 5.02 
642.83 -706.42 5.13 
643.24 -706.52 5.21 
645.15 -710.89 5.49 
644.08 -711.71 5.42 
645.24 -711.30 5.55 
644.28 -711.79 5.46 
645.82 -711.66 5.67 
643.83 -712.54 5.47 
641.64 -713.99 5.31 
642.03 -714.99 5.47 
643.63 -714.73 5.68 
643.34 -715.11 5.68 
641.71 -715.95 5.53 
643.93 -715.21 5.78 
642.45 -716.13 5.66 
642.76 -716.46 5.74 
643.05 -716.75 5.81 
642.37 -705.79 5.11 
641.52 -706.28 5.04 
642.17 -706.47 5.16 
643.39 -706.31 5.33 
642.04 -706.82 5.19 
642.49 -708.05 5.42 
641.68 -708.60 5.37 
644.23 -708.10 5.70 
641.60 -709.19 5.44 
644.20 -708.38 5.66 
644.85 -709.55 5.98 
645.15 -709.77 6.06 
645.00 -709.92 6.05 
644.63 -710.10 6.02 
641.80 -711.76 5.65 
644.30 -711.23 6.12 
643.95 -711.88 6.01 
643.66 -712.01 5.98 
643.37 -712.54 6.00 
643.26 -712.88 6.03 
642.80 -713.68 6.06 
643.48 -714.40 6.26 
641.58 -705.68 5.55 
641.83 -705.89 5.52 
642.33 -706.13 5.71 
643.49 -706.27 5.86 
642.70 -706.31 5.73 
642.62 -706.58 5.76 
641.94 -706.58 5.75 
643.21 -706.65 5.87 
643.05 -706.68 5.85 
643.35 -706.87 5.93 
643.72 -707.09 6.02 
644.21 -707.52 6.17 
641.75 -715.14 6.09 
642.04 -715.42 6.17 
641.64 -705.73 6.08 
642.49 -706.03 6.28 
642.29 -706.01 6.24 
642.28 -706.49 6.32 
642.14 -709.01 6.16 
644.28 -709.72 6.52 
643.22 -710.50 6.45 
643.06 -710.59 6.44 
646.82 -711.11 7.17 
646.58 -711.68 7.21 
646.46 -711.95 7.23 
642.14 -706.71 6.41 
643.51 -706.50 6.55 
643.34 -706.58 6.53 
642.90 -706.75 6.48 
642.41 -707.92 6.60 
643.69 -707.46 6.75 
642.86 -707.95 6.68 
642.69 -708.12 6.68 
641.61 -715.18 7.04 
641.86 -705.53 6.70 
641.97 -707.51 7.16 
641.58 -707.56 7.10 
642.27 -707.68 7.20 
644.95 -709.91 7.40 
644.61 -710.11 7.37 
642.97 -713.43 7.66 
642.17 -707.96 7.24 
641.83 -707.90 7.21 
642.02 -708.21 7.26 
642.81 -708.66 7.50 
641.95 -709.21 7.45 
642.74 -710.28 7.85 
641.66 -705.52 4.58 
642.09 -706.50 4.75 
642.52 -706.81 4.85 
642.41 -707.00 4.86 
643.10 -708.74 5.15 
642.01 -712.53 5.23 
641.75 -712.48 5.18 
642.77 -706.09 5.28 
644.70 -709.97 5.52 
644.63 -710.41 5.56 
641.96 -711.64 5.29 
644.53 -710.74 5.58 
642.83 -711.58 5.41 
642.55 -711.81 5.40 
642.23 -711.86 5.35 
644.48 -711.30 5.63 
642.89 -711.94 5.46 
642.70 -711.92 5.43 
644.43 -711.83 5.68 
645.53 -711.86 5.85 
644.28 -712.09 5.68 
643.94 -715.10 5.96 
642.02 -705.83 5.25 
641.86 -705.92 5.23 
641.51 -706.58 5.27 
642.72 -706.52 5.45 
642.55 -706.56 5.43 
643.15 -706.75 5.55 
642.49 -706.99 5.47 
642.69 -707.56 5.58 
642.80 -710.14 5.93 
644.40 -710.03 6.17 
642.21 -711.51 5.89 
642.05 -711.60 5.87 
644.29 -711.69 6.25 
643.76 -712.39 6.25 
643.66 -712.73 6.28 
643.21 -713.61 6.32 
642.71 -714.19 6.32 
643.75 -714.31 6.50 
642.06 -705.70 5.74 
641.69 -705.98 5.71 
642.58 -706.20 5.90 
643.80 -706.20 6.12 
643.46 -706.40 6.09 
643.34 -706.52 6.08 
642.90 -706.54 6.01 
642.35 -706.77 6.03 
643.34 -707.02 6.16 
642.28 -707.39 6.03 
641.94 -708.05 6.07 
644.04 -707.54 6.36 
641.79 -708.73 6.15 
641.57 -709.01 6.15 
642.69 -715.73 6.51 
642.48 -715.86 6.50 
641.94 -705.64 6.33 
641.76 -705.87 6.33 
642.62 -706.01 6.51 
641.73 -706.26 6.39 
644.12 -709.65 6.69 
644.46 -709.81 6.77 
643.66 -710.21 6.69 
641.73 -710.98 6.48 
644.03 -710.52 6.88 
642.60 -706.42 6.58 
643.22 -706.49 6.71 
643.19 -706.83 6.76 
642.95 -706.80 6.71 
642.65 -706.97 6.68 
642.19 -709.28 7.06 
641.64 -709.70 6.97 
642.90 -709.65 7.19 
642.04 -709.74 7.05 
641.74 -706.91 7.16 
641.60 -707.09 7.17 
642.06 -707.21 7.28 
642.70 -707.34 7.43 
643.22 -712.12 7.68 
642.76 -708.38 7.65 
643.46 -708.57 7.82 
641.55 -707.67 7.96 
641.57 -712.59 4.64 
642.92 -706.85 4.55 
642.73 -706.82 4.52 
641.68 -705.56 4.82 
642.16 -706.50 5.00 
642.56 -707.08 5.12 
643.33 -707.63 5.30 
644.47 -707.60 5.47 
643.83 -709.56 5.58 
641.82 -712.46 5.42 
641.79 -705.56 5.40 
645.21 -709.81 5.82 
644.80 -709.87 5.76 
644.75 -710.31 5.80 
643.39 -711.39 5.71 
642.60 -711.74 5.62 
641.97 -711.66 5.52 
641.77 -711.70 5.50 
644.88 -711.23 5.92 
642.91 -711.77 5.67 
642.55 -711.83 5.63 
644.50 -712.07 5.95 
646.00 -712.41 6.22 
643.85 -713.53 6.01 
641.90 -705.96 5.47 
642.82 -706.43 5.68 
641.53 -706.65 5.50 
642.99 -706.40 5.71 
642.84 -707.01 5.76 
642.57 -708.46 5.90 
641.93 -708.78 5.84 
644.51 -709.89 6.40 
642.10 -711.57 6.12 
644.23 -711.83 6.50 
643.83 -712.33 6.50 
643.75 -712.70 6.53 
642.59 -714.11 6.52 
642.10 -705.65 5.98 
641.67 -706.01 5.96 
642.00 -705.87 6.06 
641.74 -706.09 5.99 
642.60 -706.57 6.27 
642.16 -706.89 6.24 
641.99 -708.66 6.41 
641.59 -708.93 6.38 
644.14 -714.15 6.78 
643.96 -714.23 6.76 
642.58 -715.41 6.69 
642.23 -715.85 6.69 
641.74 -705.82 6.57 
641.77 -706.29 6.66 
641.59 -711.09 6.71 
644.16 -710.45 7.13 
642.01 -711.01 6.77 
641.63 -706.70 6.72 
642.71 -706.58 6.88 
642.75 -707.02 6.97 
642.82 -707.65 7.09 
641.51 -708.83 7.08 
641.73 -707.75 7.57 
643.04 -711.97 7.87 
642.11 -712.52 7.84 
643.11 -708.77 8.05 
642.82 -710.59 8.34 
641.53 -712.57 4.81 
642.97 -706.80 4.73 
642.82 -706.82 4.71 
643.82 -707.75 4.93 
641.64 -705.46 4.98 
642.22 -706.44 5.17 
642.90 -706.50 5.28 
642.55 -706.81 5.26 
642.39 -707.85 5.35 
644.48 -707.60 5.65 
643.99 -707.91 5.60 
642.34 -709.30 5.50 
641.83 -712.51 5.61 
644.84 -710.20 5.98 
643.31 -711.35 5.86 
642.09 -711.63 5.71 
641.97 -711.63 5.69 
641.70 -711.75 5.66 
642.79 -711.80 5.83 
642.53 -711.71 5.78 
644.97 -712.08 6.20 
643.37 -712.74 6.02 
642.76 -712.97 5.95 
646.35 -712.19 6.43 
643.37 -713.38 6.09 
642.40 -714.72 6.08 
641.88 -705.77 5.62 
642.26 -705.83 5.69 
641.80 -706.03 5.64 
641.66 -706.64 5.69 
643.18 -706.65 5.95 
642.89 -706.62 5.89 
643.35 -706.67 5.98 
643.09 -708.27 6.14 
642.20 -708.67 6.04 
642.05 -708.70 6.02 
641.56 -708.77 5.95 
642.02 -709.27 6.09 
642.24 -711.66 6.44 
642.64 -714.11 6.71 
642.45 -714.16 6.69 
642.46 -706.73 6.44 
642.12 -706.79 6.39 
641.57 -709.06 6.59 
643.13 -715.24 7.05 
642.48 -708.99 6.79 
642.76 -709.20 6.87 
642.10 -709.65 6.83 
641.82 -710.02 6.83 
641.56 -710.28 6.77 
644.09 -709.96 7.22 
641.70 -711.00 6.90 
641.75 -712.61 7.22 
641.60 -706.87 6.92 
642.02 -708.07 7.21 
641.74 -708.31 7.20 
642.95 -708.84 7.51 
641.98 -709.55 7.46 
641.52 -709.35 7.33 
642.14 -706.26 4.75 
642.70 -706.56 4.86 
642.40 -706.41 4.81 
642.94 -706.71 4.91 
643.98 -707.71 5.15 
643.66 -711.38 5.41 
642.66 -712.76 5.39 
642.47 -712.88 5.37 
645.14 -714.19 5.87 
641.82 -705.28 5.18 
641.62 -705.64 5.19 
642.59 -706.29 5.41 
642.35 -707.65 5.52 
644.40 -707.61 5.84 
643.98 -708.01 5.81 
643.92 -708.31 5.84 
642.39 -709.16 5.69 
645.10 -709.75 6.17 
645.32 -709.80 6.22 
644.30 -710.89 6.17 
642.46 -711.32 5.93 
642.25 -711.36 5.90 
643.78 -711.30 6.13 
643.60 -711.38 6.12 
643.19 -711.68 6.08 
643.52 -711.69 6.14 
642.95 -711.97 6.08 
641.97 -712.98 6.04 
643.69 -713.31 6.34 
642.50 -705.63 5.91 
641.86 -706.29 5.89 
643.38 -706.63 6.18 
642.61 -707.12 6.12 
642.44 -707.11 6.09 
641.74 -707.31 6.00 
643.11 -707.26 6.22 
643.03 -707.51 6.24 
642.13 -708.64 6.23 
641.72 -708.74 6.18 
642.55 -708.66 6.30 
642.57 -709.77 6.45 
642.45 -709.91 6.45 
643.71 -710.78 6.77 
641.70 -706.09 6.42 
642.70 -706.57 6.67 
642.43 -706.65 6.64 
641.72 -707.86 6.69 
641.95 -708.90 6.89 
641.83 -709.10 6.90 
641.85 -709.24 6.93 
642.49 -709.77 7.12 
641.55 -710.06 7.00 
642.39 -711.56 7.37 
641.54 -712.93 7.44 
642.15 -708.11 7.45 
641.68 -707.95 7.33 
642.07 -709.38 7.65 
641.81 -709.85 7.69 
641.88 -712.46 4.94 
643.01 -705.93 5.25 
643.63 -706.60 5.41 
644.60 -707.47 5.63 
644.77 -708.12 5.71 
644.44 -710.82 5.90 
642.40 -711.65 5.67 
644.70 -711.71 6.01 
644.47 -711.82 5.99 
644.30 -711.92 5.97 
644.24 -712.30 6.00 
644.02 -712.54 5.99 
642.66 -714.09 5.92 
644.43 -714.24 6.20 
644.21 -714.23 6.16 
642.54 -715.72 6.05 
642.64 -715.88 6.08 
643.67 -715.86 6.23 
641.71 -716.77 6.02 
642.38 -705.65 5.72 
642.00 -706.03 5.70 
641.83 -706.08 5.68 
643.01 -706.03 5.86 
644.19 -706.10 6.06 
643.81 -706.33 6.02 
643.74 -706.56 6.04 
644.41 -706.95 6.19 
643.85 -707.08 6.11 
642.89 -708.68 6.13 
642.08 -708.97 6.03 
645.81 -708.04 6.53 
643.74 -708.80 6.28 
643.13 -708.90 6.19 
642.84 -709.19 6.18 
644.65 -709.59 6.51 
643.61 -710.53 6.45 
643.09 -710.56 6.37 
642.31 -705.63 6.29 
643.04 -705.84 6.44 
643.24 -705.89 6.49 
642.23 -706.38 6.37 
643.27 -706.58 6.58 
642.09 -706.67 6.39 
642.15 -707.25 6.47 
642.15 -708.04 6.58 
641.92 -707.93 6.52 
643.86 -707.96 6.86 
643.42 -707.95 6.78 
645.06 -707.75 7.05 
642.72 -709.61 6.88 
642.03 -709.92 6.80 
643.40 -709.55 6.99 
643.33 -709.93 7.03 
643.60 -711.77 7.31 
642.70 -705.38 6.92 
642.49 -706.80 7.10 
641.88 -707.25 7.05 
641.74 -707.72 7.10 
644.22 -712.04 7.45 
642.61 -707.86 7.28 
641.93 -708.61 7.27 
643.68 -708.56 7.58 
643.36 -708.85 7.57 
642.50 -709.05 7.44 
644.21 -709.09 7.76 
641.95 -709.50 7.41 
643.34 -709.60 7.68 
642.87 -710.94 7.79 
641.58 -706.42 7.48 
642.32 -706.17 5.35 
642.16 -706.19 5.33 
643.26 -706.57 5.52 
643.16 -706.74 5.52 
643.95 -708.32 5.78 
643.69 -711.10 5.99 
641.70 -711.83 5.76 
641.56 -711.94 5.75 
643.93 -711.97 6.10 
643.78 -712.06 6.08 
643.49 -712.23 6.06 
643.27 -712.78 6.07 
641.97 -714.39 6.03 
645.73 -713.78 6.52 
643.43 -714.56 6.25 
642.55 -714.58 6.13 
641.86 -705.80 5.83 
641.59 -706.03 5.82 
643.41 -706.43 6.15 
643.05 -706.84 6.14 
643.65 -707.26 6.28 
643.01 -707.30 6.18 
642.94 -707.91 6.24 
642.30 -709.09 6.26 
642.03 -709.00 6.21 
641.59 -709.01 6.14 
642.06 -709.47 6.27 
645.08 -708.33 6.63 
644.75 -711.77 6.95 
641.66 -705.90 6.40 
642.32 -705.70 6.49 
641.55 -706.22 6.43 
642.24 -706.51 6.58 
643.35 -706.57 6.79 
642.82 -706.76 6.72 
642.46 -706.52 6.62 
642.18 -708.22 6.79 
642.34 -708.88 6.91 
642.63 -709.81 7.08 
641.96 -705.56 7.01 
641.66 -707.05 7.18 
642.93 -708.86 7.69 
642.22 -709.24 7.61 
641.90 -709.26 7.56 
641.64 -709.37 7.53 
643.40 -709.33 7.85 
642.98 -709.82 7.84 
642.12 -711.22 7.90 
642.69 -708.63 8.28 
642.34 -706.19 5.45 
643.04 -706.54 5.59 
642.95 -706.73 5.59 
645.37 -710.79 6.30 
643.74 -711.12 6.09 
641.74 -711.91 5.87 
641.59 -712.00 5.86 
641.60 -712.11 5.87 
643.48 -712.30 6.16 
643.40 -712.68 6.18 
643.33 -713.01 6.20 
643.13 -713.03 6.17 
642.71 -713.65 6.17 
645.17 -714.24 6.58 
643.67 -714.55 6.38 
643.50 -714.65 6.37 
641.88 -705.87 5.96 
641.61 -706.17 5.94 
643.47 -706.53 6.28 
643.12 -706.85 6.26 
643.12 -707.33 6.31 
643.86 -707.37 6.44 
642.56 -707.87 6.28 
643.07 -707.93 6.37 
642.25 -709.01 6.35 
645.10 -708.38 6.74 
642.90 -709.47 6.50 
644.00 -709.65 6.70 
642.99 -710.78 6.66 
642.81 -710.88 6.64 
642.40 -705.78 6.64 
641.71 -705.90 6.53 
641.60 -706.18 6.55 
643.50 -706.70 6.95 
642.91 -706.79 6.85 
642.60 -706.67 6.78 
641.51 -707.71 6.73 
641.66 -708.01 6.79 
642.52 -707.96 6.93 
642.31 -708.28 6.94 
642.47 -708.89 7.05 
642.86 -710.34 7.30 
641.89 -712.03 7.35 
641.66 -707.03 7.30 
642.88 -711.97 7.51 
642.59 -712.33 7.51 
641.92 -709.30 7.69 
643.43 -709.39 7.98 
641.52 -712.76 5.37 
642.71 -706.37 5.72 
643.10 -706.31 5.77 
643.12 -706.58 5.80 
643.87 -708.49 6.08 
643.77 -711.23 6.31 
641.96 -711.67 6.08 
644.65 -711.78 6.48 
644.48 -711.86 6.47 
643.58 -712.61 6.40 
643.55 -712.97 6.43 
645.42 -712.79 6.69 
642.75 -713.77 6.38 
642.42 -705.53 6.22 
642.34 -705.80 6.23 
643.41 -706.16 6.45 
643.29 -706.29 6.44 
642.88 -706.96 6.44 
642.25 -708.40 6.50 
641.68 -708.97 6.47 
643.57 -708.18 6.69 
644.90 -711.77 7.29 
645.60 -713.59 7.60 
642.62 -705.23 6.83 
642.01 -705.63 6.77 
642.48 -705.64 6.86 
642.06 -705.89 6.82 
641.93 -705.97 6.80 
642.90 -706.47 7.04 
642.10 -707.99 7.09 
642.03 -708.88 7.19 
642.61 -708.99 7.31 
642.04 -708.95 7.20 
642.10 -706.42 7.53 
641.52 -713.72 7.73 
642.27 -710.84 8.22 
641.53 -712.79 5.55 
641.82 -712.83 5.60 
641.82 -705.68 5.72 
642.74 -706.16 5.90 
642.70 -706.36 5.91 
643.80 -708.56 6.26 
643.86 -708.96 6.31 
641.95 -711.77 6.28 
643.73 -711.32 6.50 
645.64 -711.48 6.79 
644.95 -711.37 6.68 
643.77 -712.08 6.57 
644.70 -711.85 6.68 
644.54 -711.95 6.67 
643.60 -713.10 6.64 
642.49 -713.92 6.55 
642.39 -705.67 6.43 
642.45 -706.05 6.48 
641.69 -706.15 6.37 
643.57 -706.28 6.69 
643.31 -706.24 6.64 
642.10 -706.42 6.46 
642.29 -708.07 6.67 
643.34 -707.46 6.78 
643.18 -708.22 6.83 
642.29 -708.40 6.71 
644.65 -711.82 7.45 
641.52 -715.09 7.31 
642.74 -705.11 7.06 
641.93 -706.04 7.03 
641.53 -706.18 6.98 
641.66 -706.72 7.07 
643.11 -706.41 7.29 
642.93 -706.47 7.26 
642.30 -706.61 7.17 
642.46 -708.04 7.37 
642.16 -707.98 7.31 
642.16 -708.48 7.38 
642.07 -708.86 7.41 
641.56 -709.60 7.41 
642.03 -709.99 7.54 
642.19 -708.10 8.02 
642.34 -709.30 8.23 
641.57 -711.60 5.60 
641.52 -711.94 5.62 
642.56 -712.39 5.79 
641.79 -712.72 5.71 
641.62 -712.79 5.69 
643.68 -705.75 6.14 
643.47 -706.05 6.13 
643.86 -706.20 6.20 
644.17 -706.45 6.27 
644.83 -708.06 6.51 
644.94 -708.47 6.56 
644.16 -708.92 6.48 
646.35 -710.20 6.92 
644.79 -710.90 6.75 
643.08 -711.34 6.54 
646.41 -711.03 7.00 
645.32 -711.23 6.86 
641.83 -712.29 6.45 
645.77 -711.38 6.93 
645.61 -711.49 6.92 
647.22 -711.48 7.15 
644.66 -712.65 6.89 
641.81 -714.31 6.62 
643.43 -714.15 6.84 
641.71 -714.57 6.63 
642.73 -715.79 6.89 
643.31 -704.85 6.65 
643.30 -705.11 6.68 
643.33 -705.55 6.73 
642.69 -705.89 6.66 
643.36 -705.90 6.77 
643.04 -705.97 6.73 
642.59 -706.17 6.68 
642.35 -706.07 6.63 
642.42 -706.43 6.67 
641.86 -707.64 6.71 
644.53 -705.76 6.95 
643.27 -707.64 6.94 
641.84 -707.92 6.74 
645.01 -707.63 7.22 
643.33 -708.02 6.99 
643.21 -708.20 6.99 
642.75 -708.30 6.92 
643.05 -708.33 6.98 
642.17 -708.90 6.89 
642.46 -708.94 6.95 
641.96 -709.01 6.87 
641.79 -709.22 6.87 
641.84 -710.54 7.02 
645.74 -712.47 7.85 
641.96 -713.38 7.34 
643.02 -705.42 7.33 
642.73 -705.57 7.29 
642.48 -705.73 7.27 
642.45 -705.96 7.29 
643.16 -707.27 7.57 
641.67 -707.74 7.37 
644.11 -708.61 7.91 
642.63 -709.20 7.72 
644.02 -708.89 7.93 
643.33 -709.43 7.87 
642.50 -710.40 7.85 
642.48 -710.45 7.85 
641.82 -711.32 7.85 
641.88 -705.97 7.85 
642.61 -705.96 7.99 
641.99 -706.13 7.89 
641.51 -706.47 7.85 
641.86 -707.46 8.05 
641.71 -712.76 5.91 
641.87 -705.56 6.08 
643.15 -707.66 6.45 
643.74 -708.57 6.61 
645.22 -709.48 6.91 
645.44 -710.84 7.06 
642.28 -711.60 6.67 
643.85 -711.33 6.87 
642.24 -711.63 6.67 
645.61 -711.51 7.14 
644.90 -711.66 7.05 
644.42 -711.62 6.98 
642.21 -712.63 6.75 
643.85 -713.16 7.04 
643.69 -713.03 7.00 
644.76 -713.94 7.24 
642.75 -714.52 7.00 
642.47 -705.10 6.78 
642.31 -706.03 6.85 
641.69 -706.25 6.77 
642.25 -706.28 6.87 
641.55 -706.66 6.80 
643.61 -706.41 7.10 
643.30 -706.56 7.07 
642.69 -706.96 7.01 
642.25 -707.10 6.95 
643.91 -707.87 7.30 
642.72 -708.50 7.18 
642.42 -708.80 7.16 
641.85 -711.88 7.40 
641.83 -713.37 7.56 
642.91 -706.37 7.68 
642.60 -707.53 7.76 
642.55 -707.75 7.78 
642.35 -707.88 7.76 
642.41 -708.84 7.89 
642.27 -709.00 7.88 
642.95 -708.79 7.98 
642.70 -709.82 8.06 
642.41 -709.82 8.01 
641.68 -709.96 7.90 
643.37 -711.35 8.37 
643.21 -711.46 8.36 
641.57 -706.51 8.14 
642.63 -708.83 8.67 
641.96 -712.70 6.03 
642.33 -712.77 6.08 
641.53 -713.51 6.03 
642.40 -705.31 6.24 
642.07 -705.56 6.21 
643.73 -706.18 6.51 
643.18 -707.69 6.56 
643.89 -708.41 6.72 
643.77 -708.55 6.72 
645.49 -710.85 7.17 
642.62 -711.49 6.81 
645.11 -711.51 7.17 
645.80 -711.52 7.27 
645.09 -711.84 7.20 
643.05 -714.40 7.13 
641.54 -715.30 7.00 
642.58 -704.75 6.89 
642.67 -706.17 7.05 
642.40 -706.30 7.02 
641.78 -706.47 6.94 
641.62 -706.55 6.92 
643.94 -706.29 7.27 
641.56 -706.82 6.94 
643.88 -706.62 7.29 
643.58 -706.65 7.24 
642.57 -706.88 7.11 
641.64 -707.44 7.01 
641.96 -707.79 7.10 
641.76 -708.19 7.11 
643.21 -708.37 7.36 
641.72 -709.66 7.26 
645.04 -709.48 7.78 
643.34 -709.76 7.53 
643.13 -710.54 7.58 
642.04 -713.28 7.70 
642.49 -705.51 7.64 
643.07 -706.52 7.86 
642.44 -708.03 7.93 
643.12 -709.01 8.17 
642.29 -709.05 8.03 
641.97 -709.19 7.99 
641.67 -709.35 7.96 
643.44 -709.65 8.31 
643.18 -709.65 8.26 
641.92 -713.62 8.54 
641.68 -713.50 6.20 
641.65 -713.53 6.20 
642.48 -705.45 6.43 
643.33 -706.11 6.61 
643.12 -707.63 6.71 
644.28 -707.79 6.89 
643.74 -708.48 6.87 
645.49 -711.08 7.35 
643.01 -711.40 7.02 
642.75 -711.44 6.99 
645.38 -711.29 7.35 
645.52 -711.80 7.42 
644.16 -712.52 7.29 
643.25 -706.07 7.32 
642.81 -706.29 7.27 
642.40 -706.20 7.19 
643.14 -706.27 7.32 
642.45 -706.52 7.23 
641.76 -706.76 7.15 
644.08 -706.50 7.49 
642.75 -707.10 7.34 
641.68 -706.98 7.16 
643.35 -707.04 7.43 
642.59 -707.23 7.33 
641.79 -707.50 7.23 
641.68 -708.13 7.28 
641.55 -708.61 7.31 
641.71 -709.55 7.43 
641.71 -712.16 7.71 
642.40 -706.84 7.99 
642.41 -708.01 8.13 
643.72 -708.90 8.47 
641.74 -711.54 8.44 
642.42 -712.24 8.65 
642.34 -712.51 8.67 
641.55 -713.46 8.65 
641.87 -712.21 6.34 
643.00 -712.74 6.52 
642.74 -712.77 6.49 
641.74 -713.51 6.41 
641.59 -713.79 6.41 
642.59 -705.52 6.68 
642.37 -705.62 6.65 
643.38 -706.62 6.89 
642.42 -706.76 6.76 
644.05 -707.72 7.08 
644.46 -711.24 7.44 
643.02 -711.25 7.24 
646.27 -711.90 7.76 
642.30 -705.82 7.39 
643.11 -705.93 7.53 
642.25 -706.22 7.42 
642.21 -706.50 7.44 
641.86 -707.14 7.45 
643.33 -707.82 7.76 
642.83 -708.25 7.72 
641.81 -708.27 7.56 
643.97 -709.54 8.04 
643.65 -709.59 7.99 
642.00 -707.28 8.24 
643.92 -706.45 6.35 
642.09 -712.17 6.54 
643.35 -712.70 6.74 
643.06 -712.75 6.70 
641.95 -713.48 6.62 
641.70 -713.89 6.62 
642.49 -705.82 6.88 
641.92 -706.34 6.85 
644.38 -706.18 7.18 
643.93 -707.27 7.22 
643.93 -708.47 7.32 
642.14 -711.10 7.30 
641.53 -711.94 8.11 
642.20 -712.23 8.25 
641.52 -712.98 8.22 
