# .PCD v0.7 - Point Cloud Data file format
VERSION 0.7
FIELDS x y z
SIZE 4 4 4
TYPE F F F
COUNT 1 1 1
WIDTH 2174
HEIGHT 1
VIEWPOINT 0 0 0 1 0 0 0
POINTS 2174
DATA ascii
655.62 -620.17 -3.11 
655.49 -620.47 -3.12 
656.03 -619.54 -3.08 
656.27 -619.78 -3.04 
656.18 -620.25 -3.03 
656.07 -621.43 -3.01 
656.15 -608.62 -2.67 
655.93 -609.56 -2.68 
654.10 -619.27 -2.69 
656.89 -607.90 -2.59 
656.61 -608.96 -2.61 
656.48 -609.25 -2.63 
654.55 -618.53 -2.67 
656.99 -608.33 -2.58 
657.21 -608.84 -2.55 
657.19 -608.99 -2.55 
655.15 -618.91 -2.59 
654.80 -621.73 -2.54 
655.64 -619.45 -2.52 
655.44 -619.64 -2.54 
655.37 -620.45 -2.52 
655.20 -620.95 -2.52 
655.12 -621.32 -2.52 
655.70 -620.07 -2.49 
655.58 -620.72 -2.49 
655.54 -621.25 -2.47 
656.10 -619.76 -2.46 
666.41 -628.23 -0.52 
666.45 -628.34 -0.51 
650.69 -628.12 -2.72 
650.20 -628.76 -2.75 
655.57 -608.15 -2.73 
655.60 -610.78 -2.39 
656.45 -609.49 -2.32 
656.15 -610.24 -2.34 
656.52 -610.71 -2.30 
654.25 -619.81 -2.02 
654.30 -620.99 -1.97 
655.12 -619.12 -1.96 
655.53 -619.31 -1.92 
655.49 -620.15 -1.90 
655.18 -620.34 -1.92 
655.18 -621.25 -1.89 
655.60 -620.66 -1.87 
650.17 -627.72 -2.03 
650.15 -628.79 -1.97 
656.05 -609.85 -1.69 
655.65 -618.85 -1.33 
649.87 -628.67 -3.58 
656.13 -609.37 -3.15 
656.47 -608.60 -3.25 
657.30 -608.19 -3.14 
657.20 -608.56 -3.15 
655.19 -620.42 -3.16 
655.46 -620.52 -3.12 
655.99 -619.95 -3.07 
655.98 -620.14 -3.07 
656.08 -620.85 -3.03 
655.91 -621.58 -3.03 
656.07 -609.72 -2.65 
655.82 -609.92 -2.67 
656.33 -608.81 -2.62 
656.33 -609.30 -2.62 
656.26 -609.56 -2.63 
654.58 -619.17 -2.65 
656.86 -608.79 -2.56 
656.94 -609.44 -2.55 
654.63 -620.34 -2.61 
654.28 -621.83 -2.60 
655.01 -619.40 -2.60 
655.00 -619.66 -2.59 
655.23 -619.95 -2.56 
654.84 -621.59 -2.55 
655.54 -619.22 -2.55 
655.37 -620.13 -2.54 
655.20 -621.29 -2.52 
654.80 -622.19 -2.53 
655.81 -620.27 -2.49 
655.71 -620.63 -2.49 
655.68 -621.02 -2.48 
655.50 -621.22 -2.49 
655.54 -621.76 -2.47 
655.25 -621.93 -2.49 
656.07 -620.56 -2.45 
655.89 -620.83 -2.46 
655.76 -622.28 -2.43 
650.54 -628.65 -2.74 
650.23 -629.21 -2.75 
650.74 -628.82 -2.71 
650.70 -629.54 -2.68 
655.75 -611.01 -2.37 
656.03 -610.03 -2.35 
656.08 -610.47 -2.34 
656.55 -609.54 -2.30 
656.43 -610.12 -2.31 
656.45 -610.62 -2.30 
666.33 -628.80 -0.14 
653.83 -619.94 -2.06 
653.41 -621.11 -2.06 
653.40 -621.31 -2.06 
656.19 -609.34 -2.00 
654.73 -618.99 -2.01 
654.47 -620.68 -1.99 
654.90 -619.18 -1.99 
654.96 -619.63 -1.98 
654.75 -620.30 -1.97 
655.28 -619.89 -1.94 
655.23 -620.54 -1.93 
655.12 -621.72 -1.90 
655.56 -620.10 -1.91 
655.67 -621.35 -1.86 
650.07 -628.44 -2.04 
650.09 -629.23 -1.99 
651.11 -628.42 -1.95 
655.77 -610.10 -1.70 
655.97 -611.05 -1.68 
656.21 -610.86 -1.66 
660.19 -614.13 -2.91 
660.14 -614.47 -2.91 
660.00 -614.76 -2.93 
660.18 -615.48 -2.88 
659.93 -615.62 -2.92 
660.59 -615.44 -2.82 
660.18 -615.64 -2.88 
660.55 -617.21 -2.78 
660.53 -617.52 -2.77 
660.55 -617.66 -2.76 
650.88 -628.15 -3.51 
656.48 -608.55 -3.19 
657.00 -607.96 -3.12 
656.98 -608.64 -3.12 
657.62 -608.84 -3.03 
657.50 -609.18 -3.04 
656.14 -619.14 -3.07 
655.81 -619.73 -3.10 
655.76 -620.03 -3.10 
656.21 -619.18 -3.06 
655.53 -609.12 -3.07 
656.06 -609.14 -3.00 
656.35 -608.93 -2.96 
656.70 -608.77 -2.92 
654.35 -620.10 -2.67 
655.13 -618.60 -2.61 
654.98 -619.31 -2.62 
655.80 -618.21 -2.55 
655.79 -618.53 -2.54 
655.48 -620.12 -2.55 
655.20 -620.93 -2.56 
654.96 -621.27 -2.58 
655.88 -618.40 -2.53 
655.94 -619.27 -2.51 
655.83 -619.64 -2.52 
655.63 -619.96 -2.53 
656.20 -619.49 -2.48 
656.08 -620.38 -2.48 
656.04 -620.59 -2.48 
656.97 -619.13 -2.40 
656.80 -619.97 -2.41 
656.89 -620.30 -2.39 
650.60 -627.97 -2.85 
650.20 -628.85 -2.86 
650.85 -627.71 -2.84 
650.61 -628.15 -2.84 
655.57 -608.22 -2.63 
655.21 -609.43 -2.41 
656.00 -608.29 -2.58 
655.93 -609.16 -2.59 
656.49 -608.14 -2.52 
655.99 -609.32 -2.32 
656.04 -609.56 -2.32 
657.10 -607.35 -2.44 
657.00 -608.20 -2.46 
656.70 -608.45 -2.25 
656.54 -608.88 -2.52 
656.74 -609.46 -2.24 
657.34 -607.95 -2.42 
657.20 -608.37 -2.44 
656.81 -609.29 -2.23 
656.23 -618.48 -1.91 
655.95 -620.26 -1.91 
656.22 -620.56 -1.88 
651.13 -627.61 -2.12 
654.41 -619.08 -2.06 
655.30 -618.09 -2.00 
655.17 -618.97 -2.00 
655.70 -617.99 -1.96 
655.58 -618.30 -1.97 
655.59 -618.69 -1.97 
655.28 -619.36 -1.99 
655.45 -619.72 -1.96 
655.16 -619.88 -1.99 
656.11 -617.92 -1.93 
655.76 -618.91 -1.95 
655.62 -619.64 -1.95 
655.63 -620.44 -1.94 
655.77 -620.81 -1.92 
650.53 -627.29 -2.18 
650.52 -627.47 -2.17 
650.34 -628.05 -2.17 
650.79 -627.07 -2.17 
650.64 -627.50 -2.16 
655.74 -608.38 -1.66 
656.23 -609.26 -1.62 
656.68 -609.03 -1.57 
656.41 -609.08 -1.60 
650.55 -628.07 -1.45 
659.76 -614.44 -2.96 
660.02 -615.23 -2.90 
660.51 -617.32 -2.77 
660.04 -619.00 -2.80 
659.98 -619.57 -2.79 
656.90 -608.45 -3.10 
657.15 -608.14 -3.07 
655.93 -619.28 -3.09 
655.90 -619.44 -3.09 
655.61 -609.08 -3.04 
656.44 -607.64 -2.94 
656.14 -608.89 -2.97 
656.67 -608.70 -2.90 
656.78 -609.44 -2.88 
655.35 -617.90 -2.59 
655.56 -617.90 -2.56 
655.36 -618.74 -2.58 
656.19 -617.73 -2.50 
655.96 -617.84 -2.52 
656.14 -618.44 -2.49 
655.92 -618.74 -2.51 
655.85 -619.52 -2.51 
655.59 -620.17 -2.53 
656.24 -618.80 -2.48 
656.19 -619.14 -2.48 
656.12 -619.94 -2.47 
656.40 -619.37 -2.45 
656.44 -619.76 -2.44 
656.95 -619.67 -2.39 
650.33 -628.24 -2.89 
650.95 -627.12 -2.86 
650.88 -627.57 -2.85 
655.21 -609.58 -2.38 
655.82 -608.76 -2.32 
655.80 -609.44 -2.32 
656.71 -607.10 -2.45 
656.58 -607.51 -2.47 
656.34 -608.20 -2.50 
656.18 -608.43 -2.52 
657.11 -607.11 -2.40 
656.66 -607.83 -2.46 
656.64 -608.06 -2.46 
657.13 -607.64 -2.40 
656.83 -609.04 -2.20 
656.14 -619.60 -1.90 
656.65 -618.59 -1.86 
650.95 -626.51 -2.20 
650.76 -626.92 -2.20 
650.64 -627.55 -2.19 
650.70 -627.71 -2.18 
650.55 -628.14 -2.18 
654.63 -618.39 -2.04 
655.47 -617.50 -1.97 
655.71 -617.95 -1.95 
655.68 -618.13 -1.95 
655.25 -618.53 -1.99 
655.51 -619.00 -1.96 
655.03 -620.12 -1.99 
654.95 -620.68 -1.99 
655.91 -617.43 -1.93 
656.15 -617.87 -1.91 
655.87 -618.34 -1.93 
655.76 -618.88 -1.94 
655.71 -619.21 -1.94 
655.57 -619.87 -1.95 
650.31 -627.16 -2.23 
650.63 -627.72 -1.50 
659.69 -620.77 -2.78 
659.59 -621.08 -2.78 
659.35 -621.36 -2.81 
659.78 -620.79 -2.76 
659.72 -621.54 -2.75 
656.57 -607.78 -3.12 
656.58 -608.17 -3.11 
657.02 -607.76 -3.05 
656.86 -608.67 -3.07 
657.19 -608.42 -3.02 
655.84 -618.83 -3.08 
655.76 -619.07 -3.08 
655.88 -619.41 -3.06 
655.48 -620.46 -2.81 
656.26 -618.71 -3.02 
656.17 -619.15 -3.03 
656.00 -619.63 -3.04 
656.46 -608.94 -2.90 
656.86 -608.47 -2.85 
656.74 -609.59 -2.85 
654.51 -618.84 -2.64 
657.17 -609.13 -2.80 
656.97 -609.49 -2.82 
655.26 -617.75 -2.56 
655.53 -617.97 -2.53 
655.34 -618.05 -2.55 
655.97 -617.84 -2.48 
655.80 -618.47 -2.49 
655.92 -618.88 -2.48 
655.67 -620.09 -2.49 
655.38 -620.18 -2.52 
656.17 -618.41 -2.45 
656.33 -619.00 -2.43 
655.89 -619.57 -2.47 
656.08 -619.94 -2.45 
655.98 -620.51 -2.45 
656.43 -618.78 -2.42 
656.51 -619.81 -2.40 
655.30 -608.78 -2.34 
655.94 -608.62 -2.26 
655.72 -609.71 -2.29 
656.34 -608.08 -2.44 
656.30 -608.64 -2.22 
655.99 -608.90 -2.26 
656.81 -607.64 -2.38 
656.66 -607.84 -2.29 
656.86 -608.20 -2.38 
656.53 -608.54 -2.19 
656.95 -608.57 -2.14 
655.21 -620.03 -2.23 
655.52 -620.46 -2.18 
656.02 -619.44 -1.88 
655.93 -620.32 -1.88 
655.71 -620.67 -2.16 
656.63 -618.60 -1.83 
656.42 -618.71 -1.84 
656.26 -619.38 -1.86 
656.15 -619.59 -1.87 
656.09 -620.01 -1.87 
654.69 -618.44 -2.00 
655.30 -617.70 -1.95 
655.22 -618.60 -1.95 
655.25 -619.77 -1.95 
654.93 -620.20 -1.97 
654.94 -620.75 -1.97 
655.72 -618.06 -1.91 
655.83 -618.26 -1.90 
655.53 -618.94 -1.92 
655.54 -619.32 -1.58 
655.50 -620.00 -1.92 
655.95 -619.22 -1.71 
655.53 -620.22 -1.56 
656.30 -620.01 -1.50 
655.58 -619.67 -1.33 
655.22 -620.11 -1.36 
653.60 -620.54 -1.06 
655.35 -620.96 -0.94 
658.99 -622.32 -2.85 
659.51 -620.16 -2.83 
659.68 -620.70 -2.79 
659.56 -621.46 -2.78 
659.35 -621.58 -2.81 
659.28 -622.66 -2.79 
659.14 -622.80 -2.81 
659.74 -622.49 -2.72 
659.34 -623.14 -2.77 
659.91 -622.31 -2.70 
656.57 -608.23 -3.13 
657.13 -607.74 -3.05 
656.88 -607.93 -3.09 
657.00 -608.30 -3.07 
654.70 -619.74 -3.22 
655.36 -619.80 -3.13 
655.14 -620.32 -3.15 
655.79 -618.93 -3.09 
655.87 -619.39 -3.07 
655.63 -620.30 -2.81 
656.13 -619.19 -3.04 
655.88 -619.75 -3.06 
656.34 -620.21 -2.99 
656.39 -609.13 -2.93 
656.86 -607.87 -2.88 
654.78 -618.43 -2.61 
654.46 -618.91 -2.64 
657.42 -608.54 -2.79 
655.16 -617.76 -2.58 
655.47 -618.11 -2.54 
656.03 -617.77 -2.48 
655.99 -617.99 -2.48 
655.84 -618.50 -2.49 
655.96 -618.72 -2.48 
655.81 -619.41 -2.49 
655.43 -620.44 -2.52 
656.17 -617.88 -2.46 
656.20 -618.47 -2.45 
655.83 -619.80 -2.48 
655.74 -619.99 -2.49 
656.46 -618.75 -2.42 
656.33 -619.08 -2.43 
656.36 -619.30 -2.42 
656.19 -619.98 -2.44 
656.17 -620.33 -2.43 
655.75 -609.27 -2.29 
656.30 -608.30 -2.45 
656.16 -608.76 -2.25 
656.10 -609.05 -2.25 
656.58 -609.01 -2.20 
656.84 -608.94 -2.16 
655.10 -620.56 -2.24 
655.52 -620.43 -2.20 
655.10 -621.29 -2.23 
656.23 -619.28 -2.14 
656.22 -619.81 -1.95 
656.16 -620.12 -1.86 
655.98 -620.42 -1.88 
650.55 -627.86 -2.21 
650.56 -628.26 -2.20 
655.42 -617.70 -1.93 
655.21 -618.63 -1.95 
654.99 -620.85 -1.96 
655.71 -618.07 -1.91 
655.82 -618.49 -1.90 
655.69 -619.03 -1.91 
655.67 -619.26 -1.91 
655.44 -619.46 -1.60 
655.51 -619.99 -1.92 
656.02 -618.80 -1.88 
655.74 -619.37 -1.57 
656.04 -619.56 -1.87 
655.81 -620.14 -1.55 
655.67 -620.30 -1.56 
655.47 -620.81 -1.57 
656.20 -619.86 -1.52 
656.23 -620.05 -1.52 
650.73 -627.65 -1.55 
653.68 -620.66 -1.07 
655.64 -619.12 -0.96 
655.77 -620.12 -0.95 
655.39 -621.13 -0.96 
656.05 -620.56 -0.92 
659.71 -620.19 -2.82 
659.46 -621.59 -2.82 
659.16 -622.46 -2.83 
659.53 -621.77 -2.80 
659.25 -622.66 -2.81 
659.29 -623.70 -2.77 
659.13 -623.99 -2.79 
659.57 -623.02 -2.75 
659.48 -623.49 -2.75 
659.48 -623.65 -2.74 
659.39 -624.25 -2.74 
659.45 -624.49 -2.72 
656.70 -607.99 -3.14 
656.50 -608.23 -3.16 
657.22 -607.73 -3.06 
657.01 -607.87 -3.09 
657.49 -608.06 -3.02 
655.87 -618.77 -3.09 
655.78 -619.71 -3.09 
655.54 -620.00 -2.85 
655.61 -620.20 -2.84 
656.06 -619.17 -3.06 
655.95 -619.60 -3.07 
655.64 -620.40 -2.83 
656.26 -620.12 -3.01 
656.80 -607.85 -2.91 
656.53 -609.00 -2.93 
656.86 -608.98 -2.89 
654.60 -618.78 -2.64 
656.98 -609.69 -2.86 
655.24 -617.65 -2.58 
654.42 -620.12 -2.65 
655.59 -617.81 -2.54 
656.02 -617.66 -2.49 
655.77 -618.51 -2.51 
655.84 -618.78 -2.50 
655.44 -620.13 -2.53 
655.49 -620.19 -2.53 
656.13 -617.89 -2.47 
656.21 -618.47 -2.46 
655.87 -619.35 -2.49 
655.85 -619.73 -2.49 
655.85 -620.05 -2.49 
656.41 -618.87 -2.43 
656.27 -619.18 -2.45 
656.42 -619.84 -2.42 
656.30 -619.97 -2.44 
650.21 -628.35 -2.93 
650.94 -627.19 -2.88 
650.73 -627.58 -2.90 
656.26 -608.13 -2.46 
656.65 -608.20 -2.41 
656.23 -608.96 -2.25 
656.10 -609.27 -2.27 
656.63 -608.33 -2.20 
656.62 -608.81 -2.21 
656.95 -608.84 -2.17 
655.50 -619.76 -2.24 
655.29 -620.39 -2.25 
656.04 -618.99 -2.19 
655.86 -620.27 -2.19 
655.55 -620.84 -2.21 
656.32 -619.28 -2.15 
656.42 -619.84 -2.13 
656.00 -620.50 -2.17 
656.76 -618.69 -1.81 
656.21 -621.29 -2.13 
650.08 -627.51 -2.29 
650.21 -627.32 -2.29 
650.95 -626.61 -2.24 
650.75 -627.15 -2.25 
650.62 -627.72 -2.24 
650.52 -628.15 -2.24 
655.39 -608.98 -2.35 
655.40 -609.77 -2.35 
651.29 -627.05 -2.20 
650.91 -627.78 -2.22 
651.48 -627.04 -2.19 
656.08 -608.94 -2.27 
654.08 -619.55 -2.06 
655.34 -617.73 -1.94 
655.22 -618.49 -1.96 
654.91 -620.72 -1.98 
655.71 -618.09 -1.91 
655.84 -618.56 -1.90 
655.63 -619.18 -1.92 
655.53 -619.51 -1.61 
655.30 -619.83 -1.79 
655.16 -620.62 -1.63 
655.01 -621.57 -1.63 
655.95 -618.45 -1.89 
655.92 -618.84 -1.89 
655.93 -619.16 -1.58 
655.56 -619.91 -1.76 
655.64 -620.51 -1.59 
655.44 -620.73 -1.60 
656.21 -619.75 -1.71 
656.20 -619.96 -1.55 
656.13 -620.41 -1.55 
655.95 -621.04 -1.55 
655.80 -621.19 -1.56 
655.32 -618.73 -1.64 
654.47 -621.23 -1.68 
655.20 -620.09 -1.37 
656.21 -619.17 -1.29 
656.46 -619.51 -1.27 
650.58 -626.71 -1.62 
650.72 -627.55 -1.59 
653.69 -620.48 -1.10 
653.58 -620.65 -1.11 
656.04 -620.47 -0.95 
659.04 -622.69 -2.82 
658.91 -623.98 -2.79 
659.26 -622.94 -2.77 
659.23 -623.41 -2.76 
659.24 -623.96 -2.74 
659.16 -624.18 -2.75 
659.32 -624.37 -2.71 
659.37 -624.61 -2.70 
659.26 -624.99 -2.70 
659.29 -625.46 -2.68 
660.09 -623.93 -2.61 
659.39 -625.47 -2.66 
660.09 -624.99 -2.57 
660.06 -625.28 -2.56 
651.06 -627.77 -3.48 
656.43 -607.86 -3.16 
656.99 -607.82 -3.08 
656.94 -608.04 -3.09 
656.85 -608.60 -3.09 
657.51 -608.71 -2.99 
655.25 -620.31 -3.12 
655.88 -618.99 -3.06 
655.84 -619.42 -3.06 
655.78 -619.78 -3.06 
655.49 -620.18 -2.83 
655.42 -620.54 -2.83 
655.35 -620.80 -2.83 
656.34 -618.72 -3.00 
656.28 -619.02 -3.01 
656.03 -619.30 -3.03 
655.94 -619.65 -3.04 
655.74 -620.08 -2.80 
655.61 -620.40 -2.81 
651.03 -626.97 -2.86 
651.08 -627.37 -2.84 
656.44 -608.96 -2.94 
656.36 -609.20 -2.94 
656.98 -608.62 -2.87 
654.65 -618.79 -2.60 
655.28 -617.82 -2.54 
655.44 -617.74 -2.52 
655.37 -617.91 -2.53 
655.20 -620.12 -2.53 
656.02 -617.83 -2.45 
655.84 -618.82 -2.46 
655.77 -619.36 -2.47 
655.32 -620.37 -2.51 
656.14 -617.95 -2.44 
656.13 -618.66 -2.43 
655.98 -619.07 -2.45 
655.93 -619.28 -2.45 
655.75 -619.76 -2.47 
655.65 -620.14 -2.47 
656.44 -619.38 -2.39 
656.26 -620.26 -2.40 
656.52 -619.98 -2.37 
656.45 -620.16 -2.38 
650.16 -628.42 -2.91 
650.82 -627.72 -2.86 
650.58 -628.04 -2.88 
650.64 -628.28 -2.86 
656.45 -608.30 -2.40 
655.14 -619.28 -2.26 
655.15 -620.66 -2.23 
654.94 -621.28 -2.25 
656.06 -619.42 -2.16 
655.66 -620.53 -2.18 
655.34 -621.09 -2.21 
656.43 -619.37 -2.12 
656.08 -620.57 -2.13 
655.89 -621.10 -2.14 
656.37 -620.27 -2.11 
650.30 -627.23 -2.27 
650.35 -627.53 -2.25 
650.14 -627.80 -2.26 
655.06 -608.49 -2.37 
650.73 -628.04 -2.21 
650.60 -628.22 -2.21 
651.28 -627.19 -2.18 
655.90 -608.87 -2.27 
655.69 -609.60 -2.29 
655.83 -609.66 -2.27 
656.24 -608.91 -2.23 
656.19 -609.14 -2.23 
656.88 -608.55 -2.15 
656.76 -609.06 -2.16 
653.94 -619.91 -2.04 
654.93 -618.33 -1.94 
655.35 -617.89 -1.90 
655.24 -618.68 -1.91 
655.81 -618.62 -1.86 
655.49 -619.24 -1.74 
655.52 -619.89 -1.89 
655.20 -620.77 -1.60 
655.02 -621.76 -1.60 
656.05 -618.56 -1.84 
655.89 -618.96 -1.85 
656.07 -619.24 -1.54 
655.70 -620.11 -1.72 
655.59 -620.53 -1.57 
655.51 -620.87 -1.57 
655.47 -621.34 -1.57 
656.22 -619.81 -1.67 
656.15 -620.13 -1.68 
655.72 -621.31 -1.54 
656.78 -618.79 -1.77 
655.01 -619.00 -1.64 
655.04 -620.02 -1.62 
655.24 -620.17 -1.32 
650.59 -627.90 -1.57 
650.73 -627.67 -1.57 
654.47 -621.02 -1.02 
658.82 -622.29 -2.84 
658.98 -623.34 -2.78 
659.31 -622.33 -2.76 
659.25 -622.78 -2.76 
659.30 -623.12 -2.74 
659.05 -623.40 -2.77 
659.43 -623.56 -2.70 
659.45 -623.91 -2.69 
659.47 -624.33 -2.67 
659.31 -624.73 -2.68 
659.65 -624.19 -2.65 
659.48 -624.65 -2.66 
651.05 -627.77 -3.47 
656.44 -607.82 -3.10 
657.12 -606.78 -3.00 
656.94 -608.01 -3.02 
656.64 -608.36 -3.06 
657.26 -607.74 -2.98 
657.17 -608.64 -2.98 
657.63 -608.90 -2.91 
655.64 -619.67 -2.80 
655.59 -620.03 -2.80 
655.37 -620.24 -2.82 
650.97 -626.74 -2.87 
650.61 -628.03 -2.88 
655.94 -608.78 -2.95 
651.01 -627.03 -2.86 
651.08 -627.54 -2.84 
650.78 -627.71 -2.87 
650.66 -628.27 -2.86 
657.04 -607.28 -2.81 
656.94 -607.81 -2.82 
657.04 -609.29 -2.79 
655.27 -617.82 -2.49 
655.49 -617.76 -2.47 
656.00 -617.85 -2.40 
656.13 -617.98 -2.39 
656.30 -618.76 -2.36 
656.40 -619.04 -2.35 
650.30 -628.37 -2.90 
656.44 -608.28 -2.32 
654.86 -620.29 -2.25 
655.59 -619.15 -2.18 
655.46 -620.31 -2.18 
655.05 -620.69 -2.22 
655.74 -619.42 -2.16 
655.81 -619.86 -2.15 
655.59 -619.96 -2.17 
655.46 -620.48 -2.18 
656.18 -619.86 -2.10 
656.56 -619.43 -2.07 
656.47 -619.71 -2.07 
650.29 -627.47 -2.27 
650.04 -627.74 -2.28 
655.23 -608.24 -2.28 
650.60 -627.27 -2.24 
650.45 -627.71 -2.25 
650.62 -628.02 -2.23 
650.58 -628.21 -2.22 
656.21 -608.30 -2.16 
655.95 -608.56 -2.19 
655.85 -609.02 -2.20 
651.25 -627.21 -2.19 
655.02 -618.40 -1.88 
655.72 -618.38 -1.81 
655.32 -620.07 -1.56 
655.07 -621.13 -1.58 
655.86 -618.50 -1.80 
655.90 -618.83 -1.80 
655.88 -619.49 -1.52 
655.53 -619.71 -1.55 
655.81 -620.06 -1.52 
655.52 -620.75 -1.54 
656.27 -619.47 -1.48 
656.11 -620.00 -1.49 
655.88 -620.59 -1.51 
654.15 -620.40 -1.67 
655.28 -618.82 -1.57 
654.79 -620.87 -1.61 
655.50 -618.71 -1.55 
656.28 -619.24 -1.17 
650.59 -626.82 -1.60 
650.71 -627.67 -1.58 
650.65 -627.85 -1.58 
654.55 -620.39 -0.99 
659.12 -623.98 -2.76 
659.19 -624.80 -2.72 
655.96 -608.71 -3.20 
651.00 -627.99 -3.48 
656.39 -608.13 -3.15 
656.42 -608.49 -3.14 
656.82 -608.17 -3.08 
657.28 -607.71 -3.02 
657.30 -608.19 -3.01 
654.99 -620.68 -2.89 
655.38 -620.23 -2.85 
655.43 -620.59 -2.83 
655.25 -620.88 -2.85 
655.04 -621.08 -2.87 
650.33 -628.62 -2.90 
655.95 -608.71 -3.00 
655.61 -609.37 -3.04 
650.97 -626.83 -2.88 
651.01 -627.23 -2.86 
651.08 -627.65 -2.84 
650.75 -627.92 -2.87 
650.62 -628.52 -2.87 
656.45 -608.60 -2.93 
656.43 -608.89 -2.93 
656.14 -609.22 -2.97 
655.94 -609.37 -2.99 
656.69 -608.51 -2.90 
655.25 -619.56 -2.24 
655.28 -620.58 -2.22 
655.04 -621.23 -2.23 
655.80 -619.37 -2.18 
655.65 -620.17 -2.18 
655.44 -620.58 -2.20 
655.57 -621.15 -2.18 
655.75 -621.11 -2.16 
656.44 -620.10 -2.09 
656.51 -620.37 -2.08 
656.26 -620.66 -2.10 
650.04 -627.97 -2.29 
650.02 -628.13 -2.29 
650.41 -627.55 -2.27 
650.32 -627.82 -2.27 
655.66 -608.87 -2.26 
650.91 -627.40 -2.23 
650.59 -628.31 -2.23 
656.04 -609.51 -2.22 
655.14 -620.97 -1.59 
654.91 -621.02 -1.91 
655.40 -620.88 -1.57 
655.84 -620.27 -1.53 
655.63 -620.78 -1.55 
655.61 -621.45 -1.55 
654.96 -620.07 -1.62 
655.12 -620.33 -1.27 
649.65 -627.23 -1.67 
650.07 -627.16 -1.65 
650.61 -626.91 -1.62 
650.60 -627.97 -1.60 
654.38 -627.86 -3.36 
654.57 -628.30 -3.32 
654.60 -628.48 -3.31 
654.60 -628.84 -3.29 
658.72 -627.77 -2.69 
658.83 -628.32 -2.65 
659.05 -627.61 -2.64 
658.89 -628.21 -2.64 
659.05 -628.57 -2.60 
658.88 -629.47 -2.60 
659.22 -628.58 -2.58 
655.67 -608.94 -3.22 
651.00 -628.11 -3.49 
656.48 -608.28 -3.11 
657.34 -607.41 -3.00 
656.94 -608.10 -3.05 
656.80 -608.30 -3.07 
657.26 -608.12 -3.00 
655.05 -620.02 -3.13 
655.60 -619.65 -3.06 
655.62 -620.12 -3.05 
655.40 -620.64 -2.83 
655.57 -609.55 -3.03 
655.74 -609.54 -3.00 
650.93 -626.91 -2.89 
650.77 -628.07 -2.88 
656.70 -608.02 -2.89 
656.25 -609.08 -2.94 
651.10 -627.78 -2.85 
651.18 -627.98 -2.83 
654.34 -620.53 -2.58 
655.32 -620.58 -2.46 
655.28 -620.73 -2.47 
655.76 -619.66 -2.42 
655.68 -620.11 -2.42 
656.19 -620.26 -2.36 
656.02 -620.63 -2.38 
656.46 -620.24 -2.33 
654.43 -621.21 -2.30 
655.54 -619.45 -2.19 
655.46 -619.62 -2.20 
656.05 -619.07 -2.14 
655.51 -621.35 -2.17 
656.04 -620.58 -2.12 
650.23 -627.77 -2.29 
655.98 -609.06 -2.19 
650.65 -627.60 -2.25 
650.72 -627.85 -2.24 
650.62 -628.28 -2.24 
650.45 -628.55 -2.26 
655.96 -609.57 -2.19 
651.20 -627.59 -2.20 
654.06 -619.14 -1.96 
654.86 -619.49 -1.88 
654.89 -620.22 -1.88 
655.40 -620.36 -1.83 
656.04 -620.30 -1.63 
654.73 -619.91 -1.62 
655.26 -619.53 -1.57 
655.10 -619.89 -1.59 
655.03 -620.91 -1.59 
654.96 -621.09 -1.60 
649.64 -627.31 -1.68 
650.57 -628.30 -1.61 
654.44 -627.70 -3.34 
658.60 -626.60 -2.73 
658.69 -626.78 -2.71 
658.89 -627.02 -2.67 
658.79 -627.18 -2.68 
658.23 -628.87 -2.70 
658.42 -629.41 -2.65 
658.96 -627.68 -2.63 
658.81 -628.35 -2.63 
658.98 -628.59 -2.59 
656.57 -609.20 -3.06 
650.95 -628.29 -3.46 
657.24 -608.54 -2.97 
656.72 -609.06 -3.04 
654.90 -619.94 -3.13 
654.44 -620.16 -3.19 
655.76 -619.37 -3.02 
655.68 -619.82 -3.02 
655.55 -620.10 -3.03 
656.16 -619.10 -2.97 
656.10 -619.49 -2.97 
655.74 -620.02 -3.01 
655.63 -609.20 -3.20 
656.08 -609.39 -2.94 
650.71 -628.20 -2.86 
650.70 -628.23 -2.86 
650.40 -628.84 -2.88 
656.67 -608.24 -2.87 
656.62 -608.49 -3.06 
657.16 -607.75 -2.99 
657.02 -608.15 -3.01 
651.31 -628.22 -2.79 
655.36 -619.71 -2.42 
655.27 -620.56 -2.43 
655.27 -620.89 -2.43 
656.23 -618.88 -2.32 
656.10 -619.13 -2.34 
655.87 -619.55 -2.36 
655.58 -620.18 -2.39 
655.60 -620.45 -2.39 
656.24 -619.58 -2.32 
656.22 -620.68 -2.31 
656.31 -620.55 -2.30 
650.66 -628.54 -2.53 
654.26 -620.35 -2.55 
655.88 -618.26 -2.36 
650.06 -628.31 -2.27 
655.59 -609.66 -2.20 
650.33 -628.10 -2.25 
650.50 -628.74 -2.22 
651.21 -627.62 -2.18 
651.48 -627.52 -2.15 
654.35 -619.21 -1.88 
653.87 -620.05 -1.94 
655.32 -618.70 -1.77 
655.56 -618.95 -1.75 
655.50 -619.80 -1.76 
655.10 -620.08 -1.81 
655.84 -619.46 -1.73 
655.91 -619.73 -1.72 
655.56 -620.66 -1.77 
656.02 -620.07 -1.71 
654.70 -620.06 -1.59 
655.21 -619.49 -1.54 
655.79 -619.59 -1.48 
656.12 -619.72 -1.07 
649.58 -627.42 -1.66 
650.43 -628.31 -1.60 
650.49 -628.57 -1.59 
650.64 -628.19 -1.58 
650.99 -628.55 -1.16 
649.74 -628.74 -1.23 
658.94 -628.01 -2.58 
651.06 -627.69 -3.42 
651.03 -627.88 -3.42 
650.96 -628.25 -3.42 
654.41 -620.18 -3.13 
655.60 -619.08 -2.98 
655.20 -620.05 -3.02 
654.92 -620.88 -3.04 
655.81 -619.33 -2.94 
655.70 -620.29 -2.94 
655.48 -620.45 -2.97 
656.28 -619.20 -2.88 
655.91 -619.81 -2.92 
655.93 -620.22 -2.91 
655.53 -609.20 -2.94 
656.14 -608.81 -2.85 
656.35 -609.43 -2.81 
650.72 -628.17 -2.82 
650.16 -628.96 -2.86 
656.93 -608.40 -2.93 
656.68 -609.09 -2.77 
651.08 -627.31 -2.79 
650.99 -627.56 -2.80 
651.09 -627.89 -2.78 
657.37 -608.08 -2.87 
657.27 -608.47 -2.88 
657.07 -609.06 -2.90 
654.87 -620.85 -2.40 
655.74 -619.82 -2.30 
655.11 -620.84 -2.37 
656.16 -619.55 -2.24 
655.88 -620.23 -2.28 
656.43 -619.54 -2.21 
656.50 -620.07 -2.20 
656.12 -620.73 -2.25 
650.56 -628.33 -2.52 
650.73 -628.75 -2.49 
654.10 -619.65 -2.50 
654.56 -619.84 -2.44 
654.66 -621.69 -2.17 
656.07 -618.22 -2.25 
656.02 -618.79 -2.26 
654.91 -621.16 -2.15 
654.87 -621.37 -2.15 
656.25 -618.75 -2.23 
649.95 -627.44 -2.25 
650.31 -627.81 -2.22 
649.88 -628.27 -2.25 
650.91 -627.20 -2.16 
650.69 -627.55 -2.18 
650.57 -628.30 -2.19 
650.44 -628.70 -2.19 
651.24 -627.60 -2.13 
651.48 -627.51 -2.11 
653.90 -620.12 -1.85 
654.83 -619.62 -1.74 
655.60 -618.39 -1.64 
655.30 -619.24 -1.68 
654.76 -620.33 -1.76 
655.51 -619.71 -1.67 
655.41 -619.88 -1.68 
655.25 -620.47 -1.71 
656.29 -618.24 -1.56 
656.09 -618.65 -1.59 
655.95 -619.61 -1.62 
655.57 -620.55 -1.67 
656.23 -620.09 -1.60 
656.16 -620.28 -1.61 
654.74 -620.66 -1.51 
654.59 -621.49 -1.53 
655.11 -620.86 -1.47 
650.58 -627.10 -1.55 
650.62 -627.96 -1.55 
650.56 -628.31 -1.55 
651.20 -627.87 -1.13 
650.38 -627.84 -1.18 
650.73 -628.56 -1.15 
651.04 -627.78 -3.41 
650.98 -628.27 -3.40 
654.47 -620.17 -3.10 
655.62 -619.12 -2.95 
655.53 -619.61 -2.96 
655.42 -620.07 -2.96 
655.16 -620.09 -3.00 
655.24 -620.62 -2.75 
654.88 -621.01 -2.91 
655.93 -619.63 -2.90 
655.49 -620.42 -2.87 
656.19 -619.15 -2.87 
655.90 -620.32 -2.89 
656.67 -619.73 -2.79 
656.02 -608.87 -2.85 
656.46 -608.68 -2.79 
656.23 -608.79 -2.82 
650.16 -628.96 -2.85 
651.05 -627.47 -2.77 
651.05 -627.81 -2.77 
650.74 -628.18 -2.80 
650.55 -628.76 -2.81 
655.76 -620.76 -2.26 
656.13 -620.64 -2.21 
650.70 -628.77 -2.48 
654.52 -619.56 -2.42 
654.06 -620.26 -2.47 
654.70 -620.02 -2.39 
654.48 -620.78 -2.30 
655.01 -620.61 -2.35 
654.87 -621.37 -2.13 
654.66 -621.70 -2.15 
655.71 -619.00 -2.26 
655.56 -620.10 -2.17 
656.36 -618.87 -2.18 
656.03 -619.63 -2.22 
656.06 -620.14 -2.22 
655.92 -620.73 -2.01 
655.70 -621.02 -2.03 
656.52 -619.47 -2.16 
656.34 -619.88 -2.18 
655.77 -621.34 -2.02 
649.95 -627.57 -2.23 
649.93 -628.05 -2.23 
650.67 -627.59 -2.16 
650.34 -627.92 -2.19 
650.17 -628.34 -2.20 
650.90 -627.31 -2.14 
650.51 -628.71 -2.17 
653.85 -620.23 -1.81 
655.34 -618.68 -1.62 
654.75 -620.42 -1.71 
655.56 -620.06 -1.62 
656.35 -618.29 -1.50 
655.96 -619.64 -1.57 
655.56 -620.62 -1.63 
656.24 -620.12 -1.54 
656.11 -620.68 -1.57 
656.03 -620.82 -1.58 
655.47 -619.69 -1.39 
655.45 -620.13 -1.40 
655.23 -620.25 -1.42 
655.26 -620.96 -1.42 
655.64 -620.04 -1.38 
655.77 -620.52 -1.37 
650.68 -628.08 -1.52 
650.54 -628.32 -1.53 
651.24 -627.91 -1.11 
655.89 -620.02 -0.70 
650.49 -627.86 -1.16 
650.03 -628.13 -1.19 
650.43 -628.72 -1.16 
666.21 -629.02 -1.37 
651.03 -627.85 -3.40 
650.99 -628.14 -3.40 
654.34 -620.26 -3.11 
655.57 -619.04 -2.96 
655.39 -619.47 -2.98 
655.24 -619.86 -2.99 
655.27 -620.13 -2.98 
655.27 -620.65 -2.97 
655.04 -621.12 -2.77 
655.81 -619.58 -2.91 
655.79 -619.87 -2.91 
655.77 -620.20 -2.91 
655.19 -620.99 -2.75 
656.27 -619.25 -2.85 
656.02 -619.86 -2.88 
654.62 -610.17 -3.05 
656.16 -608.90 -2.85 
656.04 -609.10 -2.86 
655.69 -609.54 -2.91 
656.07 -609.56 -2.85 
656.12 -610.04 -2.83 
650.85 -627.55 -2.78 
650.13 -628.93 -2.84 
650.99 -627.41 -2.77 
650.85 -628.09 -2.77 
650.66 -628.30 -2.79 
653.95 -620.79 -2.93 
653.88 -620.95 -2.94 
654.28 -621.01 -2.88 
654.39 -620.87 -2.87 
654.53 -621.70 -2.83 
656.56 -620.53 -2.14 
650.46 -628.63 -2.51 
650.45 -629.27 -2.50 
653.92 -619.72 -2.48 
653.91 -620.32 -2.48 
654.52 -620.05 -2.40 
653.86 -621.50 -2.24 
651.10 -629.67 -2.41 
654.88 -620.19 -2.35 
654.55 -620.73 -2.39 
654.62 -621.70 -2.15 
654.48 -622.23 -2.16 
656.07 -618.08 -2.20 
656.10 -618.50 -2.20 
655.72 -619.16 -2.25 
655.65 -620.26 -2.26 
655.20 -621.12 -2.31 
655.15 -621.75 -2.08 
656.46 -619.25 -2.15 
656.01 -619.60 -2.21 
655.87 -620.10 -2.23 
655.65 -620.70 -2.14 
655.50 -621.73 -2.04 
656.42 -619.52 -2.16 
656.02 -620.80 -2.21 
655.76 -621.49 -2.01 
650.04 -627.56 -2.21 
650.65 -627.68 -2.15 
651.07 -627.25 -2.11 
650.75 -627.51 -2.14 
650.54 -628.28 -2.16 
650.51 -628.70 -2.16 
651.27 -627.59 -2.09 
651.00 -628.32 -2.11 
654.59 -620.49 -1.71 
655.11 -619.26 -1.63 
655.45 -620.60 -1.61 
656.18 -619.01 -1.50 
655.87 -619.52 -1.55 
656.78 -619.11 -1.43 
656.22 -619.97 -1.51 
666.50 -628.18 0.42 
650.08 -629.10 -1.86 
650.47 -629.28 -1.82 
654.11 -618.82 -1.73 
650.69 -629.56 -1.79 
654.87 -619.30 -1.66 
655.34 -619.60 -1.39 
654.98 -620.62 -1.43 
654.93 -620.84 -1.44 
654.34 -622.16 -1.51 
655.80 -618.49 -1.54 
655.17 -620.52 -1.41 
654.94 -621.39 -1.44 
655.68 -620.98 -1.36 
655.51 -621.09 -1.38 
650.67 -628.12 -1.50 
650.48 -628.27 -1.52 
651.05 -628.40 -1.12 
649.77 -628.56 -1.21 
650.27 -628.34 -1.18 
650.22 -629.15 -1.17 
650.05 -629.31 -1.18 
655.35 -619.19 -0.70 
666.16 -628.79 -1.36 
651.07 -627.41 -3.37 
650.97 -628.17 -3.37 
654.09 -620.23 -3.10 
654.52 -619.71 -3.05 
655.03 -620.03 -2.97 
654.92 -620.49 -2.98 
655.36 -620.06 -2.92 
655.24 -620.60 -2.93 
655.89 -619.46 -2.85 
655.79 -619.66 -2.87 
655.81 -620.16 -2.85 
656.88 -618.69 -2.72 
655.81 -609.17 -3.02 
656.35 -608.34 -2.95 
656.07 -608.72 -2.80 
651.13 -627.75 -2.71 
650.66 -628.14 -2.76 
650.59 -628.77 -2.76 
650.63 -629.15 -3.12 
654.29 -620.82 -2.84 
655.26 -620.30 -2.72 
655.15 -620.87 -2.72 
654.87 -620.89 -2.76 
655.32 -621.04 -2.69 
650.54 -628.92 -2.47 
650.33 -629.44 -2.48 
654.62 -619.92 -2.33 
655.34 -618.20 -2.23 
655.37 -618.95 -2.02 
654.70 -620.69 -2.32 
655.69 -618.98 -2.19 
655.32 -620.10 -2.24 
655.26 -620.27 -2.25 
654.91 -621.02 -2.07 
654.74 -621.46 -2.09 
654.66 -621.60 -2.09 
656.20 -618.57 -2.12 
655.87 -619.80 -2.16 
655.69 -620.15 -2.08 
655.34 -620.87 -2.02 
656.47 -619.13 -2.09 
656.31 -619.39 -2.11 
655.93 -620.06 -2.16 
655.88 -620.50 -2.16 
655.72 -621.41 -1.97 
655.46 -621.59 -2.00 
655.96 -621.35 -1.94 
656.61 -620.41 -2.07 
650.16 -627.82 -2.16 
650.69 -627.45 -2.11 
651.14 -627.51 -2.06 
650.60 -628.13 -2.11 
650.45 -628.67 -2.13 
651.34 -627.45 -2.04 
651.20 -627.59 -2.06 
655.33 -620.51 -1.55 
656.08 -619.57 -1.45 
655.49 -608.51 -2.00 
650.09 -628.92 -1.83 
654.02 -618.71 -1.67 
650.31 -628.79 -1.82 
650.77 -628.58 -1.78 
654.68 -619.23 -1.39 
654.94 -619.14 -1.57 
655.88 -618.32 -1.44 
655.45 -619.37 -1.31 
654.95 -620.58 -1.38 
654.86 -621.25 -1.39 
655.34 -620.33 -1.33 
651.14 -628.11 -1.09 
649.81 -628.37 -1.18 
650.23 -628.14 -1.15 
649.84 -628.64 -1.18 
650.24 -628.99 -1.15 
650.99 -627.59 -3.39 
650.89 -627.72 -3.40 
654.02 -620.01 -3.14 
650.91 -628.48 -3.38 
655.53 -619.68 -2.93 
655.01 -620.45 -2.99 
655.93 -619.13 -2.88 
655.54 -620.54 -2.91 
656.12 -620.01 -2.84 
655.82 -620.42 -2.87 
655.81 -620.47 -2.87 
656.68 -619.72 -2.76 
656.51 -620.03 -2.78 
656.24 -620.70 -2.80 
655.76 -609.49 -3.08 
656.82 -607.94 -2.94 
656.08 -609.00 -3.04 
656.00 -609.44 -3.05 
656.85 -608.64 -2.93 
653.85 -620.59 -2.94 
654.21 -620.59 -2.89 
654.83 -620.89 -2.79 
655.27 -620.48 -2.74 
655.27 -620.91 -2.73 
656.02 -620.33 -2.64 
650.61 -628.33 -2.77 
653.70 -620.81 -2.23 
651.09 -627.96 -2.71 
650.62 -628.62 -2.62 
650.49 -628.88 -2.49 
650.35 -629.26 -2.50 
655.32 -619.21 -2.24 
655.09 -620.46 -2.27 
654.98 -620.86 -2.28 
654.70 -621.13 -2.18 
654.48 -621.48 -2.13 
655.73 -619.04 -2.19 
655.61 -619.33 -2.10 
655.33 -620.22 -2.24 
655.38 -620.53 -2.23 
654.99 -621.39 -2.07 
655.80 -619.93 -1.97 
655.85 -620.35 -2.17 
655.70 -620.42 -2.19 
655.57 -621.39 -1.99 
656.48 -619.56 -2.09 
655.69 -621.77 -1.98 
650.11 -627.99 -2.16 
650.55 -627.72 -2.11 
650.49 -627.99 -2.12 
650.52 -628.49 -2.12 
650.43 -628.93 -2.12 
651.39 -627.73 -2.03 
650.08 -628.19 -1.86 
650.15 -628.69 -1.84 
653.36 -620.68 -1.54 
655.13 -619.41 -1.54 
655.88 -618.62 -1.43 
655.32 -620.71 -1.54 
656.02 -619.86 -1.44 
655.77 -620.50 -1.28 
656.35 -619.63 -1.20 
656.39 -620.10 -1.40 
650.70 -628.21 -1.45 
651.23 -627.91 -1.08 
649.80 -628.20 -1.19 
650.30 -628.91 -1.15 
659.22 -626.23 -3.01 
660.05 -629.46 -2.68 
651.09 -628.44 -3.87 
651.34 -628.28 -3.61 
651.32 -628.52 -3.61 
653.88 -619.96 -3.00 
654.17 -619.99 -2.95 
651.03 -627.67 -3.24 
650.87 -628.52 -3.24 
651.24 -628.60 -3.19 
655.74 -619.56 -2.73 
655.15 -620.68 -2.79 
655.89 -619.87 -2.70 
655.85 -620.19 -2.70 
655.69 -620.50 -2.72 
655.46 -620.74 -2.75 
656.65 -619.00 -2.60 
656.23 -619.98 -2.65 
656.78 -619.64 -2.57 
656.66 -619.88 -2.59 
656.59 -620.16 -2.59 
655.82 -608.84 -2.88 
655.72 -609.51 -2.89 
656.16 -608.60 -2.84 
656.35 -608.93 -2.80 
655.98 -609.52 -2.85 
656.84 -608.35 -2.73 
653.99 -620.34 -2.76 
653.94 -620.73 -2.76 
650.66 -628.89 -3.01 
650.59 -629.05 -3.02 
654.89 -619.66 -2.64 
654.61 -620.66 -2.66 
655.25 -620.37 -2.58 
654.92 -620.68 -2.62 
655.15 -620.89 -2.58 
655.96 -619.29 -2.50 
655.90 -619.54 -2.50 
655.90 -620.47 -2.48 
655.65 -621.12 -2.51 
666.48 -627.63 -0.38 
666.50 -627.96 -0.38 
650.57 -628.33 -2.63 
650.44 -628.52 -2.37 
651.09 -628.01 -2.57 
650.69 -628.34 -2.61 
650.58 -629.11 -2.62 
650.24 -629.33 -2.38 
654.44 -619.35 -2.17 
654.20 -620.20 -2.20 
655.35 -619.12 -2.05 
654.31 -621.21 -1.98 
655.59 -619.12 -2.01 
655.40 -619.98 -2.04 
655.33 -620.25 -2.05 
655.13 -620.54 -2.08 
654.97 -620.85 -2.10 
654.74 -621.23 -2.13 
654.66 -621.66 -1.93 
655.79 -619.85 -1.99 
655.19 -620.71 -1.87 
655.11 -621.27 -1.87 
654.98 -621.38 -1.89 
656.53 -619.41 -1.89 
655.97 -620.50 -1.97 
655.80 -620.97 -1.99 
655.48 -621.33 -1.83 
650.10 -628.01 -2.01 
649.75 -628.54 -2.04 
650.54 -627.89 -1.96 
650.94 -627.66 -1.92 
650.75 -627.81 -1.94 
650.57 -628.40 -1.96 
650.40 -628.98 -1.98 
654.71 -618.88 -1.93 
651.36 -627.78 -1.88 
653.26 -620.63 -1.36 
650.32 -628.48 -1.69 
650.81 -628.32 -1.64 
650.32 -629.17 -1.68 
650.88 -629.06 -1.63 
654.15 -620.97 -1.27 
655.33 -619.02 -1.11 
655.53 -620.34 -1.30 
654.92 -621.10 -1.19 
656.30 -619.99 -1.20 
650.65 -628.23 -1.29 
649.76 -627.98 -1.05 
650.26 -627.91 -1.01 
650.37 -628.77 -1.00 
660.11 -628.57 -2.65 
659.65 -629.09 -2.71 
659.65 -629.36 -2.69 
651.09 -628.37 -3.79 
654.15 -619.83 -2.87 
651.00 -627.76 -3.16 
650.95 -628.28 -3.15 
650.89 -628.46 -3.16 
654.88 -620.30 -2.75 
656.00 -618.97 -2.61 
655.73 -619.76 -2.63 
655.28 -620.26 -2.69 
655.11 -620.85 -2.71 
656.39 -618.75 -2.55 
655.67 -620.32 -2.63 
656.73 -618.91 -2.50 
656.58 -619.72 -2.51 
656.28 -620.06 -2.55 
656.01 -620.60 -2.58 
666.49 -628.90 -0.68 
654.84 -610.19 -2.74 
656.40 -608.33 -2.71 
656.08 -608.72 -2.75 
655.82 -609.13 -2.79 
655.77 -609.41 -2.79 
656.67 -608.34 -2.67 
653.46 -621.03 -2.73 
653.88 -620.86 -2.68 
655.00 -620.51 -2.52 
654.68 -621.12 -2.56 
654.65 -621.40 -2.56 
655.58 -619.84 -2.45 
655.68 -620.77 -2.42 
655.21 -621.40 -2.47 
666.29 -628.03 -0.30 
666.20 -628.08 -0.31 
650.61 -628.28 -2.53 
650.01 -629.07 -2.59 
649.93 -629.42 -2.33 
651.10 -627.96 -2.47 
650.69 -628.39 -2.52 
650.53 -629.01 -2.53 
650.35 -629.23 -2.37 
655.52 -617.89 -1.91 
655.33 -618.90 -1.94 
654.70 -621.09 -2.03 
654.46 -621.54 -1.86 
654.20 -621.88 -1.89 
655.64 -618.97 -1.90 
655.12 -620.48 -1.97 
655.02 -620.87 -1.89 
654.83 -621.69 -1.81 
655.67 -619.86 -1.90 
655.74 -620.31 -1.76 
655.60 -620.56 -1.91 
656.47 -619.42 -1.79 
655.38 -621.68 -1.74 
655.99 -621.42 -1.66 
649.75 -628.43 -1.95 
653.31 -621.26 -2.00 
650.64 -627.75 -1.85 
650.28 -628.31 -1.89 
653.79 -620.88 -1.94 
650.98 -627.59 -1.81 
650.59 -628.33 -1.86 
651.32 -627.67 -1.78 
651.14 -627.78 -1.80 
650.12 -628.85 -1.62 
649.96 -628.98 -1.63 
649.83 -629.35 -1.64 
650.69 -628.72 -1.56 
650.61 -628.91 -1.57 
650.08 -629.30 -1.62 
653.96 -621.41 -1.19 
655.81 -618.49 -1.10 
655.49 -620.60 -1.00 
655.15 -620.73 -1.23 
656.08 -619.77 -1.10 
653.35 -619.77 -1.23 
653.01 -621.03 -1.29 
650.58 -628.40 -1.20 
650.09 -628.34 -0.93 
649.72 -629.31 -0.97 
650.21 -629.15 -0.93 
650.87 -628.59 -0.87 
659.73 -629.31 -2.72 
660.12 -629.40 -2.65 
651.03 -628.49 -3.83 
654.05 -619.89 -2.91 
650.97 -627.83 -3.18 
650.91 -628.44 -3.17 
654.88 -620.37 -2.78 
655.05 -620.82 -2.75 
655.91 -619.92 -2.64 
655.68 -620.14 -2.67 
655.54 -620.56 -2.68 
655.35 -620.65 -2.70 
656.68 -618.97 -2.54 
656.56 -619.14 -2.55 
655.84 -620.60 -2.63 
656.66 -619.65 -2.53 
656.38 -620.04 -2.56 
656.11 -620.71 -2.59 
666.25 -628.79 -0.72 
666.49 -628.95 -0.69 
655.98 -608.68 -2.83 
655.77 -608.94 -2.86 
655.69 -609.51 -2.86 
656.56 -608.47 -2.75 
656.30 -608.67 -2.78 
656.89 -608.60 -2.69 
653.86 -621.10 -2.71 
650.42 -629.30 -2.97 
650.35 -629.46 -2.98 
654.41 -621.20 -2.63 
654.06 -621.86 -2.66 
654.63 -621.34 -2.59 
654.91 -621.46 -2.55 
655.44 -621.48 -2.47 
666.14 -628.09 -0.30 
654.79 -609.81 -2.81 
655.36 -609.68 -2.73 
656.12 -609.28 -2.62 
653.64 -620.61 -2.19 
650.58 -628.37 -2.54 
650.12 -629.14 -2.32 
649.92 -629.45 -2.34 
654.14 -620.19 -2.12 
651.00 -628.19 -2.49 
650.55 -629.15 -2.54 
650.27 -629.48 -2.30 
655.27 -618.95 -1.96 
654.73 -619.76 -2.04 
654.45 -621.03 -2.08 
655.58 -619.04 -1.92 
655.34 -619.91 -1.95 
655.13 -620.50 -1.98 
654.95 -620.56 -2.01 
655.29 -620.34 -1.96 
656.38 -619.47 -1.81 
655.84 -620.33 -1.89 
655.75 -620.47 -1.90 
655.06 -621.80 -1.80 
666.50 -628.35 0.20 
653.28 -620.71 -2.03 
650.16 -628.03 -1.90 
649.94 -628.10 -1.93 
653.31 -621.38 -2.02 
650.55 -627.92 -1.86 
654.43 -619.97 -1.89 
653.77 -620.94 -1.97 
653.56 -621.38 -1.99 
651.03 -627.74 -1.81 
651.07 -628.01 -1.80 
650.39 -629.01 -1.88 
651.36 -627.76 -1.77 
654.90 -620.20 -1.82 
654.81 -620.81 -1.83 
654.12 -621.96 -1.92 
654.68 -621.69 -1.85 
650.14 -628.94 -1.63 
650.61 -628.77 -1.58 
650.09 -629.39 -1.63 
655.46 -620.34 -1.18 
656.32 -620.08 -1.07 
656.20 -620.24 -1.08 
653.35 -619.83 -1.24 
653.21 -619.96 -1.26 
649.56 -628.54 -0.98 
650.06 -628.37 -0.94 
650.16 -629.22 -0.94 
650.79 -628.64 -0.88 
659.77 -629.26 -2.68 
660.09 -629.55 -2.61 
650.93 -628.62 -3.78 
666.04 -628.84 -1.16 
666.30 -628.96 -1.11 
654.19 -620.36 -2.83 
654.05 -620.63 -2.84 
654.32 -620.18 -2.81 
650.82 -628.57 -3.12 
655.09 -620.05 -2.70 
654.94 -620.34 -2.72 
655.58 -619.99 -2.63 
655.48 -620.37 -2.64 
655.33 -620.57 -2.65 
655.03 -620.93 -2.69 
656.25 -619.31 -2.54 
656.11 -619.53 -2.56 
656.33 -620.04 -2.52 
656.13 -620.16 -2.54 
656.03 -620.92 -2.54 
665.96 -628.43 -0.72 
666.36 -628.90 -0.65 
656.04 -608.79 -2.78 
655.64 -609.42 -2.83 
656.50 -608.29 -2.72 
655.93 -609.35 -2.79 
656.57 -609.36 -2.69 
653.19 -621.00 -2.76 
653.71 -621.29 -2.67 
650.22 -629.57 -2.93 
653.88 -621.07 -2.65 
650.31 -629.42 -2.93 
654.45 -621.45 -2.56 
654.83 -621.39 -2.51 
655.42 -620.48 -2.45 
666.49 -627.45 -0.29 
666.02 -628.08 -0.24 
666.50 -628.49 -0.17 
654.57 -610.31 -2.79 
655.49 -609.60 -2.67 
654.05 -620.27 -2.06 
650.49 -628.54 -2.48 
650.14 -629.08 -2.26 
650.08 -629.39 -2.26 
649.87 -629.60 -2.28 
650.85 -628.10 -2.44 
655.36 -619.28 -1.88 
655.44 -619.49 -1.87 
654.88 -620.61 -1.94 
654.81 -620.75 -1.95 
655.71 -620.46 -1.83 
655.50 -620.59 -1.86 
655.27 -621.02 -1.89 
656.41 -619.35 -1.73 
656.10 -619.70 -1.78 
655.53 -621.02 -1.86 
666.50 -628.24 0.31 
653.19 -620.74 -1.98 
653.41 -621.39 -1.94 
653.18 -621.40 -1.97 
650.69 -627.93 -1.76 
650.30 -628.53 -1.81 
651.09 -627.93 -1.72 
654.36 -621.13 -1.82 
654.24 -621.64 -1.83 
651.37 -627.81 -1.69 
655.33 -619.76 -1.70 
654.95 -621.17 -1.75 
654.70 -621.51 -1.78 
654.42 -621.56 -1.81 
650.21 -628.08 -1.81 
649.69 -628.67 -1.87 
649.91 -629.41 -1.58 
655.51 -618.72 -1.05 
653.15 -619.98 -1.18 
649.88 -628.39 -0.88 
650.01 -629.31 -0.88 
659.52 -629.43 -2.70 
659.85 -629.32 -2.65 
665.95 -628.92 -1.14 
666.27 -629.14 -1.08 
653.90 -620.29 -2.82 
654.16 -620.35 -2.78 
653.87 -620.80 -2.82 
650.63 -628.80 -3.09 
654.77 -620.41 -2.69 
654.62 -620.64 -2.71 
655.36 -619.47 -2.63 
655.33 -620.04 -2.62 
655.05 -620.44 -2.65 
654.84 -621.13 -2.67 
655.61 -620.06 -2.58 
655.28 -620.72 -2.61 
656.52 -619.20 -2.46 
656.18 -619.29 -2.51 
656.15 -619.54 -2.51 
656.15 -620.12 -2.49 
656.00 -620.35 -2.51 
655.97 -621.28 -2.50 
666.16 -628.82 -0.63 
666.42 -628.82 -0.59 
666.25 -629.04 -0.61 
655.99 -608.85 -2.75 
655.68 -608.88 -2.80 
655.36 -609.67 -2.83 
656.32 -608.84 -2.70 
653.00 -621.23 -2.73 
653.42 -621.42 -2.67 
653.84 -621.22 -2.61 
650.09 -629.69 -2.90 
666.41 -627.65 -0.22 
666.39 -628.45 -0.11 
666.23 -628.71 -0.13 
654.61 -609.74 -2.76 
654.36 -610.36 -2.79 
650.43 -628.71 -2.42 
650.22 -629.08 -2.44 
650.08 -629.36 -2.46 
649.93 -629.60 -2.22 
654.26 -621.22 -1.96 
650.74 -628.38 -2.38 
654.96 -620.54 -1.87 
654.73 -620.83 -1.90 
655.24 -620.59 -1.83 
655.53 -620.57 -1.79 
655.59 -620.77 -1.78 
666.19 -628.38 0.36 
666.47 -628.34 0.40 
653.13 -621.52 -1.92 
655.24 -618.37 -1.83 
654.55 -620.34 -1.74 
654.02 -621.60 -1.80 
653.74 -622.00 -1.84 
650.27 -629.20 -1.74 
655.22 -619.48 -1.83 
654.77 -621.88 -1.70 
655.03 -621.79 -1.67 
650.16 -628.17 -1.75 
649.92 -628.32 -1.77 
649.59 -628.78 -1.81 
650.54 -628.07 -1.70 
650.31 -628.65 -1.73 
650.19 -628.82 -1.75 
649.90 -629.13 -1.52 
649.84 -629.62 -1.53 
651.00 -628.11 -1.65 
655.15 -620.59 -1.04 
654.86 -621.04 -1.09 
656.07 -620.36 -0.92 
653.01 -620.08 -1.12 
650.35 -628.76 -1.04 
649.79 -628.52 -0.82 
649.91 -629.45 -0.82 
650.55 -628.86 -0.76 
659.22 -626.74 -2.81 
659.94 -626.49 -2.70 
659.33 -627.50 -2.74 
659.10 -628.14 -2.74 
659.57 -627.40 -2.71 
659.20 -628.31 -2.72 
659.17 -628.73 -2.69 
658.87 -629.25 -2.71 
659.65 -628.22 -2.64 
659.57 -628.36 -2.65 
659.26 -629.17 -2.65 
659.53 -629.33 -2.60 
666.18 -629.29 -1.46 
650.84 -628.69 -3.64 
666.00 -629.02 -1.00 
666.28 -628.99 -0.95 
650.76 -627.96 -2.96 
650.75 -628.66 -2.94 
654.61 -620.94 -2.55 
655.39 -620.45 -2.45 
655.24 -620.65 -2.47 
656.10 -620.27 -2.34 
655.67 -620.48 -2.41 
655.66 -620.96 -2.40 
656.41 -620.39 -2.30 
666.13 -628.67 -0.48 
666.38 -628.74 -0.44 
655.41 -609.07 -2.67 
656.29 -608.71 -2.54 
656.03 -609.03 -2.57 
655.77 -609.19 -2.61 
653.25 -621.41 -2.55 
654.77 -620.26 -2.54 
654.35 -621.13 -2.39 
654.02 -621.27 -2.44 
650.17 -629.44 -2.77 
650.08 -629.60 -2.78 
655.35 -619.67 -2.47 
654.67 -620.58 -2.55 
654.80 -620.88 -2.33 
654.61 -621.23 -2.35 
654.15 -621.83 -2.41 
655.63 -619.80 -2.43 
655.48 -620.42 -2.24 
656.47 -619.83 -2.30 
666.34 -628.51 0.07 
654.44 -609.66 -2.63 
655.21 -609.54 -2.51 
649.86 -629.32 -2.35 
650.91 -628.24 -2.22 
650.45 -628.52 -2.28 
650.08 -629.65 -2.07 
650.43 -629.35 -2.28 
655.18 -620.80 -1.67 
655.79 -620.41 -1.58 
653.31 -621.13 -1.74 
654.52 -618.96 -1.58 
653.21 -621.48 -1.75 
654.66 -619.73 -1.56 
654.48 -620.29 -1.58 
654.38 -620.65 -1.60 
655.53 -618.48 -1.61 
655.50 -619.11 -1.62 
654.94 -619.70 -1.70 
654.67 -620.23 -1.56 
654.65 -621.00 -1.56 
654.30 -621.42 -1.60 
655.49 -620.20 -1.45 
654.85 -621.84 -1.53 
656.60 -619.79 -1.46 
666.34 -628.22 0.59 
649.72 -628.27 -1.64 
649.21 -629.23 -1.45 
649.86 -628.94 -1.38 
650.53 -627.91 -1.55 
650.68 -628.44 -1.54 
650.34 -628.52 -1.58 
649.86 -629.50 -1.39 
651.26 -627.82 -1.47 
651.17 -627.99 -1.48 
650.56 -628.77 -1.31 
655.54 -618.75 -0.76 
654.61 -621.15 -0.77 
655.43 -621.07 -0.67 
649.88 -629.34 -0.67 
659.16 -624.49 -2.96 
659.14 -625.20 -2.92 
659.10 -625.80 -2.89 
659.06 -626.33 -2.86 
658.90 -626.46 -2.88 
659.31 -625.89 -2.84 
659.14 -626.40 -2.84 
659.10 -627.22 -2.79 
659.02 -627.55 -2.79 
658.73 -628.02 -2.80 
658.73 -628.38 -2.78 
658.52 -628.81 -2.79 
658.45 -629.03 -2.79 
659.16 -628.25 -2.72 
659.08 -628.50 -2.71 
658.75 -628.84 -2.75 
658.63 -629.67 -2.71 
659.14 -629.15 -2.66 
666.18 -629.17 -1.47 
665.99 -628.91 -0.98 
666.35 -629.03 -0.91 
650.78 -627.90 -2.91 
650.64 -628.79 -2.91 
651.18 -628.88 -2.83 
666.08 -628.26 -0.44 
666.01 -628.53 -0.44 
666.28 -628.42 -0.40 
655.76 -609.09 -2.59 
655.55 -609.35 -2.61 
655.55 -609.51 -2.61 
652.95 -620.99 -2.56 
654.55 -620.47 -2.53 
654.36 -620.66 -2.56 
653.81 -621.44 -2.42 
650.10 -629.58 -2.73 
655.58 -619.05 -2.41 
654.77 -620.77 -2.49 
654.60 -621.43 -2.31 
654.47 -621.64 -2.32 
655.60 -620.43 -2.37 
655.23 -620.80 -2.37 
654.64 -621.43 -2.30 
655.80 -620.36 -2.35 
655.74 -620.91 -2.34 
656.43 -619.88 -2.26 
656.09 -620.46 -2.30 
666.31 -628.44 0.14 
655.13 -609.51 -2.50 
654.94 -609.88 -2.52 
654.78 -610.16 -2.54 
656.26 -608.36 -2.52 
650.30 -628.80 -2.23 
649.91 -629.46 -2.04 
649.68 -629.40 -2.31 
651.01 -627.96 -2.15 
650.91 -628.26 -2.16 
650.47 -628.73 -2.21 
650.23 -629.18 -2.00 
650.27 -629.52 -2.23 
654.49 -621.76 -1.70 
654.08 -620.25 -1.58 
649.47 -629.33 -2.10 
654.70 -620.03 -1.50 
650.06 -628.63 -2.03 
655.51 -619.21 -1.56 
654.78 -620.62 -1.66 
654.55 -620.96 -1.51 
655.43 -620.05 -1.57 
654.58 -621.56 -1.51 
655.03 -621.32 -1.45 
655.10 -621.53 -1.44 
655.94 -620.50 -1.33 
666.46 -628.28 0.72 
649.71 -628.13 -1.57 
649.24 -629.42 -1.38 
650.46 -627.90 -1.48 
650.45 -628.40 -1.49 
650.10 -628.69 -1.53 
649.97 -628.79 -1.39 
649.85 -629.47 -1.32 
650.80 -628.56 -1.45 
650.37 -628.64 -1.50 
651.34 -627.85 -1.38 
651.18 -628.01 -1.40 
659.05 -624.03 -2.99 
658.82 -624.35 -3.00 
659.21 -625.86 -2.84 
658.64 -626.62 -2.88 
658.46 -627.47 -2.86 
658.33 -627.81 -2.86 
659.01 -626.97 -2.80 
658.85 -627.59 -2.78 
658.56 -628.80 -2.76 
658.59 -629.30 -2.72 
666.47 -629.58 -0.38 
653.92 -622.62 -2.28 
654.96 -621.75 -2.34 
654.78 -621.93 -2.36 
654.41 -623.03 -2.20 
656.02 -620.99 -2.19 
655.45 -622.02 -2.26 
655.12 -622.32 -2.11 
654.65 -623.00 -2.16 
655.99 -621.59 -2.19 
654.99 -623.13 -2.11 
656.08 -622.33 -2.15 
656.79 -621.81 -2.06 
655.56 -611.19 -2.29 
656.53 -610.11 -2.34 
656.36 -610.76 -2.35 
655.88 -611.29 -2.24 
654.31 -620.91 -1.58 
655.74 -620.39 -1.38 
655.04 -621.16 -1.31 
654.30 -622.52 -1.40 
655.94 -620.33 -1.35 
655.41 -621.14 -1.43 
655.34 -621.58 -1.44 
654.72 -622.25 -1.35 
655.39 -622.54 -1.26 
656.01 -621.98 -1.34 
649.67 -629.22 -1.45 
650.50 -628.92 -1.35 
650.51 -629.38 -1.35 
650.37 -629.56 -1.37 
651.13 -629.16 -1.27 
651.33 -628.99 -1.25 
659.15 -623.67 -2.95 
659.03 -624.01 -2.95 
659.33 -624.74 -2.85 
659.26 -625.30 -2.82 
659.33 -625.38 -2.80 
659.00 -626.41 -2.79 
659.15 -626.67 -2.75 
659.45 -626.98 -2.68 
659.10 -627.51 -2.70 
658.91 -627.84 -2.71 
659.26 -629.17 -2.56 
659.05 -629.40 -2.58 
656.14 -620.94 -2.98 
655.83 -621.36 -3.01 
651.04 -628.71 -2.68 
650.88 -629.50 -2.69 
666.02 -629.58 -0.22 
654.19 -621.87 -2.38 
654.22 -622.34 -2.17 
655.34 -621.22 -2.22 
655.11 -621.31 -2.25 
654.99 -621.63 -2.07 
656.23 -620.73 -2.09 
655.67 -621.39 -2.16 
655.47 -621.73 -2.19 
655.23 -621.78 -2.22 
655.09 -622.29 -2.14 
654.75 -622.62 -2.08 
656.15 -621.24 -2.09 
655.93 -621.50 -2.12 
655.76 -621.82 -2.14 
657.17 -620.74 -1.95 
656.91 -621.09 -1.98 
656.23 -621.63 -2.07 
657.00 -621.58 -1.96 
655.85 -609.88 -2.38 
655.58 -610.82 -2.23 
655.92 -610.81 -2.17 
656.02 -610.99 -2.16 
657.41 -609.49 -2.15 
656.87 -609.87 -2.22 
656.88 -610.18 -2.22 
651.15 -629.07 -1.92 
650.70 -629.38 -1.97 
655.29 -620.80 -1.18 
656.13 -620.23 -1.23 
655.73 -621.24 -1.29 
654.96 -621.89 -1.23 
654.93 -622.65 -1.41 
655.53 -622.20 -1.15 
649.75 -628.93 -1.34 
650.71 -628.63 -1.22 
650.29 -629.43 -1.28 
650.69 -629.22 -1.23 
650.55 -629.45 -1.25 
651.47 -628.67 -1.13 
650.94 -629.29 -1.20 
649.92 -629.42 -1.09 
660.26 -621.12 -2.94 
659.49 -625.18 -2.79 
659.53 -626.67 -2.68 
659.48 -627.18 -2.66 
659.45 -628.21 -2.59 
659.17 -629.16 -2.58 
659.37 -628.97 -2.55 
659.16 -629.48 -2.55 
655.17 -621.57 -2.88 
656.19 -620.72 -2.96 
655.89 -621.08 -3.00 
651.03 -628.60 -2.65 
650.90 -629.33 -2.65 
666.15 -629.34 -0.17 
666.36 -629.44 -0.13 
653.56 -621.61 -2.25 
654.19 -621.70 -2.35 
654.98 -621.12 -2.24 
654.37 -621.79 -2.13 
654.25 -622.14 -2.14 
655.72 -620.41 -2.15 
654.80 -622.24 -2.05 
656.65 -619.58 -2.02 
656.16 -620.88 -2.07 
655.74 -621.32 -2.12 
655.52 -621.63 -2.15 
655.17 -621.82 -2.01 
655.00 -622.06 -2.03 
656.32 -620.93 -1.95 
656.26 -621.39 -2.04 
655.73 -621.64 -2.02 
655.35 -622.16 -1.98 
657.11 -620.44 -1.93 
656.78 -621.14 -1.97 
656.15 -621.81 -2.05 
657.08 -621.44 -1.92 
655.98 -610.25 -2.16 
655.73 -610.61 -2.19 
657.25 -609.34 -2.16 
656.71 -610.03 -2.23 
650.48 -629.19 -1.96 
651.14 -628.93 -1.87 
650.83 -629.28 -1.91 
666.45 -629.47 0.50 
655.70 -619.77 -1.25 
654.32 -621.39 -1.27 
655.46 -620.77 -1.12 
654.90 -621.43 -1.19 
654.42 -622.14 -1.26 
656.11 -620.09 -1.19 
655.77 -621.03 -1.24 
656.07 -620.96 -1.19 
655.56 -621.95 -1.10 
655.11 -622.42 -1.33 
649.71 -628.83 -1.29 
650.74 -628.40 -1.16 
650.77 -628.93 -1.16 
650.54 -629.39 -1.20 
650.27 -629.35 -1.23 
651.42 -628.65 -1.08 
650.69 -629.28 -1.18 
649.59 -629.64 -1.08 
660.07 -621.15 -2.93 
660.21 -623.71 -2.73 
659.92 -625.97 -2.62 
659.98 -627.09 -2.54 
659.59 -629.26 -2.45 
655.11 -621.38 -2.84 
654.93 -621.61 -2.85 
656.09 -620.62 -2.92 
655.89 -620.96 -2.94 
650.94 -629.14 -2.58 
666.06 -629.10 -0.10 
666.42 -629.20 -0.04 
653.53 -621.15 -2.19 
653.93 -621.52 -2.12 
654.53 -621.58 -2.03 
656.56 -619.43 -1.96 
655.65 -620.27 -2.08 
655.24 -621.15 -2.03 
655.15 -621.54 -2.13 
655.61 -621.32 -2.06 
656.31 -620.74 -1.97 
656.09 -620.99 -2.00 
655.88 -621.37 -2.02 
657.02 -620.45 -1.87 
656.76 -621.04 -1.89 
656.20 -621.56 -1.97 
656.03 -609.34 -2.26 
655.03 -610.24 -2.22 
655.75 -610.34 -2.11 
656.42 -609.54 -2.20 
656.26 -609.86 -2.04 
657.13 -609.36 -2.09 
650.69 -628.87 -1.85 
651.15 -628.75 -1.79 
650.62 -629.14 -1.86 
666.37 -629.26 0.59 
655.01 -620.61 -1.25 
654.94 -621.38 -1.09 
654.55 -621.91 -1.15 
656.22 -619.88 -1.08 
655.87 -620.69 -1.13 
655.68 -620.84 -1.16 
654.97 -622.28 -1.26 
656.17 -620.85 -1.08 
650.26 -629.62 -1.69 
656.43 -621.05 -0.88 
653.82 -620.82 -1.25 
655.40 -619.71 -1.03 
655.18 -620.54 -1.06 
649.95 -628.56 -1.16 
650.43 -629.04 -1.11 
650.97 -629.00 -1.04 
650.61 -629.08 -1.09 
650.09 -629.16 -0.93 
660.27 -620.85 -2.91 
660.23 -623.24 -2.75 
659.61 -626.81 -2.60 
659.62 -626.99 -2.59 
659.38 -629.43 -2.46 
655.24 -621.15 -2.79 
655.95 -621.22 -2.88 
656.37 -620.80 -2.84 
656.16 -621.14 -2.85 
651.24 -629.03 -3.05 
666.35 -629.12 -0.64 
651.20 -628.61 -2.50 
651.15 -629.10 -2.49 
651.03 -629.33 -2.50 
654.55 -621.29 -1.98 
654.36 -621.57 -2.00 
654.27 -621.74 -2.20 
654.97 -621.16 -2.11 
654.73 -621.94 -1.94 
655.81 -621.18 -1.98 
655.48 -621.11 -2.03 
655.31 -621.51 -2.05 
654.97 -621.79 -1.90 
656.34 -621.04 -1.90 
656.09 -621.37 -1.93 
655.88 -621.68 -1.95 
655.52 -621.80 -1.82 
656.57 -621.00 -1.86 
657.33 -620.58 -1.76 
656.47 -621.89 -1.86 
657.18 -621.39 -1.76 
655.90 -609.85 -2.05 
656.57 -609.78 -2.13 
656.91 -609.74 -2.07 
657.25 -610.01 -2.01 
651.24 -628.85 -1.70 
650.78 -629.17 -1.76 
656.24 -619.84 -0.99 
650.27 -629.50 -1.61 
656.41 -620.88 -0.96 
650.47 -629.31 -1.59 
654.03 -620.31 -1.14 
655.47 -620.11 -0.94 
654.55 -621.61 -1.07 
655.19 -621.17 -0.97 
655.13 -621.83 -0.98 
649.83 -628.75 -1.08 
655.61 -621.45 -0.91 
650.92 -628.90 -0.95 
650.71 -629.27 -0.98 
