# .PCD v0.7 - Point Cloud Data file format
VERSION 0.7
FIELDS x y z
SIZE 4 4 4
TYPE F F F
COUNT 1 1 1
WIDTH 2256
HEIGHT 1
VIEWPOINT 0 0 0 1 0 0 0
POINTS 2256
DATA ascii
666.60 -193.10 8.50 
666.79 -191.06 8.94 
666.85 -190.65 8.95 
666.59 -189.77 8.90 
666.56 -188.94 8.89 
666.81 -189.32 8.95 
666.96 -188.60 8.99 
667.12 -188.95 9.02 
667.24 -188.70 9.05 
667.14 -187.43 9.04 
667.29 -187.66 9.07 
667.81 -188.60 9.19 
667.24 -187.31 9.06 
667.91 -188.21 9.21 
667.04 -185.87 9.04 
667.63 -186.72 9.16 
667.68 -187.17 9.17 
667.33 -185.73 9.11 
667.72 -185.38 9.21 
667.86 -185.71 9.23 
668.78 -187.23 9.43 
668.12 -185.29 9.30 
668.77 -184.22 9.48 
668.84 -183.88 9.51 
669.59 -184.80 9.67 
669.75 -185.14 9.70 
669.65 -183.79 9.71 
669.94 -183.85 9.77 
670.02 -183.66 9.80 
670.77 -183.37 9.99 
672.11 -182.42 9.82 
673.61 -180.90 10.20 
674.94 -181.05 10.48 
675.53 -180.63 10.63 
676.00 -180.47 10.74 
676.33 -180.22 10.45 
678.76 -180.04 11.00 
667.08 -192.33 9.01 
667.18 -192.84 9.03 
667.78 -190.51 9.17 
667.88 -190.82 9.19 
667.30 -189.15 9.60 
667.00 -187.72 9.52 
667.35 -186.73 9.60 
667.22 -185.48 9.58 
667.79 -186.69 9.71 
667.44 -185.31 9.63 
668.39 -185.54 9.85 
670.93 -183.51 10.02 
671.39 -182.75 10.16 
672.33 -183.44 10.36 
672.93 -182.89 10.53 
673.29 -182.42 10.63 
673.11 -182.65 10.58 
674.13 -182.38 10.84 
667.47 -192.37 9.66 
667.35 -192.57 9.63 
666.78 -190.40 9.48 
666.84 -190.64 9.50 
667.22 -191.30 9.59 
667.23 -190.40 9.59 
666.68 -188.25 9.78 
667.36 -189.47 9.96 
667.14 -188.26 9.90 
667.28 -187.73 9.94 
667.48 -187.32 9.99 
667.43 -187.55 9.98 
667.82 -187.16 10.08 
667.71 -187.38 10.05 
667.73 -186.58 10.06 
667.80 -186.88 10.07 
669.09 -186.81 10.01 
668.89 -186.13 10.36 
672.45 -183.58 10.84 
672.94 -183.17 10.97 
673.96 -182.34 11.23 
674.81 -182.29 11.01 
675.45 -181.90 11.18 
676.26 -182.04 11.37 
676.52 -182.43 11.42 
676.37 -181.22 11.43 
677.76 -180.57 11.80 
667.81 -190.61 10.09 
667.74 -189.97 10.07 
667.92 -190.40 10.11 
667.94 -189.50 10.11 
669.01 -189.78 10.39 
668.92 -186.90 10.37 
669.24 -186.74 10.45 
670.86 -185.98 10.88 
670.93 -185.44 10.91 
671.18 -185.82 10.97 
673.36 -184.58 11.04 
677.80 -181.04 11.79 
677.94 -180.35 11.85 
678.09 -180.01 11.91 
678.16 -180.34 11.91 
667.52 -189.77 10.60 
672.83 -186.83 11.39 
673.04 -187.17 11.44 
672.34 -185.39 11.28 
672.31 -185.09 11.28 
673.37 -185.06 11.56 
672.92 -183.62 11.47 
672.96 -184.03 11.47 
673.74 -183.24 11.70 
673.77 -183.01 11.71 
674.01 -183.20 11.77 
674.31 -182.82 11.86 
674.45 -182.57 11.91 
674.57 -182.94 11.93 
678.42 -180.07 12.38 
676.17 -182.13 12.38 
676.16 -182.45 12.37 
676.13 -181.83 12.38 
676.59 -181.69 12.51 
677.53 -181.86 12.76 
677.11 -180.23 12.70 
677.23 -180.56 12.72 
677.40 -180.65 12.77 
678.06 -181.36 12.92 
678.04 -181.67 12.90 
677.61 -180.03 12.85 
673.74 -186.96 12.64 
674.39 -186.77 12.83 
674.57 -186.98 12.88 
674.00 -185.83 12.72 
674.37 -186.27 12.83 
678.47 -183.17 14.07 
679.90 -182.22 14.52 
679.78 -182.52 14.47 
680.02 -181.92 14.56 
671.77 -198.13 4.91 
671.92 -197.93 4.94 
671.73 -191.78 5.53 
671.89 -192.17 5.53 
672.50 -192.95 5.56 
673.10 -193.70 5.59 
671.06 -190.29 5.53 
671.19 -190.71 5.52 
671.43 -191.21 5.53 
670.74 -189.27 5.55 
672.01 -188.38 5.77 
672.48 -188.15 5.85 
672.86 -188.07 5.90 
674.85 -190.92 5.75 
673.30 -188.12 5.95 
673.71 -187.88 6.02 
673.71 -187.98 6.01 
674.74 -189.25 5.83 
674.37 -187.49 6.13 
674.97 -188.27 5.92 
674.70 -187.31 6.18 
675.44 -187.97 6.00 
674.90 -187.13 6.22 
675.68 -187.75 6.05 
675.32 -186.94 6.29 
675.84 -187.49 6.08 
675.91 -187.20 6.11 
676.48 -186.78 6.21 
676.39 -187.07 6.18 
676.92 -186.33 6.42 
676.93 -186.62 6.28 
677.22 -186.08 6.35 
677.63 -185.93 6.53 
677.90 -185.72 6.58 
678.19 -185.47 6.64 
678.50 -185.21 6.69 
678.83 -184.86 6.64 
679.57 -184.26 6.77 
679.92 -184.80 7.02 
679.77 -184.00 6.82 
680.10 -183.76 6.88 
680.38 -183.53 6.93 
683.14 -181.77 7.40 
671.64 -198.21 5.92 
671.81 -198.01 5.95 
670.44 -188.64 6.20 
670.54 -188.42 6.23 
670.51 -188.72 6.21 
667.33 -193.61 6.38 
667.55 -194.07 6.40 
669.48 -189.15 6.91 
669.95 -188.52 7.02 
667.15 -181.83 7.15 
669.26 -181.94 7.51 
671.62 -194.43 7.08 
671.94 -195.03 7.11 
672.56 -194.67 7.23 
672.64 -194.08 7.26 
672.76 -194.43 7.27 
673.86 -194.74 7.45 
674.87 -193.92 7.65 
676.59 -195.61 7.88 
676.68 -195.31 7.91 
676.48 -194.51 7.91 
678.77 -191.71 8.41 
679.54 -190.91 8.58 
673.56 -180.36 8.34 
677.54 -179.72 8.78 
677.50 -180.01 8.91 
666.63 -182.62 7.84 
667.68 -182.16 8.06 
667.77 -181.54 8.10 
672.91 -180.28 8.83 
672.95 -180.56 8.83 
673.53 -179.88 8.98 
673.52 -180.14 8.96 
666.64 -187.17 8.12 
667.36 -184.67 8.34 
667.25 -182.67 8.38 
667.29 -182.48 8.39 
671.22 -182.36 8.75 
671.79 -182.16 8.88 
671.56 -181.23 8.87 
671.94 -181.64 8.93 
672.77 -181.13 9.11 
673.11 -180.90 9.19 
678.09 -179.86 9.90 
667.11 -193.17 8.13 
666.74 -188.01 8.12 
669.25 -183.58 8.79 
670.29 -182.91 9.05 
670.58 -182.17 9.14 
671.24 -181.61 9.31 
671.52 -181.16 9.39 
671.60 -180.64 9.43 
672.70 -180.64 9.68 
678.60 -180.10 10.32 
666.85 -193.22 8.58 
666.77 -191.99 8.57 
667.16 -190.35 8.66 
666.83 -186.77 8.62 
666.96 -185.35 9.04 
667.38 -185.79 9.13 
667.03 -185.14 9.06 
667.39 -185.03 9.15 
667.75 -185.04 8.85 
668.36 -184.50 8.99 
669.08 -183.68 9.17 
673.40 -180.53 9.84 
673.36 -180.75 9.82 
673.49 -180.51 9.86 
673.85 -180.34 9.95 
675.09 -180.56 10.22 
675.51 -180.37 10.32 
675.92 -180.16 10.43 
666.57 -190.66 8.90 
666.94 -190.45 8.98 
666.66 -188.90 8.93 
667.61 -190.57 9.14 
666.80 -188.45 8.96 
667.10 -188.35 9.03 
667.29 -188.96 9.07 
666.94 -187.16 9.01 
666.94 -187.44 9.00 
667.47 -188.38 9.12 
667.08 -186.85 9.04 
668.00 -188.48 9.25 
667.15 -186.47 9.07 
667.50 -185.89 9.16 
667.59 -186.40 9.17 
668.85 -187.51 9.46 
668.15 -185.08 9.33 
668.49 -184.70 9.42 
668.59 -184.52 9.45 
669.26 -184.45 9.62 
675.59 -180.91 10.69 
676.92 -180.10 10.66 
677.14 -179.84 10.72 
677.03 -180.07 10.68 
678.89 -180.11 11.10 
678.88 -179.81 11.11 
666.72 -190.78 9.48 
666.88 -190.43 9.52 
667.12 -190.60 9.57 
666.67 -189.17 9.46 
667.32 -190.28 9.62 
668.13 -185.89 9.81 
668.92 -185.71 10.00 
671.92 -183.49 10.30 
672.14 -183.28 10.36 
672.40 -183.89 10.40 
672.62 -183.12 10.48 
672.73 -182.77 10.52 
672.86 -182.22 10.57 
673.31 -181.93 10.69 
674.40 -181.97 10.96 
674.89 -182.04 11.08 
675.02 -181.55 11.13 
682.07 -180.08 11.82 
667.31 -192.69 9.63 
667.68 -192.69 9.72 
667.68 -192.35 9.71 
667.29 -189.65 9.94 
667.62 -190.15 10.03 
666.56 -187.74 9.75 
667.41 -189.43 9.97 
667.67 -188.77 10.04 
666.91 -187.04 9.84 
667.10 -187.22 9.89 
667.27 -187.47 9.93 
667.28 -186.64 9.94 
667.46 -186.46 9.99 
667.91 -187.24 10.10 
668.33 -187.39 10.21 
667.76 -186.33 10.07 
668.55 -185.76 10.28 
668.84 -186.53 10.35 
668.61 -185.41 10.30 
672.78 -183.05 10.97 
673.70 -181.91 11.22 
674.12 -182.96 11.29 
674.61 -181.92 11.44 
675.27 -181.56 11.19 
675.95 -182.01 11.34 
676.65 -181.63 11.53 
677.31 -180.22 11.76 
678.03 -181.27 11.89 
678.09 -181.34 11.91 
677.41 -179.96 11.79 
678.01 -180.66 11.91 
678.15 -181.04 11.93 
668.66 -189.52 10.30 
668.98 -190.01 10.38 
671.21 -185.32 11.00 
672.50 -186.03 11.33 
672.42 -186.30 11.31 
672.40 -183.75 11.35 
672.72 -184.10 11.43 
672.60 -183.44 11.41 
676.08 -182.11 11.79 
676.97 -181.45 12.03 
678.24 -181.63 11.93 
678.52 -181.07 12.02 
678.76 -179.89 12.14 
672.49 -186.61 11.32 
673.24 -184.85 11.55 
673.41 -185.19 11.59 
673.13 -184.58 11.53 
673.95 -185.67 11.73 
673.72 -184.71 11.68 
673.49 -183.48 11.65 
673.87 -183.31 11.76 
673.77 -182.43 11.75 
674.43 -183.19 11.91 
673.93 -182.19 11.80 
674.12 -182.57 11.84 
674.56 -182.93 11.95 
673.13 -186.09 12.02 
673.33 -185.29 12.08 
676.47 -182.53 12.49 
676.82 -182.08 12.60 
676.91 -182.35 12.61 
677.05 -179.98 12.74 
677.48 -180.66 12.83 
677.38 -180.94 12.79 
678.06 -181.70 12.95 
678.75 -182.48 13.11 
677.12 -179.72 12.77 
677.28 -180.07 12.80 
677.65 -180.39 12.89 
678.23 -181.48 13.00 
678.71 -182.16 13.11 
678.67 -181.52 13.12 
673.59 -187.17 12.60 
673.64 -186.89 12.62 
674.25 -186.50 12.80 
674.33 -186.23 12.83 
678.92 -179.80 14.34 
679.55 -182.79 14.43 
679.81 -181.56 14.55 
680.12 -181.30 14.65 
671.61 -197.88 4.97 
672.33 -191.98 5.65 
672.53 -192.46 5.65 
672.96 -193.08 5.67 
673.53 -193.80 5.71 
674.43 -195.20 5.74 
671.91 -191.06 5.65 
672.10 -191.50 5.65 
671.95 -190.10 5.71 
672.12 -190.51 5.71 
671.99 -190.76 5.68 
670.66 -187.94 5.43 
670.85 -188.27 5.55 
671.01 -188.61 5.68 
671.96 -189.78 5.73 
670.91 -187.76 5.47 
673.64 -188.76 6.01 
673.93 -188.59 6.06 
674.38 -188.29 6.14 
674.72 -187.98 6.20 
675.14 -187.85 6.26 
676.71 -188.00 6.22 
676.86 -188.36 6.22 
676.44 -186.96 6.25 
676.48 -187.21 6.36 
676.98 -187.76 6.27 
676.66 -186.72 6.29 
678.43 -186.34 6.79 
679.04 -186.22 6.88 
679.68 -186.12 6.97 
679.90 -185.91 7.01 
680.02 -185.91 7.02 
680.28 -185.65 7.07 
680.73 -185.48 7.14 
681.03 -185.30 7.19 
671.49 -197.96 5.95 
670.19 -188.67 6.19 
670.34 -188.34 6.23 
670.64 -188.05 6.29 
676.43 -187.23 7.22 
677.08 -187.92 7.29 
676.50 -186.83 7.25 
667.61 -195.06 6.38 
667.30 -193.77 6.37 
668.08 -195.09 6.46 
667.66 -193.54 6.44 
671.26 -194.18 7.04 
671.54 -194.03 7.09 
671.92 -194.98 7.12 
672.48 -193.93 7.25 
670.67 -190.46 7.07 
669.88 -188.10 7.02 
668.87 -181.83 7.44 
669.15 -181.78 7.50 
677.21 -179.99 8.72 
671.92 -195.26 7.11 
672.28 -195.14 7.18 
672.98 -194.55 7.32 
673.24 -194.03 7.38 
674.60 -193.77 7.63 
674.43 -192.75 7.64 
674.47 -193.10 7.63 
674.73 -193.56 7.66 
676.43 -195.47 7.88 
676.57 -195.19 7.92 
676.71 -194.97 7.95 
677.79 -194.11 8.17 
673.34 -180.26 8.31 
673.51 -180.15 8.35 
673.54 -179.71 8.37 
677.70 -179.94 9.11 
677.88 -180.02 9.13 
678.06 -179.70 9.18 
667.62 -182.07 8.03 
676.61 -194.97 8.29 
667.67 -181.33 8.06 
671.38 -181.10 8.81 
671.60 -181.98 8.82 
671.90 -181.53 8.90 
672.82 -181.27 9.10 
672.94 -180.89 9.14 
674.02 -180.80 9.36 
674.50 -180.65 9.46 
678.06 -179.88 9.89 
666.69 -188.12 8.53 
666.74 -187.07 8.55 
669.29 -183.89 8.75 
670.11 -182.88 8.97 
671.46 -180.68 9.36 
671.57 -180.49 9.39 
678.47 -179.91 10.29 
678.86 -180.38 10.35 
666.61 -191.71 8.49 
666.66 -191.46 8.50 
666.85 -190.03 8.55 
666.60 -188.48 8.84 
666.51 -188.69 8.82 
666.98 -188.14 8.94 
666.63 -187.45 8.86 
667.24 -188.02 9.00 
666.73 -186.85 8.89 
666.96 -187.36 8.94 
667.05 -186.53 8.97 
666.70 -185.26 8.91 
666.89 -185.00 8.96 
667.23 -184.87 9.04 
667.97 -184.81 9.23 
668.40 -184.57 9.34 
670.03 -183.14 9.35 
670.55 -182.28 9.49 
670.44 -182.47 9.46 
671.31 -182.26 9.66 
674.70 -180.26 10.11 
675.53 -179.99 10.32 
676.91 -179.83 10.64 
666.80 -192.21 8.88 
671.31 -198.32 8.94 
667.15 -191.56 8.96 
666.80 -190.21 8.88 
667.31 -188.57 9.01 
669.11 -184.04 9.53 
669.18 -183.56 9.56 
671.06 -183.76 10.02 
672.61 -182.11 10.46 
674.93 -181.18 10.50 
675.10 -180.94 10.55 
675.42 -180.74 10.63 
678.76 -180.09 11.05 
678.63 -179.77 11.03 
666.79 -191.98 9.44 
666.59 -190.57 9.38 
666.84 -190.80 9.44 
667.12 -190.34 9.50 
666.55 -187.91 9.65 
667.38 -188.98 9.55 
667.00 -187.11 9.77 
667.85 -188.08 9.66 
667.21 -186.55 9.83 
667.20 -186.86 9.67 
667.32 -187.19 9.54 
667.16 -186.30 9.82 
667.45 -186.16 9.89 
668.26 -187.14 9.76 
667.89 -185.82 9.68 
670.32 -184.47 10.28 
670.92 -184.45 10.43 
672.29 -183.63 10.33 
672.51 -182.84 10.41 
672.68 -182.09 10.48 
672.61 -182.33 10.45 
672.78 -182.64 10.48 
672.91 -181.82 10.54 
674.72 -181.45 11.01 
674.80 -181.75 11.02 
681.91 -179.94 11.77 
671.40 -198.25 9.99 
667.19 -189.43 9.82 
667.34 -189.79 9.86 
667.40 -190.11 9.88 
667.15 -189.18 9.81 
667.47 -188.79 9.89 
668.98 -190.08 10.29 
668.04 -186.20 10.05 
668.40 -185.52 10.16 
668.66 -186.40 10.22 
668.52 -185.36 10.19 
670.59 -185.02 10.75 
670.94 -185.42 10.84 
673.27 -182.78 11.03 
673.96 -182.73 11.20 
676.04 -182.31 11.31 
676.47 -181.53 11.45 
677.03 -179.90 11.66 
677.13 -180.20 11.67 
677.96 -181.25 11.83 
677.81 -181.52 11.79 
677.93 -180.99 11.84 
678.07 -180.66 11.89 
678.53 -181.05 11.98 
667.49 -189.47 10.49 
667.78 -189.96 10.57 
672.40 -186.63 11.22 
672.23 -186.15 11.18 
672.27 -183.69 11.24 
673.27 -185.09 11.48 
673.60 -185.77 11.56 
672.45 -183.19 11.30 
672.34 -183.44 11.26 
672.99 -184.45 11.42 
672.59 -183.00 11.34 
673.65 -184.41 11.60 
673.50 -182.93 11.59 
673.50 -183.21 11.59 
673.87 -182.48 11.71 
673.80 -182.07 11.70 
673.09 -184.01 11.94 
674.57 -182.92 11.89 
676.84 -182.60 12.52 
676.91 -182.07 12.56 
677.23 -180.18 12.72 
673.41 -187.51 12.01 
677.91 -181.52 12.85 
678.32 -182.32 12.94 
678.33 -182.63 12.93 
677.47 -180.41 12.77 
677.54 -180.67 12.78 
678.24 -181.40 12.95 
678.52 -182.06 13.00 
677.58 -180.13 12.82 
672.29 -188.01 12.13 
673.44 -186.98 12.46 
673.93 -187.47 12.60 
673.91 -186.28 12.61 
674.23 -186.73 12.70 
673.80 -185.67 12.58 
673.74 -185.09 12.57 
674.70 -184.21 12.87 
674.89 -184.02 12.93 
678.20 -183.43 13.33 
678.35 -182.81 13.39 
678.47 -183.17 13.41 
678.19 -181.13 13.38 
678.73 -180.08 14.20 
679.69 -181.47 14.44 
678.57 -179.74 14.16 
671.50 -197.70 5.01 
670.63 -188.13 5.46 
670.62 -187.71 5.48 
670.84 -188.19 5.72 
673.58 -191.56 5.89 
673.87 -192.08 5.90 
674.19 -192.59 5.91 
674.32 -193.02 5.90 
675.49 -194.08 6.00 
671.08 -188.02 5.76 
673.74 -191.33 5.93 
673.95 -190.78 5.99 
673.81 -191.03 5.95 
674.25 -190.61 6.03 
675.09 -189.14 6.23 
675.74 -188.47 6.36 
676.62 -187.86 6.51 
676.34 -186.72 6.31 
676.41 -187.16 6.29 
676.69 -187.62 6.54 
676.48 -186.58 6.33 
676.76 -186.42 6.38 
671.41 -197.76 5.97 
671.44 -197.86 5.97 
670.11 -188.28 6.21 
670.30 -188.10 6.25 
670.48 -188.46 6.56 
670.44 -188.69 6.54 
670.55 -187.81 6.31 
670.91 -188.09 6.64 
676.27 -186.93 7.24 
676.39 -186.69 7.28 
676.86 -187.42 7.31 
680.15 -193.99 7.49 
667.56 -194.68 6.37 
668.08 -195.29 6.44 
667.06 -193.18 6.34 
667.33 -193.62 6.37 
668.31 -194.88 6.50 
671.72 -194.84 7.09 
671.23 -193.86 7.04 
671.45 -194.30 7.06 
672.08 -194.04 7.18 
672.41 -193.91 7.24 
669.79 -189.65 6.94 
672.99 -193.92 7.34 
669.65 -188.72 6.95 
670.58 -190.26 7.06 
673.26 -193.73 7.39 
669.70 -187.99 6.99 
669.75 -187.97 7.00 
670.87 -187.63 7.22 
673.11 -179.70 8.31 
668.29 -187.19 7.58 
666.79 -183.56 7.41 
674.60 -193.52 7.64 
676.38 -195.08 7.89 
676.64 -194.87 7.95 
667.13 -181.44 7.57 
676.34 -194.08 7.92 
676.53 -194.46 7.94 
676.54 -193.85 7.97 
676.86 -194.30 8.00 
677.15 -193.76 8.08 
677.33 -193.57 8.12 
677.98 -191.83 8.30 
673.23 -180.11 8.31 
677.82 -179.81 9.15 
668.41 -195.36 7.39 
676.47 -195.01 8.27 
676.70 -195.54 8.29 
667.24 -181.65 7.94 
676.67 -194.60 8.32 
667.52 -181.23 8.01 
667.66 -180.94 8.05 
671.33 -181.81 8.76 
671.34 -180.99 8.80 
671.26 -197.97 7.89 
666.61 -186.35 8.02 
666.56 -184.28 8.07 
666.52 -184.48 8.06 
667.09 -184.24 8.19 
666.87 -182.58 8.20 
666.93 -182.05 8.23 
666.91 -182.23 8.22 
668.30 -183.43 8.49 
669.83 -181.96 8.90 
670.41 -181.62 9.05 
672.50 -180.82 9.04 
672.59 -181.10 9.04 
672.67 -180.64 9.08 
673.27 -180.48 9.21 
673.59 -180.05 9.29 
674.14 -180.47 9.39 
675.65 -180.28 9.70 
666.82 -193.53 7.96 
666.75 -189.83 8.47 
666.73 -187.02 8.49 
670.99 -181.02 9.20 
671.33 -181.57 9.26 
674.62 -179.86 10.09 
678.52 -179.77 10.31 
678.74 -180.12 10.34 
666.64 -191.89 8.76 
671.22 -198.11 8.87 
666.78 -191.64 8.79 
671.35 -197.90 8.89 
666.77 -187.98 8.80 
666.86 -186.59 8.85 
667.02 -187.11 8.88 
667.18 -187.42 8.91 
666.91 -185.43 8.88 
666.74 -184.90 8.85 
667.03 -185.20 8.92 
666.97 -184.49 8.91 
667.75 -184.18 9.12 
668.18 -183.35 9.25 
669.11 -183.21 9.48 
669.41 -183.01 9.57 
671.25 -182.11 9.61 
671.30 -181.38 9.64 
672.61 -181.21 9.95 
674.72 -180.10 10.10 
675.53 -179.84 10.30 
666.92 -191.45 8.82 
666.98 -191.53 8.84 
670.54 -182.68 9.86 
671.75 -182.77 10.16 
672.57 -181.88 10.40 
672.73 -181.56 10.46 
674.97 -180.79 10.50 
675.46 -180.05 10.64 
666.91 -191.73 9.38 
666.63 -190.47 9.30 
667.35 -191.56 9.48 
666.73 -190.24 9.32 
667.15 -190.16 9.56 
667.07 -189.25 9.68 
667.09 -189.52 9.69 
666.55 -187.98 9.54 
667.18 -186.54 9.72 
667.08 -186.16 9.69 
667.58 -185.98 9.83 
668.04 -186.40 9.95 
668.43 -185.70 10.06 
668.45 -186.06 10.07 
670.65 -184.69 10.29 
674.62 -181.24 10.95 
674.95 -181.03 11.04 
675.70 -181.75 11.20 
671.31 -198.03 9.88 
667.42 -190.21 9.78 
667.55 -190.06 9.81 
667.28 -186.80 10.30 
669.73 -185.56 10.42 
670.10 -185.65 10.52 
670.40 -185.03 10.61 
670.48 -184.75 10.64 
670.66 -185.07 10.68 
671.76 -184.64 10.99 
672.37 -183.23 11.20 
676.04 -181.16 11.71 
677.05 -179.98 11.62 
677.31 -180.30 11.67 
677.85 -181.11 11.77 
677.46 -180.09 11.72 
667.71 -189.82 10.45 
667.36 -186.72 10.57 
672.69 -183.57 11.27 
673.67 -184.26 11.53 
673.50 -183.30 11.51 
673.23 -182.38 11.46 
673.43 -182.69 11.50 
673.64 -183.14 11.55 
673.81 -181.72 11.64 
674.02 -182.29 11.68 
674.24 -182.08 11.75 
668.10 -188.83 10.79 
673.77 -182.38 12.07 
675.77 -181.83 12.18 
675.74 -181.27 12.20 
675.69 -181.56 12.17 
676.04 -181.05 12.29 
676.87 -181.23 12.51 
676.70 -179.74 12.53 
677.16 -180.11 12.64 
677.30 -180.39 12.67 
677.58 -180.73 12.73 
672.41 -188.24 12.04 
678.53 -181.20 12.98 
674.98 -184.32 12.85 
678.07 -183.39 13.23 
678.23 -182.82 13.29 
678.23 -183.12 13.28 
678.91 -179.88 14.19 
678.83 -180.12 14.15 
679.43 -181.77 14.27 
679.52 -181.14 14.32 
670.45 -187.63 5.52 
670.49 -187.90 5.50 
670.56 -187.43 5.54 
671.37 -197.81 5.18 
671.42 -197.46 5.08 
673.89 -192.61 5.93 
670.76 -187.89 5.78 
670.82 -188.21 5.77 
673.21 -191.24 5.92 
673.51 -191.78 5.93 
673.65 -192.13 5.93 
674.41 -193.24 5.97 
675.43 -194.27 6.05 
673.29 -190.81 5.96 
673.93 -190.35 6.07 
674.00 -190.07 6.09 
674.79 -188.76 6.28 
675.49 -188.28 6.40 
675.63 -188.44 6.17 
675.66 -188.75 6.16 
675.78 -187.94 6.22 
675.79 -188.24 6.20 
675.97 -187.71 6.26 
676.24 -187.20 6.33 
676.12 -187.44 6.30 
676.16 -186.58 6.35 
676.15 -186.87 6.33 
676.28 -186.34 6.38 
677.12 -186.30 6.50 
677.96 -186.23 6.62 
678.34 -186.04 6.68 
678.54 -185.78 6.72 
679.64 -185.51 6.89 
679.89 -185.74 6.91 
679.94 -185.24 6.95 
680.29 -184.81 7.02 
680.55 -184.45 7.08 
680.90 -184.22 7.14 
681.50 -184.08 7.23 
682.07 -183.50 7.34 
682.88 -183.01 7.48 
683.13 -182.79 7.53 
683.73 -182.56 7.62 
684.17 -181.93 7.72 
670.14 -187.87 6.27 
670.00 -188.07 6.24 
670.36 -187.70 6.31 
671.29 -197.51 6.00 
670.65 -187.96 6.64 
678.72 -196.72 7.19 
679.79 -193.72 7.50 
676.15 -186.69 7.28 
676.30 -187.02 7.29 
676.35 -186.46 7.32 
676.90 -187.51 7.36 
669.32 -188.92 6.89 
669.23 -188.61 6.89 
669.52 -187.99 6.96 
669.62 -187.80 6.99 
668.13 -195.17 6.46 
667.93 -194.74 6.44 
671.19 -197.60 6.92 
671.23 -193.82 7.05 
671.91 -194.77 7.14 
672.24 -194.07 7.22 
673.21 -194.56 7.37 
673.56 -194.17 7.45 
669.85 -188.47 7.35 
670.53 -189.75 7.08 
669.82 -188.17 7.36 
670.67 -187.39 7.20 
670.71 -187.18 7.21 
668.80 -181.35 7.45 
676.93 -187.92 8.31 
676.88 -186.43 8.37 
673.04 -179.74 8.30 
670.85 -189.94 7.48 
667.01 -184.32 7.40 
676.05 -195.11 7.86 
676.31 -194.41 7.93 
676.65 -195.09 7.97 
676.31 -193.64 7.96 
676.32 -193.91 7.95 
667.25 -181.36 7.93 
676.66 -193.75 8.02 
676.91 -193.57 8.07 
677.23 -193.42 8.13 
677.55 -193.17 8.20 
677.73 -192.66 8.25 
677.52 -191.54 8.26 
682.30 -191.05 9.14 
682.63 -190.47 9.22 
668.09 -195.28 7.31 
669.27 -192.23 7.61 
676.38 -194.42 8.30 
676.86 -195.45 8.35 
676.40 -194.01 8.32 
677.16 -195.22 8.41 
676.83 -193.90 8.40 
677.39 -194.66 8.47 
667.49 -181.14 8.17 
678.75 -193.23 8.76 
671.15 -180.63 8.76 
671.32 -180.93 8.78 
671.16 -197.73 7.87 
672.72 -180.27 9.10 
673.52 -179.95 9.27 
674.10 -180.35 9.38 
674.38 -180.19 9.44 
675.59 -180.16 9.69 
666.82 -186.36 8.47 
666.97 -185.03 8.84 
667.20 -185.47 8.88 
667.15 -184.52 8.74 
667.09 -184.74 8.87 
667.07 -184.06 8.88 
667.38 -184.27 8.80 
667.44 -183.99 8.98 
667.74 -183.81 9.06 
667.84 -182.86 9.12 
670.01 -182.38 9.28 
670.25 -182.24 9.34 
667.03 -192.84 8.78 
671.11 -197.82 8.81 
666.84 -191.65 8.73 
666.79 -191.14 8.72 
667.57 -191.26 8.91 
667.52 -191.50 8.89 
667.30 -185.74 8.90 
667.69 -184.03 9.04 
668.16 -183.25 9.18 
668.25 -183.62 9.20 
668.24 -182.64 9.22 
668.25 -182.83 9.22 
668.26 -182.60 9.23 
670.13 -182.16 9.72 
670.23 -182.27 9.74 
670.14 -181.89 9.74 
670.44 -181.27 9.83 
670.51 -181.62 9.84 
672.58 -181.12 9.91 
672.52 -180.31 9.93 
674.69 -180.32 10.42 
675.39 -179.69 10.61 
675.28 -179.91 10.58 
666.58 -190.19 9.22 
666.60 -187.40 9.46 
667.48 -187.43 9.43 
667.19 -186.00 9.63 
667.21 -186.24 9.64 
667.14 -185.79 9.62 
672.25 -181.57 10.28 
672.16 -181.80 10.25 
673.09 -181.52 10.50 
671.08 -197.92 9.77 
666.81 -191.80 9.28 
667.03 -191.35 9.33 
667.59 -191.28 9.46 
666.68 -189.87 9.49 
667.36 -189.71 9.67 
667.51 -190.06 9.71 
667.73 -190.46 9.77 
666.83 -188.69 9.52 
667.36 -189.20 9.66 
667.80 -189.66 9.78 
667.62 -186.62 9.74 
668.47 -186.75 9.97 
668.37 -185.48 9.96 
669.05 -185.99 10.14 
668.57 -184.64 10.03 
674.78 -180.98 10.96 
675.54 -181.37 11.14 
676.52 -180.97 11.40 
677.50 -179.71 11.72 
670.65 -184.74 10.61 
673.35 -181.37 11.47 
673.50 -181.68 11.49 
667.13 -188.73 10.39 
667.58 -188.66 10.52 
668.14 -188.52 10.68 
667.40 -186.88 10.46 
667.91 -187.56 10.61 
672.74 -182.43 11.72 
673.82 -181.22 11.60 
675.27 -181.41 12.00 
675.42 -181.05 12.06 
675.57 -180.38 12.13 
675.90 -180.74 12.21 
675.80 -180.95 12.17 
677.31 -180.90 12.60 
676.72 -179.75 12.48 
672.60 -185.71 12.02 
676.57 -180.32 13.39 
676.98 -180.12 13.52 
678.64 -180.01 14.03 
679.82 -181.06 14.35 
679.07 -179.78 14.18 
679.42 -182.12 14.66 
679.84 -181.25 14.81 
670.34 -187.56 5.50 
670.36 -187.32 5.52 
671.25 -197.35 5.07 
672.70 -197.93 5.48 
672.80 -191.94 5.82 
672.77 -192.19 5.81 
673.45 -192.89 5.86 
674.33 -194.07 5.91 
672.05 -190.55 5.80 
672.04 -190.86 5.78 
672.38 -191.09 5.82 
672.56 -191.47 5.82 
672.87 -191.93 5.83 
673.61 -192.72 5.89 
674.31 -193.74 5.93 
672.32 -190.41 5.85 
672.57 -190.24 5.89 
672.91 -190.11 5.94 
673.01 -189.87 5.97 
673.08 -189.60 6.00 
673.96 -188.53 6.18 
674.14 -188.37 6.21 
674.70 -187.96 6.31 
674.91 -187.80 6.23 
675.08 -187.83 6.37 
675.21 -187.48 6.17 
675.45 -187.14 6.22 
675.71 -186.54 6.29 
675.74 -186.94 6.27 
675.98 -186.46 6.33 
676.09 -186.15 6.37 
676.56 -186.07 6.44 
676.72 -185.88 6.47 
676.97 -185.88 6.50 
677.24 -185.67 6.55 
677.68 -185.50 6.62 
679.24 -184.25 6.91 
680.01 -183.42 7.07 
683.05 -181.38 7.61 
683.46 -181.12 7.68 
685.12 -180.02 7.97 
669.97 -187.75 6.22 
671.14 -197.41 5.96 
670.38 -187.87 6.57 
670.34 -187.95 6.56 
676.02 -186.57 7.24 
676.29 -186.93 7.27 
676.13 -186.34 7.27 
669.23 -188.42 6.84 
669.38 -187.97 6.89 
669.40 -188.16 6.89 
670.32 -189.24 7.01 
670.38 -189.52 7.01 
670.51 -187.04 7.14 
671.10 -197.40 6.86 
671.00 -197.60 6.84 
672.03 -194.54 7.12 
669.51 -188.65 7.23 
669.62 -188.27 7.27 
670.67 -189.77 7.40 
669.66 -188.13 7.28 
670.81 -187.33 7.52 
675.95 -194.06 7.83 
676.00 -193.51 7.86 
676.16 -193.69 7.88 
675.75 -186.61 8.11 
675.72 -186.86 8.09 
676.80 -187.75 8.25 
676.84 -187.50 8.27 
676.86 -186.11 8.34 
667.47 -192.38 7.17 
668.59 -189.39 7.47 
676.24 -194.87 7.86 
676.56 -195.39 7.89 
676.18 -194.48 7.86 
676.38 -194.24 8.26 
676.46 -193.41 7.95 
677.09 -193.50 8.06 
677.23 -192.79 8.11 
679.31 -191.33 8.55 
679.27 -190.37 8.58 
679.48 -190.76 8.60 
679.67 -191.16 8.62 
681.82 -190.00 9.06 
682.58 -190.53 9.18 
667.88 -195.05 7.20 
668.11 -194.92 7.25 
671.04 -197.50 7.77 
670.23 -192.65 7.71 
671.48 -190.36 8.03 
666.56 -183.51 7.96 
666.56 -182.89 7.98 
676.60 -194.74 8.28 
676.88 -195.24 8.32 
679.03 -193.55 8.76 
679.05 -193.26 8.77 
679.22 -192.24 8.84 
679.52 -191.68 8.91 
672.38 -180.44 8.95 
672.71 -180.01 9.04 
674.14 -179.81 9.02 
667.64 -194.93 7.60 
666.60 -184.18 8.37 
667.25 -184.21 8.51 
670.76 -180.66 9.05 
674.29 -180.11 9.36 
678.26 -179.80 10.20 
667.00 -186.54 8.41 
666.58 -185.41 8.61 
666.55 -184.63 8.62 
666.72 -185.12 8.65 
666.90 -184.53 8.71 
666.91 -183.72 8.74 
667.05 -184.35 8.75 
666.91 -183.19 8.75 
667.10 -183.55 8.79 
667.33 -183.90 8.84 
667.36 -184.23 8.84 
668.06 -183.33 9.04 
668.20 -183.04 9.09 
668.34 -182.76 9.13 
670.64 -182.05 9.34 
671.63 -180.35 9.63 
672.17 -180.23 9.76 
666.77 -192.16 8.58 
670.99 -197.61 8.68 
670.24 -182.25 9.64 
670.13 -182.46 9.60 
670.06 -181.65 9.62 
670.14 -182.00 9.62 
670.30 -181.62 9.68 
674.66 -180.01 10.35 
666.52 -191.94 9.09 
667.06 -192.76 9.22 
666.52 -191.66 9.08 
666.94 -191.64 9.18 
667.40 -191.65 9.29 
667.41 -191.08 9.29 
667.57 -191.47 9.33 
666.87 -189.59 9.38 
666.54 -187.79 9.30 
666.53 -186.67 9.30 
667.29 -186.05 9.52 
667.71 -185.07 9.65 
667.98 -184.86 9.73 
668.05 -184.51 9.76 
668.05 -183.85 9.77 
674.85 -179.77 10.94 
670.98 -197.75 9.61 
670.07 -184.15 10.33 
670.02 -183.94 10.32 
670.74 -183.36 10.54 
671.53 -183.10 10.77 
667.02 -189.08 10.19 
666.65 -186.35 10.07 
667.31 -189.66 10.28 
675.31 -181.21 11.90 
675.49 -180.44 11.99 
675.78 -180.26 12.08 
672.55 -184.61 11.87 
675.78 -181.25 12.46 
677.51 -180.40 12.56 
678.07 -179.91 12.74 
670.28 -187.26 5.46 
670.32 -187.63 5.45 
669.31 -197.10 4.99 
669.87 -197.02 5.07 
671.12 -197.28 4.98 
672.15 -197.37 5.36 
673.88 -194.61 5.76 
674.14 -194.83 5.78 
672.70 -192.10 5.74 
672.86 -192.44 5.75 
673.16 -192.79 5.77 
673.38 -193.09 5.78 
673.92 -193.79 5.81 
671.82 -190.41 5.73 
671.92 -190.76 5.72 
672.21 -191.20 5.73 
672.38 -191.57 5.73 
672.54 -191.71 5.75 
672.04 -190.17 5.77 
670.46 -187.82 5.69 
672.41 -190.01 5.83 
672.68 -189.84 5.88 
672.96 -189.25 5.95 
672.75 -189.45 5.91 
673.47 -188.63 6.06 
674.55 -190.18 5.87 
673.71 -188.46 6.10 
674.93 -190.03 5.93 
674.05 -188.17 6.17 
674.99 -189.39 5.98 
674.44 -187.93 6.11 
674.61 -187.72 6.15 
674.81 -187.55 6.07 
675.65 -186.97 6.46 
675.88 -186.15 6.30 
676.34 -185.85 6.39 
677.16 -185.45 6.52 
678.77 -184.39 6.81 
678.99 -184.14 6.86 
679.51 -183.44 6.98 
682.83 -181.44 7.56 
683.21 -181.18 7.63 
684.44 -180.35 7.86 
669.90 -187.58 6.15 
669.85 -187.80 6.13 
670.20 -187.44 6.20 
671.02 -197.35 5.84 
670.16 -188.10 6.45 
676.04 -186.15 7.21 
675.94 -186.49 7.18 
676.49 -187.03 7.24 
676.29 -186.16 7.25 
669.09 -188.46 6.72 
669.23 -188.15 6.76 
670.20 -189.23 6.89 
669.31 -187.92 6.79 
670.22 -189.03 6.90 
670.39 -187.00 7.03 
670.99 -197.34 6.71 
669.32 -188.80 7.09 
670.49 -189.44 7.28 
676.18 -194.94 7.73 
675.86 -193.86 7.71 
676.03 -194.25 7.73 
676.08 -194.64 7.72 
676.64 -194.83 7.82 
670.74 -187.16 7.42 
675.90 -193.32 7.75 
675.90 -193.57 7.74 
676.15 -193.37 7.79 
676.59 -192.95 7.89 
676.94 -193.42 7.93 
676.62 -192.71 7.90 
667.76 -180.78 7.56 
677.42 -193.00 8.03 
675.61 -186.63 8.00 
675.73 -186.41 8.04 
676.72 -187.49 8.16 
676.85 -187.25 8.20 
676.64 -186.20 8.21 
667.22 -194.72 6.92 
667.55 -195.21 6.98 
667.06 -192.55 6.94 
669.88 -192.55 7.51 
667.18 -183.68 7.65 
676.35 -194.71 8.13 
676.73 -195.26 8.18 
676.82 -194.28 8.23 
677.52 -195.03 8.33 
676.81 -193.32 8.26 
677.88 -194.20 8.42 
678.62 -192.87 8.26 
679.12 -191.18 8.43 
679.21 -190.59 8.47 
679.27 -190.92 8.46 
679.27 -190.36 8.49 
681.91 -190.91 8.95 
681.79 -189.90 8.98 
682.52 -191.38 9.04 
682.52 -189.80 9.11 
682.80 -190.15 9.15 
683.85 -190.86 9.31 
684.04 -184.02 9.70 
684.31 -184.33 9.73 
685.60 -183.87 10.00 
685.61 -183.54 10.02 
685.92 -183.31 10.09 
670.41 -192.78 7.61 
668.77 -189.69 7.78 
671.67 -193.14 7.85 
671.34 -190.29 7.87 
671.44 -190.12 7.90 
666.74 -180.48 8.02 
678.00 -194.58 8.43 
679.16 -192.09 8.73 
679.36 -191.51 8.80 
679.35 -191.85 8.78 
672.57 -179.84 8.94 
682.78 -191.67 9.41 
667.45 -194.49 7.76 
667.62 -194.57 7.80 
670.99 -179.79 9.06 
671.03 -180.10 9.05 
678.06 -179.72 10.10 
670.90 -197.52 8.48 
666.77 -185.58 8.50 
667.34 -185.95 8.63 
666.80 -184.11 8.55 
666.65 -183.27 8.54 
666.86 -183.65 8.58 
666.90 -183.94 8.58 
667.31 -184.46 8.67 
667.06 -183.57 8.64 
668.05 -183.17 8.91 
668.31 -183.43 8.96 
668.12 -182.66 8.95 
668.16 -182.99 8.94 
668.81 -182.47 9.13 
667.84 -194.67 8.35 
670.20 -181.18 9.55 
674.57 -180.01 10.23 
674.71 -179.78 10.28 
671.32 -197.59 9.09 
667.28 -185.05 9.36 
667.62 -184.20 9.47 
667.96 -184.49 9.56 
668.02 -183.61 9.61 
668.56 -183.36 9.77 
674.12 -180.22 10.61 
670.84 -197.62 9.37 
666.56 -187.35 9.83 
666.63 -186.10 9.86 
671.52 -183.28 10.60 
671.32 -197.70 10.07 
666.53 -188.78 9.82 
667.08 -189.36 9.98 
671.57 -184.02 11.07 
670.86 -197.78 10.29 
672.27 -183.06 11.66 
672.69 -184.00 11.75 
676.67 -180.04 6.12 
676.96 -179.82 6.16 
670.05 -187.07 5.43 
670.07 -187.29 5.42 
670.31 -186.91 5.48 
670.94 -197.18 4.96 
671.02 -197.46 5.20 
671.00 -196.97 4.98 
671.20 -197.12 5.25 
672.45 -191.01 5.77 
672.81 -191.49 5.79 
673.12 -191.95 5.81 
673.59 -192.49 5.84 
674.03 -193.04 5.87 
674.17 -193.41 5.87 
674.61 -193.98 5.89 
670.32 -187.60 5.68 
672.42 -190.30 5.81 
672.73 -190.04 5.86 
673.06 -189.77 5.92 
673.20 -189.14 5.98 
673.23 -189.45 5.97 
673.33 -189.23 5.99 
674.13 -188.16 6.17 
675.10 -189.39 5.99 
674.54 -187.84 6.12 
674.83 -187.53 6.18 
674.96 -187.25 6.10 
675.13 -187.43 6.35 
675.33 -187.28 6.39 
675.72 -186.01 6.28 
675.76 -186.45 6.26 
676.69 -185.55 6.44 
677.14 -185.16 6.53 
677.62 -184.99 6.60 
678.20 -184.79 6.70 
678.52 -184.56 6.76 
679.01 -183.86 6.87 
679.18 -183.62 6.91 
679.91 -183.12 7.04 
680.31 -182.88 7.11 
669.73 -187.60 6.09 
669.89 -187.22 6.13 
670.83 -197.24 5.79 
670.90 -197.04 5.81 
678.35 -196.17 7.03 
675.78 -186.24 7.14 
676.04 -186.56 7.16 
676.43 -186.93 7.20 
676.59 -187.23 7.49 
675.87 -186.01 7.16 
676.22 -186.28 7.48 
668.96 -188.09 6.66 
669.16 -187.74 6.71 
669.11 -187.85 6.70 
669.97 -188.81 6.81 
670.11 -189.09 6.82 
670.25 -186.71 6.96 
678.64 -196.46 7.37 
670.82 -197.12 6.65 
670.35 -189.37 7.20 
675.62 -193.75 7.63 
676.02 -194.58 7.67 
670.50 -187.14 7.32 
675.73 -193.53 7.66 
676.04 -194.24 7.69 
676.49 -194.74 7.75 
676.92 -195.30 7.81 
675.72 -193.20 7.67 
676.08 -193.11 7.74 
676.38 -193.19 7.79 
676.40 -192.61 7.82 
677.26 -192.71 7.97 
677.43 -193.34 7.98 
667.72 -180.19 7.51 
667.85 -180.46 7.52 
677.17 -192.37 7.97 
678.31 -192.92 8.16 
678.56 -192.59 8.22 
678.70 -192.36 8.25 
675.51 -186.39 7.95 
676.54 -187.32 8.09 
675.66 -186.08 7.99 
676.60 -187.06 8.11 
679.14 -190.37 8.42 
679.25 -190.67 8.43 
676.43 -185.95 8.14 
676.35 -186.20 8.11 
676.91 -186.91 8.18 
666.94 -194.49 6.80 
667.10 -194.33 6.83 
667.06 -192.33 6.87 
667.37 -192.06 6.94 
668.88 -191.08 7.28 
670.40 -192.70 7.54 
670.92 -192.57 7.65 
671.22 -192.41 7.71 
671.20 -189.65 7.80 
676.22 -194.52 8.07 
676.66 -194.11 8.16 
677.26 -194.76 8.25 
676.57 -193.08 8.19 
677.73 -194.00 8.36 
677.82 -194.39 8.36 
677.42 -193.20 8.33 
678.68 -193.55 8.55 
679.43 -191.85 8.75 
679.76 -192.05 8.80 
675.81 -186.54 8.32 
679.24 -191.17 8.74 
679.46 -191.54 8.77 
672.95 -180.33 8.60 
681.74 -190.84 8.88 
682.33 -191.10 8.98 
682.30 -189.75 9.03 
683.40 -191.04 9.17 
683.98 -184.15 9.64 
684.80 -183.30 9.84 
685.41 -183.76 9.93 
685.79 -183.15 10.03 
687.66 -181.64 10.47 
687.33 -181.00 10.45 
687.56 -181.36 10.47 
687.54 -180.65 10.51 
667.53 -194.71 7.36 
670.76 -197.22 7.50 
669.57 -193.19 7.78 
671.22 -192.93 7.70 
668.73 -189.22 7.71 
671.73 -192.92 7.80 
671.31 -192.23 7.73 
666.61 -182.86 7.78 
667.31 -182.49 7.96 
666.54 -180.67 7.87 
666.78 -179.95 7.97 
681.95 -191.31 9.23 
682.04 -190.94 9.26 
683.07 -191.00 9.45 
683.65 -191.29 9.54 
667.26 -194.29 7.62 
671.63 -194.19 8.17 
671.89 -194.09 8.23 
666.97 -186.51 8.16 
666.56 -185.15 8.33 
666.72 -183.30 8.44 
667.15 -183.70 8.54 
667.02 -183.11 8.53 
667.65 -183.92 8.38 
667.02 -181.38 8.32 
670.63 -180.01 8.87 
667.68 -194.41 8.22 
670.72 -197.30 8.35 
667.05 -185.59 8.45 
667.77 -182.44 8.75 
667.93 -182.78 8.78 
668.03 -183.08 8.79 
667.88 -182.29 8.79 
668.59 -182.98 8.94 
669.27 -181.84 9.17 
669.46 -182.29 9.19 
666.53 -191.77 8.77 
666.79 -185.90 9.06 
666.91 -185.12 9.11 
666.78 -184.29 9.10 
667.40 -184.02 9.28 
670.96 -180.97 9.65 
670.71 -197.39 9.22 
668.22 -184.00 9.51 
668.49 -183.45 9.61 
667.91 -185.26 10.10 
667.99 -184.48 10.15 
671.30 -183.64 11.19 
672.41 -183.37 11.54 
674.04 -182.68 11.66 
670.92 -196.83 4.97 
670.05 -186.79 5.40 
670.04 -187.10 5.38 
673.31 -189.62 5.69 
673.77 -190.54 5.70 
673.34 -189.38 5.71 
673.28 -188.67 5.74 
673.44 -187.31 5.84 
673.58 -187.03 5.87 
673.85 -186.61 5.93 
674.05 -186.38 5.97 
674.37 -186.11 6.03 
669.61 -197.13 5.03 
670.90 -197.26 5.19 
671.25 -196.92 5.26 
672.32 -197.35 5.38 
673.71 -193.97 5.75 
673.83 -194.46 5.74 
676.25 -197.26 5.92 
676.46 -197.68 5.93 
676.80 -197.95 5.96 
672.06 -191.19 5.67 
672.22 -191.54 5.68 
672.64 -192.04 5.71 
672.85 -192.44 5.71 
673.62 -193.15 5.78 
673.66 -193.46 5.77 
676.65 -197.17 5.98 
671.52 -189.98 5.66 
671.64 -190.43 5.66 
671.89 -190.83 5.67 
671.77 -189.70 5.71 
670.26 -187.52 5.63 
672.03 -189.57 5.76 
672.29 -189.01 5.82 
672.25 -189.39 5.80 
672.35 -188.65 5.85 
673.42 -187.77 6.04 
673.51 -187.59 6.07 
675.15 -186.54 6.35 
675.53 -186.40 6.41 
675.79 -186.21 6.46 
676.46 -184.12 6.43 
676.67 -183.91 6.47 
677.89 -182.77 6.71 
679.34 -181.59 6.98 
679.61 -181.34 7.03 
680.00 -181.09 7.10 
680.30 -180.83 7.15 
669.62 -187.17 6.02 
669.62 -187.37 6.01 
669.74 -187.01 6.05 
669.85 -187.01 6.07 
670.81 -196.87 5.77 
669.85 -187.68 6.32 
675.71 -185.95 7.06 
676.11 -186.45 7.10 
675.87 -185.67 7.10 
668.98 -187.79 6.59 
669.83 -188.62 6.71 
669.24 -187.55 6.65 
669.69 -188.35 6.69 
670.10 -186.65 6.84 
670.75 -196.96 6.58 
667.07 -191.83 6.79 
667.25 -191.74 6.83 
668.37 -188.85 7.14 
668.47 -188.69 7.16 
668.17 -187.71 7.13 
669.15 -188.24 6.94 
670.37 -187.03 7.21 
675.64 -193.36 7.58 
675.67 -193.66 7.57 
675.84 -194.01 7.59 
676.31 -194.52 7.66 
676.18 -192.74 7.70 
676.45 -193.46 7.72 
676.31 -192.55 7.73 
677.51 -193.85 7.90 
677.37 -193.50 7.89 
677.10 -192.56 7.87 
677.75 -193.05 7.97 
667.95 -180.21 7.42 
678.37 -193.00 8.09 
678.13 -192.31 8.07 
678.44 -192.75 8.11 
678.89 -192.34 8.21 
679.18 -192.40 8.26 
679.38 -191.91 8.32 
679.36 -192.15 8.30 
675.47 -186.23 7.85 
676.43 -186.94 7.99 
679.27 -190.41 8.36 
676.06 -185.89 7.97 
667.13 -194.22 6.75 
667.00 -193.90 6.73 
667.22 -194.07 6.77 
670.71 -193.13 7.49 
670.71 -192.62 7.50 
671.37 -193.72 7.61 
670.98 -192.40 7.56 
670.79 -191.42 7.55 
671.46 -192.26 7.67 
671.27 -191.16 7.66 
672.19 -192.31 7.81 
670.33 -188.88 7.54 
676.42 -194.61 8.03 
666.66 -182.07 7.68 
666.53 -179.99 7.76 
678.13 -194.21 8.35 
666.84 -179.83 7.84 
678.32 -193.97 8.39 
678.58 -193.44 8.46 
678.55 -193.76 8.44 
678.74 -193.20 8.49 
679.40 -191.57 8.67 
679.63 -191.99 8.70 
676.73 -187.29 8.35 
676.89 -187.60 8.37 
679.55 -190.75 8.73 
679.65 -191.36 8.73 
676.53 -186.37 8.36 
676.85 -187.07 8.39 
680.60 -191.44 8.89 
676.59 -186.11 8.38 
681.47 -190.71 8.75 
681.93 -191.15 8.81 
681.50 -190.46 8.76 
683.11 -190.87 9.04 
682.44 -189.44 8.98 
683.40 -190.69 9.10 
683.91 -183.89 9.53 
684.36 -182.41 9.69 
684.93 -183.44 9.74 
685.31 -183.76 9.79 
685.48 -183.45 9.84 
686.04 -183.18 9.96 
685.83 -182.22 9.97 
686.45 -181.97 10.10 
686.69 -181.70 10.16 
687.29 -181.08 10.31 
687.64 -181.37 10.35 
687.43 -180.71 10.35 
687.76 -180.76 10.41 
687.91 -181.04 10.42 
687.69 -180.45 10.42 
667.28 -194.46 7.22 
670.67 -197.04 7.40 
671.09 -192.97 7.99 
671.02 -193.21 7.98 
670.98 -192.67 7.98 
668.62 -189.05 7.58 
671.54 -190.71 8.13 
673.32 -193.02 8.02 
672.96 -191.05 8.00 
673.20 -190.88 8.06 
670.50 -179.83 8.70 
683.37 -191.18 9.41 
682.66 -189.63 9.34 
683.35 -190.89 9.42 
683.78 -190.65 9.50 
667.70 -194.17 7.60 
667.89 -194.04 7.65 
669.38 -191.39 8.01 
671.63 -193.91 8.08 
666.56 -183.49 8.23 
678.42 -192.59 9.07 
679.32 -192.25 9.27 
670.67 -197.04 8.24 
670.62 -197.25 8.23 
667.13 -190.04 8.22 
668.44 -183.47 8.71 
668.41 -182.27 8.76 
670.90 -180.64 9.48 
666.68 -191.01 8.80 
666.53 -184.11 8.85 
667.03 -184.79 8.97 
666.82 -183.78 8.94 
666.76 -183.32 8.94 
667.71 -182.49 9.24 
670.62 -197.13 9.07 
666.80 -185.22 9.56 
669.68 -181.84 9.83 
671.05 -197.18 9.75 
666.94 -189.27 9.57 
667.37 -184.34 9.75 
670.64 -197.27 9.93 
671.82 -182.63 10.84 
673.16 -182.51 11.59 
670.71 -196.65 4.96 
669.90 -186.61 5.40 
669.86 -186.92 5.38 
673.32 -189.95 5.68 
673.19 -189.31 5.70 
673.20 -189.69 5.68 
673.69 -190.31 5.71 
673.11 -188.47 5.73 
673.30 -188.74 5.75 
673.46 -189.02 5.75 
673.04 -187.98 5.75 
673.37 -186.90 5.86 
673.30 -187.11 5.84 
673.50 -186.69 5.89 
673.69 -186.37 5.93 
674.03 -186.09 6.00 
674.34 -185.79 6.06 
674.65 -185.49 6.12 
674.78 -185.28 6.15 
675.22 -185.12 6.22 
676.40 -183.82 6.45 
670.98 -197.04 5.22 
673.22 -191.13 5.84 
673.37 -191.46 5.84 
674.01 -192.06 5.90 
670.14 -187.06 5.64 
673.13 -190.55 5.86 
674.60 -192.62 5.95 
674.90 -193.07 5.96 
673.23 -190.05 5.90 
673.18 -190.31 5.88 
673.85 -189.57 6.01 
673.81 -189.02 6.04 
674.14 -189.42 6.06 
674.46 -187.92 6.19 
674.63 -187.71 6.22 
675.66 -186.87 6.41 
675.63 -186.47 6.43 
677.26 -182.91 6.62 
678.86 -181.54 6.93 
679.12 -181.29 6.98 
679.55 -181.01 7.05 
679.96 -180.74 7.12 
670.62 -196.72 5.73 
669.53 -186.90 6.01 
669.56 -187.32 6.00 
669.66 -186.76 6.04 
675.53 -185.73 7.04 
670.87 -197.05 6.07 
669.72 -187.67 6.29 
669.68 -187.44 6.29 
675.54 -185.96 7.03 
676.02 -186.31 7.08 
675.75 -185.52 7.08 
670.55 -196.78 6.51 
668.89 -187.56 6.55 
669.47 -188.00 6.64 
669.64 -188.29 6.66 
669.11 -187.31 6.60 
669.97 -186.36 6.80 
669.92 -186.64 6.78 
678.30 -196.23 7.26 
675.32 -185.79 7.82 
666.96 -193.96 6.66 
670.77 -197.11 6.92 
666.91 -191.57 6.70 
668.47 -188.50 7.11 
669.99 -188.85 7.04 
675.57 -194.40 7.49 
675.64 -193.86 7.52 
676.03 -194.34 7.57 
675.60 -193.31 7.54 
676.19 -193.31 7.64 
676.54 -193.96 7.68 
676.03 -192.52 7.65 
677.18 -192.80 7.84 
677.94 -193.42 7.96 
677.78 -193.60 7.92 
667.69 -179.82 7.36 
677.84 -192.18 7.99 
678.13 -192.85 8.01 
678.39 -192.66 8.07 
678.76 -192.20 8.15 
679.28 -192.09 8.25 
679.29 -191.63 8.28 
675.48 -186.37 8.13 
675.52 -186.62 8.13 
675.42 -185.78 7.84 
676.27 -186.48 7.96 
676.24 -186.70 7.94 
676.37 -186.96 7.95 
675.96 -185.63 7.94 
676.43 -186.10 8.32 
676.57 -185.88 8.35 
666.99 -192.47 7.13 
670.56 -196.80 7.32 
670.59 -192.82 7.41 
671.09 -193.84 7.49 
670.60 -192.10 7.44 
670.72 -192.41 7.45 
671.39 -193.47 7.56 
669.17 -189.72 7.22 
669.39 -189.51 7.27 
671.63 -192.29 7.64 
669.60 -189.32 7.32 
671.12 -191.36 7.56 
671.40 -191.71 7.61 
671.28 -190.71 7.62 
671.89 -191.22 7.72 
673.41 -192.06 8.01 
675.82 -194.13 7.90 
676.23 -194.67 7.96 
676.37 -192.86 8.04 
667.74 -181.72 7.59 
677.87 -194.24 8.26 
666.58 -180.13 7.72 
666.76 -179.69 7.78 
666.83 -179.89 7.79 
678.25 -193.44 8.36 
678.49 -192.92 8.42 
678.43 -193.21 8.40 
679.19 -191.37 8.61 
679.28 -190.94 8.64 
676.54 -187.23 8.29 
681.31 -191.25 8.99 
681.36 -190.38 8.71 
681.54 -190.70 8.73 
681.74 -189.81 9.13 
683.26 -190.56 9.05 
682.41 -189.45 9.27 
682.62 -189.79 9.29 
682.86 -188.92 9.05 
684.45 -184.09 9.59 
684.34 -183.18 9.62 
684.28 -182.82 9.63 
685.01 -183.78 9.71 
684.28 -182.09 9.67 
684.51 -182.54 9.69 
684.93 -183.17 9.73 
685.29 -183.51 9.78 
685.68 -181.99 9.94 
686.49 -181.40 10.12 
686.72 -181.73 10.14 
687.35 -180.78 10.32 
687.48 -181.17 10.32 
687.36 -180.47 10.34 
687.98 -181.12 10.41 
687.56 -180.21 10.39 
667.00 -194.30 7.10 
667.63 -194.07 7.50 
667.91 -193.98 7.57 
667.18 -191.39 7.44 
669.96 -193.25 7.70 
669.40 -191.44 7.94 
670.88 -193.57 7.88 
671.41 -193.83 7.98 
670.88 -192.72 7.89 
670.94 -193.02 7.90 
669.29 -190.29 7.63 
671.14 -192.48 7.95 
673.38 -192.81 7.98 
666.62 -180.60 8.05 
670.77 -179.89 8.71 
670.51 -196.88 8.11 
678.78 -192.32 9.10 
670.21 -180.92 8.87 
666.56 -183.54 8.78 
666.81 -183.18 8.86 
669.95 -180.93 9.15 
669.99 -180.52 9.19 
670.20 -180.25 9.26 
670.64 -180.35 9.37 
670.53 -196.90 8.93 
670.46 -197.08 8.92 
667.38 -182.33 9.06 
669.96 -181.88 9.50 
669.67 -181.17 9.77 
667.53 -183.53 9.71 
670.47 -197.21 9.75 
670.63 -197.08 9.79 
672.43 -180.93 11.34 
670.76 -197.12 10.47 
672.97 -181.18 11.49 
673.16 -181.42 11.54 
670.31 -197.66 10.55 
670.45 -197.37 10.58 
677.93 -182.97 12.94 
670.59 -196.46 4.99 
670.71 -196.32 5.01 
669.69 -186.69 5.38 
669.72 -186.44 5.40 
674.76 -188.78 5.96 
674.30 -186.82 6.01 
674.22 -187.03 5.99 
674.45 -186.53 6.04 
674.72 -186.18 6.10 
674.87 -185.50 6.16 
674.97 -185.87 6.15 
675.37 -185.23 6.24 
675.97 -184.96 6.34 
676.03 -184.77 6.36 
670.86 -196.81 5.26 
669.84 -187.12 5.62 
669.91 -186.92 5.64 
674.16 -190.57 6.03 
673.99 -189.93 6.04 
674.91 -190.04 6.15 
675.15 -187.77 6.31 
677.29 -190.75 6.44 
675.45 -187.61 6.36 
677.54 -190.39 6.49 
675.73 -186.66 6.45 
675.68 -186.39 6.46 
677.29 -183.94 6.58 
677.89 -183.20 6.70 
679.13 -182.01 6.94 
679.89 -181.30 7.08 
681.06 -180.47 7.29 
681.83 -180.19 7.41 
669.39 -187.08 5.98 
669.35 -186.78 5.99 
669.35 -186.91 5.98 
669.54 -186.55 6.03 
675.38 -185.65 7.01 
675.55 -185.92 7.03 
675.47 -185.43 7.04 
675.92 -186.02 7.08 
675.98 -186.23 7.08 
675.60 -185.25 7.07 
670.77 -196.83 6.08 
668.77 -187.26 6.52 
668.68 -187.48 6.50 
669.52 -187.30 6.27 
678.00 -195.58 6.96 
675.71 -186.26 7.31 
675.64 -185.99 7.31 
676.25 -186.68 7.37 
670.44 -196.59 6.49 
668.81 -188.02 6.83 
669.45 -187.99 6.62 
669.57 -188.20 6.63 
669.00 -187.08 6.57 
669.81 -186.25 6.76 
670.08 -186.69 7.11 
678.16 -196.05 7.26 
675.18 -185.80 7.77 
675.78 -185.44 7.89 
666.83 -193.84 6.60 
666.75 -191.36 6.64 
669.00 -189.56 7.15 
668.11 -187.67 7.03 
668.33 -188.25 7.06 
669.27 -189.33 7.21 
667.90 -187.22 7.00 
669.46 -189.11 7.26 
669.92 -188.72 7.01 
675.58 -193.53 7.51 
675.91 -194.21 7.55 
675.37 -192.92 7.50 
675.41 -193.20 7.49 
675.96 -193.95 7.57 
676.10 -192.94 7.63 
675.90 -192.33 7.61 
676.04 -192.16 7.65 
677.12 -193.05 7.81 
677.59 -193.52 7.88 
676.79 -192.14 7.78 
677.81 -192.71 7.95 
677.86 -193.06 7.94 
677.71 -191.86 7.96 
678.18 -192.34 8.03 
678.09 -192.54 8.00 
678.21 -192.30 8.04 
678.38 -191.52 8.10 
678.54 -191.89 8.11 
678.98 -191.99 8.19 
679.16 -191.34 8.25 
675.34 -186.25 8.09 
675.45 -186.49 8.10 
679.17 -190.98 8.26 
675.60 -186.04 8.14 
676.15 -186.45 7.91 
676.43 -186.98 8.26 
681.53 -189.00 8.78 
681.58 -189.25 8.78 
667.08 -194.05 7.09 
670.43 -196.59 7.27 
666.96 -191.71 7.10 
669.57 -192.83 7.17 
670.49 -192.57 7.37 
670.48 -192.08 7.38 
670.58 -192.35 7.39 
668.29 -188.56 7.43 
669.22 -189.90 7.58 
670.60 -191.90 7.41 
672.03 -193.45 7.66 
671.12 -191.43 7.53 
671.32 -191.99 7.55 
671.02 -190.97 7.52 
671.01 -191.15 7.51 
671.15 -190.32 7.57 
671.93 -191.24 7.70 
673.24 -192.71 7.92 
673.13 -192.42 7.91 
673.04 -191.41 7.92 
675.65 -194.56 7.84 
675.84 -194.05 7.89 
676.14 -194.50 7.93 
666.58 -182.36 7.54 
677.27 -194.16 8.15 
677.73 -193.77 8.24 
677.68 -194.05 8.22 
677.45 -193.04 8.22 
667.73 -180.50 7.60 
668.24 -181.57 7.65 
678.35 -192.86 8.38 
678.45 -192.60 8.41 
681.14 -191.18 8.95 
681.47 -190.99 9.01 
681.50 -189.51 9.08 
682.13 -189.40 9.20 
682.80 -190.40 9.12 
683.22 -189.94 9.05 
683.47 -190.41 9.40 
684.31 -183.90 9.55 
684.63 -184.15 9.89 
683.89 -182.05 9.57 
684.27 -182.36 9.62 
684.60 -183.01 9.65 
684.97 -183.29 9.70 
684.32 -181.77 9.66 
684.76 -182.72 9.69 
685.30 -183.00 9.78 
685.78 -182.74 9.88 
685.77 -181.51 9.95 
686.42 -181.27 10.08 
687.10 -180.29 10.26 
687.47 -180.02 10.35 
687.82 -180.61 10.38 
687.74 -180.92 10.34 
667.45 -194.16 7.41 
667.84 -193.71 7.50 
667.75 -193.45 7.48 
670.72 -196.81 7.77 
669.89 -192.96 7.66 
670.87 -194.07 7.83 
669.05 -190.50 7.82 
670.77 -192.37 7.84 
670.85 -192.93 7.85 
671.04 -192.26 7.90 
666.67 -180.18 8.28 
667.16 -193.92 7.85 
667.47 -193.90 7.92 
670.39 -196.67 8.04 
670.05 -180.70 8.77 
670.58 -180.56 8.90 
670.70 -196.92 8.61 
666.76 -183.35 8.75 
670.21 -179.96 9.20 
670.47 -179.82 9.28 
670.40 -196.68 8.83 
670.33 -196.85 8.81 
666.89 -190.07 8.63 
669.74 -181.37 9.69 
669.42 -180.76 9.63 
667.89 -185.41 9.64 
667.14 -183.26 9.49 
667.34 -183.47 9.54 
667.69 -184.45 9.61 
668.37 -184.93 9.80 
675.42 -180.06 10.89 
670.31 -196.96 9.61 
672.67 -180.84 11.31 
672.72 -181.27 11.30 
670.51 -196.99 10.38 
671.37 -183.03 11.26 
667.59 -184.23 4.78 
667.78 -184.08 4.81 
670.53 -196.18 4.98 
669.52 -186.38 5.32 
669.57 -186.43 5.33 
669.59 -186.16 5.35 
674.29 -188.25 5.88 
674.61 -188.53 5.91 
673.85 -186.76 5.89 
674.02 -186.44 5.93 
674.21 -186.11 5.98 
674.49 -185.77 6.03 
674.44 -185.96 6.01 
674.59 -185.56 6.06 
675.09 -185.18 6.14 
675.19 -184.76 6.18 
675.16 -184.94 6.17 
675.67 -184.62 6.25 
675.81 -184.33 6.28 
675.95 -184.10 6.32 
676.41 -183.71 6.40 
676.39 -183.84 6.39 
676.69 -183.46 6.45 
676.91 -183.13 6.50 
677.19 -182.79 6.55 
677.92 -182.06 6.69 
670.71 -196.60 5.23 
677.07 -190.44 6.38 
675.28 -187.50 6.29 
677.53 -190.19 6.46 
675.52 -187.05 6.34 
675.54 -187.31 6.33 
678.18 -181.82 6.74 
678.54 -181.38 6.81 
679.55 -180.57 6.99 
679.84 -180.30 7.05 
681.02 -179.73 7.24 
670.39 -196.45 5.69 
670.50 -196.26 5.71 
669.25 -186.50 5.91 
675.25 -185.47 6.92 
675.43 -185.72 6.94 
675.41 -185.06 6.97 
675.29 -185.26 6.94 
675.84 -186.00 6.99 
670.61 -196.61 6.03 
668.67 -187.05 6.42 
668.60 -187.26 6.40 
669.22 -187.61 6.50 
669.31 -187.81 6.51 
668.86 -186.94 6.46 
669.41 -187.05 6.20 
669.69 -186.35 6.64 
669.69 -186.04 6.65 
677.92 -195.53 6.90 
677.87 -195.26 6.90 
675.79 -186.21 7.24 
676.13 -186.55 7.28 
675.58 -185.66 7.23 
668.65 -187.68 6.73 
669.60 -188.26 6.88 
669.83 -188.58 6.91 
669.95 -186.23 7.01 
678.11 -195.69 7.22 
675.08 -185.62 7.66 
675.23 -185.31 7.70 
675.99 -186.11 7.80 
675.95 -186.32 7.79 
675.66 -185.15 7.79 
666.61 -193.49 6.48 
666.58 -193.67 6.47 
667.17 -193.38 6.59 
667.50 -193.72 6.65 
670.15 -191.91 7.22 
667.91 -187.46 6.89 
668.35 -188.02 6.96 
669.18 -189.13 7.10 
668.45 -187.89 6.99 
669.41 -188.81 7.15 
668.58 -187.32 7.03 
675.52 -194.12 7.41 
675.46 -193.30 7.43 
675.54 -193.48 7.44 
675.84 -193.97 7.47 
675.34 -193.01 7.41 
675.91 -192.95 7.52 
676.70 -193.54 7.64 
675.73 -191.99 7.52 
675.93 -192.21 7.72 
676.06 -192.44 7.91 
676.28 -192.87 7.59 
676.94 -193.05 7.70 
677.62 -193.01 7.83 
678.11 -192.14 7.95 
677.95 -192.33 7.91 
678.22 -192.02 7.97 
678.15 -191.30 7.98 
678.64 -191.71 8.06 
678.77 -190.81 8.12 
679.10 -191.30 8.16 
676.28 -186.92 8.13 
678.87 -190.48 8.15 
679.07 -190.48 8.18 
676.29 -186.67 8.14 
681.57 -189.12 8.69 
682.55 -189.66 8.85 
682.44 -189.00 8.86 
683.09 -189.73 8.94 
683.80 -182.07 9.43 
670.38 -196.39 7.18 
666.86 -191.48 6.98 
670.04 -192.48 7.18 
670.27 -192.35 7.23 
671.12 -193.16 7.39 
670.31 -191.81 7.25 
670.50 -192.23 7.28 
667.50 -187.48 7.42 
670.91 -191.05 7.39 
671.24 -191.43 7.45 
671.36 -191.78 7.47 
671.95 -191.87 7.58 
671.09 -190.34 7.45 
672.20 -191.31 7.65 
672.93 -191.79 7.79 
672.85 -191.96 7.77 
673.14 -191.59 7.84 
672.72 -190.34 7.79 
672.67 -190.51 7.77 
673.44 -191.26 7.91 
675.96 -194.24 7.84 
676.29 -193.97 7.90 
676.53 -193.82 7.95 
677.24 -193.88 8.08 
678.14 -192.82 8.27 
677.98 -192.12 8.26 
678.22 -192.50 8.29 
679.19 -192.36 8.47 
681.26 -190.38 8.91 
672.82 -180.27 8.53 
681.96 -190.91 9.02 
682.17 -189.15 9.12 
682.33 -188.89 9.16 
684.25 -183.08 9.47 
684.82 -184.00 9.81 
684.04 -182.37 9.46 
684.42 -182.90 9.50 
684.67 -183.27 9.53 
684.19 -181.74 9.52 
684.88 -182.65 9.60 
685.20 -181.46 9.73 
685.28 -182.04 9.71 
685.25 -181.31 10.02 
685.67 -181.65 10.08 
686.23 -182.36 9.87 
686.97 -181.15 10.07 
687.11 -180.89 10.11 
686.88 -180.23 10.10 
687.48 -180.53 10.19 
687.82 -180.83 10.24 
687.64 -179.90 10.26 
667.43 -193.98 7.29 
669.70 -192.87 7.53 
671.30 -193.46 7.83 
671.56 -192.19 7.90 
668.80 -187.43 7.72 
671.17 -190.67 7.86 
666.67 -181.90 7.79 
666.60 -181.51 7.79 
687.18 -180.21 10.42 
687.50 -180.87 10.45 
670.32 -196.46 7.92 
668.17 -181.21 8.45 
667.57 -181.91 8.88 
669.06 -182.55 8.99 
670.24 -196.55 8.66 
667.03 -182.95 9.10 
669.44 -181.02 9.45 
669.40 -181.21 9.43 
670.26 -196.67 9.44 
674.81 -179.82 11.04 
667.60 -185.36 4.68 
668.11 -184.77 4.76 
669.37 -183.81 4.96 
669.86 -183.36 5.04 
670.90 -182.62 5.19 
669.31 -186.12 5.25 
669.38 -185.88 5.27 
673.57 -188.76 5.69 
673.76 -188.36 5.73 
673.88 -188.61 5.74 
674.43 -189.18 5.78 
673.42 -187.53 5.73 
673.91 -188.06 5.77 
673.33 -186.13 5.79 
673.54 -185.83 5.83 
673.91 -185.56 5.90 
674.13 -185.15 5.95 
674.10 -185.36 5.93 
674.21 -184.95 5.97 
