# .PCD v0.7 - Point Cloud Data file format
VERSION 0.7
FIELDS x y z
SIZE 4 4 4
TYPE F F F
COUNT 1 1 1
WIDTH 2277
HEIGHT 1
VIEWPOINT 0 0 0 1 0 0 0
POINTS 2277
DATA ascii
669.07 -231.27 2.74 
672.95 -235.51 2.88 
669.59 -230.37 2.76 
669.72 -230.52 2.78 
670.04 -230.80 2.83 
670.06 -231.26 2.85 
671.02 -232.06 2.99 
669.90 -230.40 2.79 
670.27 -230.82 2.85 
670.61 -231.02 2.90 
670.76 -231.20 2.93 
670.99 -231.58 2.97 
671.21 -232.09 3.02 
672.09 -233.05 3.16 
676.75 -238.32 3.42 
677.04 -238.60 3.47 
670.52 -230.51 2.87 
671.34 -231.41 3.01 
671.57 -231.47 3.04 
671.92 -232.06 3.10 
672.18 -232.36 3.15 
673.32 -233.89 3.36 
674.38 -235.26 3.06 
674.92 -235.51 3.13 
677.04 -238.45 3.47 
671.74 -231.29 3.05 
672.35 -231.98 3.15 
672.60 -232.26 3.20 
672.84 -232.67 3.24 
675.12 -235.45 3.16 
672.97 -232.07 3.24 
673.28 -232.26 3.29 
673.66 -232.99 3.36 
674.18 -233.65 3.46 
675.85 -235.28 3.25 
674.32 -233.22 3.46 
683.50 -238.25 4.38 
684.08 -238.91 4.48 
684.34 -238.99 4.52 
684.08 -238.09 4.47 
684.38 -237.49 4.51 
679.12 -230.94 4.08 
684.63 -237.63 4.55 
685.64 -237.82 4.70 
685.38 -237.43 4.66 
667.01 -248.48 2.40 
667.10 -248.41 2.40 
668.33 -248.28 2.55 
668.75 -247.58 2.58 
669.06 -247.48 2.62 
669.10 -247.51 2.62 
670.51 -245.70 2.76 
670.35 -245.43 2.73 
670.57 -245.09 2.75 
670.37 -244.04 2.71 
671.85 -245.68 2.92 
670.78 -243.83 2.76 
671.80 -243.68 2.88 
667.21 -237.49 2.78 
671.24 -242.52 2.79 
672.03 -243.44 2.90 
671.63 -242.58 2.84 
672.18 -242.33 2.90 
666.95 -233.74 2.61 
668.16 -234.59 2.77 
667.19 -231.99 2.99 
672.05 -238.18 3.37 
667.73 -231.34 3.00 
667.81 -231.52 3.02 
668.09 -231.35 3.04 
668.77 -231.95 3.14 
669.05 -232.23 3.19 
669.25 -232.57 3.24 
668.36 -231.13 3.05 
669.75 -232.45 3.28 
668.66 -230.89 3.07 
669.84 -231.79 3.25 
669.90 -231.56 3.24 
669.94 -231.76 3.26 
671.01 -232.61 3.44 
671.63 -233.54 3.58 
670.17 -231.44 3.27 
670.41 -231.68 3.31 
670.67 -231.96 3.36 
670.94 -232.07 3.40 
671.25 -232.51 3.46 
671.77 -233.39 3.58 
675.31 -237.36 3.76 
671.33 -232.31 3.46 
673.54 -234.77 3.42 
675.51 -237.12 3.78 
675.84 -237.63 3.85 
672.26 -232.39 3.58 
675.63 -236.88 3.79 
676.29 -237.54 3.91 
672.50 -232.44 3.61 
672.83 -232.47 3.66 
673.10 -232.82 3.72 
675.88 -236.50 3.81 
676.40 -237.02 3.90 
673.11 -232.05 3.67 
673.66 -232.81 3.79 
673.27 -231.88 3.68 
673.62 -232.34 3.76 
673.90 -232.53 3.81 
673.98 -232.18 3.79 
683.65 -239.77 4.42 
684.16 -239.93 4.50 
684.42 -239.22 4.53 
685.43 -240.20 4.70 
686.58 -241.01 4.88 
679.14 -230.99 4.51 
685.54 -238.78 4.70 
685.95 -238.69 4.76 
686.35 -238.59 4.82 
686.99 -239.28 4.92 
687.52 -238.46 5.00 
687.19 -237.39 4.94 
666.91 -233.94 3.08 
667.19 -233.59 3.09 
668.20 -234.59 3.25 
669.25 -234.64 3.37 
669.38 -234.86 3.40 
668.15 -232.69 3.56 
667.90 -231.60 3.44 
668.26 -232.02 3.51 
668.17 -231.33 3.45 
669.61 -233.01 3.74 
668.61 -230.89 3.45 
668.95 -230.94 3.49 
670.36 -232.33 3.77 
672.05 -233.91 3.65 
672.05 -234.37 3.68 
670.10 -231.05 3.62 
672.75 -234.35 3.77 
672.09 -232.48 3.99 
672.44 -231.99 3.99 
674.90 -234.89 4.09 
673.54 -232.08 4.15 
673.71 -232.45 4.20 
675.24 -234.23 4.10 
673.38 -231.67 4.09 
684.39 -238.95 5.18 
684.84 -238.90 5.25 
684.92 -238.26 5.25 
679.09 -231.05 4.94 
685.19 -238.35 5.29 
685.95 -239.30 5.45 
686.05 -238.15 5.43 
686.83 -238.82 5.58 
686.61 -238.17 5.52 
667.24 -231.12 3.75 
668.71 -232.74 4.06 
669.46 -233.40 3.76 
671.11 -235.86 4.16 
668.12 -231.35 3.85 
670.49 -234.30 3.95 
670.60 -234.37 3.97 
668.41 -231.04 3.85 
668.61 -231.45 3.91 
668.96 -231.79 3.98 
670.77 -234.01 3.96 
670.88 -234.04 3.98 
669.24 -231.47 3.97 
671.42 -233.93 4.03 
669.76 -231.57 4.04 
671.83 -233.99 4.09 
672.39 -233.87 4.15 
671.51 -232.47 4.34 
672.81 -234.09 4.22 
672.33 -232.36 4.44 
672.50 -232.01 4.42 
672.88 -232.13 4.48 
673.28 -232.51 4.58 
673.78 -232.74 4.68 
674.56 -233.48 4.41 
674.80 -233.69 4.46 
666.68 -250.68 3.26 
669.86 -238.75 4.27 
669.05 -234.27 4.26 
668.30 -232.97 4.05 
671.27 -236.75 4.26 
668.58 -232.83 4.06 
671.23 -235.06 4.60 
671.08 -234.46 4.51 
671.93 -233.97 4.56 
670.16 -231.67 4.50 
671.79 -233.71 4.52 
670.78 -231.43 4.54 
672.10 -233.23 4.50 
673.34 -234.66 4.83 
674.81 -236.60 4.72 
672.85 -233.67 4.65 
672.59 -232.47 4.91 
673.06 -232.96 4.60 
674.87 -233.33 4.90 
675.02 -233.13 4.90 
666.71 -237.24 4.36 
666.82 -236.01 4.24 
667.05 -233.43 4.44 
669.92 -232.85 4.64 
670.51 -233.10 4.74 
675.74 -239.50 5.10 
672.28 -234.49 5.14 
676.24 -239.54 5.18 
674.56 -236.66 5.22 
671.85 -233.02 4.89 
672.90 -233.30 5.06 
673.17 -233.46 5.12 
673.32 -233.62 5.17 
673.41 -233.22 5.13 
674.31 -234.04 5.37 
674.58 -234.13 5.42 
674.95 -234.57 5.54 
666.99 -236.43 4.83 
669.71 -239.68 4.94 
669.63 -238.95 4.85 
667.03 -235.48 4.71 
667.13 -235.59 4.73 
669.17 -236.26 5.02 
670.03 -236.77 5.18 
671.44 -235.77 5.21 
675.23 -239.09 5.59 
675.34 -238.72 5.56 
673.90 -235.47 5.50 
674.18 -235.24 5.51 
674.32 -235.20 5.52 
679.27 -230.57 2.32 
679.38 -230.56 2.33 
668.40 -250.07 0.80 
669.01 -250.07 0.88 
670.78 -248.65 1.13 
671.01 -248.72 1.16 
670.97 -248.52 1.16 
671.24 -248.19 1.20 
671.83 -246.17 1.34 
672.04 -245.98 1.37 
672.40 -246.31 1.40 
672.60 -246.17 1.43 
672.78 -246.27 1.45 
673.23 -246.02 1.51 
673.42 -245.78 1.54 
673.63 -245.20 1.58 
673.62 -244.90 1.59 
674.00 -244.90 1.64 
674.43 -230.48 2.11 
674.69 -230.73 2.14 
685.35 -239.31 3.22 
685.25 -239.55 3.20 
685.51 -238.83 3.26 
685.57 -239.33 3.25 
679.22 -230.65 2.71 
685.53 -238.56 3.27 
685.86 -239.07 3.30 
679.36 -230.60 2.73 
666.82 -253.34 0.52 
667.11 -253.24 0.56 
667.55 -252.81 0.62 
667.89 -252.97 0.66 
668.50 -252.67 0.74 
669.07 -252.24 0.82 
669.24 -251.96 0.85 
669.61 -251.93 0.90 
669.90 -251.46 0.94 
670.15 -251.50 0.97 
670.37 -251.45 1.00 
669.56 -238.11 1.84 
674.48 -238.14 2.43 
674.99 -238.22 2.50 
675.24 -238.18 2.53 
676.23 -237.26 2.66 
675.53 -235.52 2.58 
674.97 -234.63 2.52 
675.62 -235.16 2.60 
674.65 -230.79 2.50 
679.16 -230.67 3.10 
668.60 -248.30 1.66 
668.91 -247.52 1.70 
669.17 -247.24 1.73 
669.35 -247.84 1.75 
670.00 -247.69 1.83 
666.57 -243.03 1.46 
669.74 -246.89 1.80 
670.12 -246.49 1.85 
670.33 -246.37 1.88 
670.58 -245.89 1.91 
670.90 -245.90 1.95 
671.43 -246.22 2.01 
671.23 -245.89 1.99 
671.67 -245.21 2.04 
671.87 -244.85 2.07 
672.08 -245.56 2.09 
672.29 -244.81 2.12 
672.26 -245.07 2.12 
671.68 -242.64 2.06 
672.48 -243.26 2.16 
672.67 -242.79 2.18 
673.05 -242.77 2.23 
672.83 -241.75 2.21 
673.30 -241.83 2.26 
673.55 -241.81 2.30 
673.52 -240.70 2.30 
673.91 -241.33 2.34 
673.70 -240.70 2.32 
674.05 -241.15 2.36 
674.58 -240.65 2.43 
674.80 -241.00 2.46 
674.22 -240.00 2.39 
675.05 -240.93 2.49 
673.29 -234.92 2.77 
672.98 -233.90 2.71 
673.09 -233.91 2.72 
673.54 -234.54 2.79 
673.48 -234.73 2.79 
674.00 -235.08 2.86 
676.68 -238.42 2.71 
673.64 -234.29 2.80 
674.10 -234.69 2.87 
676.90 -238.21 2.74 
673.73 -233.66 2.80 
674.17 -234.02 2.86 
674.23 -234.11 2.87 
674.55 -234.46 2.92 
674.75 -234.58 2.95 
675.58 -235.30 3.07 
674.29 -230.49 2.82 
674.48 -230.71 2.85 
684.00 -240.24 3.67 
684.15 -240.19 3.69 
684.73 -240.68 3.77 
684.18 -239.74 3.70 
684.72 -239.96 3.77 
686.11 -241.35 3.95 
684.02 -237.85 3.70 
684.26 -238.45 3.72 
684.59 -238.55 3.77 
685.12 -239.07 3.84 
685.54 -239.51 3.89 
679.13 -230.72 3.49 
685.09 -238.07 3.84 
685.14 -237.62 3.86 
685.97 -238.53 3.96 
686.43 -238.75 4.02 
686.17 -238.28 3.99 
686.53 -238.57 4.04 
687.74 -240.09 4.19 
686.53 -237.78 4.05 
685.85 -236.77 3.96 
686.17 -236.90 4.01 
686.78 -237.50 4.09 
686.91 -237.35 4.11 
667.80 -238.38 2.18 
671.14 -242.44 2.64 
671.46 -242.01 2.67 
670.93 -241.23 2.59 
671.11 -241.28 2.61 
671.69 -242.02 2.69 
672.09 -241.92 2.74 
669.78 -238.15 2.40 
672.53 -241.68 2.79 
672.95 -241.97 2.85 
668.69 -236.08 2.24 
668.95 -236.35 2.27 
672.21 -240.62 2.73 
672.38 -240.75 2.76 
673.09 -241.69 2.86 
666.78 -233.69 2.45 
668.87 -235.91 2.26 
669.17 -236.33 2.30 
672.54 -239.59 2.76 
672.78 -239.70 2.79 
667.81 -232.68 2.51 
667.60 -232.01 2.47 
668.64 -231.48 2.55 
668.89 -231.18 2.57 
670.64 -233.12 2.84 
669.58 -231.18 2.64 
670.90 -232.82 2.86 
671.69 -233.64 2.98 
669.57 -230.59 2.62 
669.89 -230.60 2.65 
670.14 -231.19 2.70 
670.39 -231.78 2.76 
670.85 -231.95 2.81 
670.13 -230.52 2.67 
670.24 -230.75 2.70 
670.38 -231.00 2.72 
676.17 -237.85 3.19 
676.35 -237.96 3.21 
670.72 -230.90 2.76 
671.14 -231.18 2.82 
671.38 -231.17 2.84 
672.01 -232.16 2.96 
672.25 -232.36 3.00 
672.51 -232.81 3.05 
673.31 -233.90 3.19 
676.57 -237.82 3.24 
676.90 -238.07 3.29 
671.58 -231.00 2.86 
672.14 -231.80 2.96 
672.38 -231.97 3.00 
672.68 -232.38 3.05 
673.81 -233.59 3.24 
671.91 -231.13 2.91 
672.85 -232.00 3.06 
672.96 -232.05 3.07 
673.35 -232.51 3.14 
673.68 -233.01 3.20 
673.92 -233.43 3.25 
674.07 -233.65 3.28 
673.18 -231.98 3.10 
673.46 -232.38 3.15 
683.77 -239.73 4.28 
683.96 -239.99 4.31 
684.58 -239.89 4.40 
683.42 -238.18 4.21 
684.01 -238.10 4.30 
684.93 -239.32 4.45 
684.55 -238.20 4.38 
679.08 -230.78 3.89 
684.52 -237.59 4.37 
685.37 -238.56 4.51 
685.45 -237.97 4.51 
685.74 -238.44 4.56 
685.57 -237.79 4.53 
686.35 -238.57 4.66 
686.85 -238.16 4.73 
686.96 -237.64 4.74 
687.17 -238.26 4.78 
686.99 -237.29 4.75 
687.21 -237.34 4.78 
668.11 -248.19 2.38 
668.61 -247.37 2.42 
668.56 -247.57 2.42 
668.05 -246.14 2.34 
669.71 -247.24 2.55 
667.05 -243.20 2.18 
669.80 -243.97 2.50 
670.18 -244.21 2.55 
670.00 -243.86 2.53 
666.76 -237.55 2.59 
666.98 -237.29 2.61 
666.57 -233.49 2.87 
666.96 -233.18 2.88 
667.11 -233.56 2.92 
669.84 -235.76 2.85 
671.63 -238.02 3.15 
668.31 -233.73 3.05 
667.86 -232.31 2.92 
668.08 -232.34 2.94 
667.56 -231.50 2.84 
667.83 -231.22 2.85 
668.43 -231.66 2.93 
668.61 -231.94 2.97 
668.20 -230.97 2.87 
668.84 -231.69 2.97 
668.89 -231.76 2.98 
669.23 -231.26 2.99 
669.48 -231.44 3.03 
669.50 -231.39 3.02 
669.86 -231.58 3.07 
671.46 -233.29 3.36 
671.81 -234.25 3.47 
674.76 -237.50 3.53 
670.17 -231.30 3.09 
670.28 -231.55 3.12 
670.82 -231.92 3.20 
671.03 -232.28 3.25 
671.24 -232.77 3.31 
671.64 -233.22 3.38 
671.82 -233.41 3.42 
670.45 -230.84 3.09 
670.43 -231.21 3.11 
670.65 -231.33 3.14 
671.15 -231.98 3.24 
675.47 -236.94 3.60 
675.88 -237.54 3.68 
672.07 -232.56 3.39 
673.38 -233.96 3.65 
674.64 -235.18 3.42 
675.56 -236.71 3.60 
676.01 -236.93 3.67 
672.57 -232.34 3.44 
672.73 -232.71 3.48 
674.88 -235.16 3.45 
676.44 -237.17 3.74 
672.32 -231.25 3.34 
672.42 -231.67 3.38 
673.05 -232.51 3.51 
673.56 -232.80 3.59 
675.36 -235.24 3.52 
673.51 -232.25 3.55 
674.96 -233.98 3.86 
673.86 -232.09 3.59 
674.74 -233.28 3.78 
675.08 -233.89 3.87 
685.93 -240.01 4.61 
679.03 -230.85 4.29 
687.16 -238.59 4.78 
687.18 -238.97 4.79 
671.39 -241.41 3.27 
666.67 -233.82 2.90 
666.65 -233.14 3.29 
667.92 -234.27 3.04 
668.14 -233.53 3.46 
667.90 -231.26 3.24 
668.19 -231.31 3.27 
669.22 -232.69 3.49 
669.31 -232.94 3.52 
670.32 -233.89 3.71 
670.04 -232.94 3.60 
670.25 -233.55 3.67 
670.70 -233.98 3.76 
668.76 -230.81 3.29 
669.68 -232.17 3.49 
671.12 -233.91 3.80 
671.22 -233.96 3.82 
673.36 -236.27 3.79 
671.27 -233.51 3.79 
669.47 -230.90 3.74 
673.11 -232.38 3.91 
673.78 -233.14 4.07 
674.55 -234.37 3.83 
673.33 -232.00 3.91 
674.20 -232.50 4.07 
674.56 -233.31 4.19 
675.40 -234.27 3.94 
685.21 -238.91 5.13 
678.93 -230.95 4.68 
685.65 -237.45 5.16 
686.15 -237.57 5.25 
686.50 -238.42 5.33 
670.33 -237.03 3.99 
668.23 -233.73 3.48 
670.73 -235.71 3.92 
667.18 -230.88 3.54 
668.19 -232.33 3.78 
671.40 -236.23 4.04 
671.56 -235.61 4.01 
671.85 -236.08 4.08 
668.70 -231.29 3.71 
670.56 -234.06 3.75 
670.81 -234.35 3.81 
669.01 -231.03 3.71 
671.61 -234.74 3.94 
669.15 -231.08 3.73 
669.89 -231.11 3.81 
670.93 -232.25 4.04 
671.35 -233.21 4.20 
671.86 -232.63 4.19 
672.15 -233.32 4.31 
672.20 -233.52 4.34 
673.06 -234.30 4.08 
672.33 -233.05 4.30 
673.18 -234.09 4.07 
672.34 -232.32 4.22 
672.46 -231.99 4.20 
673.53 -232.90 4.44 
673.67 -232.54 4.42 
675.08 -234.34 4.35 
675.35 -234.74 4.43 
669.90 -238.35 4.06 
667.97 -232.75 4.23 
668.66 -233.10 4.33 
669.75 -233.98 4.11 
670.45 -234.93 4.29 
672.30 -237.54 4.27 
668.71 -232.26 4.23 
669.41 -232.33 4.30 
669.46 -232.12 4.28 
670.07 -232.99 4.45 
675.65 -239.64 4.90 
670.82 -232.69 4.50 
671.56 -233.77 4.29 
676.29 -239.52 4.98 
670.95 -232.61 4.50 
672.54 -233.11 4.76 
672.66 -233.39 4.81 
671.82 -231.41 4.44 
672.77 -233.11 4.79 
672.27 -231.81 4.55 
672.89 -232.63 4.74 
666.58 -235.91 4.02 
666.82 -235.02 4.43 
668.07 -236.45 4.21 
666.84 -233.04 4.18 
667.26 -233.46 4.26 
667.52 -233.48 4.29 
667.73 -233.66 4.33 
674.61 -238.16 5.17 
674.76 -238.22 5.20 
673.42 -235.35 5.18 
673.53 -235.29 5.18 
674.19 -234.07 5.11 
674.55 -234.39 5.21 
674.38 -233.90 5.12 
666.74 -235.96 4.55 
675.69 -239.08 5.43 
675.51 -238.75 5.93 
679.21 -230.33 2.24 
668.06 -249.93 0.65 
668.49 -250.27 0.69 
668.32 -249.66 0.69 
668.78 -249.93 0.73 
670.08 -251.24 0.85 
670.73 -248.40 1.02 
670.79 -248.27 1.03 
670.96 -248.49 1.04 
671.13 -247.94 1.08 
671.78 -245.91 1.22 
671.99 -245.72 1.25 
672.39 -246.21 1.28 
672.18 -245.62 1.28 
672.60 -246.17 1.31 
673.19 -246.06 1.39 
673.02 -245.19 1.39 
673.22 -245.61 1.40 
673.41 -244.84 1.45 
673.59 -244.65 1.48 
673.78 -244.99 1.49 
675.93 -239.70 1.91 
675.81 -239.12 1.91 
674.19 -230.27 1.98 
674.57 -230.56 2.01 
674.71 -230.66 2.03 
685.13 -239.30 3.08 
685.23 -239.04 3.10 
685.46 -239.08 3.13 
679.04 -230.41 2.58 
685.30 -238.43 3.13 
685.72 -238.83 3.17 
679.19 -230.38 2.60 
685.49 -237.04 3.20 
666.54 -253.03 0.37 
666.78 -253.21 0.40 
667.01 -253.45 0.42 
667.01 -253.18 0.42 
667.40 -252.64 0.49 
667.62 -252.58 0.52 
668.44 -252.24 0.62 
669.02 -252.13 0.70 
668.82 -251.52 0.69 
669.28 -251.85 0.74 
669.55 -251.64 0.78 
669.82 -251.60 0.81 
674.84 -238.12 2.34 
675.38 -238.03 2.40 
676.10 -238.83 2.49 
675.47 -237.75 2.42 
676.23 -238.81 2.51 
676.55 -238.17 2.55 
676.08 -237.05 2.50 
675.29 -235.46 2.41 
675.34 -235.25 2.42 
674.36 -230.43 2.32 
678.99 -230.44 2.93 
679.10 -230.41 2.95 
667.96 -248.40 1.44 
668.20 -248.31 1.47 
669.60 -249.76 1.63 
668.55 -248.18 1.51 
668.84 -246.94 1.55 
669.01 -247.41 1.57 
669.35 -247.90 1.61 
669.27 -247.03 1.60 
669.47 -247.20 1.63 
669.87 -247.43 1.67 
669.72 -246.80 1.66 
670.21 -246.30 1.72 
671.39 -246.95 1.86 
670.47 -245.54 1.76 
670.79 -245.74 1.79 
671.07 -245.71 1.83 
671.28 -245.82 1.85 
671.61 -245.02 1.90 
671.92 -245.13 1.93 
671.75 -244.59 1.92 
672.13 -244.72 1.96 
672.73 -243.99 2.04 
672.36 -242.51 2.00 
672.55 -242.63 2.03 
672.90 -243.52 2.06 
672.94 -242.22 2.08 
673.10 -241.68 2.10 
673.73 -242.16 2.17 
673.36 -241.54 2.13 
673.80 -241.09 2.19 
674.28 -240.33 2.25 
674.14 -239.76 2.24 
674.64 -240.61 2.29 
674.85 -240.73 2.32 
669.56 -230.57 2.44 
673.23 -234.75 2.59 
669.79 -230.26 2.45 
673.41 -234.74 2.61 
673.95 -234.91 2.68 
670.95 -230.90 2.60 
673.66 -234.16 2.63 
673.92 -234.52 2.67 
671.56 -230.98 2.67 
673.73 -233.38 2.63 
674.21 -234.39 2.70 
671.75 -230.95 2.69 
675.24 -234.90 2.85 
675.38 -234.93 2.86 
675.64 -235.42 2.91 
675.85 -235.49 2.94 
676.13 -235.64 2.97 
674.21 -230.34 2.64 
683.80 -239.98 3.50 
683.88 -239.72 3.51 
684.09 -239.79 3.54 
684.31 -239.85 3.57 
684.71 -240.26 3.62 
684.50 -239.37 3.60 
685.88 -240.91 3.78 
684.11 -238.22 3.56 
684.37 -238.33 3.60 
684.77 -238.36 3.65 
685.74 -239.46 3.77 
678.98 -230.47 3.29 
684.42 -237.34 3.61 
685.04 -237.79 3.70 
686.20 -239.54 3.84 
685.13 -237.30 3.71 
685.84 -238.33 3.80 
686.44 -238.78 3.88 
686.13 -237.93 3.85 
685.76 -236.86 3.81 
686.00 -236.73 3.84 
686.58 -237.17 3.92 
686.76 -236.99 3.95 
666.89 -253.49 1.28 
666.85 -241.99 1.98 
667.00 -242.02 1.99 
670.02 -243.73 2.36 
667.73 -238.21 2.01 
670.54 -241.93 2.39 
671.05 -242.36 2.46 
670.90 -241.88 2.43 
671.24 -242.26 2.48 
671.77 -242.35 2.54 
668.47 -237.76 2.09 
670.78 -241.05 2.40 
671.45 -241.64 2.49 
671.61 -242.09 2.52 
671.86 -242.09 2.55 
671.94 -241.89 2.56 
669.55 -237.92 2.21 
672.17 -241.21 2.57 
669.71 -237.89 2.23 
672.33 -240.51 2.58 
673.04 -241.50 2.68 
667.36 -234.02 2.35 
672.70 -240.34 2.62 
672.39 -239.41 2.57 
672.68 -240.09 2.61 
669.67 -235.63 2.65 
672.56 -239.38 2.59 
672.85 -238.73 2.61 
667.60 -231.80 2.29 
667.95 -231.81 2.32 
673.16 -237.73 2.63 
673.02 -237.40 2.61 
668.54 -231.09 2.36 
668.61 -231.18 2.36 
669.06 -231.20 2.41 
669.19 -231.19 2.42 
670.46 -232.69 2.62 
669.56 -231.21 2.82 
669.77 -231.29 2.85 
670.72 -232.77 2.65 
669.24 -230.41 2.74 
669.36 -230.55 2.76 
669.75 -230.92 2.82 
670.32 -231.18 2.54 
671.08 -232.45 2.68 
670.08 -230.79 2.85 
670.31 -230.98 2.88 
673.04 -234.24 2.98 
674.33 -235.76 3.20 
670.62 -230.70 2.90 
670.81 -230.88 2.93 
673.35 -233.84 3.00 
674.40 -234.93 3.18 
676.58 -237.84 3.07 
676.81 -237.80 3.10 
670.93 -230.61 2.92 
672.09 -231.65 3.12 
672.54 -232.21 2.84 
673.44 -233.72 3.01 
673.95 -233.80 3.08 
674.44 -234.71 3.18 
676.94 -237.83 3.12 
671.26 -230.43 2.95 
671.76 -230.55 3.01 
672.05 -231.32 2.74 
672.28 -231.42 2.95 
672.81 -232.03 2.86 
673.57 -233.18 3.00 
673.75 -233.19 3.03 
671.84 -230.53 3.02 
672.51 -231.36 3.15 
683.97 -240.55 4.14 
683.69 -239.51 4.09 
683.94 -239.70 4.13 
683.34 -237.95 4.02 
683.64 -238.17 4.07 
684.16 -238.85 4.15 
684.34 -238.82 4.18 
684.92 -239.65 4.27 
683.90 -238.02 4.11 
685.34 -239.99 4.34 
684.66 -238.31 4.22 
686.23 -240.48 4.48 
678.97 -230.53 3.66 
684.40 -237.49 4.17 
685.12 -238.15 4.29 
685.48 -238.37 4.35 
684.84 -237.29 4.24 
685.04 -237.27 4.27 
685.47 -237.70 4.34 
686.15 -238.82 4.45 
685.06 -236.61 4.27 
686.85 -238.97 4.56 
685.51 -236.92 4.34 
686.85 -238.49 4.56 
687.19 -238.28 4.61 
686.82 -237.21 4.54 
687.45 -237.89 4.64 
687.29 -237.27 4.62 
666.76 -248.19 2.06 
667.05 -248.35 2.10 
667.49 -247.94 2.14 
668.56 -248.34 2.27 
667.89 -246.04 2.15 
669.56 -245.68 2.34 
670.11 -245.90 2.41 
669.46 -244.18 2.30 
668.61 -237.60 2.61 
671.25 -238.82 2.95 
668.05 -234.52 2.88 
667.69 -233.31 2.77 
671.60 -237.87 2.95 
667.21 -231.44 2.62 
667.69 -232.04 2.69 
667.42 -231.16 2.80 
667.99 -231.77 2.71 
667.68 -231.10 2.64 
668.33 -231.41 2.72 
669.71 -231.38 3.21 
669.87 -231.65 3.06 
670.89 -232.59 3.05 
671.31 -233.46 3.15 
671.45 -232.67 3.11 
670.99 -231.74 3.00 
671.55 -232.68 3.12 
671.67 -232.87 3.15 
675.10 -236.64 3.34 
675.40 -237.06 3.40 
672.69 -233.41 3.30 
673.41 -233.79 3.42 
673.79 -234.54 3.51 
673.93 -234.45 3.53 
675.22 -236.48 3.35 
675.69 -236.91 3.43 
675.99 -236.90 3.47 
671.92 -231.80 3.11 
673.53 -233.80 3.43 
676.11 -236.91 3.49 
672.51 -231.73 3.18 
672.77 -232.00 3.41 
673.05 -232.36 3.28 
673.21 -232.59 3.32 
674.84 -234.65 3.66 
674.24 -232.97 3.47 
674.06 -232.51 3.42 
674.43 -232.89 3.49 
675.31 -233.95 3.68 
684.08 -238.10 4.71 
683.95 -237.20 4.66 
684.27 -237.74 4.73 
678.83 -230.65 4.19 
666.79 -250.52 2.10 
670.60 -244.34 3.10 
667.58 -233.93 3.23 
667.31 -232.76 3.11 
668.30 -234.11 3.31 
667.00 -231.21 2.96 
667.80 -232.40 3.12 
667.20 -230.96 3.14 
667.55 -231.24 3.39 
668.53 -232.42 3.19 
667.81 -231.17 3.40 
670.29 -234.27 3.51 
669.19 -232.19 3.23 
671.06 -234.36 3.60 
671.30 -234.99 3.68 
670.18 -232.43 3.34 
670.53 -233.03 3.43 
670.81 -233.55 3.51 
671.06 -233.71 3.55 
671.49 -234.03 3.62 
668.94 -230.73 3.44 
669.16 -230.77 3.46 
669.87 -231.47 3.60 
669.91 -231.75 3.26 
670.16 -231.88 3.29 
670.35 -232.28 3.35 
670.69 -232.82 3.43 
670.98 -233.32 3.50 
673.89 -236.51 3.65 
669.52 -230.53 3.47 
670.07 -231.52 3.62 
671.90 -233.87 3.66 
672.57 -233.63 3.71 
673.74 -234.95 3.97 
675.36 -237.05 3.88 
675.55 -237.41 3.93 
673.77 -234.86 3.97 
672.19 -232.01 3.90 
676.42 -237.26 4.04 
676.73 -237.34 4.09 
673.82 -233.37 3.85 
674.35 -234.05 3.98 
674.40 -234.17 3.99 
674.87 -234.47 4.08 
676.86 -237.31 4.11 
673.27 -232.01 4.03 
675.15 -234.58 4.13 
675.24 -233.94 4.09 
683.96 -239.53 4.74 
684.19 -239.17 4.77 
684.94 -239.40 4.89 
684.89 -238.63 4.86 
685.57 -239.45 5.00 
678.74 -230.81 4.75 
685.31 -238.61 4.93 
685.56 -238.39 4.96 
685.52 -237.55 4.93 
685.92 -238.23 5.02 
685.88 -237.52 4.99 
686.32 -237.88 5.07 
686.77 -237.91 5.15 
666.54 -248.80 2.83 
667.97 -247.13 2.92 
667.04 -234.51 3.23 
667.31 -234.36 3.24 
666.63 -230.92 3.67 
667.37 -231.43 3.39 
668.05 -231.79 3.48 
668.40 -232.28 3.56 
669.00 -233.45 3.73 
667.92 -231.08 3.76 
668.33 -231.58 3.85 
668.70 -231.49 3.87 
669.43 -232.42 3.66 
669.47 -232.70 3.69 
668.96 -231.33 3.87 
670.48 -233.11 3.84 
671.02 -233.55 3.94 
671.38 -234.15 4.05 
668.95 -230.98 3.82 
669.41 -231.32 3.90 
669.73 -231.38 3.94 
675.90 -239.25 4.10 
671.71 -232.49 3.90 
674.20 -236.08 4.13 
672.05 -232.41 3.93 
672.58 -233.42 4.10 
672.59 -232.35 3.99 
673.11 -233.19 4.14 
673.06 -232.47 4.06 
673.40 -232.55 4.11 
673.61 -232.73 4.15 
666.97 -238.61 3.56 
666.67 -231.20 3.70 
668.16 -232.12 3.91 
670.65 -233.99 4.37 
671.54 -233.18 4.36 
671.78 -233.00 4.36 
672.67 -232.74 4.43 
672.78 -232.87 4.46 
673.24 -233.14 4.55 
673.74 -234.05 4.74 
673.79 -232.39 4.52 
667.29 -235.89 4.33 
666.59 -234.44 4.10 
675.66 -239.64 5.20 
675.80 -239.64 5.22 
675.01 -237.88 4.92 
675.18 -238.09 4.96 
674.20 -235.65 5.02 
674.32 -235.63 5.03 
675.15 -238.72 5.57 
675.37 -239.12 5.65 
678.99 -230.33 2.23 
679.16 -230.28 2.25 
691.16 -236.42 3.51 
691.28 -236.10 3.54 
668.66 -251.86 0.64 
669.03 -251.75 0.69 
668.02 -249.80 0.63 
669.27 -251.63 0.72 
669.40 -251.69 0.74 
668.62 -249.71 0.70 
669.73 -251.20 0.79 
670.05 -251.12 0.83 
670.61 -248.29 0.98 
670.98 -247.82 1.04 
671.61 -245.90 1.18 
671.79 -245.74 1.20 
672.34 -246.16 1.26 
672.07 -245.56 1.24 
673.02 -246.01 1.35 
672.89 -245.05 1.36 
673.06 -245.48 1.37 
673.25 -244.84 1.41 
673.45 -244.59 1.44 
673.66 -245.01 1.46 
675.55 -239.69 1.85 
675.66 -239.21 1.88 
675.92 -239.46 1.90 
676.11 -239.34 1.93 
674.50 -230.55 1.99 
683.57 -239.58 2.86 
685.05 -239.03 3.07 
684.99 -239.29 3.06 
685.36 -239.10 3.11 
678.97 -230.33 2.56 
685.37 -238.55 3.13 
685.92 -239.19 3.18 
666.55 -252.92 0.35 
666.91 -252.59 0.41 
667.18 -252.55 0.44 
667.40 -252.45 0.47 
667.60 -252.73 0.49 
668.12 -252.68 0.55 
673.40 -240.35 2.11 
674.05 -239.70 2.19 
674.36 -239.72 2.23 
674.90 -238.09 2.31 
675.81 -239.24 2.41 
675.11 -238.07 2.33 
675.91 -238.71 2.43 
675.31 -237.63 2.36 
676.43 -238.10 2.50 
676.01 -237.00 2.45 
674.08 -230.23 2.56 
674.22 -230.40 2.58 
678.90 -230.38 2.88 
684.37 -237.25 3.57 
679.02 -230.34 2.90 
684.99 -237.35 3.66 
685.76 -236.63 3.78 
667.05 -251.15 1.28 
667.38 -249.62 1.33 
667.19 -249.20 1.31 
667.74 -248.75 1.38 
667.99 -248.17 1.41 
669.20 -249.83 1.54 
668.35 -248.01 1.45 
668.84 -247.03 1.52 
669.16 -246.98 1.55 
669.32 -247.12 1.57 
669.69 -247.60 1.61 
669.39 -246.94 1.58 
669.61 -246.58 1.61 
670.03 -246.06 1.66 
670.38 -245.65 1.71 
671.17 -246.78 1.80 
670.63 -245.68 1.74 
670.98 -245.70 1.78 
671.54 -244.82 1.85 
671.85 -244.68 1.89 
672.00 -244.99 1.91 
672.20 -244.55 1.93 
672.60 -244.01 1.99 
672.64 -243.80 1.99 
672.33 -242.61 1.96 
672.49 -242.54 1.98 
672.85 -242.13 2.03 
673.01 -241.54 2.05 
673.57 -242.06 2.12 
673.24 -241.58 2.08 
673.74 -240.71 2.15 
674.54 -240.52 2.25 
673.28 -237.62 2.59 
668.99 -231.11 2.34 
669.11 -229.87 2.31 
669.86 -230.51 2.40 
673.79 -234.87 2.60 
675.48 -237.03 2.85 
673.56 -233.99 2.56 
673.67 -234.15 2.58 
673.92 -234.69 2.62 
673.90 -234.82 2.62 
676.32 -237.29 2.97 
672.19 -231.72 2.70 
674.03 -234.28 2.62 
672.60 -231.92 2.76 
674.97 -234.88 2.75 
675.09 -234.99 2.77 
675.58 -235.39 2.84 
675.83 -235.47 2.87 
675.22 -234.50 2.78 
674.09 -230.32 2.88 
674.32 -230.51 2.91 
683.66 -239.92 3.45 
683.66 -239.50 3.45 
683.97 -239.77 3.49 
684.16 -239.84 3.52 
684.56 -240.21 3.57 
684.44 -239.23 3.56 
685.71 -240.90 3.72 
683.97 -238.19 3.51 
684.47 -238.85 3.57 
686.14 -240.92 3.78 
684.84 -238.81 3.62 
685.56 -239.44 3.72 
678.84 -230.45 3.38 
684.83 -237.73 3.63 
686.02 -239.55 3.78 
678.99 -230.40 3.23 
685.72 -238.32 3.75 
686.06 -238.54 3.80 
686.94 -239.72 3.91 
685.98 -237.80 3.80 
686.31 -238.31 3.84 
686.00 -237.46 3.80 
686.48 -237.34 3.87 
687.29 -238.58 3.97 
686.62 -237.05 3.90 
666.61 -241.89 1.90 
666.75 -241.93 1.91 
669.32 -244.08 2.23 
669.64 -243.84 2.26 
670.54 -243.58 2.36 
667.65 -238.13 1.95 
670.95 -241.57 2.38 
671.29 -242.11 2.43 
671.54 -242.33 2.46 
668.26 -237.71 2.01 
670.81 -241.09 2.35 
671.21 -241.53 2.41 
671.69 -242.09 2.47 
671.94 -241.87 2.50 
672.16 -241.30 2.52 
672.30 -241.36 2.53 
669.60 -237.81 2.16 
669.71 -237.88 2.17 
672.55 -240.27 2.54 
669.51 -235.58 2.56 
672.44 -239.33 2.52 
672.90 -239.65 2.58 
673.81 -240.28 2.70 
671.85 -236.30 2.85 
667.58 -230.87 2.55 
668.28 -231.05 2.44 
668.38 -231.13 2.63 
668.78 -230.96 2.66 
670.45 -233.16 2.57 
668.94 -230.79 2.66 
670.86 -232.72 2.59 
669.36 -230.47 2.68 
669.58 -230.71 2.71 
669.84 -230.93 2.75 
670.13 -231.25 2.80 
672.89 -234.42 2.90 
669.91 -230.72 2.75 
670.05 -230.78 2.76 
670.46 -230.87 2.81 
671.78 -232.64 2.69 
670.69 -230.57 2.81 
671.22 -231.68 2.94 
671.73 -231.82 3.00 
671.88 -232.22 3.04 
672.93 -233.22 2.85 
673.27 -233.66 2.91 
673.37 -233.74 2.92 
673.48 -234.26 2.96 
675.38 -236.68 3.30 
671.01 -230.52 2.84 
671.97 -231.52 3.01 
672.47 -232.13 2.75 
673.50 -233.81 2.94 
673.91 -233.98 3.00 
675.45 -235.96 3.28 
671.66 -230.63 2.92 
672.17 -231.30 3.02 
672.65 -231.87 3.11 
672.83 -232.39 3.16 
673.04 -232.48 3.19 
673.72 -233.03 2.94 
675.09 -234.84 3.19 
672.47 -230.98 3.03 
674.07 -233.04 2.98 
674.20 -232.42 3.33 
674.67 -232.96 3.06 
684.04 -240.53 4.10 
683.74 -239.52 4.04 
683.26 -238.38 3.96 
683.96 -239.59 4.07 
683.24 -237.93 3.95 
683.72 -238.22 4.02 
683.83 -238.89 4.05 
684.36 -239.24 4.13 
685.05 -240.18 4.24 
685.44 -240.55 4.31 
683.87 -237.85 4.04 
683.79 -237.99 4.03 
684.19 -237.69 4.09 
685.49 -239.48 4.30 
678.78 -230.55 3.88 
684.31 -237.44 4.10 
685.42 -238.98 4.29 
684.77 -237.27 4.17 
685.44 -238.36 4.28 
685.88 -238.39 4.35 
685.03 -236.66 4.21 
685.04 -237.27 4.21 
686.08 -238.41 4.38 
686.77 -238.95 4.49 
685.36 -236.86 4.26 
686.68 -238.42 4.48 
686.64 -237.43 4.46 
687.19 -238.39 4.55 
686.72 -237.20 4.47 
687.13 -237.26 4.54 
667.40 -250.25 2.11 
666.80 -248.17 2.01 
667.05 -248.28 2.04 
668.44 -247.03 2.18 
669.85 -245.94 2.32 
669.73 -245.37 2.30 
669.22 -241.07 2.74 
669.45 -241.30 2.78 
669.83 -241.16 2.81 
670.04 -241.14 2.84 
670.11 -240.89 2.83 
668.43 -237.50 2.52 
669.76 -238.10 2.69 
667.71 -234.55 2.77 
670.66 -238.02 2.78 
670.91 -238.50 2.83 
671.19 -238.74 2.87 
670.69 -237.99 2.78 
669.96 -235.40 3.04 
666.86 -231.31 2.88 
667.50 -231.89 2.60 
670.09 -235.31 3.05 
667.76 -231.70 2.61 
675.39 -240.93 3.47 
667.26 -230.77 2.87 
668.45 -231.79 3.04 
671.13 -235.41 3.16 
672.89 -237.03 3.00 
672.91 -237.26 3.01 
667.75 -230.43 2.88 
668.65 -231.70 3.05 
668.94 -231.68 3.07 
668.05 -230.46 2.90 
669.29 -231.92 3.12 
669.87 -231.66 3.15 
670.08 -231.91 3.19 
669.65 -231.08 3.08 
670.30 -231.89 3.21 
671.12 -232.35 2.97 
672.70 -234.51 3.28 
671.63 -232.28 3.38 
675.82 -236.95 3.37 
672.08 -232.01 3.41 
672.22 -232.07 3.43 
672.52 -232.37 3.49 
673.57 -233.47 3.32 
672.03 -231.52 3.36 
672.37 -231.60 3.40 
672.71 -231.83 3.46 
673.03 -232.69 3.21 
673.30 -232.69 3.24 
673.68 -233.25 3.32 
674.61 -234.14 3.50 
673.16 -232.14 3.54 
673.32 -232.15 3.56 
673.90 -232.90 3.33 
673.53 -232.13 3.58 
674.18 -232.61 3.34 
673.82 -231.80 3.59 
684.04 -238.89 4.65 
684.25 -238.54 4.67 
684.18 -237.86 4.64 
684.79 -238.56 4.76 
684.90 -238.89 4.79 
678.76 -230.59 4.22 
684.95 -238.27 4.78 
685.52 -238.45 4.88 
684.92 -236.87 4.73 
685.45 -237.48 4.84 
685.71 -237.59 4.88 
686.23 -237.85 4.98 
686.64 -237.88 5.05 
666.94 -245.45 2.67 
668.77 -237.60 3.05 
666.85 -234.31 3.11 
667.22 -233.11 3.05 
668.04 -234.06 3.19 
668.36 -234.31 3.24 
666.79 -230.93 3.21 
667.37 -231.15 3.27 
667.43 -231.33 3.29 
668.30 -231.77 3.39 
667.88 -230.80 3.27 
670.80 -234.33 3.47 
669.70 -232.17 3.55 
671.33 -234.31 3.52 
669.06 -230.55 3.32 
669.94 -231.88 3.54 
670.46 -232.70 3.30 
671.27 -233.28 3.43 
671.52 -233.82 3.50 
674.92 -238.14 3.79 
675.40 -237.72 3.83 
669.60 -230.43 3.35 
675.12 -236.94 3.74 
676.05 -237.19 3.89 
673.99 -234.53 3.85 
674.11 -234.54 3.87 
676.28 -237.19 3.92 
674.34 -234.41 3.89 
672.72 -231.14 3.73 
684.01 -239.81 4.68 
684.61 -239.96 4.78 
678.62 -230.76 4.56 
685.46 -238.86 4.88 
686.43 -238.20 5.02 
666.62 -231.76 3.28 
667.68 -232.17 3.39 
668.06 -232.69 3.47 
671.27 -237.01 3.75 
667.80 -232.09 3.39 
668.84 -232.59 3.52 
668.97 -232.69 3.54 
671.00 -235.40 4.02 
668.10 -230.94 3.65 
668.23 -231.18 3.68 
670.38 -233.44 3.74 
671.03 -234.35 3.91 
668.84 -231.01 3.70 
670.83 -233.42 3.79 
671.58 -234.79 4.01 
670.11 -232.28 3.96 
669.29 -230.30 3.64 
669.51 -230.95 3.74 
670.53 -231.94 3.95 
675.38 -238.23 4.36 
671.69 -232.67 4.16 
671.79 -233.24 3.86 
671.88 -232.00 4.09 
672.98 -233.09 4.36 
672.05 -231.48 4.04 
672.44 -231.60 4.10 
672.96 -232.56 4.29 
673.09 -232.97 4.36 
672.53 -231.59 4.11 
673.33 -232.25 4.29 
673.42 -232.72 4.37 
674.03 -233.20 4.12 
674.22 -233.05 4.13 
678.68 -230.80 4.93 
668.68 -237.48 4.02 
667.45 -233.89 3.97 
669.78 -236.98 4.07 
670.00 -235.98 3.98 
667.82 -232.56 3.83 
668.00 -232.45 3.83 
668.37 -232.77 3.89 
669.28 -233.71 4.08 
670.81 -234.65 4.34 
675.78 -239.50 4.53 
675.01 -238.17 4.81 
675.92 -239.41 4.54 
672.87 -235.22 4.64 
673.83 -235.88 4.40 
674.35 -236.30 4.51 
666.96 -234.89 4.06 
670.99 -238.56 4.37 
670.23 -236.60 4.54 
670.30 -236.51 4.54 
675.47 -239.35 5.00 
674.87 -238.26 4.80 
675.65 -239.07 5.00 
673.90 -235.87 4.85 
674.82 -238.68 5.35 
675.11 -238.51 5.37 
678.93 -230.20 2.12 
691.15 -236.00 3.40 
667.97 -252.15 0.41 
668.23 -252.06 0.44 
668.49 -251.88 0.48 
668.78 -251.69 0.52 
669.10 -251.15 0.58 
669.27 -251.61 0.58 
668.14 -249.71 0.51 
668.45 -249.91 0.54 
669.59 -251.06 0.64 
669.88 -250.63 0.69 
671.52 -245.77 1.04 
671.81 -245.77 1.07 
672.08 -245.66 1.11 
673.10 -244.73 1.26 
685.07 -239.06 2.93 
685.16 -238.88 2.94 
678.85 -230.27 2.42 
685.47 -238.79 2.99 
678.97 -230.22 2.44 
674.34 -241.12 2.07 
674.63 -238.45 2.12 
674.83 -238.69 2.15 
674.99 -238.64 2.16 
675.35 -238.87 2.21 
675.66 -239.02 2.25 
675.79 -239.04 2.26 
674.11 -230.24 2.41 
683.81 -238.48 3.32 
684.14 -238.44 3.36 
684.37 -238.06 3.40 
678.77 -230.30 3.03 
684.86 -237.78 3.47 
678.87 -230.30 3.04 
685.11 -237.58 3.50 
685.11 -237.91 3.50 
685.28 -237.12 3.54 
685.38 -236.66 3.55 
667.08 -248.92 1.15 
667.08 -249.09 1.15 
667.85 -248.51 1.24 
667.88 -248.00 1.25 
668.12 -248.24 1.27 
668.87 -249.09 1.35 
669.03 -249.29 1.37 
668.22 -247.91 1.29 
668.40 -248.00 1.31 
669.22 -249.00 1.39 
668.74 -247.49 1.35 
668.63 -247.91 1.34 
669.00 -247.64 1.38 
669.73 -246.56 1.47 
669.89 -246.86 1.49 
670.51 -247.46 1.56 
670.19 -246.21 1.53 
670.71 -246.86 1.59 
670.40 -245.92 1.56 
670.89 -246.76 1.61 
670.62 -245.81 1.58 
671.11 -245.22 1.65 
671.36 -244.63 1.68 
671.50 -245.16 1.69 
671.85 -245.11 1.74 
671.81 -244.88 1.73 
672.15 -245.00 1.77 
672.14 -244.31 1.78 
672.46 -244.58 1.81 
672.51 -244.24 1.82 
668.02 -237.69 1.84 
672.78 -243.03 1.86 
672.92 -243.09 1.88 
673.78 -243.71 1.98 
673.18 -241.91 1.92 
673.67 -242.27 1.98 
673.44 -241.46 1.95 
673.93 -241.50 2.01 
674.49 -241.23 2.08 
672.82 -238.47 2.39 
673.33 -236.96 2.42 
668.51 -230.90 2.15 
673.38 -236.39 2.42 
673.58 -236.23 2.44 
673.74 -236.28 2.46 
675.70 -238.26 2.73 
673.81 -234.75 2.45 
676.03 -237.25 2.76 
676.15 -237.54 2.78 
675.00 -235.13 2.60 
675.13 -235.41 2.62 
675.25 -235.54 2.63 
676.41 -237.03 2.80 
672.40 -231.77 2.56 
674.58 -234.20 2.53 
674.81 -234.59 2.57 
675.35 -234.95 2.64 
676.60 -236.81 2.83 
673.91 -230.09 2.67 
674.20 -230.41 2.72 
674.42 -230.62 2.76 
684.24 -239.63 3.36 
684.46 -239.50 3.39 
684.81 -239.45 3.44 
685.26 -239.07 3.51 
678.74 -230.35 3.34 
678.84 -230.36 3.35 
685.78 -238.52 3.59 
686.69 -239.72 3.70 
686.90 -237.91 3.75 
669.28 -244.05 2.06 
669.44 -244.20 2.08 
669.68 -243.89 2.11 
667.58 -238.09 1.80 
670.19 -241.66 2.13 
671.58 -242.03 2.29 
671.72 -242.18 2.31 
672.07 -242.30 2.36 
672.23 -242.30 2.38 
672.43 -241.64 2.39 
672.03 -240.59 2.33 
669.04 -235.69 2.36 
672.59 -239.94 2.38 
672.96 -238.94 2.41 
666.84 -231.29 2.37 
667.25 -231.56 2.42 
673.10 -238.87 2.42 
667.55 -231.41 2.43 
667.89 -230.99 2.43 
668.24 -230.84 2.45 
668.54 -230.90 2.48 
671.98 -234.69 2.63 
672.45 -234.91 2.69 
669.19 -229.97 2.48 
672.23 -233.82 2.62 
672.39 -234.40 2.66 
672.70 -234.75 2.71 
669.35 -229.84 2.49 
669.53 -230.16 2.52 
669.79 -230.32 2.55 
670.09 -230.69 2.60 
670.27 -230.94 2.63 
670.51 -231.36 2.68 
670.83 -231.49 2.71 
672.75 -234.07 2.69 
672.97 -234.34 2.73 
670.14 -230.46 2.59 
671.01 -230.93 2.70 
671.21 -231.35 2.74 
671.32 -231.54 2.76 
671.69 -232.14 2.84 
673.54 -234.09 2.78 
674.57 -235.34 2.96 
675.95 -237.09 3.20 
671.19 -230.84 2.71 
671.70 -231.35 2.79 
672.02 -231.71 2.85 
672.30 -231.98 2.89 
672.29 -232.25 2.91 
673.23 -233.38 2.72 
673.35 -233.44 2.74 
674.58 -234.93 2.94 
674.70 -234.97 2.96 
671.93 -231.37 2.82 
672.57 -231.66 2.90 
672.90 -232.10 2.97 
673.31 -232.64 3.05 
673.48 -233.06 3.09 
674.97 -234.87 2.99 
672.69 -231.62 2.91 
673.11 -232.01 2.99 
675.28 -234.77 3.03 
683.54 -240.73 3.83 
683.80 -240.77 3.87 
684.04 -240.90 3.91 
683.87 -239.99 3.87 
682.91 -238.17 3.71 
684.35 -239.82 3.94 
683.25 -237.80 3.76 
683.55 -238.33 3.81 
683.25 -237.08 3.75 
683.94 -238.05 3.86 
683.66 -237.26 3.81 
684.28 -238.18 3.91 
684.51 -238.27 3.95 
685.07 -239.03 4.04 
678.71 -230.42 3.65 
684.26 -237.17 3.90 
684.41 -237.39 3.93 
684.73 -237.68 3.98 
685.63 -239.03 4.12 
684.90 -237.35 4.00 
685.25 -237.65 4.05 
686.28 -239.16 4.22 
685.24 -237.38 4.05 
685.97 -237.95 4.17 
686.24 -238.81 4.21 
686.80 -239.10 4.30 
686.02 -237.46 4.17 
686.48 -238.01 4.24 
686.15 -237.03 4.19 
686.54 -237.36 4.25 
686.02 -236.58 4.16 
686.68 -237.32 4.27 
686.63 -236.33 4.26 
686.56 -236.56 4.25 
666.84 -248.73 1.86 
667.39 -249.13 1.93 
667.36 -248.27 1.91 
667.31 -247.72 1.90 
667.95 -247.76 1.97 
667.78 -246.60 1.94 
668.30 -247.08 2.00 
668.04 -246.39 1.96 
668.58 -246.79 2.03 
669.06 -246.45 2.07 
670.09 -246.39 2.19 
670.44 -245.57 2.22 
670.76 -245.51 2.25 
667.81 -241.51 2.45 
668.14 -241.60 2.48 
669.93 -241.16 2.65 
670.51 -241.85 2.74 
670.01 -240.87 2.65 
670.44 -241.22 2.71 
670.31 -240.52 2.67 
670.34 -240.63 2.68 
670.94 -241.25 2.77 
668.25 -237.45 2.34 
669.39 -237.82 2.47 
669.48 -237.81 2.48 
667.18 -234.24 2.55 
670.42 -237.93 2.58 
667.17 -233.69 2.52 
667.39 -231.91 2.81 
667.01 -230.95 2.72 
667.67 -231.81 2.82 
667.37 -230.82 2.73 
668.02 -231.24 2.80 
668.58 -231.97 2.90 
668.38 -231.43 2.84 
668.04 -230.27 2.73 
669.17 -231.09 2.87 
669.40 -231.14 2.89 
671.27 -233.20 2.86 
674.21 -237.07 3.43 
669.61 -230.89 2.89 
669.90 -231.08 2.93 
670.26 -231.50 2.99 
672.79 -234.52 3.10 
673.91 -235.92 3.32 
674.49 -236.98 3.46 
675.83 -238.36 3.24 
670.57 -231.54 3.02 
670.64 -231.64 3.04 
672.19 -233.43 3.34 
673.03 -234.25 3.12 
674.79 -236.85 3.49 
674.82 -236.86 3.49 
676.17 -237.93 3.26 
673.81 -234.84 3.24 
675.19 -236.49 3.52 
675.75 -237.02 3.62 
676.43 -237.88 3.29 
672.47 -232.33 3.27 
673.06 -233.51 3.44 
673.39 -233.53 3.30 
674.15 -234.80 3.28 
674.29 -234.74 3.29 
675.30 -236.07 3.50 
675.90 -236.51 3.61 
676.69 -237.83 3.33 
671.76 -231.10 3.10 
672.31 -231.83 3.21 
672.71 -232.11 3.28 
672.93 -232.35 3.33 
674.87 -234.79 3.37 
673.30 -232.26 3.36 
674.05 -232.26 3.45 
674.19 -232.89 3.52 
673.68 -231.49 3.34 
683.33 -239.76 4.35 
683.52 -239.39 4.37 
683.89 -239.82 4.44 
683.59 -238.73 4.36 
683.97 -239.26 4.44 
684.66 -239.57 4.55 
683.53 -237.91 4.32 
684.20 -238.72 4.45 
684.60 -239.00 4.53 
684.07 -237.56 4.40 
678.68 -230.47 3.96 
684.07 -237.10 4.38 
685.77 -239.46 4.73 
684.33 -237.08 4.43 
684.69 -237.16 4.49 
685.21 -237.74 4.59 
685.36 -238.07 4.62 
685.68 -238.60 4.69 
685.14 -236.98 4.55 
685.91 -238.01 4.71 
686.15 -238.15 4.75 
686.46 -238.13 4.80 
686.89 -238.09 4.87 
687.11 -237.79 4.90 
667.66 -246.73 2.62 
667.01 -245.17 2.50 
667.99 -246.21 2.64 
668.02 -242.77 2.51 
668.39 -242.80 2.55 
668.97 -243.13 2.62 
669.86 -238.10 3.01 
667.69 -234.22 3.00 
666.79 -232.25 2.79 
667.64 -233.24 2.92 
667.52 -232.77 2.88 
668.13 -233.43 2.97 
668.49 -232.72 3.32 
675.06 -240.61 3.76 
667.55 -230.78 3.08 
668.84 -232.56 3.33 
669.86 -233.09 3.46 
669.50 -232.32 3.35 
670.59 -233.35 3.55 
668.54 -230.42 3.42 
669.09 -230.36 3.28 
673.04 -234.98 3.56 
675.07 -237.24 3.55 
675.50 -237.21 3.60 
670.68 -231.21 3.65 
672.01 -232.83 3.63 
674.60 -235.70 3.81 
675.62 -237.16 3.61 
671.76 -231.88 3.50 
673.37 -233.63 3.49 
673.89 -234.51 3.62 
672.03 -231.47 3.48 
673.65 -233.21 3.84 
673.44 -231.66 3.65 
684.33 -238.31 5.00 
678.58 -230.55 4.27 
684.55 -237.83 5.02 
684.78 -237.81 5.05 
685.29 -237.71 5.14 
667.62 -247.68 2.65 
669.42 -240.87 3.14 
668.07 -233.17 3.34 
666.71 -231.34 3.45 
666.68 -230.72 3.38 
667.64 -231.15 3.46 
668.91 -232.68 3.72 
669.77 -233.42 3.49 
669.99 -233.90 3.55 
670.58 -234.47 3.66 
670.78 -234.36 3.67 
670.96 -234.32 3.68 
668.25 -230.77 3.45 
668.51 -230.70 3.45 
669.70 -232.07 3.69 
670.12 -232.79 3.81 
670.41 -232.95 3.86 
670.78 -233.75 3.61 
671.19 -234.02 3.67 
671.08 -234.26 3.69 
675.42 -239.50 4.24 
671.34 -233.79 3.66 
672.03 -234.24 3.78 
675.22 -238.39 4.12 
675.63 -239.16 4.24 
672.23 -234.47 3.83 
673.10 -235.30 4.01 
673.59 -235.13 4.05 
671.61 -232.11 3.85 
671.79 -232.56 3.93 
672.74 -233.52 4.15 
673.69 -234.96 4.04 
671.87 -231.83 3.84 
672.36 -232.15 3.93 
673.96 -234.45 4.02 
672.64 -232.45 4.00 
673.08 -232.11 4.00 
673.91 -233.30 4.25 
685.19 -238.20 5.14 
685.65 -238.03 5.22 
686.01 -237.75 5.27 
686.13 -237.62 5.28 
666.64 -235.88 3.51 
668.38 -237.61 3.81 
669.03 -236.97 3.79 
669.32 -233.61 3.86 
674.27 -238.23 4.47 
674.99 -238.59 4.60 
674.49 -236.14 4.70 
674.50 -238.14 4.97 
675.41 -239.50 4.76 
675.76 -239.25 4.77 
674.79 -237.69 4.95 
674.93 -237.87 4.99 
678.93 -230.12 1.98 
669.55 -251.35 0.35 
671.64 -245.83 0.80 
678.77 -230.18 2.24 
678.88 -230.14 2.26 
668.44 -237.28 1.23 
674.99 -238.98 1.93 
675.24 -238.98 1.96 
675.36 -239.12 1.97 
673.97 -230.06 2.21 
674.04 -230.18 2.22 
674.12 -230.19 2.23 
683.33 -239.35 2.96 
683.69 -239.25 3.00 
684.26 -239.00 3.08 
684.55 -239.27 3.12 
684.39 -238.55 3.11 
684.69 -239.24 3.14 
684.10 -237.66 3.09 
684.98 -238.89 3.18 
678.73 -230.17 2.52 
684.31 -237.42 3.12 
684.82 -238.06 3.18 
685.36 -238.77 3.23 
678.83 -230.15 2.53 
684.96 -237.69 3.20 
685.03 -237.19 3.22 
685.70 -237.63 3.30 
686.21 -238.10 3.36 
686.13 -237.63 3.36 
686.56 -237.45 3.42 
667.33 -252.50 0.86 
668.03 -251.50 0.95 
667.16 -249.25 0.89 
667.42 -249.12 0.92 
667.73 -249.71 0.95 
667.96 -249.57 0.97 
668.17 -249.79 0.99 
669.26 -251.04 1.09 
667.76 -248.65 0.97 
668.76 -249.06 1.07 
668.54 -247.95 1.06 
669.03 -248.82 1.10 
669.55 -249.61 1.15 
669.43 -247.87 1.16 
669.47 -248.12 1.16 
669.69 -247.45 1.20 
670.38 -247.17 1.28 
670.51 -247.63 1.29 
670.31 -246.38 1.28 
671.58 -245.35 1.44 
671.28 -244.52 1.42 
671.45 -245.16 1.43 
671.75 -245.21 1.46 
672.11 -245.07 1.51 
672.53 -245.32 1.55 
672.51 -244.83 1.55 
673.61 -243.02 1.71 
668.31 -235.78 1.67 
674.18 -239.59 2.31 
674.64 -237.78 2.35 
675.47 -237.79 2.45 
676.17 -238.04 2.53 
675.71 -236.86 2.47 
676.35 -237.80 2.55 
673.26 -233.14 2.50 
674.91 -235.18 2.36 
675.12 -235.49 2.39 
673.35 -233.09 2.50 
674.55 -234.01 2.31 
674.91 -234.86 2.36 
674.68 -234.02 2.32 
673.83 -230.03 2.59 
674.04 -230.24 2.76 
674.23 -230.41 2.52 
683.06 -237.22 3.43 
683.48 -237.51 3.49 
678.68 -230.26 3.08 
678.75 -230.23 3.09 
669.42 -245.35 1.84 
669.66 -245.15 1.86 
669.84 -245.74 1.88 
670.04 -245.26 1.90 
670.41 -245.37 1.94 
670.29 -244.96 1.92 
670.58 -245.34 1.96 
670.75 -245.37 1.98 
671.64 -243.24 2.06 
671.45 -242.16 2.03 
671.81 -242.98 2.07 
671.58 -242.21 2.04 
671.92 -242.37 2.08 
669.71 -237.73 2.28 
669.80 -237.82 2.29 
672.31 -241.21 2.11 
672.52 -241.33 2.14 
672.78 -241.81 2.17 
668.50 -235.82 2.11 
672.87 -240.27 2.17 
667.05 -231.41 2.24 
667.33 -231.67 2.27 
673.87 -239.67 2.28 
667.44 -231.18 2.25 
674.15 -239.66 2.31 
667.29 -230.48 2.22 
668.36 -230.57 2.29 
668.43 -230.61 2.29 
668.82 -230.90 2.33 
669.70 -232.53 2.47 
670.27 -232.45 2.52 
669.00 -229.77 2.30 
669.13 -230.06 2.32 
670.75 -232.34 2.55 
669.13 -229.69 2.30 
669.52 -230.07 2.49 
669.79 -230.42 2.38 
669.97 -230.84 2.42 
671.59 -232.41 2.63 
672.95 -234.42 2.50 
675.95 -237.75 2.95 
669.69 -229.94 2.35 
670.53 -230.64 2.45 
672.55 -233.08 2.76 
672.86 -233.49 2.81 
673.01 -233.56 2.83 
674.40 -235.21 2.69 
676.12 -237.43 2.96 
676.32 -237.62 2.99 
671.23 -230.75 2.51 
672.15 -231.89 2.66 
672.41 -232.05 2.69 
673.16 -233.49 2.84 
674.64 -234.74 2.70 
676.55 -237.61 3.02 
672.07 -231.41 2.62 
672.29 -231.86 2.67 
672.49 -232.04 2.70 
673.39 -232.78 2.83 
674.27 -234.18 2.64 
674.53 -234.59 2.68 
674.91 -234.72 2.73 
675.25 -235.15 2.79 
675.47 -235.25 2.82 
675.66 -235.32 2.84 
674.29 -232.79 2.93 
674.52 -232.74 2.95 
683.88 -241.17 3.56 
683.21 -239.90 3.46 
683.92 -239.99 3.56 
683.33 -238.95 3.48 
683.92 -239.24 3.56 
683.97 -239.70 3.57 
684.60 -239.60 3.66 
683.56 -237.99 3.50 
684.07 -238.11 3.58 
684.56 -238.71 3.65 
685.10 -239.47 3.73 
678.59 -230.33 3.50 
684.58 -237.58 3.65 
685.81 -239.46 3.83 
678.70 -230.31 3.52 
684.72 -237.43 3.67 
685.34 -238.23 3.76 
685.87 -238.87 3.84 
685.71 -237.95 3.81 
685.76 -238.03 3.82 
685.93 -237.60 3.85 
686.15 -237.07 3.88 
686.01 -237.32 3.86 
686.28 -236.90 3.90 
686.73 -237.28 3.96 
666.79 -248.81 1.59 
667.16 -248.05 1.62 
667.39 -248.37 1.65 
667.92 -248.55 1.70 
668.69 -247.84 1.78 
668.02 -246.43 1.70 
668.18 -246.44 1.71 
668.86 -247.22 1.79 
668.74 -246.84 1.77 
668.67 -246.24 1.76 
671.03 -246.89 2.02 
667.89 -241.24 2.21 
667.11 -237.74 2.04 
670.50 -241.90 2.48 
670.69 -241.40 2.48 
670.85 -241.87 2.51 
670.35 -240.69 2.43 
671.17 -241.44 2.53 
668.22 -237.42 2.13 
671.36 -241.28 2.55 
671.70 -240.07 2.55 
666.92 -234.10 2.34 
671.82 -240.14 2.56 
672.00 -239.04 2.55 
666.87 -231.72 2.60 
667.63 -231.49 2.62 
668.25 -231.08 2.63 
668.83 -231.48 2.69 
671.83 -235.01 2.79 
674.53 -237.28 3.20 
668.96 -230.20 2.92 
669.43 -230.78 2.99 
672.55 -234.17 2.82 
674.64 -237.24 3.21 
671.40 -232.43 2.94 
672.66 -234.20 2.83 
671.54 -232.24 2.94 
672.39 -233.20 3.09 
674.13 -235.02 3.03 
674.92 -236.07 3.18 
675.04 -236.16 3.20 
675.49 -236.80 3.29 
675.96 -237.40 3.38 
671.47 -231.42 2.88 
671.83 -231.63 2.92 
675.13 -235.77 3.19 
675.78 -236.77 3.32 
672.01 -231.35 3.22 
672.09 -231.74 3.27 
673.00 -232.25 3.08 
673.12 -232.57 3.12 
673.39 -232.98 3.18 
674.79 -234.85 3.10 
671.74 -230.66 3.13 
673.10 -231.85 3.37 
673.51 -232.84 3.18 
673.33 -231.64 3.37 
683.32 -239.98 4.02 
683.48 -240.02 4.04 
683.43 -239.38 4.02 
682.73 -238.08 3.88 
683.63 -239.47 4.05 
683.87 -239.65 4.09 
683.05 -237.78 3.92 
683.31 -237.97 3.97 
683.60 -238.25 4.02 
684.85 -239.95 4.25 
683.63 -237.67 4.01 
683.65 -237.83 4.01 
683.92 -237.55 4.05 
685.79 -240.30 4.40 
678.58 -230.41 3.94 
684.07 -237.21 4.06 
684.06 -237.50 4.07 
684.83 -238.06 4.20 
685.74 -239.48 4.37 
684.67 -237.11 4.15 
685.72 -238.43 4.35 
686.15 -238.89 4.43 
684.88 -237.20 4.19 
685.93 -238.22 4.38 
686.52 -238.88 4.48 
684.80 -236.51 4.16 
686.49 -238.39 4.47 
686.61 -238.40 4.49 
686.73 -238.15 4.50 
686.46 -237.16 4.44 
687.10 -237.75 4.55 
686.92 -237.14 4.51 
667.86 -246.73 2.36 
668.04 -246.83 2.38 
668.96 -243.70 2.38 
669.06 -243.42 2.38 
669.23 -243.48 2.40 
669.45 -243.29 2.42 
668.86 -240.82 2.82 
669.10 -240.91 2.85 
669.43 -240.88 2.87 
668.21 -237.24 2.58 
669.34 -237.83 2.71 
669.46 -237.91 2.72 
667.62 -234.50 2.81 
670.62 -237.74 2.82 
670.85 -237.67 2.84 
666.99 -232.18 3.00 
667.19 -232.61 2.67 
674.60 -241.30 3.43 
667.23 -231.91 2.98 
667.98 -232.63 3.08 
667.38 -231.37 2.95 
667.97 -232.09 3.03 
671.88 -237.21 3.35 
667.38 -230.78 2.90 
667.79 -231.43 2.97 
668.18 -231.77 3.01 
668.19 -231.14 2.96 
668.86 -231.80 3.05 
670.33 -233.77 3.33 
668.17 -230.52 3.23 
669.96 -232.57 3.19 
670.52 -233.09 3.27 
671.25 -234.36 3.08 
669.61 -231.37 3.05 
669.65 -231.71 3.09 
669.63 -231.26 3.04 
669.92 -231.55 3.09 
670.40 -232.20 3.18 
671.06 -232.80 3.29 
671.65 -233.38 3.39 
672.42 -234.37 3.18 
674.84 -236.80 3.64 
671.96 -232.42 3.32 
675.73 -236.92 3.75 
675.85 -237.05 3.78 
671.88 -231.87 3.26 
672.11 -232.18 3.31 
673.83 -234.45 3.71 
674.22 -234.58 3.39 
676.01 -237.10 3.80 
676.12 -237.18 3.82 
672.73 -232.18 3.69 
675.89 -236.31 3.73 
672.72 -231.77 3.64 
672.98 -232.14 3.39 
683.65 -239.39 4.58 
683.81 -238.90 4.58 
684.05 -238.33 4.60 
683.84 -238.60 4.58 
684.17 -238.99 4.65 
684.02 -237.62 4.56 
684.57 -238.38 4.69 
684.49 -238.55 4.68 
683.61 -237.05 4.47 
684.57 -238.02 4.67 
684.91 -238.38 4.74 
684.42 -237.09 4.60 
685.14 -238.15 4.77 
684.72 -236.74 4.64 
684.77 -236.88 4.65 
684.88 -237.34 4.69 
685.44 -237.45 4.79 
685.47 -237.85 4.81 
685.96 -237.77 4.89 
686.15 -237.93 4.93 
686.44 -237.83 4.98 
667.45 -248.19 2.36 
667.41 -247.62 2.34 
666.74 -231.16 3.25 
669.69 -235.00 3.40 
666.65 -230.41 3.18 
666.69 -230.70 3.21 
666.95 -231.03 3.25 
668.38 -232.46 3.44 
673.74 -238.99 3.68 
666.93 -230.53 3.20 
667.45 -230.77 3.23 
668.06 -231.53 3.33 
668.49 -231.98 3.39 
668.59 -232.38 3.44 
669.38 -233.41 3.59 
669.77 -233.61 3.64 
670.36 -234.25 3.37 
669.12 -232.12 3.43 
669.31 -232.72 3.51 
669.67 -232.90 3.55 
669.64 -233.28 3.59 
670.13 -233.52 3.65 
670.64 -234.11 3.76 
670.88 -234.28 3.79 
669.31 -232.13 3.45 
675.43 -239.42 3.91 
669.22 -231.40 3.36 
669.71 -231.68 3.42 
671.92 -234.37 3.89 
674.47 -237.71 3.66 
672.08 -234.26 3.89 
673.56 -235.29 3.77 
673.77 -235.65 3.83 
667.17 -247.30 3.00 
667.06 -247.06 2.98 
667.72 -246.95 3.03 
667.72 -233.61 3.54 
669.20 -234.82 3.75 
669.81 -235.69 3.89 
670.31 -235.24 3.87 
675.05 -239.01 4.32 
674.67 -237.69 4.14 
675.07 -238.25 4.24 
673.92 -236.08 4.30 
674.78 -237.71 4.15 
675.27 -237.96 4.23 
673.72 -235.60 4.21 
674.04 -236.09 4.31 
674.16 -236.18 4.34 
668.74 -237.83 4.07 
669.14 -237.05 4.00 
669.41 -236.63 3.97 
674.51 -238.81 4.71 
674.59 -238.84 4.72 
675.15 -238.86 4.79 
675.49 -239.01 4.85 
675.64 -239.07 4.88 
678.74 -230.00 1.79 
678.67 -230.06 2.03 
678.76 -230.01 2.17 
668.23 -237.17 1.00 
668.46 -237.16 1.02 
675.38 -238.94 1.73 
675.59 -239.06 1.75 
674.05 -230.01 2.00 
683.16 -239.36 2.65 
684.81 -238.08 2.90 
685.28 -238.53 2.95 
678.68 -230.07 2.55 
667.23 -249.07 0.64 
667.67 -249.96 0.67 
669.00 -251.11 0.78 
667.48 -249.01 0.67 
667.65 -249.21 0.68 
668.11 -249.54 0.72 
668.55 -249.11 0.78 
668.82 -249.33 0.80 
669.33 -247.96 0.88 
669.70 -247.78 0.93 
670.27 -246.98 1.00 
670.42 -247.21 1.01 
670.54 -247.49 1.02 
671.10 -245.41 1.12 
671.01 -245.05 1.12 
672.52 -244.66 1.29 
672.71 -244.53 1.32 
672.92 -244.16 1.35 
673.07 -244.21 1.36 
673.27 -244.13 1.39 
673.49 -243.65 1.42 
672.87 -240.10 1.91 
673.88 -240.14 2.02 
674.02 -240.28 2.03 
673.58 -239.38 1.98 
673.81 -239.40 2.00 
674.14 -240.20 2.04 
674.43 -238.27 2.07 
674.33 -237.87 2.06 
674.51 -237.98 2.08 
674.68 -238.16 2.10 
675.07 -238.56 2.14 
675.33 -238.92 2.17 
674.83 -238.07 2.11 
676.11 -237.89 2.26 
675.61 -236.64 2.19 
675.77 -236.86 2.21 
676.22 -237.85 2.27 
675.85 -236.74 2.22 
674.54 -234.25 2.41 
674.38 -233.68 2.38 
674.83 -234.14 2.44 
673.67 -229.81 2.45 
673.83 -229.90 2.22 
674.07 -230.20 2.38 
674.20 -230.36 2.40 
683.77 -238.01 3.24 
678.54 -230.12 3.05 
684.61 -237.55 3.35 
678.63 -230.14 3.06 
678.71 -230.19 3.07 
684.85 -237.64 3.39 
684.68 -236.83 3.36 
685.40 -236.76 3.47 
685.57 -236.69 3.49 
668.95 -246.19 1.52 
669.16 -246.13 1.54 
669.59 -245.21 1.58 
669.85 -244.90 1.61 
670.16 -245.25 1.64 
670.63 -245.35 1.69 
671.07 -244.35 1.73 
671.33 -244.27 1.76 
672.11 -243.32 1.84 
671.78 -242.25 1.80 
671.89 -242.58 1.81 
668.09 -237.33 1.88 
672.58 -241.12 1.88 
672.50 -241.50 1.87 
673.04 -241.86 1.93 
672.72 -241.00 1.89 
675.13 -240.78 2.16 
667.24 -230.30 2.02 
674.86 -238.63 2.57 
673.91 -236.39 2.40 
668.73 -230.08 2.39 
669.15 -230.23 2.41 
669.27 -230.36 2.43 
669.50 -230.11 2.14 
669.84 -230.56 2.47 
672.35 -233.71 2.51 
