# .PCD v0.7 - Point Cloud Data file format
VERSION 0.7
FIELDS x y z
SIZE 4 4 4
TYPE F F F
COUNT 1 1 1
WIDTH 1164
HEIGHT 1
VIEWPOINT 0 0 0 1 0 0 0
POINTS 1164
DATA ascii
715.35 -284.43 1.45 
716.29 -284.19 2.62 
715.15 -284.02 1.19 
715.72 -283.85 1.48 
715.54 -283.40 2.62 
714.91 -282.71 2.13 
714.37 -283.26 2.07 
716.18 -284.20 1.66 
714.53 -282.67 1.73 
716.27 -283.23 1.97 
715.60 -282.85 1.24 
714.70 -282.33 1.37 
715.02 -282.86 1.31 
714.74 -281.84 1.74 
697.97 -285.52 -1.94 
716.50 -283.61 1.61 
715.43 -281.91 1.50 
698.35 -285.95 -2.00 
715.17 -282.24 0.91 
716.03 -283.30 1.18 
716.00 -283.02 1.19 
716.51 -283.58 1.44 
716.36 -282.44 2.01 
711.92 -281.69 0.04 
715.16 -281.96 0.84 
715.46 -282.25 0.86 
715.14 -281.96 1.03 
715.28 -282.36 1.03 
716.24 -283.79 1.30 
716.46 -282.93 1.53 
716.34 -283.53 1.17 
714.67 -282.09 1.70 
715.51 -283.12 1.73 
715.38 -282.95 1.09 
715.31 -283.18 1.72 
715.76 -283.94 1.34 
715.34 -282.99 1.83 
715.31 -283.79 1.46 
704.52 -295.22 -2.12 
715.53 -282.77 0.73 
716.13 -281.64 0.52 
716.13 -281.81 0.78 
716.41 -283.71 1.67 
716.50 -283.22 1.69 
716.27 -280.94 0.65 
716.46 -280.72 0.36 
716.50 -280.62 0.57 
715.27 -282.87 0.89 
713.98 -281.96 0.55 
714.23 -280.31 0.28 
712.29 -281.24 0.64 
714.72 -280.39 0.30 
712.70 -281.53 -0.10 
714.77 -280.24 0.37 
715.25 -279.99 0.53 
716.39 -282.34 3.77 
716.16 -282.78 3.68 
715.69 -284.27 3.62 
715.71 -283.73 3.64 
715.96 -282.99 3.69 
715.74 -282.39 3.68 
715.86 -282.13 3.70 
716.34 -282.93 2.73 
714.95 -283.39 3.42 
715.33 -283.58 3.47 
715.63 -283.60 3.51 
715.62 -283.03 3.52 
715.88 -282.96 3.56 
716.29 -283.27 2.64 
716.49 -283.10 2.67 
715.38 -284.13 3.35 
715.57 -283.92 3.38 
715.30 -282.74 3.38 
715.20 -282.12 3.38 
716.02 -283.01 3.48 
716.00 -282.37 3.49 
716.34 -282.01 3.55 
716.31 -282.45 3.53 
716.07 -283.01 2.83 
716.00 -283.47 2.80 
716.48 -283.36 2.87 
715.60 -282.35 3.60 
715.06 -284.16 3.48 
715.30 -283.45 3.53 
715.26 -284.00 3.52 
715.50 -283.28 3.57 
715.87 -282.63 3.64 
715.75 -283.00 2.67 
715.94 -283.54 2.67 
716.34 -283.18 2.74 
714.66 -283.74 3.28 
714.92 -283.79 3.32 
715.20 -283.86 3.36 
715.20 -283.20 3.37 
715.39 -282.48 3.42 
715.73 -282.77 3.46 
715.82 -283.41 2.55 
714.49 -283.73 3.12 
714.95 -284.34 3.17 
714.99 -284.56 3.17 
715.09 -284.07 3.20 
715.12 -283.51 3.21 
715.10 -282.82 3.23 
715.46 -282.63 3.28 
715.63 -282.93 3.30 
715.94 -283.19 3.34 
715.54 -283.85 2.29 
715.49 -283.12 2.32 
715.73 -283.26 2.34 
716.19 -283.45 2.40 
714.55 -284.00 2.89 
714.87 -284.38 2.92 
715.20 -282.65 3.01 
716.00 -282.95 3.12 
715.36 -283.88 2.39 
715.38 -283.19 2.42 
716.10 -283.98 2.49 
715.65 -283.31 2.45 
716.10 -283.37 2.51 
714.42 -283.95 2.96 
714.85 -283.92 3.02 
714.93 -283.45 3.04 
715.11 -283.47 3.07 
716.31 -283.61 3.23 
716.50 -282.98 3.28 
715.20 -284.04 2.42 
715.26 -283.39 2.46 
715.57 -283.40 2.50 
716.07 -284.12 2.54 
716.05 -283.49 2.56 
714.29 -284.14 2.96 
714.65 -284.30 3.01 
714.97 -283.67 3.07 
715.04 -283.35 3.08 
716.21 -283.06 3.26 
715.72 -280.93 1.84 
715.83 -280.37 1.89 
716.13 -280.74 1.91 
716.24 -280.40 1.94 
716.39 -279.98 1.99 
715.18 -283.45 2.24 
715.43 -283.63 2.27 
715.90 -283.85 2.32 
715.99 -283.63 2.34 
714.10 -284.08 2.70 
714.43 -284.27 2.74 
714.79 -284.47 2.79 
714.59 -283.09 2.79 
714.98 -283.13 2.84 
715.30 -283.55 2.88 
715.63 -282.84 2.94 
715.61 -282.70 2.94 
716.16 -283.20 3.01 
716.46 -283.35 3.05 
715.30 -283.99 3.51 
715.09 -284.24 2.03 
715.11 -284.20 2.04 
715.10 -283.53 2.06 
715.36 -283.75 2.09 
715.83 -284.18 2.14 
714.25 -284.38 2.52 
714.33 -283.78 2.54 
714.44 -283.06 2.57 
714.86 -283.62 2.62 
715.23 -284.30 2.66 
715.25 -283.80 2.67 
715.26 -283.09 2.69 
715.98 -283.39 2.79 
716.39 -283.54 2.85 
714.35 -284.88 3.14 
714.91 -284.28 3.23 
714.62 -283.75 3.18 
714.93 -284.41 1.98 
715.04 -284.29 2.01 
715.03 -283.57 2.03 
715.29 -283.79 2.06 
715.78 -283.77 2.13 
714.46 -282.84 2.53 
714.11 -284.38 2.44 
714.28 -284.43 2.47 
714.49 -284.08 2.51 
714.91 -284.85 2.55 
714.84 -283.74 2.56 
715.17 -284.33 2.60 
714.71 -283.29 2.55 
715.20 -283.87 2.61 
715.80 -284.68 2.69 
715.49 -282.98 2.68 
715.98 -283.32 2.74 
716.07 -283.79 2.75 
714.31 -284.84 3.05 
714.30 -284.00 3.05 
714.58 -283.71 3.09 
714.89 -283.73 3.14 
715.67 -284.05 1.50 
715.02 -284.39 1.94 
715.27 -283.88 2.00 
715.73 -284.45 2.04 
715.73 -283.90 2.06 
714.42 -282.98 2.43 
714.70 -283.31 2.46 
715.08 -283.46 2.51 
715.34 -283.86 2.54 
715.18 -283.32 2.53 
715.39 -283.41 2.56 
715.41 -282.88 2.57 
715.74 -283.56 2.61 
715.98 -283.56 2.64 
716.16 -283.86 2.66 
716.46 -283.84 2.71 
714.21 -284.78 2.36 
714.41 -284.94 2.39 
714.64 -285.28 2.41 
714.40 -283.62 2.94 
716.02 -284.25 3.18 
715.51 -283.09 3.10 
715.50 -284.44 1.47 
714.65 -284.85 1.85 
714.82 -284.16 1.91 
715.01 -284.33 1.93 
715.51 -284.93 1.97 
715.47 -284.32 1.99 
714.00 -285.19 2.27 
714.16 -285.38 2.29 
714.07 -283.62 2.31 
714.87 -284.80 2.40 
714.39 -283.80 2.35 
714.47 -283.37 2.37 
714.84 -283.91 2.42 
715.06 -284.20 2.44 
715.17 -283.27 2.48 
715.10 -283.64 2.46 
715.62 -283.99 2.53 
715.87 -283.85 2.57 
716.17 -284.18 2.60 
715.15 -283.53 2.96 
714.06 -284.01 2.80 
714.70 -284.68 2.89 
715.07 -284.72 2.95 
715.40 -284.01 3.00 
715.81 -284.46 3.06 
716.09 -284.32 3.10 
715.53 -283.72 1.32 
714.74 -284.08 1.66 
714.82 -283.39 1.71 
715.46 -284.16 1.76 
715.28 -283.59 1.76 
714.11 -284.03 2.05 
714.20 -283.65 2.07 
714.37 -284.06 2.08 
715.40 -285.08 2.20 
714.48 -283.15 2.12 
714.93 -283.96 2.16 
714.95 -283.18 2.19 
715.27 -282.93 2.24 
715.74 -283.77 2.29 
715.79 -283.27 2.30 
716.11 -283.53 2.34 
716.35 -283.31 2.38 
714.05 -284.43 2.51 
714.06 -283.55 2.51 
714.28 -283.72 2.54 
714.92 -284.33 2.63 
714.14 -282.76 2.52 
714.35 -283.41 2.55 
715.00 -283.92 2.64 
714.61 -283.14 2.59 
715.04 -283.31 2.65 
715.15 -283.67 2.67 
715.21 -282.87 2.68 
715.51 -283.34 2.72 
716.01 -284.07 2.79 
715.99 -283.27 2.79 
716.08 -283.44 2.81 
716.22 -283.12 2.83 
715.21 -284.22 1.23 
715.41 -284.25 1.25 
714.64 -284.60 1.58 
714.69 -283.90 1.62 
714.82 -283.89 1.64 
715.19 -284.12 1.68 
714.64 -285.30 2.03 
714.04 -284.07 1.97 
714.26 -284.39 1.99 
715.37 -285.60 2.12 
714.28 -283.66 2.01 
714.81 -284.38 2.07 
714.59 -283.67 2.06 
714.94 -283.80 2.10 
715.16 -283.42 2.14 
715.50 -284.07 2.18 
715.82 -284.72 2.21 
715.99 -284.00 2.25 
716.20 -283.92 2.28 
713.92 -284.44 2.39 
714.14 -283.69 2.42 
714.46 -284.18 2.47 
714.70 -284.21 2.51 
714.89 -284.50 2.54 
714.56 -283.40 2.49 
715.02 -283.97 2.55 
715.40 -284.45 2.61 
715.13 -283.45 2.57 
715.58 -283.90 2.64 
715.42 -283.54 2.61 
715.33 -284.07 1.22 
714.98 -284.04 1.59 
715.39 -284.35 1.64 
715.36 -283.98 1.65 
714.05 -283.85 1.89 
714.25 -283.71 1.92 
715.15 -285.16 2.01 
715.37 -285.30 2.04 
714.89 -283.79 2.01 
715.16 -283.41 2.05 
715.40 -283.81 2.08 
715.59 -284.28 2.10 
715.74 -284.44 2.12 
716.12 -284.91 2.16 
715.76 -283.72 2.14 
713.87 -284.32 2.27 
715.33 -284.88 2.49 
715.33 -283.73 2.49 
715.65 -283.37 2.53 
715.74 -283.66 2.55 
716.24 -283.69 2.62 
716.25 -283.29 2.62 
714.62 -283.65 1.69 
714.60 -283.71 1.68 
714.93 -284.30 1.71 
715.50 -284.89 1.78 
715.62 -285.09 1.79 
714.77 -283.49 1.71 
715.23 -283.62 1.78 
715.08 -283.89 1.75 
715.86 -284.14 1.85 
716.17 -284.71 1.88 
716.29 -284.98 1.89 
715.66 -283.40 1.84 
715.76 -283.58 1.85 
715.99 -283.97 1.88 
713.93 -284.42 1.95 
714.19 -284.57 1.98 
714.40 -285.11 2.01 
714.42 -283.93 2.02 
714.43 -284.35 2.02 
715.32 -284.55 2.14 
714.68 -283.12 2.06 
714.77 -283.30 2.07 
714.97 -283.52 2.10 
715.29 -283.97 2.14 
715.43 -284.58 2.16 
715.03 -282.97 2.28 
715.49 -283.37 2.17 
715.84 -284.10 2.22 
715.30 -282.89 2.49 
715.55 -283.25 2.18 
715.82 -283.44 2.22 
716.18 -284.28 2.27 
716.13 -283.43 2.26 
716.34 -283.48 2.30 
716.37 -283.17 2.65 
714.20 -283.43 2.34 
714.35 -283.56 2.37 
714.54 -283.87 2.40 
714.72 -283.45 2.42 
714.88 -283.77 2.45 
715.33 -283.62 2.51 
715.44 -283.67 2.52 
715.62 -284.01 2.56 
715.72 -283.52 2.56 
715.97 -283.70 2.60 
716.18 -283.61 2.63 
715.11 -284.25 1.21 
715.68 -283.84 1.32 
714.83 -284.83 1.50 
714.58 -283.98 1.49 
715.35 -284.63 1.58 
715.57 -284.97 1.60 
714.49 -283.31 1.82 
714.73 -283.46 1.53 
715.09 -283.84 1.57 
715.88 -284.82 1.65 
715.77 -285.05 1.63 
714.70 -282.98 1.85 
714.97 -283.31 1.89 
715.49 -283.46 1.63 
715.98 -284.17 1.69 
716.18 -284.80 1.70 
715.27 -282.84 1.93 
715.37 -283.07 1.95 
715.60 -283.36 1.81 
715.84 -283.48 2.01 
715.94 -283.34 2.03 
716.23 -283.47 2.07 
714.05 -284.62 1.75 
714.17 -284.85 1.77 
714.44 -285.06 1.81 
714.79 -284.66 1.86 
714.25 -283.36 2.12 
714.39 -283.94 2.15 
714.59 -283.91 2.00 
715.07 -284.38 2.25 
714.46 -283.05 2.14 
714.71 -283.43 2.18 
714.97 -283.78 2.05 
715.25 -284.09 2.10 
715.68 -284.03 2.33 
715.12 -282.94 2.23 
715.32 -283.03 2.26 
715.61 -283.50 2.14 
715.94 -283.62 2.19 
715.88 -283.23 2.34 
716.19 -283.56 2.23 
716.40 -283.75 2.26 
716.50 -283.32 2.44 
714.79 -284.89 2.40 
714.81 -284.15 2.55 
715.16 -284.16 2.60 
715.41 -284.32 2.64 
715.45 -283.52 2.61 
715.05 -284.10 1.21 
715.13 -284.09 1.23 
715.65 -283.72 1.32 
714.63 -284.29 1.80 
715.21 -284.77 1.54 
714.41 -282.82 1.77 
714.63 -283.11 1.80 
714.80 -283.58 1.59 
714.96 -283.84 1.69 
715.43 -284.58 1.58 
715.88 -284.80 1.64 
714.77 -282.98 1.53 
715.07 -283.27 1.76 
715.45 -283.35 1.61 
715.72 -283.93 1.64 
715.89 -284.22 1.97 
716.09 -284.46 1.84 
715.33 -282.80 1.90 
715.56 -283.08 1.93 
715.71 -283.40 1.89 
716.01 -283.57 2.00 
716.27 -284.06 2.03 
716.45 -284.21 2.06 
716.12 -283.35 2.01 
716.48 -283.59 2.06 
713.95 -283.99 2.03 
714.31 -283.40 2.07 
714.24 -283.04 2.05 
714.56 -283.13 2.09 
714.83 -283.05 2.13 
715.02 -283.17 2.16 
715.32 -283.73 2.21 
715.54 -283.82 2.24 
715.76 -283.31 2.26 
715.79 -283.60 2.27 
716.14 -284.01 2.33 
715.99 -283.32 2.30 
716.24 -283.46 2.34 
716.26 -283.08 2.33 
714.39 -284.95 2.45 
714.65 -284.97 2.48 
714.30 -283.47 2.37 
714.38 -283.69 2.39 
714.74 -284.20 2.46 
714.91 -284.50 2.50 
714.91 -283.60 2.46 
715.16 -284.18 2.52 
715.29 -283.59 2.51 
715.64 -283.87 2.57 
715.50 -284.33 2.57 
715.47 -283.42 2.53 
714.82 -282.60 1.51 
715.32 -283.04 1.57 
715.70 -283.69 1.32 
715.75 -283.33 1.35 
714.20 -284.10 1.68 
714.27 -284.11 1.69 
714.49 -284.38 1.71 
715.05 -284.52 1.48 
714.24 -283.34 1.69 
714.75 -283.46 1.47 
715.36 -284.60 1.83 
714.66 -282.84 1.75 
714.88 -283.32 1.77 
715.01 -283.51 1.51 
715.48 -284.22 1.55 
715.93 -284.50 1.61 
714.82 -282.80 1.77 
715.11 -282.81 1.81 
715.77 -283.51 1.62 
715.98 -284.07 1.92 
716.16 -284.25 1.65 
715.31 -282.39 1.84 
715.57 -282.59 1.87 
715.80 -283.07 1.90 
715.94 -283.39 1.78 
715.66 -282.63 1.88 
716.06 -282.96 1.94 
716.33 -283.14 1.97 
714.32 -283.09 1.98 
714.48 -282.59 2.06 
714.70 -282.96 2.29 
715.21 -283.75 2.10 
715.45 -284.32 2.14 
714.77 -282.53 2.02 
715.18 -282.77 2.08 
715.35 -283.35 2.11 
715.52 -283.48 2.14 
715.10 -282.18 2.06 
715.25 -282.35 2.25 
715.24 -282.67 2.35 
715.47 -283.07 2.39 
715.86 -283.41 2.18 
716.00 -282.77 2.32 
716.14 -283.07 2.35 
716.34 -282.82 2.24 
714.31 -283.13 2.25 
714.48 -283.38 2.28 
714.87 -283.96 2.35 
714.74 -283.23 2.31 
715.04 -283.70 2.50 
715.36 -283.21 2.38 
715.34 -283.68 2.54 
715.70 -283.40 2.44 
716.03 -283.67 2.49 
716.34 -283.79 2.54 
715.45 -282.88 0.96 
714.83 -284.02 1.33 
714.75 -282.43 1.37 
714.86 -282.78 1.38 
715.68 -284.00 1.45 
714.66 -282.09 1.37 
714.69 -282.18 1.37 
715.25 -282.55 1.44 
715.14 -282.79 1.29 
715.63 -283.26 1.22 
715.76 -283.47 1.48 
715.74 -283.80 1.47 
715.47 -282.49 1.47 
715.59 -282.55 1.49 
715.73 -283.02 1.49 
714.34 -283.85 1.55 
714.23 -282.76 1.54 
714.60 -283.44 1.58 
715.08 -283.73 1.64 
715.00 -283.84 1.63 
714.46 -282.12 1.58 
714.51 -282.50 1.58 
714.74 -282.87 1.61 
715.30 -283.57 1.67 
715.40 -284.03 1.68 
714.46 -282.04 1.82 
714.73 -282.23 1.73 
715.11 -282.44 1.66 
715.51 -283.43 1.70 
716.11 -283.90 1.78 
714.94 -281.79 1.87 
714.98 -282.05 1.87 
715.43 -282.29 1.82 
715.66 -282.55 1.85 
715.80 -283.11 1.74 
716.24 -283.91 1.80 
716.36 -283.90 1.81 
715.51 -282.18 1.94 
715.91 -282.43 1.99 
716.11 -282.66 1.90 
713.95 -283.29 1.77 
714.44 -282.96 1.99 
714.21 -281.87 2.02 
714.26 -282.16 2.03 
714.33 -282.49 2.05 
714.72 -282.77 2.10 
714.65 -283.14 2.10 
714.95 -283.39 2.14 
714.35 -281.75 2.03 
714.70 -282.24 1.96 
714.98 -282.65 2.00 
715.26 -282.90 2.08 
715.46 -283.05 2.19 
715.64 -283.38 1.97 
714.83 -281.84 2.08 
715.27 -281.98 2.13 
715.68 -283.10 2.22 
716.08 -283.30 2.03 
715.62 -282.19 2.18 
715.84 -282.62 2.22 
716.10 -282.23 2.24 
716.43 -282.03 2.27 
716.50 -282.27 2.29 
714.39 -283.92 2.24 
714.17 -282.85 2.29 
714.54 -283.73 2.38 
714.34 -282.65 2.30 
714.56 -282.79 2.33 
714.83 -283.29 2.38 
715.10 -283.44 2.42 
715.20 -283.74 2.45 
714.85 -282.55 2.34 
715.22 -282.81 2.40 
715.35 -283.29 2.44 
715.45 -282.55 2.41 
715.58 -282.98 2.45 
715.66 -282.92 0.94 
715.77 -282.83 0.96 
714.96 -282.57 1.32 
715.02 -282.76 1.32 
715.75 -283.83 1.38 
714.82 -282.09 1.31 
714.98 -282.48 1.21 
715.24 -282.65 1.24 
715.91 -283.74 1.40 
715.81 -282.79 1.31 
714.53 -283.44 1.48 
714.45 -282.65 1.48 
715.07 -283.75 1.54 
715.22 -284.25 1.55 
714.54 -282.14 1.50 
714.63 -282.56 1.50 
714.78 -282.80 1.75 
715.28 -283.75 1.57 
715.39 -283.83 1.58 
716.01 -284.32 1.65 
714.81 -282.05 1.75 
715.02 -282.23 1.66 
715.18 -282.79 1.68 
715.81 -283.26 1.64 
716.20 -283.89 1.68 
715.15 -281.89 1.78 
715.31 -282.09 1.70 
715.55 -282.40 1.72 
715.79 -282.60 1.75 
716.04 -283.05 1.67 
716.21 -283.51 1.80 
716.45 -283.84 1.71 
715.57 -281.77 1.83 
715.94 -282.30 1.88 
716.16 -282.50 1.80 
716.29 -282.88 1.81 
716.39 -282.55 1.93 
716.50 -282.69 1.95 
714.28 -284.06 1.97 
713.93 -283.24 1.66 
714.33 -281.84 1.91 
714.31 -282.39 1.92 
714.60 -282.51 1.96 
714.84 -282.78 1.99 
715.55 -283.58 1.84 
714.40 -281.84 1.92 
714.74 -282.15 1.96 
715.16 -282.32 2.00 
715.28 -282.65 2.08 
715.62 -283.46 1.85 
714.94 -281.84 1.97 
715.51 -282.63 2.05 
716.46 -283.52 2.18 
715.72 -282.29 2.27 
716.03 -282.57 2.19 
716.42 -283.39 2.17 
716.21 -282.44 2.22 
714.39 -283.83 2.23 
714.21 -282.68 2.16 
714.37 -283.24 2.20 
714.76 -283.29 2.23 
714.53 -282.61 2.18 
714.91 -282.88 2.23 
714.96 -283.20 2.25 
715.35 -283.37 2.29 
715.24 -282.76 2.25 
715.34 -283.04 2.39 
715.46 -283.47 2.31 
715.64 -283.01 2.30 
716.04 -283.16 2.35 
716.22 -283.26 2.37 
716.36 -283.25 2.39 
697.65 -285.39 -1.98 
715.44 -282.94 0.83 
715.50 -282.61 0.86 
715.82 -282.86 0.90 
715.78 -282.65 0.90 
715.83 -282.66 0.91 
714.89 -282.77 1.21 
715.02 -282.93 1.10 
715.58 -283.49 1.27 
715.83 -283.94 1.29 
714.91 -282.16 1.23 
715.12 -282.40 1.09 
715.30 -282.60 1.16 
715.87 -283.29 1.21 
715.97 -283.55 1.32 
715.33 -282.15 1.28 
715.77 -282.47 1.23 
715.92 -282.83 1.34 
714.48 -282.41 1.39 
714.50 -282.90 1.38 
714.77 -282.96 1.64 
715.17 -283.73 1.44 
714.43 -281.94 1.60 
714.70 -282.23 1.42 
714.84 -282.63 1.54 
715.12 -282.72 1.67 
715.63 -283.69 1.50 
716.00 -284.08 1.54 
714.65 -281.91 1.42 
714.85 -282.03 1.54 
715.22 -282.42 1.57 
715.39 -282.48 1.60 
716.27 -283.71 1.58 
716.13 -283.89 1.56 
715.42 -282.14 1.50 
715.63 -282.45 1.62 
716.05 -282.69 1.56 
716.22 -283.12 1.68 
716.37 -283.44 1.70 
716.44 -283.69 1.71 
715.48 -281.55 1.71 
715.71 -281.96 1.73 
715.88 -282.20 1.65 
716.19 -282.49 1.68 
716.29 -282.04 1.79 
714.02 -283.16 1.56 
714.33 -283.16 1.83 
714.99 -283.73 1.66 
714.47 -282.06 1.82 
714.53 -282.14 1.90 
714.91 -282.51 1.87 
714.58 -281.68 1.82 
714.83 -282.21 1.85 
715.11 -282.56 1.88 
715.20 -282.68 1.90 
715.56 -282.92 1.93 
715.56 -282.46 2.06 
715.75 -282.76 2.16 
716.24 -283.16 2.22 
715.50 -281.71 2.09 
716.05 -282.38 1.97 
716.07 -282.40 2.17 
716.42 -283.04 2.23 
716.34 -282.09 2.08 
714.31 -283.83 2.09 
714.33 -283.50 2.08 
714.37 -283.75 2.09 
714.26 -282.59 2.04 
714.57 -282.61 2.06 
714.92 -282.95 2.27 
715.06 -283.26 2.35 
715.41 -283.36 2.16 
715.32 -282.85 2.34 
715.37 -283.02 2.36 
715.55 -283.36 2.39 
698.18 -285.83 -2.02 
715.48 -282.36 0.74 
715.54 -282.50 0.74 
715.85 -282.45 0.79 
715.04 -282.53 1.09 
715.16 -282.84 0.88 
714.96 -281.75 1.11 
715.08 -282.07 1.01 
715.24 -282.19 0.92 
715.96 -283.17 1.18 
715.74 -282.10 1.19 
715.88 -282.36 1.10 
715.95 -282.60 1.20 
714.56 -283.08 1.47 
714.43 -282.58 1.23 
714.90 -283.52 1.49 
714.56 -281.81 1.42 
714.64 -282.28 1.26 
715.21 -282.59 1.52 
715.34 -283.20 1.43 
716.00 -283.84 1.38 
714.60 -281.26 1.48 
714.75 -281.72 1.39 
714.93 -282.03 1.30 
715.23 -282.26 1.42 
715.55 -282.48 1.56 
715.90 -282.89 1.59 
716.06 -283.12 1.40 
716.23 -283.48 1.41 
715.36 -281.72 1.45 
715.51 -282.11 1.44 
715.74 -282.52 1.57 
715.99 -282.90 1.50 
716.26 -283.06 1.52 
716.48 -283.35 1.54 
716.16 -282.19 1.57 
716.31 -282.49 1.59 
716.39 -282.08 1.82 
714.53 -282.53 1.68 
714.58 -282.55 1.69 
714.68 -282.08 1.79 
714.77 -282.55 1.81 
714.66 -281.38 1.68 
714.70 -281.65 1.79 
714.95 -281.97 1.81 
715.20 -282.23 1.79 
715.39 -282.62 1.85 
715.20 -281.46 1.91 
715.40 -281.59 1.92 
715.70 -282.00 1.95 
715.99 -282.21 1.79 
716.38 -282.35 1.82 
714.59 -283.61 1.94 
715.12 -282.85 2.16 
715.04 -282.32 2.13 
715.18 -282.71 2.15 
715.53 -283.07 2.19 
715.56 -282.31 2.15 
698.31 -286.15 -2.06 
711.72 -281.63 0.01 
711.99 -281.75 0.05 
712.07 -281.80 0.06 
715.65 -282.28 0.69 
715.52 -282.65 0.64 
715.97 -282.58 0.72 
715.04 -282.88 0.99 
715.19 -282.69 0.91 
715.21 -282.09 0.94 
715.29 -282.29 1.04 
716.01 -282.92 1.00 
716.07 -282.55 1.12 
714.52 -283.28 1.37 
714.57 -282.33 1.38 
714.87 -282.84 1.18 
715.68 -283.75 1.24 
714.94 -282.34 1.31 
715.26 -282.77 1.22 
715.82 -283.52 1.26 
716.02 -283.85 1.28 
714.75 -281.61 1.21 
714.86 -281.74 1.32 
715.13 -281.94 1.23 
715.44 -282.30 1.25 
715.97 -283.09 1.49 
716.24 -283.31 1.31 
716.31 -283.50 1.31 
716.03 -282.66 1.30 
716.16 -282.91 1.35 
716.44 -283.09 1.48 
715.12 -283.16 1.85 
714.57 -281.96 1.81 
714.92 -282.37 1.69 
715.13 -282.45 1.63 
714.87 -281.84 1.62 
715.14 -282.13 1.73 
715.41 -282.53 1.85 
715.07 -283.11 2.06 
715.18 -282.67 2.05 
715.56 -283.18 2.08 
715.55 -282.95 2.07 
715.63 -282.97 2.07 
715.44 -282.19 2.04 
715.83 -282.40 2.06 
716.16 -282.69 2.08 
715.08 -282.91 0.86 
715.01 -282.46 0.87 
715.21 -282.75 0.77 
714.99 -282.30 1.09 
716.03 -283.30 1.25 
716.27 -283.30 1.17 
716.39 -283.35 1.18 
714.44 -283.58 1.22 
714.54 -282.43 1.70 
714.70 -282.11 1.63 
714.94 -282.67 1.71 
715.36 -282.80 1.52 
715.57 -283.17 1.73 
715.29 -282.82 1.93 
715.23 -283.14 1.93 
715.23 -282.51 1.92 
715.30 -282.63 1.92 
715.66 -282.97 1.93 
715.31 -282.88 0.87 
714.66 -282.32 1.05 
715.21 -283.00 1.91 
715.05 -283.80 1.46 
714.94 -282.84 1.25 
715.66 -283.93 1.33 
715.28 -283.14 1.57 
714.90 -283.59 1.70 
715.44 -284.05 2.10 
714.64 -282.83 0.96 
715.16 -283.97 1.44 
715.06 -283.54 1.46 
715.01 -282.33 1.51 
714.97 -283.71 1.70 
715.32 -283.72 1.70 
715.08 -282.22 1.77 
715.30 -282.19 0.74 
715.59 -282.76 0.74 
715.80 -282.17 0.79 
715.60 -281.44 0.82 
715.67 -281.67 0.55 
715.52 -281.85 0.99 
715.65 -281.98 0.99 
715.89 -282.77 0.98 
715.65 -281.68 1.01 
715.07 -283.11 1.47 
715.61 -282.81 1.51 
715.82 -283.04 1.50 
715.94 -283.33 1.22 
715.77 -282.27 1.24 
715.74 -282.61 1.51 
715.96 -282.97 1.51 
715.74 -282.05 1.25 
714.99 -283.43 1.45 
716.02 -283.43 1.73 
716.04 -283.28 1.73 
716.12 -282.50 0.54 
716.28 -282.89 0.57 
715.79 -281.47 0.48 
715.94 -281.78 0.49 
716.06 -282.11 0.59 
716.18 -282.40 0.56 
716.42 -282.70 0.57 
716.31 -281.48 0.82 
716.32 -281.61 0.82 
716.34 -281.30 0.84 
715.36 -281.97 0.83 
715.62 -282.24 0.82 
715.59 -281.28 0.76 
715.72 -281.65 0.93 
715.96 -281.93 0.94 
716.43 -282.84 0.98 
716.11 -280.88 1.12 
715.65 -282.94 1.21 
715.58 -283.12 1.19 
715.70 -282.15 1.44 
716.01 -282.67 1.52 
715.73 -281.69 1.20 
716.12 -282.55 1.53 
716.31 -281.52 1.26 
716.24 -281.87 1.49 
716.32 -282.23 1.30 
715.31 -283.33 1.45 
715.87 -283.97 1.64 
715.78 -282.31 1.54 
715.81 -282.40 1.53 
716.49 -283.58 1.68 
715.88 -282.20 1.55 
715.95 -282.33 1.54 
716.19 -282.84 1.69 
716.38 -282.90 0.60 
716.01 -281.33 0.44 
716.11 -281.68 0.43 
716.22 -282.04 0.52 
716.34 -281.51 0.47 
715.81 -282.94 0.61 
715.58 -281.64 0.99 
715.77 -281.08 0.74 
716.26 -282.00 0.82 
716.20 -282.23 0.70 
716.45 -281.67 0.86 
715.90 -283.96 1.32 
715.57 -282.86 1.20 
715.92 -283.00 1.21 
716.21 -283.78 1.35 
716.03 -282.69 1.24 
716.40 -282.93 1.41 
716.10 -281.72 1.32 
716.34 -282.29 1.44 
715.65 -282.81 1.51 
715.97 -283.48 1.63 
716.07 -282.54 1.55 
716.13 -282.11 1.59 
716.31 -282.33 1.57 
716.49 -282.59 1.56 
716.03 -282.96 0.50 
716.39 -282.72 0.56 
715.62 -280.74 0.38 
715.79 -281.22 0.51 
716.05 -281.73 0.43 
716.37 -281.15 0.55 
716.48 -281.11 0.60 
715.84 -282.43 0.63 
716.12 -282.35 0.99 
716.37 -282.68 0.82 
716.36 -282.35 1.01 
715.98 -280.65 0.93 
716.36 -281.29 0.77 
716.35 -281.50 0.75 
716.14 -280.46 0.96 
716.39 -280.57 0.83 
716.43 -280.37 0.85 
716.50 -280.58 0.84 
715.21 -282.50 1.07 
715.38 -282.85 1.11 
715.43 -282.43 1.09 
715.62 -282.66 1.21 
715.91 -282.11 1.31 
715.97 -282.43 1.23 
716.24 -282.31 1.32 
716.34 -281.35 1.41 
716.43 -281.65 1.30 
716.41 -281.15 1.43 
715.51 -282.83 1.36 
716.07 -282.28 1.43 
716.29 -282.21 1.45 
716.23 -281.33 1.50 
715.83 -280.85 0.26 
716.39 -280.68 0.55 
716.50 -280.82 0.46 
715.92 -282.80 0.64 
716.02 -282.10 0.55 
716.29 -282.49 0.54 
716.33 -281.72 0.62 
716.23 -281.11 0.66 
716.27 -281.35 0.64 
716.10 -280.08 0.74 
715.43 -282.63 0.87 
715.46 -282.11 0.85 
715.51 -282.34 0.83 
715.96 -282.95 0.96 
715.64 -281.48 0.92 
715.79 -281.89 0.90 
715.54 -280.85 0.97 
715.62 -281.34 0.93 
715.89 -281.57 0.94 
716.30 -281.89 0.95 
716.11 -280.99 1.02 
716.34 -280.14 1.12 
715.22 -282.29 1.18 
715.38 -282.14 1.20 
715.68 -282.68 1.28 
715.67 -281.63 1.28 
715.75 -281.91 1.25 
716.04 -282.51 1.32 
715.90 -281.43 1.32 
716.20 -281.92 1.32 
716.10 -281.26 1.35 
716.17 -281.50 1.33 
716.41 -280.60 1.44 
716.21 -280.90 0.28 
716.43 -280.38 0.44 
715.59 -282.96 0.56 
715.04 -281.35 0.48 
715.11 -281.71 0.45 
715.61 -281.36 0.55 
715.85 -281.72 0.54 
716.41 -282.51 0.69 
716.07 -281.55 0.58 
715.22 -282.17 0.83 
715.43 -282.63 0.92 
715.44 -282.78 0.91 
715.19 -281.72 0.87 
715.47 -282.00 0.87 
715.69 -282.38 0.97 
715.13 -281.20 0.92 
715.76 -281.79 0.97 
715.88 -282.19 1.00 
715.23 -280.71 0.98 
715.90 -281.29 0.98 
715.94 -281.49 0.96 
716.11 -281.91 1.05 
716.33 -282.23 1.04 
716.36 -281.06 1.15 
716.36 -281.14 1.14 
716.15 -280.58 1.08 
715.54 -282.10 0.54 
715.93 -282.31 0.56 
715.55 -281.44 0.52 
715.95 -281.59 0.56 
716.09 -281.89 0.62 
716.09 -281.11 0.55 
716.14 -281.47 0.59 
716.28 -281.71 0.66 
716.33 -280.91 0.74 
716.50 -281.21 0.66 
715.43 -281.69 0.85 
715.55 -282.13 0.92 
715.67 -281.39 0.90 
715.81 -280.89 0.97 
716.01 -281.21 0.96 
716.02 -281.43 0.93 
715.98 -280.26 1.06 
716.16 -281.00 0.99 
716.37 -280.04 1.12 
715.08 -280.88 0.47 
715.37 -281.28 0.46 
715.94 -280.96 0.57 
716.17 -281.18 0.57 
716.09 -281.42 0.54 
715.72 -280.40 0.60 
715.83 -280.65 0.58 
715.16 -281.30 0.93 
715.58 -282.07 0.55 
715.79 -281.59 0.62 
715.74 -281.83 0.60 
715.55 -281.06 0.99 
715.82 -281.20 0.66 
715.82 -280.56 1.07 
716.08 -280.88 0.72 
716.29 -280.14 0.30 
715.75 -280.83 0.35 
715.86 -280.43 0.40 
716.12 -280.51 0.43 
716.42 -280.50 0.47 
714.54 -281.48 0.52 
714.65 -280.73 0.61 
714.84 -281.16 0.59 
714.85 -280.28 0.68 
715.01 -280.69 0.65 
714.99 -280.97 0.62 
715.34 -280.44 0.72 
715.65 -281.07 0.69 
715.60 -280.37 0.75 
715.95 -280.01 0.83 
716.39 -280.61 0.82 
716.22 -280.00 0.87 
715.51 -280.87 0.20 
715.55 -280.19 0.27 
715.55 -280.81 0.40 
713.86 -281.69 0.56 
714.07 -281.60 0.60 
714.42 -281.21 0.68 
714.10 -280.45 0.72 
714.48 -280.73 0.74 
714.85 -280.98 0.75 
714.95 -280.59 0.80 
715.39 -280.66 0.85 
712.38 -281.14 -0.10 
713.51 -281.12 0.07 
712.30 -281.75 -0.01 
712.33 -281.89 -0.02 
712.98 -281.10 0.17 
713.12 -280.72 0.25 
712.22 -280.97 0.67 
712.50 -280.89 0.71 
712.91 -280.62 0.80 
712.71 -280.22 0.84 
713.05 -280.18 0.89 
712.96 -281.15 -0.01 
712.95 -281.41 -0.04 
713.19 -281.04 0.04 
712.65 -281.12 0.13 
713.31 -281.41 -0.03 
712.69 -281.30 -0.12 
712.69 -281.37 -0.13 
712.79 -281.12 -0.08 
714.53 -280.39 0.27 
712.79 -281.14 -0.04 
714.55 -280.38 0.32 
712.85 -281.18 0.05 
713.94 -280.64 0.28 
713.85 -280.22 0.32 
714.81 -280.35 0.44 
714.86 -280.06 0.49 
713.31 -280.59 0.17 
714.00 -280.37 0.30 
714.96 -280.27 0.45 
712.58 -280.65 0.16 
712.94 -280.37 0.25 
713.83 -280.14 0.41 
713.76 -280.39 0.36 
713.23 -281.08 0.10 
714.42 -280.89 0.30 
714.64 -280.75 0.35 
715.40 -280.27 0.52 
714.20 -280.79 0.30 
714.62 -280.73 0.37 
715.53 -280.34 0.56 
714.03 -279.87 0.57 
713.81 -280.08 0.45 
714.76 -280.02 0.60 
