# .PCD v0.7 - Point Cloud Data file format
VERSION 0.7
FIELDS x y z
SIZE 4 4 4
TYPE F F F
COUNT 1 1 1
WIDTH 2249
HEIGHT 1
VIEWPOINT 0 0 0 1 0 0 0
POINTS 2249
DATA ascii
694.81 -490.09 -2.50 
694.80 -490.39 -2.51 
694.58 -490.90 -2.56 
694.58 -491.19 -2.58 
694.60 -491.49 -2.58 
694.63 -491.94 -2.60 
694.67 -492.54 -2.61 
694.72 -492.99 -2.62 
694.72 -493.27 -2.63 
694.74 -493.56 -2.64 
694.77 -493.96 -2.65 
695.88 -494.80 -2.50 
695.93 -494.87 -2.50 
695.95 -495.21 -2.51 
696.01 -495.68 -2.52 
695.84 -496.45 -1.75 
695.87 -496.84 -1.77 
695.89 -497.20 -1.78 
695.90 -497.46 -1.79 
695.92 -497.72 -1.80 
695.95 -497.97 -1.80 
695.98 -498.32 -1.81 
696.02 -498.88 -1.83 
696.05 -499.38 -1.84 
696.08 -499.75 -1.85 
696.09 -500.10 -1.86 
696.12 -500.24 -1.86 
696.12 -500.57 -1.87 
696.37 -504.20 -1.96 
694.94 -483.48 -1.23 
694.93 -483.80 -1.25 
694.95 -484.17 -1.27 
694.94 -484.47 -1.29 
695.03 -484.77 -1.29 
695.03 -485.24 -1.32 
695.10 -485.82 -1.34 
695.14 -486.35 -1.36 
695.15 -486.69 -1.38 
695.18 -487.04 -1.40 
695.21 -487.37 -1.41 
695.24 -487.86 -1.43 
694.77 -488.67 -1.54 
694.49 -488.80 -1.58 
695.27 -488.34 -1.45 
694.96 -488.73 -1.51 
694.51 -489.22 -1.60 
694.56 -489.48 -1.61 
694.58 -489.79 -1.62 
694.59 -490.07 -1.63 
694.52 -490.36 -1.66 
694.33 -490.57 -1.69 
694.33 -490.87 -1.71 
694.39 -491.48 -1.73 
694.37 -491.77 -1.74 
694.39 -492.06 -1.75 
694.42 -492.37 -1.76 
694.44 -492.67 -1.78 
694.49 -493.11 -1.79 
694.52 -493.54 -1.80 
694.53 -493.82 -1.82 
694.50 -494.04 -1.83 
695.71 -494.82 -1.70 
695.74 -495.26 -1.72 
695.79 -495.79 -1.73 
695.83 -496.19 -1.74 
694.71 -479.94 -1.06 
694.72 -480.34 -1.08 
694.75 -480.75 -1.10 
694.78 -481.15 -1.12 
694.81 -481.57 -1.14 
694.82 -482.28 -1.18 
694.86 -482.78 -1.21 
694.91 -483.11 -1.22 
694.86 -483.37 -1.24 
695.64 -497.16 -1.00 
695.68 -497.21 -0.99 
695.68 -497.52 -1.01 
695.72 -497.73 -1.01 
695.73 -497.98 -1.02 
695.75 -498.24 -1.03 
695.77 -498.61 -1.05 
695.81 -498.99 -1.06 
695.82 -499.24 -1.07 
695.83 -499.59 -1.08 
695.86 -499.74 -1.09 
695.87 -500.08 -1.10 
695.91 -500.58 -1.12 
695.95 -501.08 -1.13 
695.98 -501.43 -1.14 
695.98 -501.63 -1.15 
696.01 -502.34 -1.17 
695.49 -486.53 -0.40 
695.50 -487.02 -0.43 
695.14 -487.44 -0.50 
695.51 -487.35 -0.45 
695.25 -488.13 -0.53 
695.25 -488.43 -0.55 
695.26 -488.75 -0.57 
695.22 -489.03 -0.59 
695.26 -489.36 -0.61 
695.29 -489.67 -0.62 
695.42 -490.04 -0.63 
695.43 -490.63 -0.67 
695.44 -491.07 -0.69 
695.44 -491.50 -0.72 
695.47 -491.80 -0.73 
695.45 -492.13 -0.75 
695.48 -492.37 -0.76 
695.45 -492.58 -0.78 
695.51 -492.91 -0.79 
695.52 -493.20 -0.81 
695.53 -493.48 -0.82 
695.55 -493.76 -0.83 
695.55 -494.02 -0.85 
695.59 -494.31 -0.86 
695.60 -494.60 -0.87 
695.49 -494.83 -0.90 
695.51 -495.10 -0.91 
695.52 -495.36 -0.92 
695.56 -495.76 -0.94 
695.60 -496.30 -0.96 
695.63 -496.84 -0.98 
694.99 -480.33 -0.02 
695.07 -480.74 -0.04 
695.05 -481.11 -0.07 
695.05 -481.45 -0.10 
695.12 -481.58 -0.10 
695.10 -481.90 -0.12 
695.06 -482.23 -0.15 
695.06 -482.56 -0.18 
695.13 -482.69 -0.18 
695.09 -482.95 -0.20 
695.24 -483.31 -0.21 
695.34 -483.91 -0.24 
695.36 -484.27 -0.26 
695.40 -484.64 -0.28 
695.42 -485.01 -0.30 
695.45 -485.34 -0.32 
695.46 -485.85 -0.36 
695.87 -496.06 -0.11 
695.99 -496.36 -0.12 
696.01 -496.62 -0.13 
696.05 -497.01 -0.15 
696.08 -497.54 -0.17 
696.08 -497.99 -0.20 
696.13 -498.37 -0.21 
696.13 -498.62 -0.23 
696.12 -498.87 -0.24 
696.02 -499.21 -0.26 
696.09 -499.71 -0.28 
696.07 -500.07 -0.30 
696.04 -500.27 -0.31 
695.38 -488.30 0.37 
695.36 -488.90 0.32 
695.43 -489.24 0.30 
695.46 -489.56 0.28 
695.52 -490.18 0.24 
695.54 -490.63 0.21 
695.58 -491.23 0.17 
695.02 -491.79 0.08 
695.04 -492.22 0.06 
695.73 -493.25 0.05 
695.73 -493.82 0.01 
695.68 -494.15 -0.01 
695.73 -494.44 -0.02 
695.84 -494.87 -0.04 
695.81 -495.54 -0.08 
695.83 -495.80 -0.10 
694.81 -482.17 0.81 
694.93 -482.31 0.81 
694.92 -482.67 0.78 
694.94 -483.02 0.75 
694.99 -484.14 0.66 
695.09 -484.54 0.64 
695.05 -484.80 0.61 
695.17 -485.62 0.56 
695.21 -485.97 0.53 
694.46 -488.03 0.30 
695.30 -487.33 0.44 
695.34 -487.67 0.41 
694.52 -488.11 0.30 
694.47 -488.34 0.28 
695.35 -487.98 0.39 
695.71 -496.33 0.67 
695.72 -496.59 0.65 
695.74 -496.94 0.63 
695.77 -497.10 0.62 
695.42 -497.50 0.58 
695.79 -497.45 0.60 
695.89 -498.86 0.53 
695.92 -499.24 0.51 
695.94 -499.61 0.49 
695.77 -500.00 0.46 
696.11 -501.88 0.39 
695.31 -502.75 0.30 
696.14 -502.28 0.37 
694.10 -480.72 0.86 
693.91 -481.09 0.81 
694.80 -480.71 0.94 
694.85 -481.88 0.84 
695.22 -490.12 1.10 
695.25 -490.42 1.07 
695.35 -492.14 0.94 
695.40 -492.38 0.93 
695.42 -492.73 0.90 
695.45 -492.96 0.89 
692.08 -497.55 0.36 
695.56 -494.46 0.78 
695.57 -494.71 0.77 
694.81 -494.96 0.70 
694.78 -495.27 0.68 
695.60 -495.01 0.75 
695.63 -495.79 0.70 
695.70 -496.06 0.69 
694.78 -484.82 1.54 
694.75 -485.10 1.51 
694.81 -485.57 1.47 
694.89 -486.54 1.38 
694.91 -486.88 1.35 
694.93 -487.47 1.30 
694.17 -487.83 1.21 
695.00 -487.88 1.27 
695.11 -488.71 1.21 
695.15 -489.19 1.17 
695.13 -489.73 1.12 
692.03 -496.98 0.39 
691.96 -497.24 0.37 
695.47 -497.18 1.41 
695.63 -499.20 1.28 
695.63 -499.55 1.26 
695.65 -499.77 1.25 
695.69 -500.07 1.24 
695.71 -500.42 1.22 
693.66 -480.73 1.85 
694.42 -480.19 1.97 
694.48 -480.62 1.93 
694.10 -480.70 1.89 
693.62 -481.02 1.81 
694.63 -482.23 1.78 
694.55 -482.50 1.74 
694.55 -482.84 1.71 
694.70 -483.01 1.70 
694.65 -483.33 1.67 
694.97 -491.25 1.86 
694.99 -491.52 1.84 
695.02 -491.84 1.81 
695.08 -492.15 1.79 
695.14 -492.45 1.76 
695.10 -492.71 1.74 
695.13 -493.00 1.72 
695.28 -494.68 1.59 
694.48 -495.17 1.51 
694.32 -495.38 1.49 
695.31 -494.96 1.56 
695.29 -495.21 1.54 
695.41 -496.69 1.44 
693.59 -480.61 1.85 
693.91 -487.97 2.11 
694.70 -487.78 2.18 
694.79 -489.08 2.05 
694.80 -489.37 2.03 
694.82 -489.68 2.00 
694.88 -490.01 1.97 
694.93 -491.17 1.87 
695.20 -498.02 2.14 
695.22 -498.40 2.12 
695.24 -498.88 2.09 
695.26 -499.24 2.06 
695.40 -500.74 1.97 
695.43 -501.00 1.95 
695.45 -501.24 1.94 
695.44 -501.43 1.93 
694.32 -482.87 2.68 
694.39 -484.96 2.45 
694.46 -485.05 2.45 
694.48 -485.41 2.41 
693.88 -487.64 2.15 
695.11 -497.00 2.22 
693.94 -479.88 3.00 
692.68 -480.90 2.80 
694.12 -480.48 2.94 
694.70 -491.77 2.67 
694.73 -492.20 2.63 
694.21 -486.01 3.28 
694.25 -487.29 3.13 
694.34 -487.39 3.12 
694.32 -488.00 3.05 
693.79 -481.14 3.87 
693.88 -482.32 3.72 
693.66 -479.89 4.03 
692.80 -480.77 3.87 
693.65 -480.21 3.98 
693.46 -480.47 3.94 
696.32 -494.71 -3.10 
696.32 -494.97 -3.10 
696.36 -495.25 -3.10 
696.38 -495.51 -3.11 
696.39 -495.78 -3.11 
696.42 -496.17 -3.12 
696.41 -496.50 -3.13 
696.46 -496.71 -3.13 
696.45 -497.01 -3.13 
696.50 -497.20 -3.13 
696.53 -497.58 -3.14 
696.49 -497.94 -3.15 
696.48 -498.43 -3.16 
696.52 -498.81 -3.17 
696.65 -499.32 -3.16 
696.62 -499.51 -3.17 
696.66 -499.85 -3.17 
696.94 -504.17 -3.22 
696.97 -504.43 -3.22 
696.97 -504.61 -3.23 
695.70 -485.89 -2.97 
695.75 -486.19 -2.97 
695.76 -486.49 -2.97 
695.77 -486.82 -2.98 
695.76 -487.11 -2.99 
695.82 -487.40 -2.99 
695.13 -488.67 -3.15 
695.49 -488.58 -3.08 
695.10 -488.96 -3.16 
695.13 -489.29 -3.16 
694.96 -491.01 -3.24 
695.01 -491.32 -3.24 
695.00 -491.86 -3.26 
695.04 -492.18 -3.26 
695.04 -492.46 -3.26 
695.06 -492.75 -3.27 
695.09 -493.04 -3.27 
695.08 -493.29 -3.28 
695.13 -493.53 -3.28 
695.12 -493.87 -3.29 
696.14 -494.83 -2.32 
696.20 -495.24 -2.32 
696.20 -495.50 -2.33 
696.23 -495.78 -2.34 
696.24 -496.19 -2.35 
696.26 -496.51 -2.36 
696.28 -496.71 -2.36 
696.29 -497.02 -2.37 
696.34 -497.20 -2.37 
696.46 -499.08 -2.41 
696.54 -500.39 -2.44 
696.58 -500.88 -2.44 
696.58 -501.20 -2.45 
695.10 -479.72 -1.87 
695.17 -480.09 -1.87 
695.12 -480.39 -1.89 
695.20 -480.51 -1.89 
695.18 -480.85 -1.91 
695.22 -481.26 -1.92 
695.21 -481.60 -1.93 
695.31 -482.12 -1.94 
695.34 -482.52 -1.95 
695.42 -484.03 -2.01 
695.46 -484.41 -2.02 
695.48 -484.76 -2.03 
695.51 -485.30 -2.04 
695.55 -485.84 -2.06 
695.58 -486.18 -2.07 
695.59 -486.82 -2.10 
695.59 -487.12 -2.11 
695.63 -487.39 -2.11 
695.25 -488.54 -2.22 
694.94 -488.66 -2.27 
694.98 -488.99 -2.28 
695.00 -489.31 -2.29 
695.02 -489.63 -2.30 
695.04 -489.94 -2.31 
694.77 -490.40 -2.37 
694.77 -490.69 -2.38 
694.77 -490.97 -2.39 
694.81 -491.31 -2.39 
694.82 -491.66 -2.41 
694.86 -491.90 -2.41 
694.84 -492.16 -2.42 
694.87 -492.46 -2.43 
694.90 -492.75 -2.43 
694.90 -493.03 -2.44 
694.94 -493.33 -2.45 
694.95 -493.61 -2.46 
695.99 -495.36 -1.55 
696.01 -495.86 -1.57 
696.05 -496.26 -1.58 
696.06 -496.52 -1.59 
696.08 -496.77 -1.60 
696.11 -497.05 -1.60 
696.14 -497.32 -1.61 
696.16 -497.57 -1.62 
696.18 -497.95 -1.63 
696.21 -498.32 -1.64 
696.48 -502.58 -1.76 
695.12 -482.86 -1.03 
695.15 -483.43 -1.06 
695.19 -484.00 -1.08 
695.21 -484.37 -1.10 
695.25 -484.73 -1.12 
695.26 -485.08 -1.13 
695.28 -485.43 -1.15 
695.32 -485.97 -1.17 
695.37 -486.49 -1.20 
695.38 -486.83 -1.21 
695.41 -487.17 -1.23 
695.44 -487.50 -1.24 
695.43 -487.94 -1.27 
695.48 -488.17 -1.27 
695.01 -488.50 -1.35 
694.73 -488.80 -1.41 
694.78 -489.29 -1.42 
694.79 -489.60 -1.44 
694.82 -489.92 -1.45 
694.48 -490.28 -1.51 
694.52 -490.36 -1.51 
694.52 -490.63 -1.53 
694.53 -490.94 -1.54 
694.54 -491.24 -1.55 
694.58 -491.63 -1.57 
694.61 -491.87 -1.57 
694.62 -492.23 -1.59 
694.67 -492.46 -1.59 
694.65 -492.72 -1.61 
694.72 -493.05 -1.61 
694.72 -493.33 -1.63 
694.77 -493.64 -1.63 
694.72 -493.85 -1.65 
695.94 -494.82 -1.53 
694.87 -479.76 -0.88 
694.91 -480.04 -0.89 
694.91 -480.40 -0.91 
694.93 -480.80 -0.93 
694.98 -481.22 -0.95 
694.96 -481.55 -0.98 
695.07 -482.27 -1.00 
695.74 -495.67 -0.78 
695.79 -495.89 -0.79 
695.82 -496.33 -0.80 
695.87 -496.77 -0.82 
695.89 -497.03 -0.83 
695.91 -497.29 -0.84 
695.93 -497.54 -0.85 
695.95 -497.93 -0.87 
695.99 -498.30 -0.88 
696.02 -499.00 -0.91 
696.06 -499.29 -0.92 
696.06 -499.61 -0.93 
696.14 -500.51 -0.96 
696.12 -500.70 -0.97 
695.65 -485.48 -0.17 
695.62 -485.73 -0.19 
695.65 -486.02 -0.21 
695.65 -486.61 -0.25 
695.30 -486.89 -0.31 
695.22 -487.10 -0.33 
695.37 -487.52 -0.34 
695.72 -487.48 -0.30 
695.38 -488.05 -0.37 
695.40 -488.50 -0.40 
695.45 -488.87 -0.42 
695.47 -489.16 -0.44 
695.50 -489.48 -0.45 
695.59 -489.97 -0.47 
695.61 -490.60 -0.51 
695.62 -491.12 -0.54 
695.65 -491.63 -0.57 
695.68 -491.93 -0.58 
695.67 -492.20 -0.60 
695.70 -492.78 -0.63 
695.74 -493.05 -0.64 
695.77 -493.34 -0.65 
695.82 -493.63 -0.66 
695.71 -493.85 -0.69 
695.66 -494.11 -0.71 
695.68 -494.38 -0.72 
695.70 -494.81 -0.74 
695.70 -495.13 -0.76 
695.75 -495.35 -0.76 
695.17 -479.79 0.18 
695.24 -480.08 0.17 
695.22 -480.43 0.14 
695.27 -480.86 0.12 
695.26 -481.48 0.07 
695.31 -482.07 0.03 
695.32 -482.43 0.01 
695.47 -482.91 -0.01 
695.52 -483.31 -0.03 
695.56 -483.70 -0.06 
695.57 -484.06 -0.08 
695.55 -484.68 -0.13 
695.61 -484.79 -0.13 
695.61 -485.09 -0.15 
695.59 -485.38 -0.17 
696.09 -494.89 0.10 
696.03 -495.12 0.08 
696.13 -495.42 0.08 
696.20 -495.83 0.06 
696.21 -496.21 0.03 
696.22 -496.68 0.01 
696.25 -496.73 0.01 
696.25 -497.07 -0.01 
696.32 -497.61 -0.04 
696.19 -497.94 -0.06 
696.09 -498.25 -0.09 
695.52 -487.75 0.56 
695.56 -488.40 0.51 
695.61 -488.83 0.48 
695.64 -489.08 0.47 
695.68 -489.41 0.45 
695.73 -490.21 0.39 
695.71 -490.55 0.36 
695.20 -490.91 0.29 
695.76 -490.80 0.35 
695.25 -491.36 0.26 
695.26 -491.80 0.23 
695.93 -492.41 0.25 
695.93 -492.68 0.23 
695.87 -493.19 0.19 
695.89 -493.47 0.18 
696.01 -493.92 0.16 
696.01 -494.46 0.12 
695.07 -481.63 1.02 
695.06 -481.98 0.99 
695.00 -483.05 0.89 
693.39 -484.73 0.59 
695.23 -483.58 0.87 
695.23 -484.09 0.83 
691.86 -487.49 0.22 
695.33 -485.05 0.76 
695.38 -485.41 0.73 
695.39 -485.75 0.70 
695.46 -486.63 0.64 
694.70 -487.57 0.49 
695.84 -495.11 0.87 
695.88 -495.39 0.86 
695.88 -495.70 0.84 
695.91 -495.91 0.82 
695.89 -496.11 0.81 
696.01 -497.07 0.75 
695.73 -497.35 0.72 
696.06 -497.70 0.72 
696.11 -498.21 0.69 
696.23 -499.90 0.60 
696.22 -500.23 0.58 
696.31 -501.10 0.54 
696.32 -501.33 0.53 
694.10 -480.40 1.03 
694.95 -480.36 1.12 
694.84 -480.66 1.08 
691.52 -483.75 0.48 
695.01 -481.21 1.05 
694.99 -481.51 1.03 
691.65 -484.61 0.42 
695.45 -489.97 1.25 
695.51 -491.17 1.15 
695.57 -491.48 1.13 
695.60 -491.92 1.10 
695.63 -492.34 1.07 
695.74 -493.75 0.97 
695.78 -494.03 0.95 
695.85 -494.86 0.89 
694.92 -484.21 1.74 
695.00 -484.61 1.70 
695.02 -485.13 1.66 
694.81 -485.43 1.61 
695.09 -486.02 1.58 
695.13 -486.37 1.55 
695.26 -487.41 1.46 
695.24 -487.72 1.43 
695.29 -488.06 1.40 
695.32 -488.39 1.38 
695.27 -488.62 1.35 
695.36 -488.72 1.35 
695.60 -495.73 1.63 
695.63 -496.12 1.60 
695.74 -497.15 1.53 
695.77 -497.66 1.49 
695.76 -497.90 1.47 
693.83 -480.40 2.03 
694.63 -480.09 2.13 
694.47 -480.55 2.07 
694.65 -481.38 2.00 
694.73 -481.51 1.99 
694.72 -481.85 1.96 
694.70 -482.19 1.92 
694.74 -482.58 1.88 
691.72 -488.83 1.07 
691.65 -489.05 1.04 
695.18 -490.64 2.04 
695.23 -491.11 2.00 
695.26 -491.40 1.98 
695.34 -492.28 1.90 
695.43 -493.42 1.81 
695.43 -493.68 1.78 
695.46 -493.96 1.76 
695.43 -494.28 1.73 
694.70 -494.71 1.66 
695.46 -494.76 1.70 
695.55 -495.32 1.66 
694.09 -487.42 2.30 
694.04 -487.65 2.27 
694.86 -487.59 2.33 
694.96 -488.28 2.26 
695.02 -488.62 2.23 
694.95 -488.88 2.20 
695.03 -489.23 2.17 
695.06 -489.55 2.14 
695.12 -489.88 2.11 
695.40 -497.34 2.29 
695.41 -497.93 2.25 
695.47 -498.50 2.21 
695.52 -498.85 2.18 
694.52 -482.62 2.85 
694.65 -485.16 2.57 
694.42 -485.28 2.55 
695.15 -494.43 2.53 
694.34 -495.03 2.46 
695.13 -494.65 2.51 
693.37 -480.70 3.00 
693.09 -480.75 2.97 
694.29 -480.17 3.12 
693.53 -480.70 3.01 
694.29 -484.68 3.56 
694.33 -485.01 3.52 
694.38 -485.44 3.47 
694.34 -485.69 3.44 
694.56 -487.19 3.27 
694.10 -482.07 3.89 
694.15 -482.47 3.84 
694.01 -482.73 3.80 
694.15 -483.19 3.74 
693.09 -480.11 4.09 
693.90 -480.39 4.10 
696.50 -494.33 -2.88 
696.52 -494.74 -2.89 
696.56 -495.14 -2.89 
696.59 -495.54 -2.90 
696.62 -496.16 -2.91 
696.66 -496.45 -2.91 
696.67 -496.80 -2.92 
695.94 -485.83 -2.74 
695.97 -486.36 -2.75 
695.99 -486.71 -2.76 
696.00 -487.05 -2.76 
696.03 -487.39 -2.77 
695.30 -488.64 -2.94 
695.14 -490.89 -3.03 
695.19 -491.56 -3.04 
695.23 -492.09 -3.04 
695.26 -492.34 -3.05 
695.26 -492.59 -3.05 
695.29 -493.03 -3.06 
695.34 -493.61 -3.07 
696.42 -495.40 -2.13 
696.43 -495.66 -2.14 
696.41 -495.87 -2.15 
696.47 -495.93 -2.14 
696.62 -498.09 -2.19 
696.64 -498.46 -2.20 
696.63 -498.66 -2.21 
695.34 -479.74 -1.65 
695.36 -480.17 -1.67 
695.41 -480.80 -1.69 
695.47 -481.43 -1.71 
695.48 -481.84 -1.72 
695.45 -482.51 -1.76 
695.76 -485.99 -1.86 
695.79 -486.52 -1.88 
695.83 -487.04 -1.89 
695.85 -487.38 -1.91 
695.30 -488.44 -2.04 
695.14 -488.78 -2.08 
695.16 -489.10 -2.09 
695.15 -489.38 -2.10 
695.20 -489.47 -2.09 
695.23 -489.79 -2.10 
694.95 -490.19 -2.16 
694.94 -490.48 -2.18 
694.93 -490.76 -2.19 
694.99 -491.01 -2.19 
695.02 -491.56 -2.21 
695.05 -492.01 -2.22 
695.08 -492.32 -2.23 
695.10 -492.60 -2.23 
695.15 -493.07 -2.24 
695.18 -493.50 -2.25 
696.13 -494.31 -1.33 
696.13 -494.68 -1.35 
696.40 -497.95 -1.46 
696.41 -498.39 -1.47 
695.28 -482.21 -0.80 
695.30 -482.94 -0.84 
695.32 -483.32 -0.86 
695.30 -483.64 -0.88 
695.37 -483.97 -0.89 
695.39 -484.56 -0.92 
695.46 -484.88 -0.93 
695.41 -485.13 -0.95 
695.49 -485.60 -0.96 
695.54 -485.97 -0.98 
695.57 -486.49 -1.00 
695.61 -487.01 -1.03 
695.64 -487.36 -1.04 
695.65 -487.67 -1.06 
694.94 -488.43 -1.20 
694.92 -488.47 -1.20 
695.67 -488.00 -1.07 
695.22 -488.35 -1.15 
694.92 -488.84 -1.22 
694.96 -489.30 -1.24 
694.97 -489.86 -1.27 
694.73 -490.18 -1.32 
694.74 -490.50 -1.33 
694.71 -490.72 -1.35 
694.78 -490.96 -1.35 
694.82 -491.57 -1.38 
694.87 -492.17 -1.40 
694.88 -492.60 -1.42 
694.92 -492.90 -1.43 
694.93 -493.19 -1.44 
694.96 -493.59 -1.46 
695.12 -480.13 -0.69 
695.15 -480.54 -0.71 
695.19 -480.97 -0.73 
695.21 -481.38 -0.76 
695.25 -481.80 -0.78 
695.88 -494.00 -0.54 
695.88 -494.24 -0.55 
695.87 -494.48 -0.57 
695.92 -494.71 -0.57 
695.91 -495.03 -0.59 
695.97 -495.25 -0.60 
696.15 -497.43 -0.69 
696.14 -497.63 -0.70 
696.19 -498.13 -0.72 
695.81 -484.94 0.05 
695.82 -485.29 0.02 
695.81 -485.63 0.00 
695.85 -485.99 -0.02 
695.88 -486.34 -0.04 
695.86 -486.66 -0.07 
695.53 -486.75 -0.12 
695.49 -487.05 -0.14 
695.63 -487.93 -0.18 
695.61 -488.56 -0.23 
695.74 -489.10 -0.25 
695.70 -489.37 -0.27 
695.73 -489.69 -0.29 
695.81 -490.48 -0.33 
695.81 -491.06 -0.37 
695.84 -491.64 -0.40 
695.89 -492.09 -0.42 
695.98 -492.69 -0.45 
695.81 -492.88 -0.48 
695.83 -493.30 -0.50 
695.85 -493.72 -0.52 
695.42 -479.76 0.39 
695.43 -480.18 0.36 
695.48 -480.63 0.33 
695.45 -480.98 0.30 
695.44 -481.36 0.27 
695.50 -482.14 0.22 
695.64 -482.63 0.20 
695.66 -482.98 0.17 
695.72 -483.10 0.17 
695.70 -483.42 0.15 
695.68 -483.73 0.12 
695.77 -484.22 0.10 
695.80 -484.59 0.07 
696.16 -493.28 0.34 
696.13 -493.67 0.31 
696.18 -493.95 0.30 
696.29 -494.27 0.29 
696.35 -494.81 0.26 
696.35 -495.09 0.24 
696.33 -495.29 0.22 
696.42 -495.61 0.21 
695.76 -487.68 0.73 
695.83 -488.33 0.69 
695.84 -488.66 0.66 
695.96 -489.93 0.57 
695.69 -490.07 0.53 
695.39 -490.33 0.49 
695.42 -490.78 0.46 
696.06 -491.70 0.45 
696.10 -491.99 0.43 
696.11 -492.28 0.41 
696.08 -492.56 0.39 
696.15 -492.85 0.37 
695.28 -481.38 1.23 
695.32 -481.79 1.20 
695.34 -482.56 1.13 
695.28 -482.89 1.09 
695.43 -483.38 1.07 
692.04 -486.86 0.43 
695.38 -484.04 1.00 
695.42 -484.38 0.98 
692.04 -487.33 0.39 
695.50 -484.49 0.97 
695.54 -484.86 0.95 
695.58 -485.24 0.92 
695.27 -485.32 0.88 
694.39 -488.03 0.57 
695.97 -493.68 1.10 
695.99 -494.05 1.08 
695.15 -479.69 1.37 
693.75 -480.85 1.11 
695.16 -480.11 1.34 
695.11 -480.46 1.30 
691.75 -483.81 0.65 
695.22 -480.94 1.26 
691.81 -484.22 0.62 
691.87 -484.63 0.59 
695.52 -487.94 1.57 
695.64 -489.54 1.43 
695.54 -489.94 1.39 
695.70 -490.47 1.35 
695.78 -491.09 1.30 
695.87 -492.54 1.19 
695.92 -493.11 1.15 
695.12 -483.64 1.96 
695.17 -484.03 1.92 
695.19 -484.40 1.89 
695.27 -485.14 1.82 
695.21 -485.45 1.79 
695.32 -485.86 1.75 
695.35 -486.55 1.69 
695.44 -486.94 1.66 
694.67 -487.69 1.53 
694.59 -487.93 1.50 
695.50 -487.62 1.60 
695.72 -494.16 1.86 
695.67 -494.35 1.84 
695.74 -494.58 1.82 
695.83 -495.73 1.73 
694.77 -479.86 2.33 
693.45 -480.76 2.11 
694.85 -480.00 2.32 
694.79 -480.35 2.28 
694.92 -480.85 2.24 
694.92 -481.23 2.20 
694.98 -481.67 2.16 
695.33 -490.06 2.23 
695.49 -491.31 2.11 
695.57 -492.19 2.03 
695.60 -492.62 1.99 
695.63 -493.04 1.95 
695.62 -493.84 1.88 
694.78 -495.05 1.74 
695.15 -488.09 2.42 
695.21 -488.48 2.38 
695.24 -488.80 2.35 
695.19 -491.79 2.89 
695.12 -492.28 2.84 
695.20 -492.59 2.81 
695.25 -492.89 2.78 
693.70 -479.95 3.26 
693.72 -480.36 3.21 
693.64 -480.62 3.18 
694.77 -487.31 3.39 
694.51 -487.46 3.36 
694.58 -484.89 3.68 
694.67 -485.98 3.55 
694.14 -480.11 4.30 
694.24 -480.97 4.19 
694.24 -481.51 4.11 
694.31 -481.80 4.08 
694.35 -482.59 3.97 
696.13 -486.02 -2.48 
696.18 -486.56 -2.49 
696.17 -487.32 -2.51 
696.24 -487.43 -2.50 
695.51 -488.83 -2.67 
695.53 -489.15 -2.68 
695.58 -489.49 -2.68 
695.43 -490.01 -2.72 
695.35 -490.57 -2.75 
696.52 -494.29 -1.85 
696.59 -494.69 -1.86 
695.55 -480.05 -1.40 
695.58 -480.49 -1.42 
695.62 -480.93 -1.43 
695.66 -481.36 -1.45 
695.96 -486.01 -1.60 
696.01 -486.56 -1.62 
696.04 -487.08 -1.64 
696.05 -487.41 -1.65 
696.08 -487.75 -1.66 
695.40 -488.39 -1.79 
695.88 -488.25 -1.71 
695.37 -488.84 -1.82 
695.40 -489.17 -1.83 
695.41 -489.48 -1.84 
695.44 -489.82 -1.85 
695.19 -489.96 -1.89 
695.17 -490.23 -1.91 
695.14 -490.47 -1.92 
695.22 -491.17 -1.94 
695.26 -491.62 -1.95 
696.40 -494.92 -1.12 
695.44 -481.72 -0.52 
695.47 -482.14 -0.54 
695.45 -482.81 -0.59 
695.53 -482.96 -0.58 
695.52 -483.29 -0.61 
695.54 -483.67 -0.63 
695.58 -484.06 -0.64 
695.57 -484.38 -0.66 
695.67 -484.89 -0.68 
695.68 -485.24 -0.70 
695.72 -485.62 -0.72 
695.75 -485.99 -0.73 
695.77 -486.33 -0.75 
695.79 -486.70 -0.77 
695.83 -487.22 -0.79 
695.88 -487.74 -0.81 
695.16 -488.35 -0.95 
695.65 -488.20 -0.87 
695.16 -488.82 -0.97 
695.18 -489.14 -0.99 
695.28 -479.94 -0.44 
695.34 -480.44 -0.46 
695.39 -480.89 -0.48 
695.41 -481.30 -0.50 
696.17 -494.76 -0.35 
696.59 -500.13 -0.59 
696.02 -484.26 0.34 
696.02 -484.61 0.31 
696.05 -485.17 0.27 
696.06 -485.69 0.24 
696.07 -486.37 0.19 
695.71 -486.76 0.12 
696.09 -486.71 0.17 
695.79 -487.15 0.10 
695.79 -487.47 0.08 
695.86 -488.00 0.05 
695.85 -488.62 0.00 
695.90 -489.25 -0.03 
695.90 -489.68 -0.06 
696.03 -490.00 -0.07 
695.99 -490.32 -0.10 
695.98 -490.50 -0.11 
695.63 -480.08 0.61 
695.64 -480.50 0.58 
695.67 -481.32 0.52 
695.67 -481.87 0.47 
695.74 -482.16 0.46 
695.67 -482.41 0.43 
695.83 -482.78 0.42 
695.91 -483.21 0.40 
695.97 -483.86 0.36 
695.85 -485.99 1.09 
694.57 -487.95 0.79 
696.00 -487.43 0.98 
695.99 -487.87 0.94 
696.04 -488.09 0.93 
696.03 -488.37 0.90 
695.59 -489.92 0.73 
696.11 -489.93 0.78 
695.98 -489.89 0.78 
695.63 -490.25 0.71 
695.48 -481.31 1.47 
695.51 -481.73 1.44 
695.63 -482.61 1.37 
695.35 -482.73 1.33 
695.59 -483.28 1.30 
692.24 -486.40 0.69 
695.62 -483.71 1.27 
692.26 -486.75 0.66 
692.26 -487.10 0.63 
695.68 -484.44 1.21 
695.78 -484.91 1.17 
695.36 -485.21 1.10 
695.77 -485.25 1.14 
694.55 -480.04 1.49 
693.93 -480.68 1.36 
695.36 -480.00 1.58 
695.14 -480.37 1.52 
691.98 -483.78 0.88 
692.05 -484.13 0.86 
692.05 -484.43 0.83 
695.73 -487.35 1.84 
695.75 -487.69 1.81 
695.79 -489.22 1.66 
695.88 -489.49 1.64 
695.39 -483.85 2.17 
695.39 -484.38 2.11 
695.45 -485.14 2.04 
695.50 -485.51 2.00 
695.57 -485.91 1.97 
695.64 -486.63 1.90 
694.85 -487.36 1.76 
694.27 -487.86 1.67 
695.62 -486.89 1.88 
694.71 -487.73 1.72 
694.26 -479.95 2.48 
695.02 -479.83 2.57 
694.96 -480.21 2.52 
695.25 -482.05 2.35 
695.32 -482.49 2.30 
695.06 -482.64 2.27 
695.60 -489.56 2.47 
695.57 -489.84 2.44 
691.53 -481.59 2.06 
693.96 -480.26 3.45 
693.61 -480.35 3.41 
694.88 -487.25 3.58 
694.48 -480.91 4.41 
694.52 -481.33 4.35 
694.46 -481.61 4.31 
697.13 -497.55 -2.43 
697.09 -497.81 -2.44 
696.38 -486.38 -2.28 
695.54 -492.69 -1.78 
695.82 -479.97 -1.20 
695.87 -480.43 -1.22 
695.89 -480.87 -1.23 
695.92 -481.31 -1.25 
696.03 -483.70 -1.34 
696.08 -483.81 -1.33 
696.11 -484.21 -1.34 
696.07 -484.48 -1.36 
696.22 -485.75 -1.39 
695.70 -482.41 -0.38 
695.79 -483.30 -0.42 
695.92 -485.21 -0.51 
696.70 -497.63 -0.31 
696.70 -498.54 -0.36 
695.88 -479.72 0.81 
695.99 -480.10 0.80 
695.94 -480.48 0.76 
695.91 -480.85 0.73 
695.94 -481.29 0.70 
695.60 -480.05 1.74 
695.67 -480.76 1.68 
695.78 -481.30 1.64 
694.40 -480.50 1.56 
695.60 -479.80 1.76 
695.44 -480.14 1.71 
695.32 -479.95 2.72 
694.26 -479.72 3.66 
694.17 -479.98 3.62 
699.17 -492.36 -2.06 
699.13 -492.53 -2.07 
699.09 -492.79 -2.08 
699.11 -493.05 -2.08 
698.99 -493.40 -2.10 
714.87 -485.96 1.44 
696.38 -490.25 -1.75 
696.27 -490.44 -1.77 
714.37 -486.30 1.55 
715.42 -487.02 1.71 
713.87 -486.24 2.01 
715.17 -488.16 2.14 
715.01 -495.08 1.92 
714.50 -494.12 2.26 
714.36 -494.16 2.23 
713.59 -494.87 2.03 
715.14 -494.62 2.34 
716.02 -494.70 2.69 
715.04 -495.09 2.29 
714.90 -495.13 2.25 
714.76 -495.84 2.17 
716.21 -496.02 2.61 
715.65 -497.05 2.25 
715.47 -497.32 2.19 
716.37 -497.34 2.36 
715.22 -498.12 2.26 
712.97 -495.59 2.41 
712.66 -495.47 2.36 
712.96 -496.04 2.36 
715.88 -494.71 3.06 
713.41 -496.24 2.42 
713.16 -496.35 2.36 
712.44 -496.69 2.41 
712.17 -496.94 2.34 
715.34 -495.34 2.89 
713.66 -496.53 2.44 
713.28 -496.58 2.36 
712.33 -496.99 2.36 
715.97 -495.83 2.96 
714.97 -496.19 2.73 
716.48 -495.73 3.07 
714.63 -496.74 2.60 
714.06 -497.10 2.46 
715.99 -496.59 2.97 
715.73 -496.81 2.98 
715.13 -497.09 2.67 
714.57 -497.29 2.54 
714.30 -497.53 2.55 
714.00 -497.61 2.58 
716.30 -496.93 2.91 
715.60 -497.07 2.93 
715.37 -497.31 2.69 
715.07 -497.53 2.78 
714.85 -497.61 2.74 
715.81 -497.49 2.76 
715.56 -497.63 2.69 
713.44 -493.71 2.90 
710.95 -495.77 2.26 
716.29 -493.33 3.28 
715.63 -493.30 3.33 
713.39 -495.52 2.70 
713.18 -495.70 2.98 
712.55 -496.32 2.47 
711.93 -496.31 2.36 
712.87 -496.38 2.52 
713.92 -496.19 3.06 
714.30 -496.89 3.05 
716.19 -496.29 3.12 
715.12 -497.39 3.15 
714.67 -492.95 3.62 
713.32 -494.24 3.20 
712.94 -495.00 3.03 
712.45 -495.32 3.00 
712.12 -495.30 2.83 
711.74 -495.63 2.95 
711.37 -495.73 2.88 
712.96 -495.38 3.09 
712.51 -495.48 3.10 
712.89 -496.06 3.09 
712.37 -496.17 2.99 
712.78 -496.22 3.05 
713.72 -494.36 3.84 
713.50 -494.61 3.76 
713.19 -494.81 3.67 
713.22 -495.12 3.63 
712.47 -495.69 3.61 
716.13 -494.22 4.35 
715.35 -495.59 3.98 
716.09 -495.96 4.08 
715.96 -495.79 4.08 
714.19 -495.36 4.35 
715.76 -495.54 4.65 
716.03 -495.80 4.66 
714.36 -493.59 4.70 
714.00 -493.81 4.59 
713.29 -494.02 4.41 
713.27 -494.65 4.29 
713.56 -494.80 4.32 
715.41 -494.49 4.76 
714.68 -494.70 4.57 
715.76 -494.65 4.80 
715.61 -494.63 4.78 
714.83 -495.15 4.52 
714.92 -493.90 5.37 
714.60 -493.93 5.30 
714.34 -494.63 5.10 
713.63 -494.79 4.92 
714.99 -494.80 5.21 
714.48 -494.70 5.12 
713.78 -495.14 4.88 
715.08 -495.12 5.16 
714.14 -493.30 5.33 
697.33 -489.85 -2.02 
697.37 -490.17 -2.02 
697.29 -490.43 -2.04 
715.25 -486.71 1.20 
714.54 -485.80 1.65 
714.93 -486.05 1.71 
714.38 -486.76 1.59 
714.12 -487.12 1.53 
716.22 -486.61 1.92 
716.42 -486.71 1.95 
715.40 -487.39 1.75 
715.24 -487.29 1.72 
715.36 -495.24 1.46 
714.71 -494.75 1.58 
715.49 -495.15 1.70 
713.46 -485.86 2.24 
715.72 -486.36 2.62 
716.12 -486.68 2.67 
714.30 -494.05 1.91 
713.70 -494.47 1.78 
715.01 -494.96 1.99 
714.29 -495.17 2.04 
716.02 -497.63 2.20 
712.30 -493.84 2.16 
714.74 -493.00 2.67 
714.47 -493.32 2.60 
712.54 -494.27 2.17 
714.81 -493.49 2.65 
713.83 -494.13 2.41 
712.92 -494.53 2.21 
714.73 -494.12 2.58 
713.83 -495.39 2.41 
713.50 -495.44 2.44 
715.10 -495.21 2.65 
716.50 -494.94 3.02 
716.38 -494.97 2.90 
716.00 -495.14 2.82 
715.57 -495.21 2.83 
714.52 -496.11 2.38 
716.46 -495.16 2.82 
715.97 -495.50 2.70 
715.83 -495.46 2.68 
716.24 -495.83 2.89 
716.40 -496.46 2.70 
715.59 -496.55 2.72 
715.02 -496.98 2.40 
714.07 -497.73 2.35 
713.19 -497.90 2.19 
713.04 -497.89 2.16 
715.74 -497.17 2.52 
714.90 -497.41 2.34 
714.74 -497.45 2.31 
714.19 -497.85 2.36 
715.96 -497.65 2.52 
715.20 -497.77 2.41 
712.41 -493.28 2.43 
712.27 -493.81 2.37 
713.30 -493.88 2.54 
712.05 -495.38 2.55 
714.68 -494.26 2.75 
713.83 -494.71 2.95 
713.09 -495.28 2.75 
712.79 -495.36 2.69 
712.60 -495.44 2.64 
712.28 -495.61 2.57 
712.76 -496.14 2.60 
712.38 -495.95 2.55 
715.10 -495.33 3.13 
713.34 -496.01 2.72 
713.02 -496.18 2.64 
713.45 -496.28 2.71 
713.15 -496.69 2.71 
714.93 -496.10 3.01 
714.57 -496.29 2.92 
714.34 -496.29 2.88 
713.71 -496.63 2.72 
713.99 -497.07 2.91 
713.83 -497.05 2.76 
713.52 -497.44 2.79 
715.66 -496.47 3.11 
715.46 -496.88 3.19 
714.74 -497.14 2.87 
714.33 -497.34 2.94 
716.24 -496.76 3.20 
715.52 -497.19 3.01 
715.18 -497.23 2.94 
714.70 -497.63 2.98 
715.77 -497.34 3.05 
715.48 -493.08 3.60 
714.72 -493.63 3.23 
710.90 -495.46 2.56 
710.74 -495.63 2.52 
711.71 -495.78 2.66 
711.32 -495.75 2.60 
712.72 -496.10 2.80 
712.25 -496.18 2.71 
712.07 -496.17 2.68 
711.78 -496.33 2.61 
716.09 -494.74 3.38 
715.73 -494.94 3.45 
715.27 -494.92 3.37 
712.87 -496.35 2.79 
712.54 -496.58 2.71 
716.50 -495.17 3.56 
714.10 -496.36 3.01 
714.13 -496.56 2.99 
715.95 -496.41 3.33 
715.53 -497.12 3.56 
713.77 -493.37 3.70 
713.48 -494.04 3.55 
712.88 -495.07 3.31 
712.37 -495.07 3.41 
713.71 -495.08 3.46 
712.42 -495.46 3.37 
713.15 -495.62 3.29 
713.05 -495.67 3.26 
712.69 -496.01 3.34 
713.27 -496.01 3.26 
715.47 -495.54 3.75 
714.27 -495.77 3.48 
714.33 -496.26 3.43 
716.26 -495.47 4.50 
715.87 -495.55 4.41 
715.70 -495.66 4.36 
715.79 -495.98 4.33 
714.06 -492.91 4.44 
712.56 -494.05 4.17 
713.75 -493.95 4.22 
713.32 -493.98 4.14 
712.45 -495.27 3.96 
713.75 -493.23 4.97 
713.37 -493.64 4.82 
714.43 -494.55 4.87 
715.53 -494.32 5.14 
714.77 -494.63 4.93 
714.00 -495.17 4.67 
713.83 -495.15 4.64 
715.27 -494.69 5.02 
715.03 -495.07 4.90 
715.99 -495.38 5.05 
715.84 -495.39 5.02 
713.39 -494.61 5.25 
714.53 -494.51 5.51 
714.27 -494.47 5.46 
714.86 -494.60 5.56 
714.62 -494.98 5.43 
715.06 -494.91 5.54 
714.21 -493.17 5.71 
714.67 -493.81 5.68 
715.75 -486.43 1.43 
715.60 -486.54 1.40 
715.00 -486.95 1.84 
714.66 -494.97 1.73 
714.84 -495.20 1.76 
715.95 -497.16 2.23 
716.26 -497.17 2.28 
715.96 -497.33 2.22 
713.68 -485.60 2.45 
714.03 -486.49 2.47 
716.10 -488.29 2.74 
713.05 -492.37 2.17 
713.93 -493.00 2.08 
712.89 -493.79 1.85 
714.01 -494.48 2.02 
714.33 -494.61 2.07 
715.20 -494.80 2.22 
714.38 -495.27 2.04 
716.48 -494.68 2.65 
715.56 -495.18 2.45 
715.40 -495.14 2.43 
715.89 -496.75 2.43 
715.27 -497.13 2.29 
714.02 -497.51 2.05 
715.87 -497.15 2.40 
715.54 -497.24 2.33 
715.70 -497.41 2.35 
715.06 -492.85 2.94 
712.85 -494.05 2.43 
713.43 -494.49 2.50 
713.06 -494.53 2.43 
712.87 -494.79 2.38 
713.19 -494.72 2.44 
711.42 -495.85 2.24 
715.10 -494.71 2.80 
713.91 -495.25 2.63 
713.65 -495.32 2.67 
714.80 -495.25 2.88 
714.37 -495.72 2.58 
713.27 -496.37 2.33 
714.64 -496.00 2.61 
713.96 -496.09 2.66 
716.16 -495.52 2.94 
715.93 -495.56 3.06 
714.76 -496.37 2.60 
713.52 -496.95 2.33 
713.31 -497.13 2.27 
715.04 -496.47 2.65 
713.89 -497.36 2.36 
716.28 -496.43 2.97 
715.20 -496.98 2.73 
714.57 -497.26 2.68 
715.81 -497.00 2.76 
715.43 -497.21 2.67 
714.99 -497.37 2.57 
714.82 -497.67 2.69 
713.81 -498.01 2.48 
711.94 -493.80 2.49 
713.34 -493.65 2.75 
714.18 -493.82 2.88 
712.81 -494.79 2.56 
712.18 -494.93 2.44 
713.07 -494.97 2.98 
712.90 -495.07 2.94 
712.38 -495.28 2.82 
712.20 -495.19 2.80 
713.20 -495.18 2.99 
712.60 -495.60 2.83 
713.47 -495.62 2.99 
713.31 -495.77 2.95 
712.95 -495.98 2.86 
715.64 -495.08 3.05 
713.63 -495.99 2.99 
713.33 -496.09 2.92 
716.44 -494.83 3.21 
715.81 -495.12 3.07 
714.21 -496.28 3.07 
714.74 -496.07 3.19 
714.80 -496.47 3.16 
714.70 -496.88 3.10 
714.30 -496.90 3.02 
715.27 -497.00 3.20 
714.95 -497.18 3.28 
716.47 -496.67 3.48 
716.04 -497.03 3.35 
715.63 -497.08 3.27 
715.68 -497.45 3.24 
714.28 -493.02 3.42 
714.55 -493.17 3.45 
711.73 -494.94 2.94 
712.42 -495.39 3.01 
712.10 -495.55 2.94 
711.63 -495.50 2.87 
711.96 -495.96 2.88 
713.08 -495.90 3.08 
712.60 -495.90 2.99 
712.30 -496.25 2.91 
712.76 -496.19 2.99 
715.42 -495.21 3.41 
714.51 -496.02 3.32 
714.03 -496.19 3.22 
713.40 -496.46 3.08 
714.95 -496.73 3.33 
716.25 -496.30 3.61 
716.06 -496.59 3.54 
715.88 -496.78 3.49 
714.18 -493.05 4.03 
713.88 -493.09 3.96 
712.96 -494.41 3.80 
714.32 -494.17 3.91 
713.69 -494.74 3.72 
712.58 -495.59 3.58 
714.32 -495.10 3.80 
713.31 -495.63 3.53 
712.92 -495.77 3.62 
713.16 -496.02 3.63 
715.44 -496.17 3.89 
715.06 -496.37 3.79 
714.61 -492.71 4.16 
713.47 -493.35 4.02 
715.27 -495.10 4.59 
714.54 -495.42 4.39 
713.41 -495.97 4.24 
715.94 -495.21 4.71 
716.19 -495.41 4.74 
716.44 -495.64 4.76 
713.26 -493.45 4.42 
713.96 -493.69 4.53 
713.73 -493.89 4.45 
713.54 -493.96 4.40 
715.25 -493.57 4.81 
715.27 -494.29 4.71 
714.82 -494.75 4.54 
715.93 -494.59 4.80 
716.14 -495.24 4.75 
713.71 -494.51 4.97 
714.00 -494.88 4.96 
715.61 -494.11 5.44 
715.65 -494.59 5.37 
714.57 -493.31 6.01 
713.85 -494.21 5.67 
714.64 -494.30 5.82 
714.24 -494.42 5.71 
715.55 -494.29 6.03 
715.22 -494.50 5.91 
714.83 -494.65 5.80 
702.26 -480.07 -0.68 
696.94 -490.55 -1.73 
696.84 -490.77 -1.75 
715.72 -486.35 1.60 
714.66 -485.71 2.02 
714.25 -486.76 1.91 
716.28 -486.07 2.29 
715.44 -486.61 2.13 
715.93 -486.59 2.21 
715.56 -486.72 2.15 
715.27 -494.71 1.83 
714.92 -494.75 1.76 
712.81 -493.77 1.64 
714.42 -494.75 1.88 
713.98 -496.88 2.08 
716.18 -496.00 2.15 
714.41 -497.13 2.14 
714.51 -497.32 2.15 
714.34 -497.32 2.12 
715.32 -497.74 2.27 
715.27 -498.06 2.25 
713.85 -485.76 2.68 
713.90 -486.80 2.63 
716.15 -488.27 2.95 
712.50 -493.50 2.21 
711.80 -493.87 2.06 
711.65 -493.94 2.03 
714.05 -493.29 2.29 
714.43 -493.65 2.34 
713.07 -494.66 2.04 
714.63 -493.90 2.36 
714.06 -494.43 2.42 
713.22 -494.61 2.07 
716.07 -493.87 2.81 
714.22 -494.52 2.45 
715.18 -494.78 2.41 
713.59 -496.33 2.04 
712.99 -496.94 2.10 
712.62 -496.83 2.04 
714.21 -496.51 2.14 
713.78 -496.62 2.05 
713.61 -497.09 2.19 
715.90 -496.21 2.65 
713.01 -497.70 2.05 
715.49 -496.97 2.53 
715.01 -496.98 2.45 
714.29 -497.47 2.29 
713.90 -497.73 2.21 
716.24 -496.83 2.49 
715.93 -496.97 2.43 
714.05 -497.81 2.23 
716.32 -497.23 2.58 
715.90 -497.40 2.58 
713.76 -492.29 2.95 
714.65 -493.52 3.02 
713.41 -494.07 2.74 
713.05 -494.54 2.64 
712.81 -494.43 2.60 
712.02 -495.16 2.40 
711.74 -495.43 2.33 
711.44 -495.50 2.48 
711.29 -495.85 2.42 
711.95 -495.93 2.33 
711.63 -496.02 2.47 
713.90 -495.35 2.73 
713.66 -495.55 2.67 
715.39 -495.01 3.04 
714.97 -495.82 2.90 
714.58 -496.10 2.80 
713.96 -496.07 2.87 
713.72 -496.15 2.82 
713.21 -496.63 2.50 
712.61 -497.00 2.55 
715.87 -495.82 3.23 
715.56 -495.60 3.19 
715.20 -496.17 3.08 
713.42 -496.87 2.52 
716.40 -495.78 3.25 
715.66 -496.14 3.17 
714.49 -496.61 2.92 
715.99 -496.60 3.03 
715.55 -496.89 2.92 
715.25 -496.67 2.88 
714.77 -496.98 2.94 
714.61 -497.04 2.91 
715.80 -497.13 2.95 
715.60 -497.21 2.91 
714.90 -497.32 2.93 
713.98 -491.98 3.01 
715.20 -491.95 3.24 
714.90 -492.24 3.17 
711.87 -493.63 2.70 
714.46 -492.65 3.23 
712.06 -493.94 2.71 
715.88 -492.43 3.33 
715.96 -492.74 3.33 
712.26 -494.75 2.68 
712.11 -494.78 2.65 
715.59 -493.90 3.33 
714.70 -494.26 3.14 
713.19 -495.28 2.79 
715.36 -494.41 3.25 
713.50 -495.53 3.23 
713.31 -495.55 3.19 
713.67 -495.90 3.22 
716.12 -495.23 3.32 
714.21 -496.05 3.31 
714.07 -496.34 3.26 
715.38 -496.02 3.54 
714.62 -496.20 3.38 
715.32 -496.14 3.52 
714.63 -496.83 3.31 
715.43 -496.94 3.46 
715.30 -496.91 3.44 
714.85 -496.95 3.34 
716.01 -496.79 3.59 
715.62 -497.11 3.48 
716.28 -497.01 3.62 
714.67 -492.09 3.81 
713.39 -492.76 3.67 
713.01 -493.67 3.33 
712.31 -493.83 3.37 
714.42 -493.13 3.65 
712.88 -494.70 3.20 
712.33 -494.96 3.16 
713.16 -494.95 3.22 
712.46 -495.08 3.08 
712.03 -495.57 3.14 
711.85 -495.37 3.13 
712.50 -495.35 3.24 
715.06 -494.54 3.63 
712.83 -495.82 3.25 
712.37 -495.94 3.16 
714.69 -495.20 3.49 
713.15 -496.11 3.28 
715.36 -495.45 3.60 
713.33 -496.58 3.26 
713.48 -496.90 3.25 
716.25 -496.06 3.85 
716.07 -496.15 3.80 
714.38 -496.99 3.41 
713.75 -497.00 3.29 
714.76 -497.04 3.47 
714.98 -497.22 3.49 
713.38 -493.30 4.07 
713.50 -493.53 4.07 
713.78 -494.03 4.06 
713.32 -494.69 3.88 
713.61 -495.04 3.90 
712.61 -495.44 3.83 
712.77 -495.66 3.83 
716.07 -495.07 4.39 
716.47 -495.27 4.45 
714.67 -496.25 4.09 
715.98 -495.98 4.26 
715.48 -493.10 4.51 
712.94 -494.70 3.98 
713.46 -493.22 4.74 
713.81 -493.49 4.77 
713.78 -493.52 4.76 
713.00 -493.77 4.73 
713.94 -493.61 4.78 
715.95 -493.86 5.16 
714.86 -494.44 4.85 
713.90 -494.74 4.60 
715.61 -494.41 5.01 
714.96 -494.82 4.81 
715.86 -494.82 5.00 
715.25 -495.09 4.83 
716.23 -494.85 5.07 
713.47 -494.23 5.22 
714.28 -494.15 5.41 
713.98 -494.75 5.24 
715.27 -494.66 5.53 
714.91 -494.63 5.46 
715.86 -494.51 5.68 
715.58 -494.85 5.56 
715.04 -494.83 5.45 
713.99 -493.81 5.40 
714.41 -493.25 6.25 
714.46 -493.30 6.25 
714.19 -493.40 6.17 
714.05 -493.91 6.04 
714.93 -494.25 6.17 
714.51 -494.36 6.05 
715.43 -494.37 6.26 
715.30 -494.27 6.24 
701.58 -479.86 -0.63 
702.46 -479.92 -0.48 
702.18 -479.90 -0.52 
714.68 -485.24 2.22 
714.83 -485.61 2.24 
715.06 -485.61 2.28 
716.49 -485.72 2.53 
714.36 -486.68 2.12 
715.12 -487.54 2.23 
715.44 -493.18 2.10 
715.23 -493.31 2.06 
714.26 -493.78 1.88 
715.49 -495.63 2.03 
715.59 -496.22 2.03 
715.71 -496.64 2.04 
712.55 -493.88 1.78 
713.41 -493.85 1.93 
716.02 -495.78 2.33 
713.89 -496.78 1.92 
716.15 -495.80 2.35 
716.22 -496.51 2.34 
715.44 -497.10 2.18 
715.13 -497.64 2.45 
714.67 -497.56 2.38 
713.97 -485.75 2.90 
714.14 -486.16 2.90 
714.26 -486.60 2.90 
714.01 -486.71 2.85 
712.38 -493.54 2.18 
711.62 -493.80 2.24 
714.50 -493.46 2.57 
713.72 -493.55 2.62 
712.24 -494.60 2.30 
714.67 -493.53 2.59 
714.04 -493.81 2.47 
713.18 -494.53 2.27 
713.00 -494.39 2.24 
715.14 -493.96 2.66 
714.78 -493.87 2.60 
712.91 -495.27 2.38 
715.55 -494.49 2.70 
713.67 -496.20 2.27 
714.21 -496.74 2.33 
713.65 -497.02 2.41 
714.56 -496.71 2.40 
713.79 -497.22 2.42 
716.16 -496.66 2.70 
715.58 -496.78 2.59 
714.61 -497.12 2.39 
714.28 -497.21 2.32 
714.07 -497.39 2.46 
715.00 -497.42 2.63 
714.35 -497.64 2.50 
716.36 -497.10 2.71 
716.13 -497.27 2.75 
715.81 -497.45 2.59 
715.49 -497.60 2.52 
713.58 -493.78 3.01 
712.82 -494.04 2.85 
713.35 -494.16 2.94 
713.17 -494.42 2.89 
712.94 -494.38 2.85 
711.73 -495.27 2.55 
711.97 -495.23 2.60 
711.84 -495.66 2.54 
711.39 -495.81 2.65 
714.49 -494.62 3.12 
711.65 -496.00 2.68 
715.39 -494.45 3.30 
714.15 -495.25 3.00 
713.87 -495.68 2.92 
713.53 -495.97 3.01 
714.57 -495.98 3.11 
714.13 -496.06 3.11 
713.50 -496.55 2.78 
712.71 -496.65 2.81 
716.36 -495.21 3.43 
714.87 -496.01 3.08 
715.18 -496.67 3.09 
714.67 -496.84 3.15 
714.51 -496.90 3.11 
715.88 -496.50 3.40 
715.60 -496.68 3.25 
715.34 -496.70 3.12 
714.97 -496.96 3.19 
715.86 -497.03 3.19 
713.31 -492.03 3.28 
715.56 -492.14 3.51 
713.65 -493.24 3.25 
712.23 -494.37 2.91 
712.00 -494.49 2.86 
716.21 -492.61 3.60 
713.17 -495.51 2.98 
716.13 -495.83 3.49 
714.73 -496.68 3.58 
714.45 -496.85 3.51 
716.44 -496.04 3.54 
715.56 -496.85 3.73 
715.37 -496.89 3.69 
716.01 -496.95 3.81 
715.77 -496.99 3.76 
716.18 -497.09 3.83 
715.53 -492.52 4.16 
713.60 -494.10 3.62 
713.00 -494.50 3.47 
712.40 -494.75 3.50 
711.95 -495.03 3.40 
711.71 -495.12 3.35 
713.27 -494.80 3.49 
712.90 -494.90 3.40 
712.59 -494.90 3.43 
712.35 -495.17 3.27 
715.71 -494.10 4.03 
714.50 -494.49 3.91 
712.89 -495.50 3.51 
712.22 -495.52 3.39 
716.03 -494.31 4.08 
714.08 -495.24 3.60 
713.74 -495.23 3.53 
713.21 -495.77 3.54 
712.74 -495.93 3.44 
713.71 -495.96 3.61 
714.56 -495.90 3.78 
714.35 -495.86 3.59 
714.01 -496.13 3.65 
715.46 -496.02 3.79 
714.97 -495.98 3.70 
714.18 -496.31 3.66 
713.98 -496.75 3.58 
715.20 -497.08 3.77 
714.91 -496.90 3.74 
715.47 -497.09 3.82 
713.20 -492.80 3.85 
713.55 -494.78 4.15 
714.56 -495.83 4.23 
716.12 -495.39 4.61 
714.85 -495.99 4.27 
714.11 -493.07 4.48 
713.55 -493.14 4.44 
713.23 -493.27 4.44 
713.00 -494.58 4.23 
713.83 -493.18 5.07 
713.48 -492.97 5.03 
715.07 -492.85 5.37 
714.63 -492.92 5.27 
714.02 -493.32 5.09 
713.73 -493.46 5.01 
713.31 -493.50 5.05 
714.15 -494.10 5.00 
715.80 -493.69 5.41 
715.87 -494.08 5.36 
714.95 -494.64 5.09 
716.37 -494.47 5.42 
715.93 -494.55 5.31 
716.42 -494.89 5.37 
712.81 -493.19 5.01 
712.96 -493.22 5.03 
714.36 -494.50 5.62 
713.00 -494.22 5.51 
715.18 -493.51 5.97 
714.25 -494.07 5.67 
714.05 -494.09 5.63 
715.54 -493.68 6.02 
715.21 -493.99 5.90 
715.27 -494.46 5.83 
716.10 -494.32 6.04 
714.07 -493.73 6.35 
715.72 -493.91 6.69 
715.50 -494.04 6.61 
715.33 -494.07 6.57 
714.91 -494.15 6.46 
714.57 -493.13 6.58 
714.73 -493.25 6.59 
715.93 -493.92 6.74 
701.68 -479.72 -0.51 
701.29 -479.72 -0.58 
702.56 -479.74 -0.36 
702.12 -479.72 -0.44 
715.94 -485.91 1.97 
696.92 -497.81 -1.51 
714.21 -493.92 2.03 
714.34 -494.38 2.04 
714.18 -495.40 1.98 
716.07 -496.77 2.28 
715.70 -497.38 2.20 
716.16 -485.63 2.63 
712.85 -492.98 2.03 
713.14 -493.88 2.05 
713.44 -494.44 2.09 
714.83 -494.72 2.32 
713.86 -495.46 2.13 
716.39 -495.96 2.57 
715.58 -497.31 2.38 
715.12 -497.20 2.30 
711.85 -493.35 2.47 
713.60 -492.72 2.62 
713.37 -492.92 2.66 
714.62 -492.77 2.81 
714.35 -493.01 2.74 
713.94 -493.20 2.72 
713.68 -493.08 2.81 
715.09 -493.13 2.88 
714.79 -493.11 2.82 
712.38 -494.46 2.50 
713.03 -494.39 2.43 
712.46 -494.84 2.50 
715.17 -493.92 2.85 
712.59 -495.15 2.50 
715.43 -494.08 2.89 
713.25 -495.14 2.43 
712.77 -495.37 2.52 
712.60 -495.47 2.49 
713.44 -495.79 2.43 
714.05 -496.20 2.52 
713.49 -496.61 2.58 
714.25 -496.61 2.54 
714.47 -496.89 2.66 
714.10 -496.99 2.67 
713.82 -497.09 2.62 
715.26 -496.81 2.71 
715.13 -496.75 2.69 
714.73 -497.05 2.60 
716.17 -496.85 2.97 
715.87 -497.08 2.82 
715.70 -497.11 2.96 
715.19 -497.31 2.77 
714.92 -497.28 2.63 
716.45 -497.04 2.93 
715.53 -497.54 2.73 
713.04 -494.06 3.08 
713.35 -494.19 3.13 
713.06 -494.79 3.03 
713.75 -494.81 3.16 
713.53 -495.00 3.10 
715.41 -494.43 3.51 
713.43 -495.48 3.04 
714.33 -495.40 3.22 
713.73 -495.59 3.09 
712.86 -496.39 3.04 
714.98 -495.71 3.33 
713.07 -496.63 3.06 
716.08 -495.84 3.53 
715.05 -496.59 3.43 
714.71 -496.67 3.36 
716.06 -496.32 3.49 
715.60 -496.67 3.45 
715.22 -496.69 3.30 
716.12 -496.68 3.48 
714.91 -491.92 3.60 
715.79 -491.92 3.77 
714.87 -492.81 3.52 
712.64 -494.19 3.18 
712.22 -494.21 3.10 
716.32 -492.49 3.99 
715.25 -493.03 3.58 
712.35 -494.71 3.08 
711.64 -494.95 2.94 
711.31 -495.24 2.86 
712.80 -494.78 3.16 
713.60 -495.50 3.25 
713.31 -495.69 3.18 
713.98 -495.84 3.29 
714.45 -496.07 3.36 
716.26 -496.02 3.71 
715.43 -496.32 3.53 
715.90 -496.52 3.60 
715.55 -492.36 4.39 
715.27 -492.59 4.31 
712.63 -494.47 3.77 
712.25 -494.70 3.67 
712.08 -494.86 3.62 
714.17 -494.31 3.92 
713.31 -494.67 3.87 
713.86 -494.91 3.79 
713.10 -495.12 3.79 
714.27 -494.96 3.87 
713.78 -495.10 3.84 
713.60 -495.20 3.79 
714.61 -495.46 3.96 
715.18 -495.48 4.01 
715.11 -495.68 4.11 
715.69 -495.64 4.09 
715.62 -495.75 4.07 
715.25 -495.73 4.00 
714.76 -496.00 3.94 
714.32 -496.40 3.88 
714.14 -496.51 3.84 
716.36 -495.64 4.36 
715.73 -495.99 4.07 
715.33 -496.11 3.98 
714.93 -496.41 3.93 
714.67 -496.48 3.80 
715.83 -496.44 4.12 
715.51 -496.58 4.03 
715.24 -496.86 4.02 
716.10 -496.74 4.07 
716.31 -496.92 4.10 
714.19 -494.58 4.53 
713.99 -494.61 4.49 
714.55 -495.28 4.52 
716.24 -495.32 4.88 
714.85 -492.98 4.86 
713.97 -494.09 4.54 
713.32 -494.47 4.51 
713.08 -494.49 4.46 
713.53 -495.07 4.47 
715.67 -494.75 4.82 
714.76 -495.24 4.69 
716.46 -494.82 4.98 
716.20 -495.00 5.00 
714.14 -493.67 5.29 
714.05 -494.13 5.21 
715.04 -493.95 5.44 
714.71 -494.39 5.31 
716.33 -493.78 5.75 
715.73 -494.38 5.53 
715.33 -494.27 5.46 
715.04 -494.67 5.34 
715.98 -494.40 5.59 
714.12 -492.95 5.39 
713.96 -492.85 5.37 
713.61 -493.12 5.38 
713.24 -493.16 5.30 
714.96 -492.94 5.58 
714.74 -492.89 5.53 
713.39 -493.52 5.28 
714.15 -493.34 6.02 
714.23 -493.64 5.99 
715.57 -493.29 6.35 
714.99 -493.78 6.13 
714.30 -494.12 5.92 
715.83 -493.75 6.33 
715.53 -494.06 6.21 
715.16 -494.29 6.76 
714.32 -493.69 6.67 
715.90 -493.75 7.04 
715.09 -493.76 6.84 
701.93 -479.71 -0.36 
694.51 -486.57 -1.75 
694.55 -488.40 -1.76 
694.48 -488.72 -1.77 
694.55 -488.97 -1.76 
694.49 -489.30 -1.77 
694.55 -489.52 -1.76 
694.60 -490.13 -1.76 
695.83 -490.52 -1.54 
694.67 -490.76 -1.75 
694.69 -491.31 -1.75 
694.86 -494.65 -1.75 
715.88 -485.92 2.08 
715.70 -485.81 2.05 
695.91 -497.95 -1.58 
713.90 -493.82 2.11 
713.90 -494.38 2.10 
715.10 -494.93 2.30 
714.56 -496.57 2.15 
715.27 -496.68 2.28 
714.68 -496.68 2.17 
715.68 -496.52 2.35 
715.76 -496.82 2.36 
716.30 -496.86 2.46 
716.11 -496.94 2.42 
716.43 -497.02 2.48 
712.78 -493.37 2.13 
712.60 -493.29 2.10 
712.93 -493.58 2.15 
713.09 -493.81 2.18 
714.74 -494.20 2.46 
714.88 -494.32 2.48 
715.08 -494.80 2.50 
713.98 -495.39 2.29 
715.35 -495.26 2.54 
715.77 -495.34 2.61 
714.22 -496.09 2.31 
714.00 -496.24 2.26 
713.66 -496.36 2.20 
713.94 -496.83 2.23 
716.13 -496.12 2.65 
713.57 -492.33 2.98 
711.73 -493.25 2.59 
713.30 -492.75 2.91 
713.29 -493.09 2.89 
712.86 -493.32 2.79 
712.10 -494.60 2.59 
711.48 -494.83 2.47 
711.82 -495.10 2.51 
716.17 -493.47 3.22 
714.66 -494.11 3.08 
712.41 -495.08 2.62 
716.09 -493.57 3.20 
715.46 -494.27 3.04 
714.80 -494.21 3.10 
712.66 -495.51 2.64 
715.61 -494.36 3.06 
713.30 -495.69 2.75 
712.79 -495.70 2.65 
713.21 -496.56 2.68 
714.07 -496.56 2.66 
713.65 -496.89 2.75 
715.64 -496.31 3.14 
714.39 -496.71 2.71 
714.08 -496.87 2.74 
716.33 -496.25 3.19 
716.20 -496.25 3.25 
715.68 -496.88 3.12 
715.12 -496.83 2.84 
714.93 -497.17 2.97 
714.38 -497.35 2.77 
716.25 -496.77 3.06 
715.83 -496.98 3.14 
715.66 -497.05 2.94 
715.12 -497.31 2.82 
714.73 -497.48 2.91 
716.48 -497.01 3.10 
714.32 -494.64 3.45 
714.39 -495.38 3.41 
713.91 -495.59 3.30 
714.37 -495.95 3.36 
714.69 -496.15 3.41 
716.36 -495.81 3.77 
716.03 -496.10 3.68 
715.44 -496.15 3.56 
716.48 -496.46 3.75 
716.23 -496.60 3.69 
714.03 -492.60 3.72 
712.15 -494.20 3.25 
711.53 -494.80 3.09 
715.56 -492.96 3.90 
711.33 -495.21 3.02 
712.58 -495.09 3.26 
712.41 -494.97 3.23 
716.01 -493.79 3.85 
713.31 -495.18 3.38 
712.89 -495.48 3.28 
712.70 -495.64 3.23 
713.77 -495.42 3.45 
713.04 -495.75 3.29 
716.33 -494.43 3.87 
713.50 -495.90 3.36 
713.18 -495.90 3.30 
714.79 -495.67 3.62 
714.54 -496.05 3.55 
714.02 -496.13 3.44 
714.87 -496.31 3.59 
714.29 -496.51 3.46 
716.27 -495.88 3.89 
715.09 -496.38 3.63 
715.36 -496.73 3.65 
712.03 -494.47 3.83 
713.21 -494.26 4.07 
712.55 -494.44 3.93 
712.17 -494.57 3.85 
713.46 -495.13 4.03 
713.96 -495.32 4.11 
713.62 -495.45 4.03 
714.13 -495.44 4.13 
714.73 -495.52 4.24 
714.41 -495.84 4.14 
715.67 -495.78 4.34 
715.14 -495.92 4.21 
714.82 -495.98 4.21 
715.74 -496.29 4.36 
715.45 -496.44 4.29 
715.15 -496.49 4.22 
716.21 -496.49 4.32 
715.98 -496.42 4.34 
715.53 -496.56 4.23 
715.25 -496.58 4.23 
716.37 -496.49 4.36 
716.08 -496.73 4.27 
713.91 -493.04 4.87 
713.48 -493.46 4.86 
713.63 -493.81 4.84 
713.18 -494.30 4.70 
713.64 -495.06 4.69 
713.48 -495.06 4.66 
713.95 -495.35 4.71 
716.24 -494.58 5.18 
716.28 -494.95 5.19 
715.43 -495.13 4.94 
714.15 -494.15 5.45 
713.77 -494.62 5.40 
715.07 -494.47 5.61 
714.54 -494.62 5.47 
714.43 -492.76 5.81 
714.03 -493.68 5.50 
713.70 -494.06 5.47 
713.31 -494.27 5.36 
714.94 -493.91 5.66 
715.12 -493.98 5.69 
715.80 -494.39 5.79 
714.48 -493.73 6.28 
715.42 -493.99 6.46 
715.16 -494.17 6.36 
716.07 -494.01 6.61 
715.74 -494.17 6.50 
714.66 -493.49 7.07 
714.45 -493.58 7.00 
714.22 -493.66 6.93 
715.30 -493.52 7.21 
714.82 -493.64 7.08 
695.15 -481.24 -1.46 
695.14 -481.69 -1.46 
694.99 -482.03 -1.49 
694.78 -482.31 -1.53 
694.57 -482.62 -1.57 
693.87 -487.16 -1.72 
715.83 -485.59 2.19 
716.08 -485.59 2.24 
715.85 -485.70 2.20 
715.83 -496.66 2.53 
713.24 -492.04 2.40 
712.72 -492.93 2.28 
712.55 -493.05 2.25 
712.78 -493.98 2.26 
713.13 -494.20 2.32 
714.88 -494.01 2.63 
715.07 -494.03 2.67 
714.16 -494.77 2.48 
715.30 -494.75 2.69 
715.42 -495.01 2.70 
713.58 -495.97 2.35 
714.11 -496.00 2.44 
713.72 -496.18 2.37 
714.09 -496.65 2.42 
716.27 -496.09 2.82 
714.64 -496.81 2.51 
715.92 -496.70 2.74 
715.45 -496.77 2.66 
715.19 -496.77 2.61 
714.97 -497.06 2.56 
711.88 -492.80 2.80 
713.26 -492.59 3.06 
711.63 -493.11 2.74 
713.00 -493.01 2.99 
713.49 -493.69 3.04 
711.86 -494.70 2.70 
712.21 -494.82 2.75 
715.20 -493.86 3.35 
714.79 -493.97 3.27 
714.60 -494.11 3.23 
712.47 -495.07 2.79 
712.89 -495.45 2.84 
713.16 -496.00 2.87 
714.80 -495.86 3.17 
713.48 -496.54 2.89 
713.25 -496.39 2.86 
713.94 -496.74 2.97 
713.73 -496.69 2.93 
714.76 -496.72 3.12 
716.36 -496.15 3.28 
716.03 -496.60 3.36 
715.74 -496.70 3.22 
715.43 -496.72 3.07 
715.18 -496.87 3.10 
714.85 -497.05 3.12 
714.31 -497.16 3.02 
716.20 -496.98 3.21 
715.79 -497.01 3.13 
715.15 -497.21 3.08 
716.38 -497.00 3.24 
713.47 -492.52 3.10 
716.03 -496.21 3.85 
715.47 -496.59 3.71 
716.45 -496.42 3.92 
714.17 -492.46 3.92 
712.15 -494.50 3.39 
711.50 -494.57 3.26 
712.69 -494.61 3.48 
712.38 -494.73 3.41 
712.86 -494.92 3.49 
712.83 -494.96 3.48 
713.06 -495.25 3.50 
712.62 -495.42 3.40 
713.85 -495.41 3.63 
713.28 -495.56 3.52 
715.18 -495.21 3.90 
713.82 -495.68 3.61 
713.43 -495.74 3.53 
714.17 -496.01 3.65 
715.39 -495.94 3.89 
714.91 -496.08 3.79 
714.59 -496.06 3.72 
714.25 -496.29 3.64 
716.25 -495.87 4.06 
715.48 -496.27 3.88 
715.83 -496.34 3.94 
715.64 -496.49 3.89 
713.22 -494.35 4.24 
712.66 -494.32 4.14 
713.40 -494.96 4.21 
714.30 -494.94 4.39 
714.04 -495.03 4.33 
714.78 -495.08 4.47 
714.98 -495.69 4.45 
714.74 -495.72 4.40 
714.43 -495.82 4.33 
715.06 -495.81 4.45 
716.01 -495.98 4.62 
715.48 -496.32 4.49 
715.75 -496.30 4.54 
714.03 -492.70 4.56 
713.66 -493.08 4.45 
714.34 -493.17 4.57 
713.09 -493.95 4.25 
714.01 -494.16 4.41 
713.34 -492.83 5.09 
713.65 -493.13 5.11 
713.84 -493.18 5.15 
713.41 -493.55 5.02 
715.53 -494.42 5.25 
714.08 -495.13 4.95 
713.81 -495.04 4.91 
716.13 -494.53 5.44 
