# .PCD v0.7 - Point Cloud Data file format
VERSION 0.7
FIELDS x y z
SIZE 4 4 4
TYPE F F F
COUNT 1 1 1
WIDTH 2205
HEIGHT 1
VIEWPOINT 0 0 0 1 0 0 0
POINTS 2205
DATA ascii
709.29 -194.79 12.47 
710.04 -193.85 12.70 
710.31 -194.18 12.73 
710.55 -194.40 12.76 
699.63 -181.55 11.78 
710.18 -193.47 12.75 
709.84 -192.87 12.73 
711.89 -203.67 13.58 
711.03 -202.05 13.48 
711.46 -202.73 13.54 
711.25 -201.70 13.55 
711.36 -199.70 13.71 
711.64 -200.19 13.74 
711.78 -200.64 13.75 
711.27 -199.43 13.71 
711.53 -199.73 13.75 
698.05 -181.45 7.50 
698.62 -181.97 7.54 
698.77 -182.15 7.55 
698.21 -180.84 7.54 
699.76 -181.95 7.67 
700.52 -181.93 7.76 
694.22 -204.20 6.44 
694.08 -204.41 6.41 
694.44 -204.00 6.48 
695.43 -203.87 6.63 
695.69 -203.67 6.67 
696.30 -203.13 6.78 
696.52 -203.54 6.79 
696.99 -202.51 6.91 
697.44 -202.30 6.98 
697.86 -202.02 7.06 
698.27 -201.72 7.13 
698.66 -201.46 7.20 
698.90 -201.28 7.24 
699.43 -201.05 7.32 
699.55 -200.83 7.35 
699.80 -200.62 7.40 
700.07 -200.43 7.44 
700.68 -200.06 7.55 
701.14 -199.61 7.63 
702.01 -199.06 7.78 
704.26 -197.65 8.17 
698.56 -185.46 8.08 
692.14 -184.77 8.24 
692.57 -185.04 8.29 
692.05 -183.39 8.33 
693.71 -184.35 8.52 
696.45 -182.86 9.05 
696.57 -183.07 9.05 
696.80 -183.41 9.06 
697.98 -183.17 9.26 
698.51 -182.58 9.39 
710.42 -195.44 10.45 
710.30 -194.76 10.47 
709.84 -192.90 10.50 
710.50 -193.43 10.58 
710.93 -194.10 10.39 
710.74 -193.13 10.42 
710.71 -193.43 10.39 
711.07 -193.67 10.44 
710.98 -192.67 10.48 
711.45 -192.86 10.55 
705.37 -183.32 10.22 
705.51 -183.61 10.22 
704.49 -180.08 10.49 
704.49 -180.45 10.46 
691.88 -186.28 8.87 
692.21 -185.80 8.96 
693.31 -183.78 9.20 
693.50 -183.24 9.28 
694.99 -183.07 9.55 
695.32 -183.12 9.60 
695.79 -183.06 9.69 
710.98 -204.67 10.87 
696.46 -182.87 9.95 
709.34 -195.21 11.15 
698.54 -182.41 10.22 
698.66 -182.65 10.22 
699.04 -181.98 10.34 
699.23 -181.46 10.42 
710.19 -194.35 11.37 
700.11 -182.10 10.52 
709.61 -192.07 11.42 
710.07 -192.62 11.46 
704.14 -179.81 11.41 
704.62 -180.28 11.45 
704.79 -180.60 11.46 
704.92 -180.88 11.46 
704.36 -179.73 11.46 
695.25 -182.42 10.59 
705.89 -179.97 11.85 
706.87 -180.08 11.86 
695.81 -182.67 10.67 
711.46 -204.05 12.11 
710.69 -202.46 12.05 
711.24 -203.04 12.13 
710.61 -201.82 12.07 
711.41 -201.46 12.26 
710.95 -200.48 12.23 
711.68 -200.72 12.36 
711.82 -201.02 12.37 
712.60 -201.93 12.48 
709.17 -193.67 12.34 
709.47 -194.05 12.37 
708.97 -192.72 12.37 
708.85 -192.08 12.40 
708.85 -192.36 12.37 
709.38 -192.53 12.47 
709.36 -192.95 12.43 
710.45 -194.26 12.56 
709.01 -191.64 12.46 
711.17 -194.47 12.69 
710.66 -192.46 12.74 
709.88 -191.04 12.69 
710.62 -204.13 13.03 
711.38 -203.75 13.23 
711.22 -202.14 13.30 
711.48 -202.80 13.32 
711.39 -201.84 13.36 
712.25 -202.69 13.50 
711.36 -201.14 13.40 
712.01 -201.72 13.51 
712.28 -202.36 13.53 
711.77 -200.41 13.54 
712.04 -200.77 13.58 
711.79 -199.75 13.59 
711.96 -203.10 14.56 
694.19 -204.48 6.36 
694.34 -204.17 6.40 
695.25 -203.66 6.55 
695.35 -203.92 6.55 
695.44 -203.59 6.57 
695.95 -203.22 6.66 
696.25 -203.05 6.71 
696.59 -202.79 6.77 
697.27 -202.45 6.88 
697.49 -202.20 6.92 
697.78 -201.92 6.97 
698.29 -201.58 7.06 
698.58 -201.29 7.11 
698.79 -201.06 7.15 
699.05 -200.96 7.19 
699.41 -200.67 7.25 
700.09 -200.26 7.36 
696.56 -203.39 6.96 
696.64 -203.17 6.98 
700.34 -199.99 7.41 
700.64 -199.88 7.46 
701.26 -199.48 7.56 
701.53 -199.20 7.61 
702.03 -198.81 7.70 
702.12 -198.39 7.73 
702.27 -197.95 7.77 
702.83 -189.91 8.27 
691.58 -185.43 8.01 
693.77 -183.29 8.49 
695.16 -183.23 8.70 
695.68 -183.35 8.77 
697.14 -182.85 9.02 
698.85 -182.72 9.29 
699.00 -182.96 9.30 
699.15 -181.86 9.39 
699.47 -182.01 9.43 
710.55 -194.85 10.34 
710.85 -193.98 10.23 
710.55 -193.20 10.44 
710.94 -193.61 10.26 
711.46 -194.09 10.31 
711.16 -193.49 10.30 
711.14 -192.85 10.34 
711.46 -193.09 10.37 
711.10 -192.03 10.59 
711.20 -192.36 10.59 
704.46 -180.01 10.32 
704.85 -180.10 10.38 
705.40 -180.16 10.45 
691.99 -182.47 9.10 
696.14 -183.18 9.74 
710.59 -204.45 10.66 
696.04 -182.92 9.74 
709.42 -195.38 11.00 
708.76 -193.27 11.02 
709.90 -194.58 11.13 
699.50 -181.35 10.33 
699.84 -181.66 10.36 
700.39 -181.77 10.45 
711.12 -193.87 11.40 
710.74 -192.25 11.44 
711.00 -191.86 11.51 
692.37 -184.76 9.69 
695.32 -182.97 10.42 
711.70 -193.40 11.53 
705.65 -179.99 11.63 
706.06 -180.14 11.69 
695.59 -182.00 10.57 
696.26 -183.17 10.58 
697.41 -182.78 10.83 
697.83 -182.98 10.89 
697.98 -183.23 10.89 
697.29 -182.03 10.88 
697.51 -181.62 10.97 
711.29 -204.14 11.91 
710.77 -202.87 11.87 
711.45 -202.53 12.03 
711.85 -202.10 12.14 
713.35 -204.31 12.32 
711.09 -200.90 12.06 
711.47 -201.17 12.12 
711.08 -200.30 12.09 
711.88 -200.48 12.24 
708.58 -194.35 12.00 
709.32 -195.44 12.07 
713.12 -199.30 12.57 
713.05 -199.59 12.54 
708.20 -193.15 12.01 
709.35 -194.80 12.12 
708.88 -192.25 12.22 
710.02 -193.28 12.37 
710.69 -193.35 12.49 
710.10 -191.15 12.54 
710.50 -204.57 12.80 
710.72 -203.92 12.89 
711.02 -204.21 12.94 
710.97 -201.98 13.07 
710.97 -201.62 13.09 
711.64 -200.87 13.29 
712.79 -202.71 13.44 
713.04 -201.39 13.58 
711.95 -199.69 13.44 
712.32 -200.10 13.50 
712.39 -199.41 13.56 
711.24 -202.00 14.24 
712.45 -204.11 14.42 
711.90 -202.58 14.37 
712.35 -203.12 14.45 
712.54 -203.83 14.46 
712.08 -202.48 14.43 
712.93 -203.40 14.58 
694.02 -204.16 6.25 
693.94 -204.35 6.23 
695.12 -203.63 6.42 
695.70 -203.14 6.52 
696.08 -202.79 6.59 
696.45 -202.67 6.65 
696.95 -202.35 6.73 
697.31 -202.08 6.79 
697.56 -201.80 6.83 
697.99 -201.50 6.91 
698.34 -201.37 6.96 
698.54 -201.12 7.00 
698.95 -200.76 7.07 
699.43 -200.40 7.15 
699.87 -200.07 7.23 
700.63 -199.60 7.35 
697.22 -203.23 6.94 
700.93 -199.31 7.41 
701.30 -199.15 7.46 
702.23 -198.37 7.63 
702.34 -198.08 7.65 
702.44 -197.64 7.69 
702.14 -190.39 8.02 
702.17 -190.12 8.04 
702.24 -189.72 8.07 
691.64 -185.54 7.87 
692.84 -184.67 8.11 
693.60 -183.45 8.31 
695.09 -183.28 8.54 
695.37 -183.37 8.58 
695.04 -182.65 8.58 
695.58 -183.40 8.60 
696.00 -183.56 8.66 
695.93 -183.34 8.66 
696.77 -183.05 8.81 
697.27 -182.98 8.89 
699.12 -183.04 9.16 
699.17 -181.71 9.26 
710.58 -195.00 10.20 
699.38 -181.91 9.28 
699.59 -182.08 9.29 
699.98 -182.19 9.35 
700.39 -182.56 9.38 
710.00 -194.16 10.15 
710.98 -194.63 10.28 
710.66 -193.32 10.09 
710.85 -193.54 10.11 
711.33 -193.77 10.17 
710.99 -192.81 10.18 
711.19 -193.08 10.19 
711.27 -192.17 10.46 
705.20 -180.21 10.27 
692.07 -182.45 8.97 
695.76 -182.79 9.56 
710.42 -204.30 10.50 
696.15 -182.90 9.62 
697.72 -182.36 9.93 
698.44 -182.82 10.01 
698.25 -182.33 10.02 
709.01 -194.57 10.83 
698.43 -182.15 10.06 
708.28 -193.11 10.80 
708.61 -193.72 10.81 
709.65 -194.64 10.94 
708.78 -193.33 10.87 
709.46 -193.76 10.96 
709.53 -193.67 10.98 
709.40 -193.03 11.00 
700.05 -181.48 10.27 
710.16 -193.11 11.13 
710.91 -193.59 11.23 
710.73 -191.87 11.31 
700.94 -179.87 10.55 
705.10 -179.94 11.24 
695.02 -181.99 10.33 
696.18 -182.79 10.46 
696.33 -183.03 10.46 
695.82 -182.01 10.47 
696.05 -182.36 10.48 
697.38 -182.91 10.67 
697.84 -182.89 10.75 
697.85 -182.81 10.77 
710.92 -204.36 11.66 
711.09 -203.98 11.71 
711.08 -204.03 11.71 
710.53 -202.53 11.68 
710.82 -203.07 11.71 
711.20 -203.34 11.77 
710.92 -202.74 11.75 
711.19 -201.60 11.87 
712.70 -203.54 12.07 
710.89 -200.20 11.90 
711.39 -200.75 11.97 
708.30 -194.13 11.80 
708.45 -194.40 11.81 
708.12 -193.05 11.84 
709.27 -194.65 11.95 
712.99 -199.12 12.40 
708.06 -192.56 11.87 
709.31 -193.44 12.05 
710.45 -194.79 12.18 
710.74 -194.98 12.22 
713.76 -198.63 12.58 
709.14 -192.81 12.06 
708.83 -191.98 12.07 
711.11 -194.53 12.33 
709.46 -190.97 12.27 
710.00 -191.10 12.37 
705.89 -180.08 12.54 
706.63 -179.97 12.69 
710.79 -204.40 12.70 
710.53 -203.79 12.68 
711.59 -204.66 12.87 
711.21 -202.16 12.94 
711.48 -202.44 12.98 
712.57 -202.57 13.22 
712.01 -201.01 13.19 
713.11 -202.16 13.37 
711.65 -200.10 13.17 
712.68 -201.24 13.33 
711.85 -199.40 13.26 
711.79 -199.13 13.27 
712.21 -199.66 13.33 
712.99 -200.56 13.44 
713.73 -201.41 13.56 
705.95 -180.07 13.73 
711.53 -204.40 13.97 
711.37 -202.77 14.04 
711.24 -201.89 14.06 
712.46 -203.62 14.26 
712.76 -203.25 14.36 
713.42 -202.56 14.57 
713.64 -202.81 14.61 
693.82 -204.15 6.21 
693.95 -204.28 6.22 
694.04 -204.00 6.25 
695.06 -203.59 6.40 
695.05 -203.47 6.41 
695.46 -203.18 6.47 
695.69 -202.94 6.52 
696.33 -202.56 6.62 
696.63 -202.30 6.67 
696.97 -202.19 6.72 
697.32 -201.88 6.78 
697.53 -201.60 6.83 
697.66 -201.38 6.85 
697.94 -201.26 6.90 
698.51 -200.89 6.99 
698.78 -200.62 7.04 
699.10 -200.48 7.09 
699.74 -200.05 7.19 
700.05 -199.76 7.25 
700.41 -199.61 7.30 
700.92 -199.07 7.40 
700.68 -198.26 7.41 
700.85 -198.71 7.41 
700.68 -198.00 7.42 
700.78 -198.49 7.41 
700.52 -197.14 7.44 
700.60 -197.64 7.43 
700.49 -196.10 7.49 
700.30 -195.24 7.51 
700.47 -195.57 7.51 
699.98 -194.01 7.53 
700.27 -194.87 7.52 
699.94 -193.76 7.53 
711.21 -193.74 9.24 
711.53 -194.32 9.25 
691.53 -185.47 7.81 
692.83 -184.70 8.06 
693.60 -183.45 8.26 
693.80 -183.33 8.30 
695.09 -183.34 8.49 
695.53 -183.39 8.55 
696.04 -183.45 8.63 
696.89 -183.15 8.77 
710.53 -195.20 10.15 
699.23 -181.75 9.22 
710.30 -194.29 10.16 
700.19 -182.17 9.33 
700.52 -182.24 9.38 
711.03 -194.75 10.25 
710.85 -193.82 10.07 
710.71 -193.18 10.08 
711.01 -192.76 10.25 
711.31 -193.31 10.17 
694.40 -182.42 9.31 
695.70 -182.73 9.51 
696.18 -183.02 9.56 
696.24 -183.27 9.55 
711.01 -204.52 10.56 
696.11 -182.78 9.57 
697.71 -182.22 9.89 
697.71 -182.50 9.87 
698.39 -182.34 9.99 
710.09 -194.83 10.97 
709.44 -193.67 10.93 
709.82 -193.87 10.98 
709.52 -192.96 10.99 
710.37 -194.01 11.07 
710.43 -194.33 11.06 
709.35 -192.40 11.00 
710.47 -192.24 11.21 
710.70 -191.80 11.28 
712.05 -192.75 11.45 
692.01 -184.58 9.48 
695.74 -183.09 10.31 
695.18 -182.07 10.31 
696.27 -183.13 10.40 
695.74 -182.11 10.41 
696.40 -182.79 10.46 
697.67 -182.77 10.70 
708.02 -193.91 11.71 
698.90 -182.44 10.96 
691.68 -184.02 10.33 
710.66 -202.74 11.65 
711.06 -203.26 11.71 
710.51 -202.47 11.64 
711.04 -202.33 11.76 
711.01 -201.38 11.81 
710.96 -200.75 11.84 
710.71 -200.17 11.82 
708.27 -194.13 11.75 
709.18 -195.11 11.86 
707.95 -192.94 11.77 
708.92 -194.28 11.87 
709.23 -194.49 11.91 
712.85 -199.10 12.32 
707.99 -192.64 11.80 
709.90 -194.53 12.04 
710.68 -194.94 12.17 
713.65 -198.50 12.53 
709.16 -192.78 12.03 
708.94 -191.90 12.05 
709.50 -191.60 12.19 
709.42 -190.95 12.22 
709.71 -191.18 12.26 
704.18 -179.72 12.21 
704.40 -179.90 12.23 
710.51 -204.00 12.60 
711.12 -204.23 12.73 
711.15 -204.59 12.72 
710.16 -202.86 12.59 
711.77 -202.88 12.96 
711.32 -201.41 12.95 
711.51 -202.02 12.96 
711.13 -200.11 13.00 
712.03 -202.26 13.06 
713.45 -204.28 13.26 
711.59 -200.38 13.08 
712.34 -200.89 13.22 
712.62 -201.45 13.25 
714.06 -203.22 13.46 
712.68 -200.12 13.35 
712.80 -200.44 13.35 
713.89 -201.57 13.53 
713.98 -201.89 13.53 
713.43 -200.63 13.48 
713.90 -199.57 13.66 
713.92 -199.18 13.69 
710.65 -191.85 13.53 
714.35 -203.03 13.82 
711.16 -202.44 13.94 
712.34 -203.49 14.17 
711.38 -201.22 14.08 
694.78 -203.20 6.28 
695.93 -202.45 6.47 
698.39 -200.82 6.87 
698.52 -200.56 6.90 
708.17 -204.56 7.99 
693.59 -204.63 6.67 
696.66 -202.68 7.25 
702.76 -198.71 8.41 
692.68 -184.66 7.91 
693.73 -184.71 8.06 
693.70 -184.05 8.10 
695.18 -183.45 8.36 
695.92 -183.19 8.49 
696.97 -183.06 8.65 
710.69 -193.67 9.91 
699.21 -181.60 9.08 
699.62 -182.01 9.11 
709.63 -193.82 9.94 
710.15 -194.33 10.00 
710.31 -194.61 10.01 
710.75 -195.13 10.05 
699.44 -181.05 9.15 
699.77 -181.53 9.17 
700.39 -182.14 9.22 
710.11 -193.39 10.04 
711.00 -194.73 10.11 
700.35 -181.81 9.24 
710.79 -193.81 10.12 
710.75 -193.27 9.95 
700.73 -180.47 9.38 
711.09 -192.09 10.26 
711.33 -192.74 10.06 
711.31 -192.31 10.29 
705.27 -183.17 9.72 
695.44 -182.58 9.34 
695.61 -182.72 9.35 
695.87 -182.73 9.40 
696.09 -183.01 9.41 
710.30 -204.32 10.31 
697.22 -182.14 9.67 
697.96 -181.11 9.88 
709.16 -193.29 10.76 
709.78 -193.88 10.83 
710.50 -194.73 10.90 
710.48 -194.11 10.94 
710.13 -193.24 10.93 
710.48 -192.33 11.05 
710.70 -191.88 11.12 
694.91 -182.37 10.10 
712.94 -190.59 11.60 
707.34 -180.79 11.49 
694.89 -182.01 10.13 
695.20 -182.45 10.14 
696.12 -182.92 10.26 
696.33 -183.32 10.26 
695.74 -182.28 10.26 
697.43 -182.81 10.51 
697.82 -183.01 10.56 
697.73 -182.69 10.58 
708.06 -194.37 11.54 
707.98 -194.72 11.49 
707.80 -193.86 11.52 
708.10 -194.08 11.57 
708.11 -193.02 11.65 
711.78 -204.16 11.65 
712.33 -204.34 11.75 
712.71 -203.97 11.85 
711.09 -201.07 11.69 
713.26 -203.56 11.98 
711.14 -200.75 11.72 
709.18 -195.23 11.69 
709.00 -194.64 11.70 
709.40 -194.88 11.76 
708.08 -192.71 11.67 
708.77 -193.40 11.75 
714.32 -198.85 12.48 
709.06 -191.99 11.92 
714.13 -198.08 12.49 
714.11 -198.38 12.47 
709.57 -191.34 12.06 
710.61 -192.98 12.15 
710.54 -192.31 12.18 
712.76 -200.64 12.29 
697.33 -181.84 11.58 
709.90 -204.11 12.29 
710.39 -204.65 12.37 
710.38 -203.43 12.44 
710.49 -203.46 12.47 
710.43 -202.79 12.50 
711.16 -202.98 12.65 
711.25 -201.40 12.77 
711.91 -200.92 12.95 
711.19 -199.54 12.88 
711.28 -199.34 12.92 
698.86 -181.57 11.92 
713.18 -201.34 13.21 
714.17 -202.52 13.36 
711.98 -199.66 13.05 
712.30 -199.87 13.11 
713.69 -201.61 13.31 
714.11 -201.82 13.39 
714.83 -201.34 13.59 
713.80 -199.85 13.45 
714.01 -198.08 13.62 
714.42 -198.33 13.70 
710.20 -192.32 13.23 
710.65 -191.92 13.36 
711.44 -203.60 13.75 
711.68 -203.93 13.79 
712.92 -204.34 14.08 
713.21 -204.68 14.13 
710.88 -201.17 13.77 
712.60 -203.74 14.03 
712.04 -201.91 14.01 
712.85 -203.12 14.14 
711.88 -201.62 13.99 
712.52 -202.14 14.12 
712.57 -202.50 14.11 
712.10 -200.59 14.12 
714.61 -203.84 14.53 
712.75 -202.14 15.31 
694.93 -203.39 6.19 
695.14 -203.13 6.23 
695.40 -202.88 6.28 
697.73 -201.20 6.66 
698.95 -199.82 6.89 
699.11 -200.13 6.90 
708.34 -204.53 7.93 
708.63 -204.24 7.98 
708.94 -203.60 8.05 
709.05 -203.99 8.05 
709.19 -203.79 8.07 
711.10 -194.16 8.97 
692.64 -184.66 7.77 
697.20 -182.97 8.56 
710.65 -193.66 9.79 
710.70 -193.30 9.82 
711.15 -193.80 9.86 
710.73 -192.79 9.85 
709.21 -194.72 9.71 
709.53 -194.93 9.75 
709.61 -193.68 9.83 
699.41 -181.16 9.00 
699.59 -181.36 9.01 
699.92 -181.62 9.05 
710.58 -193.64 9.98 
713.51 -191.26 10.56 
695.19 -182.41 9.17 
710.11 -204.28 10.16 
710.59 -204.54 10.23 
708.54 -193.36 10.70 
709.44 -193.56 10.67 
709.82 -194.07 10.70 
710.04 -194.58 10.71 
710.23 -194.85 10.72 
710.40 -194.15 10.80 
709.68 -193.05 10.74 
710.58 -193.00 10.90 
710.78 -193.60 10.90 
710.91 -192.20 11.01 
710.73 -191.87 11.00 
712.96 -190.49 11.49 
705.75 -179.99 11.13 
706.23 -180.44 11.18 
706.77 -180.46 11.27 
710.47 -203.10 11.31 
711.66 -204.09 11.50 
710.60 -200.60 11.49 
711.02 -201.07 11.54 
695.95 -182.76 10.12 
696.19 -182.91 10.15 
711.14 -200.72 11.59 
707.90 -194.54 11.36 
707.70 -193.94 11.36 
707.94 -194.22 11.39 
708.29 -194.67 11.43 
707.46 -193.06 11.38 
707.77 -193.25 11.43 
707.98 -193.48 11.45 
708.50 -193.92 11.52 
709.24 -194.98 11.59 
707.93 -192.56 11.51 
712.84 -203.26 11.79 
713.09 -203.55 11.82 
713.27 -203.45 11.86 
711.94 -199.94 11.80 
712.86 -200.35 11.96 
715.67 -202.36 12.41 
709.32 -194.57 11.64 
709.90 -194.99 11.72 
710.04 -194.31 11.80 
714.07 -198.22 12.34 
714.21 -198.59 12.35 
714.45 -198.93 12.37 
709.27 -191.86 11.83 
709.63 -191.33 11.95 
704.26 -179.74 11.93 
704.35 -180.10 11.92 
709.93 -204.08 12.16 
709.93 -202.62 12.25 
710.75 -203.63 12.37 
710.36 -202.80 12.33 
710.83 -203.35 12.41 
711.09 -203.00 12.49 
711.87 -200.89 12.80 
712.13 -201.15 12.84 
711.22 -199.46 12.75 
711.97 -199.95 12.89 
711.34 -199.15 12.80 
711.78 -199.65 12.87 
712.20 -199.84 12.95 
712.56 -200.44 12.99 
709.19 -191.90 12.90 
713.76 -203.74 13.05 
713.10 -201.25 13.06 
713.48 -201.55 13.12 
714.05 -201.71 13.24 
714.46 -201.28 13.36 
713.44 -198.15 13.35 
714.33 -197.95 13.56 
714.26 -198.27 13.52 
710.26 -192.44 13.09 
710.38 -191.74 13.18 
710.58 -191.95 13.20 
706.09 -179.88 13.44 
711.12 -203.29 13.53 
711.74 -203.53 13.67 
712.93 -204.27 13.92 
711.10 -201.10 13.68 
711.38 -201.38 13.73 
711.70 -201.64 13.79 
711.82 -201.88 13.80 
711.24 -200.48 13.76 
711.32 -200.78 13.76 
712.02 -201.52 13.88 
712.37 -202.09 13.93 
712.67 -202.51 13.97 
711.82 -200.02 13.94 
711.95 -200.26 13.95 
712.76 -202.28 14.26 
714.62 -203.94 14.37 
712.92 -203.62 15.08 
694.90 -203.28 6.13 
695.35 -202.85 6.21 
700.33 -199.01 7.04 
700.38 -199.23 7.04 
708.46 -204.66 7.90 
708.95 -204.29 7.98 
709.10 -203.97 8.01 
709.37 -203.67 8.06 
709.70 -203.55 8.11 
710.41 -203.10 8.22 
709.54 -201.89 8.16 
710.02 -202.03 8.22 
710.30 -202.22 8.25 
711.11 -202.64 8.34 
711.02 -202.35 8.34 
692.64 -184.46 7.67 
693.62 -183.83 7.86 
693.78 -183.27 7.92 
694.97 -182.43 8.15 
695.27 -183.21 8.14 
695.60 -183.25 8.19 
695.98 -183.26 8.24 
696.72 -182.92 8.38 
698.95 -181.71 8.79 
699.50 -181.90 8.86 
709.73 -193.91 9.76 
710.37 -194.96 9.81 
699.54 -181.51 8.89 
709.92 -193.46 9.81 
700.33 -181.57 9.00 
710.07 -204.39 10.08 
710.13 -204.10 10.10 
710.51 -204.61 10.15 
709.42 -194.92 10.68 
709.07 -193.26 10.54 
709.70 -193.96 10.60 
709.76 -194.22 10.60 
709.95 -194.54 10.61 
709.74 -193.62 10.63 
710.36 -194.30 10.70 
710.66 -194.55 10.74 
709.53 -192.97 10.64 
710.24 -192.98 10.76 
710.35 -192.22 10.83 
710.59 -191.76 10.90 
712.89 -190.28 11.41 
709.74 -204.49 11.00 
710.49 -203.15 11.23 
710.67 -202.50 11.30 
711.68 -203.56 11.45 
710.78 -201.62 11.38 
698.08 -182.60 10.43 
707.70 -193.89 11.28 
707.90 -194.14 11.30 
708.19 -194.61 11.32 
708.47 -193.82 11.44 
708.91 -194.60 11.47 
708.97 -194.92 11.46 
709.16 -195.17 11.48 
708.05 -192.75 11.43 
713.05 -202.26 11.81 
712.66 -199.16 12.12 
715.59 -202.34 12.32 
715.61 -202.06 12.34 
708.96 -192.61 11.63 
708.93 -191.93 11.67 
710.03 -193.48 11.77 
714.04 -198.38 12.24 
714.17 -198.68 12.25 
709.32 -192.03 11.74 
709.35 -191.34 11.80 
709.43 -191.63 11.79 
704.25 -179.98 11.81 
704.32 -180.31 11.79 
709.63 -203.96 12.00 
709.74 -204.23 12.01 
709.88 -203.95 12.06 
697.81 -182.04 11.43 
710.49 -204.37 12.17 
710.11 -202.97 12.17 
710.47 -203.48 12.22 
711.37 -204.55 12.36 
710.21 -202.68 12.21 
711.72 -204.44 12.45 
711.09 -203.05 12.39 
711.08 -201.24 12.50 
710.85 -200.01 12.54 
711.71 -201.34 12.64 
711.12 -199.61 12.62 
711.30 -200.23 12.62 
711.67 -200.44 12.69 
711.65 -200.76 12.67 
712.11 -200.91 12.76 
712.26 -201.52 12.75 
713.26 -202.29 12.93 
711.21 -199.25 12.67 
712.22 -199.92 12.85 
712.57 -200.47 12.89 
698.82 -181.38 11.71 
709.21 -191.77 12.82 
710.02 -192.37 12.95 
713.94 -202.45 13.08 
713.58 -201.55 13.05 
713.95 -201.75 13.13 
713.70 -199.83 13.19 
714.68 -201.23 13.32 
713.99 -198.04 13.38 
710.43 -191.82 13.08 
705.81 -179.79 13.30 
706.16 -179.97 13.35 
711.05 -203.12 13.41 
711.41 -203.30 13.49 
710.92 -201.24 13.52 
711.73 -203.54 13.56 
711.69 -202.36 13.63 
712.57 -203.69 13.76 
712.94 -204.29 13.82 
713.19 -204.57 13.86 
711.36 -201.45 13.61 
711.65 -201.69 13.67 
711.25 -200.69 13.64 
712.19 -201.92 13.79 
712.34 -202.15 13.81 
712.67 -202.39 13.87 
711.84 -200.10 13.83 
715.53 -204.44 14.47 
712.93 -202.73 15.02 
694.71 -203.25 6.11 
695.24 -202.87 6.19 
696.45 -202.14 6.39 
700.39 -199.26 7.04 
709.14 -204.09 8.02 
709.50 -203.95 8.08 
709.58 -203.64 8.10 
708.49 -201.39 8.05 
708.86 -201.52 8.09 
710.17 -203.22 8.20 
709.59 -201.60 8.19 
710.52 -202.89 8.26 
710.23 -201.72 8.27 
710.89 -202.74 8.31 
710.93 -201.82 8.36 
711.25 -202.40 8.38 
711.18 -201.81 8.39 
711.54 -201.97 8.43 
711.62 -202.25 8.43 
691.54 -185.43 7.45 
692.72 -184.51 7.68 
693.68 -183.85 7.86 
695.07 -183.15 8.11 
696.78 -182.94 8.38 
698.72 -182.64 8.69 
699.04 -181.93 8.79 
699.17 -181.87 8.81 
709.79 -194.04 9.76 
710.08 -194.31 9.79 
710.40 -195.00 9.81 
699.51 -181.12 8.91 
700.28 -181.96 8.97 
710.15 -193.97 9.82 
699.45 -180.80 8.92 
700.18 -181.65 8.97 
709.95 -193.35 9.82 
711.63 -194.09 10.05 
707.91 -179.82 10.26 
710.14 -204.15 10.10 
709.10 -193.27 10.54 
709.31 -193.56 10.56 
710.01 -194.57 10.62 
699.45 -181.52 9.85 
709.74 -193.63 10.63 
710.31 -194.10 10.71 
710.42 -194.67 10.69 
710.51 -192.22 10.86 
710.57 -191.80 10.90 
711.84 -192.97 11.05 
716.05 -202.62 11.48 
712.87 -190.27 11.41 
713.02 -189.82 11.46 
706.23 -180.63 11.06 
706.79 -180.63 11.16 
707.32 -180.64 11.25 
709.62 -204.57 10.96 
711.64 -203.59 11.43 
712.11 -204.09 11.50 
710.75 -201.31 11.38 
710.97 -200.68 11.46 
707.84 -193.90 11.30 
707.96 -194.36 11.29 
707.71 -193.01 11.34 
708.76 -194.45 11.44 
709.11 -194.96 11.48 
707.91 -193.19 11.37 
709.29 -194.51 11.54 
709.67 -195.01 11.58 
707.88 -192.54 11.41 
713.04 -203.53 11.72 
712.79 -201.82 11.99 
712.69 -201.26 12.00 
712.53 -200.47 11.80 
716.14 -201.83 12.45 
708.98 -192.69 11.62 
709.75 -192.78 11.77 
709.50 -191.30 11.83 
703.38 -179.99 11.66 
703.81 -179.95 11.74 
704.35 -179.87 11.85 
709.71 -203.99 11.99 
709.83 -204.27 12.00 
710.42 -204.42 12.13 
709.85 -202.49 12.12 
709.95 -203.06 12.11 
706.11 -179.79 12.25 
710.56 -203.54 12.21 
710.22 -202.73 12.19 
711.65 -204.47 12.41 
711.55 -203.00 12.48 
712.96 -203.93 12.74 
710.98 -201.26 12.46 
711.76 -201.36 12.63 
713.32 -203.53 12.85 
713.96 -204.32 12.95 
711.71 -200.46 12.68 
712.22 -201.54 12.72 
713.19 -202.29 12.90 
711.22 -199.30 12.65 
711.38 -199.57 12.67 
711.90 -200.04 12.75 
711.79 -199.75 12.75 
712.53 -200.49 12.87 
709.06 -191.89 12.77 
710.13 -192.37 12.96 
713.84 -199.77 13.21 
713.89 -198.06 13.35 
710.47 -191.83 13.09 
705.90 -179.76 13.32 
711.93 -204.12 13.54 
711.51 -202.37 13.55 
711.32 -201.49 13.57 
712.56 -203.68 13.73 
712.86 -204.30 13.76 
711.58 -201.73 13.62 
711.26 -200.87 13.60 
711.45 -201.50 13.60 
712.63 -202.40 13.83 
712.78 -203.05 13.83 
711.96 -201.05 13.76 
711.79 -200.13 13.79 
713.57 -202.81 14.04 
714.66 -202.95 14.31 
712.86 -202.69 14.97 
708.40 -204.63 7.78 
708.93 -204.22 7.87 
709.14 -203.93 7.91 
709.39 -203.83 7.95 
707.53 -201.23 7.80 
709.49 -203.53 7.97 
708.07 -201.37 7.87 
708.85 -201.43 7.97 
709.27 -201.54 8.03 
710.39 -202.97 8.12 
709.85 -201.66 8.10 
710.22 -201.84 8.14 
710.77 -202.62 8.19 
711.18 -202.47 8.25 
711.06 -201.91 8.25 
711.49 -202.10 8.30 
696.26 -202.44 6.89 
692.69 -184.39 7.56 
693.57 -183.75 7.73 
693.56 -183.08 7.77 
695.07 -183.05 8.00 
695.70 -183.14 8.08 
696.60 -182.78 8.24 
697.11 -182.66 8.32 
698.79 -182.54 8.58 
698.96 -182.76 8.60 
708.80 -194.05 9.48 
699.10 -181.86 8.67 
709.66 -194.01 9.61 
710.28 -195.07 9.66 
710.66 -194.60 9.74 
711.06 -195.11 9.78 
699.46 -180.90 8.79 
711.81 -193.84 9.96 
709.96 -204.29 9.92 
710.06 -203.97 9.96 
710.33 -204.54 9.98 
697.51 -181.98 9.36 
698.23 -181.85 9.49 
708.93 -193.20 10.39 
709.68 -194.12 10.46 
710.23 -194.76 10.69 
716.04 -202.17 11.14 
709.40 -193.58 10.45 
710.28 -194.17 10.57 
710.39 -194.50 10.56 
710.17 -192.82 10.63 
710.24 -192.68 10.74 
710.52 -191.92 10.75 
710.60 -192.23 10.75 
704.43 -179.78 10.69 
705.43 -179.86 10.86 
705.48 -179.73 10.88 
706.48 -180.20 11.01 
706.85 -180.40 11.06 
711.55 -203.62 11.26 
710.61 -201.21 11.22 
710.72 -201.48 11.22 
710.76 -200.53 11.29 
710.74 -200.85 11.27 
711.45 -199.93 11.47 
707.66 -193.81 11.14 
707.87 -194.03 11.16 
707.95 -194.50 11.14 
708.80 -194.56 11.31 
709.05 -195.09 11.32 
707.78 -192.79 11.24 
699.41 -181.43 10.71 
712.65 -201.37 11.83 
713.22 -200.32 11.80 
715.49 -202.19 12.16 
716.03 -201.85 12.29 
710.03 -194.28 11.57 
716.04 -201.56 12.31 
708.93 -192.43 11.50 
713.90 -198.49 12.06 
709.27 -191.53 11.63 
709.37 -191.14 11.68 
704.22 -179.88 11.70 
709.39 -203.35 11.81 
709.54 -203.86 11.81 
709.63 -204.12 11.81 
709.72 -202.63 11.93 
711.52 -204.30 12.23 
713.49 -203.49 12.74 
711.62 -200.52 12.51 
711.72 -200.81 12.51 
711.78 -201.16 12.50 
712.00 -201.36 12.54 
711.25 -199.37 12.51 
713.99 -203.09 12.88 
711.34 -199.39 12.53 
711.62 -199.69 12.57 
713.10 -201.39 12.78 
708.97 -191.73 12.63 
710.12 -192.47 12.81 
710.05 -192.18 12.82 
714.35 -204.60 13.11 
713.68 -199.53 13.04 
713.03 -197.45 13.05 
713.32 -197.96 13.08 
710.38 -191.66 12.94 
711.65 -204.25 13.30 
711.49 -202.46 13.38 
710.71 -201.20 13.28 
711.17 -200.73 13.43 
706.18 -179.97 13.24 
712.44 -203.63 13.54 
712.31 -202.53 13.58 
712.93 -203.02 13.70 
713.35 -203.18 14.03 
711.62 -200.21 13.59 
714.45 -203.65 14.05 
712.04 -199.48 13.75 
712.80 -202.74 14.78 
703.43 -201.88 7.16 
703.88 -201.99 7.21 
706.35 -202.64 7.51 
707.89 -202.97 7.70 
708.75 -204.38 7.76 
708.44 -203.07 7.77 
709.08 -204.05 7.82 
708.99 -203.19 7.84 
709.35 -203.36 7.88 
709.51 -203.90 7.88 
709.82 -203.54 7.94 
711.41 -194.07 8.78 
696.42 -202.62 6.84 
692.60 -184.17 7.58 
693.13 -184.29 7.65 
692.71 -182.86 7.69 
692.98 -183.32 7.69 
694.90 -182.61 8.02 
694.79 -181.99 8.05 
710.76 -194.02 9.54 
698.75 -182.25 8.61 
699.02 -182.55 8.63 
698.72 -181.68 8.64 
716.47 -202.82 10.18 
699.27 -181.49 8.74 
709.86 -194.33 9.57 
716.32 -202.51 10.17 
698.89 -180.71 8.73 
710.07 -193.91 9.63 
710.72 -194.96 9.67 
699.34 -180.63 8.81 
700.25 -181.74 8.87 
700.46 -181.95 8.88 
711.49 -192.98 9.90 
710.06 -204.40 9.83 
711.56 -204.58 10.31 
711.88 -202.70 10.46 
695.22 -181.82 9.02 
708.28 -194.37 10.30 
698.11 -181.85 9.49 
709.58 -194.77 10.51 
716.26 -202.72 11.04 
716.35 -203.03 11.04 
709.17 -193.53 10.35 
709.77 -194.24 10.41 
716.32 -202.36 11.07 
709.73 -193.91 10.43 
710.44 -194.52 10.51 
710.56 -194.84 10.51 
699.34 -180.94 9.77 
709.55 -192.61 10.49 
710.27 -193.21 10.57 
710.70 -192.25 10.71 
716.26 -203.55 11.21 
706.48 -180.19 11.02 
707.20 -180.47 11.12 
710.80 -203.03 11.03 
711.58 -202.20 11.24 
711.61 -202.45 11.23 
712.90 -203.94 11.40 
713.07 -203.61 11.46 
707.91 -194.83 11.05 
707.99 -194.48 11.09 
707.79 -193.28 11.15 
708.02 -194.09 11.13 
708.74 -194.72 11.22 
709.28 -195.11 11.29 
698.38 -181.47 10.54 
698.66 -181.82 10.56 
708.16 -193.68 11.19 
709.38 -194.72 11.35 
698.52 -180.89 10.63 
709.07 -192.88 11.43 
711.43 -203.11 11.36 
712.21 -201.45 11.62 
712.88 -200.51 11.62 
715.63 -202.57 12.04 
716.10 -202.16 12.16 
713.83 -198.85 11.92 
699.42 -180.80 10.80 
699.64 -181.40 10.78 
713.76 -198.13 11.96 
713.86 -198.50 11.95 
713.77 -197.84 11.98 
709.54 -191.83 11.61 
711.57 -194.33 11.81 
709.66 -191.46 11.67 
710.41 -204.31 11.85 
710.08 -203.50 11.83 
710.41 -203.75 11.88 
710.57 -203.96 11.91 
710.21 -202.63 11.92 
710.44 -202.82 11.96 
710.91 -202.98 12.05 
696.81 -181.86 11.16 
711.80 -203.33 12.23 
711.65 -201.25 12.35 
711.81 -201.47 12.37 
711.82 -201.79 12.35 
711.19 -200.42 12.31 
711.47 -200.94 12.33 
712.82 -201.78 12.57 
711.14 -199.18 12.39 
711.55 -199.49 12.46 
711.80 -199.88 12.49 
713.04 -200.74 12.70 
713.76 -199.70 12.94 
709.29 -192.02 12.61 
709.41 -192.26 12.62 
710.21 -192.55 12.76 
715.04 -203.81 13.16 
715.20 -203.26 13.01 
713.48 -197.96 13.01 
710.53 -192.01 12.88 
710.83 -203.96 12.97 
711.68 -204.58 13.13 
711.51 -203.18 13.20 
711.57 -203.70 13.17 
711.19 -202.65 13.16 
695.40 -181.31 11.89 
695.84 -181.63 11.94 
710.77 -200.26 13.25 
711.37 -201.04 13.33 
695.54 -180.71 12.01 
695.79 -181.27 11.98 
697.81 -180.23 12.55 
712.38 -201.92 13.51 
713.15 -202.64 13.65 
712.49 -201.62 13.57 
712.98 -202.07 13.65 
713.14 -202.38 13.67 
715.25 -204.37 14.05 
712.26 -199.45 13.69 
712.56 -200.00 13.72 
693.00 -180.79 12.40 
712.15 -202.34 14.49 
713.00 -202.78 14.68 
712.67 -203.16 15.64 
713.80 -204.12 15.89 
702.55 -201.81 6.93 
708.45 -204.53 7.59 
708.82 -204.19 7.66 
708.71 -203.61 7.67 
709.20 -204.03 7.72 
709.22 -203.73 7.73 
711.41 -194.11 8.67 
696.34 -202.62 6.72 
702.64 -198.78 7.91 
692.88 -183.14 7.60 
695.91 -182.39 8.09 
696.46 -182.37 8.17 
696.77 -182.42 8.22 
697.20 -182.34 8.28 
698.76 -182.27 8.52 
698.77 -182.34 8.51 
698.74 -181.53 8.56 
698.95 -181.72 8.58 
716.45 -202.99 10.03 
698.69 -181.09 8.59 
699.03 -181.36 8.62 
709.50 -193.93 9.42 
709.95 -194.42 9.46 
710.26 -194.88 9.48 
699.83 -181.72 8.71 
700.02 -181.84 8.73 
709.96 -194.04 9.48 
710.80 -194.98 9.56 
700.37 -181.90 8.78 
712.27 -202.95 10.38 
696.27 -182.51 9.05 
697.47 -181.55 9.32 
697.60 -181.82 9.32 
697.99 -181.79 9.38 
708.02 -193.96 10.16 
708.33 -194.20 10.20 
709.57 -194.59 10.39 
716.15 -202.35 10.90 
716.24 -202.73 10.90 
710.31 -194.65 10.44 
709.79 -193.19 10.37 
699.60 -180.44 9.76 
710.44 -192.44 10.53 
710.77 -192.20 10.61 
711.36 -192.94 10.66 
692.98 -183.20 9.32 
716.13 -203.47 11.05 
707.01 -180.24 11.00 
710.64 -204.56 10.76 
710.69 -203.07 10.86 
711.57 -202.45 11.08 
711.86 -202.66 11.13 
712.76 -203.93 11.23 
712.92 -203.58 11.28 
707.41 -193.50 10.94 
707.93 -194.55 10.95 
708.07 -194.81 10.96 
707.50 -193.15 10.99 
708.81 -194.72 11.11 
698.74 -181.73 10.49 
708.39 -193.99 11.09 
709.45 -194.90 11.22 
709.79 -195.19 11.26 
697.98 -180.46 10.48 
698.36 -180.67 10.53 
698.59 -181.05 10.53 
708.91 -193.00 11.27 
712.03 -201.22 11.45 
715.55 -202.55 11.88 
716.06 -202.35 12.00 
710.13 -193.68 11.45 
713.50 -197.90 11.79 
713.73 -198.09 11.82 
713.87 -198.44 11.82 
699.93 -180.09 10.87 
709.57 -191.82 11.50 
709.91 -192.74 11.49 
715.56 -198.46 12.16 
709.55 -204.56 11.48 
710.08 -203.83 11.66 
710.30 -204.09 11.69 
709.96 -203.56 11.65 
711.23 -204.66 11.86 
710.19 -203.07 11.74 
710.43 -202.54 11.83 
711.07 -202.92 11.95 
696.65 -181.51 11.09 
711.56 -201.84 12.14 
711.37 -200.98 12.16 
711.50 -201.44 12.15 
711.51 -200.66 12.22 
711.51 -200.30 12.24 
711.33 -199.41 12.28 
711.55 -199.81 12.29 
714.26 -202.90 12.67 
696.96 -181.57 11.14 
713.13 -200.65 12.58 
715.20 -203.28 12.85 
712.05 -198.84 12.48 
712.18 -198.45 12.54 
712.14 -198.75 12.51 
713.70 -199.66 12.78 
709.23 -192.36 12.45 
710.19 -192.55 12.64 
710.46 -192.04 12.75 
714.99 -203.74 12.99 
710.87 -203.93 12.82 
710.93 -204.23 12.81 
711.46 -204.37 12.93 
710.29 -202.59 12.78 
710.88 -203.51 12.86 
710.21 -201.88 12.82 
710.28 -202.28 12.81 
711.33 -202.90 13.02 
695.22 -180.61 11.88 
695.59 -180.86 11.92 
695.89 -181.11 11.95 
695.95 -181.40 11.92 
695.37 -179.89 12.02 
695.45 -180.46 11.95 
711.61 -199.95 13.34 
698.02 -180.25 12.51 
712.25 -200.67 13.43 
714.81 -204.03 13.80 
712.60 -199.92 13.58 
713.12 -204.56 14.40 
712.06 -202.02 14.33 
712.59 -202.59 14.51 
713.78 -203.64 14.86 
712.72 -203.09 15.48 
713.50 -204.12 15.62 
702.31 -200.52 6.88 
703.96 -201.36 7.06 
704.67 -201.69 7.14 
708.32 -204.29 7.51 
707.70 -202.46 7.51 
708.76 -203.90 7.58 
708.50 -202.55 7.61 
709.25 -203.68 7.66 
708.81 -202.72 7.64 
709.34 -202.80 7.71 
709.85 -202.90 7.77 
709.84 -203.20 7.76 
693.62 -183.99 7.58 
694.84 -182.44 7.87 
694.99 -182.62 7.88 
694.73 -182.15 7.87 
695.32 -182.45 7.94 
695.93 -182.49 8.02 
696.41 -182.55 8.09 
696.48 -182.89 8.07 
697.11 -182.55 8.19 
716.34 -202.58 9.73 
698.40 -182.32 8.39 
698.24 -181.63 8.42 
698.96 -182.54 8.46 
698.87 -182.22 8.47 
708.58 -193.41 9.22 
709.02 -193.50 9.29 
710.04 -194.63 9.38 
710.20 -195.21 9.37 
716.39 -202.84 9.94 
699.82 -182.00 8.62 
700.18 -182.05 8.67 
709.83 -194.08 9.38 
710.61 -194.75 9.46 
710.73 -195.30 9.45 
699.53 -180.57 8.68 
712.96 -203.87 10.35 
712.80 -203.32 10.35 
712.97 -203.56 10.36 
696.95 -181.34 9.20 
697.42 -181.66 9.24 
697.66 -182.03 9.25 
698.57 -181.84 9.41 
708.28 -193.25 10.17 
709.22 -194.69 10.23 
716.12 -202.73 10.77 
698.00 -180.49 9.44 
715.99 -202.11 10.79 
716.08 -202.48 10.78 
709.58 -193.97 10.19 
709.38 -193.02 10.37 
710.24 -194.17 10.29 
709.91 -192.88 10.33 
710.10 -193.34 10.48 
710.25 -192.30 10.43 
711.28 -193.49 10.52 
710.58 -191.77 10.53 
711.70 -192.93 10.64 
716.38 -203.79 10.97 
706.57 -179.94 10.89 
707.07 -180.39 10.93 
710.48 -204.22 10.63 
711.06 -204.28 10.74 
710.57 -202.97 10.73 
711.44 -202.23 10.96 
712.23 -202.68 11.09 
712.68 -203.22 11.14 
712.87 -203.41 11.17 
707.67 -194.63 10.81 
696.70 -180.71 10.18 
707.84 -194.18 10.88 
697.01 -180.73 10.24 
707.89 -193.80 10.92 
698.34 -181.35 10.40 
707.63 -192.98 10.94 
707.89 -193.45 10.95 
698.21 -181.07 10.41 
708.87 -192.51 11.22 
709.11 -193.08 11.22 
708.99 -192.00 11.29 
712.21 -201.41 11.36 
712.54 -201.87 11.40 
715.86 -202.11 11.86 
698.13 -180.06 10.50 
698.32 -180.47 10.49 
699.12 -180.90 10.59 
699.45 -180.96 10.64 
699.66 -181.16 10.66 
713.69 -198.62 11.67 
709.27 -191.51 11.39 
709.48 -191.30 11.45 
709.46 -204.29 11.36 
709.55 -203.63 11.43 
710.23 -203.99 11.55 
709.44 -202.80 11.47 
710.16 -203.71 11.56 
710.45 -204.21 11.58 
710.10 -203.15 11.59 
711.31 -204.56 11.75 
710.23 -202.21 11.69 
710.62 -202.67 11.74 
711.91 -204.68 11.88 
710.82 -202.64 11.79 
710.89 -201.04 11.93 
711.35 -201.48 12.00 
695.84 -181.73 10.86 
712.67 -203.85 12.11 
711.35 -201.16 12.02 
711.21 -199.96 12.09 
711.50 -200.47 12.11 
696.49 -181.36 11.03 
711.15 -199.19 12.14 
711.46 -199.52 12.18 
696.58 -181.20 11.07 
712.79 -200.31 12.41 
711.92 -198.39 12.38 
713.45 -199.33 12.64 
712.86 -197.91 12.63 
698.28 -179.98 11.55 
709.14 -191.88 12.39 
710.01 -192.44 12.52 
710.39 -191.79 12.67 
700.06 -179.71 11.92 
710.56 -203.89 12.61 
710.02 -202.29 12.61 
710.66 -203.27 12.68 
710.89 -203.53 12.72 
710.12 -201.71 12.69 
711.13 -202.79 12.84 
710.77 -200.51 12.96 
710.73 -200.17 12.98 
713.50 -203.24 13.39 
695.29 -180.94 11.82 
695.81 -181.26 11.88 
696.02 -181.54 11.88 
712.44 -201.75 13.26 
712.10 -200.28 13.31 
695.56 -180.09 12.00 
696.38 -179.94 12.18 
714.71 -203.81 13.65 
715.06 -203.44 13.76 
715.43 -203.00 13.89 
693.73 -180.18 12.58 
712.01 -202.18 14.16 
711.84 -201.30 14.19 
712.36 -204.56 15.07 
712.49 -202.64 15.30 
713.62 -204.49 15.45 
713.34 -203.95 15.42 
712.80 -202.23 15.43 
713.73 -203.51 15.58 
708.27 -204.47 7.52 
708.62 -204.29 7.57 
708.92 -203.90 7.63 
707.61 -201.60 7.56 
707.98 -201.73 7.60 
708.41 -201.83 7.66 
709.37 -203.49 7.71 
710.01 -203.20 7.81 
709.08 -201.85 7.75 
709.45 -201.97 7.79 
709.80 -202.11 7.83 
710.19 -202.25 7.88 
710.55 -202.74 7.90 
710.68 -202.37 7.94 
710.95 -202.54 7.97 
691.59 -184.64 7.27 
691.72 -184.81 7.28 
692.32 -184.38 7.40 
692.68 -184.26 7.45 
692.81 -184.14 7.48 
693.36 -183.93 7.58 
695.08 -182.19 7.95 
695.27 -182.37 7.96 
695.65 -182.32 8.02 
695.99 -182.32 8.07 
696.31 -182.56 8.10 
696.62 -182.82 8.13 
696.82 -183.00 8.14 
716.26 -202.36 9.76 
710.92 -193.75 9.42 
698.44 -182.34 8.42 
698.73 -182.44 8.46 
708.38 -193.25 9.23 
708.76 -193.36 9.28 
710.02 -194.67 9.40 
710.45 -195.44 9.42 
716.38 -202.85 9.96 
699.66 -181.83 8.64 
699.86 -181.97 8.66 
709.78 -194.13 9.39 
710.60 -194.71 9.49 
699.95 -181.43 8.71 
700.24 -181.98 8.71 
699.48 -180.43 8.71 
700.52 -181.28 8.80 
711.63 -194.54 9.66 
695.74 -181.61 9.01 
695.90 -181.87 9.02 
696.56 -182.37 9.08 
696.66 -181.32 9.19 
697.50 -181.60 9.30 
697.53 -182.02 9.26 
697.92 -181.99 9.33 
708.10 -194.08 10.10 
709.35 -195.36 10.23 
698.57 -181.65 9.46 
698.80 -181.82 9.49 
708.27 -193.29 10.18 
715.93 -202.29 10.78 
716.03 -202.48 10.79 
709.73 -194.14 10.38 
709.84 -194.40 10.23 
710.82 -195.26 10.50 
699.70 -181.20 9.69 
709.89 -193.39 10.46 
710.49 -194.65 10.33 
714.17 -198.79 10.87 
710.26 -192.24 10.46 
710.57 -191.71 10.56 
711.81 -193.48 10.64 
715.97 -202.78 10.96 
706.78 -180.03 10.95 
707.27 -180.04 11.03 
693.23 -183.26 9.35 
710.48 -202.79 10.74 
711.31 -202.11 10.95 
711.58 -202.31 10.99 
712.37 -203.26 11.09 
695.80 -179.99 10.15 
696.14 -180.56 10.14 
712.59 -200.38 11.34 
696.58 -180.36 10.24 
696.87 -180.45 10.28 
696.96 -180.82 10.26 
707.59 -193.03 10.96 
709.55 -194.91 11.17 
708.82 -192.53 11.24 
708.88 -192.79 11.23 
708.96 -192.01 11.31 
712.34 -201.59 11.38 
712.47 -201.30 11.42 
711.83 -199.67 11.40 
715.35 -202.37 11.75 
698.35 -180.90 10.49 
698.45 -181.24 10.47 
697.88 -180.17 10.49 
698.22 -180.59 10.50 
698.35 -179.95 10.59 
699.59 -181.24 10.68 
713.58 -198.26 11.70 
713.56 -198.60 11.67 
699.36 -180.59 10.70 
699.51 -180.88 10.70 
713.51 -197.88 11.71 
711.32 -194.12 11.58 
709.40 -191.29 11.46 
715.97 -198.86 12.13 
711.02 -192.08 11.81 
709.52 -204.14 11.38 
709.67 -203.51 11.46 
709.48 -202.56 11.50 
709.81 -202.72 11.56 
711.25 -204.59 11.73 
710.74 -202.67 11.77 
694.91 -181.35 10.78 
711.29 -201.51 11.99 
695.67 -181.51 10.91 
711.08 -200.71 12.01 
711.42 -201.15 12.05 
695.55 -181.23 10.92 
711.19 -199.66 12.12 
711.19 -199.97 12.09 
713.80 -203.06 12.61 
711.08 -199.24 12.13 
696.80 -180.95 11.19 
712.70 -200.33 12.40 
696.64 -180.67 11.20 
715.02 -202.97 12.71 
711.92 -198.64 12.37 
714.81 -201.77 12.75 
713.37 -199.36 12.63 
713.51 -199.59 12.64 
697.90 -179.94 11.53 
712.77 -197.90 12.62 
714.54 -199.87 12.85 
715.20 -200.62 12.93 
698.41 -179.78 11.65 
698.81 -180.22 11.67 
709.08 -191.93 12.40 
710.00 -192.37 12.55 
710.31 -191.78 12.67 
710.58 -203.91 12.60 
692.19 -180.83 11.28 
692.38 -180.95 11.30 
709.97 -202.21 12.60 
710.56 -203.37 12.64 
699.96 -179.83 11.94 
710.70 -203.27 12.69 
710.89 -203.52 12.71 
711.07 -202.83 12.82 
693.45 -180.51 11.57 
694.08 -180.39 11.71 
710.44 -199.67 12.96 
710.70 -200.24 12.97 
695.11 -180.82 11.85 
712.41 -201.73 13.25 
712.69 -202.26 13.27 
695.54 -179.83 12.09 
712.07 -200.28 13.30 
696.16 -179.84 12.21 
696.51 -180.74 12.15 
714.60 -203.76 13.62 
715.42 -202.89 13.89 
715.42 -203.16 13.87 
712.05 -202.14 14.16 
713.81 -204.04 14.46 
711.90 -201.26 14.21 
711.95 -203.48 15.03 
713.43 -204.50 15.37 
712.46 -202.64 15.27 
713.31 -203.90 15.39 
713.45 -203.54 15.47 
703.76 -200.62 6.99 
708.56 -204.04 7.46 
707.95 -202.34 7.46 
708.38 -202.43 7.51 
708.53 -202.40 7.53 
708.70 -202.57 7.55 
709.61 -203.34 7.63 
709.17 -202.65 7.60 
709.65 -202.74 7.66 
709.82 -203.01 7.67 
709.93 -202.91 7.69 
691.57 -184.86 7.21 
692.34 -184.17 7.37 
692.59 -184.37 7.39 
692.87 -184.20 7.44 
694.87 -181.83 7.90 
695.07 -182.00 7.91 
695.33 -182.12 7.94 
695.55 -182.27 7.96 
695.94 -182.19 8.02 
696.39 -182.50 8.07 
696.44 -182.88 8.05 
696.35 -182.08 8.09 
696.84 -182.82 8.11 
697.44 -182.54 8.21 
697.68 -182.66 8.24 
710.55 -193.81 9.25 
698.09 -182.61 8.30 
698.09 -182.55 8.31 
698.67 -182.43 8.40 
699.21 -182.12 8.50 
699.37 -182.32 8.51 
709.67 -195.00 9.22 
710.00 -195.43 9.24 
710.30 -195.60 9.28 
709.85 -194.57 9.27 
709.97 -195.17 9.25 
716.33 -202.66 9.82 
716.39 -202.92 9.82 
709.30 -193.50 9.25 
709.85 -193.87 9.31 
709.32 -192.83 9.29 
710.65 -194.77 9.38 
700.19 -181.39 8.69 
700.40 -181.56 8.71 
710.34 -204.55 9.50 
711.83 -202.67 10.08 
695.78 -182.77 8.88 
711.76 -202.45 10.08 
695.25 -181.62 8.90 
695.53 -181.71 8.93 
695.28 -181.17 8.94 
696.45 -182.33 9.02 
696.22 -181.45 9.06 
697.85 -181.60 9.31 
698.47 -182.04 9.37 
698.17 -181.48 9.37 
698.54 -181.49 9.43 
698.64 -181.98 9.40 
715.87 -202.77 10.80 
697.99 -180.67 9.41 
698.55 -181.39 9.44 
708.33 -193.12 10.10 
715.86 -202.16 10.64 
715.91 -202.42 10.63 
709.61 -194.04 10.12 
710.28 -194.67 10.18 
699.78 -181.24 9.65 
709.36 -192.78 10.30 
709.48 -193.04 10.17 
709.62 -193.68 10.15 
710.14 -194.10 10.20 
710.79 -195.08 10.39 
714.20 -198.77 10.74 
699.85 -181.01 9.68 
709.90 -193.18 10.23 
710.16 -192.94 10.29 
711.14 -193.39 10.43 
716.29 -203.67 10.82 
707.03 -179.77 10.95 
711.04 -204.25 10.60 
711.27 -202.10 10.81 
711.52 -202.31 10.84 
711.88 -202.44 10.90 
712.08 -202.82 10.91 
712.55 -203.12 10.99 
694.85 -181.23 9.82 
711.79 -200.30 11.21 
695.42 -179.74 10.08 
695.91 -180.64 10.06 
696.16 -180.69 10.10 
696.40 -180.84 10.12 
697.44 -181.33 10.25 
697.59 -181.61 10.25 
708.84 -194.94 10.92 
708.60 -194.35 10.93 
709.53 -194.84 11.07 
709.56 -194.12 11.13 
709.80 -194.25 11.17 
711.78 -199.70 11.25 
715.53 -203.26 11.76 
697.19 -180.21 10.33 
715.35 -202.34 11.60 
698.39 -181.02 10.45 
697.80 -179.84 10.48 
698.69 -181.11 10.49 
699.29 -180.83 10.62 
713.18 -197.62 11.54 
713.64 -198.36 11.57 
715.08 -200.45 11.86 
699.71 -181.05 10.67 
713.44 -197.77 11.58 
699.79 -180.66 10.73 
709.99 -193.09 11.31 
715.32 -198.23 11.91 
712.11 -193.46 11.68 
691.58 -182.79 9.97 
709.44 -204.01 11.22 
709.75 -204.16 11.28 
710.03 -204.64 11.30 
692.51 -182.74 10.14 
692.72 -182.89 10.16 
709.43 -203.19 11.29 
709.43 -203.43 11.27 
709.85 -203.55 11.35 
709.71 -202.43 11.42 
710.67 -203.85 11.51 
709.99 -202.05 11.51 
693.70 -181.84 10.48 
693.77 -182.21 10.44 
710.45 -202.45 11.58 
695.32 -181.82 10.78 
711.03 -200.96 11.83 
695.22 -181.46 10.81 
710.96 -199.71 11.93 
711.18 -199.91 11.96 
694.85 -180.92 10.81 
695.09 -181.17 10.82 
711.84 -200.90 12.02 
711.05 -199.03 12.01 
711.15 -199.31 12.01 
711.80 -200.25 12.07 
696.31 -180.94 11.08 
712.43 -200.27 12.20 
715.22 -203.42 12.56 
697.05 -180.80 11.23 
714.96 -202.85 12.55 
715.65 -203.55 12.65 
697.36 -179.93 11.40 
698.09 -179.86 11.54 
698.32 -180.02 11.57 
698.63 -180.12 11.61 
712.89 -197.76 12.53 
712.96 -198.01 12.52 
714.14 -198.80 12.71 
709.02 -191.82 12.30 
709.91 -192.36 12.43 
710.33 -191.66 12.59 
710.54 -203.61 12.46 
709.68 -201.84 12.42 
709.86 -202.06 12.44 
709.97 -202.32 12.44 
709.93 -201.78 12.48 
710.03 -202.04 12.48 
710.56 -202.54 12.57 
710.07 -201.36 12.56 
715.08 -203.98 12.67 
692.32 -180.83 11.30 
711.93 -204.60 12.71 
693.37 -180.18 11.60 
693.39 -180.46 11.56 
712.22 -203.20 12.91 
712.49 -203.47 12.95 
693.95 -180.33 11.69 
711.80 -202.46 12.88 
710.71 -200.12 12.84 
713.64 -203.62 13.22 
694.28 -179.70 11.85 
710.46 -199.33 12.86 
710.68 -199.82 12.86 
711.69 -199.97 13.09 
711.05 -202.82 13.66 
713.06 -202.44 14.38 
713.96 -203.74 14.52 
712.05 -203.92 14.83 
712.40 -204.56 14.87 
711.77 -203.45 14.80 
711.92 -201.79 15.03 
712.45 -202.84 15.07 
712.63 -202.45 15.16 
703.23 -200.91 6.83 
704.40 -202.43 6.89 
691.53 -184.97 6.49 
691.54 -185.33 7.28 
692.13 -183.76 7.49 
692.37 -184.10 7.49 
692.52 -184.16 7.51 
694.10 -182.01 7.89 
695.17 -181.29 8.10 
695.28 -181.64 8.08 
695.58 -181.69 8.12 
696.56 -182.23 8.21 
696.68 -182.54 8.20 
696.81 -182.83 8.20 
710.98 -193.86 9.25 
695.93 -181.65 8.17 
696.36 -182.01 8.20 
696.37 -181.52 8.24 
697.37 -182.54 8.30 
697.74 -182.51 8.35 
698.15 -182.91 8.38 
698.16 -182.41 8.42 
698.73 -182.59 8.48 
708.24 -194.15 9.00 
699.37 -181.81 8.63 
699.50 -182.05 8.63 
709.66 -194.69 9.17 
716.45 -202.95 9.66 
709.27 -193.19 9.21 
709.92 -194.15 9.24 
709.89 -193.84 9.26 
709.50 -192.70 9.28 
700.44 -180.92 8.85 
700.73 -181.01 8.88 
693.55 -182.76 8.65 
693.96 -182.18 8.77 
694.11 -182.36 8.78 
694.27 -182.40 8.80 
694.82 -181.83 8.94 
695.17 -182.20 8.95 
695.45 -182.28 8.98 
695.54 -182.65 8.96 
712.02 -202.90 9.94 
712.62 -203.05 10.04 
712.73 -203.56 10.02 
712.97 -203.79 10.05 
695.42 -181.31 9.08 
696.25 -182.08 9.13 
697.64 -181.07 9.44 
697.95 -181.63 9.43 
698.40 -182.01 9.46 
697.84 -181.28 9.44 
698.25 -181.72 9.46 
715.84 -202.70 10.62 
708.73 -193.28 9.98 
715.89 -202.37 10.46 
716.08 -202.67 10.48 
709.20 -193.61 10.02 
709.52 -193.73 10.07 
709.84 -194.32 10.07 
710.33 -194.63 10.12 
699.35 -181.21 9.68 
699.57 -181.39 9.70 
710.39 -193.54 10.23 
700.32 -180.95 9.86 
700.55 -181.10 9.88 
711.03 -193.79 10.31 
710.42 -191.93 10.37 
692.97 -182.61 9.49 
710.99 -203.20 10.52 
711.39 -203.58 10.56 
711.41 -203.30 10.59 
711.36 -202.40 10.65 
711.49 -202.66 10.66 
711.96 -202.73 10.74 
694.55 -181.00 9.94 
694.93 -180.75 10.03 
695.23 -180.97 10.05 
712.32 -201.33 11.09 
696.03 -180.34 10.26 
707.46 -193.79 10.72 
707.71 -194.46 10.70 
707.71 -194.03 10.74 
708.59 -194.39 10.87 
709.08 -194.40 10.96 
709.72 -194.31 11.08 
713.06 -201.37 11.23 
695.84 -180.10 10.25 
712.41 -200.44 11.18 
696.62 -180.49 10.33 
697.50 -181.18 10.40 
697.70 -181.39 10.41 
713.06 -200.50 11.30 
697.22 -180.55 10.43 
697.35 -180.88 10.41 
699.05 -180.53 10.73 
699.41 -181.05 10.73 
713.51 -198.09 11.44 
713.63 -198.32 11.45 
698.93 -180.28 10.74 
699.99 -181.26 10.80 
713.51 -197.68 11.48 
709.63 -192.51 11.25 
711.20 -194.09 11.38 
700.57 -180.09 11.04 
715.28 -198.17 11.78 
691.71 -182.92 10.13 
709.50 -204.14 11.06 
692.56 -182.69 10.31 
692.75 -182.89 10.31 
709.42 -203.26 11.13 
709.78 -203.69 11.17 
709.60 -202.92 11.20 
692.38 -180.78 10.55 
709.72 -202.27 11.29 
710.74 -202.98 11.44 
694.10 -181.20 10.79 
711.60 -201.03 11.81 
710.93 -199.76 11.79 
693.77 -180.01 10.90 
694.78 -180.52 11.00 
694.95 -180.79 11.00 
695.06 -181.14 10.96 
695.19 -181.47 10.94 
694.97 -180.29 11.07 
695.03 -180.73 11.02 
695.61 -180.89 11.10 
695.93 -180.87 11.16 
696.05 -181.21 11.13 
711.08 -199.01 11.90 
711.24 -199.27 11.91 
711.73 -199.99 11.94 
712.46 -200.93 12.01 
712.42 -200.03 12.08 
712.58 -200.27 12.09 
714.25 -202.41 12.25 
696.65 -180.80 11.29 
715.15 -202.91 12.40 
714.60 -201.94 12.37 
713.46 -199.45 12.36 
697.89 -180.00 11.63 
713.31 -198.84 12.39 
712.95 -197.69 12.43 
714.75 -200.18 12.57 
709.13 -191.71 12.30 
713.29 -197.15 12.56 
709.92 -192.27 12.39 
710.28 -191.66 12.54 
709.89 -204.28 12.07 
710.42 -203.47 12.28 
709.77 -201.96 12.28 
710.74 -203.58 12.34 
710.30 -201.96 12.41 
710.79 -202.71 12.44 
709.74 -201.06 12.37 
692.23 -180.34 11.55 
692.75 -180.56 11.60 
711.00 -202.25 12.54 
712.16 -203.91 12.65 
692.75 -179.95 11.70 
693.31 -180.12 11.78 
693.50 -180.36 11.77 
712.12 -203.30 12.70 
713.18 -203.82 12.90 
693.99 -180.06 11.91 
694.21 -180.26 11.92 
694.46 -180.37 11.95 
710.80 -200.17 12.72 
710.92 -200.40 12.72 
710.51 -199.35 12.74 
710.65 -199.58 12.75 
695.30 -179.81 12.20 
695.41 -180.00 12.19 
712.35 -200.34 13.07 
712.48 -203.75 13.90 
712.43 -202.03 14.06 
712.50 -202.27 13.93 
712.14 -204.56 14.59 
712.37 -204.17 14.70 
712.23 -202.99 14.80 
711.90 -201.87 14.84 
712.13 -201.49 14.96 
712.64 -202.49 14.98 
702.55 -201.13 6.60 
702.69 -201.43 6.60 
702.87 -201.72 6.61 
703.03 -202.03 6.61 
703.27 -202.42 6.61 
692.87 -184.16 6.68 
691.71 -184.59 7.35 
692.02 -184.55 7.40 
693.68 -182.10 7.83 
695.25 -181.95 8.05 
695.51 -182.29 8.05 
695.73 -182.41 8.07 
695.85 -182.30 8.10 
696.59 -182.63 8.17 
716.23 -202.51 9.27 
695.02 -180.98 8.10 
695.34 -180.94 8.15 
695.61 -181.00 8.18 
696.59 -182.10 8.21 
697.49 -182.29 8.32 
697.75 -182.41 8.34 
697.92 -182.67 8.34 
697.65 -181.53 8.40 
698.34 -182.56 8.41 
698.81 -182.39 8.49 
699.25 -182.28 8.56 
710.34 -195.52 9.08 
716.33 -202.65 9.47 
716.40 -202.92 9.46 
699.89 -181.90 8.67 
709.04 -192.94 9.08 
709.43 -193.78 9.08 
709.11 -192.95 9.09 
709.92 -193.77 9.15 
710.18 -204.55 9.14 
693.70 -181.95 8.76 
711.46 -203.60 9.61 
711.87 -202.93 9.73 
712.07 -203.11 9.75 
694.55 -181.02 8.99 
694.62 -181.50 8.95 
694.86 -181.64 8.96 
695.21 -181.60 9.02 
695.41 -181.81 9.03 
695.65 -181.96 9.05 
696.01 -182.43 9.05 
696.05 -181.85 9.11 
697.46 -181.20 9.39 
697.92 -181.81 9.40 
697.81 -181.21 9.44 
698.43 -181.85 9.47 
697.80 -180.15 9.55 
715.90 -202.39 10.28 
716.06 -202.60 10.29 
709.38 -193.59 9.94 
710.18 -194.49 9.99 
709.35 -192.85 10.00 
710.10 -193.82 10.04 
699.64 -180.65 9.77 
709.87 -192.77 10.10 
710.65 -192.55 10.24 
711.10 -192.60 10.31 
692.82 -182.33 9.52 
710.93 -203.30 10.31 
711.22 -202.55 10.43 
711.58 -202.69 10.49 
712.24 -203.05 10.58 
694.34 -180.70 9.96 
694.61 -180.91 9.97 
694.29 -180.21 10.01 
695.00 -180.69 10.06 
695.48 -180.53 10.16 
712.10 -201.33 10.86 
695.53 -180.35 10.19 
707.78 -193.84 10.66 
708.54 -194.22 10.76 
709.02 -194.23 10.84 
709.26 -194.73 10.84 
708.79 -192.51 10.99 
696.05 -180.05 10.31 
697.07 -181.17 10.33 
697.07 -180.64 10.40 
697.15 -180.88 10.38 
697.48 -181.17 10.40 
697.63 -181.38 10.40 
696.96 -180.30 10.42 
697.66 -180.81 10.47 
699.04 -181.41 10.62 
715.58 -200.65 11.59 
715.25 -199.79 11.60 
709.27 -191.25 11.21 
711.27 -194.04 11.27 
700.49 -179.98 11.03 
715.41 -198.09 11.64 
709.81 -203.58 10.99 
710.46 -204.12 11.08 
692.54 -180.99 10.59 
710.09 -202.24 11.19 
710.61 -202.86 11.24 
710.26 -201.80 11.27 
710.15 -200.77 11.36 
712.69 -204.11 11.56 
711.52 -200.55 11.67 
711.84 -200.72 11.72 
711.09 -199.11 11.73 
711.29 -199.33 11.75 
711.01 -198.82 11.74 
692.99 -180.72 10.70 
692.43 -179.94 10.73 
694.92 -180.73 11.02 
694.48 -179.74 11.09 
694.99 -180.10 11.13 
695.28 -180.68 11.09 
695.58 -180.73 11.13 
696.08 -181.06 11.17 
712.40 -200.76 11.83 
696.49 -180.95 11.26 
696.77 -181.01 11.30 
696.86 -180.95 11.32 
712.30 -199.82 11.91 
714.26 -202.16 12.08 
714.53 -201.71 12.18 
697.77 -180.05 11.61 
714.86 -200.19 12.41 
713.76 -197.98 12.41 
714.09 -198.50 12.42 
