# .PCD v0.7 - Point Cloud Data file format
VERSION 0.7
FIELDS x y z
SIZE 4 4 4
TYPE F F F
COUNT 1 1 1
WIDTH 1212
HEIGHT 1
VIEWPOINT 0 0 0 1 0 0 0
POINTS 1212
DATA ascii
696.05 -688.29 8.17 
694.12 -691.29 8.50 
701.72 -689.28 13.37 
696.31 -689.01 9.29 
697.94 -681.05 8.09 
694.41 -691.09 7.32 
700.28 -679.69 8.11 
700.01 -680.86 7.90 
699.85 -680.77 9.00 
700.35 -680.35 9.07 
700.41 -680.09 10.21 
699.98 -680.90 8.19 
700.33 -680.58 7.98 
701.35 -680.22 8.15 
700.30 -680.80 9.12 
700.68 -680.05 9.13 
700.75 -679.82 10.26 
700.64 -680.13 7.99 
700.38 -680.20 8.19 
700.17 -680.77 8.19 
700.68 -680.43 9.14 
700.60 -681.46 9.22 
701.62 -681.20 9.40 
700.99 -679.98 10.29 
700.37 -680.62 8.09 
698.73 -683.68 8.26 
700.43 -680.68 8.34 
699.51 -683.63 8.40 
700.91 -680.24 8.40 
699.52 -684.04 8.20 
700.11 -683.93 8.30 
700.61 -680.19 9.19 
699.39 -683.38 9.25 
700.37 -681.36 9.25 
700.34 -681.97 9.31 
700.17 -683.46 9.42 
701.10 -681.29 9.40 
700.82 -680.04 10.33 
701.76 -680.83 10.62 
700.13 -680.78 8.10 
700.37 -680.58 8.13 
701.13 -680.11 8.24 
700.46 -680.54 8.37 
700.97 -680.17 8.44 
700.70 -680.39 8.41 
700.58 -680.69 8.41 
699.45 -685.44 8.32 
701.33 -684.27 8.82 
700.62 -680.14 9.22 
698.79 -684.71 9.27 
700.29 -681.18 9.24 
699.42 -683.78 9.31 
699.06 -684.77 9.33 
700.40 -681.94 9.34 
699.73 -683.76 9.38 
702.35 -681.73 9.72 
699.23 -684.94 9.64 
700.62 -684.36 9.61 
700.39 -684.60 9.59 
698.69 -683.07 10.21 
698.49 -684.41 10.32 
700.87 -680.10 10.36 
701.22 -679.98 12.64 
701.49 -680.99 8.42 
700.26 -680.64 8.39 
700.33 -681.22 8.44 
699.79 -682.11 8.41 
700.45 -682.53 8.57 
700.31 -684.15 8.43 
699.88 -685.14 8.43 
699.66 -685.41 8.41 
702.55 -683.80 8.83 
700.43 -680.31 9.23 
700.88 -679.89 9.28 
699.22 -684.43 9.37 
700.84 -681.30 9.41 
700.59 -681.58 9.38 
700.03 -683.46 9.44 
699.50 -684.36 9.42 
702.71 -681.13 9.78 
698.68 -685.52 9.61 
701.94 -684.22 9.90 
699.35 -682.68 10.33 
701.06 -679.82 10.39 
700.87 -680.05 10.37 
699.97 -683.06 10.51 
699.62 -684.20 10.57 
702.24 -679.73 10.65 
701.98 -679.91 10.61 
701.97 -680.46 10.67 
700.27 -684.43 13.06 
700.55 -683.51 15.36 
695.69 -688.49 8.02 
695.99 -688.44 8.07 
700.05 -680.59 8.44 
696.55 -688.65 8.19 
700.37 -680.58 8.50 
699.69 -682.19 8.50 
696.94 -688.66 8.27 
699.34 -684.02 8.58 
698.78 -685.45 8.59 
700.60 -682.41 8.69 
700.38 -682.63 8.66 
699.87 -684.16 8.69 
698.62 -686.55 8.65 
699.54 -685.43 8.50 
700.83 -684.52 8.90 
700.77 -684.94 8.92 
702.16 -682.40 8.98 
702.40 -683.81 8.92 
698.55 -684.83 9.36 
700.46 -681.65 9.45 
699.76 -683.28 9.46 
699.33 -684.36 9.48 
699.13 -684.54 9.45 
699.67 -684.28 9.54 
701.34 -680.76 9.55 
702.59 -681.18 9.85 
698.03 -685.09 9.53 
700.94 -680.02 10.46 
701.46 -679.75 10.55 
701.12 -679.84 10.48 
699.54 -684.22 10.63 
699.53 -684.75 10.69 
702.13 -679.97 10.73 
703.14 -683.02 11.30 
700.05 -685.18 12.01 
703.07 -682.53 12.38 
702.62 -683.60 12.41 
702.64 -684.06 12.47 
704.06 -682.69 12.64 
702.13 -683.23 13.40 
700.82 -683.05 15.37 
700.72 -683.44 15.42 
700.24 -680.46 8.30 
699.50 -683.37 8.39 
701.26 -679.79 8.44 
699.73 -683.15 8.41 
701.65 -679.76 8.51 
701.62 -681.48 8.64 
696.67 -688.59 8.28 
696.42 -688.79 8.25 
695.93 -690.18 8.51 
700.21 -681.42 8.58 
697.25 -688.35 8.37 
696.94 -688.39 8.31 
696.18 -690.03 8.54 
700.23 -682.47 8.67 
699.05 -685.19 8.67 
698.75 -685.27 8.62 
700.56 -682.32 8.72 
698.00 -688.80 8.54 
701.16 -682.17 8.82 
699.75 -685.09 8.57 
699.52 -685.31 8.55 
699.62 -685.96 8.62 
700.44 -684.95 8.91 
700.42 -685.40 8.72 
701.32 -684.47 8.82 
702.34 -683.73 8.96 
700.55 -680.93 9.44 
699.82 -682.89 9.48 
699.30 -684.29 9.51 
699.11 -684.51 9.49 
700.98 -680.94 9.53 
700.51 -681.81 9.52 
699.44 -684.38 9.55 
700.46 -682.75 9.60 
700.42 -684.15 9.73 
699.31 -685.15 9.83 
701.12 -679.91 10.52 
699.21 -684.28 10.60 
699.70 -684.46 10.73 
699.53 -684.77 10.72 
703.22 -683.07 11.35 
702.73 -683.65 12.46 
703.45 -683.94 12.68 
704.26 -682.85 12.73 
702.32 -682.89 13.41 
700.91 -683.12 15.40 
701.10 -684.30 15.68 
699.40 -683.37 8.40 
700.98 -680.68 8.49 
699.70 -683.24 8.45 
700.30 -683.44 8.58 
702.14 -679.71 8.63 
699.92 -684.97 8.63 
699.72 -685.19 8.61 
700.15 -681.38 8.59 
696.89 -688.33 8.33 
696.71 -688.60 8.32 
696.13 -690.07 8.57 
695.93 -690.34 8.56 
695.86 -690.92 8.59 
699.41 -683.88 8.66 
698.88 -685.25 8.67 
697.37 -688.43 8.43 
699.64 -685.59 8.63 
698.16 -688.45 8.58 
698.23 -689.02 8.64 
700.06 -685.09 8.66 
702.25 -681.94 9.03 
700.45 -685.11 8.74 
701.51 -684.34 8.88 
702.31 -683.81 8.99 
699.97 -682.83 9.53 
698.75 -684.73 9.46 
701.47 -680.47 9.61 
700.69 -681.39 9.54 
699.96 -683.21 9.56 
699.34 -684.41 9.55 
700.49 -682.87 9.64 
700.43 -684.20 9.75 
702.43 -683.98 10.15 
699.36 -685.60 9.89 
701.47 -679.74 10.60 
700.28 -682.80 10.67 
699.77 -684.56 10.76 
703.55 -683.02 11.43 
703.84 -684.24 11.63 
702.85 -683.54 12.48 
704.12 -683.17 12.74 
702.30 -682.89 13.40 
700.40 -684.02 15.37 
701.12 -682.91 15.38 
700.96 -683.20 15.39 
700.79 -683.50 15.39 
701.05 -684.26 15.61 
703.02 -683.45 16.05 
703.47 -683.45 16.18 
696.05 -688.28 8.23 
695.81 -688.42 8.20 
701.25 -679.93 8.56 
701.13 -680.63 8.59 
699.87 -684.71 8.67 
699.63 -685.14 8.65 
701.78 -682.43 8.85 
703.13 -682.40 9.11 
699.99 -681.00 8.60 
696.05 -689.28 8.31 
696.81 -688.70 8.41 
695.92 -690.21 8.59 
694.48 -692.86 8.32 
700.37 -681.92 8.75 
698.72 -685.21 8.70 
697.04 -688.50 8.43 
696.23 -690.10 8.64 
695.08 -692.56 8.40 
701.10 -681.43 8.84 
700.26 -682.77 8.79 
699.07 -685.15 8.76 
697.93 -688.05 8.56 
701.24 -682.04 8.92 
700.02 -683.87 8.83 
703.17 -685.25 9.54 
700.61 -679.81 9.44 
701.13 -681.09 9.67 
699.98 -682.95 9.60 
699.54 -684.18 9.63 
700.58 -682.75 9.71 
702.76 -680.93 10.00 
699.51 -685.49 9.96 
698.54 -683.78 10.44 
700.06 -682.73 10.67 
700.39 -683.14 10.79 
699.87 -683.94 10.76 
699.92 -684.46 10.83 
699.82 -684.80 10.85 
703.30 -682.80 11.41 
703.42 -683.88 11.56 
700.26 -684.97 12.08 
702.82 -683.82 12.56 
703.38 -683.89 12.70 
704.44 -682.65 12.81 
704.46 -683.15 12.88 
704.67 -683.80 13.01 
700.52 -684.39 13.19 
702.41 -683.10 13.50 
701.28 -683.20 15.50 
700.62 -683.91 15.44 
701.33 -684.14 15.69 
702.20 -683.63 15.86 
703.40 -683.43 16.19 
703.26 -683.73 16.20 
699.46 -686.12 7.89 
696.22 -688.46 8.34 
695.85 -689.34 8.35 
696.72 -688.61 8.45 
696.17 -688.91 8.37 
696.03 -689.26 8.37 
699.76 -683.28 8.59 
697.00 -688.49 8.49 
697.76 -687.88 8.58 
699.79 -685.06 8.74 
699.50 -685.40 8.71 
698.07 -687.83 8.64 
700.08 -684.92 8.78 
699.85 -685.07 8.75 
701.87 -682.34 8.92 
699.90 -680.01 8.55 
698.66 -685.27 8.75 
696.27 -690.10 8.71 
695.97 -690.19 8.66 
695.51 -691.25 8.44 
694.69 -692.98 8.43 
694.44 -693.82 8.46 
699.12 -685.13 8.82 
697.66 -688.34 8.60 
699.78 -684.30 8.88 
702.75 -683.54 9.18 
702.26 -685.76 9.46 
699.42 -683.03 9.54 
700.13 -682.95 9.68 
699.44 -684.15 9.65 
700.53 -682.83 9.76 
700.22 -683.39 9.74 
700.04 -685.84 9.94 
703.85 -683.78 10.54 
702.83 -685.00 10.62 
699.61 -682.49 10.58 
699.92 -684.52 10.88 
703.47 -683.99 11.63 
702.70 -683.37 12.51 
700.62 -684.23 13.22 
702.74 -683.52 13.68 
700.40 -684.85 14.54 
701.19 -684.78 14.74 
700.57 -683.93 15.43 
700.73 -684.99 15.67 
701.47 -683.90 15.70 
702.36 -683.47 15.89 
702.42 -683.97 16.00 
703.41 -683.49 16.22 
698.44 -687.09 7.62 
697.05 -679.86 8.03 
697.52 -680.11 8.14 
697.29 -680.48 8.13 
693.43 -691.35 8.09 
699.03 -682.12 8.41 
693.32 -692.29 8.15 
693.64 -692.22 8.20 
700.01 -682.17 8.60 
698.95 -683.60 8.51 
698.77 -683.84 8.49 
697.27 -686.49 8.41 
694.67 -691.54 8.34 
694.41 -691.68 8.30 
699.18 -684.56 8.63 
698.12 -685.69 8.51 
698.07 -686.42 8.56 
696.77 -688.61 8.49 
698.31 -686.28 8.60 
697.60 -687.70 8.57 
697.44 -687.97 8.57 
697.25 -688.26 8.55 
697.06 -688.51 8.54 
699.98 -687.00 8.97 
698.21 -681.80 8.41 
697.64 -684.51 8.52 
698.08 -684.64 8.61 
696.43 -687.18 8.51 
693.37 -693.10 8.44 
698.56 -684.67 8.70 
697.93 -685.29 8.63 
697.77 -685.56 8.63 
696.49 -688.29 8.61 
696.23 -688.42 8.58 
693.59 -692.94 8.47 
693.29 -693.63 8.48 
693.08 -693.98 8.47 
697.61 -686.83 8.70 
691.96 -696.69 8.27 
691.68 -696.97 8.24 
699.82 -685.17 8.98 
705.95 -679.97 9.74 
698.33 -679.74 9.19 
698.14 -679.91 9.17 
698.43 -680.57 9.29 
699.35 -681.93 9.61 
698.33 -683.68 9.57 
697.53 -685.99 9.46 
698.77 -684.29 9.56 
697.12 -687.33 9.51 
696.77 -687.84 9.49 
701.01 -681.85 9.95 
700.07 -683.89 9.95 
698.38 -687.29 9.76 
696.94 -688.62 9.79 
694.82 -694.69 9.78 
698.55 -681.52 10.26 
698.97 -682.59 10.47 
696.18 -686.88 10.32 
699.01 -682.70 10.49 
698.84 -683.25 10.51 
696.81 -687.14 10.49 
697.75 -685.93 10.56 
701.16 -686.15 11.36 
700.94 -687.26 11.43 
698.80 -681.08 11.27 
698.53 -681.18 11.22 
699.52 -681.47 11.60 
700.83 -680.03 11.66 
699.98 -685.21 12.08 
700.47 -686.56 12.37 
700.35 -686.83 12.38 
700.50 -687.05 12.44 
701.89 -686.48 12.71 
700.39 -686.61 13.50 
701.85 -687.01 13.94 
700.84 -687.60 15.03 
699.02 -687.28 15.54 
699.89 -687.25 15.79 
700.11 -687.07 15.83 
701.04 -686.61 16.03 
701.03 -686.98 16.09 
702.93 -686.50 16.58 
698.77 -680.58 7.52 
699.72 -681.08 7.52 
699.19 -682.07 7.49 
698.40 -683.32 7.63 
698.49 -683.81 7.68 
700.72 -680.88 7.88 
697.34 -679.91 8.13 
698.96 -680.58 8.32 
698.84 -680.85 8.32 
698.43 -680.91 8.25 
699.01 -682.02 8.44 
693.63 -690.92 8.15 
699.21 -681.82 8.47 
699.18 -682.52 8.52 
698.87 -683.46 8.53 
694.47 -691.07 8.32 
693.96 -691.92 8.29 
699.46 -683.58 8.65 
699.01 -684.31 8.62 
697.46 -686.21 8.48 
694.42 -691.28 8.33 
700.28 -682.27 8.71 
699.28 -684.15 8.66 
698.14 -686.02 8.60 
697.68 -687.22 8.60 
698.63 -685.86 8.67 
697.65 -687.62 8.63 
697.50 -687.90 8.63 
697.35 -688.19 8.62 
697.35 -688.63 8.66 
695.69 -690.99 8.54 
699.65 -685.70 8.86 
699.09 -687.28 8.88 
701.22 -684.97 9.10 
700.09 -686.56 9.01 
698.33 -684.26 8.67 
698.00 -685.12 8.68 
697.24 -686.48 8.65 
692.75 -693.31 8.40 
697.32 -686.64 8.68 
696.71 -687.96 8.67 
696.31 -688.13 8.61 
697.87 -686.75 8.79 
692.29 -696.15 8.35 
693.48 -695.00 8.47 
693.08 -695.57 8.44 
692.39 -696.40 8.38 
699.98 -684.64 9.01 
695.86 -691.70 8.63 
702.05 -681.69 9.17 
695.40 -693.28 8.68 
693.77 -696.09 8.61 
702.48 -684.41 9.29 
698.12 -680.00 9.21 
699.52 -681.92 9.69 
699.43 -683.26 9.65 
698.72 -683.83 9.55 
698.55 -684.46 9.58 
697.88 -685.83 9.57 
697.05 -687.14 9.52 
697.29 -687.02 9.56 
697.05 -688.26 9.81 
698.28 -687.04 9.77 
700.62 -683.76 9.94 
695.37 -693.89 9.86 
698.58 -681.20 10.28 
698.39 -681.70 10.29 
699.89 -680.66 10.52 
700.08 -680.50 10.55 
699.94 -682.17 10.69 
699.53 -682.24 10.61 
700.81 -682.53 10.93 
697.53 -687.32 10.72 
701.33 -686.10 11.44 
698.13 -680.86 11.12 
699.07 -680.20 11.28 
698.86 -680.40 11.25 
698.62 -680.92 11.25 
700.82 -686.20 12.46 
702.30 -685.81 12.77 
700.28 -679.73 12.56 
701.54 -688.26 14.08 
700.09 -690.63 14.05 
698.87 -685.94 14.15 
698.50 -691.15 14.92 
698.81 -686.09 15.29 
698.42 -686.53 15.25 
698.30 -686.87 15.28 
699.51 -685.86 15.46 
699.39 -686.11 15.47 
699.29 -686.97 15.59 
701.30 -686.31 16.09 
698.72 -680.28 7.34 
699.44 -681.68 7.56 
698.74 -683.78 7.77 
699.24 -683.14 7.82 
699.07 -683.31 7.80 
699.27 -684.74 7.93 
698.19 -680.01 8.35 
699.13 -680.15 8.37 
699.63 -680.83 8.52 
699.18 -681.59 8.49 
699.09 -682.19 8.52 
699.22 -682.64 8.58 
699.61 -682.26 8.63 
697.86 -685.40 8.54 
694.41 -690.91 8.35 
694.20 -691.10 8.32 
700.54 -681.78 8.77 
699.85 -683.89 8.80 
698.48 -685.53 8.67 
698.37 -685.78 8.67 
697.94 -686.68 8.66 
699.16 -685.28 8.78 
698.19 -687.26 8.76 
697.90 -687.41 8.71 
697.78 -687.72 8.72 
697.61 -687.99 8.70 
697.37 -688.19 8.68 
700.04 -684.80 8.91 
699.95 -685.18 8.92 
696.06 -690.94 8.66 
699.12 -686.86 8.90 
701.33 -684.64 9.14 
702.06 -684.46 9.27 
697.91 -683.89 8.61 
700.85 -679.72 8.83 
699.09 -683.49 8.80 
696.83 -687.43 8.70 
698.07 -686.13 8.82 
693.56 -693.26 8.59 
692.56 -695.19 8.37 
700.04 -683.99 9.02 
692.67 -695.88 8.45 
692.46 -696.16 8.43 
702.28 -681.22 9.22 
693.39 -695.22 8.52 
693.21 -695.62 8.53 
696.18 -691.48 8.72 
695.41 -693.06 8.71 
695.18 -693.29 8.69 
694.24 -695.02 8.87 
693.94 -695.49 8.65 
693.44 -695.84 8.58 
692.98 -696.66 8.78 
694.47 -695.03 8.91 
694.24 -695.81 8.73 
703.08 -684.37 9.46 
706.83 -679.70 9.98 
697.75 -679.72 9.15 
699.13 -681.64 9.62 
699.27 -682.76 9.62 
698.87 -683.33 9.73 
698.08 -685.63 9.64 
697.20 -686.93 9.58 
701.32 -681.22 10.04 
696.97 -687.73 9.78 
700.39 -683.53 10.06 
698.55 -686.52 9.82 
698.30 -686.65 9.79 
694.05 -693.68 9.62 
695.56 -693.41 9.90 
693.66 -695.88 9.78 
694.42 -696.25 9.96 
698.64 -680.99 10.32 
699.76 -680.30 10.51 
700.31 -680.38 10.64 
699.62 -680.93 10.54 
699.24 -681.73 10.54 
699.20 -682.06 10.56 
700.35 -682.60 10.89 
700.97 -682.22 10.99 
700.51 -681.47 10.90 
697.69 -686.68 10.73 
697.74 -687.07 10.78 
698.31 -680.47 11.18 
699.58 -680.25 11.47 
700.98 -680.52 11.86 
700.87 -680.76 11.86 
700.80 -681.87 11.97 
701.64 -685.15 12.58 
700.99 -686.27 12.56 
696.36 -694.29 12.51 
701.59 -686.33 12.71 
702.28 -686.07 12.85 
701.72 -689.60 13.16 
700.22 -679.69 12.60 
700.55 -680.67 12.82 
700.56 -685.19 13.43 
701.47 -684.30 13.55 
701.64 -687.78 14.08 
699.16 -691.50 13.98 
698.45 -692.22 13.91 
698.38 -692.56 13.94 
700.48 -690.10 14.11 
698.96 -686.42 14.34 
701.44 -686.69 15.08 
699.34 -685.27 15.35 
699.54 -686.63 15.65 
701.69 -685.54 16.13 
701.43 -685.71 16.07 
701.48 -686.18 16.17 
698.68 -682.16 7.49 
699.02 -681.69 7.52 
699.34 -682.27 7.61 
698.88 -682.70 7.76 
698.38 -684.38 7.78 
699.56 -681.41 8.59 
699.41 -681.61 8.58 
699.63 -682.12 8.66 
697.52 -685.34 8.51 
699.62 -683.58 8.77 
698.63 -685.16 8.70 
698.59 -685.45 8.72 
700.21 -683.32 8.86 
698.91 -685.32 8.77 
697.59 -687.78 8.72 
699.68 -684.75 8.87 
699.67 -685.20 8.91 
698.98 -686.21 8.85 
697.79 -687.56 8.74 
696.29 -690.47 8.69 
695.22 -692.03 8.62 
700.42 -684.73 9.01 
699.10 -686.71 8.92 
698.81 -687.02 8.89 
698.57 -687.43 8.87 
698.40 -687.68 8.86 
696.22 -690.79 8.70 
695.48 -691.91 8.66 
701.41 -683.92 9.14 
700.18 -685.94 9.06 
701.31 -684.43 9.16 
699.53 -680.98 8.71 
700.27 -680.78 8.83 
699.86 -682.65 8.90 
697.44 -685.94 8.71 
696.87 -687.04 8.70 
699.69 -683.27 8.92 
700.94 -682.46 9.09 
697.90 -687.27 8.91 
692.77 -694.61 8.38 
693.92 -694.00 8.54 
693.62 -694.10 8.50 
694.42 -693.55 8.60 
693.47 -694.93 8.54 
693.15 -695.58 8.54 
693.70 -695.78 8.65 
700.34 -687.12 9.35 
693.04 -697.65 8.69 
701.09 -681.36 9.92 
701.05 -681.90 10.07 
698.36 -686.20 9.79 
698.72 -686.03 9.84 
698.68 -686.81 9.91 
695.59 -693.17 9.90 
695.45 -693.42 9.90 
694.16 -695.55 9.86 
693.54 -696.29 9.81 
694.84 -695.86 10.03 
695.03 -696.01 10.08 
694.82 -696.87 10.13 
700.23 -680.23 10.66 
698.00 -685.99 10.75 
697.84 -686.25 10.74 
701.18 -681.63 11.09 
698.76 -689.51 11.32 
702.36 -684.55 11.60 
698.43 -692.92 11.64 
701.10 -680.13 11.89 
700.82 -680.96 11.92 
702.47 -684.37 12.73 
696.89 -693.90 12.59 
696.65 -694.64 12.63 
701.88 -689.30 13.19 
703.65 -687.27 13.38 
704.11 -687.20 13.49 
703.48 -687.95 13.42 
700.61 -684.30 13.36 
699.96 -687.32 13.65 
701.75 -687.20 14.06 
698.43 -691.84 13.86 
702.06 -687.02 14.15 
700.51 -689.62 14.08 
700.70 -690.65 14.28 
699.04 -686.04 14.31 
699.25 -687.19 14.56 
700.18 -686.41 14.68 
701.32 -686.11 14.97 
699.53 -685.16 15.43 
699.73 -685.72 15.59 
699.80 -686.20 15.69 
701.79 -685.68 16.22 
698.58 -682.59 7.65 
698.21 -682.81 7.60 
698.15 -683.28 7.62 
699.42 -682.67 7.89 
698.31 -685.69 7.90 
698.21 -686.72 7.85 
700.09 -685.73 8.31 
698.93 -682.18 8.68 
699.23 -682.71 8.78 
699.00 -682.91 8.75 
699.04 -684.03 8.84 
694.22 -691.22 8.51 
693.89 -691.47 8.47 
699.15 -684.42 8.90 
698.37 -685.94 8.87 
694.58 -691.32 8.59 
699.22 -685.23 8.97 
697.74 -687.16 8.84 
696.94 -688.49 8.80 
694.90 -691.21 8.64 
698.49 -687.03 8.98 
698.40 -687.35 8.99 
697.50 -688.21 8.88 
697.46 -688.52 8.90 
694.56 -692.66 8.70 
693.26 -694.52 8.61 
693.01 -694.72 8.58 
700.74 -684.77 9.23 
700.00 -685.41 9.14 
698.32 -687.86 9.01 
698.14 -688.35 9.02 
697.83 -688.44 8.96 
693.72 -694.16 8.67 
699.61 -686.67 9.16 
700.20 -680.73 8.96 
692.61 -692.27 8.49 
699.93 -682.31 9.03 
697.77 -685.41 8.87 
698.10 -685.26 8.92 
693.07 -692.41 8.59 
701.16 -682.17 9.26 
697.74 -686.57 8.96 
697.54 -687.20 8.97 
693.67 -692.48 8.70 
693.11 -693.49 8.69 
698.37 -686.75 9.09 
697.85 -687.01 9.02 
694.32 -693.06 8.87 
692.66 -695.28 8.57 
694.23 -693.77 8.73 
694.08 -694.01 8.72 
693.79 -694.16 8.68 
692.61 -695.74 8.60 
692.58 -696.21 8.63 
699.76 -686.40 9.33 
693.37 -695.71 8.74 
693.74 -696.09 9.03 
693.14 -696.86 8.99 
692.46 -698.31 8.79 
693.26 -697.61 8.88 
692.31 -699.16 8.84 
701.55 -679.98 10.14 
701.18 -681.84 10.24 
697.94 -687.00 9.92 
698.08 -687.52 10.01 
695.07 -693.89 10.01 
693.59 -696.16 9.95 
698.99 -688.74 10.45 
701.90 -687.06 10.88 
694.92 -697.26 10.33 
699.82 -680.31 10.78 
700.76 -679.93 10.96 
697.41 -686.67 10.84 
701.83 -685.93 11.86 
699.76 -689.93 11.74 
697.84 -693.53 11.72 
702.85 -687.53 12.27 
698.48 -693.76 11.89 
701.53 -690.89 12.25 
701.12 -687.50 12.98 
696.07 -695.27 12.72 
695.81 -695.53 12.69 
699.07 -691.76 13.05 
701.85 -689.54 13.37 
703.54 -687.82 13.58 
702.96 -688.60 13.53 
703.89 -688.00 13.70 
697.86 -692.46 13.95 
699.91 -690.26 14.16 
701.34 -690.12 14.53 
703.41 -687.31 14.70 
698.96 -685.56 15.49 
699.16 -686.27 15.67 
699.25 -686.92 15.81 
701.25 -686.36 16.34 
698.80 -679.75 7.75 
700.65 -680.67 8.13 
699.84 -681.78 8.06 
699.02 -684.55 8.00 
698.71 -684.89 7.97 
699.09 -685.11 7.96 
698.53 -685.91 7.91 
696.97 -687.60 7.95 
699.08 -685.85 8.00 
700.79 -684.32 8.39 
698.78 -679.79 8.67 
698.89 -681.53 8.83 
698.56 -685.23 8.91 
698.41 -685.45 8.90 
694.69 -690.83 8.62 
698.13 -686.38 8.92 
698.00 -686.66 8.91 
697.79 -687.72 8.96 
697.63 -687.93 8.94 
694.86 -692.14 8.76 
699.08 -686.75 9.13 
696.23 -690.86 8.92 
694.95 -692.18 8.78 
694.27 -693.52 8.77 
699.96 -686.17 9.25 
698.58 -687.88 9.12 
700.19 -681.04 9.04 
699.37 -682.62 9.01 
699.25 -683.19 9.03 
691.88 -693.60 8.52 
699.56 -683.06 9.08 
696.78 -687.19 8.89 
700.49 -683.01 9.25 
697.84 -687.31 9.09 
697.91 -687.78 9.15 
697.53 -688.24 9.11 
692.92 -695.55 8.69 
693.76 -695.06 8.80 
693.30 -695.26 8.73 
692.85 -696.56 8.95 
692.09 -697.80 8.92 
696.61 -692.06 9.09 
701.43 -686.03 9.67 
692.90 -698.14 8.91 
693.94 -697.16 9.11 
693.16 -697.96 8.94 
694.16 -697.87 9.31 
698.89 -681.24 9.76 
700.48 -680.67 10.04 
699.75 -681.50 9.97 
701.28 -680.09 10.16 
700.87 -681.21 10.18 
701.06 -681.38 10.23 
698.40 -687.10 10.09 
698.27 -687.87 10.26 
693.61 -695.59 9.94 
694.49 -696.03 10.16 
699.70 -689.32 11.72 
698.87 -692.60 11.90 
703.37 -686.62 12.28 
701.78 -687.65 12.09 
699.27 -692.52 11.98 
695.92 -694.54 12.62 
695.77 -695.27 12.69 
696.20 -695.25 12.79 
703.28 -687.11 13.51 
703.11 -687.80 13.54 
703.87 -687.03 13.65 
700.45 -691.81 13.37 
701.61 -690.93 13.55 
699.68 -686.90 13.69 
701.00 -686.86 14.05 
696.37 -693.73 13.80 
699.03 -691.11 14.11 
698.40 -691.98 14.07 
698.37 -692.39 14.12 
699.68 -686.02 15.87 
697.53 -685.53 7.99 
698.70 -684.55 8.12 
695.14 -689.70 7.67 
694.76 -689.76 7.61 
694.55 -689.99 7.59 
694.08 -690.76 7.56 
701.15 -682.34 8.39 
697.95 -686.18 8.10 
695.33 -689.52 7.69 
698.16 -687.02 8.00 
697.70 -687.16 8.13 
697.46 -687.28 8.09 
702.44 -682.49 8.62 
698.60 -687.15 8.28 
698.69 -681.54 8.86 
697.76 -687.57 9.02 
694.55 -692.15 8.80 
695.47 -691.34 8.90 
695.28 -691.55 8.89 
694.84 -692.02 8.84 
694.25 -693.42 8.85 
696.12 -691.47 9.04 
700.27 -680.87 9.11 
699.67 -681.46 9.04 
699.36 -682.31 9.05 
699.32 -682.64 9.07 
697.19 -685.64 8.91 
697.95 -685.51 9.04 
697.79 -687.67 9.19 
693.57 -694.73 8.84 
693.13 -695.25 8.80 
693.93 -694.71 8.90 
693.44 -695.51 8.88 
693.83 -695.49 8.95 
694.26 -695.50 9.03 
693.01 -697.15 9.13 
693.56 -697.05 9.22 
692.61 -698.10 8.95 
693.94 -697.06 9.11 
693.43 -698.05 9.10 
694.37 -697.02 9.19 
694.01 -697.62 9.17 
693.85 -698.01 9.17 
692.87 -698.95 9.08 
698.74 -681.25 9.80 
701.00 -681.36 10.29 
697.54 -686.04 9.90 
693.26 -696.50 10.06 
701.49 -685.62 10.79 
702.31 -685.11 10.92 
694.75 -696.66 10.38 
694.41 -696.70 10.32 
700.27 -680.24 11.02 
702.18 -688.62 12.37 
700.98 -691.14 12.39 
700.13 -687.90 12.92 
696.17 -695.02 12.85 
701.07 -690.29 13.43 
700.42 -691.52 13.43 
701.67 -690.66 13.63 
700.52 -692.03 13.51 
696.52 -693.55 13.90 
698.94 -690.81 14.14 
697.91 -692.03 14.06 
698.42 -692.20 14.21 
698.36 -682.47 7.01 
697.20 -680.17 7.61 
698.20 -679.91 7.76 
696.55 -681.91 7.62 
696.95 -681.84 7.68 
696.57 -687.34 8.00 
695.73 -688.59 7.95 
698.96 -685.16 8.25 
695.72 -688.90 7.97 
695.20 -690.05 7.96 
696.08 -679.85 8.28 
696.20 -680.51 8.35 
695.65 -680.83 8.27 
697.79 -679.78 8.60 
696.81 -680.55 8.47 
696.44 -680.95 8.43 
696.82 -682.12 8.60 
693.09 -693.98 8.76 
692.41 -694.63 8.69 
692.14 -694.77 8.66 
693.24 -694.53 8.84 
701.08 -679.96 9.24 
698.15 -683.98 9.00 
697.30 -685.50 8.97 
697.44 -685.90 9.03 
694.39 -689.74 8.79 
699.88 -683.65 9.30 
698.89 -685.84 9.30 
695.67 -689.78 9.03 
695.54 -690.40 9.06 
704.99 -680.43 10.02 
705.12 -680.85 10.08 
694.50 -696.24 9.22 
691.83 -699.69 9.04 
693.44 -698.90 9.26 
697.25 -680.20 9.44 
696.61 -680.93 9.38 
697.44 -680.99 9.56 
699.03 -683.17 10.09 
696.68 -679.83 10.21 
696.42 -680.11 10.17 
696.98 -680.09 10.30 
697.70 -679.74 10.43 
698.87 -682.85 11.03 
697.75 -679.97 11.42 
696.99 -695.10 11.94 
698.13 -694.38 13.31 
697.89 -695.00 13.34 
696.57 -693.55 14.00 
695.58 -694.81 13.93 
696.11 -695.00 14.09 
697.44 -679.77 7.69 
697.16 -681.46 7.76 
697.57 -681.37 7.82 
697.15 -681.82 7.78 
698.59 -683.29 8.13 
699.15 -684.65 8.32 
696.20 -688.29 8.08 
695.45 -689.56 8.04 
694.80 -689.83 7.95 
699.92 -684.70 8.45 
698.89 -686.18 8.38 
696.85 -688.09 8.17 
696.70 -688.29 8.16 
696.40 -689.57 8.20 
696.41 -679.87 8.42 
696.25 -680.26 8.42 
697.19 -680.00 8.58 
696.51 -680.83 8.51 
693.42 -693.53 8.86 
692.68 -694.14 8.77 
692.13 -695.72 8.81 
691.67 -696.67 8.81 
698.50 -683.61 9.12 
697.75 -685.14 9.10 
701.88 -681.33 9.58 
700.26 -683.21 9.42 
700.16 -683.50 9.42 
699.22 -685.38 9.40 
695.97 -689.30 9.12 
696.00 -689.78 9.16 
705.36 -679.80 10.12 
691.65 -697.12 8.85 
691.67 -697.54 8.89 
694.01 -695.80 9.17 
691.80 -698.62 9.01 
691.79 -699.17 9.06 
691.78 -699.59 9.09 
692.53 -698.98 9.17 
691.67 -700.02 9.11 
695.93 -679.95 9.23 
697.56 -679.88 9.56 
696.95 -680.53 9.49 
696.67 -680.64 9.44 
697.64 -680.56 9.64 
698.43 -682.89 10.02 
699.43 -682.65 10.21 
692.25 -698.26 10.19 
699.16 -689.14 10.78 
696.80 -679.83 10.32 
699.11 -682.31 11.12 
693.39 -698.69 11.65 
697.30 -694.81 12.05 
698.38 -694.01 13.41 
696.06 -694.34 14.05 
697.59 -682.57 7.09 
697.38 -681.19 7.91 
697.79 -681.04 7.97 
698.69 -682.77 8.24 
697.57 -684.85 8.20 
699.22 -684.12 8.42 
696.49 -687.57 8.20 
700.13 -684.21 8.58 
697.27 -687.45 8.33 
695.97 -688.69 8.20 
692.57 -693.13 7.75 
699.54 -685.69 8.59 
696.76 -688.86 8.34 
697.03 -680.38 8.72 
697.07 -680.72 8.75 
692.09 -696.13 8.97 
698.36 -680.72 9.00 
698.67 -683.16 9.25 
698.62 -683.42 9.26 
698.02 -684.48 9.24 
702.29 -680.59 9.74 
700.25 -683.30 9.56 
696.27 -689.31 9.31 
701.91 -683.44 9.89 
692.37 -696.84 9.08 
692.13 -697.00 9.05 
692.57 -696.97 9.13 
692.66 -698.88 9.32 
694.24 -697.68 9.50 
693.39 -698.68 9.43 
693.22 -699.03 9.43 
692.23 -700.38 9.37 
691.75 -700.65 9.31 
693.00 -700.28 9.50 
693.06 -700.25 9.51 
697.92 -680.28 9.83 
698.94 -679.76 10.00 
699.81 -681.82 10.37 
700.11 -681.58 10.41 
699.67 -682.02 10.36 
699.49 -683.26 10.43 
692.78 -697.81 10.38 
692.45 -697.88 10.32 
693.40 -698.06 11.71 
693.46 -698.52 11.78 
699.23 -692.63 12.43 
697.96 -694.11 12.32 
697.40 -694.57 12.25 
697.76 -680.66 8.03 
698.36 -680.37 8.11 
697.87 -680.77 8.06 
698.56 -680.40 8.15 
698.36 -680.62 8.13 
700.42 -680.61 8.48 
697.13 -686.90 8.36 
700.52 -683.64 8.70 
696.96 -688.52 8.44 
697.31 -689.13 8.55 
697.57 -679.99 8.89 
697.73 -680.11 8.93 
698.39 -680.04 9.05 
698.74 -682.45 9.31 
700.66 -681.85 9.63 
702.58 -680.12 9.86 
700.53 -682.93 9.69 
692.58 -696.49 9.19 
692.99 -696.43 9.26 
692.33 -698.23 9.46 
693.20 -698.39 9.47 
692.32 -699.95 9.45 
694.16 -698.42 9.66 
698.33 -679.70 9.98 
698.21 -679.97 9.97 
699.02 -681.64 10.30 
698.45 -693.43 12.45 
699.38 -682.03 7.49 
700.55 -681.75 8.68 
701.59 -681.80 8.85 
697.64 -686.41 8.53 
698.48 -686.52 8.67 
698.99 -686.41 8.75 
698.61 -687.26 8.75 
700.40 -680.36 9.57 
701.73 -679.85 9.78 
701.85 -680.23 9.84 
701.83 -681.27 9.92 
701.18 -682.37 9.88 
693.72 -696.62 9.72 
692.19 -702.01 9.78 
700.79 -681.50 10.79 
695.09 -697.19 11.15 
701.91 -687.39 12.72 
699.72 -691.48 12.67 
699.15 -692.33 12.63 
698.77 -680.63 7.36 
700.08 -682.41 8.71 
699.62 -683.56 8.71 
697.68 -687.41 8.67 
693.12 -696.43 8.59 
700.14 -680.52 9.62 
700.82 -680.42 9.74 
701.41 -680.27 9.83 
701.17 -681.54 9.89 
700.55 -682.92 9.88 
692.34 -701.59 9.86 
699.51 -680.31 10.51 
700.76 -679.74 10.72 
700.59 -680.01 10.71 
699.27 -692.17 12.74 
698.71 -692.68 12.67 
700.61 -680.39 8.70 
700.22 -682.25 8.77 
701.26 -682.25 8.94 
697.78 -685.63 8.61 
703.08 -681.05 9.16 
697.17 -686.98 8.61 
698.04 -687.11 8.76 
698.55 -686.94 8.84 
698.16 -687.81 8.84 
695.45 -694.02 8.85 
693.04 -696.54 8.64 
694.49 -696.87 8.90 
701.46 -680.27 9.92 
701.08 -680.47 9.86 
701.13 -681.48 9.95 
700.75 -679.76 10.82 
700.52 -680.02 10.79 
700.45 -681.97 10.94 
698.68 -692.74 12.75 
702.28 -680.71 9.16 
697.63 -685.66 8.74 
697.74 -685.65 8.76 
696.96 -686.73 8.71 
697.05 -687.04 8.75 
698.07 -687.85 8.97 
695.24 -694.05 8.96 
694.46 -696.68 9.03 
691.52 -702.16 8.96 
701.38 -679.84 10.05 
701.37 -680.80 10.12 
701.04 -681.74 10.13 
699.26 -690.26 10.48 
694.75 -697.72 10.29 
699.41 -680.32 10.78 
702.46 -680.37 9.25 
697.32 -686.69 8.86 
698.29 -687.43 9.07 
693.16 -696.39 8.90 
691.67 -701.86 9.06 
692.01 -701.79 9.12 
701.55 -680.49 10.23 
701.15 -681.43 10.23 
701.32 -682.50 10.35 
694.99 -697.34 10.41 
698.03 -685.73 9.04 
699.20 -686.55 9.29 
692.65 -700.94 9.27 
699.23 -684.40 9.32 
699.23 -684.69 9.34 
699.12 -684.68 9.45 
691.66 -701.09 9.38 
