# .PCD v0.7 - Point Cloud Data file format
VERSION 0.7
FIELDS x y z
SIZE 4 4 4
TYPE F F F
COUNT 1 1 1
WIDTH 2243
HEIGHT 1
VIEWPOINT 0 0 0 1 0 0 0
POINTS 2243
DATA ascii
698.86 -663.18 7.24 
703.29 -656.63 7.71 
702.56 -658.07 7.65 
699.90 -661.93 7.36 
702.62 -658.52 7.69 
701.42 -660.74 7.59 
700.86 -661.12 7.50 
699.37 -663.54 7.36 
698.84 -664.31 7.31 
703.27 -657.88 7.78 
701.20 -661.40 7.58 
699.78 -663.89 7.47 
699.15 -664.63 7.39 
698.95 -665.05 7.38 
701.12 -662.57 7.64 
700.84 -662.78 7.60 
699.63 -665.03 7.51 
699.22 -665.36 7.46 
699.07 -666.07 7.47 
700.89 -663.52 7.66 
699.33 -665.65 7.50 
699.05 -666.29 7.48 
698.61 -666.93 7.44 
705.24 -657.22 8.13 
698.27 -668.62 7.50 
700.08 -666.13 7.68 
701.63 -664.68 7.88 
698.73 -669.10 7.62 
701.76 -664.93 7.92 
699.80 -669.10 7.83 
698.80 -670.42 7.73 
698.33 -671.25 7.70 
705.30 -661.16 8.38 
705.06 -661.60 8.36 
701.61 -666.94 8.03 
699.63 -670.04 7.86 
698.81 -671.55 7.81 
700.77 -669.23 8.03 
698.22 -672.86 7.80 
698.16 -673.06 7.80 
699.22 -673.14 8.01 
707.52 -660.68 8.79 
701.06 -670.50 8.17 
698.97 -673.89 8.02 
707.73 -660.44 8.82 
698.41 -675.89 8.06 
697.78 -676.79 7.91 
696.98 -677.97 7.95 
698.55 -676.48 7.98 
698.40 -676.70 7.97 
699.23 -675.83 8.22 
699.02 -676.05 8.19 
698.33 -677.60 8.03 
703.33 -670.08 8.59 
700.93 -673.55 8.37 
697.94 -679.44 8.25 
699.60 -677.40 8.41 
705.39 -669.17 8.93 
699.37 -679.28 8.35 
703.99 -672.77 8.91 
700.15 -679.08 8.49 
699.73 -679.48 8.44 
699.43 -679.60 8.39 
704.35 -672.68 8.97 
703.60 -674.45 8.96 
698.11 -662.57 7.77 
698.17 -662.82 7.80 
698.32 -663.05 7.85 
698.30 -663.30 7.87 
698.35 -663.49 7.89 
711.87 -660.02 9.61 
711.96 -661.58 9.73 
706.96 -669.16 9.24 
703.29 -675.22 8.96 
707.42 -669.65 9.36 
712.35 -662.25 9.85 
706.84 -670.95 9.34 
706.64 -671.19 9.32 
702.74 -677.91 9.05 
707.59 -677.06 9.93 
708.09 -677.29 10.04 
706.78 -679.08 9.92 
699.81 -656.26 7.74 
700.00 -656.48 7.79 
700.13 -657.59 7.89 
700.05 -658.07 7.90 
699.86 -658.49 7.88 
700.85 -657.68 8.06 
700.02 -658.78 7.94 
702.91 -655.14 8.36 
701.89 -656.78 8.23 
701.32 -657.25 8.13 
701.10 -657.47 8.10 
701.92 -657.02 8.25 
701.75 -657.47 8.24 
700.46 -659.47 8.08 
700.12 -659.83 8.03 
699.86 -660.74 8.03 
699.42 -661.32 7.97 
698.83 -662.04 7.89 
698.70 -662.46 7.89 
699.61 -661.54 8.03 
699.07 -662.59 7.98 
698.81 -662.93 7.95 
698.61 -664.14 8.00 
698.67 -664.63 8.05 
698.62 -664.94 8.06 
700.51 -662.70 8.31 
702.40 -660.40 8.57 
702.12 -660.74 8.53 
700.58 -662.68 8.33 
700.51 -663.13 8.34 
701.89 -661.52 8.54 
703.50 -660.07 8.80 
698.55 -667.58 8.25 
705.13 -658.21 9.04 
701.33 -664.07 8.59 
698.80 -667.89 8.33 
698.53 -668.26 8.30 
701.56 -664.64 8.68 
700.59 -666.11 8.58 
699.90 -667.08 8.50 
698.91 -668.72 8.42 
698.64 -669.08 8.39 
699.03 -668.99 8.47 
698.38 -671.89 8.57 
697.98 -672.45 8.53 
705.24 -661.62 9.28 
704.95 -661.88 9.24 
699.82 -670.16 8.73 
699.60 -670.33 8.70 
697.91 -672.95 8.56 
700.36 -670.15 8.85 
698.90 -672.42 8.73 
697.49 -674.78 8.53 
697.53 -675.80 8.62 
698.71 -674.67 8.88 
698.57 -674.83 8.87 
698.24 -675.44 8.75 
698.22 -675.50 8.85 
697.48 -676.81 8.70 
700.71 -672.58 9.13 
698.59 -676.07 8.99 
698.12 -676.56 8.93 
697.93 -676.77 8.79 
697.79 -677.37 8.82 
697.43 -677.46 8.87 
699.60 -674.91 9.10 
699.03 -675.46 9.02 
697.58 -677.80 8.81 
697.31 -678.37 8.93 
700.40 -674.18 9.20 
698.90 -676.61 9.10 
698.41 -677.70 8.98 
697.54 -679.01 9.04 
698.61 -678.15 9.06 
698.36 -678.64 9.05 
698.19 -678.84 9.03 
698.90 -655.67 8.23 
698.90 -656.45 8.28 
699.49 -656.70 8.44 
699.43 -656.87 8.44 
698.67 -658.55 8.36 
698.73 -658.75 8.38 
699.44 -658.00 8.51 
699.27 -658.16 8.48 
699.99 -658.00 8.64 
699.17 -659.04 8.51 
699.02 -660.79 8.60 
699.31 -661.02 8.68 
699.52 -661.52 8.77 
699.52 -661.78 8.79 
699.01 -662.55 8.73 
699.18 -662.80 8.79 
706.25 -658.56 9.31 
701.95 -672.96 9.43 
704.82 -669.83 9.79 
711.59 -659.32 10.55 
712.01 -659.67 10.66 
706.84 -667.97 10.09 
706.71 -668.17 10.08 
702.95 -675.07 9.83 
705.65 -671.10 10.08 
708.25 -668.99 10.48 
700.19 -658.28 8.71 
701.21 -657.44 8.91 
701.06 -657.66 8.89 
700.98 -657.86 8.88 
700.39 -658.51 8.78 
700.25 -660.74 8.90 
699.72 -661.37 8.81 
699.51 -662.24 8.82 
699.82 -662.50 8.92 
699.56 -662.93 8.89 
699.47 -663.10 8.88 
702.70 -659.74 9.43 
699.76 -663.91 9.02 
701.47 -662.43 9.32 
700.10 -664.25 9.13 
700.17 -664.52 9.17 
699.50 -665.52 9.09 
703.87 -660.10 9.74 
697.26 -671.30 9.07 
697.15 -672.53 9.17 
697.08 -673.04 9.21 
698.14 -671.75 9.33 
697.83 -672.45 9.32 
698.64 -672.59 9.53 
702.41 -666.97 9.91 
699.77 -671.55 9.69 
702.75 -667.37 10.03 
701.37 -669.31 9.87 
701.03 -670.54 9.90 
698.77 -674.63 9.71 
697.78 -676.12 9.62 
697.26 -676.72 9.56 
698.55 -675.70 9.76 
697.78 -676.47 9.65 
699.00 -675.66 9.86 
698.74 -676.06 9.84 
698.45 -676.25 9.79 
697.71 -677.95 9.79 
699.86 -658.42 9.40 
698.03 -676.74 9.81 
697.96 -676.95 9.82 
703.66 -668.69 10.36 
698.71 -676.54 9.95 
702.87 -670.78 10.36 
701.85 -673.60 10.39 
699.77 -676.34 10.11 
699.17 -677.21 10.13 
698.66 -678.47 10.14 
706.30 -667.16 10.88 
705.87 -667.31 10.78 
700.21 -676.32 10.27 
699.17 -678.23 10.16 
698.86 -678.75 10.14 
698.67 -678.90 10.11 
699.40 -678.73 10.26 
707.05 -666.84 11.03 
705.09 -670.33 10.86 
703.83 -672.45 10.75 
704.31 -673.35 10.95 
702.77 -675.08 10.75 
702.07 -660.57 10.16 
699.45 -664.99 9.82 
700.61 -664.38 10.07 
702.78 -662.21 10.48 
701.39 -665.13 10.35 
701.29 -666.08 10.41 
699.61 -669.31 10.28 
700.01 -672.04 10.67 
706.96 -671.04 11.37 
699.11 -665.35 10.55 
704.08 -664.33 11.00 
700.95 -670.53 10.75 
700.63 -671.21 10.74 
698.11 -676.07 10.62 
698.85 -675.61 10.76 
698.49 -675.97 10.70 
698.51 -677.16 10.87 
698.31 -677.15 10.79 
698.13 -677.63 10.80 
697.68 -678.03 10.73 
705.56 -666.63 11.60 
699.59 -675.71 10.96 
699.45 -675.90 10.94 
698.13 -677.98 10.84 
699.34 -676.78 11.04 
704.45 -669.73 11.59 
699.50 -677.51 11.14 
699.08 -677.95 11.08 
699.36 -665.21 10.61 
702.12 -662.02 11.13 
699.77 -665.83 10.79 
699.16 -666.84 10.72 
698.76 -667.57 10.68 
702.30 -662.56 11.23 
699.88 -666.10 10.85 
699.38 -667.17 10.82 
699.07 -667.80 10.79 
698.82 -667.98 10.74 
702.68 -662.39 11.32 
702.60 -662.87 11.34 
701.16 -665.27 11.14 
699.05 -668.33 10.85 
698.94 -668.54 10.84 
699.63 -669.21 11.11 
711.54 -656.82 12.48 
702.88 -675.16 11.75 
707.65 -669.75 12.44 
706.14 -671.67 12.23 
703.50 -664.40 11.74 
701.40 -668.55 11.55 
703.95 -665.06 11.94 
703.81 -666.38 12.02 
703.08 -667.79 11.95 
698.86 -676.28 11.79 
698.43 -676.33 11.67 
698.24 -676.80 11.68 
699.44 -676.11 11.93 
699.12 -676.86 11.92 
699.14 -677.37 11.99 
712.08 -657.80 12.69 
702.26 -673.24 12.33 
702.28 -662.80 12.11 
702.33 -663.07 12.15 
701.86 -664.40 12.13 
708.28 -658.93 12.71 
708.11 -659.48 12.70 
708.06 -660.05 12.73 
709.11 -658.43 12.92 
706.71 -664.42 12.69 
705.84 -666.20 12.60 
702.12 -674.41 12.43 
702.68 -674.11 12.55 
701.64 -676.05 12.50 
702.35 -675.52 12.63 
703.96 -674.50 12.96 
701.04 -679.23 12.77 
702.56 -663.63 12.28 
702.40 -663.90 12.26 
701.68 -667.03 12.36 
703.78 -664.51 12.75 
703.08 -665.08 12.59 
703.92 -664.77 12.83 
702.51 -667.86 12.71 
702.24 -668.35 12.68 
702.34 -668.62 12.74 
711.79 -654.93 13.50 
711.36 -655.60 13.41 
711.38 -657.38 13.53 
699.98 -675.12 12.86 
712.18 -658.98 13.87 
707.09 -657.86 13.26 
707.26 -659.09 13.40 
699.18 -675.89 12.81 
700.51 -675.79 13.12 
701.68 -675.87 13.48 
701.18 -676.54 13.42 
701.03 -676.71 13.40 
704.38 -672.19 13.81 
704.16 -672.39 13.76 
702.61 -674.74 13.60 
703.09 -674.69 13.74 
714.26 -660.47 14.60 
709.15 -654.98 13.74 
709.43 -655.50 13.86 
703.16 -665.64 13.59 
710.87 -655.26 14.32 
710.77 -656.41 14.35 
704.81 -673.04 14.05 
711.09 -655.21 14.38 
711.10 -656.77 14.48 
711.38 -657.03 14.59 
711.58 -657.96 14.72 
701.61 -674.53 14.24 
710.87 -660.99 14.71 
701.61 -675.18 14.34 
710.79 -661.65 14.74 
704.05 -671.18 14.57 
704.32 -671.91 14.76 
714.55 -663.24 16.08 
710.25 -656.10 15.23 
708.78 -658.30 7.01 
703.56 -654.98 6.88 
702.70 -656.73 6.83 
698.93 -662.79 6.53 
702.64 -657.70 6.88 
699.76 -662.09 6.63 
699.16 -663.29 6.60 
704.72 -655.47 7.11 
703.50 -656.99 6.99 
699.28 -663.71 6.64 
703.25 -658.43 7.02 
702.53 -659.83 6.98 
702.31 -660.54 6.98 
699.60 -664.81 6.76 
699.09 -665.17 6.70 
700.33 -664.56 6.88 
700.28 -664.75 6.88 
707.39 -655.07 7.55 
700.89 -665.44 7.03 
699.35 -668.62 6.95 
706.46 -658.13 7.57 
699.94 -668.60 7.05 
707.48 -657.29 7.70 
701.48 -666.62 7.20 
701.29 -667.33 7.21 
699.41 -670.50 7.08 
698.95 -671.03 7.03 
705.17 -662.38 7.59 
705.31 -662.83 7.64 
700.76 -670.85 7.33 
706.31 -663.23 7.84 
698.76 -675.42 7.27 
698.32 -675.74 7.22 
699.14 -675.97 7.37 
698.13 -677.52 7.20 
700.59 -674.47 7.53 
699.02 -677.15 7.43 
698.94 -677.39 7.43 
701.76 -673.57 7.67 
698.94 -677.44 7.43 
698.82 -677.62 7.42 
698.57 -678.53 7.24 
710.81 -660.08 8.43 
700.11 -676.96 7.60 
710.81 -660.98 8.49 
703.25 -672.53 7.87 
700.05 -677.18 7.61 
698.98 -679.56 7.38 
712.28 -659.51 8.66 
705.98 -670.04 8.19 
706.44 -669.90 8.26 
705.77 -671.79 8.26 
707.38 -669.62 8.40 
707.34 -669.92 8.42 
699.12 -655.80 6.89 
700.29 -654.87 7.07 
700.26 -655.06 7.08 
700.34 -655.28 7.10 
700.55 -655.50 7.16 
701.30 -656.87 7.39 
702.21 -656.18 7.52 
701.41 -656.92 7.41 
702.30 -656.21 7.55 
701.09 -658.08 7.41 
698.38 -662.71 7.16 
703.38 -655.96 7.74 
702.45 -656.69 7.60 
700.10 -660.75 7.38 
699.40 -661.78 7.31 
698.32 -663.33 7.19 
698.26 -663.54 7.19 
703.49 -655.92 7.76 
702.19 -658.34 7.65 
699.56 -662.00 7.35 
698.59 -663.85 7.28 
700.23 -661.67 7.46 
702.19 -660.51 7.78 
701.60 -661.44 7.72 
701.14 -662.05 7.67 
699.15 -664.69 7.44 
702.35 -660.81 7.83 
701.57 -661.64 7.72 
701.27 -662.35 7.71 
699.34 -665.32 7.52 
699.16 -665.90 7.53 
698.71 -667.40 7.54 
699.73 -666.33 7.67 
704.01 -660.52 8.14 
700.97 -664.72 7.80 
699.64 -667.01 7.70 
699.56 -667.46 7.71 
701.34 -665.53 7.93 
700.26 -666.74 7.80 
699.79 -667.29 7.74 
706.81 -657.28 8.50 
706.50 -657.77 8.47 
701.86 -665.20 8.01 
707.12 -657.56 8.58 
705.65 -660.17 8.44 
704.49 -661.84 8.31 
698.74 -670.74 7.78 
698.51 -670.85 7.75 
702.12 -666.52 8.15 
698.97 -671.34 7.87 
706.28 -661.29 8.63 
700.37 -670.11 8.05 
706.86 -661.92 8.79 
701.76 -669.87 8.31 
701.60 -670.08 8.29 
699.82 -672.62 8.13 
698.35 -674.92 8.02 
697.62 -676.28 7.98 
697.95 -676.18 8.03 
702.86 -669.19 8.48 
702.71 -669.42 8.46 
702.57 -669.78 8.46 
700.29 -673.13 8.26 
699.32 -674.78 8.19 
698.71 -676.05 8.17 
698.48 -676.26 8.14 
699.03 -675.64 8.20 
698.78 -676.14 8.19 
698.67 -676.33 8.18 
698.36 -677.55 8.22 
705.21 -668.32 8.88 
699.36 -677.42 8.40 
705.45 -668.68 8.95 
699.48 -678.15 8.48 
698.33 -679.63 8.37 
703.45 -672.80 8.85 
708.26 -659.59 8.92 
707.72 -660.34 8.86 
712.02 -659.27 9.65 
711.95 -659.55 9.65 
712.08 -661.14 9.77 
707.27 -668.12 9.27 
707.12 -668.33 9.25 
712.11 -661.41 9.79 
703.37 -675.08 9.00 
703.42 -677.74 9.20 
706.72 -673.17 9.51 
706.67 -673.47 9.52 
706.78 -677.31 9.82 
706.15 -677.66 9.73 
706.85 -677.65 9.86 
708.13 -676.58 10.03 
707.12 -678.51 9.98 
707.15 -678.90 10.01 
699.77 -655.52 7.76 
699.41 -655.76 7.70 
699.75 -655.93 7.78 
699.92 -656.16 7.83 
699.50 -657.71 7.83 
698.91 -658.77 7.76 
700.01 -657.64 7.94 
699.62 -658.18 7.88 
701.87 -656.61 8.29 
701.27 -656.84 8.17 
701.25 -657.32 8.19 
700.04 -659.12 8.03 
701.97 -657.10 8.34 
700.70 -659.60 8.21 
700.09 -660.68 8.15 
698.94 -661.87 7.97 
698.53 -662.84 7.95 
700.06 -661.42 8.19 
699.30 -662.17 8.07 
698.80 -662.98 8.02 
700.24 -661.64 8.24 
699.77 -662.53 8.20 
699.21 -663.29 8.13 
698.82 -663.69 8.07 
698.86 -663.91 8.10 
700.40 -662.42 8.33 
702.34 -660.02 8.60 
701.85 -660.35 8.52 
700.80 -662.69 8.44 
699.99 -664.42 8.38 
698.83 -666.96 8.31 
698.45 -667.17 8.25 
703.65 -659.65 8.87 
700.15 -665.19 8.47 
698.22 -668.49 8.30 
702.72 -662.33 8.84 
698.33 -669.04 8.37 
700.74 -666.10 8.67 
699.36 -667.95 8.51 
698.92 -669.50 8.53 
697.92 -671.16 8.45 
699.06 -669.86 8.59 
697.70 -672.06 8.48 
699.99 -668.95 8.72 
699.23 -670.16 8.65 
698.61 -672.05 8.68 
698.33 -672.72 8.67 
699.71 -672.01 8.91 
700.07 -671.96 8.98 
699.14 -673.40 8.90 
698.25 -674.90 8.85 
698.30 -675.23 8.89 
698.11 -675.41 8.86 
699.09 -674.83 9.02 
697.62 -677.31 8.82 
699.71 -674.35 9.11 
698.60 -676.65 9.08 
699.87 -675.00 9.20 
697.53 -678.74 9.04 
698.99 -678.05 9.18 
698.63 -678.16 9.11 
699.13 -678.84 9.28 
699.54 -656.13 8.51 
699.26 -657.90 8.55 
706.65 -654.78 9.25 
706.26 -664.32 9.76 
699.70 -676.74 9.32 
699.54 -676.96 9.30 
698.70 -677.99 9.22 
711.86 -658.55 10.63 
699.51 -677.96 9.39 
706.83 -667.65 10.12 
706.98 -667.44 10.14 
703.40 -673.29 9.81 
705.72 -670.58 10.10 
703.14 -674.69 9.88 
708.67 -668.24 10.57 
699.89 -657.47 8.68 
701.31 -657.10 9.01 
701.05 -657.56 8.97 
700.62 -658.20 8.90 
700.12 -658.38 8.79 
699.68 -660.89 8.85 
699.62 -661.07 8.84 
699.77 -661.32 8.90 
700.54 -660.78 9.05 
700.03 -662.06 9.02 
699.66 -662.23 8.94 
702.72 -659.46 9.50 
702.57 -660.27 9.52 
700.12 -664.75 9.24 
703.75 -660.15 9.80 
697.38 -670.66 9.09 
697.55 -670.96 9.16 
697.48 -671.19 9.16 
702.26 -665.00 9.78 
697.52 -672.32 9.28 
698.19 -672.14 9.42 
702.51 -666.42 9.96 
700.77 -671.77 10.00 
698.12 -675.81 9.72 
698.08 -676.04 9.73 
698.04 -676.52 9.80 
697.75 -677.12 9.76 
698.43 -676.83 9.89 
712.20 -659.25 10.74 
712.19 -659.50 10.76 
702.71 -668.11 10.15 
703.36 -667.77 10.28 
703.51 -668.10 10.34 
703.25 -668.24 10.29 
700.62 -672.21 10.01 
706.53 -663.97 10.75 
706.46 -664.36 10.76 
701.69 -671.05 10.16 
702.25 -670.96 10.28 
699.60 -675.50 10.09 
702.73 -670.88 10.39 
706.04 -666.60 10.83 
705.88 -666.79 10.81 
704.19 -669.72 10.64 
698.90 -677.55 10.14 
698.99 -677.94 10.20 
699.15 -678.25 10.20 
698.94 -678.42 10.17 
707.42 -666.08 11.13 
705.08 -669.75 10.86 
702.94 -674.92 10.82 
704.92 -673.06 11.12 
700.78 -663.43 10.12 
700.19 -664.27 10.03 
698.67 -666.69 9.84 
700.73 -663.67 10.13 
703.04 -661.36 10.57 
701.78 -663.37 10.39 
700.70 -665.64 10.29 
700.49 -667.87 10.43 
701.10 -668.05 10.61 
711.96 -657.58 11.66 
711.44 -658.24 11.58 
712.22 -659.48 11.85 
712.38 -659.53 11.89 
707.41 -670.35 11.48 
703.49 -663.24 10.84 
697.65 -676.74 10.63 
704.99 -666.27 11.49 
698.64 -675.77 10.78 
705.70 -665.93 11.65 
698.39 -676.89 10.84 
698.00 -677.30 10.80 
705.66 -666.17 11.66 
704.53 -668.45 11.56 
699.49 -676.45 11.07 
699.30 -676.92 11.08 
699.22 -677.32 11.10 
700.90 -664.65 11.09 
700.35 -665.75 11.04 
702.21 -663.70 11.40 
699.62 -667.27 10.97 
701.09 -666.74 11.35 
699.98 -668.17 11.17 
708.46 -658.63 11.86 
708.35 -659.45 11.88 
703.10 -674.73 11.81 
702.85 -674.98 11.77 
701.13 -679.11 11.79 
701.12 -679.40 11.82 
708.19 -669.00 12.59 
703.34 -663.42 11.70 
703.78 -664.08 11.89 
703.28 -664.46 11.78 
704.99 -662.97 12.15 
704.59 -663.99 12.12 
703.58 -666.15 12.02 
701.71 -669.93 11.86 
711.89 -655.66 12.61 
702.03 -670.68 12.03 
698.32 -676.55 11.73 
699.02 -676.63 11.94 
712.10 -657.28 12.76 
712.65 -659.47 13.05 
701.07 -666.22 12.17 
706.19 -662.30 12.46 
708.31 -660.05 12.91 
705.08 -666.01 12.44 
706.30 -665.75 12.78 
701.92 -674.14 12.39 
702.21 -675.30 12.62 
702.09 -675.54 12.61 
703.27 -674.54 12.82 
702.69 -675.51 12.77 
700.70 -678.92 12.69 
702.22 -663.19 12.24 
702.97 -662.81 12.45 
702.85 -663.05 12.43 
702.19 -663.96 12.30 
701.60 -665.35 12.25 
701.29 -665.77 12.19 
702.81 -663.56 12.46 
702.31 -665.06 12.45 
701.47 -666.61 12.33 
703.60 -664.80 12.83 
702.18 -667.37 12.64 
701.67 -668.55 12.61 
711.35 -655.30 13.52 
711.34 -656.55 13.58 
709.64 -661.07 13.38 
707.09 -658.73 13.45 
700.42 -674.89 13.01 
699.75 -675.74 12.93 
701.81 -673.51 13.25 
700.61 -674.70 13.04 
700.33 -675.47 13.06 
712.34 -658.46 14.00 
712.10 -658.77 13.95 
705.02 -669.83 13.80 
703.33 -673.09 13.66 
702.24 -674.67 13.53 
701.27 -676.09 13.43 
703.32 -673.39 13.70 
703.23 -673.79 13.72 
713.39 -661.12 14.49 
713.99 -660.91 14.66 
710.18 -658.02 14.40 
705.61 -669.69 13.97 
705.21 -670.51 13.94 
705.26 -670.78 13.98 
705.64 -670.98 14.12 
705.07 -671.38 13.99 
705.24 -671.71 14.09 
715.14 -660.95 15.00 
703.89 -664.92 13.88 
710.82 -654.96 14.43 
704.09 -665.23 13.98 
710.89 -655.58 14.48 
710.34 -657.46 14.42 
711.61 -656.81 14.79 
701.57 -674.04 14.22 
711.69 -659.64 15.00 
711.42 -660.88 15.00 
705.16 -668.94 14.75 
713.38 -657.17 15.38 
705.10 -670.44 14.91 
704.66 -671.53 14.90 
713.76 -657.82 15.54 
713.44 -661.82 15.72 
714.34 -662.25 16.05 
704.22 -656.22 6.30 
708.64 -657.75 7.05 
701.60 -655.97 6.71 
702.49 -656.42 6.89 
703.60 -656.94 7.12 
699.33 -662.49 6.70 
699.09 -663.38 6.71 
703.08 -658.16 7.10 
699.85 -662.99 6.82 
699.68 -663.95 6.85 
703.98 -659.50 7.33 
700.80 -664.36 7.07 
699.41 -666.27 6.94 
701.85 -664.10 7.24 
701.27 -665.20 7.20 
701.91 -664.82 7.29 
707.61 -657.06 7.82 
704.66 -661.08 7.55 
704.89 -661.37 7.60 
699.78 -668.55 7.15 
699.61 -674.38 7.49 
699.00 -675.21 7.43 
697.90 -676.62 7.33 
700.17 -674.14 7.57 
698.78 -676.85 7.50 
699.93 -675.43 7.61 
698.87 -677.52 7.56 
698.39 -677.53 7.48 
698.23 -677.89 7.47 
698.20 -678.34 7.50 
701.88 -673.74 7.84 
698.17 -678.94 7.53 
700.31 -676.84 7.77 
698.48 -678.84 7.58 
705.57 -669.57 8.22 
706.47 -669.24 8.36 
712.56 -660.83 8.91 
707.69 -669.29 8.57 
704.08 -674.49 8.27 
707.86 -670.59 8.68 
703.59 -676.77 8.33 
700.87 -655.02 7.33 
700.84 -656.02 7.39 
701.53 -655.83 7.51 
701.43 -656.70 7.54 
702.19 -656.39 7.68 
700.95 -658.35 7.54 
703.64 -655.30 7.90 
702.39 -656.90 7.74 
699.20 -661.73 7.40 
698.43 -662.43 7.29 
703.83 -655.34 7.94 
702.09 -657.91 7.74 
700.12 -660.58 7.51 
702.33 -658.12 7.80 
698.83 -663.18 7.42 
699.38 -662.94 7.51 
700.78 -661.69 7.71 
705.09 -656.54 8.26 
701.61 -661.08 7.84 
701.39 -661.51 7.82 
703.28 -659.90 8.10 
701.60 -662.16 7.91 
701.76 -662.53 7.96 
700.70 -663.84 7.83 
698.94 -666.62 7.67 
698.80 -666.92 7.66 
704.63 -659.45 8.34 
698.75 -667.26 7.68 
706.13 -657.36 8.51 
704.64 -659.71 8.36 
701.36 -664.21 7.99 
704.88 -660.26 8.44 
701.62 -664.51 8.06 
701.52 -664.99 8.07 
700.57 -666.47 7.98 
700.43 -667.24 8.01 
702.44 -664.92 8.25 
702.07 -665.37 8.20 
700.91 -667.13 8.09 
705.51 -661.40 8.63 
699.13 -670.16 7.95 
698.44 -671.54 7.92 
698.07 -671.88 7.87 
701.04 -668.46 8.21 
699.66 -670.33 8.07 
699.14 -671.17 8.03 
703.09 -666.15 8.46 
701.65 -669.18 8.38 
699.16 -672.79 8.15 
702.61 -668.68 8.53 
701.56 -670.55 8.46 
701.39 -670.74 8.44 
698.51 -674.47 8.15 
698.49 -674.97 8.18 
699.21 -674.21 8.27 
699.30 -674.54 8.31 
700.99 -672.23 8.47 
699.45 -674.79 8.36 
699.19 -675.08 8.33 
698.23 -676.28 8.23 
698.17 -676.84 8.26 
697.87 -676.95 8.21 
705.20 -667.44 8.96 
697.95 -677.30 8.26 
705.29 -668.04 9.02 
699.20 -676.25 8.42 
698.77 -676.89 8.38 
698.09 -678.01 8.34 
697.95 -678.23 8.33 
699.99 -675.84 8.54 
703.27 -672.35 8.92 
703.07 -672.52 8.90 
701.63 -674.24 8.74 
698.83 -678.17 8.49 
700.55 -676.59 8.71 
700.15 -677.11 8.67 
698.91 -679.37 8.60 
707.87 -654.74 8.71 
707.47 -657.58 8.79 
712.19 -658.85 9.80 
712.16 -659.12 9.81 
707.32 -667.38 9.37 
707.37 -667.68 9.40 
712.38 -661.05 9.97 
706.77 -670.56 9.48 
704.05 -676.37 9.37 
706.85 -677.43 9.99 
707.30 -677.30 10.07 
714.09 -668.33 10.78 
699.37 -655.61 7.85 
700.06 -655.29 7.98 
699.99 -655.79 7.99 
700.08 -655.98 8.03 
699.64 -657.31 8.00 
699.72 -657.88 8.05 
701.29 -656.39 8.32 
700.62 -657.37 8.22 
700.08 -657.64 8.12 
700.96 -657.60 8.31 
701.62 -656.88 8.42 
699.64 -660.18 8.17 
699.98 -659.93 8.23 
699.91 -660.63 8.26 
700.00 -660.91 8.30 
699.52 -662.11 8.28 
700.30 -661.37 8.40 
700.32 -661.88 8.44 
699.69 -662.34 8.33 
699.73 -662.70 8.36 
702.15 -660.56 8.76 
703.90 -658.86 9.04 
703.49 -659.11 8.97 
700.30 -664.00 8.58 
700.87 -663.60 8.67 
704.19 -659.39 9.14 
699.38 -666.50 8.55 
699.41 -666.75 8.58 
699.22 -667.14 8.57 
699.04 -668.12 8.60 
701.98 -665.33 9.04 
697.86 -671.72 8.63 
699.69 -671.58 9.02 
700.03 -672.10 9.13 
698.23 -674.91 8.98 
699.26 -675.77 9.28 
698.93 -675.98 9.23 
698.46 -676.50 9.17 
700.37 -674.60 9.42 
698.65 -676.92 9.25 
698.01 -678.01 9.21 
697.99 -678.30 9.23 
706.27 -656.45 9.43 
704.73 -660.00 9.30 
706.17 -659.80 9.61 
705.91 -665.36 9.92 
705.93 -665.60 9.94 
704.78 -668.47 9.89 
706.92 -666.73 10.24 
700.04 -676.16 9.48 
699.77 -676.67 9.47 
698.17 -678.74 9.31 
706.88 -666.97 10.25 
699.54 -677.72 9.51 
699.59 -678.39 9.58 
705.78 -669.99 10.23 
704.04 -672.63 10.05 
701.61 -675.97 9.80 
699.96 -678.36 9.66 
703.33 -674.45 10.05 
703.67 -674.93 10.16 
709.14 -667.54 10.79 
703.57 -675.20 10.16 
702.61 -676.63 10.08 
703.72 -675.59 10.23 
704.11 -676.16 10.36 
699.73 -661.79 9.10 
702.64 -659.34 9.66 
700.20 -663.97 9.38 
702.06 -662.32 9.72 
701.20 -663.44 9.58 
697.91 -670.44 9.35 
698.13 -670.78 9.43 
698.43 -671.74 9.60 
698.93 -671.64 9.71 
699.76 -671.74 9.92 
712.02 -658.18 10.81 
712.49 -658.81 10.95 
703.77 -658.87 9.91 
703.52 -661.47 10.02 
704.87 -663.17 10.47 
703.11 -666.90 10.32 
702.49 -667.60 10.22 
703.29 -667.55 10.41 
703.07 -667.72 10.37 
701.05 -670.62 10.12 
700.93 -671.40 10.17 
705.69 -665.60 10.85 
705.75 -665.85 10.88 
705.94 -666.17 10.95 
699.32 -675.80 10.20 
698.52 -677.15 10.15 
699.37 -676.46 10.28 
698.90 -677.07 10.23 
700.13 -676.00 10.41 
699.72 -676.33 10.35 
699.39 -677.06 10.34 
700.42 -676.47 10.53 
699.06 -678.11 10.37 
703.41 -674.52 11.05 
703.66 -674.96 11.15 
699.94 -665.65 10.27 
699.38 -666.50 10.19 
700.86 -665.11 10.47 
699.59 -667.78 10.36 
712.06 -656.81 11.84 
710.99 -658.13 11.65 
710.82 -658.74 11.65 
712.34 -657.17 11.93 
707.92 -665.69 11.40 
707.85 -669.65 11.70 
707.46 -670.16 11.65 
702.36 -661.54 10.61 
703.35 -661.94 10.91 
705.18 -665.43 11.67 
698.75 -676.47 11.03 
698.61 -676.65 11.02 
698.80 -677.06 11.12 
699.89 -675.86 11.26 
699.73 -676.25 11.26 
699.50 -676.56 11.24 
699.05 -676.95 11.17 
699.21 -677.62 11.28 
708.64 -656.89 12.02 
706.64 -663.73 11.93 
706.24 -664.24 11.86 
706.29 -665.08 11.94 
703.50 -674.02 12.01 
703.19 -674.77 12.00 
703.11 -662.67 11.80 
702.57 -664.11 11.76 
703.48 -662.93 11.93 
703.17 -663.47 11.88 
701.51 -666.12 11.62 
701.67 -666.53 11.70 
701.41 -666.73 11.64 
700.98 -667.71 11.61 
701.50 -667.30 11.72 
701.46 -667.53 11.73 
711.94 -654.84 12.81 
702.46 -668.37 12.11 
708.83 -668.02 12.87 
707.53 -656.59 12.71 
708.05 -657.39 12.91 
707.57 -658.02 12.80 
707.58 -658.26 12.82 
705.28 -661.86 12.38 
702.26 -673.14 12.55 
702.23 -674.96 12.75 
703.77 -673.85 13.06 
702.52 -675.42 12.89 
703.36 -674.87 13.06 
701.63 -664.83 12.43 
703.54 -663.35 12.92 
702.67 -665.58 12.84 
707.28 -668.62 13.54 
706.51 -669.88 13.44 
703.98 -662.45 12.99 
703.78 -663.23 12.99 
704.11 -663.83 13.14 
704.12 -664.65 13.22 
705.22 -664.28 13.54 
712.63 -657.06 14.25 
704.35 -668.40 13.65 
704.01 -668.88 13.59 
712.46 -657.97 14.25 
704.95 -667.94 13.79 
704.38 -669.29 13.75 
712.82 -657.64 14.34 
712.19 -659.29 14.26 
702.60 -672.78 13.59 
712.38 -659.62 14.33 
703.16 -672.65 13.75 
703.18 -673.28 13.83 
702.80 -674.02 13.80 
701.24 -676.12 13.60 
712.89 -660.66 14.55 
707.17 -667.00 14.41 
703.81 -673.59 14.06 
703.25 -674.28 13.97 
702.30 -675.72 13.87 
714.01 -661.06 14.92 
711.08 -654.78 14.79 
711.03 -655.41 14.80 
710.11 -657.61 14.63 
711.61 -658.56 15.17 
712.27 -659.87 15.47 
711.06 -658.83 16.14 
704.08 -656.22 6.33 
704.76 -655.66 6.40 
707.98 -656.50 6.93 
705.98 -661.62 6.93 
708.89 -658.58 7.19 
698.98 -662.80 6.73 
698.71 -663.47 6.72 
704.93 -655.46 7.33 
702.55 -658.73 7.11 
701.43 -660.22 7.00 
698.73 -663.84 6.74 
702.35 -660.50 7.18 
699.20 -664.85 6.89 
701.49 -662.08 7.12 
699.15 -665.04 6.89 
700.84 -664.11 7.13 
700.57 -664.81 7.12 
705.79 -658.48 7.66 
701.63 -664.75 7.30 
708.35 -656.04 7.96 
707.20 -657.57 7.85 
704.47 -661.44 7.60 
709.05 -655.70 8.06 
701.46 -666.29 7.37 
707.96 -658.40 8.03 
698.12 -676.29 7.41 
697.33 -677.35 7.34 
710.54 -659.30 8.53 
697.66 -677.51 7.41 
698.10 -677.46 7.48 
712.13 -659.67 8.83 
701.54 -674.24 7.87 
712.27 -659.97 8.87 
704.76 -670.09 8.17 
698.43 -678.88 7.63 
698.18 -679.66 7.64 
699.89 -677.57 7.80 
699.04 -678.63 7.72 
698.98 -679.12 7.74 
699.67 -678.45 7.82 
705.23 -672.04 8.38 
703.21 -677.46 8.37 
700.42 -654.90 7.33 
699.53 -655.79 7.20 
700.17 -656.24 7.35 
700.61 -657.30 7.50 
701.22 -656.53 7.58 
703.16 -654.79 7.87 
701.97 -656.69 7.74 
701.75 -656.87 7.70 
701.20 -657.23 7.62 
698.80 -661.60 7.40 
698.65 -661.92 7.39 
701.75 -658.24 7.78 
700.91 -659.48 7.69 
699.59 -660.86 7.51 
698.57 -662.64 7.42 
698.12 -663.47 7.38 
704.75 -654.92 8.19 
700.31 -661.11 7.67 
699.41 -662.23 7.56 
698.63 -662.98 7.45 
698.77 -663.83 7.53 
698.89 -664.18 7.58 
699.02 -664.33 7.61 
702.72 -660.24 8.09 
702.75 -660.49 8.11 
704.30 -660.02 8.39 
698.75 -667.84 7.79 
698.30 -668.35 7.74 
701.64 -665.28 8.19 
698.86 -668.91 7.89 
698.52 -669.27 7.85 
701.75 -665.52 8.23 
705.38 -660.90 8.66 
702.16 -665.86 8.33 
699.00 -669.93 7.99 
698.69 -670.60 7.97 
705.44 -661.99 8.74 
698.06 -671.90 7.94 
697.94 -672.37 7.95 
702.67 -666.22 8.46 
699.53 -670.64 8.14 
698.89 -671.19 8.05 
698.33 -672.27 8.02 
705.43 -663.13 8.81 
702.98 -666.56 8.54 
701.31 -668.86 8.37 
698.41 -672.75 8.07 
705.53 -663.40 8.84 
703.28 -666.90 8.62 
697.87 -674.83 8.12 
703.67 -667.26 8.72 
704.05 -667.62 8.82 
698.90 -674.73 8.31 
698.61 -675.45 8.31 
698.44 -675.63 8.29 
697.72 -676.69 8.23 
697.36 -677.12 8.19 
704.48 -668.01 8.93 
699.08 -675.10 8.37 
697.95 -677.12 8.31 
697.39 -677.50 8.23 
697.24 -677.81 8.22 
698.69 -676.52 8.40 
697.85 -677.36 8.31 
697.39 -678.59 8.31 
700.32 -674.82 8.59 
699.31 -676.40 8.52 
702.18 -672.73 8.81 
702.31 -673.07 8.86 
699.01 -679.30 8.68 
706.57 -656.11 8.62 
706.91 -657.84 8.78 
707.03 -658.37 8.84 
706.23 -659.80 8.76 
711.95 -658.99 9.85 
711.82 -659.39 9.85 
712.01 -661.53 10.01 
705.64 -670.06 9.30 
703.25 -674.97 9.18 
702.96 -675.14 9.13 
706.32 -678.02 10.00 
707.45 -677.49 10.18 
707.94 -678.06 10.32 
698.46 -655.96 7.77 
698.80 -655.70 7.84 
698.93 -656.20 7.89 
698.73 -658.22 7.96 
699.21 -657.98 8.05 
700.01 -657.73 8.22 
699.34 -658.48 8.11 
699.44 -658.91 8.16 
701.30 -657.20 8.47 
701.13 -657.49 8.45 
700.14 -660.39 8.40 
699.61 -660.79 8.31 
699.64 -661.07 8.33 
699.41 -661.49 8.31 
699.75 -661.27 8.37 
699.58 -661.74 8.36 
699.36 -661.96 8.33 
699.39 -662.44 8.37 
699.99 -662.26 8.49 
700.06 -662.75 8.54 
702.64 -659.68 8.92 
702.17 -660.68 8.87 
700.39 -663.27 8.64 
699.93 -663.74 8.57 
699.69 -664.43 8.57 
703.48 -659.22 9.08 
700.57 -663.34 8.69 
700.08 -663.99 8.62 
699.75 -664.81 8.60 
700.99 -663.62 8.80 
700.54 -664.33 8.75 
700.07 -665.19 8.70 
700.61 -665.84 8.87 
698.78 -668.89 8.69 
701.32 -665.72 9.02 
699.52 -669.38 8.89 
697.74 -671.26 8.64 
699.72 -669.66 8.95 
697.79 -672.06 8.72 
699.68 -669.91 8.96 
698.10 -672.51 8.82 
700.25 -670.36 9.12 
699.27 -672.19 9.05 
697.95 -676.56 9.14 
698.40 -676.52 9.23 
697.86 -677.11 9.16 
697.73 -677.39 9.16 
697.80 -678.03 9.23 
697.71 -678.22 9.23 
698.04 -678.47 9.32 
697.88 -678.63 9.30 
705.35 -656.71 9.35 
704.97 -660.00 9.45 
701.48 -672.18 9.54 
699.78 -676.37 9.51 
698.37 -678.02 9.35 
698.02 -678.78 9.35 
706.50 -667.28 10.27 
699.97 -676.18 9.54 
699.79 -677.00 9.57 
705.18 -670.28 10.20 
703.88 -672.79 10.11 
701.29 -676.55 9.86 
702.96 -674.88 10.08 
701.12 -677.40 9.89 
702.26 -676.78 10.09 
703.07 -676.22 10.21 
703.15 -676.85 10.28 
701.73 -679.03 10.17 
700.19 -658.29 9.12 
702.05 -661.41 9.77 
700.69 -663.83 9.60 
701.04 -664.87 9.76 
701.41 -665.69 9.91 
703.29 -659.13 9.93 
703.60 -663.40 10.28 
701.74 -666.01 10.02 
701.95 -666.32 10.09 
704.67 -665.06 10.67 
700.85 -670.09 10.13 
699.56 -675.76 10.33 
698.33 -676.87 10.15 
701.38 -673.65 10.57 
698.47 -677.39 10.23 
704.86 -669.27 11.04 
699.68 -676.36 10.42 
699.56 -676.66 10.42 
699.35 -677.09 10.41 
698.47 -678.49 10.34 
702.09 -673.65 10.74 
703.16 -675.00 11.12 
703.55 -675.46 11.26 
699.69 -665.10 10.28 
699.52 -665.23 10.24 
700.39 -664.51 10.42 
700.78 -665.05 10.57 
707.19 -670.55 11.71 
702.57 -661.94 10.83 
702.04 -662.42 10.72 
704.57 -665.44 11.63 
699.42 -676.72 11.32 
699.30 -677.11 11.33 
698.99 -677.24 11.26 
712.43 -659.50 12.21 
701.77 -673.83 11.63 
712.19 -661.32 12.27 
708.62 -659.16 12.29 
708.49 -659.41 12.27 
706.43 -664.93 12.09 
702.80 -675.15 12.03 
702.47 -662.43 11.74 
702.40 -662.68 11.73 
702.64 -662.97 11.83 
701.91 -664.21 11.71 
702.13 -666.34 11.95 
703.83 -664.20 12.28 
702.42 -666.12 12.02 
703.09 -665.99 12.20 
702.49 -668.33 12.23 
712.41 -658.79 13.30 
707.24 -658.76 12.91 
704.90 -665.77 12.72 
701.85 -675.41 12.79 
701.84 -676.04 12.86 
705.04 -671.76 13.31 
703.34 -674.21 13.08 
701.97 -676.05 12.90 
703.17 -675.97 13.23 
702.58 -665.38 12.94 
702.46 -665.58 12.92 
705.95 -670.14 13.42 
705.11 -673.30 13.49 
704.50 -674.32 13.43 
703.35 -665.23 13.17 
703.08 -665.75 13.13 
704.60 -665.14 13.57 
704.97 -664.91 13.67 
711.81 -656.46 14.14 
705.22 -665.28 13.78 
711.24 -658.16 14.07 
703.28 -669.73 13.58 
703.82 -669.54 13.73 
712.05 -658.41 14.32 
710.82 -660.66 14.10 
711.76 -660.05 14.34 
701.15 -675.36 13.57 
702.94 -673.15 13.85 
702.74 -673.38 13.82 
701.75 -675.03 13.71 
702.36 -674.57 13.84 
700.85 -676.79 13.66 
705.00 -667.51 13.91 
704.43 -669.13 13.88 
705.09 -669.60 14.14 
704.23 -670.85 14.00 
706.77 -667.60 14.48 
704.38 -671.26 14.09 
710.77 -655.56 14.92 
711.27 -657.73 15.19 
711.59 -659.42 15.40 
713.31 -659.02 15.93 
704.06 -656.67 6.34 
704.09 -657.91 6.42 
706.03 -661.44 6.92 
703.45 -656.42 7.14 
705.03 -655.15 7.34 
702.41 -658.64 7.09 
700.96 -661.42 7.01 
701.36 -662.17 7.13 
699.37 -664.94 6.95 
700.90 -663.90 7.15 
699.10 -666.36 7.00 
698.77 -667.07 6.98 
701.84 -664.26 7.34 
701.91 -664.53 7.37 
707.63 -660.51 8.11 
698.37 -675.47 7.46 
697.80 -675.93 7.39 
700.50 -673.01 7.66 
700.13 -673.70 7.64 
701.43 -672.78 7.81 
697.92 -677.31 7.50 
697.25 -678.36 7.46 
697.49 -678.20 7.49 
712.19 -659.38 8.83 
699.07 -677.27 7.70 
698.59 -678.52 7.70 
697.90 -679.04 7.61 
705.87 -669.00 8.33 
700.51 -676.23 7.87 
699.93 -677.11 7.83 
697.99 -679.40 7.65 
699.39 -678.65 7.84 
707.31 -668.71 8.56 
704.75 -672.13 8.34 
704.53 -672.37 8.31 
707.19 -670.72 8.67 
699.39 -655.36 7.19 
700.20 -655.49 7.36 
699.88 -655.86 7.32 
700.24 -656.18 7.40 
700.16 -657.20 7.45 
700.40 -657.45 7.51 
700.12 -657.55 7.46 
702.03 -656.03 7.75 
701.42 -656.82 7.67 
702.04 -656.25 7.76 
702.03 -656.51 7.78 
701.31 -658.10 7.73 
700.63 -658.92 7.64 
700.93 -659.40 7.73 
700.04 -660.36 7.61 
699.63 -660.83 7.56 
698.93 -662.00 7.49 
704.70 -654.85 8.21 
698.90 -662.46 7.52 
700.48 -661.14 7.75 
702.37 -660.12 8.06 
700.50 -662.33 7.83 
698.98 -664.39 7.66 
703.10 -659.85 8.18 
704.93 -658.49 8.46 
698.90 -667.33 7.84 
701.76 -663.86 8.17 
700.01 -666.56 8.01 
699.02 -667.57 7.88 
698.28 -668.67 7.81 
701.91 -664.25 8.23 
701.98 -664.52 8.26 
699.06 -668.62 7.96 
700.14 -667.86 8.12 
699.21 -669.67 8.06 
699.15 -669.87 8.06 
698.80 -670.33 8.03 
698.61 -671.03 8.04 
698.04 -672.10 8.01 
698.71 -671.82 8.12 
698.12 -672.44 8.05 
698.15 -672.68 8.07 
700.64 -669.82 8.35 
698.83 -672.44 8.19 
704.25 -665.96 8.80 
701.15 -669.70 8.45 
704.34 -666.35 8.84 
702.40 -669.16 8.65 
699.12 -674.19 8.37 
698.87 -674.32 8.34 
699.24 -674.77 8.44 
698.93 -674.91 8.39 
698.58 -675.18 8.34 
698.50 -675.56 8.36 
697.79 -676.54 8.29 
697.22 -677.24 8.24 
701.44 -672.24 8.68 
698.40 -676.09 8.38 
697.88 -676.69 8.32 
697.70 -676.93 8.31 
697.68 -678.09 8.39 
697.56 -678.28 8.39 
701.83 -673.27 8.83 
698.45 -677.62 8.51 
699.92 -676.53 8.71 
699.56 -676.96 8.67 
698.30 -678.14 8.52 
702.59 -673.26 8.98 
701.80 -674.69 8.93 
699.12 -677.63 8.64 
698.91 -678.13 8.64 
698.80 -679.30 8.71 
698.57 -679.48 8.68 
705.35 -657.64 8.49 
706.95 -658.12 8.84 
705.74 -660.68 8.75 
705.54 -661.25 8.75 
705.31 -661.66 8.73 
706.36 -665.94 9.21 
711.89 -658.83 9.85 
711.92 -659.14 9.88 
712.20 -659.47 9.95 
706.66 -666.28 9.29 
707.08 -667.60 9.46 
705.37 -669.60 9.26 
707.10 -667.86 9.49 
703.32 -673.16 9.12 
706.11 -670.69 9.49 
708.43 -668.48 9.79 
703.18 -674.93 9.22 
707.44 -677.31 10.22 
698.96 -657.94 8.06 
698.88 -657.99 8.04 
699.13 -658.17 8.11 
701.08 -657.09 8.48 
700.44 -660.12 8.52 
699.77 -661.04 8.43 
699.57 -661.28 8.40 
699.99 -661.82 8.52 
699.81 -662.05 8.50 
699.91 -662.02 8.52 
699.70 -662.24 8.49 
700.07 -663.56 8.66 
700.08 -664.30 8.71 
699.93 -664.49 8.69 
697.58 -670.91 8.65 
702.13 -666.10 9.29 
698.39 -670.71 8.81 
697.52 -672.18 8.74 
697.59 -672.25 8.76 
701.35 -668.13 9.26 
698.37 -672.02 8.91 
700.46 -670.30 9.23 
699.04 -672.21 9.07 
698.08 -676.53 9.23 
698.49 -676.45 9.31 
698.23 -677.54 9.36 
698.06 -677.70 9.33 
697.69 -678.14 9.29 
702.85 -659.80 9.03 
703.56 -659.04 9.14 
704.09 -659.57 9.29 
702.66 -666.51 9.43 
702.84 -666.76 9.49 
704.04 -668.17 9.86 
704.06 -668.41 9.88 
701.30 -671.90 9.54 
703.35 -670.24 9.86 
698.90 -676.36 9.39 
698.42 -677.59 9.40 
698.84 -677.56 9.49 
698.45 -677.96 9.44 
707.28 -666.65 10.46 
700.65 -675.70 9.72 
698.29 -678.74 9.47 
705.34 -669.93 10.27 
698.96 -678.81 9.62 
702.18 -675.15 10.00 
703.01 -675.81 10.24 
707.12 -670.64 10.72 
702.82 -677.95 10.38 
700.00 -664.72 9.57 
699.53 -666.70 9.61 
711.53 -658.17 10.85 
712.07 -657.78 10.95 
711.69 -658.43 10.91 
712.32 -659.41 11.10 
709.62 -673.36 11.48 
702.77 -661.62 10.04 
699.93 -671.22 10.08 
701.16 -669.97 10.27 
700.24 -671.59 10.19 
705.74 -666.09 11.08 
698.74 -676.31 10.27 
704.79 -668.85 11.06 
698.40 -677.07 10.26 
704.72 -669.18 11.07 
699.39 -676.93 10.48 
698.96 -677.61 10.45 
703.21 -674.71 11.18 
699.31 -667.86 10.50 
699.16 -668.08 10.48 
707.96 -669.30 11.87 
707.37 -670.38 11.82 
706.59 -671.12 11.69 
703.64 -676.81 11.48 
703.59 -663.58 11.32 
712.48 -659.02 12.27 
699.60 -676.46 11.42 
699.15 -676.85 11.35 
699.21 -677.18 11.40 
712.24 -661.08 12.34 
707.91 -659.73 12.23 
704.70 -664.21 11.67 
702.79 -672.75 11.88 
702.58 -673.88 11.93 
703.03 -674.01 12.07 
702.67 -675.10 12.08 
703.94 -674.08 12.31 
701.54 -664.89 11.77 
702.74 -664.56 12.10 
702.43 -667.46 12.25 
701.84 -667.94 12.12 
701.88 -668.22 12.16 
709.09 -667.59 13.11 
700.93 -675.34 12.62 
700.93 -676.56 12.76 
703.55 -673.64 13.18 
702.99 -674.31 13.09 
701.54 -676.18 12.89 
701.57 -676.49 12.93 
707.29 -658.49 13.03 
705.59 -669.67 13.37 
705.85 -669.68 13.45 
705.55 -670.27 13.42 
705.75 -670.57 13.51 
706.70 -670.19 13.75 
704.04 -664.92 13.50 
711.83 -657.98 14.35 
711.48 -660.30 14.38 
711.50 -660.57 14.41 
711.20 -660.90 14.34 
710.98 -661.28 14.30 
702.07 -674.02 13.80 
701.51 -674.66 13.70 
704.12 -670.19 14.02 
704.42 -670.52 14.15 
704.23 -670.67 14.10 
705.00 -669.82 14.26 
704.42 -670.82 14.18 
704.08 -671.03 14.09 
702.82 -673.64 13.99 
702.13 -674.66 13.89 
704.90 -671.62 14.41 
709.72 -657.33 14.81 
710.73 -657.00 15.12 
711.03 -658.23 15.29 
702.55 -657.57 7.04 
702.49 -659.24 7.13 
700.89 -661.70 7.02 
701.33 -661.22 7.06 
706.14 -657.46 7.64 
700.20 -665.07 7.11 
698.86 -667.46 7.04 
706.09 -660.51 7.83 
700.90 -667.20 7.37 
700.57 -667.20 7.31 
700.70 -667.48 7.35 
700.25 -669.47 7.41 
695.80 -678.82 7.28 
696.33 -679.34 7.41 
711.03 -662.65 8.80 
711.07 -662.94 8.83 
697.95 -678.41 7.61 
697.71 -678.63 7.59 
704.32 -671.99 8.26 
702.61 -674.64 8.15 
698.82 -679.14 7.81 
702.72 -675.34 8.21 
705.79 -671.85 8.51 
702.89 -675.35 8.24 
705.49 -673.97 8.60 
701.99 -677.98 8.27 
700.24 -655.70 7.41 
700.94 -655.84 7.55 
700.96 -656.39 7.59 
699.11 -658.48 7.35 
698.69 -658.73 7.29 
699.14 -658.94 7.39 
701.19 -657.15 7.68 
699.21 -659.94 7.46 
699.10 -660.19 7.46 
698.97 -660.70 7.46 
701.04 -659.03 7.76 
701.01 -659.30 7.77 
700.43 -659.64 7.68 
700.07 -661.20 7.71 
700.74 -661.14 7.83 
698.89 -663.41 7.62 
697.65 -666.00 7.55 
697.58 -666.27 7.55 
697.54 -666.71 7.58 
700.90 -663.26 8.00 
699.44 -664.81 7.82 
701.40 -662.74 8.06 
700.46 -666.85 8.15 
697.49 -669.94 7.79 
697.32 -670.61 7.81 
699.39 -668.56 8.06 
697.79 -671.51 7.96 
698.69 -672.55 8.21 
697.33 -674.02 8.06 
696.69 -674.83 8.00 
699.38 -672.49 8.34 
698.67 -672.85 8.23 
697.42 -674.82 8.14 
696.75 -675.10 8.03 
696.63 -675.31 8.02 
698.38 -675.23 8.35 
699.55 -675.06 8.57 
696.67 -678.71 8.30 
696.48 -678.87 8.27 
698.25 -677.12 8.47 
697.67 -677.72 8.41 
697.59 -677.97 8.41 
696.23 -679.64 8.29 
698.97 -679.24 8.78 
698.83 -679.52 8.77 
704.86 -656.36 8.34 
705.89 -656.86 8.57 
706.01 -657.41 8.63 
704.23 -660.77 8.49 
705.85 -661.35 8.84 
704.65 -663.91 8.77 
704.54 -667.97 9.02 
705.16 -668.35 9.17 
705.24 -668.82 9.21 
711.04 -662.56 9.92 
703.76 -672.56 9.19 
705.65 -670.75 9.43 
701.75 -676.16 9.07 
701.55 -677.63 9.15 
701.50 -677.92 9.16 
707.05 -671.54 9.76 
701.40 -678.19 9.16 
704.41 -676.19 9.59 
698.17 -660.58 8.12 
699.52 -660.91 8.44 
698.01 -662.89 8.23 
698.49 -664.87 8.47 
698.96 -666.63 8.70 
698.35 -668.31 8.69 
696.71 -674.02 8.78 
697.20 -673.98 8.88 
696.65 -675.60 8.91 
697.84 -675.86 9.18 
697.45 -676.21 9.13 
696.45 -679.17 9.18 
696.68 -679.34 9.24 
696.62 -679.56 9.25 
701.72 -662.93 9.05 
703.07 -663.29 9.37 
700.91 -669.09 9.30 
700.13 -671.05 9.28 
701.76 -670.09 9.56 
701.80 -670.33 9.59 
702.09 -670.68 9.68 
700.07 -673.01 9.43 
702.37 -671.08 9.77 
699.56 -674.77 9.46 
698.97 -675.47 9.39 
701.66 -673.15 9.78 
705.08 -669.58 10.25 
697.21 -678.98 9.32 
706.05 -669.45 10.45 
697.80 -679.63 9.51 
703.80 -672.93 10.23 
698.85 -678.65 9.64 
702.67 -674.96 10.14 
700.54 -677.88 9.94 
699.62 -666.43 9.71 
698.11 -668.25 9.48 
697.52 -669.42 9.43 
699.25 -667.72 9.72 
698.11 -668.99 9.54 
697.87 -671.30 9.68 
711.01 -660.86 10.95 
710.95 -661.14 10.95 
708.26 -675.78 11.42 
700.52 -666.28 9.92 
699.79 -668.07 9.88 
699.19 -670.01 9.89 
699.64 -670.65 10.05 
698.66 -674.75 10.17 
700.71 -674.31 10.62 
703.24 -671.81 11.01 
697.03 -679.56 10.26 
697.84 -679.33 10.42 
701.48 -677.81 11.13 
698.25 -669.83 10.51 
702.48 -667.08 11.41 
697.82 -679.36 11.36 
700.87 -676.82 11.88 
701.72 -677.43 12.16 
700.96 -678.10 12.03 
703.96 -675.09 12.51 
700.07 -668.18 11.77 
699.68 -668.76 11.71 
701.11 -667.91 12.05 
700.25 -669.13 11.91 
700.27 -669.39 11.94 
702.39 -666.15 12.28 
700.95 -670.66 12.25 
701.03 -670.96 12.30 
701.21 -677.28 13.02 
701.67 -676.79 13.10 
703.74 -672.83 13.27 
704.29 -672.67 13.41 
704.10 -673.86 13.48 
701.38 -678.95 13.26 
704.08 -667.81 13.94 
703.91 -671.95 14.29 
703.57 -673.39 14.33 
702.97 -673.84 14.19 
701.54 -676.13 14.01 
701.41 -676.45 14.01 
709.91 -661.58 15.33 
709.76 -662.90 15.37 
701.18 -675.46 7.08 
701.53 -656.09 6.85 
702.79 -658.67 7.22 
699.23 -663.41 6.91 
698.39 -664.60 6.85 
699.31 -663.89 6.96 
700.60 -663.71 7.17 
698.93 -665.42 6.99 
698.40 -667.10 7.01 
703.56 -663.43 7.65 
701.23 -666.63 7.46 
700.94 -666.76 7.42 
700.41 -667.65 7.39 
698.95 -671.12 7.36 
698.82 -671.90 7.40 
697.16 -677.87 7.51 
695.89 -679.22 7.39 
695.81 -679.54 7.40 
711.32 -662.18 8.89 
702.44 -672.17 8.03 
698.96 -676.32 7.72 
696.84 -678.91 7.53 
698.35 -677.70 7.70 
697.22 -679.41 7.63 
704.66 -671.50 8.36 
699.06 -678.42 7.87 
698.52 -679.41 7.85 
706.19 -671.19 8.60 
702.93 -675.00 8.30 
706.19 -671.48 8.62 
703.35 -674.82 8.36 
705.92 -673.25 8.69 
700.26 -655.15 7.47 
701.23 -655.75 7.70 
699.01 -658.12 7.40 
701.31 -655.78 7.71 
699.60 -657.64 7.49 
701.36 -656.60 7.77 
699.54 -658.46 7.53 
699.38 -659.43 7.56 
699.03 -659.78 7.51 
701.35 -658.49 7.88 
700.55 -659.12 7.76 
700.18 -659.73 7.73 
698.93 -661.82 7.61 
699.39 -661.59 7.69 
698.16 -664.06 7.61 
699.32 -662.83 7.75 
698.40 -664.32 7.67 
697.75 -664.90 7.58 
698.28 -664.60 7.66 
697.91 -665.28 7.64 
699.75 -663.90 7.91 
698.26 -665.55 7.72 
697.83 -665.78 7.66 
698.03 -666.04 7.71 
701.58 -662.60 8.18 
699.23 -666.70 7.99 
699.11 -667.42 8.02 
697.95 -669.55 7.94 
697.66 -669.75 7.90 
699.68 -668.05 8.17 
697.72 -670.06 7.93 
698.38 -670.42 8.08 
698.18 -670.89 8.08 
697.87 -672.69 8.15 
697.09 -673.73 8.08 
698.77 -672.23 8.29 
697.06 -674.27 8.11 
699.57 -671.75 8.41 
698.11 -673.25 8.23 
697.07 -674.84 8.15 
697.97 -674.30 8.29 
697.32 -675.16 8.23 
697.00 -677.26 8.32 
700.97 -673.25 8.79 
699.79 -674.36 8.64 
696.38 -678.73 8.32 
698.60 -676.48 8.57 
698.62 -676.78 8.60 
697.91 -677.07 8.48 
696.90 -678.64 8.41 
696.38 -679.18 8.36 
698.20 -677.49 8.57 
697.81 -678.48 8.58 
698.78 -678.62 8.77 
698.51 -679.12 8.76 
702.70 -655.76 7.98 
702.61 -656.11 7.99 
706.00 -656.10 8.64 
706.14 -656.39 8.68 
705.80 -658.33 8.73 
703.44 -661.97 8.50 
702.89 -662.26 8.41 
706.13 -660.74 8.94 
706.00 -661.30 8.95 
705.00 -663.11 8.87 
704.24 -663.74 8.77 
704.40 -666.67 8.99 
704.43 -666.96 9.01 
704.59 -667.23 9.06 
705.40 -667.62 9.25 
705.50 -667.93 9.29 
703.26 -670.33 9.02 
704.01 -671.93 9.28 
705.95 -670.16 9.53 
701.92 -677.15 9.26 
707.37 -671.04 9.87 
705.56 -673.54 9.69 
701.76 -677.39 9.25 
704.73 -675.56 9.68 
709.57 -674.97 10.57 
698.79 -663.08 8.52 
698.74 -663.29 8.53 
699.11 -663.59 8.62 
699.21 -664.35 8.70 
698.96 -667.16 8.84 
698.74 -667.36 8.80 
699.09 -667.12 8.86 
696.28 -673.00 8.70 
696.72 -673.35 8.82 
696.58 -673.35 8.79 
697.24 -673.84 8.98 
696.65 -674.33 8.89 
697.16 -674.88 9.04 
697.01 -675.10 9.03 
696.59 -678.81 9.26 
701.90 -661.95 9.13 
702.88 -661.64 9.32 
699.34 -671.95 9.28 
701.40 -670.48 9.61 
701.10 -670.75 9.57 
700.00 -672.41 9.46 
702.43 -670.10 9.81 
702.53 -670.41 9.85 
705.29 -668.78 10.33 
705.17 -669.13 10.33 
705.06 -669.36 10.32 
698.35 -677.90 9.56 
697.45 -679.27 9.49 
697.46 -679.52 9.51 
704.13 -672.29 10.34 
698.25 -679.05 9.64 
698.08 -679.22 9.62 
703.05 -674.17 10.26 
698.63 -678.94 9.71 
701.06 -677.19 10.07 
700.73 -677.37 10.02 
701.76 -677.14 10.22 
697.71 -668.75 9.54 
697.70 -669.51 9.60 
706.15 -673.08 10.84 
705.95 -673.30 10.81 
699.86 -665.66 9.83 
699.44 -667.14 9.84 
699.79 -667.98 9.98 
702.56 -665.58 10.48 
699.22 -669.23 9.94 
699.66 -670.11 10.12 
699.80 -671.78 10.29 
701.08 -673.85 10.77 
696.76 -679.51 10.28 
698.15 -678.83 10.54 
698.13 -679.27 10.58 
697.48 -679.56 10.46 
703.56 -671.19 11.15 
702.14 -676.99 11.31 
701.85 -677.29 11.27 
698.44 -669.07 10.62 
702.11 -666.64 11.41 
703.38 -667.05 11.78 
701.18 -677.56 12.14 
702.00 -678.15 12.42 
700.46 -667.48 11.97 
700.14 -668.24 11.94 
700.50 -668.74 12.09 
702.65 -666.09 12.50 
701.55 -669.08 12.42 
701.18 -676.95 13.09 
701.38 -676.98 13.15 
701.08 -677.23 13.10 
704.17 -670.67 13.32 
706.21 -670.16 13.87 
702.20 -675.64 13.24 
702.12 -676.17 13.28 
700.39 -676.31 13.81 
704.40 -671.31 14.52 
709.62 -661.25 15.39 
703.29 -659.94 6.55 
700.07 -672.38 6.85 
697.58 -677.46 6.79 
701.74 -674.53 7.22 
700.17 -676.36 7.10 
699.13 -679.32 7.12 
700.76 -660.90 7.16 
698.02 -665.37 6.97 
700.48 -663.61 7.28 
700.73 -664.10 7.35 
700.92 -664.38 7.40 
698.65 -666.95 7.18 
703.52 -662.45 7.72 
698.72 -667.73 7.24 
699.35 -670.47 7.53 
703.29 -669.06 8.11 
698.91 -674.44 7.71 
702.13 -671.51 8.07 
697.18 -677.37 7.62 
698.14 -676.77 7.74 
697.10 -678.08 7.65 
696.24 -678.81 7.56 
698.89 -676.41 7.84 
697.35 -678.43 7.72 
696.48 -679.51 7.64 
704.71 -670.60 8.45 
697.54 -678.80 7.77 
697.24 -678.98 7.74 
697.47 -679.66 7.82 
706.46 -670.44 8.74 
706.45 -670.49 8.74 
703.00 -674.41 8.41 
698.86 -678.78 8.00 
706.00 -672.60 8.80 
702.54 -676.77 8.49 
707.10 -678.93 9.41 
698.92 -659.37 7.62 
700.42 -658.14 7.84 
699.29 -659.63 7.71 
699.08 -659.88 7.69 
698.27 -660.26 7.55 
701.45 -657.71 8.02 
700.57 -658.39 7.89 
698.68 -660.44 7.64 
700.66 -658.89 7.93 
699.50 -661.16 7.84 
698.74 -662.76 7.80 
698.29 -663.43 7.75 
699.64 -662.46 7.95 
697.87 -664.53 7.74 
699.74 -662.99 8.00 
698.60 -664.30 7.87 
698.06 -665.08 7.81 
698.40 -664.80 7.86 
698.12 -665.30 7.84 
701.33 -662.13 8.26 
699.65 -664.05 8.06 
699.11 -665.09 8.02 
699.81 -666.22 8.23 
699.69 -666.74 8.24 
697.93 -668.59 8.02 
697.64 -668.81 7.98 
699.86 -667.02 8.29 
699.74 -667.24 8.28 
700.01 -667.80 8.37 
698.48 -669.72 8.20 
698.04 -670.42 8.17 
697.43 -670.61 8.06 
698.89 -670.32 8.33 
698.46 -671.48 8.33 
698.38 -671.82 8.33 
698.84 -672.21 8.45 
697.57 -674.31 8.36 
698.43 -673.74 8.48 
697.38 -676.73 8.50 
698.29 -676.51 8.66 
697.57 -677.39 8.59 
696.60 -678.53 8.49 
698.63 -676.93 8.76 
697.44 -677.67 8.59 
699.39 -676.35 8.86 
699.10 -676.50 8.82 
697.74 -678.04 8.67 
697.47 -678.25 8.64 
696.71 -679.65 8.60 
698.12 -678.49 8.78 
697.24 -679.28 8.67 
697.27 -679.59 8.70 
704.42 -659.62 8.71 
702.89 -661.50 8.52 
702.02 -663.81 8.50 
706.06 -660.12 9.06 
704.77 -666.81 9.23 
705.60 -666.24 9.35 
704.11 -670.99 9.39 
706.20 -669.44 9.68 
701.98 -675.09 9.27 
704.96 -672.37 9.65 
702.27 -676.35 9.42 
707.43 -670.94 10.03 
702.18 -676.63 9.42 
702.26 -677.02 9.46 
699.17 -663.22 8.80 
698.78 -663.78 8.75 
699.16 -666.09 8.98 
696.87 -672.55 8.95 
696.84 -672.76 8.97 
697.07 -673.39 9.06 
696.80 -673.94 9.05 
697.31 -673.74 9.14 
697.44 -674.53 9.24 
700.52 -664.59 9.18 
700.88 -665.16 9.30 
701.35 -666.57 9.49 
701.99 -668.55 9.77 
702.46 -669.48 9.94 
702.57 -669.84 9.99 
705.53 -667.49 10.47 
701.68 -671.68 9.93 
705.57 -667.75 10.50 
705.14 -668.50 10.46 
697.28 -677.86 9.48 
698.45 -677.14 9.67 
697.40 -678.48 9.56 
697.35 -678.75 9.57 
704.31 -671.59 10.50 
698.27 -678.31 9.73 
697.98 -678.78 9.71 
697.15 -679.62 9.61 
698.87 -678.26 9.86 
698.06 -679.41 9.78 
697.85 -679.57 9.75 
701.98 -676.56 10.38 
700.01 -665.89 10.08 
699.99 -667.24 10.17 
699.61 -669.32 10.23 
697.69 -678.49 10.56 
697.48 -678.89 10.55 
698.37 -678.62 10.74 
697.97 -679.37 10.72 
697.98 -679.68 10.75 
704.25 -667.89 11.25 
703.72 -670.24 11.30 
702.18 -676.37 11.44 
702.09 -676.66 11.44 
701.92 -676.86 11.42 
701.17 -677.24 12.29 
702.45 -676.09 12.52 
701.80 -677.19 12.45 
702.58 -678.43 12.78 
704.69 -669.72 13.62 
703.70 -672.40 13.57 
704.00 -672.78 13.69 
702.30 -675.16 13.43 
701.84 -676.21 13.41 
702.67 -675.58 13.58 
705.28 -671.42 15.05 
705.33 -671.70 15.10 
703.28 -657.99 6.48 
703.04 -658.62 6.49 
702.29 -661.38 6.56 
701.12 -664.78 6.60 
697.36 -677.62 6.84 
701.66 -674.32 7.28 
702.29 -673.87 7.34 
699.59 -678.19 7.21 
699.22 -678.61 7.18 
697.96 -679.67 7.05 
699.25 -678.92 7.20 
698.22 -664.94 7.06 
703.75 -661.72 7.80 
699.33 -667.57 7.42 
698.98 -667.85 7.38 
699.10 -668.62 7.45 
699.69 -670.10 7.65 
701.31 -671.14 7.99 
699.38 -673.66 7.83 
702.37 -670.79 8.15 
702.13 -671.00 8.12 
697.72 -676.52 7.74 
697.10 -677.44 7.70 
696.52 -678.08 7.64 
704.86 -669.56 8.49 
697.76 -677.39 7.81 
696.82 -678.48 7.72 
696.42 -678.89 7.68 
705.02 -669.91 8.54 
698.28 -677.34 7.89 
697.19 -678.96 7.82 
703.15 -673.91 8.49 
703.04 -673.93 8.47 
698.88 -678.45 8.07 
703.38 -674.27 8.55 
702.90 -676.07 8.59 
706.12 -678.35 9.29 
705.93 -678.64 9.28 
699.74 -656.92 7.75 
699.51 -657.25 7.72 
700.51 -657.63 7.93 
699.15 -658.70 7.73 
698.58 -659.63 7.68 
700.70 -657.89 7.99 
699.42 -659.20 7.82 
699.04 -659.83 7.78 
700.47 -658.77 7.99 
699.66 -660.53 7.94 
698.85 -661.99 7.87 
698.58 -662.89 7.88 
700.04 -662.14 8.11 
699.53 -662.44 8.03 
699.87 -663.38 8.16 
697.98 -667.98 8.09 
698.08 -668.26 8.13 
699.95 -666.81 8.40 
698.26 -668.54 8.19 
700.08 -667.37 8.46 
698.21 -669.01 8.21 
697.78 -669.49 8.16 
699.06 -669.40 8.40 
698.48 -670.92 8.39 
697.58 -672.41 8.32 
697.15 -672.80 8.27 
698.83 -671.25 8.48 
698.66 -671.77 8.49 
697.34 -673.15 8.33 
698.65 -672.04 8.51 
697.94 -673.80 8.49 
699.11 -672.98 8.66 
698.73 -674.33 8.69 
698.23 -675.31 8.66 
697.93 -676.08 8.66 
697.71 -676.24 8.63 
697.40 -676.42 8.59 
698.82 -676.06 8.83 
697.93 -677.17 8.74 
696.86 -678.80 8.66 
698.25 -677.62 8.84 
697.58 -678.80 8.80 
696.91 -679.10 8.70 
701.69 -661.22 8.38 
703.15 -660.76 8.63 
704.50 -661.30 8.93 
706.47 -659.54 9.20 
705.57 -661.49 9.15 
705.28 -663.99 9.25 
705.71 -664.34 9.35 
705.88 -665.55 9.46 
705.19 -666.20 9.37 
702.82 -670.78 9.22 
699.49 -675.94 8.95 
706.42 -668.74 9.78 
702.25 -674.60 9.38 
698.99 -678.14 9.02 
705.25 -671.78 9.76 
702.85 -674.44 9.49 
698.96 -679.04 9.08 
708.24 -669.59 10.19 
702.65 -675.68 9.54 
702.12 -676.11 9.47 
700.28 -677.73 9.24 
702.54 -675.92 9.54 
697.36 -672.29 9.16 
697.30 -672.82 9.19 
697.28 -673.13 9.20 
697.42 -673.38 9.25 
702.08 -660.84 9.41 
703.77 -661.23 9.80 
702.86 -662.54 9.68 
