# .PCD v0.7 - Point Cloud Data file format
VERSION 0.7
FIELDS x y z
SIZE 4 4 4
TYPE F F F
COUNT 1 1 1
WIDTH 2254
HEIGHT 1
VIEWPOINT 0 0 0 1 0 0 0
POINTS 2254
DATA ascii
706.98 -642.39 6.16 
706.80 -643.23 6.16 
706.36 -645.73 6.20 
706.88 -645.22 6.27 
709.05 -639.42 6.40 
708.38 -641.27 6.36 
708.21 -642.33 6.38 
711.71 -631.21 6.52 
711.29 -632.60 6.51 
708.73 -641.53 6.43 
708.80 -642.03 6.47 
710.53 -636.48 6.53 
707.03 -649.61 6.50 
712.84 -630.33 6.69 
712.70 -630.82 6.69 
711.62 -635.36 6.68 
709.31 -642.35 6.57 
711.71 -635.13 6.69 
711.29 -637.42 6.71 
710.18 -640.62 6.65 
709.80 -642.04 6.65 
710.65 -641.75 6.79 
711.91 -638.22 6.86 
712.64 -636.82 6.93 
712.36 -638.51 6.95 
714.35 -631.91 7.03 
714.30 -633.56 7.09 
711.51 -643.42 7.02 
710.97 -645.74 6.83 
710.71 -647.22 6.85 
712.46 -641.91 7.12 
715.83 -631.33 7.27 
710.85 -649.42 7.18 
714.16 -639.46 7.32 
711.75 -646.87 7.22 
711.49 -648.65 7.25 
711.33 -649.37 7.26 
716.04 -633.15 7.38 
711.65 -649.18 7.11 
715.05 -638.07 7.42 
715.08 -638.28 7.43 
712.96 -646.54 7.23 
713.17 -646.86 7.47 
711.68 -653.76 7.33 
715.58 -641.26 7.65 
715.06 -642.54 7.61 
712.87 -650.75 7.40 
711.79 -654.41 7.38 
711.59 -654.67 7.36 
715.48 -642.36 7.68 
715.13 -649.14 7.73 
706.86 -645.21 6.83 
707.93 -645.01 7.04 
706.18 -650.74 6.99 
707.95 -645.25 7.05 
705.67 -653.88 7.07 
707.58 -648.63 7.16 
707.33 -649.99 7.18 
707.17 -650.17 7.16 
706.88 -650.79 7.13 
706.08 -653.30 7.12 
707.98 -648.18 7.21 
708.08 -629.81 6.52 
706.62 -641.04 6.72 
709.76 -630.25 6.88 
706.94 -641.35 6.80 
706.80 -641.92 6.80 
706.19 -643.67 6.77 
705.90 -644.21 6.74 
707.23 -640.99 6.84 
706.92 -641.53 6.80 
706.60 -643.58 6.85 
706.60 -644.06 6.87 
710.62 -631.01 7.09 
710.63 -631.24 7.10 
710.38 -631.50 7.06 
710.07 -632.23 7.02 
707.31 -642.28 6.92 
706.27 -645.91 6.91 
709.11 -637.64 7.06 
707.02 -644.39 6.97 
706.87 -645.02 6.98 
710.76 -632.48 7.17 
709.88 -635.54 7.12 
709.85 -635.95 7.13 
709.06 -638.94 7.11 
707.63 -643.51 7.05 
704.78 -653.87 7.09 
704.67 -654.13 7.08 
711.75 -630.69 7.31 
709.26 -640.34 7.22 
708.76 -641.77 7.19 
712.40 -630.12 7.42 
709.99 -638.21 7.27 
709.69 -639.71 7.28 
708.84 -642.05 7.22 
708.96 -642.27 7.26 
706.34 -651.09 7.22 
712.51 -631.54 7.49 
710.29 -638.68 7.35 
706.02 -654.55 7.37 
710.91 -638.06 7.45 
709.47 -643.11 7.40 
706.65 -653.87 7.27 
711.80 -636.63 7.56 
711.47 -636.95 7.51 
711.31 -638.14 7.53 
709.14 -646.55 7.36 
708.71 -647.18 7.47 
707.08 -652.73 7.29 
707.25 -653.09 7.53 
706.86 -653.58 7.39 
711.60 -637.94 7.58 
707.41 -653.74 7.60 
710.20 -645.56 7.68 
708.52 -650.74 7.64 
707.85 -653.72 7.50 
713.87 -633.50 7.85 
709.05 -651.24 7.60 
708.43 -652.65 7.73 
708.89 -652.82 7.66 
712.92 -639.31 7.92 
712.14 -643.14 7.95 
710.00 -650.22 7.73 
710.01 -650.53 7.75 
709.02 -653.13 7.70 
715.22 -632.60 8.09 
714.99 -633.15 8.06 
714.66 -634.92 8.07 
711.04 -648.46 8.01 
710.28 -651.15 7.84 
712.26 -645.19 8.08 
711.38 -647.74 7.88 
711.11 -648.71 7.88 
710.50 -651.25 8.06 
709.83 -654.14 7.92 
713.57 -641.40 8.15 
712.82 -644.58 8.16 
710.12 -653.99 7.97 
712.17 -648.21 8.06 
711.53 -650.66 8.24 
714.56 -640.81 8.32 
712.91 -650.16 8.32 
712.73 -650.72 8.31 
712.66 -652.09 8.55 
712.22 -653.48 8.36 
713.89 -648.56 8.59 
714.75 -648.40 8.60 
714.78 -648.46 8.61 
714.86 -648.73 8.64 
708.51 -631.24 7.39 
702.48 -653.15 7.14 
706.13 -644.90 7.53 
706.68 -644.55 7.64 
704.15 -652.85 7.48 
707.21 -643.80 7.71 
707.06 -643.98 7.69 
705.61 -649.81 7.60 
707.69 -642.65 7.75 
707.31 -644.29 7.76 
704.87 -652.69 7.63 
706.32 -650.37 7.80 
706.76 -650.25 7.89 
706.40 -650.91 7.85 
705.76 -652.95 7.85 
705.41 -654.10 7.85 
705.43 -654.35 7.87 
708.26 -646.31 7.98 
708.63 -645.71 8.03 
708.50 -645.88 8.01 
700.00 -653.33 7.31 
700.89 -651.77 7.39 
700.81 -652.18 7.41 
700.54 -652.71 7.39 
701.01 -651.83 7.43 
704.04 -652.02 7.57 
711.55 -630.21 8.04 
707.98 -642.92 7.83 
706.93 -646.45 7.81 
704.93 -652.97 7.84 
711.93 -630.40 8.14 
710.05 -636.38 7.95 
708.74 -641.59 7.92 
708.50 -642.43 7.92 
708.51 -642.62 7.93 
708.02 -643.19 7.85 
708.21 -643.66 7.92 
707.67 -645.10 7.89 
712.04 -631.06 8.19 
709.90 -637.94 8.00 
705.56 -654.46 7.91 
710.79 -638.08 8.20 
710.61 -638.25 8.17 
712.66 -633.65 8.43 
712.37 -633.82 8.37 
712.31 -634.15 8.37 
711.58 -636.75 8.32 
711.52 -636.94 8.32 
709.64 -643.88 8.26 
708.32 -647.79 8.21 
708.46 -648.41 8.15 
707.37 -652.42 8.17 
707.30 -652.61 8.17 
713.47 -631.90 8.55 
712.01 -636.27 8.40 
711.79 -637.45 8.40 
708.86 -647.57 8.32 
707.41 -653.49 8.25 
713.31 -633.33 8.57 
712.17 -637.24 8.48 
711.12 -641.15 8.44 
711.04 -641.37 8.43 
708.75 -650.06 8.32 
713.44 -635.12 8.67 
713.00 -635.88 8.61 
711.67 -640.82 8.55 
708.38 -652.32 8.39 
714.67 -632.12 8.83 
713.62 -634.92 8.70 
713.48 -636.10 8.72 
714.64 -632.34 8.83 
709.21 -652.97 8.62 
708.74 -653.64 8.56 
708.68 -654.02 8.65 
711.26 -646.09 8.65 
711.06 -647.13 8.66 
711.14 -647.69 8.71 
712.33 -643.72 8.86 
710.51 -651.01 8.92 
714.29 -637.97 9.00 
710.89 -650.63 8.98 
710.80 -650.88 8.98 
714.53 -639.44 9.13 
714.41 -639.73 9.11 
711.75 -649.82 8.98 
714.71 -639.83 9.19 
714.46 -640.79 9.18 
713.43 -646.69 9.29 
712.87 -648.71 9.29 
713.13 -648.01 9.30 
712.76 -650.76 9.27 
712.85 -651.09 9.31 
700.08 -652.20 7.41 
699.67 -654.53 7.54 
700.25 -653.29 7.37 
701.06 -652.12 7.46 
700.95 -653.26 7.54 
707.96 -629.79 7.94 
702.13 -651.07 7.64 
701.59 -653.17 7.68 
702.61 -651.85 7.97 
702.21 -653.52 7.86 
709.65 -630.86 8.40 
706.17 -644.38 8.16 
706.94 -643.00 8.27 
706.59 -644.29 8.26 
704.25 -652.41 8.26 
707.15 -643.26 8.34 
707.21 -643.50 8.37 
705.39 -649.38 8.30 
705.12 -650.96 8.36 
704.64 -652.92 8.40 
707.60 -643.76 8.54 
705.21 -651.88 8.45 
705.03 -652.35 8.45 
709.45 -637.44 8.63 
707.95 -643.15 8.59 
708.11 -643.43 8.65 
707.67 -644.44 8.61 
706.18 -650.09 8.55 
705.33 -652.73 8.55 
709.23 -639.67 8.69 
709.29 -639.90 8.72 
709.21 -640.30 8.73 
707.64 -646.38 8.66 
706.16 -650.59 8.59 
707.80 -646.20 8.68 
707.95 -646.72 8.75 
707.73 -647.64 8.76 
711.86 -652.07 9.29 
711.49 -652.43 9.24 
714.94 -642.48 9.38 
714.00 -645.77 9.36 
713.69 -647.40 9.39 
712.96 -652.92 9.60 
700.50 -651.10 7.94 
700.23 -651.43 7.90 
700.00 -653.28 8.02 
700.76 -652.54 8.14 
701.11 -652.43 8.22 
702.08 -650.85 8.33 
710.62 -630.29 8.63 
704.73 -651.82 8.48 
704.60 -651.96 8.46 
711.29 -630.30 8.80 
711.29 -631.84 8.85 
705.28 -652.15 8.64 
707.90 -645.69 8.75 
707.83 -645.71 8.74 
712.03 -631.27 9.02 
710.48 -636.66 8.85 
708.50 -644.25 8.80 
712.20 -632.11 9.09 
712.31 -632.69 9.14 
711.07 -637.14 9.02 
710.63 -637.90 8.95 
709.47 -642.00 8.89 
712.65 -633.05 9.24 
708.79 -646.52 9.03 
712.78 -633.38 9.29 
712.57 -633.92 9.26 
711.89 -636.05 9.18 
710.97 -640.40 9.18 
709.37 -645.63 9.04 
709.26 -646.40 9.06 
709.00 -647.07 9.04 
708.74 -647.20 8.98 
707.44 -652.06 9.01 
707.31 -652.97 9.06 
709.02 -648.28 9.22 
708.75 -648.81 9.20 
707.90 -651.85 9.11 
707.26 -654.07 9.13 
712.00 -638.89 9.35 
711.87 -639.12 9.33 
711.19 -641.90 9.32 
711.67 -641.81 9.44 
709.34 -649.40 9.39 
709.48 -649.59 9.33 
712.56 -641.71 9.65 
710.78 -648.42 9.58 
711.75 -646.00 9.66 
710.93 -649.58 9.79 
710.52 -651.03 9.70 
711.37 -649.95 9.83 
711.43 -651.12 9.93 
700.60 -654.34 8.47 
702.36 -651.49 8.60 
702.57 -651.83 8.55 
702.01 -654.25 8.64 
709.54 -631.06 9.14 
703.67 -651.65 8.96 
706.99 -643.88 9.12 
704.75 -651.18 9.07 
704.04 -653.37 9.09 
707.50 -643.21 9.21 
707.18 -643.69 9.16 
707.31 -644.19 9.23 
706.89 -645.75 9.22 
706.68 -645.90 9.17 
707.95 -642.45 9.29 
707.38 -645.26 9.32 
705.61 -650.84 9.27 
705.52 -652.34 9.38 
705.30 -653.06 9.39 
709.88 -638.37 9.56 
709.35 -640.56 9.55 
709.04 -642.58 9.60 
708.47 -643.78 9.53 
707.04 -649.93 9.58 
714.74 -638.78 10.04 
713.05 -646.03 10.06 
713.80 -644.68 10.15 
713.46 -647.26 10.17 
713.27 -647.45 10.13 
713.76 -647.01 10.23 
712.47 -651.28 10.20 
712.39 -652.68 10.28 
712.77 -651.68 10.30 
715.52 -648.41 10.76 
700.18 -653.56 8.82 
701.57 -650.15 8.85 
700.86 -652.33 8.88 
700.55 -653.35 8.90 
701.57 -650.35 8.87 
701.72 -650.66 8.94 
701.40 -650.99 8.88 
700.75 -652.99 8.92 
701.39 -653.11 9.11 
702.39 -651.25 9.20 
710.68 -630.01 9.43 
706.01 -650.80 9.48 
709.99 -638.88 9.63 
706.14 -651.45 9.58 
705.68 -654.08 9.59 
709.64 -640.85 9.65 
707.40 -649.59 9.65 
707.27 -649.76 9.63 
712.38 -632.41 9.98 
710.44 -640.31 9.83 
707.48 -650.37 9.74 
712.46 -633.36 10.04 
710.57 -640.10 9.86 
708.86 -647.26 9.87 
708.52 -647.70 9.81 
707.99 -649.28 9.79 
708.15 -649.60 9.85 
707.79 -650.81 9.86 
707.38 -651.42 9.80 
707.14 -653.45 9.92 
709.46 -646.42 9.97 
709.25 -647.14 9.96 
709.11 -647.63 9.96 
708.94 -648.09 9.95 
707.92 -651.13 9.92 
707.25 -653.27 9.93 
709.22 -647.89 10.01 
709.24 -648.95 10.10 
709.10 -649.20 10.08 
708.84 -649.63 10.04 
708.08 -652.52 10.09 
709.16 -649.45 10.12 
711.34 -643.95 10.33 
710.76 -646.05 10.33 
708.81 -652.63 10.29 
713.71 -636.84 10.54 
713.01 -639.52 10.50 
711.42 -644.21 10.37 
708.86 -653.24 10.36 
712.71 -641.87 10.56 
712.68 -642.25 10.58 
712.63 -642.50 10.58 
710.48 -649.15 10.45 
702.28 -652.01 9.37 
708.88 -630.85 9.71 
702.42 -654.02 9.51 
709.53 -629.91 9.88 
709.40 -630.34 9.86 
708.95 -631.05 9.74 
703.54 -650.68 9.47 
703.59 -651.14 9.53 
702.34 -654.50 9.54 
703.79 -651.01 9.58 
703.87 -652.85 9.79 
703.68 -653.52 9.81 
709.79 -633.02 10.06 
704.80 -650.29 9.80 
706.11 -646.89 9.90 
707.89 -642.95 10.12 
706.97 -646.08 10.07 
706.09 -650.07 10.15 
709.33 -639.91 10.28 
708.56 -643.64 10.37 
706.34 -650.72 10.29 
714.13 -638.40 10.75 
713.07 -643.25 10.76 
711.38 -649.74 10.74 
712.58 -647.83 10.93 
711.41 -651.47 10.89 
711.54 -651.81 10.95 
713.89 -644.18 11.05 
713.69 -645.92 11.10 
712.51 -648.97 11.05 
711.64 -652.15 11.01 
712.50 -650.41 11.17 
714.29 -645.91 11.28 
712.17 -653.91 11.31 
699.44 -652.92 9.26 
699.63 -653.29 9.36 
699.54 -653.58 9.37 
700.47 -653.12 9.60 
700.23 -653.41 9.56 
701.82 -650.89 9.74 
711.99 -631.22 10.67 
711.88 -631.68 10.65 
711.19 -634.08 10.53 
706.22 -651.56 10.34 
711.77 -632.41 10.64 
711.52 -634.59 10.65 
708.78 -643.78 10.44 
708.78 -644.27 10.48 
707.13 -649.99 10.45 
706.20 -653.06 10.48 
711.45 -635.02 10.65 
711.58 -635.53 10.71 
709.73 -644.76 10.80 
709.59 -645.15 10.77 
708.37 -648.96 10.72 
708.77 -648.85 10.83 
709.64 -648.35 11.05 
709.21 -648.74 10.96 
710.82 -645.49 11.18 
712.61 -640.71 11.33 
702.64 -653.48 10.30 
703.61 -651.20 10.33 
710.10 -632.03 10.93 
706.38 -644.68 10.58 
705.91 -646.39 10.58 
706.57 -645.46 10.71 
707.03 -645.67 10.83 
709.15 -638.94 10.96 
709.15 -642.38 11.21 
711.96 -643.93 11.41 
711.43 -647.56 11.52 
710.67 -650.32 11.52 
710.64 -651.48 11.62 
711.06 -650.93 11.69 
713.83 -644.95 12.01 
711.96 -650.51 11.92 
711.15 -631.05 11.24 
711.51 -633.38 11.44 
706.87 -650.44 11.28 
706.50 -651.11 11.23 
712.02 -633.09 11.59 
709.88 -644.55 11.71 
709.87 -644.76 11.72 
712.85 -651.44 12.27 
715.23 -648.36 12.71 
705.88 -645.51 11.29 
705.78 -645.68 11.27 
706.10 -646.00 11.41 
706.97 -645.10 11.64 
708.07 -642.56 11.67 
707.52 -644.97 11.81 
707.30 -645.15 11.75 
712.30 -646.40 12.65 
710.20 -653.93 12.71 
708.29 -644.45 12.04 
709.43 -644.21 12.42 
715.80 -635.61 12.95 
715.50 -635.87 12.86 
713.78 -644.27 12.96 
709.82 -648.14 12.86 
708.39 -653.39 13.01 
711.93 -644.68 13.21 
709.44 -653.95 13.43 
713.66 -643.93 13.89 
711.28 -652.11 13.84 
711.56 -652.84 14.02 
714.79 -642.53 14.02 
712.47 -651.70 14.18 
712.41 -652.65 14.28 
712.02 -653.62 14.26 
711.75 -654.13 14.23 
713.50 -649.38 14.31 
713.61 -652.62 14.68 
715.09 -648.66 14.79 
714.58 -649.68 14.71 
715.45 -650.32 15.08 
705.08 -654.46 6.28 
707.26 -648.37 6.39 
707.04 -649.11 6.39 
706.75 -650.61 6.40 
707.31 -648.87 6.42 
707.18 -649.52 6.43 
707.20 -650.06 6.46 
706.03 -654.15 6.44 
707.24 -650.56 6.49 
707.11 -651.13 6.49 
706.96 -651.48 6.48 
706.32 -654.04 6.48 
706.76 -642.17 6.22 
706.18 -643.51 6.17 
707.15 -642.05 6.28 
707.06 -642.67 6.29 
706.40 -644.03 6.23 
708.56 -638.68 6.39 
710.88 -632.18 6.54 
708.93 -638.28 6.44 
707.10 -644.41 6.38 
707.34 -645.15 6.46 
712.94 -629.70 6.81 
712.84 -630.23 6.82 
711.52 -633.99 6.73 
711.08 -635.28 6.71 
706.87 -650.16 6.60 
711.13 -637.26 6.80 
710.42 -639.31 6.75 
710.35 -639.62 6.76 
710.31 -639.94 6.76 
709.69 -641.71 6.73 
708.04 -648.51 6.74 
713.64 -631.11 7.00 
709.33 -645.35 6.82 
708.27 -648.57 6.78 
712.77 -635.91 7.04 
712.01 -637.53 6.97 
710.98 -640.96 6.93 
709.63 -646.37 6.92 
714.47 -632.82 7.22 
713.71 -634.66 7.16 
712.87 -637.91 7.14 
712.42 -641.68 7.22 
711.40 -644.73 7.17 
714.36 -636.91 7.37 
716.14 -632.43 7.51 
711.59 -647.56 7.33 
711.49 -647.79 7.33 
711.41 -648.55 7.35 
711.73 -648.40 7.40 
711.64 -648.90 7.40 
712.73 -646.61 7.50 
711.66 -649.44 7.24 
711.53 -653.90 7.42 
715.14 -641.88 7.72 
712.79 -650.91 7.51 
715.78 -641.33 7.82 
714.86 -648.90 7.79 
714.90 -649.22 7.81 
705.03 -654.48 7.07 
706.15 -650.91 7.10 
707.47 -648.83 7.25 
706.57 -650.83 7.18 
706.56 -651.32 7.20 
706.04 -653.45 7.22 
707.82 -648.27 7.30 
707.15 -650.28 7.27 
707.84 -629.72 6.61 
709.67 -629.79 6.99 
710.19 -630.43 7.12 
706.18 -643.52 6.87 
710.31 -630.37 7.14 
707.46 -640.03 6.96 
707.48 -640.63 6.99 
706.89 -642.88 6.98 
706.55 -642.98 6.91 
707.68 -640.88 7.04 
707.15 -643.35 7.05 
706.65 -644.52 7.01 
710.92 -631.47 7.31 
710.68 -631.71 7.27 
709.74 -635.18 7.21 
707.60 -642.83 7.12 
707.09 -644.56 7.11 
711.14 -631.88 7.37 
711.09 -632.35 7.38 
710.55 -634.74 7.36 
709.87 -636.51 7.30 
708.41 -641.44 7.22 
705.82 -650.17 7.16 
711.77 -632.04 7.51 
710.94 -634.36 7.43 
709.70 -638.51 7.35 
709.38 -639.63 7.33 
708.93 -640.68 7.29 
709.18 -641.38 7.37 
707.81 -646.02 7.33 
705.76 -652.84 7.30 
709.85 -640.56 7.47 
709.48 -641.86 7.46 
708.53 -645.35 7.44 
706.80 -650.17 7.35 
705.52 -654.43 7.35 
712.44 -633.22 7.69 
711.32 -637.28 7.63 
711.22 -637.74 7.63 
706.91 -651.77 7.47 
706.87 -652.48 7.33 
706.59 -652.66 7.46 
711.98 -635.60 7.69 
711.94 -636.82 7.73 
711.42 -637.48 7.66 
711.32 -637.95 7.66 
710.26 -642.05 7.63 
709.03 -645.71 7.56 
709.11 -645.78 7.58 
712.39 -636.20 7.80 
710.74 -642.34 7.74 
710.62 -642.59 7.73 
709.92 -644.31 7.67 
708.91 -647.62 7.64 
708.85 -648.34 7.67 
713.85 -632.81 7.96 
713.44 -633.64 7.91 
709.39 -648.09 7.76 
707.22 -654.53 7.52 
714.11 -632.54 8.00 
711.64 -641.80 7.90 
707.74 -654.00 7.59 
710.79 -645.07 7.89 
714.77 -633.92 8.19 
711.39 -645.45 8.03 
709.86 -650.74 7.84 
708.82 -653.11 7.76 
710.05 -650.53 7.87 
709.62 -652.33 7.88 
711.35 -647.90 8.08 
710.98 -648.94 7.98 
710.49 -651.23 8.00 
712.96 -643.81 8.27 
711.12 -650.36 8.24 
710.70 -650.73 8.18 
710.00 -654.19 8.06 
709.87 -654.39 8.05 
714.77 -639.46 8.43 
711.68 -650.05 8.34 
714.75 -639.97 8.45 
712.23 -648.46 8.21 
711.36 -653.87 8.32 
711.20 -654.19 8.48 
712.55 -650.28 8.37 
714.15 -647.66 8.71 
714.10 -647.92 8.71 
712.30 -654.01 8.52 
714.76 -646.75 8.78 
714.69 -648.56 8.71 
702.30 -653.57 7.38 
703.08 -651.82 7.26 
706.38 -644.35 7.66 
707.98 -641.57 7.87 
707.32 -643.00 7.80 
707.16 -643.58 7.79 
707.02 -644.09 7.79 
704.24 -653.08 7.61 
707.90 -642.04 7.88 
707.59 -643.36 7.88 
707.19 -644.47 7.85 
705.62 -649.90 7.71 
705.12 -651.49 7.70 
705.98 -650.41 7.82 
705.26 -654.38 7.93 
705.94 -652.66 7.96 
699.96 -653.55 7.39 
700.78 -652.17 7.48 
700.30 -653.44 7.46 
703.57 -654.00 7.69 
708.32 -641.68 7.95 
708.01 -642.24 7.91 
707.58 -643.91 7.91 
712.09 -629.81 8.32 
708.75 -641.10 8.02 
708.50 -642.12 8.02 
707.32 -645.68 7.96 
710.10 -637.44 8.15 
708.93 -641.34 8.08 
705.42 -652.79 8.01 
711.72 -633.48 8.36 
711.00 -636.05 8.30 
710.65 -637.20 8.27 
709.52 -641.68 8.23 
708.23 -645.71 8.16 
710.87 -637.67 8.34 
709.93 -641.71 8.33 
709.30 -642.78 8.24 
712.36 -634.89 8.56 
711.63 -636.29 8.46 
711.75 -636.80 8.50 
708.26 -648.67 8.23 
713.23 -632.62 8.68 
712.30 -635.57 8.58 
711.90 -637.00 8.55 
713.56 -632.80 8.76 
712.94 -634.63 8.69 
712.57 -636.53 8.68 
711.46 -640.59 8.62 
711.19 -641.23 8.59 
709.61 -646.66 8.53 
709.28 -647.04 8.48 
707.52 -653.04 8.49 
713.51 -634.31 8.81 
708.74 -650.37 8.45 
713.79 -634.55 8.88 
713.59 -635.30 8.86 
708.51 -654.22 8.64 
713.32 -641.32 9.08 
711.14 -647.39 8.82 
711.11 -647.92 8.84 
710.89 -648.41 8.93 
714.41 -638.73 9.20 
714.79 -638.97 9.30 
711.60 -649.78 9.18 
710.47 -653.29 9.02 
710.45 -653.52 9.03 
714.84 -639.29 9.33 
711.67 -650.03 9.09 
711.48 -650.76 9.09 
713.19 -647.11 9.37 
711.23 -652.44 9.27 
713.30 -647.10 9.40 
712.67 -650.88 9.37 
712.62 -651.19 9.38 
700.23 -653.11 7.58 
700.54 -653.55 7.53 
701.01 -653.16 7.61 
702.02 -651.11 7.70 
701.09 -653.43 7.65 
701.48 -653.38 7.75 
702.89 -650.55 7.99 
702.77 -650.95 7.99 
702.20 -654.36 8.16 
702.60 -653.76 8.05 
702.78 -654.25 8.29 
704.80 -649.94 8.30 
703.56 -654.08 8.31 
705.24 -649.65 8.39 
704.87 -651.42 8.43 
704.21 -652.61 8.35 
707.90 -641.91 8.62 
704.95 -651.25 8.43 
704.98 -651.97 8.50 
704.85 -652.66 8.52 
704.48 -653.04 8.45 
707.74 -643.52 8.67 
707.75 -643.75 8.69 
706.04 -650.21 8.63 
708.50 -642.85 8.83 
706.37 -649.56 8.67 
707.75 -646.38 8.80 
713.47 -647.48 9.46 
713.99 -646.82 9.54 
712.49 -651.30 9.48 
715.21 -648.67 9.82 
700.43 -651.50 8.03 
699.99 -653.30 8.08 
699.96 -653.62 8.10 
700.80 -652.34 8.20 
700.67 -652.50 8.19 
700.89 -652.85 8.28 
701.12 -653.23 8.37 
708.99 -641.34 8.86 
708.11 -644.53 8.83 
710.77 -636.95 9.09 
708.40 -644.15 8.88 
708.20 -644.79 8.87 
708.05 -645.48 8.88 
705.60 -654.07 8.95 
708.20 -646.97 8.95 
712.71 -632.14 9.39 
712.88 -632.62 9.45 
709.55 -643.75 9.14 
712.96 -632.87 9.48 
711.26 -638.90 9.31 
708.92 -647.36 9.16 
708.65 -647.33 9.09 
707.55 -651.42 9.20 
707.30 -652.00 9.07 
709.21 -646.68 9.19 
708.11 -650.92 9.30 
708.10 -651.53 9.24 
707.29 -653.32 9.17 
707.87 -652.46 9.25 
711.68 -641.31 9.54 
710.24 -645.89 9.46 
709.78 -648.57 9.53 
709.33 -649.81 9.42 
707.98 -654.49 9.43 
712.79 -640.99 9.80 
709.28 -652.55 9.61 
711.73 -646.10 9.85 
710.64 -648.60 9.67 
710.96 -649.87 9.92 
711.43 -648.65 9.95 
711.32 -650.18 9.95 
710.25 -654.11 9.96 
712.07 -649.29 10.08 
700.85 -653.64 8.48 
702.73 -651.45 8.64 
702.07 -654.41 8.74 
702.76 -653.51 8.96 
702.58 -654.46 9.02 
703.91 -651.22 9.03 
702.85 -653.62 9.00 
704.64 -651.35 9.15 
704.33 -651.72 9.10 
704.54 -652.05 9.18 
703.90 -653.64 9.15 
706.69 -645.99 9.31 
705.47 -651.01 9.35 
704.84 -653.22 9.37 
707.83 -644.92 9.55 
705.22 -653.18 9.47 
705.49 -653.01 9.52 
715.05 -637.62 10.21 
710.96 -650.66 9.98 
715.22 -638.46 10.29 
711.64 -649.74 10.08 
715.58 -638.75 10.40 
713.97 -643.83 10.27 
713.91 -644.04 10.26 
712.66 -648.01 10.21 
713.38 -647.43 10.29 
713.93 -645.94 10.39 
713.70 -647.18 10.35 
712.78 -650.12 10.31 
712.44 -651.46 10.32 
712.94 -651.03 10.41 
712.84 -651.24 10.40 
712.61 -651.80 10.38 
712.71 -652.08 10.43 
715.44 -648.46 10.87 
699.94 -653.29 8.78 
701.81 -649.96 8.98 
701.50 -650.46 8.94 
701.57 -650.72 8.98 
700.62 -653.46 8.99 
701.43 -653.35 9.21 
702.40 -651.33 9.29 
709.34 -629.75 9.25 
702.61 -651.71 9.39 
710.21 -629.81 9.49 
706.38 -650.84 9.66 
712.44 -631.48 10.15 
710.49 -638.58 9.90 
709.96 -639.91 9.82 
710.04 -640.46 9.87 
709.55 -641.65 9.81 
712.63 -632.57 10.24 
712.34 -632.84 10.17 
712.26 -633.13 10.16 
707.23 -649.92 9.74 
707.22 -650.39 9.77 
706.11 -653.89 9.77 
709.16 -645.96 9.99 
708.53 -648.02 9.95 
707.29 -651.72 9.90 
709.54 -646.26 10.11 
709.08 -647.31 10.06 
708.83 -647.38 9.99 
708.13 -649.72 9.97 
707.87 -651.20 10.01 
709.06 -647.92 10.09 
708.97 -649.32 10.17 
708.01 -651.52 10.08 
711.32 -643.00 10.39 
708.18 -652.63 10.22 
710.95 -645.27 10.44 
709.37 -649.87 10.32 
708.48 -653.33 10.36 
710.65 -649.17 10.62 
710.42 -649.37 10.57 
698.96 -653.67 9.25 
699.36 -653.46 9.35 
708.97 -630.19 9.94 
702.45 -653.67 9.54 
703.58 -651.17 9.62 
703.51 -653.64 9.84 
703.77 -653.01 9.85 
708.59 -638.63 10.13 
709.56 -638.45 10.42 
709.41 -639.34 10.42 
706.16 -650.92 10.35 
706.04 -651.75 10.40 
713.04 -641.41 10.77 
712.83 -643.80 10.86 
711.89 -646.82 10.80 
710.94 -650.12 10.77 
711.28 -649.95 10.85 
712.74 -647.57 11.08 
712.55 -647.90 11.06 
711.37 -651.68 11.01 
712.68 -648.36 11.15 
711.42 -652.24 11.07 
714.25 -645.22 11.35 
713.61 -646.32 11.24 
712.81 -649.53 11.28 
714.70 -644.82 11.44 
714.64 -645.05 11.44 
712.58 -652.71 11.42 
712.42 -653.22 11.42 
699.70 -653.23 9.42 
699.52 -653.36 9.38 
699.42 -653.77 9.40 
700.51 -653.69 9.73 
702.23 -650.87 9.94 
701.92 -651.14 9.87 
711.11 -631.25 10.61 
711.04 -631.97 10.61 
711.86 -630.69 10.82 
711.00 -633.91 10.65 
709.74 -639.15 10.51 
711.75 -633.58 10.87 
711.48 -634.68 10.83 
709.86 -639.64 10.58 
707.02 -650.13 10.54 
706.58 -650.78 10.51 
707.21 -650.81 10.69 
707.28 -651.75 10.76 
706.30 -654.39 10.73 
710.78 -640.92 10.93 
708.28 -649.03 10.82 
711.21 -640.50 11.04 
710.74 -645.53 11.30 
709.57 -648.60 11.17 
716.50 -647.88 12.16 
703.45 -651.39 10.38 
708.62 -638.81 10.94 
706.41 -645.46 10.72 
706.71 -645.52 10.82 
709.08 -642.07 11.30 
710.83 -647.61 11.47 
710.41 -648.62 11.42 
710.70 -651.18 11.72 
715.62 -635.72 12.13 
712.55 -645.32 11.78 
710.89 -651.09 11.77 
712.62 -646.41 11.89 
714.10 -643.85 12.13 
714.07 -644.09 12.14 
710.78 -653.86 12.04 
713.81 -645.56 12.23 
709.33 -643.97 11.53 
710.38 -643.54 11.84 
709.80 -644.80 11.86 
710.73 -643.85 11.98 
714.61 -650.90 12.87 
716.43 -647.28 13.10 
715.98 -650.83 13.27 
705.78 -645.69 11.41 
706.25 -645.58 11.57 
708.01 -641.50 11.70 
706.86 -645.25 11.75 
711.65 -644.36 12.32 
712.45 -645.87 12.80 
712.31 -646.62 12.81 
712.88 -645.17 12.79 
710.34 -653.92 12.84 
709.22 -642.53 12.20 
711.64 -652.26 13.08 
712.48 -653.33 13.47 
712.40 -653.61 13.47 
708.41 -653.45 13.11 
711.58 -647.47 13.49 
715.62 -648.24 13.94 
715.92 -649.86 14.19 
716.11 -650.26 14.35 
711.85 -646.80 13.64 
714.90 -642.38 14.20 
712.67 -650.18 14.15 
711.18 -654.33 14.16 
712.70 -650.44 14.19 
712.77 -650.76 14.25 
711.93 -652.88 14.25 
711.96 -653.76 14.36 
711.96 -654.07 14.40 
713.93 -649.45 14.51 
713.67 -651.81 14.68 
713.46 -652.90 14.74 
714.79 -649.24 14.88 
715.31 -649.73 15.11 
707.08 -649.26 6.42 
705.40 -653.37 6.32 
707.10 -649.51 6.44 
707.04 -649.74 6.44 
706.94 -650.72 6.47 
706.81 -651.39 6.48 
707.43 -650.14 6.53 
707.44 -650.63 6.55 
707.04 -651.11 6.50 
706.26 -653.96 6.50 
706.82 -641.92 6.23 
706.78 -642.12 6.23 
707.18 -641.72 6.29 
706.38 -644.11 6.25 
708.89 -638.23 6.45 
708.46 -639.08 6.40 
711.22 -631.68 6.59 
707.22 -644.13 6.41 
709.20 -638.67 6.52 
708.62 -641.72 6.55 
707.28 -645.21 6.47 
710.94 -635.25 6.69 
709.13 -640.45 6.59 
709.28 -640.92 6.63 
712.85 -630.13 6.82 
712.89 -630.89 6.86 
711.72 -634.52 6.80 
709.22 -641.35 6.64 
711.14 -637.16 6.81 
710.28 -639.68 6.76 
710.31 -639.87 6.77 
709.29 -642.95 6.73 
713.75 -630.43 7.00 
711.50 -636.87 6.86 
713.87 -630.45 7.02 
711.93 -637.39 6.96 
711.93 -637.61 6.97 
711.22 -639.00 6.90 
710.47 -641.29 6.87 
708.00 -648.95 6.77 
709.59 -645.38 6.89 
714.35 -632.73 7.20 
715.75 -630.59 7.37 
714.06 -636.63 7.31 
711.38 -644.86 7.19 
715.88 -632.27 7.46 
714.41 -636.58 7.38 
710.43 -649.68 7.05 
708.72 -654.54 7.17 
711.90 -646.21 7.35 
711.40 -647.61 7.32 
710.01 -652.57 7.11 
710.04 -652.86 7.13 
709.25 -654.26 7.25 
714.52 -639.68 7.53 
712.94 -644.17 7.44 
711.86 -648.32 7.44 
710.02 -654.25 7.19 
712.62 -647.18 7.52 
712.25 -647.61 7.48 
712.04 -648.06 7.46 
715.13 -641.89 7.74 
712.40 -650.14 7.62 
712.19 -650.85 7.62 
711.52 -654.28 7.46 
712.80 -650.94 7.54 
713.00 -651.79 7.81 
713.10 -653.30 7.90 
712.82 -654.43 7.70 
706.02 -650.78 7.09 
706.20 -650.85 7.13 
707.35 -648.90 7.26 
706.01 -653.42 7.24 
706.15 -654.00 7.30 
706.77 -652.41 7.33 
709.55 -629.78 6.99 
709.83 -630.43 7.07 
710.25 -630.58 7.16 
710.77 -631.82 7.32 
707.61 -641.60 7.08 
707.21 -642.16 7.03 
707.00 -642.98 7.03 
706.87 -643.38 7.02 
706.70 -644.24 7.03 
707.75 -642.68 7.17 
707.28 -643.69 7.12 
706.88 -644.24 7.07 
710.90 -632.85 7.38 
707.33 -644.97 7.20 
707.29 -645.26 7.20 
704.31 -653.63 7.08 
712.09 -630.73 7.55 
711.00 -634.87 7.48 
709.28 -639.78 7.34 
708.92 -640.65 7.31 
708.83 -641.08 7.31 
707.47 -645.50 7.25 
705.04 -652.79 7.17 
712.51 -631.12 7.65 
712.01 -632.00 7.58 
709.13 -641.28 7.38 
705.74 -652.93 7.32 
711.33 -635.90 7.59 
710.83 -638.07 7.58 
709.62 -640.95 7.47 
708.64 -644.90 7.46 
706.81 -649.94 7.36 
706.72 -650.15 7.36 
705.36 -654.55 7.35 
711.34 -637.48 7.66 
711.07 -637.84 7.62 
711.05 -638.04 7.63 
712.99 -633.58 7.84 
712.27 -636.11 7.79 
708.50 -647.01 7.54 
706.84 -652.70 7.36 
713.72 -632.72 7.96 
712.70 -635.11 7.84 
712.60 -635.35 7.83 
709.32 -646.06 7.66 
708.77 -648.53 7.68 
707.45 -652.27 7.63 
711.08 -641.96 7.81 
708.95 -648.35 7.71 
711.34 -641.86 7.86 
710.70 -644.92 7.88 
707.66 -654.09 7.61 
714.54 -633.98 8.17 
709.91 -648.30 7.90 
708.95 -651.41 7.72 
711.46 -644.84 8.04 
710.35 -648.06 7.98 
708.71 -653.37 7.95 
712.23 -644.25 8.16 
711.18 -648.08 8.15 
710.23 -651.29 7.98 
713.05 -643.89 8.31 
710.74 -650.58 8.20 
709.74 -654.41 8.05 
714.67 -639.42 8.43 
714.71 -639.81 8.46 
710.47 -653.51 8.31 
710.12 -653.76 8.09 
711.98 -649.97 8.41 
711.71 -650.14 8.37 
710.74 -653.38 8.19 
712.52 -651.12 8.43 
711.60 -654.00 8.40 
714.72 -646.55 8.79 
714.08 -647.64 8.72 
714.11 -647.93 8.74 
703.05 -651.91 7.29 
702.40 -653.25 7.23 
704.37 -650.51 7.62 
704.12 -652.31 7.70 
707.52 -641.80 7.81 
707.54 -642.09 7.82 
707.38 -642.98 7.84 
707.05 -643.86 7.81 
707.05 -644.29 7.83 
704.89 -653.47 7.80 
706.10 -650.48 7.88 
706.48 -650.81 7.99 
706.18 -651.22 7.95 
705.65 -653.04 7.94 
705.38 -654.45 7.98 
715.58 -648.63 9.07 
699.61 -653.93 7.35 
699.47 -654.07 7.33 
700.86 -652.10 7.51 
700.59 -652.67 7.49 
700.31 -653.43 7.48 
700.03 -653.47 7.42 
700.89 -652.33 7.53 
700.99 -652.60 7.58 
700.51 -653.51 7.54 
703.36 -654.13 7.66 
707.89 -641.82 7.89 
704.86 -651.05 7.77 
708.57 -640.60 7.98 
708.37 -641.67 7.99 
708.02 -641.66 7.91 
707.53 -643.30 7.89 
710.28 -636.65 8.20 
710.07 -637.57 8.19 
707.58 -644.20 7.95 
711.37 -633.71 8.33 
711.56 -633.98 8.38 
710.73 -635.70 8.26 
710.32 -637.11 8.23 
709.96 -638.45 8.20 
705.37 -652.76 8.00 
711.26 -635.44 8.37 
710.98 -637.30 8.38 
710.91 -637.54 8.38 
709.35 -641.39 8.20 
711.90 -635.02 8.50 
711.46 -636.22 8.45 
709.10 -644.08 8.29 
708.54 -645.35 8.23 
713.19 -632.53 8.70 
711.59 -637.06 8.52 
710.71 -640.39 8.47 
709.09 -645.77 8.39 
709.43 -644.91 8.41 
709.45 -645.39 8.45 
709.42 -646.05 8.48 
709.32 -646.32 8.47 
708.42 -648.66 8.30 
707.24 -652.67 8.28 
707.11 -653.13 8.28 
713.32 -634.27 8.80 
709.38 -647.02 8.53 
708.77 -648.30 8.47 
707.53 -652.94 8.50 
714.42 -631.58 8.95 
713.81 -634.48 8.92 
712.78 -636.80 8.78 
711.44 -641.39 8.68 
709.66 -648.15 8.66 
708.35 -652.52 8.52 
713.20 -638.85 8.96 
709.16 -653.14 8.74 
714.45 -639.90 9.30 
713.34 -643.46 9.23 
710.29 -652.90 9.11 
711.79 -650.20 9.27 
713.10 -647.13 9.38 
711.69 -651.38 9.33 
711.43 -651.72 9.29 
713.21 -647.70 9.44 
700.39 -651.52 7.47 
699.85 -653.24 7.49 
699.98 -653.82 7.58 
701.05 -652.69 7.73 
700.82 -653.44 7.61 
701.26 -652.54 7.64 
701.30 -653.05 7.82 
701.12 -653.36 7.67 
701.40 -653.31 7.74 
702.92 -650.51 8.00 
702.69 -651.08 7.99 
704.71 -650.00 8.31 
705.11 -649.68 8.39 
704.53 -650.87 8.33 
704.79 -651.21 8.42 
704.55 -651.61 8.49 
704.18 -652.65 8.37 
707.99 -641.83 8.67 
704.97 -650.99 8.49 
704.23 -653.43 8.56 
708.59 -641.04 8.78 
705.01 -652.03 8.53 
704.90 -652.62 8.55 
706.33 -649.37 8.67 
706.34 -649.57 8.69 
705.51 -653.27 8.75 
714.57 -631.23 8.97 
715.13 -638.23 9.38 
714.21 -644.91 9.50 
714.01 -646.66 9.56 
713.54 -647.48 9.50 
712.39 -651.28 9.47 
713.15 -652.21 9.71 
700.26 -651.56 8.00 
700.06 -652.86 8.07 
699.98 -653.27 8.08 
699.92 -653.59 8.10 
699.83 -653.86 8.10 
700.79 -652.32 8.21 
700.83 -652.79 8.27 
700.35 -653.72 8.23 
701.15 -653.22 8.39 
700.94 -653.34 8.35 
710.45 -630.43 8.83 
709.88 -636.63 8.89 
709.69 -639.32 8.97 
708.56 -643.05 8.88 
710.56 -637.09 9.09 
709.18 -641.55 8.96 
708.35 -644.41 8.91 
705.72 -652.28 8.83 
712.63 -632.02 9.43 
709.74 -641.44 9.09 
708.89 -643.80 9.01 
708.67 -644.23 8.98 
707.35 -649.55 9.02 
712.76 -632.55 9.48 
712.54 -633.34 9.45 
711.05 -639.18 9.31 
708.78 -645.94 9.12 
707.79 -649.49 9.12 
708.47 -648.22 9.20 
707.53 -651.14 9.18 
709.62 -645.68 9.31 
708.16 -650.86 9.32 
707.25 -653.45 9.19 
712.27 -639.04 9.61 
709.85 -645.70 9.37 
709.64 -646.91 9.40 
709.31 -647.55 9.36 
708.11 -651.72 9.28 
712.11 -640.96 9.67 
711.78 -641.18 9.59 
710.41 -646.34 9.56 
710.07 -648.53 9.62 
712.73 -640.57 9.81 
708.82 -653.32 9.57 
711.63 -645.69 9.82 
711.55 -645.88 9.81 
711.37 -650.26 10.00 
710.07 -654.33 9.96 
711.44 -651.41 10.09 
701.66 -653.14 8.63 
702.81 -651.53 8.69 
702.53 -652.01 8.66 
702.07 -654.41 8.75 
702.93 -653.86 8.93 
702.75 -654.09 9.01 
704.12 -650.95 9.06 
703.84 -652.10 9.02 
704.29 -651.77 9.11 
703.92 -653.57 9.17 
704.87 -651.51 9.25 
704.87 -651.76 9.27 
704.48 -652.08 9.19 
705.48 -651.02 9.38 
704.79 -653.21 9.37 
704.49 -653.58 9.32 
707.71 -644.92 9.55 
715.06 -637.43 10.25 
713.07 -644.95 10.14 
712.28 -648.20 10.15 
711.48 -649.56 10.05 
713.88 -643.67 10.27 
712.67 -648.06 10.24 
713.89 -645.93 10.40 
712.34 -651.44 10.32 
712.97 -651.05 10.45 
700.03 -653.34 8.81 
701.49 -650.45 8.96 
700.46 -653.11 9.00 
700.26 -653.68 8.91 
700.14 -654.31 9.06 
701.67 -650.78 9.04 
700.61 -653.41 8.99 
700.68 -653.71 9.04 
701.41 -653.39 9.22 
702.31 -651.22 9.27 
702.53 -651.78 9.39 
709.83 -630.07 9.47 
710.02 -637.95 9.79 
712.37 -631.03 10.20 
710.42 -638.19 9.91 
710.32 -638.23 9.88 
712.50 -632.50 10.27 
712.06 -633.06 10.17 
712.09 -633.35 10.19 
710.37 -638.69 9.92 
710.54 -640.08 10.04 
710.15 -640.51 9.95 
710.05 -640.97 9.95 
709.88 -641.88 9.96 
707.19 -649.89 9.76 
707.36 -650.44 9.85 
706.30 -652.61 9.73 
710.31 -641.36 10.04 
707.46 -650.94 9.91 
707.28 -651.69 9.92 
707.10 -652.11 9.91 
708.52 -649.00 10.06 
708.23 -649.40 10.01 
707.12 -653.70 10.05 
711.01 -642.58 10.31 
711.06 -642.81 10.34 
709.14 -649.13 10.24 
710.87 -645.01 10.43 
710.84 -645.21 10.43 
709.31 -649.97 10.35 
708.59 -652.98 10.38 
710.72 -649.04 10.67 
710.41 -650.83 10.71 
698.99 -653.72 9.26 
699.50 -653.31 9.37 
702.42 -653.52 9.53 
703.64 -651.10 9.65 
702.49 -653.89 9.58 
703.74 -651.57 9.72 
708.41 -638.37 10.13 
704.48 -651.39 9.92 
703.72 -653.06 9.86 
708.79 -638.61 10.25 
707.09 -645.00 10.14 
707.11 -645.34 10.18 
709.31 -638.93 10.43 
705.02 -652.87 10.22 
704.89 -653.32 10.23 
708.27 -644.41 10.46 
706.10 -650.90 10.36 
708.38 -645.09 10.54 
706.12 -651.76 10.44 
714.19 -637.03 10.91 
713.03 -641.09 10.79 
713.92 -639.35 10.94 
713.30 -642.14 10.92 
710.63 -650.62 10.76 
713.14 -646.04 11.13 
712.47 -648.05 11.09 
711.57 -650.65 11.02 
712.73 -648.65 11.21 
711.40 -652.01 11.07 
714.36 -644.96 11.39 
712.88 -649.54 11.32 
712.74 -650.38 11.35 
713.29 -651.17 11.56 
700.07 -654.13 9.64 
711.72 -630.60 10.87 
711.84 -631.33 10.92 
711.46 -632.39 10.83 
709.43 -639.32 10.49 
711.83 -633.09 10.96 
711.26 -634.86 10.85 
705.62 -653.86 10.55 
710.34 -640.18 10.81 
706.99 -650.09 10.56 
707.38 -650.85 10.75 
707.14 -651.67 10.74 
707.07 -651.86 10.73 
706.14 -654.37 10.70 
710.69 -641.03 10.96 
711.27 -640.61 11.12 
709.35 -648.72 11.16 
711.87 -640.92 11.32 
716.39 -648.08 12.17 
716.39 -648.33 12.19 
716.32 -648.76 12.20 
703.52 -651.32 10.42 
706.27 -646.13 10.76 
706.64 -645.57 10.83 
712.48 -632.45 11.15 
712.36 -633.49 11.14 
710.87 -648.24 11.58 
712.36 -645.07 11.74 
712.82 -645.69 11.92 
714.11 -643.49 12.16 
713.99 -643.84 12.14 
709.18 -642.23 11.40 
710.58 -643.73 11.96 
712.68 -654.52 12.66 
714.94 -650.59 12.96 
711.40 -644.12 12.26 
713.10 -643.64 12.78 
713.07 -644.69 12.85 
711.30 -652.39 12.99 
712.47 -653.24 13.46 
715.07 -649.15 13.88 
710.46 -647.20 13.09 
712.52 -642.50 13.42 
712.97 -642.83 13.61 
713.04 -643.94 13.71 
715.66 -647.85 13.95 
715.97 -648.54 14.11 
715.95 -649.74 14.21 
710.82 -652.22 13.76 
711.38 -652.97 14.10 
711.17 -654.07 14.15 
712.75 -650.58 14.24 
712.60 -651.84 14.33 
712.25 -652.61 14.30 
712.01 -653.61 14.39 
713.43 -651.28 14.55 
714.56 -648.76 14.68 
714.57 -650.22 14.83 
715.40 -650.21 15.24 
716.15 -649.84 15.34 
704.94 -653.47 6.24 
705.37 -653.10 6.30 
705.48 -654.19 6.38 
705.67 -654.48 6.43 
707.05 -650.50 6.48 
707.21 -650.75 6.52 
706.98 -651.18 6.50 
707.41 -651.06 6.57 
706.40 -653.76 6.52 
706.16 -642.63 6.13 
707.15 -640.82 6.23 
706.44 -642.84 6.19 
706.05 -643.86 6.17 
706.05 -644.03 6.18 
706.84 -642.68 6.26 
706.60 -643.29 6.24 
708.20 -639.82 6.37 
707.28 -642.15 6.31 
708.77 -638.75 6.43 
708.60 -639.60 6.44 
708.05 -641.76 6.44 
707.01 -644.69 6.38 
708.97 -639.39 6.49 
708.70 -641.15 6.52 
712.61 -630.15 6.74 
712.49 -630.56 6.74 
712.05 -631.53 6.70 
710.55 -635.91 6.62 
711.58 -634.64 6.75 
711.37 -635.35 6.75 
709.89 -640.33 6.70 
709.79 -640.56 6.69 
709.05 -641.64 6.61 
708.64 -643.65 6.63 
706.13 -651.01 6.53 
713.31 -630.90 6.90 
711.14 -637.78 6.81 
709.88 -640.37 6.70 
709.43 -642.59 6.72 
708.29 -645.65 6.66 
706.33 -651.54 6.60 
705.68 -654.03 6.61 
708.49 -647.05 6.76 
713.03 -633.45 6.96 
711.57 -638.04 6.90 
711.63 -638.24 6.92 
708.93 -646.50 6.82 
707.91 -649.40 6.77 
707.80 -650.48 6.81 
712.36 -636.80 6.99 
712.36 -637.54 7.02 
714.10 -633.51 7.16 
708.36 -651.42 6.96 
715.45 -631.11 7.30 
713.54 -637.25 7.22 
714.51 -635.32 7.31 
711.77 -644.37 7.23 
710.52 -647.65 7.16 
708.59 -654.50 7.15 
711.53 -646.86 7.30 
711.33 -648.34 7.34 
710.04 -652.39 7.11 
712.76 -644.84 7.43 
711.63 -648.17 7.38 
711.40 -648.63 7.36 
712.41 -648.70 7.55 
714.89 -642.74 7.71 
711.89 -651.62 7.60 
711.53 -654.05 7.46 
711.88 -654.42 7.54 
714.35 -648.97 7.91 
713.08 -653.09 7.69 
706.14 -650.70 7.12 
706.69 -650.62 7.22 
706.62 -651.09 7.24 
705.73 -653.78 7.21 
706.08 -653.18 7.25 
706.73 -652.63 7.34 
708.16 -631.36 6.75 
708.83 -630.97 6.87 
709.35 -631.13 6.99 
709.90 -631.20 7.10 
706.89 -641.42 6.92 
706.04 -644.67 6.92 
705.90 -644.98 6.90 
710.68 -631.27 7.26 
709.50 -635.77 7.20 
706.81 -643.76 7.02 
706.67 -643.97 7.01 
710.72 -632.77 7.33 
707.92 -641.99 7.16 
707.53 -642.57 7.11 
706.92 -644.11 7.06 
706.94 -644.42 7.08 
703.53 -654.32 6.97 
711.98 -629.99 7.48 
709.93 -637.58 7.37 
712.43 -631.69 7.63 
712.00 -633.01 7.60 
710.82 -636.57 7.50 
709.39 -641.43 7.43 
709.06 -641.86 7.39 
705.36 -653.09 7.26 
710.84 -637.79 7.56 
710.87 -637.99 7.58 
708.62 -644.10 7.41 
711.78 -636.06 7.68 
711.03 -638.26 7.62 
707.89 -648.07 7.47 
712.96 -634.14 7.84 
711.97 -636.73 7.75 
713.41 -633.34 7.90 
712.50 -636.22 7.83 
712.13 -637.23 7.80 
709.38 -646.34 7.68 
709.23 -646.78 7.68 
708.35 -648.70 7.60 
708.32 -649.18 7.63 
707.10 -652.54 7.41 
713.73 -633.25 7.96 
713.19 -635.14 7.93 
710.80 -642.52 7.78 
710.66 -642.78 7.76 
708.11 -650.88 7.68 
707.07 -654.62 7.53 
713.52 -635.63 8.02 
708.06 -652.38 7.76 
707.76 -653.77 7.62 
714.12 -634.79 8.10 
712.90 -638.71 8.02 
710.36 -646.33 7.88 
715.88 -631.58 8.33 
712.83 -639.96 8.07 
712.58 -640.96 8.06 
709.75 -649.42 7.93 
708.86 -652.88 7.79 
710.91 -648.75 8.13 
710.58 -650.22 8.14 
709.73 -652.08 7.92 
708.94 -654.11 8.04 
709.01 -654.52 7.91 
713.05 -644.10 8.31 
712.78 -644.32 8.27 
712.87 -644.60 8.30 
711.47 -648.70 8.24 
709.84 -653.72 8.20 
714.53 -640.33 8.43 
714.46 -640.69 8.43 
713.02 -644.32 8.32 
711.58 -648.70 8.26 
709.93 -654.03 8.07 
710.03 -654.40 8.28 
711.46 -650.80 8.35 
711.44 -651.07 8.36 
711.45 -651.35 8.38 
710.88 -653.00 8.21 
713.43 -648.96 8.65 
713.81 -648.38 8.69 
712.71 -652.10 8.68 
712.67 -653.83 8.61 
700.16 -653.92 6.94 
703.65 -651.14 7.38 
706.85 -642.67 7.70 
707.29 -642.95 7.81 
706.86 -644.45 7.80 
704.90 -652.72 7.76 
704.93 -653.24 7.81 
706.49 -650.37 7.97 
705.70 -652.81 7.95 
705.46 -654.22 7.99 
705.35 -654.51 7.99 
706.70 -651.68 8.10 
715.43 -649.24 9.07 
699.72 -653.58 7.35 
699.60 -653.73 7.34 
700.17 -653.32 7.44 
700.97 -651.93 7.53 
700.99 -652.23 7.56 
700.63 -652.43 7.49 
700.45 -653.04 7.49 
700.39 -653.20 7.49 
710.24 -630.07 7.95 
709.91 -630.69 7.89 
711.15 -630.24 8.16 
711.18 -631.64 8.21 
707.67 -642.40 7.87 
707.48 -642.55 7.84 
707.24 -643.65 7.84 
711.84 -630.96 8.34 
709.82 -636.87 8.10 
708.29 -641.20 7.95 
708.02 -642.18 7.94 
707.29 -643.87 7.87 
707.30 -644.09 7.88 
705.20 -650.90 7.83 
711.05 -634.58 8.29 
710.04 -637.75 8.19 
707.56 -644.68 7.97 
707.33 -645.21 7.95 
704.85 -652.87 7.89 
708.19 -643.57 8.05 
707.77 -645.04 8.04 
707.44 -646.33 8.04 
704.97 -653.44 7.96 
711.41 -636.01 8.43 
710.99 -637.04 8.38 
710.71 -638.07 8.36 
710.62 -638.43 8.35 
712.49 -633.38 8.57 
712.35 -634.19 8.57 
711.69 -635.54 8.47 
711.45 -636.25 8.45 
709.70 -641.72 8.30 
712.15 -636.00 8.60 
708.37 -647.76 8.34 
707.23 -651.29 8.20 
708.74 -647.67 8.42 
708.59 -648.31 8.43 
707.15 -652.84 8.28 
709.37 -647.31 8.54 
709.17 -647.64 8.52 
708.55 -648.83 8.45 
707.30 -652.59 8.30 
711.48 -641.14 8.68 
711.19 -642.10 8.66 
709.01 -648.68 8.54 
709.49 -649.09 8.68 
713.14 -639.23 8.97 
710.88 -646.46 8.83 
708.61 -653.31 8.64 
713.69 -638.72 9.07 
713.49 -638.93 9.03 
708.62 -653.63 8.66 
709.52 -651.96 8.87 
712.61 -643.98 9.09 
713.08 -644.10 9.20 
711.28 -650.76 9.19 
710.44 -653.74 9.20 
712.85 -647.99 9.37 
711.31 -651.91 9.27 
700.90 -653.21 7.61 
701.30 -653.07 7.70 
702.37 -651.65 7.95 
702.79 -652.07 8.09 
702.71 -654.22 8.26 
704.45 -650.03 8.26 
703.01 -654.69 8.25 
704.68 -651.14 8.48 
704.24 -652.27 8.37 
707.68 -642.57 8.64 
705.10 -650.69 8.47 
705.01 -650.98 8.47 
704.75 -651.41 8.52 
704.69 -651.89 8.54 
704.54 -652.86 8.49 
704.98 -652.30 8.55 
704.55 -653.25 8.62 
705.58 -653.00 8.75 
713.93 -645.53 9.47 
713.39 -647.58 9.47 
713.88 -646.94 9.54 
713.71 -647.40 9.53 
712.20 -651.93 9.47 
713.02 -651.96 9.66 
700.52 -651.33 8.06 
699.96 -653.51 8.10 
700.87 -652.37 8.25 
700.59 -652.91 8.22 
700.25 -653.17 8.15 
700.10 -654.03 8.30 
701.01 -652.64 8.31 
700.64 -653.65 8.40 
709.80 -630.17 8.68 
709.84 -630.61 8.70 
710.53 -629.73 8.85 
711.35 -634.30 9.19 
708.80 -641.85 8.88 
708.01 -644.45 8.83 
707.82 -644.83 8.81 
708.49 -643.83 8.92 
705.16 -653.88 8.82 
712.42 -632.63 9.41 
712.54 -633.33 9.46 
708.81 -644.11 9.02 
708.67 -644.67 9.01 
708.55 -646.63 9.11 
709.54 -644.50 9.22 
709.28 -645.85 9.24 
708.59 -646.87 9.14 
707.53 -650.17 9.11 
711.57 -639.38 9.46 
711.42 -639.91 9.45 
711.19 -640.63 9.42 
710.86 -641.53 9.39 
709.25 -646.08 9.25 
708.42 -648.80 9.23 
708.36 -648.99 9.23 
707.31 -652.92 9.18 
710.01 -645.32 9.39 
707.99 -651.36 9.31 
707.94 -652.10 9.28 
710.13 -646.77 9.52 
709.01 -649.40 9.42 
708.29 -653.33 9.54 
710.22 -649.09 9.70 
708.82 -653.14 9.57 
708.96 -653.46 9.63 
710.79 -649.01 9.83 
710.06 -651.95 9.87 
702.04 -652.63 8.66 
702.75 -651.10 8.65 
702.37 -652.15 8.70 
702.96 -651.37 8.73 
702.13 -654.18 8.75 
703.66 -651.42 8.98 
704.04 -651.05 9.00 
703.91 -651.73 9.02 
702.81 -654.11 8.92 
704.70 -651.07 9.18 
704.49 -651.46 9.16 
704.40 -652.38 9.20 
706.73 -646.20 9.38 
704.98 -651.38 9.28 
705.59 -650.61 9.39 
705.22 -652.93 9.47 
713.98 -637.87 10.00 
714.62 -638.12 10.17 
713.42 -643.89 10.17 
713.46 -644.11 10.19 
712.80 -645.58 10.11 
711.34 -650.58 10.08 
713.60 -644.45 10.25 
712.32 -648.81 10.20 
713.65 -646.59 10.39 
712.32 -651.72 10.41 
712.77 -651.59 10.45 
700.04 -651.84 8.67 
700.23 -653.01 8.84 
701.72 -650.43 9.04 
700.66 -653.27 8.99 
708.99 -630.56 9.29 
701.49 -653.12 9.22 
702.59 -651.47 9.39 
701.87 -654.19 9.44 
709.16 -639.54 9.65 
710.04 -639.13 9.87 
711.84 -634.19 10.17 
710.23 -639.33 9.93 
709.78 -640.52 9.87 
706.16 -651.35 9.64 
710.16 -640.90 9.99 
709.92 -641.23 9.95 
707.35 -649.60 9.80 
710.25 -642.42 10.10 
710.32 -642.67 10.14 
710.44 -642.93 10.19 
707.93 -650.80 10.05 
707.22 -651.83 9.93 
710.61 -643.18 10.25 
710.62 -643.43 10.27 
707.90 -651.05 10.05 
707.52 -653.76 10.17 
707.35 -654.52 10.19 
710.54 -645.64 10.39 
710.45 -650.43 10.71 
699.10 -653.38 9.25 
699.46 -653.34 9.36 
699.24 -653.64 9.32 
699.65 -653.18 9.40 
703.52 -650.65 9.59 
703.65 -650.94 9.65 
702.52 -653.34 9.54 
702.57 -653.56 9.58 
703.42 -652.48 9.76 
708.29 -639.26 10.17 
704.22 -651.35 9.86 
708.78 -638.82 10.29 
704.62 -651.06 9.95 
708.85 -639.73 10.36 
706.86 -645.97 10.17 
706.59 -646.36 10.11 
707.29 -645.40 10.25 
706.82 -646.68 10.21 
705.17 -652.17 10.21 
712.31 -633.10 10.27 
706.38 -650.58 10.44 
712.77 -641.68 10.76 
713.06 -641.44 10.83 
713.07 -642.53 10.89 
715.44 -637.31 11.29 
711.83 -648.28 10.93 
712.91 -646.70 11.12 
711.37 -651.46 11.04 
712.93 -646.96 11.14 
711.49 -651.78 11.09 
713.98 -645.57 11.33 
712.57 -649.59 11.24 
714.23 -645.36 11.39 
712.98 -651.46 11.50 
712.56 -652.47 11.47 
712.18 -652.90 11.40 
700.06 -654.09 9.63 
699.98 -654.26 9.63 
710.47 -631.87 10.57 
710.51 -635.00 10.67 
709.07 -640.00 10.44 
710.03 -640.99 10.79 
710.32 -641.25 10.89 
710.32 -641.70 10.92 
709.28 -644.89 10.81 
707.12 -651.05 10.70 
706.24 -654.10 10.71 
707.14 -651.61 10.75 
703.52 -651.13 10.42 
711.45 -631.17 10.85 
707.75 -643.00 11.01 
711.62 -632.03 10.92 
708.08 -642.19 11.06 
712.12 -645.72 11.73 
711.77 -646.95 11.71 
712.57 -646.36 11.91 
713.85 -644.16 12.14 
713.69 -644.67 12.13 
708.98 -642.94 11.41 
709.08 -642.76 11.43 
708.64 -645.00 11.45 
706.56 -650.94 11.38 
709.12 -644.15 11.54 
709.00 -644.60 11.53 
709.37 -645.39 11.72 
709.67 -644.97 11.78 
715.25 -650.80 13.07 
715.18 -651.02 13.07 
711.51 -647.20 12.56 
712.09 -647.07 12.74 
712.98 -645.08 12.87 
710.43 -653.52 12.87 
713.88 -644.43 13.12 
712.04 -652.33 13.22 
713.42 -649.94 13.42 
714.48 -649.05 13.68 
711.84 -642.32 13.21 
712.13 -642.39 13.31 
712.27 -642.88 13.40 
711.11 -648.38 13.45 
711.35 -652.06 14.02 
712.51 -651.33 14.24 
711.60 -653.90 14.30 
712.46 -652.23 14.32 
712.39 -652.75 14.35 
712.01 -653.44 14.39 
713.02 -651.98 14.48 
712.88 -652.35 14.47 
714.20 -649.61 14.64 
706.02 -652.47 6.41 
705.48 -653.76 6.38 
705.26 -654.43 6.37 
706.32 -653.82 6.53 
707.14 -640.45 6.24 
706.52 -642.48 6.22 
706.19 -643.72 6.22 
707.22 -641.91 6.32 
706.91 -642.31 6.28 
706.74 -642.93 6.28 
706.32 -644.37 6.27 
709.01 -638.91 6.51 
708.20 -641.53 6.48 
712.63 -629.76 6.77 
710.40 -636.27 6.64 
712.90 -630.45 6.85 
705.63 -651.07 6.47 
711.63 -634.86 6.80 
705.99 -651.69 6.56 
713.56 -630.71 6.98 
711.15 -637.36 6.83 
710.07 -640.05 6.75 
708.44 -645.40 6.70 
706.49 -650.92 6.62 
706.39 -651.57 6.63 
711.13 -639.06 6.90 
710.32 -641.43 6.86 
711.69 -637.82 6.94 
708.83 -646.44 6.82 
708.24 -648.90 6.83 
707.82 -649.21 6.77 
712.51 -636.55 7.04 
715.10 -630.74 7.25 
714.20 -633.15 7.19 
713.08 -638.00 7.20 
711.87 -641.02 7.12 
713.91 -636.95 7.31 
711.07 -645.17 7.17 
708.96 -651.07 7.07 
715.59 -632.62 7.42 
711.68 -646.48 7.34 
711.63 -646.72 7.34 
711.67 -647.25 7.37 
711.42 -647.96 7.36 
712.77 -644.40 7.44 
711.75 -647.78 7.41 
711.54 -648.25 7.40 
712.53 -648.28 7.57 
714.86 -642.19 7.71 
711.99 -651.31 7.62 
711.53 -654.25 7.49 
712.12 -654.14 7.59 
713.10 -652.30 7.87 
712.30 -654.60 7.84 
714.86 -648.23 7.99 
712.99 -653.65 7.92 
715.25 -649.22 8.11 
706.19 -652.82 7.27 
705.68 -654.64 7.27 
706.35 -653.39 7.33 
708.26 -630.89 6.81 
709.30 -630.11 6.99 
709.34 -630.82 7.03 
710.42 -630.82 7.25 
706.88 -640.85 6.93 
706.14 -644.29 6.95 
706.02 -644.78 6.95 
710.72 -632.47 7.37 
707.11 -643.21 7.09 
706.85 -643.37 7.05 
707.19 -644.07 7.15 
712.26 -629.79 7.58 
708.10 -641.74 7.22 
707.27 -644.74 7.20 
711.92 -632.47 7.61 
710.76 -635.21 7.48 
710.37 -637.38 7.49 
709.11 -641.16 7.40 
708.96 -641.56 7.39 
705.59 -650.34 7.16 
704.89 -653.11 7.18 
710.87 -636.17 7.54 
710.37 -638.61 7.54 
708.86 -642.01 7.39 
706.26 -650.63 7.31 
712.30 -633.47 7.73 
711.97 -634.55 7.70 
709.47 -641.37 7.49 
708.67 -643.82 7.44 
707.78 -646.42 7.39 
706.55 -650.24 7.35 
706.28 -651.35 7.36 
705.07 -654.48 7.30 
711.18 -637.85 7.68 
707.78 -647.83 7.47 
713.84 -631.57 7.97 
713.23 -633.57 7.92 
712.35 -635.76 7.83 
708.15 -648.37 7.57 
713.59 -632.94 7.97 
712.64 -636.46 7.92 
710.55 -642.77 7.77 
709.38 -646.32 7.71 
708.54 -648.27 7.64 
708.42 -648.72 7.65 
707.14 -652.09 7.42 
710.96 -642.41 7.84 
707.34 -652.49 7.64 
715.32 -630.95 8.25 
710.63 -645.79 7.94 
708.54 -651.85 7.84 
712.76 -640.56 8.12 
710.32 -648.47 8.02 
709.87 -648.88 7.95 
709.91 -649.11 7.97 
714.55 -637.89 8.37 
711.01 -648.39 8.15 
709.20 -654.03 7.95 
712.62 -644.63 8.29 
711.94 -646.53 8.24 
710.76 -649.87 8.18 
714.65 -640.05 8.48 
714.48 -640.33 8.46 
711.70 -648.30 8.29 
710.13 -653.66 8.12 
711.65 -650.41 8.39 
711.57 -650.80 8.40 
710.13 -653.98 8.29 
714.51 -646.76 8.78 
713.93 -648.16 8.74 
712.88 -651.90 8.73 
700.42 -654.02 7.01 
702.64 -652.59 7.27 
706.97 -642.50 7.76 
703.12 -654.42 7.64 
704.55 -651.39 7.74 
705.80 -652.47 7.98 
705.62 -653.88 8.03 
705.49 -654.19 8.02 
705.38 -654.31 8.00 
716.11 -635.06 8.57 
715.42 -648.92 9.08 
699.78 -653.23 7.36 
700.03 -653.16 7.41 
701.01 -651.58 7.54 
700.78 -652.02 7.52 
700.46 -652.87 7.50 
711.15 -629.78 8.22 
711.13 -630.00 8.22 
708.29 -640.66 7.97 
707.66 -642.14 7.90 
707.52 -642.34 7.88 
707.28 -643.45 7.88 
706.99 -644.51 7.87 
710.30 -635.91 8.23 
710.06 -636.46 8.20 
708.39 -640.89 8.01 
708.14 -641.94 8.00 
707.33 -643.75 7.91 
707.25 -644.51 7.93 
703.89 -654.15 7.79 
711.04 -634.14 8.33 
710.83 -635.65 8.34 
710.11 -637.37 8.24 
708.25 -643.30 8.10 
707.60 -644.27 8.00 
707.36 -644.75 7.97 
707.34 -645.10 7.98 
704.98 -652.47 7.91 
704.14 -654.53 7.87 
709.10 -641.78 8.21 
711.65 -635.26 8.51 
711.54 -635.52 8.50 
711.53 -635.82 8.51 
711.32 -636.58 8.49 
710.75 -637.80 8.41 
710.71 -638.05 8.41 
708.65 -644.50 8.25 
712.19 -634.43 8.61 
709.41 -642.96 8.34 
712.99 -632.99 8.74 
712.64 -634.92 8.73 
713.19 -634.54 8.84 
709.39 -645.80 8.49 
709.09 -646.21 8.44 
708.85 -647.35 8.46 
708.68 -648.04 8.46 
711.51 -640.96 8.73 
709.22 -647.20 8.53 
708.78 -647.87 8.47 
707.43 -652.19 8.33 
711.52 -641.48 8.75 
708.29 -654.07 8.64 
708.11 -654.50 8.63 
713.78 -638.41 9.13 
712.86 -641.31 9.05 
708.70 -653.50 8.70 
709.66 -651.63 8.91 
710.92 -649.93 9.08 
709.66 -653.22 9.01 
711.08 -650.25 9.14 
712.81 -647.40 9.36 
711.56 -651.75 9.34 
701.15 -652.51 7.64 
700.96 -652.80 7.71 
701.51 -652.21 7.71 
702.43 -651.34 7.95 
703.23 -650.20 8.06 
702.85 -650.69 8.01 
702.99 -651.82 8.13 
704.75 -650.24 8.38 
705.02 -650.67 8.48 
704.56 -651.61 8.50 
704.37 -652.00 8.41 
703.61 -654.35 8.39 
705.07 -651.26 8.53 
705.06 -652.00 8.58 
704.83 -654.14 8.68 
715.35 -639.23 9.52 
714.08 -645.05 9.52 
713.20 -647.86 9.47 
713.77 -646.89 9.55 
712.27 -652.29 9.54 
713.18 -651.51 9.69 
700.30 -651.14 8.02 
700.68 -650.88 8.10 
700.50 -651.00 8.06 
700.16 -652.67 8.10 
700.06 -653.16 8.12 
699.68 -653.34 8.03 
700.98 -651.62 8.24 
700.66 -652.56 8.23 
700.17 -653.29 8.23 
701.09 -652.21 8.32 
701.27 -652.76 8.41 
709.78 -629.81 8.75 
708.02 -641.97 8.74 
709.18 -639.47 8.92 
710.40 -637.55 9.15 
708.86 -641.52 8.94 
708.17 -644.20 8.90 
707.90 -644.42 8.85 
708.58 -643.68 8.98 
709.46 -641.79 9.10 
708.81 -644.99 9.11 
708.64 -646.37 9.15 
707.21 -649.81 9.02 
709.35 -645.36 9.27 
707.58 -649.71 9.11 
707.30 -651.28 9.15 
711.04 -641.17 9.47 
709.37 -645.80 9.30 
708.98 -647.89 9.34 
708.46 -648.52 9.25 
710.10 -645.00 9.44 
708.00 -651.08 9.31 
708.03 -651.85 9.32 
711.71 -641.48 9.66 
710.10 -646.42 9.52 
709.15 -649.02 9.45 
712.52 -641.27 9.85 
711.30 -645.95 9.80 
710.30 -648.73 9.72 
708.97 -652.69 9.61 
710.95 -648.65 9.88 
710.28 -651.61 9.92 
701.44 -653.37 8.58 
701.53 -653.61 8.62 
702.85 -650.87 8.69 
702.63 -651.46 8.68 
702.07 -652.31 8.64 
703.91 -651.59 9.07 
704.02 -651.48 9.06 
703.89 -651.84 9.09 
706.55 -645.94 9.35 
704.81 -650.74 9.22 
704.52 -651.12 9.17 
704.14 -652.93 9.21 
705.05 -651.07 9.31 
705.74 -650.30 9.45 
712.48 -632.24 9.49 
705.63 -651.92 9.54 
712.58 -632.88 9.54 
712.51 -633.55 9.54 
714.59 -637.82 10.22 
712.78 -645.11 10.12 
713.50 -643.62 10.22 
711.44 -649.89 10.09 
711.42 -650.37 10.12 
712.48 -648.23 10.24 
712.30 -648.46 10.21 
713.85 -646.10 10.45 
713.68 -646.34 10.42 
716.18 -647.41 11.12 
700.24 -652.65 8.83 
700.71 -652.90 8.99 
