# .PCD v0.7 - Point Cloud Data file format
VERSION 0.7
FIELDS x y z
SIZE 4 4 4
TYPE F F F
COUNT 1 1 1
WIDTH 278
HEIGHT 1
VIEWPOINT 0 0 0 1 0 0 0
POINTS 278
DATA ascii
741.26 -334.02 -0.75 
741.02 -333.62 -0.20 
741.08 -333.18 -0.20 
741.37 -332.19 -0.65 
741.23 -332.89 -0.62 
737.42 -336.80 -0.11 
738.31 -336.44 0.04 
739.41 -336.60 -0.14 
739.08 -335.73 -0.15 
739.39 -335.45 -0.09 
741.34 -333.95 -0.63 
741.21 -333.96 -0.64 
740.44 -333.73 -0.77 
740.91 -333.61 -0.69 
741.07 -333.64 -0.67 
741.25 -334.02 -0.67 
740.64 -333.24 -0.70 
741.04 -333.24 -0.64 
741.31 -333.35 -0.61 
741.42 -333.14 0.07 
741.47 -333.77 -1.29 
740.85 -333.98 -0.75 
741.33 -334.03 -0.68 
741.42 -333.87 -1.34 
741.45 -333.03 -1.27 
741.02 -334.29 -0.80 
741.32 -333.96 -0.74 
741.46 -334.14 -0.73 
741.26 -334.43 -0.14 
741.45 -332.90 -1.28 
741.37 -334.60 -0.82 
741.11 -333.63 -0.79 
741.29 -333.89 -0.78 
740.95 -333.04 -0.78 
740.75 -333.38 -0.23 
740.89 -333.43 -0.21 
741.13 -333.83 -0.20 
741.38 -333.76 -0.16 
741.43 -333.28 -1.33 
741.13 -334.35 -0.88 
740.87 -333.13 -0.83 
741.21 -333.66 -0.82 
741.09 -333.05 -0.79 
741.23 -333.17 -0.78 
740.82 -333.24 -0.27 
741.09 -333.57 -0.25 
741.49 -333.46 0.38 
741.43 -333.53 -1.38 
741.19 -333.48 -0.85 
741.20 -333.89 -0.87 
741.13 -333.08 -0.83 
741.28 -333.36 -0.83 
740.16 -333.55 -0.41 
740.56 -333.19 -0.35 
740.75 -333.17 -0.32 
741.20 -333.95 -0.30 
741.18 -333.41 -0.28 
741.48 -333.37 0.31 
741.42 -333.14 -1.21 
739.99 -332.67 -0.82 
741.08 -333.68 -0.75 
741.25 -333.80 -0.74 
740.63 -332.21 -0.71 
740.94 -332.56 -0.69 
741.00 -333.19 -0.73 
741.20 -333.16 -0.70 
740.86 -332.38 -0.69 
741.10 -332.66 -0.68 
741.16 -332.82 -0.68 
741.27 -332.02 -0.61 
740.73 -332.73 -0.19 
741.05 -332.98 -0.16 
741.22 -333.01 -0.15 
741.49 -333.11 -1.20 
740.01 -332.87 -0.84 
741.02 -333.99 -0.79 
740.94 -333.19 -0.75 
741.10 -333.23 -0.73 
740.73 -332.35 -0.72 
740.97 -332.50 -0.70 
741.32 -333.13 -0.70 
740.58 -332.92 -0.25 
740.84 -332.97 -0.22 
740.95 -333.03 -0.21 
741.30 -333.22 -0.18 
741.45 -333.22 -1.22 
740.92 -332.46 -0.72 
741.14 -332.95 -0.73 
741.24 -333.31 -0.74 
741.43 -333.69 -0.74 
740.85 -332.15 -0.71 
741.15 -332.54 -0.70 
740.12 -333.07 -0.33 
740.56 -332.79 -0.27 
740.81 -332.69 -0.24 
741.03 -332.89 -0.23 
741.18 -333.44 -0.24 
741.27 -333.63 -0.24 
741.32 -332.98 -0.20 
741.49 -332.92 0.32 
740.97 -332.68 -0.73 
741.30 -333.00 -0.71 
740.56 -333.57 -0.84 
741.27 -333.89 -0.78 
741.39 -333.43 -0.73 
740.39 -333.45 -0.34 
740.70 -333.11 -0.29 
740.81 -333.19 -0.28 
741.33 -333.88 -0.26 
741.06 -333.25 -0.26 
741.33 -333.51 -0.25 
741.18 -333.15 -0.78 
741.49 -333.44 -0.76 
740.73 -333.82 -0.88 
740.66 -333.25 -0.85 
740.49 -333.65 -0.39 
740.89 -333.41 -0.34 
741.02 -333.45 -0.33 
741.48 -333.62 -0.29 
740.99 -333.52 -0.80 
741.02 -332.87 -0.74 
740.91 -332.24 -0.71 
741.02 -332.40 -0.71 
741.29 -332.74 -0.70 
741.26 -333.06 -0.73 
741.49 -332.61 -0.67 
741.47 -331.87 -0.17 
740.32 -333.14 -0.35 
740.84 -332.94 -0.29 
741.34 -333.52 -0.28 
741.30 -333.18 -0.26 
741.43 -333.03 0.22 
740.98 -332.55 -0.67 
741.48 -333.24 0.24 
741.41 -333.99 -0.28 
741.39 -333.58 -0.25 
740.79 -333.00 -1.13 
741.11 -333.54 -1.14 
741.29 -332.89 -0.61 
741.28 -333.33 -0.65 
741.42 -333.49 -0.65 
741.47 -333.02 -0.60 
740.97 -333.18 -0.21 
741.38 -333.94 -0.24 
741.25 -333.27 -0.20 
741.47 -333.48 -0.20 
741.50 -333.26 0.26 
740.81 -334.59 -0.68 
740.83 -334.85 -0.16 
741.46 -334.49 -0.06 
741.49 -334.62 -0.07 
741.33 -334.41 0.10 
741.35 -334.49 0.08 
741.38 -334.68 0.06 
741.15 -334.66 0.14 
741.41 -334.47 0.18 
741.48 -334.86 -0.01 
741.44 -335.48 0.44 
741.44 -334.46 -1.05 
741.08 -334.59 -0.58 
741.47 -334.56 -0.01 
741.43 -335.58 0.21 
741.42 -333.96 -0.13 
741.38 -335.25 0.48 
741.30 -334.73 -0.03 
741.37 -333.80 -0.10 
741.45 -333.64 -0.07 
741.19 -335.10 0.50 
741.30 -333.80 -0.04 
741.22 -334.97 0.60 
741.28 -333.76 0.00 
741.43 -334.35 0.59 
741.05 -334.96 0.63 
741.48 -335.79 0.58 
741.35 -336.45 0.12 
741.34 -334.37 0.35 
741.29 -335.60 0.83 
741.14 -333.96 0.86 
740.88 -334.74 -0.55 
741.47 -334.34 -0.42 
741.50 -334.49 -0.23 
741.02 -336.40 0.14 
741.04 -336.80 0.09 
741.31 -336.30 0.19 
741.50 -335.08 0.98 
740.97 -334.87 -0.55 
741.50 -333.52 -0.32 
740.81 -336.71 0.09 
741.49 -336.30 0.22 
741.32 -334.62 0.92 
741.45 -333.45 -0.30 
741.40 -335.41 0.35 
741.47 -336.37 0.25 
741.37 -334.00 0.35 
741.45 -334.79 0.26 
741.44 -335.30 0.20 
741.26 -333.21 0.43 
740.78 -334.85 -0.42 
741.20 -335.21 0.33 
741.46 -334.66 0.44 
741.47 -333.06 0.63 
741.47 -333.90 0.53 
740.75 -335.28 0.44 
741.20 -335.27 0.50 
741.45 -335.57 0.49 
741.16 -334.68 -0.32 
741.26 -335.16 0.39 
740.81 -335.73 0.43 
741.15 -335.59 0.49 
741.06 -334.72 0.58 
741.46 -334.32 0.69 
741.36 -334.29 1.40 
741.38 -334.02 -0.15 
741.33 -334.82 -0.25 
741.45 -335.68 -0.13 
740.85 -334.12 0.54 
741.37 -334.17 0.61 
740.62 -334.87 0.58 
741.24 -335.49 0.59 
741.22 -335.00 0.65 
741.37 -334.30 0.06 
741.44 -334.33 0.66 
741.20 -334.84 0.73 
741.07 -335.13 0.68 
740.65 -334.25 -0.21 
741.49 -334.02 -0.05 
741.34 -334.78 0.04 
741.25 -334.90 0.63 
741.40 -334.07 0.75 
741.02 -335.21 0.71 
741.06 -334.70 0.78 
741.50 -335.77 0.72 
741.39 -333.80 0.78 
741.43 -334.84 -0.09 
740.31 -334.49 -0.23 
740.61 -334.42 -0.18 
741.49 -334.18 -0.01 
741.35 -334.46 -0.06 
741.49 -334.15 0.19 
740.54 -333.64 0.76 
740.87 -334.73 0.83 
741.05 -334.61 0.87 
741.35 -333.81 0.86 
741.33 -334.65 -0.66 
741.22 -334.87 -0.70 
740.87 -334.29 0.13 
740.99 -334.62 -0.08 
740.92 -335.01 0.07 
740.97 -334.26 -0.04 
740.35 -333.99 0.77 
740.60 -333.47 0.87 
741.09 -333.62 0.92 
741.24 -334.09 0.89 
741.49 -332.93 1.07 
740.89 -334.82 -0.68 
741.17 -334.72 -0.63 
741.32 -334.53 -0.58 
741.01 -334.81 0.18 
741.13 -333.50 0.15 
741.13 -334.21 0.07 
741.51 -334.62 0.09 
741.48 -332.47 0.32 
740.45 -334.01 1.04 
741.23 -333.88 1.02 
741.35 -335.29 1.02 
741.20 -333.43 1.07 
740.78 -334.64 -0.65 
740.08 -333.79 0.00 
741.40 -334.64 0.12 
740.63 -333.04 1.11 
741.08 -333.79 1.08 
741.31 -332.57 1.27 
740.87 -334.76 -0.62 
740.91 -334.52 -0.59 
740.68 -333.78 0.16 
740.95 -333.21 0.26 
741.01 -333.17 1.23 
741.46 -334.31 1.15 
