# .PCD v0.7 - Point Cloud Data file format
VERSION 0.7
FIELDS x y z
SIZE 4 4 4
TYPE F F F
COUNT 1 1 1
WIDTH 2273
HEIGHT 1
VIEWPOINT 0 0 0 1 0 0 0
POINTS 2273
DATA ascii
726.85 -486.82 3.97 
726.35 -487.15 3.87 
726.68 -487.06 3.93 
725.42 -487.72 3.88 
726.79 -488.16 3.92 
726.95 -488.60 3.94 
717.15 -494.29 2.20 
736.45 -484.74 5.79 
717.32 -495.21 2.20 
736.83 -485.25 5.84 
727.21 -490.66 4.11 
726.24 -491.11 3.92 
716.93 -496.83 2.08 
727.72 -491.50 4.18 
717.05 -497.28 2.43 
738.70 -486.68 6.14 
732.73 -489.94 4.95 
725.90 -493.74 3.78 
732.92 -490.05 4.98 
730.79 -491.43 4.74 
727.24 -493.23 4.04 
726.19 -493.96 3.83 
737.48 -488.12 5.87 
733.65 -490.38 5.11 
733.37 -490.34 5.05 
740.48 -486.97 6.64 
730.41 -492.84 4.63 
726.73 -495.03 3.89 
732.74 -492.23 4.88 
732.66 -492.76 4.85 
732.91 -492.78 4.90 
733.57 -493.15 5.01 
733.61 -493.49 5.01 
732.87 -494.01 5.04 
729.24 -495.77 4.32 
730.90 -495.57 4.63 
736.17 -493.42 5.48 
735.13 -494.14 5.45 
735.43 -494.27 5.41 
729.86 -497.30 4.39 
736.74 -494.39 5.74 
736.66 -494.82 5.71 
736.19 -494.79 5.44 
737.25 -494.62 5.82 
731.14 -497.80 4.61 
730.55 -498.27 4.49 
736.53 -495.78 5.48 
735.89 -496.80 5.51 
716.79 -494.94 2.69 
718.25 -494.33 2.81 
717.11 -494.93 2.56 
716.62 -495.42 2.45 
727.29 -490.26 4.75 
727.69 -490.25 4.83 
716.70 -496.35 2.41 
727.75 -490.77 4.82 
727.39 -490.91 4.74 
717.02 -496.36 2.47 
716.76 -496.72 2.40 
728.39 -490.73 4.94 
718.12 -496.23 2.68 
717.62 -496.70 2.56 
717.15 -496.94 2.64 
716.94 -497.12 2.41 
727.59 -491.52 4.75 
718.40 -496.72 2.71 
718.12 -496.70 2.66 
717.62 -496.89 2.73 
716.89 -497.42 2.57 
728.46 -492.21 4.88 
727.89 -492.69 4.75 
726.17 -493.88 4.50 
728.61 -492.77 4.89 
726.20 -494.26 4.48 
727.33 -494.25 4.56 
726.92 -494.26 4.55 
728.56 -493.96 4.82 
727.52 -494.50 4.59 
731.48 -492.90 5.45 
731.10 -492.94 5.37 
727.55 -494.98 4.57 
728.25 -495.11 4.70 
727.81 -495.17 4.61 
730.39 -494.16 5.17 
730.06 -495.31 5.05 
732.74 -494.34 5.63 
730.92 -495.97 5.19 
732.51 -496.87 5.47 
730.88 -497.83 5.10 
731.22 -497.80 5.17 
731.90 -498.02 5.29 
731.33 -498.31 5.17 
726.04 -479.94 5.05 
726.59 -480.00 5.15 
726.87 -480.13 5.20 
725.92 -481.45 5.11 
726.54 -481.40 5.23 
726.72 -481.87 5.08 
727.01 -481.92 5.13 
728.13 -481.68 5.36 
727.03 -482.62 5.10 
728.12 -482.32 5.32 
727.51 -482.82 5.18 
727.21 -482.79 5.12 
728.75 -482.28 5.44 
727.80 -482.88 5.23 
727.67 -484.94 5.10 
726.77 -486.17 4.86 
729.64 -485.37 5.46 
726.64 -486.97 4.80 
727.84 -486.89 5.03 
727.41 -487.07 4.94 
727.07 -487.24 4.87 
726.78 -487.71 4.78 
728.44 -487.08 5.29 
727.20 -487.96 4.85 
728.51 -488.19 5.10 
717.09 -494.78 3.18 
716.89 -494.85 3.13 
716.62 -495.01 3.07 
717.63 -494.84 3.27 
717.22 -494.85 3.19 
727.04 -490.15 4.86 
726.42 -490.41 4.73 
726.15 -490.53 4.67 
717.79 -495.03 3.29 
717.22 -495.55 3.14 
716.73 -495.56 3.05 
726.33 -491.18 4.67 
728.89 -490.55 5.05 
738.94 -486.32 7.25 
731.55 -491.22 5.54 
729.23 -492.52 5.16 
731.18 -492.09 5.43 
730.46 -493.01 5.37 
730.00 -492.99 5.28 
728.97 -493.78 5.04 
729.00 -494.12 5.03 
732.93 -492.48 5.82 
734.82 -492.48 6.14 
733.19 -493.08 5.78 
732.67 -493.30 5.67 
733.85 -493.46 5.89 
733.69 -493.49 5.98 
732.79 -493.96 5.78 
734.15 -494.25 5.92 
733.67 -494.34 5.82 
738.06 -492.96 6.76 
733.92 -495.07 5.95 
731.07 -496.55 5.32 
738.17 -493.50 6.88 
735.97 -494.50 6.28 
734.78 -495.33 6.00 
731.32 -496.87 5.35 
734.21 -495.70 5.98 
733.32 -496.44 5.77 
736.44 -495.09 6.34 
735.30 -495.54 6.21 
735.21 -495.91 6.17 
733.52 -496.79 5.79 
737.90 -494.87 6.65 
737.46 -494.87 6.56 
736.56 -495.32 6.36 
733.63 -497.04 5.80 
736.42 -496.10 6.29 
736.69 -496.39 6.34 
736.37 -496.36 6.38 
736.30 -496.73 6.35 
736.68 -496.85 6.32 
736.78 -497.24 6.32 
736.90 -497.62 6.33 
724.72 -480.05 4.96 
725.04 -480.47 5.00 
728.70 -481.10 5.65 
737.21 -483.81 7.15 
716.69 -494.78 3.26 
716.91 -495.05 3.28 
717.31 -496.00 3.71 
717.12 -496.03 3.67 
717.42 -496.21 3.71 
716.75 -496.42 3.56 
727.15 -491.95 5.42 
726.67 -492.20 5.40 
738.40 -486.14 7.27 
727.37 -492.22 5.54 
725.96 -493.21 5.18 
727.78 -492.24 5.53 
726.36 -493.54 5.24 
727.55 -493.40 5.40 
726.86 -493.85 5.31 
729.88 -492.51 5.95 
728.14 -493.72 5.50 
727.35 -493.96 5.41 
729.32 -493.52 5.85 
729.94 -493.51 5.90 
731.05 -493.23 6.15 
729.79 -493.95 5.91 
729.82 -494.60 5.87 
731.54 -494.09 6.20 
731.26 -495.98 6.08 
733.54 -495.26 6.57 
731.99 -496.54 6.20 
731.64 -496.66 6.06 
733.21 -496.41 6.42 
732.79 -496.76 6.31 
733.14 -496.73 6.39 
726.92 -482.55 6.05 
727.28 -482.66 6.11 
727.42 -486.12 6.00 
716.87 -494.62 3.76 
716.74 -496.26 3.71 
730.50 -490.72 6.29 
729.89 -491.30 6.12 
731.33 -491.90 6.38 
730.44 -492.47 6.15 
731.97 -492.21 6.49 
731.55 -492.42 6.39 
732.51 -492.31 6.53 
733.69 -492.22 6.85 
734.73 -492.08 7.02 
731.39 -493.51 6.28 
734.85 -492.33 7.03 
734.82 -492.73 7.00 
733.71 -493.84 6.69 
732.98 -494.34 6.56 
737.41 -492.70 7.62 
735.14 -493.87 7.06 
737.12 -493.40 7.51 
737.59 -493.69 7.60 
735.49 -494.55 7.04 
737.87 -493.69 7.66 
735.80 -494.89 7.08 
738.32 -494.01 7.74 
737.72 -494.19 7.59 
735.24 -495.74 6.91 
740.04 -493.73 8.13 
727.01 -480.61 6.21 
725.29 -481.97 5.89 
728.87 -480.46 6.71 
725.46 -482.48 5.89 
729.91 -480.48 6.81 
729.09 -480.79 6.62 
725.64 -482.63 5.91 
730.26 -480.48 6.88 
728.10 -481.76 6.34 
726.12 -482.89 5.99 
728.71 -482.13 6.50 
727.71 -482.48 6.33 
729.87 -481.79 6.81 
729.35 -482.25 6.67 
728.95 -482.23 6.48 
730.50 -481.82 6.83 
729.91 -482.28 6.78 
730.79 -482.02 6.88 
736.76 -482.92 8.06 
738.62 -484.65 8.41 
727.09 -491.87 6.20 
726.33 -492.13 6.06 
728.22 -491.89 6.45 
727.28 -492.19 6.26 
737.19 -487.19 7.87 
728.08 -492.26 6.38 
727.36 -492.54 6.20 
727.14 -493.09 6.10 
727.79 -493.24 6.23 
727.81 -493.59 6.20 
730.86 -494.05 6.86 
730.39 -493.97 6.76 
729.96 -494.31 6.65 
731.57 -493.93 7.04 
730.99 -494.26 6.88 
731.64 -494.42 7.01 
731.79 -494.95 7.01 
740.71 -491.51 8.41 
732.79 -495.78 7.16 
732.75 -496.07 7.14 
740.33 -492.64 8.26 
732.76 -496.37 7.12 
729.87 -487.12 7.25 
729.42 -487.25 7.13 
732.68 -488.36 7.77 
732.38 -489.84 7.57 
732.37 -491.16 7.46 
731.24 -492.11 7.12 
730.71 -492.38 6.97 
732.08 -492.23 7.30 
735.21 -492.14 8.04 
734.33 -492.69 7.78 
735.04 -493.06 7.92 
733.40 -493.92 7.47 
737.33 -492.31 8.52 
734.10 -493.83 7.63 
733.31 -494.49 7.40 
739.06 -494.34 8.78 
725.41 -480.76 6.88 
725.28 -481.68 6.77 
726.28 -481.49 7.00 
726.02 -481.51 6.94 
726.43 -481.98 6.98 
725.34 -482.27 6.82 
727.10 -481.88 7.13 
726.66 -482.10 7.02 
726.32 -482.12 6.94 
728.90 -481.40 7.56 
727.91 -482.08 7.29 
728.32 -482.09 7.45 
727.21 -482.80 7.15 
726.78 -483.06 7.03 
729.31 -481.99 7.60 
727.86 -482.79 7.21 
731.17 -481.59 8.04 
730.35 -482.42 7.78 
729.04 -483.12 7.43 
730.99 -482.60 7.91 
729.04 -483.60 7.39 
731.09 -483.00 7.89 
731.21 -483.37 7.88 
732.11 -486.24 7.86 
732.60 -487.32 7.84 
728.12 -492.24 7.19 
727.78 -492.32 7.10 
728.32 -492.31 7.23 
730.38 -492.22 7.70 
730.80 -492.95 7.77 
731.07 -493.32 7.80 
731.26 -493.44 7.83 
737.91 -490.51 8.80 
732.49 -494.74 8.01 
740.49 -490.89 9.39 
738.61 -492.23 8.84 
733.30 -494.68 8.15 
732.81 -494.89 8.08 
740.44 -491.26 9.35 
733.17 -495.21 8.14 
738.87 -492.96 8.81 
739.37 -493.04 8.96 
739.23 -493.48 8.89 
739.22 -493.84 8.86 
740.83 -493.60 9.27 
739.26 -494.52 8.82 
739.12 -494.35 8.80 
740.83 -493.99 9.24 
729.95 -480.00 7.92 
730.04 -487.58 8.15 
730.24 -488.21 8.14 
730.65 -488.61 8.17 
732.43 -489.68 8.51 
731.01 -491.11 8.01 
731.52 -491.27 8.12 
731.33 -491.86 8.01 
731.52 -491.99 8.04 
731.19 -492.85 7.87 
732.59 -493.44 8.10 
732.32 -494.03 8.04 
734.65 -493.03 8.72 
732.43 -494.31 8.04 
735.52 -493.23 8.92 
733.81 -494.21 8.39 
735.14 -493.97 8.75 
735.31 -494.16 8.78 
733.40 -495.31 8.18 
735.47 -494.50 8.79 
734.41 -495.32 8.44 
735.59 -494.88 8.78 
725.50 -482.26 7.73 
726.56 -482.62 7.92 
726.92 -482.84 7.98 
727.59 -483.06 8.10 
726.91 -483.29 7.92 
728.77 -482.84 8.42 
727.70 -483.50 8.08 
727.11 -483.43 7.95 
728.05 -483.42 8.17 
731.75 -484.90 8.86 
731.54 -487.96 8.48 
732.37 -487.92 8.68 
731.93 -488.07 8.56 
732.78 -488.73 8.69 
735.21 -487.87 9.38 
736.16 -488.12 9.59 
735.43 -489.58 9.26 
735.09 -489.73 9.16 
734.13 -490.11 8.88 
731.07 -492.71 8.60 
738.36 -492.66 9.71 
737.87 -492.80 9.57 
738.64 -492.78 9.77 
738.37 -493.39 9.64 
727.24 -479.73 8.41 
727.33 -480.25 8.37 
729.40 -480.86 8.77 
731.60 -481.17 9.24 
730.28 -481.67 8.88 
729.14 -482.56 8.51 
730.91 -482.18 8.98 
729.33 -482.95 8.53 
731.81 -482.07 9.19 
731.42 -482.10 9.09 
730.03 -482.75 8.70 
731.50 -483.18 8.99 
731.50 -483.66 8.94 
734.65 -485.28 9.51 
733.10 -490.91 9.34 
731.71 -491.61 9.00 
731.63 -492.18 8.91 
731.50 -492.65 8.82 
735.14 -491.94 9.74 
733.52 -493.30 9.22 
735.95 -492.83 9.85 
734.42 -493.87 9.46 
734.30 -494.29 9.38 
733.81 -494.28 9.11 
729.97 -486.33 9.18 
729.15 -487.04 8.93 
730.79 -487.18 9.33 
730.07 -487.39 9.12 
729.82 -487.47 9.04 
730.19 -487.65 9.11 
731.81 -487.42 9.55 
730.79 -487.96 9.23 
730.55 -488.00 9.16 
731.87 -488.23 9.47 
731.96 -488.54 9.37 
733.08 -489.48 9.62 
732.41 -489.97 9.39 
734.47 -489.38 9.89 
734.52 -489.84 9.96 
734.75 -490.42 9.95 
725.99 -479.99 9.15 
725.48 -480.16 9.03 
726.94 -480.15 9.34 
726.66 -480.08 9.29 
726.32 -480.09 9.21 
728.49 -481.07 9.58 
727.13 -481.73 9.17 
729.13 -480.99 9.74 
727.07 -482.27 9.08 
728.40 -481.80 9.46 
727.95 -482.01 9.32 
730.16 -481.61 9.91 
729.74 -481.87 9.77 
729.66 -483.13 9.58 
729.22 -483.43 9.43 
734.00 -486.53 10.23 
735.84 -487.91 10.54 
731.63 -480.32 10.44 
732.42 -480.72 10.58 
732.44 -481.97 10.42 
732.59 -482.22 10.43 
732.32 -488.25 10.40 
732.48 -489.03 10.32 
729.16 -481.18 10.73 
726.07 -480.59 11.17 
726.32 -480.87 11.18 
729.29 -480.73 11.98 
728.24 -482.96 3.77 
725.54 -488.11 3.26 
735.57 -483.65 4.99 
735.53 -484.26 4.97 
736.05 -484.65 5.06 
725.90 -490.64 3.29 
726.23 -490.76 3.34 
726.86 -490.66 3.45 
728.26 -490.42 3.69 
727.86 -490.69 3.62 
726.88 -491.12 3.45 
727.11 -491.65 3.48 
728.35 -491.65 3.69 
727.65 -491.63 3.57 
726.21 -492.91 3.32 
727.83 -492.66 3.59 
727.49 -492.81 3.53 
732.79 -490.40 4.44 
727.87 -492.94 3.60 
727.62 -494.28 3.54 
727.31 -494.33 3.49 
732.28 -491.96 4.34 
730.40 -493.00 4.02 
727.58 -494.46 3.53 
732.18 -492.43 4.32 
732.76 -492.83 4.41 
732.33 -493.02 4.34 
727.28 -495.55 3.47 
734.63 -493.56 4.71 
731.14 -495.73 4.11 
730.46 -496.25 3.99 
731.40 -496.02 4.15 
732.11 -496.16 4.26 
731.43 -496.70 4.14 
730.42 -496.98 3.97 
732.01 -496.60 4.24 
730.31 -497.44 3.95 
730.33 -497.67 3.95 
716.95 -494.02 2.15 
717.54 -494.01 2.25 
718.15 -494.07 2.36 
716.67 -495.00 2.07 
716.87 -496.07 2.07 
717.75 -496.62 2.20 
728.83 -491.00 4.37 
728.92 -491.34 4.37 
729.15 -491.77 4.40 
728.83 -492.99 4.30 
728.11 -493.56 4.16 
727.43 -494.17 4.02 
727.08 -494.23 3.95 
728.79 -493.78 4.27 
728.00 -494.44 4.11 
727.62 -494.64 4.03 
730.23 -493.45 4.54 
729.86 -493.55 4.47 
727.95 -494.57 4.10 
728.33 -494.91 4.15 
731.78 -494.53 4.79 
732.15 -495.49 4.83 
730.51 -496.22 4.51 
733.51 -495.19 5.08 
732.43 -495.60 4.88 
732.20 -495.77 4.83 
731.90 -495.81 4.77 
733.55 -495.43 5.08 
732.76 -496.52 4.91 
731.73 -496.88 4.71 
731.43 -496.92 4.66 
734.75 -496.33 5.28 
726.08 -481.36 4.38 
725.91 -481.78 4.14 
728.26 -481.50 4.76 
724.69 -483.95 3.85 
724.01 -484.15 3.72 
726.89 -483.15 4.27 
724.80 -484.34 3.86 
725.38 -484.37 3.96 
725.00 -484.43 3.89 
725.48 -484.66 3.97 
726.16 -485.77 4.05 
725.59 -486.07 4.14 
726.28 -486.02 4.07 
731.05 -484.32 4.98 
727.59 -485.85 4.50 
731.56 -484.15 5.07 
726.74 -486.80 4.12 
726.27 -487.14 4.03 
726.01 -487.18 3.98 
726.66 -488.01 4.07 
726.45 -487.85 4.04 
727.53 -487.78 4.24 
726.71 -488.50 4.07 
727.93 -488.32 4.29 
736.42 -484.55 5.94 
736.82 -485.03 5.99 
727.40 -490.19 4.33 
726.11 -490.83 4.08 
728.07 -490.22 4.45 
726.26 -491.09 4.09 
737.18 -485.64 6.23 
729.03 -490.35 4.42 
716.85 -497.03 2.23 
727.75 -491.73 4.34 
725.99 -493.52 3.97 
733.67 -490.12 5.27 
726.47 -493.96 4.04 
740.61 -486.66 6.81 
731.61 -491.31 5.05 
726.72 -494.24 4.08 
732.30 -491.56 4.98 
732.91 -491.78 5.08 
731.05 -492.56 4.91 
727.01 -494.94 4.11 
733.24 -492.17 5.13 
732.59 -492.54 5.00 
733.16 -492.64 5.10 
732.71 -492.68 5.20 
733.46 -492.76 5.15 
729.36 -495.10 4.52 
733.67 -492.91 5.18 
733.69 -493.24 5.18 
729.41 -495.32 4.53 
733.07 -493.74 5.23 
732.28 -495.09 5.05 
735.80 -494.23 5.53 
736.01 -494.71 5.64 
737.26 -494.40 5.97 
734.37 -496.01 5.40 
737.35 -495.00 5.79 
736.97 -495.04 5.72 
736.80 -495.14 5.69 
736.37 -495.17 5.61 
736.59 -495.99 5.62 
736.05 -496.25 5.70 
717.81 -495.17 2.88 
716.99 -495.46 2.71 
727.54 -490.66 4.96 
716.97 -496.66 2.81 
718.28 -496.37 2.90 
717.75 -496.50 2.96 
717.07 -496.76 2.65 
716.67 -497.08 2.56 
728.42 -491.27 5.10 
728.12 -491.41 5.04 
727.44 -491.66 4.89 
717.74 -497.11 2.76 
717.31 -497.21 2.67 
717.08 -497.37 2.71 
716.76 -497.56 2.55 
728.50 -491.76 5.09 
728.34 -491.92 5.05 
727.89 -492.17 4.95 
718.19 -497.05 2.84 
717.52 -497.39 2.70 
726.93 -492.80 4.74 
728.43 -492.98 5.02 
727.54 -494.26 4.78 
727.36 -494.08 4.75 
727.73 -494.31 4.81 
727.82 -494.69 4.81 
730.84 -493.74 5.45 
728.20 -494.98 4.87 
730.09 -494.91 5.25 
730.70 -495.30 5.35 
731.06 -495.38 5.42 
731.49 -495.41 5.50 
732.00 -496.25 5.56 
731.64 -496.56 5.48 
731.33 -497.18 5.39 
731.83 -498.27 5.44 
726.36 -479.72 5.32 
726.04 -479.77 5.25 
727.35 -481.13 5.43 
726.92 -481.41 5.33 
728.10 -481.61 5.54 
727.84 -481.56 5.50 
728.26 -481.93 5.56 
730.91 -481.55 6.08 
730.48 -481.61 6.00 
726.01 -484.83 4.98 
726.50 -484.93 5.22 
727.95 -484.92 5.34 
727.13 -485.30 5.16 
727.17 -485.78 5.15 
728.22 -485.43 5.52 
726.93 -486.43 5.22 
727.17 -486.97 5.08 
728.48 -486.68 5.50 
727.84 -487.05 5.21 
726.87 -487.82 5.13 
727.97 -487.64 5.20 
716.62 -493.97 3.35 
735.61 -484.90 6.82 
717.02 -494.99 3.35 
728.50 -489.62 5.20 
727.65 -490.02 5.09 
717.69 -495.24 3.46 
716.81 -495.70 3.26 
726.89 -490.57 4.99 
717.86 -495.29 3.49 
717.09 -495.87 3.30 
716.70 -496.03 3.36 
727.80 -490.63 5.01 
726.65 -492.43 4.84 
726.12 -492.54 4.74 
733.17 -489.37 6.12 
739.14 -486.37 7.45 
726.35 -493.98 4.71 
732.07 -491.33 5.94 
731.26 -491.68 5.64 
727.40 -493.70 4.92 
732.11 -491.66 5.80 
730.08 -492.63 5.49 
729.06 -493.06 5.27 
727.24 -494.40 4.85 
730.87 -492.73 5.51 
732.96 -491.99 5.95 
732.94 -492.21 6.07 
731.19 -492.96 5.56 
729.36 -494.12 5.28 
731.85 -492.93 5.82 
732.37 -493.08 5.79 
734.88 -492.25 6.32 
733.84 -493.27 6.07 
733.51 -494.03 5.97 
732.82 -494.23 5.94 
731.48 -494.92 5.65 
737.81 -492.39 6.90 
735.28 -493.69 6.34 
734.43 -494.17 6.14 
735.82 -493.68 6.44 
735.40 -493.88 6.35 
730.57 -496.39 5.40 
738.82 -492.63 7.20 
732.94 -495.49 5.90 
738.30 -493.91 7.04 
737.70 -494.60 6.78 
736.66 -495.17 6.54 
740.18 -493.71 7.42 
734.88 -496.45 6.13 
736.81 -496.10 6.53 
736.72 -496.51 6.49 
736.48 -496.33 6.46 
724.78 -479.82 5.18 
724.91 -480.35 5.18 
726.11 -481.22 5.35 
725.73 -481.43 5.27 
716.74 -494.51 3.49 
726.73 -492.56 5.58 
726.14 -492.79 5.44 
727.44 -493.05 5.60 
727.12 -493.18 5.52 
726.84 -493.31 5.54 
727.83 -493.33 5.66 
726.88 -493.86 5.51 
727.94 -493.89 5.64 
728.41 -494.00 5.73 
728.10 -494.04 5.66 
730.93 -494.03 6.27 
731.33 -495.69 6.30 
731.09 -495.65 6.26 
732.20 -495.97 6.47 
732.02 -496.46 6.40 
728.03 -489.71 5.95 
717.18 -495.90 3.92 
716.92 -496.16 3.84 
716.65 -496.18 3.85 
717.28 -496.12 3.91 
728.02 -491.04 5.86 
727.31 -491.99 5.74 
731.18 -491.27 6.58 
733.19 -490.41 7.06 
732.25 -491.11 6.74 
731.31 -491.42 6.60 
730.22 -492.31 6.31 
731.46 -492.10 6.58 
729.41 -493.08 6.09 
734.02 -491.02 7.19 
732.22 -491.99 6.68 
731.45 -492.55 6.55 
729.21 -493.47 6.02 
730.96 -493.16 6.40 
730.44 -493.13 6.30 
734.94 -492.06 7.26 
734.90 -492.48 7.22 
734.09 -492.87 7.08 
733.77 -493.59 6.90 
732.98 -493.89 6.77 
737.10 -492.11 7.77 
737.13 -493.15 7.71 
733.20 -495.22 6.68 
733.24 -495.58 6.66 
733.95 -495.56 6.82 
733.32 -495.78 6.67 
737.96 -493.98 7.84 
737.98 -494.17 7.83 
738.52 -494.28 7.94 
724.75 -480.54 6.11 
726.00 -480.33 6.23 
725.33 -480.58 6.21 
728.78 -479.95 6.82 
725.87 -481.49 6.25 
725.25 -481.71 6.11 
726.45 -481.53 6.36 
728.94 -480.45 6.81 
726.58 -481.87 6.23 
729.56 -480.48 6.94 
728.41 -481.32 6.76 
727.05 -482.17 6.31 
726.69 -482.21 6.23 
728.44 -481.95 6.60 
727.15 -482.59 6.29 
729.93 -481.35 7.06 
728.75 -482.09 6.65 
729.91 -481.91 6.96 
727.37 -483.01 6.42 
731.02 -481.66 7.15 
728.77 -482.91 6.60 
716.71 -495.16 4.51 
727.20 -492.04 6.42 
737.28 -487.07 8.15 
728.23 -491.83 6.67 
727.54 -492.20 6.52 
727.30 -492.23 6.45 
728.45 -492.27 6.68 
728.20 -492.21 6.63 
727.43 -492.58 6.42 
730.54 -493.48 7.05 
730.84 -493.79 7.09 
737.97 -491.93 7.97 
740.11 -492.36 8.40 
732.69 -495.96 7.34 
732.81 -496.49 7.33 
740.25 -492.97 8.39 
740.50 -493.30 8.39 
740.13 -493.52 8.33 
729.79 -486.99 7.45 
732.42 -489.54 7.81 
732.17 -490.24 7.70 
730.89 -490.86 7.35 
728.94 -492.06 6.81 
730.75 -491.68 7.27 
732.24 -491.77 7.58 
730.52 -492.86 7.11 
735.10 -491.77 8.24 
732.00 -493.51 7.38 
731.30 -493.63 7.21 
731.84 -493.73 7.33 
731.30 -493.98 7.18 
732.69 -493.95 7.50 
734.16 -493.49 7.87 
733.66 -494.34 7.70 
732.92 -494.77 7.49 
732.64 -494.86 7.42 
736.37 -493.45 8.40 
733.17 -495.14 7.52 
733.62 -495.44 7.60 
733.34 -495.20 7.54 
736.66 -493.91 8.44 
735.54 -494.60 8.12 
725.93 -480.02 7.29 
726.16 -480.37 7.30 
726.11 -480.36 7.29 
726.83 -480.19 7.46 
726.47 -480.26 7.37 
726.84 -481.68 7.32 
726.41 -481.81 7.21 
727.19 -481.95 7.36 
726.71 -482.18 7.24 
727.44 -482.33 7.38 
728.00 -482.52 7.48 
727.66 -482.64 7.40 
728.29 -482.60 7.54 
729.77 -482.45 7.87 
728.85 -482.83 7.63 
728.56 -482.80 7.57 
729.94 -482.65 7.89 
729.06 -483.05 7.66 
731.19 -482.95 8.13 
731.95 -485.91 8.06 
731.96 -487.02 7.93 
731.11 -487.65 7.69 
733.29 -486.61 8.27 
732.02 -488.29 7.86 
738.01 -490.38 9.04 
740.70 -491.41 9.59 
738.94 -492.26 9.10 
738.94 -492.57 9.08 
739.39 -493.00 9.16 
739.32 -493.76 9.08 
727.05 -480.33 7.57 
728.96 -479.98 7.93 
731.16 -481.23 8.28 
731.24 -481.59 8.27 
731.50 -481.75 8.31 
731.12 -491.41 8.23 
732.52 -491.70 8.55 
732.20 -491.68 8.47 
731.00 -492.74 8.06 
733.84 -492.97 8.75 
732.45 -494.04 8.29 
734.98 -493.28 9.00 
733.47 -494.07 8.54 
732.73 -494.49 8.32 
734.73 -493.84 8.88 
733.17 -494.89 8.39 
735.24 -494.10 8.99 
735.80 -494.29 9.11 
725.88 -481.98 8.08 
726.32 -482.38 8.13 
727.51 -482.66 8.37 
726.79 -482.74 8.20 
726.64 -482.80 8.19 
727.66 -482.90 8.37 
727.13 -483.30 8.21 
728.10 -483.28 8.43 
727.77 -483.33 8.35 
731.06 -486.07 8.79 
732.12 -486.09 9.04 
730.15 -486.94 8.49 
732.39 -486.12 9.11 
730.96 -487.22 8.65 
730.71 -487.17 8.59 
732.10 -487.09 8.93 
731.15 -487.40 8.67 
731.27 -487.83 8.63 
731.88 -487.87 8.80 
731.50 -488.31 8.65 
731.72 -488.48 8.69 
733.83 -488.25 9.23 
732.15 -489.69 8.67 
735.61 -489.01 9.58 
735.07 -489.56 9.39 
734.51 -489.80 9.23 
735.36 -489.66 9.46 
734.56 -489.91 9.18 
735.05 -492.02 9.14 
738.30 -492.35 9.93 
738.55 -492.50 9.98 
738.47 -492.95 9.92 
726.82 -480.00 8.52 
727.41 -480.16 8.64 
726.42 -481.59 8.25 
727.62 -481.68 8.51 
727.39 -481.59 8.46 
730.19 -481.32 9.13 
729.83 -481.44 9.03 
731.56 -480.89 9.49 
728.56 -482.52 8.64 
728.84 -482.57 8.70 
731.69 -481.87 9.41 
730.01 -482.56 8.95 
732.40 -481.81 9.58 
730.86 -483.15 9.07 
731.61 -483.64 9.19 
732.13 -484.52 9.22 
731.68 -484.69 9.10 
734.97 -484.15 9.94 
735.02 -484.52 9.91 
734.84 -486.32 9.67 
736.26 -488.73 9.77 
731.61 -492.10 9.16 
732.04 -492.71 9.20 
734.04 -493.39 9.66 
733.34 -494.05 9.39 
733.99 -494.16 9.55 
731.97 -480.72 9.61 
730.48 -486.32 9.61 
729.25 -487.22 9.18 
730.95 -486.51 9.70 
729.64 -487.32 9.27 
729.97 -487.57 9.32 
731.58 -487.17 9.70 
730.43 -487.80 9.40 
731.94 -487.52 9.82 
731.00 -487.90 9.53 
731.07 -488.46 9.40 
732.74 -488.27 9.88 
734.43 -489.12 10.15 
735.56 -489.30 10.42 
734.53 -490.09 10.17 
732.98 -490.72 9.58 
733.94 -492.74 9.70 
734.16 -492.82 9.75 
735.52 -493.36 10.06 
735.65 -493.54 10.07 
727.56 -481.49 9.55 
727.77 -481.86 9.55 
728.99 -482.60 9.74 
730.92 -486.07 9.75 
732.11 -485.82 10.08 
731.60 -486.14 9.91 
733.29 -486.33 10.23 
733.06 -487.42 10.12 
733.64 -488.14 10.18 
735.01 -488.18 10.53 
726.77 -479.78 9.61 
726.69 -479.84 9.58 
729.07 -480.63 10.03 
731.72 -482.08 10.47 
732.15 -482.07 10.58 
732.44 -485.93 11.05 
732.10 -487.63 10.70 
733.57 -488.28 10.99 
729.57 -481.69 11.01 
726.96 -483.02 3.73 
727.21 -483.14 3.77 
725.27 -486.51 3.41 
726.77 -486.82 3.66 
726.20 -487.46 3.56 
725.78 -487.82 3.48 
726.98 -487.55 3.69 
727.79 -488.23 3.82 
727.87 -488.50 3.83 
726.38 -490.42 3.56 
726.25 -492.71 3.52 
726.26 -493.06 3.51 
732.87 -489.86 4.65 
727.86 -492.85 3.78 
726.69 -493.25 3.58 
726.83 -493.56 3.61 
729.14 -492.93 4.00 
728.16 -493.20 3.83 
727.48 -493.94 3.71 
731.96 -492.00 4.48 
727.86 -494.09 3.77 
727.59 -494.19 3.73 
726.72 -494.84 3.57 
732.58 -491.97 4.58 
732.14 -492.18 4.51 
730.81 -492.89 4.28 
730.51 -492.91 4.23 
727.79 -494.58 3.76 
732.96 -492.27 4.64 
732.88 -492.84 4.62 
731.22 -494.18 4.33 
734.98 -493.64 4.96 
730.95 -495.60 4.27 
731.11 -495.75 4.30 
732.09 -496.00 4.45 
731.01 -496.56 4.27 
730.42 -496.95 4.17 
730.91 -497.07 4.25 
729.84 -497.40 4.07 
735.78 -494.93 5.08 
730.40 -497.61 4.16 
731.95 -497.40 4.42 
717.03 -493.86 2.36 
717.26 -494.28 2.39 
718.17 -494.03 2.56 
717.38 -494.50 2.41 
726.77 -490.80 4.20 
727.70 -490.71 4.37 
727.67 -490.81 4.37 
717.95 -496.49 2.44 
727.25 -492.19 4.25 
728.97 -492.69 4.54 
728.19 -493.32 4.38 
729.13 -493.55 4.55 
727.71 -494.25 4.27 
730.24 -493.32 4.76 
728.13 -494.14 4.35 
728.13 -494.44 4.34 
728.49 -494.77 4.40 
728.53 -495.00 4.40 
731.91 -495.71 4.99 
732.40 -495.55 5.08 
731.55 -496.76 4.89 
730.24 -497.08 4.65 
731.83 -496.76 4.94 
730.61 -497.65 4.70 
732.49 -496.82 5.06 
731.42 -497.77 4.84 
732.31 -497.89 5.00 
726.21 -481.26 4.60 
725.87 -481.36 4.53 
725.55 -482.28 4.25 
726.01 -482.75 4.51 
724.19 -483.92 3.95 
727.58 -482.60 4.60 
726.00 -483.39 4.49 
725.02 -483.96 4.10 
726.61 -483.21 4.41 
725.34 -484.65 4.14 
725.91 -484.47 4.44 
725.62 -484.60 4.19 
726.19 -485.06 4.47 
725.56 -485.93 4.33 
726.34 -485.83 4.28 
726.71 -485.98 4.34 
731.64 -483.89 5.29 
731.14 -484.12 5.20 
727.24 -486.23 4.43 
726.61 -486.72 4.30 
731.83 -484.05 5.32 
726.69 -487.12 4.30 
726.13 -487.89 4.37 
726.77 -487.82 4.30 
727.46 -487.91 4.42 
726.95 -488.27 4.41 
726.84 -488.46 4.29 
736.18 -484.35 6.10 
736.87 -485.00 6.21 
727.17 -490.60 4.47 
729.20 -490.26 4.66 
717.16 -496.77 2.50 
729.12 -491.21 4.62 
727.81 -491.73 4.55 
726.39 -492.58 4.27 
729.21 -491.57 4.62 
727.41 -492.87 4.45 
726.25 -493.64 4.21 
726.51 -493.62 4.26 
732.45 -491.15 5.22 
726.78 -494.04 4.30 
732.75 -491.34 5.27 
731.00 -492.33 5.11 
726.83 -494.30 4.30 
732.73 -492.02 5.25 
731.79 -492.43 5.25 
729.66 -493.49 4.83 
732.73 -492.37 5.24 
733.18 -492.44 5.32 
731.39 -493.47 4.96 
733.72 -492.63 5.41 
731.76 -493.79 5.02 
733.87 -493.03 5.43 
732.39 -493.82 5.13 
729.45 -495.23 4.74 
733.99 -494.38 5.59 
735.85 -493.97 5.76 
733.63 -495.08 5.32 
731.23 -496.39 5.03 
736.26 -494.38 5.82 
736.29 -494.64 5.82 
736.88 -494.89 5.92 
737.15 -494.95 5.97 
736.55 -495.11 5.86 
734.86 -496.25 5.51 
736.60 -495.75 5.85 
736.03 -496.03 5.91 
736.53 -496.02 6.01 
717.78 -494.29 3.30 
717.26 -495.10 3.16 
717.93 -494.90 3.12 
717.29 -495.26 3.07 
718.00 -496.02 3.25 
727.57 -491.58 5.14 
718.42 -496.14 3.15 
718.05 -496.25 3.24 
717.87 -496.27 3.21 
717.53 -496.83 3.12 
717.35 -496.83 2.91 
716.98 -496.85 2.84 
718.46 -496.43 3.14 
718.05 -496.85 3.13 
717.74 -497.02 2.97 
717.44 -497.14 2.91 
718.19 -497.08 3.06 
728.41 -492.87 5.24 
727.39 -493.46 5.01 
727.37 -493.82 4.99 
727.64 -494.03 5.03 
728.01 -494.46 5.09 
727.69 -494.52 5.02 
728.24 -494.71 5.12 
730.63 -493.83 5.63 
728.46 -494.97 5.15 
731.66 -495.19 5.77 
731.39 -495.12 5.72 
731.68 -496.50 5.72 
731.55 -496.94 5.67 
726.85 -479.77 5.61 
726.39 -480.05 5.50 
727.56 -481.04 5.68 
727.16 -481.22 5.59 
728.06 -481.19 5.76 
729.74 -480.87 6.10 
728.28 -481.64 5.78 
728.03 -481.47 5.74 
728.59 -481.68 5.84 
728.84 -481.95 5.87 
730.75 -481.56 6.26 
728.10 -484.96 5.58 
727.30 -486.12 5.51 
726.70 -486.95 5.20 
728.19 -486.65 5.66 
727.75 -486.71 5.42 
726.92 -487.54 5.22 
728.29 -487.76 5.47 
727.52 -489.71 5.37 
727.74 -489.72 5.41 
716.94 -495.74 3.50 
716.67 -495.74 3.45 
729.00 -489.95 5.50 
728.59 -490.16 5.41 
717.14 -495.71 3.54 
728.14 -491.23 5.27 
728.55 -491.22 5.35 
726.70 -492.18 5.08 
733.29 -489.16 6.38 
728.67 -491.67 5.35 
726.51 -492.97 5.01 
726.52 -493.40 4.99 
726.15 -493.27 4.92 
731.70 -491.07 6.10 
731.10 -491.42 5.84 
732.32 -491.15 6.09 
731.77 -491.40 6.10 
730.02 -492.30 5.72 
729.41 -492.67 5.58 
727.65 -493.58 5.19 
732.28 -491.54 6.06 
731.89 -491.73 6.11 
733.08 -491.82 6.21 
730.94 -492.74 5.74 
729.90 -493.30 5.64 
733.69 -491.70 6.46 
731.94 -492.83 6.06 
732.91 -492.83 6.13 
732.48 -492.91 6.04 
730.92 -493.87 5.69 
733.28 -492.75 6.21 
734.05 -493.08 6.34 
733.09 -493.33 6.27 
733.48 -493.69 6.20 
733.71 -493.98 6.24 
738.05 -492.22 7.18 
735.99 -493.36 6.72 
735.00 -494.00 6.61 
734.59 -494.03 6.41 
732.56 -495.03 6.08 
731.23 -495.99 5.77 
738.13 -492.53 7.19 
735.64 -494.06 6.62 
731.07 -496.14 5.73 
737.87 -493.21 7.22 
733.23 -495.68 6.06 
737.91 -493.49 7.21 
736.26 -494.62 6.72 
733.97 -495.89 6.32 
738.41 -494.14 7.28 
737.52 -494.53 6.98 
735.00 -496.36 6.39 
737.05 -495.96 6.82 
736.91 -496.41 6.77 
724.75 -479.73 5.38 
724.49 -479.73 5.33 
725.64 -480.75 5.49 
725.89 -480.91 5.53 
727.04 -481.88 5.69 
728.33 -481.76 5.94 
717.11 -494.43 3.79 
716.65 -495.86 3.59 
739.11 -485.57 7.70 
726.12 -492.59 5.68 
727.15 -492.42 5.81 
727.55 -492.72 5.88 
727.09 -492.98 5.81 
728.04 -493.16 5.95 
728.78 -493.35 6.09 
728.32 -493.57 5.98 
728.28 -489.48 6.25 
717.59 -495.78 4.25 
717.27 -495.74 4.25 
716.95 -495.92 4.13 
716.57 -496.14 4.13 
717.25 -496.16 4.14 
726.68 -491.60 5.87 
726.25 -491.87 5.76 
727.24 -491.98 5.95 
726.39 -492.55 5.74 
727.00 -492.86 5.84 
730.99 -491.35 6.77 
731.08 -491.63 6.77 
730.44 -491.92 6.62 
730.02 -492.11 6.52 
730.52 -492.70 6.58 
731.24 -492.49 6.74 
733.87 -491.66 7.29 
731.38 -492.83 6.68 
730.28 -493.38 6.48 
730.95 -493.70 6.53 
730.57 -493.76 6.52 
735.04 -491.93 7.53 
731.36 -493.82 6.68 
731.06 -493.95 6.54 
735.02 -492.39 7.49 
734.40 -492.75 7.39 
734.09 -492.73 7.33 
732.99 -493.44 7.05 
733.83 -493.53 7.17 
733.19 -495.29 6.92 
732.65 -495.44 6.79 
734.30 -494.91 7.18 
732.38 -495.86 6.76 
724.64 -480.72 6.28 
724.85 -480.83 6.31 
728.79 -479.81 7.05 
725.44 -481.75 6.36 
725.13 -481.78 6.30 
729.15 -480.34 7.08 
726.50 -481.60 6.46 
726.75 -481.73 6.50 
727.10 -482.06 6.54 
726.86 -482.15 6.49 
729.80 -481.21 7.15 
728.63 -481.95 6.86 
727.36 -482.47 6.56 
730.41 -481.37 7.26 
729.94 -481.59 7.15 
729.46 -481.76 7.15 
728.94 -482.02 6.92 
731.07 -481.38 7.40 
730.54 -481.77 7.26 
729.39 -482.45 6.98 
728.49 -482.63 6.89 
728.59 -483.10 6.88 
731.77 -486.54 7.27 
732.07 -486.49 7.34 
716.52 -495.33 4.70 
727.45 -492.22 6.71 
740.07 -490.34 8.77 
738.17 -491.61 8.28 
737.13 -492.27 8.01 
738.28 -491.82 8.29 
739.19 -492.67 8.39 
739.23 -492.96 8.38 
738.81 -493.60 8.29 
740.55 -493.06 8.70 
739.58 -493.42 8.43 
739.06 -494.07 8.32 
729.68 -487.66 7.61 
729.49 -487.47 7.59 
727.61 -491.61 6.80 
730.85 -490.61 7.62 
728.35 -491.79 6.95 
727.98 -491.90 6.86 
732.42 -489.92 8.03 
731.39 -490.71 7.73 
731.09 -490.66 7.67 
728.50 -491.99 6.97 
728.41 -492.18 6.93 
732.42 -491.50 7.90 
731.14 -492.22 7.55 
732.24 -492.17 7.81 
731.74 -493.79 7.56 
731.11 -493.95 7.40 
734.69 -492.53 8.34 
733.13 -493.78 7.88 
732.73 -493.90 7.78 
734.29 -493.43 8.17 
733.69 -493.99 8.00 
733.91 -494.07 8.04 
733.42 -494.81 7.86 
735.61 -494.30 8.42 
732.83 -495.84 7.65 
735.68 -494.53 8.42 
732.95 -496.36 7.64 
732.94 -496.71 7.61 
726.38 -480.17 7.59 
726.05 -480.23 7.52 
725.20 -481.28 7.24 
726.67 -481.60 7.52 
726.19 -482.17 7.44 
726.95 -481.96 7.58 
728.10 -482.14 7.77 
726.44 -482.70 7.44 
728.30 -482.41 7.79 
730.07 -482.32 8.18 
729.10 -482.71 7.94 
728.72 -482.77 7.85 
729.24 -483.06 7.93 
730.74 -482.94 8.27 
729.27 -486.90 7.59 
729.55 -486.93 7.65 
731.99 -486.84 8.20 
733.02 -486.82 8.44 
732.69 -486.86 8.36 
716.62 -495.04 5.39 
733.12 -486.78 8.46 
733.16 -487.12 8.44 
735.74 -486.34 9.10 
732.44 -489.46 8.08 
734.70 -491.03 8.47 
738.11 -490.37 9.32 
735.23 -491.65 8.54 
739.19 -492.12 9.44 
738.78 -492.16 9.34 
736.76 -493.75 8.74 
738.99 -492.74 9.35 
739.57 -493.69 9.42 
739.31 -493.97 9.33 
725.96 -480.03 7.61 
726.73 -480.08 7.68 
727.07 -480.09 7.75 
728.99 -479.80 8.18 
728.73 -480.20 8.09 
728.22 -480.52 7.95 
729.78 -480.99 8.24 
731.41 -481.15 8.58 
730.30 -482.53 8.27 
731.32 -482.49 8.44 
731.81 -490.86 8.73 
731.82 -491.26 8.69 
731.33 -491.96 8.45 
731.93 -491.99 8.64 
731.15 -492.51 8.40 
732.41 -493.73 8.59 
734.70 -493.58 9.18 
733.25 -494.62 8.71 
734.86 -494.10 9.17 
733.50 -494.71 8.77 
740.94 -491.37 9.92 
735.37 -494.41 9.28 
735.05 -494.47 9.19 
741.15 -491.60 9.95 
730.76 -485.85 9.01 
729.74 -486.95 8.64 
730.70 -487.00 8.87 
732.20 -486.84 9.25 
730.53 -487.66 8.76 
729.98 -488.00 8.59 
731.98 -488.02 9.07 
731.52 -488.24 8.93 
732.94 -488.14 9.29 
733.20 -488.34 9.33 
732.62 -489.44 9.08 
732.13 -489.62 8.94 
734.51 -489.42 9.54 
735.40 -489.22 9.78 
735.02 -490.04 9.61 
734.66 -492.44 9.28 
735.86 -493.20 9.51 
735.24 -493.37 9.34 
725.58 -481.53 8.31 
726.61 -481.41 8.56 
727.66 -481.41 8.79 
727.35 -481.36 8.73 
726.98 -481.99 8.57 
726.50 -482.28 8.43 
729.83 -481.16 9.31 
727.04 -482.53 8.52 
726.58 -482.74 8.43 
727.68 -482.55 8.66 
727.30 -482.67 8.56 
730.24 -481.65 9.35 
728.59 -482.36 8.91 
727.79 -483.02 8.64 
729.56 -482.31 9.12 
728.16 -483.16 8.71 
731.73 -481.69 9.70 
730.39 -482.60 9.28 
730.16 -482.49 9.24 
732.27 -481.93 9.79 
731.14 -483.13 9.40 
730.84 -483.02 9.34 
731.43 -484.32 9.34 
731.80 -484.38 9.41 
732.80 -485.52 9.53 
732.51 -485.86 9.42 
732.14 -485.88 9.34 
734.43 -485.78 9.90 
733.83 -485.97 9.70 
731.86 -491.94 9.54 
731.68 -480.54 9.81 
732.02 -480.50 9.90 
732.21 -481.52 9.83 
729.47 -487.09 9.53 
729.70 -487.23 9.57 
730.13 -487.58 9.63 
731.01 -487.75 9.83 
731.82 -488.14 9.99 
732.56 -488.13 10.09 
734.09 -488.76 10.40 
734.49 -490.48 10.41 
733.35 -492.61 9.86 
734.22 -492.62 10.02 
726.90 -481.70 9.62 
727.00 -481.76 9.64 
730.79 -485.93 9.95 
731.62 -485.99 10.21 
733.07 -485.78 10.53 
734.04 -486.16 10.81 
732.85 -487.24 10.37 
733.80 -487.81 10.55 
733.14 -488.18 10.33 
734.98 -488.20 10.81 
734.58 -490.04 10.48 
726.22 -479.78 9.73 
727.74 -480.97 9.93 
730.02 -481.25 10.44 
730.21 -481.55 10.44 
731.70 -481.98 10.75 
732.34 -485.67 11.36 
732.13 -487.18 11.07 
732.11 -487.63 11.00 
727.29 -482.79 3.96 
727.13 -486.35 3.90 
726.76 -486.64 3.84 
726.08 -487.41 3.71 
727.01 -487.28 3.87 
728.00 -488.05 4.04 
726.34 -490.21 3.74 
728.77 -489.82 4.15 
726.84 -491.23 3.81 
728.56 -491.02 4.11 
733.00 -489.52 4.87 
728.06 -491.95 4.01 
727.56 -492.33 3.93 
726.46 -492.84 3.74 
733.22 -489.95 4.91 
727.83 -492.76 3.97 
727.57 -493.52 3.92 
728.66 -493.04 4.11 
727.98 -493.76 3.99 
727.61 -493.88 3.92 
732.41 -491.85 4.75 
732.08 -491.84 4.70 
728.33 -494.02 4.04 
733.13 -492.29 4.87 
733.15 -492.70 4.87 
731.39 -493.93 4.56 
735.19 -493.37 5.21 
735.74 -494.05 5.29 
731.22 -496.27 4.51 
730.44 -496.88 4.37 
735.80 -494.40 5.30 
732.01 -496.37 4.64 
730.87 -497.09 4.44 
730.88 -497.34 4.44 
732.19 -497.16 4.67 
731.68 -497.46 4.58 
716.56 -493.99 2.45 
716.57 -494.43 2.44 
718.29 -494.22 2.76 
716.89 -495.17 2.48 
717.09 -495.43 2.51 
717.50 -495.68 2.57 
717.27 -495.69 2.53 
717.13 -496.48 2.48 
718.49 -496.07 2.74 
718.17 -496.32 2.67 
717.90 -496.32 2.63 
718.74 -496.39 2.78 
728.78 -492.69 4.72 
727.80 -493.58 4.52 
728.68 -493.99 4.67 
728.26 -494.25 4.58 
727.87 -494.26 4.51 
728.74 -494.58 4.66 
728.44 -494.58 4.60 
732.11 -495.81 5.25 
731.91 -496.06 5.21 
731.08 -497.14 5.02 
732.80 -496.82 5.35 
732.04 -497.20 5.20 
726.52 -480.99 4.84 
725.93 -481.04 4.73 
725.44 -482.02 4.41 
728.31 -481.52 4.95 
727.75 -481.93 4.84 
728.25 -482.25 4.92 
726.51 -483.11 4.58 
725.41 -484.62 4.33 
726.44 -485.60 4.49 
726.53 -485.91 4.50 
727.90 -485.55 4.76 
726.83 -485.92 4.55 
731.88 -483.82 5.54 
731.17 -484.43 5.39 
728.40 -485.46 4.85 
726.64 -486.87 4.49 
727.86 -486.93 4.71 
726.41 -487.95 4.42 
727.48 -488.09 4.80 
727.39 -489.41 4.75 
716.68 -494.92 2.65 
728.32 -489.25 4.92 
727.54 -490.07 4.76 
727.19 -490.27 4.50 
726.74 -490.57 4.41 
728.99 -489.98 4.83 
716.96 -496.06 2.66 
738.81 -485.16 6.78 
729.16 -490.10 4.86 
727.52 -491.08 4.72 
717.73 -496.10 2.80 
728.17 -491.33 4.84 
717.41 -496.68 2.73 
717.29 -496.60 2.71 
729.01 -491.21 4.80 
729.41 -491.45 4.87 
729.19 -491.32 4.83 
728.35 -492.02 4.66 
733.84 -489.65 5.74 
727.63 -492.68 4.70 
726.48 -493.35 4.47 
729.10 -492.65 4.78 
731.14 -492.09 5.36 
726.85 -494.06 4.52 
732.56 -492.16 5.43 
732.14 -492.36 5.54 
733.44 -491.90 5.60 
732.76 -492.26 5.47 
731.57 -492.80 5.23 
733.75 -492.39 5.64 
733.28 -492.50 5.74 
732.12 -493.40 5.32 
729.65 -494.55 5.02 
733.96 -492.58 5.68 
732.37 -493.43 5.36 
734.04 -493.03 5.68 
733.30 -493.56 5.72 
734.97 -493.16 6.03 
732.79 -494.87 5.40 
733.47 -495.25 5.52 
736.38 -493.94 6.09 
733.04 -495.93 5.42 
736.54 -494.58 6.10 
737.48 -494.48 6.28 
736.69 -494.74 6.13 
733.34 -496.39 5.46 
736.71 -495.41 6.30 
736.58 -495.47 6.27 
736.06 -495.62 6.17 
717.90 -493.76 3.55 
718.07 -493.93 3.57 
716.74 -494.64 3.28 
717.33 -494.95 3.38 
716.96 -495.30 3.29 
716.59 -495.44 3.21 
717.56 -495.22 3.23 
717.40 -495.19 3.21 
718.70 -495.93 3.42 
718.11 -496.37 3.45 
717.69 -496.32 3.20 
717.29 -496.80 3.10 
716.66 -496.95 2.97 
718.67 -496.38 3.39 
718.25 -496.68 3.37 
718.01 -496.72 3.33 
717.79 -496.95 3.19 
717.39 -497.26 3.10 
727.86 -493.68 5.32 
727.51 -493.81 5.25 
728.04 -493.84 5.35 
728.12 -494.12 5.35 
732.03 -496.45 6.04 
732.21 -496.66 6.06 
727.49 -480.83 5.87 
727.09 -481.03 5.78 
727.74 -481.06 5.91 
729.72 -480.61 6.31 
728.06 -481.16 5.96 
728.41 -481.54 6.01 
729.54 -481.55 6.23 
730.78 -481.30 6.49 
730.52 -481.21 6.44 
729.74 -481.90 6.26 
727.92 -484.43 5.78 
728.38 -484.69 5.85 
727.66 -485.71 5.81 
729.10 -485.69 5.95 
727.90 -486.65 5.66 
728.28 -487.05 5.72 
728.30 -487.45 5.70 
728.53 -487.60 5.74 
717.19 -494.37 3.86 
728.60 -489.00 5.69 
727.33 -489.95 5.39 
728.71 -489.66 5.68 
727.56 -490.00 5.43 
716.83 -495.60 3.70 
727.84 -490.48 5.47 
727.54 -490.45 5.41 
717.63 -495.78 3.85 
717.39 -495.76 3.80 
717.12 -495.66 3.75 
716.74 -496.54 3.61 
733.43 -488.49 6.67 
728.24 -491.25 5.51 
728.46 -491.34 5.55 
729.03 -491.59 5.65 
728.43 -491.80 5.52 
726.59 -492.79 5.25 
727.18 -492.82 5.37 
730.61 -492.07 6.01 
729.63 -492.56 5.86 
727.57 -493.47 5.41 
732.97 -491.13 6.46 
733.15 -491.70 6.47 
730.93 -492.84 5.97 
731.70 -492.89 6.13 
730.69 -493.29 6.03 
734.95 -491.82 6.83 
734.20 -492.15 6.66 
733.31 -492.50 6.47 
733.34 -493.00 6.57 
731.07 -493.97 6.08 
734.94 -492.94 6.78 
731.55 -494.93 6.01 
738.66 -492.18 7.57 
737.97 -492.49 7.53 
735.65 -493.38 6.90 
733.47 -495.13 6.50 
733.02 -495.24 6.41 
732.10 -495.93 6.07 
738.39 -492.90 7.59 
735.31 -494.79 6.77 
734.92 -494.76 6.81 
734.86 -495.02 6.79 
736.72 -494.61 7.07 
736.10 -495.49 6.91 
735.87 -495.74 6.85 
740.43 -493.56 7.98 
740.06 -493.75 7.79 
737.26 -495.58 7.14 
736.06 -496.01 6.88 
737.30 -495.91 7.13 
725.07 -480.48 5.59 
725.69 -480.45 5.71 
726.64 -480.71 5.87 
726.19 -480.65 5.79 
728.12 -481.38 6.12 
729.32 -480.88 6.38 
728.70 -481.51 6.22 
738.34 -482.03 7.95 
739.16 -482.57 8.09 
716.63 -495.53 3.81 
739.32 -485.41 7.99 
739.55 -486.20 8.00 
728.01 -493.41 6.17 
740.19 -492.69 7.97 
728.70 -489.48 6.58 
717.09 -495.49 4.51 
728.82 -489.86 6.58 
717.67 -495.46 4.53 
717.20 -495.64 4.41 
717.00 -495.71 4.36 
727.02 -491.33 6.19 
726.28 -491.57 6.02 
717.77 -495.72 4.52 
716.70 -496.40 4.23 
726.33 -491.97 6.01 
727.42 -491.78 6.24 
727.06 -492.03 6.15 
726.25 -492.56 5.95 
728.70 -491.72 6.43 
727.84 -492.05 6.23 
727.23 -492.62 6.15 
727.40 -492.78 6.17 
728.12 -492.84 6.24 
731.72 -491.37 7.18 
731.76 -491.73 7.16 
731.30 -493.12 6.97 
730.67 -493.54 6.81 
732.66 -492.87 7.22 
735.26 -491.70 7.86 
731.07 -493.85 6.81 
735.55 -492.27 7.94 
734.06 -493.30 7.50 
732.64 -494.14 7.19 
732.23 -494.24 7.10 
732.77 -494.29 7.21 
732.51 -495.20 7.04 
736.45 -493.54 8.06 
735.16 -494.17 7.74 
732.60 -495.58 7.09 
733.25 -495.52 7.19 
724.84 -480.69 6.53 
726.71 -480.14 6.82 
725.20 -481.39 6.55 
725.43 -481.47 6.58 
726.52 -481.46 6.68 
728.58 -480.91 7.20 
727.59 -481.62 7.01 
727.02 -481.81 6.76 
730.72 -480.47 7.72 
729.84 -481.37 7.37 
728.77 -481.79 7.12 
728.44 -481.97 7.04 
729.48 -481.59 7.39 
728.66 -482.08 7.19 
731.30 -481.48 7.67 
730.76 -481.66 7.55 
730.40 -481.90 7.55 
728.79 -482.57 7.07 
731.36 -481.88 7.66 
729.72 -482.80 7.25 
732.04 -486.11 7.60 
731.76 -488.58 7.37 
732.04 -489.01 7.40 
740.42 -490.68 9.10 
737.31 -492.25 8.33 
716.68 -494.96 5.01 
728.17 -491.02 7.24 
727.71 -491.25 7.11 
727.52 -491.43 7.06 
727.97 -491.71 7.13 
728.41 -491.87 7.22 
727.82 -491.86 7.09 
732.92 -491.25 8.32 
732.13 -491.57 8.11 
731.43 -491.82 7.92 
730.97 -492.16 7.80 
731.53 -492.42 7.90 
733.29 -492.51 8.31 
733.19 -492.99 8.24 
732.11 -493.52 7.95 
732.00 -493.51 7.92 
731.36 -493.75 7.75 
734.35 -493.34 8.49 
733.65 -493.50 8.31 
733.95 -494.03 8.34 
733.88 -494.52 8.29 
735.40 -494.19 8.68 
734.16 -494.91 8.33 
734.02 -495.11 8.28 
726.31 -481.30 7.70 
725.50 -481.68 7.57 
726.65 -481.17 7.78 
727.56 -481.41 7.96 
727.23 -481.51 7.88 
727.01 -481.81 7.80 
726.61 -481.93 7.71 
727.39 -482.48 7.82 
728.31 -482.28 8.04 
727.94 -482.60 7.93 
727.69 -482.50 7.89 
728.84 -482.82 8.11 
729.41 -483.06 8.22 
729.03 -483.10 8.13 
729.45 -486.36 7.93 
730.18 -486.30 8.10 
732.28 -487.20 8.50 
732.64 -488.21 8.50 
731.71 -488.48 8.26 
732.28 -489.04 8.35 
736.38 -488.73 9.33 
734.96 -490.68 8.84 
734.78 -491.34 8.74 
734.89 -492.35 8.70 
735.14 -492.93 8.71 
738.87 -491.74 9.70 
737.55 -492.54 9.32 
726.65 -479.81 7.91 
727.53 -480.25 8.06 
728.76 -479.81 8.37 
727.70 -481.26 8.00 
729.32 -481.38 8.35 
731.60 -480.74 8.91 
728.92 -482.45 8.22 
731.88 -481.41 8.91 
731.53 -481.36 8.84 
729.83 -482.44 8.37 
730.12 -482.56 8.42 
730.04 -482.59 8.40 
731.35 -482.90 8.66 
735.40 -485.68 9.35 
735.80 -486.24 9.40 
731.45 -491.63 8.86 
731.28 -491.79 8.80 
731.99 -492.15 8.94 
731.18 -492.36 8.72 
732.17 -492.40 8.96 
733.76 -493.78 9.24 
733.87 -494.04 9.24 
729.89 -486.99 8.96 
731.01 -486.81 9.25 
731.34 -487.31 9.27 
731.60 -487.92 9.27 
731.82 -488.08 9.31 
733.83 -489.22 9.69 
731.84 -490.71 9.05 
732.05 -491.74 9.00 
733.69 -492.11 9.38 
735.17 -491.59 9.80 
733.88 -492.46 9.39 
734.86 -492.25 9.66 
733.76 -492.97 9.31 
733.84 -493.33 9.30 
734.96 -493.30 9.59 
735.16 -493.92 9.58 
734.42 -494.25 9.36 
726.52 -479.76 8.97 
727.67 -480.33 9.17 
726.72 -481.43 8.83 
726.38 -481.40 8.75 
726.98 -481.57 8.87 
728.87 -481.27 9.34 
726.96 -482.37 8.77 
727.77 -482.68 8.93 
727.47 -482.61 8.86 
729.89 -482.08 9.49 
728.24 -483.05 9.00 
730.08 -482.62 9.47 
731.26 -484.71 9.53 
731.72 -485.30 9.58 
731.43 -485.54 9.46 
730.95 -485.88 9.33 
732.17 -485.73 9.64 
732.29 -486.10 9.63 
731.30 -486.47 9.35 
734.08 -485.65 10.11 
733.70 -485.72 10.01 
732.36 -486.46 9.61 
733.52 -486.86 9.85 
733.11 -487.84 9.65 
736.05 -488.05 10.36 
735.49 -489.55 10.08 
731.51 -479.90 10.11 
731.90 -480.51 10.13 
731.75 -481.36 10.00 
733.05 -481.14 10.34 
732.04 -481.50 10.06 
733.11 -485.30 10.90 
731.64 -485.79 10.54 
729.72 -487.03 9.90 
730.74 -486.99 10.16 
730.18 -486.88 10.03 
732.42 -486.71 10.63 
732.08 -487.56 10.44 
732.05 -487.99 10.29 
733.62 -487.57 10.84 
733.62 -487.96 10.80 
734.84 -487.87 11.13 
734.08 -488.32 10.88 
727.20 -480.82 10.09 
727.74 -481.24 10.16 
727.95 -481.38 10.19 
729.71 -481.40 10.62 
734.07 -486.01 11.15 
725.11 -483.87 3.70 
726.80 -490.48 3.94 
728.34 -490.71 4.20 
726.54 -491.48 3.88 
733.01 -489.27 5.01 
732.72 -489.20 4.96 
726.14 -492.63 3.81 
727.03 -493.24 3.95 
727.21 -493.63 3.98 
727.75 -493.86 4.07 
727.52 -493.73 4.03 
732.47 -491.74 4.89 
732.14 -491.75 4.83 
730.73 -492.80 4.59 
733.09 -491.98 4.99 
733.17 -492.48 5.00 
731.60 -492.92 4.73 
731.72 -495.37 4.73 
731.03 -495.51 4.61 
735.60 -493.63 5.40 
735.86 -494.18 5.44 
735.52 -494.16 5.38 
730.99 -496.53 4.60 
730.23 -496.82 4.46 
735.99 -494.35 5.46 
731.38 -496.78 4.66 
717.01 -494.29 2.66 
717.67 -494.23 2.79 
716.99 -494.75 2.65 
717.33 -495.89 2.67 
717.77 -496.04 2.75 
717.36 -496.27 2.67 
718.54 -496.37 2.88 
717.79 -496.70 2.73 
727.39 -493.22 4.60 
728.16 -493.43 4.73 
727.74 -494.26 4.63 
727.61 -494.04 4.61 
728.24 -494.40 4.72 
728.07 -494.23 4.69 
728.50 -494.66 4.76 
731.25 -496.78 5.22 
726.48 -480.63 4.99 
726.96 -480.56 4.88 
725.27 -482.00 4.53 
727.65 -481.26 4.98 
727.95 -481.35 5.04 
728.01 -481.95 5.03 
730.63 -481.13 5.54 
728.08 -482.34 5.03 
726.35 -483.12 4.69 
727.88 -482.82 4.98 
725.30 -484.46 4.46 
728.18 -484.54 4.99 
727.24 -485.63 4.79 
726.89 -485.66 4.72 
731.00 -484.03 5.52 
727.88 -485.65 4.90 
731.76 -484.08 5.66 
731.07 -484.46 5.52 
729.00 -485.42 5.11 
726.67 -487.10 4.64 
727.73 -486.85 4.84 
726.61 -490.57 4.53 
738.75 -485.04 6.93 
738.35 -485.06 6.85 
729.26 -489.96 5.03 
728.94 -489.95 4.97 
727.55 -490.53 4.70 
716.84 -496.16 2.78 
727.79 -490.99 4.92 
717.98 -496.14 2.98 
717.56 -496.31 2.90 
727.78 -491.44 4.72 
718.22 -496.44 3.02 
718.09 -496.33 3.00 
717.65 -496.50 2.91 
729.18 -491.34 4.98 
726.65 -492.25 4.68 
733.70 -489.34 5.87 
733.83 -489.55 5.89 
728.69 -492.37 4.86 
727.94 -492.86 4.90 
732.26 -490.87 5.75 
732.36 -491.16 5.76 
730.82 -492.03 5.45 
729.08 -493.08 4.91 
727.00 -493.90 4.70 
733.27 -491.50 5.73 
729.35 -493.45 4.95 
732.47 -492.13 5.57 
731.77 -492.36 5.62 
729.88 -493.65 5.23 
729.80 -493.83 5.21 
734.93 -491.79 6.03 
733.87 -492.34 5.91 
733.66 -492.29 5.79 
731.50 -493.78 5.34 
733.99 -492.66 5.84 
731.27 -494.32 5.29 
733.97 -493.07 5.82 
731.03 -494.83 5.41 
732.57 -494.82 5.51 
732.60 -495.83 5.49 
736.49 -494.18 6.26 
734.36 -495.07 6.02 
736.85 -494.25 6.33 
733.47 -496.07 5.65 
732.21 -496.87 5.39 
736.71 -494.88 6.28 
734.18 -496.14 5.78 
733.42 -496.46 5.63 
717.97 -494.79 3.49 
717.66 -494.93 3.43 
718.18 -495.17 3.52 
717.51 -495.32 3.38 
717.14 -495.43 3.47 
717.68 -496.30 3.36 
718.74 -495.86 3.59 
718.76 -496.42 3.56 
717.96 -496.95 3.38 
717.83 -496.85 3.36 
717.10 -497.11 3.21 
727.72 -493.76 5.46 
727.85 -494.01 5.48 
726.49 -480.48 5.86 
727.12 -480.63 5.98 
727.26 -481.01 5.99 
727.45 -481.34 6.01 
727.15 -481.33 5.95 
728.14 -481.44 6.14 
728.33 -481.65 6.16 
729.24 -481.43 6.35 
728.95 -482.44 6.25 
728.20 -484.27 6.01 
728.41 -485.67 5.98 
728.43 -486.14 5.96 
728.58 -486.36 5.98 
729.26 -486.46 6.11 
727.78 -489.11 5.84 
728.19 -489.45 5.76 
727.63 -489.73 5.63 
728.77 -489.56 5.87 
717.32 -495.47 3.99 
716.90 -495.94 3.87 
716.72 -495.97 3.83 
728.53 -490.76 5.76 
727.13 -491.68 5.58 
731.37 -490.14 6.49 
730.68 -490.21 6.35 
727.45 -492.13 5.49 
726.50 -492.37 5.42 
731.61 -490.25 6.53 
728.25 -491.91 5.65 
727.15 -492.61 5.54 
727.37 -492.91 5.50 
730.56 -491.90 6.12 
729.80 -491.96 6.09 
727.57 -493.25 5.59 
727.45 -493.32 5.43 
730.68 -492.20 6.26 
727.83 -493.69 5.49 
727.57 -493.59 5.44 
733.02 -491.60 6.63 
731.19 -492.41 6.22 
728.47 -493.60 5.62 
734.42 -491.19 7.05 
730.22 -493.15 5.99 
730.20 -493.47 6.10 
728.39 -494.09 5.58 
733.28 -491.92 6.79 
733.01 -492.44 6.59 
730.72 -493.30 6.09 
734.85 -491.73 6.99 
734.05 -492.09 6.81 
733.23 -492.54 6.63 
730.57 -493.83 6.03 
734.68 -492.30 7.05 
734.02 -492.90 6.77 
731.88 -494.80 6.38 
731.73 -494.81 6.23 
734.29 -493.98 6.78 
733.59 -494.13 6.63 
733.03 -494.30 6.51 
733.01 -494.94 6.60 
732.01 -495.61 6.25 
738.37 -492.83 7.66 
734.61 -494.58 6.82 
733.94 -494.73 6.79 
732.18 -495.79 6.27 
735.94 -494.54 7.09 
734.97 -494.73 7.00 
734.69 -494.87 6.83 
734.24 -495.07 6.84 
734.64 -495.46 6.79 
740.14 -493.25 8.01 
734.69 -495.93 6.78 
736.08 -495.82 7.07 
735.21 -495.89 6.89 
735.05 -496.32 6.84 
737.16 -495.69 7.30 
736.88 -495.57 7.25 
736.45 -495.86 7.15 
737.13 -496.02 7.28 
737.08 -496.46 7.25 
724.88 -480.02 5.74 
725.45 -480.21 5.84 
725.15 -480.16 5.78 
725.48 -480.48 5.83 
725.72 -480.56 5.87 
728.37 -479.91 6.41 
727.81 -480.29 6.28 
729.01 -479.79 6.39 
726.56 -481.67 5.97 
726.25 -481.63 5.92 
729.34 -480.61 6.41 
729.19 -480.96 6.51 
728.49 -481.02 6.38 
728.12 -481.10 6.30 
728.60 -481.47 6.38 
730.47 -481.17 6.61 
730.77 -481.26 6.66 
738.97 -482.55 8.23 
716.66 -495.43 4.00 
716.91 -495.57 4.04 
738.84 -485.16 8.22 
739.29 -485.29 8.17 
740.31 -492.16 8.20 
717.54 -495.30 4.72 
727.38 -490.66 6.51 
726.80 -491.11 6.36 
717.68 -495.37 4.74 
730.18 -489.93 7.15 
727.83 -491.22 6.57 
726.96 -491.85 6.34 
728.19 -491.58 6.61 
727.82 -491.69 6.53 
732.36 -490.97 7.47 
727.98 -492.88 6.40 
731.38 -491.67 7.22 
732.50 -491.65 7.46 
730.76 -492.95 7.07 
731.51 -493.17 7.21 
731.02 -493.41 7.09 
730.71 -493.46 7.02 
732.74 -493.32 7.47 
732.40 -493.64 7.38 
732.16 -493.62 7.33 
735.20 -492.39 8.01 
734.01 -493.16 7.70 
733.90 -493.33 7.67 
733.30 -493.43 7.58 
734.18 -493.81 7.70 
733.01 -494.51 7.45 
733.21 -494.67 7.49 
733.19 -495.41 7.39 
727.21 -479.74 7.25 
726.97 -479.91 7.08 
725.85 -480.76 6.79 
727.91 -480.84 7.20 
726.90 -481.38 7.01 
727.04 -481.85 6.95 
728.36 -481.63 7.24 
727.14 -482.19 7.06 
729.55 -481.40 7.61 
728.79 -481.81 7.32 
730.46 -481.59 7.68 
729.42 -482.09 7.43 
731.24 -481.48 7.86 
729.66 -482.19 7.48 
728.47 -482.79 7.29 
731.90 -488.79 7.59 
734.92 -491.05 8.09 
716.51 -494.42 5.26 
716.51 -495.24 5.17 
728.26 -491.62 7.43 
727.94 -491.60 7.36 
728.48 -491.85 7.46 
731.29 -491.24 8.17 
732.27 -492.09 8.33 
731.16 -492.52 8.04 
732.79 -493.11 8.37 
732.05 -493.51 8.16 
732.94 -493.72 8.36 
732.63 -493.72 8.29 
733.23 -494.33 8.38 
733.59 -494.63 8.45 
734.54 -494.60 8.68 
733.72 -494.81 8.46 
726.53 -481.94 7.90 
727.49 -482.56 8.06 
727.76 -482.73 8.10 
728.38 -482.99 8.21 
729.85 -486.11 8.27 
729.60 -486.05 8.22 
729.80 -487.68 8.12 
730.26 -487.54 8.24 
732.44 -488.93 8.62 
732.60 -489.16 8.64 
732.11 -491.04 8.37 
732.17 -491.05 8.39 
734.75 -492.14 8.91 
734.91 -492.99 8.89 
738.30 -491.86 9.79 
738.67 -492.26 9.85 
735.38 -494.09 8.92 
735.60 -494.20 8.96 
725.91 -479.74 7.97 
726.59 -479.76 8.12 
728.37 -479.79 8.50 
727.99 -479.73 8.42 
726.32 -480.88 7.95 
724.87 -481.30 7.69 
726.41 -481.38 7.93 
725.48 -481.66 7.78 
726.31 -481.67 7.88 
729.79 -480.48 8.75 
727.78 -481.41 8.22 
726.55 -482.46 7.93 
727.51 -482.48 8.13 
731.46 -480.88 9.09 
730.56 -481.07 8.87 
729.40 -481.86 8.54 
728.21 -482.54 8.22 
731.65 -481.27 9.10 
730.36 -481.99 8.74 
729.59 -482.13 8.56 
731.97 -481.28 9.17 
734.96 -485.38 9.50 
735.65 -486.03 9.61 
735.58 -487.41 9.49 
735.70 -487.64 9.50 
738.80 -486.99 10.28 
735.99 -488.49 9.49 
736.29 -488.71 9.55 
732.50 -489.19 9.62 
732.65 -489.40 9.64 
731.98 -491.50 9.26 
731.94 -491.91 9.21 
731.90 -492.19 9.18 
734.56 -491.21 9.94 
733.53 -491.82 9.62 
733.50 -492.25 9.58 
734.80 -492.19 9.91 
733.80 -492.72 9.61 
734.10 -492.83 9.67 
733.73 -493.57 9.51 
734.09 -493.97 9.57 
725.92 -479.97 9.05 
727.59 -480.86 9.33 
726.23 -482.08 8.88 
728.42 -481.30 9.47 
726.53 -482.28 8.92 
728.98 -482.21 9.50 
727.26 -482.71 9.05 
729.38 -482.13 9.61 
727.91 -482.80 9.19 
729.93 -482.43 9.70 
731.98 -484.43 9.98 
730.30 -485.83 9.43 
731.49 -485.70 9.73 
733.41 -485.17 10.26 
731.27 -486.44 9.60 
730.37 -486.76 9.35 
730.57 -486.92 9.38 
732.21 -486.66 9.81 
731.88 -486.62 9.73 
731.06 -487.22 9.47 
733.08 -486.62 10.02 
733.17 -486.99 10.01 
734.01 -486.92 10.22 
731.81 -488.14 9.56 
732.73 -488.41 9.76 
733.77 -489.06 9.95 
734.35 -489.73 10.03 
735.22 -489.61 10.27 
735.05 -491.06 10.08 
736.72 -491.07 10.51 
737.19 -491.47 10.60 
737.73 -491.76 10.71 
727.88 -480.95 9.39 
732.29 -480.02 10.53 
730.59 -480.84 10.04 
730.08 -481.06 9.89 
