# .PCD v0.7 - Point Cloud Data file format
VERSION 0.7
FIELDS x y z
SIZE 4 4 4
TYPE F F F
COUNT 1 1 1
WIDTH 69
HEIGHT 1
VIEWPOINT 0 0 0 1 0 0 0
POINTS 69
DATA ascii
739.583500 -427.738100 -3.826773
741.191040 -407.470150 -3.210013
740.785280 -411.273650 -3.481908
740.911870 -411.515140 -3.473918
740.955630 -413.395940 -3.409065
741.039490 -413.633640 -3.409822
741.239260 -413.901060 -3.388900
735.436650 -409.643650 -3.839284
741.301150 -414.949340 -3.082191
741.245790 -415.141450 -3.109178
741.114440 -416.112790 -3.215715
736.581730 -418.897250 -4.356591
736.883540 -418.807950 -4.288641
737.346310 -418.831180 -4.196441
737.782410 -418.667540 -4.095707
739.370420 -421.617310 -3.994588
739.517520 -421.832090 -3.980920
740.357060 -422.512910 -3.861763
740.663570 -422.787570 -3.820268
740.760310 -423.013920 -3.817768
740.881040 -423.229370 -3.809575
741.126890 -423.486760 -3.779153
741.223390 -423.695890 -3.775446
737.255740 -419.134610 -4.004118
736.963500 -419.218440 -4.068773
737.595890 -419.080600 -3.932041
737.580930 -419.917940 -3.995622
739.075930 -419.133580 -3.639264
740.632140 -423.271450 -3.627861
740.794740 -423.512570 -3.612910
741.120480 -423.788730 -3.567791
741.209900 -424.008420 -3.565994
735.907590 -419.024750 -4.101410
737.572450 -418.803530 -3.754091
737.367190 -418.942840 -3.804643
738.266240 -422.448580 -3.869423
739.152040 -423.399510 -3.759315
739.127080 -423.564360 -3.775927
739.734990 -424.283480 -3.705193
739.826420 -424.577420 -3.707730
740.111630 -424.875340 -3.671801
740.259770 -425.109190 -3.658780
740.347960 -425.291750 -3.654108
740.702580 -425.607420 -3.605634
741.143010 -426.156950 -3.556690
741.427190 -426.505980 -3.524763
733.539610 -418.799560 -4.419249
733.386600 -419.115810 -4.471199
734.127750 -418.784970 -4.300962
734.513610 -418.695340 -4.217966
735.881770 -418.792450 -3.951776
736.115720 -418.849330 -3.908978
736.843750 -424.134700 -4.124106
737.268740 -424.505100 -4.064725
737.827390 -425.521850 -4.023456
739.359250 -427.267820 -3.838688
739.557560 -427.893680 -3.842894
728.480350 -417.996000 -5.192663
728.192570 -418.184570 -5.262604
729.862430 -418.227420 -4.933539
730.238710 -418.145940 -4.853274
730.717160 -418.070070 -4.753102
737.305730 -428.612270 -4.162199
726.988040 -418.648010 -5.434444
727.093690 -418.543910 -5.239358
727.524170 -418.647800 -4.977656
728.166140 -418.373470 -4.834808
727.880800 -418.555570 -4.901967
730.192260 -426.643340 -4.711249
