# .PCD v0.7 - Point Cloud Data file format
VERSION 0.7
FIELDS x y z
SIZE 4 4 4
TYPE F F F
COUNT 1 1 1
WIDTH 2257
HEIGHT 1
VIEWPOINT 0 0 0 1 0 0 0
POINTS 2257
DATA ascii
731.95 -520.98 -0.65 
731.65 -521.25 -0.71 
731.14 -522.33 -0.83 
737.79 -512.91 1.06 
737.63 -513.06 1.03 
737.26 -513.81 0.81 
735.05 -517.55 0.01 
739.01 -512.09 1.19 
738.02 -513.85 1.12 
734.15 -518.96 -0.18 
731.90 -522.27 -0.67 
738.29 -513.99 1.10 
734.49 -519.73 -0.12 
732.71 -521.81 -0.50 
741.02 -510.70 1.70 
739.75 -512.32 1.46 
739.59 -512.51 1.30 
740.89 -511.57 1.63 
740.44 -512.23 1.60 
740.18 -512.46 1.55 
738.97 -514.42 1.33 
736.59 -517.79 0.64 
741.45 -511.68 1.81 
740.87 -512.25 1.69 
739.14 -514.86 1.37 
738.66 -515.17 1.27 
734.45 -521.23 -0.14 
739.71 -514.84 1.49 
734.81 -521.43 -0.07 
737.94 -517.65 0.92 
735.44 -521.17 0.06 
740.79 -514.57 1.71 
739.03 -516.70 1.15 
740.73 -517.57 1.49 
721.68 -526.73 -2.75 
722.18 -526.73 -2.65 
731.68 -518.63 -0.06 
731.63 -518.88 -0.07 
736.75 -512.01 1.27 
736.59 -512.20 1.25 
731.78 -518.98 -0.04 
730.48 -520.84 -0.62 
730.67 -521.01 -0.58 
736.89 -512.58 1.32 
736.09 -513.57 1.20 
736.97 -512.67 1.34 
736.78 -513.10 1.24 
736.35 -513.66 1.25 
733.21 -518.23 0.23 
732.48 -519.37 0.10 
730.86 -522.13 -0.56 
737.56 -512.96 1.46 
737.12 -513.46 1.31 
736.92 -513.58 1.32 
733.54 -518.68 0.30 
733.34 -518.81 0.26 
732.92 -519.53 0.19 
737.70 -513.05 1.49 
737.10 -513.88 1.41 
733.37 -519.31 0.27 
739.39 -511.69 1.78 
738.38 -513.05 1.63 
737.80 -513.62 1.54 
734.06 -519.01 0.40 
732.21 -522.23 -0.29 
739.45 -512.24 1.82 
737.91 -513.94 1.57 
741.09 -510.39 2.07 
741.04 -510.64 2.09 
740.45 -511.54 2.00 
740.04 -511.78 1.86 
739.57 -512.53 1.83 
739.48 -512.92 1.85 
740.33 -511.96 1.92 
738.20 -515.45 1.37 
737.87 -515.63 1.49 
734.20 -521.28 0.12 
741.33 -511.55 2.19 
740.47 -512.48 1.96 
738.49 -515.38 1.24 
741.48 -511.87 2.23 
737.45 -517.47 1.06 
735.27 -521.31 0.34 
739.51 -515.51 1.81 
739.25 -516.46 1.42 
739.12 -516.52 1.39 
740.51 -515.57 1.67 
740.32 -516.43 1.99 
741.21 -516.21 1.83 
736.37 -511.95 1.62 
736.74 -512.72 1.74 
732.17 -519.52 0.43 
731.32 -521.12 -0.10 
737.18 -512.86 1.83 
737.69 -513.27 1.95 
733.45 -519.48 0.68 
738.93 -512.75 2.17 
738.51 -513.03 2.08 
741.39 -510.18 2.52 
741.07 -510.62 2.48 
739.14 -512.95 2.22 
738.44 -514.17 1.69 
736.20 -517.43 1.37 
739.76 -513.06 2.36 
739.51 -513.21 2.31 
738.68 -514.32 1.74 
740.66 -512.46 2.51 
740.36 -512.90 2.45 
739.88 -513.05 2.38 
739.76 -513.31 2.37 
741.17 -512.36 2.61 
737.88 -516.92 1.68 
741.29 -513.02 2.68 
740.90 -513.33 2.56 
740.77 -513.55 2.60 
739.54 -515.61 1.97 
736.89 -518.83 1.34 
735.64 -521.63 1.13 
740.08 -515.66 2.08 
740.11 -515.71 2.09 
739.51 -516.64 2.00 
738.76 -518.18 1.70 
741.12 -515.29 2.29 
741.26 -515.51 2.33 
737.82 -522.14 1.21 
716.70 -508.46 -2.00 
721.34 -526.49 -1.92 
721.67 -526.71 -1.86 
721.43 -526.94 -1.90 
721.84 -527.28 -1.82 
722.82 -527.06 -1.64 
722.69 -527.93 -1.66 
723.18 -527.84 -1.57 
729.67 -518.88 0.20 
724.73 -528.54 -1.28 
731.70 -519.14 0.57 
730.95 -519.73 0.46 
735.51 -513.78 1.57 
731.61 -520.05 0.59 
730.43 -521.55 0.42 
731.71 -520.31 0.62 
737.46 -512.83 2.32 
736.97 -513.41 1.82 
736.34 -514.39 1.76 
733.85 -518.23 0.94 
732.41 -520.08 0.74 
731.87 -521.05 0.67 
731.66 -521.04 0.63 
737.35 -513.53 1.90 
737.07 -513.74 1.84 
737.04 -514.27 1.85 
734.09 -518.26 0.99 
732.91 -520.33 0.84 
732.54 -520.85 0.79 
732.27 -521.06 0.75 
737.83 -513.82 1.98 
737.78 -514.21 2.03 
737.43 -514.53 1.98 
741.43 -509.56 3.21 
738.31 -514.33 2.14 
738.07 -514.87 2.13 
737.73 -515.06 2.01 
733.81 -520.82 1.03 
739.96 -512.74 2.81 
738.88 -514.22 2.25 
738.39 -514.63 2.17 
738.24 -515.02 2.10 
737.87 -515.21 2.11 
740.06 -512.75 2.83 
739.06 -514.79 2.32 
739.03 -515.32 2.35 
735.89 -519.62 1.39 
734.46 -521.77 1.19 
739.70 -515.62 2.41 
740.13 -515.98 2.62 
740.87 -516.66 2.68 
721.99 -527.93 -1.37 
722.54 -528.06 -1.27 
723.30 -528.53 -1.13 
730.47 -518.26 0.94 
731.47 -518.10 1.10 
731.51 -518.47 1.13 
729.26 -522.67 0.25 
736.60 -513.41 2.21 
735.96 -514.27 2.17 
735.47 -514.99 2.15 
737.25 -513.01 2.30 
737.58 -513.24 2.38 
737.86 -513.13 2.43 
737.66 -513.60 2.43 
737.34 -514.41 2.45 
733.96 -518.89 1.59 
741.30 -509.12 3.48 
740.94 -509.24 3.42 
738.02 -513.69 2.51 
737.71 -514.08 2.48 
738.83 -513.62 2.66 
738.32 -514.39 2.63 
732.72 -521.96 1.32 
739.17 -513.58 2.72 
738.36 -514.67 2.66 
738.10 -514.93 2.63 
734.45 -520.38 1.77 
740.34 -512.74 3.33 
738.15 -515.49 2.66 
739.96 -513.91 2.91 
734.56 -521.94 1.66 
740.54 -513.65 3.01 
741.22 -513.05 3.55 
740.66 -514.05 3.07 
739.43 -515.76 2.96 
741.04 -514.09 3.16 
739.89 -515.78 3.06 
739.00 -518.31 2.53 
739.70 -517.98 2.65 
719.98 -525.92 -1.26 
719.62 -526.54 -1.31 
721.16 -525.16 -1.09 
719.72 -526.89 -1.28 
722.52 -525.36 -0.85 
722.00 -525.73 -0.93 
722.68 -525.58 -0.82 
723.27 -525.55 -0.72 
722.89 -525.72 -0.78 
723.58 -525.51 -0.67 
723.48 -526.18 -0.66 
724.04 -525.90 -0.58 
724.12 -526.06 -0.56 
723.87 -527.04 -0.57 
723.69 -527.83 -0.58 
724.66 -526.62 -0.45 
729.59 -520.12 0.89 
724.28 -528.37 -0.46 
730.74 -519.68 1.06 
729.53 -521.21 0.94 
731.05 -519.66 1.11 
731.95 -519.88 1.28 
737.21 -512.71 2.83 
731.85 -520.70 1.31 
732.52 -520.47 1.42 
731.22 -522.98 1.33 
733.35 -520.36 1.56 
737.77 -514.70 3.03 
733.53 -521.05 1.64 
739.51 -513.16 3.20 
737.87 -514.96 3.13 
733.77 -522.31 1.76 
738.65 -515.34 3.27 
741.35 -512.26 3.92 
738.77 -518.05 3.03 
739.32 -518.08 3.09 
736.81 -524.17 2.46 
737.24 -524.33 2.55 
731.00 -520.47 1.81 
730.75 -520.60 1.78 
731.89 -519.93 1.91 
731.28 -520.53 1.86 
732.26 -520.21 2.00 
731.75 -520.63 1.95 
732.28 -520.27 2.01 
731.87 -520.85 1.98 
732.36 -521.26 2.03 
737.86 -514.41 3.50 
740.37 -513.17 3.83 
740.73 -513.04 3.89 
720.91 -525.97 -0.23 
720.94 -526.41 -0.20 
721.69 -526.43 -0.08 
721.27 -526.63 -0.14 
721.86 -526.66 -0.04 
721.94 -527.02 -0.01 
722.10 -527.70 0.04 
722.94 -527.09 0.15 
723.41 -527.05 0.22 
723.74 -527.50 0.30 
730.20 -521.31 1.74 
732.84 -522.83 2.31 
739.48 -513.33 4.30 
733.53 -522.24 2.39 
734.46 -522.22 2.56 
734.53 -522.61 2.60 
735.51 -522.89 2.81 
722.03 -527.90 0.04 
721.77 -527.82 0.00 
730.53 -520.97 2.38 
731.45 -520.52 2.55 
731.24 -520.55 2.52 
730.84 -520.84 2.42 
731.94 -520.52 2.57 
731.47 -521.07 2.54 
731.57 -521.27 2.57 
733.62 -521.74 3.04 
733.83 -521.90 2.99 
733.00 -522.87 2.93 
721.47 -527.05 0.49 
732.02 -519.69 3.19 
732.92 -522.89 3.04 
733.38 -523.77 3.06 
739.25 -516.94 4.73 
739.75 -517.08 4.84 
730.66 -520.63 3.10 
733.84 -521.25 3.68 
733.95 -521.67 3.72 
732.16 -523.49 3.69 
735.07 -509.33 -0.17 
733.26 -511.95 -0.87 
732.98 -512.17 -0.94 
732.67 -512.43 -1.02 
735.29 -509.54 -0.13 
734.21 -511.23 -0.63 
733.87 -511.42 -0.71 
733.59 -511.65 -0.79 
735.56 -509.66 -0.07 
734.93 -510.92 -0.45 
734.67 -511.01 -0.52 
734.34 -511.26 -0.60 
735.14 -511.03 -0.41 
735.58 -511.38 -0.33 
735.41 -511.34 -0.37 
735.80 -511.48 -0.29 
736.11 -511.70 -0.23 
736.28 -511.93 -0.21 
736.39 -512.17 -0.19 
736.65 -512.37 -0.15 
737.13 -512.44 -0.04 
737.87 -511.95 0.33 
737.47 -512.54 0.02 
737.95 -512.34 0.33 
737.83 -512.62 0.10 
737.54 -513.16 0.01 
738.28 -512.89 0.19 
738.03 -513.06 0.12 
737.89 -513.29 0.08 
737.54 -514.08 -0.03 
738.76 -512.58 0.40 
738.83 -512.96 0.30 
740.18 -511.21 0.68 
740.21 -511.72 0.85 
738.95 -513.17 0.32 
738.13 -514.40 0.08 
740.86 -511.54 0.81 
740.49 -511.83 0.72 
739.01 -513.89 0.29 
738.51 -514.39 0.16 
741.06 -511.49 0.86 
739.56 -513.83 0.61 
739.38 -514.07 0.37 
739.47 -514.54 0.36 
739.12 -515.49 0.43 
738.99 -516.05 0.38 
738.47 -517.06 0.21 
738.25 -517.41 0.15 
738.08 -518.07 0.08 
740.98 -514.67 0.68 
741.50 -514.58 0.80 
740.71 -517.09 0.51 
740.83 -517.09 0.73 
735.83 -509.48 0.00 
737.33 -510.05 0.30 
737.17 -511.69 0.38 
736.12 -513.34 0.11 
737.29 -511.98 0.40 
736.64 -513.08 0.23 
736.40 -513.28 0.17 
737.66 -511.91 0.48 
732.61 -519.96 -0.80 
731.57 -521.35 -1.05 
730.81 -522.53 -1.25 
738.15 -512.86 0.56 
733.07 -520.11 -0.71 
730.99 -523.22 -1.23 
741.41 -509.10 1.36 
738.53 -512.98 0.64 
734.95 -518.05 -0.25 
733.80 -519.71 -0.54 
733.38 -520.26 -0.64 
733.10 -520.63 -0.71 
731.23 -523.12 -1.17 
741.40 -509.85 1.34 
741.07 -510.30 1.25 
738.89 -513.12 0.71 
735.28 -518.58 -0.20 
740.78 -511.20 1.00 
739.08 -513.91 0.73 
735.83 -518.21 -0.07 
739.08 -514.27 0.72 
736.42 -518.41 0.05 
738.47 -515.91 0.55 
736.33 -519.17 0.01 
739.14 -515.88 0.70 
738.86 -516.14 0.63 
738.55 -516.23 0.56 
739.28 -516.94 0.70 
741.25 -515.46 1.17 
740.08 -516.88 0.88 
740.95 -517.30 1.06 
739.31 -519.61 0.64 
730.16 -515.47 -0.95 
722.24 -527.15 -3.17 
736.62 -511.86 0.64 
732.55 -517.55 -0.50 
736.71 -511.88 0.65 
736.70 -511.97 0.65 
736.02 -512.94 0.51 
732.53 -518.00 -0.51 
737.56 -511.78 0.75 
736.71 -512.50 0.65 
732.53 -518.43 -0.53 
732.57 -518.78 -0.53 
737.62 -512.49 0.85 
737.05 -513.12 0.72 
736.93 -513.14 0.70 
732.77 -519.25 -0.50 
738.12 -511.93 0.95 
737.75 -512.41 0.87 
737.24 -513.49 0.76 
734.05 -517.76 0.09 
733.63 -518.31 0.00 
732.81 -519.55 -0.49 
737.16 -513.95 0.75 
732.78 -520.18 -0.52 
741.36 -509.27 1.65 
739.54 -511.60 1.25 
739.42 -512.00 1.23 
738.62 -513.02 0.90 
741.40 -509.27 1.97 
740.05 -511.76 1.36 
739.80 -511.78 1.31 
738.59 -513.62 1.05 
738.22 -514.30 0.97 
735.56 -518.21 0.12 
732.47 -522.57 -0.64 
741.36 -510.15 1.82 
740.77 -511.23 1.52 
740.22 -511.85 1.40 
740.22 -512.07 1.27 
738.74 -514.02 1.08 
735.65 -518.56 0.13 
740.69 -511.84 1.50 
739.17 -514.14 0.99 
738.38 -515.49 1.00 
737.32 -516.85 0.53 
736.90 -517.43 0.69 
736.31 -518.17 0.28 
735.90 -518.98 0.17 
738.50 -515.88 0.81 
737.54 -517.38 0.56 
737.34 -517.63 0.78 
740.07 -514.53 1.17 
737.69 -517.22 0.85 
737.28 -518.01 0.77 
739.16 -516.15 1.17 
739.00 -516.17 1.14 
738.40 -517.28 1.01 
739.01 -517.17 0.88 
738.68 -517.40 1.07 
739.82 -516.57 1.31 
737.78 -519.93 0.55 
730.58 -520.07 -0.62 
730.00 -520.57 -0.74 
729.31 -521.84 -0.89 
736.83 -512.05 0.99 
736.64 -512.34 1.03 
736.32 -512.89 0.98 
730.84 -520.46 -0.57 
737.17 -511.91 1.13 
736.91 -512.38 1.03 
736.41 -512.90 0.99 
731.35 -520.61 -0.47 
730.87 -520.89 -0.57 
729.73 -522.32 -0.80 
737.23 -512.64 1.16 
737.11 -512.91 1.09 
735.60 -514.84 0.87 
731.44 -520.90 -0.45 
737.86 -512.52 1.28 
737.56 -512.81 1.23 
737.26 -513.13 1.17 
732.88 -519.81 -0.15 
732.17 -520.86 -0.30 
731.98 -520.96 -0.34 
731.61 -521.24 -0.42 
730.05 -523.61 -0.74 
738.71 -511.81 1.45 
738.14 -512.47 1.26 
737.79 -513.17 1.29 
737.61 -513.65 1.26 
737.29 -514.23 1.20 
732.20 -521.37 -0.30 
730.22 -523.73 -0.71 
737.82 -513.95 1.31 
734.08 -519.08 0.10 
732.56 -521.53 -0.22 
740.87 -510.41 2.22 
740.75 -510.74 1.86 
737.91 -514.21 1.33 
732.84 -521.76 -0.17 
741.13 -510.61 2.12 
739.82 -512.51 1.70 
734.61 -519.60 0.52 
741.46 -510.52 2.36 
740.56 -511.82 1.85 
740.35 -512.16 1.81 
740.21 -512.38 1.78 
739.97 -512.59 1.74 
738.76 -514.46 1.52 
737.99 -515.91 1.39 
736.97 -517.21 1.01 
735.34 -519.35 0.36 
741.37 -511.88 2.03 
740.75 -512.34 1.85 
738.97 -514.97 1.58 
738.11 -516.15 1.42 
737.13 -517.24 1.04 
740.10 -514.10 1.80 
739.08 -515.18 1.60 
738.35 -516.40 1.48 
741.24 -513.09 2.02 
738.72 -516.88 1.57 
739.22 -516.79 1.67 
739.02 -516.92 1.63 
736.21 -521.29 0.54 
740.37 -516.87 1.72 
739.98 -520.54 1.34 
721.81 -526.81 -2.41 
722.40 -526.81 -2.29 
722.23 -527.02 -2.33 
722.44 -527.35 -2.12 
722.80 -527.28 -2.21 
723.00 -527.50 -2.18 
723.48 -527.55 -2.08 
730.06 -520.18 -0.11 
736.37 -511.91 1.34 
731.77 -518.52 0.18 
731.56 -518.70 0.15 
736.65 -512.24 1.42 
735.68 -513.66 1.29 
731.60 -519.30 0.17 
730.83 -520.46 -0.25 
730.26 -521.12 -0.06 
729.04 -522.65 -0.62 
737.33 -511.82 1.54 
736.78 -512.24 1.43 
731.93 -519.39 0.23 
736.93 -513.02 1.49 
736.45 -513.76 1.45 
733.16 -518.39 0.46 
732.33 -519.45 0.31 
737.91 -512.10 1.65 
737.43 -512.99 1.61 
737.27 -513.36 1.59 
737.06 -513.54 1.56 
736.82 -514.10 1.54 
733.19 -518.87 0.47 
731.34 -521.28 0.15 
738.05 -512.54 1.69 
737.57 -513.12 1.65 
737.53 -513.49 1.65 
733.75 -519.05 0.59 
733.45 -519.19 0.53 
733.25 -519.35 0.49 
731.56 -521.74 -0.11 
739.03 -512.27 1.91 
738.55 -512.62 1.82 
738.10 -513.27 1.76 
737.74 -513.82 1.71 
737.57 -514.06 1.69 
733.95 -519.22 0.63 
739.34 -512.41 1.98 
738.99 -512.58 1.92 
738.62 -513.31 1.87 
738.37 -513.54 1.83 
737.81 -514.11 1.74 
737.75 -514.81 1.76 
733.65 -520.26 0.59 
732.17 -522.39 0.34 
740.33 -511.93 2.18 
739.79 -512.58 2.09 
739.55 -512.75 2.04 
732.64 -522.67 0.44 
741.41 -510.79 2.71 
741.03 -511.46 2.31 
740.61 -511.57 2.22 
738.35 -515.05 1.80 
740.78 -512.02 2.23 
741.26 -512.18 2.36 
737.42 -517.69 1.31 
733.57 -522.92 0.63 
739.78 -515.14 2.09 
739.62 -515.31 2.18 
740.53 -514.60 2.34 
739.75 -515.57 2.22 
739.06 -516.68 1.98 
738.01 -518.60 1.46 
740.27 -515.47 2.33 
740.04 -515.89 2.30 
739.22 -518.89 1.72 
741.42 -517.19 2.16 
740.02 -519.08 1.90 
723.61 -526.56 -1.23 
736.43 -511.64 1.72 
735.95 -512.16 1.66 
736.29 -512.12 1.73 
731.61 -519.20 0.75 
730.54 -520.26 0.37 
730.46 -520.89 0.37 
736.62 -512.86 1.84 
736.93 -513.09 1.92 
736.67 -513.53 1.91 
736.54 -513.54 1.87 
737.55 -512.70 2.02 
737.18 -512.98 1.96 
736.82 -513.57 1.93 
735.86 -514.68 1.82 
732.66 -519.35 0.76 
737.62 -513.46 2.09 
737.16 -513.76 2.01 
733.77 -518.47 1.13 
739.34 -511.61 2.34 
738.50 -512.66 2.21 
738.07 -513.48 2.18 
737.80 -513.72 2.14 
740.29 -510.83 2.81 
738.63 -513.48 2.29 
738.13 -513.70 2.21 
733.95 -520.09 1.24 
731.47 -523.28 0.22 
741.01 -510.62 2.96 
739.46 -512.87 2.43 
739.19 -513.28 2.40 
738.59 -514.20 2.34 
734.59 -519.52 1.34 
741.34 -510.42 3.01 
741.20 -510.63 3.00 
739.91 -512.70 2.51 
739.57 -513.20 2.47 
738.41 -514.82 2.34 
740.48 -512.68 2.64 
739.67 -513.80 2.54 
738.78 -515.00 2.43 
740.80 -512.63 2.70 
740.83 -512.90 2.73 
740.28 -513.61 2.66 
740.97 -513.17 2.78 
740.41 -513.98 2.71 
739.64 -515.31 2.57 
739.82 -515.35 2.61 
735.77 -521.64 1.42 
740.69 -514.87 2.84 
738.11 -518.84 1.83 
741.26 -514.79 2.88 
740.92 -515.34 2.84 
740.43 -515.84 2.76 
739.87 -516.67 2.30 
721.16 -526.00 -1.69 
721.27 -526.69 -1.67 
721.56 -526.75 -1.61 
721.87 -527.10 -1.55 
721.77 -527.37 -1.56 
722.51 -527.08 -1.43 
722.88 -527.32 -1.36 
729.77 -519.15 0.41 
723.51 -527.80 -1.23 
723.64 -528.05 -1.20 
723.55 -528.68 -1.21 
724.61 -528.32 -1.02 
730.87 -519.94 0.64 
724.75 -528.49 -0.99 
731.72 -519.59 0.79 
729.25 -522.76 0.46 
736.50 -513.52 2.28 
735.82 -514.47 2.24 
735.66 -514.61 2.22 
731.66 -520.49 0.81 
731.31 -521.07 0.77 
730.30 -522.24 0.63 
732.33 -520.18 0.93 
731.31 -521.62 0.80 
737.58 -513.52 2.49 
737.01 -514.06 2.43 
736.45 -514.45 2.36 
736.30 -514.67 2.35 
732.44 -520.34 0.95 
731.49 -521.68 0.83 
737.15 -514.23 2.50 
736.68 -515.21 2.02 
732.52 -521.31 1.01 
732.16 -521.36 0.95 
732.20 -521.85 0.97 
741.21 -509.44 3.54 
740.63 -510.10 3.16 
738.15 -513.96 2.65 
737.44 -514.39 2.59 
732.70 -521.40 1.05 
738.38 -514.06 2.71 
733.44 -521.05 1.18 
732.80 -521.75 1.09 
731.49 -523.61 0.62 
739.84 -512.93 2.91 
739.50 -513.33 2.91 
738.97 -513.90 2.82 
738.88 -513.91 2.80 
738.06 -515.63 2.33 
740.16 -513.23 3.01 
739.06 -514.69 2.91 
738.46 -515.64 2.41 
740.19 -513.52 3.05 
739.65 -514.31 3.00 
734.13 -522.39 1.38 
740.30 -515.70 2.81 
739.93 -515.76 2.73 
739.79 -516.05 2.73 
737.18 -522.55 2.00 
721.49 -524.97 -0.84 
721.57 -526.56 -1.20 
723.29 -525.80 -0.50 
723.07 -526.02 -0.53 
722.22 -527.01 -1.07 
723.66 -525.60 -0.44 
723.76 -525.97 -0.41 
723.28 -526.37 -0.48 
724.17 -526.10 -0.33 
723.90 -526.19 -0.37 
724.38 -526.23 -0.29 
724.19 -526.40 -0.31 
724.58 -526.92 -0.23 
730.63 -518.58 1.11 
729.57 -520.27 1.03 
731.27 -518.77 1.24 
731.07 -519.82 1.27 
735.23 -514.71 2.15 
731.82 -519.14 1.25 
731.33 -519.88 1.32 
737.01 -512.84 2.72 
735.35 -515.00 2.20 
731.67 -520.16 1.40 
737.29 -512.56 2.74 
737.34 -512.95 2.80 
731.15 -521.63 1.40 
737.57 -513.10 2.86 
732.50 -520.35 1.56 
732.11 -520.87 1.53 
731.59 -521.52 1.30 
731.29 -521.72 1.25 
740.82 -509.09 3.94 
732.53 -520.92 1.61 
733.08 -520.89 1.71 
741.38 -509.95 3.65 
738.69 -513.50 3.14 
737.53 -515.04 2.63 
733.48 -520.75 1.77 
733.54 -521.09 1.81 
739.17 -513.44 3.23 
739.25 -513.76 3.29 
738.73 -514.64 3.28 
740.41 -513.01 3.45 
741.25 -513.27 3.68 
736.10 -522.87 2.21 
719.74 -525.91 -1.10 
719.57 -526.82 -1.10 
720.08 -526.51 -1.02 
720.52 -526.74 -0.94 
721.51 -527.02 -0.76 
722.46 -526.38 -0.62 
721.79 -527.04 -0.71 
724.04 -527.42 -0.30 
730.79 -518.45 1.68 
729.69 -521.34 1.12 
731.61 -520.13 1.91 
733.37 -518.72 2.17 
733.89 -518.99 2.24 
732.97 -520.23 2.24 
737.34 -514.91 3.11 
733.29 -520.33 2.30 
732.74 -520.86 2.16 
738.59 -513.37 3.52 
737.63 -514.89 3.09 
737.94 -514.96 3.16 
734.13 -520.45 2.47 
740.48 -512.36 3.78 
740.00 -512.78 3.74 
738.42 -515.22 3.29 
733.70 -522.81 1.96 
739.10 -515.53 3.49 
739.59 -515.80 3.60 
739.14 -516.06 3.55 
722.28 -525.92 0.15 
722.57 -525.90 0.19 
723.20 -525.73 0.29 
723.38 -526.13 0.34 
723.88 -526.35 0.43 
724.42 -527.17 0.24 
731.09 -520.69 1.94 
731.91 -520.46 2.07 
732.08 -520.68 2.12 
732.09 -521.35 2.18 
730.76 -522.93 2.08 
737.78 -514.53 3.51 
737.95 -514.94 3.73 
733.09 -522.45 2.46 
732.73 -523.06 2.45 
734.30 -522.39 2.68 
736.22 -521.10 2.93 
739.86 -516.20 4.19 
720.10 -526.18 -0.18 
720.95 -526.27 -0.05 
720.46 -526.56 -0.11 
720.87 -526.85 -0.03 
721.51 -526.70 0.07 
721.21 -526.76 0.02 
722.41 -527.06 0.23 
721.66 -527.97 0.16 
722.99 -527.58 0.36 
723.45 -527.49 0.43 
723.73 -527.65 0.48 
730.27 -520.67 2.43 
731.16 -520.65 2.57 
730.78 -520.77 2.50 
731.55 -520.34 2.60 
732.32 -520.37 2.73 
732.07 -520.71 2.70 
733.69 -521.74 3.13 
722.95 -525.87 0.82 
732.12 -519.78 3.22 
732.86 -522.09 3.02 
732.85 -523.55 3.19 
730.52 -520.49 3.12 
730.87 -520.75 3.15 
731.40 -520.97 3.31 
733.91 -521.25 3.73 
734.79 -522.68 4.09 
735.32 -522.61 4.13 
735.68 -526.85 3.88 
721.04 -526.60 1.48 
721.78 -526.38 1.57 
733.48 -510.95 -0.27 
734.10 -511.08 -0.14 
733.82 -511.22 -0.21 
734.64 -510.60 0.00 
734.35 -510.87 -0.08 
732.58 -514.32 -0.81 
733.07 -514.34 -0.70 
733.44 -514.42 -0.63 
736.18 -512.09 0.27 
735.13 -514.90 -0.28 
735.29 -515.14 -0.26 
735.41 -515.28 -0.24 
737.19 -513.29 0.34 
735.45 -515.60 -0.24 
735.41 -515.89 -0.26 
738.22 -512.63 0.50 
737.37 -513.87 0.26 
735.65 -516.19 -0.23 
738.95 -512.46 0.66 
738.84 -512.49 0.64 
738.52 -512.82 0.55 
737.88 -514.01 0.36 
737.60 -514.11 0.29 
736.16 -516.13 -0.11 
735.90 -516.19 -0.17 
738.97 -512.71 0.75 
738.84 -513.05 0.61 
738.50 -513.20 0.53 
740.81 -511.17 1.12 
740.45 -511.71 1.02 
739.33 -512.90 0.72 
738.36 -514.24 0.45 
741.14 -511.53 1.18 
739.59 -513.15 0.77 
739.62 -513.54 0.95 
736.11 -518.44 -0.23 
735.92 -518.71 -0.29 
739.20 -515.21 0.59 
737.17 -518.20 0.19 
738.79 -516.22 0.45 
737.88 -518.35 0.34 
738.47 -518.54 0.46 
738.34 -518.50 0.44 
738.59 -518.87 0.28 
740.68 -516.83 1.02 
741.06 -516.99 0.90 
739.43 -518.70 0.66 
741.37 -517.31 0.95 
734.85 -510.43 0.05 
729.31 -522.44 -1.25 
737.55 -511.54 0.75 
730.83 -520.83 -0.89 
730.35 -521.14 -1.00 
729.50 -522.48 -1.21 
737.81 -511.63 0.93 
737.63 -511.68 0.77 
737.55 -512.30 0.73 
737.19 -512.84 0.65 
736.79 -513.34 0.55 
736.45 -513.36 0.47 
731.29 -521.10 -0.80 
731.12 -521.05 -0.84 
730.76 -521.65 -0.93 
729.99 -522.67 -1.11 
737.80 -512.08 0.79 
737.24 -513.22 0.65 
737.08 -513.58 0.60 
731.26 -521.56 -0.82 
738.28 -512.68 0.88 
737.16 -514.02 0.61 
734.59 -517.52 -0.02 
733.68 -518.80 -0.24 
733.32 -518.99 -0.32 
731.85 -521.04 -0.68 
731.57 -521.70 -0.76 
735.37 -517.21 0.16 
735.05 -517.30 0.08 
734.85 -517.67 0.03 
732.61 -520.87 -0.52 
741.14 -509.87 1.56 
739.00 -512.93 1.03 
738.58 -513.09 0.94 
735.07 -517.91 0.08 
733.64 -520.22 -0.28 
732.65 -521.35 -0.52 
741.29 -509.97 1.59 
740.82 -511.15 1.70 
739.95 -511.74 1.50 
739.02 -513.06 1.03 
740.95 -511.12 1.49 
735.04 -519.29 0.03 
733.50 -521.66 -0.35 
739.22 -514.15 1.05 
737.61 -516.85 0.64 
735.18 -519.98 0.05 
740.01 -513.82 1.23 
739.10 -515.57 0.99 
737.74 -516.95 0.67 
739.12 -516.04 0.98 
737.99 -517.49 0.71 
736.15 -519.94 0.25 
738.40 -517.53 0.79 
740.05 -516.58 1.17 
741.38 -515.45 1.48 
741.16 -515.86 1.43 
740.72 -517.00 1.30 
739.27 -519.28 0.94 
741.02 -517.05 1.37 
739.43 -520.59 0.94 
738.62 -521.14 0.75 
736.82 -511.90 0.94 
735.98 -512.95 0.77 
736.90 -511.91 0.96 
736.94 -512.45 0.97 
736.33 -512.90 0.84 
736.40 -513.22 0.72 
737.74 -511.72 1.14 
737.21 -512.37 0.91 
737.02 -512.74 0.99 
738.18 -511.43 1.23 
737.71 -512.41 1.13 
732.70 -519.62 -0.22 
734.79 -517.38 0.52 
730.96 -522.23 -0.65 
739.62 -511.16 1.54 
739.29 -511.71 1.47 
733.38 -519.45 0.23 
733.16 -520.41 -0.14 
741.46 -509.09 2.23 
741.28 -509.21 2.05 
739.50 -511.89 1.51 
734.04 -519.46 0.07 
740.98 -510.67 2.16 
740.83 -510.85 1.80 
740.67 -511.03 1.77 
739.77 -512.17 1.57 
738.75 -513.71 1.35 
733.06 -521.68 -0.19 
741.50 -510.22 2.27 
741.30 -510.70 2.07 
741.14 -510.97 1.87 
740.34 -511.98 1.77 
740.17 -512.12 1.66 
734.70 -519.76 0.20 
734.75 -519.94 0.51 
741.36 -511.19 1.92 
740.96 -511.91 1.83 
739.07 -514.36 1.42 
737.68 -516.71 1.01 
737.23 -517.26 1.03 
737.08 -517.18 1.00 
735.50 -519.28 0.67 
738.55 -516.11 1.31 
738.21 -516.40 1.24 
736.39 -519.34 0.57 
735.96 -519.73 0.47 
735.79 -519.72 0.43 
739.18 -515.73 1.24 
737.90 -517.29 1.17 
737.57 -517.83 1.10 
739.15 -516.33 1.44 
737.87 -518.02 1.17 
739.64 -516.65 1.32 
739.34 -517.09 1.25 
739.43 -517.75 1.50 
740.12 -517.39 1.65 
740.92 -517.05 1.82 
739.29 -520.45 1.16 
740.74 -519.01 1.50 
721.62 -526.73 -2.14 
722.03 -526.80 -2.06 
722.64 -526.92 -1.94 
736.35 -511.79 1.20 
730.44 -519.59 -0.37 
729.83 -520.50 -0.49 
736.51 -512.02 1.24 
730.41 -520.41 -0.05 
730.15 -520.68 -0.43 
737.27 -511.78 1.39 
736.82 -512.06 1.30 
736.77 -512.34 1.30 
730.95 -520.46 -0.27 
731.01 -520.56 -0.26 
730.49 -520.92 -0.36 
737.67 -511.86 1.48 
737.20 -512.25 1.39 
736.95 -512.54 1.34 
736.49 -513.46 1.27 
734.28 -516.66 0.89 
731.30 -520.52 -0.04 
731.09 -520.77 -0.24 
729.91 -522.59 -0.48 
737.34 -512.92 1.43 
737.20 -513.12 1.41 
731.71 -520.90 -0.11 
731.44 -520.90 -0.17 
737.99 -512.31 1.55 
737.70 -512.85 1.50 
737.51 -513.20 1.47 
736.90 -513.82 1.36 
733.15 -519.59 0.50 
731.95 -521.02 0.04 
739.10 -511.62 2.12 
737.83 -513.46 1.46 
732.15 -521.42 -0.03 
740.21 -510.89 2.33 
739.58 -511.88 2.24 
738.40 -513.47 1.67 
738.03 -513.97 1.60 
737.97 -513.93 1.48 
737.75 -514.37 1.55 
733.07 -521.03 0.32 
732.59 -521.27 0.06 
732.06 -522.14 -0.04 
741.39 -509.93 2.55 
741.15 -510.44 2.52 
733.39 -521.16 0.39 
733.02 -521.62 0.15 
741.48 -510.53 2.60 
740.54 -511.61 2.25 
740.01 -512.33 1.99 
733.45 -521.95 0.24 
741.48 -511.12 2.63 
741.17 -511.33 2.55 
741.34 -511.57 2.26 
740.42 -512.23 2.40 
738.94 -514.42 1.81 
738.56 -515.19 1.74 
738.15 -515.75 1.67 
737.24 -516.78 1.33 
741.46 -511.63 2.29 
739.47 -514.84 1.93 
739.12 -514.92 1.86 
738.81 -515.47 1.80 
738.68 -515.49 1.78 
738.24 -516.36 1.54 
737.65 -517.03 1.42 
736.53 -519.00 1.18 
733.60 -523.02 0.27 
739.79 -514.93 2.00 
739.02 -516.18 1.70 
735.57 -520.89 0.68 
739.16 -516.34 1.90 
739.10 -516.46 1.72 
740.03 -516.13 1.91 
736.54 -521.01 0.88 
740.15 -516.34 1.94 
739.63 -517.01 1.95 
737.03 -521.03 0.99 
737.12 -520.94 1.30 
740.29 -517.76 2.18 
741.50 -517.09 2.43 
740.50 -520.63 1.73 
722.20 -526.83 -1.70 
722.56 -527.50 -1.96 
722.98 -527.46 -1.55 
722.33 -528.00 -2.01 
723.07 -528.13 -1.87 
723.37 -527.98 -1.80 
736.05 -511.99 1.87 
730.05 -519.90 0.13 
736.56 -511.51 1.93 
731.61 -518.53 0.41 
731.19 -519.16 0.34 
730.01 -520.69 0.14 
736.67 -512.16 1.64 
736.09 -512.83 1.55 
735.83 -513.44 1.53 
731.80 -519.14 0.46 
737.01 -512.71 1.74 
735.71 -514.60 1.51 
732.18 -519.26 0.53 
730.84 -520.89 0.31 
729.70 -522.71 0.12 
737.27 -512.83 1.78 
736.49 -513.64 1.67 
733.27 -518.37 0.73 
732.94 -518.93 0.68 
732.60 -519.55 0.62 
731.46 -521.03 0.43 
737.63 -512.93 1.87 
737.34 -513.39 1.83 
736.90 -513.98 1.77 
733.30 -518.72 0.74 
733.32 -519.34 0.76 
730.72 -522.71 0.32 
738.68 -512.52 2.07 
738.22 -513.12 2.00 
738.00 -513.26 1.96 
737.60 -513.97 1.91 
733.91 -518.92 0.87 
731.61 -521.95 0.18 
731.61 -522.46 0.18 
731.09 -522.80 0.39 
730.64 -523.16 -0.02 
740.55 -510.32 2.70 
739.30 -512.11 2.19 
737.95 -513.93 1.99 
740.18 -511.36 2.68 
739.56 -512.41 2.26 
739.08 -513.10 2.19 
738.47 -513.78 2.09 
738.27 -514.04 2.06 
734.09 -519.75 0.92 
732.56 -522.08 0.67 
740.22 -512.37 2.40 
739.71 -512.74 2.31 
738.75 -514.11 2.16 
734.24 -520.28 0.97 
732.64 -522.51 0.69 
740.47 -512.30 2.82 
740.45 -512.61 2.46 
738.44 -514.98 2.06 
739.43 -514.80 2.25 
739.09 -515.00 2.28 
740.85 -513.22 2.58 
739.54 -514.89 2.28 
738.93 -515.84 2.29 
740.51 -514.54 2.57 
739.83 -515.40 2.46 
740.35 -515.54 2.52 
738.25 -518.09 2.09 
738.16 -518.13 1.73 
741.11 -514.63 2.71 
740.53 -515.55 2.50 
739.48 -516.85 2.45 
720.43 -525.75 -1.56 
721.13 -526.42 -1.42 
721.39 -526.38 -1.37 
722.09 -526.20 -1.25 
721.89 -527.00 -1.27 
722.33 -527.21 -1.19 
723.61 -526.32 -0.97 
729.68 -518.83 0.61 
723.70 -526.86 -0.94 
724.27 -526.51 -0.84 
723.99 -528.11 -0.86 
724.29 -528.03 -0.81 
731.82 -518.45 0.84 
731.52 -518.94 0.95 
724.76 -528.03 -0.72 
724.44 -528.26 -0.78 
731.70 -519.09 0.99 
731.05 -519.70 0.89 
731.01 -519.90 0.90 
736.78 -512.71 2.06 
736.47 -513.23 2.04 
731.77 -519.60 1.02 
731.61 -520.19 1.02 
737.34 -512.66 2.22 
737.05 -513.08 2.14 
735.99 -514.57 2.04 
732.60 -519.24 1.00 
737.85 -512.64 2.31 
737.45 -513.48 2.25 
737.32 -513.61 2.24 
736.71 -514.28 2.16 
733.77 -518.29 1.35 
733.43 -518.98 1.31 
730.44 -522.75 0.66 
738.60 -512.50 2.42 
737.85 -513.31 2.32 
737.71 -513.70 2.33 
736.66 -515.15 2.21 
732.56 -520.35 1.21 
732.61 -520.82 1.24 
738.89 -512.44 2.51 
738.16 -513.50 2.40 
737.84 -514.24 2.39 
736.77 -515.10 2.23 
734.20 -519.16 1.47 
741.11 -510.25 3.14 
740.44 -510.66 3.02 
739.32 -512.91 2.61 
738.76 -513.60 2.54 
734.82 -519.05 1.59 
733.24 -520.82 1.36 
741.47 -510.26 3.23 
741.32 -510.34 3.20 
739.63 -512.54 2.65 
739.55 -513.02 2.66 
739.39 -513.24 2.64 
738.76 -514.06 2.57 
738.41 -514.42 2.52 
738.00 -515.11 2.48 
734.24 -520.41 1.54 
731.20 -524.59 0.45 
740.19 -512.91 2.80 
738.86 -514.73 2.64 
738.76 -514.75 2.62 
738.24 -515.22 2.54 
737.55 -516.00 2.45 
740.59 -512.54 2.86 
739.79 -513.66 2.76 
738.62 -515.39 2.63 
734.20 -521.59 1.36 
741.09 -512.57 2.96 
741.07 -513.02 3.00 
740.58 -513.81 2.95 
739.57 -514.96 2.76 
740.55 -514.88 3.02 
740.59 -515.15 3.05 
740.01 -515.87 2.97 
740.20 -515.92 3.01 
734.69 -524.15 1.51 
741.49 -516.42 3.23 
739.36 -521.05 2.63 
716.54 -508.18 -1.70 
716.54 -508.67 -1.69 
720.80 -526.51 -1.48 
721.72 -525.91 -0.90 
721.46 -526.80 -1.36 
721.32 -526.95 -1.38 
722.51 -525.64 -0.77 
721.92 -527.43 -1.26 
723.62 -527.64 -0.53 
730.60 -518.40 1.30 
730.05 -518.96 1.15 
723.45 -528.62 -0.96 
731.48 -518.20 1.44 
731.52 -518.54 1.47 
729.30 -521.42 0.64 
724.46 -528.78 -0.76 
736.50 -512.63 2.38 
729.20 -522.65 0.68 
724.86 -528.73 -0.69 
735.39 -514.66 2.35 
737.40 -512.58 2.79 
736.96 -513.24 2.61 
736.63 -513.43 2.48 
735.58 -514.72 2.39 
733.82 -517.73 1.84 
731.54 -520.95 1.04 
736.57 -514.31 2.55 
731.77 -521.08 1.09 
737.76 -512.91 3.04 
737.60 -513.31 2.66 
737.47 -513.96 2.70 
737.16 -514.08 2.64 
732.22 -521.06 1.17 
732.00 -521.08 1.13 
741.13 -509.51 3.69 
733.96 -518.95 1.95 
732.56 -521.08 1.24 
741.33 -509.69 3.76 
741.22 -509.80 3.75 
738.31 -513.82 2.85 
737.64 -514.88 2.82 
734.77 -518.88 2.10 
732.72 -521.84 1.31 
741.47 -510.03 3.85 
739.79 -512.74 3.45 
739.02 -513.72 3.00 
738.56 -513.95 2.92 
740.00 -512.87 3.13 
739.55 -513.56 3.13 
740.14 -513.36 3.21 
739.59 -514.09 3.16 
739.24 -514.60 3.13 
739.02 -514.94 3.11 
739.97 -514.46 3.28 
734.82 -521.68 1.71 
734.29 -521.91 1.62 
739.11 -518.19 2.94 
736.56 -521.58 2.47 
735.88 -522.96 1.99 
721.42 -524.75 -0.61 
720.74 -525.89 -0.69 
722.17 -524.90 -0.48 
721.78 -525.10 -0.54 
722.57 -525.12 -0.40 
722.12 -525.42 -0.47 
721.47 -526.66 -0.94 
721.84 -526.80 -0.47 
723.01 -525.60 -0.31 
722.79 -525.61 -0.35 
723.52 -525.62 -0.22 
723.34 -525.80 -0.24 
723.79 -525.59 -0.17 
722.98 -527.18 -0.25 
724.03 -526.08 -0.11 
723.45 -527.26 -0.17 
723.81 -527.09 -0.11 
723.91 -527.67 -0.07 
723.58 -528.23 -0.53 
724.78 -527.19 0.06 
724.12 -527.93 -0.03 
731.39 -518.97 1.48 
730.53 -519.91 1.38 
730.26 -520.13 1.35 
729.67 -521.19 1.31 
731.27 -519.74 1.50 
730.10 -521.27 1.39 
731.50 -519.93 1.56 
732.03 -520.09 1.67 
730.78 -521.22 1.51 
731.98 -520.85 1.71 
731.61 -521.30 1.52 
731.23 -521.54 1.62 
731.26 -521.61 1.47 
737.35 -513.67 3.04 
732.69 -520.09 1.79 
732.29 -520.68 1.75 
736.97 -514.89 3.11 
733.32 -520.37 1.92 
732.66 -520.91 1.84 
738.84 -513.37 3.32 
738.73 -513.40 3.30 
737.32 -515.29 3.23 
732.87 -521.71 1.77 
739.15 -513.38 3.39 
733.99 -520.18 2.04 
733.69 -520.97 1.96 
740.14 -512.68 3.90 
739.37 -513.57 3.46 
734.45 -520.36 2.14 
740.73 -512.22 3.98 
738.41 -515.43 3.47 
734.67 -520.93 2.22 
740.75 -513.22 3.73 
740.62 -513.53 3.74 
740.34 -513.61 3.68 
739.31 -515.36 3.69 
734.18 -522.12 2.12 
738.73 -517.71 3.32 
739.40 -517.92 3.48 
736.82 -521.02 2.66 
736.89 -522.12 2.75 
735.93 -522.96 2.62 
735.43 -523.71 2.34 
738.93 -521.90 3.17 
719.44 -526.04 -0.90 
719.85 -525.97 -0.83 
720.07 -525.99 -0.80 
719.76 -526.53 -0.83 
720.75 -526.32 -0.67 
721.81 -525.45 -0.03 
724.19 -525.90 0.39 
722.57 -528.42 -0.28 
724.47 -525.89 0.44 
724.21 -526.84 0.43 
730.82 -518.33 1.87 
729.86 -519.51 1.81 
730.69 -519.10 1.92 
730.72 -519.53 1.96 
730.93 -520.64 2.09 
730.63 -520.77 2.05 
731.26 -520.52 2.14 
733.47 -518.59 2.36 
732.11 -520.24 2.26 
731.77 -520.57 2.23 
732.34 -520.30 2.31 
733.09 -520.13 2.43 
732.89 -520.69 2.37 
732.26 -521.26 2.38 
737.78 -514.51 3.65 
733.39 -520.26 2.50 
734.33 -520.33 2.68 
734.38 -522.12 2.73 
739.33 -515.97 3.75 
739.68 -515.77 3.79 
734.77 -525.67 2.57 
720.81 -525.97 0.13 
721.02 -526.00 0.17 
720.84 -526.37 0.16 
721.09 -526.40 0.20 
722.11 -525.97 0.04 
721.85 -526.51 0.33 
721.53 -526.59 0.28 
721.94 -526.78 0.36 
723.81 -525.79 0.61 
722.83 -526.68 0.50 
722.84 -527.13 0.53 
723.42 -527.01 0.61 
722.97 -527.31 0.56 
723.77 -527.36 0.69 
723.44 -527.40 0.64 
731.58 -519.73 2.69 
733.51 -518.34 2.91 
733.57 -521.66 2.66 
732.91 -522.93 2.65 
734.33 -522.17 2.85 
732.87 -523.88 2.73 
734.48 -522.18 2.88 
740.21 -516.50 4.48 
739.99 -516.58 4.43 
721.09 -526.87 0.23 
721.98 -527.14 0.39 
722.01 -527.16 0.39 
722.08 -527.45 0.42 
721.80 -528.03 0.41 
730.81 -519.34 2.56 
730.40 -520.56 2.59 
731.06 -520.53 2.70 
731.40 -520.56 2.75 
732.45 -520.06 2.88 
733.87 -521.28 3.27 
734.69 -522.39 3.56 
733.85 -526.67 3.18 
734.25 -526.76 3.26 
722.01 -526.71 0.93 
723.83 -527.18 1.25 
732.28 -519.69 3.37 
733.47 -521.62 3.84 
733.88 -521.32 3.87 
733.92 -521.46 3.91 
732.57 -521.69 3.69 
721.93 -526.18 1.77 
733.35 -511.75 -0.10 
732.99 -512.08 -0.19 
732.72 -512.31 -0.26 
732.54 -512.41 -0.31 
733.84 -511.73 0.00 
733.52 -511.81 -0.07 
734.04 -511.74 0.05 
732.21 -517.42 -0.78 
732.65 -517.26 -0.68 
732.39 -517.33 -0.73 
735.40 -514.26 0.23 
732.83 -517.34 -0.64 
735.54 -514.68 0.24 
733.08 -517.98 -0.62 
735.64 -515.22 0.24 
733.39 -518.26 -0.56 
734.47 -517.65 -0.31 
733.99 -518.16 -0.43 
733.65 -518.40 -0.51 
738.97 -512.22 0.89 
738.57 -512.24 0.81 
738.25 -512.89 0.90 
737.42 -514.27 0.66 
735.94 -516.05 0.27 
735.24 -517.25 -0.12 
734.80 -517.39 -0.22 
734.70 -517.67 -0.26 
734.11 -518.35 -0.41 
739.11 -512.29 0.92 
738.88 -512.50 0.86 
738.27 -513.36 0.88 
735.92 -516.68 0.23 
735.30 -517.60 -0.13 
739.39 -512.72 0.96 
738.67 -513.45 0.77 
736.95 -516.22 0.28 
735.81 -517.61 -0.02 
737.08 -516.34 0.31 
736.44 -517.37 0.13 
736.00 -517.74 0.01 
736.10 -518.07 0.02 
739.75 -513.29 1.00 
739.12 -514.12 1.03 
739.03 -514.77 0.79 
737.45 -516.48 0.38 
737.56 -516.80 0.39 
736.52 -518.10 0.11 
735.95 -518.59 0.15 
739.90 -513.86 1.01 
739.71 -514.35 1.14 
739.40 -514.97 0.86 
738.34 -516.28 0.57 
737.66 -517.12 0.39 
736.55 -518.45 0.29 
739.21 -515.95 0.97 
737.91 -517.94 0.41 
737.52 -518.36 0.50 
741.18 -514.37 1.26 
738.32 -518.07 0.59 
738.43 -518.33 0.50 
738.98 -517.69 0.65 
740.49 -516.37 1.02 
740.89 -516.63 1.09 
740.57 -517.31 1.00 
739.29 -519.01 0.65 
739.85 -518.59 0.79 
739.26 -519.73 0.81 
740.29 -518.73 0.87 
740.05 -519.50 0.79 
739.45 -519.88 0.84 
741.47 -517.79 1.16 
740.14 -519.58 0.81 
722.12 -527.33 -2.57 
737.02 -512.01 1.08 
731.08 -520.25 -0.58 
730.28 -521.01 -0.76 
729.44 -522.32 -0.96 
737.36 -512.21 0.90 
731.28 -520.30 -0.54 
730.54 -521.33 -0.71 
729.98 -522.41 -0.85 
729.59 -522.33 -0.93 
737.97 -511.56 1.04 
738.04 -511.92 1.05 
737.44 -512.54 0.91 
737.01 -513.15 0.80 
731.63 -520.64 -0.47 
731.45 -520.70 -0.51 
738.08 -512.60 0.88 
738.05 -512.66 0.87 
737.52 -513.14 0.91 
736.89 -513.70 0.77 
734.53 -517.12 0.20 
733.61 -518.57 -0.02 
733.56 -518.89 -0.04 
732.92 -519.51 -0.18 
731.74 -520.73 -0.45 
731.54 -521.52 -0.51 
738.62 -512.47 1.16 
738.44 -512.73 1.11 
735.05 -517.22 0.31 
734.86 -517.56 0.26 
733.84 -518.86 0.02 
733.72 -518.83 0.00 
732.22 -520.94 -0.36 
732.00 -521.04 -0.41 
731.77 -521.59 -0.46 
741.32 -509.03 1.72 
741.40 -509.42 1.72 
738.82 -512.58 1.20 
738.77 -512.84 1.18 
735.48 -517.13 0.40 
735.33 -517.20 0.37 
733.93 -519.56 0.03 
739.81 -511.85 1.66 
739.23 -512.65 1.28 
734.19 -519.51 0.08 
741.33 -510.21 2.01 
739.17 -513.71 1.25 
734.75 -519.60 0.20 
739.41 -513.86 1.29 
736.91 -517.33 0.69 
736.11 -518.46 0.50 
735.22 -519.77 0.29 
737.96 -516.67 0.93 
740.66 -513.44 1.57 
740.37 -513.60 1.50 
740.41 -514.13 1.50 
739.03 -515.90 1.17 
738.27 -517.01 0.99 
739.39 -515.74 1.25 
736.89 -519.45 0.65 
735.32 -521.24 0.28 
741.14 -514.32 1.65 
740.03 -516.00 1.38 
740.16 -516.19 1.40 
739.81 -516.91 1.31 
739.57 -517.29 1.26 
738.36 -519.03 0.96 
740.84 -516.68 1.54 
741.26 -516.73 1.62 
739.89 -520.23 1.26 
740.88 -519.24 1.49 
740.73 -519.30 1.46 
740.23 -520.40 1.33 
741.31 -519.38 1.58 
721.80 -526.85 -2.37 
736.56 -511.56 1.40 
737.13 -511.63 1.19 
736.77 -512.10 1.42 
736.76 -512.37 1.12 
736.28 -512.94 1.02 
737.13 -512.33 1.19 
736.74 -512.61 1.11 
736.83 -512.77 1.13 
736.35 -513.56 1.04 
729.75 -522.62 -0.65 
729.54 -522.66 -0.70 
737.91 -511.55 1.68 
737.71 -512.09 1.46 
737.22 -512.80 1.16 
738.37 -511.60 1.45 
738.13 -512.20 1.40 
737.98 -512.19 1.37 
737.49 -513.29 1.27 
733.50 -518.67 0.47 
733.27 -518.89 0.42 
731.25 -521.70 -0.32 
739.56 -511.19 1.70 
739.29 -511.42 1.64 
737.82 -513.03 1.34 
734.76 -517.41 0.72 
734.61 -517.68 0.46 
733.60 -518.78 0.49 
733.68 -518.95 0.50 
741.38 -509.16 2.35 
739.69 -511.73 1.73 
738.26 -513.16 1.31 
733.92 -519.13 0.55 
733.09 -520.48 0.08 
740.83 -510.54 1.97 
740.50 -511.32 1.90 
739.99 -511.94 1.79 
735.77 -517.55 0.70 
734.54 -519.36 0.40 
741.30 -510.48 2.23 
740.89 -511.33 2.31 
740.63 -511.52 1.93 
740.12 -512.10 1.96 
738.98 -513.48 1.58 
738.79 -514.11 1.54 
741.43 -510.81 2.10 
741.22 -511.16 2.06 
740.93 -511.63 2.00 
739.34 -514.10 1.66 
736.16 -518.37 1.01 
735.79 -519.06 0.93 
734.85 -520.12 0.45 
739.80 -514.14 1.61 
737.58 -517.01 1.08 
737.08 -517.46 1.20 
739.91 -514.34 1.78 
738.92 -515.66 1.58 
739.00 -516.03 1.40 
739.30 -515.86 1.66 
737.87 -517.76 1.36 
739.77 -515.81 1.76 
739.51 -516.43 1.50 
738.15 -518.30 1.42 
740.20 -516.26 1.85 
740.32 -516.36 1.88 
740.78 -516.64 1.98 
740.41 -517.08 1.90 
741.03 -516.80 2.03 
740.57 -517.43 1.70 
739.48 -520.61 1.71 
721.17 -525.95 -1.95 
722.93 -526.76 -1.61 
723.99 -526.35 -1.41 
723.26 -526.86 -1.55 
723.25 -527.38 -1.55 
724.53 -526.33 -1.30 
729.63 -520.06 -0.30 
724.62 -526.57 -1.28 
729.87 -520.20 -0.26 
730.47 -519.94 0.18 
730.11 -520.41 -0.21 
736.99 -511.79 1.83 
730.75 -520.26 0.24 
730.24 -520.90 0.14 
737.42 -511.95 1.59 
737.13 -512.22 1.54 
736.16 -513.47 1.37 
733.13 -517.36 0.87 
731.27 -520.32 0.02 
737.31 -512.56 1.76 
736.72 -513.51 1.41 
734.23 -517.07 0.92 
731.47 -520.49 0.06 
731.16 -520.68 0.32 
730.14 -522.47 -0.20 
737.87 -512.52 1.87 
737.61 -512.85 1.65 
732.23 -520.50 0.21 
731.86 -520.54 0.14 
731.11 -521.95 -0.01 
739.33 -511.33 2.30 
738.51 -512.24 2.17 
737.99 -512.72 1.73 
732.46 -520.83 0.26 
739.37 -511.83 2.33 
739.29 -512.12 2.33 
738.89 -512.20 2.25 
732.04 -521.71 0.18 
731.66 -522.31 0.42 
731.06 -523.01 -0.02 
740.43 -510.63 2.50 
740.38 -510.94 2.51 
739.72 -511.98 2.30 
739.47 -512.10 2.37 
738.25 -513.67 1.81 
734.56 -518.95 0.99 
732.38 -521.85 0.25 
741.34 -510.22 2.69 
740.89 -511.15 2.63 
740.62 -511.49 2.59 
740.27 -511.87 2.52 
739.90 -512.40 2.47 
733.98 -520.72 0.57 
740.97 -511.81 2.50 
740.61 -511.96 2.27 
738.53 -514.98 1.90 
738.24 -515.36 1.79 
739.33 -514.58 2.06 
739.04 -514.96 2.01 
738.83 -514.89 1.96 
738.26 -515.90 1.73 
737.85 -516.51 1.65 
737.71 -516.58 1.62 
741.42 -512.12 2.69 
739.40 -514.73 2.08 
738.70 -516.21 1.97 
738.49 -516.19 1.78 
738.31 -517.68 1.92 
735.93 -520.92 1.27 
740.79 -515.22 2.39 
739.98 -516.51 2.25 
739.70 -516.74 2.19 
739.46 -517.33 1.98 
739.32 -517.30 1.95 
736.46 -521.24 1.37 
741.44 -515.26 2.53 
740.61 -516.22 2.38 
739.95 -516.80 2.25 
740.29 -517.81 2.35 
737.89 -522.15 1.38 
739.81 -519.88 2.06 
722.66 -527.54 -1.33 
730.92 -518.63 0.47 
730.23 -519.52 0.36 
736.35 -511.75 2.04 
731.25 -518.82 0.54 
731.73 -518.74 0.63 
730.37 -520.53 0.41 
736.74 -512.39 2.16 
736.14 -513.20 1.73 
736.19 -513.66 1.75 
732.01 -518.92 0.69 
730.74 -520.57 0.49 
737.31 -512.72 2.30 
736.92 -513.10 2.25 
733.38 -518.16 0.94 
732.37 -519.07 0.76 
738.14 -511.87 2.41 
737.85 -512.29 2.38 
737.62 -512.83 2.19 
737.18 -513.11 2.30 
736.89 -513.48 1.90 
736.65 -513.88 1.84 
733.63 -518.28 0.99 
733.14 -518.99 0.91 
738.72 -511.87 2.53 
738.57 -511.95 2.50 
738.00 -512.97 2.28 
737.45 -513.69 2.01 
737.10 -513.90 1.93 
733.88 -518.50 1.04 
730.87 -522.32 0.55 
738.92 -512.26 2.60 
738.68 -512.69 2.61 
738.50 -512.88 2.20 
738.23 -513.13 2.52 
738.09 -513.39 2.14 
737.86 -513.81 2.11 
734.19 -518.75 1.11 
731.85 -522.05 0.74 
731.65 -522.04 0.70 
731.28 -522.69 0.64 
741.29 -509.67 3.09 
740.79 -510.06 2.86 
740.43 -511.11 2.85 
738.65 -513.11 2.23 
738.28 -513.67 2.18 
734.55 -518.84 1.19 
739.78 -512.50 2.80 
739.46 -512.83 2.76 
739.10 -513.01 2.71 
734.98 -518.99 1.27 
734.52 -519.85 1.20 
732.95 -521.90 0.95 
740.16 -512.64 2.90 
739.66 -512.98 2.81 
741.12 -511.61 3.05 
740.96 -512.31 3.06 
740.75 -512.67 2.86 
739.08 -514.73 2.41 
738.77 -515.14 2.29 
738.53 -515.38 2.24 
741.22 -512.29 3.12 
740.93 -513.00 3.08 
739.26 -515.10 2.47 
735.39 -520.23 1.39 
735.47 -520.63 1.42 
734.34 -521.59 1.21 
741.38 -512.63 3.18 
740.33 -514.46 2.59 
739.90 -514.78 2.59 
739.60 -515.37 2.46 
741.01 -513.82 2.79 
740.04 -515.13 2.64 
740.62 -515.13 2.77 
740.37 -515.46 2.73 
716.60 -508.34 -1.47 
719.84 -526.07 -1.40 
721.22 -525.13 -1.17 
720.99 -526.00 -1.20 
720.94 -526.44 -1.20 
721.38 -526.67 -1.11 
721.28 -527.22 -1.12 
722.92 -525.35 -0.86 
722.37 -525.80 -0.95 
721.32 -527.24 -1.12 
723.01 -525.66 -0.84 
721.99 -527.38 -0.99 
723.29 -526.04 -0.78 
724.00 -525.88 -0.66 
723.66 -526.20 -0.71 
722.67 -527.69 -0.86 
729.82 -518.57 0.80 
724.65 -525.79 -0.54 
724.02 -526.56 -0.64 
723.18 -527.62 -0.77 
724.80 -525.89 -0.51 
730.28 -520.04 0.95 
724.45 -527.64 -0.54 
723.72 -528.75 -0.65 
735.53 -513.42 2.05 
731.80 -518.71 1.17 
731.50 -519.19 0.99 
731.19 -519.33 1.08 
724.91 -527.80 -0.45 
736.76 -512.41 2.51 
736.47 -512.55 2.19 
736.38 -513.07 2.50 
735.92 -513.68 2.09 
731.93 -519.10 1.21 
730.50 -520.92 1.03 
724.85 -528.50 -0.45 
736.90 -513.16 2.61 
731.80 -520.01 1.23 
730.99 -521.01 1.13 
730.90 -521.10 1.01 
737.46 -512.51 2.66 
737.05 -513.09 2.32 
736.97 -513.34 2.65 
736.64 -514.21 2.27 
736.28 -514.24 2.20 
733.90 -517.99 1.53 
731.91 -520.13 1.26 
737.64 -513.29 2.41 
737.34 -513.80 2.38 
734.45 -517.94 1.63 
734.19 -517.96 1.58 
733.58 -518.72 1.50 
732.67 -519.77 1.38 
732.74 -520.11 1.41 
732.38 -520.32 1.35 
732.24 -520.84 1.35 
731.76 -521.32 1.28 
738.11 -513.53 2.52 
733.07 -520.09 1.47 
732.86 -520.38 1.45 
732.69 -520.42 1.41 
731.08 -522.89 0.99 
741.11 -509.72 3.50 
740.90 -509.89 3.47 
740.88 -510.37 3.21 
737.87 -514.31 2.53 
733.71 -520.05 1.42 
733.69 -520.16 1.59 
733.47 -520.57 1.57 
741.41 -510.16 3.39 
739.28 -513.16 2.93 
738.89 -513.83 2.71 
738.67 -514.05 2.67 
733.76 -520.69 1.63 
733.12 -521.28 1.34 
732.82 -521.76 1.50 
740.16 -512.52 3.25 
739.39 -513.40 3.16 
739.27 -513.62 2.78 
739.19 -513.87 2.78 
734.52 -519.92 1.74 
733.99 -520.77 1.68 
740.48 -512.75 3.34 
740.35 -512.84 3.32 
739.98 -513.16 3.27 
738.94 -514.76 2.76 
738.40 -515.25 2.71 
740.69 -513.08 3.24 
740.46 -513.50 3.03 
740.66 -513.50 3.08 
740.19 -515.30 3.10 
741.02 -514.34 3.22 
739.14 -517.95 2.96 
721.27 -527.78 -1.11 
722.15 -527.14 -0.56 
730.86 -518.15 1.48 
729.31 -521.19 0.83 
731.61 -518.71 1.65 
731.40 -518.93 1.63 
731.06 -519.45 1.61 
724.50 -528.49 -0.11 
731.54 -519.26 1.60 
731.49 -519.59 1.69 
736.11 -514.18 2.56 
735.66 -514.46 2.50 
731.71 -519.71 1.74 
731.41 -520.40 1.63 
736.66 -513.78 2.63 
736.21 -514.15 2.58 
734.05 -517.48 2.01 
732.20 -519.76 1.83 
737.96 -512.76 3.15 
737.10 -514.20 2.76 
737.01 -514.20 2.74 
738.16 -513.05 3.23 
737.71 -513.68 2.83 
737.46 -513.77 2.79 
737.27 -514.19 2.85 
734.08 -518.66 2.10 
737.03 -515.23 2.84 
733.59 -520.11 2.11 
739.10 -513.19 3.45 
739.08 -513.51 3.10 
738.74 -513.68 3.05 
738.33 -514.03 2.99 
734.97 -518.63 2.27 
734.31 -519.67 2.22 
733.85 -520.38 2.18 
733.60 -520.63 2.03 
739.47 -513.28 3.54 
738.45 -514.82 3.10 
739.46 -514.17 3.25 
739.22 -514.43 3.22 
740.49 -513.32 3.78 
741.12 -513.00 3.89 
734.27 -522.22 1.81 
733.82 -522.99 1.76 
740.96 -515.58 3.67 
739.00 -518.07 2.94 
736.23 -521.62 2.57 
739.45 -518.23 3.08 
736.88 -521.92 2.71 
720.21 -525.69 -0.55 
719.90 -526.09 -0.58 
719.92 -526.49 -0.56 
721.97 -524.59 -0.30 
720.94 -525.82 -0.42 
722.20 -524.83 -0.25 
720.47 -526.94 -0.46 
722.62 -524.87 -0.18 
722.98 -524.90 -0.11 
721.98 -526.72 -0.21 
723.44 -525.23 -0.02 
722.66 -526.00 -0.13 
723.82 -525.24 0.04 
723.69 -525.94 0.05 
723.90 -526.50 0.10 
723.49 -526.82 0.05 
723.40 -526.89 0.03 
724.62 -526.54 0.23 
724.19 -526.67 0.16 
729.89 -519.88 1.43 
724.57 -526.80 0.23 
724.38 -527.55 0.23 
724.17 -528.43 0.23 
730.80 -519.65 1.58 
730.57 -519.84 1.55 
729.83 -520.94 1.49 
730.20 -520.93 1.56 
736.40 -513.76 2.96 
737.80 -512.79 3.48 
737.22 -513.50 3.47 
733.73 -518.33 2.51 
732.39 -520.48 1.92 
732.19 -520.59 1.89 
731.87 -521.19 1.74 
731.45 -521.30 1.80 
737.73 -513.71 3.22 
732.87 -520.53 2.01 
732.67 -520.68 1.98 
737.93 -514.07 3.31 
737.33 -514.64 3.25 
733.14 -520.69 2.07 
738.18 -514.38 3.40 
739.72 -512.88 3.92 
739.63 -512.88 3.90 
739.02 -514.24 3.56 
738.71 -515.01 3.59 
740.93 -512.59 4.16 
734.40 -521.79 2.39 
733.81 -522.36 2.32 
735.20 -521.06 2.49 
734.58 -521.89 2.43 
739.65 -515.79 3.90 
736.46 -520.99 2.74 
735.19 -522.27 2.58 
737.06 -521.41 2.89 
735.38 -523.52 2.71 
721.27 -525.10 0.10 
721.84 -525.57 0.21 
723.08 -526.33 0.44 
730.40 -518.56 1.97 
730.14 -519.32 1.98 
730.86 -518.80 2.06 
730.89 -519.17 2.09 
730.94 -519.45 2.13 
731.01 -519.95 2.17 
731.32 -520.22 2.24 
731.12 -520.44 2.25 
730.53 -521.08 2.21 
733.25 -518.10 2.90 
731.99 -520.32 2.39 
732.45 -520.06 2.44 
732.14 -520.31 2.41 
731.91 -520.77 2.36 
732.48 -520.98 2.53 
732.79 -520.87 2.52 
738.06 -514.38 3.77 
737.59 -514.79 3.73 
733.73 -520.54 2.72 
733.49 -521.03 2.65 
733.56 -522.09 2.84 
731.44 -524.60 2.03 
733.71 -522.11 2.87 
734.26 -522.28 2.87 
733.17 -524.58 2.35 
735.56 -523.82 3.22 
719.80 -526.23 -0.10 
721.13 -525.70 0.38 
721.08 -525.72 0.37 
721.33 -525.80 0.42 
721.30 -526.27 0.44 
721.43 -526.50 0.47 
722.02 -526.22 0.55 
722.16 -526.57 0.59 
722.22 -526.96 0.62 
722.19 -527.48 0.65 
721.89 -527.75 0.30 
723.52 -526.47 0.80 
723.12 -526.73 0.75 
722.93 -526.82 0.73 
723.58 -526.82 0.83 
724.16 -527.10 0.94 
731.08 -520.12 2.77 
731.82 -519.45 2.82 
731.91 -520.10 2.91 
731.62 -520.53 2.91 
740.08 -516.36 4.51 
740.50 -516.20 4.58 
736.32 -525.63 3.71 
721.87 -524.88 1.02 
722.87 -525.95 1.23 
730.65 -520.67 2.78 
732.47 -519.45 3.46 
732.47 -521.18 3.13 
732.13 -521.35 3.07 
734.82 -522.37 3.63 
739.72 -516.84 5.02 
734.81 -526.68 3.52 
721.06 -526.41 0.98 
721.71 -526.77 1.10 
731.36 -520.54 3.43 
732.78 -521.48 3.80 
732.89 -522.02 3.91 
733.60 -524.23 4.28 
729.39 -514.80 -0.78 
729.84 -514.61 -0.68 
731.46 -513.56 -0.29 
734.54 -510.10 0.17 
732.00 -513.45 -0.17 
735.08 -510.07 0.29 
734.75 -510.22 0.21 
732.26 -513.67 -0.12 
732.43 -513.92 -0.10 
732.71 -514.28 -0.05 
732.98 -514.61 -0.01 
737.27 -511.26 0.70 
731.04 -520.15 -0.83 
730.75 -520.37 -0.90 
737.71 -511.98 0.91 
731.52 -520.17 -0.73 
731.22 -520.34 -0.80 
730.82 -520.65 -0.90 
734.44 -516.92 0.21 
732.70 -519.38 -0.45 
732.22 -519.71 -0.57 
731.77 -520.08 -0.68 
731.72 -520.19 -0.69 
738.56 -512.10 1.08 
734.50 -517.21 0.20 
734.04 -518.20 -0.12 
733.81 -518.40 -0.18 
732.88 -519.54 -0.42 
739.11 -512.07 1.19 
738.90 -512.44 1.13 
735.23 -517.22 0.17 
735.02 -517.55 0.21 
734.74 -517.78 0.23 
734.03 -518.31 -0.13 
734.13 -518.57 -0.12 
733.09 -519.94 -0.39 
732.65 -520.13 -0.49 
739.29 -512.54 1.21 
738.85 -512.81 1.11 
735.54 -517.28 0.23 
731.92 -522.02 -0.73 
739.57 -512.60 1.27 
739.36 -512.54 1.22 
739.15 -513.09 1.16 
736.95 -516.02 0.58 
736.77 -516.01 0.54 
736.17 -517.10 0.37 
735.84 -517.42 0.29 
735.60 -517.99 0.40 
734.63 -518.88 -0.03 
741.29 -510.93 1.69 
741.34 -511.21 1.69 
740.89 -511.21 1.47 
739.84 -513.20 1.30 
737.33 -516.31 0.64 
734.01 -520.58 -0.23 
741.41 -511.14 1.70 
739.72 -513.59 1.25 
738.56 -515.32 0.94 
736.43 -518.19 0.57 
734.87 -520.09 0.16 
733.00 -522.37 -0.52 
739.50 -514.84 1.16 
737.99 -516.69 0.77 
737.57 -517.02 0.66 
736.50 -518.43 0.58 
733.60 -522.52 -0.40 
739.17 -515.97 1.04 
737.31 -518.01 0.76 
738.04 -517.90 0.72 
741.28 -514.04 1.55 
738.62 -517.84 0.85 
738.50 -518.08 0.81 
735.45 -521.99 0.20 
738.98 -517.86 0.92 
738.91 -518.30 0.89 
736.23 -521.65 0.19 
740.45 -516.52 1.48 
738.82 -518.79 1.04 
740.93 -516.49 1.38 
738.63 -519.78 0.96 
740.96 -517.13 1.56 
739.17 -519.86 1.07 
739.02 -519.83 1.04 
739.87 -519.25 1.04 
739.47 -519.91 1.13 
740.33 -519.50 1.13 
739.89 -520.05 1.21 
740.85 -519.67 1.23 
740.56 -519.62 1.17 
722.36 -526.74 -2.19 
723.18 -527.03 -2.03 
723.30 -527.20 -2.01 
737.24 -511.42 1.13 
729.41 -522.21 -0.68 
738.00 -511.42 1.28 
737.48 -512.06 1.17 
736.94 -512.99 1.04 
731.13 -520.38 -0.29 
730.55 -521.24 -0.43 
730.42 -521.23 -0.45 
738.41 -511.53 1.37 
738.08 -511.65 1.30 
737.84 -512.11 1.24 
737.54 -512.43 1.17 
737.12 -513.15 1.07 
731.84 -520.19 -0.14 
731.54 -520.27 -0.21 
731.57 -520.61 -0.21 
738.15 -512.51 1.17 
737.64 -512.98 1.18 
734.60 -516.97 0.48 
733.01 -519.38 0.11 
731.88 -520.53 -0.14 
738.44 -512.63 1.29 
734.91 -517.39 0.54 
733.74 -518.78 0.27 
733.19 -519.43 0.15 
732.35 -520.65 -0.05 
732.12 -520.80 -0.10 
731.96 -520.94 -0.13 
731.84 -521.43 -0.17 
741.00 -509.81 1.88 
739.32 -512.50 1.54 
738.96 -512.56 1.46 
738.90 -512.88 1.45 
738.30 -513.56 1.16 
735.95 -516.87 0.76 
735.51 -517.06 0.67 
735.30 -517.19 0.62 
735.15 -517.52 0.58 
733.96 -519.19 0.31 
732.11 -521.50 -0.11 
740.98 -510.88 2.15 
739.91 -511.75 1.91 
739.35 -512.65 1.54 
739.05 -512.97 1.34 
736.31 -516.90 0.83 
735.93 -517.24 0.75 
734.21 -519.32 0.36 
734.05 -519.60 0.32 
733.00 -521.08 0.07 
741.05 -510.95 2.16 
740.58 -511.54 1.82 
739.37 -513.44 1.53 
739.18 -513.53 1.49 
737.29 -516.98 1.04 
736.11 -518.29 0.77 
738.66 -515.93 1.34 
738.07 -516.53 1.20 
740.98 -513.10 1.88 
740.74 -513.29 1.82 
740.59 -513.59 1.78 
740.49 -514.02 1.76 
738.23 -516.61 1.24 
735.45 -520.42 0.59 
736.87 -519.28 0.90 
735.47 -521.11 0.58 
741.18 -514.26 1.90 
738.19 -518.55 1.19 
740.32 -516.09 1.68 
741.43 -515.35 1.93 
740.84 -516.41 1.79 
741.28 -516.62 1.87 
740.81 -518.12 1.74 
740.59 -519.25 1.68 
739.65 -520.16 1.46 
741.11 -519.18 1.79 
740.72 -519.22 1.71 
740.14 -520.09 1.57 
741.35 -520.04 1.82 
730.67 -519.08 0.14 
729.87 -520.02 -0.01 
736.69 -511.37 1.60 
730.31 -520.20 0.07 
737.57 -511.36 1.78 
737.11 -511.63 1.54 
