# .PCD v0.7 - Point Cloud Data file format
VERSION 0.7
FIELDS x y z
SIZE 4 4 4
TYPE F F F
COUNT 1 1 1
WIDTH 1922
HEIGHT 1
VIEWPOINT 0 0 0 1 0 0 0
POINTS 1922
DATA ascii
763.16 -402.93 -1.93 
764.56 -393.72 -0.55 
764.27 -393.84 0.33 
764.40 -393.08 -0.16 
764.23 -393.08 0.38 
764.24 -393.72 0.37 
764.44 -393.35 -0.08 
764.34 -392.87 0.19 
764.26 -393.61 0.42 
764.55 -392.85 -0.63 
764.38 -392.80 0.06 
764.29 -392.68 0.28 
764.21 -393.38 0.49 
764.14 -392.77 0.73 
764.56 -392.72 -0.18 
763.27 -401.37 -1.58 
764.58 -392.20 -0.03 
761.94 -400.51 -0.99 
764.30 -392.80 0.71 
763.91 -401.75 -0.03 
764.23 -392.36 0.92 
764.20 -396.88 -0.24 
764.15 -397.27 -0.27 
764.08 -397.00 0.13 
763.94 -397.41 0.29 
763.94 -396.81 0.51 
760.90 -404.20 -1.25 
763.86 -397.06 0.46 
763.75 -396.77 0.85 
761.34 -403.95 -0.37 
761.57 -403.86 -0.21 
760.12 -397.18 -0.99 
760.94 -403.76 -0.83 
760.15 -400.70 -1.04 
759.60 -400.98 -1.14 
759.77 -401.34 -1.14 
761.76 -404.40 -0.31 
764.46 -396.12 0.72 
764.30 -395.88 1.29 
761.09 -403.93 0.43 
764.05 -396.24 1.61 
763.98 -396.75 1.52 
758.93 -402.69 -1.08 
760.02 -403.78 -0.93 
760.32 -404.04 -0.89 
763.99 -395.90 0.82 
763.92 -396.18 1.06 
760.82 -403.39 0.07 
764.17 -395.61 1.29 
764.04 -395.43 1.61 
763.78 -396.40 1.56 
763.96 -395.61 1.89 
759.03 -403.57 -1.01 
763.90 -396.05 0.91 
764.15 -395.51 1.12 
764.08 -395.51 1.45 
763.77 -395.63 1.84 
763.91 -395.47 2.12 
760.83 -404.16 1.03 
758.12 -403.94 -1.18 
763.94 -395.75 0.65 
763.93 -395.50 0.99 
763.85 -396.02 0.93 
761.00 -403.81 0.02 
761.20 -403.05 0.14 
763.84 -396.04 1.25 
763.79 -395.74 1.59 
763.96 -395.33 1.89 
760.84 -404.26 0.91 
758.15 -404.18 -1.08 
763.86 -395.36 1.08 
761.86 -402.74 0.42 
763.62 -396.04 1.66 
760.82 -404.67 1.28 
757.80 -404.24 -1.01 
763.77 -395.62 1.18 
762.54 -402.56 0.74 
763.58 -395.81 1.86 
761.97 -403.41 1.25 
761.30 -404.24 1.31 
761.67 -403.56 1.55 
761.57 -404.34 -0.03 
762.42 -402.86 0.58 
762.14 -403.74 0.91 
763.05 -402.51 1.02 
763.49 -395.71 2.03 
761.74 -404.08 0.18 
746.06 -403.96 -2.71 
762.17 -403.20 0.38 
762.61 -402.67 1.45 
762.70 -403.55 1.35 
763.48 -395.52 2.26 
761.91 -403.52 0.62 
761.48 -403.93 0.32 
760.97 -404.68 0.79 
761.66 -403.81 0.53 
763.50 -395.09 1.88 
760.95 -403.94 0.72 
760.90 -404.68 0.98 
762.09 -404.67 1.51 
762.10 -402.99 0.95 
760.95 -404.66 1.20 
762.26 -402.50 1.42 
762.21 -402.85 1.03 
763.32 -394.71 2.06 
760.01 -404.00 1.58 
761.65 -402.50 1.08 
761.74 -402.65 1.18 
760.26 -403.41 1.54 
761.16 -404.11 1.65 
760.74 -401.79 1.83 
759.81 -403.29 2.05 
764.64 -391.93 -1.35 
764.71 -391.85 -1.40 
764.78 -391.82 -1.31 
764.85 -391.74 -1.24 
764.93 -391.74 -1.24 
763.74 -400.33 -1.92 
764.35 -400.52 -1.83 
763.50 -399.89 -1.87 
764.10 -400.12 -1.79 
764.35 -400.21 -1.75 
763.14 -399.21 -1.91 
763.41 -399.47 -1.89 
763.44 -399.56 -1.89 
763.64 -400.05 -1.89 
764.01 -399.91 -1.82 
764.24 -400.18 -1.80 
763.45 -399.60 -1.82 
764.29 -399.85 -1.70 
762.92 -399.07 -1.76 
763.17 -399.25 -1.73 
763.40 -399.63 -1.72 
763.66 -399.84 -1.69 
764.03 -399.12 -1.58 
764.28 -399.91 -1.59 
762.69 -399.71 -1.86 
763.12 -398.71 -1.72 
763.33 -399.16 -1.72 
764.09 -399.24 -1.60 
764.35 -399.73 -1.59 
763.00 -398.73 -1.70 
763.91 -398.78 -1.55 
764.20 -399.71 -1.56 
764.26 -398.91 -1.50 
764.47 -399.53 -1.51 
762.61 -402.93 -2.02 
762.13 -401.79 -2.07 
763.33 -400.91 -1.81 
763.46 -401.20 -1.81 
763.49 -401.72 -1.84 
764.00 -401.00 -1.70 
764.09 -401.66 -1.73 
764.45 -392.96 -0.53 
761.59 -402.16 -2.10 
762.81 -401.12 -1.83 
762.97 -401.39 -1.82 
763.09 -401.78 -1.82 
763.72 -401.09 -1.68 
764.01 -401.72 -1.67 
763.96 -400.99 -1.63 
764.17 -402.02 -1.66 
764.51 -393.06 -0.48 
761.63 -401.87 -1.89 
762.66 -400.06 -1.61 
762.78 -400.32 -1.60 
762.91 -400.66 -1.61 
763.22 -400.30 -1.53 
763.31 -400.77 -1.55 
763.60 -400.45 -1.48 
763.62 -401.10 -1.52 
763.85 -400.32 -1.43 
763.94 -400.76 -1.44 
764.07 -400.98 -1.43 
763.90 -401.76 -2.01 
762.29 -401.80 -1.62 
762.63 -401.87 -1.57 
762.67 -402.10 -1.58 
763.07 -401.93 -1.50 
763.20 -402.53 -1.52 
763.31 -402.85 -1.52 
763.57 -401.87 -1.42 
763.56 -402.69 -1.47 
763.74 -402.69 -1.44 
764.24 -393.61 -0.33 
764.27 -393.91 -0.34 
764.74 -393.70 -0.87 
762.06 -402.12 -1.90 
762.54 -401.61 -1.78 
762.46 -402.58 -1.86 
762.78 -401.30 -1.72 
762.97 -402.00 -1.74 
763.48 -401.92 -1.65 
763.50 -401.25 -1.60 
763.47 -401.42 -1.62 
763.61 -402.05 -1.64 
763.97 -401.54 -1.54 
764.39 -401.16 -1.44 
762.93 -402.13 -1.15 
762.92 -402.34 -1.16 
763.14 -402.63 -1.14 
763.48 -402.73 -1.09 
763.60 -401.83 -1.03 
763.54 -402.43 -1.07 
763.66 -402.77 -1.06 
763.92 -402.56 -1.01 
763.97 -402.86 -1.02 
764.51 -394.23 -0.11 
762.68 -402.80 -2.11 
763.19 -403.11 -2.05 
761.60 -401.75 -1.66 
762.15 -401.71 -1.57 
762.13 -402.12 -1.60 
762.29 -402.54 -1.60 
762.88 -401.61 -1.45 
762.80 -402.51 -1.52 
763.18 -401.50 -1.39 
763.21 -402.04 -1.42 
763.46 -402.23 -1.39 
763.69 -401.26 -1.29 
764.13 -401.33 -1.23 
763.95 -402.23 -1.31 
764.46 -393.64 -0.67 
764.45 -393.84 -0.68 
764.47 -394.11 -0.70 
763.19 -403.36 -1.51 
763.65 -403.44 -1.44 
764.03 -403.41 -1.37 
764.27 -403.65 -1.35 
764.27 -393.61 -0.03 
764.33 -393.90 -0.20 
764.24 -394.25 -0.05 
762.29 -401.81 -1.03 
762.45 -402.00 -1.01 
762.58 -402.52 -1.02 
762.57 -402.94 -1.03 
762.87 -402.66 -0.98 
763.32 -401.99 -0.88 
763.29 -402.46 -0.90 
763.27 -402.69 -0.91 
763.50 -402.79 -0.88 
763.65 -403.06 -0.87 
764.19 -393.87 0.30 
764.27 -394.38 -0.05 
762.42 -402.40 -1.99 
763.16 -402.23 -1.85 
763.29 -402.68 -1.86 
762.02 -401.69 -1.49 
762.11 -402.53 -1.53 
762.57 -402.64 -1.47 
762.78 -401.14 -1.34 
762.60 -401.24 -1.37 
762.66 -401.76 -1.40 
762.72 -402.32 -1.42 
763.47 -401.03 -1.22 
763.41 -401.31 -1.24 
763.69 -403.04 -1.31 
763.48 -403.22 -1.36 
763.83 -401.27 -1.18 
764.06 -401.77 -1.17 
763.98 -403.18 -1.27 
764.19 -400.95 -1.10 
764.43 -401.31 -1.08 
764.31 -403.20 -1.22 
764.51 -393.64 -0.40 
764.53 -393.21 -0.43 
764.56 -393.50 -0.54 
762.41 -401.10 -0.91 
762.78 -401.65 -0.88 
763.22 -401.28 -0.79 
763.35 -401.69 -0.79 
763.76 -401.49 -0.72 
764.13 -402.18 -0.70 
764.37 -393.29 0.05 
764.35 -393.70 0.03 
764.38 -393.88 0.03 
762.12 -401.36 -0.96 
762.19 -401.84 -0.97 
762.20 -402.23 -0.99 
762.40 -401.49 -0.93 
762.63 -401.68 -0.90 
762.90 -401.74 -0.86 
763.18 -403.78 -0.91 
763.52 -402.18 -0.79 
763.86 -402.46 -0.75 
764.29 -393.05 0.34 
764.30 -393.29 0.34 
764.27 -393.68 0.33 
762.55 -401.47 -1.75 
762.48 -402.27 -1.83 
763.06 -401.91 -1.70 
762.82 -402.17 -1.77 
763.22 -402.53 -1.73 
763.67 -402.56 -1.65 
764.49 -393.09 -0.56 
762.08 -402.12 -1.40 
762.24 -401.09 -1.31 
762.54 -401.07 -1.26 
762.66 -401.50 -1.27 
762.79 -401.78 -1.26 
762.76 -402.17 -1.30 
763.27 -400.91 -1.13 
763.09 -401.56 -1.20 
763.20 -401.93 -1.21 
763.68 -400.97 -1.07 
763.44 -402.05 -1.18 
763.65 -402.84 -1.20 
763.84 -402.91 -1.17 
763.77 -401.08 -1.06 
763.95 -401.64 -1.07 
764.25 -403.02 -1.11 
764.17 -400.69 -0.97 
764.24 -402.72 -1.09 
764.42 -392.94 -0.15 
764.47 -393.36 -0.44 
761.71 -401.94 -0.96 
761.98 -401.15 -0.89 
762.02 -402.21 -0.93 
762.32 -401.28 -0.84 
762.55 -401.28 -0.81 
762.59 -401.45 -0.81 
763.07 -401.18 -0.73 
763.25 -401.98 -0.74 
763.02 -402.19 -0.78 
763.62 -401.28 -0.65 
763.28 -401.36 -0.70 
763.52 -402.12 -0.70 
763.35 -402.16 -0.73 
764.01 -401.98 -0.62 
763.74 -402.24 -0.67 
764.25 -392.81 0.38 
764.31 -393.07 0.11 
764.29 -393.57 0.09 
762.54 -401.49 -0.35 
763.09 -403.41 -0.82 
763.31 -401.77 -0.25 
764.24 -393.11 0.38 
764.22 -393.49 0.37 
762.77 -402.19 -0.33 
762.96 -402.79 -2.13 
762.35 -402.04 -1.69 
762.60 -402.03 -1.65 
762.53 -402.40 -1.69 
763.10 -401.80 -1.54 
762.95 -402.48 -1.63 
763.30 -402.39 -1.56 
763.73 -402.48 -1.49 
764.52 -392.96 -0.43 
764.49 -393.23 -0.32 
761.80 -401.03 -1.25 
761.91 -401.62 -1.27 
762.22 -400.86 -1.18 
762.26 -401.82 -1.23 
762.02 -402.09 -1.29 
762.53 -400.75 -1.12 
762.56 -400.91 -1.13 
762.89 -401.15 -1.09 
762.89 -401.53 -1.11 
762.97 -402.67 -1.17 
763.29 -401.39 -1.04 
763.34 -402.53 -1.10 
763.51 -402.76 -1.09 
763.79 -400.53 -0.91 
763.82 -400.96 -0.93 
763.75 -402.72 -1.05 
764.23 -400.58 -0.84 
763.99 -401.51 -0.94 
764.18 -402.62 -0.97 
764.43 -392.93 -0.06 
764.43 -393.27 -0.07 
762.01 -401.01 -0.78 
762.36 -400.79 -0.72 
762.57 -401.04 -0.70 
762.51 -401.37 -0.72 
763.08 -401.99 -0.66 
762.85 -402.72 -0.73 
763.14 -403.45 -0.72 
763.14 -400.98 -0.61 
763.19 -401.35 -0.62 
763.19 -401.84 -0.64 
763.43 -402.06 -0.62 
763.68 -401.16 -0.54 
763.63 -401.97 -0.58 
763.54 -402.25 -0.61 
764.03 -401.84 -0.52 
764.27 -392.72 0.44 
764.31 -393.04 0.28 
764.24 -393.41 0.42 
762.53 -401.83 -0.29 
762.63 -401.36 -0.26 
762.74 -401.98 -0.26 
763.35 -401.64 -0.17 
764.20 -393.09 0.68 
764.18 -393.33 0.68 
763.02 -401.68 -1.81 
762.83 -401.80 -1.86 
764.53 -392.79 -0.62 
762.33 -401.87 -1.51 
762.70 -401.84 -1.45 
762.86 -402.23 -1.45 
763.30 -401.21 -1.30 
763.09 -401.53 -1.36 
763.23 -402.18 -1.39 
763.73 -402.33 -1.31 
764.45 -392.77 -0.28 
764.43 -393.01 -0.18 
761.87 -400.84 -1.09 
762.05 -401.05 -1.07 
762.00 -401.91 -1.13 
762.12 -400.71 -1.04 
762.42 -402.10 -1.08 
762.55 -400.51 -0.96 
762.51 -401.24 -1.01 
762.60 -401.57 -1.02 
762.83 -402.52 -1.04 
763.15 -400.44 -0.86 
763.22 -401.21 -0.90 
763.39 -400.59 -0.84 
763.35 -401.27 -0.88 
763.54 -402.04 -0.90 
763.54 -402.61 -0.94 
763.90 -401.25 -0.79 
763.96 -401.36 -0.79 
763.78 -402.54 -0.89 
764.12 -400.34 -0.70 
764.27 -401.95 -0.78 
764.20 -402.38 -0.81 
764.33 -392.76 0.17 
764.37 -393.09 0.04 
761.84 -401.48 -0.70 
762.33 -400.50 -0.59 
762.29 -400.96 -0.62 
762.06 -402.12 -0.70 
762.47 -400.99 -0.59 
762.65 -401.14 -0.57 
763.02 -400.90 -0.51 
763.03 -401.31 -0.52 
763.09 -401.48 -0.52 
762.86 -402.29 -0.59 
763.46 -401.18 -0.46 
763.31 -401.72 -0.50 
763.43 -401.92 -0.49 
763.68 -401.95 -0.46 
764.23 -392.78 0.43 
764.21 -393.15 0.44 
761.82 -401.45 -0.27 
761.87 -402.09 -0.28 
762.56 -401.21 -0.17 
762.63 -401.64 -0.17 
762.73 -401.89 -0.16 
763.08 -402.04 -0.12 
763.25 -401.47 -0.09 
763.83 -401.69 -0.01 
764.17 -392.86 0.73 
764.14 -393.16 0.73 
762.96 -401.86 -1.84 
763.16 -401.74 -1.79 
763.23 -401.86 -1.79 
764.63 -392.85 -0.61 
762.48 -401.93 -1.52 
762.58 -401.13 -1.44 
762.56 -402.25 -1.53 
763.25 -401.57 -1.36 
762.96 -401.85 -1.43 
763.00 -402.32 -1.46 
763.39 -402.24 -1.39 
763.86 -402.37 -1.32 
764.55 -392.58 -0.17 
764.56 -392.83 -0.29 
764.55 -393.12 -0.21 
761.93 -400.87 -1.13 
762.21 -400.89 -1.09 
762.17 -402.08 -1.17 
762.56 -400.89 -1.03 
762.81 -401.31 -1.02 
762.99 -401.50 -1.00 
763.32 -400.60 -0.90 
763.45 -400.80 -0.89 
763.35 -401.32 -0.94 
763.36 -402.20 -0.99 
763.59 -402.51 -0.97 
763.82 -400.60 -0.82 
763.83 -400.87 -0.83 
763.84 -402.47 -0.93 
763.89 -402.75 -0.94 
764.10 -400.78 -0.78 
764.32 -402.42 -0.85 
764.49 -392.61 0.03 
764.50 -392.84 0.02 
764.49 -393.15 0.00 
762.04 -400.40 -0.70 
762.00 -400.83 -0.73 
762.18 -401.99 -0.75 
762.51 -400.67 -0.65 
762.60 -400.88 -0.64 
762.60 -401.14 -0.66 
762.73 -400.99 -0.63 
762.91 -401.19 -0.61 
763.26 -401.02 -0.56 
763.28 -401.38 -0.57 
763.55 -401.84 -0.55 
763.35 -401.95 -0.58 
763.51 -402.36 -0.58 
763.71 -401.00 -0.49 
763.74 -401.08 -0.49 
763.87 -401.49 -0.49 
763.59 -401.96 -0.55 
763.69 -402.39 -0.55 
763.98 -402.00 -0.49 
764.33 -392.86 0.47 
764.31 -393.25 0.45 
761.71 -401.71 -0.40 
762.02 -401.09 -0.34 
762.02 -401.52 -0.35 
762.51 -400.99 -0.27 
762.49 -401.22 -0.28 
762.53 -401.58 -0.29 
762.74 -401.06 -0.25 
762.92 -401.25 -0.23 
762.75 -401.78 -0.26 
763.03 -401.92 -0.23 
762.92 -402.34 -0.25 
763.22 -402.03 -0.21 
763.64 -402.12 -0.15 
763.72 -402.32 -0.14 
763.95 -401.74 -0.10 
763.14 -401.37 -1.61 
764.66 -392.48 -0.43 
762.66 -400.81 -1.27 
762.64 -401.67 -1.34 
762.79 -401.64 -1.31 
763.02 -401.93 -1.30 
763.23 -401.42 -1.22 
763.42 -401.90 -1.23 
763.89 -401.98 -1.15 
764.58 -392.45 -0.09 
764.57 -392.73 -0.07 
761.64 -400.52 -1.04 
761.96 -400.17 -0.97 
762.13 -400.56 -0.97 
762.11 -401.35 -1.02 
762.46 -400.58 -0.92 
762.48 -401.63 -0.98 
762.94 -400.47 -0.84 
762.94 -401.30 -0.89 
763.44 -401.43 -0.82 
763.75 -400.41 -0.71 
763.51 -400.72 -0.76 
763.68 -401.86 -0.81 
763.67 -402.18 -0.83 
763.80 -402.30 -0.81 
763.99 -400.47 -0.67 
764.05 -400.85 -0.69 
764.11 -402.09 -0.75 
764.21 -402.45 -0.76 
764.30 -402.08 -0.72 
764.53 -392.22 0.16 
764.52 -392.54 0.14 
764.51 -392.73 0.13 
761.43 -401.42 -0.74 
762.14 -400.06 -0.58 
762.20 -400.15 -0.57 
762.38 -400.45 -0.56 
762.52 -400.80 -0.56 
762.43 -401.46 -0.60 
762.69 -400.57 -0.52 
763.26 -400.69 -0.45 
763.07 -400.78 -0.48 
763.18 -401.26 -0.48 
763.06 -402.10 -0.54 
763.54 -400.66 -0.41 
763.58 -401.34 -0.43 
763.69 -401.57 -0.42 
763.88 -400.51 -0.35 
763.80 -401.01 -0.38 
763.95 -401.35 -0.38 
764.05 -401.66 -0.38 
763.86 -402.12 -0.42 
764.35 -392.54 0.59 
764.33 -392.92 0.57 
761.76 -401.36 -0.30 
762.14 -400.71 -0.24 
762.30 -400.85 -0.22 
762.33 -401.32 -0.23 
762.19 -401.73 -0.26 
762.64 -400.67 -0.17 
762.80 -401.09 -0.16 
762.82 -401.41 -0.17 
762.65 -402.23 -0.21 
762.97 -400.65 -0.13 
763.25 -401.54 -0.12 
763.03 -401.71 -0.15 
763.53 -401.35 -0.07 
763.62 -401.73 -0.07 
764.23 -392.56 0.91 
764.23 -392.89 0.91 
764.30 -396.89 -0.79 
764.33 -396.94 -0.89 
764.26 -396.87 -0.51 
764.22 -397.04 -0.53 
760.55 -404.67 -1.54 
760.96 -404.58 -1.47 
762.57 -404.68 -1.23 
764.21 -396.74 -0.23 
764.18 -397.07 -0.25 
761.10 -404.23 -1.08 
764.03 -396.90 0.19 
764.00 -397.23 0.16 
763.94 -397.45 0.29 
763.93 -396.93 0.51 
763.88 -397.23 0.49 
764.12 -397.03 -0.24 
760.44 -404.47 -1.33 
760.97 -404.02 -0.90 
760.89 -404.36 -1.26 
761.00 -404.58 -1.26 
761.49 -404.58 -0.86 
761.43 -404.63 -1.03 
761.96 -404.54 -0.80 
762.30 -404.67 -1.07 
762.59 -404.52 -1.01 
760.87 -404.47 -0.77 
761.56 -404.36 -0.52 
762.15 -404.44 -0.46 
763.88 -396.76 0.57 
763.81 -397.09 0.58 
763.85 -397.22 0.45 
763.73 -396.93 0.84 
762.91 -404.47 -0.87 
760.57 -404.27 -1.21 
760.27 -404.39 -0.93 
760.97 -404.10 -1.13 
760.80 -404.38 -1.02 
761.27 -404.28 -1.10 
761.24 -404.41 -1.11 
761.65 -404.38 -1.05 
761.47 -404.62 -0.94 
762.24 -404.29 -0.95 
762.49 -404.05 -0.63 
761.28 -404.61 -0.51 
761.43 -404.33 -0.48 
761.62 -404.51 -0.46 
762.02 -404.43 -0.42 
761.55 -404.14 -0.91 
761.41 -404.40 -1.23 
762.26 -404.13 -0.80 
762.50 -404.12 -0.76 
762.49 -404.30 -0.78 
760.31 -404.01 -0.78 
760.71 -403.57 -0.99 
760.51 -404.14 -0.76 
760.97 -404.05 -0.99 
760.82 -404.61 -0.75 
761.37 -404.14 -0.79 
761.37 -404.21 -0.80 
761.80 -404.44 -0.61 
761.76 -404.65 -0.77 
762.32 -403.78 -0.51 
762.16 -404.50 -0.57 
761.41 -403.92 -0.36 
761.39 -404.37 -0.38 
762.00 -404.30 -0.31 
761.91 -404.65 -0.34 
762.36 -403.93 -0.26 
762.46 -404.39 -0.13 
761.32 -404.41 -0.11 
761.53 -404.52 -0.09 
761.11 -404.03 -1.05 
761.04 -404.24 -1.08 
761.40 -404.05 -1.01 
761.44 -404.32 -1.15 
762.16 -404.14 -0.90 
761.93 -404.54 -0.96 
762.58 -404.14 -0.83 
762.75 -404.20 -0.81 
760.62 -404.66 -0.89 
761.08 -404.02 -0.79 
761.48 -403.92 -0.73 
761.58 -403.76 -0.71 
761.58 -404.47 -0.75 
762.22 -403.76 -0.62 
762.08 -403.96 -0.65 
762.52 -403.84 -0.59 
762.52 -404.12 -0.60 
762.74 -403.78 -0.55 
761.12 -404.01 -0.52 
761.23 -404.27 -0.43 
761.12 -404.55 -0.54 
761.48 -403.89 -0.47 
761.55 -404.39 -0.40 
762.13 -403.96 -0.16 
761.93 -404.51 -0.28 
762.48 -404.43 -0.38 
760.55 -403.92 -1.01 
760.92 -403.45 -0.92 
761.03 -403.81 -0.93 
761.29 -403.89 -0.89 
761.53 -403.97 -0.86 
761.60 -404.26 -1.12 
762.21 -403.99 -0.76 
762.10 -404.67 -0.94 
762.58 -404.02 -0.70 
762.76 -404.06 -0.68 
760.77 -404.55 -0.76 
761.38 -403.92 -0.64 
761.70 -404.24 -0.62 
762.27 -403.61 -0.50 
762.08 -403.85 -0.43 
762.50 -403.88 -0.49 
762.24 -404.38 -0.32 
763.15 -403.96 -0.41 
760.27 -404.56 -0.55 
760.79 -404.00 -0.46 
760.81 -404.06 -0.46 
761.56 -403.90 -0.25 
761.55 -404.26 -0.27 
761.71 -404.64 -0.27 
762.00 -403.88 -0.09 
761.87 -404.40 -0.25 
762.17 -404.17 -0.09 
760.89 -404.02 0.05 
760.83 -404.48 0.03 
760.89 -404.54 0.04 
761.55 -404.36 0.09 
761.47 -404.67 0.07 
762.23 -404.53 0.36 
762.27 -404.67 0.13 
760.05 -397.05 -0.99 
760.01 -397.42 -1.03 
760.97 -403.82 -0.83 
760.73 -404.41 -0.91 
761.01 -404.00 -0.83 
761.40 -404.20 -0.79 
761.53 -404.41 -1.02 
761.92 -404.67 -0.75 
762.34 -404.24 -0.65 
761.23 -403.90 -0.33 
761.09 -404.09 -0.60 
761.56 -403.81 -0.51 
761.55 -404.24 -0.32 
761.88 -404.02 -0.27 
761.83 -404.57 -0.42 
762.32 -403.77 -0.31 
762.14 -404.11 -0.36 
762.31 -404.51 -0.26 
762.72 -403.90 -0.27 
762.74 -404.26 -0.30 
762.99 -404.11 -0.35 
760.78 -404.18 -0.40 
760.50 -404.56 -0.45 
761.23 -404.07 -0.11 
761.39 -404.16 -0.11 
761.31 -404.53 -0.13 
761.83 -404.29 -0.08 
761.68 -404.52 -0.10 
762.14 -403.88 0.18 
761.00 -404.13 0.10 
761.45 -404.22 0.23 
761.38 -404.50 0.16 
760.16 -398.98 -1.11 
761.12 -404.06 -0.82 
761.40 -403.95 -0.81 
761.55 -404.21 -0.98 
761.92 -404.47 -0.73 
762.32 -404.02 -0.63 
762.15 -404.51 -0.80 
762.58 -404.10 -0.59 
760.75 -404.58 -0.68 
761.41 -403.67 -0.52 
761.45 -403.91 -0.43 
761.62 -403.98 -0.30 
761.82 -404.35 -0.42 
762.40 -403.68 -0.20 
762.17 -404.28 -0.27 
762.67 -403.79 -0.32 
762.51 -404.41 -0.24 
762.91 -404.39 -0.20 
762.99 -404.47 -0.20 
761.48 -403.75 0.02 
761.35 -403.92 -0.04 
761.72 -404.16 0.00 
761.75 -404.44 -0.01 
762.16 -403.68 0.17 
761.99 -403.93 -0.06 
762.72 -403.92 0.00 
761.06 -404.18 0.07 
760.73 -404.42 0.26 
761.19 -404.47 0.28 
761.67 -404.19 0.31 
761.54 -404.59 0.28 
759.20 -399.07 -1.10 
759.49 -399.56 -1.08 
759.66 -399.81 -1.06 
759.80 -400.06 -1.05 
759.96 -400.32 -1.04 
760.08 -400.63 -1.04 
761.99 -404.17 -0.89 
761.84 -404.50 -0.95 
762.15 -404.22 -0.86 
762.33 -404.57 -0.86 
760.89 -403.76 -0.62 
761.30 -403.33 -0.51 
761.26 -404.23 -0.61 
761.28 -404.51 -0.63 
761.76 -404.39 -0.75 
761.76 -404.63 -0.77 
762.19 -404.27 -0.47 
761.14 -403.51 -0.34 
761.09 -403.67 -0.36 
760.83 -404.19 -0.44 
761.45 -403.49 -0.30 
761.49 -404.39 -0.38 
761.17 -404.50 -0.43 
761.73 -403.54 -0.06 
761.78 -403.86 -0.19 
761.66 -404.11 -0.19 
762.14 -403.94 -0.25 
762.12 -404.27 -0.19 
762.20 -404.62 -0.31 
762.37 -404.51 -0.09 
761.33 -403.60 0.31 
761.26 -404.17 0.04 
761.75 -403.37 0.16 
761.82 -403.86 0.31 
761.68 -404.66 0.13 
762.13 -403.98 0.13 
761.95 -404.27 0.18 
761.89 -404.68 0.24 
760.89 -404.05 0.46 
761.76 -403.68 0.53 
761.65 -404.07 0.59 
761.68 -404.26 0.54 
761.95 -404.53 0.65 
759.16 -400.60 -1.21 
759.25 -400.82 -1.20 
759.75 -401.22 -1.13 
759.88 -401.56 -1.13 
761.08 -403.82 -0.55 
761.55 -404.66 -0.56 
760.55 -404.14 -0.21 
761.01 -403.83 -0.35 
760.87 -404.22 -0.18 
761.32 -403.45 -0.05 
761.80 -404.05 -0.27 
761.71 -404.39 -0.21 
760.78 -404.33 0.24 
761.07 -403.72 0.32 
761.38 -403.93 0.31 
761.18 -404.46 0.04 
761.76 -404.11 0.32 
761.66 -404.38 0.28 
760.82 -404.29 0.46 
761.76 -403.95 0.53 
761.59 -404.46 0.57 
761.72 -404.61 0.66 
759.40 -402.73 -1.23 
759.44 -402.94 -1.25 
759.78 -403.02 -1.18 
760.71 -403.98 -0.51 
761.19 -403.98 -0.43 
761.32 -403.80 -0.39 
761.24 -404.04 -0.43 
764.43 -396.21 0.70 
761.19 -403.30 0.08 
761.02 -404.17 -0.26 
761.22 -403.38 0.08 
761.20 -403.92 -0.21 
764.30 -396.05 1.27 
764.33 -396.20 1.11 
761.15 -403.96 0.43 
764.17 -396.33 1.46 
764.05 -396.60 1.40 
761.41 -404.41 0.60 
764.11 -396.24 1.78 
758.93 -402.59 -1.08 
759.37 -403.14 -1.02 
759.44 -403.47 -1.04 
759.85 -403.68 -0.96 
760.00 -403.84 -0.94 
760.26 -404.11 -0.91 
763.97 -396.02 0.53 
764.01 -395.97 0.55 
760.57 -403.31 -0.22 
761.08 -403.12 -0.12 
764.23 -395.57 0.98 
763.97 -395.86 0.96 
763.94 -396.18 0.93 
760.81 -403.53 0.16 
760.55 -404.06 -0.03 
763.85 -395.93 1.35 
764.05 -395.59 1.59 
763.90 -395.98 1.35 
760.66 -403.33 0.32 
760.68 -403.85 0.27 
760.99 -403.32 0.62 
763.84 -395.51 1.69 
763.83 -395.80 1.65 
763.97 -395.68 1.88 
763.88 -395.88 1.74 
763.80 -396.19 1.59 
760.89 -404.43 0.88 
758.59 -402.95 -1.05 
758.89 -403.17 -1.00 
758.96 -403.37 -1.01 
759.08 -403.65 -1.00 
759.08 -403.72 -1.01 
763.90 -395.84 0.63 
764.23 -395.20 0.81 
760.86 -403.04 0.00 
761.07 -402.95 0.05 
763.92 -395.85 0.93 
763.87 -396.05 1.06 
763.91 -395.88 1.08 
763.89 -396.17 0.90 
760.82 -404.55 0.29 
763.81 -395.58 1.54 
763.79 -395.85 1.51 
763.75 -396.05 1.48 
763.78 -395.42 1.87 
763.74 -395.79 1.81 
763.72 -396.20 1.75 
763.96 -395.53 1.77 
760.83 -404.20 1.08 
758.27 -404.13 -1.16 
758.35 -404.48 -1.17 
763.87 -395.78 0.63 
764.25 -395.08 0.84 
760.98 -403.98 0.00 
761.38 -402.92 0.18 
763.90 -395.81 0.96 
760.51 -403.68 0.20 
760.96 -403.69 0.27 
763.76 -395.93 1.56 
763.70 -396.07 1.54 
760.79 -404.64 0.40 
763.74 -395.51 1.93 
763.72 -395.82 1.89 
763.69 -396.09 1.85 
763.98 -395.45 1.88 
757.83 -403.76 -1.12 
757.92 -403.90 -1.11 
758.05 -404.05 -1.10 
758.20 -404.51 -1.10 
764.24 -394.97 0.94 
761.08 -402.99 0.26 
760.94 -403.64 0.16 
761.49 -402.75 0.36 
761.53 -402.95 0.21 
761.79 -402.76 0.40 
763.84 -395.51 1.06 
763.77 -395.83 1.20 
760.71 -403.12 0.40 
760.50 -403.61 0.32 
761.10 -403.30 0.49 
760.87 -403.88 0.35 
760.88 -404.25 0.32 
761.47 -403.26 0.50 
761.20 -403.54 0.43 
761.18 -403.69 0.42 
763.66 -395.95 1.68 
760.44 -404.34 0.50 
760.92 -403.83 0.66 
760.81 -404.37 0.69 
760.65 -404.40 0.54 
763.61 -395.79 2.03 
760.88 -403.29 1.27 
760.88 -403.94 1.15 
760.75 -404.67 1.02 
761.32 -403.48 1.23 
761.01 -404.05 1.15 
757.84 -404.32 -1.01 
757.93 -404.45 -1.00 
757.99 -404.68 -1.00 
761.70 -403.71 -0.06 
764.23 -394.80 1.09 
761.07 -403.49 0.35 
760.97 -403.60 0.29 
761.31 -403.66 0.27 
761.27 -404.46 0.16 
761.50 -403.81 0.29 
762.39 -402.46 0.73 
762.36 -402.64 0.70 
763.81 -395.32 1.21 
763.73 -395.72 1.17 
760.61 -402.54 0.41 
760.61 -403.33 0.53 
760.51 -403.78 0.54 
760.98 -402.57 0.47 
761.09 -402.80 0.47 
760.74 -403.56 0.60 
760.87 -403.97 0.57 
761.45 -402.72 0.54 
761.28 -404.08 0.62 
761.84 -402.49 0.63 
761.74 -403.41 0.78 
761.54 -403.81 0.63 
763.67 -395.08 1.97 
763.63 -395.34 1.93 
763.63 -395.71 1.88 
760.50 -404.10 0.77 
760.49 -404.30 0.74 
760.65 -404.02 0.81 
761.27 -403.31 1.04 
761.79 -403.25 1.35 
761.53 -403.52 1.27 
762.25 -402.88 1.20 
760.86 -403.80 1.42 
760.45 -404.04 1.26 
761.02 -403.18 1.27 
761.25 -403.59 1.40 
761.02 -403.70 1.27 
760.88 -404.52 1.23 
761.58 -402.99 1.37 
761.25 -404.38 1.29 
761.79 -403.48 1.58 
761.93 -403.36 0.15 
761.72 -403.63 0.09 
761.67 -404.24 0.00 
762.14 -403.39 0.19 
762.26 -403.72 0.19 
760.75 -403.37 0.43 
761.51 -402.72 0.42 
761.30 -403.41 0.42 
761.29 -404.32 0.34 
761.17 -404.40 0.28 
761.81 -403.53 0.40 
761.56 -403.86 0.43 
761.51 -404.27 0.39 
761.41 -404.62 0.32 
762.21 -403.07 0.52 
762.08 -403.42 0.57 
761.86 -403.98 0.49 
763.62 -395.31 1.70 
763.65 -395.62 1.29 
762.36 -402.91 0.56 
762.39 -403.05 0.66 
762.53 -403.44 0.75 
762.76 -403.22 0.81 
760.53 -402.49 0.59 
760.59 -403.22 0.82 
760.89 -402.08 0.70 
761.06 -402.59 0.67 
760.76 -403.82 0.77 
760.57 -404.01 0.62 
761.17 -402.55 0.69 
761.18 -403.83 0.69 
761.23 -404.17 0.71 
760.89 -404.51 0.62 
761.84 -402.98 0.76 
761.60 -403.56 0.74 
761.58 -403.74 0.88 
761.61 -404.17 0.81 
761.37 -404.63 0.74 
762.37 -402.33 0.92 
762.13 -403.10 0.88 
762.08 -403.58 0.96 
761.94 -403.76 0.87 
761.65 -404.42 0.83 
763.55 -395.31 2.09 
763.54 -395.58 2.06 
762.65 -402.44 0.96 
762.58 -402.83 1.19 
762.49 -403.13 1.03 
762.34 -403.67 0.99 
762.92 -402.36 1.02 
762.68 -403.38 1.14 
760.37 -404.16 0.96 
760.57 -403.86 1.03 
760.48 -404.05 0.99 
761.02 -403.94 1.25 
760.95 -404.11 1.05 
761.52 -403.42 1.17 
761.51 -403.91 1.16 
762.26 -402.17 1.54 
762.22 -402.25 1.52 
761.79 -403.28 1.30 
761.77 -403.51 1.35 
761.79 -403.84 1.29 
761.77 -404.20 1.23 
761.62 -404.63 1.19 
762.41 -403.26 1.39 
762.33 -403.48 1.32 
762.70 -402.62 1.54 
762.60 -403.52 1.26 
760.31 -403.90 1.46 
760.84 -403.02 1.51 
760.95 -403.77 1.40 
761.51 -403.15 1.58 
761.36 -403.31 1.53 
761.52 -403.88 1.59 
761.83 -403.28 1.60 
761.91 -404.28 1.57 
762.32 -403.12 1.69 
762.45 -403.51 1.64 
744.49 -400.16 -2.73 
746.18 -404.15 -2.70 
746.25 -404.32 -2.69 
758.01 -404.62 -0.68 
761.82 -403.38 0.29 
761.64 -404.06 0.16 
762.04 -403.22 0.35 
764.13 -394.53 1.37 
760.83 -403.24 0.64 
761.47 -402.59 0.61 
761.33 -403.07 0.75 
761.39 -403.43 0.52 
761.35 -403.55 0.42 
761.09 -404.12 0.47 
761.14 -404.66 0.57 
761.57 -402.59 0.63 
761.79 -403.38 0.60 
761.61 -403.78 0.49 
761.49 -404.14 0.40 
761.38 -404.50 0.49 
762.31 -402.83 0.75 
762.15 -403.10 0.79 
762.00 -403.33 0.74 
761.88 -404.38 0.46 
762.39 -403.09 0.94 
762.23 -403.71 0.65 
762.28 -404.44 0.54 
762.75 -402.84 1.03 
762.75 -403.02 1.01 
761.11 -402.26 0.92 
761.02 -402.32 0.90 
760.82 -403.32 1.07 
760.76 -403.71 1.01 
760.76 -404.30 0.82 
761.22 -402.28 0.93 
761.09 -403.01 0.83 
761.18 -403.45 0.80 
761.12 -403.72 1.07 
760.84 -404.17 0.85 
761.65 -402.28 1.01 
761.81 -403.17 0.94 
761.43 -403.41 1.00 
761.67 -403.80 0.84 
761.41 -404.09 0.76 
761.34 -404.49 0.94 
761.98 -402.85 1.17 
762.07 -403.06 1.31 
761.93 -403.45 1.16 
761.80 -403.91 1.15 
761.74 -404.08 1.12 
762.63 -402.36 1.17 
762.50 -403.09 1.30 
762.33 -403.44 1.15 
762.41 -403.99 0.95 
762.25 -404.21 1.13 
762.93 -402.11 1.26 
762.79 -402.45 1.35 
762.82 -402.67 1.33 
762.67 -403.13 1.40 
762.69 -403.50 1.27 
762.63 -404.07 0.98 
762.81 -404.24 0.99 
763.06 -403.90 1.07 
760.30 -403.87 1.24 
761.01 -403.74 1.36 
760.84 -403.96 1.30 
761.56 -403.78 1.44 
761.37 -404.63 1.31 
761.91 -403.07 1.60 
761.83 -403.39 1.48 
761.68 -403.85 1.44 
761.83 -404.28 1.40 
761.67 -404.56 1.33 
763.51 -394.96 2.33 
763.54 -395.23 2.30 
762.39 -403.21 1.60 
762.40 -403.62 1.59 
762.07 -403.76 1.52 
762.29 -404.35 1.32 
762.63 -403.31 1.67 
762.48 -404.10 1.51 
760.87 -402.82 1.82 
760.94 -402.78 1.83 
760.91 -403.45 1.71 
760.86 -403.61 1.68 
761.66 -403.09 1.88 
761.39 -403.90 1.70 
761.75 -402.97 1.91 
761.88 -403.49 1.84 
762.38 -402.89 2.02 
762.50 -403.67 1.90 
743.88 -400.12 -2.74 
761.71 -403.35 0.36 
761.62 -403.87 0.25 
761.48 -404.06 0.20 
761.93 -403.12 0.42 
761.88 -403.39 0.39 
764.15 -394.46 1.45 
760.51 -402.45 0.76 
760.60 -402.98 0.73 
760.24 -403.15 0.65 
760.80 -403.06 0.76 
760.79 -404.31 0.65 
761.35 -402.96 0.87 
761.32 -403.29 0.63 
761.06 -404.07 0.57 
761.08 -404.62 0.67 
761.60 -403.39 0.77 
761.47 -403.63 0.63 
761.46 -404.04 0.50 
761.36 -404.41 0.59 
762.13 -402.73 0.83 
762.10 -403.06 0.92 
761.84 -403.42 0.67 
761.87 -403.70 0.70 
761.85 -404.34 0.55 
762.57 -402.51 0.94 
762.48 -402.75 1.01 
762.49 -403.15 1.06 
762.22 -403.64 0.77 
762.18 -404.38 0.76 
762.88 -402.85 1.16 
762.69 -403.86 0.83 
760.97 -402.53 1.00 
760.67 -404.05 0.95 
761.16 -403.47 0.92 
761.06 -403.56 0.90 
761.11 -404.08 0.85 
761.61 -403.10 1.21 
761.49 -403.35 1.00 
761.58 -403.82 1.12 
761.37 -404.25 1.00 
761.23 -404.64 0.98 
762.29 -401.93 1.30 
762.16 -402.78 1.34 
761.88 -403.13 1.14 
761.87 -403.46 1.17 
761.87 -403.89 1.16 
761.79 -404.22 1.27 
762.55 -402.00 1.34 
762.65 -402.33 1.32 
762.42 -402.83 1.30 
762.36 -403.27 1.35 
762.33 -403.66 1.43 
762.06 -404.08 1.33 
762.32 -404.18 1.21 
762.94 -402.11 1.39 
762.68 -403.33 1.53 
762.69 -403.73 1.16 
762.57 -404.06 1.26 
762.53 -404.32 1.38 
763.02 -403.70 1.39 
762.92 -404.31 1.14 
760.34 -403.03 1.19 
760.07 -404.18 1.16 
760.80 -403.44 1.21 
760.72 -403.77 1.15 
760.91 -403.15 1.62 
761.00 -403.31 1.60 
760.82 -403.66 1.18 
761.25 -403.35 1.64 
761.31 -404.20 1.52 
761.33 -404.55 1.46 
761.91 -402.90 1.70 
761.84 -403.12 1.59 
761.68 -403.47 1.69 
761.71 -403.76 1.64 
761.64 -404.36 1.46 
762.51 -402.71 1.59 
762.24 -403.20 1.76 
762.00 -403.63 1.71 
762.25 -403.93 1.58 
762.11 -404.39 1.43 
762.46 -403.39 1.82 
762.56 -403.92 1.56 
761.52 -402.34 1.84 
761.73 -403.16 2.08 
743.11 -402.94 -2.98 
743.42 -403.28 -2.94 
743.44 -403.50 -2.95 
743.91 -404.11 -2.90 
761.63 -403.78 0.36 
761.35 -403.92 0.30 
762.01 -403.09 0.56 
761.82 -403.21 0.52 
763.53 -395.11 1.63 
764.07 -394.32 1.54 
760.19 -403.04 0.79 
760.69 -403.05 0.88 
760.64 -403.12 0.87 
760.64 -403.73 0.82 
761.40 -402.37 0.88 
761.27 -403.30 0.64 
761.23 -403.88 0.59 
761.11 -404.08 0.55 
761.01 -404.57 0.81 
761.52 -402.38 0.90 
761.37 -402.97 0.92 
761.57 -403.35 0.90 
761.37 -403.89 0.62 
761.36 -404.26 0.75 
761.16 -404.46 0.85 
761.93 -402.71 1.14 
761.99 -403.09 1.02 
761.81 -403.56 0.85 
761.76 -403.72 0.86 
761.82 -404.19 0.69 
762.31 -402.76 1.21 
762.05 -404.33 1.02 
762.93 -402.35 1.36 
762.71 -402.79 1.28 
762.51 -403.12 1.21 
762.65 -403.69 0.99 
762.55 -404.37 1.11 
762.64 -404.67 1.10 
763.01 -402.81 1.33 
762.75 -404.26 1.16 
760.57 -404.04 1.10 
761.30 -402.07 1.27 
761.07 -403.32 1.09 
761.10 -403.80 1.21 
761.09 -403.98 1.03 
760.95 -404.53 1.11 
761.48 -403.72 1.12 
761.24 -404.03 1.05 
761.38 -404.54 1.18 
761.77 -403.10 1.24 
761.71 -403.37 1.36 
761.74 -403.72 1.17 
761.52 -404.31 1.15 
762.32 -401.97 1.47 
762.28 -402.51 1.40 
762.36 -402.68 1.55 
762.29 -403.06 1.49 
762.36 -403.57 1.37 
762.90 -402.14 1.55 
762.87 -402.58 1.50 
762.50 -403.47 1.33 
762.54 -403.88 1.29 
762.44 -404.30 1.44 
763.10 -402.08 1.60 
762.98 -403.75 1.39 
762.92 -404.09 1.34 
760.27 -402.93 1.38 
760.31 -403.25 1.34 
759.94 -403.98 1.33 
760.12 -404.39 1.31 
760.73 -403.09 1.43 
760.66 -403.21 1.41 
760.28 -404.20 1.36 
760.81 -403.36 1.54 
760.78 -403.61 1.37 
760.78 -404.20 1.43 
760.66 -404.35 1.40 
761.17 -403.56 1.45 
761.22 -403.97 1.75 
761.37 -404.50 1.49 
761.90 -402.92 1.65 
761.93 -402.95 1.77 
761.67 -403.57 1.57 
761.70 -403.91 1.49 
761.60 -404.21 1.62 
761.47 -404.61 1.42 
762.21 -402.86 1.71 
762.28 -403.30 1.67 
762.22 -403.60 1.82 
762.01 -403.98 1.65 
761.97 -404.31 1.82 
762.59 -403.24 1.73 
762.50 -403.63 1.70 
762.46 -403.96 1.67 
760.95 -402.19 1.99 
761.11 -403.11 1.87 
760.97 -403.24 1.83 
760.75 -404.13 1.76 
761.43 -403.07 1.93 
761.36 -403.57 1.92 
761.11 -404.39 1.77 
761.64 -402.72 2.01 
761.86 -403.09 1.99 
761.69 -403.42 1.95 
761.50 -404.18 1.85 
762.15 -403.18 2.02 
762.04 -404.15 1.93 
762.39 -403.25 2.05 
762.27 -404.04 1.98 
761.64 -403.18 0.67 
761.53 -403.80 0.51 
761.97 -403.04 0.75 
761.81 -403.46 0.64 
762.30 -403.28 0.80 
764.13 -394.27 1.82 
761.08 -402.16 1.06 
760.64 -402.96 1.09 
761.25 -402.22 1.08 
761.26 -403.10 0.92 
761.03 -403.86 0.91 
761.16 -404.08 0.75 
761.00 -404.59 1.01 
761.55 -403.13 1.05 
761.47 -403.76 0.87 
761.33 -404.21 0.94 
761.15 -404.52 1.04 
762.20 -402.18 1.27 
761.95 -402.51 1.38 
762.08 -402.75 1.19 
761.82 -403.16 1.10 
761.78 -403.57 0.96 
761.81 -404.15 0.87 
762.57 -402.13 1.34 
762.47 -402.63 1.47 
762.28 -402.78 1.42 
762.18 -403.18 1.17 
762.05 -404.01 1.26 
762.24 -404.36 1.26 
762.80 -402.19 1.38 
762.81 -402.49 1.54 
762.65 -402.70 1.49 
762.77 -403.76 1.22 
762.61 -403.89 1.18 
762.68 -404.49 1.33 
762.97 -403.79 1.26 
760.73 -403.21 1.29 
760.46 -404.14 1.29 
761.01 -403.18 1.34 
760.97 -403.32 1.32 
761.00 -403.79 1.42 
760.72 -404.25 1.33 
761.44 -403.49 1.38 
761.29 -403.84 1.39 
761.44 -404.38 1.43 
761.28 -404.66 1.37 
762.01 -402.96 1.55 
761.88 -403.09 1.51 
761.89 -403.76 1.43 
761.81 -404.58 1.47 
761.44 -404.56 1.41 
762.42 -402.44 1.76 
762.28 -402.91 1.75 
762.24 -403.31 1.55 
762.22 -403.67 1.57 
762.14 -403.99 1.60 
762.06 -404.40 1.54 
762.56 -403.04 1.71 
762.61 -403.34 1.61 
762.49 -403.70 1.64 
762.46 -403.98 1.58 
760.27 -403.60 1.55 
759.98 -404.35 1.53 
760.65 -403.09 1.69 
760.58 -403.47 1.62 
760.62 -403.87 1.57 
761.05 -403.16 1.75 
761.01 -403.50 1.69 
761.53 -402.70 2.00 
761.48 -403.45 1.83 
761.31 -404.01 1.79 
761.18 -404.63 1.68 
761.77 -402.82 1.92 
761.78 -403.20 1.87 
761.81 -403.59 1.85 
761.67 -404.00 1.76 
761.54 -404.38 1.72 
762.26 -402.43 2.06 
762.09 -402.71 1.99 
762.27 -403.23 1.95 
762.22 -403.66 1.95 
761.99 -404.03 1.84 
762.50 -403.29 1.98 
762.43 -403.58 2.02 
760.55 -403.89 2.03 
760.88 -402.58 2.21 
760.86 -403.20 2.11 
761.04 -403.35 2.11 
760.69 -403.89 2.05 
761.50 -402.93 2.26 
761.41 -403.63 2.15 
761.74 -402.85 2.31 
761.62 -403.64 2.23 
761.46 -404.12 2.13 
761.74 -403.02 0.88 
761.91 -402.78 0.93 
761.86 -403.03 0.90 
761.14 -402.86 1.02 
760.98 -403.81 1.10 
761.07 -404.11 1.27 
760.99 -404.57 1.21 
761.42 -402.98 1.34 
761.42 -403.53 1.25 
761.41 -403.82 1.00 
761.26 -404.15 1.30 
761.19 -404.51 1.25 
762.15 -402.19 1.55 
762.13 -402.66 1.41 
761.91 -403.01 1.24 
761.86 -403.39 1.29 
761.81 -403.96 1.07 
762.41 -401.93 1.72 
762.27 -404.01 1.33 
762.27 -404.20 1.48 
762.61 -403.07 1.65 
762.64 -403.64 1.41 
762.87 -403.63 1.45 
762.94 -404.13 1.61 
762.76 -404.45 1.55 
760.72 -402.96 1.54 
760.40 -404.02 1.52 
760.96 -402.98 1.58 
761.06 -403.28 1.56 
761.39 -403.34 1.62 
761.20 -403.86 1.67 
761.24 -404.14 1.65 
761.26 -404.64 1.59 
761.72 -402.67 1.75 
761.77 -403.63 1.65 
761.65 -403.97 1.74 
761.53 -404.42 1.67 
762.39 -402.30 1.92 
762.23 -402.84 1.90 
762.28 -403.06 1.95 
762.22 -403.67 1.80 
762.12 -403.93 1.82 
761.99 -404.35 1.75 
762.50 -403.60 1.78 
762.37 -404.06 1.85 
762.27 -404.29 1.81 
762.73 -403.77 1.81 
760.51 -402.85 1.94 
760.54 -403.46 1.92 
760.61 -403.67 1.96 
761.10 -403.11 2.01 
760.99 -403.43 1.94 
761.36 -401.87 2.23 
761.38 -403.48 2.00 
761.17 -404.30 1.91 
761.98 -402.19 2.29 
761.94 -402.91 2.18 
761.89 -403.24 2.13 
761.66 -403.48 2.09 
761.58 -403.89 2.04 
761.40 -404.60 1.96 
762.08 -402.59 2.25 
762.19 -402.94 2.22 
762.04 -403.33 2.14 
761.98 -403.63 2.15 
761.77 -404.56 2.03 
762.44 -403.23 2.22 
762.45 -403.71 2.25 
760.89 -403.08 2.40 
761.69 -402.86 2.57 
761.90 -402.64 1.10 
761.82 -402.88 1.07 
763.43 -394.77 2.21 
762.16 -402.87 1.14 
760.99 -402.10 1.43 
760.66 -403.76 1.41 
760.58 -404.34 1.34 
761.21 -401.89 1.49 
761.12 -401.98 1.47 
761.13 -402.61 1.19 
761.02 -403.47 1.11 
760.89 -403.80 1.25 
761.27 -402.96 1.40 
761.43 -403.44 1.19 
761.30 -403.89 1.33 
761.05 -404.10 1.45 
762.18 -401.81 1.68 
762.06 -402.27 1.71 
761.88 -402.72 1.44 
761.79 -403.15 1.38 
761.73 -403.27 1.36 
761.68 -403.88 1.40 
761.78 -404.28 1.57 
762.31 -401.89 1.70 
762.11 -403.20 1.67 
761.91 -404.11 1.61 
762.02 -404.19 1.62 
762.80 -401.87 1.79 
762.70 -403.50 1.62 
762.55 -404.09 1.37 
763.10 -403.46 1.70 
762.93 -403.51 1.66 
762.67 -403.98 1.76 
760.40 -402.49 1.75 
759.99 -403.74 1.68 
760.01 -403.90 1.67 
760.49 -402.96 1.71 
760.38 -403.32 1.80 
760.35 -403.67 1.75 
760.41 -403.94 1.73 
761.04 -403.00 1.80 
761.08 -403.48 1.75 
761.32 -403.01 1.85 
761.44 -403.61 1.95 
761.25 -403.78 1.82 
761.23 -404.19 1.84 
761.70 -402.46 1.99 
761.91 -402.71 1.99 
761.82 -403.23 1.92 
761.71 -403.43 1.87 
761.52 -404.26 1.89 
762.37 -402.97 2.05 
762.11 -403.00 2.00 
762.05 -403.50 2.00 
762.68 -402.07 2.21 
762.61 -402.95 2.09 
762.49 -403.30 2.10 
762.33 -403.54 2.04 
760.54 -403.73 2.16 
761.03 -401.86 2.41 
760.69 -403.66 2.20 
761.17 -402.84 2.29 
761.32 -403.08 2.33 
761.36 -403.57 2.32 
761.24 -403.96 2.20 
761.81 -402.23 2.49 
761.59 -403.11 2.33 
761.57 -403.55 2.31 
762.10 -402.77 2.47 
761.90 -403.11 2.39 
762.00 -404.08 2.26 
761.73 -404.47 2.26 
762.40 -403.00 2.49 
760.72 -402.53 1.00 
761.02 -402.57 1.05 
760.95 -403.43 0.98 
761.65 -402.81 0.92 
763.38 -394.20 2.11 
761.95 -402.66 1.11 
761.64 -403.09 1.14 
762.19 -402.46 1.30 
762.24 -402.92 1.03 
760.55 -401.93 1.27 
760.51 -404.26 1.24 
761.19 -401.78 1.40 
760.96 -403.86 1.36 
761.64 -401.59 1.51 
761.42 -401.79 1.45 
761.25 -402.80 1.32 
761.35 -403.45 1.28 
761.30 -403.93 1.22 
760.96 -404.13 1.33 
762.14 -401.73 1.59 
761.94 -402.24 1.50 
761.82 -403.19 1.39 
761.80 -403.75 1.13 
761.49 -404.12 1.44 
762.39 -401.61 1.65 
762.09 -403.55 1.60 
761.95 -404.05 1.33 
761.91 -404.47 1.48 
762.73 -401.86 1.69 
762.39 -403.28 1.49 
762.25 -403.62 1.63 
762.42 -404.03 1.23 
762.95 -403.38 1.59 
762.62 -403.92 1.67 
762.66 -404.03 1.28 
760.35 -402.49 1.66 
760.27 -403.31 1.28 
760.60 -402.92 1.66 
760.46 -403.65 1.28 
760.21 -404.21 1.59 
760.87 -403.10 1.69 
760.62 -403.90 1.49 
761.28 -402.81 1.80 
761.15 -403.06 1.75 
761.32 -403.54 1.46 
761.21 -403.99 1.79 
761.19 -404.20 1.77 
761.02 -404.62 1.69 
761.77 -402.50 1.93 
761.60 -403.50 1.78 
761.44 -404.20 1.81 
761.43 -404.68 1.75 
762.35 -402.62 1.74 
761.99 -402.82 1.93 
761.85 -403.42 1.84 
762.03 -403.54 1.86 
761.94 -403.95 1.93 
762.55 -402.87 2.03 
762.36 -403.31 1.95 
762.30 -403.53 1.91 
762.63 -403.31 2.00 
762.59 -403.76 1.94 
760.64 -402.41 2.22 
760.26 -403.80 1.64 
760.81 -402.72 2.21 
761.42 -402.55 2.34 
761.23 -402.76 2.28 
761.24 -403.54 2.17 
761.71 -402.40 2.42 
761.68 -403.27 2.16 
761.38 -403.75 2.25 
762.09 -402.93 2.24 
762.00 -403.78 2.27 
760.45 -403.49 2.13 
760.60 -403.50 2.15 
761.39 -403.20 2.33 
760.70 -402.72 1.12 
760.53 -402.95 1.07 
760.90 -403.74 1.09 
760.87 -404.25 1.05 
761.34 -403.83 1.17 
761.25 -404.17 1.13 
761.95 -402.24 1.16 
761.86 -402.53 1.12 
761.88 -402.81 1.35 
761.75 -404.13 1.23 
762.14 -402.62 1.42 
762.02 -402.84 1.38 
762.54 -402.67 1.49 
760.52 -401.59 1.45 
760.71 -401.49 1.50 
761.08 -401.30 1.59 
761.00 -402.37 1.47 
761.64 -401.41 1.68 
761.59 -402.34 1.59 
761.50 -402.45 1.56 
761.42 -402.85 1.51 
761.34 -403.15 1.47 
761.96 -401.91 1.70 
761.74 -402.87 1.57 
761.63 -404.43 1.59 
762.02 -402.94 1.62 
761.98 -404.40 1.46 
762.06 -404.56 1.27 
762.82 -401.59 1.90 
762.58 -403.10 1.71 
762.30 -404.30 1.33 
762.41 -404.50 1.34 
762.89 -403.05 1.78 
762.77 -404.23 1.43 
763.31 -403.00 1.86 
760.03 -403.90 1.34 
760.40 -402.19 1.89 
760.59 -402.79 1.86 
760.30 -403.90 1.39 
760.97 -402.05 2.02 
760.86 -402.48 1.94 
760.74 -402.84 1.88 
760.85 -404.07 1.48 
760.83 -404.45 1.44 
761.18 -402.77 1.97 
761.31 -403.77 1.59 
761.20 -404.25 1.53 
761.01 -404.58 1.67 
761.56 -403.20 1.99 
761.36 -404.29 1.56 
761.23 -404.63 1.90 
762.07 -403.02 1.96 
761.84 -403.57 2.00 
761.90 -403.90 1.70 
761.87 -404.16 1.67 
762.51 -402.50 2.25 
762.42 -402.75 2.21 
762.43 -403.06 2.02 
762.31 -403.52 1.95 
762.17 -403.90 1.75 
762.77 -402.90 2.26 
759.84 -404.29 1.69 
760.38 -404.25 1.79 
761.25 -403.23 2.07 
760.94 -404.57 1.86 
761.53 -402.90 2.52 
761.44 -403.95 2.02 
761.92 -403.80 2.12 
760.60 -402.08 2.46 
761.01 -401.91 2.56 
761.07 -402.71 2.46 
761.80 -402.06 2.68 
761.55 -402.23 2.61 
761.83 -402.80 2.58 
760.48 -402.16 1.20 
760.94 -402.15 1.30 
760.73 -403.12 1.19 
760.87 -403.76 1.17 
761.41 -402.63 1.36 
761.01 -403.11 1.25 
761.21 -403.55 1.26 
761.72 -402.59 1.18 
761.44 -403.51 1.30 
762.26 -401.69 1.59 
762.19 -402.04 1.55 
761.82 -403.69 1.37 
762.46 -402.05 1.61 
762.32 -403.72 1.47 
762.13 -403.87 1.42 
760.52 -401.40 1.59 
761.17 -401.48 1.70 
761.48 -401.41 1.77 
761.42 -402.54 1.66 
761.25 -403.32 1.55 
761.81 -401.41 1.83 
761.39 -403.18 1.59 
761.90 -402.76 1.73 
761.93 -403.19 1.70 
762.46 -401.30 1.97 
762.32 -402.91 1.80 
762.96 -401.45 2.05 
759.83 -402.77 1.52 
760.39 -402.96 1.95 
760.32 -403.28 1.57 
760.72 -402.76 2.03 
760.66 -403.11 1.98 
760.70 -403.41 1.63 
761.08 -402.59 2.12 
761.67 -402.88 2.20 
761.62 -403.28 2.14 
761.46 -403.62 2.07 
761.34 -403.92 1.70 
761.28 -404.14 1.67 
762.17 -402.28 2.36 
761.90 -402.47 2.29 
761.96 -403.19 1.89 
761.81 -403.57 2.14 
761.80 -403.88 1.79 
762.27 -402.79 2.32 
762.15 -403.24 2.08 
762.16 -403.50 1.90 
760.54 -402.14 2.20 
760.93 -403.09 2.17 
761.75 -403.25 2.30 
762.49 -402.71 2.50 
762.37 -402.81 2.47 
762.06 -403.14 2.37 
759.87 -402.08 1.26 
759.99 -402.05 1.29 
760.47 -402.04 1.39 
760.93 -402.88 1.42 
760.85 -403.48 1.36 
760.74 -403.69 1.33 
761.75 -401.64 1.67 
761.64 -402.36 1.35 
761.40 -403.37 1.48 
762.27 -401.86 1.76 
761.85 -403.20 1.58 
762.37 -401.67 1.79 
762.38 -403.71 1.65 
760.43 -401.23 1.78 
761.11 -401.30 1.91 
760.78 -402.11 1.77 
761.41 -401.05 1.99 
761.15 -402.39 1.82 
761.11 -403.05 1.75 
761.85 -401.72 2.01 
761.54 -402.77 1.86 
761.37 -403.00 1.80 
762.11 -401.20 2.11 
761.73 -402.78 1.89 
762.43 -401.07 2.19 
762.27 -402.71 2.00 
762.95 -401.21 2.27 
762.68 -402.75 2.08 
762.92 -402.94 2.11 
759.86 -402.92 1.71 
759.79 -403.04 1.69 
760.29 -403.32 1.76 
760.53 -402.99 2.19 
760.60 -403.15 1.83 
761.05 -404.01 1.84 
761.50 -402.31 2.08 
761.43 -403.02 2.36 
761.33 -403.50 2.11 
761.14 -403.85 1.87 
762.00 -402.95 2.12 
761.74 -403.23 2.22 
761.61 -403.66 2.32 
761.70 -403.82 1.98 
762.09 -402.71 2.52 
762.19 -403.13 2.14 
760.23 -402.46 2.20 
760.34 -403.12 2.28 
760.60 -402.59 2.25 
760.34 -403.19 2.27 
761.05 -402.43 2.36 
760.94 -402.63 2.31 
760.81 -402.83 2.26 
761.59 -402.55 2.44 
761.89 -402.04 2.56 
761.66 -402.76 2.50 
762.25 -402.43 2.58 
760.33 -401.98 1.73 
760.23 -402.63 1.66 
760.63 -401.87 1.80 
760.62 -402.89 1.72 
761.16 -402.61 1.85 
760.99 -403.28 1.76 
760.74 -403.65 1.69 
761.59 -401.31 2.03 
761.64 -402.63 1.94 
761.68 -403.30 1.90 
762.29 -403.31 2.01 
762.71 -403.23 2.10 
762.48 -403.49 2.04 
760.46 -401.66 2.14 
761.00 -402.34 2.18 
761.48 -401.57 2.35 
761.38 -402.67 2.22 
761.89 -402.04 2.38 
761.77 -402.79 2.28 
762.24 -402.05 2.44 
762.13 -402.52 2.38 
762.68 -402.63 2.47 
762.51 -402.74 2.43 
763.02 -403.00 2.50 
759.86 -403.32 2.06 
760.14 -403.29 2.12 
760.07 -403.53 2.08 
760.66 -402.76 2.26 
760.50 -402.96 2.21 
760.43 -403.25 2.17 
760.95 -403.75 2.22 
761.42 -402.67 2.42 
761.24 -403.09 2.34 
761.21 -403.90 2.26 
761.84 -402.75 2.49 
761.81 -403.12 2.45 
762.26 -402.53 2.59 
760.36 -402.89 2.72 
761.01 -401.44 2.88 
760.81 -402.21 2.75 
761.40 -401.65 2.93 
761.51 -402.48 2.85 
761.28 -403.08 2.73 
761.20 -403.42 2.68 
761.86 -402.50 2.91 
761.99 -402.20 2.97 
