# .PCD v0.7 - Point Cloud Data file format
VERSION 0.7
FIELDS x y z
SIZE 4 4 4
TYPE F F F
COUNT 1 1 1
WIDTH 208
HEIGHT 1
VIEWPOINT 0 0 0 1 0 0 0
POINTS 208
DATA ascii
741.88 -278.95 7.38 
742.03 -279.59 7.20 
741.73 -279.20 6.91 
741.69 -279.13 6.31 
741.84 -279.32 7.02 
746.06 -275.15 5.92 
741.74 -279.35 6.85 
741.83 -279.25 6.92 
742.00 -279.33 6.30 
741.74 -278.80 6.88 
742.17 -279.46 6.48 
742.01 -278.98 6.78 
741.93 -278.86 6.38 
742.14 -279.03 6.69 
742.18 -278.88 6.00 
742.14 -278.77 6.53 
741.99 -278.16 5.75 
742.46 -279.02 6.05 
742.52 -278.96 6.62 
742.38 -278.70 5.60 
742.17 -278.33 6.07 
742.53 -278.90 5.27 
742.51 -278.98 6.25 
742.61 -279.11 5.58 
742.91 -279.63 6.09 
742.39 -278.82 6.22 
742.76 -279.13 5.52 
742.49 -278.81 6.12 
742.71 -279.24 5.22 
742.56 -279.06 6.04 
742.85 -279.53 6.07 
742.90 -279.24 5.92 
743.00 -279.22 5.83 
743.26 -279.35 5.77 
743.14 -278.70 5.57 
742.35 -277.57 7.88 
744.86 -274.26 7.05 
745.02 -273.98 7.08 
745.64 -272.84 7.23 
745.79 -272.55 7.27 
746.01 -272.29 7.31 
746.68 -271.59 7.44 
746.95 -271.35 7.49 
741.90 -277.36 7.27 
745.63 -274.97 7.28 
742.21 -277.91 7.74 
742.36 -278.35 7.74 
741.63 -277.81 6.66 
742.57 -278.02 6.79 
743.40 -277.83 6.92 
742.10 -278.23 7.76 
742.74 -277.16 6.65 
744.05 -277.15 6.83 
746.21 -276.42 7.18 
741.77 -277.99 7.17 
741.88 -278.33 7.17 
742.10 -278.53 7.51 
741.64 -276.77 6.42 
741.95 -276.60 6.48 
742.59 -277.30 6.54 
743.87 -277.28 6.72 
745.90 -276.89 7.04 
745.99 -277.28 7.03 
745.89 -276.54 7.05 
745.95 -276.80 7.05 
746.10 -276.37 7.09 
746.35 -276.44 7.12 
746.59 -276.28 7.17 
741.59 -278.33 7.01 
741.82 -278.78 7.03 
741.96 -278.80 7.36 
742.09 -279.18 7.37 
741.61 -278.61 7.04 
741.80 -278.88 7.06 
742.02 -279.33 7.39 
741.92 -279.13 8.35 
741.65 -278.75 6.86 
741.82 -279.14 6.87 
741.92 -279.24 7.19 
741.94 -279.39 8.12 
741.75 -278.79 5.84 
741.67 -279.07 6.60 
741.87 -279.58 6.92 
741.75 -279.64 5.85 
741.52 -279.58 7.25 
745.54 -275.09 5.91 
745.72 -274.83 5.95 
746.06 -274.28 6.03 
746.24 -273.98 6.07 
746.68 -273.26 6.18 
746.56 -273.47 6.15 
746.94 -272.97 6.23 
747.25 -272.72 6.29 
747.48 -272.55 6.33 
741.79 -279.21 6.32 
741.83 -279.42 6.32 
741.92 -279.65 6.62 
741.90 -279.53 7.03 
745.65 -275.62 5.84 
745.91 -275.33 5.89 
746.26 -274.98 5.96 
746.60 -274.84 6.01 
746.83 -274.56 6.06 
747.20 -274.21 6.13 
741.77 -279.39 6.19 
741.91 -279.46 6.88 
741.86 -279.61 6.87 
745.09 -276.84 5.80 
745.15 -277.04 5.80 
745.47 -277.41 5.82 
746.15 -275.56 6.03 
746.43 -275.32 6.09 
746.64 -275.16 6.13 
747.24 -275.05 6.22 
747.46 -274.82 6.26 
741.99 -279.35 5.66 
741.73 -279.23 6.26 
741.86 -279.55 6.27 
741.79 -279.44 6.90 
742.55 -279.14 5.37 
742.86 -278.98 5.43 
743.27 -278.93 5.49 
742.00 -279.07 5.71 
741.69 -278.83 6.41 
741.92 -279.13 6.30 
741.80 -278.97 6.89 
741.84 -279.16 6.88 
742.08 -279.42 6.92 
741.92 -278.66 5.63 
741.75 -278.52 6.18 
741.89 -278.80 6.19 
742.04 -279.21 6.47 
741.84 -278.77 6.75 
741.74 -278.49 6.74 
741.79 -278.61 6.75 
742.02 -279.12 7.09 
743.05 -278.43 5.20 
743.38 -278.31 5.26 
743.40 -278.08 5.28 
742.13 -278.62 5.61 
741.90 -278.57 6.12 
742.04 -278.87 6.13 
741.90 -278.62 6.66 
742.07 -278.86 6.68 
741.76 -278.36 6.95 
742.84 -279.61 5.19 
742.02 -278.55 5.99 
742.49 -279.36 6.30 
742.64 -279.60 6.32 
741.99 -278.55 6.51 
742.53 -279.45 6.88 
742.58 -279.31 6.90 
742.09 -278.36 5.76 
742.24 -278.62 5.77 
742.29 -278.73 6.04 
742.50 -279.05 6.06 
742.10 -278.41 6.26 
742.25 -278.65 6.28 
742.52 -279.10 6.61 
741.97 -278.17 6.25 
742.03 -278.21 6.26 
742.12 -278.27 5.58 
742.24 -278.48 5.59 
742.53 -278.91 5.35 
742.68 -279.16 5.36 
742.14 -278.30 6.06 
742.27 -278.52 6.07 
742.46 -278.81 5.98 
742.57 -279.07 5.35 
742.76 -279.37 5.28 
742.41 -278.87 5.96 
742.60 -279.11 5.76 
742.57 -279.14 6.26 
742.70 -279.31 6.27 
742.77 -279.37 5.60 
742.86 -279.57 5.60 
742.50 -278.97 6.18 
742.66 -279.26 6.15 
742.83 -279.47 6.08 
742.57 -278.89 5.26 
742.68 -279.07 5.27 
742.77 -279.25 5.51 
742.90 -279.47 5.52 
743.01 -279.68 5.53 
742.53 -278.83 6.13 
742.63 -279.06 6.10 
742.87 -279.42 6.02 
742.84 -279.47 5.22 
742.66 -279.17 5.96 
742.75 -279.38 6.02 
742.89 -279.63 6.08 
743.06 -279.39 5.43 
743.04 -279.41 5.84 
743.24 -279.68 5.77 
743.07 -279.38 5.83 
743.50 -279.61 5.59 
743.04 -278.94 5.76 
743.15 -279.15 5.76 
743.33 -279.44 5.77 
743.01 -278.85 5.76 
742.99 -278.46 5.57 
743.08 -278.61 5.57 
743.23 -278.46 5.44 
743.29 -278.58 5.44 
742.96 -278.21 5.66 
743.10 -277.84 5.39 
743.14 -277.92 5.39 
743.07 -277.53 5.39 
