# .PCD v0.7 - Point Cloud Data file format
VERSION 0.7
FIELDS x y z
SIZE 4 4 4
TYPE F F F
COUNT 1 1 1
WIDTH 2172
HEIGHT 1
VIEWPOINT 0 0 0 1 0 0 0
POINTS 2172
DATA ascii
-144.64 -397.70 7.39 
-147.67 -399.06 7.77 
-149.18 -404.54 7.94 
-142.15 -398.04 7.95 
-142.03 -398.37 7.92 
-142.52 -398.46 8.00 
-142.61 -398.71 8.00 
-142.81 -398.87 8.03 
-140.98 -399.59 7.74 
-141.14 -399.87 7.75 
-141.05 -400.36 7.73 
-141.43 -400.50 7.79 
-141.00 -400.91 7.71 
-141.51 -401.13 7.79 
-141.33 -401.33 7.76 
-140.83 -401.74 7.67 
-141.17 -401.90 7.72 
-140.95 -402.35 7.68 
-141.10 -402.67 7.70 
-141.19 -402.91 7.71 
-141.29 -403.41 7.72 
-142.35 -403.54 7.89 
-142.54 -403.87 7.91 
-142.27 -404.35 7.87 
-145.48 -395.45 8.52 
-144.33 -396.21 8.33 
-144.36 -396.25 8.33 
-144.09 -396.66 8.28 
-142.57 -397.59 8.03 
-145.44 -403.48 8.37 
-145.33 -404.67 8.35 
-141.49 -400.45 8.66 
-141.65 -400.66 8.68 
-141.47 -401.14 8.64 
-141.72 -400.91 8.69 
-141.35 -401.55 8.61 
-141.11 -401.88 8.56 
-141.78 -401.96 8.68 
-142.75 -401.94 8.85 
-142.90 -402.12 8.87 
-142.10 -403.70 8.70 
-143.02 -403.44 8.87 
-142.20 -403.91 8.72 
-142.02 -404.22 8.68 
-142.70 -404.36 8.80 
-144.19 -397.74 9.21 
-144.07 -398.01 9.18 
-144.41 -398.60 9.23 
-144.02 -399.03 9.15 
-144.25 -399.24 9.18 
-145.90 -401.66 9.42 
-143.02 -402.15 8.89 
-145.98 -402.22 9.42 
-144.45 -402.32 9.15 
-143.89 -403.01 9.03 
-144.55 -396.75 9.31 
-145.14 -397.13 9.40 
-144.61 -402.38 10.11 
-144.32 -402.87 10.04 
-144.61 -403.23 10.09 
-144.73 -403.05 10.12 
-144.10 -403.75 9.98 
-145.19 -403.80 10.20 
-144.77 -404.16 10.11 
-144.99 -404.39 10.15 
-145.18 -399.78 10.30 
-145.44 -399.99 10.34 
-145.76 -400.48 10.39 
-145.49 -400.86 10.33 
-145.81 -400.86 10.39 
-146.90 -402.56 4.75 
-146.94 -402.78 4.75 
-147.34 -402.74 4.78 
-146.94 -403.09 4.76 
-147.40 -403.30 4.79 
-146.73 -395.64 5.65 
-146.42 -401.47 5.63 
-146.04 -401.88 5.60 
-147.69 -402.03 5.75 
-147.64 -402.30 5.74 
-146.66 -403.12 5.66 
-146.70 -403.38 5.67 
-147.52 -403.53 5.74 
-145.55 -396.40 6.49 
-145.39 -397.08 6.47 
-145.75 -397.24 6.51 
-143.60 -397.50 6.27 
-145.99 -397.45 6.53 
-147.22 -399.75 6.65 
-147.41 -399.39 6.68 
-142.30 -399.94 6.11 
-143.08 -399.95 6.19 
-145.67 -400.80 6.48 
-146.91 -400.68 6.62 
-148.07 -401.31 6.75 
-145.09 -401.76 6.41 
-146.34 -402.34 6.55 
-147.87 -402.25 6.72 
-145.82 -402.98 6.49 
-145.90 -403.56 6.50 
-147.80 -403.73 6.72 
-144.98 -404.04 6.40 
-147.77 -403.97 6.71 
-146.73 -395.54 6.63 
-147.80 -396.07 6.74 
-147.44 -396.53 6.70 
-148.09 -396.98 6.77 
-149.17 -396.91 6.88 
-149.58 -397.08 6.93 
-149.30 -398.10 6.89 
-150.58 -399.03 7.03 
-151.27 -399.49 7.11 
-151.22 -399.82 7.10 
-151.23 -400.80 7.10 
-140.35 -400.84 6.70 
-151.40 -401.34 7.12 
-151.96 -401.59 7.18 
-151.80 -401.95 7.16 
-140.76 -401.71 6.74 
-140.63 -402.00 6.72 
-140.90 -402.17 6.75 
-141.08 -402.82 6.77 
-141.18 -402.85 6.79 
-153.07 -403.63 7.31 
-153.26 -403.54 7.33 
-141.19 -403.22 6.78 
-141.23 -403.58 6.79 
-141.48 -404.38 6.82 
-142.89 -396.58 7.10 
-142.92 -396.83 7.10 
-143.41 -396.95 7.16 
-143.75 -397.10 7.20 
-144.48 -397.93 7.28 
-142.34 -397.97 7.00 
-142.65 -398.12 7.04 
-142.13 -398.61 6.96 
-141.80 -399.00 6.91 
-141.89 -399.19 6.92 
-142.25 -399.36 6.97 
-140.67 -399.70 6.75 
-140.98 -400.10 6.79 
-141.06 -400.33 6.80 
-141.82 -400.60 6.89 
-141.30 -401.13 6.82 
-141.66 -401.18 6.87 
-141.29 -402.47 6.80 
-141.59 -403.74 6.84 
-141.51 -403.98 6.82 
-141.96 -404.65 6.88 
-140.73 -401.69 7.55 
-140.77 -401.92 7.55 
-140.98 -402.87 7.57 
-140.97 -403.24 7.56 
-142.54 -397.84 7.91 
-142.01 -398.33 7.82 
-142.23 -398.52 7.84 
-142.66 -398.61 7.91 
-142.66 -398.89 7.90 
-141.00 -399.76 7.63 
-140.98 -399.94 7.62 
-141.11 -400.27 7.63 
-141.22 -400.50 7.64 
-140.70 -400.94 7.56 
-141.32 -400.96 7.65 
-141.27 -401.24 7.64 
-140.89 -402.14 7.56 
-141.05 -402.35 7.58 
-141.26 -402.52 7.62 
-141.26 -402.74 7.61 
-143.17 -403.32 7.91 
-141.37 -403.51 7.62 
-142.46 -403.73 7.79 
-143.99 -403.65 8.03 
-142.06 -404.60 7.72 
-142.27 -404.29 7.75 
-144.96 -404.47 8.18 
-144.33 -396.21 8.23 
-144.38 -396.49 8.23 
-143.99 -396.95 8.16 
-148.39 -402.00 8.75 
-141.39 -400.78 8.50 
-141.36 -401.20 8.49 
-141.32 -401.60 8.47 
-141.30 -402.19 8.45 
-141.49 -402.06 8.49 
-141.57 -402.39 8.50 
-143.11 -402.52 8.77 
-142.43 -404.23 8.62 
-142.29 -404.52 8.59 
-144.69 -396.62 9.22 
-144.68 -396.93 9.20 
-145.00 -397.05 9.25 
-144.63 -397.54 9.17 
-145.00 -397.34 9.25 
-144.22 -397.94 9.09 
-144.14 -398.03 9.07 
-144.01 -398.37 9.04 
-145.16 -398.52 9.24 
-144.38 -399.08 9.08 
-144.19 -399.42 9.04 
-144.21 -399.67 9.03 
-146.25 -401.39 9.36 
-146.17 -401.99 9.33 
-144.67 -402.62 9.05 
-145.14 -402.76 9.13 
-147.42 -403.94 9.53 
-145.95 -395.14 9.49 
-146.19 -395.30 9.53 
-147.49 -402.52 9.56 
-147.58 -402.79 9.58 
-143.10 -404.42 9.60 
-145.12 -400.81 10.10 
-145.51 -400.64 10.19 
-145.64 -401.06 10.20 
-144.89 -402.28 10.02 
-144.68 -402.58 9.97 
-143.71 -403.07 9.76 
-143.98 -403.05 9.81 
-144.60 -403.17 9.94 
-144.44 -403.48 9.90 
-143.80 -403.89 9.76 
-144.86 -404.19 9.97 
-144.71 -404.47 9.94 
-145.39 -398.68 10.23 
-145.40 -398.92 10.22 
-145.71 -398.88 10.29 
-146.26 -399.28 10.38 
-145.56 -399.81 10.22 
-145.56 -400.28 10.21 
-145.77 -400.91 10.23 
-146.38 -401.46 10.34 
-146.95 -395.97 4.58 
-147.06 -402.87 4.66 
-147.06 -403.30 4.67 
-147.50 -403.50 4.70 
-146.82 -395.71 5.52 
-146.93 -395.93 5.53 
-146.36 -401.78 5.50 
-146.57 -401.43 5.52 
-146.11 -402.08 5.48 
-147.74 -402.27 5.63 
-147.75 -402.51 5.63 
-146.71 -403.35 5.54 
-146.78 -403.06 5.55 
-148.22 -403.30 5.68 
-146.85 -395.66 6.48 
-145.83 -396.34 6.36 
-145.50 -397.14 6.32 
-145.91 -397.26 6.37 
-146.40 -397.38 6.42 
-143.71 -397.58 6.12 
-145.02 -397.58 6.27 
-145.78 -397.91 6.35 
-146.15 -398.36 6.39 
-143.25 -398.55 6.06 
-147.47 -399.68 6.53 
-147.23 -400.05 6.50 
-142.30 -400.03 5.95 
-145.71 -400.80 6.33 
-146.98 -400.70 6.47 
-145.80 -401.00 6.34 
-148.14 -401.54 6.60 
-145.14 -401.79 6.26 
-146.43 -402.45 6.41 
-147.99 -402.46 6.59 
-149.36 -403.30 6.74 
-146.02 -403.76 6.36 
-148.99 -397.00 6.71 
-149.36 -397.12 6.75 
-149.70 -397.33 6.79 
-149.42 -398.12 6.75 
-150.86 -399.18 6.91 
-151.38 -399.72 6.97 
-151.64 -400.30 7.00 
-140.95 -400.20 6.60 
-141.15 -400.40 6.63 
-140.46 -400.90 6.53 
-141.09 -400.93 6.61 
-141.36 -401.05 6.65 
-141.33 -401.25 6.64 
-151.91 -402.13 7.03 
-152.07 -401.78 7.04 
-140.95 -401.72 6.58 
-140.86 -402.11 6.57 
-141.32 -402.49 6.63 
-142.01 -402.59 6.72 
-153.63 -403.36 7.23 
-141.21 -402.86 6.61 
-153.15 -403.78 7.17 
-141.26 -403.10 6.62 
-141.90 -403.28 6.70 
-141.38 -403.74 6.63 
-141.48 -403.76 6.64 
-141.66 -404.06 6.66 
-141.83 -403.92 6.69 
-141.72 -404.67 6.67 
-143.58 -396.67 7.00 
-143.22 -397.03 6.95 
-143.74 -397.23 7.02 
-144.46 -398.03 7.10 
-142.26 -398.13 6.81 
-142.75 -398.21 6.87 
-142.24 -398.68 6.79 
-142.00 -399.05 6.76 
-141.99 -399.29 6.75 
-142.52 -399.37 6.82 
-150.27 -399.31 7.86 
-141.08 -400.13 7.42 
-141.36 -400.54 7.46 
-141.37 -400.95 7.45 
-141.42 -401.24 7.45 
-140.84 -401.59 7.36 
-140.84 -402.20 7.35 
-141.13 -401.87 7.40 
-141.02 -402.39 7.37 
-141.17 -402.57 7.39 
-141.06 -403.23 7.37 
-141.24 -403.54 7.39 
-147.72 -404.19 7.49 
-141.70 -404.15 7.46 
-141.21 -404.50 7.38 
-142.59 -397.95 7.71 
-142.20 -398.52 7.63 
-142.21 -398.90 7.63 
-142.60 -399.04 7.68 
-143.02 -398.84 7.75 
-141.39 -399.76 7.48 
-141.52 -400.23 7.49 
-142.81 -403.45 7.64 
-142.44 -403.73 7.58 
-144.39 -404.04 7.89 
-145.77 -403.99 8.11 
-144.54 -404.48 7.91 
-145.21 -404.65 8.02 
-145.58 -395.48 8.23 
-145.69 -395.74 8.24 
-144.51 -396.56 8.04 
-144.47 -396.88 8.02 
-141.52 -400.96 8.29 
-141.56 -401.20 8.29 
-141.25 -401.55 8.22 
-141.71 -401.78 8.30 
-141.77 -402.11 8.31 
-141.79 -402.38 8.30 
-141.86 -402.32 8.32 
-141.79 -402.89 8.29 
-148.53 -403.68 8.55 
-142.45 -404.44 8.39 
-141.80 -400.56 8.35 
-141.56 -400.90 8.30 
-143.17 -402.23 8.56 
-143.37 -402.70 8.58 
-144.91 -402.83 8.86 
-143.34 -402.92 8.57 
-142.35 -403.32 8.39 
-145.07 -403.58 8.88 
-142.73 -403.88 8.45 
-144.45 -404.21 8.76 
-144.84 -404.16 8.83 
-143.67 -404.62 8.61 
-144.86 -397.14 9.00 
-144.88 -397.49 8.99 
-144.97 -397.50 9.00 
-144.39 -398.03 8.88 
-146.11 -397.94 9.19 
-144.12 -398.42 8.82 
-144.30 -398.85 8.84 
-144.44 -399.14 8.86 
-144.50 -399.37 8.86 
-143.90 -401.72 9.57 
-148.88 -402.12 9.59 
-144.12 -402.72 9.59 
-144.03 -402.99 9.57 
-143.96 -403.42 9.55 
-143.76 -403.85 9.50 
-142.71 -404.30 9.27 
-144.65 -404.42 9.67 
-142.67 -404.51 9.26 
-145.40 -398.74 9.97 
-145.59 -399.11 10.00 
-144.33 -399.97 9.71 
-144.66 -400.41 9.77 
-144.79 -400.09 9.80 
-145.69 -400.36 9.98 
-144.93 -400.75 9.81 
-144.30 -401.34 9.67 
-145.75 -401.46 9.96 
-145.90 -401.71 9.98 
-146.52 -401.79 10.11 
-144.74 -402.51 9.72 
-145.19 -404.59 9.78 
-146.92 -396.11 4.53 
-146.92 -402.92 4.61 
-147.44 -402.95 4.65 
-146.95 -403.32 4.62 
-147.38 -403.52 4.65 
-146.84 -395.93 5.44 
-146.87 -395.96 5.45 
-146.47 -401.72 5.43 
-146.16 -402.17 5.41 
-147.77 -402.28 5.56 
-147.79 -402.55 5.56 
-146.60 -403.39 5.46 
-146.72 -403.32 5.47 
-146.61 -403.61 5.46 
-146.82 -395.88 6.37 
-145.62 -396.82 6.22 
-147.64 -397.05 6.45 
-148.22 -397.17 6.52 
-149.16 -397.12 6.62 
-144.97 -397.61 6.15 
-146.08 -397.73 6.27 
-149.49 -398.19 6.66 
-143.33 -398.57 5.95 
-147.44 -399.82 6.42 
-147.15 -400.20 6.38 
-145.67 -400.94 6.21 
-146.95 -400.82 6.36 
-145.10 -401.91 6.15 
-146.38 -402.61 6.29 
-147.95 -402.48 6.48 
-145.80 -403.24 6.23 
-146.49 -403.36 6.31 
-149.40 -403.55 6.65 
-145.94 -403.78 6.25 
-145.01 -404.24 6.14 
-149.55 -397.29 6.67 
-149.83 -397.50 6.70 
-149.68 -397.84 6.68 
-141.80 -398.87 6.58 
-142.17 -398.99 6.63 
-151.36 -399.77 6.87 
-142.05 -399.31 6.61 
-151.45 -400.00 6.88 
-151.65 -400.47 6.90 
-140.93 -400.24 6.44 
-151.37 -401.01 6.87 
-140.97 -400.48 6.44 
-141.03 -400.92 6.45 
-151.42 -401.55 6.87 
-151.86 -401.79 6.93 
-141.23 -401.46 6.47 
-141.44 -401.76 6.49 
-141.57 -401.66 6.51 
-141.07 -402.31 6.44 
-140.86 -402.41 6.41 
-141.21 -402.54 6.46 
-153.50 -403.42 7.12 
-141.18 -402.89 6.45 
-153.11 -403.93 7.08 
-141.92 -403.39 6.55 
-153.33 -404.25 7.11 
-141.61 -403.82 6.50 
-141.56 -404.16 6.49 
-141.65 -404.59 6.51 
-141.85 -404.46 6.53 
-143.19 -397.22 6.79 
-143.54 -397.48 6.83 
-143.85 -397.43 6.88 
-144.40 -397.50 6.95 
-146.07 -401.85 7.13 
-147.66 -404.38 7.34 
-142.04 -398.75 7.42 
-142.14 -398.67 7.43 
-141.25 -399.83 7.27 
-141.04 -400.16 7.23 
-141.32 -400.53 7.26 
-141.59 -400.45 7.31 
-141.46 -400.94 7.28 
-141.01 -401.34 7.20 
-140.85 -401.82 7.16 
-140.58 -402.24 7.11 
-141.04 -402.06 7.19 
-140.85 -402.50 7.15 
-141.24 -402.72 7.21 
-140.88 -403.07 7.15 
-140.81 -403.30 7.14 
-140.96 -403.50 7.16 
-141.24 -403.66 7.20 
-142.79 -403.71 7.45 
-141.53 -404.26 7.24 
-141.74 -404.18 7.28 
-141.59 -404.48 7.25 
-144.51 -396.70 7.85 
-144.64 -396.80 7.87 
-144.01 -397.65 7.75 
-142.15 -398.17 7.45 
-142.41 -398.85 7.47 
-142.81 -398.96 7.53 
-144.10 -404.13 7.66 
-146.11 -403.92 7.99 
-144.53 -404.53 7.73 
-145.54 -395.81 8.04 
-145.78 -395.95 8.07 
-141.65 -399.63 8.13 
-141.75 -400.59 8.12 
-142.67 -400.51 8.29 
-141.83 -401.07 8.12 
-141.29 -401.48 8.01 
-140.98 -401.78 7.95 
-141.06 -401.82 7.96 
-141.02 -402.04 7.95 
-141.89 -402.14 8.10 
-141.78 -402.62 8.07 
-143.37 -402.79 8.36 
-141.32 -402.91 7.98 
-141.55 -403.03 8.02 
-141.93 -402.96 8.10 
-141.78 -403.48 8.06 
-142.55 -403.50 8.20 
-142.50 -403.76 8.19 
-144.47 -397.12 8.71 
-143.16 -397.94 8.45 
-143.45 -398.25 8.49 
-143.81 -398.62 8.55 
-145.28 -398.76 8.81 
-143.59 -399.13 8.49 
-144.92 -399.17 8.73 
-146.55 -402.98 8.95 
-145.06 -403.05 8.67 
-144.72 -403.70 8.60 
-144.77 -403.94 8.60 
-146.89 -395.39 9.21 
-144.79 -396.69 8.79 
-143.40 -403.49 9.18 
-147.50 -403.58 9.11 
-142.74 -404.26 9.02 
-144.62 -399.24 9.55 
-144.54 -400.07 9.51 
-144.50 -400.34 9.49 
-144.74 -400.55 9.53 
-145.49 -400.83 9.68 
-143.84 -401.62 9.31 
-144.01 -401.79 9.34 
-144.24 -401.98 9.39 
-145.74 -402.09 9.69 
-143.77 -402.39 9.28 
-145.26 -402.50 9.58 
-145.44 -402.66 9.62 
-151.14 -403.35 9.79 
-144.30 -403.00 9.37 
-143.82 -403.63 9.26 
-145.70 -398.56 9.80 
-145.81 -399.32 9.79 
-145.76 -399.59 9.77 
-146.00 -400.40 9.79 
-144.73 -403.11 10.32 
-146.93 -396.20 4.44 
-146.88 -402.87 4.52 
-146.98 -403.10 4.53 
-147.45 -403.20 4.57 
-146.94 -403.38 4.53 
-147.11 -403.59 4.55 
-147.49 -403.77 4.58 
-146.89 -396.12 5.34 
-146.49 -401.86 5.32 
-146.05 -402.26 5.28 
-147.70 -402.61 5.44 
-146.66 -403.54 5.35 
-148.28 -403.55 5.50 
-143.49 -398.69 5.83 
-146.82 -395.86 6.23 
-145.57 -396.72 6.08 
-147.91 -396.57 6.35 
-145.62 -396.95 6.09 
-148.91 -397.05 6.46 
-149.27 -397.23 6.50 
-145.69 -397.19 6.09 
-147.57 -397.42 6.31 
-149.60 -397.65 6.54 
-144.32 -397.82 5.94 
-149.89 -398.01 6.57 
-149.50 -398.45 6.53 
-151.14 -399.90 6.71 
-147.34 -399.91 6.27 
-150.05 -399.93 6.59 
-151.28 -400.10 6.73 
-147.26 -400.26 6.26 
-145.71 -401.03 6.08 
-151.41 -401.61 6.74 
-151.87 -402.39 6.80 
-145.11 -401.99 6.01 
-146.95 -402.24 6.22 
-146.35 -402.66 6.16 
-148.01 -402.72 6.35 
-145.78 -403.33 6.09 
-149.14 -403.60 6.48 
-145.47 -403.67 6.05 
-145.99 -404.04 6.12 
-141.78 -398.88 6.41 
-141.87 -399.10 6.42 
-142.00 -399.28 6.44 
-141.81 -399.47 6.41 
-142.18 -399.56 6.46 
-151.70 -400.33 6.78 
-142.64 -399.78 6.52 
-151.71 -400.63 6.78 
-142.86 -400.39 6.54 
-141.06 -400.64 6.29 
-141.15 -401.05 6.30 
-151.93 -402.02 6.81 
-140.97 -401.36 6.27 
-141.14 -401.54 6.29 
-141.48 -401.66 6.34 
-142.54 -401.73 6.48 
-143.91 -401.57 6.67 
-141.36 -401.93 6.32 
-142.51 -401.78 6.48 
-143.99 -402.53 6.68 
-141.22 -402.66 6.29 
-141.97 -402.89 6.39 
-153.68 -403.50 7.02 
-141.07 -402.94 6.27 
-142.16 -403.03 6.42 
-153.32 -403.87 6.97 
-141.56 -403.44 6.33 
-141.90 -403.60 6.38 
-141.49 -404.38 6.32 
-141.64 -404.12 6.34 
-142.06 -404.43 6.40 
-141.79 -404.54 6.36 
-143.45 -396.79 6.68 
-143.46 -397.08 6.67 
-143.24 -397.45 6.64 
-143.62 -397.82 6.68 
-143.70 -397.51 6.70 
-146.48 -402.59 7.02 
-140.61 -402.82 6.92 
-140.78 -402.99 6.95 
-140.60 -403.48 6.91 
-140.74 -403.65 6.93 
-147.64 -404.39 7.18 
-141.59 -397.87 7.19 
-141.65 -397.88 7.20 
-141.57 -398.15 7.18 
-141.74 -398.35 7.20 
-141.93 -398.52 7.22 
-142.37 -398.58 7.29 
-142.47 -398.77 7.30 
-141.76 -399.41 7.17 
-141.62 -400.38 7.13 
-141.90 -400.51 7.17 
-142.33 -400.55 7.24 
-141.13 -401.03 7.04 
-140.89 -401.36 6.99 
-140.59 -401.82 6.93 
-140.76 -402.10 6.96 
-140.83 -402.51 6.96 
-141.48 -403.10 7.06 
-142.32 -403.44 7.19 
-153.12 -404.48 7.95 
-141.81 -404.04 7.10 
-142.10 -403.73 7.15 
-141.54 -404.32 7.05 
-144.60 -404.54 7.55 
-141.53 -404.53 7.05 
-141.62 -404.65 7.06 
-145.30 -398.69 7.75 
-143.99 -398.93 7.54 
-141.04 -401.86 7.75 
-141.44 -403.55 7.78 
-141.82 -399.77 7.95 
-141.84 -400.02 7.94 
-142.14 -400.15 7.99 
-141.84 -400.74 7.92 
-141.75 -401.01 7.90 
-141.09 -401.49 7.76 
-141.55 -402.01 7.84 
-141.66 -402.22 7.85 
-141.73 -402.43 7.86 
-142.58 -402.41 8.02 
-141.59 -403.03 7.82 
-141.98 -403.05 7.89 
-143.98 -403.64 8.25 
-142.01 -403.73 7.88 
-142.62 -403.80 8.00 
-144.37 -397.34 8.49 
-144.19 -397.59 8.45 
-143.42 -398.08 8.29 
-143.25 -398.40 8.25 
-143.63 -398.52 8.31 
-143.87 -398.68 8.35 
-145.25 -403.36 8.49 
-145.45 -403.81 8.52 
-146.90 -395.36 9.01 
-143.04 -401.15 8.93 
-143.10 -401.43 8.93 
-141.86 -401.98 8.66 
-143.90 -402.16 9.08 
-144.13 -402.14 9.13 
-143.71 -402.50 9.03 
-143.88 -402.94 9.05 
-144.00 -402.66 9.09 
-143.89 -403.28 9.05 
-143.69 -403.60 9.00 
-143.16 -403.82 8.88 
-142.55 -404.48 8.74 
-142.84 -404.18 8.81 
-142.72 -404.66 8.77 
-144.55 -399.68 9.29 
-145.11 -399.74 9.41 
-144.63 -400.16 9.29 
-144.79 -400.34 9.32 
-145.22 -401.28 9.38 
-145.54 -401.45 9.44 
-146.04 -398.85 9.63 
-145.00 -402.80 10.13 
-146.96 -403.31 4.47 
-146.97 -403.60 4.47 
-147.39 -390.79 4.37 
-147.05 -396.52 4.40 
-146.92 -403.11 4.46 
-147.10 -403.32 4.48 
-147.46 -403.44 4.51 
-147.29 -403.78 4.50 
-146.96 -396.28 5.27 
-146.52 -402.06 5.24 
-146.16 -402.52 5.21 
-147.71 -402.86 5.36 
-146.71 -403.62 5.27 
-146.72 -403.88 5.27 
-156.36 -396.24 6.14 
-145.20 -402.27 5.91 
-145.96 -403.52 6.00 
-145.20 -404.45 5.91 
-145.52 -396.90 5.98 
-145.88 -396.96 6.02 
-148.55 -397.01 6.32 
-145.60 -397.14 5.99 
-145.90 -397.24 6.02 
-149.23 -397.31 6.40 
-149.36 -397.56 6.41 
-145.47 -397.59 5.97 
-145.71 -397.65 6.00 
-147.65 -397.67 6.22 
-149.65 -397.69 6.45 
-149.85 -397.97 6.47 
-145.38 -398.07 5.95 
-150.17 -398.14 6.50 
-149.80 -398.64 6.46 
-151.47 -400.09 6.64 
-151.80 -400.53 6.68 
-147.19 -400.60 6.15 
-151.68 -400.85 6.67 
-145.77 -401.32 5.98 
-146.92 -401.23 6.11 
-152.05 -402.57 6.71 
-146.96 -402.51 6.12 
-146.43 -402.91 6.05 
-146.51 -403.10 6.06 
-146.53 -403.64 6.07 
-143.38 -397.84 6.53 
-143.52 -397.99 6.54 
-141.82 -398.94 6.30 
-141.82 -399.30 6.29 
-141.88 -399.52 6.29 
-142.04 -399.65 6.31 
-141.11 -400.41 6.18 
-142.30 -400.54 6.34 
-142.70 -400.58 6.39 
-140.88 -400.64 6.14 
-141.11 -400.78 6.17 
-141.70 -401.01 6.25 
-141.14 -401.54 6.16 
-141.56 -401.64 6.22 
-141.63 -401.95 6.22 
-142.26 -401.92 6.31 
-141.73 -402.55 6.23 
-141.16 -402.96 6.15 
-141.41 -402.70 6.19 
-141.99 -402.97 6.26 
-142.39 -403.07 6.32 
-144.35 -403.20 6.59 
-141.00 -403.06 6.13 
-141.28 -403.71 6.16 
-142.56 -403.92 6.34 
-144.74 -403.81 6.64 
-141.31 -403.83 6.16 
-142.05 -404.28 6.26 
-143.66 -404.31 6.49 
-142.24 -404.42 6.29 
-143.69 -404.54 6.49 
-143.69 -396.90 6.59 
-144.33 -397.00 6.67 
-147.38 -400.22 7.04 
-140.78 -401.09 6.83 
-141.11 -401.30 6.88 
-147.24 -401.57 7.01 
-140.81 -401.73 6.82 
-140.46 -402.11 6.76 
-140.69 -401.80 6.80 
-141.36 -402.01 6.90 
-140.79 -402.43 6.80 
-140.68 -402.82 6.78 
-140.71 -403.08 6.78 
-141.82 -403.21 6.96 
-141.77 -403.73 6.94 
-141.99 -404.04 6.97 
-147.71 -404.60 7.05 
-141.67 -404.48 6.91 
-141.57 -397.89 7.04 
-141.75 -398.06 7.07 
-141.73 -398.38 7.05 
-151.11 -399.25 7.56 
-141.55 -398.77 7.01 
-141.75 -399.05 7.04 
-141.38 -399.57 6.96 
-141.72 -399.79 7.01 
-141.77 -399.97 7.01 
-141.87 -399.97 7.03 
-142.40 -399.98 7.11 
-141.69 -400.51 6.99 
-141.57 -401.25 6.95 
-144.94 -402.51 7.47 
-152.11 -403.38 7.67 
-152.35 -403.91 7.71 
-152.88 -404.09 7.78 
-141.20 -400.17 7.65 
-141.19 -400.21 7.65 
-141.21 -401.36 7.62 
-141.32 -401.28 7.64 
-146.38 -401.57 7.72 
-141.29 -401.55 7.62 
-141.43 -401.96 7.64 
-141.17 -402.49 7.58 
-141.34 -402.30 7.61 
-141.71 -402.54 7.67 
-141.74 -402.76 7.68 
-141.47 -403.18 7.61 
-141.67 -403.43 7.65 
-141.61 -403.69 7.63 
-141.98 -403.54 7.70 
-142.60 -403.63 7.82 
-142.52 -404.08 7.79 
-142.41 -404.35 7.77 
-143.74 -398.37 8.17 
-143.71 -398.65 8.16 
-143.51 -398.99 8.11 
-141.86 -400.17 7.77 
-142.14 -400.30 7.82 
-142.69 -400.56 7.91 
-151.37 -403.22 8.51 
-151.88 -403.39 8.59 
-142.89 -403.77 7.87 
-143.00 -404.16 7.88 
-143.04 -404.64 7.88 
-146.39 -396.35 8.72 
-145.37 -396.78 8.52 
-145.70 -396.90 8.58 
-145.85 -397.68 8.58 
-144.12 -397.92 8.26 
-144.33 -398.07 8.29 
-146.22 -398.93 8.60 
-145.04 -399.61 8.37 
-142.02 -401.71 8.50 
-141.52 -402.11 8.39 
-141.91 -401.94 8.47 
-141.51 -402.32 8.38 
-141.32 -402.63 8.33 
-141.65 -402.76 8.39 
-146.29 -403.59 8.50 
-142.97 -403.71 8.64 
-142.35 -404.55 8.49 
-144.47 -399.84 9.08 
-144.62 -400.54 9.08 
-143.29 -400.78 8.80 
-143.11 -401.29 8.74 
-144.30 -402.15 8.96 
-144.34 -402.34 8.96 
-145.13 -402.63 9.12 
-142.91 -402.82 8.65 
-143.74 -402.79 8.83 
-145.49 -403.27 9.18 
-143.41 -403.36 8.74 
-143.49 -403.76 8.75 
-143.13 -404.13 8.66 
-144.99 -399.12 9.21 
-144.73 -399.47 9.14 
-145.10 -399.86 9.20 
-144.83 -403.13 9.85 
-144.63 -403.71 9.79 
-145.43 -404.20 9.96 
-146.99 -403.41 4.42 
-147.53 -403.42 4.46 
-147.04 -403.77 4.43 
-147.43 -403.95 4.46 
-147.50 -390.94 4.33 
-147.11 -396.63 4.36 
-146.58 -402.25 5.18 
-146.15 -402.63 5.14 
-146.72 -403.83 5.20 
-146.76 -404.07 5.20 
-156.94 -395.98 6.14 
-147.00 -396.39 5.20 
-147.82 -403.05 5.30 
-156.99 -395.21 6.15 
-157.19 -396.23 6.17 
-157.38 -396.50 6.19 
-145.36 -398.20 5.85 
-146.01 -401.53 5.91 
-145.21 -402.29 5.81 
-145.25 -402.47 5.82 
-146.97 -402.74 6.02 
-146.49 -403.12 5.97 
-145.89 -403.78 5.89 
-145.99 -403.70 5.91 
-146.57 -403.83 5.98 
-145.21 -404.64 5.81 
-145.55 -397.03 5.89 
-145.75 -397.21 5.91 
-147.53 -397.52 6.11 
-149.01 -397.47 6.29 
-149.41 -397.57 6.33 
-147.50 -397.81 6.11 
-149.46 -397.81 6.33 
-149.85 -398.00 6.38 
-145.50 -397.86 5.87 
-149.22 -398.53 6.30 
-149.71 -398.75 6.36 
-151.24 -400.36 6.53 
-151.76 -400.55 6.59 
-151.88 -400.75 6.61 
-147.42 -400.56 6.08 
-151.71 -401.14 6.59 
-147.16 -400.90 6.05 
-141.01 -400.93 6.02 
-146.98 -401.48 6.03 
-141.05 -401.61 6.02 
-141.32 -401.73 6.05 
-152.04 -402.76 6.63 
-141.32 -401.94 6.05 
-141.71 -402.69 6.10 
-141.13 -403.09 6.01 
-140.98 -403.31 5.99 
-141.80 -403.53 6.10 
-153.16 -404.51 6.76 
-141.24 -403.91 6.02 
-141.33 -404.09 6.03 
-142.16 -404.49 6.15 
-143.74 -397.07 6.47 
-143.79 -397.56 6.47 
-143.47 -397.97 6.42 
-143.87 -397.74 6.48 
-143.45 -398.19 6.41 
-143.59 -398.43 6.42 
-141.80 -399.01 6.17 
-141.78 -399.45 6.16 
-142.00 -399.51 6.18 
-142.03 -399.85 6.18 
-141.18 -400.53 6.05 
-142.10 -400.75 6.18 
-141.11 -400.92 6.04 
-141.67 -401.15 6.11 
-143.86 -400.97 6.42 
-141.74 -402.01 6.11 
-142.32 -402.04 6.19 
-142.50 -402.20 6.21 
-141.93 -403.05 6.13 
-146.59 -403.76 6.78 
-144.73 -404.02 6.51 
-142.62 -404.14 6.21 
-143.75 -404.50 6.37 
-148.26 -397.73 7.08 
-150.94 -399.54 7.43 
-141.46 -399.66 6.82 
-141.50 -400.48 6.81 
-141.86 -400.56 6.87 
-148.51 -401.22 7.07 
-140.94 -401.28 6.70 
-141.25 -401.49 6.74 
-141.07 -401.79 6.71 
-140.59 -402.15 6.62 
-140.58 -402.39 6.62 
-140.77 -402.55 6.64 
-140.85 -402.82 6.65 
-140.60 -403.23 6.60 
-141.23 -403.30 6.70 
-141.78 -403.50 6.79 
-151.27 -404.28 7.44 
-141.77 -403.72 6.79 
-141.94 -403.86 6.81 
-141.89 -404.10 6.80 
-142.20 -404.23 6.85 
-141.66 -404.59 6.76 
-141.89 -398.19 6.94 
-141.83 -398.46 6.92 
-141.59 -398.94 6.87 
-141.93 -399.14 6.91 
-141.82 -399.15 6.90 
-141.76 -399.92 6.86 
-141.91 -400.09 6.89 
-142.59 -401.44 6.96 
-142.88 -401.53 7.01 
-152.38 -403.48 7.61 
-144.75 -396.74 7.43 
-142.26 -400.15 7.67 
-141.41 -400.48 7.51 
-142.05 -400.42 7.63 
-141.55 -401.35 7.50 
-142.00 -401.38 7.59 
-141.33 -401.98 7.45 
-141.29 -402.33 7.43 
-141.00 -402.86 7.36 
-141.16 -403.02 7.39 
-141.51 -402.87 7.45 
-140.67 -403.39 7.29 
-141.13 -403.20 7.38 
-141.57 -403.54 7.45 
-140.74 -403.58 7.29 
-141.70 -403.71 7.47 
-141.98 -403.84 7.52 
-142.39 -403.68 7.60 
-142.69 -403.84 7.65 
-143.02 -403.97 7.71 
-142.53 -404.33 7.61 
-142.57 -404.52 7.62 
-144.00 -397.89 8.07 
-142.64 -398.78 7.79 
-143.25 -398.74 7.90 
-142.86 -399.17 7.82 
-142.55 -399.54 7.75 
-142.78 -400.64 7.75 
-142.95 -401.24 7.77 
-143.35 -401.82 7.82 
-151.85 -403.55 8.45 
-152.12 -403.79 8.50 
-145.43 -396.40 8.39 
-145.58 -396.60 8.41 
-145.62 -396.86 8.41 
-145.54 -397.39 8.37 
-146.54 -398.89 8.50 
-142.26 -401.49 8.37 
-142.20 -401.74 8.34 
-141.78 -402.12 8.24 
-141.61 -402.51 8.20 
-143.26 -402.64 8.54 
-141.73 -402.79 8.21 
-143.27 -402.98 8.53 
-143.53 -403.13 8.58 
-143.48 -403.48 8.56 
-143.10 -403.91 8.47 
-143.05 -404.13 8.45 
-143.42 -404.28 8.53 
-142.66 -404.69 8.35 
-144.81 -399.29 8.98 
-145.00 -399.44 9.01 
-145.28 -399.57 9.06 
-144.59 -400.01 8.91 
-143.34 -400.86 8.61 
-145.80 -401.16 9.94 
-145.82 -401.61 9.92 
-144.98 -403.32 9.66 
-147.09 -403.46 4.32 
-147.14 -403.82 4.32 
-147.18 -404.06 4.33 
-147.61 -391.01 4.23 
-147.29 -396.80 4.26 
-146.69 -402.32 5.05 
-146.29 -402.69 5.01 
-147.93 -403.15 5.17 
-146.92 -403.84 5.08 
-146.90 -404.19 5.08 
-156.84 -393.00 6.00 
-156.92 -393.33 6.01 
-157.02 -393.63 6.02 
-157.36 -394.13 6.05 
-157.45 -394.50 6.06 
-157.06 -395.35 6.02 
-157.20 -396.26 6.04 
-157.45 -396.56 6.06 
-157.51 -396.85 6.07 
-147.17 -396.58 5.08 
-157.54 -394.41 6.07 
-158.47 -396.87 6.16 
-145.47 -397.07 5.72 
-145.74 -397.23 5.75 
-146.07 -397.34 5.78 
-145.56 -397.84 5.72 
-145.69 -397.99 5.73 
-147.25 -400.75 5.90 
-147.32 -400.98 5.91 
-147.05 -401.58 5.87 
-146.09 -401.65 5.76 
-145.39 -402.50 5.67 
-146.62 -403.18 5.82 
-148.13 -403.26 6.00 
-146.65 -403.37 5.82 
-146.69 -403.87 5.82 
-146.26 -404.41 5.77 
-147.54 -397.47 5.95 
-148.81 -397.76 6.10 
-149.51 -397.74 6.18 
-149.83 -397.90 6.22 
-147.72 -397.94 5.97 
-148.05 -398.02 6.01 
-150.19 -398.18 6.26 
-150.01 -398.67 6.23 
-150.44 -398.45 6.29 
-149.82 -398.98 6.21 
-150.01 -398.96 6.23 
-151.99 -400.77 6.46 
-151.87 -401.15 6.45 
-142.06 -400.79 5.98 
-141.16 -401.60 5.84 
-141.33 -401.85 5.86 
-142.22 -401.94 5.99 
-148.28 -402.47 6.01 
-152.09 -402.76 6.47 
-141.40 -402.10 5.87 
-142.24 -402.26 5.99 
-141.69 -402.67 5.90 
-141.71 -402.96 5.90 
-142.40 -403.27 6.00 
-141.81 -403.89 5.91 
-141.84 -403.66 5.91 
-141.74 -404.10 5.90 
-142.64 -404.35 6.02 
-143.62 -396.94 6.27 
-143.63 -397.19 6.27 
-143.71 -397.54 6.27 
-143.56 -397.99 6.24 
-143.96 -398.00 6.30 
-143.98 -398.23 6.30 
-142.18 -399.02 6.03 
-142.36 -399.28 6.05 
-144.63 -399.19 6.37 
-142.14 -399.61 6.01 
-142.25 -399.30 6.04 
-142.66 -399.62 6.09 
-142.92 -399.73 6.12 
-142.11 -400.32 6.00 
-142.88 -400.41 6.10 
-142.18 -400.50 6.00 
-142.65 -400.78 6.06 
-144.54 -402.36 6.31 
-144.59 -403.49 6.31 
-143.93 -404.45 6.20 
-146.18 -404.44 6.53 
-141.89 -398.77 6.71 
-142.31 -398.99 6.77 
-141.54 -399.60 6.63 
-141.86 -399.25 6.69 
-142.32 -399.38 6.76 
-151.34 -400.08 7.29 
-151.92 -400.17 7.38 
-141.68 -400.02 6.64 
-141.74 -400.18 6.64 
-141.30 -400.63 6.56 
-141.10 -401.12 6.52 
-141.42 -400.91 6.57 
-152.28 -401.83 7.41 
-141.11 -401.37 6.51 
-141.38 -401.35 6.55 
-142.58 -401.42 6.75 
-141.30 -401.71 6.53 
-142.78 -401.81 6.77 
-151.85 -402.72 7.35 
-141.88 -402.57 6.61 
-148.16 -403.17 6.82 
-140.64 -402.77 6.40 
-141.31 -403.18 6.50 
-141.67 -402.85 6.57 
-141.23 -403.41 6.49 
-141.54 -403.52 6.54 
-152.65 -404.24 7.45 
-141.62 -403.70 6.54 
-141.85 -403.84 6.58 
-141.95 -404.22 6.59 
-142.22 -404.69 6.63 
-142.08 -398.19 6.76 
-142.49 -398.71 6.81 
-145.01 -400.74 7.16 
-141.22 -403.03 7.16 
-140.91 -403.49 7.09 
-141.12 -403.73 7.12 
-141.33 -403.97 7.15 
-141.26 -404.20 7.13 
-141.32 -404.15 7.15 
-142.71 -398.78 7.57 
-150.31 -399.31 8.05 
-142.45 -399.16 7.51 
-142.38 -399.39 7.49 
-141.24 -400.18 7.25 
-141.32 -400.37 7.26 
-141.45 -400.62 7.27 
-141.66 -400.67 7.31 
-141.59 -400.88 7.29 
-141.63 -400.90 7.30 
-141.77 -401.28 7.31 
-142.04 -401.48 7.35 
-141.84 -401.69 7.31 
-142.01 -401.82 7.34 
-141.24 -402.34 7.18 
-141.70 -402.39 7.26 
-141.71 -402.81 7.25 
-141.46 -402.86 7.20 
-142.02 -403.72 7.29 
-142.69 -403.98 7.41 
-142.77 -404.27 7.42 
-143.00 -404.49 7.46 
-143.78 -404.32 7.61 
-143.80 -397.78 7.81 
-144.15 -397.56 7.88 
-143.98 -397.94 7.84 
-141.58 -402.29 7.93 
-141.35 -402.69 7.87 
-142.04 -402.87 8.01 
-142.42 -404.65 8.03 
-143.22 -400.86 8.33 
-141.86 -401.21 8.03 
-142.01 -401.54 8.05 
-143.18 -402.81 8.25 
-144.79 -403.10 8.58 
-144.07 -403.94 8.40 
-143.26 -404.21 8.22 
-144.07 -398.60 8.60 
-144.97 -398.70 8.78 
-145.13 -399.29 8.79 
-145.21 -399.58 8.79 
-146.47 -402.10 8.96 
-145.30 -402.72 8.70 
-145.46 -403.14 8.72 
-146.03 -398.49 9.01 
-143.96 -403.76 9.12 
-144.46 -404.07 9.23 
-145.71 -399.61 9.70 
-145.34 -400.71 9.56 
-145.98 -400.75 9.71 
-145.93 -401.02 9.68 
-146.00 -401.34 9.69 
-146.21 -401.76 9.72 
-147.24 -396.88 4.24 
-147.33 -396.89 4.25 
-146.86 -403.28 4.27 
-146.97 -403.59 4.28 
-147.00 -404.17 4.29 
-147.04 -404.12 4.29 
-147.65 -391.16 4.23 
-147.17 -396.64 5.04 
-147.26 -396.82 5.05 
-146.61 -402.40 4.98 
-146.91 -403.89 5.02 
-146.85 -403.95 5.01 
-146.70 -404.44 5.00 
-149.31 -380.34 5.36 
-149.65 -380.45 5.39 
-157.20 -392.30 6.01 
-157.38 -392.51 6.03 
-157.70 -392.71 6.06 
-156.95 -394.50 5.99 
-158.19 -394.64 6.11 
-156.82 -394.89 5.97 
-157.20 -395.01 6.01 
-158.01 -395.40 6.09 
-158.48 -395.55 6.14 
-158.05 -397.06 6.09 
-158.31 -392.84 6.12 
-158.37 -393.11 6.13 
-145.91 -397.23 5.69 
-145.94 -397.43 5.69 
-145.73 -397.95 5.66 
-145.23 -398.33 5.60 
-147.64 -398.46 5.88 
-143.90 -398.50 5.44 
-145.91 -398.77 5.67 
-146.41 -398.77 5.73 
-147.81 -400.24 5.89 
-147.68 -400.54 5.87 
-147.56 -400.93 5.85 
-147.64 -400.76 5.86 
-142.49 -400.76 5.25 
-147.20 -401.69 5.80 
-145.80 -401.94 5.63 
-145.98 -401.84 5.66 
-147.12 -402.91 5.79 
-146.53 -403.32 5.71 
-145.96 -403.93 5.64 
-146.10 -404.56 5.66 
-147.97 -397.52 5.93 
-147.80 -397.64 5.91 
-149.31 -398.06 6.08 
-150.56 -398.08 6.23 
-149.86 -398.64 6.14 
-149.61 -399.02 6.11 
-150.40 -399.09 6.20 
-141.92 -399.55 5.87 
-142.19 -399.62 5.90 
-151.20 -400.61 6.29 
-142.14 -400.00 5.89 
-150.85 -400.68 6.25 
-151.80 -401.22 6.36 
-141.28 -400.62 5.76 
-142.00 -400.72 5.85 
-142.45 -400.96 5.91 
-141.96 -401.80 5.83 
-151.77 -402.59 6.35 
-141.20 -401.80 5.72 
-141.55 -402.08 5.77 
-142.37 -402.06 5.88 
-149.79 -402.63 6.11 
-151.95 -402.81 6.37 
-141.66 -402.94 5.77 
-141.18 -403.32 5.69 
-141.98 -403.23 5.81 
-142.26 -403.34 5.85 
-142.58 -403.42 5.89 
-153.57 -404.32 6.57 
-153.57 -404.57 6.57 
-141.36 -404.04 5.71 
-141.78 -403.87 5.77 
-142.23 -404.55 5.83 
-142.72 -404.37 5.90 
-144.62 -397.30 6.30 
-147.44 -398.24 6.67 
-143.28 -398.14 6.09 
-143.82 -398.01 6.17 
-143.83 -398.24 6.16 
-143.86 -398.43 6.16 
-147.80 -400.43 6.68 
-148.89 -402.08 6.81 
-146.29 -403.12 6.43 
-148.23 -403.25 6.71 
-141.26 -403.65 6.33 
-141.37 -403.42 6.35 
-144.91 -404.37 6.22 
-142.00 -398.45 6.60 
-142.14 -398.59 6.61 
-141.90 -398.95 6.56 
-141.77 -399.24 6.53 
-141.65 -399.53 6.50 
-141.78 -399.54 6.52 
-141.54 -399.91 6.47 
-141.78 -400.13 6.50 
-141.98 -400.25 6.53 
-141.64 -400.63 6.46 
-142.08 -400.65 6.54 
-141.27 -401.13 6.39 
-141.18 -401.57 6.36 
-141.84 -401.60 6.47 
-142.14 -401.67 6.52 
-142.74 -401.66 6.62 
-141.43 -402.39 6.38 
-141.94 -402.60 6.46 
-141.93 -402.81 6.46 
-141.51 -403.13 6.38 
-141.59 -403.74 6.38 
-152.78 -404.67 7.36 
-152.81 -404.44 7.36 
-141.90 -403.92 6.43 
-142.04 -404.18 6.44 
-142.26 -404.43 6.48 
-142.41 -404.67 6.50 
-141.29 -400.33 7.08 
-141.35 -400.62 7.08 
-141.52 -400.61 7.11 
-141.73 -401.09 7.13 
-141.87 -401.35 7.14 
-141.75 -401.59 7.11 
-141.96 -401.94 7.14 
-141.84 -402.20 7.11 
-141.40 -402.76 7.01 
-141.19 -403.24 6.95 
-141.31 -403.01 6.98 
-141.00 -403.61 6.91 
-148.96 -404.21 7.60 
-141.10 -403.96 6.92 
-141.91 -404.00 7.07 
-142.62 -404.18 7.20 
-141.34 -404.18 6.96 
-142.00 -404.33 7.08 
-142.81 -404.43 7.23 
-142.57 -398.80 7.38 
-142.96 -399.07 7.44 
-143.43 -399.03 7.52 
-150.23 -399.46 7.90 
-143.31 -399.13 7.50 
-142.07 -400.62 7.21 
-142.99 -401.31 7.35 
-145.74 -396.76 8.04 
-145.70 -397.16 8.02 
-144.65 -397.49 7.81 
-145.73 -397.56 8.00 
-141.90 -401.26 7.83 
-141.68 -401.91 7.75 
-141.50 -402.30 7.70 
-143.23 -402.70 8.05 
-141.38 -402.71 7.66 
-141.94 -402.85 7.77 
-143.24 -402.91 8.04 
-143.30 -403.11 8.04 
-143.76 -403.80 8.12 
-142.36 -404.63 7.80 
-143.25 -401.03 8.12 
-144.83 -402.81 8.38 
-146.22 -403.27 8.66 
-143.79 -403.37 8.14 
-143.74 -403.58 8.12 
-145.17 -399.55 8.58 
-145.23 -399.88 8.58 
-147.90 -403.97 9.00 
-145.31 -400.76 9.32 
-145.39 -400.93 9.33 
-145.88 -401.84 9.40 
-145.86 -402.40 9.37 
-146.13 -400.88 9.50 
-145.89 -401.21 9.43 
-146.06 -401.43 9.46 
-146.66 -402.41 9.56 
-147.28 -396.95 4.22 
-146.86 -403.38 4.24 
-146.96 -403.67 4.25 
-151.41 -379.81 4.43 
-147.71 -391.26 4.21 
-147.32 -396.88 5.00 
-146.64 -402.52 4.92 
-146.09 -402.93 4.87 
-148.07 -403.44 5.07 
-146.84 -404.24 4.95 
-146.60 -404.53 4.93 
-149.49 -380.34 5.34 
-149.80 -380.47 5.37 
-158.44 -392.17 6.09 
-157.18 -392.44 5.97 
-157.73 -392.87 6.02 
-158.14 -392.97 6.06 
-158.31 -392.95 6.08 
-157.56 -393.98 6.00 
-158.31 -393.98 6.07 
-157.44 -394.71 5.99 
-157.90 -394.84 6.03 
-158.21 -394.99 6.06 
-158.31 -395.34 6.07 
-157.94 -395.82 6.03 
-157.93 -396.15 6.03 
-158.45 -397.52 6.08 
-151.31 -379.90 5.51 
-147.19 -396.64 5.77 
-147.89 -397.61 5.84 
-145.96 -397.65 5.61 
-147.66 -397.98 5.81 
-147.89 -397.82 5.83 
-148.33 -397.92 5.89 
-145.78 -398.14 5.58 
-143.97 -398.59 5.36 
-146.05 -398.95 5.60 
-146.62 -398.92 5.67 
-146.23 -399.27 5.62 
-148.04 -400.33 5.82 
-147.82 -400.65 5.80 
-147.58 -401.04 5.76 
-145.95 -401.83 5.56 
-146.68 -401.79 5.65 
-147.20 -401.83 5.71 
-148.34 -402.63 5.84 
-145.37 -402.88 5.48 
-146.57 -403.41 5.63 
-148.15 -403.62 5.82 
-146.66 -403.60 5.64 
-146.04 -404.01 5.56 
-149.45 -404.44 5.97 
-150.37 -398.07 6.13 
-149.28 -398.23 5.99 
-149.93 -398.52 6.07 
-143.34 -398.18 5.99 
-149.94 -398.79 6.07 
-150.42 -399.08 6.12 
-149.63 -399.19 6.03 
-150.35 -399.16 6.11 
-150.61 -399.27 6.14 
-141.90 -399.41 5.76 
-142.17 -399.44 5.79 
-141.93 -399.79 5.75 
-142.12 -399.83 5.78 
-151.85 -400.46 6.28 
-142.22 -400.22 5.78 
-150.29 -400.70 6.09 
-151.53 -400.97 6.24 
-151.91 -401.24 6.29 
-142.17 -400.52 5.77 
-151.95 -401.44 6.29 
-142.17 -400.88 5.76 
-142.31 -400.88 5.78 
-142.67 -400.92 5.83 
-141.40 -402.03 5.63 
-142.18 -402.01 5.74 
-152.11 -402.97 6.30 
-141.49 -402.25 5.63 
-142.37 -402.41 5.76 
-142.64 -402.42 5.79 
-144.55 -402.62 6.06 
-141.57 -403.03 5.63 
-141.97 -403.08 5.69 
-141.56 -403.20 5.63 
-142.00 -403.26 5.69 
-141.85 -403.85 5.66 
-144.46 -403.78 6.03 
-141.82 -404.02 5.65 
-144.81 -404.32 6.08 
-141.71 -404.32 5.63 
-142.62 -404.52 5.76 
-144.58 -397.25 6.18 
-144.69 -397.68 6.19 
-143.71 -398.40 6.03 
-143.96 -398.54 6.06 
-144.59 -399.41 6.13 
-140.91 -400.72 6.20 
-141.24 -400.87 6.25 
-141.20 -401.30 6.23 
-141.71 -401.36 6.31 
-141.62 -401.61 6.29 
-148.69 -402.96 6.65 
-146.76 -403.50 6.37 
-141.36 -403.75 6.19 
-141.85 -404.43 6.25 
-142.39 -404.41 6.34 
-141.91 -398.47 6.44 
-142.19 -398.54 6.48 
-142.44 -398.60 6.52 
-142.31 -398.92 6.49 
-142.44 -399.08 6.50 
-141.91 -399.58 6.40 
-142.14 -399.66 6.44 
-142.31 -399.77 6.46 
-141.65 -400.14 6.34 
-141.75 -400.27 6.35 
-151.42 -401.35 7.07 
-145.06 -400.98 6.87 
-142.80 -401.49 6.48 
-143.07 -401.98 6.51 
-143.29 -402.10 6.54 
-153.24 -403.73 7.31 
-151.27 -403.95 7.02 
-142.41 -399.28 7.16 
-141.70 -400.00 6.99 
-141.67 -400.41 6.97 
-141.68 -400.73 6.96 
-141.90 -400.81 6.99 
-141.60 -401.23 6.92 
-142.32 -401.26 7.05 
-141.93 -401.82 6.96 
-141.45 -402.05 6.86 
-141.75 -402.08 6.92 
-141.34 -402.49 6.82 
-140.96 -402.73 6.75 
-141.44 -402.91 6.83 
-141.31 -403.27 6.79 
-141.55 -403.14 6.84 
-141.26 -403.57 6.77 
-141.47 -403.78 6.81 
-141.36 -403.99 6.78 
-141.50 -404.13 6.80 
-142.37 -404.23 6.96 
-142.45 -404.45 6.97 
-143.92 -398.11 7.49 
-150.03 -399.19 7.73 
-142.66 -398.92 7.22 
-142.73 -399.07 7.22 
-141.48 -402.40 7.48 
-141.70 -402.50 7.52 
-141.76 -403.07 7.51 
-141.93 -403.19 7.54 
-145.57 -396.86 7.84 
-141.76 -401.85 7.56 
-144.92 -403.58 8.16 
-143.42 -403.66 7.84 
-145.21 -404.44 8.19 
-144.46 -398.99 8.27 
-145.11 -399.15 8.39 
-145.60 -399.52 8.47 
-145.34 -399.87 8.40 
-146.49 -402.41 8.53 
-146.28 -402.92 8.47 
-146.38 -403.34 8.48 
-145.67 -404.63 8.28 
-146.05 -398.78 8.60 
-148.86 -401.05 9.08 
-148.56 -401.45 9.01 
-144.83 -401.41 8.93 
-144.71 -402.08 8.87 
-150.02 -402.66 9.27 
-144.22 -402.51 8.74 
-144.41 -402.65 8.77 
-144.26 -402.92 8.73 
-149.00 -404.42 9.01 
-143.62 -404.37 8.51 
-145.86 -399.79 9.26 
-144.72 -400.77 8.94 
-145.04 -400.88 9.01 
-145.15 -401.06 9.03 
-145.87 -401.22 9.18 
-146.02 -401.36 9.21 
-150.31 -402.36 9.35 
-145.66 -402.87 9.06 
-147.41 -397.17 4.17 
-147.83 -391.47 4.16 
-146.23 -403.11 4.79 
-146.90 -404.39 4.86 
-149.60 -379.71 5.28 
-151.01 -380.05 5.41 
-150.04 -380.37 5.32 
-152.73 -381.08 5.56 
-157.44 -392.56 5.92 
-157.88 -392.66 5.96 
-157.97 -393.01 5.97 
-158.06 -393.31 5.98 
-158.19 -393.54 5.99 
-157.15 -395.07 5.88 
-158.29 -395.22 6.00 
-157.45 -395.25 5.91 
-158.34 -395.47 6.00 
-157.36 -396.25 5.90 
-158.30 -396.14 5.99 
-157.72 -396.74 5.94 
-158.01 -396.58 5.97 
-152.02 -379.88 5.50 
-152.46 -379.98 5.54 
-152.58 -380.24 5.55 
-153.26 -381.20 5.60 
-154.42 -381.66 5.71 
-145.82 -397.53 5.48 
-145.74 -397.62 5.47 
-146.04 -397.71 5.50 
-147.77 -398.03 5.70 
-149.63 -398.18 5.92 
-145.85 -398.17 5.47 
-147.74 -398.36 5.69 
-147.94 -398.47 5.72 
-148.84 -398.30 5.83 
-149.47 -398.47 5.90 
-149.55 -398.47 5.91 
-150.08 -398.63 5.97 
-145.49 -398.71 5.42 
-146.50 -398.44 5.54 
-148.95 -398.95 5.83 
-149.65 -399.20 5.91 
-149.90 -399.46 5.94 
-147.48 -401.30 5.63 
-146.76 -402.02 5.54 
-147.16 -402.06 5.59 
-146.17 -402.12 5.46 
-145.41 -402.94 5.37 
-145.55 -403.07 5.38 
-147.10 -403.44 5.57 
-146.69 -403.79 5.52 
-146.25 -404.22 5.46 
-141.60 -404.27 5.46 
-143.72 -397.25 5.92 
-143.88 -397.66 5.93 
-144.01 -397.36 5.96 
-143.92 -397.84 5.93 
-143.98 -397.94 5.94 
-143.62 -398.29 5.88 
-143.93 -398.34 5.92 
-143.99 -399.18 5.90 
-142.25 -399.50 5.65 
-144.61 -399.54 5.98 
-142.28 -399.91 5.65 
-142.87 -400.02 5.73 
-151.70 -400.96 6.15 
-142.44 -400.04 5.66 
-151.65 -401.19 6.14 
-152.05 -401.36 6.19 
-142.97 -400.71 5.72 
-151.88 -401.68 6.16 
-142.06 -400.84 5.59 
-141.96 -401.50 5.56 
-141.74 -401.80 5.52 
-142.82 -401.66 5.68 
-152.21 -403.04 6.20 
-141.80 -402.15 5.53 
-142.08 -402.23 5.56 
-142.16 -402.61 5.57 
-144.77 -402.90 5.94 
-146.45 -403.15 6.18 
-146.60 -403.32 6.20 
-144.55 -403.83 5.89 
-144.90 -403.91 5.94 
-145.16 -404.03 5.98 
-146.70 -404.38 6.20 
-152.60 -379.75 6.65 
-150.92 -380.24 6.46 
-158.49 -396.96 7.01 
-141.96 -399.40 6.24 
-150.56 -400.32 6.81 
-150.54 -400.57 6.81 
-141.65 -400.21 6.16 
-147.52 -401.24 6.36 
-147.69 -401.13 6.39 
-146.49 -401.31 6.21 
-141.16 -401.07 6.05 
-141.52 -401.27 6.10 
-148.62 -402.23 6.50 
-140.96 -402.13 5.98 
-141.13 -402.23 6.00 
-148.66 -403.24 6.50 
-148.18 -403.52 6.42 
-141.27 -403.36 5.99 
-141.40 -403.23 6.02 
-141.24 -403.66 5.98 
-141.40 -403.75 6.01 
-141.98 -403.93 6.10 
-143.07 -403.88 6.28 
-149.06 -404.40 6.54 
-141.49 -403.92 6.02 
-141.58 -404.60 6.02 
-141.70 -404.56 6.04 
-144.60 -398.60 6.69 
-142.48 -398.64 6.35 
-142.46 -399.57 6.31 
-151.19 -400.29 6.91 
-151.53 -400.68 6.95 
-152.42 -400.67 7.08 
-152.33 -402.52 7.04 
-141.19 -401.80 6.61 
-141.18 -402.51 6.58 
-141.06 -402.98 6.54 
-152.61 -403.96 7.07 
-141.21 -403.19 6.56 
-141.39 -403.29 6.59 
-141.11 -404.09 6.51 
-141.18 -404.37 6.52 
-141.34 -404.49 6.54 
-142.81 -399.00 7.04 
-142.64 -399.43 6.99 
-143.04 -399.64 7.05 
-142.65 -399.64 6.98 
-141.38 -400.82 6.69 
-141.39 -401.11 6.68 
-141.58 -401.27 6.71 
-141.77 -401.88 6.72 
-144.97 -403.58 7.26 
-142.48 -404.27 6.77 
-142.82 -404.35 6.83 
-142.98 -404.56 6.85 
-152.51 -380.10 7.73 
-144.36 -397.79 7.38 
-142.18 -400.43 7.49 
-142.65 -401.47 7.53 
-141.45 -402.21 7.24 
-141.31 -402.47 7.20 
-141.52 -402.64 7.24 
-141.83 -402.62 7.30 
-141.92 -402.96 7.30 
-142.36 -402.95 7.40 
-142.49 -403.11 7.42 
-141.86 -403.73 7.26 
-142.39 -403.72 7.37 
-141.77 -404.22 7.22 
-142.13 -404.36 7.29 
-142.25 -404.51 7.31 
-142.84 -404.50 7.44 
-144.16 -399.67 7.94 
-144.56 -399.57 8.03 
-144.63 -399.89 8.02 
-141.80 -402.79 7.89 
-145.26 -403.90 7.98 
-145.39 -404.07 8.00 
-145.14 -398.02 8.23 
-145.37 -398.12 8.27 
-145.27 -398.42 8.24 
-145.47 -398.53 8.27 
-146.56 -399.15 8.46 
-146.47 -399.24 8.44 
-143.25 -402.98 8.22 
-144.06 -403.27 8.39 
-143.98 -403.49 8.36 
-143.67 -404.16 8.26 
-146.51 -396.23 8.62 
-144.93 -400.16 8.77 
-144.99 -400.35 8.77 
-145.24 -400.57 8.81 
-145.08 -400.97 8.75 
-145.76 -402.22 8.84 
-145.83 -402.38 8.85 
-145.27 -403.42 8.67 
-151.91 -402.28 9.46 
-133.78 -394.48 2.93 
-147.46 -397.26 3.99 
-146.79 -402.92 4.65 
-146.98 -404.50 4.68 
-149.75 -379.82 5.08 
-150.42 -379.75 5.14 
-152.33 -380.07 5.31 
-152.61 -379.95 5.34 
-150.43 -380.44 5.13 
-150.89 -380.43 5.17 
-149.97 -380.51 5.09 
-152.95 -380.95 5.36 
-150.69 -381.08 5.15 
-152.84 -381.13 5.35 
-153.50 -381.32 5.41 
-154.00 -381.34 5.45 
-154.58 -381.63 5.50 
-157.00 -393.73 5.67 
-157.23 -393.88 5.69 
-156.89 -394.10 5.66 
-157.52 -394.39 5.72 
-157.32 -394.54 5.70 
-157.66 -395.02 5.73 
-157.90 -395.49 5.75 
-157.20 -396.17 5.68 
-157.79 -396.22 5.74 
-158.17 -396.32 5.78 
-157.32 -397.19 5.70 
-157.67 -397.50 5.73 
-157.44 -397.89 5.71 
-158.31 -397.86 5.80 
-146.75 -404.55 5.30 
-153.86 -380.59 5.45 
-154.43 -381.40 5.49 
-147.42 -397.09 5.45 
-146.32 -397.48 5.31 
-149.42 -398.01 5.67 
-148.00 -398.27 5.50 
-149.68 -398.19 5.70 
-145.97 -398.15 5.26 
-149.53 -398.51 5.68 
-149.90 -398.54 5.72 
-145.49 -398.63 5.20 
-150.18 -399.06 5.75 
-145.43 -398.91 5.18 
-151.71 -401.11 5.92 
-151.96 -401.27 5.95 
-152.32 -401.35 6.00 
-152.29 -401.90 5.99 
-146.91 -402.39 5.33 
-142.08 -402.32 5.31 
-142.19 -402.62 5.32 
-148.34 -403.38 5.50 
-142.20 -402.90 5.32 
-146.76 -403.92 5.30 
-143.81 -397.63 5.67 
-143.99 -397.87 5.69 
-143.78 -398.33 5.65 
-145.01 -398.59 5.81 
-145.83 -399.07 5.91 
-144.61 -399.53 5.73 
-145.99 -399.80 5.92 
-142.93 -399.80 5.49 
-143.20 -399.86 5.53 
-142.89 -400.65 5.46 
-142.45 -401.19 5.39 
-143.44 -401.17 5.53 
-147.48 -401.68 6.10 
-142.80 -401.65 5.43 
-145.19 -401.80 5.77 
-145.14 -402.11 5.75 
-145.36 -402.11 5.79 
-147.43 -402.92 6.07 
-146.55 -403.35 5.94 
-141.04 -403.01 5.69 
-145.06 -403.23 5.72 
-141.08 -403.15 5.69 
-141.14 -403.15 5.70 
-141.37 -403.92 5.72 
-145.46 -404.11 5.77 
-141.44 -404.15 5.73 
-150.39 -379.95 6.17 
-151.83 -379.80 6.33 
-152.16 -379.92 6.36 
-152.89 -380.46 6.43 
-153.39 -380.51 6.48 
-150.51 -380.65 6.16 
-155.08 -381.51 6.64 
-157.82 -393.92 6.73 
-158.15 -395.32 6.75 
-147.43 -397.00 6.19 
-143.24 -399.36 6.17 
-151.60 -400.30 6.71 
-152.00 -400.45 6.77 
-152.24 -400.62 6.80 
-142.65 -399.88 6.06 
-150.70 -400.69 6.58 
-142.46 -400.23 6.01 
-141.11 -400.78 5.78 
-141.46 -401.33 5.81 
-148.79 -402.08 6.28 
-149.04 -402.13 6.32 
-149.31 -402.62 6.35 
-152.41 -403.07 6.80 
-140.74 -401.91 5.68 
-140.89 -402.11 5.69 
-141.76 -402.23 5.83 
-153.07 -403.62 6.89 
-141.14 -402.80 5.71 
-141.33 -403.25 5.73 
-141.50 -403.52 5.75 
-150.82 -404.45 6.55 
-141.49 -403.67 5.75 
-142.69 -403.91 5.94 
-144.05 -403.99 6.17 
-142.20 -404.12 5.85 
-142.59 -404.15 5.92 
-146.75 -399.49 6.73 
-141.49 -400.32 6.44 
-141.56 -400.69 6.43 
-141.72 -400.77 6.46 
-147.68 -401.15 6.84 
-141.61 -400.86 6.43 
-141.93 -401.27 6.47 
-141.16 -402.22 6.29 
-142.82 -402.15 6.60 
-140.98 -402.48 6.24 
-142.53 -403.58 6.49 
-141.39 -403.72 6.27 
-142.07 -404.59 6.37 
-142.24 -399.39 6.62 
-142.71 -399.60 6.69 
-143.88 -400.06 6.88 
-143.88 -400.23 6.88 
-142.30 -400.68 6.57 
-142.58 -401.41 6.58 
-141.59 -402.49 6.93 
-141.51 -403.10 6.88 
-141.37 -403.43 6.84 
-141.18 -403.94 6.77 
-141.93 -403.90 6.93 
-142.10 -404.46 6.95 
-152.54 -379.80 7.49 
-152.57 -380.07 7.48 
-152.66 -380.65 7.47 
-152.85 -380.84 7.49 
-153.31 -380.85 7.54 
-145.12 -398.03 7.21 
-148.13 -400.70 7.65 
-141.48 -400.70 7.00 
-142.28 -400.75 7.16 
-142.96 -400.66 7.31 
-143.38 -400.68 7.39 
-141.61 -400.80 7.02 
-142.54 -400.91 7.21 
-143.69 -401.71 7.40 
-142.39 -401.77 7.13 
-141.55 -402.36 6.92 
-143.02 -402.33 7.23 
-141.70 -402.65 6.94 
-143.11 -404.45 7.16 
-144.85 -398.14 7.84 
-144.65 -398.48 7.78 
-144.72 -398.41 7.80 
-143.71 -399.33 7.54 
-144.80 -400.18 7.71 
-149.71 -401.19 7.93 
-141.85 -402.15 7.58 
-141.90 -403.06 7.54 
-142.20 -403.13 7.60 
-143.19 -403.28 7.83 
-142.23 -403.30 7.60 
-143.27 -403.44 7.84 
-143.43 -403.72 7.86 
-143.39 -402.98 7.89 
-144.83 -403.43 8.21 
-143.68 -403.46 7.93 
-145.00 -403.72 8.23 
-144.51 -404.50 8.08 
-145.37 -400.16 8.51 
-146.84 -402.65 8.71 
-146.59 -403.41 8.62 
-133.88 -394.51 2.75 
-147.55 -397.45 3.82 
-147.52 -397.30 4.52 
-146.68 -403.34 4.44 
-146.85 -403.58 4.45 
-153.48 -379.89 5.22 
-150.33 -379.99 4.93 
-150.99 -380.24 4.99 
-152.49 -380.47 5.13 
-153.20 -380.63 5.19 
-153.55 -380.65 5.22 
-154.17 -381.01 5.28 
-150.84 -380.85 4.97 
-153.19 -381.08 5.18 
-155.49 -381.52 5.39 
-150.93 -381.21 4.97 
-154.00 -381.62 5.25 
-154.37 -381.70 5.29 
-157.39 -393.21 5.51 
-157.64 -393.72 5.53 
-157.21 -394.27 5.49 
-157.95 -394.20 5.56 
-158.44 -394.23 5.61 
-157.44 -394.77 5.51 
-157.56 -395.91 5.52 
-157.08 -396.47 5.47 
-157.36 -396.65 5.50 
-158.44 -396.48 5.61 
-157.28 -397.87 5.49 
-157.56 -398.00 5.52 
-145.89 -403.10 4.97 
-146.90 -404.41 5.09 
-154.81 -379.95 5.35 
-155.86 -380.74 5.44 
-155.84 -381.14 5.43 
-156.27 -381.25 5.47 
-156.42 -381.94 5.48 
-146.01 -398.01 5.04 
-149.91 -398.45 5.50 
-145.76 -398.31 5.01 
-145.94 -398.42 5.03 
-149.11 -398.60 5.40 
-150.56 -398.83 5.58 
-142.56 -401.12 5.15 
-142.69 -401.32 5.17 
-148.33 -403.65 5.27 
-157.86 -393.81 6.51 
-143.60 -397.57 5.40 
-146.04 -399.90 5.67 
-145.70 -400.45 5.61 
-148.18 -400.82 5.96 
-143.02 -400.47 5.24 
-143.26 -400.52 5.27 
-145.42 -400.63 5.57 
-146.22 -400.88 5.68 
-146.41 -401.32 5.70 
-145.47 -402.05 5.55 
-145.75 -402.13 5.59 
-146.73 -402.00 5.73 
-145.87 -402.24 5.60 
-141.41 -402.24 5.50 
-141.68 -402.46 5.53 
-147.44 -403.10 5.82 
-145.32 -403.29 5.51 
-148.57 -403.71 5.97 
-141.62 -403.19 5.50 
-146.62 -403.68 5.69 
-141.58 -403.38 5.49 
-142.26 -403.76 5.59 
-142.32 -403.57 5.61 
-146.74 -403.95 5.70 
-141.27 -403.77 5.43 
-141.50 -404.58 5.44 
-151.34 -379.75 6.07 
-152.09 -379.87 6.14 
-150.55 -380.18 5.97 
-151.27 -380.29 6.04 
-153.13 -380.60 6.23 
-154.52 -381.03 6.38 
-154.74 -381.44 6.39 
-155.58 -381.27 6.49 
-156.12 -381.65 6.54 
-143.68 -398.36 6.01 
-143.79 -398.47 6.02 
-148.20 -399.46 5.99 
-148.31 -399.66 6.00 
-148.89 -399.86 6.08 
-142.13 -399.85 5.70 
-142.40 -400.09 5.74 
-148.43 -400.49 6.00 
-142.76 -400.38 5.78 
-142.50 -401.20 5.71 
-142.60 -401.25 5.72 
-149.44 -402.10 6.12 
-150.05 -401.91 6.21 
-150.14 -402.07 6.22 
-150.90 -402.31 6.33 
-150.83 -402.52 6.32 
-152.73 -402.89 6.59 
-146.41 -403.81 6.28 
-144.14 -403.90 5.90 
-141.32 -403.97 5.95 
-143.97 -404.14 5.87 
-144.65 -404.62 5.97 
-144.28 -398.61 6.09 
-142.12 -399.11 6.32 
-141.88 -399.47 6.26 
-142.03 -399.58 6.28 
-141.84 -400.09 6.22 
-146.48 -401.11 6.36 
-141.35 -401.15 6.07 
-141.38 -401.47 6.06 
-141.72 -402.01 6.10 
-142.10 -402.03 6.17 
-142.52 -402.16 6.24 
-143.10 -402.06 6.35 
-146.46 -403.18 6.31 
-146.73 -403.28 6.35 
-142.02 -403.29 6.10 
-147.38 -403.87 6.45 
-148.50 -404.34 6.63 
-141.50 -403.69 5.99 
-141.77 -404.45 6.01 
-141.83 -404.67 6.02 
-142.25 -398.83 6.36 
-141.41 -400.71 6.67 
-141.76 -400.84 6.73 
-145.65 -401.26 6.86 
-144.83 -401.34 6.70 
-141.79 -401.61 6.69 
-142.04 -402.03 6.72 
-141.47 -402.15 6.59 
-141.81 -402.33 6.65 
-141.09 -402.87 6.48 
-141.32 -402.92 6.52 
-141.57 -403.06 6.57 
-141.62 -403.30 6.57 
-142.05 -403.45 6.65 
-141.22 -403.65 6.46 
-141.55 -403.91 6.52 
-143.09 -404.51 6.82 
-141.18 -404.49 6.42 
-141.47 -404.62 6.47 
-152.48 -379.80 7.25 
-152.89 -379.79 7.31 
-152.92 -380.25 7.29 
-155.31 -380.62 7.58 
-152.89 -380.65 7.27 
-153.51 -380.55 7.35 
-153.91 -380.99 7.38 
-142.89 -399.09 7.07 
-142.62 -399.74 6.97 
-141.67 -400.35 6.74 
-142.52 -401.57 6.84 
-141.47 -402.79 7.10 
-142.19 -404.05 7.20 
-141.79 -404.38 7.09 
-142.19 -404.53 7.17 
-144.43 -398.46 7.42 
-142.16 -401.56 7.34 
-141.84 -402.81 7.18 
-142.17 -403.07 7.24 
-144.77 -399.10 8.10 
-144.71 -399.48 8.06 
-145.14 -400.20 8.11 
-146.79 -403.58 8.30 
-146.39 -403.94 8.19 
-146.85 -403.98 8.30 
-145.29 -404.13 7.92 
-153.96 -379.99 8.52 
-154.28 -380.15 8.56 
-146.18 -399.20 8.41 
-146.51 -399.22 8.48 
-145.31 -399.46 8.20 
-151.54 -402.63 8.70 
-133.98 -394.65 2.33 
-147.68 -397.65 3.35 
-147.85 -397.77 3.37 
-155.96 -384.37 3.59 
-156.37 -384.42 3.62 
-156.66 -384.42 3.64 
-157.10 -384.45 3.67 
-157.37 -384.56 3.69 
-158.00 -384.53 3.74 
-158.37 -384.61 3.76 
-133.79 -394.54 2.81 
-147.69 -397.61 4.03 
-152.12 -379.85 4.24 
-155.06 -380.21 4.49 
-150.82 -380.19 4.13 
-152.17 -380.45 4.25 
-155.07 -381.10 4.50 
-155.27 -381.35 4.52 
-158.13 -398.06 5.00 
-158.29 -398.43 5.03 
-147.04 -404.62 4.70 
-155.57 -380.17 4.54 
-147.64 -397.45 4.71 
-157.77 -394.99 5.84 
-158.10 -395.42 5.87 
-157.32 -395.86 5.79 
-157.96 -397.64 5.88 
-146.39 -397.81 5.24 
-147.98 -397.79 5.45 
-146.34 -398.49 5.22 
-148.04 -398.71 5.45 
-146.47 -398.86 5.24 
-146.65 -399.02 5.26 
-144.88 -399.19 5.02 
-144.94 -399.12 5.03 
-145.67 -399.12 5.13 
-146.61 -399.27 5.25 
-147.98 -401.48 5.43 
-142.16 -401.16 5.19 
