# .PCD v0.7 - Point Cloud Data file format
VERSION 0.7
FIELDS x y z
SIZE 4 4 4
TYPE F F F
COUNT 1 1 1
WIDTH 2174
HEIGHT 1
VIEWPOINT 0 0 0 1 0 0 0
POINTS 2174
DATA ascii
-144.91 -346.73 3.60 
-144.88 -346.34 3.57 
-145.36 -352.29 3.65 
-145.36 -352.07 3.64 
-145.12 -351.41 3.97 
-145.35 -339.94 3.28 
-145.68 -352.23 3.70 
-145.52 -351.89 3.66 
-145.63 -347.21 3.77 
-145.68 -346.45 3.73 
-145.70 -346.02 3.70 
-145.78 -345.73 3.70 
-146.22 -351.40 3.75 
-146.23 -347.18 3.88 
-146.02 -346.61 3.80 
-146.00 -346.49 3.79 
-146.22 -346.16 3.81 
-146.38 -352.29 3.82 
-146.39 -351.60 3.79 
-146.60 -349.83 4.13 
-146.54 -348.65 4.04 
-146.57 -347.23 3.95 
-146.43 -345.83 3.83 
-146.50 -344.32 3.75 
-146.68 -344.17 3.78 
-146.72 -343.44 3.74 
-146.62 -351.50 3.82 
-146.80 -351.38 3.85 
-146.76 -349.49 4.14 
-146.70 -349.13 4.10 
-146.76 -349.00 4.10 
-147.01 -347.96 4.08 
-146.80 -345.97 3.91 
-146.95 -343.71 3.80 
-147.30 -346.20 4.02 
-147.53 -344.86 3.99 
-147.47 -343.19 3.87 
-147.73 -344.86 4.02 
-147.77 -343.63 3.96 
-147.60 -343.36 3.91 
-148.44 -330.05 3.32 
-148.24 -347.87 4.31 
-148.34 -347.49 4.31 
-149.39 -334.73 3.69 
-149.37 -334.57 3.77 
-149.43 -334.75 3.70 
-149.78 -334.31 3.75 
-149.77 -334.19 3.75 
-149.93 -334.47 3.79 
-150.15 -334.12 3.99 
-144.39 -351.76 4.26 
-144.24 -351.53 4.21 
-144.41 -347.00 3.84 
-144.50 -346.66 3.83 
-144.47 -346.32 3.80 
-144.78 -352.41 3.98 
-144.90 -352.12 3.98 
-144.89 -351.58 4.34 
-144.71 -351.21 4.27 
-144.73 -347.75 3.97 
-144.89 -347.26 3.96 
-144.87 -346.18 3.87 
-144.78 -346.09 3.84 
-145.10 -345.32 3.85 
-145.09 -352.23 4.02 
-145.28 -351.85 4.03 
-145.12 -351.28 4.36 
-145.01 -350.93 4.31 
-145.29 -346.23 3.96 
-145.34 -346.09 3.96 
-145.27 -345.68 3.91 
-145.29 -345.35 3.89 
-145.31 -339.98 3.65 
-145.64 -351.71 4.08 
-145.36 -351.21 4.40 
-145.60 -347.06 4.09 
-145.63 -345.48 3.97 
-145.58 -345.32 3.95 
-145.86 -352.23 4.16 
-145.86 -351.81 4.13 
-145.86 -351.49 4.11 
-145.92 -351.08 4.09 
-146.04 -350.95 4.11 
-146.02 -349.58 4.39 
-145.98 -349.13 4.34 
-145.85 -347.31 4.16 
-146.11 -345.61 4.08 
-146.22 -344.39 4.01 
-146.13 -344.13 3.97 
-146.15 -343.46 3.93 
-146.31 -343.04 3.93 
-146.52 -352.05 4.27 
-146.44 -351.14 4.19 
-146.45 -350.66 4.16 
-146.35 -349.55 4.46 
-146.47 -349.27 4.46 
-146.40 -346.07 4.18 
-146.52 -344.00 4.05 
-146.43 -343.77 4.01 
-146.54 -343.17 3.99 
-146.64 -343.00 4.00 
-146.59 -351.13 4.22 
-146.75 -350.64 4.22 
-146.93 -350.58 4.24 
-146.99 -345.69 4.27 
-146.90 -344.98 4.20 
-147.00 -344.34 4.18 
-146.79 -343.71 4.09 
-146.86 -343.03 4.06 
-147.33 -345.74 4.35 
-147.32 -342.97 4.15 
-147.56 -343.24 4.22 
-148.13 -347.09 4.63 
-148.47 -330.31 3.71 
-148.35 -330.04 3.67 
-148.62 -347.16 4.74 
-149.17 -334.89 4.10 
-149.48 -339.52 4.43 
-149.83 -339.38 4.50 
-149.67 -338.80 4.43 
-150.03 -334.46 4.21 
-149.79 -334.11 4.14 
-149.77 -333.29 4.25 
-150.65 -334.36 4.48 
-150.51 -334.22 4.44 
-158.29 -348.86 6.32 
-144.05 -346.54 4.03 
-144.41 -352.34 4.32 
-144.46 -347.50 4.22 
-144.45 -347.14 4.18 
-144.37 -346.61 4.11 
-144.57 -346.38 4.13 
-144.56 -352.39 4.35 
-144.78 -346.86 4.23 
-144.67 -346.27 4.14 
-144.96 -345.90 4.17 
-145.11 -352.55 4.47 
-144.90 -352.02 4.39 
-145.12 -346.55 4.28 
-145.22 -345.99 4.24 
-145.11 -345.44 4.16 
-145.29 -340.10 4.30 
-145.66 -346.64 4.41 
-145.71 -346.43 4.40 
-145.56 -346.04 4.33 
-145.81 -344.74 4.26 
-145.71 -344.29 4.20 
-145.68 -344.13 4.18 
-145.98 -352.00 4.60 
-145.75 -351.50 4.51 
-145.97 -346.90 4.50 
-146.16 -346.52 4.51 
-145.88 -344.68 4.28 
-145.94 -344.44 4.27 
-146.03 -343.99 4.25 
-146.15 -343.67 4.25 
-146.18 -343.15 4.22 
-146.28 -342.76 4.21 
-146.22 -346.46 4.52 
-146.37 -344.43 4.37 
-146.35 -343.85 4.31 
-146.55 -343.60 4.34 
-146.52 -342.85 4.27 
-146.75 -336.95 4.27 
-146.83 -347.90 4.80 
-146.68 -346.49 4.63 
-146.90 -344.42 4.49 
-146.78 -343.91 4.42 
-146.91 -343.55 4.42 
-146.89 -342.74 4.35 
-147.06 -339.14 4.46 
-147.00 -338.63 4.41 
-147.00 -337.70 4.37 
-146.97 -337.32 4.34 
-147.22 -345.98 4.70 
-147.07 -344.51 4.54 
-147.12 -344.00 4.51 
-147.27 -343.64 4.52 
-147.43 -342.46 4.46 
-147.27 -338.87 4.35 
-147.43 -338.26 4.51 
-147.78 -329.88 4.27 
-147.69 -329.80 4.25 
-147.56 -345.05 4.70 
-147.76 -343.66 4.64 
-147.61 -342.79 4.53 
-147.59 -338.40 4.56 
-147.71 -334.80 4.47 
-148.15 -329.93 4.00 
-148.11 -329.83 3.99 
-148.22 -344.09 4.78 
-148.24 -339.35 4.46 
-148.38 -330.56 4.07 
-148.27 -330.11 4.09 
-148.39 -339.22 4.50 
-148.61 -338.09 4.49 
-148.67 -337.81 4.50 
-149.09 -338.49 4.63 
-148.87 -338.04 4.55 
-148.89 -337.61 4.54 
-149.01 -337.42 4.56 
-148.87 -336.93 4.51 
-149.04 -335.18 4.40 
-149.06 -335.03 4.40 
-149.45 -339.12 4.75 
-149.23 -338.81 4.68 
-149.34 -338.30 4.68 
-149.20 -337.80 4.63 
-149.82 -337.71 4.78 
-149.82 -337.34 4.76 
-149.90 -336.77 4.76 
-149.74 -333.92 4.52 
-149.70 -333.81 4.50 
-149.76 -333.26 4.62 
-150.29 -334.58 4.68 
-151.45 -337.12 5.15 
-151.36 -335.22 5.06 
-151.36 -335.01 5.06 
-151.28 -334.58 5.03 
-151.78 -336.42 5.21 
-152.10 -329.89 4.97 
-152.27 -337.74 4.97 
-152.42 -337.62 4.99 
-154.17 -335.70 5.31 
-154.43 -335.01 5.34 
-154.80 -335.35 5.44 
-155.54 -329.77 5.44 
-155.70 -330.05 5.48 
-145.17 -330.17 4.19 
-145.05 -330.03 4.15 
-145.28 -340.10 4.56 
-145.73 -331.93 4.07 
-145.86 -331.92 4.10 
-145.90 -331.53 4.24 
-146.13 -337.37 4.39 
-146.16 -337.21 4.39 
-146.24 -332.65 4.56 
-146.37 -332.23 4.26 
-146.25 -331.98 4.22 
-146.47 -338.97 4.86 
-146.64 -336.43 4.53 
-146.73 -334.78 4.46 
-146.80 -334.20 4.46 
-147.06 -336.33 4.65 
-146.98 -336.04 4.61 
-146.95 -334.68 4.53 
-146.94 -334.54 4.52 
-147.15 -333.44 4.53 
-147.53 -335.21 4.73 
-147.40 -333.98 4.63 
-147.38 -333.56 4.60 
-147.50 -333.21 4.63 
-147.67 -332.88 4.43 
-147.64 -334.92 4.74 
-148.32 -329.96 4.42 
-148.40 -338.64 4.79 
-148.75 -335.53 4.72 
-148.69 -334.87 4.73 
-151.46 -336.53 5.52 
-151.65 -330.16 5.03 
-151.90 -331.62 5.11 
-152.04 -330.39 5.13 
-151.99 -330.21 5.12 
-151.97 -329.79 5.11 
-151.93 -336.94 5.67 
-152.27 -336.38 5.33 
-152.12 -331.32 5.16 
-152.42 -330.80 5.23 
-152.27 -330.58 5.19 
-152.73 -331.50 5.31 
-153.12 -336.17 5.53 
-153.01 -335.30 5.48 
-152.97 -333.75 5.42 
-153.17 -332.75 5.45 
-153.15 -332.49 5.44 
-152.97 -331.44 5.37 
-153.47 -335.11 5.58 
-153.73 -333.44 5.60 
-153.82 -332.86 5.61 
-153.74 -332.46 5.58 
-154.05 -335.97 5.76 
-154.05 -333.63 5.68 
-154.44 -335.73 5.85 
-154.91 -332.95 5.88 
-155.10 -330.76 5.73 
-155.01 -330.07 5.69 
-155.39 -330.48 5.79 
-155.59 -330.20 5.84 
-155.33 -329.77 5.76 
-155.68 -330.80 5.88 
-145.18 -330.31 4.51 
-145.04 -329.93 4.46 
-145.50 -336.42 4.82 
-145.44 -331.50 4.59 
-145.46 -330.58 4.60 
-145.44 -330.43 4.59 
-145.57 -336.31 4.84 
-145.97 -332.70 4.80 
-146.02 -332.47 4.81 
-145.85 -330.66 4.73 
-145.78 -330.49 4.71 
-146.19 -335.49 5.00 
-146.40 -334.73 4.69 
-146.33 -333.08 4.93 
-146.21 -332.74 4.81 
-146.34 -332.55 4.59 
-146.41 -331.98 4.60 
-146.31 -331.71 4.56 
-146.35 -336.67 5.14 
-146.49 -336.22 5.15 
-146.37 -335.97 5.09 
-146.55 -335.30 5.11 
-146.68 -333.43 4.73 
-146.57 -333.19 4.78 
-146.60 -332.84 4.68 
-146.57 -332.31 4.66 
-147.09 -329.82 4.80 
-147.33 -336.74 5.12 
-147.43 -334.99 5.04 
-147.64 -338.38 5.20 
-147.64 -335.87 5.16 
-147.78 -334.65 5.14 
-148.02 -330.62 5.10 
-147.90 -337.21 5.23 
-148.12 -335.43 5.29 
-148.02 -335.33 5.25 
-148.34 -333.65 5.27 
-148.24 -333.36 5.23 
-148.50 -336.38 5.45 
-148.53 -334.70 5.20 
-148.40 -333.44 5.28 
-149.53 -338.17 5.44 
-150.32 -337.78 5.66 
-151.38 -329.81 5.41 
-151.98 -330.82 5.42 
-155.57 -331.11 6.41 
-155.78 -330.58 6.04 
-156.20 -329.79 6.13 
-156.40 -330.69 6.19 
-146.66 -335.69 5.17 
-146.75 -331.11 5.04 
-146.95 -335.71 5.27 
-147.03 -334.76 5.25 
-147.04 -334.34 5.23 
-146.92 -333.50 5.15 
-147.24 -339.38 5.45 
-147.14 -334.67 5.28 
-147.22 -331.90 5.21 
-147.76 -333.57 5.45 
-148.16 -333.97 5.60 
-148.36 -332.60 5.68 
-148.79 -335.27 5.89 
-149.62 -338.26 5.84 
-150.99 -336.95 6.31 
-153.49 -336.51 6.58 
-155.78 -330.85 6.46 
-156.45 -331.63 6.66 
-156.41 -331.33 6.64 
-156.34 -330.51 6.60 
-150.23 -335.48 6.41 
-152.19 -336.08 6.64 
-145.41 -340.22 2.65 
-145.42 -340.13 2.64 
-145.57 -352.54 3.40 
-145.65 -352.47 3.41 
-146.15 -352.68 3.50 
-146.23 -352.60 3.50 
-146.45 -351.74 3.51 
-147.14 -349.52 3.53 
-147.28 -344.26 3.01 
-147.71 -349.25 3.61 
-148.12 -349.02 3.66 
-148.55 -330.36 2.68 
-148.55 -330.07 2.67 
-144.84 -347.49 3.45 
-144.99 -347.04 3.45 
-145.07 -346.90 3.45 
-145.35 -340.22 3.02 
-145.41 -340.12 2.90 
-145.67 -347.45 3.41 
-145.79 -346.26 3.54 
-146.25 -347.79 3.70 
-146.19 -347.49 3.31 
-146.16 -347.00 3.29 
-146.08 -346.73 3.44 
-146.08 -346.35 3.42 
-146.41 -347.12 3.33 
-146.53 -346.72 3.69 
-146.48 -346.40 3.67 
-146.73 -344.54 3.61 
-146.70 -347.15 3.74 
-147.04 -346.59 3.77 
-146.94 -344.45 3.47 
-146.96 -344.01 3.62 
-147.36 -343.89 3.51 
-147.48 -343.74 3.70 
-148.53 -330.34 3.04 
-148.54 -329.93 2.99 
-149.49 -334.70 3.51 
-149.53 -334.48 3.40 
-149.81 -334.06 3.28 
-149.96 -334.33 3.57 
-149.89 -334.02 3.46 
-144.65 -346.78 3.70 
-144.78 -347.82 3.80 
-144.82 -347.46 3.78 
-144.77 -347.14 3.75 
-144.78 -346.62 3.72 
-144.86 -346.43 3.72 
-145.25 -352.32 3.79 
-145.23 -351.98 3.76 
-145.06 -347.06 3.80 
-145.27 -346.64 3.81 
-145.31 -346.20 3.79 
-145.39 -346.01 3.79 
-145.32 -340.19 3.40 
-145.62 -351.98 3.83 
-145.50 -347.22 3.89 
-145.67 -346.81 3.90 
-145.57 -346.31 3.84 
-145.62 -346.00 3.83 
-145.74 -352.51 3.88 
-145.99 -351.92 3.89 
-146.06 -351.56 3.88 
-146.05 -346.20 3.93 
-145.95 -345.96 3.89 
-146.17 -351.98 3.92 
-146.48 -351.70 3.96 
-146.30 -345.94 3.96 
-146.35 -344.67 3.88 
-146.60 -344.36 3.91 
-146.63 -343.59 3.86 
-146.59 -352.33 4.01 
-146.86 -351.67 4.02 
-146.61 -351.21 3.95 
-146.92 -349.64 3.92 
-146.71 -348.41 4.20 
-146.76 -346.11 4.05 
-146.77 -344.36 3.94 
-146.94 -343.99 3.95 
-146.85 -343.50 3.90 
-147.14 -351.58 4.06 
-147.31 -349.36 3.97 
-147.36 -349.21 3.97 
-147.09 -348.64 4.29 
-147.34 -346.37 4.18 
-147.46 -344.54 4.08 
-147.11 -344.34 4.00 
-147.42 -343.49 4.01 
-147.49 -343.30 4.01 
-147.54 -348.91 3.98 
-147.67 -343.62 4.06 
-148.12 -349.27 4.10 
-147.86 -348.70 4.03 
-148.40 -330.28 3.38 
-148.49 -330.03 3.45 
-148.38 -344.76 4.27 
-149.26 -334.75 3.91 
-149.32 -334.74 3.92 
-149.72 -334.42 3.83 
-149.78 -334.53 3.84 
-149.79 -333.82 3.97 
-150.17 -334.34 4.07 
-144.38 -352.60 4.09 
-144.38 -352.37 4.07 
-144.49 -352.03 4.07 
-144.48 -351.58 4.03 
-144.47 -347.50 4.06 
-144.38 -346.94 3.99 
-144.45 -346.69 3.99 
-144.83 -352.88 4.19 
-144.67 -352.13 4.11 
-144.88 -351.76 4.12 
-144.53 -351.44 4.03 
-144.80 -347.86 4.16 
-144.75 -347.22 4.09 
-144.79 -346.67 4.05 
-144.69 -346.23 3.99 
-145.16 -351.91 4.18 
-145.16 -351.58 4.15 
-144.99 -347.33 4.15 
-145.19 -347.06 4.17 
-145.29 -346.76 4.16 
-145.15 -346.20 4.09 
-145.23 -345.83 4.07 
-145.29 -340.16 3.78 
-145.41 -352.33 4.26 
-145.47 -351.72 4.22 
-145.61 -351.47 4.23 
-145.62 -351.16 4.20 
-145.72 -346.18 4.20 
-145.63 -345.80 4.15 
-145.78 -345.58 4.16 
-145.78 -344.63 4.09 
-145.81 -344.31 4.06 
-146.02 -353.00 4.42 
-146.04 -352.32 4.37 
-145.79 -351.09 4.23 
-145.99 -347.00 4.33 
-146.02 -346.89 4.32 
-146.04 -345.69 4.23 
-145.98 -344.94 4.15 
-145.95 -344.68 4.12 
-146.08 -344.27 4.12 
-145.98 -344.09 4.08 
-146.14 -343.46 4.07 
-146.16 -351.13 4.30 
-146.42 -349.70 4.24 
-146.16 -347.29 4.39 
-146.33 -345.85 4.30 
-146.30 -344.54 4.19 
-146.51 -344.27 4.21 
-146.36 -343.84 4.14 
-146.42 -343.37 4.12 
-146.36 -343.13 4.09 
-146.65 -351.37 4.41 
-146.77 -351.18 4.42 
-146.88 -345.94 4.42 
-146.93 -344.11 4.29 
-146.72 -343.54 4.20 
-146.82 -343.16 4.19 
-146.91 -338.67 4.21 
-147.07 -351.46 4.49 
-146.90 -351.02 4.43 
-147.00 -345.90 4.44 
-147.28 -345.71 4.49 
-147.31 -343.55 4.33 
-147.15 -343.13 4.26 
-147.29 -342.87 4.27 
-147.73 -348.26 4.39 
-147.66 -346.35 4.62 
-147.51 -345.62 4.53 
-147.53 -343.14 4.34 
-148.13 -329.69 3.86 
-147.68 -351.78 4.63 
-148.37 -330.36 3.78 
-148.35 -329.99 3.79 
-148.43 -343.56 4.57 
-148.75 -338.85 4.33 
-148.81 -348.23 4.59 
-148.64 -347.94 4.54 
-148.99 -335.24 4.21 
-149.50 -339.40 4.53 
-149.50 -339.07 4.51 
-149.35 -335.04 4.17 
-149.55 -339.55 4.55 
-149.99 -334.71 4.29 
-149.77 -334.35 4.22 
-149.81 -334.18 4.23 
-149.78 -333.61 4.32 
-150.11 -338.32 4.60 
-150.29 -338.06 4.63 
-150.25 -337.58 4.60 
-150.70 -334.66 4.57 
-150.51 -334.47 4.52 
-157.93 -349.40 6.41 
-144.48 -351.66 4.46 
-145.17 -351.76 4.60 
-145.24 -340.23 4.17 
-145.30 -351.53 4.60 
-145.64 -346.02 4.52 
-145.57 -344.96 4.39 
-145.48 -344.29 4.31 
-145.70 -343.91 4.32 
-145.81 -343.43 4.30 
-145.87 -336.95 4.12 
-145.95 -336.80 4.14 
-146.06 -331.59 4.05 
-145.91 -344.71 4.45 
-146.05 -344.31 4.44 
-146.19 -343.90 4.44 
-146.19 -343.04 4.36 
-146.03 -336.80 4.16 
-146.29 -344.06 4.47 
-146.26 -343.16 4.38 
-146.60 -342.84 4.44 
-146.64 -337.89 4.38 
-146.72 -337.58 4.39 
-146.69 -336.06 4.30 
-146.69 -344.46 4.60 
-146.83 -343.12 4.52 
-146.90 -342.90 4.51 
-146.98 -339.55 4.58 
-147.05 -338.60 4.24 
-147.04 -337.82 4.49 
-146.97 -337.39 4.44 
-146.89 -337.23 4.41 
-146.97 -336.46 4.40 
-147.18 -343.87 4.66 
-147.06 -343.40 4.59 
-147.35 -339.45 4.67 
-147.34 -339.10 4.34 
-147.31 -338.75 4.51 
-147.60 -339.33 4.42 
-147.57 -339.31 4.41 
-147.58 -338.29 4.56 
-147.60 -336.53 4.57 
-147.99 -330.16 4.20 
-147.97 -330.08 4.19 
-148.35 -330.75 4.16 
-148.25 -330.31 4.13 
-148.56 -329.89 4.15 
-148.59 -338.05 4.58 
-149.01 -338.64 4.72 
-148.97 -338.44 4.70 
-149.08 -337.60 4.68 
-148.83 -337.05 4.59 
-148.77 -336.86 4.57 
-149.09 -335.44 4.52 
-149.28 -339.15 4.82 
-149.26 -338.83 4.79 
-149.22 -338.21 4.75 
-149.42 -337.95 4.78 
-149.29 -337.72 4.74 
-149.81 -337.32 4.85 
-149.68 -334.10 4.59 
-149.73 -333.55 4.68 
-149.80 -333.32 4.69 
-150.06 -337.22 4.90 
-150.28 -334.83 4.78 
-151.39 -335.86 5.17 
-151.33 -335.54 5.14 
-151.46 -334.83 5.14 
-151.34 -333.55 5.07 
-151.48 -337.50 5.27 
-151.71 -336.74 5.29 
-151.51 -336.58 5.23 
-151.99 -337.97 5.00 
-152.19 -337.60 5.03 
-152.28 -337.30 5.03 
-152.53 -337.10 5.08 
-154.18 -335.75 5.38 
-154.68 -336.27 5.52 
-154.66 -336.11 5.50 
-154.60 -335.45 5.46 
-154.89 -336.47 5.57 
-154.75 -335.71 5.51 
-155.03 -329.77 5.36 
-155.37 -330.18 5.45 
-155.47 -329.81 5.46 
-155.69 -330.56 5.53 
-145.18 -329.79 4.23 
-145.23 -340.32 4.44 
-145.64 -331.56 4.40 
-145.84 -331.76 4.35 
-145.84 -331.49 4.47 
-146.02 -331.19 4.34 
-146.06 -337.41 4.47 
-146.24 -332.92 4.64 
-146.24 -332.84 4.64 
-146.26 -332.35 4.30 
-146.18 -331.98 4.59 
-146.51 -339.18 4.72 
-146.27 -338.86 4.91 
-146.75 -334.43 4.55 
-146.99 -334.95 4.65 
-146.92 -334.72 4.62 
-146.83 -334.36 4.57 
-147.12 -333.70 4.62 
-147.28 -329.93 4.54 
-147.08 -339.81 4.93 
-147.18 -339.69 4.95 
-147.30 -338.71 4.92 
-147.23 -337.20 4.81 
-147.50 -336.68 4.86 
-147.18 -334.58 4.69 
-147.36 -334.23 4.72 
-147.25 -333.83 4.66 
-147.33 -333.39 4.67 
-147.45 -339.17 4.99 
-147.89 -336.58 4.97 
-147.54 -335.32 4.84 
-147.57 -335.18 4.84 
-148.20 -338.09 5.14 
-148.13 -331.01 4.81 
-148.28 -330.26 4.46 
-148.78 -335.72 4.84 
-151.46 -330.52 5.03 
-151.88 -331.88 5.16 
-151.65 -331.00 5.39 
-152.02 -330.71 5.17 
-151.76 -330.55 5.10 
-151.92 -330.13 5.13 
-152.14 -331.47 5.21 
-152.20 -330.83 5.21 
-152.07 -330.55 5.18 
-152.67 -331.55 5.34 
-152.43 -331.09 5.27 
-152.89 -336.36 5.56 
-152.92 -336.17 5.56 
-153.14 -333.03 5.50 
-153.34 -333.06 5.55 
-153.66 -334.75 5.68 
-153.67 -334.02 5.66 
-153.84 -333.16 5.67 
-154.13 -333.93 5.77 
-154.10 -333.74 5.75 
-154.30 -334.05 5.81 
-155.29 -330.89 5.83 
-155.21 -330.58 5.80 
-155.76 -331.61 6.10 
-155.71 -331.29 6.01 
-155.60 -331.03 5.91 
-155.71 -330.45 5.92 
-155.71 -330.21 5.91 
-155.92 -329.78 5.95 
-158.27 -348.96 7.08 
-144.77 -330.29 4.40 
-144.72 -329.73 4.38 
-145.12 -330.62 4.52 
-145.06 -330.33 4.50 
-145.25 -340.36 5.00 
-145.39 -330.75 4.62 
-145.27 -329.78 4.57 
-145.83 -330.81 4.77 
-146.09 -338.34 5.10 
-146.20 -335.72 5.14 
-146.31 -333.36 5.02 
-146.05 -333.11 4.92 
-146.13 -332.81 4.93 
-146.32 -332.26 4.64 
-146.23 -332.01 4.61 
-146.15 -330.92 4.88 
-146.57 -338.50 4.98 
-146.30 -337.71 5.13 
-146.44 -335.58 5.21 
-146.37 -334.96 4.80 
-146.67 -333.73 5.16 
-146.58 -333.45 4.86 
-146.40 -333.20 4.71 
-146.58 -332.57 4.74 
-146.48 -332.45 4.87 
-146.47 -331.69 5.01 
-146.84 -333.58 4.87 
-147.13 -330.12 4.85 
-147.00 -329.97 4.81 
-147.72 -337.39 5.28 
-147.79 -335.35 5.28 
-147.67 -335.02 5.22 
-147.95 -334.74 5.29 
-148.36 -333.81 5.37 
-149.47 -334.09 5.33 
-149.55 -336.44 5.46 
-150.77 -336.07 5.80 
-150.64 -335.74 5.78 
-151.00 -332.69 5.72 
-151.03 -332.19 5.71 
-152.91 -336.10 5.98 
-153.17 -336.27 6.06 
-153.11 -333.34 5.88 
-153.57 -335.92 6.15 
-153.63 -335.78 6.16 
-154.42 -336.17 6.39 
-155.33 -330.55 6.37 
-155.75 -331.44 6.52 
-155.75 -331.29 6.51 
-156.12 -330.85 6.16 
-156.11 -330.04 6.14 
-146.68 -333.65 5.16 
-146.68 -332.14 5.09 
-146.90 -333.80 5.25 
-147.07 -335.03 5.38 
-147.54 -338.44 5.61 
-147.45 -335.39 5.54 
-147.66 -333.97 5.52 
-150.34 -335.96 6.06 
-152.11 -332.90 6.06 
-153.24 -336.58 6.60 
-152.95 -335.48 6.42 
-155.77 -331.12 6.51 
-156.47 -331.88 6.73 
-149.35 -332.29 6.05 
-150.00 -335.52 6.43 
-150.32 -335.67 6.56 
-150.48 -330.20 6.36 
-151.30 -330.09 6.18 
-158.32 -354.45 8.96 
-145.33 -352.68 3.75 
-145.41 -340.32 2.89 
-145.34 -352.43 3.74 
-145.49 -352.30 3.76 
-146.20 -353.05 3.90 
-146.43 -352.61 3.91 
-146.22 -352.06 3.86 
-146.37 -351.89 3.87 
-146.69 -351.77 3.91 
-147.23 -348.69 3.85 
-147.47 -349.53 3.92 
-147.42 -348.55 3.87 
-147.88 -349.39 3.98 
-148.09 -348.68 3.97 
-148.56 -330.57 2.83 
-148.30 -348.86 4.01 
-137.05 -350.71 2.57 
-144.57 -347.64 3.75 
-144.53 -347.29 3.73 
-144.52 -347.11 3.71 
-144.75 -348.06 3.81 
-144.93 -347.76 3.64 
-144.91 -347.27 3.60 
-144.67 -346.97 3.73 
-144.83 -346.67 3.73 
-145.20 -347.61 3.67 
-145.07 -347.24 3.81 
-145.38 -346.21 3.79 
-145.33 -340.44 3.28 
-145.35 -340.31 3.28 
-145.83 -347.67 3.59 
-145.55 -347.32 3.90 
-145.62 -346.82 3.88 
-145.64 -346.48 3.86 
-145.54 -346.08 3.81 
-145.88 -348.03 4.00 
-146.13 -347.73 3.83 
-146.02 -347.01 3.58 
-146.06 -346.45 3.56 
-145.86 -346.17 3.87 
-146.52 -347.29 3.67 
-146.35 -346.58 3.98 
-146.40 -346.17 3.96 
-146.49 -344.86 3.89 
-146.52 -344.61 3.88 
-146.80 -346.31 4.04 
-146.90 -344.61 3.77 
-146.78 -343.82 3.87 
-147.07 -347.56 4.17 
-147.08 -346.64 4.11 
-147.18 -345.15 4.03 
-147.23 -344.13 3.79 
-147.47 -343.82 3.81 
-147.45 -345.21 4.08 
-147.64 -344.89 3.72 
-147.66 -344.76 3.90 
-148.02 -344.92 4.15 
-148.05 -344.70 4.14 
-148.56 -330.52 3.19 
-148.52 -330.26 3.17 
-149.47 -334.68 3.61 
-150.07 -334.52 3.87 
-149.98 -334.27 3.84 
-144.14 -346.99 3.98 
-144.15 -346.70 3.96 
-144.47 -351.96 4.03 
-144.55 -347.69 4.12 
-144.42 -347.02 4.04 
-144.58 -346.57 4.03 
-144.62 -352.77 4.11 
-144.71 -352.64 4.12 
-144.85 -352.34 4.12 
-144.70 -351.80 4.06 
-144.94 -348.01 4.21 
-144.79 -346.90 4.09 
-144.84 -346.52 4.07 
-144.95 -351.99 4.11 
-145.07 -351.81 4.12 
-145.22 -347.62 4.23 
-145.19 -347.42 4.21 
-145.27 -347.05 4.19 
-145.10 -346.49 4.11 
-145.16 -346.05 4.09 
-145.20 -345.77 4.07 
-145.26 -340.42 3.67 
-145.28 -340.33 3.66 
-145.43 -352.00 4.19 
-145.43 -347.55 4.26 
-145.73 -346.42 4.22 
-145.54 -345.76 4.14 
-145.78 -352.16 4.26 
-145.82 -351.73 4.24 
-145.90 -351.37 4.22 
-145.87 -346.89 4.29 
-146.07 -346.02 4.25 
-145.81 -345.80 4.19 
-146.10 -344.95 4.17 
-146.12 -344.58 4.15 
-146.22 -344.15 4.13 
-146.15 -343.80 4.09 
-146.22 -343.51 4.08 
-146.46 -351.60 4.33 
-146.27 -351.30 4.28 
-146.41 -351.07 4.29 
-146.31 -345.89 4.29 
-146.37 -344.59 4.20 
-146.29 -344.22 4.15 
-146.26 -343.83 4.11 
-146.51 -343.47 4.13 
-146.58 -350.96 4.31 
-146.79 -347.99 4.55 
-146.91 -346.12 4.42 
-146.80 -344.60 4.28 
-146.77 -343.46 4.18 
-147.13 -351.29 4.42 
-147.19 -348.77 4.27 
-147.30 -347.03 4.56 
-147.12 -346.32 4.47 
-147.18 -345.69 4.44 
-147.37 -343.60 4.31 
-147.33 -343.40 4.28 
-147.39 -347.57 4.63 
-147.52 -346.43 4.56 
-147.42 -344.77 4.41 
-147.65 -343.34 4.34 
-148.44 -330.30 3.56 
-148.40 -329.83 3.68 
-148.66 -330.06 3.54 
-148.73 -348.47 4.50 
-149.21 -335.02 4.09 
-149.28 -334.91 4.10 
-149.32 -334.82 4.10 
-149.80 -333.94 4.15 
-150.22 -334.59 4.26 
-144.25 -352.74 4.50 
-144.32 -347.58 4.42 
-144.57 -351.81 4.48 
-144.57 -351.29 4.43 
-144.85 -351.90 4.53 
-145.24 -340.39 4.07 
-145.29 -340.34 3.93 
-145.27 -352.06 4.62 
-145.35 -351.60 4.60 
-145.68 -347.19 4.65 
-145.54 -345.14 4.42 
-145.68 -345.00 4.44 
-145.52 -344.49 4.35 
-145.88 -349.76 4.53 
-145.83 -346.88 4.65 
-145.94 -345.30 4.52 
-145.95 -344.99 4.49 
-146.08 -344.50 4.47 
-146.01 -344.14 4.42 
-145.86 -343.56 4.34 
-146.07 -343.31 4.36 
-146.50 -344.12 4.52 
-146.31 -343.24 4.40 
-146.48 -343.12 4.43 
-146.47 -337.50 4.26 
-146.73 -344.70 4.62 
-146.61 -343.98 4.53 
-146.75 -343.95 4.56 
-146.96 -343.23 4.54 
-146.85 -337.99 4.39 
-146.82 -336.79 4.30 
-146.84 -336.67 4.30 
-147.00 -345.45 4.75 
-147.13 -343.40 4.59 
-147.38 -342.87 4.59 
-147.29 -349.07 4.73 
-147.35 -348.22 4.67 
-147.50 -343.34 4.66 
-148.10 -347.57 4.76 
-147.98 -343.62 4.78 
-147.80 -343.28 4.72 
-148.37 -330.53 3.96 
-148.29 -330.32 3.85 
-148.18 -329.93 3.98 
-148.70 -338.53 4.54 
-148.71 -338.34 4.53 
-148.72 -330.02 3.93 
-148.93 -339.37 4.65 
-149.01 -338.96 4.63 
-149.07 -338.08 4.59 
-149.18 -339.45 4.71 
-149.34 -339.03 4.71 
-149.36 -338.62 4.69 
-149.14 -338.21 4.61 
-149.69 -339.60 4.83 
-149.77 -333.60 4.48 
-150.17 -337.85 4.81 
-150.73 -334.88 4.75 
-150.52 -334.74 4.70 
-151.73 -337.74 5.14 
-158.12 -350.21 6.84 
-158.27 -348.71 6.76 
-158.36 -349.90 6.87 
-158.33 -349.65 6.84 
-158.32 -348.76 6.77 
-145.22 -340.49 4.48 
-146.30 -339.58 4.67 
-146.28 -339.49 4.66 
-146.57 -338.01 4.61 
-146.34 -337.15 4.48 
-146.55 -337.00 4.53 
-146.83 -339.22 4.48 
-146.90 -339.06 4.48 
-147.08 -337.91 4.74 
-146.99 -337.43 4.68 
-147.13 -339.58 4.58 
-147.21 -339.51 4.59 
-147.28 -338.93 4.56 
-147.35 -338.58 4.55 
-147.37 -338.17 4.53 
-147.42 -336.82 4.75 
-147.35 -335.37 4.64 
-147.56 -338.16 4.57 
-147.62 -336.94 4.50 
-147.83 -336.49 4.84 
-147.80 -330.19 4.45 
-148.12 -339.69 4.83 
-148.21 -338.52 4.76 
-148.13 -337.93 4.69 
-148.36 -330.95 4.26 
-148.33 -330.60 4.42 
-148.23 -330.33 4.38 
-148.26 -339.53 4.85 
-148.31 -337.86 4.73 
-148.57 -337.51 4.77 
-148.66 -336.55 4.73 
-148.66 -336.16 4.71 
-148.70 -335.93 4.70 
-148.54 -330.01 4.26 
-148.76 -338.13 4.86 
-148.93 -337.79 4.88 
-148.78 -335.73 4.71 
-148.84 -335.58 4.72 
-149.22 -337.49 4.93 
-149.65 -334.23 4.77 
-149.70 -333.79 4.83 
-149.83 -333.51 4.85 
-150.02 -337.26 5.11 
-150.54 -334.99 5.10 
-151.30 -337.47 5.43 
-151.30 -333.74 5.22 
-151.24 -332.61 5.15 
-152.10 -337.23 5.19 
-152.38 -329.84 4.88 
-152.55 -337.51 5.31 
-152.53 -337.14 5.28 
-153.25 -336.96 5.43 
-153.98 -336.01 5.53 
-154.25 -335.48 5.56 
-154.21 -333.86 5.46 
-154.60 -336.24 5.68 
-154.44 -335.63 5.61 
-154.71 -336.44 5.71 
-154.91 -330.00 5.43 
-155.31 -330.51 5.54 
-145.21 -330.25 4.49 
-145.21 -340.57 5.05 
-145.71 -338.31 4.96 
-145.71 -338.13 4.94 
-145.83 -331.98 4.52 
-145.84 -331.76 4.51 
-146.18 -339.10 4.89 
-146.20 -333.11 4.82 
-146.22 -333.05 4.82 
-146.26 -332.39 4.46 
-146.12 -332.17 4.73 
-146.39 -339.06 4.94 
-146.45 -338.39 4.90 
-146.64 -339.46 5.05 
-146.77 -339.08 5.05 
-146.77 -337.76 4.94 
-146.96 -334.56 4.82 
-147.05 -334.15 4.82 
-146.82 -333.38 4.71 
-146.98 -339.88 5.19 
-147.51 -334.41 4.97 
-147.25 -334.07 4.87 
-147.64 -339.62 5.03 
-147.60 -338.94 5.28 
-147.55 -334.61 5.00 
-148.23 -335.16 5.19 
-148.12 -334.42 5.13 
-148.40 -336.23 4.98 
-148.44 -330.44 5.00 
-149.38 -336.65 5.26 
-149.58 -334.15 5.15 
-149.64 -333.92 5.15 
-150.83 -335.66 5.59 
-151.58 -330.71 5.16 
-151.71 -335.47 5.82 
-151.81 -333.10 5.31 
-151.91 -332.10 5.29 
-151.98 -331.07 5.27 
-151.98 -330.64 5.26 
-151.97 -330.32 5.24 
-152.19 -331.04 5.32 
-152.04 -330.61 5.27 
-152.03 -330.34 5.26 
-152.29 -329.90 5.31 
-152.21 -338.08 5.70 
-152.45 -337.73 5.73 
-152.29 -334.77 5.51 
-152.50 -331.33 5.41 
-152.44 -331.23 5.39 
-152.81 -336.75 5.75 
-152.92 -334.22 5.64 
-153.09 -333.15 5.62 
-153.10 -332.10 5.58 
-153.09 -331.99 5.58 
-153.22 -336.51 5.84 
-153.10 -335.33 5.74 
-153.35 -335.20 5.79 
-153.21 -334.58 5.72 
-153.21 -334.39 5.71 
-153.44 -333.75 5.74 
-153.17 -332.76 5.63 
-153.60 -334.14 5.80 
-153.63 -333.95 5.80 
-153.50 -333.64 5.75 
-154.21 -333.94 5.94 
-154.97 -330.68 5.86 
-155.36 -331.03 5.97 
-155.80 -331.92 6.23 
-155.59 -331.39 6.04 
-155.72 -331.08 6.12 
-155.75 -330.77 6.11 
-155.64 -330.47 6.01 
-155.62 -330.06 6.11 
-155.98 -330.24 6.20 
-145.06 -330.76 4.63 
-145.03 -330.54 4.61 
-145.12 -329.95 4.62 
-145.22 -340.49 5.33 
-145.20 -336.10 4.88 
-145.31 -330.95 4.72 
-145.24 -330.06 4.67 
-145.91 -331.01 4.93 
-146.17 -337.17 5.29 
-146.25 -333.54 5.20 
-146.08 -333.27 5.01 
-146.12 -332.98 5.11 
-146.32 -332.47 4.81 
-146.31 -332.29 4.80 
-146.14 -331.17 5.01 
-146.15 -331.05 5.01 
-146.14 -330.09 4.97 
-146.39 -338.88 5.22 
-146.52 -333.65 5.04 
-146.45 -333.37 5.00 
-146.57 -332.80 5.03 
-146.44 -332.62 4.95 
-146.45 -331.99 5.16 
-146.42 -331.89 5.15 
-146.94 -338.68 5.38 
-146.81 -333.80 5.06 
-147.05 -330.14 4.93 
-147.26 -337.40 5.37 
-147.77 -337.17 5.51 
-147.67 -333.60 5.32 
-148.06 -334.79 5.54 
-147.99 -334.68 5.51 
-148.29 -330.16 5.33 
-148.48 -334.08 5.41 
-148.83 -337.39 5.51 
-149.72 -334.46 5.60 
-150.38 -336.04 5.88 
-150.69 -333.27 5.82 
-151.01 -336.85 6.11 
-151.60 -330.98 5.95 
-153.69 -334.88 6.30 
-153.85 -335.35 6.38 
-153.90 -335.14 6.38 
-155.74 -331.68 6.65 
-155.76 -331.43 6.64 
-155.51 -330.90 6.54 
-156.46 -330.46 6.33 
-146.58 -333.96 5.34 
-146.68 -332.36 5.26 
-146.67 -333.87 5.37 
-146.82 -332.64 5.33 
-147.09 -334.96 5.60 
-147.67 -338.08 5.88 
-147.57 -336.69 5.73 
-148.56 -334.64 6.08 
-148.98 -333.26 6.05 
-151.10 -330.35 6.23 
-152.13 -334.68 6.34 
-153.57 -334.98 6.78 
-156.48 -332.12 6.87 
-156.59 -330.97 6.84 
-157.37 -331.79 7.09 
-157.26 -354.54 8.44 
-157.34 -354.37 8.44 
-158.48 -350.23 8.25 
-148.74 -334.99 6.17 
-149.63 -331.09 6.21 
-144.59 -353.43 4.25 
-144.54 -353.07 4.22 
-144.53 -352.42 4.17 
-144.72 -352.18 4.19 
-144.82 -353.29 4.28 
-144.95 -352.60 4.25 
-145.07 -352.22 4.24 
-145.29 -340.84 3.24 
-145.34 -340.72 3.24 
-145.40 -352.47 4.31 
-145.71 -352.58 4.37 
-145.77 -352.26 4.36 
-145.84 -351.82 4.34 
-145.91 -348.43 4.13 
-145.99 -353.24 4.46 
-146.21 -352.72 4.46 
-146.29 -351.97 4.43 
-146.12 -351.86 4.39 
-146.32 -351.52 4.40 
-146.43 -349.51 4.29 
-146.27 -348.51 4.19 
-146.41 -353.59 4.55 
-146.51 -351.44 4.43 
-146.52 -349.45 4.30 
-146.97 -347.57 4.24 
-147.19 -347.09 4.25 
-147.86 -348.38 4.44 
-148.61 -329.96 3.00 
-148.55 -348.33 4.54 
-144.49 -347.73 3.86 
-144.33 -347.48 4.01 
-144.58 -348.13 4.10 
-144.60 -347.53 4.25 
-144.55 -347.40 4.04 
-144.71 -346.98 4.03 
-145.15 -348.18 4.40 
-144.90 -347.80 4.13 
-145.09 -347.16 4.30 
-145.03 -346.98 4.28 
-145.19 -346.57 4.08 
-145.25 -340.84 3.66 
-145.29 -340.74 3.52 
-145.62 -347.90 4.05 
-145.61 -347.26 4.01 
-145.58 -346.92 3.98 
-145.55 -346.60 4.14 
-145.50 -346.26 4.30 
-145.81 -347.30 4.44 
-145.81 -346.59 3.99 
-145.76 -346.20 4.34 
-145.96 -345.38 4.30 
-145.99 -344.88 4.27 
-145.98 -344.32 4.22 
-146.31 -346.62 4.27 
-146.19 -346.25 4.42 
-146.45 -345.24 4.00 
-146.40 -344.95 4.16 
-146.13 -344.73 4.28 
-146.18 -344.21 4.25 
-146.32 -343.84 4.24 
-146.72 -346.80 4.15 
-146.74 -344.95 4.22 
-146.70 -344.51 4.18 
-146.71 -344.22 4.16 
-146.68 -343.87 4.31 
-146.89 -346.55 4.57 
-147.11 -345.56 4.13 
-147.01 -345.09 4.08 
-147.33 -344.13 4.07 
-147.18 -343.79 4.39 
-147.45 -345.25 4.16 
-147.41 -344.28 4.28 
-147.46 -343.81 4.44 
-147.68 -345.52 4.62 
-147.97 -345.05 4.23 
-147.94 -344.75 4.21 
-148.45 -330.50 3.41 
-148.41 -330.23 3.35 
-148.62 -329.96 3.37 
-149.29 -335.30 4.09 
-149.39 -335.15 3.92 
-150.00 -334.93 3.83 
-149.82 -334.56 3.95 
-149.82 -334.37 4.11 
-150.10 -334.96 4.21 
-144.39 -352.30 4.62 
-144.56 -352.24 4.64 
-144.52 -351.72 4.59 
-145.21 -340.84 4.08 
-145.23 -352.40 4.77 
-145.27 -352.02 4.75 
-145.53 -346.66 4.72 
-145.47 -345.60 4.60 
-145.39 -344.90 4.51 
-145.62 -344.57 4.53 
-145.76 -350.12 4.67 
-145.96 -345.94 4.73 
-145.86 -345.36 4.65 
-145.73 -344.04 4.49 
-145.96 -343.77 4.51 
-146.24 -347.40 4.52 
-146.33 -345.06 4.71 
-146.28 -344.56 4.65 
-146.37 -343.71 4.59 
-146.43 -343.49 4.58 
-146.62 -345.20 4.78 
-146.54 -344.40 4.69 
-146.58 -344.30 4.69 
-146.65 -343.73 4.64 
-146.96 -346.76 4.60 
-146.89 -345.92 4.91 
-147.02 -343.76 4.72 
-147.39 -343.70 4.79 
-147.35 -343.39 4.75 
-147.91 -344.08 4.92 
-148.35 -330.75 3.91 
-148.33 -330.26 3.70 
-148.06 -348.28 4.92 
-148.09 -347.96 4.89 
-148.55 -330.03 3.73 
-148.60 -329.92 3.73 
-148.84 -339.88 4.72 
-148.88 -339.49 4.69 
-148.97 -335.70 4.40 
-149.09 -339.73 4.76 
-149.36 -339.04 4.75 
-149.25 -338.58 4.69 
-149.50 -339.55 4.82 
-149.75 -334.20 4.44 
-149.76 -339.99 4.91 
-150.13 -338.71 4.88 
-150.20 -338.27 4.86 
-150.43 -335.09 4.65 
-151.52 -338.21 5.12 
-158.01 -350.74 6.87 
-158.23 -350.61 6.90 
-158.28 -350.30 6.89 
-158.47 -349.97 6.89 
-158.40 -349.57 6.85 
-145.18 -340.86 4.51 
-146.02 -338.18 4.57 
-146.38 -337.99 4.35 
-146.35 -337.58 4.59 
-146.39 -337.38 4.58 
-146.84 -339.74 4.62 
-146.75 -338.46 4.47 
-146.69 -336.91 4.61 
-146.69 -336.71 4.59 
-146.93 -335.00 4.51 
-147.13 -340.07 4.72 
-147.23 -339.55 4.69 
-147.23 -339.35 4.67 
-147.26 -338.98 4.64 
-147.18 -338.47 4.57 
-147.66 -339.84 4.81 
-147.38 -339.22 4.69 
-147.52 -338.51 4.65 
-148.00 -330.29 4.14 
-148.07 -338.34 4.76 
-148.32 -331.11 4.26 
-148.29 -330.49 4.14 
-148.23 -330.24 4.03 
-148.34 -338.31 4.82 
-148.61 -336.82 4.75 
-148.62 -336.71 4.74 
-148.49 -330.00 4.08 
-148.69 -329.88 4.11 
-148.86 -339.52 5.05 
-148.62 -338.13 4.87 
-148.69 -337.43 4.82 
-148.65 -336.58 4.74 
-148.76 -336.03 4.71 
-149.03 -339.38 5.07 
-149.15 -338.43 5.01 
-149.24 -337.92 4.99 
-149.56 -337.45 5.02 
-149.67 -334.11 4.77 
-149.92 -337.83 5.13 
-150.59 -335.35 5.07 
-151.32 -337.55 5.42 
-151.26 -336.07 5.28 
-151.31 -336.00 5.29 
-151.44 -337.69 5.46 
-151.49 -336.84 5.40 
-151.41 -336.62 5.36 
-151.92 -338.62 5.23 
-151.95 -338.43 5.22 
-152.23 -338.17 5.26 
-152.42 -337.83 5.27 
-153.45 -337.54 5.45 
-154.06 -336.53 5.50 
-154.15 -336.42 5.50 
-154.95 -336.42 5.67 
-155.73 -331.56 5.46 
-156.12 -330.75 5.48 
-157.63 -350.49 7.45 
-157.43 -349.65 7.33 
-157.96 -350.44 7.51 
-157.91 -349.49 7.41 
-157.91 -349.04 7.37 
-145.12 -340.98 4.96 
-145.44 -338.72 4.76 
-146.28 -339.99 4.83 
-146.21 -339.66 5.00 
-146.38 -339.30 4.93 
-146.43 -339.04 4.76 
-146.51 -338.56 4.73 
-146.57 -333.77 4.61 
-146.76 -339.41 4.88 
-146.75 -338.32 4.76 
-146.74 -338.13 4.74 
-146.91 -337.91 4.76 
-146.80 -336.99 4.65 
-147.03 -335.22 4.55 
-146.92 -334.00 4.73 
-147.17 -339.83 5.03 
-147.30 -339.08 4.98 
-147.00 -338.38 4.83 
-146.98 -337.84 4.77 
-147.16 -337.32 5.08 
-147.06 -335.21 4.56 
-147.15 -334.83 4.55 
-147.27 -334.45 4.55 
-147.53 -339.88 5.12 
-147.56 -339.32 5.07 
-147.65 -338.21 4.98 
-147.41 -337.30 4.83 
-147.76 -336.81 4.87 
-147.44 -336.30 4.75 
-147.67 -335.69 4.75 
-147.65 -335.46 4.88 
-147.61 -334.35 4.63 
-147.68 -330.10 4.61 
-147.83 -340.22 5.23 
-148.01 -336.56 5.07 
-148.16 -336.11 4.91 
-148.01 -335.63 4.83 
-147.82 -335.22 5.07 
-147.98 -334.71 4.75 
-148.22 -330.89 4.63 
-148.31 -330.72 4.46 
-148.15 -330.25 4.57 
-148.25 -336.60 4.98 
-148.28 -336.27 4.95 
-148.50 -329.90 4.45 
-149.91 -333.76 5.17 
-150.40 -334.17 5.32 
-150.90 -336.39 5.63 
-151.23 -338.23 5.87 
-151.12 -333.91 5.48 
-151.12 -332.54 5.39 
-151.27 -338.22 5.88 
-151.49 -333.48 5.54 
-152.09 -331.22 5.12 
-152.24 -330.69 5.12 
-152.98 -337.19 5.77 
-153.46 -335.74 5.76 
-153.88 -334.73 5.77 
-153.87 -334.23 5.74 
-154.01 -333.74 5.73 
-154.17 -335.31 5.89 
-154.31 -335.10 5.90 
-154.71 -333.01 5.84 
-154.88 -330.22 5.69 
-155.24 -330.88 5.81 
-155.16 -329.84 5.73 
-155.76 -331.80 5.99 
-155.56 -331.24 5.91 
-155.59 -330.66 5.88 
-155.85 -331.97 6.02 
-156.09 -331.30 6.03 
-156.30 -331.29 6.08 
-156.81 -331.45 6.20 
-145.13 -341.01 5.26 
-145.20 -336.56 4.99 
-145.54 -337.62 5.22 
-145.84 -332.32 4.59 
-145.85 -332.07 4.56 
-145.75 -331.70 4.82 
-145.95 -339.10 5.24 
-145.89 -338.60 5.16 
-145.69 -337.29 5.23 
-146.04 -336.54 5.26 
-146.11 -336.25 4.97 
-146.23 -332.46 4.71 
-145.91 -332.03 4.74 
-145.93 -331.70 4.56 
-146.34 -339.36 5.39 
-146.14 -338.02 5.16 
-146.37 -336.79 5.10 
-146.33 -336.11 5.02 
-146.26 -333.02 4.78 
-146.53 -337.33 5.20 
-147.18 -340.14 5.73 
-147.61 -339.60 5.45 
-147.69 -333.54 5.26 
-148.10 -334.54 5.09 
-148.00 -330.98 5.13 
-148.19 -335.90 5.23 
-148.46 -335.14 5.58 
-148.40 -330.33 5.20 
-149.07 -334.86 5.39 
-149.18 -329.76 5.00 
-150.16 -336.09 5.79 
-150.76 -337.17 6.05 
-151.15 -333.61 5.85 
-151.66 -332.17 5.50 
-151.77 -331.24 5.47 
-151.71 -331.07 5.44 
-151.82 -330.74 5.45 
-151.93 -335.80 5.83 
-152.08 -333.26 5.68 
-152.17 -332.40 5.64 
-151.88 -331.37 5.50 
-151.92 -330.84 5.48 
-152.00 -330.51 5.48 
-152.03 -330.31 5.48 
-152.27 -334.82 5.84 
-152.20 -333.13 5.70 
-152.22 -332.50 5.66 
-152.90 -333.95 5.94 
-152.65 -332.65 5.78 
-153.70 -332.86 6.06 
-153.75 -332.73 6.06 
-154.95 -330.49 6.11 
-154.82 -330.36 6.07 
-155.23 -330.94 6.22 
-155.20 -330.05 6.15 
-155.45 -331.11 6.29 
-155.96 -331.26 6.52 
-155.96 -331.05 6.51 
-155.93 -330.84 6.49 
-157.23 -331.79 6.79 
-144.60 -329.90 4.60 
-145.07 -330.71 4.82 
-144.82 -330.44 4.71 
-145.05 -329.88 4.76 
-145.11 -341.09 5.58 
-145.32 -331.89 5.01 
-145.21 -330.82 4.88 
-145.12 -330.50 4.82 
-145.67 -335.91 5.35 
-145.77 -330.94 5.09 
-145.93 -338.18 5.71 
-145.72 -337.21 5.52 
-145.86 -336.10 5.44 
-146.03 -333.09 5.38 
-146.05 -332.95 5.37 
-146.13 -331.97 4.97 
-145.97 -331.00 5.16 
-146.03 -330.03 5.11 
-146.33 -338.89 5.64 
-146.21 -338.51 5.86 
-146.33 -333.46 5.35 
-146.29 -333.31 5.26 
-146.23 -332.87 5.09 
-146.43 -332.43 5.11 
-146.31 -332.21 5.05 
-146.29 -331.43 4.98 
-146.74 -333.64 5.33 
-146.68 -332.68 5.22 
-146.94 -329.99 5.08 
-148.16 -332.93 5.72 
-148.50 -330.40 5.62 
-148.84 -335.52 5.72 
-149.18 -334.35 5.73 
-149.00 -334.08 5.84 
-149.69 -334.74 5.92 
-149.74 -334.63 5.92 
-150.19 -334.22 6.03 
-151.53 -329.88 6.11 
-152.77 -334.54 6.39 
-152.84 -333.49 6.31 
-153.23 -334.06 6.47 
-153.07 -333.19 6.35 
-153.50 -333.67 6.51 
-156.33 -330.74 6.58 
-158.29 -354.39 8.70 
-146.52 -332.72 5.51 
-146.56 -333.51 5.61 
-146.88 -332.97 5.66 
-146.65 -332.55 5.54 
-146.67 -330.08 5.34 
-149.13 -334.92 6.12 
-149.31 -331.15 5.94 
-149.35 -335.03 6.20 
-150.53 -333.82 6.50 
-150.91 -329.90 6.38 
-152.01 -331.85 6.41 
-144.34 -352.66 4.10 
-144.29 -352.19 4.06 
-144.42 -352.18 4.08 
-144.48 -351.81 4.07 
-144.71 -347.96 3.87 
-144.80 -353.26 4.21 
-144.84 -352.03 4.14 
-144.92 -351.89 4.15 
-145.10 -347.68 3.92 
-145.29 -340.51 3.20 
-145.20 -352.16 4.21 
-145.45 -347.37 3.95 
-145.68 -352.44 4.30 
-145.69 -351.76 4.26 
-145.76 -351.44 4.25 
-145.80 -348.24 4.06 
-146.02 -353.25 4.41 
-146.10 -351.59 4.32 
-146.18 -351.14 4.31 
-146.06 -348.33 4.11 
-146.53 -352.00 4.41 
-146.50 -351.28 4.37 
-146.46 -350.06 4.28 
-146.72 -346.42 4.10 
-146.88 -352.51 4.50 
-146.81 -351.29 4.42 
-147.14 -347.27 4.22 
-147.18 -346.94 4.21 
-147.31 -346.71 4.21 
-147.62 -345.43 4.18 
-148.08 -344.72 4.21 
-148.34 -347.96 4.46 
-148.60 -330.24 3.07 
-148.63 -329.80 2.94 
-148.76 -348.62 4.57 
-148.44 -347.66 4.45 
-143.97 -347.11 4.08 
-144.38 -347.22 4.16 
-144.38 -346.59 4.11 
-144.41 -347.88 4.22 
-144.68 -347.56 4.04 
-144.63 -347.29 4.02 
-144.64 -346.87 3.99 
-144.57 -346.42 4.13 
-145.28 -346.95 3.90 
-145.09 -346.53 4.04 
-145.06 -346.13 4.19 
-145.27 -340.50 3.64 
-145.37 -346.95 3.92 
-145.38 -346.59 4.09 
-145.39 -346.16 4.06 
-145.84 -346.48 4.16 
-145.84 -346.13 4.14 
-145.70 -345.90 4.29 
-145.89 -345.21 4.27 
-145.85 -344.52 4.21 
-145.79 -344.12 4.16 
-145.88 -343.77 4.15 
-146.15 -346.51 4.01 
-146.23 -346.20 4.21 
-146.20 -345.80 4.37 
-146.35 -345.12 4.34 
-146.34 -344.91 3.94 
-146.37 -344.54 4.11 
-146.31 -344.05 4.25 
-146.19 -343.61 4.19 
-146.37 -343.49 4.22 
-146.57 -344.61 3.96 
-146.78 -344.15 4.34 
-146.62 -343.80 3.92 
-146.64 -343.46 4.26 
-147.05 -345.38 4.09 
-147.10 -344.92 4.26 
-147.11 -344.68 4.05 
-147.23 -344.10 4.42 
-147.27 -343.76 4.40 
-147.22 -343.37 4.36 
-147.42 -344.92 4.12 
-147.37 -343.98 4.05 
-147.49 -343.76 4.25 
-147.42 -343.44 4.40 
-148.40 -330.56 3.42 
-148.40 -330.19 3.46 
-148.12 -343.50 4.53 
-148.61 -330.25 3.44 
-148.58 -329.87 3.27 
-149.21 -335.24 4.10 
-149.34 -334.99 3.93 
-149.73 -339.58 4.52 
-149.87 -334.14 3.78 
-150.09 -334.64 4.03 
-144.38 -348.04 4.23 
-145.20 -340.58 4.07 
-145.20 -351.98 4.70 
-145.39 -347.77 4.39 
-145.79 -348.10 4.48 
-145.76 -345.02 4.60 
-146.27 -344.06 4.61 
-146.18 -343.49 4.54 
-146.41 -348.27 4.61 
-146.67 -346.48 4.51 
-146.50 -346.27 4.46 
-146.73 -344.10 4.70 
-146.75 -343.22 4.63 
-146.88 -345.33 4.85 
-146.95 -345.00 4.83 
-147.11 -344.16 4.79 
-147.03 -343.72 4.73 
-147.24 -339.38 4.37 
-147.55 -345.24 4.77 
-147.70 -346.83 4.72 
-148.32 -330.53 3.76 
-148.26 -330.06 3.89 
-148.26 -344.06 5.00 
-148.16 -339.95 4.61 
-148.56 -330.27 3.79 
-148.60 -339.92 4.70 
-148.84 -338.53 4.63 
-148.86 -338.11 4.60 
-148.80 -337.86 4.56 
-148.89 -335.57 4.40 
-148.94 -335.44 4.40 
-149.15 -339.65 4.78 
-149.06 -339.32 4.74 
-149.15 -339.07 4.74 
-149.07 -338.61 4.68 
-148.99 -338.29 4.64 
-149.73 -334.00 4.46 
-149.72 -333.91 4.45 
-150.12 -337.96 4.84 
-150.52 -334.89 4.68 
-157.91 -350.71 6.85 
-157.84 -350.20 6.79 
-158.06 -348.65 6.71 
-158.24 -350.24 6.87 
-158.34 -350.02 6.87 
-158.27 -349.58 6.82 
-145.18 -340.57 4.36 
-146.09 -338.00 4.61 
-146.18 -337.91 4.62 
-146.50 -337.59 4.37 
-146.88 -339.68 4.65 
-146.85 -339.35 4.61 
-146.68 -338.43 4.49 
-146.75 -338.02 4.46 
-146.85 -337.88 4.47 
-146.89 -336.93 4.40 
-146.82 -335.16 4.53 
-146.92 -334.50 4.50 
-146.97 -339.92 4.69 
-147.06 -339.70 4.69 
-147.02 -339.23 4.64 
-147.15 -338.73 4.62 
-147.18 -338.19 4.58 
-147.40 -339.02 4.70 
-147.39 -338.52 4.65 
-147.48 -336.84 4.52 
-147.93 -329.97 4.14 
-148.01 -339.34 4.87 
-148.30 -330.85 4.21 
-148.25 -330.56 4.11 
-148.14 -339.49 4.91 
-148.50 -337.75 4.83 
-148.57 -336.45 4.74 
-148.40 -330.93 4.17 
-148.51 -330.24 4.15 
-148.64 -338.01 4.89 
-148.56 -337.73 4.85 
-148.70 -336.57 4.78 
-148.66 -336.17 4.74 
-148.79 -335.79 4.74 
-149.06 -338.62 5.04 
-149.18 -329.79 4.41 
-149.66 -333.98 4.80 
-149.72 -333.80 4.80 
-149.79 -337.24 5.08 
-149.88 -337.04 5.09 
-150.49 -335.18 5.08 
-150.58 -335.10 5.09 
-151.27 -335.95 5.32 
-151.63 -338.05 5.16 
-151.67 -337.88 5.15 
-151.35 -335.99 5.34 
-151.78 -333.18 5.22 
-152.19 -337.62 5.24 
-152.37 -337.46 5.26 
-152.68 -337.33 5.31 
-153.18 -337.17 5.40 
-154.53 -335.73 5.57 
-154.37 -335.57 5.52 
-154.74 -336.64 5.68 
-154.61 -336.44 5.64 
-154.68 -336.00 5.62 
-155.66 -331.17 5.48 
-155.75 -330.71 5.46 
-155.83 -330.17 5.44 
-155.85 -330.07 5.44 
-158.01 -349.85 7.47 
-157.87 -349.27 7.39 
-145.14 -340.67 4.67 
-145.15 -340.61 4.66 
-145.23 -338.49 4.72 
-145.45 -338.41 4.77 
-145.95 -338.32 4.90 
-146.40 -339.65 4.86 
-146.23 -339.15 5.07 
-146.24 -338.29 4.97 
-146.19 -338.09 4.94 
-146.19 -336.42 4.76 
-146.49 -333.22 4.58 
-146.31 -333.03 4.52 
-146.64 -339.56 4.91 
-146.85 -339.40 4.94 
-146.70 -338.83 4.84 
-146.85 -337.68 4.76 
-146.77 -335.95 4.88 
-146.65 -335.63 4.82 
-146.99 -334.45 4.51 
-147.00 -340.16 5.06 
-146.88 -339.21 4.93 
-147.10 -338.55 4.91 
-147.10 -338.11 4.87 
-147.24 -337.62 4.86 
-147.10 -337.19 4.93 
-147.24 -335.60 4.67 
-147.21 -335.38 4.64 
-147.22 -334.89 4.61 
-147.27 -334.02 4.55 
-147.35 -333.76 4.55 
-147.50 -338.86 5.04 
-147.39 -338.06 4.94 
-147.37 -337.18 4.84 
-147.51 -336.10 4.78 
-147.41 -335.53 4.71 
-147.63 -334.25 4.66 
-147.53 -333.67 4.59 
-148.05 -337.67 5.06 
-147.92 -336.74 4.94 
-147.83 -336.58 4.90 
-148.25 -331.20 4.53 
-148.22 -331.10 4.51 
-148.07 -330.47 4.43 
-148.42 -336.56 5.05 
-148.27 -330.64 4.86 
-148.55 -330.11 4.52 
-149.08 -339.21 5.47 
-149.74 -338.10 5.53 
-149.93 -333.41 5.18 
-150.56 -331.51 5.22 
-150.77 -333.07 5.37 
-150.99 -332.04 5.36 
-150.84 -331.72 5.30 
-151.00 -337.93 5.83 
-151.13 -332.70 5.44 
-151.69 -332.08 5.54 
-151.63 -331.79 5.51 
-151.76 -337.14 5.53 
-152.02 -330.92 5.13 
-152.17 -330.59 5.15 
-152.32 -331.18 5.56 
-152.24 -331.03 5.53 
-152.22 -330.75 5.50 
-153.02 -335.68 5.70 
-153.02 -335.56 5.69 
-153.21 -333.30 5.56 
-153.05 -332.87 5.49 
-153.64 -335.22 5.80 
-153.33 -334.80 5.70 
-153.63 -334.66 5.76 
-153.70 -332.97 5.65 
-153.52 -332.64 5.59 
-153.87 -334.95 5.84 
-153.79 -334.54 5.78 
-153.96 -334.28 5.80 
-153.90 -333.42 5.73 
-154.17 -336.06 5.99 
-154.37 -334.58 5.92 
-154.81 -333.48 5.94 
-155.24 -330.67 5.85 
-155.66 -330.82 5.96 
-155.81 -331.53 6.04 
-156.35 -330.26 6.08 
-156.67 -330.99 6.20 
-157.07 -331.12 6.30 
-157.54 -331.58 6.44 
-157.85 -350.23 7.48 
-158.02 -350.11 7.50 
-144.89 -330.78 4.51 
-144.92 -330.54 4.50 
-145.00 -329.91 4.48 
-145.08 -330.79 4.57 
-145.10 -330.27 4.54 
-145.14 -330.14 4.55 
-145.49 -337.72 5.28 
-145.43 -337.16 4.91 
-145.70 -336.61 4.92 
-145.51 -336.05 4.81 
-145.90 -337.62 5.10 
-145.71 -337.24 5.29 
-145.79 -336.39 4.93 
-145.92 -336.00 5.21 
-146.11 -332.41 4.73 
-145.94 -332.16 4.65 
-145.93 -331.18 4.89 
-146.15 -337.62 5.17 
-146.43 -335.79 5.06 
-146.49 -336.57 5.16 
-147.07 -339.77 5.71 
-147.86 -337.59 5.68 
-147.88 -335.49 5.15 
-148.01 -335.20 5.16 
-148.08 -334.56 5.12 
-147.95 -331.37 5.19 
-148.99 -337.34 5.63 
-149.46 -330.22 5.16 
-150.12 -337.45 5.95 
-151.19 -332.87 5.86 
-151.34 -337.76 5.90 
-151.46 -334.12 6.03 
-151.61 -332.79 5.97 
-151.65 -332.41 5.95 
-151.57 -332.29 5.91 
-151.61 -330.89 5.45 
-151.84 -332.42 5.60 
-151.81 -332.24 5.58 
-151.91 -330.96 5.53 
-151.98 -330.27 5.51 
-152.21 -332.88 5.73 
-152.32 -332.75 5.75 
-153.82 -332.38 6.10 
-155.22 -329.77 6.19 
-155.79 -332.14 6.52 
-155.78 -330.96 6.47 
-155.92 -330.58 6.52 
-156.17 -330.87 6.51 
-156.97 -331.87 6.80 
-156.90 -331.23 6.73 
-158.45 -350.54 8.32 
-144.59 -329.99 4.64 
-144.90 -332.61 4.99 
-144.70 -330.05 4.69 
-144.72 -329.70 4.67 
-145.25 -332.29 5.08 
-145.31 -332.07 5.08 
-145.15 -331.67 4.98 
-145.21 -331.08 4.95 
-145.12 -330.81 4.89 
-145.12 -330.38 4.86 
-145.12 -340.79 5.61 
-145.62 -332.46 5.23 
-145.49 -332.01 5.14 
-145.46 -331.30 5.06 
-145.70 -338.52 5.75 
-145.99 -336.95 5.34 
-145.85 -335.57 5.43 
-145.75 -335.01 5.34 
-146.35 -332.43 5.14 
-146.51 -331.79 5.13 
-146.65 -339.57 5.90 
-146.48 -336.95 5.66 
-146.71 -332.73 5.29 
-147.02 -335.59 5.53 
-146.94 -334.36 5.40 
-147.10 -332.86 5.43 
-148.53 -333.87 5.88 
-149.70 -329.96 5.62 
-149.83 -330.06 5.66 
-150.11 -332.32 5.94 
-150.79 -332.55 6.16 
-150.96 -332.68 6.22 
-151.20 -335.77 6.51 
-151.38 -331.06 6.21 
-151.38 -330.41 6.16 
-151.75 -334.52 6.15 
-152.81 -333.24 6.34 
-153.65 -335.15 6.72 
-157.44 -331.05 6.85 
-145.13 -340.89 5.95 
-146.21 -338.18 5.88 
-146.69 -337.32 5.93 
-146.74 -330.44 5.44 
-146.99 -334.95 5.78 
-147.52 -334.56 5.93 
-147.83 -333.25 5.94 
-148.71 -333.15 6.24 
-148.78 -334.22 6.35 
-149.41 -333.54 6.15 
-149.46 -333.44 6.16 
-149.54 -331.18 6.08 
-150.74 -333.65 6.60 
-152.47 -330.11 6.51 
-144.41 -347.85 3.79 
-144.83 -348.48 3.90 
-144.82 -348.22 3.88 
-144.78 -347.65 3.84 
-144.77 -347.16 3.81 
-144.91 -353.24 4.18 
-144.94 -352.77 4.16 
-144.95 -352.41 4.14 
-144.82 -352.13 4.11 
-144.88 -348.08 3.88 
-145.30 -340.75 3.22 
-145.33 -340.67 3.22 
-145.36 -352.91 4.24 
-145.49 -347.85 3.97 
-145.64 -347.23 3.96 
-145.56 -346.81 3.92 
-145.54 -346.49 3.90 
-145.83 -352.93 4.32 
-145.76 -352.27 4.27 
-145.88 -351.90 4.26 
-145.72 -347.99 4.01 
-145.84 -346.56 3.95 
-146.26 -353.23 4.40 
-146.16 -352.67 4.36 
-146.08 -351.62 4.28 
-146.31 -351.44 4.31 
-146.22 -348.44 4.12 
-146.29 -346.60 4.03 
-146.48 -353.31 4.44 
-146.43 -352.10 4.37 
-146.53 -351.52 4.35 
-146.73 -350.18 4.30 
-146.67 -349.43 4.25 
-146.76 -348.97 4.24 
-146.83 -347.94 4.19 
-146.60 -347.82 4.15 
-146.55 -347.17 4.10 
-146.71 -346.75 4.10 
-147.07 -347.29 4.19 
-147.12 -345.53 4.10 
-147.09 -344.97 4.06 
-147.48 -345.55 4.16 
-147.47 -345.18 4.13 
-147.68 -344.88 4.15 
-147.99 -344.89 4.20 
-148.55 -330.38 3.04 
-148.64 -330.06 3.02 
-148.42 -348.33 4.47 
-144.61 -346.78 4.17 
-145.08 -346.39 4.22 
-145.27 -340.73 3.67 
-145.30 -340.66 3.52 
-145.48 -346.19 4.28 
-145.83 -345.21 4.26 
-145.89 -344.75 4.24 
-146.05 -343.99 4.21 
-146.31 -345.22 4.15 
-146.43 -344.94 4.15 
-146.25 -344.35 4.27 
-146.35 -344.08 4.27 
-146.33 -343.68 4.24 
-146.60 -344.89 3.98 
-146.81 -344.37 3.98 
-146.80 -344.15 4.16 
-146.70 -343.79 4.31 
-147.17 -343.69 4.38 
-147.42 -344.14 4.06 
-147.47 -343.73 4.44 
-148.42 -330.81 3.50 
-148.38 -330.44 3.53 
-148.35 -330.24 3.48 
-148.54 -330.52 3.46 
-148.64 -330.02 3.52 
-149.21 -335.33 4.14 
-149.42 -335.06 3.81 
-149.83 -334.42 4.01 
-149.75 -334.26 4.17 
-150.10 -334.88 4.09 
-150.08 -334.71 3.89 
-136.13 -342.85 2.54 
-144.19 -347.49 4.15 
-144.16 -347.37 4.13 
-144.28 -353.09 4.60 
-144.50 -352.26 4.57 
-144.68 -352.14 4.60 
-144.61 -351.66 4.55 
-144.45 -348.07 4.24 
-144.63 -347.63 4.24 
-144.73 -346.93 4.20 
-144.85 -347.53 4.27 
-145.10 -346.90 4.26 
-145.22 -340.76 4.13 
-145.27 -352.43 4.72 
-145.35 -351.98 4.70 
-145.28 -348.42 4.41 
-145.33 -347.36 4.34 
-145.57 -344.49 4.54 
-145.65 -352.29 4.78 
-145.64 -346.70 4.34 
-145.97 -346.33 4.37 
-145.69 -346.21 4.31 
-145.78 -345.26 4.65 
-146.00 -344.81 4.65 
-145.72 -343.94 4.51 
-146.37 -347.68 4.55 
-146.17 -346.37 4.41 
-146.22 -346.18 4.41 
-146.38 -344.72 4.72 
-146.25 -344.35 4.66 
-146.27 -343.64 4.59 
-146.44 -343.36 4.60 
-146.65 -343.47 4.65 
-147.08 -346.90 4.61 
-147.07 -345.56 4.51 
-147.14 -344.46 4.84 
-146.96 -343.53 4.72 
-147.24 -339.60 4.43 
-147.28 -347.76 4.71 
-147.28 -343.65 4.79 
-147.82 -348.64 4.88 
-147.67 -347.98 4.80 
-147.77 -343.61 4.88 
-148.27 -330.36 3.96 
-148.20 -330.27 3.94 
-148.08 -348.24 4.89 
-148.54 -330.50 3.86 
-148.63 -330.04 4.02 
-148.59 -344.44 4.69 
-148.57 -338.94 4.64 
-148.94 -338.40 4.67 
-148.81 -338.10 4.62 
-148.91 -335.74 4.46 
-149.17 -339.68 4.82 
-149.25 -339.42 4.82 
-149.08 -338.81 4.73 
-148.99 -338.48 4.69 
-149.33 -339.10 4.81 
-149.75 -334.08 4.51 
-150.11 -338.19 4.89 
-150.22 -338.12 4.91 
-150.50 -335.08 4.73 
-150.70 -335.22 4.79 
-158.02 -350.76 6.85 
-158.30 -350.25 6.86 
-158.42 -349.80 6.85 
-158.44 -349.60 6.84 
-136.22 -342.53 3.17 
-145.20 -340.77 4.43 
-145.97 -331.94 4.13 
-146.49 -337.86 4.43 
-146.36 -332.39 4.25 
-146.86 -339.94 4.71 
-146.83 -339.55 4.67 
-146.61 -338.63 4.53 
-146.61 -338.46 4.52 
-146.79 -338.20 4.53 
-146.73 -337.67 4.47 
-146.90 -337.17 4.46 
-146.80 -336.92 4.42 
-146.96 -336.54 4.42 
-147.02 -335.37 4.34 
-146.99 -334.40 4.26 
-146.96 -345.49 4.90 
-147.03 -339.96 4.75 
-146.97 -339.46 4.69 
-147.16 -339.27 4.72 
-147.09 -338.96 4.67 
-147.06 -336.66 4.46 
-147.36 -345.00 4.93 
-147.61 -339.67 4.85 
-147.39 -338.79 4.72 
-147.58 -337.52 4.65 
-147.55 -337.01 4.60 
-147.92 -330.01 4.19 
-148.01 -339.69 4.95 
-148.27 -331.08 4.33 
-148.27 -330.91 4.26 
-148.26 -330.50 4.23 
-148.23 -344.31 5.04 
-148.30 -344.22 5.04 
-148.19 -339.74 4.99 
-148.46 -338.27 4.91 
-148.49 -330.45 4.22 
-148.74 -338.48 5.00 
-148.56 -338.01 4.92 
-148.57 -336.71 4.80 
-148.57 -336.61 4.80 
-148.77 -336.13 4.80 
-149.70 -334.07 4.86 
-149.87 -337.24 5.14 
-149.80 -333.89 4.87 
-150.51 -335.40 5.14 
-150.73 -335.32 5.19 
-151.20 -336.10 5.36 
-151.64 -338.20 5.21 
-151.32 -336.97 5.45 
-151.36 -336.37 5.41 
-151.41 -335.30 5.34 
-151.74 -333.67 5.30 
-151.80 -333.43 5.29 
-152.37 -337.76 5.32 
-152.48 -337.53 5.32 
-152.62 -338.17 5.40 
-153.20 -337.44 5.46 
-154.05 -336.39 5.56 
-154.44 -335.89 5.60 
-154.46 -334.34 5.49 
-154.65 -336.63 5.70 
-154.63 -336.19 5.66 
-155.10 -330.57 5.37 
-155.68 -331.23 5.53 
-155.62 -330.95 5.50 
-155.78 -330.34 5.50 
-155.90 -330.75 5.55 
-157.84 -349.06 7.36 
-135.93 -342.56 3.44 
-145.17 -340.82 4.75 
