# .PCD v0.7 - Point Cloud Data file format
VERSION 0.7
FIELDS x y z
SIZE 4 4 4
TYPE F F F
COUNT 1 1 1
WIDTH 2173
HEIGHT 1
VIEWPOINT 0 0 0 1 0 0 0
POINTS 2173
DATA ascii
-147.16 -236.70 5.08 
-149.99 -234.96 5.51 
-151.41 -236.01 5.93 
-151.86 -240.29 5.69 
-144.80 -240.36 5.00 
-151.71 -237.24 6.13 
-151.89 -238.24 6.27 
-152.12 -239.40 6.44 
-157.92 -246.80 7.52 
-158.49 -246.55 7.63 
-158.34 -246.89 7.62 
-145.72 -237.69 5.57 
-145.92 -237.87 5.64 
-146.60 -238.24 5.83 
-144.42 -239.77 5.59 
-144.59 -239.74 5.62 
-152.80 -230.62 2.66 
-153.14 -230.39 2.72 
-155.04 -230.55 3.04 
-155.37 -230.54 3.10 
-155.68 -230.59 3.15 
-150.72 -236.07 2.29 
-150.87 -236.00 2.32 
-148.85 -239.10 1.96 
-149.10 -238.94 2.01 
-154.33 -230.29 3.32 
-155.30 -230.36 3.49 
-155.53 -230.34 3.53 
-147.45 -235.61 2.38 
-150.63 -236.05 2.95 
-148.65 -239.17 2.66 
-148.83 -239.02 2.69 
-149.06 -239.07 2.73 
-154.99 -230.63 4.08 
-150.53 -236.06 3.61 
-148.54 -238.26 3.33 
-148.41 -238.51 3.32 
-148.77 -238.35 3.38 
-144.29 -241.28 2.69 
-148.30 -239.02 3.32 
-144.28 -241.58 2.70 
-148.54 -239.19 3.37 
-148.27 -239.87 3.35 
-149.24 -239.37 3.51 
-147.69 -243.97 3.42 
-148.67 -243.98 3.60 
-148.84 -243.65 3.62 
-151.14 -243.27 4.02 
-151.47 -243.15 4.08 
-151.70 -243.05 4.12 
-150.94 -244.01 4.02 
-152.12 -243.49 4.21 
-152.29 -243.32 4.24 
-146.38 -234.65 3.40 
-145.92 -235.76 3.38 
-146.13 -235.83 3.43 
-147.34 -235.21 3.61 
-145.14 -236.75 3.31 
-146.33 -235.96 3.47 
-147.07 -235.76 3.60 
-147.55 -235.23 3.65 
-144.82 -237.26 3.28 
-144.99 -237.29 3.31 
-145.33 -236.93 3.35 
-145.88 -236.64 3.44 
-145.07 -237.68 3.36 
-145.77 -237.24 3.46 
-145.62 -237.56 3.45 
-144.40 -238.99 3.32 
-144.57 -238.82 3.34 
-147.93 -237.05 3.85 
-144.77 -238.95 3.39 
-150.36 -236.12 4.25 
-143.84 -239.86 3.28 
-144.32 -239.92 3.37 
-144.96 -239.51 3.46 
-147.87 -238.54 3.93 
-149.50 -237.50 4.17 
-149.69 -237.43 4.21 
-149.85 -237.27 4.23 
-151.30 -237.14 4.50 
-151.43 -237.11 4.52 
-152.10 -237.73 4.69 
-157.47 -248.13 5.41 
-156.63 -249.21 5.29 
-156.94 -249.24 5.35 
-158.16 -251.50 5.68 
-156.91 -254.51 5.57 
-157.39 -254.55 5.66 
-157.59 -254.44 5.69 
-157.95 -254.08 5.74 
-146.62 -234.07 4.01 
-146.81 -234.11 4.05 
-145.20 -235.61 3.88 
-145.77 -235.19 3.95 
-145.98 -235.58 4.02 
-146.31 -235.36 4.07 
-147.88 -234.79 4.32 
-147.87 -235.07 4.35 
-148.28 -234.87 4.41 
-143.52 -240.20 3.24 
-144.06 -240.44 3.36 
-144.14 -240.87 3.40 
-147.60 -239.45 3.94 
-149.13 -239.40 4.23 
-147.88 -240.56 4.07 
-149.48 -239.88 4.33 
-152.56 -238.14 4.81 
-145.79 -241.98 3.78 
-149.91 -239.82 4.40 
-152.37 -239.41 4.85 
-151.54 -240.58 4.77 
-152.13 -240.12 4.85 
-151.15 -240.86 4.71 
-151.39 -240.85 4.76 
-151.83 -240.73 4.83 
-152.01 -240.48 4.85 
-152.78 -240.00 4.97 
-150.23 -241.85 4.60 
-153.84 -240.17 5.19 
-154.01 -239.98 5.21 
-149.54 -242.80 4.53 
-149.75 -242.84 4.57 
-145.06 -236.25 3.91 
-145.45 -235.78 3.94 
-144.95 -236.88 3.95 
-145.55 -236.21 4.00 
-145.71 -236.21 4.03 
-146.05 -235.96 4.07 
-146.56 -235.61 4.14 
-147.85 -235.30 4.36 
-146.80 -235.94 4.22 
-147.76 -235.74 4.38 
-149.78 -234.73 4.70 
-147.76 -235.90 4.40 
-144.07 -238.81 3.96 
-144.87 -238.74 4.10 
-145.02 -238.39 4.10 
-147.86 -237.03 4.52 
-144.29 -239.21 4.04 
-147.83 -237.42 4.55 
-151.34 -235.65 5.09 
-144.77 -239.67 4.17 
-149.31 -237.23 4.82 
-151.35 -235.77 5.11 
-143.77 -240.52 4.06 
-143.96 -240.32 4.08 
-144.77 -239.95 4.19 
-149.94 -237.22 4.95 
-144.19 -240.74 4.16 
-151.06 -237.01 5.16 
-152.29 -236.55 5.37 
-152.45 -236.38 5.39 
-144.67 -240.76 4.25 
-150.30 -237.71 5.06 
-151.44 -237.14 5.24 
-151.63 -237.12 5.28 
-152.12 -237.03 5.37 
-152.19 -236.74 5.36 
-150.04 -238.29 5.06 
-150.59 -237.94 5.14 
-150.05 -239.07 5.13 
-157.92 -247.37 6.45 
-158.22 -247.35 6.51 
-156.90 -248.72 6.34 
-157.98 -248.25 6.52 
-158.25 -249.65 6.66 
-146.25 -235.35 4.69 
-145.67 -236.50 4.71 
-145.95 -236.54 4.77 
-148.77 -234.93 5.16 
-145.48 -237.23 4.76 
-148.54 -235.53 5.17 
-148.69 -235.34 5.18 
-149.19 -235.03 5.25 
-144.64 -240.85 4.25 
-152.36 -239.03 5.60 
-144.53 -238.79 4.76 
-145.30 -238.29 4.84 
-145.39 -238.75 4.91 
-144.97 -240.78 5.07 
-145.21 -240.70 5.10 
-151.56 -237.23 5.99 
-145.18 -240.81 5.11 
-157.23 -247.18 7.30 
-157.59 -246.94 7.35 
-146.07 -236.03 5.39 
-145.57 -242.19 5.34 
-158.37 -246.95 7.52 
-154.02 -230.72 2.88 
-154.25 -230.71 2.92 
-154.60 -230.77 2.98 
-147.48 -235.63 1.76 
-150.55 -236.04 2.29 
-148.69 -239.05 1.97 
-148.94 -239.00 2.01 
-153.30 -230.37 3.14 
-153.60 -230.34 3.20 
-154.03 -230.34 3.28 
-154.42 -230.40 3.35 
-150.39 -236.06 2.94 
-148.50 -238.73 2.67 
-148.36 -239.18 2.66 
-148.80 -239.23 2.74 
-150.29 -236.09 3.61 
-142.52 -240.38 2.40 
-148.23 -237.91 3.31 
-143.80 -240.24 2.62 
-148.67 -238.05 3.40 
-143.28 -240.78 2.55 
-143.59 -240.58 2.60 
-144.02 -240.24 2.66 
-144.46 -240.22 2.74 
-147.52 -238.76 3.22 
-147.97 -238.84 3.31 
-147.83 -239.28 3.30 
-144.95 -241.06 2.86 
-144.29 -241.44 2.76 
-149.22 -239.60 3.57 
-149.50 -239.86 3.64 
-144.82 -242.51 2.91 
-145.29 -242.55 3.00 
-145.52 -242.48 3.03 
-147.36 -242.09 3.35 
-145.82 -243.21 3.12 
-146.06 -242.93 3.15 
-146.50 -243.32 3.25 
-146.79 -243.33 3.30 
-146.85 -243.46 3.32 
-147.30 -243.49 3.40 
-147.99 -243.16 3.51 
-149.31 -242.38 3.72 
-150.22 -242.06 3.87 
-151.17 -241.93 4.04 
-151.57 -241.62 4.10 
-147.12 -243.98 3.40 
-147.83 -243.75 3.51 
-148.96 -243.06 3.69 
-150.32 -242.31 3.90 
-150.67 -242.35 3.97 
-151.29 -242.27 4.08 
-151.46 -242.11 4.10 
-151.11 -242.64 4.06 
-152.76 -243.19 4.40 
-153.28 -243.15 4.49 
-153.48 -242.98 4.52 
-153.70 -242.82 4.56 
-153.07 -243.32 4.46 
-146.57 -234.57 3.47 
-146.93 -234.54 3.54 
-146.29 -235.13 3.46 
-146.81 -234.72 3.53 
-147.09 -234.73 3.58 
-147.32 -234.65 3.62 
-147.67 -234.58 3.68 
-145.68 -235.63 3.38 
-147.58 -235.02 3.69 
-145.49 -236.45 3.41 
-146.01 -236.00 3.47 
-146.20 -235.87 3.50 
-144.75 -237.05 3.32 
-145.05 -237.07 3.37 
-148.41 -235.37 3.88 
-145.36 -237.17 3.43 
-144.24 -238.40 3.32 
-150.12 -236.18 4.26 
-144.47 -238.83 3.39 
-144.67 -238.73 3.42 
-149.17 -237.91 4.20 
-149.90 -237.35 4.30 
-150.87 -237.10 4.47 
-151.33 -236.81 4.54 
-151.20 -237.45 4.56 
-149.51 -238.43 4.30 
-149.73 -238.44 4.34 
-157.00 -248.31 5.43 
-156.75 -248.93 5.41 
-156.29 -249.76 5.36 
-156.76 -250.34 5.48 
-157.81 -254.49 5.87 
-149.12 -233.96 4.55 
-143.27 -239.89 3.25 
-143.57 -239.87 3.30 
-143.46 -240.28 3.31 
-144.12 -240.48 3.45 
-143.92 -240.75 3.43 
-150.71 -238.86 4.56 
-149.23 -240.06 4.36 
-150.62 -239.30 4.57 
-151.00 -238.95 4.62 
-151.24 -239.12 4.68 
-152.28 -238.80 4.86 
-152.67 -238.91 4.94 
-152.97 -238.79 5.00 
-150.52 -240.85 4.66 
-150.64 -241.13 4.70 
-149.45 -242.55 4.58 
-145.20 -236.58 4.04 
-145.38 -236.45 4.06 
-146.95 -235.74 4.29 
-145.05 -236.68 4.02 
-147.58 -235.59 4.40 
-148.15 -235.52 4.50 
-149.53 -234.80 4.71 
-147.93 -236.47 4.55 
-149.23 -235.99 4.76 
-148.21 -236.88 4.64 
-149.95 -236.24 4.92 
-147.72 -237.51 4.60 
-149.41 -236.58 4.85 
-150.90 -236.09 5.10 
-144.59 -239.23 4.18 
-143.68 -240.05 4.09 
-143.97 -239.81 4.12 
-150.05 -237.49 5.06 
-150.39 -237.20 5.10 
-151.34 -236.86 5.26 
-151.50 -236.67 5.27 
-144.03 -240.13 4.16 
-144.21 -240.12 4.19 
-147.64 -238.74 4.70 
-150.68 -237.53 5.19 
-151.19 -237.79 5.31 
-147.81 -235.14 5.05 
-148.87 -234.73 5.22 
-143.35 -240.79 4.10 
-143.48 -240.90 4.14 
-144.44 -240.42 4.26 
-151.32 -239.07 5.46 
-150.78 -235.73 6.42 
-157.36 -248.27 7.48 
-157.89 -246.56 8.47 
-158.11 -246.28 8.49 
-147.28 -235.62 1.48 
-150.36 -236.10 2.02 
-148.50 -239.06 1.69 
-148.80 -239.07 1.75 
-152.40 -230.43 2.75 
-152.59 -230.45 2.78 
-153.11 -230.43 2.88 
-153.60 -230.53 2.97 
-150.19 -236.10 2.67 
-148.26 -238.69 2.39 
-148.27 -238.85 2.40 
-148.68 -239.33 2.48 
-148.89 -239.36 2.52 
-144.81 -237.30 2.44 
-144.98 -237.28 2.46 
-147.79 -237.79 3.00 
-148.38 -238.02 3.11 
-148.57 -237.97 3.15 
-142.65 -240.40 2.20 
-144.20 -239.77 2.44 
-147.15 -238.62 2.92 
-147.60 -238.82 3.01 
-143.10 -240.69 2.29 
-143.43 -240.83 2.36 
-144.44 -240.35 2.51 
-144.88 -240.43 2.60 
-148.33 -239.22 3.16 
-148.52 -239.21 3.20 
-143.77 -240.98 2.42 
-144.71 -240.99 2.59 
-149.18 -239.83 3.35 
-144.00 -241.84 2.51 
-145.44 -242.62 2.80 
-145.25 -242.99 2.78 
-146.05 -242.97 2.93 
-146.42 -243.10 3.00 
-150.37 -241.88 3.66 
-146.70 -243.45 3.06 
-147.18 -243.34 3.15 
-147.40 -243.12 3.18 
-147.90 -243.23 3.27 
-149.54 -242.47 3.53 
-150.02 -242.61 3.63 
-150.80 -242.17 3.75 
-146.96 -243.69 3.12 
-150.29 -242.73 3.68 
-145.74 -234.97 3.13 
-145.96 -234.94 3.17 
-146.26 -234.87 3.22 
-146.63 -234.87 3.29 
-147.69 -234.45 3.46 
-145.66 -235.42 3.15 
-147.32 -234.97 3.42 
-147.55 -234.75 3.45 
-145.02 -236.15 3.09 
-148.00 -235.20 3.57 
-144.64 -236.71 3.06 
-145.24 -236.42 3.15 
-145.61 -236.26 3.20 
-148.14 -235.37 3.61 
-144.45 -236.98 3.04 
-144.85 -236.94 3.11 
-145.46 -236.86 3.22 
-148.77 -237.41 3.87 
-149.07 -238.01 3.96 
-149.31 -238.11 4.02 
-156.99 -248.37 5.19 
-156.79 -248.57 5.16 
-156.65 -249.19 5.16 
-156.58 -250.05 5.19 
-156.34 -250.33 5.16 
-156.39 -250.32 5.17 
-157.80 -251.87 5.50 
-157.33 -252.37 5.44 
-143.03 -239.38 2.96 
-143.21 -239.44 3.00 
-143.42 -239.85 3.06 
-143.64 -239.89 3.11 
-144.31 -239.93 3.23 
-149.18 -238.41 4.01 
-149.48 -238.37 4.07 
-144.09 -240.65 3.24 
-148.86 -239.13 4.00 
-151.94 -239.00 4.58 
-148.94 -242.52 4.26 
-146.05 -235.83 3.92 
-148.24 -234.99 4.26 
-145.89 -236.36 3.94 
-147.00 -235.71 4.09 
-148.02 -236.01 4.31 
-145.75 -237.15 3.99 
-147.86 -236.30 4.30 
-145.80 -237.28 4.01 
-148.42 -237.23 4.50 
-144.82 -239.27 4.02 
-146.12 -238.92 4.23 
-151.39 -237.37 5.09 
-156.46 -247.24 6.02 
-156.25 -247.37 5.99 
-156.57 -247.40 6.05 
-156.44 -249.01 6.14 
-156.35 -249.84 6.18 
-153.18 -239.26 5.57 
-153.54 -239.82 5.70 
-148.92 -237.03 5.28 
-152.09 -236.37 5.85 
-152.27 -236.29 5.88 
-152.54 -236.58 5.97 
-157.50 -247.89 7.29 
-157.77 -247.94 7.35 
-158.07 -248.26 7.44 
-157.48 -248.93 7.38 
-156.71 -249.48 7.27 
-157.03 -249.48 7.34 
-156.80 -249.59 7.30 
-157.10 -249.53 7.36 
-158.03 -249.59 7.55 
-156.74 -250.62 7.38 
-149.43 -238.13 6.26 
-158.31 -246.43 8.29 
-158.06 -246.67 8.26 
-150.33 -236.08 1.69 
-152.50 -230.49 2.46 
-152.77 -230.53 2.51 
-152.96 -230.66 2.55 
-146.94 -235.56 1.77 
-150.14 -236.11 2.35 
-147.47 -239.08 2.68 
-143.27 -240.55 2.00 
-143.62 -240.21 2.04 
-144.09 -240.24 2.13 
-142.92 -240.85 1.95 
-144.39 -241.16 2.22 
-144.62 -241.06 2.26 
-143.91 -241.47 2.15 
-144.52 -242.48 2.30 
-144.86 -242.62 2.37 
-145.61 -243.07 2.52 
-145.82 -243.06 2.56 
-146.07 -243.28 2.61 
-146.45 -243.44 2.68 
-147.30 -243.18 2.82 
-150.64 -242.32 3.39 
-146.82 -243.52 2.75 
-147.07 -243.67 2.80 
-147.56 -243.48 2.88 
-150.44 -242.64 3.37 
-150.92 -242.53 3.45 
-146.08 -234.46 2.87 
-146.36 -234.62 2.93 
-146.64 -234.57 2.98 
-145.38 -235.37 2.80 
-145.95 -235.19 2.89 
-145.35 -235.65 2.82 
-145.86 -235.75 2.91 
-144.80 -236.26 2.76 
-145.16 -236.32 2.83 
-144.56 -236.71 2.75 
-145.19 -236.67 2.86 
-144.98 -237.10 2.85 
-149.56 -237.39 3.70 
-149.73 -237.38 3.73 
-156.82 -247.91 4.76 
-156.86 -247.89 4.77 
-156.68 -248.39 4.76 
-156.49 -248.81 4.74 
-156.23 -249.08 4.70 
-156.35 -250.51 4.79 
-158.42 -252.23 5.24 
-157.04 -254.63 5.09 
-144.10 -238.68 2.80 
-144.31 -238.78 2.84 
-143.00 -239.70 2.68 
-144.74 -239.12 2.94 
-143.40 -239.80 2.75 
-143.16 -240.22 2.74 
-143.82 -240.35 2.86 
-143.58 -240.63 2.84 
-150.25 -239.32 3.95 
-153.21 -240.07 4.56 
-148.25 -234.49 3.91 
-145.50 -237.06 3.64 
-150.80 -235.90 4.53 
-149.76 -236.24 4.36 
-150.62 -236.00 4.50 
-150.50 -236.43 4.52 
-150.22 -237.18 4.53 
-151.18 -236.76 4.68 
-151.51 -236.79 4.74 
-151.83 -236.72 4.80 
-152.25 -236.77 4.89 
-144.40 -239.00 3.63 
-150.46 -237.40 4.59 
-157.18 -247.07 5.78 
-156.53 -247.46 5.68 
-157.39 -247.19 5.83 
-156.95 -247.87 5.79 
-158.11 -247.70 6.00 
-157.12 -248.32 5.85 
-157.34 -248.21 5.88 
-155.74 -249.01 5.63 
-156.32 -248.85 5.73 
-156.62 -248.86 5.79 
-158.00 -248.34 6.02 
-156.10 -249.19 5.71 
-156.72 -248.99 5.81 
-157.26 -249.81 5.97 
-144.15 -240.40 3.71 
-152.64 -239.56 5.15 
-152.85 -239.65 5.20 
-153.15 -240.02 5.29 
-153.50 -239.97 5.35 
-150.57 -236.15 5.20 
-152.34 -236.83 5.62 
-152.65 -237.48 5.75 
-156.58 -247.11 6.66 
-156.87 -247.13 6.72 
-158.28 -246.72 6.88 
-158.29 -246.59 6.87 
-158.07 -246.90 6.86 
-158.11 -247.32 6.90 
-152.52 -239.73 5.98 
-157.74 -246.89 6.88 
-156.38 -248.41 6.66 
-157.82 -248.52 6.95 
-158.08 -248.39 6.99 
-157.00 -249.31 6.86 
-157.36 -249.51 6.95 
-157.71 -249.67 7.03 
-158.10 -249.93 7.13 
-156.66 -250.71 6.99 
-151.56 -236.90 6.25 
-151.36 -237.03 6.23 
-152.22 -240.63 6.89 
-152.70 -240.54 6.97 
-152.49 -240.77 6.97 
-157.28 -247.01 7.75 
-157.53 -246.73 7.76 
-157.84 -246.73 7.83 
-158.44 -246.73 7.95 
-156.91 -248.18 7.80 
-156.25 -248.60 7.72 
-156.67 -248.48 7.79 
-157.25 -248.30 7.88 
-147.01 -235.57 1.00 
-150.07 -236.06 1.53 
-150.23 -236.05 1.56 
-148.65 -239.06 1.26 
-146.86 -235.52 1.65 
-150.09 -236.12 2.22 
-149.79 -236.10 2.86 
-149.96 -236.09 2.89 
-143.64 -240.14 1.95 
-142.91 -240.70 1.85 
-143.15 -240.58 1.89 
-143.98 -240.28 2.02 
-142.67 -240.82 1.82 
-143.36 -240.76 1.93 
-144.20 -242.30 2.14 
-150.47 -242.03 3.22 
-151.00 -242.26 3.32 
-149.59 -242.69 3.09 
-149.80 -242.65 3.13 
-150.07 -242.74 3.18 
-150.34 -242.92 3.23 
-150.89 -243.08 3.34 
-151.14 -243.08 3.38 
-151.60 -242.84 3.45 
-151.39 -243.16 3.43 
-151.88 -243.10 3.52 
-149.69 -236.14 3.53 
-150.95 -236.69 3.80 
-149.37 -237.35 3.55 
-150.05 -237.43 3.68 
-150.52 -237.13 3.75 
-150.28 -237.79 3.75 
-156.02 -248.73 4.49 
-155.83 -249.28 4.48 
-157.01 -250.29 4.73 
-156.96 -251.39 4.76 
-157.83 -252.30 4.96 
-149.05 -238.36 3.56 
-149.70 -238.40 3.68 
-151.36 -237.84 3.95 
-142.89 -239.64 2.57 
-149.27 -238.54 3.61 
-150.40 -238.48 3.81 
-142.97 -240.16 2.62 
-150.23 -239.18 3.83 
-151.83 -238.64 4.08 
-143.48 -240.56 2.73 
-150.01 -239.29 3.79 
-150.96 -239.28 3.97 
-151.16 -239.23 4.00 
-152.34 -238.99 4.20 
-143.21 -241.04 2.72 
-150.73 -239.57 3.94 
-153.12 -240.05 4.41 
-148.73 -233.95 3.86 
-148.06 -234.44 3.79 
-148.24 -234.73 3.84 
-149.21 -234.88 4.03 
-147.15 -235.45 3.71 
-147.69 -235.40 3.80 
-148.52 -235.97 4.00 
-148.75 -236.26 4.07 
-149.57 -236.23 4.22 
-150.39 -236.09 4.36 
-150.55 -235.89 4.37 
-147.56 -236.79 3.90 
-149.86 -237.09 4.35 
-150.31 -237.04 4.43 
-150.90 -236.79 4.52 
-151.72 -236.87 4.68 
-151.90 -236.68 4.69 
-149.28 -237.54 4.28 
-150.12 -237.31 4.41 
-157.13 -247.21 5.62 
-157.98 -248.11 5.83 
-158.46 -248.25 5.93 
-155.34 -249.20 5.40 
-155.61 -249.01 5.44 
-156.47 -248.81 5.59 
-155.96 -249.18 5.52 
-156.30 -249.34 5.59 
-157.13 -249.02 5.73 
-156.99 -249.67 5.74 
-148.91 -234.86 4.64 
-152.39 -239.88 5.00 
-152.62 -239.67 5.02 
-153.26 -240.07 5.18 
-151.37 -240.86 4.90 
-152.23 -240.64 5.04 
-152.96 -240.49 5.16 
-150.81 -241.30 4.84 
-151.76 -241.19 5.00 
-152.01 -241.22 5.05 
-151.03 -241.59 4.91 
-150.54 -236.06 5.08 
-151.49 -236.03 5.26 
-150.26 -236.39 5.06 
-150.90 -236.27 5.16 
-151.15 -236.94 5.28 
-149.88 -237.40 5.11 
-150.09 -237.39 5.14 
-149.54 -239.08 5.23 
-156.73 -246.92 6.51 
-157.27 -246.74 6.60 
-156.50 -247.17 6.49 
-157.73 -246.85 6.60 
-151.55 -239.80 5.68 
-157.36 -248.15 6.74 
-158.47 -248.93 6.98 
-156.91 -250.00 6.81 
-155.90 -250.91 6.69 
-156.18 -250.84 6.74 
-156.47 -250.78 6.79 
-150.20 -237.43 5.95 
-157.25 -252.44 7.08 
-150.22 -235.73 6.47 
-149.92 -235.95 6.45 
-150.56 -235.97 6.57 
-150.86 -235.97 6.63 
-150.45 -236.31 6.61 
-151.04 -241.34 6.63 
-151.72 -240.97 6.71 
-157.58 -246.96 7.61 
-157.83 -246.92 7.66 
-158.43 -248.42 7.94 
-149.51 -238.89 7.68 
-146.93 -235.59 0.80 
-148.40 -238.91 1.03 
-148.19 -239.00 0.99 
-156.75 -235.59 2.98 
-157.12 -235.52 3.05 
-157.37 -235.44 3.09 
-157.86 -235.31 3.17 
-158.20 -235.21 3.23 
-156.97 -235.63 3.02 
-149.88 -236.05 1.99 
-148.02 -238.98 1.72 
-148.24 -239.10 1.76 
-158.01 -252.30 3.50 
-158.23 -251.98 3.53 
-157.99 -252.57 3.50 
-157.77 -253.37 3.47 
-157.56 -254.36 3.46 
-147.69 -238.06 2.38 
-147.89 -238.25 2.43 
-147.44 -238.90 2.38 
-147.48 -238.98 2.39 
-147.66 -239.23 2.43 
-148.46 -239.41 2.57 
-145.45 -243.39 2.22 
-148.95 -243.05 2.81 
-146.69 -243.86 2.45 
-148.17 -243.47 2.69 
-148.43 -243.67 2.74 
-149.17 -243.25 2.85 
-150.67 -243.13 3.11 
-147.04 -243.98 2.52 
-148.22 -243.76 2.71 
-145.93 -234.47 2.59 
-146.96 -235.25 2.81 
-146.36 -235.50 2.72 
-146.75 -235.56 2.80 
-147.14 -235.67 2.87 
-146.54 -235.99 2.79 
-149.56 -236.12 3.32 
-146.05 -237.81 2.82 
-148.39 -237.54 3.21 
-149.00 -237.37 3.30 
-150.47 -237.20 3.55 
-151.19 -237.71 3.72 
-149.26 -238.06 3.39 
-151.65 -238.19 3.83 
-151.80 -238.30 3.86 
-148.46 -239.40 3.34 
-151.33 -239.24 3.84 
-148.66 -239.70 3.40 
-149.58 -239.92 3.57 
-151.59 -239.51 3.90 
-152.10 -239.59 4.00 
-152.37 -239.48 4.04 
-147.77 -240.43 3.29 
-148.00 -240.37 3.32 
-151.01 -240.53 3.87 
-151.22 -240.19 3.88 
-150.46 -240.86 3.79 
-151.78 -240.66 4.01 
-150.13 -241.17 3.75 
-148.97 -241.74 3.58 
-147.29 -242.62 3.35 
-147.56 -242.84 3.41 
-147.95 -243.11 3.49 
-148.29 -243.34 3.57 
-147.93 -234.37 3.58 
-145.89 -235.07 3.29 
-148.05 -234.54 3.61 
-148.22 -234.53 3.64 
-148.77 -234.65 3.75 
-145.67 -235.47 3.29 
-147.25 -235.33 3.54 
-144.66 -236.02 3.17 
-147.44 -235.39 3.58 
-145.33 -236.17 3.29 
-146.03 -236.04 3.40 
-146.87 -235.90 3.53 
-147.04 -235.88 3.56 
-149.03 -235.83 3.90 
-146.41 -236.51 3.51 
-148.45 -236.12 3.82 
-148.63 -236.11 3.86 
-149.45 -236.17 4.01 
-150.44 -235.98 4.17 
-145.16 -236.93 3.33 
-147.64 -236.85 3.75 
-150.08 -236.39 4.14 
-150.28 -236.28 4.16 
-151.32 -236.49 4.37 
-151.29 -236.78 4.39 
-149.95 -237.38 4.20 
-150.92 -237.17 4.36 
-151.17 -237.01 4.39 
-151.80 -236.94 4.50 
-157.40 -247.15 5.46 
-157.72 -247.26 5.53 
-158.37 -247.45 5.66 
-157.23 -247.61 5.46 
-147.72 -234.88 4.25 
-147.14 -235.20 4.19 
-147.44 -235.35 4.25 
-146.07 -239.56 3.72 
-152.08 -239.94 4.75 
-152.32 -239.65 4.77 
-147.88 -240.83 4.14 
-149.50 -240.49 4.40 
-149.96 -240.57 4.49 
-150.42 -241.65 4.61 
-152.18 -241.35 4.89 
-149.65 -237.38 4.88 
-156.83 -246.95 6.23 
-157.35 -247.47 6.37 
-157.62 -247.32 6.41 
-156.62 -248.35 6.32 
-156.58 -248.47 6.32 
-157.85 -247.17 6.54 
-156.32 -248.60 6.28 
-155.47 -249.11 6.17 
-155.81 -249.64 6.28 
-158.06 -249.71 6.70 
-158.34 -249.82 6.77 
-156.19 -250.30 6.41 
-150.01 -237.53 5.74 
-150.01 -235.76 6.25 
-149.59 -236.04 6.22 
-150.42 -235.91 6.35 
-151.35 -240.72 6.41 
-151.11 -240.93 6.40 
-150.66 -241.41 6.38 
-157.41 -247.01 7.37 
-156.90 -247.50 7.33 
-157.16 -247.26 7.35 
-158.24 -247.94 7.70 
-157.98 -248.51 7.64 
-158.27 -248.49 7.70 
-155.34 -249.25 7.23 
-155.60 -249.07 7.26 
-156.11 -248.99 7.34 
-156.52 -249.00 7.42 
-156.94 -248.78 7.54 
-155.91 -249.32 7.34 
-155.12 -250.20 7.29 
-155.40 -250.33 7.36 
-156.94 -250.04 7.62 
-146.72 -235.54 0.46 
-147.83 -239.07 0.63 
-148.13 -238.92 0.68 
-146.52 -235.47 1.10 
-149.69 -236.03 1.67 
-147.78 -238.95 1.38 
-148.06 -239.07 1.43 
-158.46 -252.75 3.29 
-158.22 -253.48 3.26 
-149.59 -236.03 2.34 
-147.52 -237.97 2.06 
-147.55 -238.00 2.06 
-147.74 -238.18 2.10 
-147.05 -238.77 2.01 
-147.27 -238.86 2.05 
-148.27 -239.42 2.25 
-143.15 -240.26 1.40 
-143.42 -240.31 1.45 
-143.63 -240.33 1.48 
-142.48 -240.82 1.31 
-142.82 -240.84 1.37 
-143.24 -241.23 1.45 
-143.74 -241.25 1.54 
-144.22 -241.12 1.62 
-143.88 -241.88 1.59 
-144.15 -242.01 1.64 
-143.94 -242.28 1.62 
-144.29 -242.59 1.69 
-149.35 -242.65 2.56 
-145.01 -243.00 1.83 
-145.33 -243.31 1.89 
-148.86 -243.04 2.49 
-146.59 -243.42 2.12 
-147.87 -243.51 2.34 
-149.01 -243.17 2.53 
-150.12 -243.27 2.73 
-148.11 -243.65 2.39 
-149.64 -244.03 2.67 
-145.62 -234.32 2.24 
-146.76 -234.34 2.43 
-145.98 -234.61 2.31 
-147.62 -235.02 2.62 
-144.82 -235.49 2.17 
-145.12 -235.40 2.22 
-146.30 -235.48 2.43 
-146.69 -235.62 2.50 
-145.09 -235.88 2.25 
-144.33 -236.24 2.14 
-149.48 -236.09 3.02 
-144.18 -236.87 2.16 
-145.77 -236.90 2.43 
-148.17 -237.48 2.88 
-148.81 -237.34 2.98 
-156.18 -251.73 4.15 
-157.02 -252.10 4.31 
-157.05 -253.00 4.35 
-156.23 -254.01 4.25 
-143.54 -238.47 2.15 
-149.12 -238.21 3.09 
-142.48 -239.54 2.05 
-142.85 -239.89 2.13 
-144.85 -239.58 2.44 
-146.90 -239.37 2.78 
-148.28 -239.38 3.02 
-149.82 -239.39 3.29 
-142.56 -240.19 2.10 
-148.47 -239.78 3.07 
-143.01 -240.62 2.20 
-147.59 -240.31 2.95 
-148.51 -239.93 3.09 
-149.39 -239.91 3.24 
-152.68 -240.31 3.86 
-152.69 -240.63 3.88 
-152.92 -240.51 3.92 
-148.71 -241.68 3.24 
-147.76 -242.09 3.10 
-146.98 -243.01 3.02 
-147.91 -234.48 3.30 
-145.25 -235.26 2.92 
-148.64 -234.72 3.45 
-144.76 -235.73 2.88 
-145.41 -235.32 2.95 
-146.18 -235.63 3.11 
-146.69 -235.43 3.17 
-147.11 -235.35 3.24 
-147.39 -235.33 3.28 
-145.87 -235.84 3.07 
-144.71 -236.46 2.93 
-145.08 -236.45 2.99 
-148.32 -236.08 3.51 
-150.27 -235.96 3.85 
-144.85 -236.76 2.98 
-148.15 -236.66 3.53 
-149.99 -236.36 3.83 
-151.01 -236.41 4.02 
-144.85 -236.96 3.00 
-146.28 -237.04 3.25 
-147.53 -236.94 3.45 
-149.61 -236.89 3.81 
-151.51 -236.78 4.15 
-149.20 -237.41 3.78 
-149.82 -237.28 3.88 
-150.89 -236.97 4.05 
-149.43 -237.97 3.87 
-157.37 -247.25 5.17 
-157.01 -247.61 5.12 
-158.40 -247.24 5.36 
-156.89 -248.42 5.15 
-155.20 -248.94 4.87 
-158.13 -248.60 5.40 
-158.48 -248.79 5.47 
-155.31 -249.35 4.92 
-155.60 -249.60 4.99 
-155.94 -249.77 5.06 
-155.70 -249.84 5.02 
-156.30 -250.12 5.15 
-156.62 -250.16 5.21 
-156.06 -250.22 5.11 
-156.40 -250.40 5.19 
-144.03 -239.15 3.05 
-149.01 -238.73 3.87 
-142.97 -239.83 2.94 
-148.83 -239.20 3.88 
-143.17 -240.05 2.99 
-151.69 -239.86 4.38 
-152.06 -239.89 4.45 
-152.87 -239.99 4.60 
-142.57 -240.79 2.96 
-152.16 -240.15 4.49 
-152.54 -240.17 4.56 
-151.43 -240.51 4.40 
-150.18 -241.42 4.26 
-157.04 -250.76 5.33 
-155.11 -252.39 5.07 
-147.27 -235.52 3.96 
-145.99 -236.71 3.88 
-149.11 -236.96 4.45 
-149.29 -236.98 4.48 
-151.56 -237.69 4.96 
-156.82 -246.75 5.92 
-157.12 -246.81 5.98 
-156.48 -247.24 5.93 
-156.77 -247.21 6.05 
-156.00 -247.42 5.92 
-156.18 -248.57 5.96 
-151.30 -240.08 5.18 
-151.25 -240.66 5.25 
-151.74 -240.85 5.36 
-151.53 -240.97 5.34 
-151.07 -241.38 5.28 
-154.95 -249.00 5.85 
-155.60 -248.70 5.95 
-156.45 -248.67 6.01 
-155.02 -249.20 5.80 
-155.27 -249.13 5.84 
-157.46 -249.13 6.24 
-155.93 -249.59 6.00 
-156.09 -249.52 6.02 
-157.80 -249.28 6.32 
-158.13 -249.60 6.41 
-158.40 -249.40 6.44 
-155.66 -250.15 6.00 
-149.42 -236.01 5.91 
-151.16 -240.65 6.07 
-150.95 -240.97 6.08 
-155.59 -247.21 6.75 
-155.84 -247.19 6.79 
-156.17 -247.12 6.85 
-156.71 -247.18 6.95 
-156.98 -246.98 6.98 
-156.46 -247.44 6.93 
-158.29 -247.89 7.33 
-157.45 -248.27 7.21 
-155.13 -248.87 6.85 
-155.54 -248.88 6.92 
-156.68 -248.77 7.19 
-156.93 -248.71 7.23 
-156.39 -249.04 7.16 
-157.86 -249.04 7.38 
-158.16 -249.01 7.43 
-156.13 -249.81 7.14 
-155.20 -250.44 7.03 
-156.71 -248.70 8.19 
-146.44 -235.50 0.14 
-158.20 -235.16 2.68 
-156.66 -235.58 2.42 
-156.98 -235.54 2.47 
-157.39 -235.41 2.54 
-157.80 -235.31 2.61 
-158.08 -235.25 2.66 
-158.33 -235.18 2.70 
-156.25 -235.64 2.35 
-156.47 -235.65 2.38 
-146.25 -235.43 0.80 
-149.42 -236.01 1.36 
-157.19 -252.56 2.79 
-156.94 -252.91 2.75 
-156.93 -253.40 2.76 
-156.69 -253.92 2.73 
-149.31 -236.03 2.03 
-141.45 -240.25 0.87 
-143.01 -240.18 1.13 
-143.37 -240.16 1.19 
-142.57 -240.51 1.07 
-142.01 -240.81 0.99 
-142.29 -240.68 1.03 
-143.70 -240.98 1.27 
-143.41 -241.24 1.24 
-144.71 -242.90 1.52 
-145.04 -243.21 1.59 
-148.68 -243.06 2.21 
-148.94 -242.96 2.25 
-149.82 -243.00 2.40 
-150.19 -242.94 2.46 
-150.60 -243.29 2.55 
-150.95 -243.01 2.60 
-151.23 -243.24 2.66 
-145.37 -243.57 1.66 
-150.70 -243.41 2.57 
-149.43 -243.79 2.36 
-150.45 -243.87 2.55 
-145.33 -234.54 1.96 
-145.67 -234.45 2.01 
-145.95 -234.55 2.06 
-146.55 -234.34 2.15 
-144.91 -234.71 1.90 
-145.12 -234.62 1.93 
-146.32 -234.62 2.13 
-144.58 -235.63 1.90 
-149.12 -236.10 2.70 
-144.00 -236.30 1.85 
-143.70 -236.74 1.83 
-150.25 -236.55 2.92 
-148.57 -237.33 2.68 
-148.75 -237.34 2.71 
-149.92 -237.13 2.90 
-154.97 -249.38 3.57 
-155.89 -251.75 3.82 
-155.88 -254.13 3.92 
-149.59 -237.84 2.89 
-150.48 -237.84 3.05 
-150.67 -237.75 3.07 
-150.89 -238.48 3.16 
-151.10 -238.28 3.18 
-143.74 -238.75 1.96 
-150.24 -238.77 3.06 
-142.11 -239.37 1.74 
-149.80 -239.02 3.00 
-151.36 -239.04 3.28 
-151.58 -239.08 3.32 
-142.37 -239.73 1.80 
-150.48 -239.46 3.15 
-142.50 -240.23 1.85 
-149.34 -240.01 2.99 
-150.07 -239.96 3.11 
-142.71 -240.41 1.90 
-152.34 -240.16 3.52 
-152.02 -240.57 3.49 
-152.60 -240.54 3.60 
-146.07 -234.51 2.75 
-146.39 -234.88 2.83 
-148.35 -234.81 3.16 
-146.53 -235.33 2.90 
-147.70 -235.63 3.12 
-147.89 -235.89 3.17 
-149.81 -235.91 3.51 
-144.93 -236.29 2.72 
-145.43 -236.28 2.80 
-145.88 -236.35 2.88 
-146.66 -236.32 3.00 
-148.06 -236.26 3.23 
-148.92 -236.15 3.37 
-149.90 -236.11 3.54 
-144.46 -236.64 2.67 
-144.61 -236.99 2.73 
-147.65 -236.92 3.22 
-149.28 -236.68 3.48 
-150.31 -236.61 3.65 
-150.51 -236.61 3.69 
-149.06 -237.19 3.49 
-150.14 -236.92 3.65 
-151.14 -236.90 3.83 
-151.36 -236.95 3.87 
-149.48 -237.37 3.58 
-158.32 -247.45 5.08 
-143.89 -238.56 2.75 
-143.61 -238.83 2.73 
-150.79 -239.14 3.90 
-148.55 -239.46 3.60 
-143.13 -240.07 2.76 
-148.30 -240.05 3.61 
-151.70 -239.70 4.11 
-152.17 -240.40 4.25 
-151.21 -240.66 4.11 
-151.41 -240.71 4.15 
-151.90 -240.68 4.23 
-150.28 -241.00 3.98 
-150.68 -241.28 4.07 
-150.89 -241.25 4.10 
-151.68 -241.12 4.23 
-151.13 -241.31 4.15 
-158.32 -253.75 5.34 
-149.43 -236.05 4.15 
-149.72 -236.06 4.20 
-150.99 -235.84 4.40 
-148.77 -236.23 4.06 
-149.18 -236.23 4.13 
-150.00 -236.39 4.28 
-148.96 -236.91 4.17 
-149.33 -236.55 4.19 
-150.16 -237.00 4.38 
-150.44 -236.93 4.43 
-155.99 -247.12 5.51 
-156.25 -246.87 5.54 
-156.61 -247.06 5.62 
-155.49 -248.73 5.56 
-155.78 -248.53 5.60 
-150.27 -235.39 4.91 
-149.28 -235.76 4.79 
-150.48 -235.97 5.03 
-150.63 -239.66 4.75 
-150.38 -239.93 4.74 
-150.82 -240.36 4.86 
-150.97 -240.77 4.95 
-156.71 -249.06 5.81 
-154.65 -249.25 5.46 
-154.93 -249.94 5.57 
-157.13 -249.61 5.94 
-157.43 -249.89 6.02 
-157.72 -249.94 6.07 
-155.13 -250.25 5.63 
-148.88 -236.83 4.86 
-149.04 -237.10 4.93 
-149.85 -235.96 5.72 
-149.70 -240.36 5.53 
-149.48 -240.51 5.51 
-150.15 -240.76 5.66 
-150.40 -240.85 5.71 
-150.65 -240.80 5.74 
-156.42 -247.34 6.63 
-156.18 -247.74 6.63 
-156.74 -247.63 6.72 
-157.80 -247.91 7.03 
-157.39 -248.21 6.91 
-157.96 -248.01 6.99 
-158.26 -248.02 7.05 
-155.34 -249.13 6.63 
-155.65 -249.06 6.68 
-157.15 -248.86 6.93 
-157.77 -249.09 7.07 
-154.90 -249.33 6.57 
-156.96 -249.68 6.99 
-154.47 -250.40 6.62 
-156.03 -250.07 6.86 
-149.76 -236.35 5.77 
-149.38 -235.96 0.46 
-151.59 -238.64 0.83 
-156.94 -235.68 2.29 
-157.35 -235.61 2.36 
-157.83 -235.55 2.45 
-158.17 -235.45 2.51 
-157.06 -235.75 2.32 
-145.94 -235.26 0.55 
-145.89 -235.80 0.55 
-149.20 -235.99 1.13 
-149.23 -235.99 1.14 
-147.07 -238.91 0.81 
-147.37 -238.92 0.86 
-157.29 -251.43 2.60 
-156.42 -253.34 2.48 
-156.39 -253.93 2.49 
-149.09 -236.02 1.81 
-147.03 -237.90 1.53 
-147.23 -238.08 1.57 
-146.44 -238.70 1.46 
-146.71 -238.80 1.51 
-147.77 -239.41 1.71 
-141.75 -240.69 0.74 
-141.96 -240.78 0.78 
-149.22 -242.78 2.10 
-146.93 -243.22 1.72 
-148.35 -243.07 1.96 
-149.60 -243.07 2.18 
-144.74 -243.25 1.35 
-147.16 -243.44 1.77 
-147.66 -243.48 1.86 
-150.48 -243.40 2.34 
-149.98 -243.82 2.27 
-150.22 -243.98 2.32 
-145.66 -234.54 1.83 
-146.00 -234.82 1.91 
-146.26 -234.46 1.93 
-147.14 -235.05 2.11 
-148.97 -236.09 2.49 
-149.79 -236.95 2.69 
-148.39 -237.32 2.47 
-156.40 -252.06 3.74 
-156.36 -254.32 3.82 
-147.62 -237.40 2.34 
-147.12 -237.98 2.29 
-150.40 -237.76 2.84 
-145.90 -238.09 2.09 
-146.26 -238.19 2.16 
-148.62 -238.28 2.57 
-150.81 -238.18 2.94 
-151.03 -238.30 2.99 
-149.24 -239.24 2.73 
-146.34 -239.25 2.24 
-147.88 -239.34 2.51 
-149.45 -239.65 2.80 
-150.17 -239.35 2.90 
-150.61 -239.34 2.98 
-141.86 -239.70 1.53 
-148.98 -239.94 2.73 
-149.93 -239.98 2.90 
-141.83 -239.99 1.54 
-147.09 -240.32 2.43 
-149.65 -240.38 2.88 
-149.88 -240.43 2.92 
-150.12 -240.21 2.95 
-145.72 -241.72 2.29 
-146.33 -243.04 2.48 
-147.26 -243.56 2.66 
-147.18 -234.17 2.73 
-147.25 -234.48 2.76 
-147.42 -234.64 2.80 
-147.97 -234.74 2.91 
-148.17 -234.73 2.94 
-144.86 -235.13 2.43 
-145.98 -235.01 2.60 
-146.78 -235.13 2.74 
-146.21 -235.36 2.67 
-149.47 -236.03 3.28 
-149.70 -235.94 3.31 
-146.36 -236.18 2.76 
-148.65 -236.14 3.14 
-147.40 -236.60 2.97 
-149.03 -236.62 3.25 
-150.27 -236.74 3.48 
-146.60 -236.94 2.87 
-149.85 -236.99 3.43 
-148.78 -237.46 3.28 
-149.21 -237.26 3.34 
-156.48 -247.27 4.54 
-156.79 -247.30 4.60 
-157.02 -247.26 4.64 
-157.65 -247.32 4.76 
-157.90 -247.35 4.81 
-156.81 -247.69 4.63 
-158.31 -248.02 4.93 
-157.66 -249.42 4.89 
-155.74 -250.39 4.60 
-155.99 -250.43 4.65 
-156.33 -250.76 4.73 
-156.62 -250.64 4.78 
-148.06 -234.71 3.59 
-147.76 -234.84 3.55 
-150.43 -239.11 3.66 
-148.21 -239.30 3.34 
-151.33 -239.64 3.85 
-142.31 -239.79 2.42 
-151.11 -239.92 3.84 
-142.30 -240.02 2.44 
-151.75 -240.40 3.99 
-141.82 -240.44 2.40 
-150.04 -240.83 3.74 
-150.56 -240.66 3.81 
-151.01 -240.61 3.88 
-151.49 -240.72 3.97 
-151.98 -240.51 4.04 
-149.78 -240.90 3.70 
-149.98 -241.02 3.74 
-150.23 -241.34 3.81 
-150.70 -241.31 3.89 
-150.74 -241.32 3.90 
-158.03 -253.76 5.09 
-148.19 -235.58 3.71 
-149.37 -236.02 3.96 
-150.78 -235.84 4.19 
-148.54 -236.22 3.84 
-148.95 -236.18 3.90 
-149.66 -236.23 4.03 
-148.29 -236.82 3.86 
-148.70 -236.83 3.93 
-149.12 -236.82 4.00 
-149.81 -237.08 4.15 
-150.14 -238.27 4.34 
-147.66 -243.25 3.59 
-155.61 -247.14 5.25 
-155.81 -247.08 5.33 
-156.24 -247.12 5.37 
-155.47 -247.33 5.34 
-156.21 -247.59 5.40 
-155.11 -248.76 5.31 
-155.36 -248.63 5.34 
-149.27 -235.57 4.58 
-150.07 -235.54 4.72 
-149.06 -235.71 4.57 
-150.26 -236.01 4.82 
-150.23 -239.91 4.53 
-149.94 -240.17 4.51 
-150.43 -240.13 4.59 
-150.71 -240.80 4.72 
-151.05 -240.81 4.78 
-150.52 -241.79 4.78 
-157.88 -248.14 5.87 
-157.95 -248.22 5.89 
-157.67 -248.65 5.87 
-154.22 -249.21 5.19 
-156.66 -249.58 5.66 
-154.47 -249.98 5.30 
-155.09 -250.02 5.41 
-156.97 -249.90 5.74 
-157.41 -249.98 5.83 
-154.79 -250.37 5.39 
-157.36 -250.48 5.97 
-158.11 -252.32 6.16 
-148.50 -236.58 4.59 
-148.81 -236.48 4.63 
-149.35 -235.97 5.46 
-149.57 -240.38 5.33 
-147.63 -240.54 4.97 
-149.76 -240.80 5.41 
-150.23 -240.75 5.48 
-147.82 -240.95 5.06 
-149.94 -241.02 5.47 
-149.65 -241.39 5.47 
-155.80 -247.68 6.36 
-156.05 -247.46 6.38 
-156.35 -247.67 6.46 
-155.77 -247.86 6.37 
-157.42 -248.07 6.78 
-157.70 -248.02 6.74 
-156.42 -248.27 6.54 
-156.98 -248.30 6.64 
-158.20 -248.54 6.90 
-158.46 -248.32 6.92 
-156.12 -248.90 6.62 
-156.76 -248.80 6.66 
-154.46 -249.24 6.29 
-154.91 -249.15 6.36 
-155.26 -249.17 6.42 
-157.33 -249.05 6.79 
-155.58 -250.12 6.59 
-154.01 -250.28 6.32 
-156.83 -247.86 7.60 
-158.01 -248.40 7.90 
-149.13 -235.96 0.18 
-147.25 -238.86 -0.18 
-147.48 -238.90 -0.14 
-145.65 -235.85 0.28 
-146.97 -238.84 0.55 
-147.27 -239.01 0.60 
-146.42 -237.96 1.19 
-146.98 -238.03 1.29 
-145.87 -238.67 1.13 
-146.06 -238.70 1.16 
-146.42 -239.22 1.24 
-147.35 -239.36 1.41 
-147.54 -239.41 1.44 
-147.57 -239.48 1.45 
-141.63 -240.54 0.50 
-142.03 -240.90 0.58 
-142.76 -240.97 0.70 
-149.48 -243.01 1.91 
-146.63 -243.31 1.44 
-147.28 -243.20 1.54 
-144.62 -243.61 1.11 
-147.28 -243.54 1.56 
-149.79 -243.77 1.99 
-150.04 -243.84 2.04 
-144.64 -234.39 1.44 
-144.97 -234.39 1.49 
-145.77 -234.51 1.63 
-144.28 -234.59 1.39 
-145.11 -234.63 1.53 
-145.41 -234.68 1.58 
-145.77 -234.78 1.64 
-146.62 -235.09 1.80 
-146.83 -235.06 1.83 
-145.09 -235.66 1.59 
-145.27 -235.61 1.61 
-143.44 -236.05 1.35 
-156.15 -252.06 3.43 
-158.16 -253.03 3.83 
-156.00 -254.06 3.48 
-157.07 -254.46 3.69 
-143.05 -236.62 1.32 
-147.32 -237.32 2.06 
-150.03 -237.77 2.54 
-145.42 -237.87 1.78 
-145.62 -238.02 1.82 
-146.88 -237.92 2.02 
-145.81 -238.21 1.86 
-141.56 -239.14 1.24 
-141.64 -239.65 1.28 
-151.81 -240.26 3.00 
-141.78 -240.03 1.33 
-151.46 -242.24 3.07 
-151.49 -242.25 3.07 
-146.85 -243.41 2.36 
-146.91 -234.57 2.49 
-147.80 -234.61 2.64 
-145.41 -234.55 2.26 
-145.59 -234.81 2.31 
-147.98 -234.68 2.68 
-145.85 -235.34 2.39 
-146.30 -235.18 2.45 
-147.27 -235.43 2.63 
-144.59 -235.39 2.20 
-144.81 -235.31 2.23 
-145.38 -235.60 2.34 
-146.43 -235.50 2.50 
-147.03 -235.60 2.60 
-144.78 -235.93 2.27 
-145.96 -235.80 2.45 
-147.40 -235.85 2.68 
-144.11 -236.39 2.21 
-145.01 -236.40 2.35 
-156.69 -247.30 4.32 
-157.30 -247.32 4.43 
-157.54 -247.33 4.47 
-156.44 -247.66 4.29 
-157.65 -247.79 4.52 
-157.96 -247.90 4.59 
-158.35 -248.00 4.66 
-158.42 -248.10 4.68 
-155.94 -248.46 4.25 
-154.25 -248.98 3.98 
-157.49 -249.17 4.58 
-157.23 -249.50 4.55 
-154.72 -249.75 4.11 
-155.20 -250.18 4.23 
-155.51 -250.27 4.29 
-155.81 -250.22 4.34 
-158.38 -251.75 4.76 
-158.12 -252.66 4.77 
-147.88 -234.63 3.33 
-147.67 -234.77 3.31 
-144.50 -237.62 2.37 
-150.06 -239.13 3.36 
-150.94 -239.60 3.54 
-151.34 -240.32 3.67 
-151.55 -240.28 3.70 
-141.65 -240.02 2.14 
-150.40 -240.69 3.54 
-150.76 -240.67 3.60 
-151.01 -241.02 3.67 
-151.23 -240.95 3.70 
-150.43 -241.27 3.60 
-158.39 -251.26 4.87 
-157.55 -253.71 4.73 
-146.84 -234.92 3.20 
-147.19 -234.76 3.23 
-146.03 -235.10 3.09 
-146.22 -235.03 3.11 
-147.37 -235.39 3.33 
-146.30 -235.64 3.19 
-147.92 -235.71 3.45 
-148.27 -236.19 3.56 
-148.69 -236.20 3.63 
-149.09 -236.24 3.70 
-145.17 -236.13 3.07 
-148.48 -236.45 3.63 
-148.86 -236.54 3.70 
-149.29 -236.36 3.75 
-146.30 -236.69 3.30 
-147.95 -237.05 3.61 
-148.40 -236.89 3.66 
-148.64 -236.89 3.70 
-149.39 -236.98 3.84 
-149.60 -236.91 3.86 
-147.93 -237.39 3.64 
-148.19 -237.09 3.65 
-155.42 -246.99 4.94 
-154.84 -247.07 4.85 
-155.08 -247.12 4.89 
-156.26 -247.39 5.23 
-155.37 -247.60 4.98 
-155.66 -248.09 5.08 
-158.38 -248.41 5.59 
-154.77 -248.58 4.96 
-155.96 -249.09 5.22 
-158.37 -248.99 5.64 
-148.64 -235.76 4.28 
-148.90 -235.80 4.32 
-147.51 -238.92 3.74 
-149.91 -239.83 4.23 
-150.02 -241.35 4.41 
-157.56 -248.23 5.54 
-154.65 -248.66 5.04 
-153.85 -248.91 4.92 
-158.12 -249.04 5.60 
-153.85 -249.33 4.87 
-156.02 -249.36 5.25 
-157.11 -249.35 5.55 
-156.27 -249.56 5.31 
-154.13 -249.98 4.97 
-154.44 -249.90 5.02 
-156.88 -250.06 5.46 
-158.17 -251.11 5.79 
-156.60 -251.18 5.51 
-157.66 -252.40 5.81 
-158.01 -253.14 5.93 
-157.97 -253.25 5.94 
-146.72 -236.31 4.05 
-146.89 -236.32 4.07 
-147.37 -236.57 4.18 
-148.13 -236.49 4.29 
-148.33 -236.61 4.34 
-149.14 -236.66 4.48 
-145.52 -236.80 3.93 
-146.19 -236.65 4.01 
-146.92 -237.40 4.22 
-147.61 -237.07 4.29 
-145.62 -237.86 4.08 
-147.70 -238.02 4.43 
-149.77 -240.74 5.17 
-149.98 -240.70 5.20 
-149.49 -240.90 5.15 
-149.71 -240.85 5.17 
-155.54 -247.39 6.01 
-155.79 -247.30 6.04 
-155.37 -247.74 6.02 
-156.38 -248.34 6.26 
-156.98 -248.12 6.34 
-157.25 -248.02 6.38 
-158.21 -248.37 6.59 
-158.45 -248.21 6.62 
-157.92 -248.54 6.56 
-154.94 -249.00 6.08 
-156.72 -249.09 6.40 
-157.89 -248.91 6.60 
-158.22 -249.25 6.69 
-153.73 -249.23 5.89 
-154.47 -249.15 6.01 
-154.89 -249.26 6.10 
-156.14 -249.52 6.35 
-154.03 -249.56 5.98 
-154.29 -249.48 6.02 
-157.63 -249.65 6.63 
-155.19 -250.11 6.25 
-153.94 -250.71 6.09 
-156.25 -247.84 7.21 
-157.45 -248.52 7.52 
-146.65 -238.83 -0.59 
-158.27 -234.57 1.96 
-146.40 -238.91 0.15 
-146.29 -237.91 0.87 
-146.46 -238.08 0.91 
-145.86 -238.73 0.83 
-141.57 -240.71 0.19 
-141.70 -241.11 0.23 
-142.23 -241.12 0.32 
-141.93 -241.19 0.27 
-142.37 -241.47 0.35 
-146.44 -234.89 1.47 
-143.70 -235.16 1.06 
-143.57 -235.35 1.05 
-149.20 -237.10 2.06 
-158.30 -251.93 3.48 
-157.90 -252.92 3.44 
-157.18 -254.18 3.36 
-143.09 -235.97 1.01 
-142.72 -236.40 0.98 
-147.46 -237.19 1.78 
-148.90 -237.72 2.05 
-150.00 -237.60 2.22 
-150.16 -238.13 2.28 
-150.48 -238.14 2.34 
-145.35 -237.97 1.48 
-150.81 -239.49 2.48 
-151.15 -239.39 2.53 
-148.14 -239.74 2.04 
-148.27 -239.81 2.07 
-149.49 -240.16 2.29 
-151.12 -240.41 2.59 
-149.20 -240.57 2.27 
-151.44 -240.65 2.66 
-148.76 -240.63 2.20 
-148.96 -240.62 2.23 
-148.42 -241.32 2.19 
-148.16 -241.48 2.15 
-151.34 -242.36 2.74 
-146.52 -234.14 2.12 
-144.41 -234.97 1.86 
-144.40 -235.15 1.88 
-145.92 -235.34 2.12 
-149.28 -235.77 2.69 
-144.91 -235.46 1.98 
-145.54 -235.68 2.09 
-149.07 -235.89 2.67 
-148.82 -236.21 2.66 
-149.58 -236.60 2.81 
-150.00 -236.54 2.88 
-150.39 -236.74 2.96 
-142.98 -236.07 1.74 
-143.45 -236.34 1.83 
-148.51 -236.71 2.65 
-149.24 -236.94 2.79 
-149.73 -237.07 2.88 
-143.62 -236.76 1.89 
-150.51 -237.70 3.06 
-157.94 -247.81 4.24 
-155.42 -248.73 3.85 
-158.36 -248.96 4.39 
-153.70 -248.96 3.56 
-155.15 -249.06 3.82 
-158.16 -249.31 4.37 
-153.75 -249.20 3.58 
-156.52 -249.61 4.10 
-157.25 -249.69 4.23 
-154.00 -249.64 3.65 
-154.30 -249.85 3.72 
-154.89 -249.99 3.83 
-156.96 -249.89 4.19 
-154.60 -250.11 3.78 
-143.38 -236.90 1.87 
-142.42 -238.94 1.89 
-141.55 -239.69 1.82 
-141.91 -239.83 1.88 
-147.98 -240.27 2.86 
-141.21 -240.25 1.81 
-146.68 -240.56 2.67 
-141.63 -240.51 1.89 
-149.80 -241.23 3.19 
-150.07 -241.26 3.23 
-150.28 -241.28 3.27 
-150.35 -242.31 3.37 
-150.70 -242.56 3.44 
-158.02 -251.41 4.48 
-154.39 -251.58 3.84 
-158.21 -253.48 4.49 
-145.79 -234.96 2.77 
-144.29 -235.13 2.56 
-145.53 -235.17 2.75 
-144.84 -235.68 2.70 
-145.23 -235.48 2.74 
-148.50 -236.09 3.30 
-148.94 -236.04 3.37 
-149.13 -236.01 3.40 
-144.27 -235.86 2.64 
-148.68 -236.46 3.37 
-149.20 -237.04 3.52 
-147.46 -236.89 3.23 
-149.02 -237.05 3.49 
-149.09 -238.23 3.63 
-149.41 -238.03 3.66 
-149.72 -238.02 3.71 
-146.45 -242.97 2.84 
-154.43 -247.07 4.44 
-155.76 -247.40 4.80 
-154.95 -247.97 4.61 
-154.06 -248.29 4.48 
-154.70 -248.07 4.58 
-158.17 -248.45 5.21 
-153.74 -248.88 4.48 
-149.54 -235.23 4.06 
-149.30 -235.61 4.08 
-149.65 -235.89 4.17 
-143.66 -237.72 2.74 
-148.10 -238.70 3.52 
-148.24 -239.02 3.58 
-149.12 -239.06 3.72 
-144.77 -239.64 3.11 
-150.00 -240.57 4.03 
-150.32 -240.59 4.08 
-149.28 -240.72 3.93 
-150.57 -240.95 4.16 
-149.58 -241.58 4.06 
-156.12 -248.53 4.96 
-157.28 -248.60 5.18 
-156.42 -248.63 5.03 
-156.72 -248.84 5.10 
-157.06 -248.84 5.16 
-157.90 -248.94 5.33 
-154.18 -249.16 4.67 
-153.35 -249.61 4.48 
-157.71 -249.95 5.38 
-155.16 -250.94 4.90 
-155.76 -251.04 5.01 
-152.90 -251.14 4.53 
-158.32 -251.85 5.53 
-155.39 -251.75 5.01 
-158.04 -254.13 5.67 
-145.07 -236.79 3.59 
-150.01 -237.69 4.51 
-149.25 -237.94 4.43 
-149.70 -238.03 4.51 
-149.96 -238.12 4.55 
-149.32 -240.27 4.69 
-149.80 -240.96 4.90 
-153.98 -247.13 5.37 
-153.73 -247.16 5.33 
-154.02 -247.17 5.38 
-154.36 -247.37 5.46 
-154.79 -248.00 5.61 
-155.64 -247.93 5.82 
-158.00 -248.04 6.17 
-155.08 -248.21 5.68 
-155.35 -248.35 5.74 
-158.32 -248.66 6.30 
-156.27 -248.73 6.02 
-153.21 -249.26 5.47 
-156.10 -250.81 6.21 
-157.82 -251.98 6.57 
-158.42 -247.84 7.25 
-150.03 -238.68 -0.24 
-146.76 -238.83 -0.81 
-148.26 -235.90 0.20 
-146.00 -238.92 -0.16 
-146.22 -238.83 -0.12 
-146.44 -238.86 -0.08 
-148.06 -235.93 0.87 
-145.89 -237.97 0.58 
-146.08 -238.08 0.61 
-145.64 -238.76 0.56 
-146.05 -239.04 0.64 
-146.48 -239.18 0.72 
-146.71 -239.17 0.76 
-143.95 -234.08 0.83 
-144.17 -234.18 0.87 
-143.23 -235.26 0.78 
-145.38 -235.44 1.13 
-158.19 -252.06 3.17 
-157.80 -252.91 3.13 
-142.51 -236.44 0.74 
-145.20 -236.72 1.17 
-147.15 -237.08 1.50 
-146.58 -237.38 1.42 
-146.98 -237.21 1.48 
-146.60 -237.46 1.43 
-145.22 -238.13 1.25 
-150.19 -238.92 2.10 
-149.94 -239.07 2.07 
-145.39 -239.18 1.33 
-150.52 -239.93 2.21 
-146.93 -239.71 1.61 
-150.71 -240.22 2.26 
-150.95 -240.07 2.29 
-151.29 -240.25 2.36 
-150.23 -240.33 2.19 
-145.11 -240.28 1.35 
-147.01 -240.40 1.66 
-148.28 -240.63 1.88 
-148.47 -240.84 1.92 
-148.88 -240.76 1.99 
-149.30 -240.85 2.06 
-148.12 -240.90 1.87 
-148.45 -241.26 1.94 
-148.83 -241.09 2.00 
-144.67 -240.95 1.32 
-145.01 -241.40 1.40 
-145.12 -241.56 1.42 
-147.11 -241.65 1.75 
-147.51 -241.84 1.82 
-146.11 -242.13 1.61 
-147.64 -242.11 1.86 
-147.80 -242.06 1.88 
-145.06 -242.33 1.46 
-145.30 -243.24 1.55 
-146.39 -234.24 1.90 
-147.06 -234.47 2.02 
-145.61 -235.09 1.85 
-145.83 -235.08 1.88 
-143.09 -235.32 1.50 
-147.08 -235.70 2.12 
-143.22 -235.52 1.53 
-146.83 -236.02 2.11 
-147.69 -236.00 2.24 
-149.39 -236.42 2.54 
-146.34 -236.39 2.06 
-148.00 -236.55 2.33 
-148.50 -236.85 2.43 
-148.81 -236.73 2.47 
-146.02 -236.59 2.03 
-148.59 -236.92 2.45 
-148.93 -237.12 2.52 
-149.07 -237.20 2.55 
-147.58 -237.39 2.33 
-150.05 -237.54 2.74 
-150.48 -237.57 2.81 
-158.34 -248.70 4.08 
-154.66 -248.78 3.43 
-154.89 -248.63 3.47 
-158.10 -249.19 4.07 
-154.37 -249.04 3.40 
-156.07 -249.83 3.74 
-153.72 -249.77 3.33 
-154.61 -249.91 3.49 
-153.77 -250.13 3.35 
-154.05 -250.41 3.42 
-154.01 -250.53 3.42 
-155.55 -251.01 3.72 
-157.28 -252.80 3.99 
-157.22 -253.17 4.00 
-149.67 -238.73 2.77 
-143.88 -239.06 1.90 
-147.60 -239.38 2.49 
-149.26 -239.97 2.81 
-148.89 -240.25 2.77 
-149.17 -240.23 2.81 
-149.57 -241.01 2.94 
-149.73 -241.42 3.00 
-150.14 -241.29 3.00 
-146.03 -241.07 2.38 
-146.24 -241.18 2.42 
-150.19 -242.22 3.08 
-150.47 -242.82 3.18 
-157.71 -251.33 4.12 
-157.97 -251.40 4.17 
-154.28 -252.03 3.55 
-156.46 -252.20 3.95 
-157.09 -252.34 4.07 
-157.43 -252.71 4.15 
-153.31 -253.54 3.47 
-152.98 -253.63 3.42 
-146.41 -234.17 2.58 
-146.54 -234.42 2.62 
-145.87 -234.61 2.54 
-146.76 -234.76 2.69 
-145.40 -235.05 2.52 
-145.94 -235.02 2.59 
-147.03 -235.33 2.78 
-147.54 -236.14 2.94 
-147.08 -236.38 2.90 
-149.41 -236.88 3.31 
-147.17 -236.83 2.96 
-147.59 -236.90 3.03 
-147.75 -237.16 3.08 
-148.29 -237.19 3.16 
-148.95 -237.01 3.25 
-149.17 -237.04 3.29 
-147.92 -237.37 3.13 
-155.57 -247.79 4.52 
-153.97 -248.04 4.17 
-157.66 -248.78 4.86 
-141.94 -237.25 2.26 
-142.18 -237.46 2.31 
-148.31 -238.66 3.32 
-149.21 -239.24 3.52 
-149.79 -240.26 3.72 
-149.08 -240.73 3.65 
-149.37 -240.86 3.71 
-149.68 -240.74 3.75 
-147.78 -240.96 3.47 
-158.17 -248.54 5.05 
-156.75 -248.91 4.82 
-157.34 -248.98 4.93 
-154.45 -249.30 4.44 
-157.08 -249.60 4.94 
-153.57 -249.42 4.30 
-156.49 -250.66 4.81 
-153.74 -250.85 4.36 
-156.16 -251.17 4.79 
-153.28 -251.08 4.38 
-155.90 -251.15 4.75 
-156.20 -251.24 4.81 
-157.27 -251.39 5.00 
-154.24 -251.66 4.51 
-158.35 -252.02 5.24 
-154.54 -251.85 4.57 
-154.84 -252.06 4.64 
-155.20 -252.20 4.71 
-155.39 -253.55 4.85 
-148.01 -235.59 3.66 
-148.50 -235.70 3.75 
-147.77 -235.80 3.65 
-148.36 -235.77 3.73 
-148.72 -235.97 3.81 
-147.25 -236.13 3.62 
-149.20 -236.22 3.92 
-147.40 -236.62 3.70 
-146.12 -237.86 3.67 
-146.29 -238.00 3.71 
-153.94 -247.01 5.07 
-158.26 -253.34 5.45 
-148.15 -240.53 4.30 
-149.01 -240.76 4.52 
-149.17 -240.98 4.57 
-149.57 -240.93 4.62 
-145.63 -241.39 4.04 
-154.22 -247.19 5.14 
-155.64 -247.48 5.41 
-155.89 -247.45 5.45 
-154.44 -247.66 5.22 
-155.03 -247.56 5.31 
-156.16 -247.84 5.53 
-156.48 -247.67 5.57 
-157.87 -247.98 5.90 
-158.34 -248.00 5.93 
-154.72 -247.79 5.28 
-155.29 -248.01 5.40 
-155.56 -248.17 5.46 
-156.04 -248.28 5.63 
-156.74 -248.07 5.66 
-155.48 -248.41 5.54 
-156.29 -248.47 5.70 
-157.09 -248.78 5.83 
-157.63 -248.70 5.88 
-157.48 -249.06 5.98 
-147.09 -236.23 4.34 
-157.54 -252.01 6.21 
-145.95 -238.79 4.56 
-157.15 -248.01 6.74 
-158.32 -248.13 6.96 
-155.19 -249.01 6.53 
-153.95 -249.46 6.39 
-156.51 -249.70 6.85 
-150.02 -238.57 -0.32 
-146.42 -238.68 -1.00 
-144.94 -235.46 -0.44 
-148.09 -235.96 0.12 
-145.99 -238.74 -0.29 
-145.74 -238.74 -0.33 
-146.10 -238.81 -0.27 
-157.98 -253.59 1.78 
-147.80 -235.95 0.78 
-147.97 -235.99 0.81 
-145.68 -237.85 0.44 
-145.87 -238.01 0.47 
-145.86 -239.02 0.48 
-146.19 -239.15 0.54 
-146.42 -239.19 0.58 
-145.56 -239.42 0.44 
-144.26 -233.98 0.85 
-144.01 -234.00 0.81 
-144.31 -234.13 0.87 
-144.69 -234.14 0.93 
-145.09 -234.30 0.99 
-146.09 -234.82 1.17 
-145.09 -235.04 1.02 
-145.19 -235.34 1.05 
-147.67 -236.00 1.47 
-147.82 -236.09 1.50 
-157.93 -253.44 2.86 
-157.37 -253.44 2.58 
-156.32 -254.41 2.57 
-143.26 -234.93 0.72 
-143.23 -235.07 0.72 
-144.92 -236.47 1.04 
-148.59 -237.13 1.67 
-146.89 -237.18 1.39 
-146.40 -237.37 1.31 
-145.00 -237.99 1.10 
-149.63 -239.12 1.91 
-150.54 -239.73 2.09 
-146.30 -239.22 1.36 
-150.05 -239.97 2.02 
-145.06 -239.10 1.15 
-146.75 -239.65 1.45 
-147.07 -239.72 1.50 
-149.82 -240.32 1.99 
-150.17 -240.41 2.05 
-150.56 -240.48 2.12 
-150.97 -240.53 2.20 
-149.46 -240.50 1.94 
-151.20 -241.07 2.26 
-147.74 -240.72 1.65 
-148.18 -240.94 1.73 
-148.57 -240.86 1.80 
-144.83 -240.32 1.15 
-147.90 -241.03 1.69 
-143.43 -240.50 0.93 
-146.76 -241.85 1.53 
-144.40 -241.56 1.13 
-144.57 -241.67 1.16 
-144.70 -242.79 1.22 
-146.12 -233.98 1.84 
-146.20 -234.31 1.87 
-146.38 -234.38 1.90 
-146.96 -234.56 2.00 
-147.16 -234.59 2.03 
-144.71 -234.20 1.64 
-145.02 -234.55 1.70 
-143.97 -234.72 1.55 
-145.02 -234.97 1.72 
-148.69 -235.72 2.34 
-143.94 -235.08 1.57 
-145.16 -235.15 1.76 
-147.12 -235.67 2.09 
-143.96 -235.31 1.58 
-144.30 -235.49 1.64 
-145.15 -235.68 1.78 
-147.51 -236.08 2.17 
-148.24 -236.42 2.31 
-149.50 -236.61 2.52 
-144.32 -235.96 1.67 
-147.74 -236.73 2.24 
-148.76 -236.90 2.42 
-149.57 -237.13 2.56 
-149.80 -237.09 2.60 
-147.57 -237.16 2.24 
-148.46 -237.15 2.38 
-146.70 -237.01 2.10 
-149.83 -237.85 2.65 
-154.32 -247.76 3.07 
-154.95 -247.88 3.18 
-154.39 -248.15 3.09 
-154.61 -248.79 3.16 
-157.45 -249.33 3.70 
-153.70 -249.45 3.02 
-154.88 -249.99 3.25 
-157.73 -250.41 3.79 
-155.12 -250.40 3.31 
-155.95 -250.86 3.48 
-156.83 -252.01 3.69 
-156.35 -252.67 3.49 
-156.92 -253.29 3.61 
-157.19 -253.28 3.66 
-156.80 -254.14 3.62 
-156.52 -254.21 3.57 
-143.04 -236.10 1.49 
-142.97 -236.31 1.49 
-146.55 -238.19 2.14 
-147.45 -238.17 2.28 
-146.72 -238.93 2.21 
-146.71 -239.10 2.22 
-149.45 -240.24 2.73 
-148.17 -240.52 2.53 
-147.90 -240.56 2.49 
-144.45 -240.41 1.94 
-158.04 -252.94 3.95 
-155.30 -252.88 3.44 
-155.56 -252.97 3.49 
-155.92 -252.98 3.56 
-156.49 -253.40 3.68 
-146.36 -234.44 2.59 
-147.03 -234.65 2.70 
-146.69 -234.70 2.66 
-145.42 -234.82 2.48 
-143.86 -235.01 2.28 
-144.80 -235.19 2.42 
-145.63 -235.37 2.55 
-147.01 -235.56 2.77 
-148.27 -236.00 2.99 
-144.38 -235.63 2.40 
-144.83 -235.63 2.46 
-147.34 -236.17 2.87 
-147.79 -236.20 2.94 
-145.15 -235.96 2.53 
-146.98 -236.55 2.84 
-147.05 -237.10 2.90 
-147.34 -236.86 2.92 
-148.57 -237.26 3.14 
-154.76 -248.41 4.15 
-155.60 -248.46 4.30 
-152.81 -248.39 3.72 
-153.07 -248.51 3.77 
-153.45 -248.39 3.83 
-156.65 -249.55 4.45 
-156.84 -249.37 4.48 
-152.43 -249.02 3.69 
-151.99 -249.36 3.64 
-152.33 -249.24 3.69 
-143.04 -237.38 2.34 
-142.39 -237.64 2.27 
-142.88 -237.51 2.33 
-143.20 -237.56 2.38 
-147.18 -238.63 3.04 
-142.12 -237.73 2.24 
-149.02 -241.03 3.52 
-157.84 -249.51 4.78 
-155.88 -249.49 4.42 
-157.42 -249.58 4.71 
-158.43 -250.09 4.93 
-154.97 -249.70 4.27 
-155.82 -250.00 4.44 
-156.09 -250.27 4.51 
-155.34 -251.30 4.33 
-154.99 -251.82 4.30 
-156.19 -252.05 4.53 
-153.64 -252.18 4.09 
-157.11 -252.74 4.73 
-153.34 -252.38 4.05 
-157.40 -253.26 4.82 
-157.65 -253.40 4.87 
-158.30 -253.51 4.99 
-155.47 -253.21 4.47 
-156.98 -253.55 4.76 
-144.37 -234.95 3.06 
-148.22 -235.78 3.67 
-146.22 -235.84 3.40 
-148.08 -236.34 3.71 
-145.88 -236.15 3.38 
-145.41 -236.73 3.37 
-146.37 -237.24 3.56 
-146.32 -238.01 3.63 
-155.15 -247.63 5.06 
-152.29 -247.44 4.57 
-152.85 -247.57 4.67 
-153.21 -247.60 4.73 
-144.55 -237.60 3.34 
-144.73 -237.75 3.38 
-152.53 -247.63 4.62 
-154.81 -248.01 5.03 
-155.04 -248.13 5.08 
-155.58 -248.31 5.19 
-157.28 -248.63 5.51 
-153.57 -248.32 4.85 
-154.42 -248.29 4.99 
-154.73 -248.17 5.03 
-155.33 -248.31 5.15 
-155.82 -248.74 5.27 
-157.13 -248.76 5.58 
-157.54 -248.93 5.59 
-153.80 -248.47 4.90 
-154.11 -248.44 4.95 
-154.57 -248.79 5.12 
-155.41 -249.11 5.30 
-156.03 -249.41 5.36 
-156.56 -250.13 5.60 
-157.74 -250.17 5.73 
-157.94 -251.94 5.91 
-157.87 -252.16 5.92 
-158.17 -252.39 6.00 
-154.13 -247.35 5.85 
-158.00 -234.54 1.52 
-158.39 -234.60 1.59 
-147.67 -235.85 -0.20 
-145.62 -238.69 -0.59 
-147.35 -235.82 0.46 
-145.28 -237.91 0.13 
-145.17 -238.79 0.13 
-145.73 -238.99 0.22 
