# .PCD v0.7 - Point Cloud Data file format
VERSION 0.7
FIELDS x y z
SIZE 4 4 4
TYPE F F F
COUNT 1 1 1
WIDTH 948
HEIGHT 1
VIEWPOINT 0 0 0 1 0 0 0
POINTS 948
DATA ascii
769.58 -514.54 9.83 
768.82 -506.68 8.37 
767.52 -508.94 5.41 
766.75 -505.57 4.87 
767.18 -508.58 5.57 
766.63 -505.51 4.63 
767.86 -508.14 4.98 
768.29 -509.46 6.21 
769.02 -509.78 6.39 
768.32 -507.69 5.17 
767.71 -508.45 5.51 
768.55 -509.13 6.33 
768.99 -508.64 6.40 
768.80 -508.90 6.37 
769.34 -509.66 6.54 
769.01 -509.89 6.97 
769.13 -507.19 5.52 
766.58 -505.76 5.34 
769.13 -508.33 5.56 
767.72 -508.38 5.69 
768.67 -509.37 6.54 
767.88 -510.33 6.91 
769.00 -509.84 7.14 
766.72 -505.21 4.63 
766.74 -505.14 5.15 
766.60 -505.71 5.14 
767.02 -505.28 5.21 
768.27 -508.32 5.63 
768.83 -508.22 5.75 
768.67 -508.65 5.74 
769.38 -507.63 5.85 
766.61 -505.69 5.59 
766.63 -505.99 5.60 
767.69 -508.10 5.93 
768.82 -508.85 6.79 
768.63 -509.19 6.77 
767.88 -510.23 7.16 
769.10 -510.07 7.42 
767.13 -504.79 4.81 
767.53 -505.19 4.91 
768.19 -506.35 5.09 
766.80 -505.61 5.15 
769.07 -507.88 5.33 
766.68 -505.55 5.63 
767.21 -505.11 5.73 
766.92 -505.81 6.13 
767.61 -507.62 5.95 
767.94 -508.88 6.52 
768.76 -508.54 6.69 
769.23 -509.58 7.44 
767.26 -504.88 5.14 
766.56 -504.85 6.25 
766.81 -504.96 6.31 
767.88 -507.51 6.29 
769.06 -509.07 6.66 
770.98 -510.08 7.18 
771.17 -509.93 7.22 
768.54 -509.29 6.96 
769.02 -508.91 7.05 
770.48 -509.79 7.44 
769.33 -509.54 7.73 
769.58 -506.81 6.11 
766.66 -504.70 6.17 
766.88 -504.71 6.22 
767.90 -507.20 6.62 
769.14 -508.88 7.02 
769.13 -509.56 7.06 
770.92 -509.58 7.50 
771.14 -509.50 7.54 
768.89 -508.81 7.35 
768.70 -509.14 7.32 
769.38 -509.46 7.50 
767.74 -505.14 2.65 
769.02 -506.14 3.50 
768.91 -505.65 5.15 
768.02 -507.54 5.29 
768.20 -506.15 5.84 
768.34 -505.98 5.87 
769.70 -506.02 6.20 
770.16 -506.85 6.34 
767.31 -505.13 6.41 
768.19 -507.71 6.25 
767.96 -507.23 6.69 
769.34 -507.28 7.04 
769.53 -507.09 7.07 
769.27 -508.34 7.08 
769.03 -508.48 7.41 
768.77 -509.27 7.40 
771.54 -508.92 7.68 
768.57 -509.66 7.37 
770.23 -510.14 7.80 
770.45 -510.04 7.84 
769.46 -508.55 8.06 
769.45 -509.19 8.11 
770.44 -509.53 8.39 
768.70 -506.44 3.60 
769.02 -506.25 3.67 
768.38 -505.67 5.17 
768.51 -505.80 6.02 
768.36 -506.00 5.99 
769.42 -506.03 6.25 
769.01 -506.37 6.16 
769.40 -506.50 6.26 
769.53 -507.29 6.32 
770.32 -506.69 6.48 
768.45 -508.39 6.44 
766.65 -505.17 6.72 
769.28 -507.18 7.11 
769.23 -507.66 7.13 
769.97 -507.00 7.28 
771.40 -507.46 7.66 
769.12 -508.56 7.52 
768.95 -508.87 7.50 
769.22 -508.08 8.04 
768.92 -508.64 8.01 
769.72 -508.54 8.20 
769.84 -508.68 8.25 
769.54 -509.35 8.22 
770.73 -509.39 8.53 
770.48 -509.49 8.48 
770.42 -507.52 5.89 
768.52 -505.68 6.22 
769.54 -506.36 6.49 
767.16 -504.90 6.18 
769.02 -507.06 6.70 
768.72 -507.75 6.66 
768.96 -507.65 6.71 
769.73 -507.13 6.56 
770.52 -506.46 6.73 
770.23 -506.58 6.67 
768.92 -508.83 6.75 
769.23 -507.54 7.30 
769.86 -506.80 7.42 
769.60 -506.99 7.36 
769.45 -507.42 7.52 
769.98 -506.94 7.46 
769.54 -508.19 7.42 
771.56 -508.67 7.96 
767.98 -508.23 7.38 
769.08 -508.33 7.65 
768.80 -509.71 7.67 
769.98 -509.85 7.96 
769.33 -508.07 8.22 
769.31 -508.12 8.22 
768.94 -508.63 8.16 
769.48 -508.88 8.32 
769.94 -508.49 8.41 
770.79 -509.28 8.70 
770.64 -509.44 8.67 
768.93 -506.49 3.57 
769.38 -506.94 3.64 
767.86 -505.79 4.97 
768.65 -506.40 5.94 
768.82 -506.22 5.98 
769.78 -507.08 6.21 
770.70 -507.15 6.15 
768.50 -505.61 6.40 
768.93 -505.97 6.52 
769.64 -505.76 6.68 
769.61 -506.19 6.69 
769.72 -507.00 6.75 
770.71 -506.21 6.96 
770.47 -506.39 6.91 
770.21 -506.74 6.86 
768.34 -507.25 6.73 
769.25 -506.91 6.92 
769.09 -507.13 6.90 
769.00 -507.53 6.89 
769.02 -508.18 6.92 
769.85 -506.82 7.59 
769.59 -506.86 7.53 
770.00 -506.69 7.63 
769.47 -507.36 7.53 
769.80 -507.66 7.63 
771.51 -507.24 8.05 
771.59 -508.50 8.14 
780.41 -511.83 9.81 
768.93 -509.01 7.82 
768.56 -509.47 7.76 
768.96 -509.75 7.87 
770.09 -509.83 8.15 
769.23 -508.22 8.37 
769.00 -508.51 8.33 
769.44 -507.92 8.40 
769.75 -508.36 8.52 
770.02 -508.36 8.59 
770.79 -509.21 8.87 
770.11 -505.01 5.11 
768.96 -505.94 5.08 
769.40 -505.00 5.70 
768.85 -505.88 5.83 
769.45 -505.38 6.48 
770.26 -506.15 6.70 
770.44 -506.33 6.75 
769.42 -506.97 6.78 
769.75 -507.10 6.87 
770.84 -507.68 7.15 
770.70 -507.92 7.12 
767.20 -505.29 6.95 
769.73 -506.28 7.36 
769.65 -506.66 7.36 
769.47 -506.84 7.32 
771.23 -509.43 7.29 
767.87 -507.26 7.22 
769.43 -507.36 7.62 
769.18 -508.44 7.61 
771.53 -507.08 7.87 
771.36 -508.33 7.88 
772.26 -508.80 8.14 
772.00 -508.80 8.07 
769.51 -506.72 8.12 
769.93 -506.60 8.23 
769.80 -506.74 8.20 
769.54 -507.59 8.19 
769.56 -508.03 8.22 
770.24 -509.55 7.94 
769.01 -508.48 8.42 
769.57 -508.64 8.57 
769.48 -505.00 5.83 
769.62 -505.12 5.86 
770.20 -504.89 6.00 
769.92 -505.17 5.93 
768.98 -505.83 5.95 
768.84 -506.01 5.92 
770.12 -506.68 6.22 
769.41 -504.80 6.55 
769.39 -505.07 6.55 
770.48 -505.99 6.85 
771.06 -506.34 7.00 
768.59 -506.34 6.63 
769.58 -507.08 6.89 
769.83 -507.04 6.95 
770.93 -507.79 7.24 
771.05 -508.48 7.29 
767.21 -504.98 6.99 
770.39 -506.12 7.61 
771.06 -505.73 7.78 
770.89 -505.83 7.74 
771.16 -506.90 7.85 
771.49 -506.95 7.94 
769.52 -507.10 7.68 
769.73 -507.00 7.73 
771.69 -507.65 8.27 
769.93 -506.63 8.30 
769.73 -506.74 8.25 
769.57 -506.97 8.22 
769.73 -507.52 8.30 
769.63 -508.63 8.61 
769.67 -508.62 8.63 
770.39 -509.49 8.88 
770.65 -509.55 8.95 
770.23 -505.15 5.74 
770.65 -505.41 5.83 
769.62 -505.24 6.34 
770.11 -504.93 6.24 
769.98 -505.19 6.21 
771.02 -506.23 6.68 
769.26 -504.92 6.77 
769.19 -505.66 6.99 
769.75 -506.16 7.14 
770.48 -505.93 7.10 
770.37 -506.08 7.07 
771.18 -506.01 7.28 
770.93 -506.41 7.23 
771.67 -506.93 7.43 
770.36 -506.32 7.30 
770.21 -506.47 7.27 
770.89 -505.75 7.42 
770.20 -506.40 8.04 
769.94 -506.55 7.98 
770.79 -505.81 7.95 
770.65 -506.35 7.93 
771.20 -506.97 8.11 
770.89 -508.38 8.31 
772.19 -506.93 8.59 
771.78 -508.87 8.56 
769.86 -506.60 8.51 
769.44 -507.98 8.72 
770.18 -507.90 8.91 
769.96 -508.42 8.89 
770.98 -508.79 9.19 
769.84 -505.08 5.20 
770.86 -506.51 6.12 
768.74 -505.51 6.38 
769.06 -505.55 6.45 
770.17 -504.75 6.52 
770.26 -507.03 6.75 
771.02 -506.42 6.93 
771.13 -506.34 6.96 
771.53 -507.35 7.05 
769.39 -506.75 7.30 
770.97 -506.16 7.49 
771.38 -505.80 7.59 
772.13 -506.11 7.80 
771.91 -506.57 7.74 
771.74 -506.67 7.70 
770.57 -506.21 7.59 
771.26 -506.48 7.77 
771.08 -507.48 7.74 
771.69 -507.02 7.89 
771.50 -507.21 7.85 
770.81 -505.57 8.20 
771.44 -505.60 8.39 
770.57 -508.96 8.46 
771.49 -508.70 8.70 
769.79 -506.25 8.70 
770.15 -506.20 8.81 
769.77 -508.39 9.04 
770.61 -509.31 9.33 
770.89 -508.58 9.99 
769.47 -525.69 8.96 
770.54 -525.11 10.04 
769.35 -505.66 4.59 
769.87 -505.11 5.44 
770.88 -506.41 6.36 
769.07 -505.17 6.67 
770.10 -504.70 6.73 
770.22 -506.42 6.95 
770.96 -506.35 7.13 
771.43 -507.33 7.25 
771.20 -507.40 7.19 
769.96 -506.73 7.64 
770.40 -506.20 7.75 
770.40 -506.62 7.76 
771.33 -505.67 7.80 
771.26 -505.66 7.78 
770.94 -506.23 7.89 
771.52 -505.61 7.85 
771.30 -507.05 8.00 
769.62 -506.85 8.31 
771.28 -505.54 8.56 
769.19 -514.92 8.31 
769.02 -515.07 8.27 
769.84 -506.40 8.93 
770.11 -506.12 9.00 
769.27 -516.44 8.39 
770.37 -525.48 10.25 
769.78 -505.01 5.68 
769.91 -505.07 6.41 
770.99 -506.73 6.63 
770.97 -507.00 6.62 
770.11 -506.47 7.17 
770.73 -506.60 7.32 
771.79 -507.02 7.58 
768.44 -514.12 6.58 
771.55 -505.40 8.11 
771.37 -505.49 8.06 
771.21 -505.97 8.03 
772.33 -506.40 8.34 
767.45 -504.70 7.85 
771.56 -507.17 8.31 
767.34 -514.99 7.19 
771.86 -507.18 8.39 
768.24 -514.51 7.41 
769.75 -506.84 8.57 
769.66 -515.13 8.69 
768.87 -516.25 8.53 
768.82 -516.67 8.54 
769.26 -516.38 8.64 
770.84 -509.00 9.78 
770.88 -524.63 9.47 
770.62 -524.73 9.40 
770.21 -525.58 9.62 
770.41 -525.48 10.52 
770.95 -506.34 5.41 
770.08 -505.10 5.99 
770.14 -505.47 6.00 
771.27 -506.49 6.94 
771.05 -506.03 7.63 
770.77 -506.28 7.56 
771.93 -506.96 7.85 
772.18 -506.22 8.54 
771.55 -507.12 8.53 
771.86 -507.10 8.61 
768.54 -514.21 7.71 
771.91 -508.87 8.66 
769.11 -514.39 7.87 
769.60 -506.94 8.75 
769.50 -507.20 8.73 
769.50 -514.97 8.87 
769.52 -515.42 8.90 
769.01 -516.04 8.79 
768.85 -516.68 8.77 
769.36 -516.11 8.89 
769.00 -516.51 8.81 
770.00 -524.28 8.62 
770.29 -525.47 9.85 
770.05 -525.75 9.81 
771.42 -524.44 9.84 
767.34 -505.26 5.70 
771.36 -504.80 6.60 
771.12 -505.13 6.54 
771.68 -505.53 8.09 
767.98 -513.79 6.95 
772.65 -506.10 8.34 
768.12 -513.72 7.18 
769.32 -513.20 7.29 
769.00 -513.50 7.21 
769.36 -513.20 7.30 
768.98 -514.56 7.20 
768.62 -515.36 7.31 
772.45 -506.25 9.04 
779.99 -511.44 10.20 
768.01 -514.05 7.79 
767.35 -515.10 7.63 
768.41 -513.85 7.89 
768.49 -515.38 7.94 
769.90 -514.53 8.48 
769.74 -514.59 8.27 
770.92 -515.22 8.59 
769.06 -514.83 8.95 
769.75 -514.54 9.14 
769.19 -515.35 9.01 
769.27 -515.85 9.05 
768.91 -516.33 8.96 
769.76 -515.26 9.17 
769.41 -516.41 9.11 
770.14 -515.30 9.28 
767.65 -529.43 9.20 
770.89 -524.82 10.08 
769.94 -525.67 10.74 
771.74 -505.70 7.58 
767.58 -514.58 6.42 
768.16 -513.38 7.19 
768.10 -513.64 7.17 
769.29 -513.20 7.48 
767.62 -514.29 7.24 
768.27 -514.24 7.40 
767.26 -515.47 7.15 
769.15 -514.12 7.44 
770.08 -513.69 7.68 
770.32 -513.59 7.74 
771.99 -506.81 9.12 
768.28 -513.41 8.04 
768.13 -513.59 8.00 
768.59 -513.44 8.13 
767.90 -514.35 7.95 
779.78 -511.53 10.36 
780.57 -512.22 10.56 
768.48 -514.65 8.12 
768.53 -514.77 8.13 
770.05 -513.54 8.53 
769.60 -513.81 8.41 
769.29 -516.18 8.54 
769.18 -516.45 8.51 
768.83 -516.60 8.43 
769.24 -514.68 9.19 
769.52 -514.63 9.27 
769.43 -515.30 9.26 
769.34 -515.72 9.25 
769.25 -516.17 9.24 
769.68 -515.53 9.34 
769.98 -515.43 10.33 
767.95 -529.16 9.43 
770.82 -525.18 10.24 
768.43 -513.87 6.16 
767.74 -510.04 6.67 
767.68 -510.56 6.65 
767.99 -510.54 6.72 
768.01 -514.33 6.84 
768.52 -514.62 6.96 
770.17 -513.04 7.20 
769.20 -513.04 7.78 
769.47 -512.87 7.85 
769.19 -513.34 7.78 
768.99 -513.75 7.72 
780.37 -510.88 9.90 
768.24 -514.52 7.70 
768.57 -514.55 7.78 
769.32 -514.73 7.97 
769.14 -514.90 7.93 
770.89 -513.31 8.22 
769.79 -514.65 8.09 
769.65 -514.78 8.05 
768.65 -512.89 8.46 
768.35 -513.41 8.38 
768.12 -513.50 8.31 
768.59 -513.27 8.44 
780.44 -511.46 10.88 
768.48 -514.20 8.43 
769.88 -513.52 8.81 
768.85 -515.17 8.69 
769.21 -516.04 8.81 
768.82 -516.53 8.71 
770.24 -515.45 9.07 
769.26 -516.52 8.83 
769.45 -514.36 9.55 
769.29 -514.51 9.51 
769.95 -514.18 9.70 
769.56 -515.11 9.61 
769.56 -515.45 9.62 
769.18 -515.77 9.52 
770.39 -514.93 9.85 
770.13 -514.98 9.77 
767.87 -529.19 9.69 
770.14 -525.31 11.22 
768.38 -512.71 6.22 
768.27 -512.90 6.19 
768.41 -513.67 6.40 
768.29 -513.81 6.37 
767.79 -510.40 6.92 
769.07 -512.91 7.35 
769.46 -512.99 7.44 
769.06 -513.56 7.34 
770.33 -513.34 7.47 
769.37 -513.06 8.06 
769.13 -513.29 8.00 
768.05 -513.51 7.87 
768.72 -513.57 8.04 
768.48 -514.84 7.98 
769.93 -513.48 8.21 
768.86 -514.98 8.08 
770.85 -513.01 8.45 
770.37 -513.38 8.40 
770.39 -513.57 8.33 
771.45 -514.98 8.74 
768.29 -513.54 8.60 
769.52 -513.80 8.95 
770.22 -513.30 9.14 
770.09 -513.66 9.10 
769.44 -514.44 9.05 
770.01 -514.72 9.21 
769.38 -515.80 9.06 
769.33 -516.10 9.06 
770.74 -514.80 9.42 
770.55 -514.94 9.37 
769.57 -514.39 9.82 
769.23 -514.70 9.73 
769.87 -514.19 9.91 
769.76 -514.42 9.88 
766.79 -524.78 9.39 
769.84 -515.31 10.82 
770.46 -523.47 10.38 
767.97 -529.13 9.92 
769.85 -524.95 11.32 
770.39 -525.08 11.49 
768.12 -509.48 6.52 
768.74 -512.52 6.55 
770.01 -511.87 6.86 
768.48 -513.22 6.67 
768.40 -514.38 6.61 
767.56 -509.96 7.11 
767.40 -510.10 7.07 
766.92 -510.07 7.12 
766.90 -510.29 7.11 
769.26 -513.24 7.62 
769.03 -513.67 7.56 
768.88 -514.32 7.51 
769.27 -514.54 7.60 
770.28 -513.78 7.85 
771.70 -513.74 8.03 
767.37 -509.48 7.80 
769.29 -512.69 8.28 
769.29 -513.11 8.28 
767.69 -514.69 8.00 
768.39 -513.87 8.18 
768.40 -514.68 8.18 
769.70 -513.87 8.52 
769.61 -514.10 8.50 
770.83 -513.26 8.68 
769.83 -514.66 8.55 
767.02 -508.61 8.44 
770.43 -512.98 9.43 
770.32 -513.20 9.40 
770.15 -513.37 9.35 
769.16 -514.87 9.20 
769.16 -515.21 9.21 
769.72 -514.64 9.35 
769.26 -515.73 9.24 
768.85 -516.27 9.14 
769.16 -513.53 9.91 
769.49 -514.27 10.03 
769.32 -514.44 9.98 
770.03 -514.13 10.19 
769.50 -515.59 10.06 
769.99 -515.70 10.30 
771.05 -514.63 10.51 
769.98 -514.28 11.05 
769.85 -515.09 11.04 
769.82 -515.44 11.05 
767.30 -510.00 6.71 
768.49 -513.60 6.85 
769.28 -513.08 7.05 
768.61 -513.67 6.88 
770.03 -512.57 7.23 
769.28 -513.39 7.04 
770.29 -513.08 7.27 
770.81 -514.15 7.35 
771.50 -514.42 7.50 
767.10 -509.23 7.37 
767.23 -509.58 7.39 
767.50 -510.00 7.29 
766.94 -510.12 7.31 
768.91 -513.24 7.73 
768.92 -513.56 7.73 
770.63 -513.56 8.14 
771.35 -513.55 8.31 
767.44 -509.39 8.02 
767.37 -509.55 8.00 
769.42 -512.49 8.52 
768.06 -513.67 8.28 
768.48 -514.29 8.39 
768.43 -514.50 8.38 
770.70 -512.69 8.86 
769.96 -513.45 8.78 
768.86 -515.24 8.49 
770.89 -512.91 8.91 
770.66 -513.05 8.84 
770.95 -514.65 9.03 
771.18 -515.18 9.09 
767.05 -508.51 8.66 
768.74 -509.57 9.14 
768.62 -509.83 9.14 
770.00 -509.78 9.51 
768.93 -512.92 9.21 
770.51 -512.87 9.66 
770.41 -513.09 9.63 
769.34 -514.65 9.43 
771.67 -512.42 9.99 
769.45 -515.73 9.48 
770.25 -515.19 9.69 
768.14 -508.83 9.73 
768.78 -508.96 9.93 
769.19 -509.03 10.06 
769.25 -513.27 10.14 
770.13 -513.95 10.42 
770.11 -514.20 10.42 
768.26 -509.29 10.55 
769.99 -514.89 11.28 
770.00 -515.08 11.29 
770.52 -524.75 10.97 
770.42 -525.07 10.96 
770.21 -525.76 10.93 
770.60 -524.54 11.92 
767.40 -510.18 6.28 
767.40 -509.68 6.99 
767.35 -509.98 6.97 
767.93 -509.69 7.11 
769.24 -513.06 7.28 
769.13 -513.55 7.24 
770.39 -513.12 7.54 
770.92 -514.01 7.63 
771.72 -513.60 7.82 
771.42 -513.99 7.74 
771.33 -514.16 7.71 
767.21 -509.30 7.64 
768.25 -510.27 7.87 
768.89 -511.18 8.01 
768.97 -513.01 7.99 
769.02 -513.34 8.00 
770.80 -513.36 8.43 
770.61 -513.49 8.38 
770.53 -513.72 8.35 
771.08 -513.41 8.50 
770.64 -514.09 8.37 
768.61 -510.69 8.69 
768.66 -513.51 8.68 
770.12 -513.42 9.06 
770.05 -513.54 9.04 
770.04 -514.13 9.04 
770.97 -514.55 9.28 
768.70 -509.53 9.45 
768.45 -509.85 9.38 
770.39 -512.94 9.89 
771.43 -512.44 10.19 
770.54 -515.00 10.01 
770.71 -523.62 10.18 
770.22 -507.65 11.38 
769.94 -514.75 11.52 
770.32 -524.40 11.09 
770.77 -524.51 11.22 
770.18 -525.06 11.08 
770.98 -524.71 11.29 
771.55 -524.93 11.46 
768.27 -508.63 6.90 
768.00 -509.73 6.80 
767.44 -507.93 7.43 
767.52 -508.21 7.44 
767.81 -508.71 7.49 
767.95 -509.14 7.51 
767.63 -509.42 7.43 
771.71 -513.07 8.24 
771.67 -513.28 8.23 
767.34 -507.88 8.08 
767.44 -508.61 8.09 
767.34 -508.89 8.06 
768.43 -509.79 8.31 
768.33 -509.97 8.29 
769.79 -509.61 8.65 
771.09 -512.79 8.92 
771.52 -512.81 9.03 
771.26 -513.16 8.95 
771.70 -512.72 9.07 
768.19 -508.35 8.98 
768.61 -508.94 9.09 
769.82 -508.76 9.42 
770.35 -512.83 9.53 
769.91 -513.41 9.42 
769.48 -507.52 10.07 
769.12 -507.80 9.97 
769.66 -508.12 10.13 
769.53 -508.53 10.09 
768.83 -509.06 9.89 
769.71 -508.44 10.14 
770.00 -514.77 10.27 
769.02 -507.63 10.67 
769.59 -507.45 10.84 
771.98 -522.68 10.88 
769.22 -514.34 10.85 
768.32 -508.47 7.16 
768.33 -509.10 7.13 
767.92 -509.87 7.02 
767.63 -507.93 7.72 
767.93 -508.53 7.77 
768.07 -508.41 7.81 
767.94 -508.89 7.76 
767.75 -509.12 7.71 
771.25 -512.09 8.41 
771.79 -512.98 8.51 
772.16 -513.46 8.58 
767.39 -507.69 8.35 
767.59 -508.24 8.39 
767.43 -508.63 8.34 
768.37 -509.81 8.55 
771.00 -512.62 9.15 
771.36 -512.55 9.24 
771.78 -512.54 9.34 
768.65 -508.46 9.36 
768.76 -508.71 9.39 
769.59 -508.66 9.62 
769.95 -508.37 9.72 
769.84 -508.56 9.69 
770.44 -512.68 9.81 
770.73 -513.42 9.89 
769.66 -507.15 10.39 
769.21 -507.64 10.26 
769.75 -508.17 10.42 
768.99 -508.74 10.20 
768.87 -508.88 10.16 
769.72 -508.25 10.41 
770.28 -514.13 10.60 
770.14 -514.32 10.56 
769.04 -507.43 10.94 
769.65 -507.02 11.14 
769.67 -507.25 11.14 
771.65 -521.59 11.02 
771.10 -524.12 12.00 
768.71 -509.49 7.26 
769.15 -510.72 7.30 
772.67 -513.17 7.91 
767.41 -507.80 7.75 
767.49 -508.28 7.75 
767.95 -509.18 7.83 
767.58 -509.64 7.73 
770.66 -512.36 8.34 
767.23 -508.02 8.38 
767.30 -508.70 8.39 
768.77 -508.95 8.74 
768.36 -509.92 8.62 
768.20 -510.08 8.58 
770.90 -512.85 9.19 
771.44 -512.65 9.33 
769.89 -508.87 9.77 
769.60 -508.97 9.69 
769.04 -507.77 10.29 
769.44 -507.60 10.41 
769.52 -508.44 10.43 
768.70 -509.16 10.19 
766.94 -519.44 9.84 
769.61 -507.30 11.21 
769.49 -507.49 11.17 
769.52 -507.73 11.18 
771.24 -523.00 11.10 
768.44 -527.02 10.33 
771.41 -524.17 12.18 
771.00 -524.22 12.06 
767.85 -508.50 7.27 
767.83 -509.35 7.24 
767.65 -508.07 7.95 
767.49 -507.12 8.63 
768.95 -508.79 8.95 
768.64 -508.98 9.61 
768.31 -506.69 10.27 
769.67 -506.92 10.67 
769.35 -507.54 10.57 
769.71 -507.20 10.68 
769.55 -507.48 10.63 
769.57 -508.39 10.63 
771.52 -508.75 11.19 
769.53 -507.08 11.39 
768.98 -507.54 11.21 
770.62 -507.07 11.73 
771.30 -507.54 11.94 
770.94 -507.94 11.83 
767.64 -508.39 8.85 
767.43 -508.72 8.80 
767.66 -507.12 9.59 
769.67 -506.67 10.90 
767.73 -528.53 9.66 
769.23 -527.14 9.90 
769.70 -507.15 10.91 
770.23 -507.11 11.06 
769.62 -507.15 11.66 
770.73 -506.95 12.01 
771.45 -507.50 12.23 
767.84 -507.49 7.73 
767.03 -507.26 8.29 
767.80 -507.71 8.44 
768.15 -507.00 9.26 
767.69 -508.00 9.13 
767.64 -508.40 9.11 
767.85 -506.58 9.92 
769.32 -507.38 10.30 
768.75 -508.64 10.13 
769.21 -507.42 11.04 
770.86 -506.78 12.34 
767.98 -508.25 8.76 
767.49 -507.34 9.40 
768.20 -506.81 9.59 
767.71 -507.84 9.44 
767.64 -508.01 9.42 
769.20 -507.97 9.80 
769.24 -508.68 9.79 
769.25 -506.92 10.61 
769.44 -507.39 10.65 
768.83 -508.21 10.48 
769.68 -508.39 10.70 
769.42 -507.03 11.45 
769.85 -506.84 11.57 
768.85 -508.52 11.27 
772.25 -507.92 12.25 
768.26 -526.51 11.20 
768.22 -526.78 11.19 
769.13 -508.35 8.37 
767.74 -506.28 8.92 
767.56 -506.65 8.87 
767.91 -506.59 9.69 
768.16 -506.60 9.75 
768.51 -507.35 9.81 
768.72 -507.67 9.86 
770.04 -508.68 10.15 
768.85 -506.10 10.70 
770.23 -507.48 11.04 
770.40 -505.71 11.95 
769.45 -506.50 11.66 
769.26 -506.94 11.60 
770.46 -506.24 11.96 
770.32 -506.42 11.91 
770.46 -506.92 11.94 
768.16 -507.97 9.17 
769.90 -507.55 9.56 
769.68 -509.25 9.46 
769.63 -509.44 9.44 
768.82 -506.25 10.15 
769.65 -507.09 10.33 
769.28 -507.78 10.22 
770.74 -508.78 10.54 
766.61 -527.04 9.24 
770.09 -505.52 11.30 
769.42 -508.32 11.05 
770.69 -505.16 12.31 
770.52 -505.53 12.26 
766.51 -528.65 11.10 
766.80 -529.21 11.19 
768.32 -506.82 8.67 
768.16 -507.13 8.63 
766.79 -505.62 9.17 
767.39 -506.31 9.27 
769.63 -507.62 9.72 
768.83 -505.51 10.41 
768.37 -506.03 10.28 
768.58 -507.03 10.30 
769.89 -505.04 11.50 
769.47 -507.94 11.32 
770.86 -504.96 12.63 
770.18 -506.10 12.40 
771.30 -505.71 12.74 
771.37 -505.97 12.75 
768.65 -525.47 9.24 
767.45 -526.85 11.87 
766.67 -527.97 11.69 
769.96 -525.00 9.57 
769.88 -525.28 9.54 
769.42 -507.48 10.68 
771.31 -525.94 10.85 
769.32 -506.06 11.55 
770.54 -505.86 12.77 
771.56 -505.36 13.07 
767.32 -526.88 11.90 
769.33 -505.49 10.89 
769.02 -506.49 10.80 
769.31 -506.77 10.86 
769.36 -523.14 10.62 
769.74 -522.96 10.70 
769.78 -525.99 10.69 
770.49 -504.75 12.08 
770.74 -505.28 12.13 
771.41 -505.06 13.25 
767.70 -517.29 8.76 
770.92 -524.68 9.13 
766.52 -526.01 10.18 
767.12 -527.72 10.31 
766.81 -519.06 11.18 
770.98 -523.00 12.22 
767.92 -526.18 12.47 
766.67 -515.07 8.80 
767.04 -515.12 8.86 
768.05 -525.32 8.77 
767.73 -524.86 9.68 
766.89 -526.28 9.49 
766.71 -526.49 9.45 
766.52 -526.69 9.41 
766.54 -527.05 9.41 
767.02 -527.68 9.49 
770.33 -505.59 11.51 
767.92 -527.08 10.67 
767.03 -527.83 10.47 
767.46 -527.77 10.57 
767.81 -528.67 10.64 
767.66 -528.91 10.61 
766.90 -515.14 8.98 
769.50 -526.10 9.16 
768.96 -506.01 10.46 
768.12 -516.25 10.07 
767.19 -519.67 10.73 
767.87 -525.27 10.84 
767.62 -525.47 10.78 
771.63 -522.00 11.70 
771.45 -522.21 11.66 
771.48 -522.87 11.66 
770.21 -524.95 11.36 
768.65 -526.54 11.00 
767.70 -527.35 10.79 
770.30 -525.04 11.38 
768.41 -529.51 10.94 
769.86 -514.12 9.65 
767.45 -519.44 10.93 
769.76 -525.00 11.40 
768.63 -525.30 9.33 
771.98 -523.42 11.04 
772.11 -523.41 11.07 
769.89 -504.80 10.22 
767.81 -516.74 9.60 
766.83 -528.20 10.14 
769.36 -524.92 11.73 
768.31 -526.06 11.49 
767.41 -519.64 9.68 
771.26 -524.94 11.34 
