# .PCD v0.7 - Point Cloud Data file format
VERSION 0.7
FIELDS x y z
SIZE 4 4 4
TYPE F F F
COUNT 1 1 1
WIDTH 1639
HEIGHT 1
VIEWPOINT 0 0 0 1 0 0 0
POINTS 1639
DATA ascii
793.36 -304.88 11.01 
794.93 -306.09 11.38 
792.39 -307.97 9.55 
793.97 -306.03 10.94 
795.95 -306.33 12.59 
791.81 -305.23 9.87 
797.36 -316.92 10.09 
797.46 -317.19 10.11 
791.51 -312.57 9.76 
794.03 -305.74 10.12 
794.38 -306.16 10.13 
793.58 -305.86 10.93 
793.77 -306.19 10.93 
793.94 -306.28 11.20 
794.07 -306.61 11.18 
794.50 -306.90 11.11 
793.79 -305.36 11.03 
795.19 -309.04 11.12 
794.31 -307.08 10.93 
794.89 -308.05 10.92 
795.18 -308.36 11.19 
793.91 -306.10 10.97 
794.20 -306.74 10.95 
794.73 -307.40 10.97 
795.02 -307.83 11.22 
794.04 -305.51 11.06 
794.43 -306.36 11.16 
794.96 -307.33 11.27 
795.36 -307.73 11.05 
794.57 -305.63 11.40 
794.09 -304.80 11.16 
794.35 -305.12 11.17 
795.01 -305.99 11.44 
795.43 -305.74 11.31 
795.12 -307.21 12.22 
794.78 -306.27 12.26 
794.76 -305.89 12.30 
795.27 -306.87 12.29 
795.28 -306.59 12.33 
794.33 -307.00 10.09 
795.33 -306.72 10.29 
791.51 -312.50 10.02 
794.41 -307.28 10.95 
794.88 -308.08 10.95 
794.93 -308.45 11.16 
795.72 -309.19 11.23 
793.85 -305.92 11.01 
794.29 -306.49 11.03 
794.17 -306.82 10.96 
795.04 -307.80 11.14 
795.44 -308.41 11.02 
795.82 -308.72 11.30 
794.03 -305.54 11.09 
794.52 -306.16 11.11 
795.02 -307.16 11.33 
795.39 -307.47 11.12 
794.97 -306.14 11.44 
794.17 -304.89 11.20 
794.47 -305.19 11.22 
795.54 -305.77 11.36 
795.73 -308.22 12.25 
795.28 -306.94 12.30 
795.72 -307.72 12.30 
795.04 -306.26 12.34 
795.30 -306.61 12.35 
795.42 -306.78 13.52 
793.93 -306.81 10.86 
794.20 -307.11 10.88 
793.78 -305.88 10.95 
794.13 -306.48 10.94 
793.95 -305.24 11.06 
794.21 -306.16 11.00 
796.28 -315.59 10.25 
796.29 -315.22 10.30 
796.36 -314.56 10.39 
795.89 -313.25 10.45 
794.81 -307.77 10.91 
795.23 -308.66 10.88 
795.66 -309.05 11.16 
795.20 -307.69 11.00 
795.30 -308.02 10.98 
795.53 -308.37 11.10 
795.26 -307.37 11.05 
796.38 -308.76 11.34 
794.75 -305.76 11.39 
794.47 -304.87 11.21 
794.74 -305.47 11.18 
795.04 -305.28 11.50 
796.59 -305.35 11.56 
795.61 -308.14 12.15 
794.65 -306.25 12.18 
795.16 -306.79 12.22 
795.59 -307.49 12.23 
795.63 -307.81 12.19 
794.64 -305.60 12.26 
794.73 -305.92 12.24 
795.26 -306.52 12.28 
794.96 -305.26 12.37 
796.52 -307.11 12.48 
795.26 -304.91 12.48 
796.16 -308.30 12.51 
795.98 -307.61 12.55 
796.11 -306.62 12.70 
796.38 -306.97 12.71 
796.21 -307.29 12.64 
795.38 -306.65 13.43 
795.39 -306.35 13.47 
795.70 -306.00 13.59 
796.36 -306.98 13.63 
792.50 -304.98 9.86 
794.69 -307.70 10.11 
795.27 -308.35 10.13 
794.87 -307.44 10.18 
795.45 -308.04 10.20 
794.76 -304.89 10.47 
795.47 -313.05 10.46 
794.12 -307.14 10.93 
794.75 -308.03 10.94 
793.30 -305.14 11.02 
793.63 -305.69 11.02 
793.77 -305.75 11.04 
794.19 -306.21 11.06 
794.16 -306.67 10.99 
795.10 -307.42 11.08 
795.30 -307.68 11.09 
795.34 -308.31 11.02 
794.19 -305.89 11.10 
794.35 -304.71 11.28 
794.69 -305.37 11.26 
796.14 -315.17 10.33 
796.75 -315.75 10.38 
797.18 -316.60 10.62 
796.10 -314.68 10.38 
797.44 -316.17 10.47 
796.08 -313.71 10.50 
796.11 -314.04 10.46 
796.61 -314.40 10.52 
794.58 -308.16 11.12 
794.62 -307.54 11.21 
795.76 -309.15 11.23 
794.68 -307.22 11.26 
795.60 -308.51 11.28 
796.00 -308.89 11.31 
794.34 -306.28 11.31 
795.32 -306.60 11.46 
795.19 -306.91 11.40 
795.17 -305.04 11.62 
794.94 -307.19 12.18 
795.59 -308.10 12.20 
795.15 -306.54 12.30 
795.17 -306.85 12.27 
795.66 -307.62 12.28 
794.41 -304.79 12.37 
794.41 -304.84 12.36 
794.39 -305.40 12.29 
794.70 -305.75 12.31 
794.85 -305.99 12.31 
795.34 -306.20 12.39 
794.97 -305.03 12.46 
797.08 -308.07 12.53 
796.01 -308.34 12.51 
796.05 -306.78 12.71 
797.06 -308.10 12.77 
796.23 -306.39 12.80 
797.11 -307.54 12.85 
795.35 -306.65 13.46 
795.50 -306.32 13.54 
795.33 -305.71 13.58 
796.49 -307.20 13.67 
795.69 -305.40 13.71 
795.97 -305.94 13.71 
797.20 -306.80 13.89 
792.44 -307.91 9.56 
792.49 -307.64 9.60 
794.98 -308.34 10.17 
793.23 -304.88 10.07 
794.07 -305.75 10.33 
794.44 -306.55 10.29 
794.69 -306.18 10.38 
795.43 -307.14 10.39 
795.65 -307.46 10.39 
791.77 -313.46 9.75 
791.82 -313.21 9.79 
796.07 -314.64 10.45 
796.18 -314.93 10.44 
796.16 -314.40 10.50 
796.15 -313.33 10.63 
794.88 -307.50 11.10 
795.10 -307.93 11.09 
795.25 -308.33 11.07 
795.44 -308.63 11.07 
793.71 -305.48 11.13 
793.84 -305.77 11.12 
794.13 -306.18 11.12 
794.78 -307.19 11.12 
796.00 -308.90 11.15 
794.01 -305.13 11.23 
795.18 -306.84 11.24 
795.35 -306.51 11.32 
795.29 -326.77 8.89 
796.59 -315.95 10.65 
796.70 -315.91 10.42 
797.31 -315.78 10.81 
797.68 -316.47 10.81 
797.70 -315.67 10.65 
798.04 -315.42 10.75 
795.42 -308.79 11.28 
795.34 -307.87 11.37 
794.97 -306.66 11.45 
795.53 -307.28 11.49 
795.75 -307.59 11.49 
796.40 -308.17 11.55 
798.30 -310.71 11.49 
796.21 -305.99 11.78 
792.28 -320.91 10.30 
792.45 -316.89 10.77 
794.52 -306.46 12.24 
795.27 -307.32 12.29 
795.52 -307.55 12.31 
795.83 -308.14 12.31 
796.01 -308.40 12.31 
794.79 -305.79 12.38 
794.70 -306.06 12.33 
795.54 -306.91 12.40 
794.44 -304.84 12.43 
794.89 -305.47 12.45 
795.48 -306.61 12.43 
794.95 -305.11 12.51 
795.37 -305.66 12.53 
795.93 -306.23 12.58 
796.56 -307.13 12.60 
795.74 -305.29 12.66 
792.46 -321.24 10.31 
795.63 -306.41 12.72 
795.81 -306.08 12.80 
796.84 -307.02 12.91 
796.95 -306.69 12.97 
795.03 -305.88 13.53 
795.05 -305.56 13.58 
795.13 -305.82 13.57 
795.77 -305.41 13.78 
794.41 -307.00 10.12 
794.96 -307.89 10.10 
795.31 -308.19 10.12 
794.51 -306.70 10.17 
795.39 -307.27 10.25 
795.81 -307.55 10.28 
796.08 -315.17 10.26 
796.10 -314.41 10.35 
796.16 -314.88 10.31 
796.24 -313.95 10.43 
795.43 -312.14 10.50 
795.85 -312.72 10.51 
795.94 -313.02 10.49 
796.58 -313.64 10.54 
795.30 -311.13 10.60 
795.68 -311.52 10.62 
795.47 -311.79 10.55 
795.97 -312.41 10.57 
796.53 -313.33 10.57 
795.45 -311.08 10.63 
796.38 -312.07 10.69 
796.50 -310.24 10.94 
796.53 -310.56 10.90 
793.33 -304.78 11.02 
793.60 -305.49 10.98 
794.20 -306.15 11.01 
794.34 -306.45 11.00 
795.06 -307.25 11.03 
796.90 -309.91 11.06 
793.78 -305.00 11.07 
794.48 -305.80 11.11 
795.06 -306.94 11.07 
794.73 -305.80 11.15 
796.35 -306.49 11.38 
797.18 -315.37 10.69 
797.39 -315.66 10.57 
797.65 -316.10 10.70 
797.90 -316.47 10.70 
798.01 -315.95 10.53 
794.42 -306.83 11.18 
794.91 -307.42 11.21 
795.50 -307.70 11.29 
795.89 -308.32 11.29 
796.94 -309.63 11.10 
794.81 -306.20 11.34 
798.55 -311.25 11.44 
796.59 -307.99 11.46 
798.46 -310.29 11.54 
794.91 -327.21 9.75 
795.04 -326.98 9.80 
792.63 -317.31 10.62 
794.11 -306.02 12.06 
794.06 -305.20 12.15 
794.98 -306.14 12.23 
795.20 -307.03 12.16 
794.12 -304.73 12.23 
794.82 -305.56 12.27 
794.93 -305.83 12.26 
795.44 -306.37 12.30 
795.86 -306.68 12.35 
796.29 -307.21 12.37 
798.07 -309.36 12.48 
798.26 -309.29 12.53 
796.72 -306.51 12.56 
795.69 -305.48 12.69 
795.96 -305.98 12.68 
796.22 -306.26 12.70 
796.28 -306.55 12.68 
796.97 -306.70 12.81 
796.39 -304.95 12.91 
798.03 -307.45 12.95 
795.04 -304.69 13.53 
795.37 -305.24 13.53 
795.44 -304.91 13.60 
796.04 -305.45 13.67 
796.23 -305.74 13.67 
795.21 -308.35 10.06 
794.50 -306.59 10.16 
794.83 -305.96 10.29 
796.19 -307.69 10.31 
796.39 -315.26 10.28 
797.00 -315.90 10.32 
796.03 -313.67 10.40 
796.17 -314.00 10.39 
796.67 -314.69 10.40 
796.79 -314.96 10.39 
797.22 -315.23 10.44 
797.37 -315.63 10.43 
797.33 -315.96 10.38 
795.40 -311.88 10.49 
796.17 -313.37 10.46 
796.78 -314.29 10.47 
797.16 -314.92 10.47 
795.50 -311.27 10.59 
795.82 -312.21 10.53 
796.02 -312.49 10.54 
796.60 -313.06 10.58 
795.75 -311.56 10.60 
796.12 -312.16 10.60 
796.56 -312.75 10.61 
795.89 -310.99 10.70 
796.62 -310.60 10.88 
793.77 -305.50 10.97 
793.74 -305.79 10.93 
794.36 -306.56 10.95 
794.51 -306.84 10.94 
795.16 -307.38 11.00 
795.15 -307.64 10.97 
796.95 -310.23 10.99 
793.62 -304.91 11.02 
794.03 -305.22 11.06 
794.67 -306.21 11.05 
797.14 -309.90 11.07 
796.67 -306.79 11.36 
796.77 -315.94 10.52 
797.12 -315.65 10.62 
797.53 -316.39 10.61 
797.32 -315.40 10.69 
798.39 -316.79 10.73 
798.88 -316.31 10.64 
794.56 -307.91 11.04 
795.72 -308.16 11.23 
796.12 -308.60 11.26 
795.14 -306.05 11.38 
795.17 -305.75 11.42 
795.41 -305.42 11.51 
795.87 -304.76 11.68 
795.05 -326.73 9.79 
795.44 -327.17 9.83 
792.15 -320.74 10.10 
792.44 -317.57 10.50 
797.86 -316.40 11.53 
796.16 -312.89 11.58 
797.86 -315.26 11.67 
798.08 -316.09 11.62 
795.37 -307.42 12.10 
794.12 -305.22 12.11 
794.24 -305.46 12.11 
794.71 -305.66 12.18 
794.91 -305.95 12.19 
795.11 -306.22 12.20 
794.26 -304.83 12.20 
795.49 -306.58 12.23 
796.53 -307.54 12.33 
796.77 -306.88 12.47 
798.05 -307.05 12.72 
795.70 -305.85 12.58 
796.19 -306.69 12.58 
796.54 -307.30 12.58 
796.26 -306.11 12.67 
797.14 -307.58 12.68 
797.18 -307.89 12.65 
796.44 -305.47 12.79 
797.21 -306.93 12.77 
796.34 -304.79 12.85 
795.26 -304.88 13.50 
795.62 -305.30 13.52 
795.55 -305.60 13.47 
796.30 -305.79 13.62 
796.33 -306.11 13.58 
797.44 -306.28 13.83 
794.68 -306.98 10.18 
794.72 -307.22 10.16 
795.19 -307.95 10.16 
795.50 -308.33 10.16 
794.38 -306.07 10.24 
795.53 -307.45 10.27 
795.97 -307.69 10.32 
794.71 -304.99 10.43 
796.05 -314.21 10.37 
796.04 -314.47 10.34 
795.90 -313.56 10.42 
796.22 -313.86 10.45 
796.31 -314.02 10.45 
795.28 -311.56 10.54 
796.15 -313.25 10.51 
797.18 -314.74 10.53 
795.36 -311.22 10.60 
795.61 -311.64 10.60 
795.67 -312.09 10.55 
796.08 -312.35 10.60 
796.11 -312.65 10.57 
796.42 -312.96 10.60 
795.44 -310.96 10.65 
795.80 -310.88 10.73 
796.45 -310.50 10.90 
793.84 -305.65 11.00 
794.18 -306.03 11.01 
794.50 -306.30 11.04 
794.52 -306.58 11.01 
794.76 -306.82 11.03 
795.02 -307.36 11.01 
797.01 -310.13 11.05 
793.87 -305.06 11.08 
794.83 -306.18 11.12 
797.30 -309.78 11.15 
794.33 -304.78 11.20 
796.46 -306.78 11.36 
795.33 -326.76 9.08 
796.76 -314.81 10.67 
797.20 -315.46 10.68 
797.46 -315.80 10.69 
797.58 -316.13 10.68 
797.93 -316.48 10.71 
798.15 -316.83 10.71 
797.47 -315.18 10.77 
794.68 -307.37 11.15 
795.01 -307.59 11.19 
796.16 -308.72 11.28 
795.10 -306.74 11.31 
795.53 -307.26 11.33 
795.73 -307.76 11.31 
796.86 -308.36 11.46 
796.72 -308.10 11.46 
798.56 -310.85 11.49 
797.36 -308.02 11.59 
792.63 -319.69 10.03 
795.18 -327.14 9.78 
794.78 -325.62 9.86 
794.74 -325.90 9.82 
795.10 -326.33 9.85 
795.33 -326.68 9.86 
796.31 -312.45 11.68 
793.75 -305.65 12.00 
794.07 -305.22 12.12 
795.35 -307.14 12.15 
794.17 -304.94 12.18 
794.50 -305.17 12.22 
794.74 -305.52 12.23 
795.17 -306.20 12.23 
796.07 -307.92 12.41 
795.20 -305.89 12.28 
795.52 -306.43 12.28 
796.07 -306.95 12.33 
796.03 -306.39 12.59 
795.73 -304.88 12.72 
796.67 -306.52 12.51 
796.38 -306.66 12.64 
796.23 -306.05 12.68 
797.05 -307.22 12.71 
797.28 -306.88 12.80 
798.00 -307.44 12.89 
795.38 -304.69 13.56 
795.31 -305.01 13.50 
795.69 -305.24 13.56 
796.36 -305.43 13.69 
796.35 -305.75 13.64 
796.77 -305.79 13.93 
797.15 -306.38 13.95 
797.48 -305.11 14.19 
795.05 -308.29 10.12 
795.40 -308.55 10.15 
795.16 -307.98 10.17 
795.51 -307.64 10.27 
796.16 -308.76 10.25 
794.60 -305.24 10.40 
794.53 -304.79 10.44 
795.54 -313.66 10.36 
796.12 -314.53 10.37 
796.32 -314.13 10.45 
795.28 -311.68 10.55 
795.40 -311.92 10.54 
795.87 -312.45 10.57 
796.36 -313.31 10.56 
796.54 -313.89 10.52 
796.95 -314.77 10.50 
795.61 -311.60 10.62 
796.00 -312.15 10.63 
796.42 -312.69 10.64 
795.68 -310.73 10.74 
795.76 -311.19 10.70 
796.85 -313.01 10.69 
797.15 -312.93 10.75 
796.03 -310.63 10.82 
793.76 -305.70 11.00 
794.24 -306.77 10.95 
794.59 -306.99 10.99 
796.57 -310.26 10.97 
793.66 -304.81 11.09 
793.73 -305.26 11.05 
794.12 -305.90 11.04 
794.41 -306.45 11.03 
795.39 -307.41 11.09 
796.70 -309.94 11.03 
794.71 -306.05 11.14 
795.65 -307.05 11.19 
797.15 -309.55 11.17 
797.27 -315.53 10.70 
798.18 -316.53 10.76 
794.63 -307.55 11.14 
795.08 -307.80 11.19 
795.67 -308.04 11.28 
796.19 -308.27 11.35 
795.65 -305.35 11.60 
795.17 -326.30 9.86 
795.22 -326.59 9.84 
795.13 -325.96 9.88 
796.07 -314.65 11.37 
795.66 -313.17 11.46 
795.85 -313.46 11.47 
797.46 -315.21 11.60 
797.61 -315.47 11.61 
801.00 -321.27 11.67 
796.09 -312.54 11.63 
796.26 -312.87 11.63 
797.98 -315.00 11.74 
796.61 -311.33 11.90 
793.97 -306.07 12.00 
794.22 -306.28 12.03 
794.14 -305.12 12.17 
794.26 -305.49 12.14 
794.66 -306.45 12.10 
794.97 -306.68 12.14 
795.20 -307.25 12.11 
794.40 -305.34 12.19 
794.70 -305.83 12.20 
794.51 -304.79 12.29 
795.92 -306.71 12.44 
795.84 -305.85 12.63 
796.13 -306.25 12.64 
796.42 -306.72 12.55 
795.67 -304.82 12.72 
795.91 -305.66 12.67 
796.15 -305.99 12.68 
796.58 -306.34 12.53 
796.37 -305.27 12.82 
796.33 -305.33 12.80 
791.74 -319.47 10.79 
797.20 -307.02 12.78 
797.08 -307.35 12.71 
797.23 -306.76 12.81 
796.77 -304.94 12.95 
798.08 -307.55 12.90 
795.14 -305.18 13.44 
795.32 -305.44 13.45 
795.64 -305.67 13.49 
795.29 -304.81 13.53 
796.73 -305.95 13.90 
796.72 -305.69 13.93 
797.18 -306.52 13.93 
797.40 -305.20 14.16 
796.29 -304.99 14.85 
795.03 -307.98 10.15 
795.62 -308.79 10.15 
796.45 -309.02 10.26 
795.11 -305.07 10.51 
791.95 -314.97 9.70 
796.15 -314.34 10.36 
796.82 -314.86 10.43 
797.05 -315.15 10.44 
797.60 -316.06 10.44 
796.61 -314.00 10.49 
797.03 -314.56 10.51 
796.84 -313.68 10.58 
796.35 -311.95 10.70 
796.49 -312.24 10.69 
796.90 -313.07 10.66 
794.31 -306.58 10.98 
794.81 -307.19 11.00 
794.79 -307.49 10.96 
795.19 -307.72 11.01 
796.94 -310.65 10.97 
797.07 -310.94 10.96 
794.17 -305.55 11.09 
794.26 -305.98 11.05 
794.84 -306.92 11.04 
797.55 -311.16 11.03 
797.65 -311.45 11.01 
794.33 -305.05 11.19 
795.89 -306.58 11.29 
797.37 -317.13 10.49 
796.51 -315.34 10.54 
797.40 -316.52 10.57 
797.48 -316.85 10.55 
797.30 -315.92 10.62 
797.51 -316.22 10.63 
798.05 -317.20 10.62 
798.81 -317.52 10.73 
795.19 -308.36 11.13 
795.04 -308.08 11.13 
796.12 -309.77 11.13 
795.62 -307.70 11.29 
795.89 -308.55 11.24 
796.09 -308.84 11.24 
796.47 -309.38 11.25 
795.74 -305.58 11.58 
797.93 -308.89 11.59 
796.41 -305.48 11.72 
795.55 -326.72 9.81 
792.72 -316.94 10.55 
796.64 -315.58 11.33 
795.88 -314.18 11.34 
796.37 -314.43 11.41 
796.26 -313.87 11.46 
797.13 -315.25 11.48 
796.62 -313.56 11.58 
797.91 -315.81 11.58 
801.50 -320.60 11.79 
801.46 -320.90 11.74 
794.13 -307.21 11.87 
794.32 -306.54 12.00 
794.35 -306.79 11.97 
794.30 -306.07 12.06 
794.71 -306.39 12.10 
794.51 -306.79 12.01 
794.73 -306.98 12.03 
795.29 -307.47 12.08 
794.74 -305.76 12.20 
794.82 -306.10 12.17 
795.24 -307.18 12.11 
796.64 -308.87 12.38 
794.52 -304.96 12.26 
794.72 -305.37 12.25 
795.00 -304.74 12.39 
796.52 -307.51 12.53 
796.88 -307.91 12.56 
796.58 -307.04 12.60 
797.56 -308.13 12.68 
796.20 -305.63 12.71 
796.71 -306.15 12.75 
791.54 -319.67 10.64 
798.13 -308.36 12.77 
794.29 -325.87 10.62 
795.47 -305.93 13.39 
795.48 -305.29 13.49 
795.77 -306.16 13.43 
795.80 -305.52 13.53 
797.15 -306.61 13.86 
796.21 -304.75 13.74 
797.19 -306.10 13.94 
797.77 -306.05 14.09 
791.74 -314.36 9.72 
795.67 -313.74 10.34 
795.98 -313.41 10.44 
797.50 -314.99 10.53 
795.80 -310.80 10.74 
795.83 -311.09 10.70 
796.15 -311.32 10.74 
793.72 -305.75 10.99 
794.46 -306.66 11.01 
796.42 -310.37 10.91 
793.70 -304.96 11.09 
793.91 -305.21 11.10 
793.90 -305.63 11.04 
794.24 -305.83 11.08 
794.50 -306.34 11.06 
794.69 -306.90 11.03 
796.62 -309.72 11.03 
796.80 -309.98 11.03 
793.82 -304.75 11.15 
794.13 -305.25 11.14 
794.85 -305.92 11.19 
796.21 -314.83 10.52 
797.15 -315.70 10.60 
797.34 -316.30 10.56 
796.40 -313.72 10.70 
797.53 -316.02 10.63 
794.73 -307.22 11.18 
794.89 -307.47 11.18 
795.22 -307.70 11.22 
794.57 -305.79 11.34 
795.13 -306.47 11.36 
795.26 -306.83 11.33 
795.79 -307.89 11.30 
796.27 -308.41 11.33 
794.97 -305.72 11.42 
795.29 -305.93 11.46 
795.67 -306.12 11.50 
795.46 -305.27 11.57 
796.22 -304.77 11.78 
797.91 -307.82 11.72 
795.18 -326.36 9.72 
794.96 -325.40 9.78 
794.94 -325.68 9.74 
795.19 -326.12 9.74 
795.07 -325.18 9.82 
792.07 -315.24 10.58 
795.32 -327.36 9.92 
792.38 -319.74 10.12 
792.70 -315.54 10.68 
792.64 -315.76 10.64 
795.88 -313.23 11.44 
796.58 -314.46 11.44 
796.03 -312.67 11.55 
796.04 -312.94 11.51 
796.57 -314.07 11.48 
796.96 -314.85 11.47 
797.26 -313.94 11.65 
797.71 -315.14 11.59 
802.21 -322.29 11.70 
796.64 -312.28 11.73 
796.58 -312.54 11.68 
797.98 -314.49 11.73 
802.31 -321.92 11.76 
793.92 -305.76 12.03 
794.09 -306.07 12.02 
794.10 -305.07 12.17 
794.26 -305.57 12.13 
794.79 -306.32 12.14 
794.42 -305.22 12.21 
794.67 -304.81 12.32 
796.23 -306.33 12.62 
796.21 -306.76 12.55 
796.48 -307.01 12.58 
795.85 -304.95 12.72 
796.24 -305.83 12.68 
796.54 -306.63 12.64 
797.23 -307.16 12.72 
797.28 -306.95 12.76 
801.77 -324.21 11.64 
799.08 -316.18 11.98 
793.80 -326.54 10.36 
794.90 -326.51 10.63 
794.07 -324.61 10.64 
795.17 -325.28 10.82 
795.44 -304.80 13.55 
800.78 -325.89 12.11 
796.68 -305.51 13.89 
794.65 -307.14 10.20 
794.33 -306.12 10.26 
794.83 -305.09 10.47 
795.22 -306.18 10.41 
795.41 -305.53 10.52 
791.62 -314.18 9.72 
795.34 -311.73 10.53 
796.52 -313.80 10.49 
795.44 -311.42 10.59 
796.66 -312.59 10.67 
796.94 -312.86 10.69 
793.83 -305.28 11.07 
793.74 -305.61 11.01 
794.06 -305.96 11.02 
794.33 -306.32 11.03 
794.32 -306.63 10.98 
794.47 -306.93 10.97 
796.81 -310.16 11.01 
793.60 -304.76 11.09 
793.85 -305.01 11.11 
796.67 -309.88 11.02 
794.27 -304.79 11.21 
795.23 -306.63 11.16 
797.10 -309.46 11.15 
797.33 -315.58 10.65 
794.68 -307.51 11.13 
795.15 -307.71 11.19 
794.94 -306.46 11.31 
794.88 -306.88 11.24 
795.24 -307.09 11.29 
795.16 -305.97 11.41 
795.20 -306.22 11.39 
795.31 -305.70 11.47 
795.28 -304.99 11.56 
795.63 -305.23 11.60 
796.00 -305.09 11.68 
795.04 -325.22 9.81 
791.86 -315.32 10.51 
792.22 -315.28 10.60 
794.96 -326.65 9.92 
795.08 -326.39 9.97 
795.35 -327.05 9.96 
795.60 -327.42 9.97 
792.75 -321.55 9.99 
796.13 -314.26 11.36 
796.27 -314.52 11.36 
796.15 -313.66 11.44 
796.27 -313.93 11.43 
802.78 -324.59 11.55 
802.72 -324.86 11.51 
795.99 -312.52 11.55 
796.45 -313.37 11.54 
801.23 -320.25 11.72 
802.16 -321.87 11.73 
796.79 -312.12 11.78 
797.95 -314.63 11.70 
793.75 -305.67 12.00 
793.96 -306.09 11.98 
796.89 -310.83 11.97 
797.10 -310.47 12.06 
794.16 -305.02 12.17 
794.26 -305.22 12.17 
794.75 -305.62 12.22 
795.02 -306.19 12.19 
796.03 -306.42 12.54 
796.12 -306.09 12.60 
796.35 -306.64 12.58 
797.15 -307.07 12.69 
797.37 -306.68 12.79 
796.87 -305.24 12.88 
793.36 -325.95 10.30 
793.93 -324.40 10.61 
801.42 -322.38 12.64 
796.75 -305.69 13.85 
797.36 -305.85 13.98 
797.45 -305.04 14.11 
791.62 -313.56 9.87 
791.66 -313.30 9.91 
795.78 -314.49 10.36 
793.48 -305.72 11.02 
793.31 -304.85 11.10 
794.28 -306.31 11.10 
794.10 -306.70 11.01 
794.58 -305.57 11.25 
794.64 -305.85 11.22 
797.51 -315.80 10.76 
797.64 -316.07 10.75 
796.68 -313.98 10.81 
798.13 -316.34 10.81 
798.22 -316.63 10.79 
794.85 -306.63 11.35 
798.63 -313.39 11.26 
794.53 -305.54 11.42 
795.40 -306.77 11.43 
795.57 -307.02 11.43 
796.04 -308.39 11.36 
795.04 -305.55 11.52 
795.08 -305.96 11.47 
795.79 -307.27 11.45 
795.90 -306.04 11.62 
797.14 -308.46 11.56 
795.72 -304.78 11.74 
792.89 -320.74 10.19 
796.08 -313.61 11.52 
796.08 -314.20 11.44 
795.45 -327.57 10.02 
794.99 -326.14 10.07 
795.97 -326.07 10.29 
802.53 -325.35 11.54 
796.63 -314.44 11.53 
802.55 -325.00 11.58 
796.02 -313.33 11.54 
797.62 -315.42 11.63 
802.77 -324.57 11.68 
795.83 -311.97 11.67 
796.36 -313.02 11.66 
796.92 -313.76 11.68 
800.72 -320.32 11.71 
802.94 -323.72 11.81 
801.12 -320.05 11.83 
802.76 -322.87 11.86 
796.52 -310.84 11.97 
797.20 -311.90 11.98 
798.80 -314.94 11.94 
793.82 -305.63 12.09 
794.13 -305.18 12.22 
794.63 -305.60 12.27 
795.87 -306.42 12.58 
795.67 -305.25 12.69 
795.82 -305.56 12.68 
796.05 -306.09 12.66 
796.36 -306.59 12.66 
795.88 -305.50 12.70 
796.34 -305.73 12.77 
797.05 -307.02 12.76 
796.71 -305.55 12.88 
797.01 -306.72 12.79 
795.11 -325.21 10.89 
791.66 -308.77 9.42 
791.71 -307.85 9.54 
791.68 -306.97 9.64 
791.75 -305.32 9.85 
791.80 -305.57 9.82 
791.88 -304.88 9.92 
796.02 -310.09 10.20 
798.41 -313.94 10.15 
798.06 -310.49 10.49 
792.23 -315.65 9.76 
792.41 -315.16 9.85 
792.85 -315.32 9.92 
797.15 -317.24 10.31 
797.80 -317.71 10.38 
798.38 -317.93 10.47 
797.68 -315.40 10.64 
798.01 -315.78 10.66 
794.93 -308.15 11.03 
794.95 -308.45 10.99 
795.38 -309.51 10.94 
794.88 -307.23 11.14 
795.27 -308.63 11.03 
795.48 -308.86 11.04 
794.96 -306.56 11.24 
794.97 -306.86 11.20 
795.91 -309.00 11.10 
796.95 -310.23 11.14 
795.11 -305.57 11.39 
795.20 -305.97 11.36 
795.39 -305.39 11.47 
795.93 -304.84 11.65 
797.69 -317.86 10.55 
797.53 -316.19 10.71 
798.88 -318.67 10.68 
799.31 -318.08 10.84 
795.28 -309.17 11.14 
795.71 -308.76 11.27 
796.29 -309.19 11.33 
796.10 -308.20 11.42 
796.83 -309.33 11.41 
796.66 -309.68 11.34 
797.07 -309.88 11.39 
796.12 -307.74 11.48 
797.62 -310.38 11.44 
796.09 -306.85 11.58 
796.64 -306.97 11.67 
796.89 -307.20 11.69 
798.17 -309.95 11.59 
797.27 -306.13 11.90 
797.27 -305.86 11.93 
792.52 -322.18 9.91 
791.63 -315.61 10.31 
791.79 -314.96 10.43 
792.17 -314.42 10.58 
792.22 -314.79 10.54 
797.10 -317.39 11.27 
796.95 -315.97 11.41 
795.12 -328.81 9.77 
797.61 -317.55 11.36 
803.28 -328.02 11.36 
803.45 -328.34 11.36 
797.43 -316.75 11.42 
803.04 -326.71 11.45 
803.40 -327.69 11.42 
797.05 -315.04 11.55 
797.97 -316.61 11.55 
798.54 -318.30 11.47 
799.20 -318.49 11.58 
802.77 -325.15 11.57 
798.36 -314.80 11.87 
798.07 -313.61 11.96 
795.53 -308.11 12.15 
795.46 -307.19 12.27 
795.78 -307.54 12.28 
795.44 -305.77 12.46 
795.66 -306.01 12.47 
795.72 -306.61 12.40 
796.97 -308.47 12.56 
795.74 -305.93 12.50 
797.59 -308.60 12.67 
796.37 -305.96 12.63 
797.50 -308.01 12.73 
798.00 -308.84 12.73 
792.29 -322.42 10.47 
795.94 -327.99 10.72 
796.72 -326.16 11.11 
796.77 -326.42 11.10 
795.52 -306.79 13.37 
796.15 -307.12 13.47 
796.08 -306.21 13.60 
795.92 -306.55 13.51 
796.67 -306.62 13.67 
794.69 -304.90 10.58 
791.58 -313.92 9.83 
795.60 -313.76 10.45 
796.25 -314.45 10.49 
796.43 -314.65 10.69 
796.56 -314.64 10.53 
795.43 -311.83 10.65 
796.61 -313.77 10.64 
797.24 -314.96 10.62 
796.64 -313.51 10.68 
793.63 -305.15 11.16 
793.80 -305.39 11.16 
793.69 -305.78 11.09 
794.37 -306.44 11.13 
794.31 -306.75 11.08 
793.65 -304.81 11.21 
794.64 -305.98 11.25 
794.65 -306.25 11.21 
796.49 -309.57 11.14 
795.15 -306.70 11.25 
795.41 -307.22 11.24 
796.93 -309.71 11.21 
796.90 -315.94 10.63 
797.05 -315.36 10.73 
796.97 -314.80 10.78 
797.08 -314.83 10.80 
798.03 -316.37 10.80 
797.62 -314.99 10.88 
797.97 -311.73 11.34 
795.22 -305.50 11.58 
795.82 -305.73 11.67 
795.44 -304.94 11.70 
796.37 -305.82 11.76 
792.00 -319.08 10.14 
792.65 -318.76 10.32 
796.89 -314.68 11.57 
794.68 -326.81 9.87 
795.32 -327.32 9.96 
796.09 -326.09 10.26 
796.20 -325.83 10.31 
797.47 -315.43 11.60 
796.97 -313.74 11.71 
797.52 -314.83 11.69 
797.60 -315.20 11.65 
797.99 -315.56 11.69 
798.36 -315.53 11.78 
801.19 -320.03 11.84 
803.03 -323.78 11.81 
799.40 -315.55 12.00 
797.67 -311.07 12.21 
797.74 -309.84 12.39 
795.83 -305.78 12.66 
796.67 -304.81 12.98 
800.89 -323.69 12.41 
794.53 -306.39 10.38 
794.64 -306.64 10.37 
794.71 -305.39 10.53 
794.81 -305.65 10.51 
794.86 -305.95 10.49 
791.52 -313.85 9.83 
795.74 -313.30 10.54 
796.26 -314.35 10.51 
796.51 -314.65 10.71 
796.91 -315.26 10.72 
795.47 -311.76 10.68 
795.49 -311.93 10.66 
796.93 -314.98 10.75 
795.80 -312.07 10.70 
795.97 -312.32 10.70 
796.64 -313.55 10.68 
793.46 -304.74 11.18 
793.50 -305.01 11.16 
793.81 -305.69 11.13 
793.84 -305.15 11.20 
794.68 -306.01 11.25 
796.16 -307.22 11.38 
796.90 -307.21 11.52 
799.10 -316.99 10.94 
795.18 -305.54 11.57 
795.36 -305.79 11.57 
795.34 -306.10 11.53 
795.79 -306.22 11.60 
792.45 -317.85 10.38 
795.89 -312.98 11.57 
796.45 -314.27 11.53 
796.88 -314.73 11.56 
795.95 -312.66 11.63 
796.86 -314.44 11.59 
797.46 -315.15 11.63 
797.58 -315.42 11.62 
796.54 -312.20 11.82 
795.26 -328.16 9.86 
796.20 -325.91 10.30 
797.54 -314.85 11.69 
798.37 -315.52 11.79 
801.01 -319.87 11.82 
802.72 -323.40 11.78 
801.28 -319.94 11.87 
797.41 -311.84 12.05 
799.29 -315.32 12.01 
796.94 -310.15 12.18 
797.53 -311.54 12.12 
795.89 -306.55 12.57 
796.06 -306.16 12.66 
796.12 -305.51 12.76 
796.35 -305.72 12.78 
794.15 -324.65 10.64 
791.71 -319.49 10.67 
801.84 -321.99 12.83 
801.81 -322.29 12.79 
796.74 -305.68 13.91 
793.36 -314.72 9.26 
798.41 -314.97 10.09 
796.07 -308.99 10.36 
796.10 -308.37 10.43 
796.41 -307.92 10.54 
796.50 -308.14 10.53 
799.30 -314.16 10.33 
791.53 -325.88 8.50 
791.62 -326.11 8.49 
791.79 -317.62 9.47 
792.07 -317.08 9.58 
792.25 -317.28 9.59 
792.46 -316.00 9.78 
792.63 -316.20 9.79 
793.22 -316.56 9.87 
797.45 -317.45 10.41 
796.88 -315.19 10.56 
797.60 -317.04 10.48 
797.76 -317.54 10.55 
797.98 -317.70 10.66 
796.77 -314.80 10.59 
797.14 -315.41 10.59 
797.85 -316.64 10.58 
796.99 -314.12 10.71 
797.24 -314.46 10.72 
797.85 -316.05 10.65 
795.21 -308.49 11.06 
795.10 -308.88 10.99 
799.76 -318.21 10.76 
795.57 -308.95 11.07 
796.56 -309.78 11.16 
797.59 -308.19 11.56 
798.42 -310.17 11.47 
798.84 -318.11 10.78 
796.41 -308.69 11.42 
796.49 -309.01 11.40 
797.02 -307.96 11.63 
797.47 -309.02 11.58 
797.78 -307.13 11.88 
795.91 -329.27 9.89 
794.27 -324.41 10.04 
791.55 -315.04 10.40 
791.73 -314.75 10.48 
792.04 -313.93 10.65 
792.52 -314.24 10.71 
796.74 -315.35 11.48 
797.61 -317.65 11.38 
798.68 -318.23 11.54 
798.91 -316.51 11.96 
798.23 -313.57 12.03 
797.27 -308.58 12.60 
797.66 -308.73 12.67 
792.99 -322.98 10.56 
791.65 -311.95 9.18 
798.26 -316.71 9.97 
798.00 -314.24 10.20 
795.64 -307.90 10.51 
795.93 -308.07 10.54 
795.94 -308.38 10.51 
796.18 -306.98 10.71 
796.03 -307.38 10.64 
796.14 -306.68 10.74 
796.80 -306.05 10.92 
792.13 -316.30 9.77 
792.33 -315.99 9.85 
796.88 -317.17 10.42 
796.29 -314.46 10.64 
797.16 -316.78 10.52 
797.51 -317.26 10.53 
797.76 -317.45 10.56 
797.86 -317.75 10.54 
796.30 -314.15 10.68 
797.43 -316.40 10.62 
798.20 -317.36 10.65 
796.59 -313.56 10.81 
797.68 -316.00 10.72 
796.58 -313.14 10.86 
797.73 -313.89 10.99 
797.18 -312.56 11.04 
800.22 -317.89 10.99 
798.99 -314.31 11.18 
795.66 -328.09 9.78 
795.78 -327.62 9.86 
791.62 -315.41 10.46 
791.90 -314.73 10.61 
791.51 -313.80 10.66 
791.87 -314.09 10.69 
792.21 -314.30 10.74 
797.07 -316.87 11.45 
797.72 -317.28 11.54 
796.98 -314.51 11.74 
798.28 -317.40 11.65 
798.39 -317.65 11.64 
798.55 -317.97 11.63 
797.90 -316.16 11.72 
792.26 -321.86 10.59 
792.54 -321.99 10.64 
803.16 -328.05 11.44 
801.76 -322.65 11.76 
802.91 -324.79 11.76 
802.73 -324.17 11.99 
803.05 -324.42 11.84 
792.06 -319.47 10.86 
793.08 -319.39 11.12 
793.17 -319.60 11.11 
800.40 -324.26 12.28 
802.12 -324.34 12.69 
802.55 -324.58 12.77 
802.52 -324.03 12.83 
793.08 -316.01 9.20 
792.88 -315.21 9.26 
793.09 -315.65 9.24 
797.42 -317.84 9.74 
797.53 -315.29 10.05 
797.59 -314.98 10.09 
795.55 -307.67 10.57 
795.66 -307.94 10.56 
791.91 -315.88 9.82 
791.95 -316.10 9.80 
792.35 -316.00 9.89 
792.54 -315.13 10.03 
796.34 -315.89 10.51 
796.43 -316.11 10.50 
796.97 -316.78 10.53 
796.19 -314.12 10.70 
797.28 -316.22 10.65 
796.45 -313.69 10.81 
797.22 -314.87 10.81 
796.53 -313.07 10.90 
797.47 -314.50 10.90 
799.42 -317.69 10.89 
797.34 -312.31 11.15 
797.32 -312.96 11.07 
800.23 -317.73 11.04 
799.47 -318.58 10.97 
792.32 -322.13 9.94 
792.39 -322.92 9.86 
792.53 -321.79 10.03 
796.35 -329.01 10.05 
791.66 -313.70 10.75 
791.79 -313.99 10.74 
791.70 -313.52 10.79 
792.36 -314.01 10.86 
796.70 -314.89 11.67 
797.52 -315.77 11.73 
796.91 -314.18 11.81 
797.74 -315.99 11.75 
797.19 -313.38 11.98 
801.86 -322.26 11.85 
802.67 -324.07 11.99 
803.70 -325.62 11.85 
798.26 -313.20 12.24 
802.08 -324.12 12.72 
802.57 -324.41 12.80 
802.56 -323.79 12.88 
791.76 -315.21 9.06 
792.70 -314.27 9.33 
792.82 -315.06 9.26 
792.93 -314.33 9.36 
793.03 -314.45 9.37 
797.27 -315.81 9.94 
795.18 -307.76 10.49 
795.56 -307.86 10.55 
795.68 -308.06 10.54 
795.65 -307.28 10.63 
795.97 -307.57 10.65 
796.30 -306.71 10.80 
791.99 -315.90 9.83 
792.17 -315.60 9.90 
792.90 -315.07 10.11 
797.12 -316.82 10.55 
797.14 -316.51 10.60 
797.65 -316.90 10.65 
797.65 -317.21 10.61 
797.99 -317.67 10.62 
796.49 -313.47 10.85 
796.75 -314.27 10.80 
797.43 -315.83 10.73 
797.45 -316.08 10.71 
798.26 -317.27 10.72 
796.46 -313.16 10.88 
796.61 -313.36 10.88 
797.48 -312.59 11.15 
796.18 -306.11 11.86 
796.71 -307.19 11.82 
792.28 -322.30 9.91 
792.33 -322.11 9.94 
792.41 -322.33 9.93 
792.51 -320.88 10.13 
792.51 -321.34 10.07 
793.70 -323.75 10.05 
795.58 -327.74 9.82 
797.66 -317.25 11.57 
797.42 -316.49 11.62 
797.66 -317.00 11.61 
798.12 -317.67 11.62 
798.36 -317.30 11.72 
798.49 -317.83 11.68 
792.12 -321.40 10.65 
792.22 -321.72 10.63 
792.49 -322.12 10.64 
798.66 -316.54 11.88 
798.89 -317.73 11.78 
799.17 -317.88 11.82 
797.59 -314.17 11.97 
800.12 -317.85 12.03 
797.91 -312.78 12.22 
793.47 -325.36 11.29 
800.67 -324.10 12.38 
801.94 -323.60 12.75 
791.92 -320.69 8.32 
791.65 -319.05 8.45 
792.85 -315.84 9.21 
792.97 -316.06 9.21 
792.55 -314.18 9.34 
793.09 -315.48 9.29 
797.46 -314.82 10.11 
796.53 -317.01 10.45 
796.40 -315.91 10.55 
796.98 -316.50 10.59 
796.51 -314.61 10.73 
797.08 -315.85 10.69 
796.93 -316.26 10.61 
797.50 -317.18 10.61 
797.26 -315.79 10.73 
797.44 -315.97 10.75 
797.79 -316.79 10.71 
797.97 -317.46 10.67 
798.82 -319.32 10.78 
797.09 -314.58 10.85 
797.38 -314.75 10.88 
797.98 -316.66 10.77 
798.21 -317.18 10.75 
798.95 -318.44 10.90 
799.13 -318.95 10.88 
798.96 -317.49 10.85 
798.26 -314.62 11.07 
798.49 -314.56 11.12 
800.34 -317.57 11.11 
799.34 -318.60 10.96 
792.22 -321.94 9.96 
792.28 -322.20 9.95 
795.91 -329.55 9.91 
792.44 -321.25 10.10 
792.43 -321.71 10.04 
792.55 -320.98 10.15 
792.68 -321.42 10.13 
795.62 -327.34 9.90 
796.88 -316.89 11.48 
796.59 -315.48 11.61 
796.81 -315.69 11.62 
797.02 -316.26 11.59 
796.91 -316.57 11.53 
797.53 -316.92 11.62 
798.09 -317.59 11.65 
797.03 -314.70 11.80 
797.57 -315.69 11.79 
797.62 -315.93 11.77 
798.10 -317.15 11.71 
798.20 -317.43 11.69 
798.42 -317.78 11.70 
792.10 -321.54 10.67 
792.54 -321.86 10.73 
791.63 -319.28 10.87 
792.81 -321.87 10.79 
803.24 -328.52 11.44 
798.93 -317.86 11.79 
801.61 -322.47 11.79 
795.28 -328.16 10.59 
801.50 -323.49 12.67 
791.79 -323.90 8.02 
792.21 -322.69 8.23 
792.39 -321.78 8.36 
792.36 -322.01 8.33 
792.75 -320.71 8.54 
792.33 -318.71 8.69 
792.44 -318.91 8.69 
792.36 -318.16 8.76 
792.45 -318.61 8.72 
791.53 -315.11 9.15 
791.54 -315.39 9.12 
792.48 -315.20 9.30 
792.78 -315.84 9.29 
792.74 -316.12 9.25 
792.32 -313.94 9.42 
792.78 -315.56 9.32 
792.38 -313.63 9.46 
792.70 -314.13 9.46 
793.15 -315.12 9.43 
797.41 -317.52 9.90 
796.98 -315.67 10.03 
797.52 -317.19 9.95 
797.82 -318.28 9.88 
796.91 -314.88 10.10 
798.48 -318.34 9.99 
797.79 -315.63 10.17 
799.01 -317.37 10.19 
799.40 -318.64 10.12 
799.55 -318.30 10.18 
796.50 -310.13 10.56 
796.64 -316.55 10.62 
796.85 -316.18 10.71 
797.22 -316.63 10.73 
797.90 -317.44 10.91 
798.92 -319.09 10.92 
798.92 -317.35 10.97 
799.05 -318.34 11.03 
799.23 -318.73 11.02 
799.48 -318.96 11.04 
799.19 -317.55 10.99 
800.31 -317.39 11.23 
799.22 -317.88 11.12 
799.88 -317.61 11.28 
792.72 -320.05 10.39 
793.23 -320.08 10.49 
796.89 -316.17 11.68 
796.89 -316.64 11.62 
796.75 -315.60 11.73 
797.35 -316.23 11.78 
798.12 -317.74 11.74 
791.53 -320.50 10.77 
791.65 -319.42 10.95 
803.24 -326.97 11.71 
791.94 -321.76 10.78 
791.90 -317.33 11.31 
792.16 -316.95 11.43 
791.86 -320.87 8.41 
791.85 -321.25 8.36 
792.12 -315.56 9.25 
792.33 -315.18 9.32 
792.01 -313.41 9.47 
792.23 -314.13 9.43 
792.45 -313.71 9.51 
796.71 -314.08 10.20 
796.71 -314.39 10.16 
796.94 -315.00 10.13 
796.97 -315.29 10.11 
797.34 -315.41 10.16 
797.92 -316.93 10.09 
798.24 -313.96 10.47 
797.75 -316.47 11.04 
798.04 -316.05 11.15 
798.50 -317.28 10.93 
798.96 -317.37 11.01 
800.33 -317.37 11.28 
795.43 -327.60 9.93 
795.65 -327.80 9.96 
797.20 -326.61 10.60 
797.26 -326.39 10.64 
797.99 -316.99 11.85 
798.19 -317.49 11.83 
798.34 -317.70 11.83 
791.63 -320.44 10.84 
791.84 -320.90 10.83 
791.99 -321.56 10.77 
802.46 -324.58 11.84 
803.17 -325.24 12.08 
791.58 -319.18 11.02 
792.00 -320.00 11.00 
791.94 -314.82 9.30 
792.05 -314.70 9.33 
792.17 -315.10 9.31 
791.96 -313.31 9.48 
796.70 -316.25 9.95 
796.90 -315.91 10.03 
797.22 -316.31 10.04 
797.81 -318.12 9.94 
798.64 -318.03 10.09 
799.22 -318.24 10.17 
799.52 -318.57 10.18 
792.98 -322.02 9.45 
793.75 -324.90 10.05 
795.50 -327.28 10.00 
802.88 -328.59 11.46 
802.57 -324.78 11.85 
802.62 -324.44 11.90 
791.55 -324.01 8.11 
796.69 -315.75 10.10 
797.36 -316.67 10.11 
797.50 -317.19 10.08 
797.62 -317.38 10.08 
797.40 -315.91 10.21 
797.42 -316.29 10.17 
797.65 -316.65 10.17 
797.62 -317.09 10.11 
797.36 -315.10 10.29 
798.22 -317.35 10.19 
798.85 -317.43 10.28 
799.03 -318.31 10.21 
799.16 -317.60 10.32 
799.66 -318.47 10.30 
797.59 -313.05 10.56 
798.05 -312.44 10.71 
800.89 -318.27 10.54 
792.81 -321.80 9.54 
792.17 -319.22 9.73 
793.45 -322.29 9.60 
797.73 -317.12 11.05 
797.54 -315.81 11.18 
797.75 -316.79 11.10 
797.88 -317.01 11.10 
798.20 -317.21 11.13 
798.27 -317.12 11.16 
798.58 -317.60 11.16 
798.93 -318.27 11.14 
799.27 -318.43 11.19 
799.44 -318.46 11.22 
799.53 -317.23 11.39 
800.72 -324.07 11.74 
803.04 -327.48 11.69 
801.37 -322.15 12.00 
802.62 -324.26 12.00 
791.79 -315.47 9.35 
791.69 -313.60 9.54 
791.93 -313.94 9.54 
791.91 -313.64 9.57 
792.18 -313.92 9.59 
796.61 -315.19 10.20 
796.85 -314.73 10.29 
797.25 -315.46 10.27 
797.30 -315.72 10.25 
797.36 -316.03 10.23 
797.52 -316.47 10.21 
797.72 -316.78 10.21 
797.49 -314.98 10.37 
798.18 -317.06 10.25 
798.30 -317.37 10.24 
798.74 -317.35 10.32 
798.93 -317.69 10.31 
798.50 -315.71 10.46 
799.42 -317.82 10.38 
800.14 -317.75 10.51 
792.52 -321.17 9.60 
792.15 -319.19 9.78 
793.56 -322.56 9.63 
795.45 -327.22 9.29 
792.84 -316.55 10.24 
797.27 -315.47 11.22 
797.55 -315.98 11.21 
797.61 -316.55 11.15 
797.73 -316.81 11.14 
798.35 -316.83 11.25 
798.43 -317.38 11.20 
798.83 -317.65 11.24 
798.68 -316.94 11.30 
798.69 -314.98 11.55 
792.77 -320.98 10.46 
792.78 -319.94 10.60 
802.80 -328.23 11.59 
803.48 -325.78 12.04 
791.78 -315.57 9.40 
791.60 -313.27 9.63 
791.62 -313.55 9.61 
791.83 -313.80 9.61 
791.79 -313.05 9.69 
796.32 -314.00 10.35 
797.08 -315.49 10.30 
797.25 -315.73 10.30 
797.55 -316.22 10.30 
797.34 -314.73 10.43 
797.27 -315.42 10.34 
797.51 -314.90 10.44 
798.79 -317.38 10.38 
798.93 -317.67 10.37 
797.75 -314.07 10.58 
798.25 -314.09 10.66 
800.14 -317.71 10.57 
798.11 -311.73 10.90 
800.75 -317.07 10.74 
791.95 -315.49 10.28 
792.72 -316.47 10.29 
797.28 -315.39 11.29 
797.42 -315.66 11.29 
797.57 -315.87 11.29 
795.33 -327.28 10.14 
802.83 -328.41 11.62 
801.39 -322.11 12.12 
803.12 -325.87 12.00 
803.33 -325.17 12.13 
797.34 -316.17 10.36 
798.25 -316.98 10.42 
797.53 -314.77 10.55 
796.29 -308.24 11.08 
800.09 -317.18 10.72 
792.11 -319.46 9.89 
795.41 -327.38 9.42 
795.68 -327.63 9.44 
803.01 -326.88 11.96 
798.47 -317.59 10.40 
798.89 -317.61 10.47 
796.18 -308.35 11.06 
796.35 -308.53 11.07 
803.04 -326.60 12.01 
792.37 -313.89 9.01 
792.22 -312.46 9.12 
792.45 -312.73 9.13 
797.00 -312.74 10.81 
798.79 -317.50 10.58 
792.82 -321.82 9.87 
802.94 -326.32 12.14 
803.51 -325.41 12.38 
795.76 -327.40 9.81 
796.68 -313.96 10.76 
795.18 -329.27 10.41 
796.35 -315.33 9.69 
796.44 -314.28 10.82 
795.82 -328.09 9.98 
796.47 -327.52 10.18 
791.62 -313.03 9.19 
791.66 -313.44 9.16 
791.97 -314.31 9.13 
796.50 -316.13 9.65 
795.40 -327.01 9.27 
795.50 -327.37 9.24 
794.52 -326.09 10.02 
797.11 -316.20 9.92 
797.11 -313.93 11.19 
794.34 -325.86 10.20 
796.38 -313.31 11.16 
800.13 -320.30 12.06 
793.77 -325.13 10.39 
792.74 -321.03 10.08 
801.95 -322.30 12.13 
801.95 -322.38 12.12 
802.49 -323.28 12.12 
802.56 -324.17 12.03 
795.35 -328.01 11.26 
797.94 -328.91 11.66 
801.12 -324.60 12.83 
801.65 -324.55 12.94 
795.55 -328.14 10.77 
795.82 -329.45 10.67 
795.81 -328.32 10.80 
792.14 -328.22 15.45 
794.85 -326.51 10.87 
795.70 -328.41 10.82 
795.86 -329.03 10.78 
795.86 -329.56 10.78 
796.37 -329.24 10.91 
