# .PCD v0.7 - Point Cloud Data file format
VERSION 0.7
FIELDS x y z
SIZE 4 4 4
TYPE F F F
COUNT 1 1 1
WIDTH 488
HEIGHT 1
VIEWPOINT 0 0 0 1 0 0 0
POINTS 488
DATA ascii
793.94 -304.12 11.28 
796.12 -295.44 12.78 
794.18 -302.51 11.49 
794.27 -303.92 13.42 
797.08 -297.70 12.68 
796.81 -296.73 12.76 
796.62 -296.17 13.96 
796.79 -296.91 12.76 
796.52 -295.59 14.06 
796.11 -295.57 14.02 
791.98 -303.28 10.13 
793.60 -304.55 11.10 
793.61 -304.23 11.14 
791.70 -300.96 10.15 
793.85 -304.62 11.12 
793.88 -304.34 11.16 
792.49 -303.65 10.02 
792.57 -302.72 10.15 
792.76 -302.16 10.25 
792.89 -301.76 10.32 
793.15 -301.64 10.38 
793.49 -300.94 10.53 
793.41 -301.28 10.47 
794.15 -304.42 11.28 
794.34 -304.10 11.36 
794.46 -304.52 12.42 
793.49 -303.86 10.24 
793.49 -303.24 10.32 
793.85 -302.55 10.47 
794.14 -304.63 11.32 
793.67 -303.62 11.36 
794.04 -303.91 11.39 
794.25 -304.14 11.41 
795.02 -303.68 11.62 
794.74 -302.82 11.67 
794.92 -303.09 11.67 
795.33 -302.66 11.81 
796.74 -296.84 12.85 
797.05 -297.15 12.87 
797.08 -297.44 12.84 
794.49 -304.53 12.48 
794.95 -304.19 12.63 
794.43 -304.63 10.41 
795.39 -303.92 10.66 
793.45 -304.46 11.08 
793.51 -303.82 11.17 
793.54 -304.12 11.14 
793.68 -303.49 11.25 
793.68 -302.53 11.37 
793.73 -303.00 11.32 
794.56 -301.73 11.65 
794.93 -301.95 11.69 
795.38 -301.80 11.79 
795.14 -304.68 11.59 
795.92 -304.27 11.79 
797.58 -303.73 12.18 
796.39 -296.37 12.70 
796.59 -296.65 12.70 
796.26 -295.70 12.77 
796.57 -295.99 12.79 
796.98 -296.89 12.75 
797.61 -297.37 12.80 
796.29 -294.98 12.87 
796.71 -295.88 12.83 
794.00 -304.29 12.26 
794.38 -303.58 12.44 
794.15 -302.51 12.53 
794.71 -302.71 12.63 
795.07 -303.01 12.67 
795.15 -302.92 12.69 
796.21 -295.44 13.96 
796.81 -295.93 14.02 
797.01 -296.22 14.02 
796.73 -295.65 14.04 
797.02 -295.91 14.07 
796.49 -294.64 14.14 
795.16 -304.38 13.60 
793.63 -304.60 11.06 
793.65 -303.98 11.14 
793.70 -304.27 11.11 
793.77 -303.54 11.22 
793.97 -302.98 11.33 
794.08 -303.28 11.31 
793.99 -302.68 11.37 
795.49 -302.22 11.72 
795.49 -301.75 11.78 
795.05 -304.52 11.55 
796.44 -296.06 12.70 
796.64 -296.71 12.65 
796.73 -297.02 12.63 
797.03 -297.28 12.65 
797.39 -297.50 12.69 
796.43 -295.38 12.79 
796.84 -296.27 12.75 
797.49 -297.18 12.94 
797.73 -297.47 12.95 
797.92 -297.74 12.95 
796.40 -294.97 12.84 
798.31 -297.52 12.86 
798.26 -297.99 12.99 
797.31 -295.38 12.96 
794.44 -303.86 12.36 
794.46 -304.48 12.29 
794.06 -303.06 12.39 
794.97 -304.03 12.46 
794.39 -302.93 12.48 
795.29 -303.33 12.62 
795.54 -303.00 12.72 
796.39 -295.78 13.90 
796.92 -296.00 13.98 
797.10 -296.27 13.98 
797.18 -296.57 13.95 
797.73 -297.10 14.00 
796.65 -294.97 14.07 
796.80 -295.25 14.06 
795.13 -304.43 13.53 
795.46 -304.05 13.66 
795.92 -303.64 13.82 
793.54 -304.68 11.06 
793.70 -304.33 11.14 
793.75 -303.86 11.21 
793.69 -303.27 11.27 
793.88 -302.46 11.41 
793.92 -302.72 11.38 
794.80 -302.50 11.58 
795.42 -301.93 11.77 
796.25 -296.16 12.69 
796.32 -295.76 12.75 
796.92 -296.54 12.77 
796.91 -296.92 12.71 
797.29 -297.14 12.76 
796.25 -294.68 12.89 
796.41 -295.30 12.83 
796.95 -296.17 12.82 
797.90 -297.39 13.02 
798.08 -297.68 13.02 
797.17 -295.33 12.97 
797.21 -295.79 13.01 
797.87 -296.68 13.11 
798.30 -297.07 12.96 
798.25 -297.45 12.90 
798.59 -297.71 13.05 
798.85 -298.16 13.11 
794.13 -304.60 12.22 
794.02 -304.06 12.27 
794.44 -304.58 12.29 
794.47 -303.57 12.43 
794.56 -304.20 12.36 
795.52 -304.56 12.52 
794.39 -302.64 12.54 
795.13 -303.71 12.56 
795.31 -303.02 12.68 
795.66 -302.65 12.81 
796.76 -295.94 13.98 
796.99 -296.21 13.99 
796.93 -295.50 14.08 
797.40 -296.40 14.05 
797.88 -296.93 14.08 
797.71 -296.33 14.13 
798.06 -296.54 14.17 
795.07 -304.13 13.56 
795.03 -304.46 13.51 
794.80 -303.30 13.62 
795.68 -303.65 13.78 
796.58 -303.07 14.07 
796.97 -295.61 15.27 
793.67 -304.52 11.13 
793.72 -303.89 11.22 
793.93 -304.13 11.23 
793.86 -302.94 11.37 
793.89 -303.32 11.33 
794.05 -302.83 11.42 
794.78 -302.25 11.63 
795.35 -301.73 11.81 
796.23 -295.81 12.76 
796.26 -296.12 12.72 
796.42 -296.46 12.71 
796.65 -296.69 12.72 
796.85 -296.97 12.72 
796.18 -295.08 12.84 
796.36 -295.35 12.84 
796.69 -296.28 12.78 
797.21 -297.13 12.77 
797.72 -297.61 12.89 
797.97 -297.82 13.00 
796.20 -294.70 12.90 
796.28 -294.98 12.88 
797.90 -297.19 12.89 
798.29 -297.76 13.07 
798.78 -298.32 13.09 
798.68 -297.81 13.05 
798.86 -298.24 13.12 
799.07 -298.55 13.12 
797.63 -295.07 13.12 
793.54 -304.37 12.14 
794.10 -304.46 12.25 
794.39 -304.06 12.37 
794.34 -304.43 12.31 
794.13 -303.05 12.45 
794.50 -303.74 12.43 
794.25 -302.67 12.53 
794.37 -303.17 12.48 
795.11 -303.19 12.64 
796.36 -295.75 13.95 
796.34 -295.45 13.99 
797.01 -296.18 14.03 
797.10 -296.52 14.00 
797.41 -296.75 14.03 
797.70 -296.98 14.06 
798.01 -296.88 14.29 
797.49 -295.58 14.22 
798.37 -297.04 14.19 
794.32 -304.17 13.39 
794.87 -304.31 13.51 
794.84 -303.68 13.59 
795.09 -304.55 13.52 
795.05 -303.35 13.69 
797.01 -295.87 15.27 
796.84 -294.80 15.40 
797.15 -295.43 15.37 
797.27 -294.97 15.47 
794.28 -304.59 11.23 
794.25 -304.14 11.29 
794.33 -303.68 11.36 
794.76 -303.48 11.47 
795.20 -303.00 11.62 
796.88 -297.06 12.73 
797.07 -297.36 12.72 
797.37 -297.98 12.70 
796.70 -296.02 12.83 
796.94 -296.90 12.76 
797.36 -297.60 12.75 
797.48 -297.86 12.74 
797.05 -296.22 12.87 
798.15 -297.93 12.85 
798.21 -298.33 12.90 
798.61 -298.57 13.03 
797.69 -296.76 13.09 
798.75 -297.83 13.15 
798.92 -298.33 12.95 
798.97 -298.77 13.07 
799.32 -299.20 13.08 
798.30 -296.88 13.19 
799.47 -298.56 13.11 
794.52 -303.98 12.39 
794.51 -303.69 12.43 
794.83 -304.16 12.44 
794.95 -304.49 12.42 
794.80 -303.40 12.54 
795.55 -304.23 12.58 
796.92 -296.37 13.99 
797.35 -297.25 13.96 
797.55 -297.52 13.96 
796.98 -295.54 14.13 
797.11 -295.86 14.11 
797.53 -296.42 14.12 
797.63 -296.74 14.09 
798.01 -297.67 14.04 
798.27 -297.93 14.05 
798.65 -297.89 14.28 
799.04 -297.96 14.21 
799.25 -298.46 14.33 
798.77 -297.13 14.42 
798.89 -297.50 14.39 
799.10 -297.94 14.37 
794.92 -304.21 13.51 
795.01 -304.55 13.48 
795.30 -304.40 13.57 
797.24 -296.30 15.27 
797.48 -296.50 15.29 
797.92 -295.88 15.49 
797.70 -295.21 15.55 
793.76 -304.50 11.17 
793.88 -303.94 11.26 
794.05 -304.35 11.24 
794.01 -302.96 11.42 
794.15 -303.36 11.39 
794.75 -302.19 11.66 
795.32 -302.23 11.77 
795.47 -301.82 11.85 
795.19 -304.42 11.63 
795.37 -304.68 11.63 
796.60 -296.64 12.77 
796.36 -296.05 12.80 
796.68 -296.25 12.83 
796.87 -296.54 12.83 
796.94 -296.91 12.79 
797.20 -297.12 12.81 
796.46 -295.34 12.92 
797.56 -297.28 12.86 
797.83 -297.61 13.03 
797.30 -295.74 13.18 
797.93 -296.86 13.15 
798.23 -297.32 12.98 
798.22 -297.81 13.08 
798.91 -298.24 13.15 
798.35 -297.04 13.21 
798.84 -297.77 13.03 
798.81 -297.94 13.17 
798.07 -296.05 13.29 
798.97 -297.31 13.12 
799.80 -298.33 13.31 
793.69 -304.55 12.15 
794.65 -304.51 12.36 
794.33 -303.03 12.51 
794.67 -303.85 12.46 
794.48 -302.64 12.59 
794.51 -303.28 12.51 
795.12 -303.38 12.62 
796.57 -295.63 14.07 
796.88 -296.22 14.04 
797.11 -296.04 14.12 
797.29 -296.31 14.11 
797.43 -296.67 14.09 
797.64 -296.92 14.10 
797.76 -297.23 14.08 
797.19 -295.61 14.20 
798.13 -296.90 14.33 
798.25 -296.10 14.47 
798.35 -296.36 14.46 
798.49 -297.05 14.39 
798.80 -297.28 14.29 
798.33 -295.64 14.56 
794.47 -304.01 13.44 
795.22 -304.53 13.54 
794.91 -303.57 13.61 
795.48 -304.00 13.68 
795.69 -303.87 13.75 
797.06 -295.73 15.35 
797.87 -296.86 15.36 
797.42 -295.13 15.53 
797.75 -295.74 15.51 
798.15 -295.97 15.56 
793.44 -303.92 11.17 
793.70 -304.41 11.16 
793.65 -303.52 11.27 
793.72 -303.91 11.23 
793.70 -303.13 11.33 
793.88 -303.24 11.35 
793.82 -302.76 11.40 
794.66 -302.04 11.65 
795.22 -303.83 11.70 
796.16 -304.42 11.80 
796.38 -304.09 11.89 
796.22 -295.81 12.78 
796.64 -296.59 12.76 
797.00 -296.89 12.78 
797.11 -297.24 12.76 
796.25 -295.38 12.85 
797.27 -297.09 12.81 
797.43 -297.39 12.80 
797.89 -297.76 13.00 
796.38 -294.86 12.94 
797.23 -295.77 12.98 
798.19 -297.35 12.94 
798.80 -298.11 13.12 
799.11 -298.34 13.15 
797.48 -295.00 13.13 
798.92 -297.52 13.14 
799.83 -298.40 13.28 
794.05 -304.34 12.25 
794.39 -304.52 12.29 
794.36 -303.89 12.38 
794.95 -302.95 12.64 
795.25 -303.15 12.67 
796.35 -295.40 14.03 
796.72 -296.08 14.01 
796.37 -294.90 14.11 
796.69 -295.52 14.08 
796.76 -295.92 14.04 
797.10 -296.29 14.05 
796.26 -294.25 14.18 
796.39 -294.50 14.17 
797.74 -296.88 14.10 
798.18 -297.03 14.17 
797.99 -296.35 14.23 
798.99 -296.96 14.35 
794.24 -303.97 13.38 
795.08 -304.28 13.53 
794.78 -303.47 13.58 
795.28 -304.52 13.54 
795.40 -303.82 13.68 
796.26 -303.18 13.97 
798.17 -295.88 15.56 
794.33 -304.33 10.55 
793.59 -304.41 11.21 
793.57 -303.79 11.29 
793.63 -304.07 11.26 
793.71 -303.23 11.39 
793.72 -302.75 11.45 
794.81 -303.57 11.55 
794.54 -302.02 11.70 
795.10 -304.62 11.65 
796.16 -303.78 11.96 
796.14 -304.09 11.91 
796.41 -296.53 12.79 
796.62 -296.81 12.79 
796.91 -297.03 12.81 
796.47 -296.15 12.85 
797.63 -297.20 13.01 
798.12 -296.69 13.09 
798.07 -297.18 13.01 
798.55 -297.64 13.04 
798.63 -298.05 13.16 
798.58 -297.09 13.20 
798.68 -297.27 13.28 
799.10 -298.18 13.24 
799.83 -298.22 13.37 
793.69 -304.15 12.27 
794.14 -304.37 12.33 
794.34 -304.63 12.34 
794.35 -303.65 12.48 
794.83 -303.24 12.64 
796.22 -294.75 14.17 
796.76 -295.85 14.12 
796.92 -296.28 14.09 
797.38 -296.78 14.11 
796.28 -294.23 14.26 
796.41 -294.55 14.24 
796.54 -294.88 14.21 
796.81 -295.51 14.18 
797.61 -296.69 14.17 
797.85 -296.89 14.19 
798.58 -297.06 14.32 
798.36 -295.77 14.46 
794.20 -303.91 13.46 
794.72 -304.33 13.51 
794.66 -303.42 13.64 
795.42 -303.68 13.78 
798.05 -296.01 15.59 
797.99 -295.62 15.63 
798.30 -296.27 15.60 
791.95 -303.60 10.09 
792.15 -302.79 10.22 
792.08 -303.03 10.18 
792.22 -302.13 10.31 
798.18 -299.79 12.74 
798.09 -298.92 12.84 
798.17 -299.21 12.81 
798.58 -300.12 12.77 
798.76 -299.46 13.04 
799.30 -300.17 12.90 
798.42 -297.80 13.20 
798.98 -298.95 13.15 
799.49 -299.65 13.00 
799.57 -299.95 12.98 
799.69 -300.36 13.02 
800.05 -300.46 13.00 
800.28 -300.54 13.19 
799.95 -298.15 13.44 
798.38 -298.78 14.08 
798.39 -298.37 14.15 
795.30 -304.33 10.75 
793.61 -304.54 11.24 
793.69 -303.81 11.35 
793.74 -304.12 11.32 
794.17 -304.18 11.39 
794.65 -302.22 11.74 
795.34 -301.74 11.93 
797.60 -297.30 13.10 
797.76 -297.65 13.08 
797.70 -296.53 13.22 
798.18 -297.35 13.20 
798.66 -298.22 13.18 
798.05 -296.68 13.26 
798.31 -296.95 13.28 
798.56 -297.57 13.24 
799.20 -297.15 13.42 
793.59 -304.54 12.24 
794.13 -304.57 12.35 
794.08 -303.24 12.53 
794.41 -303.79 12.52 
795.03 -303.10 12.75 
794.94 -303.44 12.68 
795.76 -302.61 12.97 
793.94 -304.26 11.34 
797.60 -297.35 13.08 
797.80 -297.55 13.09 
797.90 -296.72 13.22 
798.70 -298.18 13.18 
798.45 -297.56 13.22 
798.79 -297.75 13.26 
799.20 -300.19 13.01 
799.22 -300.50 12.98 
799.29 -300.85 12.94 
799.43 -299.98 13.08 
800.21 -301.14 13.08 
800.18 -300.53 13.16 
