# .PCD v0.7 - Point Cloud Data file format
VERSION 0.7
FIELDS x y z
SIZE 4 4 4
TYPE F F F
COUNT 1 1 1
WIDTH 1259
HEIGHT 1
VIEWPOINT 0 0 0 1 0 0 0
POINTS 1259
DATA ascii
-119.76 -62.30 1.18 
-118.97 -62.73 -0.05 
-119.94 -62.55 3.47 
-110.49 -78.70 2.43 
-110.85 -79.42 1.83 
-110.19 -78.66 1.85 
-110.08 -78.51 2.17 
-110.47 -78.95 1.89 
-110.33 -79.02 1.33 
-109.85 -79.33 1.36 
-109.87 -78.41 1.49 
-110.00 -78.73 1.76 
-110.08 -78.69 2.03 
-109.93 -78.48 2.30 
-109.98 -78.72 1.52 
-110.05 -78.70 1.78 
-110.19 -78.89 2.04 
-110.11 -78.80 2.30 
-109.93 -78.49 1.61 
-110.11 -78.74 2.14 
-110.36 -78.70 2.41 
-120.56 -62.57 3.34 
-117.16 -71.58 4.23 
-109.92 -78.48 1.70 
-110.61 -79.60 1.97 
-110.04 -78.61 1.98 
-110.83 -79.58 2.24 
-110.32 -78.56 2.81 
-108.63 -60.81 3.58 
-110.56 -78.51 3.97 
-117.27 -71.58 4.90 
-109.96 -78.52 1.72 
-109.96 -78.49 2.00 
-110.55 -79.20 2.28 
-110.14 -78.73 2.28 
-110.34 -78.54 2.87 
-117.19 -71.47 5.01 
-109.98 -78.49 1.76 
-109.97 -78.49 2.05 
-110.20 -78.82 2.34 
-110.22 -78.93 2.10 
-110.00 -78.48 2.11 
-110.13 -78.65 2.42 
-110.42 -78.60 2.75 
-120.75 -62.67 4.41 
-120.96 -63.03 5.92 
-110.49 -79.02 2.16 
-110.47 -78.68 2.53 
-110.42 -78.60 3.24 
-120.40 -62.82 2.91 
-110.47 -78.65 3.02 
-117.27 -71.62 4.48 
-120.86 -62.54 5.46 
-120.87 -62.71 4.64 
-120.94 -62.65 5.51 
-110.73 -78.72 4.67 
-117.72 -71.77 3.33 
-117.41 -71.79 3.34 
-117.41 -71.88 4.15 
-121.07 -62.93 4.96 
-117.60 -64.06 -0.32 
-119.28 -62.81 1.00 
-117.80 -63.96 -0.15 
-119.78 -62.97 0.12 
-119.84 -62.50 0.15 
-119.43 -62.77 1.13 
-115.54 -71.71 2.53 
-120.15 -60.06 0.49 
-119.19 -62.67 1.59 
-119.94 -62.74 0.55 
-119.81 -60.06 0.68 
-119.47 -62.74 1.50 
-117.77 -64.76 -0.15 
-117.87 -64.42 -0.13 
-117.93 -64.03 -0.11 
-119.17 -62.79 0.09 
-118.46 -62.72 0.00 
-118.94 -63.12 1.05 
-118.69 -63.27 1.02 
-119.46 -62.87 1.12 
-119.14 -62.88 1.09 
-119.68 -62.67 1.16 
-119.17 -62.64 2.11 
-119.42 -62.72 2.81 
-115.43 -71.83 3.35 
-119.07 -62.53 4.15 
-117.78 -65.17 0.12 
-117.97 -64.56 0.17 
-118.24 -62.85 0.27 
-119.31 -62.91 0.39 
-118.90 -62.82 0.35 
-118.51 -62.75 0.30 
-118.55 -59.47 0.43 
-118.64 -59.12 0.46 
-118.55 -58.86 0.46 
-118.65 -58.51 0.48 
-118.54 -58.23 0.48 
-118.60 -57.80 0.51 
-118.96 -63.14 1.32 
-119.51 -62.94 1.39 
-119.15 -62.90 1.35 
-119.67 -62.65 1.42 
-119.79 -62.37 1.45 
-119.74 -59.98 1.59 
-119.77 -58.85 1.66 
-119.84 -57.74 1.73 
-119.57 -57.81 1.70 
-119.75 -55.51 1.85 
-119.47 -55.58 1.82 
-109.46 -78.65 1.33 
-109.46 -78.87 1.67 
-119.79 -62.40 -0.25 
-119.70 -62.84 0.69 
-119.76 -62.37 0.72 
-119.12 -60.11 0.74 
-119.62 -62.90 1.64 
-119.70 -62.51 1.67 
-119.82 -62.24 1.70 
-119.57 -60.00 1.81 
-119.72 -57.75 1.96 
-119.64 -55.53 2.10 
-119.31 -62.62 2.58 
-109.47 -78.62 1.47 
-119.60 -62.63 3.26 
-109.32 -78.72 2.59 
-119.77 -62.77 0.05 
-119.32 -62.79 -0.01 
-119.33 -62.88 0.94 
-119.81 -57.86 1.21 
-119.71 -56.12 1.28 
-119.73 -55.44 1.31 
-119.15 -62.82 1.86 
-119.65 -57.74 2.24 
-119.65 -62.61 3.50 
-119.51 -62.59 4.41 
-119.98 -57.70 1.33 
-116.15 -71.64 3.08 
-119.59 -62.59 4.45 
-109.45 -78.65 2.83 
-119.86 -62.64 4.61 
-116.29 -71.07 4.46 
-109.76 -78.60 1.57 
-119.61 -62.52 3.29 
-116.32 -71.55 3.36 
-119.81 -62.57 2.49 
-120.16 -62.64 3.12 
-119.68 -62.57 3.34 
-116.29 -71.60 3.36 
-116.17 -71.57 4.06 
-119.28 -62.18 5.12 
-109.79 -78.59 1.66 
-109.60 -78.47 2.80 
-109.79 -78.57 1.71 
-109.87 -78.53 1.79 
-120.22 -62.59 4.20 
-115.19 -78.96 3.56 
-109.88 -78.57 1.76 
-109.68 -78.55 2.91 
-119.71 -62.50 4.41 
-110.04 -78.61 1.44 
-120.19 -62.58 4.46 
-120.06 -62.53 5.25 
-110.30 -78.53 1.48 
-109.90 -78.56 1.81 
-110.20 -78.51 2.01 
-110.00 -78.58 2.53 
-119.85 -62.55 3.88 
-114.77 -79.09 3.10 
-116.69 -71.58 3.73 
-110.27 -78.59 1.57 
-120.06 -62.49 3.23 
-110.26 -78.58 2.08 
-110.08 -78.65 2.57 
-116.64 -79.31 3.17 
-116.62 -79.66 3.52 
-115.76 -79.45 3.53 
-115.88 -79.28 3.56 
-115.85 -79.02 3.61 
-119.90 -62.44 4.77 
-120.03 -62.54 3.31 
-110.31 -78.58 2.15 
-117.07 -71.58 3.32 
-116.61 -79.35 3.19 
-108.51 -60.24 3.12 
-117.10 -79.65 3.95 
-116.89 -79.61 3.95 
-119.87 -62.51 4.82 
-120.28 -62.64 5.39 
-119.95 -62.41 5.60 
-110.34 -78.63 2.23 
-110.27 -78.62 2.69 
-114.85 -79.08 3.18 
-116.82 -79.02 3.31 
-117.08 -79.67 3.97 
-116.91 -79.52 4.00 
-116.03 -79.07 4.06 
-109.92 -78.59 2.14 
-110.42 -78.59 2.28 
-120.19 -62.64 3.48 
-113.84 -79.15 2.72 
-116.78 -79.34 3.28 
-117.13 -71.64 3.46 
-119.90 -62.56 4.20 
-108.57 -55.82 3.72 
-114.27 -79.63 3.52 
-117.13 -79.62 3.98 
-116.21 -79.23 4.02 
-116.94 -71.63 3.99 
-120.53 -62.68 4.79 
-116.57 -78.87 4.11 
-108.53 -60.64 4.13 
-108.62 -56.30 4.62 
-109.89 -78.52 2.12 
-109.84 -78.50 2.56 
-115.98 -78.88 3.32 
-116.57 -71.49 3.60 
-116.26 -79.38 3.56 
-120.04 -62.52 4.26 
-119.62 -62.38 4.43 
-111.12 -79.64 1.65 
-109.85 -78.47 2.00 
-116.38 -71.48 2.92 
-110.30 -78.60 2.51 
-109.81 -78.47 2.46 
-110.38 -78.53 2.52 
-117.13 -71.61 3.27 
-117.01 -71.64 3.26 
-110.23 -78.56 2.93 
-110.32 -78.52 2.93 
-114.70 -78.90 3.31 
-115.46 -79.21 3.64 
-117.35 -79.16 3.79 
-115.00 -78.65 3.73 
-120.46 -62.67 4.57 
-115.39 -78.93 4.06 
-116.91 -71.60 4.30 
-120.39 -62.63 5.30 
-109.84 -79.27 0.98 
-109.96 -79.25 0.99 
-110.30 -78.56 2.21 
-117.05 -71.59 3.06 
-110.25 -78.57 2.59 
-117.01 -79.03 3.18 
-117.20 -78.87 3.22 
-117.00 -71.57 3.56 
-110.20 -78.53 2.99 
-117.07 -71.52 4.08 
-120.46 -62.64 4.68 
-120.40 -62.60 5.41 
-116.83 -71.45 5.47 
-109.76 -79.40 0.98 
-109.56 -79.44 0.96 
-110.02 -79.25 1.00 
-117.08 -71.60 3.01 
-120.49 -62.61 3.35 
-110.38 -78.54 2.55 
-110.29 -78.58 2.54 
-117.10 -71.55 3.51 
-110.33 -78.52 2.93 
-110.25 -78.56 2.92 
-117.76 -79.67 3.55 
-115.88 -79.28 3.57 
-115.65 -78.95 3.62 
-116.15 -79.26 3.71 
-115.68 -79.20 3.69 
-120.52 -62.62 4.62 
-117.14 -71.39 5.04 
-120.46 -62.65 5.34 
-110.46 -78.98 1.90 
-110.26 -78.75 1.91 
-110.51 -78.60 2.47 
-116.84 -71.57 3.14 
-116.02 -78.89 3.37 
-117.19 -71.68 3.48 
-116.92 -71.51 3.63 
-116.81 -71.54 3.62 
-120.27 -62.52 4.20 
-110.28 -78.56 3.37 
-117.54 -79.59 3.62 
-117.14 -71.68 3.98 
-109.77 -78.36 3.78 
-116.80 -79.18 3.98 
-108.57 -60.75 4.24 
-108.62 -60.65 4.25 
-108.70 -60.32 4.29 
-120.75 -62.74 4.80 
-120.33 -62.44 4.91 
-108.54 -55.86 4.80 
-108.55 -61.04 4.97 
-108.67 -60.63 5.03 
-108.64 -60.36 5.07 
-108.75 -59.73 5.16 
-120.28 -62.46 5.60 
-108.67 -55.79 5.70 
-110.00 -79.35 1.27 
-109.76 -79.34 1.26 
-109.38 -79.27 1.17 
-110.25 -79.24 1.29 
-109.65 -79.07 1.13 
-109.56 -79.13 1.12 
-111.05 -79.65 1.79 
-110.56 -78.95 1.66 
-110.29 -78.72 1.66 
-110.70 -79.15 1.98 
-110.48 -78.96 1.98 
-110.25 -78.69 2.00 
-110.55 -78.62 2.36 
-110.52 -78.61 2.70 
-117.10 -78.99 3.04 
-120.41 -62.54 3.60 
-120.24 -62.55 3.59 
-114.83 -79.14 3.33 
-116.92 -71.51 3.70 
-108.75 -60.41 3.59 
-120.36 -62.54 4.28 
-120.20 -62.43 4.28 
-116.86 -79.50 3.59 
-117.03 -79.14 3.67 
-110.37 -78.55 3.75 
-116.30 -78.97 4.03 
-108.53 -60.74 4.32 
-108.77 -60.35 4.37 
-120.36 -62.45 4.98 
-108.54 -55.88 4.88 
-108.55 -61.33 5.00 
-108.67 -60.80 5.08 
-108.64 -60.51 5.12 
-108.75 -59.83 5.22 
-120.31 -62.40 5.68 
-108.88 -59.46 5.27 
-108.83 -58.97 5.34 
-108.56 -55.82 5.77 
-109.92 -79.49 1.29 
-109.64 -79.64 1.27 
-110.34 -79.21 1.33 
-110.11 -79.36 1.31 
-110.85 -79.33 1.82 
-110.72 -79.13 1.67 
-110.54 -78.99 1.83 
-110.32 -78.79 1.83 
-110.63 -78.66 2.35 
-110.18 -78.56 2.01 
-109.86 -78.51 2.25 
-116.94 -71.56 2.73 
-110.58 -78.60 2.69 
-117.19 -79.15 3.03 
-120.32 -62.51 3.56 
-110.52 -78.62 3.01 
-115.28 -79.27 3.27 
-116.89 -71.53 3.66 
-120.35 -62.53 4.24 
-115.15 -79.24 3.86 
-117.40 -79.04 3.71 
-108.60 -60.73 4.32 
-108.77 -60.40 4.36 
-120.34 -62.48 4.93 
-108.61 -55.87 4.88 
-108.61 -61.32 4.99 
-108.66 -60.92 5.05 
-108.72 -60.44 5.12 
-108.86 -60.05 5.18 
-120.29 -62.44 5.62 
-108.84 -59.65 5.23 
-120.47 -62.40 5.64 
-108.97 -59.17 5.31 
-108.95 -58.69 5.37 
-110.05 -78.94 1.44 
-109.67 -78.92 1.42 
-111.07 -79.65 1.90 
-110.91 -79.41 1.77 
-110.79 -79.24 1.92 
-110.53 -78.98 1.93 
-110.35 -78.82 1.93 
-110.24 -78.60 1.95 
-120.41 -62.64 2.98 
-120.23 -62.61 2.97 
-110.69 -78.68 2.44 
-110.56 -78.75 2.43 
-110.57 -78.65 2.76 
-115.93 -79.19 3.03 
-116.93 -71.57 3.29 
-116.82 -71.56 3.28 
-120.38 -62.57 3.66 
-117.54 -79.63 3.55 
-116.90 -71.52 3.76 
-120.39 -62.43 4.35 
-117.18 -79.64 3.95 
-115.63 -79.11 3.97 
-117.01 -79.15 4.04 
-116.91 -78.52 3.86 
-110.56 -78.51 3.77 
-117.26 -71.70 4.67 
-108.78 -60.67 4.44 
-108.94 -60.24 4.50 
-108.57 -58.94 4.82 
-108.78 -55.86 5.00 
-108.54 -55.93 4.98 
-116.89 -71.39 5.19 
-108.67 -61.12 5.12 
-108.75 -60.63 5.19 
-108.89 -60.23 5.25 
-108.88 -59.80 5.31 
-109.02 -59.25 5.40 
-108.68 -60.65 5.94 
-108.84 -60.26 6.01 
-108.65 -55.80 6.73 
-108.79 -59.08 7.00 
-108.86 -58.48 7.12 
-110.00 -79.39 1.50 
-109.76 -79.54 1.48 
-110.25 -79.23 1.52 
-110.97 -79.61 1.97 
-110.77 -79.33 1.98 
-110.64 -79.13 1.99 
-110.48 -78.98 1.99 
-110.26 -78.77 2.00 
-110.63 -79.08 2.44 
-110.80 -78.95 2.47 
-110.51 -78.99 2.45 
-110.26 -78.81 2.46 
-108.76 -60.66 3.01 
-108.73 -60.74 3.00 
-108.92 -60.28 3.04 
-110.41 -78.62 2.80 
-115.96 -79.68 3.06 
-110.51 -78.62 2.81 
-117.18 -79.67 3.14 
-116.97 -79.48 3.16 
-115.75 -79.38 3.09 
-114.35 -78.97 3.00 
-120.78 -62.63 3.69 
-108.67 -55.84 3.53 
-108.88 -55.66 3.55 
-118.01 -79.67 3.49 
-116.46 -79.49 3.39 
-114.65 -79.17 3.32 
-117.04 -79.07 3.50 
-117.23 -71.66 3.76 
-108.70 -60.72 3.73 
-108.87 -60.27 3.78 
-110.35 -78.52 3.78 
-115.54 -79.27 3.93 
-117.33 -79.19 4.09 
-116.08 -78.83 4.06 
-115.83 -78.89 4.03 
-117.87 -79.11 3.86 
-117.19 -71.68 4.22 
-108.76 -60.45 3.94 
-108.61 -55.84 4.36 
-117.39 -71.52 4.75 
-108.65 -60.74 4.47 
-108.78 -60.50 4.59 
-120.67 -62.68 4.99 
-108.93 -59.32 4.81 
-108.66 -55.87 5.03 
-108.63 -60.85 5.19 
-108.69 -60.64 5.38 
-120.63 -62.67 5.72 
-108.78 -59.95 5.32 
-108.93 -59.35 5.41 
-108.92 -58.58 5.52 
-108.70 -55.72 6.06 
-108.73 -60.43 6.00 
-108.98 -57.58 6.61 
-109.04 -56.72 6.75 
-108.65 -55.80 6.75 
-108.76 -58.33 7.15 
-108.57 -58.36 7.14 
-108.79 -58.22 7.18 
-110.14 -78.90 1.78 
-110.19 -78.41 1.60 
-109.98 -78.15 1.60 
-111.01 -79.56 2.16 
-110.88 -79.37 2.03 
-110.59 -79.33 2.06 
-110.71 -79.13 2.04 
-110.54 -78.98 2.04 
-110.24 -78.80 2.01 
-110.25 -78.60 2.06 
-110.58 -78.78 2.52 
-114.19 -79.25 2.77 
-110.45 -78.71 2.52 
-110.29 -78.61 2.39 
-108.50 -60.73 3.05 
-115.32 -79.47 3.08 
-110.61 -78.67 2.84 
-110.28 -78.59 2.69 
-116.67 -79.58 3.17 
-116.64 -79.38 3.19 
-117.13 -78.95 3.00 
-116.80 -78.75 3.29 
-114.78 -79.68 3.55 
-116.89 -79.05 3.55 
-115.12 -78.84 3.44 
-116.29 -78.65 3.56 
-116.96 -71.55 3.83 
-108.88 -60.65 3.80 
-110.66 -78.61 3.48 
-117.18 -79.44 4.08 
-108.95 -55.88 4.24 
-117.06 -71.45 4.78 
-108.96 -60.36 5.31 
-109.15 -58.86 5.53 
-108.64 -60.74 5.98 
-108.91 -60.38 6.05 
-108.65 -57.81 6.58 
-108.69 -56.78 6.75 
-108.84 -55.84 6.79 
-108.95 -58.60 7.14 
-108.64 -61.31 7.36 
-110.11 -79.12 1.31 
-109.91 -79.25 1.30 
-110.26 -79.09 1.32 
-109.98 -79.54 1.63 
-109.71 -79.68 1.61 
-110.98 -79.47 1.68 
-110.50 -79.26 1.68 
-110.24 -79.37 1.65 
-110.69 -79.19 1.68 
-110.13 -78.90 1.59 
-110.96 -79.49 2.11 
-110.52 -79.23 2.25 
-110.65 -79.11 2.12 
-110.34 -78.92 2.13 
-110.08 -78.74 2.15 
-110.29 -78.69 2.29 
-120.44 -62.59 3.10 
-110.97 -79.07 2.59 
-110.62 -79.11 2.56 
-110.38 -78.88 2.58 
-110.24 -78.66 2.59 
-116.39 -78.92 3.32 
-117.03 -71.58 3.44 
-116.92 -71.56 3.43 
-120.44 -62.57 3.78 
-115.25 -79.14 3.48 
-117.05 -71.51 3.91 
-116.90 -71.52 3.90 
-108.79 -60.83 3.85 
-115.69 -79.03 4.11 
-108.59 -61.37 5.22 
-120.47 -62.80 5.81 
-108.98 -60.31 6.13 
-109.96 -79.24 1.37 
-110.20 -79.09 1.38 
-109.87 -79.63 1.67 
-110.73 -79.49 1.76 
-110.49 -79.31 1.69 
-110.09 -79.49 1.68 
-110.48 -79.13 1.68 
-110.15 -78.85 1.78 
-109.91 -78.51 1.64 
-111.12 -79.53 2.17 
-110.75 -79.54 2.15 
-110.59 -79.30 2.16 
-110.77 -79.07 2.33 
-110.38 -78.90 2.17 
-110.19 -78.88 2.18 
-110.38 -78.73 2.18 
-110.24 -78.66 2.21 
-110.81 -79.20 2.62 
-110.50 -78.99 2.62 
-110.32 -78.69 2.55 
-110.28 -78.63 2.70 
-116.56 -79.65 3.02 
-115.35 -79.34 2.96 
-117.04 -71.62 3.00 
-108.83 -60.77 3.16 
-108.51 -60.75 3.15 
-110.61 -78.70 2.97 
-117.03 -71.59 3.46 
-120.48 -62.59 3.79 
-110.70 -78.66 3.30 
-110.41 -78.51 3.32 
-117.76 -79.64 3.72 
-120.47 -62.54 4.47 
-117.53 -79.34 4.05 
-116.02 -79.00 3.93 
-108.75 -60.81 4.59 
-109.06 -60.41 4.65 
-108.49 -60.59 5.44 
-120.24 -62.40 5.86 
-108.78 -60.80 6.04 
-108.97 -60.53 6.10 
-108.56 -55.67 6.12 
-108.66 -57.46 6.66 
-108.62 -61.77 7.31 
-108.67 -61.27 7.41 
-110.35 -78.94 1.51 
-109.47 -78.82 1.47 
-109.91 -78.59 1.49 
-109.71 -78.61 1.48 
-110.89 -79.67 1.92 
-110.69 -79.38 1.90 
-110.56 -79.19 1.90 
-110.32 -78.94 1.90 
-110.16 -78.79 2.03 
-110.01 -78.59 1.90 
-110.72 -79.38 2.27 
-110.97 -79.10 2.30 
-110.62 -79.24 2.28 
-110.34 -78.94 2.29 
-110.15 -78.78 2.29 
-110.03 -78.60 2.30 
-108.50 -60.38 2.83 
-110.38 -78.58 2.72 
-114.55 -79.05 3.06 
-117.07 -71.59 3.14 
-108.95 -60.81 3.34 
-108.72 -60.78 3.33 
-116.31 -79.41 3.46 
-110.45 -78.48 3.14 
-116.73 -79.57 3.79 
-110.34 -78.49 3.69 
-117.06 -71.54 4.08 
-108.91 -60.84 4.05 
-108.64 -60.79 4.04 
-110.70 -78.58 4.11 
-110.48 -78.45 3.98 
-117.06 -71.50 4.56 
-117.20 -71.48 5.05 
-108.88 -60.85 4.77 
-108.68 -60.83 4.76 
-120.53 -62.46 5.35 
-108.66 -56.03 5.32 
-117.70 -71.34 5.62 
-117.52 -71.22 5.62 
-117.00 -70.96 5.61 
-108.55 -60.54 5.60 
-108.83 -60.80 6.21 
-108.61 -60.76 6.21 
-109.01 -60.76 6.23 
-108.60 -55.66 6.29 
-108.82 -55.91 7.02 
-108.67 -61.64 7.49 
-110.22 -78.92 1.53 
-110.09 -78.73 1.52 
-109.92 -78.51 1.52 
-109.47 -77.71 1.50 
-110.79 -79.56 1.93 
-110.64 -79.35 1.91 
-110.45 -79.09 1.92 
-110.23 -78.93 1.91 
-110.04 -78.69 1.91 
-109.92 -78.50 1.92 
-110.68 -79.06 2.31 
-110.43 -79.06 2.30 
-110.22 -78.94 2.30 
-110.76 -78.93 2.32 
-110.06 -78.71 2.31 
-109.91 -78.53 2.31 
-120.61 -62.63 3.23 
-120.46 -62.55 3.23 
-108.59 -60.13 2.84 
-110.38 -78.60 2.73 
-110.29 -78.57 2.60 
-114.23 -78.97 2.79 
-117.09 -71.63 3.14 
-116.98 -71.56 3.14 
-108.86 -60.84 3.32 
-109.07 -60.69 3.34 
-115.07 -79.19 3.42 
-110.43 -78.54 3.15 
-117.11 -71.59 3.62 
-108.75 -60.52 3.51 
-108.55 -60.58 3.50 
-120.59 -62.63 3.93 
-110.48 -78.50 3.71 
-117.11 -71.56 4.10 
-108.83 -60.83 4.03 
-120.63 -62.56 4.63 
-110.39 -78.48 3.99 
-115.63 -79.13 4.10 
-117.10 -71.53 4.58 
-109.01 -55.89 4.50 
-108.63 -56.00 4.47 
-108.88 -60.86 4.75 
-108.60 -60.81 4.74 
-120.61 -62.54 5.34 
-108.96 -55.97 5.32 
-108.59 -55.98 5.30 
-117.38 -71.82 5.53 
-117.20 -71.75 5.53 
-116.84 -71.51 5.53 
-108.65 -60.22 5.62 
-108.96 -60.77 6.21 
-108.65 -57.55 7.53 
-108.72 -61.76 7.46 
-110.34 -78.94 1.62 
-110.17 -78.79 1.61 
-110.02 -78.66 1.61 
-110.56 -79.22 2.01 
-110.32 -78.95 2.00 
-110.19 -78.85 2.00 
-109.99 -78.58 2.00 
-110.53 -78.64 2.43 
-110.29 -78.64 2.41 
-120.58 -62.60 3.34 
-110.33 -78.59 2.69 
-115.62 -79.64 2.96 
-115.54 -79.48 2.96 
-110.41 -78.58 2.83 
-116.81 -79.33 3.07 
-117.11 -71.62 3.25 
-108.77 -60.82 3.43 
-109.00 -60.72 3.45 
-110.45 -78.55 3.25 
-117.19 -78.60 3.52 
-117.10 -71.60 3.74 
-108.57 -60.71 3.59 
-108.60 -60.58 3.60 
-110.51 -78.50 3.81 
-117.06 -71.51 4.23 
-108.94 -60.88 4.15 
-108.63 -60.82 4.14 
-120.73 -62.60 4.76 
-117.19 -71.54 4.73 
-108.87 -55.98 4.60 
-115.64 -79.44 4.56 
-108.91 -60.87 4.86 
-108.60 -60.82 4.85 
-120.71 -62.59 5.48 
-117.33 -71.52 5.24 
-108.83 -56.00 5.43 
-108.50 -60.60 5.65 
-108.94 -60.85 6.31 
-108.52 -62.30 7.44 
-108.95 -57.46 7.67 
-108.82 -61.59 7.61 
-110.80 -79.52 1.72 
-110.67 -79.32 1.72 
-110.49 -79.09 1.71 
-110.36 -78.93 1.71 
-110.07 -78.68 1.71 
-110.80 -79.56 2.11 
-111.15 -79.46 2.25 
-110.64 -79.30 2.11 
-110.49 -79.09 2.11 
-110.32 -78.92 2.11 
-110.08 -78.67 2.11 
-109.92 -78.49 2.11 
-110.36 -78.59 2.54 
-117.01 -71.57 2.89 
-120.61 -62.62 3.48 
-115.43 -79.59 3.09 
-114.65 -79.12 3.07 
-110.41 -78.58 2.96 
-114.57 -78.87 3.08 
-109.01 -60.87 3.59 
-108.74 -60.83 3.58 
-115.52 -79.32 3.45 
-110.49 -78.54 3.39 
-117.14 -71.59 3.89 
-120.61 -62.59 4.20 
-117.20 -71.59 4.39 
-108.97 -60.90 4.30 
-108.68 -60.84 4.29 
-120.64 -62.58 4.92 
-110.45 -78.54 3.95 
-117.15 -71.52 4.90 
-108.94 -60.89 5.02 
-108.69 -60.85 5.01 
-120.80 -62.62 5.66 
-120.64 -62.53 5.65 
-108.63 -60.56 5.80 
-108.89 -60.85 6.46 
-108.72 -60.81 6.46 
-108.79 -61.92 7.70 
-110.88 -79.64 1.73 
-110.77 -79.47 1.73 
-110.58 -79.21 1.73 
-110.42 -78.98 1.73 
-110.18 -78.83 1.73 
-110.03 -78.58 1.72 
-109.97 -78.53 1.72 
-110.90 -79.67 2.00 
-110.70 -79.38 2.14 
-110.56 -79.22 2.14 
-110.90 -79.13 2.30 
-110.43 -78.98 2.14 
-110.18 -78.81 2.14 
-110.03 -78.58 2.14 
-109.97 -78.52 2.14 
-114.29 -79.17 2.78 
-110.41 -78.62 2.59 
-110.33 -78.57 2.58 
-115.62 -79.45 3.20 
-110.43 -78.62 2.87 
-116.84 -79.43 3.30 
-117.13 -71.61 3.44 
-110.45 -78.59 3.31 
-115.33 -79.22 3.54 
-115.17 -78.99 3.55 
-116.45 -78.73 3.70 
-117.12 -71.61 3.95 
-120.70 -62.67 4.25 
-117.26 -71.62 4.48 
-117.15 -71.55 4.48 
-110.59 -78.55 4.07 
-117.27 -71.59 5.01 
-108.80 -60.15 5.22 
-117.50 -71.89 5.51 
-117.29 -71.72 5.51 
-117.29 -71.55 5.53 
-116.97 -71.40 5.52 
-108.70 -60.62 5.84 
-109.04 -60.88 6.54 
-108.66 -60.81 6.52 
-108.65 -55.69 6.54 
-108.61 -62.29 7.68 
-110.85 -79.54 1.76 
-110.71 -79.37 1.76 
-110.54 -79.13 1.76 
-110.32 -78.91 1.76 
-110.06 -78.61 1.76 
-120.42 -62.81 2.83 
-120.30 -62.60 2.83 
-120.31 -62.21 2.84 
-110.84 -79.57 2.04 
-110.71 -79.36 2.05 
-110.51 -79.07 2.20 
-110.28 -78.88 2.20 
-110.05 -78.60 2.20 
-110.40 -78.60 2.66 
-110.40 -78.59 2.96 
-115.61 -79.36 3.30 
-117.26 -78.97 3.06 
-110.44 -78.60 3.27 
-116.26 -79.24 3.76 
-115.51 -79.08 3.70 
-117.18 -71.63 4.05 
-108.61 -60.72 3.86 
-110.55 -78.59 3.89 
-115.85 -78.81 4.15 
-115.94 -79.61 4.46 
-117.32 -71.65 4.59 
-117.21 -71.58 4.59 
-120.67 -62.53 5.08 
-110.70 -78.51 4.55 
-117.30 -71.55 5.13 
-120.76 -62.94 5.80 
-120.44 -62.83 5.78 
-116.61 -79.39 5.40 
-108.67 -60.61 5.91 
-108.96 -60.88 6.63 
-108.56 -60.55 6.61 
-108.83 -55.63 6.64 
-109.06 -60.78 7.40 
-110.94 -79.65 1.79 
-110.78 -79.41 1.79 
-110.62 -79.18 1.80 
-110.40 -78.96 1.80 
-110.17 -78.76 1.80 
-110.05 -78.56 1.80 
-120.81 -62.89 2.89 
-110.94 -79.65 2.10 
-110.75 -79.38 2.10 
-110.61 -79.19 2.10 
-110.46 -79.01 2.10 
-110.21 -78.79 2.10 
-110.44 -78.71 2.43 
-110.12 -78.60 2.26 
-114.65 -79.31 2.96 
-114.51 -79.25 2.96 
-110.48 -78.65 2.75 
-114.76 -79.22 2.98 
-114.48 -79.15 2.96 
-114.68 -78.83 2.99 
-120.71 -62.66 3.65 
-110.46 -78.62 3.07 
-115.55 -79.11 3.43 
-115.17 -79.22 3.39 
-115.48 -79.65 3.78 
-110.48 -78.59 3.39 
-115.55 -79.25 3.83 
-116.42 -78.69 3.54 
-117.23 -71.60 4.16 
-120.72 -62.64 4.41 
-110.55 -78.62 3.72 
-117.34 -79.62 3.98 
-116.32 -79.48 3.89 
-110.65 -78.60 4.39 
-116.38 -79.28 4.33 
-116.18 -78.69 4.36 
-117.29 -71.65 4.71 
-120.77 -62.62 5.18 
-116.73 -79.68 4.76 
-117.46 -71.68 5.27 
-117.32 -71.60 5.27 
-120.81 -62.90 5.92 
-120.65 -62.72 5.93 
-120.49 -62.56 5.93 
-108.69 -60.63 6.00 
-108.70 -60.57 6.70 
-110.71 -79.00 1.88 
-110.48 -78.81 1.89 
-111.21 -79.52 2.21 
-111.06 -79.30 2.21 
-110.90 -79.12 2.22 
-110.63 -78.89 2.22 
-110.80 -78.64 2.57 
-110.80 -78.64 2.92 
-117.58 -71.67 3.22 
-121.10 -62.70 3.83 
-110.83 -78.67 3.26 
-117.22 -79.60 3.27 
-117.09 -79.42 3.27 
-116.38 -79.63 3.21 
-117.57 -79.33 3.31 
-110.89 -78.66 3.61 
-115.92 -79.32 3.63 
-115.66 -79.32 3.61 
-115.68 -79.09 3.62 
-116.90 -78.91 3.74 
-121.13 -62.72 4.61 
-121.11 -62.69 4.61 
-110.91 -78.64 3.97 
-115.84 -79.52 4.04 
-116.67 -79.21 4.15 
-116.19 -79.10 4.11 
-116.40 -78.74 4.17 
-117.59 -71.65 4.36 
-111.01 -78.66 4.33 
-116.13 -79.51 4.51 
-116.51 -79.00 4.61 
-117.70 -71.68 4.95 
-121.17 -62.63 5.40 
-111.15 -78.65 5.07 
-109.10 -60.70 6.20 
-109.03 -61.22 6.81 
-108.86 -61.11 6.81 
-110.91 -79.65 2.15 
-110.77 -79.43 2.15 
-110.60 -79.19 2.16 
-110.40 -78.98 2.16 
-110.40 -78.61 2.53 
-110.44 -78.65 2.89 
-117.20 -71.67 3.15 
-108.65 -60.73 3.37 
-115.71 -79.64 3.16 
-110.50 -78.67 3.25 
-116.91 -79.51 3.24 
-117.20 -71.67 3.73 
-110.49 -78.62 3.61 
-115.59 -79.27 3.62 
-115.24 -79.23 3.59 
-116.71 -78.84 3.74 
-120.78 -62.67 4.53 
-110.55 -78.64 3.98 
-116.39 -79.46 4.15 
-115.52 -79.39 4.06 
-116.35 -79.16 4.16 
-115.89 -78.96 4.13 
-117.26 -71.71 4.32 
-117.34 -71.68 4.92 
-120.79 -62.65 5.32 
-110.74 -78.62 5.13 
-117.74 -71.99 5.52 
-117.66 -71.86 5.53 
-117.62 -71.66 5.54 
-117.49 -71.42 5.55 
-117.25 -71.28 5.54 
-108.90 -60.53 6.17 
-108.76 -61.33 6.73 
-108.60 -61.28 6.73 
-110.43 -78.64 2.58 
-110.46 -78.67 2.96 
-115.71 -79.65 3.22 
-110.48 -78.67 3.34 
-115.70 -79.52 3.23 
-117.03 -79.08 3.33 
-117.24 -71.74 3.79 
-110.53 -78.69 3.72 
-115.60 -79.27 3.71 
-115.43 -79.23 3.70 
-115.54 -79.13 3.71 
-110.54 -78.63 4.12 
-115.80 -79.34 4.21 
-116.75 -79.29 4.31 
-116.36 -79.23 4.27 
-116.23 -78.94 4.28 
-117.30 -71.70 4.40 
-110.66 -78.69 4.51 
-117.31 -71.69 5.01 
-120.79 -62.67 5.39 
-116.38 -79.23 4.78 
-110.90 -78.94 5.31 
-110.87 -78.68 5.35 
-110.55 -78.34 5.34 
-117.07 -71.88 5.58 
-108.53 -60.66 2.78 
-116.02 -79.59 3.31 
-115.94 -79.48 3.31 
-110.82 -78.73 3.04 
-110.77 -78.64 3.05 
-116.54 -79.39 3.36 
-115.98 -79.44 3.32 
-115.97 -79.31 3.33 
-116.88 -78.74 3.41 
-117.56 -71.73 3.87 
-116.38 -79.61 3.84 
-115.93 -79.66 3.80 
-110.84 -78.72 3.45 
-110.80 -78.63 3.45 
-117.63 -79.66 3.95 
-115.93 -79.32 3.83 
-116.58 -79.22 3.89 
-116.13 -79.08 3.86 
-108.59 -60.68 4.17 
-108.56 -60.26 4.20 
-110.86 -78.67 3.86 
-116.44 -79.42 4.38 
-116.37 -79.32 4.38 
-117.60 -71.69 4.50 
-110.95 -78.69 4.28 
-116.52 -79.42 4.39 
-116.55 -79.07 4.42 
-121.09 -62.59 5.49 
-111.09 -78.73 4.71 
-117.64 -71.68 5.14 
-111.00 -78.64 5.13 
-108.68 -60.36 6.34 
-108.61 -60.98 6.95 
-108.61 -60.51 7.03 
-120.44 -62.84 2.91 
-120.43 -62.47 2.92 
-120.74 -62.65 3.76 
-115.65 -79.51 3.28 
-110.53 -78.74 3.02 
-115.59 -79.21 3.29 
-117.46 -79.06 3.41 
-117.26 -71.72 3.83 
-116.31 -79.68 3.84 
-110.53 -78.68 3.44 
-116.30 -79.55 3.85 
-116.20 -79.24 3.86 
-117.23 -79.01 3.96 
-116.22 -78.95 3.88 
-120.85 -62.70 4.60 
-110.58 -78.66 3.88 
-117.37 -71.75 4.48 
-110.62 -78.65 4.31 
-116.35 -79.36 4.41 
-116.26 -79.22 4.41 
-116.15 -79.09 4.41 
-120.98 -62.71 5.45 
-117.40 -71.73 5.13 
-117.33 -71.58 5.14 
-111.10 -78.97 5.21 
-111.02 -78.73 5.23 
-110.80 -78.33 5.24 
-110.70 -78.24 5.24 
-110.65 -78.13 5.24 
-108.60 -60.62 6.30 
-120.65 -62.69 2.92 
-120.53 -62.26 2.93 
-108.65 -60.73 3.48 
-120.84 -62.74 3.78 
-115.66 -79.46 3.34 
-110.54 -78.71 3.08 
-116.65 -79.39 3.40 
-116.45 -78.92 3.41 
-117.30 -71.72 3.88 
-116.19 -79.53 3.92 
-115.44 -79.65 3.85 
-110.56 -78.71 3.53 
-115.94 -79.20 3.92 
-120.95 -62.70 4.65 
-110.64 -78.73 3.98 
-117.37 -71.69 4.55 
-110.67 -78.66 4.44 
-116.41 -79.50 4.51 
-120.95 -62.71 5.51 
-110.78 -78.77 4.90 
-117.44 -71.76 5.22 
-108.92 -60.67 6.39 
-120.86 -62.62 3.06 
-110.51 -78.61 2.76 
-117.25 -71.67 3.35 
-108.49 -60.67 3.63 
-108.80 -60.58 3.65 
-115.24 -79.42 3.46 
-115.37 -79.21 3.48 
-117.08 -79.00 3.59 
-110.57 -78.69 3.70 
-117.31 -71.75 4.04 
-108.69 -60.74 4.36 
-120.89 -62.72 4.82 
-116.22 -79.67 4.09 
-115.76 -79.45 4.07 
-110.64 -78.69 4.18 
-116.32 -79.27 4.12 
-116.39 -78.87 4.15 
-117.39 -71.70 4.73 
-116.39 -79.63 4.70 
-117.34 -72.02 5.40 
-117.48 -71.68 5.44 
-117.28 -71.58 5.43 
-117.14 -71.43 5.43 
-110.98 -79.09 5.15 
-110.96 -78.79 5.18 
-116.59 -79.48 5.34 
-110.87 -78.50 5.19 
-110.67 -78.35 5.18 
-108.74 -60.62 6.58 
-121.09 -62.64 2.99 
-117.55 -71.66 3.33 
-110.87 -78.73 3.25 
-116.35 -79.39 3.53 
-110.91 -78.72 3.76 
-117.69 -71.80 4.04 
-121.16 -62.69 4.80 
-111.04 -78.68 4.29 
-116.66 -79.48 4.17 
-116.53 -79.26 4.17 
-117.74 -71.78 4.76 
-111.05 -78.78 4.79 
-110.54 -78.76 3.24 
-117.32 -71.72 4.02 
-120.87 -62.73 4.78 
-116.34 -79.29 4.18 
-116.24 -79.05 4.19 
-117.41 -71.79 4.76 
-116.84 -79.67 4.86 
-110.82 -78.83 4.84 
-116.39 -79.44 4.83 
-110.52 -78.70 2.78 
-117.26 -71.66 3.34 
-110.61 -78.82 3.32 
-110.56 -78.69 3.33 
-116.01 -79.26 3.59 
-110.62 -78.76 3.87 
-116.35 -79.37 3.60 
-116.23 -79.00 3.62 
-117.37 -71.83 4.09 
-116.38 -79.35 4.28 
-120.92 -62.75 4.85 
-110.72 -78.73 4.44 
-117.45 -71.80 4.86 
-111.21 -78.75 5.05 
-111.07 -78.46 5.06 
-108.63 -61.54 6.64 
-120.84 -62.72 2.99 
-117.31 -71.70 4.16 
-116.43 -79.55 4.34 
-110.63 -78.74 3.96 
-116.41 -79.33 4.36 
-120.95 -62.79 4.91 
-110.72 -78.82 4.54 
-117.51 -71.84 4.94 
-110.50 -79.10 5.07 
-110.39 -78.96 5.07 
-116.54 -79.59 5.06 
-110.35 -78.79 5.08 
-110.54 -78.71 2.80 
-117.29 -71.71 3.35 
-110.65 -78.81 3.39 
-116.36 -79.67 3.64 
-115.60 -79.67 3.60 
-116.33 -79.30 3.66 
-117.38 -71.80 4.14 
-110.64 -78.79 3.99 
-110.74 -78.82 4.60 
-116.50 -79.49 4.38 
-117.49 -71.88 4.95 
-117.40 -71.70 4.96 
-110.57 -78.79 2.80 
-120.93 -62.78 3.90 
-116.25 -79.22 3.67 
-117.45 -71.87 4.15 
-110.67 -78.80 4.04 
-121.00 -62.81 4.89 
-110.78 -78.86 4.67 
-117.50 -71.87 4.98 
-110.57 -78.72 2.84 
-120.93 -62.69 3.95 
-110.62 -78.81 3.48 
-115.66 -79.66 3.68 
-116.35 -79.32 3.73 
-116.45 -79.25 3.74 
-115.96 -79.16 3.72 
-110.74 -78.88 4.12 
-110.68 -78.73 4.13 
-121.04 -62.64 4.97 
-120.95 -62.77 3.95 
-110.65 -78.83 3.51 
-116.38 -79.45 3.75 
-116.24 -79.14 3.76 
-117.50 -71.92 4.24 
-117.44 -71.70 4.25 
-110.78 -78.82 4.18 
-121.06 -62.78 4.99 
-116.50 -79.60 4.54 
-117.54 -72.09 5.10 
-117.58 -71.53 5.14 
-111.32 -78.93 4.90 
-111.17 -78.64 4.91 
-110.56 -78.70 2.12 
-117.43 -71.84 3.33 
-120.96 -62.69 3.90 
-110.70 -78.95 3.49 
-116.36 -79.43 3.73 
-116.46 -79.26 3.74 
-110.74 -78.79 4.20 
-121.17 -62.91 4.95 
-116.59 -79.62 4.55 
-110.64 -78.76 2.79 
-117.45 -71.84 3.30 
-120.99 -62.64 3.87 
-110.68 -78.79 3.50 
-116.34 -79.56 3.72 
-116.49 -79.28 3.74 
-117.58 -71.88 4.21 
-110.73 -78.81 4.22 
-121.09 -62.92 4.93 
-117.68 -71.78 3.26 
-121.35 -62.70 3.81 
-116.81 -79.58 3.72 
-116.69 -79.37 3.72 
-117.87 -71.99 4.19 
-117.76 -71.77 4.20 
-110.69 -78.70 2.73 
-121.04 -62.63 3.76 
-110.77 -78.91 3.48 
-116.71 -79.41 3.71 
-117.61 -71.95 4.17 
-121.22 -62.57 4.89 
-116.72 -79.67 4.59 
-110.76 -78.82 2.71 
-117.56 -71.80 3.19 
-121.15 -62.70 3.74 
-116.70 -79.44 3.70 
-117.64 -71.86 4.17 
-110.84 -78.76 1.88 
-110.90 -78.86 2.69 
-111.20 -78.66 4.35 
-110.83 -78.48 4.33 
-110.89 -78.89 3.48 
-117.67 -71.84 4.14 
-110.86 -78.77 2.60 
-117.67 -71.83 3.06 
-110.92 -78.79 3.47 
-117.70 -71.86 4.11 
-110.90 -78.90 3.45 
-117.70 -71.95 4.09 
-111.26 -79.07 4.34 
-111.25 -78.75 4.36 
-111.15 -78.59 4.36 
-111.03 -78.72 2.51 
-111.11 -78.74 3.42 
-111.06 -78.72 2.48 
-111.14 -78.75 3.42 
-110.98 -78.70 2.47 
-116.84 -79.58 3.57 
-111.06 -78.72 3.43 
-116.89 -79.66 3.49 
-111.06 -78.72 3.36 
-111.12 -79.10 3.37 
-110.97 -78.80 3.38 
