# .PCD v0.7 - Point Cloud Data file format
VERSION 0.7
FIELDS x y z
SIZE 4 4 4
TYPE F F F
COUNT 1 1 1
WIDTH 770
HEIGHT 1
VIEWPOINT 0 0 0 1 0 0 0
POINTS 770
DATA ascii
-85.46 -419.70 4.17 
-85.26 -419.95 4.09 
-87.03 -420.68 4.25 
-87.94 -421.38 4.18 
-85.09 -423.31 4.12 
-88.91 -421.14 4.14 
-87.82 -421.70 4.11 
-90.05 -421.39 4.11 
-87.76 -422.58 4.05 
-86.45 -423.40 4.02 
-91.58 -421.21 4.02 
-90.32 -421.93 4.00 
-89.17 -422.60 3.98 
-92.85 -419.75 4.09 
-90.36 -421.14 4.03 
-86.82 -413.62 3.98 
-93.42 -420.37 3.98 
-92.27 -420.96 3.95 
-93.06 -422.84 3.97 
-84.88 -427.08 3.76 
-94.13 -423.08 3.95 
-90.74 -417.78 3.93 
-90.54 -419.89 3.96 
-90.45 -420.81 3.98 
-95.41 -422.71 3.93 
-93.36 -423.24 3.86 
-96.65 -422.07 3.94 
-95.42 -422.55 3.90 
-103.98 -418.38 3.83 
-95.33 -421.78 3.54 
-105.12 -418.26 3.76 
-108.00 -418.60 3.53 
-108.02 -419.68 3.57 
-106.59 -420.21 3.53 
-86.81 -405.78 5.53 
-86.76 -405.72 6.55 
-86.71 -405.44 7.56 
-86.69 -405.34 8.60 
-86.35 -405.26 5.35 
-86.32 -404.99 6.27 
-86.37 -405.22 6.28 
-86.31 -404.96 7.20 
-86.42 -404.90 8.16 
-86.21 -405.04 5.36 
-86.23 -405.00 6.26 
-86.19 -404.69 7.16 
-86.19 -404.92 7.16 
-86.05 -404.85 5.25 
-86.09 -405.06 5.26 
-85.99 -404.83 6.11 
-85.99 -404.74 6.97 
-86.06 -404.69 7.86 
-85.97 -404.89 5.29 
-85.95 -404.85 6.12 
-84.11 -421.45 4.37 
-84.30 -421.34 4.37 
-83.61 -421.79 4.36 
-83.86 -421.62 4.36 
-85.32 -420.20 4.26 
-85.55 -420.01 4.26 
-84.68 -420.59 4.24 
-84.95 -420.43 4.25 
-85.15 -420.38 4.25 
-83.93 -421.00 4.23 
-84.20 -420.84 4.23 
-84.54 -420.70 4.24 
-83.68 -421.15 4.22 
-86.97 -418.90 4.20 
-86.23 -419.38 4.19 
-86.59 -419.14 4.20 
-85.32 -419.76 4.17 
-85.77 -419.58 4.18 
-84.59 -420.18 4.15 
-85.02 -420.02 4.16 
-83.91 -420.58 4.14 
-84.25 -420.38 4.14 
-83.68 -420.73 4.13 
-87.78 -418.53 4.15 
-87.93 -418.33 4.15 
-87.27 -418.87 4.14 
-87.56 -418.66 4.14 
-86.47 -419.36 4.12 
-86.78 -419.16 4.13 
-85.71 -419.78 4.10 
-86.03 -419.60 4.11 
-86.25 -419.47 4.12 
-85.00 -420.18 4.09 
-85.20 -420.07 4.09 
-85.48 -419.86 4.10 
-84.74 -420.34 4.08 
-87.92 -420.14 4.27 
-88.19 -420.05 4.28 
-88.64 -419.84 4.29 
-87.49 -420.50 4.26 
-87.74 -420.34 4.27 
-86.72 -420.91 4.25 
-86.93 -420.80 4.25 
-87.25 -420.60 4.26 
-86.21 -421.30 4.24 
-86.48 -421.09 4.24 
-85.80 -421.63 4.23 
-86.03 -421.46 4.23 
-85.18 -422.09 4.22 
-85.44 -421.84 4.22 
-84.66 -422.44 4.21 
-84.90 -422.29 4.21 
-83.59 -422.95 4.18 
-83.87 -422.88 4.19 
-84.25 -422.69 4.20 
-84.42 -422.56 4.20 
-88.88 -420.90 4.21 
-89.18 -420.74 4.21 
-88.12 -421.30 4.19 
-88.41 -421.15 4.19 
-88.65 -421.06 4.20 
-87.69 -421.65 4.18 
-87.83 -421.45 4.18 
-87.21 -421.96 4.17 
-87.51 -421.73 4.17 
-86.46 -422.47 4.15 
-86.74 -422.27 4.16 
-86.97 -422.18 4.16 
-85.96 -422.80 4.14 
-86.21 -422.62 4.15 
-85.21 -423.20 4.12 
-85.61 -423.02 4.13 
-84.06 -423.73 4.09 
-84.40 -423.59 4.10 
-84.82 -423.42 4.11 
-83.61 -423.83 4.08 
-83.88 -423.78 4.09 
-84.06 -414.16 4.06 
-83.91 -414.69 4.06 
-84.07 -415.13 4.07 
-84.16 -415.49 4.08 
-84.17 -415.92 4.09 
-90.37 -420.45 4.17 
-89.45 -420.83 4.15 
-89.72 -420.75 4.16 
-90.05 -420.61 4.17 
-88.78 -421.24 4.13 
-89.21 -421.00 4.14 
-88.15 -421.56 4.12 
-88.46 -421.39 4.13 
-87.48 -422.06 4.10 
-87.70 -421.87 4.11 
-86.94 -422.40 4.09 
-87.30 -422.19 4.10 
-86.27 -422.82 4.07 
-86.48 -422.67 4.08 
-86.71 -422.54 4.08 
-85.75 -423.16 4.06 
-86.07 -422.96 4.07 
-84.59 -423.70 4.03 
-84.91 -423.56 4.04 
-85.26 -423.35 4.05 
-83.67 -424.02 4.00 
-84.12 -423.89 4.01 
-84.56 -423.75 4.03 
-85.05 -415.07 4.03 
-85.02 -415.48 4.04 
-85.14 -416.22 4.06 
-85.08 -416.63 4.06 
-91.06 -420.71 4.13 
-90.31 -421.14 4.12 
-90.63 -420.96 4.12 
-89.76 -421.53 4.10 
-90.17 -421.34 4.11 
-89.05 -421.92 4.09 
-89.40 -421.72 4.09 
-88.22 -422.39 4.07 
-88.65 -422.17 4.08 
-87.58 -422.83 4.05 
-87.79 -422.65 4.05 
-87.10 -423.08 4.04 
-87.39 -422.91 4.04 
-84.49 -423.37 4.14 
-86.29 -423.55 4.02 
-86.74 -423.31 4.03 
-86.15 -415.45 3.94 
-86.11 -415.86 3.95 
-86.00 -417.86 3.99 
-91.66 -421.14 4.02 
-92.00 -420.93 4.03 
-90.91 -421.65 4.01 
-91.10 -421.48 4.01 
-91.39 -421.32 4.02 
-86.11 -421.71 4.06 
-90.34 -421.93 4.00 
-90.76 -421.77 4.01 
-89.62 -422.39 3.99 
-90.02 -422.19 3.99 
-88.86 -422.80 3.97 
-89.05 -422.70 3.98 
-89.39 -422.54 3.98 
-88.69 -422.94 3.97 
-85.82 -423.38 4.08 
-84.93 -425.16 3.90 
-84.13 -425.60 3.88 
-84.38 -425.45 3.88 
-84.72 -425.28 3.89 
-83.57 -425.96 3.87 
-83.94 -425.75 3.87 
-86.82 -413.35 3.97 
-86.91 -413.92 3.99 
-86.96 -414.31 3.99 
-87.00 -414.67 4.00 
-86.98 -414.95 4.01 
-87.06 -415.44 4.02 
-87.10 -415.86 4.03 
-87.05 -416.29 4.03 
-86.99 -416.71 4.04 
-86.95 -417.00 4.04 
-86.89 -417.91 4.06 
-92.99 -419.62 4.09 
-93.40 -419.49 4.10 
-92.30 -420.08 4.08 
-92.49 -419.97 4.08 
-92.91 -419.74 4.09 
-91.46 -420.45 4.06 
-91.77 -420.33 4.07 
-92.11 -420.18 4.07 
-90.97 -420.76 4.05 
-91.32 -420.57 4.06 
-90.27 -421.20 4.03 
-90.58 -421.02 4.04 
-89.79 -421.58 4.02 
-90.12 -421.40 4.03 
-89.03 -422.04 4.00 
-89.36 -421.87 4.01 
-89.71 -421.71 4.02 
-88.61 -422.35 4.00 
-88.83 -422.18 4.00 
-87.85 -422.81 3.98 
-88.18 -422.61 3.99 
-88.37 -422.51 3.99 
-86.76 -423.23 4.13 
-87.37 -423.17 3.97 
-87.60 -422.97 3.97 
-86.66 -423.47 4.04 
-84.19 -425.13 3.88 
-83.69 -425.40 3.87 
-83.95 -425.29 3.88 
-87.35 -414.23 3.86 
-87.33 -414.64 3.87 
-87.43 -415.05 3.88 
-87.47 -415.43 3.89 
-87.47 -415.88 3.89 
-87.43 -416.35 3.90 
-87.35 -416.56 3.90 
-87.43 -417.28 3.92 
-87.33 -417.81 3.93 
-87.35 -419.17 3.95 
-94.14 -420.10 4.00 
-93.28 -420.49 3.98 
-93.33 -420.48 3.98 
-93.84 -420.22 3.99 
-92.44 -420.86 3.96 
-92.73 -420.71 3.96 
-92.97 -420.55 3.97 
-91.90 -421.23 3.94 
-92.16 -421.07 3.95 
-87.20 -421.61 3.99 
-91.48 -421.56 3.94 
-91.72 -421.40 3.94 
-87.12 -421.81 3.99 
-90.86 -422.03 3.92 
-91.01 -421.93 3.93 
-91.34 -421.74 3.93 
-90.34 -422.33 3.91 
-90.65 -422.18 3.92 
-89.58 -422.86 3.90 
-89.84 -422.69 3.90 
-90.15 -422.53 3.91 
-86.96 -423.13 4.00 
-89.09 -423.11 3.88 
-89.47 -422.90 3.89 
-88.65 -423.35 3.87 
-86.88 -423.72 4.01 
-85.85 -425.13 3.80 
-84.84 -425.64 3.78 
-85.07 -425.52 3.78 
-85.42 -425.38 3.79 
-84.62 -425.79 3.77 
-83.54 -426.37 3.74 
-83.90 -426.18 3.75 
-84.09 -426.06 3.76 
-88.92 -413.41 3.84 
-88.99 -413.84 3.86 
-89.03 -414.28 3.87 
-89.11 -414.24 3.87 
-89.03 -414.51 3.87 
-89.10 -414.67 3.88 
-89.27 -415.04 3.89 
-89.28 -415.47 3.90 
-89.39 -415.91 3.91 
-89.35 -416.26 3.92 
-89.27 -416.81 3.93 
-89.25 -416.96 3.93 
-89.19 -417.27 3.93 
-89.15 -417.84 3.94 
-93.79 -422.46 3.99 
-94.08 -422.34 4.00 
-93.26 -422.75 3.98 
-93.52 -422.61 3.98 
-88.88 -423.22 4.03 
-92.47 -423.24 3.96 
-92.83 -423.03 3.97 
-91.77 -423.61 3.94 
-92.06 -423.51 3.95 
-92.27 -423.33 3.95 
-90.95 -424.01 3.92 
-91.17 -423.88 3.93 
-91.50 -423.74 3.93 
-90.16 -424.43 3.90 
-90.38 -424.26 3.91 
-90.71 -424.14 3.91 
-89.71 -424.75 3.89 
-89.95 -424.58 3.90 
-88.90 -425.19 3.87 
-89.20 -425.04 3.88 
-89.51 -424.88 3.89 
-88.33 -425.49 3.86 
-88.70 -425.32 3.87 
-87.61 -425.86 3.84 
-88.03 -425.67 3.85 
-86.52 -426.39 3.81 
-86.81 -426.28 3.81 
-87.15 -426.12 3.82 
-87.42 -426.05 3.83 
-85.67 -426.78 3.78 
-86.02 -426.62 3.79 
-86.32 -426.49 3.80 
-84.79 -427.17 3.76 
-85.18 -427.00 3.77 
-85.43 -426.87 3.77 
-84.72 -427.31 3.76 
-90.86 -413.99 3.87 
-90.85 -414.27 3.87 
-91.19 -415.28 3.90 
-91.14 -415.91 3.91 
-91.09 -416.31 3.92 
-91.04 -416.69 3.92 
-90.98 -417.05 3.93 
-90.49 -420.02 3.96 
-90.45 -420.25 3.97 
-90.43 -420.55 3.97 
-90.30 -421.22 3.98 
-90.40 -420.93 3.98 
-94.73 -422.86 3.97 
-94.99 -422.80 3.97 
-93.39 -423.26 3.93 
-93.73 -423.18 3.94 
-94.17 -423.04 3.95 
-94.53 -422.94 3.96 
-92.54 -423.61 3.90 
-92.95 -423.39 3.92 
-91.10 -424.07 3.86 
-91.33 -423.98 3.87 
-91.77 -423.83 3.88 
-92.13 -423.74 3.89 
-90.08 -424.37 3.83 
-90.45 -424.28 3.84 
-90.81 -424.17 3.85 
-89.12 -424.83 3.80 
-89.37 -424.74 3.81 
-89.75 -424.58 3.82 
-88.27 -425.22 3.78 
-88.57 -425.10 3.79 
-88.95 -424.91 3.80 
-87.39 -425.54 3.75 
-87.74 -425.42 3.76 
-88.04 -425.29 3.77 
-86.19 -425.98 3.72 
-86.56 -425.88 3.73 
-86.94 -425.72 3.74 
-85.08 -426.39 3.68 
-85.38 -426.30 3.69 
-84.25 -426.75 3.65 
-84.60 -426.58 3.67 
-84.87 -426.47 3.67 
-83.73 -427.00 3.64 
-84.02 -426.86 3.65 
-92.73 -417.15 3.93 
-92.46 -417.83 3.94 
-95.15 -422.85 3.92 
-95.89 -422.68 3.95 
-93.64 -423.22 3.87 
-93.86 -423.17 3.88 
-94.26 -423.12 3.89 
-94.72 -423.02 3.91 
-92.34 -423.61 3.83 
-92.74 -423.50 3.84 
-93.10 -423.36 3.85 
-90.79 -424.07 3.78 
-91.04 -424.00 3.79 
-91.39 -423.88 3.80 
-92.11 -423.72 3.82 
-89.63 -424.44 3.74 
-89.87 -424.35 3.75 
-90.26 -424.20 3.76 
-90.62 -424.12 3.77 
-87.51 -425.19 3.67 
-87.90 -425.10 3.68 
-86.40 -425.60 3.63 
-86.69 -425.50 3.64 
-87.11 -425.38 3.65 
-87.35 -425.30 3.66 
-85.51 -425.89 3.60 
-85.90 -425.77 3.61 
-86.19 -425.68 3.62 
-83.98 -426.38 3.54 
-84.25 -426.26 3.55 
-84.67 -426.13 3.56 
-84.96 -426.08 3.58 
-83.79 -426.45 3.53 
-93.49 -415.72 3.91 
-92.97 -417.82 3.93 
-96.42 -422.15 3.93 
-96.94 -421.95 3.95 
-97.33 -421.82 3.96 
-95.70 -422.51 3.91 
-95.95 -422.39 3.92 
-96.26 -422.24 3.93 
-91.58 -422.78 3.96 
-94.83 -422.88 3.89 
-95.25 -422.69 3.90 
-91.42 -423.21 3.96 
-93.66 -423.26 3.85 
-94.07 -423.15 3.87 
-94.40 -423.06 3.88 
-91.42 -423.35 3.96 
-93.25 -423.45 3.84 
-91.57 -424.08 3.79 
-92.41 -423.83 3.82 
-90.91 -424.47 3.77 
-91.20 -424.34 3.78 
-91.47 -424.19 3.79 
-90.09 -424.80 3.75 
-90.40 -424.70 3.76 
-90.69 -424.57 3.77 
-89.23 -425.22 3.72 
-89.63 -425.03 3.73 
-89.92 -424.93 3.74 
-88.15 -425.66 3.69 
-88.43 -425.56 3.69 
-88.82 -425.39 3.71 
-87.32 -426.00 3.66 
-87.64 -425.88 3.67 
-87.98 -425.72 3.68 
-84.96 -426.82 3.58 
-85.19 -426.75 3.59 
-84.68 -426.89 3.57 
-92.25 -414.37 3.83 
-92.24 -414.70 3.84 
-92.30 -415.19 3.85 
-92.25 -415.72 3.85 
-92.26 -415.95 3.86 
-92.10 -416.41 3.86 
-92.01 -416.74 3.86 
-91.93 -417.19 3.87 
-91.87 -417.45 3.87 
-91.65 -417.81 3.87 
-91.52 -418.89 3.88 
-98.17 -418.92 3.93 
-91.45 -419.15 3.88 
-97.35 -419.31 3.91 
-96.59 -419.68 3.89 
-96.99 -419.52 3.90 
-95.75 -420.06 3.86 
-96.23 -419.86 3.88 
-91.02 -420.42 3.88 
-94.69 -420.54 3.83 
-94.97 -420.40 3.84 
-95.40 -420.27 3.85 
-90.85 -420.85 3.88 
-93.75 -420.92 3.80 
-94.12 -420.77 3.81 
-94.41 -420.64 3.82 
-90.67 -421.29 3.88 
-90.75 -421.10 3.88 
-92.97 -421.28 3.78 
-93.32 -421.12 3.79 
-93.52 -421.04 3.79 
-90.59 -421.46 3.88 
-92.26 -421.69 3.75 
-92.54 -421.56 3.76 
-92.76 -421.45 3.77 
-90.54 -421.97 3.88 
-91.49 -422.13 3.73 
-91.71 -422.00 3.74 
-92.07 -421.81 3.75 
-90.42 -422.35 3.88 
-90.93 -422.43 3.71 
-91.25 -422.26 3.72 
-90.20 -422.87 3.78 
-90.48 -422.70 3.79 
-90.76 -422.54 3.71 
-89.69 -423.03 3.67 
-90.03 -423.53 3.88 
-89.86 -423.94 3.88 
-89.92 -423.79 3.88 
-89.80 -424.22 3.88 
-89.76 -424.66 3.88 
-89.67 -425.15 3.89 
-93.05 -415.25 3.74 
-93.09 -415.05 3.74 
-93.04 -415.57 3.75 
-93.00 -415.96 3.75 
-92.85 -416.33 3.75 
-92.73 -416.77 3.75 
-92.57 -417.27 3.75 
-92.65 -417.09 3.75 
-92.53 -417.46 3.76 
-92.38 -417.82 3.76 
-98.09 -418.61 3.79 
-98.35 -418.47 3.79 
-97.21 -418.96 3.76 
-97.60 -418.83 3.77 
-97.86 -418.69 3.78 
-91.92 -419.02 3.76 
-96.18 -419.43 3.73 
-96.43 -419.30 3.74 
-96.85 -419.13 3.75 
-91.77 -419.49 3.76 
-91.80 -419.39 3.76 
-95.55 -419.68 3.71 
-95.97 -419.53 3.72 
-91.58 -420.03 3.76 
-94.41 -420.13 3.68 
-91.45 -420.36 3.76 
-93.33 -420.53 3.64 
-93.64 -420.41 3.65 
-94.05 -420.27 3.66 
-91.27 -420.74 3.75 
-92.43 -420.85 3.61 
-93.10 -420.62 3.63 
-91.13 -421.13 3.75 
-91.97 -421.07 3.60 
-91.11 -421.52 3.66 
-90.78 -421.89 3.66 
-90.98 -421.88 3.76 
-90.80 -422.26 3.76 
-89.90 -424.50 3.75 
-89.75 -425.21 3.75 
-94.57 -415.32 3.70 
-94.59 -415.10 3.70 
-94.50 -415.64 3.70 
-94.39 -416.06 3.71 
-94.24 -416.44 3.71 
-94.16 -416.83 3.71 
-93.73 -417.82 3.71 
-93.52 -418.70 3.72 
-93.12 -419.66 3.72 
-92.82 -420.10 3.71 
-92.89 -419.99 3.71 
-97.44 -420.00 3.69 
-92.72 -420.34 3.71 
-95.87 -420.58 3.64 
-96.30 -420.38 3.66 
-92.59 -420.77 3.71 
-95.47 -420.71 3.63 
-92.39 -421.21 3.71 
-92.46 -421.06 3.71 
-94.30 -421.14 3.59 
-92.30 -421.51 3.71 
-92.26 -421.94 3.62 
-92.11 -422.26 3.71 
-91.86 -422.72 3.71 
-91.19 -424.54 3.71 
-95.98 -414.19 3.67 
-95.80 -414.38 3.67 
-95.74 -414.87 3.68 
-95.71 -415.27 3.68 
-95.66 -415.75 3.69 
-95.47 -416.19 3.69 
-95.61 -416.00 3.69 
-95.38 -416.45 3.69 
-95.27 -416.84 3.69 
-95.12 -417.13 3.69 
-94.78 -417.68 3.69 
-93.72 -420.61 3.69 
-93.84 -420.51 3.69 
-96.13 -420.61 3.59 
-96.36 -420.54 3.60 
-93.58 -420.85 3.69 
-95.56 -420.88 3.58 
-95.92 -420.72 3.59 
-93.34 -421.41 3.69 
-93.45 -421.14 3.69 
-94.82 -421.21 3.55 
-94.97 -421.12 3.56 
-92.90 -422.52 3.69 
-92.98 -422.40 3.69 
-92.82 -422.73 3.69 
-92.36 -424.19 3.69 
-97.46 -415.39 3.72 
-97.44 -415.53 3.72 
-97.15 -416.24 3.72 
-97.02 -416.59 3.72 
-96.85 -416.94 3.72 
-96.67 -417.35 3.72 
-96.34 -417.78 3.72 
-96.49 -417.70 3.72 
-104.71 -418.06 3.85 
-104.81 -418.06 3.86 
-103.72 -418.48 3.82 
-104.21 -418.27 3.84 
-104.44 -418.17 3.84 
-95.30 -420.51 3.71 
-95.14 -420.86 3.71 
-95.04 -421.24 3.71 
-94.92 -421.62 3.71 
-95.40 -421.78 3.54 
-94.53 -422.18 3.61 
-94.78 -422.00 3.62 
-95.14 -421.91 3.54 
-94.51 -422.44 3.70 
-94.19 -423.02 3.70 
-94.32 -422.79 3.70 
-94.10 -423.19 3.70 
-93.81 -424.02 3.69 
-98.19 -416.18 3.65 
-98.06 -416.56 3.65 
-97.86 -416.97 3.65 
-105.39 -418.17 3.76 
-105.65 -417.99 3.77 
-104.85 -418.44 3.75 
-105.01 -418.37 3.75 
-103.96 -418.84 3.72 
-104.40 -418.67 3.73 
-103.68 -419.00 3.71 
-96.25 -420.61 3.64 
-96.08 -421.08 3.64 
-96.15 -420.92 3.64 
-95.97 -421.34 3.64 
-95.91 -421.68 3.64 
-95.66 -422.21 3.64 
-95.22 -422.95 3.63 
-95.35 -422.79 3.63 
-95.12 -423.26 3.63 
-94.95 -423.62 3.63 
-107.96 -417.08 3.74 
-107.28 -417.43 3.72 
-107.53 -417.33 3.72 
-107.78 -417.21 3.73 
-106.67 -417.73 3.70 
-107.05 -417.55 3.71 
-105.95 -418.14 3.68 
-106.30 -417.94 3.69 
-105.45 -418.43 3.66 
-104.62 -418.84 3.64 
-105.07 -418.64 3.65 
-95.95 -424.45 3.55 
-95.54 -425.32 3.55 
-107.78 -417.56 3.72 
-108.17 -417.38 3.73 
-106.94 -417.93 3.69 
-107.30 -417.77 3.70 
-106.27 -418.30 3.67 
-106.55 -418.14 3.68 
-105.46 -418.68 3.64 
-105.71 -418.59 3.65 
-106.04 -418.39 3.66 
-104.87 -419.02 3.63 
-105.23 -418.83 3.64 
-104.52 -419.16 3.61 
-97.07 -424.35 3.57 
-96.93 -424.55 3.57 
-96.52 -425.58 3.56 
-108.46 -418.41 3.54 
-107.75 -418.73 3.52 
-108.26 -418.52 3.54 
-106.86 -419.11 3.50 
-107.26 -418.95 3.51 
-97.38 -425.52 3.48 
-108.30 -419.63 3.58 
-107.45 -419.94 3.55 
-107.76 -419.84 3.56 
-106.43 -420.29 3.52 
-106.92 -420.12 3.54 
-107.23 -420.01 3.55 
-106.30 -420.37 3.52 
-100.12 -423.31 3.51 
-107.85 -419.95 3.44 
-108.30 -419.82 3.46 
-108.43 -419.54 3.42 
-107.67 -419.84 3.40 
-108.05 -419.69 3.41 
-108.36 -420.40 3.53 
-108.06 -420.86 3.53 
-108.22 -420.65 3.53 
-107.41 -421.77 3.38 
-106.72 -423.52 3.52 
-106.87 -423.34 3.52 
-108.07 -423.10 3.50 
-107.94 -423.40 3.50 
-93.59 -405.82 -0.48 
-94.62 -405.73 -0.42 
-95.53 -405.68 -0.37 
-95.64 -405.64 -0.37 
-96.02 -405.50 -0.35 
-96.53 -405.56 -0.31 
-97.15 -405.45 -0.28 
-98.04 -405.38 -0.23 
-98.41 -405.23 -0.21 
-99.79 -405.25 -0.13 
-105.98 -404.70 0.22 
-99.04 -405.35 0.42 
-99.67 -405.38 0.44 
-100.29 -405.25 0.46 
-100.85 -405.27 0.48 
-101.43 -405.15 0.50 
-101.99 -405.18 0.52 
-102.53 -405.06 0.53 
-103.03 -405.08 0.55 
-104.00 -404.99 0.59 
-104.48 -404.88 0.60 
-104.92 -404.90 0.62 
-105.81 -404.84 0.65 
-106.23 -404.74 0.66 
-97.72 -405.48 0.37 
-98.31 -405.33 0.59 
-98.41 -405.49 0.40 
-100.63 -405.13 0.67 
-101.66 -404.96 0.70 
-103.25 -404.89 0.76 
-103.96 -404.86 0.78 
-104.98 -404.73 0.81 
-105.53 -404.69 0.83 
-105.41 -404.71 1.38 
-106.30 -404.70 1.30 
-99.75 -405.20 0.02 
-104.85 -404.78 0.24 
-93.67 -405.64 -0.23 
-95.62 -405.48 -0.15 
-96.56 -405.42 -0.01 
-97.37 -405.32 -0.08 
-98.20 -405.33 -0.04 
-101.09 -404.97 0.28 
-102.27 -404.81 0.32 
-102.65 -404.86 0.34 
-104.04 -404.74 0.40 
-104.00 -404.71 0.90 
-104.53 -404.73 0.91 
-103.16 -404.75 1.07 
-99.63 -405.05 -0.06 
-97.64 -405.21 -0.15 
-98.48 -405.00 0.09 
-100.91 -404.88 0.20 
-102.68 -404.74 0.27 
-86.87 -408.02 0.76 
-101.74 -405.09 0.20 
-102.37 -405.07 0.22 
-103.92 -404.91 0.27 
-104.60 -404.90 0.29 
-105.54 -404.75 0.32 
-106.42 -404.76 0.35 
-96.72 -404.99 -0.31 
-97.54 -404.84 -0.28 
-98.37 -404.88 -0.23 
-99.12 -404.73 -0.20 
-93.13 -405.27 -0.48 
-94.04 -405.09 -0.44 
-95.70 -405.13 -0.73 
-92.29 -405.25 -0.93 
-99.34 -404.80 0.31 
-97.45 -404.92 0.25 
-90.09 -405.19 -1.22 
-86.69 -407.69 0.78 
