# .PCD v0.7 - Point Cloud Data file format
VERSION 0.7
FIELDS x y z
SIZE 4 4 4
TYPE F F F
COUNT 1 1 1
WIDTH 2239
HEIGHT 1
VIEWPOINT 0 0 0 1 0 0 0
POINTS 2239
DATA ascii
-104.16 -401.75 3.31 
-104.51 -401.75 3.33 
-104.91 -401.75 3.36 
-105.28 -401.75 3.39 
-105.72 -401.80 3.15 
-106.12 -401.80 3.17 
-106.54 -401.81 3.20 
-106.78 -401.82 3.22 
-107.68 -401.86 3.28 
-84.05 -401.50 2.50 
-85.04 -401.49 2.53 
-85.38 -401.52 2.53 
-85.73 -401.53 2.54 
-86.22 -401.56 2.55 
-86.51 -401.54 2.56 
-86.87 -401.67 2.49 
-87.39 -401.69 2.50 
-87.64 -401.68 2.50 
-88.06 -401.77 2.44 
-88.55 -401.76 2.48 
-88.97 -401.74 2.54 
-89.30 -401.71 2.53 
-89.56 -401.68 2.58 
-90.54 -401.77 2.64 
-90.91 -401.75 2.63 
-91.34 -401.76 2.64 
-91.72 -401.75 2.64 
-92.11 -401.76 2.66 
-92.54 -401.75 2.66 
-92.91 -401.76 2.68 
-93.30 -401.72 2.80 
-93.72 -401.73 2.82 
-94.12 -401.71 2.81 
-94.61 -401.73 2.84 
-94.89 -401.75 2.85 
-95.27 -401.79 2.87 
-95.71 -401.80 2.88 
-96.20 -401.84 2.90 
-96.36 -401.83 2.91 
-83.69 -401.79 2.34 
-84.11 -401.80 2.35 
-84.55 -401.80 2.36 
-84.95 -401.80 2.37 
-85.20 -401.77 2.37 
-86.14 -401.81 2.39 
-86.48 -401.83 2.39 
-86.90 -401.80 2.40 
-87.36 -401.82 2.41 
-86.68 -403.66 2.55 
-103.70 -401.65 3.67 
-104.12 -401.69 3.57 
-104.51 -401.70 3.60 
-104.87 -401.70 3.63 
-105.29 -401.71 3.67 
-105.75 -401.73 3.71 
-106.18 -401.72 3.75 
-106.69 -401.73 3.80 
-107.74 -401.72 3.90 
-108.07 -401.72 3.94 
-108.48 -401.73 3.98 
-90.06 -401.49 2.97 
-94.13 -401.62 3.38 
-94.35 -401.61 3.38 
-94.86 -401.65 3.30 
-95.16 -401.62 3.39 
-95.74 -401.63 3.39 
-98.54 -401.50 3.23 
-98.98 -401.69 3.24 
-99.32 -401.67 3.26 
-99.72 -401.70 3.27 
-100.12 -401.70 3.30 
-100.52 -401.69 3.32 
-100.88 -401.68 3.34 
-101.28 -401.69 3.36 
-101.73 -401.70 3.39 
-102.09 -401.71 3.42 
-102.37 -401.70 3.44 
-103.44 -401.70 3.52 
-103.66 -401.71 3.53 
-104.14 -401.73 3.57 
-83.57 -401.46 2.89 
-85.00 -401.59 2.84 
-85.37 -401.59 2.84 
-85.76 -401.61 2.84 
-86.08 -401.64 2.82 
-86.48 -401.64 2.83 
-86.92 -401.69 2.80 
-87.30 -401.65 2.83 
-87.67 -401.72 2.78 
-88.06 -401.68 2.83 
-88.44 -401.70 2.81 
-88.86 -401.73 2.95 
-89.36 -401.68 2.98 
-89.70 -401.63 3.04 
-90.05 -401.60 3.04 
-90.50 -401.66 3.08 
-90.90 -401.68 3.11 
-91.32 -401.67 3.11 
-91.66 -401.68 3.10 
-92.09 -401.67 3.10 
-92.46 -401.67 3.10 
-92.81 -401.68 3.10 
-95.09 -401.72 3.38 
-83.65 -401.72 2.78 
-84.09 -401.71 2.77 
-84.42 -401.72 2.77 
-84.85 -401.73 2.77 
-85.28 -401.74 2.77 
-85.58 -401.73 2.77 
-86.57 -403.68 2.85 
-86.62 -403.56 2.86 
-86.57 -403.88 2.74 
-99.00 -401.47 3.99 
-99.27 -401.47 4.00 
-99.66 -401.47 4.02 
-100.04 -401.48 4.04 
-100.49 -401.47 4.07 
-100.92 -401.46 4.10 
-101.25 -401.46 4.12 
-101.57 -401.55 3.88 
-102.97 -401.55 4.00 
-103.76 -401.65 4.07 
-104.15 -401.55 4.12 
-104.41 -401.56 4.14 
-104.90 -401.60 4.05 
-105.30 -401.60 4.10 
-105.73 -401.59 4.14 
-106.06 -401.59 4.18 
-106.40 -401.60 4.22 
-106.75 -401.64 4.11 
-107.72 -401.64 4.22 
-108.09 -401.65 4.26 
-108.44 -401.64 4.30 
-92.15 -401.54 3.60 
-92.50 -401.55 3.60 
-92.91 -401.56 3.57 
-93.25 -401.57 3.56 
-93.68 -401.56 3.61 
-94.08 -401.55 3.66 
-94.44 -401.55 3.65 
-94.82 -401.54 3.65 
-95.33 -401.56 3.65 
-95.63 -401.55 3.65 
-97.17 -401.46 3.93 
-97.66 -401.46 3.94 
-98.13 -401.48 3.95 
-98.42 -401.47 3.96 
-98.88 -401.48 3.98 
-84.40 -401.63 3.20 
-84.90 -401.59 3.21 
-85.29 -401.56 3.22 
-85.71 -401.56 3.22 
-86.10 -401.55 3.22 
-86.49 -401.57 3.21 
-86.92 -401.58 3.20 
-87.31 -401.58 3.20 
-87.70 -401.55 3.22 
-88.06 -401.62 3.31 
-88.45 -401.59 3.37 
-88.87 -401.62 3.47 
-89.27 -401.57 3.41 
-89.67 -401.58 3.41 
-90.08 -401.59 3.41 
-90.40 -401.60 3.43 
-90.84 -401.61 3.42 
-91.26 -401.61 3.41 
-91.70 -401.60 3.40 
-92.03 -401.60 3.40 
-86.55 -403.50 3.18 
-96.87 -401.37 4.19 
-97.31 -401.38 4.20 
-97.66 -401.37 4.20 
-98.05 -401.38 4.21 
-98.47 -401.38 4.23 
-98.87 -401.38 4.24 
-99.28 -401.38 4.26 
-99.68 -401.38 4.28 
-100.08 -401.39 4.30 
-100.45 -401.39 4.33 
-100.80 -401.38 4.35 
-101.24 -401.39 4.38 
-101.67 -401.41 4.33 
-102.10 -401.41 4.39 
-102.49 -401.42 4.39 
-102.87 -401.42 4.42 
-103.30 -401.42 4.47 
-103.60 -401.43 4.50 
-104.04 -401.47 4.38 
-104.44 -401.47 4.43 
-104.87 -401.46 4.48 
-105.28 -401.46 4.53 
-105.67 -401.46 4.58 
-106.08 -401.46 4.64 
-106.45 -401.50 4.58 
-106.88 -401.53 4.53 
-107.29 -401.55 4.54 
-107.71 -401.56 4.53 
-108.13 -401.57 4.59 
-108.45 -401.57 4.63 
-90.97 -401.52 3.73 
-91.25 -401.53 3.72 
-91.68 -401.53 3.71 
-91.94 -401.52 3.70 
-93.35 -401.46 3.96 
-93.63 -401.45 3.95 
-94.07 -401.46 3.94 
-94.49 -401.45 3.93 
-94.88 -401.53 3.92 
-95.30 -401.46 3.92 
-95.69 -401.46 3.92 
-96.09 -401.42 4.04 
-96.46 -401.42 4.06 
-96.86 -401.46 3.93 
-87.70 -401.60 3.50 
-90.58 -401.53 3.74 
-90.90 -401.54 3.73 
-106.87 -401.38 5.06 
-107.09 -401.39 5.09 
-104.06 -401.38 4.67 
-104.55 -401.38 4.73 
-104.87 -401.37 4.78 
-105.20 -401.38 4.82 
-105.51 -401.37 4.86 
-105.90 -401.38 4.92 
-106.52 -401.40 5.00 
-107.77 -401.46 4.87 
-108.10 -401.48 4.91 
-108.34 -401.49 4.95 
-86.19 -403.33 4.58 
-98.27 -401.79 2.14 
-99.24 -401.86 2.19 
-99.56 -401.86 2.21 
-99.94 -401.87 2.23 
-100.39 -401.87 2.25 
-100.78 -401.86 2.27 
-101.17 -401.88 2.29 
-101.57 -401.88 2.30 
-101.94 -401.85 2.32 
-102.32 -401.76 2.34 
-102.96 -401.88 2.37 
-103.19 -401.88 2.38 
-103.63 -401.88 2.40 
-103.95 -401.89 2.41 
-104.36 -401.88 2.43 
-104.73 -401.90 2.45 
-105.18 -401.91 2.47 
-105.56 -401.91 2.48 
-105.98 -401.90 2.50 
-106.28 -401.92 2.51 
-107.27 -401.93 2.56 
-107.58 -401.95 2.57 
-107.99 -401.95 2.59 
-108.35 -401.95 2.60 
-89.58 -401.66 1.57 
-90.09 -401.87 1.70 
-90.36 -401.87 1.72 
-90.79 -401.83 1.73 
-91.20 -401.82 1.75 
-91.61 -401.80 1.75 
-91.99 -401.84 1.79 
-92.41 -401.81 1.80 
-92.76 -401.79 1.81 
-93.16 -401.80 1.83 
-93.58 -401.80 1.86 
-93.95 -401.79 1.88 
-94.36 -401.85 1.94 
-94.81 -401.87 1.96 
-95.17 -401.84 1.95 
-95.58 -401.84 1.96 
-95.99 -401.86 2.00 
-96.38 -401.85 2.03 
-96.78 -401.87 2.05 
-97.17 -401.87 2.06 
-97.52 -401.87 2.08 
-97.95 -401.88 2.05 
-98.46 -401.87 2.08 
-98.69 -401.88 2.13 
-99.12 -401.87 2.19 
-84.69 -401.85 1.39 
-85.68 -401.87 1.45 
-85.95 -401.87 1.46 
-86.37 -401.89 1.49 
-86.72 -401.86 1.51 
-87.13 -401.87 1.53 
-87.56 -401.85 1.56 
-87.97 -401.87 1.58 
-88.45 -401.89 1.61 
-88.98 -401.88 1.64 
-97.18 -401.77 2.58 
-97.49 -401.76 2.59 
-98.50 -401.81 2.51 
-98.77 -401.81 2.52 
-99.17 -401.80 2.54 
-99.54 -401.79 2.56 
-99.95 -401.80 2.58 
-100.38 -401.81 2.60 
-100.76 -401.79 2.62 
-101.07 -401.79 2.67 
-101.56 -401.82 2.62 
-101.99 -401.79 2.64 
-102.37 -401.79 2.58 
-102.84 -401.80 2.72 
-103.16 -401.83 2.74 
-103.58 -401.82 2.76 
-103.96 -401.81 2.78 
-104.37 -401.83 2.81 
-104.76 -401.83 2.83 
-105.13 -401.83 2.85 
-105.59 -401.84 2.88 
-105.97 -401.84 2.90 
-106.22 -401.84 2.92 
-107.28 -401.87 2.84 
-107.54 -401.88 2.85 
-107.95 -401.90 2.88 
-108.37 -401.91 2.90 
-84.84 -401.49 1.82 
-85.14 -401.50 1.84 
-86.39 -401.54 1.90 
-86.77 -401.54 1.85 
-87.08 -401.55 1.93 
-87.49 -401.60 1.99 
-87.93 -401.61 2.00 
-88.40 -401.64 2.03 
-88.75 -401.66 2.05 
-89.13 -401.64 2.04 
-89.54 -401.62 2.05 
-89.99 -401.71 2.13 
-90.35 -401.70 2.15 
-90.72 -401.73 2.09 
-91.15 -401.72 2.06 
-91.58 -401.73 2.06 
-91.98 -401.73 2.08 
-92.39 -401.78 2.18 
-92.75 -401.77 2.10 
-93.15 -401.74 2.20 
-93.57 -401.73 2.25 
-93.95 -401.76 2.22 
-94.36 -401.78 2.34 
-94.79 -401.81 2.35 
-95.15 -401.79 2.36 
-95.57 -401.79 2.38 
-95.97 -401.80 2.40 
-96.35 -401.80 2.42 
-96.75 -401.81 2.43 
-97.07 -401.80 2.44 
-97.53 -401.83 2.46 
-97.94 -401.86 2.46 
-98.31 -401.87 2.48 
-84.68 -401.78 1.82 
-85.58 -401.83 1.86 
-85.96 -401.80 1.87 
-86.30 -401.79 1.89 
-86.77 -401.79 1.90 
-87.11 -401.81 1.92 
-87.46 -401.80 1.93 
-88.03 -401.82 1.95 
-88.35 -401.88 1.97 
-86.71 -403.67 1.95 
-107.20 -401.77 3.40 
-107.51 -401.77 3.43 
-107.73 -401.77 3.44 
-108.28 -401.78 3.49 
-94.54 -401.66 2.71 
-94.56 -401.66 2.71 
-95.69 -401.70 2.78 
-95.99 -401.72 2.79 
-96.29 -401.72 2.80 
-96.72 -401.71 2.81 
-97.12 -401.73 2.82 
-97.54 -401.72 2.83 
-97.95 -401.73 2.85 
-98.37 -401.73 2.86 
-98.78 -401.72 2.88 
-99.18 -401.73 2.90 
-99.55 -401.72 2.91 
-99.92 -401.71 2.93 
-100.37 -401.74 2.95 
-100.74 -401.73 2.97 
-101.16 -401.71 2.99 
-101.54 -401.73 3.01 
-101.94 -401.64 3.04 
-102.87 -401.74 3.09 
-103.16 -401.74 3.11 
-103.57 -401.74 3.13 
-103.90 -401.75 3.15 
-104.30 -401.76 3.18 
-104.71 -401.76 3.21 
-105.13 -401.76 3.24 
-105.53 -401.76 3.27 
-105.92 -401.76 3.30 
-106.22 -401.76 3.32 
-107.21 -401.81 3.26 
-107.55 -401.83 3.14 
-107.92 -401.84 3.17 
-108.31 -401.85 3.19 
-83.52 -401.47 1.97 
-83.81 -401.42 1.98 
-84.73 -401.50 2.36 
-85.14 -401.44 2.42 
-85.38 -401.45 2.43 
-86.40 -401.61 2.37 
-86.85 -401.62 2.38 
-87.11 -401.76 2.30 
-87.50 -401.62 2.39 
-87.95 -401.64 2.41 
-88.41 -401.64 2.42 
-88.73 -401.67 2.42 
-89.05 -401.63 2.43 
-89.49 -401.55 2.53 
-89.98 -401.75 2.37 
-90.32 -401.77 2.37 
-90.81 -401.71 2.56 
-91.12 -401.70 2.58 
-91.54 -401.71 2.58 
-91.97 -401.72 2.56 
-92.33 -401.71 2.56 
-92.76 -401.73 2.57 
-93.16 -401.73 2.58 
-93.53 -401.70 2.56 
-93.98 -401.71 2.69 
-94.33 -401.71 2.75 
-94.77 -401.73 2.75 
-95.13 -401.72 2.76 
-95.50 -401.72 2.78 
-95.91 -401.74 2.78 
-96.26 -401.76 2.79 
-96.87 -401.78 2.81 
-97.29 -401.82 2.83 
-97.53 -401.82 2.85 
-97.80 -401.82 2.86 
-85.59 -401.75 2.27 
-85.93 -401.74 2.28 
-86.42 -401.76 2.29 
-86.72 -401.76 2.30 
-88.32 -401.86 2.33 
-86.59 -403.60 2.44 
-86.05 -403.93 2.28 
-105.28 -401.69 3.52 
-105.59 -401.70 3.55 
-105.87 -401.70 3.62 
-106.18 -401.71 3.60 
-107.51 -401.74 3.72 
-107.95 -401.73 3.76 
-108.29 -401.73 3.79 
-93.62 -401.60 3.03 
-93.87 -401.56 3.01 
-95.21 -401.59 3.31 
-96.04 -401.59 3.31 
-96.57 -401.60 3.32 
-100.05 -401.68 3.17 
-100.38 -401.69 3.19 
-100.75 -401.70 3.21 
-101.14 -401.68 3.23 
-101.55 -401.68 3.25 
-101.82 -401.68 3.27 
-102.84 -401.70 3.33 
-103.12 -401.71 3.35 
-103.51 -401.71 3.38 
-103.92 -401.69 3.41 
-104.33 -401.71 3.44 
-104.72 -401.70 3.47 
-105.12 -401.70 3.51 
-105.49 -401.71 3.54 
-83.62 -401.50 2.54 
-83.99 -401.62 2.69 
-84.79 -401.48 2.77 
-85.15 -401.65 2.69 
-85.51 -401.54 2.75 
-85.95 -401.54 2.75 
-86.33 -401.55 2.75 
-86.74 -401.56 2.76 
-87.07 -401.55 2.76 
-87.53 -401.61 2.73 
-87.88 -401.67 2.69 
-88.32 -401.70 2.69 
-88.72 -401.64 2.76 
-89.13 -401.66 2.72 
-89.52 -401.61 2.77 
-89.93 -401.65 2.89 
-90.31 -401.63 2.89 
-90.70 -401.65 2.89 
-91.12 -401.59 2.94 
-91.52 -401.63 3.03 
-91.82 -401.63 3.03 
-92.36 -401.64 3.03 
-92.75 -401.64 3.03 
-93.54 -401.63 3.03 
-83.53 -401.63 2.69 
-83.97 -401.65 2.69 
-84.35 -401.66 2.69 
-84.60 -401.66 2.69 
-99.68 -401.46 3.90 
-99.90 -401.46 3.91 
-100.24 -401.46 3.93 
-100.73 -401.47 3.95 
-101.08 -401.48 3.97 
-101.51 -401.47 4.00 
-101.88 -401.47 4.03 
-102.26 -401.49 3.99 
-102.90 -401.56 3.84 
-103.05 -401.56 3.85 
-103.44 -401.56 3.89 
-103.92 -401.56 3.93 
-104.32 -401.56 3.97 
-104.66 -401.56 4.00 
-105.62 -401.57 4.10 
-105.92 -401.61 3.99 
-106.23 -401.61 4.02 
-106.75 -401.58 4.22 
-107.16 -401.60 4.13 
-107.44 -401.61 4.16 
-107.84 -401.67 4.05 
-108.28 -401.65 4.10 
-92.51 -401.57 3.33 
-92.79 -401.57 3.33 
-93.17 -401.54 3.45 
-93.51 -401.51 3.55 
-93.93 -401.53 3.51 
-94.18 -401.51 3.60 
-94.72 -401.53 3.53 
-95.03 -401.52 3.59 
-95.49 -401.52 3.58 
-95.78 -401.52 3.58 
-96.16 -401.52 3.58 
-96.70 -401.52 3.58 
-96.94 -401.54 3.58 
-97.60 -401.53 3.59 
-98.06 -401.45 3.86 
-98.32 -401.45 3.86 
-98.69 -401.48 3.79 
-99.10 -401.46 3.88 
-99.47 -401.48 3.83 
-100.38 -401.54 3.68 
-100.70 -401.54 3.70 
-101.14 -401.55 3.72 
-101.35 -401.56 3.73 
-83.55 -401.36 2.80 
-84.05 -401.34 2.80 
-84.69 -401.58 3.13 
-85.11 -401.56 3.12 
-85.57 -401.57 3.11 
-85.94 -401.59 3.10 
-86.35 -401.51 3.13 
-86.76 -401.60 3.09 
-87.08 -401.55 3.11 
-87.45 -401.55 3.11 
-87.88 -401.61 3.07 
-88.33 -401.57 3.10 
-88.75 -401.62 3.06 
-89.17 -401.58 3.17 
-89.50 -401.54 3.29 
-89.91 -401.53 3.35 
-90.37 -401.52 3.33 
-90.78 -401.55 3.37 
-91.17 -401.55 3.36 
-91.56 -401.55 3.35 
-91.98 -401.56 3.34 
-92.28 -401.57 3.34 
-86.38 -403.55 3.10 
-86.51 -403.46 3.10 
-97.15 -401.34 4.12 
-97.48 -401.36 4.12 
-97.84 -401.35 4.13 
-98.29 -401.36 4.13 
-98.68 -401.36 4.14 
-99.10 -401.36 4.15 
-99.51 -401.37 4.16 
-99.89 -401.37 4.17 
-100.31 -401.37 4.19 
-100.67 -401.38 4.21 
-101.04 -401.38 4.23 
-101.50 -401.38 4.26 
-101.91 -401.38 4.29 
-102.35 -401.38 4.32 
-102.70 -401.41 4.28 
-103.12 -401.47 4.28 
-103.50 -401.42 4.29 
-103.90 -401.41 4.38 
-104.31 -401.42 4.38 
-104.73 -401.43 4.42 
-105.11 -401.48 4.32 
-105.55 -401.48 4.38 
-105.83 -401.47 4.41 
-106.25 -401.47 4.46 
-106.69 -401.48 4.52 
-107.10 -401.48 4.57 
-107.59 -401.58 4.32 
-107.89 -401.53 4.52 
-108.32 -401.53 4.61 
-91.48 -401.48 3.67 
-91.93 -401.47 3.66 
-92.30 -401.48 3.65 
-92.71 -401.48 3.64 
-93.04 -401.50 3.63 
-94.31 -401.42 3.89 
-94.71 -401.43 3.88 
-95.09 -401.42 3.87 
-95.47 -401.43 3.86 
-95.88 -401.43 3.86 
-96.33 -401.43 3.85 
-96.72 -401.43 3.91 
-97.11 -401.38 4.05 
-97.45 -401.39 4.03 
-88.70 -401.53 3.42 
-105.12 -401.39 4.61 
-105.46 -401.39 4.65 
-105.85 -401.39 4.70 
-106.23 -401.40 4.75 
-106.62 -401.39 4.81 
-106.93 -401.39 4.85 
-107.52 -401.40 4.94 
-107.86 -401.42 4.99 
-85.83 -403.45 3.84 
-86.26 -403.40 3.79 
-85.56 -403.18 4.67 
-100.64 -401.86 2.17 
-101.02 -401.86 2.19 
-101.42 -401.87 2.21 
-101.83 -401.88 2.23 
-102.21 -401.82 2.25 
-102.60 -401.83 2.27 
-103.03 -401.88 2.29 
-103.58 -401.87 2.31 
-103.87 -401.88 2.33 
-104.24 -401.89 2.34 
-104.60 -401.91 2.36 
-105.00 -401.89 2.38 
-105.39 -401.90 2.40 
-105.82 -401.92 2.42 
-106.14 -401.92 2.43 
-107.20 -401.92 2.48 
-107.41 -401.94 2.49 
-107.81 -401.94 2.50 
-108.17 -401.97 2.52 
-85.42 -401.37 1.54 
-90.33 -401.82 1.60 
-90.60 -401.83 1.62 
-91.03 -401.78 1.61 
-91.49 -401.82 1.65 
-91.89 -401.80 1.68 
-92.27 -401.78 1.69 
-92.69 -401.81 1.72 
-93.02 -401.80 1.73 
-93.49 -401.80 1.77 
-93.83 -401.75 1.76 
-94.31 -401.84 1.83 
-94.63 -401.88 1.85 
-95.04 -401.80 1.84 
-95.43 -401.82 1.86 
-95.85 -401.82 1.88 
-96.21 -401.82 1.90 
-96.59 -401.84 1.92 
-97.03 -401.86 1.97 
-97.42 -401.85 1.99 
-97.79 -401.85 1.96 
-98.23 -401.88 1.98 
-98.66 -401.86 2.04 
-99.03 -401.87 2.08 
-99.43 -401.87 2.08 
-99.79 -401.86 2.13 
-100.23 -401.87 2.15 
-100.57 -401.88 2.17 
-85.80 -401.82 1.34 
-86.21 -401.82 1.36 
-86.65 -401.83 1.39 
-87.12 -401.83 1.41 
-87.37 -401.84 1.43 
-89.99 -401.84 1.58 
-90.15 -401.84 1.59 
-97.63 -401.72 2.51 
-98.69 -401.78 2.55 
-99.02 -401.79 2.57 
-99.41 -401.80 2.46 
-99.80 -401.79 2.48 
-100.22 -401.81 2.50 
-100.59 -401.80 2.52 
-100.99 -401.79 2.54 
-101.43 -401.80 2.56 
-101.76 -401.82 2.57 
-102.20 -401.78 2.48 
-102.62 -401.80 2.50 
-103.03 -401.82 2.62 
-103.38 -401.84 2.66 
-103.81 -401.82 2.68 
-104.19 -401.82 2.70 
-104.61 -401.83 2.73 
-105.02 -401.84 2.75 
-105.42 -401.84 2.77 
-105.84 -401.84 2.80 
-106.18 -401.86 2.82 
-107.13 -401.86 3.01 
-107.42 -401.86 2.89 
-107.71 -401.87 2.91 
-108.25 -401.90 2.80 
-86.34 -401.46 1.59 
-86.59 -401.48 1.80 
-87.12 -401.49 1.89 
-87.47 -401.51 1.66 
-87.86 -401.53 1.80 
-88.18 -401.52 1.88 
-88.69 -401.61 1.96 
-89.07 -401.61 1.95 
-89.43 -401.56 1.94 
-89.76 -401.62 2.00 
-90.22 -401.67 2.05 
-90.62 -401.68 2.06 
-91.01 -401.67 2.08 
-91.44 -401.69 2.09 
-91.85 -401.69 2.03 
-92.22 -401.70 1.99 
-92.62 -401.71 2.01 
-93.00 -401.72 2.03 
-93.36 -401.69 2.10 
-93.85 -401.69 2.16 
-94.19 -401.76 2.07 
-94.57 -401.77 2.09 
-95.02 -401.76 2.20 
-95.43 -401.77 2.29 
-95.83 -401.78 2.30 
-96.20 -401.78 2.32 
-96.59 -401.79 2.33 
-97.00 -401.79 2.36 
-97.42 -401.79 2.37 
-97.81 -401.83 2.36 
-98.22 -401.84 2.38 
-98.56 -401.81 2.42 
-99.03 -401.82 2.44 
-99.41 -401.85 2.44 
-84.63 -401.74 1.72 
-85.47 -401.76 1.76 
-85.79 -401.78 1.77 
-86.21 -401.75 1.79 
-86.62 -401.75 1.80 
-86.96 -401.76 1.82 
-87.44 -401.76 1.83 
-87.86 -401.77 1.85 
-88.32 -401.82 1.87 
-88.57 -401.77 1.88 
-88.97 -401.80 1.90 
-86.71 -403.61 2.01 
-86.75 -403.52 2.01 
-86.63 -403.69 1.66 
-94.04 -401.57 2.60 
-96.99 -401.70 2.75 
-97.37 -401.72 2.76 
-97.99 -401.69 2.77 
-98.18 -401.72 2.78 
-98.57 -401.72 2.79 
-99.01 -401.71 2.81 
-99.36 -401.73 2.82 
-99.81 -401.73 2.84 
-100.21 -401.73 2.85 
-100.59 -401.73 2.87 
-100.96 -401.73 2.89 
-101.42 -401.72 2.91 
-101.78 -401.73 2.93 
-102.19 -401.65 2.95 
-102.64 -401.68 2.98 
-103.00 -401.73 3.00 
-103.43 -401.74 3.02 
-103.82 -401.76 3.04 
-104.20 -401.76 3.07 
-104.60 -401.76 3.10 
-105.03 -401.75 3.13 
-105.39 -401.75 3.15 
-105.78 -401.76 3.18 
-106.12 -401.77 3.20 
-107.15 -401.79 3.28 
-107.42 -401.78 3.30 
-107.80 -401.81 3.19 
-108.16 -401.82 3.22 
-84.64 -401.40 1.91 
-85.01 -401.42 1.93 
-85.34 -401.40 1.94 
-86.02 -401.43 2.36 
-86.66 -401.42 2.38 
-86.93 -401.56 2.30 
-87.33 -401.58 2.31 
-87.82 -401.71 2.24 
-88.26 -401.60 2.33 
-88.65 -401.60 2.34 
-89.00 -401.62 2.35 
-89.39 -401.51 2.45 
-89.76 -401.62 2.37 
-90.22 -401.72 2.30 
-90.58 -401.64 2.39 
-91.01 -401.68 2.37 
-91.40 -401.73 2.32 
-91.84 -401.68 2.53 
-92.24 -401.69 2.52 
-92.60 -401.68 2.54 
-93.00 -401.70 2.52 
-93.40 -401.70 2.49 
-93.78 -401.69 2.49 
-94.24 -401.72 2.53 
-94.61 -401.73 2.53 
-94.98 -401.73 2.56 
-95.41 -401.69 2.69 
-95.82 -401.71 2.72 
-96.25 -401.71 2.72 
-96.61 -401.72 2.73 
-97.07 -401.77 2.73 
-97.42 -401.75 2.75 
-97.80 -401.79 2.77 
-98.21 -401.81 2.79 
-99.51 -401.84 2.85 
-84.60 -401.69 2.18 
-85.52 -401.72 2.19 
-85.84 -401.71 2.20 
-86.18 -401.70 2.21 
-86.57 -401.72 2.22 
-87.00 -401.72 2.22 
-87.42 -401.72 2.23 
-88.29 -401.85 2.25 
-86.67 -403.53 2.36 
-86.10 -403.81 2.20 
-107.08 -401.71 3.55 
-107.40 -401.73 3.58 
-107.74 -401.74 3.61 
-108.21 -401.77 3.65 
-96.21 -401.59 3.27 
-96.70 -401.58 3.27 
-97.13 -401.60 3.27 
-101.10 -401.69 3.13 
-101.43 -401.68 3.15 
-101.73 -401.68 3.17 
-103.00 -401.70 3.24 
-103.41 -401.71 3.26 
-103.79 -401.69 3.29 
-104.15 -401.71 3.31 
-104.55 -401.72 3.34 
-104.94 -401.73 3.37 
-105.38 -401.73 3.41 
-105.78 -401.74 3.44 
-106.09 -401.73 3.46 
-107.15 -401.76 3.56 
-83.56 -401.33 2.30 
-84.37 -401.37 2.32 
-84.53 -401.46 2.48 
-84.90 -401.35 2.33 
-85.39 -401.49 2.49 
-85.73 -401.62 2.63 
-86.21 -401.50 2.69 
-86.65 -401.51 2.70 
-86.99 -401.52 2.70 
-87.40 -401.51 2.70 
-87.80 -401.53 2.70 
-88.22 -401.55 2.71 
-88.69 -401.62 2.67 
-88.99 -401.62 2.68 
-89.35 -401.66 2.64 
-89.78 -401.67 2.64 
-90.21 -401.62 2.69 
-90.60 -401.62 2.84 
-90.95 -401.61 2.84 
-91.39 -401.62 2.84 
-91.74 -401.62 2.87 
-92.10 -401.59 2.91 
-92.56 -401.62 2.98 
-93.05 -401.63 2.98 
-93.40 -401.63 2.98 
-93.75 -401.64 2.98 
-94.16 -401.62 2.98 
-94.56 -401.64 2.98 
-94.84 -401.63 2.98 
-83.83 -401.58 2.63 
-84.18 -401.60 2.63 
-84.58 -401.61 2.63 
-84.98 -401.62 2.63 
-85.36 -401.63 2.63 
-86.58 -403.40 2.71 
-101.35 -401.47 3.89 
-101.74 -401.48 3.91 
-102.22 -401.48 3.94 
-102.57 -401.48 3.96 
-102.93 -401.47 3.99 
-103.39 -401.48 4.02 
-103.76 -401.52 3.92 
-104.25 -401.58 3.83 
-105.78 -401.60 3.97 
-106.64 -401.60 4.06 
-107.43 -401.64 4.01 
-107.80 -401.64 4.05 
-108.12 -401.64 4.08 
-93.43 -401.55 3.29 
-93.78 -401.56 3.28 
-94.17 -401.55 3.34 
-94.60 -401.55 3.47 
-94.97 -401.53 3.46 
-95.35 -401.53 3.44 
-95.73 -401.52 3.45 
-96.16 -401.51 3.54 
-96.54 -401.51 3.54 
-97.04 -401.52 3.54 
-97.29 -401.53 3.54 
-99.11 -401.45 3.82 
-99.37 -401.46 3.78 
-99.78 -401.46 3.83 
-100.29 -401.46 3.85 
-100.52 -401.49 3.77 
-100.94 -401.47 3.87 
-101.16 -401.48 3.88 
-103.26 -401.57 4.00 
-84.30 -401.32 2.74 
-84.59 -401.32 2.74 
-84.89 -401.34 2.74 
-85.38 -401.45 2.91 
-85.74 -401.54 3.07 
-86.11 -401.53 3.07 
-86.58 -401.51 3.07 
-86.96 -401.55 3.05 
-87.31 -401.46 3.09 
-87.74 -401.51 3.06 
-88.22 -401.61 3.03 
-88.56 -401.56 3.02 
-88.88 -401.52 3.08 
-89.33 -401.53 3.05 
-89.74 -401.52 3.07 
-90.17 -401.52 3.23 
-90.59 -401.54 3.26 
-90.97 -401.51 3.30 
-91.39 -401.51 3.29 
-91.81 -401.51 3.29 
-92.20 -401.53 3.31 
-92.67 -401.55 3.30 
-92.91 -401.55 3.30 
-93.39 -401.56 3.29 
-94.47 -401.65 3.41 
-86.47 -403.44 3.06 
-98.54 -401.35 4.08 
-98.91 -401.35 4.08 
-99.34 -401.37 4.09 
-99.74 -401.37 4.09 
-100.13 -401.37 4.10 
-100.56 -401.38 4.12 
-100.93 -401.38 4.13 
-101.36 -401.38 4.15 
-101.79 -401.39 4.17 
-102.14 -401.39 4.19 
-102.53 -401.39 4.22 
-102.93 -401.39 4.25 
-103.34 -401.43 4.28 
-103.72 -401.43 4.22 
-104.15 -401.43 4.22 
-104.60 -401.45 4.24 
-104.96 -401.46 4.25 
-105.33 -401.47 4.29 
-105.72 -401.44 4.41 
-106.13 -401.48 4.36 
-106.58 -401.51 4.34 
-106.86 -401.50 4.37 
-107.29 -401.50 4.43 
-107.72 -401.50 4.48 
-108.12 -401.52 4.53 
-92.24 -401.46 3.64 
-92.56 -401.46 3.63 
-92.96 -401.46 3.61 
-93.31 -401.47 3.60 
-93.75 -401.48 3.59 
-94.08 -401.48 3.58 
-95.05 -401.41 3.85 
-95.37 -401.42 3.84 
-95.74 -401.41 3.84 
-96.16 -401.42 3.83 
-96.57 -401.42 3.82 
-96.95 -401.42 3.81 
-97.39 -401.42 3.85 
-97.75 -401.40 3.94 
-98.14 -401.38 3.99 
-98.51 -401.40 3.95 
-98.91 -401.44 3.82 
-89.40 -401.51 3.38 
-89.80 -401.50 3.37 
-106.29 -401.42 4.59 
-106.54 -401.42 4.62 
-106.98 -401.41 4.68 
-107.25 -401.42 4.72 
-107.64 -401.42 4.77 
-108.06 -401.42 4.83 
-85.80 -403.39 3.85 
-85.69 -403.34 4.28 
-85.57 -403.15 4.72 
-101.33 -401.85 2.16 
-102.10 -401.82 2.20 
-102.47 -401.83 2.22 
-102.83 -401.86 2.24 
-103.20 -401.87 2.26 
-103.65 -401.89 2.28 
-103.92 -401.88 2.29 
-104.56 -401.89 2.33 
-104.91 -401.91 2.34 
-105.22 -401.89 2.36 
-105.65 -401.90 2.38 
-106.05 -401.92 2.40 
-107.26 -401.95 2.45 
-107.66 -401.95 2.47 
-108.02 -401.95 2.49 
-108.47 -401.96 2.51 
-86.54 -401.41 1.54 
-86.71 -401.41 1.55 
-90.91 -401.78 1.57 
-91.30 -401.75 1.58 
-91.64 -401.75 1.59 
-92.10 -401.72 1.61 
-92.48 -401.73 1.63 
-92.83 -401.78 1.67 
-93.21 -401.75 1.68 
-93.65 -401.67 1.67 
-94.03 -401.72 1.70 
-94.42 -401.83 1.78 
-94.94 -401.78 1.77 
-95.23 -401.77 1.79 
-95.63 -401.77 1.81 
-96.03 -401.79 1.84 
-96.44 -401.80 1.86 
-96.88 -401.82 1.89 
-97.25 -401.81 1.91 
-97.59 -401.81 1.92 
-98.07 -401.82 1.92 
-98.41 -401.83 1.96 
-98.81 -401.87 2.03 
-99.25 -401.86 2.02 
-99.64 -401.86 2.04 
-100.09 -401.87 2.08 
-100.46 -401.87 2.10 
-100.88 -401.86 2.14 
-101.24 -401.86 2.16 
-101.67 -401.87 2.18 
-101.89 -401.88 2.19 
-103.28 -401.96 2.26 
-86.07 -401.78 1.28 
-86.49 -401.78 1.31 
-86.84 -401.79 1.33 
-87.27 -401.78 1.36 
-90.10 -401.80 1.53 
-90.46 -401.82 1.55 
-90.89 -401.81 1.57 
-91.13 -401.82 1.59 
-99.98 -401.77 2.57 
-100.47 -401.79 2.47 
-100.87 -401.80 2.49 
-101.23 -401.79 2.51 
-101.65 -401.80 2.53 
-102.02 -401.77 2.55 
-102.38 -401.75 2.57 
-102.83 -401.80 2.59 
-103.18 -401.83 2.63 
-103.62 -401.83 2.59 
-104.09 -401.82 2.61 
-104.41 -401.83 2.67 
-104.83 -401.84 2.70 
-105.24 -401.84 2.72 
-105.62 -401.84 2.74 
-106.01 -401.84 2.76 
-106.24 -401.88 2.65 
-107.29 -401.87 2.84 
-107.63 -401.87 2.86 
-108.03 -401.89 2.89 
-108.44 -401.90 2.91 
-87.01 -401.41 1.57 
-87.19 -401.41 1.77 
-87.68 -401.43 1.80 
-88.11 -401.41 1.82 
-88.42 -401.45 1.84 
-88.91 -401.51 1.80 
-89.23 -401.48 1.88 
-89.51 -401.47 1.89 
-90.00 -401.74 1.89 
-90.45 -401.75 1.91 
-90.85 -401.58 2.00 
-91.25 -401.63 2.05 
-91.66 -401.63 2.06 
-92.04 -401.65 2.08 
-92.44 -401.63 2.08 
-92.81 -401.66 2.02 
-93.23 -401.64 2.03 
-93.65 -401.62 2.10 
-94.03 -401.66 2.07 
-94.44 -401.73 2.04 
-94.91 -401.73 2.06 
-95.23 -401.73 2.16 
-95.68 -401.73 2.18 
-96.02 -401.74 2.26 
-96.44 -401.76 2.29 
-96.83 -401.76 2.30 
-97.24 -401.77 2.32 
-97.62 -401.78 2.33 
-98.02 -401.79 2.33 
-98.44 -401.79 2.37 
-98.81 -401.78 2.40 
-99.24 -401.81 2.41 
-99.61 -401.81 2.43 
-100.06 -401.82 2.45 
-100.50 -401.82 2.47 
-100.70 -401.82 2.37 
-84.68 -401.70 1.68 
-85.29 -401.73 1.70 
-85.63 -401.71 1.72 
-85.99 -401.70 1.73 
-86.45 -401.73 1.75 
-86.88 -401.71 1.77 
-87.23 -401.71 1.78 
-87.62 -401.73 1.80 
-87.97 -401.73 1.81 
-88.41 -401.77 1.83 
-88.84 -401.73 1.85 
-86.71 -403.52 1.78 
-97.57 -401.64 2.74 
-98.50 -401.70 2.76 
-98.82 -401.72 2.77 
-99.24 -401.71 2.79 
-99.63 -401.70 2.80 
-99.98 -401.73 2.81 
-100.41 -401.71 2.83 
-100.77 -401.73 2.84 
-101.17 -401.73 2.86 
-101.63 -401.72 2.88 
-102.03 -401.67 2.90 
-102.44 -401.66 2.92 
-102.83 -401.71 2.94 
-103.22 -401.73 2.96 
-103.61 -401.75 2.98 
-104.03 -401.76 3.01 
-104.42 -401.76 3.03 
-104.83 -401.74 3.06 
-105.21 -401.75 3.08 
-105.62 -401.76 3.11 
-106.01 -401.78 3.14 
-106.22 -401.80 3.15 
-107.25 -401.81 3.23 
-107.57 -401.81 3.25 
-107.99 -401.81 3.28 
-108.39 -401.82 3.31 
-84.50 -401.31 1.85 
-84.82 -401.32 1.87 
-85.15 -401.31 1.88 
-86.54 -401.38 1.94 
-86.65 -401.34 2.34 
-87.22 -401.49 2.28 
-87.51 -401.63 2.21 
-87.90 -401.51 2.30 
-88.51 -401.66 2.23 
-88.87 -401.55 2.32 
-89.04 -401.42 2.41 
-89.47 -401.45 2.42 
-90.07 -401.69 2.27 
-90.43 -401.58 2.36 
-90.79 -401.58 2.37 
-91.22 -401.64 2.34 
-91.59 -401.61 2.38 
-91.99 -401.71 2.31 
-92.41 -401.67 2.36 
-92.86 -401.69 2.50 
-93.17 -401.66 2.53 
-93.64 -401.71 2.39 
-94.07 -401.71 2.52 
-94.37 -401.72 2.53 
-94.84 -401.70 2.53 
-95.23 -401.70 2.54 
-95.60 -401.71 2.55 
-96.01 -401.70 2.55 
-96.40 -401.69 2.71 
-96.81 -401.69 2.71 
-97.24 -401.70 2.73 
-97.60 -401.72 2.73 
-97.97 -401.74 2.73 
-98.34 -401.73 2.75 
-98.93 -401.74 2.78 
-99.39 -401.82 2.80 
-99.61 -401.81 2.81 
-99.88 -401.81 2.83 
-83.58 -401.62 2.13 
-83.98 -401.61 2.14 
-84.40 -401.64 2.15 
-84.66 -401.57 2.15 
-85.73 -401.63 2.17 
-86.09 -401.66 2.18 
-86.38 -401.64 2.19 
-86.81 -401.67 2.19 
-87.28 -401.67 2.20 
-87.63 -401.68 2.21 
-87.85 -401.69 2.22 
-88.33 -401.73 2.23 
-86.64 -403.38 2.33 
-86.05 -403.80 2.18 
-106.33 -401.61 3.42 
-107.26 -401.67 3.76 
-107.78 -401.70 3.81 
-97.25 -401.58 3.27 
-97.60 -401.57 3.27 
-102.56 -401.66 3.17 
-102.81 -401.69 3.18 
-103.16 -401.71 3.20 
-103.58 -401.69 3.22 
-104.01 -401.71 3.25 
-104.40 -401.73 3.27 
-104.78 -401.73 3.30 
-105.20 -401.73 3.33 
-105.62 -401.73 3.36 
-105.97 -401.73 3.39 
-107.24 -401.75 3.49 
-107.59 -401.76 3.52 
-107.99 -401.77 3.56 
-108.37 -401.77 3.59 
-84.12 -401.27 2.28 
-84.47 -401.38 2.46 
-84.80 -401.26 2.30 
-85.17 -401.26 2.31 
-85.54 -401.42 2.47 
-85.92 -401.42 2.48 
-86.45 -401.45 2.48 
-86.80 -401.56 2.63 
-87.25 -401.45 2.69 
-87.64 -401.46 2.69 
-87.94 -401.46 2.69 
-88.40 -401.49 2.70 
-88.85 -401.50 2.70 
-89.22 -401.50 2.70 
-89.53 -401.58 2.65 
-89.97 -401.56 2.69 
-90.44 -401.62 2.64 
-90.85 -401.59 2.68 
-91.21 -401.57 2.70 
-91.64 -401.57 2.85 
-92.02 -401.59 2.84 
-92.36 -401.59 2.84 
-92.68 -401.58 2.85 
-93.18 -401.55 2.92 
-93.54 -401.60 2.99 
-93.97 -401.61 2.98 
-94.40 -401.64 2.98 
-94.78 -401.62 2.98 
-95.37 -401.62 2.99 
-95.47 -401.61 2.99 
-84.31 -401.53 2.63 
-84.81 -401.56 2.63 
-85.24 -401.57 2.63 
-85.65 -401.58 2.63 
-88.21 -401.68 2.63 
-85.96 -403.69 2.60 
-102.51 -401.47 3.91 
-102.80 -401.48 3.92 
-103.11 -401.47 3.94 
-103.57 -401.49 3.97 
-103.95 -401.48 4.00 
-104.36 -401.48 4.03 
-104.71 -401.50 4.06 
-106.92 -401.62 3.99 
-107.09 -401.64 4.01 
-108.06 -401.66 3.98 
-108.39 -401.66 4.02 
-91.52 -401.41 3.14 
-92.43 -401.44 3.15 
-92.86 -401.45 3.15 
-94.27 -401.51 3.29 
-94.76 -401.54 3.29 
-95.17 -401.52 3.40 
-95.57 -401.50 3.47 
-96.04 -401.52 3.42 
-96.38 -401.51 3.46 
-96.74 -401.49 3.55 
-97.02 -401.50 3.55 
-97.59 -401.51 3.54 
-98.05 -401.52 3.54 
-98.90 -401.52 3.55 
-100.13 -401.54 3.56 
-100.40 -401.45 3.83 
-100.62 -401.46 3.84 
-101.10 -401.47 3.85 
-101.58 -401.48 3.86 
-101.98 -401.48 3.88 
-102.33 -401.48 3.90 
-102.58 -401.49 3.91 
-104.85 -401.60 3.81 
-84.04 -401.22 2.73 
-84.49 -401.20 2.73 
-84.77 -401.23 2.73 
-85.20 -401.22 2.73 
-85.64 -401.26 2.74 
-86.06 -401.38 2.91 
-86.46 -401.39 2.91 
-86.76 -401.49 3.07 
-87.17 -401.49 3.06 
-87.65 -401.46 3.07 
-88.12 -401.62 3.04 
-88.38 -401.44 3.09 
-88.83 -401.47 3.06 
-89.19 -401.48 3.05 
-89.60 -401.50 3.04 
-90.14 -401.55 3.01 
-90.40 -401.56 3.01 
-90.80 -401.51 3.05 
-91.19 -401.51 3.22 
-91.59 -401.50 3.26 
-91.94 -401.49 3.34 
-92.32 -401.49 3.33 
-92.74 -401.50 3.32 
-93.20 -401.52 3.31 
-93.58 -401.52 3.30 
-94.01 -401.53 3.30 
-94.46 -401.59 3.29 
-83.60 -401.54 2.63 
-84.01 -401.53 2.63 
-86.38 -403.32 3.07 
-99.97 -401.36 4.09 
-100.36 -401.36 4.09 
-100.79 -401.36 4.10 
-101.21 -401.38 4.11 
-101.55 -401.39 4.12 
-101.95 -401.39 4.14 
-102.35 -401.39 4.16 
-102.72 -401.39 4.18 
-103.17 -401.43 4.20 
-103.55 -401.40 4.23 
-103.98 -401.40 4.26 
-104.39 -401.41 4.29 
-104.78 -401.43 4.26 
-105.17 -401.47 4.17 
-105.56 -401.44 4.33 
-105.96 -401.44 4.40 
-106.37 -401.46 4.37 
-106.72 -401.48 4.36 
-107.08 -401.48 4.43 
-107.57 -401.52 4.35 
-107.93 -401.52 4.39 
-108.31 -401.52 4.44 
-93.06 -401.44 3.64 
-93.57 -401.44 3.63 
-94.06 -401.45 3.61 
-94.76 -401.46 3.59 
-95.04 -401.46 3.58 
-95.63 -401.39 3.87 
-95.95 -401.40 3.86 
-96.39 -401.39 3.85 
-96.78 -401.41 3.84 
-97.14 -401.40 3.83 
-97.57 -401.41 3.82 
-97.99 -401.42 3.82 
-98.40 -401.38 3.97 
-98.76 -401.38 3.97 
-99.16 -401.40 3.94 
-99.56 -401.40 3.96 
-99.96 -401.42 3.91 
-89.99 -401.46 3.40 
-90.46 -401.48 3.38 
-90.73 -401.46 3.37 
-107.32 -401.43 4.61 
-107.63 -401.44 4.64 
-107.85 -401.44 4.67 
-108.34 -401.43 4.74 
-85.79 -403.30 3.91 
-86.00 -402.92 4.64 
-85.53 -403.04 4.83 
-98.49 -401.63 1.81 
-98.65 -401.64 1.82 
-101.97 -401.79 2.08 
-102.28 -401.82 2.10 
-102.62 -401.83 2.12 
-103.10 -401.88 2.15 
-103.52 -401.89 2.17 
-103.90 -401.88 2.19 
-104.28 -401.90 2.21 
-104.72 -401.91 2.23 
-104.98 -401.90 2.24 
-105.45 -401.90 2.27 
-105.82 -401.91 2.28 
-106.21 -401.93 2.30 
-107.21 -401.96 2.35 
-107.49 -401.96 2.37 
-107.91 -401.97 2.39 
-108.32 -401.97 2.40 
-86.46 -401.34 1.39 
-86.65 -401.35 1.40 
-87.24 -401.39 1.44 
-87.69 -401.35 1.47 
-87.74 -401.38 1.47 
-91.50 -401.77 1.48 
-91.92 -401.77 1.50 
-92.30 -401.73 1.50 
-92.73 -401.74 1.54 
-93.19 -401.75 1.56 
-93.54 -401.73 1.58 
-93.87 -401.71 1.59 
-94.32 -401.80 1.65 
-94.77 -401.83 1.67 
-95.16 -401.78 1.68 
-95.52 -401.79 1.69 
-95.92 -401.75 1.70 
-96.30 -401.76 1.73 
-96.74 -401.77 1.75 
-97.11 -401.78 1.78 
-97.49 -401.80 1.80 
-97.95 -401.77 1.79 
-98.26 -401.77 1.81 
-98.72 -401.78 1.87 
-99.02 -401.79 1.88 
-99.45 -401.85 1.94 
-99.89 -401.86 1.96 
-100.31 -401.85 1.99 
-100.70 -401.84 2.02 
-101.11 -401.85 2.04 
-101.47 -401.88 2.06 
-101.82 -401.87 2.08 
-102.79 -401.88 2.13 
-103.08 -401.89 2.14 
-103.35 -401.98 2.16 
-86.68 -401.76 1.18 
-87.14 -401.74 1.21 
-89.98 -401.77 1.38 
-90.33 -401.75 1.40 
-90.67 -401.77 1.42 
-91.10 -401.78 1.45 
-91.47 -401.79 1.47 
-98.35 -401.64 2.36 
-98.97 -401.67 2.40 
-100.75 -401.77 2.50 
-101.05 -401.78 2.39 
-101.44 -401.79 2.41 
-101.89 -401.80 2.43 
-102.29 -401.83 2.34 
-102.75 -401.81 2.48 
-103.05 -401.82 2.49 
-103.48 -401.82 2.51 
-103.86 -401.81 2.53 
-104.21 -401.82 2.59 
-104.66 -401.86 2.54 
-105.12 -401.85 2.55 
-105.48 -401.84 2.62 
-105.88 -401.85 2.64 
-106.17 -401.85 2.66 
-107.19 -401.89 2.72 
-107.45 -401.88 2.74 
-107.84 -401.89 2.76 
-108.26 -401.90 2.79 
-87.94 -401.40 1.48 
-88.33 -401.38 1.70 
-89.12 -401.44 1.79 
-89.51 -401.42 1.76 
-90.08 -401.69 1.78 
-90.28 -401.69 1.79 
-90.61 -401.54 1.87 
-91.08 -401.55 1.89 
-91.52 -401.56 1.92 
-91.92 -401.55 1.92 
-92.34 -401.61 1.98 
-92.70 -401.62 1.99 
-93.10 -401.60 1.99 
-93.50 -401.56 1.97 
-93.82 -401.58 1.99 
-94.32 -401.74 1.96 
-94.69 -401.80 1.98 
-95.10 -401.70 1.97 
-95.47 -401.73 1.99 
-95.87 -401.73 2.09 
-96.27 -401.70 2.09 
-96.67 -401.72 2.12 
-97.06 -401.73 2.13 
-97.47 -401.76 2.22 
-97.88 -401.75 2.20 
-98.26 -401.75 2.23 
-98.70 -401.76 2.28 
-99.06 -401.78 2.30 
-99.45 -401.79 2.32 
-99.88 -401.79 2.33 
-100.28 -401.81 2.35 
-100.67 -401.81 2.37 
-101.10 -401.80 2.28 
-101.49 -401.84 2.41 
-101.83 -401.83 2.31 
-103.32 -401.93 2.39 
-84.67 -401.63 1.55 
-85.60 -401.66 1.59 
-85.86 -401.65 1.60 
-86.22 -401.69 1.62 
-86.69 -401.67 1.64 
-87.13 -401.68 1.66 
-87.60 -401.68 1.68 
-87.89 -401.68 1.69 
-88.39 -401.72 1.71 
-88.77 -401.70 1.72 
-88.93 -401.72 1.73 
-89.97 -401.73 1.78 
-90.25 -401.72 1.79 
-86.63 -403.48 1.65 
-98.29 -401.61 2.64 
-98.76 -401.68 2.68 
-99.01 -401.69 2.69 
-99.46 -401.70 2.70 
-99.90 -401.70 2.72 
-100.27 -401.71 2.73 
-100.65 -401.70 2.74 
-101.07 -401.72 2.76 
-101.44 -401.71 2.77 
-101.86 -401.64 2.79 
-102.39 -401.63 2.82 
-102.65 -401.69 2.83 
-103.06 -401.75 2.84 
-103.52 -401.75 2.87 
-103.89 -401.75 2.89 
-104.32 -401.75 2.91 
-104.68 -401.77 2.93 
-105.06 -401.77 2.95 
-105.46 -401.78 2.98 
-105.89 -401.78 3.01 
-106.13 -401.78 3.02 
-107.14 -401.81 3.09 
-107.45 -401.80 3.11 
-107.88 -401.80 3.15 
-108.26 -401.82 3.17 
-84.65 -401.25 1.74 
-85.21 -401.27 1.76 
-86.38 -401.27 1.81 
-86.74 -401.32 1.83 
-87.08 -401.31 1.84 
-87.46 -401.46 1.98 
-87.77 -401.47 1.99 
-88.33 -401.48 2.21 
-88.57 -401.48 2.21 
-88.94 -401.61 2.14 
-89.59 -401.35 2.32 
-89.94 -401.65 2.17 
-90.36 -401.66 2.18 
-90.64 -401.53 2.27 
-91.04 -401.54 2.28 
-91.44 -401.55 2.29 
-91.89 -401.56 2.30 
-92.30 -401.61 2.27 
-92.65 -401.62 2.29 
-93.07 -401.65 2.28 
-93.44 -401.51 2.44 
-93.77 -401.54 2.45 
-94.25 -401.67 2.44 
-94.72 -401.67 2.47 
-95.06 -401.67 2.45 
-95.47 -401.67 2.44 
-95.88 -401.68 2.46 
-96.28 -401.69 2.48 
-96.66 -401.69 2.48 
-97.06 -401.70 2.49 
-97.42 -401.67 2.63 
-97.88 -401.70 2.62 
-98.29 -401.71 2.65 
-98.54 -401.68 2.68 
-99.07 -401.71 2.69 
-99.48 -401.75 2.70 
-100.09 -401.80 2.72 
-100.68 -401.81 2.76 
-101.03 -401.81 2.78 
-101.49 -401.83 2.80 
-83.82 -401.55 2.03 
-84.22 -401.58 2.04 
-84.68 -401.58 2.05 
-85.03 -401.57 2.06 
-85.52 -401.61 2.07 
-85.92 -401.59 2.08 
-86.29 -401.60 2.08 
-86.73 -401.61 2.09 
-87.09 -401.61 2.10 
-87.43 -401.60 2.11 
-87.90 -401.64 2.12 
-88.24 -401.67 2.13 
-88.70 -401.65 2.14 
-86.60 -403.34 2.22 
-98.23 -401.57 3.21 
-98.63 -401.57 3.21 
-99.23 -401.58 3.22 
-103.16 -401.72 3.09 
-103.48 -401.70 3.10 
-103.82 -401.72 3.12 
-104.26 -401.71 3.15 
-104.68 -401.71 3.17 
-105.07 -401.72 3.20 
-105.45 -401.74 3.22 
-105.79 -401.75 3.24 
-106.08 -401.75 3.27 
-107.16 -401.77 3.35 
-107.45 -401.77 3.37 
-107.82 -401.78 3.40 
-108.23 -401.79 3.44 
-84.45 -401.19 2.18 
-85.00 -401.20 2.20 
-85.40 -401.34 2.38 
-85.79 -401.35 2.38 
-86.31 -401.37 2.39 
-86.64 -401.38 2.39 
-87.05 -401.38 2.40 
-87.56 -401.52 2.55 
-87.73 -401.37 2.43 
-88.30 -401.57 2.55 
-88.68 -401.44 2.62 
-89.05 -401.43 2.62 
-89.42 -401.45 2.62 
-89.86 -401.45 2.63 
-90.23 -401.47 2.63 
-90.69 -401.51 2.61 
-91.04 -401.55 2.60 
-91.50 -401.53 2.62 
-91.88 -401.59 2.57 
-92.24 -401.57 2.61 
-92.71 -401.55 2.77 
-93.07 -401.55 2.79 
-93.43 -401.51 2.84 
-93.83 -401.52 2.84 
-94.15 -401.56 2.92 
-94.78 -401.57 2.92 
-95.04 -401.58 2.92 
-95.51 -401.59 2.92 
-96.18 -401.60 2.92 
-96.70 -401.61 2.92 
-85.45 -401.51 2.55 
-85.88 -401.52 2.55 
-86.17 -401.52 2.55 
-88.13 -401.66 2.55 
-86.34 -403.35 2.61 
-86.55 -403.20 2.61 
-85.87 -403.68 2.52 
-103.80 -401.49 3.87 
-104.20 -401.49 3.89 
-104.59 -401.50 3.91 
-105.04 -401.49 3.95 
-105.47 -401.50 3.98 
-105.67 -401.50 4.00 
-107.54 -401.64 3.90 
-107.78 -401.66 3.92 
-92.07 -401.36 3.07 
-92.66 -401.37 3.07 
-93.06 -401.40 3.08 
-93.57 -401.42 3.08 
-94.83 -401.49 3.24 
-95.14 -401.51 3.23 
-95.37 -401.51 3.23 
-95.77 -401.52 3.22 
-96.28 -401.48 3.37 
-96.56 -401.47 3.45 
-97.01 -401.49 3.38 
-97.44 -401.49 3.42 
-97.82 -401.50 3.42 
-98.18 -401.49 3.49 
-98.54 -401.50 3.48 
-98.93 -401.50 3.48 
-101.17 -401.45 3.77 
-101.43 -401.45 3.77 
-101.82 -401.46 3.78 
-102.21 -401.49 3.74 
-102.61 -401.48 3.81 
-102.97 -401.47 3.82 
-103.41 -401.49 3.84 
-84.38 -401.15 2.64 
-84.60 -401.15 2.64 
-85.17 -401.46 2.55 
-85.44 -401.16 2.65 
-85.83 -401.17 2.65 
-86.27 -401.20 2.66 
-86.75 -401.34 2.83 
-87.01 -401.32 2.83 
-87.32 -401.34 2.83 
-87.92 -401.53 2.99 
-88.31 -401.37 3.03 
-88.61 -401.40 3.00 
-89.06 -401.41 3.00 
-89.45 -401.43 2.99 
-89.84 -401.43 2.99 
-90.25 -401.48 2.96 
-90.67 -401.50 2.95 
-91.02 -401.51 2.95 
-91.44 -401.51 2.94 
-91.88 -401.52 2.94 
-92.27 -401.47 3.20 
-92.58 -401.49 3.14 
-92.97 -401.44 3.27 
-93.36 -401.46 3.26 
-93.74 -401.48 3.26 
-94.14 -401.49 3.25 
-94.55 -401.53 3.24 
-83.86 -401.47 2.55 
-84.28 -401.46 2.55 
-84.61 -401.47 2.55 
-84.98 -401.50 2.55 
-86.33 -403.33 3.01 
-86.43 -403.22 3.01 
-100.30 -401.32 4.03 
-100.64 -401.34 4.03 
-101.01 -401.35 4.03 
-101.40 -401.36 4.04 
-101.81 -401.36 4.05 
-102.22 -401.38 4.06 
-102.63 -401.38 4.07 
-102.98 -401.41 4.08 
-103.37 -401.39 4.10 
-103.79 -401.40 4.12 
-104.15 -401.40 4.15 
-104.59 -401.41 4.18 
-104.98 -401.41 4.21 
-105.35 -401.42 4.23 
-105.84 -401.45 4.20 
-106.23 -401.48 4.16 
-106.58 -401.51 4.12 
-106.99 -401.50 4.20 
-107.40 -401.49 4.27 
-107.78 -401.50 4.34 
-108.12 -401.50 4.38 
-93.86 -401.42 3.59 
-94.23 -401.41 3.58 
-94.61 -401.41 3.56 
-95.00 -401.42 3.55 
-95.47 -401.44 3.54 
-95.82 -401.43 3.53 
-96.13 -401.44 3.52 
-96.76 -401.37 3.81 
-96.98 -401.37 3.80 
-97.40 -401.38 3.79 
-97.83 -401.39 3.78 
-98.21 -401.39 3.77 
-98.62 -401.40 3.76 
-99.02 -401.40 3.76 
-99.41 -401.36 3.94 
-99.82 -401.38 3.89 
-100.17 -401.40 3.84 
-100.51 -401.42 3.76 
-101.02 -401.44 3.77 
-103.13 -401.50 4.07 
-90.82 -401.43 3.33 
-91.02 -401.42 3.33 
-91.52 -401.44 3.31 
-91.78 -401.42 3.30 
-86.33 -403.06 3.41 
-108.30 -401.46 4.55 
-85.57 -403.12 4.39 
-85.46 -402.95 4.87 
-102.64 -401.79 2.01 
-104.20 -401.89 2.10 
-104.58 -401.91 2.12 
-104.94 -401.91 2.14 
-105.33 -401.91 2.16 
-105.74 -401.91 2.18 
-106.04 -401.93 2.20 
-106.39 -401.80 2.21 
-107.39 -401.96 2.26 
-107.74 -401.98 2.28 
-108.15 -401.99 2.30 
-85.59 -401.19 1.21 
-86.59 -401.25 1.28 
-87.02 -401.27 1.30 
-87.37 -401.25 1.32 
-88.27 -401.29 1.38 
-92.14 -401.73 1.39 
-92.67 -401.74 1.43 
-92.96 -401.70 1.42 
-93.40 -401.77 1.47 
-93.76 -401.77 1.49 
-94.12 -401.73 1.50 
-94.55 -401.79 1.54 
-94.96 -401.77 1.57 
-95.36 -401.77 1.58 
-95.76 -401.73 1.58 
-96.18 -401.78 1.63 
-96.62 -401.76 1.65 
-96.95 -401.74 1.65 
-97.38 -401.76 1.68 
-97.67 -401.75 1.69 
-98.17 -401.73 1.69 
-98.61 -401.83 1.79 
-98.95 -401.83 1.81 
-99.39 -401.81 1.80 
-99.70 -401.82 1.82 
-100.14 -401.85 1.85 
-100.56 -401.84 1.88 
-100.94 -401.85 1.91 
-101.33 -401.86 1.91 
-101.73 -401.87 1.94 
-102.19 -401.89 1.92 
-102.61 -401.89 1.95 
-102.99 -401.88 2.03 
-103.35 -401.92 2.05 
-103.76 -401.89 2.08 
-104.07 -401.90 2.09 
-104.52 -401.92 2.12 
-104.76 -401.93 2.13 
-86.56 -401.66 1.05 
-86.91 -401.69 1.07 
-87.44 -401.69 1.10 
-90.18 -401.73 1.27 
-90.51 -401.73 1.29 
-90.98 -401.73 1.32 
-91.30 -401.72 1.34 
-91.76 -401.74 1.37 
-92.07 -401.75 1.39 
-92.46 -401.76 1.41 
-94.67 -401.90 1.55 
-101.78 -401.75 2.45 
-102.71 -401.81 2.49 
-102.95 -401.81 2.39 
-103.36 -401.83 2.41 
-103.75 -401.83 2.43 
-104.15 -401.83 2.45 
-104.51 -401.85 2.46 
-104.94 -401.85 2.49 
-105.31 -401.85 2.54 
-105.72 -401.86 2.49 
-106.13 -401.88 2.51 
-107.10 -401.89 2.73 
-107.34 -401.89 2.62 
-107.71 -401.89 2.64 
-108.12 -401.91 2.67 
-90.35 -401.64 1.69 
-90.58 -401.47 1.71 
-90.94 -401.44 1.69 
-91.30 -401.51 1.81 
-91.69 -401.51 1.83 
-92.15 -401.53 1.85 
-92.52 -401.53 1.86 
-92.92 -401.55 1.89 
-93.38 -401.53 1.88 
-93.78 -401.51 1.88 
-94.18 -401.68 1.83 
-94.58 -401.74 1.87 
-94.93 -401.62 1.93 
-95.33 -401.65 1.89 
-95.76 -401.67 1.88 
-96.13 -401.67 1.92 
-96.52 -401.69 1.94 
-96.88 -401.70 1.95 
-97.33 -401.69 2.04 
-97.71 -401.71 2.06 
-98.15 -401.70 2.06 
-98.54 -401.75 2.19 
-98.91 -401.76 2.21 
-99.34 -401.77 2.21 
-99.75 -401.77 2.23 
-100.15 -401.79 2.25 
-100.55 -401.79 2.27 
-100.91 -401.80 2.29 
-101.33 -401.81 2.30 
-101.76 -401.82 2.32 
-102.15 -401.84 2.33 
-102.50 -401.84 2.36 
-103.30 -401.90 2.40 
-85.53 -401.63 1.49 
-85.75 -401.59 1.49 
-86.13 -401.58 1.51 
-86.59 -401.63 1.53 
-86.94 -401.60 1.54 
-87.31 -401.61 1.56 
-87.71 -401.64 1.58 
-88.20 -401.66 1.60 
-89.82 -401.70 1.67 
-90.11 -401.67 1.68 
-90.51 -401.66 1.70 
-90.94 -401.68 1.72 
-100.23 -401.69 2.64 
-100.63 -401.72 2.66 
-100.90 -401.70 2.66 
-101.34 -401.72 2.68 
-101.71 -401.72 2.69 
-102.68 -401.75 2.73 
-102.93 -401.73 2.74 
-103.31 -401.77 2.76 
-103.72 -401.76 2.78 
-104.12 -401.75 2.80 
-104.56 -401.77 2.82 
-104.86 -401.78 2.83 
-105.33 -401.78 2.86 
-105.71 -401.78 2.88 
-106.05 -401.79 2.90 
-107.11 -401.82 2.97 
-107.33 -401.83 2.98 
-107.70 -401.84 3.01 
-108.11 -401.85 3.04 
-108.47 -401.85 3.07 
-84.56 -401.14 1.63 
-84.92 -401.16 1.64 
-85.31 -401.13 1.66 
-86.21 -401.22 1.70 
-86.95 -401.24 1.73 
-87.55 -401.27 1.76 
-87.84 -401.52 2.04 
-88.30 -401.29 1.79 
-88.54 -401.41 1.93 
-88.92 -401.33 2.19 
-89.30 -401.26 2.23 
-89.76 -401.29 2.24 
-90.16 -401.59 2.09 
-90.58 -401.47 2.18 
-90.90 -401.48 2.19 
-91.39 -401.49 2.20 
-91.73 -401.48 2.21 
-92.07 -401.51 2.22 
-92.54 -401.51 2.24 
-92.92 -401.54 2.25 
-93.26 -401.53 2.26 
-93.78 -401.46 2.36 
-94.18 -401.69 2.19 
-94.54 -401.73 2.20 
-94.94 -401.60 2.42 
-95.34 -401.64 2.41 
-95.73 -401.65 2.41 
-96.14 -401.67 2.40 
-96.52 -401.66 2.39 
-96.95 -401.67 2.41 
-97.35 -401.68 2.42 
-97.70 -401.63 2.51 
-98.08 -401.66 2.53 
-98.50 -401.67 2.60 
-98.93 -401.69 2.60 
-99.31 -401.69 2.61 
-99.75 -401.70 2.63 
-100.08 -401.71 2.64 
-100.46 -401.74 2.64 
-101.47 -401.80 2.69 
-101.78 -401.82 2.71 
-102.08 -401.81 2.73 
-102.44 -401.82 2.75 
-83.84 -401.47 1.95 
-84.22 -401.48 1.96 
-84.64 -401.51 1.97 
-84.99 -401.53 1.97 
-85.35 -401.51 1.98 
-85.68 -401.55 1.99 
-86.14 -401.56 2.00 
-86.50 -401.52 2.01 
-86.83 -401.55 2.01 
-87.32 -401.58 2.02 
-87.65 -401.55 2.03 
-88.20 -401.62 2.04 
-88.59 -401.58 2.05 
-88.90 -401.57 2.06 
-89.91 -401.63 2.08 
-86.61 -403.35 1.73 
-86.67 -403.31 1.73 
-86.04 -403.60 1.99 
-94.05 -401.37 2.70 
-99.36 -401.57 3.16 
-100.06 -401.60 3.16 
-104.30 -401.73 3.04 
-104.52 -401.73 3.05 
-104.90 -401.73 3.08 
-105.33 -401.75 3.10 
-105.69 -401.75 3.12 
-106.10 -401.74 3.15 
-106.50 -401.68 3.18 
-106.89 -401.72 3.20 
-107.29 -401.76 3.23 
-107.71 -401.77 3.26 
-108.13 -401.78 3.29 
-83.80 -401.07 2.08 
-84.05 -401.07 2.09 
-84.83 -401.10 2.11 
-85.21 -401.07 2.12 
-85.54 -401.14 2.13 
-86.21 -401.16 2.14 
-86.91 -401.31 2.33 
-87.26 -401.45 2.49 
-87.66 -401.35 2.34 
-88.21 -401.46 2.49 
-88.43 -401.37 2.35 
-88.96 -401.31 2.58 
-89.34 -401.37 2.56 
-89.71 -401.38 2.56 
-90.11 -401.40 2.56 
-90.50 -401.41 2.57 
-90.92 -401.42 2.57 
-91.32 -401.42 2.58 
-91.65 -401.47 2.56 
-92.11 -401.48 2.56 
-92.52 -401.48 2.58 
-92.95 -401.49 2.58 
-93.32 -401.40 2.68 
-93.77 -401.48 2.78 
-94.15 -401.57 2.70 
-94.62 -401.59 2.70 
-94.91 -401.55 2.73 
-95.28 -401.56 2.79 
-95.74 -401.55 2.87 
-96.23 -401.57 2.87 
-96.59 -401.58 2.87 
-97.05 -401.60 2.87 
-97.25 -401.59 2.87 
-83.55 -401.50 1.94 
-86.54 -401.46 2.49 
-86.97 -401.47 2.49 
-88.18 -401.57 2.49 
-86.53 -403.34 2.14 
-104.91 -401.51 3.82 
-105.34 -401.52 3.85 
-105.67 -401.54 3.87 
-106.14 -401.53 3.90 
-106.47 -401.56 3.76 
-106.81 -401.56 3.87 
-107.41 -401.63 3.75 
-107.56 -401.63 3.76 
-89.43 -401.17 3.01 
-89.93 -401.19 3.01 
-90.98 -401.23 3.01 
-91.13 -401.23 3.01 
-91.87 -401.28 3.01 
-92.62 -401.30 3.01 
-92.78 -401.32 3.01 
-93.20 -401.33 3.01 
-95.66 -401.48 3.19 
-96.09 -401.49 3.18 
-96.51 -401.50 3.17 
-96.89 -401.51 3.17 
-97.36 -401.48 3.36 
-97.68 -401.48 3.34 
-98.13 -401.49 3.38 
-98.52 -401.49 3.37 
-98.91 -401.52 3.30 
-99.24 -401.49 3.43 
-99.63 -401.50 3.43 
-102.27 -401.45 3.72 
-102.54 -401.47 3.72 
-102.90 -401.49 3.73 
-103.21 -401.52 3.74 
-103.68 -401.50 3.76 
-104.09 -401.50 3.78 
-104.50 -401.50 3.80 
-104.88 -401.52 3.82 
-105.19 -401.53 3.84 
-107.11 -401.62 3.72 
-85.64 -401.40 2.49 
-86.04 -401.26 2.54 
-86.36 -401.13 2.59 
-87.00 -401.16 2.59 
-87.69 -401.18 2.60 
-88.04 -401.41 2.95 
-88.46 -401.30 2.77 
-88.85 -401.40 2.94 
-89.33 -401.32 2.97 
-89.68 -401.36 2.94 
-90.10 -401.38 2.94 
-90.59 -401.40 2.93 
-90.93 -401.46 2.90 
-91.37 -401.46 2.90 
-91.71 -401.46 2.90 
-92.10 -401.48 2.89 
-92.46 -401.49 2.89 
-92.97 -401.51 2.88 
-93.33 -401.46 3.12 
-93.66 -401.44 3.16 
-94.12 -401.45 3.22 
-94.52 -401.49 3.21 
-94.87 -401.46 3.20 
-95.35 -401.48 3.19 
-95.67 -401.48 3.19 
-96.04 -401.50 3.18 
-83.61 -401.37 2.49 
-84.16 -401.38 2.49 
-84.54 -401.40 2.49 
-84.78 -401.43 2.49 
-85.30 -401.43 2.49 
-85.77 -401.45 2.49 
-86.08 -401.45 2.49 
-86.44 -403.30 2.54 
-101.78 -401.35 3.98 
-102.05 -401.36 3.98 
-102.47 -401.38 3.99 
-102.73 -401.38 3.99 
-103.38 -401.40 4.01 
-103.66 -401.41 4.02 
-104.06 -401.41 4.04 
-104.45 -401.42 4.05 
-104.82 -401.42 4.07 
-105.29 -401.44 4.10 
-105.69 -401.44 4.13 
-106.06 -401.44 4.16 
-106.49 -401.46 4.19 
-106.94 -401.48 4.14 
-107.27 -401.50 4.16 
-107.66 -401.50 4.20 
-108.05 -401.50 4.27 
-108.46 -401.53 4.23 
-95.01 -401.39 3.53 
-95.35 -401.40 3.52 
-95.68 -401.39 3.51 
-96.06 -401.41 3.50 
-96.48 -401.42 3.49 
-96.88 -401.43 3.48 
-97.22 -401.44 3.47 
-97.67 -401.37 3.76 
-98.04 -401.38 3.75 
-98.46 -401.38 3.74 
-98.86 -401.39 3.73 
-99.29 -401.40 3.72 
-99.69 -401.40 3.71 
-100.09 -401.39 3.79 
-100.48 -401.38 3.84 
-100.87 -401.37 3.89 
-101.24 -401.38 3.89 
-101.64 -401.40 3.86 
-102.02 -401.43 3.80 
-102.31 -401.39 3.98 
-102.85 -401.41 3.99 
-103.09 -401.52 3.98 
-91.84 -401.37 3.28 
-92.17 -401.41 3.27 
-92.45 -401.40 3.26 
-92.92 -401.41 3.25 
-86.38 -403.13 2.96 
-86.24 -402.91 3.39 
-86.17 -403.14 3.38 
-86.27 -403.07 3.38 
-85.39 -402.82 4.94 
-105.55 -401.88 2.06 
-105.78 -401.88 2.07 
-106.32 -401.91 2.10 
-106.66 -401.87 2.12 
-106.99 -401.87 2.14 
-107.37 -401.93 2.16 
-107.92 -401.96 2.19 
-108.29 -401.94 2.20 
-86.68 -401.13 1.13 
-87.08 -401.13 1.15 
-87.41 -401.18 1.17 
-87.82 -401.18 1.20 
-88.26 -401.21 1.23 
-93.50 -401.68 1.34 
-93.80 -401.69 1.35 
-94.10 -401.67 1.37 
-94.54 -401.66 1.37 
-95.05 -401.66 1.40 
-95.44 -401.74 1.46 
-95.85 -401.71 1.47 
-96.22 -401.69 1.48 
-96.61 -401.71 1.52 
-97.00 -401.73 1.54 
-97.38 -401.74 1.57 
-97.79 -401.72 1.58 
-98.76 -401.77 1.66 
-99.05 -401.74 1.65 
-99.40 -401.75 1.67 
-99.83 -401.77 1.69 
-100.20 -401.77 1.72 
-100.63 -401.79 1.74 
-100.97 -401.79 1.76 
-101.42 -401.83 1.81 
-101.81 -401.83 1.83 
-102.20 -401.83 1.82 
-102.62 -401.86 1.82 
-103.01 -401.86 1.90 
-103.39 -401.88 1.93 
-103.85 -401.86 1.95 
-104.19 -401.86 1.98 
-104.60 -401.89 2.01 
-105.03 -401.88 2.03 
-105.39 -401.88 2.05 
-105.81 -401.90 2.07 
-106.12 -401.91 2.09 
-86.61 -401.58 0.89 
-87.03 -401.61 0.92 
-87.43 -401.60 0.95 
-87.86 -401.60 0.97 
-88.14 -401.60 0.99 
-91.83 -401.67 1.23 
-92.21 -401.67 1.25 
-92.61 -401.67 1.28 
-92.99 -401.68 1.30 
-93.40 -401.71 1.33 
-94.35 -401.73 1.39 
-94.91 -401.83 1.43 
-102.07 -401.69 2.36 
-103.89 -401.78 2.44 
-104.12 -401.79 2.33 
-104.59 -401.81 2.47 
-105.01 -401.82 2.38 
-105.38 -401.81 2.40 
-105.77 -401.83 2.42 
-106.17 -401.85 2.44 
-106.53 -401.79 2.46 
-107.00 -401.78 2.37 
-107.46 -401.87 2.48 
-107.79 -401.89 2.53 
-108.18 -401.90 2.56 
-90.38 -401.26 1.56 
-90.57 -401.29 1.57 
-91.06 -401.30 1.60 
-91.49 -401.31 1.43 
-91.79 -401.41 1.63 
-92.23 -401.41 1.64 
-92.65 -401.42 1.72 
-93.01 -401.55 1.64 
-93.43 -401.42 1.75 
-93.63 -401.38 1.56 
-94.40 -401.63 1.75 
-94.62 -401.51 1.83 
-95.06 -401.56 1.87 
-95.39 -401.55 1.88 
-95.78 -401.58 1.90 
-96.16 -401.55 1.90 
-96.57 -401.59 1.83 
-97.00 -401.63 1.84 
-97.40 -401.63 1.87 
-97.77 -401.64 1.89 
-98.74 -401.73 1.95 
-98.95 -401.68 2.00 
-99.43 -401.71 2.09 
-99.80 -401.72 2.12 
-100.21 -401.73 2.13 
-100.61 -401.75 2.16 
-101.00 -401.75 2.17 
-101.40 -401.76 2.20 
-101.80 -401.77 2.21 
-102.18 -401.79 2.22 
-102.59 -401.78 2.25 
-103.01 -401.79 2.27 
-103.42 -401.84 2.29 
-103.79 -401.82 2.31 
-104.18 -401.82 2.22 
-104.57 -401.83 2.36 
-104.89 -401.85 2.26 
-85.80 -401.53 1.37 
-86.21 -401.50 1.38 
-86.55 -401.51 1.40 
-86.96 -401.54 1.42 
-87.44 -401.52 1.44 
-87.82 -401.54 1.45 
-88.13 -401.55 1.47 
-90.23 -401.59 1.56 
-90.60 -401.59 1.58 
-91.01 -401.58 1.60 
-91.41 -401.60 1.61 
-91.72 -401.63 1.63 
-92.33 -401.63 1.65 
-92.53 -401.64 1.66 
-86.29 -403.62 1.41 
-97.94 -401.47 2.41 
-101.39 -401.66 2.59 
-101.72 -401.67 2.60 
-102.04 -401.65 2.61 
-102.58 -401.70 2.63 
-102.98 -401.71 2.65 
-103.36 -401.71 2.66 
-103.74 -401.73 2.67 
-104.16 -401.72 2.69 
-104.58 -401.75 2.71 
-104.99 -401.75 2.73 
-105.36 -401.75 2.75 
-105.73 -401.75 2.77 
-106.15 -401.78 2.79 
-106.47 -401.67 2.81 
