# .PCD v0.7 - Point Cloud Data file format
VERSION 0.7
FIELDS x y z
SIZE 4 4 4
TYPE F F F
COUNT 1 1 1
WIDTH 2319
HEIGHT 1
VIEWPOINT 0 0 0 1 0 0 0
POINTS 2319
DATA ascii
-94.25 -82.94 1.71 
-93.83 -82.88 1.58 
-92.60 -82.50 1.44 
-92.57 -82.48 1.44 
-91.79 -82.35 1.75 
-88.74 -81.68 1.44 
-88.61 -81.74 1.44 
-86.47 -81.08 1.45 
-98.20 -83.05 1.81 
-98.03 -83.05 1.81 
-97.07 -83.06 1.81 
-96.29 -82.92 1.76 
-85.30 -80.44 1.48 
-99.30 -83.02 1.76 
-98.21 -82.99 1.71 
-100.48 -82.79 1.86 
-83.59 -103.14 0.70 
-86.21 -91.11 1.36 
-92.23 -82.68 2.07 
-91.72 -82.72 2.12 
-90.73 -82.38 1.78 
-89.94 -82.32 1.73 
-91.81 -82.30 2.14 
-85.61 -104.58 1.22 
-85.69 -104.37 1.22 
-85.76 -104.00 1.22 
-85.86 -103.50 1.22 
-85.55 -103.32 1.22 
-85.23 -103.28 1.23 
-84.93 -103.21 1.23 
-84.47 -103.12 1.23 
-84.02 -103.04 1.24 
-83.73 -102.96 1.24 
-92.19 -82.68 2.39 
-85.13 -80.18 1.98 
-85.58 -104.69 1.75 
-85.55 -104.65 1.75 
-85.66 -104.33 1.74 
-85.61 -104.41 1.75 
-85.69 -104.11 1.74 
-85.72 -103.89 1.74 
-85.69 -103.53 1.73 
-85.29 -103.34 1.74 
-84.86 -103.27 1.75 
-84.41 -103.17 1.76 
-83.96 -103.10 1.78 
-83.68 -103.02 1.78 
-92.14 -82.67 2.71 
-91.47 -82.50 2.54 
-85.08 -80.19 2.47 
-85.57 -104.61 2.28 
-85.61 -104.28 2.27 
-85.67 -103.94 2.25 
-85.61 -103.55 2.25 
-85.21 -103.41 2.26 
-84.83 -103.34 2.28 
-84.21 -103.25 2.30 
-91.42 -82.50 2.94 
-85.02 -80.19 2.97 
-84.33 -80.00 2.96 
-83.56 -103.37 2.34 
-85.65 -103.59 2.76 
-84.96 -80.19 3.47 
-84.30 -80.02 3.54 
-85.53 -104.35 2.79 
-85.62 -103.90 2.77 
-83.61 -103.46 2.89 
-85.44 -103.55 2.77 
-85.11 -103.49 2.79 
-84.80 -103.43 2.81 
-84.45 -103.38 2.83 
-84.03 -103.38 2.85 
-91.34 -82.41 3.78 
-85.50 -103.94 3.30 
-85.54 -103.72 3.29 
-84.23 -103.45 3.39 
-85.34 -104.26 3.87 
-84.76 -103.67 3.88 
-84.41 -103.56 3.92 
-86.34 -104.07 -0.22 
-93.10 -96.41 0.45 
-93.20 -96.08 0.47 
-93.29 -95.57 0.50 
-93.34 -95.44 0.50 
-93.43 -94.88 0.53 
-93.51 -94.37 0.56 
-93.53 -94.11 0.57 
-91.34 -93.57 0.48 
-93.44 -93.74 0.58 
-91.37 -93.36 0.49 
-91.20 -93.11 0.50 
-90.86 -92.96 0.49 
-90.22 -92.80 0.46 
-90.69 -92.89 0.48 
-89.46 -83.10 0.94 
-95.54 -83.31 1.05 
-95.23 -83.29 1.04 
-94.90 -83.31 1.02 
-94.39 -83.23 1.00 
-94.01 -83.18 0.98 
-93.63 -83.14 0.97 
-93.23 -83.07 0.95 
-92.80 -83.01 0.93 
-92.47 -82.96 0.92 
-92.05 -82.87 0.90 
-91.71 -82.80 0.88 
-91.39 -82.73 0.87 
-90.93 -82.64 0.85 
-90.53 -82.52 0.84 
-90.16 -82.45 0.82 
-89.80 -82.33 0.81 
-89.47 -82.24 0.79 
-89.08 -82.11 0.78 
-88.66 -81.97 0.76 
-88.21 -81.81 0.75 
-97.66 -83.35 1.15 
-97.25 -83.37 1.13 
-96.82 -83.35 1.11 
-96.49 -83.27 1.06 
-96.04 -83.34 1.07 
-95.66 -83.27 1.01 
-95.30 -83.21 0.95 
-98.42 -83.08 1.16 
-98.09 -83.28 1.07 
-97.86 -83.32 1.06 
-103.65 -80.31 1.48 
-103.94 -79.97 1.49 
-93.27 -94.42 0.77 
-92.08 -94.06 0.75 
-92.69 -94.11 0.76 
-91.05 -93.77 0.73 
-90.59 -93.60 0.72 
-90.39 -93.49 0.72 
-89.87 -93.48 0.71 
-94.88 -83.29 1.37 
-92.50 -82.86 1.20 
-92.12 -82.89 1.19 
-90.73 -82.54 1.17 
-88.55 -81.95 1.13 
-97.11 -83.33 1.42 
-96.30 -83.09 1.54 
-96.01 -83.07 1.52 
-95.21 -82.87 1.52 
-94.89 -83.07 1.38 
-93.78 -82.88 1.37 
-92.60 -82.54 1.22 
-91.87 -82.54 1.44 
-90.80 -82.30 1.18 
-86.46 -81.14 1.11 
-98.22 -83.07 1.56 
-97.69 -83.22 1.34 
-97.15 -83.12 1.44 
-96.30 -83.00 1.55 
-96.29 -82.90 1.55 
-98.52 -82.89 1.51 
-98.25 -83.02 1.37 
-99.22 -79.77 1.57 
-98.80 -79.71 1.55 
-85.75 -104.44 0.74 
-85.83 -103.90 0.75 
-85.89 -103.57 0.75 
-83.88 -103.19 0.74 
-85.65 -103.28 0.75 
-85.36 -103.23 0.75 
-84.96 -103.14 0.75 
-84.46 -103.07 0.74 
-92.47 -82.88 1.62 
-92.08 -82.92 1.62 
-91.66 -82.82 1.79 
-90.74 -82.43 1.81 
-89.91 -82.39 1.39 
-88.58 -81.93 1.50 
-95.99 -83.07 1.74 
-94.87 -83.01 1.74 
-93.75 -82.88 1.76 
-93.16 -82.78 1.77 
-92.60 -82.54 1.65 
-91.83 -82.21 1.82 
-90.77 -82.32 1.82 
-89.72 -82.05 1.50 
-88.60 -81.81 1.51 
-85.58 -81.13 1.33 
-98.19 -83.07 1.85 
-97.09 -83.14 1.94 
-96.88 -83.16 1.84 
-96.51 -83.11 1.95 
-86.51 -81.05 1.53 
-85.29 -80.49 1.55 
-98.54 -82.91 1.84 
-98.22 -83.04 1.76 
-85.79 -103.50 1.23 
-92.26 -82.80 2.06 
-91.63 -82.75 2.15 
-91.19 -82.75 2.16 
-87.79 -81.75 1.82 
-94.87 -82.96 1.99 
-92.39 -82.59 2.08 
-91.84 -82.24 2.18 
-87.82 -81.62 1.82 
-85.14 -80.19 2.02 
-85.72 -104.33 1.23 
-85.79 -104.01 1.23 
-85.81 -103.76 1.23 
-84.91 -103.21 1.24 
-84.61 -103.15 1.24 
-83.85 -103.23 1.25 
-85.36 -103.28 1.24 
-84.48 -103.09 1.24 
-92.21 -82.68 2.51 
-91.47 -82.54 2.54 
-92.26 -82.62 2.37 
-92.22 -82.61 2.66 
-85.11 -80.20 2.49 
-85.64 -104.66 1.74 
-85.65 -104.40 1.74 
-85.73 -104.01 1.73 
-85.77 -103.59 1.72 
-85.45 -103.36 1.73 
-85.05 -103.28 1.74 
-84.58 -103.19 1.75 
-84.25 -103.14 1.76 
-83.83 -103.05 1.77 
-91.42 -82.55 2.91 
-85.61 -104.41 2.24 
-85.69 -104.04 2.22 
-85.64 -103.57 2.21 
-85.38 -103.44 2.22 
-84.98 -103.35 2.23 
-84.68 -103.31 2.25 
-84.27 -103.24 2.26 
-83.75 -103.33 2.29 
-92.10 -82.57 3.28 
-85.05 -80.20 2.95 
-85.56 -104.44 2.74 
-85.65 -103.98 2.72 
-85.65 -103.60 2.70 
-85.29 -103.51 2.72 
-84.88 -103.45 2.74 
-84.50 -103.36 2.76 
-84.20 -103.30 2.78 
-84.98 -80.20 3.42 
-84.33 -80.04 3.52 
-83.60 -103.44 2.82 
-83.81 -103.42 2.81 
-85.29 -103.62 3.22 
-85.45 -103.72 3.71 
-84.80 -103.64 3.77 
-84.47 -103.54 3.80 
-84.17 -103.54 3.83 
-86.34 -104.08 -0.18 
-86.46 -103.38 -0.14 
-93.16 -96.48 0.49 
-93.21 -96.06 0.51 
-93.31 -95.61 0.54 
-93.45 -94.91 0.58 
-93.50 -94.63 0.59 
-91.32 -93.80 0.52 
-91.31 -93.30 0.54 
-91.07 -93.08 0.54 
-90.87 -93.00 0.53 
-90.69 -92.94 0.53 
-93.36 -83.38 0.90 
-88.19 -82.41 0.97 
-95.72 -83.42 1.11 
-95.37 -83.39 1.09 
-94.95 -83.37 1.07 
-94.53 -83.23 1.02 
-94.11 -83.19 1.00 
-93.77 -83.16 1.01 
-93.34 -83.13 1.01 
-92.98 -83.07 0.99 
-92.58 -83.01 0.98 
-92.16 -82.93 0.96 
-91.77 -82.85 0.94 
-91.42 -82.77 0.93 
-91.07 -82.70 0.91 
-90.69 -82.61 0.90 
-90.24 -82.50 0.88 
-89.87 -82.39 0.87 
-89.58 -82.30 0.86 
-88.68 -82.01 0.82 
-88.25 -82.22 0.97 
-96.46 -83.34 1.04 
-96.12 -83.38 1.03 
-95.92 -83.35 0.93 
-94.92 -83.19 1.01 
-94.77 -83.19 1.00 
-88.29 -81.86 0.81 
-87.89 -81.72 0.79 
-84.43 -80.79 0.66 
-101.99 -80.20 1.45 
-102.13 -80.02 1.46 
-102.35 -79.76 1.47 
-86.30 -103.95 0.29 
-90.52 -94.22 0.72 
-93.32 -94.39 0.79 
-90.47 -94.10 0.72 
-92.43 -94.06 0.77 
-92.11 -94.07 0.77 
-90.35 -93.49 0.74 
-89.89 -93.48 0.73 
-94.87 -83.34 1.28 
-93.44 -83.08 1.20 
-92.53 -82.88 1.36 
-92.17 -82.94 1.34 
-90.75 -82.52 1.19 
-88.55 -82.04 1.15 
-96.17 -83.14 1.43 
-95.91 -83.19 1.41 
-95.53 -83.33 1.29 
-95.06 -82.99 1.43 
-93.77 -82.90 1.50 
-92.97 -82.79 1.49 
-92.62 -82.60 1.37 
-90.80 -82.31 1.21 
-88.63 -81.77 1.17 
-86.44 -81.22 1.13 
-96.91 -82.93 1.59 
-96.26 -82.93 1.46 
-86.50 -81.07 1.14 
-96.21 -82.49 1.35 
-85.76 -104.31 0.74 
-85.83 -104.04 0.74 
-85.90 -103.65 0.75 
-84.21 -103.16 0.74 
-84.07 -103.10 0.74 
-83.59 -102.99 0.73 
-85.86 -103.35 0.75 
-85.52 -103.27 0.75 
-85.16 -103.19 0.75 
-84.72 -103.11 0.74 
-84.54 -103.08 0.74 
-83.90 -103.03 0.74 
-92.51 -82.89 1.73 
-92.15 -82.96 1.73 
-90.74 -82.49 1.63 
-87.76 -81.86 1.39 
-95.99 -83.12 1.71 
-95.80 -83.08 1.72 
-95.45 -83.06 1.82 
-94.93 -83.06 1.82 
-93.71 -82.89 1.73 
-92.60 -82.58 1.76 
-90.78 -82.34 1.64 
-87.58 -81.40 1.52 
-96.32 -82.97 1.93 
-92.63 -82.37 1.77 
-86.52 -81.11 1.53 
-85.26 -80.57 1.55 
-85.62 -104.67 1.21 
-85.74 -104.33 1.21 
-85.79 -104.03 1.21 
-85.87 -103.70 1.21 
-85.73 -103.36 1.21 
-85.53 -103.31 1.21 
-85.12 -103.24 1.21 
-84.76 -103.18 1.22 
-92.51 -82.94 1.98 
-92.17 -82.99 1.98 
-92.59 -82.55 2.02 
-88.63 -81.74 1.85 
-85.22 -80.23 1.99 
-83.95 -103.28 1.22 
-83.54 -103.20 1.22 
-92.18 -82.74 2.53 
-92.21 -82.66 2.54 
-91.50 -82.48 2.47 
-85.16 -80.14 2.43 
-85.12 -80.24 2.42 
-85.70 -104.47 1.69 
-85.79 -103.99 1.68 
-85.85 -103.65 1.67 
-84.42 -103.19 1.70 
-83.87 -103.08 1.71 
-83.57 -103.02 1.72 
-85.70 -103.40 1.67 
-85.48 -103.36 1.68 
-85.08 -103.30 1.69 
-84.71 -103.22 1.69 
-84.26 -103.14 1.70 
-83.90 -103.07 1.71 
-92.11 -82.71 2.81 
-85.07 -80.21 2.85 
-85.65 -104.53 2.17 
-85.73 -104.05 2.15 
-85.79 -103.71 2.14 
-85.45 -103.45 2.15 
-85.06 -103.37 2.16 
-84.64 -103.30 2.17 
-84.27 -103.23 2.19 
-83.90 -103.16 2.20 
-83.57 -103.08 2.22 
-85.02 -80.21 3.29 
-85.60 -104.48 2.65 
-85.66 -104.12 2.63 
-85.74 -103.57 2.60 
-85.48 -103.53 2.61 
-85.04 -103.44 2.64 
-84.58 -103.36 2.66 
-84.28 -103.33 2.68 
-83.82 -103.42 2.71 
-85.53 -104.40 3.14 
-85.63 -103.72 3.09 
-85.47 -103.63 3.09 
-85.46 -104.26 3.62 
-85.50 -104.04 3.60 
-85.04 -103.65 3.61 
-84.60 -103.57 3.64 
-84.17 -103.47 3.68 
-93.18 -96.53 0.56 
-93.35 -95.71 0.51 
-93.42 -95.36 0.54 
-93.48 -94.99 0.56 
-90.79 -94.05 0.57 
-93.58 -94.27 0.61 
-90.88 -93.51 0.60 
-85.49 -92.38 0.39 
-92.32 -93.43 0.58 
-85.14 -92.24 0.38 
-91.03 -93.07 0.62 
-90.55 -92.90 0.61 
-90.14 -92.85 0.59 
-91.78 -83.08 0.92 
-94.94 -83.31 0.98 
-94.68 -83.33 1.05 
-94.34 -83.29 1.04 
-93.91 -83.28 1.11 
-93.51 -83.19 1.10 
-93.13 -83.10 1.05 
-92.73 -83.04 1.03 
-92.20 -82.96 1.05 
-91.91 -82.90 1.04 
-91.51 -82.81 1.02 
-91.17 -82.75 1.01 
-90.82 -82.68 0.99 
-90.35 -82.53 0.98 
-89.99 -82.44 0.96 
-89.58 -82.31 0.95 
-88.74 -82.04 0.92 
-86.53 -81.73 1.01 
-83.71 -81.04 0.72 
-94.98 -83.21 1.13 
-94.81 -83.24 1.12 
-88.44 -81.93 0.91 
-88.16 -81.83 0.90 
-87.83 -81.70 0.89 
-84.12 -80.88 0.75 
-86.07 -80.96 0.83 
-100.23 -79.94 1.46 
-100.40 -79.77 1.47 
-84.39 -94.49 0.60 
-90.53 -94.27 0.77 
-93.37 -94.44 0.84 
-90.62 -93.96 0.78 
-92.70 -94.05 0.83 
-92.44 -94.06 0.83 
-92.14 -94.06 0.82 
-90.64 -93.76 0.79 
-90.30 -93.48 0.79 
-89.93 -93.49 0.78 
-94.88 -83.36 1.43 
-92.54 -82.95 1.51 
-92.30 -82.98 1.39 
-91.90 -82.89 1.38 
-91.51 -82.82 1.36 
-90.75 -82.59 1.38 
-89.96 -82.37 1.49 
-88.55 -82.06 1.22 
-95.13 -83.01 1.47 
-94.90 -83.14 1.44 
-94.32 -83.00 1.33 
-93.90 -82.88 1.44 
-92.63 -82.65 1.53 
-90.81 -82.36 1.40 
-89.74 -82.05 1.25 
-88.71 -81.66 1.24 
-88.63 -81.86 1.23 
-86.46 -81.23 1.20 
-95.23 -82.91 1.60 
-94.70 -82.55 1.36 
-94.47 -82.45 1.35 
-92.65 -82.41 1.55 
-94.72 -82.39 1.37 
-94.45 -82.21 1.36 
-85.78 -104.46 0.77 
-85.84 -104.05 0.78 
-85.93 -103.71 0.78 
-84.08 -103.20 0.77 
-83.71 -103.14 0.77 
-85.90 -103.29 0.79 
-85.69 -103.28 0.79 
-85.29 -103.20 0.78 
-84.88 -103.13 0.78 
-84.57 -103.06 0.78 
-92.52 -82.91 1.85 
-92.32 -83.00 1.84 
-92.01 -82.94 1.85 
-90.75 -82.55 1.77 
-94.90 -83.12 1.75 
-93.87 -82.93 1.82 
-93.59 -82.91 1.94 
-92.60 -82.65 1.87 
-90.79 -82.38 1.79 
-89.72 -82.08 1.68 
-88.76 -81.80 1.69 
-88.62 -81.90 1.53 
-92.64 -82.43 1.89 
-86.50 -81.14 1.56 
-85.32 -80.59 1.59 
-85.36 -80.48 1.59 
-85.57 -80.06 1.62 
-85.75 -104.41 1.23 
-85.80 -104.10 1.23 
-85.87 -103.75 1.23 
-84.01 -103.28 1.23 
-83.64 -103.20 1.24 
-85.90 -103.48 1.22 
-85.70 -103.33 1.22 
-85.24 -103.26 1.23 
-84.89 -103.18 1.23 
-92.27 -82.72 2.22 
-86.56 -80.96 1.93 
-85.28 -80.60 1.97 
-85.37 -80.47 1.98 
-85.56 -80.08 2.01 
-85.71 -104.46 1.69 
-85.77 -104.10 1.68 
-85.84 -103.67 1.67 
-85.58 -103.37 1.67 
-85.20 -103.30 1.68 
-84.81 -103.23 1.68 
-84.46 -103.16 1.69 
-85.17 -80.21 2.40 
-85.80 -103.68 2.11 
-85.63 -103.46 2.11 
-85.40 -103.41 2.12 
-84.08 -103.09 1.70 
-83.67 -103.02 1.71 
-92.18 -82.63 2.95 
-85.13 -80.21 2.80 
-84.44 -79.99 2.88 
-85.68 -104.49 2.15 
-85.75 -104.11 2.13 
-84.39 -103.25 2.15 
-85.14 -103.37 2.13 
-84.82 -103.31 2.14 
-84.48 -103.23 2.15 
-83.97 -103.15 2.17 
-83.66 -103.08 2.18 
-85.09 -80.16 3.21 
-84.40 -79.98 3.36 
-85.62 -104.56 2.62 
-85.68 -104.19 2.59 
-85.77 -103.71 2.56 
-85.57 -103.52 2.56 
-85.17 -103.45 2.58 
-84.75 -103.38 2.60 
-84.42 -103.32 2.62 
-83.95 -103.46 2.65 
-83.58 -103.40 2.67 
-85.40 -103.61 3.03 
-85.14 -103.53 3.04 
-84.94 -103.49 3.06 
-83.72 -103.52 3.15 
-84.93 -80.11 4.05 
-85.45 -104.59 3.57 
-85.50 -104.34 3.54 
-85.53 -103.71 3.48 
-84.36 -103.50 3.57 
-93.27 -96.50 0.46 
-93.32 -96.28 0.48 
-93.40 -95.90 0.51 
-90.65 -94.61 0.62 
-90.79 -93.96 0.66 
-90.93 -93.67 0.50 
-90.85 -93.70 0.68 
-85.31 -92.38 0.48 
-90.96 -93.40 0.52 
-90.92 -93.26 0.61 
-90.72 -93.00 0.61 
-90.52 -92.85 0.61 
-90.12 -92.81 0.59 
-93.26 -83.12 1.09 
-92.90 -83.07 1.08 
-92.46 -83.01 1.15 
-92.08 -82.92 1.14 
-91.68 -82.84 1.09 
-91.30 -82.76 1.07 
-90.88 -82.67 1.10 
-90.65 -82.73 1.08 
-90.11 -82.45 1.07 
-89.73 -82.34 1.06 
-89.39 -82.23 1.05 
-88.84 -82.06 1.03 
-88.65 -82.00 1.02 
-88.25 -81.83 1.01 
-84.23 -80.71 0.87 
-83.98 -80.83 0.85 
-83.61 -80.92 0.83 
-86.33 -81.06 0.95 
-90.62 -94.00 0.84 
-90.62 -93.84 0.85 
-90.22 -93.61 0.85 
-89.86 -93.51 0.84 
-89.44 -93.53 0.83 
-92.47 -82.95 1.45 
-92.14 -82.94 1.47 
-91.71 -82.84 1.58 
-90.75 -82.65 1.44 
-88.56 -82.08 1.29 
-85.90 -81.60 1.09 
-93.51 -82.84 1.62 
-93.36 -82.78 1.39 
-92.62 -82.67 1.47 
-90.82 -82.39 1.57 
-89.75 -82.06 1.58 
-88.65 -81.82 1.31 
-86.83 -81.49 1.14 
-86.46 -81.26 1.27 
-85.97 -81.33 1.10 
-93.34 -82.53 1.40 
-92.66 -82.42 1.49 
-86.55 -81.06 1.29 
-86.49 -81.17 1.28 
-98.80 -79.78 1.72 
-98.47 -79.80 1.71 
-85.81 -104.43 0.82 
-85.89 -104.19 0.82 
-85.98 -103.68 0.83 
-84.07 -103.15 0.82 
-83.76 -103.14 0.81 
-85.78 -103.29 0.84 
-85.42 -103.24 0.83 
-85.06 -103.17 0.83 
-84.69 -103.09 0.83 
-84.25 -103.15 0.82 
-92.46 -82.97 1.95 
-92.09 -82.95 1.85 
-90.77 -82.55 1.79 
-93.49 -82.90 1.94 
-93.05 -82.69 2.10 
-92.62 -82.68 1.88 
-90.78 -82.41 1.80 
-90.05 -82.20 1.87 
-89.75 -82.08 1.83 
-88.66 -81.80 1.72 
-85.70 -81.05 1.51 
-92.64 -82.44 1.90 
-85.33 -80.58 1.63 
-85.78 -104.54 1.26 
-85.88 -104.11 1.26 
-85.82 -104.22 1.26 
-85.94 -103.73 1.26 
-84.13 -103.30 1.26 
-83.78 -103.24 1.26 
-85.75 -103.36 1.25 
-85.39 -103.28 1.26 
-85.00 -103.21 1.26 
-84.71 -103.16 1.26 
-96.18 -104.61 1.71 
-92.48 -82.99 2.14 
-92.15 -82.98 2.15 
-92.58 -82.70 2.18 
-90.78 -82.40 2.04 
-90.05 -82.21 2.17 
-92.63 -82.45 2.21 
-86.59 -80.94 1.95 
-85.29 -80.58 1.99 
-85.39 -80.39 2.00 
-85.79 -104.43 1.70 
-85.72 -104.56 1.71 
-85.83 -104.17 1.69 
-85.81 -104.14 1.69 
-85.90 -103.79 1.68 
-85.76 -103.41 1.68 
-85.36 -103.33 1.68 
-84.97 -103.27 1.69 
-84.60 -103.20 1.70 
-84.19 -103.11 1.70 
-83.79 -103.05 1.71 
-85.18 -80.20 2.39 
-84.56 -80.20 2.40 
-84.57 -79.99 2.41 
-85.76 -104.22 2.13 
-85.84 -103.84 2.11 
-85.70 -103.48 2.10 
-85.37 -103.42 2.11 
-85.00 -103.35 2.12 
-84.54 -103.27 2.14 
-84.18 -103.20 2.15 
-83.90 -103.15 2.16 
-85.16 -80.21 2.75 
-84.40 -80.08 2.85 
-84.41 -79.94 2.86 
-85.78 -104.04 2.56 
-85.68 -103.62 2.54 
-85.30 -103.50 2.55 
-84.94 -103.42 2.56 
-83.76 -103.11 2.16 
-85.08 -80.24 3.12 
-85.13 -80.17 3.13 
-84.40 -79.97 3.31 
-85.69 -104.58 2.59 
-85.67 -103.73 2.98 
-84.47 -103.35 2.59 
-83.96 -103.48 2.62 
-83.75 -103.45 2.63 
-85.72 -104.12 3.01 
-85.29 -103.62 3.00 
-84.85 -103.52 3.02 
-84.53 -103.48 3.04 
-84.01 -103.64 3.08 
-85.53 -104.61 3.51 
-83.85 -103.65 3.56 
-84.94 -103.63 3.46 
-84.66 -103.58 3.48 
-90.56 -94.89 0.61 
-90.66 -94.55 0.63 
-90.71 -94.28 0.65 
-90.76 -93.87 0.76 
-85.33 -92.49 0.58 
-84.98 -92.39 0.57 
-84.57 -92.36 0.55 
-90.35 -92.90 0.63 
-90.17 -92.83 0.68 
-89.74 -92.76 0.68 
-91.75 -82.90 1.16 
-91.39 -82.83 1.14 
-90.95 -82.77 1.22 
-90.53 -82.65 1.17 
-90.14 -82.48 1.16 
-89.76 -82.37 1.19 
-89.45 -82.28 1.18 
-89.13 -82.19 1.17 
-88.48 -82.10 1.14 
-83.81 -81.25 1.14 
-88.98 -82.14 1.16 
-88.68 -82.04 1.15 
-87.81 -81.72 1.12 
-87.38 -81.55 1.11 
-87.16 -81.46 1.11 
-86.91 -81.36 1.10 
-86.66 -81.25 1.09 
-86.08 -80.99 1.07 
-85.73 -80.82 1.07 
-84.31 -80.44 1.02 
-84.05 -80.51 1.00 
-83.59 -80.56 0.98 
-84.97 -80.45 1.04 
-84.47 -80.31 1.03 
-96.02 -104.53 0.97 
-105.60 -98.39 1.24 
-105.80 -98.18 1.33 
-105.86 -97.70 1.35 
-90.57 -94.09 0.91 
-90.61 -93.90 0.92 
-90.01 -93.53 0.91 
-89.62 -93.47 0.91 
-106.76 -96.47 1.37 
-106.64 -96.45 1.37 
-106.90 -96.35 1.45 
-106.70 -96.32 1.44 
-91.95 -82.89 1.53 
-91.90 -82.90 1.53 
-90.87 -82.76 1.53 
-90.51 -82.59 1.54 
-90.32 -82.67 1.65 
-88.46 -82.12 1.39 
-90.71 -82.42 1.47 
-90.37 -82.45 1.66 
-89.66 -82.07 1.65 
-88.54 -81.88 1.53 
-88.22 -81.86 1.63 
-86.04 -81.23 1.61 
-88.70 -81.67 1.66 
-87.58 -81.30 1.41 
-86.44 -81.10 1.39 
-91.92 -81.70 1.49 
-85.83 -104.41 0.85 
-85.89 -104.10 0.86 
-85.93 -103.74 0.86 
-84.15 -103.26 0.85 
-83.93 -103.21 0.85 
-83.56 -103.14 0.84 
-85.94 -103.40 0.87 
-85.52 -103.26 0.86 
-85.17 -103.20 0.86 
-84.80 -103.13 0.86 
-84.44 -103.11 0.85 
-83.60 -103.08 0.84 
-96.28 -104.60 1.24 
-91.97 -82.94 1.94 
-91.85 -82.91 1.80 
-90.66 -82.58 1.83 
-91.04 -82.46 1.94 
-90.66 -82.43 1.94 
-89.64 -82.07 1.88 
-88.54 -81.83 1.90 
-88.59 -81.67 1.92 
-87.53 -81.35 1.95 
-86.47 -81.00 1.84 
-86.56 -80.86 1.85 
-84.96 -80.46 1.71 
-85.80 -104.46 1.27 
-85.82 -104.22 1.27 
-85.90 -103.88 1.27 
-84.10 -103.32 1.27 
-83.87 -103.27 1.27 
-85.88 -103.49 1.27 
-85.59 -103.33 1.27 
-85.18 -103.26 1.27 
-84.73 -103.17 1.27 
-84.31 -103.27 1.27 
-91.85 -82.91 2.17 
-92.16 -82.69 2.47 
-85.26 -80.47 2.04 
-85.02 -80.37 2.22 
-85.12 -80.15 2.41 
-85.76 -104.52 1.70 
-85.79 -104.21 1.69 
-85.89 -103.80 1.68 
-85.79 -103.42 1.68 
-85.55 -103.38 1.68 
-85.08 -103.29 1.68 
-84.68 -103.23 1.69 
-84.32 -103.17 1.69 
-83.93 -103.09 1.70 
-83.50 -103.02 1.71 
-85.06 -80.24 2.74 
-85.09 -80.15 2.75 
-85.72 -104.59 2.13 
-85.75 -104.27 2.12 
-85.85 -103.86 2.10 
-85.75 -103.50 2.08 
-85.44 -103.44 2.09 
-85.05 -103.38 2.10 
-84.64 -103.30 2.11 
-84.26 -103.23 2.12 
-83.91 -103.17 2.13 
-83.53 -103.09 2.14 
-85.01 -80.23 3.08 
-85.04 -80.14 3.09 
-85.67 -104.67 2.57 
-85.75 -104.22 2.54 
-85.83 -103.79 2.51 
-83.81 -103.47 2.58 
-83.50 -103.43 2.59 
-85.82 -103.60 2.49 
-85.41 -103.52 2.51 
-85.00 -103.45 2.52 
-84.72 -103.39 2.53 
-84.43 -103.35 2.54 
-85.73 -104.14 2.96 
-85.61 -103.68 2.92 
-84.90 -103.58 2.96 
-84.50 -103.47 2.97 
-85.69 -103.89 3.36 
-85.37 -103.72 3.36 
-85.01 -103.66 3.38 
-84.58 -103.59 3.41 
-84.17 -103.59 3.22 
-83.78 -103.53 3.02 
-84.72 -80.07 4.07 
-85.54 -104.68 3.45 
-83.81 -103.70 3.48 
-86.47 -104.07 0.12 
-90.55 -95.40 0.54 
-85.39 -92.71 0.63 
-85.11 -92.57 0.62 
-84.69 -92.53 0.61 
-105.93 -96.33 1.12 
-105.51 -96.40 1.09 
-106.58 -96.28 1.11 
-106.05 -96.12 1.13 
-105.74 -96.18 1.11 
-106.35 -95.94 1.14 
-90.62 -82.62 1.20 
-90.39 -82.57 1.14 
-90.07 -82.47 1.13 
-89.68 -82.39 1.21 
-88.52 -82.16 1.17 
-89.47 -82.31 1.20 
-89.25 -82.23 1.20 
-88.98 -82.14 1.15 
-88.60 -81.99 1.18 
-88.14 -81.83 1.16 
-87.46 -81.56 1.15 
-86.92 -81.33 1.13 
-86.62 -81.20 1.12 
-86.41 -81.11 1.12 
-85.92 -80.86 1.11 
-85.66 -80.74 1.10 
-84.30 -80.47 1.05 
-83.96 -80.48 1.04 
-83.51 -80.50 1.02 
-85.11 -80.47 1.08 
-84.71 -80.30 1.07 
-84.47 -80.33 1.06 
-95.71 -104.50 1.01 
-105.19 -98.35 1.23 
-105.32 -98.03 1.25 
-105.99 -97.87 1.38 
-105.68 -96.69 1.33 
-106.41 -96.59 1.35 
-105.98 -96.52 1.35 
-90.42 -82.57 1.54 
-90.79 -82.39 1.53 
-90.46 -82.41 1.55 
-89.72 -82.07 1.53 
-88.58 -81.98 1.51 
-88.33 -81.73 1.65 
-88.69 -81.71 1.64 
-87.65 -81.31 1.66 
-86.53 -81.08 1.53 
-85.95 -81.14 1.28 
-86.61 -80.88 1.68 
-85.40 -80.39 1.40 
-84.83 -80.33 1.39 
-85.87 -104.26 0.90 
-85.96 -103.93 0.91 
-86.02 -103.46 0.91 
-85.76 -103.30 0.91 
-85.42 -103.23 0.91 
-85.04 -103.17 0.90 
-84.64 -103.10 0.90 
-84.07 -103.15 0.89 
-83.80 -103.05 0.89 
-96.03 -104.58 1.40 
-90.79 -82.42 1.90 
-89.67 -82.10 1.93 
-89.46 -82.05 2.05 
-88.57 -81.84 1.98 
-88.29 -81.92 1.92 
-88.66 -81.72 1.98 
-87.60 -81.37 1.90 
-86.55 -81.00 1.94 
-85.80 -80.87 1.97 
-86.60 -80.90 1.95 
-85.36 -80.46 1.85 
-85.20 -80.52 1.84 
-84.80 -80.36 2.01 
-84.45 -80.42 1.99 
-85.87 -104.22 1.31 
-85.95 -103.83 1.31 
-84.10 -103.31 1.30 
-83.73 -103.24 1.30 
-86.01 -103.40 1.30 
-85.73 -103.35 1.30 
-85.38 -103.29 1.30 
-85.01 -103.22 1.30 
-84.58 -103.19 1.30 
-96.02 -104.61 1.79 
-95.68 -104.55 1.78 
-88.34 -81.77 2.20 
-85.83 -104.28 1.72 
-85.91 -103.88 1.71 
-85.74 -103.40 1.69 
-85.36 -103.34 1.70 
-84.97 -103.27 1.70 
-84.57 -103.20 1.70 
-84.21 -103.14 1.71 
-83.74 -103.04 1.72 
-85.16 -80.19 2.64 
-85.83 -104.28 2.13 
-85.88 -103.87 2.11 
-85.69 -103.47 2.09 
-85.31 -103.41 2.10 
-84.96 -103.35 2.10 
-84.57 -103.27 2.11 
-84.10 -103.19 2.12 
-83.69 -103.11 2.13 
-85.14 -80.20 2.95 
-85.81 -104.20 2.53 
-85.86 -103.87 2.50 
-83.98 -103.49 2.55 
-83.63 -103.44 2.57 
-85.90 -103.59 2.48 
-85.64 -103.55 2.49 
-85.26 -103.48 2.50 
-84.88 -103.41 2.51 
-84.46 -103.36 2.53 
-85.70 -104.43 2.97 
-85.83 -103.93 2.92 
-85.07 -103.58 2.92 
-84.83 -103.53 2.93 
-83.99 -103.59 2.98 
-85.71 -103.67 2.90 
-85.33 -103.59 2.91 
-84.68 -103.48 2.94 
-85.68 -104.22 3.36 
-85.78 -103.79 3.31 
-85.28 -103.69 3.33 
-84.36 -103.53 3.37 
-83.64 -103.66 3.44 
-86.32 -104.42 0.17 
-85.78 -93.42 0.71 
-85.35 -92.84 0.72 
-84.90 -92.69 0.71 
-105.93 -96.36 1.13 
-105.56 -96.43 1.09 
-106.59 -96.29 1.10 
-106.31 -96.05 1.14 
-106.07 -96.00 1.15 
-105.63 -96.21 1.10 
-106.92 -95.98 1.17 
-106.36 -95.93 1.16 
-89.32 -82.27 1.20 
-89.07 -82.19 1.19 
-88.61 -82.10 1.27 
-88.18 -81.86 1.26 
-87.90 -81.75 1.25 
-87.72 -81.67 1.25 
-87.48 -81.58 1.24 
-87.15 -81.44 1.23 
-86.87 -81.32 1.23 
-86.49 -81.19 1.22 
-85.94 -80.88 1.21 
-85.52 -80.66 1.20 
-85.25 -80.55 1.19 
-84.60 -80.32 1.17 
-84.16 -80.37 1.15 
-83.81 -80.35 1.14 
-86.00 -104.66 0.56 
-105.29 -98.27 1.26 
-85.05 -94.00 0.88 
-106.59 -97.22 1.35 
-89.42 -82.05 1.61 
-88.59 -81.98 1.57 
-88.69 -81.72 1.58 
-87.64 -81.38 1.70 
-86.50 -81.15 1.59 
-86.09 -81.30 1.38 
-86.58 -80.99 1.60 
-85.36 -80.49 1.61 
-85.00 -80.39 1.47 
-85.46 -80.35 1.48 
-85.90 -104.35 0.96 
-86.02 -103.84 0.97 
-85.97 -103.44 0.97 
-85.63 -103.29 0.97 
-85.28 -103.22 0.96 
-84.88 -103.15 0.96 
-84.31 -103.28 0.95 
-84.06 -103.24 0.95 
-83.64 -103.17 0.94 
-85.92 -103.32 0.97 
-95.98 -104.61 1.46 
-89.43 -82.06 1.95 
-88.60 -81.89 2.08 
-88.66 -81.74 1.99 
-88.50 -81.76 2.09 
-88.14 -81.57 2.12 
-87.63 -81.38 1.92 
-86.51 -81.10 1.96 
-86.58 -80.98 1.97 
-85.21 -80.50 1.88 
-84.88 -80.38 1.89 
-85.51 -80.27 2.03 
-85.95 -104.00 1.35 
-85.97 -103.50 1.35 
-85.63 -103.35 1.34 
-85.28 -103.28 1.34 
-84.91 -103.22 1.34 
-84.41 -103.29 1.34 
-83.99 -103.30 1.34 
-83.63 -103.23 1.34 
-95.92 -104.63 1.84 
-85.32 -80.54 2.29 
-85.47 -80.25 2.32 
-85.87 -104.40 1.76 
-85.91 -104.07 1.75 
-85.93 -103.53 1.73 
-85.61 -103.40 1.73 
-85.25 -103.33 1.73 
-84.89 -103.26 1.73 
-84.41 -103.19 1.73 
-83.98 -103.11 1.74 
-83.62 -103.05 1.74 
-85.18 -80.19 2.90 
-85.85 -104.34 2.15 
-85.91 -104.06 2.14 
-85.92 -103.53 2.11 
-85.62 -103.48 2.11 
-85.25 -103.40 2.12 
-84.88 -103.34 2.12 
-84.45 -103.27 2.13 
-84.03 -103.19 2.13 
-83.59 -103.11 2.14 
-85.14 -80.18 3.19 
-85.80 -104.55 2.57 
-85.88 -104.02 2.53 
-84.18 -103.52 2.55 
-83.92 -103.47 2.55 
-83.52 -103.43 2.57 
-85.91 -103.67 2.50 
-85.59 -103.55 2.50 
-85.16 -103.49 2.51 
-84.80 -103.41 2.52 
-84.55 -103.37 2.52 
-85.77 -104.63 2.98 
-85.76 -104.41 2.96 
-83.89 -103.53 2.97 
-83.52 -103.53 2.99 
-85.17 -103.59 2.91 
-84.62 -103.49 2.93 
-84.30 -103.57 3.35 
-83.97 -103.75 3.39 
-83.69 -103.65 3.40 
-85.81 -103.79 3.29 
-85.55 -103.76 3.30 
-85.06 -103.68 3.32 
-84.71 -103.60 3.33 
-101.84 -96.84 1.04 
-85.30 -93.75 0.74 
-85.17 -93.68 0.74 
-85.37 -93.36 0.76 
-85.17 -93.25 0.76 
-84.83 -93.09 0.75 
-103.38 -96.18 1.10 
-84.94 -93.01 0.76 
-84.74 -92.91 0.76 
-105.93 -96.42 1.12 
-103.42 -96.10 1.11 
-106.13 -96.00 1.19 
-103.85 -95.50 1.17 
-103.48 -95.70 1.15 
-88.38 -81.97 1.14 
-88.12 -81.92 1.23 
-87.65 -81.80 1.31 
-87.29 -81.65 1.30 
-87.01 -81.53 1.30 
-86.50 -81.28 1.28 
-85.87 -80.90 1.27 
-85.44 -80.72 1.26 
-85.11 -80.58 1.26 
-84.58 -80.35 1.24 
-83.89 -80.28 1.22 
-84.64 -80.34 1.25 
-84.46 -80.32 1.24 
-83.98 -80.11 1.23 
-95.96 -104.63 1.11 
-84.62 -95.50 0.87 
-84.63 -95.41 0.87 
-105.82 -97.85 1.33 
-85.02 -93.95 0.93 
-88.46 -81.99 1.61 
-88.72 -81.71 1.66 
-88.53 -81.79 1.62 
-87.50 -81.38 1.63 
-86.39 -81.17 1.74 
-86.33 -81.27 1.51 
-87.53 -81.33 1.53 
-86.45 -81.02 1.75 
-85.25 -80.52 1.78 
-85.09 -80.52 1.65 
-85.31 -80.36 1.66 
-84.71 -80.35 1.52 
-84.12 -80.07 1.42 
-83.66 -80.01 1.41 
-85.63 -80.07 1.79 
-85.90 -104.23 1.00 
-85.97 -104.01 1.01 
-86.01 -103.66 1.01 
-84.32 -103.14 0.99 
-83.97 -103.10 0.99 
-83.65 -103.07 0.98 
-86.01 -103.36 1.01 
-85.60 -103.29 1.01 
-85.20 -103.22 1.00 
-84.81 -103.15 1.00 
-96.47 -104.63 1.29 
-96.78 -104.67 1.30 
-88.48 -81.94 1.89 
-88.52 -81.80 2.00 
-87.94 -81.57 1.93 
-87.70 -81.50 2.14 
-86.44 -80.98 2.10 
-85.10 -80.54 2.03 
-85.38 -80.33 2.05 
-85.24 -80.46 2.04 
-85.42 -80.13 2.07 
-85.86 -104.32 1.39 
-85.93 -104.11 1.39 
-85.98 -103.72 1.39 
-84.28 -103.37 1.38 
-83.99 -103.31 1.37 
-83.61 -103.25 1.37 
-85.93 -103.40 1.38 
-85.60 -103.35 1.38 
-85.21 -103.28 1.38 
-84.81 -103.21 1.37 
-86.62 -81.02 2.31 
-85.21 -80.58 2.29 
-84.72 -80.43 2.32 
-85.33 -80.33 2.31 
-85.03 -80.26 2.59 
-85.83 -104.40 1.79 
-85.91 -104.04 1.77 
-85.98 -103.69 1.76 
-85.60 -103.41 1.76 
-85.15 -103.33 1.76 
-84.84 -103.27 1.76 
-84.38 -103.20 1.76 
-83.97 -103.12 1.76 
-83.60 -103.05 1.76 
-85.85 -103.44 1.76 
-85.30 -103.33 1.75 
-85.79 -104.48 2.18 
-85.87 -104.12 2.16 
-85.88 -103.65 2.14 
-85.53 -103.47 2.13 
-85.10 -103.39 2.14 
-84.75 -103.33 2.14 
-84.35 -103.26 2.14 
-83.93 -103.19 2.15 
-83.55 -103.12 2.16 
-85.83 -104.34 2.57 
-85.90 -103.73 2.52 
-85.55 -103.56 2.52 
-85.14 -103.48 2.52 
-84.73 -103.42 2.53 
-84.28 -103.28 2.53 
-83.84 -103.33 2.55 
-83.58 -103.31 2.56 
-85.76 -104.54 2.99 
-85.84 -104.05 2.94 
-84.12 -103.69 2.97 
-83.87 -103.62 2.97 
-85.74 -103.70 2.91 
-85.38 -103.65 2.91 
-85.03 -103.58 2.92 
-84.68 -103.50 2.93 
-84.14 -103.78 3.37 
-83.64 -103.69 3.39 
-85.81 -103.82 3.30 
-85.53 -103.77 3.30 
-85.11 -103.68 3.31 
-84.75 -103.63 3.32 
-84.40 -103.56 3.34 
-83.88 -94.42 0.69 
-83.75 -94.36 0.69 
-101.06 -96.58 1.01 
-102.03 -96.45 1.05 
-101.52 -96.40 1.03 
-101.21 -96.53 1.02 
-85.40 -93.42 0.71 
-85.04 -93.15 0.80 
-103.05 -96.17 1.05 
-103.00 -96.24 1.04 
-101.94 -96.14 1.07 
-84.75 -92.98 0.79 
-105.61 -96.44 1.04 
-103.49 -95.83 1.11 
-106.34 -95.96 1.15 
-106.10 -96.10 1.14 
-103.99 -95.50 1.13 
-103.74 -95.63 1.12 
-103.75 -95.21 1.14 
-87.29 -81.56 1.24 
-86.91 -81.46 1.33 
-86.54 -81.31 1.32 
-85.64 -80.76 1.30 
-85.38 -80.63 1.30 
-84.00 -80.35 1.26 
-85.28 -80.57 1.30 
-85.03 -80.46 1.29 
-84.68 -80.32 1.29 
-84.27 -80.14 1.28 
-83.95 -80.13 1.27 
-86.02 -104.17 0.64 
-86.04 -103.82 0.65 
-85.97 -103.31 0.67 
-85.65 -103.24 0.66 
-85.54 -102.07 0.70 
-85.03 -101.97 0.69 
-105.46 -97.89 1.28 
-100.36 -96.89 1.23 
-85.13 -94.04 0.94 
-84.82 -94.09 0.94 
-100.57 -96.77 1.24 
-85.13 -93.96 0.95 
-84.30 -93.64 0.94 
-100.91 -96.51 1.26 
-86.45 -81.26 1.52 
-87.63 -81.38 1.64 
-86.57 -81.04 1.64 
-86.20 -81.11 1.50 
-84.68 -80.52 1.47 
-85.38 -80.50 1.77 
-84.99 -80.42 1.66 
-84.42 -80.36 1.46 
-84.06 -80.20 1.46 
-85.94 -104.49 1.02 
-86.01 -104.21 1.02 
-85.96 -103.33 1.03 
-85.56 -103.26 1.02 
-85.25 -103.21 1.02 
-84.80 -103.13 1.01 
-84.38 -103.13 1.01 
-84.03 -103.06 1.00 
-83.64 -102.99 1.00 
-96.12 -104.65 1.12 
-96.49 -104.63 1.30 
-87.63 -81.39 2.02 
-87.26 -81.24 1.93 
-86.94 -81.15 2.15 
-86.56 -81.03 2.06 
-85.38 -80.49 2.01 
-85.02 -80.47 2.01 
-85.60 -80.07 2.05 
-85.91 -104.56 1.40 
-85.98 -104.13 1.40 
-84.28 -103.33 1.38 
-83.95 -103.28 1.38 
-83.58 -103.20 1.38 
-85.85 -103.37 1.39 
-85.55 -103.31 1.38 
-85.19 -103.25 1.38 
-84.81 -103.18 1.38 
-86.27 -81.01 2.27 
-85.40 -80.42 2.25 
-85.08 -80.38 2.39 
-85.55 -80.14 2.28 
-85.22 -80.20 2.53 
-85.92 -104.45 1.79 
-85.96 -104.03 1.78 
-86.07 -103.68 1.76 
-85.89 -103.43 1.76 
-85.57 -103.38 1.75 
-85.20 -103.31 1.75 
-84.79 -103.23 1.75 
-84.42 -103.16 1.75 
-84.02 -103.09 1.75 
-83.63 -103.01 1.75 
-85.16 -80.27 2.77 
-85.91 -104.50 2.18 
-85.94 -104.10 2.16 
-86.03 -103.77 2.14 
-85.87 -103.50 2.12 
-85.57 -103.45 2.12 
-85.17 -103.37 2.12 
-84.79 -103.30 2.12 
-84.40 -103.24 2.13 
-84.02 -103.17 2.13 
-83.59 -103.09 2.14 
-85.14 -80.17 3.28 
-85.86 -104.64 2.58 
-85.89 -103.68 2.60 
-85.49 -103.51 2.50 
-85.13 -103.45 2.50 
-84.75 -103.38 2.50 
-85.86 -104.33 2.94 
-84.25 -103.68 2.93 
-83.64 -103.60 2.94 
-85.76 -103.77 3.27 
-85.55 -103.68 3.08 
-85.16 -103.57 2.89 
-84.82 -103.50 2.89 
-84.31 -103.54 2.91 
-83.91 -103.58 2.93 
-85.91 -104.13 3.31 
-84.10 -103.78 3.33 
-83.93 -103.71 3.33 
-85.36 -103.69 3.27 
-85.14 -103.66 3.28 
-84.72 -103.60 3.29 
-83.97 -94.43 0.75 
-101.56 -97.27 1.02 
-101.50 -97.33 1.02 
-101.51 -96.48 1.02 
-101.26 -96.57 1.01 
-103.41 -96.35 1.09 
-103.06 -96.27 1.03 
-102.14 -96.33 1.08 
-100.88 -95.94 1.07 
-84.63 -93.09 0.84 
-103.47 -95.90 1.12 
-101.55 -95.82 1.09 
-106.36 -95.92 1.16 
-104.51 -95.21 1.17 
-104.15 -95.16 1.16 
-103.79 -95.26 1.15 
-86.32 -81.14 1.28 
-85.96 -81.02 1.37 
-85.63 -80.86 1.36 
-85.37 -80.72 1.36 
-84.04 -80.77 1.23 
-85.26 -80.65 1.36 
-84.78 -80.44 1.31 
-84.54 -80.30 1.35 
-84.21 -80.12 1.34 
-84.06 -80.04 1.34 
-83.74 -79.89 1.33 
-86.07 -104.62 0.67 
-86.05 -103.35 0.71 
-85.68 -103.25 0.71 
-84.29 -103.23 0.68 
-85.71 -102.13 0.74 
-85.45 -102.07 0.74 
-85.13 -102.13 0.73 
-84.63 -101.86 0.73 
-84.80 -95.46 0.93 
-85.00 -94.69 0.96 
-84.78 -94.07 0.98 
-83.92 -93.64 0.98 
-86.63 -80.96 1.68 
-86.60 -81.03 1.77 
-86.66 -80.91 1.68 
-86.37 -80.84 1.58 
-85.56 -80.40 1.70 
-85.37 -80.49 1.69 
-84.85 -80.41 1.69 
-83.91 -80.09 1.52 
-85.58 -80.17 1.71 
-86.03 -104.36 1.06 
-89.43 -104.33 1.00 
-88.99 -104.23 0.99 
-88.77 -104.16 0.99 
-86.02 -103.34 1.07 
-85.60 -103.26 1.06 
-85.21 -103.19 1.06 
-84.89 -103.14 1.05 
-84.42 -103.22 1.04 
-84.03 -103.11 1.04 
-83.57 -102.98 1.04 
-95.90 -104.65 1.15 
-96.76 -104.68 1.37 
-96.49 -104.63 1.36 
-86.63 -80.98 2.07 
-86.57 -81.06 2.06 
-86.66 -80.94 2.07 
-86.26 -80.83 2.18 
-86.06 -80.72 2.20 
-85.22 -80.51 2.12 
-84.91 -80.43 2.13 
-84.64 -80.36 2.07 
-85.54 -80.23 2.26 
-85.48 -80.33 2.25 
-101.63 -82.51 2.46 
-86.08 -103.75 1.43 
-84.32 -103.33 1.41 
-83.96 -103.27 1.41 
-83.57 -103.20 1.40 
-85.94 -103.37 1.42 
-85.60 -103.31 1.42 
-85.19 -103.24 1.41 
-84.87 -103.20 1.41 
-85.21 -80.26 2.49 
-101.69 -82.53 2.80 
-85.96 -103.44 1.78 
-85.56 -103.37 1.78 
-85.28 -103.32 1.78 
-84.80 -103.23 1.77 
-84.41 -103.15 1.77 
-84.00 -103.08 1.77 
-83.59 -103.00 1.77 
-95.76 -104.67 1.95 
-85.14 -80.29 2.71 
-101.80 -82.55 3.25 
-86.01 -104.05 2.18 
-85.89 -103.53 2.33 
-85.48 -103.47 2.33 
-85.13 -103.40 2.33 
-84.82 -103.35 2.33 
-84.37 -103.22 2.14 
-84.01 -103.15 2.14 
-83.56 -103.07 2.14 
-85.97 -104.20 2.57 
-86.02 -103.70 2.89 
-85.53 -103.63 2.89 
-85.09 -103.54 2.89 
-84.72 -103.47 2.89 
-85.95 -104.29 2.96 
-85.78 -103.77 3.27 
-85.44 -103.70 3.27 
-85.18 -103.64 3.27 
-84.69 -103.56 3.28 
-84.24 -103.64 2.92 
-83.91 -103.54 2.92 
-83.50 -103.38 2.92 
-85.87 -104.58 3.38 
-83.62 -103.67 3.33 
-84.26 -103.76 3.32 
-83.87 -103.69 3.32 
-83.80 -101.69 0.43 
-84.06 -94.48 0.84 
-83.96 -94.44 0.83 
-101.52 -97.26 1.07 
-102.98 -96.58 1.04 
-98.45 -95.94 1.07 
-98.38 -95.95 1.07 
-102.98 -96.46 1.05 
-102.10 -96.29 1.13 
-100.92 -95.92 1.13 
-106.04 -96.37 1.19 
-106.46 -95.91 1.22 
-104.40 -95.69 1.20 
-101.98 -85.24 1.67 
-101.94 -85.00 1.68 
-101.88 -84.69 1.69 
-101.78 -84.26 1.71 
-101.71 -83.90 1.72 
-101.61 -83.42 1.73 
-85.29 -80.70 1.47 
-85.06 -80.56 1.47 
-84.68 -80.37 1.46 
-84.42 -80.26 1.46 
-101.54 -83.14 1.74 
-101.47 -82.89 1.75 
-84.21 -80.13 1.45 
-83.99 -80.00 1.45 
-83.52 -79.85 1.44 
-101.35 -82.65 1.76 
-101.21 -82.52 1.76 
-101.27 -82.28 1.77 
-101.25 -82.26 1.77 
-86.15 -104.63 0.72 
-85.95 -103.27 0.76 
-85.58 -103.20 0.76 
-85.16 -103.13 0.75 
-84.74 -103.06 0.74 
-84.47 -103.23 0.73 
-83.99 -103.16 0.72 
-96.48 -104.54 1.01 
-84.54 -101.88 0.78 
-84.87 -95.32 1.00 
-101.78 -84.25 1.93 
-101.73 -84.13 1.94 
-101.70 -83.86 1.95 
-101.62 -83.42 1.97 
-85.38 -80.48 1.78 
-85.14 -80.52 1.77 
-84.81 -80.37 1.78 
-84.02 -80.14 1.64 
-101.56 -83.14 1.98 
-101.44 -82.86 2.10 
-85.52 -80.23 1.80 
-101.39 -82.61 2.11 
-101.28 -82.31 2.12 
-87.71 -103.79 1.02 
-86.15 -103.34 1.12 
-85.94 -103.30 1.12 
-85.54 -103.23 1.11 
-85.12 -103.15 1.10 
-84.72 -103.12 1.09 
-84.31 -103.12 1.09 
-84.01 -103.08 1.08 
-83.54 -102.96 1.08 
-95.77 -104.69 1.20 
-96.65 -104.62 1.44 
-85.39 -80.48 2.17 
-85.12 -80.50 2.18 
-84.86 -80.40 2.24 
-85.51 -80.23 2.20 
-101.64 -82.53 2.49 
-86.13 -103.39 1.47 
-85.96 -103.36 1.47 
-85.56 -103.29 1.46 
-85.11 -103.21 1.45 
-84.77 -103.15 1.45 
-84.31 -103.31 1.45 
-83.93 -103.24 1.44 
-95.88 -104.66 1.62 
-85.33 -80.60 2.46 
-85.47 -80.24 2.51 
-85.15 -80.27 2.72 
-101.68 -82.53 2.90 
-86.13 -103.45 1.83 
-85.85 -103.43 2.01 
-85.53 -103.37 2.00 
-85.14 -103.30 1.99 
-84.70 -103.19 1.81 
-84.39 -103.12 1.81 
-83.88 -103.04 1.80 
-83.53 -102.97 1.80 
-85.77 -103.55 2.55 
-85.12 -103.37 2.30 
-84.67 -103.31 2.35 
-84.31 -103.23 2.35 
-83.93 -103.17 2.35 
-101.88 -82.55 3.76 
-84.24 -103.64 2.94 
-85.92 -103.66 2.93 
-85.33 -103.58 2.92 
-84.90 -103.49 2.91 
-84.79 -103.49 2.92 
-86.06 -103.78 3.31 
-85.69 -103.73 3.30 
-85.47 -103.68 3.30 
-85.10 -103.61 3.29 
-84.62 -103.54 3.29 
-84.28 -103.70 3.07 
-83.83 -103.56 3.01 
-83.67 -101.67 0.47 
-101.53 -97.21 1.06 
-100.79 -96.19 1.06 
-98.74 -96.04 1.04 
-97.77 -95.73 1.08 
-101.96 -96.24 1.11 
-98.79 -95.49 1.10 
-105.99 -96.28 1.17 
-103.44 -95.95 1.15 
-106.23 -95.93 1.19 
-106.46 -95.82 1.19 
-102.30 -85.16 1.61 
-102.25 -84.93 1.62 
-102.21 -84.72 1.63 
-102.13 -84.36 1.64 
-83.50 -80.94 1.24 
-102.06 -84.00 1.66 
-102.01 -83.78 1.66 
-101.94 -83.50 1.67 
-84.28 -80.23 1.48 
-101.86 -83.09 1.69 
-100.45 -82.79 1.71 
-84.13 -80.14 1.48 
-83.77 -79.93 1.47 
-101.82 -82.85 1.70 
-101.65 -82.66 1.70 
-101.61 -82.41 1.71 
-86.12 -103.28 0.80 
-85.84 -103.24 0.79 
-85.39 -103.16 0.78 
-85.09 -103.11 0.78 
-84.66 -103.10 0.77 
-84.20 -103.17 0.76 
-83.86 -103.10 0.75 
-102.15 -84.18 1.92 
-102.04 -83.96 1.92 
-102.01 -83.82 1.93 
-101.97 -83.57 1.94 
-101.86 -83.07 1.96 
-100.45 -82.76 1.95 
-101.88 -82.72 2.11 
-101.68 -82.71 1.97 
-101.92 -82.50 2.26 
-101.63 -82.37 1.98 
-89.68 -104.24 1.08 
-89.33 -104.15 1.07 
-88.93 -104.05 1.07 
-87.98 -103.87 1.05 
-86.10 -103.31 1.15 
-85.83 -103.27 1.14 
-85.38 -103.19 1.14 
-85.07 -103.13 1.13 
-84.60 -103.17 1.12 
-84.19 -103.20 1.11 
-83.85 -103.14 1.11 
-97.00 -104.67 1.49 
-96.56 -104.60 1.48 
-102.00 -82.60 2.53 
-86.06 -103.36 1.50 
-85.79 -103.32 1.50 
-85.41 -103.25 1.49 
-85.05 -103.19 1.48 
-84.66 -103.20 1.48 
-84.16 -103.28 1.47 
-83.75 -103.21 1.47 
-96.57 -104.66 1.92 
-102.04 -82.60 2.95 
-102.02 -82.51 2.95 
-86.10 -103.42 1.86 
-85.68 -103.40 2.03 
-85.40 -103.34 2.03 
-84.92 -103.26 2.02 
-84.70 -103.22 2.01 
-84.25 -103.10 1.83 
-83.81 -103.07 2.00 
-85.71 -103.51 2.58 
-84.97 -103.38 2.56 
-84.14 -103.25 2.55 
-102.18 -82.60 3.67 
-85.99 -104.65 2.70 
-84.37 -103.67 2.96 
-84.12 -103.59 2.95 
-83.73 -103.52 2.95 
-86.02 -103.68 2.97 
-85.85 -103.65 2.96 
-85.22 -103.53 2.94 
-85.05 -103.51 2.94 
-84.63 -103.45 2.93 
-85.91 -103.76 3.34 
-85.69 -103.73 3.34 
-85.36 -103.66 3.33 
-84.94 -103.60 3.32 
-84.49 -103.61 3.32 
-84.27 -103.69 3.33 
-83.83 -103.65 3.33 
-85.47 -103.67 3.33 
-100.51 -96.23 0.97 
-97.83 -95.72 1.06 
-102.06 -96.26 1.08 
-100.90 -95.90 1.09 
-98.84 -95.50 1.08 
-106.03 -96.28 1.13 
-106.11 -96.00 1.14 
-101.96 -85.18 1.56 
-101.90 -84.84 1.58 
-101.85 -84.63 1.58 
-101.79 -84.33 1.60 
-101.70 -83.92 1.61 
-101.61 -83.52 1.63 
-99.01 -83.03 1.67 
-101.51 -83.05 1.64 
-100.11 -82.79 1.67 
-101.48 -82.84 1.65 
-101.32 -82.67 1.66 
-101.29 -82.42 1.67 
-84.62 -103.16 0.78 
-84.27 -103.17 0.77 
-83.94 -103.12 0.76 
-86.11 -103.28 0.80 
-85.84 -103.23 0.80 
-85.44 -103.17 0.79 
-85.08 -103.11 0.79 
-84.79 -103.05 0.78 
-86.38 -102.33 1.07 
-86.07 -102.20 1.07 
-85.49 -102.07 0.88 
-101.67 -83.85 1.90 
-101.66 -83.64 1.91 
-101.61 -83.49 1.91 
-99.01 -82.99 1.90 
-101.52 -83.07 1.93 
-100.45 -82.73 1.93 
-100.11 -82.78 1.92 
-101.54 -82.72 2.09 
-101.32 -82.65 1.94 
-100.56 -82.71 1.93 
-101.60 -82.47 2.25 
-86.48 -104.49 1.00 
-89.00 -104.28 1.06 
-88.87 -104.11 1.07 
-87.81 -103.86 1.05 
-86.28 -103.60 1.03 
-84.56 -103.20 1.13 
-84.27 -103.16 1.12 
-83.88 -103.05 1.12 
-83.53 -102.93 1.11 
-86.10 -103.32 1.16 
-85.84 -103.26 1.15 
-85.40 -103.17 1.28 
-85.11 -103.11 1.28 
-84.78 -103.09 1.13 
-96.98 -104.68 1.50 
-96.56 -104.63 1.49 
-101.66 -82.59 2.54 
-101.61 -82.52 2.54 
-86.10 -103.37 1.52 
-85.81 -103.32 1.51 
-85.47 -103.26 1.50 
-85.05 -103.19 1.49 
-84.61 -103.25 1.48 
-84.17 -103.27 1.48 
-83.83 -103.22 1.47 
-85.40 -103.18 1.81 
-84.98 -103.16 1.49 
-84.77 -103.13 1.49 
-101.68 -82.59 2.83 
-101.64 -82.52 2.83 
-86.11 -103.43 1.88 
-85.77 -103.37 1.87 
-85.40 -103.30 1.86 
-84.93 -103.26 2.03 
-84.70 -103.22 2.02 
-84.19 -103.08 1.83 
-83.88 -103.03 1.83 
-101.72 -82.53 3.24 
-86.09 -103.50 2.24 
-85.82 -103.45 2.23 
-85.07 -103.39 2.57 
-84.49 -103.31 2.56 
-84.33 -103.27 2.56 
-83.70 -103.15 2.54 
-84.45 -103.66 2.96 
-84.12 -103.57 2.95 
-83.75 -103.51 2.94 
-85.71 -103.61 2.97 
-85.38 -103.56 2.96 
-84.63 -103.44 2.94 
-83.95 -103.62 3.33 
-83.80 -103.54 3.32 
-86.08 -103.79 3.37 
-85.92 -103.77 3.37 
-85.28 -103.64 3.34 
-84.94 -103.58 3.33 
-84.73 -103.54 3.32 
-102.00 -82.61 4.39 
-97.79 -96.07 1.07 
-97.33 -96.12 1.00 
-97.43 -95.96 1.01 
-102.10 -96.28 1.10 
-106.03 -96.28 1.14 
-98.74 -95.39 1.11 
-106.12 -95.97 1.16 
-101.99 -85.23 1.56 
-101.90 -84.78 1.58 
-101.86 -84.59 1.59 
-101.82 -84.38 1.60 
-101.74 -83.97 1.62 
-101.66 -83.62 1.63 
-101.62 -83.44 1.64 
-99.03 -83.04 1.68 
-97.90 -83.02 1.70 
-101.54 -83.07 1.65 
-99.00 -82.85 1.69 
-101.41 -82.80 1.66 
-101.31 -82.61 1.67 
-86.18 -103.29 0.86 
-85.86 -103.23 0.85 
-85.77 -102.50 0.73 
-86.29 -102.26 0.94 
-86.01 -102.24 0.87 
-85.65 -102.08 0.75 
-85.23 -102.02 0.74 
-85.01 -102.09 1.10 
-85.21 -101.94 1.11 
-84.87 -101.90 0.74 
-84.50 -101.80 0.92 
-101.70 -83.86 1.93 
-101.64 -83.68 1.94 
-101.63 -83.49 1.95 
-99.03 -83.01 1.94 
-97.91 -83.02 1.93 
-101.55 -83.09 1.96 
-99.84 -82.89 1.95 
-99.03 -82.85 1.95 
-101.53 -82.70 2.14 
-101.35 -82.57 1.98 
-101.62 -82.53 2.31 
-86.35 -103.67 1.08 
-84.55 -103.27 1.18 
-84.28 -103.22 1.18 
-83.81 -103.14 1.17 
-83.55 -103.08 1.17 
-86.18 -103.30 1.22 
-85.86 -103.25 1.21 
-85.42 -103.18 1.20 
-85.04 -103.11 1.19 
-84.78 -103.08 1.19 
-84.27 -102.95 1.45 
-83.99 -102.92 1.45 
-96.88 -104.64 1.56 
-96.53 -104.62 1.55 
-101.67 -82.63 2.62 
-101.65 -82.54 2.63 
-84.57 -103.33 1.54 
-84.24 -103.27 1.54 
-83.80 -103.20 1.53 
-83.55 -103.15 1.52 
-86.13 -103.36 1.58 
-85.86 -103.32 1.57 
-85.42 -103.24 1.56 
-85.05 -103.18 1.55 
-84.80 -103.14 1.54 
-96.60 -104.69 2.03 
-101.68 -82.54 2.95 
-86.14 -103.43 1.95 
-85.79 -103.37 1.93 
-85.40 -103.30 1.92 
-85.02 -103.23 1.91 
-84.72 -103.19 1.90 
-84.29 -103.10 1.89 
-83.89 -103.03 1.88 
-86.13 -103.42 1.95 
-85.91 -103.37 1.94 
-85.46 -103.30 1.92 
-84.65 -103.15 1.90 
-84.19 -103.07 1.89 
-83.82 -103.00 1.88 
-101.74 -82.54 3.28 
-86.13 -103.50 2.31 
-85.80 -103.44 2.30 
-85.42 -103.37 2.29 
-84.98 -103.29 2.27 
-101.78 -82.53 3.61 
-84.49 -103.63 3.02 
-84.16 -103.55 3.01 
-84.81 -103.46 3.01 
-84.66 -103.48 3.01 
-84.16 -103.51 3.01 
-83.79 -103.38 2.99 
-101.98 -82.67 4.29 
-84.11 -103.71 3.40 
-83.72 -103.64 3.39 
-86.09 -103.79 3.46 
-85.75 -103.73 3.44 
-85.36 -103.65 3.42 
-85.03 -103.60 3.40 
-97.92 -96.35 1.06 
-97.77 -96.11 1.07 
-97.86 -95.50 1.10 
-103.41 -96.06 1.12 
-101.73 -95.78 1.12 
-98.69 -95.17 1.13 
-103.53 -95.62 1.14 
-103.64 -95.35 1.16 
-96.80 -83.19 1.71 
-99.04 -83.08 1.68 
-97.89 -83.00 1.70 
-99.02 -82.88 1.69 
-83.73 -103.04 0.85 
-83.62 -103.03 0.85 
-84.70 -102.39 0.74 
-86.37 -102.33 0.97 
-86.12 -102.23 0.90 
-85.64 -102.21 0.77 
-85.09 -102.13 0.77 
-85.94 -102.14 0.97 
-85.23 -101.97 0.96 
-84.94 -101.94 0.96 
-84.60 -101.84 0.77 
-83.78 -101.66 0.95 
-101.69 -83.83 1.95 
-96.80 -83.09 1.95 
-96.18 -83.09 1.94 
-101.66 -83.64 1.96 
-101.64 -83.43 1.97 
-99.03 -82.97 1.97 
-97.92 -83.03 1.96 
-101.56 -83.17 1.98 
-99.02 -82.90 1.97 
-101.57 -82.71 2.17 
-101.36 -82.59 2.00 
-101.64 -82.56 2.35 
-86.48 -104.13 1.09 
-84.60 -103.24 1.22 
-84.27 -103.20 1.22 
-83.80 -103.08 1.34 
-83.57 -103.08 1.20 
-86.20 -103.30 1.26 
-85.86 -103.23 1.25 
-85.47 -103.17 1.24 
-85.01 -103.10 1.36 
-84.81 -103.06 1.23 
-96.99 -104.63 1.60 
-96.62 -104.62 1.59 
-101.70 -82.64 2.70 
-101.66 -82.56 2.70 
-84.60 -103.29 1.59 
-84.22 -103.26 1.58 
-83.81 -103.18 1.57 
-86.13 -103.35 1.62 
-85.85 -103.30 1.62 
-85.47 -103.23 1.61 
-84.98 -103.14 1.74 
-84.73 -103.08 1.73 
-101.74 -82.64 3.04 
-101.70 -82.55 3.05 
-86.21 -103.42 2.00 
-85.85 -103.36 1.99 
-85.45 -103.29 1.97 
-85.07 -103.22 1.96 
-84.63 -103.15 1.95 
-84.27 -103.08 1.94 
-83.89 -103.00 1.93 
-96.58 -104.68 2.08 
-101.77 -82.64 3.40 
-101.73 -82.56 3.40 
-86.05 -103.47 2.37 
-85.76 -103.42 2.36 
-85.42 -103.36 2.34 
-86.16 -103.47 2.37 
-85.93 -103.44 2.36 
-85.42 -103.35 2.34 
-85.09 -103.29 2.33 
-84.81 -103.24 2.32 
-84.92 -103.35 2.69 
-84.16 -103.50 3.06 
-83.77 -103.39 3.04 
-101.90 -82.65 4.12 
-84.39 -103.71 3.47 
-84.05 -103.67 3.45 
-83.77 -103.63 3.44 
-86.12 -103.66 3.14 
-85.95 -103.64 3.13 
-85.32 -103.62 3.48 
-84.99 -103.57 3.47 
-84.60 -103.61 3.21 
-84.29 -103.58 3.07 
-84.56 -103.77 3.48 
-84.16 -103.73 3.46 
-86.21 -103.80 3.55 
-85.73 -103.71 3.51 
-85.49 -103.66 3.50 
-102.11 -82.70 4.88 
-88.20 -104.04 0.73 
-87.82 -104.03 0.73 
-97.98 -96.29 1.05 
-103.38 -96.27 1.09 
-100.95 -95.85 1.09 
-97.85 -95.58 1.09 
-103.43 -95.95 1.11 
-101.61 -95.71 1.11 
-101.56 -95.81 1.10 
-101.02 -95.75 1.10 
-98.56 -95.18 1.11 
-97.96 -95.31 1.10 
-93.20 -94.40 1.10 
-96.81 -83.16 1.67 
-95.70 -83.08 1.69 
-99.05 -83.10 1.63 
-99.03 -82.92 1.64 
-84.54 -103.19 0.89 
-84.27 -103.15 0.88 
-83.88 -103.08 0.88 
-83.61 -103.05 0.87 
-85.08 -103.06 0.90 
-84.74 -103.05 0.81 
-86.37 -102.36 0.98 
-86.03 -102.23 0.80 
-85.72 -102.18 0.80 
-85.24 -102.14 0.79 
-85.63 -102.08 0.80 
-85.24 -102.01 0.98 
-84.88 -101.92 0.80 
-84.56 -101.84 0.98 
-83.70 -101.69 0.97 
-101.74 -83.89 1.92 
-96.81 -83.06 1.93 
-95.70 -83.06 1.92 
-95.33 -83.07 1.92 
-95.20 -83.06 1.92 
-101.69 -83.75 1.93 
-101.65 -83.53 1.94 
-99.07 -83.06 1.94 
-97.93 -83.03 1.94 
-101.58 -83.21 1.95 
-99.01 -82.94 1.95 
-101.45 -82.85 1.97 
-101.38 -82.64 1.98 
-101.64 -82.56 2.35 
-84.60 -103.24 1.25 
-84.26 -103.19 1.25 
-83.87 -103.13 1.24 
-83.52 -103.04 1.36 
-86.17 -103.28 1.29 
-85.90 -103.24 1.29 
-85.45 -103.18 1.40 
-85.19 -103.14 1.39 
-84.65 -103.04 1.38 
-84.34 -102.99 1.51 
-83.99 -103.00 1.50 
-96.96 -104.64 1.64 
-96.61 -104.60 1.63 
-101.68 -82.57 2.72 
-84.61 -103.30 1.62 
-84.26 -103.26 1.62 
-83.87 -103.19 1.61 
-83.57 -103.10 1.74 
-86.14 -103.34 1.67 
-85.88 -103.30 1.66 
-85.43 -103.22 1.78 
-85.07 -103.15 1.77 
-84.80 -103.10 1.76 
-83.84 -103.08 1.89 
-101.72 -82.57 3.10 
-86.16 -103.40 2.05 
-85.84 -103.36 2.04 
-85.54 -103.30 2.03 
-85.09 -103.22 2.01 
-84.65 -103.14 1.99 
-84.28 -103.08 1.98 
-83.90 -103.02 1.97 
-83.49 -102.94 1.96 
-96.55 -104.68 2.14 
-101.77 -82.57 3.48 
-86.11 -103.48 2.43 
-85.87 -103.43 2.42 
-84.98 -103.27 2.38 
-84.81 -103.22 2.37 
-101.83 -82.62 3.86 
-86.25 -103.59 2.83 
-85.64 -103.48 2.79 
-85.40 -103.44 2.78 
-84.51 -103.37 2.74 
-86.08 -103.66 3.22 
-85.01 -103.47 3.15 
-84.57 -103.59 3.15 
-84.17 -103.56 3.13 
-83.83 -103.50 3.11 
-84.53 -103.75 3.55 
-84.18 -103.69 3.52 
-83.78 -103.63 3.50 
-83.51 -103.56 3.49 
-86.18 -103.80 3.63 
-85.80 -103.71 3.60 
-85.38 -103.65 3.57 
-85.10 -103.61 3.55 
-101.97 -82.96 5.01 
-101.91 -82.56 5.03 
-101.81 -82.25 5.04 
-88.19 -104.11 0.74 
-87.80 -104.00 0.74 
-99.04 -96.37 1.04 
-98.68 -96.36 1.04 
-97.81 -96.06 1.05 
-97.92 -95.43 1.08 
-91.93 -94.34 1.09 
-103.42 -96.21 1.07 
-101.72 -95.72 1.09 
-100.97 -95.80 1.08 
-93.19 -94.49 1.07 
-92.46 -94.14 1.12 
-91.97 -94.27 1.10 
-93.29 -93.85 1.14 
-92.44 -93.91 1.13 
-103.85 -95.07 1.13 
-94.60 -83.12 1.68 
-96.83 -83.19 1.64 
-95.72 -83.05 1.66 
-94.61 -82.99 1.69 
-99.07 -83.12 1.60 
-96.82 -83.01 1.65 
-99.04 -82.92 1.61 
-86.26 -103.25 0.94 
-85.92 -103.19 0.94 
-85.57 -103.16 1.01 
-85.16 -103.09 0.99 
-84.81 -103.08 1.00 
-84.34 -103.14 0.91 
-83.98 -103.09 0.91 
-83.59 -102.90 0.91 
-86.41 -102.37 0.81 
-86.06 -102.30 0.81 
-85.51 -102.44 0.80 
-85.70 -102.11 0.82 
-85.34 -102.03 0.82 
-84.63 -101.92 0.81 
-83.73 -101.69 1.18 
-94.60 -83.14 1.91 
-96.84 -83.12 1.92 
-95.73 -83.07 1.92 
-94.60 -83.01 1.92 
-101.73 -83.80 1.92 
-101.66 -83.57 1.93 
-99.07 -83.02 1.94 
-97.97 -83.08 1.93 
-101.60 -83.23 1.94 
-101.56 -82.95 1.95 
-101.42 -82.76 1.96 
-101.68 -82.60 2.36 
-86.09 -104.67 1.11 
-84.54 -103.23 1.29 
-84.25 -103.19 1.28 
-83.96 -103.14 1.28 
-83.67 -103.09 1.27 
-86.25 -103.28 1.33 
-85.95 -103.23 1.32 
-85.61 -103.18 1.31 
-85.17 -103.14 1.42 
-84.83 -103.06 1.30 
-84.42 -103.20 1.28 
-83.95 -103.06 1.52 
-83.52 -102.83 1.27 
-96.90 -104.59 1.67 
-96.51 -104.67 1.65 
-101.69 -82.61 2.76 
-84.60 -103.31 1.67 
-84.31 -103.26 1.66 
-83.84 -103.18 1.78 
-83.72 -103.15 1.64 
-86.23 -103.35 1.72 
-86.00 -103.31 1.71 
-85.53 -103.23 1.69 
-85.09 -103.17 1.81 
-84.87 -103.15 1.80 
-84.09 -103.01 1.92 
-83.51 -102.93 1.63 
-97.07 -104.64 1.67 
-101.77 -82.64 3.16 
-86.18 -103.41 2.11 
-85.92 -103.36 2.10 
-85.45 -103.27 2.07 
-85.14 -103.22 2.06 
-84.74 -103.15 2.05 
-84.34 -103.09 2.03 
-83.92 -103.01 2.02 
-83.58 -102.95 2.00 
-101.81 -82.65 3.56 
-86.12 -103.47 2.50 
-85.99 -103.44 2.49 
-85.43 -103.34 2.46 
-85.24 -103.31 2.45 
-84.64 -103.52 2.82 
-84.28 -103.48 2.81 
-83.61 -103.20 2.76 
-85.82 -103.49 2.88 
-85.07 -103.37 2.83 
-101.87 -82.62 3.97 
-86.23 -103.68 3.31 
-85.52 -103.54 3.26 
-84.91 -103.46 3.22 
-84.70 -103.58 3.22 
-84.37 -103.58 3.21 
-83.87 -103.49 3.18 
-83.50 -103.27 3.14 
-84.49 -103.74 3.62 
-84.14 -103.70 3.60 
-83.79 -103.64 3.58 
-86.14 -103.79 3.72 
-85.81 -103.72 3.69 
-85.44 -103.67 3.67 
-85.06 -103.59 3.63 
-84.82 -103.56 3.62 
-83.54 -103.44 3.54 
-102.04 -82.67 4.82 
-88.24 -104.09 0.75 
-88.10 -104.05 0.75 
-87.52 -104.00 0.74 
-97.91 -95.45 1.08 
-91.94 -94.62 1.06 
-101.02 -95.85 1.08 
-98.71 -95.20 1.10 
-97.96 -95.32 1.09 
-92.82 -94.33 1.08 
-92.58 -94.33 1.08 
-91.96 -94.33 1.09 
-92.71 -93.77 1.15 
-93.16 -93.78 1.15 
-94.58 -83.24 1.67 
-94.57 -83.17 1.68 
-96.83 -83.23 1.63 
-95.70 -83.04 1.66 
-94.60 -83.08 1.68 
-94.60 -82.98 1.68 
-96.81 -83.04 1.64 
-101.62 -83.34 1.95 
-101.57 -83.03 1.96 
-101.41 -82.80 1.97 
-86.29 -103.24 0.96 
-86.01 -103.20 0.96 
-85.60 -103.13 0.96 
-85.28 -103.07 0.95 
-84.85 -103.03 0.94 
-84.44 -103.13 1.00 
-84.09 -103.10 0.93 
-83.75 -103.03 0.92 
-86.43 -102.43 0.82 
-86.13 -102.37 0.82 
-86.24 -102.32 0.83 
-85.90 -102.23 0.83 
-83.82 -101.74 1.19 
-93.52 -82.94 1.94 
-96.83 -83.19 1.94 
-95.20 -83.08 1.94 
-94.69 -83.05 1.94 
-93.48 -82.88 1.94 
-96.84 -83.04 1.95 
-99.08 -83.07 1.95 
-99.05 -82.97 1.96 
-86.31 -103.29 1.36 
-86.00 -103.23 1.35 
-85.67 -103.17 1.35 
-85.17 -103.15 1.28 
-84.88 -103.13 1.28 
-84.42 -103.14 1.43 
-84.01 -103.14 1.31 
-83.62 -103.01 1.42 
-101.67 -82.61 2.40 
-84.59 -103.32 1.70 
-84.32 -103.26 1.70 
-83.91 -103.21 1.81 
-86.26 -103.34 1.76 
-85.99 -103.30 1.75 
-85.65 -103.24 1.74 
-85.20 -103.17 1.72 
-84.80 -103.19 1.83 
-84.49 -103.19 1.82 
-84.05 -103.14 1.81 
-83.64 -103.08 1.67 
-97.05 -104.63 1.71 
-96.72 -104.55 1.69 
-101.71 -82.62 2.82 
-86.22 -103.42 2.16 
-85.97 -103.36 2.15 
-85.61 -103.30 2.13 
-85.17 -103.22 2.11 
-84.76 -103.14 2.10 
-84.40 -103.08 2.08 
-84.02 -103.01 2.06 
-83.64 -102.95 2.05 
-96.76 -104.62 2.25 
-101.75 -82.63 3.25 
-86.22 -103.46 2.57 
-85.82 -103.40 2.54 
-85.68 -103.38 2.54 
-85.16 -103.29 2.51 
-83.55 -103.01 2.43 
-101.84 -82.65 3.68 
-84.67 -103.54 2.89 
-84.36 -103.48 2.87 
-83.91 -103.36 2.84 
-83.73 -103.33 2.83 
-86.04 -103.53 2.97 
-85.57 -103.45 2.93 
-84.86 -103.33 2.89 
-101.89 -82.63 4.12 
-85.47 -103.55 3.34 
-84.69 -103.63 3.30 
-84.20 -103.58 3.27 
-84.00 -103.50 3.25 
-83.65 -103.43 3.23 
-86.28 -103.68 3.41 
-85.87 -103.61 3.37 
-85.27 -103.49 3.32 
-86.18 -103.76 3.82 
-85.91 -103.73 3.80 
-85.51 -103.67 3.76 
-85.04 -103.57 3.72 
-84.70 -103.64 3.71 
-84.29 -103.65 3.68 
-83.91 -103.63 3.66 
-101.73 -82.94 4.93 
-101.66 -82.66 4.94 
-88.02 -104.11 0.75 
-87.65 -104.00 0.75 
-88.68 -95.58 1.00 
-97.87 -95.58 1.07 
