# .PCD v0.7 - Point Cloud Data file format
VERSION 0.7
FIELDS x y z
SIZE 4 4 4
TYPE F F F
COUNT 1 1 1
WIDTH 2277
HEIGHT 1
VIEWPOINT 0 0 0 1 0 0 0
POINTS 2277
DATA ascii
-63.43 -402.20 4.91 
-63.67 -402.21 4.93 
-69.52 -402.22 4.80 
-69.90 -402.32 4.83 
-70.23 -402.32 4.86 
-70.65 -402.31 4.89 
-71.07 -402.30 4.92 
-71.37 -402.30 4.95 
-71.84 -402.29 4.99 
-72.31 -402.28 5.03 
-72.64 -402.27 5.05 
-72.98 -402.26 5.08 
-73.44 -402.25 5.12 
-73.75 -402.26 5.15 
-74.13 -402.25 5.18 
-74.70 -402.22 5.23 
-75.09 -402.21 5.26 
-75.45 -402.23 5.29 
-75.95 -402.20 5.33 
-76.24 -402.20 5.36 
-79.61 -402.21 5.10 
-79.80 -402.27 5.11 
-80.83 -402.20 5.18 
-81.24 -402.20 5.21 
-81.49 -402.25 5.22 
-81.70 -402.19 5.24 
-82.15 -402.19 5.27 
-82.62 -402.19 5.30 
-83.13 -402.18 5.33 
-69.15 -392.68 5.06 
-69.16 -393.04 5.05 
-69.17 -393.47 5.04 
-63.02 -399.76 5.07 
-66.22 -399.71 4.99 
-66.68 -399.71 5.03 
-67.07 -399.71 5.06 
-67.34 -399.87 5.07 
-67.89 -399.70 5.12 
-68.18 -399.69 5.15 
-68.62 -399.69 5.19 
-69.10 -399.69 5.23 
-69.39 -399.95 5.24 
-67.28 -400.15 5.05 
-69.39 -400.27 5.23 
-69.40 -400.61 5.21 
-62.60 -401.14 4.93 
-69.42 -401.02 5.20 
-62.72 -401.32 4.92 
-63.11 -401.37 4.95 
-69.43 -401.40 5.18 
-63.18 -401.80 4.92 
-69.45 -401.88 5.17 
-63.07 -402.13 5.15 
-63.26 -402.10 5.17 
-63.93 -402.20 4.95 
-64.29 -402.20 4.98 
-64.68 -402.19 5.02 
-65.09 -402.19 5.06 
-65.42 -402.19 5.09 
-65.83 -402.18 5.13 
-66.24 -402.20 5.17 
-66.63 -402.26 5.20 
-67.01 -402.24 5.24 
-67.39 -402.23 5.28 
-67.81 -402.23 5.33 
-68.19 -402.23 5.37 
-68.63 -402.21 5.42 
-69.02 -402.20 5.46 
-69.48 -402.16 5.34 
-69.78 -402.23 5.36 
-70.26 -402.25 5.23 
-70.61 -402.25 5.26 
-70.99 -402.25 5.30 
-71.35 -402.25 5.34 
-71.80 -402.24 5.38 
-72.17 -402.22 5.42 
-72.54 -402.23 5.46 
-73.02 -402.20 5.51 
-73.49 -402.19 5.56 
-73.86 -402.18 5.59 
-74.24 -402.18 5.63 
-74.69 -402.18 5.68 
-76.54 -402.19 5.38 
-77.02 -402.20 5.42 
-77.51 -402.18 5.47 
-77.94 -402.20 5.50 
-78.18 -402.17 5.52 
-78.56 -402.15 5.56 
-79.02 -402.21 5.60 
-79.69 -402.15 5.66 
-80.20 -402.16 5.70 
-80.52 -402.13 5.73 
-80.93 -402.13 5.77 
-81.40 -402.11 5.81 
-81.75 -402.13 5.84 
-82.31 -402.11 5.89 
-82.82 -402.09 5.93 
-83.08 -402.14 5.95 
-83.32 -402.08 5.98 
-63.03 -399.71 5.40 
-58.65 -400.29 5.36 
-59.04 -400.29 5.37 
-59.41 -400.28 5.39 
-59.84 -400.25 5.42 
-60.23 -400.25 5.44 
-60.63 -400.24 5.47 
-60.99 -400.32 5.48 
-61.42 -400.30 5.51 
-61.85 -400.40 5.53 
-62.27 -400.41 5.56 
-62.55 -400.42 5.59 
-62.72 -400.52 5.59 
-62.96 -400.65 5.59 
-63.49 -400.68 5.64 
-60.88 -401.04 5.38 
-63.03 -400.99 5.56 
-58.58 -402.06 5.36 
-58.95 -402.04 5.38 
-60.16 -402.03 5.45 
-61.17 -402.03 5.52 
-61.33 -402.03 5.54 
-61.82 -402.05 5.58 
-63.04 -401.96 5.44 
-63.46 -402.02 5.47 
-63.67 -401.97 5.50 
-61.97 -402.07 5.59 
-62.22 -402.08 5.61 
-62.76 -402.07 5.67 
-63.02 -402.06 5.61 
-69.88 -402.19 5.56 
-70.23 -402.18 5.60 
-70.67 -402.17 5.65 
-71.04 -402.17 5.69 
-71.42 -402.16 5.74 
-71.92 -402.14 5.80 
-72.21 -402.15 5.83 
-75.17 -402.14 5.73 
-75.42 -402.15 5.76 
-75.87 -402.14 5.81 
-76.24 -402.15 5.84 
-76.63 -402.11 5.89 
-77.03 -402.14 5.93 
-77.58 -402.11 5.99 
-77.91 -402.11 6.02 
-78.27 -402.10 6.06 
-78.64 -402.09 6.10 
-78.92 -402.11 6.13 
-79.38 -402.08 6.18 
-79.90 -402.10 6.24 
-80.18 -402.07 6.27 
-80.59 -402.07 6.32 
-63.75 -402.03 5.78 
-63.61 -402.05 5.76 
-63.88 -402.05 5.80 
-81.04 -402.05 6.36 
-81.24 -402.12 6.39 
-64.51 -398.78 3.43 
-64.87 -398.79 3.44 
-65.31 -398.78 3.46 
-65.66 -398.78 3.47 
-66.05 -398.77 3.48 
-66.48 -398.76 3.49 
-69.24 -398.72 3.57 
-69.28 -399.02 3.58 
-69.30 -399.34 3.59 
-61.55 -399.96 3.37 
-61.55 -400.32 3.38 
-59.73 -400.80 3.33 
-60.01 -400.78 3.34 
-60.47 -400.78 3.35 
-60.96 -400.74 3.37 
-61.12 -400.72 3.37 
-61.57 -400.73 3.39 
-59.41 -401.00 3.32 
-59.65 -400.99 3.33 
-60.21 -400.88 3.34 
-60.61 -400.89 3.36 
-69.34 -400.98 3.63 
-58.81 -401.43 3.31 
-69.34 -401.29 3.64 
-67.60 -401.78 3.60 
-58.56 -402.42 3.33 
-58.75 -402.41 3.33 
-59.33 -402.31 3.35 
-59.69 -402.30 3.37 
-60.05 -402.29 3.38 
-60.47 -402.26 3.39 
-60.82 -402.25 3.40 
-62.98 -402.38 3.48 
-68.51 -402.40 3.64 
-68.90 -402.41 3.66 
-69.33 -402.30 3.67 
-72.06 -402.42 3.74 
-72.52 -402.41 3.75 
-72.91 -402.40 3.76 
-73.30 -402.40 3.77 
-73.61 -402.40 3.78 
-74.04 -402.40 3.79 
-74.38 -402.38 3.80 
-74.82 -402.39 3.81 
-75.17 -402.40 3.82 
-76.26 -402.34 3.85 
-76.45 -402.38 3.86 
-76.90 -402.36 3.87 
-77.19 -402.41 3.88 
-77.61 -402.37 3.89 
-78.07 -402.36 3.90 
-78.53 -402.37 3.91 
-78.86 -402.36 3.92 
-79.57 -402.35 3.93 
-80.66 -402.34 3.96 
-80.98 -402.36 3.97 
-81.46 -402.32 3.98 
-82.00 -402.34 4.00 
-69.37 -402.47 3.67 
-69.66 -402.45 3.68 
-70.10 -402.45 3.69 
-70.50 -402.46 3.70 
-70.81 -402.46 3.71 
-71.24 -402.45 3.72 
-71.82 -402.45 3.74 
-72.16 -402.45 3.75 
-72.53 -402.45 3.76 
-72.92 -402.44 3.77 
-73.32 -402.43 3.78 
-73.75 -402.42 3.79 
-75.33 -402.42 3.83 
-76.61 -402.42 3.86 
-78.05 -402.42 3.90 
-79.03 -402.44 3.92 
-79.72 -402.42 3.94 
-64.29 -396.22 3.75 
-64.57 -398.75 3.77 
-64.95 -398.74 3.79 
-65.33 -398.74 3.80 
-66.02 -398.73 3.83 
-66.38 -398.72 3.84 
-66.82 -398.70 3.86 
-67.20 -398.68 3.88 
-67.69 -398.67 3.90 
-68.06 -398.66 3.91 
-68.39 -398.64 3.93 
-69.23 -399.03 3.96 
-69.26 -399.49 3.97 
-69.27 -399.84 3.97 
-70.37 -399.72 4.02 
-70.77 -399.79 4.04 
-69.29 -400.25 3.97 
-69.29 -400.53 3.98 
-58.51 -400.97 3.69 
-58.90 -400.98 3.57 
-59.22 -400.94 3.71 
-59.82 -400.94 3.60 
-69.30 -401.54 3.98 
-69.32 -401.78 3.99 
-58.83 -402.28 3.69 
-59.24 -402.27 3.70 
-59.57 -402.25 3.71 
-59.97 -402.25 3.61 
-62.92 -402.35 3.84 
-69.36 -402.28 3.99 
-69.66 -402.41 4.01 
-70.18 -402.39 4.03 
-70.48 -402.39 4.04 
-70.87 -402.39 4.06 
-71.20 -402.38 4.07 
-71.70 -402.38 4.10 
-72.06 -402.37 4.11 
-72.43 -402.36 4.13 
-72.81 -402.36 4.15 
-73.20 -402.35 4.16 
-73.63 -402.35 4.18 
-74.06 -402.35 4.20 
-74.51 -402.34 4.22 
-74.85 -402.32 4.24 
-75.19 -402.33 4.25 
-76.40 -402.33 4.31 
-76.90 -402.31 4.33 
-77.12 -402.33 4.34 
-77.64 -402.31 4.37 
-78.06 -402.31 4.39 
-78.47 -402.33 4.40 
-78.70 -402.31 4.41 
-79.42 -402.27 4.45 
-79.62 -402.31 4.46 
-80.52 -402.26 4.50 
-80.87 -402.27 4.52 
-81.25 -402.28 4.53 
-81.71 -402.25 4.55 
-82.13 -402.24 4.57 
-82.56 -402.24 4.59 
-82.91 -402.26 4.61 
-83.45 -402.25 4.63 
-68.40 -395.89 4.34 
-69.16 -397.74 4.36 
-69.17 -398.16 4.35 
-69.18 -398.57 4.35 
-69.19 -398.96 4.34 
-69.21 -399.43 4.34 
-62.94 -399.96 4.16 
-69.22 -399.87 4.33 
-69.24 -400.23 4.33 
-69.25 -400.61 4.33 
-58.51 -400.91 4.09 
-69.25 -401.03 4.32 
-69.28 -401.38 4.32 
-69.27 -401.85 4.32 
-58.81 -402.22 4.04 
-62.92 -402.29 4.21 
-69.32 -402.29 4.64 
-69.56 -402.39 4.33 
-70.05 -402.35 4.36 
-70.42 -402.35 4.38 
-70.81 -402.34 4.40 
-71.21 -402.34 4.43 
-71.73 -402.33 4.46 
-72.09 -402.32 4.48 
-72.46 -402.32 4.51 
-72.84 -402.31 4.53 
-73.24 -402.30 4.56 
-73.66 -402.29 4.58 
-74.10 -402.28 4.61 
-74.50 -402.29 4.64 
-74.78 -402.27 4.66 
-75.09 -402.28 4.68 
-76.18 -402.23 4.75 
-76.34 -402.28 4.76 
-76.83 -402.24 4.79 
-77.26 -402.24 4.82 
-77.62 -402.27 4.84 
-78.16 -402.22 4.88 
-78.48 -402.23 4.90 
-78.87 -402.27 4.93 
-79.33 -402.26 4.96 
-79.57 -402.24 4.97 
-80.55 -402.21 5.04 
-71.36 -402.42 4.44 
-68.38 -395.80 4.78 
-69.12 -397.07 4.78 
-69.14 -397.39 4.77 
-69.14 -397.72 4.76 
-69.15 -398.15 4.75 
-69.16 -398.56 4.74 
-69.18 -398.95 4.73 
-69.20 -399.41 4.71 
-62.92 -399.88 4.61 
-63.28 -399.74 4.64 
-63.48 -399.74 4.65 
-64.01 -399.74 4.69 
-64.46 -399.73 4.72 
-64.78 -399.73 4.74 
-65.18 -399.75 4.76 
-65.65 -399.71 4.80 
-66.04 -399.71 4.83 
-66.41 -399.70 4.85 
-66.81 -399.70 4.88 
-67.16 -399.71 4.91 
-69.22 -399.85 4.70 
-62.97 -400.05 4.61 
-69.24 -400.21 4.69 
-69.25 -400.59 4.68 
-69.25 -401.03 4.84 
-62.42 -401.40 4.75 
-63.00 -401.48 4.78 
-69.27 -401.39 4.83 
-69.27 -401.80 4.82 
-62.93 -402.22 4.59 
-63.24 -402.20 4.74 
-63.69 -402.20 4.77 
-64.01 -402.20 4.80 
-64.44 -402.19 4.83 
-64.79 -402.19 4.86 
-65.07 -402.19 4.88 
-69.30 -402.17 4.81 
-69.67 -402.29 4.83 
-70.02 -402.28 4.86 
-70.36 -402.28 4.89 
-70.83 -402.30 4.76 
-71.23 -402.30 4.79 
-71.60 -402.29 4.82 
-72.03 -402.28 4.85 
-72.45 -402.27 4.89 
-72.83 -402.26 4.92 
-73.22 -402.26 4.95 
-73.67 -402.25 4.99 
-74.03 -402.23 5.02 
-74.44 -402.24 5.05 
-74.84 -402.21 5.09 
-75.11 -402.23 5.11 
-75.57 -402.20 5.15 
-75.94 -402.20 5.18 
-76.35 -402.18 5.22 
-76.84 -402.20 5.26 
-77.19 -402.18 5.29 
-77.73 -402.19 5.33 
-80.97 -402.19 5.07 
-81.38 -402.20 5.10 
-81.68 -402.22 5.12 
-82.18 -402.19 5.15 
-82.77 -402.20 5.19 
-83.10 -402.17 5.21 
-67.62 -399.69 4.95 
-68.05 -399.68 4.98 
-68.44 -399.67 5.01 
-68.83 -399.68 5.05 
-69.18 -399.82 5.07 
-69.20 -400.18 5.05 
-69.23 -400.59 5.04 
-62.99 -401.14 4.81 
-69.24 -400.90 5.02 
-63.02 -402.08 4.99 
-65.31 -402.18 4.90 
-65.64 -402.18 4.93 
-66.03 -402.17 4.97 
-66.44 -402.18 5.01 
-66.77 -402.17 5.04 
-67.19 -402.16 5.08 
-67.61 -402.17 5.12 
-67.96 -402.19 5.16 
-68.37 -402.22 5.20 
-68.75 -402.21 5.24 
-69.17 -402.21 5.28 
-69.56 -402.20 5.33 
-70.00 -402.18 5.38 
-70.48 -402.20 5.25 
-70.80 -402.21 5.29 
-71.14 -402.20 5.32 
-71.64 -402.22 5.19 
-71.99 -402.23 5.23 
-72.36 -402.22 5.26 
-72.74 -402.21 5.30 
-73.14 -402.20 5.34 
-73.55 -402.19 5.38 
-73.93 -402.18 5.42 
-74.43 -402.15 5.48 
-74.78 -402.15 5.51 
-75.12 -402.15 5.55 
-75.69 -402.16 5.61 
-76.10 -402.14 5.65 
-76.29 -402.12 5.67 
-77.93 -402.17 5.35 
-78.34 -402.18 5.39 
-78.89 -402.16 5.44 
-79.22 -402.15 5.46 
-79.52 -402.16 5.49 
-79.95 -402.14 5.53 
-80.44 -402.15 5.57 
-80.70 -402.12 5.60 
-81.11 -402.11 5.63 
-81.52 -402.11 5.67 
-81.93 -402.09 5.70 
-82.37 -402.08 5.74 
-82.81 -402.08 5.78 
-83.17 -402.10 5.81 
-58.82 -399.69 5.04 
-59.14 -399.65 5.05 
-62.84 -399.72 5.23 
-59.58 -400.38 5.27 
-60.01 -400.28 5.30 
-60.44 -400.26 5.32 
-60.77 -400.29 5.33 
-61.20 -400.24 5.36 
-61.59 -400.24 5.39 
-61.99 -400.25 5.41 
-62.40 -400.34 5.43 
-62.70 -400.39 5.44 
-63.21 -400.38 5.48 
-58.86 -400.46 5.24 
-59.21 -400.44 5.25 
-62.78 -400.55 5.43 
-63.58 -400.75 5.46 
-60.69 -401.04 5.23 
-62.80 -400.85 5.39 
-61.39 -402.01 5.38 
-61.48 -401.99 5.39 
-62.55 -402.00 5.47 
-62.87 -401.99 5.24 
-58.92 -402.05 5.27 
-59.29 -402.04 5.28 
-59.55 -402.03 5.29 
-59.87 -402.02 5.30 
-62.94 -402.04 5.24 
-63.21 -402.05 5.52 
-63.49 -402.04 5.55 
-71.26 -402.15 5.52 
-71.61 -402.15 5.56 
-72.05 -402.14 5.61 
-72.42 -402.13 5.66 
-72.80 -402.12 5.70 
-73.10 -402.11 5.74 
-73.41 -402.16 5.77 
-76.55 -402.12 5.70 
-76.84 -402.11 5.73 
-77.00 -402.15 5.75 
-77.56 -402.10 5.81 
-78.00 -402.11 5.85 
-78.43 -402.10 5.90 
-78.72 -402.14 5.93 
-79.34 -402.06 6.00 
-79.68 -402.06 6.04 
-80.05 -402.06 6.08 
-80.41 -402.06 6.12 
-80.80 -402.05 6.16 
-81.19 -402.04 6.20 
-81.51 -402.06 6.24 
-82.02 -402.02 6.29 
-82.45 -402.01 6.34 
-64.28 -397.76 3.38 
-64.29 -398.22 3.39 
-64.35 -398.70 3.41 
-64.62 -398.81 3.42 
-65.03 -398.80 3.43 
-65.38 -398.79 3.44 
-65.78 -398.78 3.46 
-66.19 -398.78 3.47 
-68.63 -398.68 3.55 
-69.15 -398.90 3.57 
-69.17 -399.38 3.58 
-69.18 -399.75 3.59 
-61.44 -400.09 3.34 
-62.88 -400.09 3.39 
-69.18 -400.13 3.60 
-59.37 -400.82 3.28 
-60.18 -400.82 3.32 
-60.68 -400.79 3.33 
-60.97 -400.75 3.34 
-61.48 -400.78 3.36 
-58.69 -401.08 3.26 
-60.36 -400.96 3.33 
-60.58 -400.97 3.33 
-69.23 -400.98 3.63 
-58.71 -401.48 3.28 
-69.24 -401.43 3.64 
-58.73 -401.85 3.29 
-69.24 -401.69 3.65 
-58.57 -402.35 3.25 
-59.18 -402.33 3.32 
-59.45 -402.32 3.33 
-59.80 -402.32 3.34 
-60.17 -402.29 3.36 
-60.62 -402.27 3.37 
-62.97 -402.42 3.46 
-68.97 -402.40 3.66 
-69.25 -402.35 3.66 
-71.99 -402.41 3.74 
-72.58 -402.40 3.76 
-72.92 -402.40 3.77 
-73.39 -402.39 3.78 
-73.86 -402.39 3.80 
-74.25 -402.39 3.81 
-74.68 -402.38 3.82 
-75.01 -402.37 3.83 
-75.24 -402.36 3.84 
-76.16 -402.36 3.86 
-76.54 -402.36 3.87 
-77.03 -402.36 3.89 
-77.45 -402.35 3.90 
-77.78 -402.36 3.91 
-78.61 -402.33 3.93 
-78.92 -402.33 3.94 
-79.53 -402.33 3.95 
-80.55 -402.32 3.98 
-80.94 -402.30 3.99 
-81.32 -402.30 4.00 
-81.68 -402.30 4.01 
-82.16 -402.34 4.03 
-82.50 -402.29 4.03 
-82.91 -402.29 4.05 
-69.40 -402.45 3.67 
-69.80 -402.44 3.68 
-70.19 -402.44 3.69 
-70.60 -402.44 3.71 
-71.05 -402.43 3.72 
-71.66 -402.42 3.74 
-77.05 -402.40 3.89 
-79.06 -402.41 3.94 
-64.22 -398.30 3.73 
-64.30 -398.77 3.74 
-64.56 -398.77 3.75 
-65.35 -398.75 3.78 
-65.99 -398.74 3.81 
-66.16 -398.72 3.81 
-66.58 -398.71 3.83 
-67.41 -398.67 3.87 
-67.78 -398.66 3.88 
-68.16 -398.65 3.90 
-69.14 -399.03 3.94 
-69.14 -399.44 3.95 
-69.16 -399.71 3.95 
-70.15 -399.72 3.99 
-70.51 -399.80 4.01 
-62.78 -400.03 3.68 
-62.86 -400.04 3.68 
-69.16 -400.18 3.95 
-69.19 -400.37 3.95 
-69.18 -400.51 3.95 
-69.20 -400.65 3.96 
-58.59 -400.99 3.80 
-59.01 -400.98 3.68 
-59.32 -400.97 3.69 
-59.80 -400.97 3.57 
-69.19 -401.09 3.96 
-69.20 -400.88 3.96 
-69.20 -401.39 3.96 
-69.22 -401.87 3.97 
-58.61 -402.32 3.65 
-59.00 -402.29 3.67 
-59.41 -402.28 3.68 
-59.86 -402.26 3.58 
-62.76 -402.34 3.93 
-62.83 -402.36 3.93 
-69.30 -402.27 3.97 
-69.73 -402.40 3.99 
-70.13 -402.39 4.01 
-70.55 -402.38 4.03 
-70.93 -402.38 4.05 
-71.57 -402.38 4.08 
-71.82 -402.37 4.09 
-72.21 -402.37 4.11 
-72.61 -402.36 4.13 
-73.02 -402.36 4.15 
-73.40 -402.34 4.16 
-73.78 -402.34 4.18 
-74.18 -402.33 4.20 
-74.60 -402.32 4.22 
-75.01 -402.32 4.24 
-76.19 -402.31 4.29 
-76.59 -402.33 4.31 
-76.92 -402.30 4.33 
-77.33 -402.29 4.35 
-77.73 -402.29 4.37 
-78.09 -402.31 4.39 
-78.58 -402.29 4.41 
-78.89 -402.37 4.42 
-79.47 -402.29 4.45 
-80.61 -402.26 4.51 
-81.11 -402.25 4.53 
-81.48 -402.25 4.55 
-81.80 -402.26 4.56 
-82.25 -402.25 4.59 
-82.71 -402.22 4.61 
-83.05 -402.24 4.62 
-69.34 -402.41 3.98 
-71.29 -402.43 4.07 
-68.22 -395.83 4.31 
-69.06 -397.79 4.32 
-69.08 -398.24 4.32 
-69.09 -398.65 4.31 
-69.10 -399.05 4.31 
-69.11 -399.34 4.31 
-62.84 -399.96 4.27 
-69.12 -399.84 4.30 
-62.84 -400.02 3.97 
-69.13 -400.17 4.30 
-69.16 -400.94 4.29 
-69.18 -401.04 4.29 
-69.16 -401.47 4.60 
-69.19 -401.38 4.29 
-69.16 -401.70 4.60 
-69.19 -401.88 4.59 
-58.61 -402.26 4.01 
-58.86 -402.23 4.02 
-62.73 -402.28 4.17 
-62.83 -402.31 4.17 
-69.18 -402.15 4.28 
-69.44 -402.34 4.35 
-69.83 -402.33 4.47 
-70.19 -402.31 4.66 
-71.07 -402.35 4.39 
-71.44 -402.33 4.41 
-71.76 -402.32 4.44 
-72.17 -402.32 4.46 
-72.60 -402.31 4.49 
-73.04 -402.30 4.52 
-73.43 -402.28 4.54 
-73.80 -402.31 4.57 
-74.19 -402.29 4.59 
-74.61 -402.30 4.62 
-75.05 -402.28 4.65 
-76.21 -402.25 4.73 
-76.67 -402.25 4.76 
-76.98 -402.23 4.78 
-77.39 -402.22 4.81 
-77.80 -402.22 4.84 
-78.18 -402.23 4.86 
-78.54 -402.21 4.89 
-78.84 -402.21 4.91 
-79.48 -402.19 4.95 
-80.49 -402.19 5.02 
-80.85 -402.17 5.04 
-81.24 -402.16 5.07 
-68.23 -395.85 4.73 
-69.00 -397.03 4.74 
-69.02 -397.37 4.73 
-69.05 -397.89 4.71 
-69.06 -398.23 4.70 
-69.07 -398.64 4.69 
-69.09 -399.04 4.67 
-69.10 -399.42 4.66 
-63.00 -399.84 4.58 
-63.36 -399.81 4.60 
-63.74 -399.81 4.62 
-64.11 -399.80 4.64 
-64.55 -399.77 4.67 
-65.02 -399.78 4.70 
-65.39 -399.77 4.73 
-65.76 -399.75 4.75 
-66.13 -399.75 4.78 
-66.60 -399.74 4.81 
-66.95 -399.75 4.84 
-67.30 -399.75 4.87 
-67.72 -399.75 4.90 
-68.17 -399.75 4.93 
-68.44 -399.74 4.96 
-69.12 -399.79 4.65 
-69.13 -400.24 4.81 
-69.13 -400.58 4.80 
-69.17 -400.69 4.63 
-62.47 -400.97 4.75 
-62.86 -401.11 4.76 
-69.14 -400.99 4.78 
-69.17 -400.86 4.62 
-62.89 -401.30 4.74 
-69.15 -401.31 4.77 
-69.16 -401.37 4.93 
-64.96 -401.79 4.85 
-69.17 -401.80 4.92 
-62.87 -402.26 4.42 
-65.04 -402.06 4.83 
-65.88 -402.15 4.89 
-65.97 -402.16 4.90 
-69.31 -402.19 4.91 
-69.78 -402.27 4.95 
-70.15 -402.26 4.98 
-70.56 -402.27 4.86 
-70.91 -402.26 4.89 
-71.27 -402.29 4.92 
-71.72 -402.27 4.78 
-72.13 -402.27 4.82 
-72.55 -402.26 4.85 
-72.91 -402.25 4.88 
-73.28 -402.24 4.91 
-73.76 -402.22 4.95 
-74.25 -402.22 4.99 
-74.61 -402.25 5.02 
-74.98 -402.21 5.06 
-75.32 -402.21 5.08 
-75.72 -402.23 5.12 
-76.13 -402.20 5.15 
-76.54 -402.18 5.19 
-76.92 -402.17 5.22 
-77.27 -402.18 5.25 
-77.73 -402.16 5.30 
-78.16 -402.16 5.33 
-78.62 -402.14 5.37 
-81.60 -402.17 5.10 
-81.99 -402.16 5.12 
-82.38 -402.16 5.15 
-82.79 -402.16 5.18 
-83.24 -402.15 5.21 
-68.85 -392.60 4.89 
-68.25 -395.81 5.16 
-68.59 -399.75 4.97 
-68.95 -399.80 4.99 
-69.13 -400.08 5.00 
-62.84 -400.96 4.77 
-63.37 -400.94 4.80 
-63.74 -400.93 4.83 
-64.13 -400.93 4.86 
-64.51 -400.92 4.88 
-64.91 -400.99 4.91 
-65.49 -401.03 4.95 
-65.71 -401.07 4.96 
-64.95 -401.39 4.88 
-66.20 -402.17 4.92 
-66.57 -402.18 4.95 
-66.95 -402.18 4.99 
-67.37 -402.17 5.03 
-67.76 -402.17 5.07 
-68.12 -402.16 5.10 
-68.52 -402.15 5.14 
-68.95 -402.15 5.19 
-69.29 -402.22 5.22 
-69.70 -402.19 5.27 
-70.09 -402.19 5.31 
-70.51 -402.18 5.36 
-70.90 -402.18 5.40 
-71.38 -402.26 5.28 
-71.74 -402.19 5.32 
-72.19 -402.22 5.18 
-72.59 -402.22 5.22 
-72.94 -402.21 5.26 
-73.32 -402.19 5.30 
-73.67 -402.18 5.33 
-74.10 -402.16 5.38 
-74.52 -402.15 5.42 
-74.94 -402.15 5.47 
-75.38 -402.14 5.51 
-75.69 -402.15 5.55 
-76.04 -402.14 5.58 
-76.59 -402.11 5.64 
-76.99 -402.10 5.69 
-77.32 -402.12 5.72 
-78.78 -402.19 5.39 
-79.24 -402.13 5.43 
-79.72 -402.13 5.47 
-80.24 -402.12 5.52 
-80.59 -402.11 5.55 
-80.95 -402.10 5.58 
-81.33 -402.09 5.62 
-81.63 -402.11 5.64 
-82.11 -402.08 5.69 
-82.51 -402.07 5.72 
-82.85 -402.09 5.75 
-83.39 -402.05 5.80 
-58.52 -399.73 5.01 
-58.95 -399.69 5.02 
-62.66 -399.76 5.16 
-62.79 -399.75 5.17 
-59.48 -400.34 5.25 
-59.73 -400.30 5.26 
-60.10 -400.27 5.28 
-60.50 -400.26 5.29 
-60.93 -400.24 5.31 
-61.33 -400.21 5.33 
-61.70 -400.18 5.35 
-62.13 -400.19 5.38 
-62.54 -400.21 5.40 
-62.96 -400.20 5.43 
-63.41 -400.27 5.45 
-58.61 -400.54 5.21 
-58.97 -400.49 5.22 
-59.27 -400.44 5.23 
-62.69 -400.44 5.38 
-63.46 -400.55 5.42 
-63.11 -401.60 5.51 
-63.48 -401.86 5.51 
-59.08 -402.07 5.25 
-59.41 -402.06 5.26 
-59.76 -402.07 5.27 
-60.07 -402.07 5.27 
-60.55 -402.05 5.29 
-60.92 -402.04 5.31 
-61.35 -402.03 5.33 
-61.68 -402.03 5.35 
-62.79 -402.01 5.43 
-72.13 -402.14 5.54 
-72.56 -402.13 5.59 
-73.01 -402.11 5.65 
-73.27 -402.12 5.68 
-73.76 -402.10 5.74 
-74.39 -402.12 5.82 
-77.52 -402.10 5.74 
-77.79 -402.10 5.77 
-78.02 -402.11 5.80 
-78.60 -402.12 5.86 
-79.31 -402.06 5.94 
-79.63 -402.06 5.98 
-80.14 -402.05 6.03 
-80.59 -402.07 6.08 
-81.04 -402.03 6.13 
-81.42 -402.02 6.17 
-81.73 -402.03 6.21 
-82.18 -402.02 6.26 
-82.60 -402.00 6.31 
-82.84 -402.05 6.33 
-59.21 -399.71 5.48 
-83.03 -402.00 6.35 
-83.25 -402.06 6.38 
-80.18 -398.57 6.69 
-80.39 -398.55 6.72 
-80.80 -398.56 6.77 
-64.20 -397.84 3.29 
-64.23 -398.19 3.30 
-64.22 -398.56 3.31 
-64.83 -398.76 3.34 
-65.23 -398.76 3.35 
-65.54 -398.76 3.36 
-65.91 -398.75 3.38 
-66.34 -398.74 3.39 
-67.97 -398.67 3.45 
-68.32 -398.67 3.46 
-64.45 -398.79 3.32 
-64.76 -398.77 3.33 
-65.15 -398.77 3.35 
-65.83 -398.77 3.37 
-69.07 -398.97 3.49 
-69.09 -399.37 3.50 
-69.12 -399.71 3.51 
-70.02 -399.74 3.54 
-69.14 -399.96 3.52 
-60.30 -400.77 3.22 
-60.71 -400.74 3.23 
-61.39 -400.68 3.26 
-69.14 -400.43 3.53 
-58.76 -400.94 3.16 
-59.12 -400.95 3.17 
-59.78 -400.81 3.20 
-69.14 -400.99 3.55 
-58.61 -401.47 3.17 
-69.15 -401.27 3.56 
-67.77 -401.88 3.53 
-69.15 -401.56 3.56 
-58.65 -402.23 3.19 
-59.25 -402.32 3.22 
-59.55 -402.30 3.23 
-60.02 -402.28 3.25 
-60.39 -402.26 3.27 
-60.61 -402.25 3.27 
-69.15 -402.31 3.58 
-73.79 -402.34 3.73 
-74.73 -402.33 3.76 
-75.11 -402.34 3.77 
-76.28 -402.32 3.81 
-76.73 -402.33 3.82 
-77.07 -402.33 3.83 
-77.48 -402.30 3.84 
-77.96 -402.32 3.86 
-78.38 -402.31 3.87 
-78.69 -402.29 3.88 
-79.21 -402.31 3.89 
-79.51 -402.31 3.90 
-80.46 -402.29 3.93 
-80.81 -402.28 3.94 
-81.11 -402.28 3.95 
-81.52 -402.26 3.96 
-81.96 -402.29 3.97 
-82.64 -402.25 3.99 
-83.12 -402.28 4.01 
-83.40 -402.27 4.01 
-58.85 -402.43 3.13 
-59.19 -402.42 3.14 
-68.83 -402.38 3.58 
-69.16 -402.40 3.59 
-69.54 -402.42 3.60 
-69.93 -402.41 3.61 
-70.38 -402.40 3.63 
-70.74 -402.40 3.64 
-71.11 -402.42 3.65 
-71.56 -402.39 3.66 
-71.94 -402.41 3.68 
-72.24 -402.40 3.68 
-72.75 -402.37 3.70 
-73.27 -402.36 3.72 
-73.60 -402.36 3.73 
-74.04 -402.35 3.74 
-74.42 -402.35 3.75 
-74.91 -402.34 3.76 
-75.03 -402.37 3.77 
-76.32 -402.34 3.81 
-77.99 -402.35 3.86 
-79.39 -402.34 3.90 
-64.30 -398.75 3.64 
-64.80 -398.72 3.66 
-65.11 -398.72 3.67 
-65.56 -398.72 3.69 
-66.04 -398.70 3.71 
-66.35 -398.70 3.73 
-67.13 -398.67 3.76 
-67.54 -398.64 3.78 
-67.94 -398.63 3.80 
-68.37 -398.61 3.82 
-69.05 -399.05 3.85 
-69.07 -399.45 3.85 
-69.08 -399.83 3.86 
-69.95 -399.70 3.89 
-70.27 -399.77 3.91 
-62.77 -400.01 3.58 
-69.08 -400.21 3.86 
-69.09 -400.56 3.86 
-58.79 -400.98 3.57 
-59.06 -400.97 3.58 
-69.11 -400.98 3.87 
-69.13 -401.36 3.87 
-69.15 -401.80 3.87 
-58.72 -402.29 3.56 
-59.17 -402.28 3.57 
-59.52 -402.26 3.59 
-59.87 -402.24 3.48 
-62.79 -402.35 3.60 
-69.15 -402.16 3.88 
-70.68 -402.34 3.95 
-71.08 -402.34 3.97 
-71.63 -402.34 4.00 
-71.99 -402.33 4.01 
-72.37 -402.32 4.03 
-72.77 -402.32 4.05 
-73.10 -402.31 4.07 
-73.53 -402.30 4.09 
-73.96 -402.30 4.11 
-74.31 -402.31 4.12 
-74.70 -402.30 4.14 
-75.01 -402.29 4.16 
-76.08 -402.26 4.21 
-76.40 -402.26 4.23 
-76.71 -402.27 4.24 
-77.10 -402.26 4.26 
-77.58 -402.26 4.29 
-77.98 -402.25 4.30 
-78.34 -402.26 4.32 
-78.68 -402.24 4.34 
-79.47 -402.26 4.38 
-80.36 -402.20 4.42 
-80.74 -402.24 4.44 
-80.99 -402.21 4.45 
-81.53 -402.20 4.48 
-82.05 -402.20 4.51 
-82.44 -402.19 4.53 
-82.74 -402.21 4.54 
-83.20 -402.21 4.56 
-58.80 -402.41 3.54 
-59.07 -402.41 3.55 
-69.29 -402.39 3.88 
-69.57 -402.37 3.90 
-69.98 -402.37 3.92 
-70.29 -402.36 3.93 
-70.67 -402.35 3.95 
-71.10 -402.38 3.97 
-71.48 -402.35 3.99 
-68.26 -395.88 4.20 
-68.97 -397.75 4.22 
-68.98 -398.22 4.21 
-69.02 -398.69 4.21 
-69.02 -398.93 4.20 
-69.01 -399.18 4.20 
-62.70 -399.94 4.16 
-62.79 -400.00 3.87 
-69.07 -400.66 4.18 
-69.09 -400.98 4.18 
-69.10 -401.43 4.33 
-69.11 -401.74 4.27 
-58.69 -402.27 3.93 
-59.08 -402.30 3.96 
-62.74 -402.29 4.06 
-69.11 -402.16 4.29 
-69.54 -402.33 4.19 
-69.93 -402.33 4.22 
-70.31 -402.30 4.40 
-70.72 -402.30 4.42 
-71.04 -402.26 4.61 
-71.50 -402.30 4.32 
-72.01 -402.29 4.35 
-72.32 -402.28 4.37 
-72.69 -402.29 4.39 
-73.13 -402.29 4.42 
-73.55 -402.26 4.45 
-74.00 -402.26 4.48 
-74.37 -402.26 4.51 
-74.75 -402.24 4.53 
-75.30 -402.19 4.57 
-76.09 -402.23 4.62 
-76.33 -402.21 4.64 
-76.69 -402.20 4.66 
-77.17 -402.21 4.70 
-77.61 -402.20 4.73 
-77.90 -402.20 4.75 
-78.41 -402.19 4.78 
-78.61 -402.17 4.80 
-79.19 -402.16 4.84 
-79.44 -402.18 4.85 
-80.39 -402.16 4.92 
-80.73 -402.15 4.95 
-81.06 -402.15 4.97 
-81.52 -402.16 5.00 
-81.76 -402.14 5.02 
-82.12 -402.14 5.04 
-69.23 -402.35 4.17 
-69.56 -402.35 4.19 
-68.34 -395.85 4.62 
-68.92 -396.88 4.62 
-68.96 -397.40 4.61 
-68.96 -397.76 4.59 
-68.96 -398.21 4.58 
-69.01 -398.67 4.57 
-69.00 -398.92 4.56 
-69.02 -399.39 4.72 
-62.77 -399.84 4.46 
-69.03 -399.73 4.70 
-69.04 -400.12 4.69 
-69.05 -400.51 4.67 
-69.07 -400.97 4.81 
-62.24 -401.18 4.60 
-64.86 -401.30 4.75 
-69.08 -401.37 4.80 
-69.09 -401.75 4.78 
-62.72 -402.25 4.30 
-69.15 -402.15 4.76 
-69.50 -402.24 4.79 
-69.94 -402.23 4.83 
-70.34 -402.22 4.87 
-70.73 -402.21 4.91 
-71.10 -402.25 4.94 
-71.51 -402.23 4.81 
-71.87 -402.23 4.85 
-72.25 -402.22 4.88 
-72.73 -402.23 4.75 
-73.10 -402.23 4.78 
-73.57 -402.21 4.82 
-73.87 -402.19 4.84 
-74.35 -402.19 4.88 
-74.80 -402.20 4.92 
-75.08 -402.19 4.95 
-75.99 -402.12 5.03 
-76.28 -402.15 5.05 
-76.72 -402.15 5.09 
-77.08 -402.15 5.12 
-77.48 -402.12 5.16 
-77.90 -402.16 5.20 
-78.37 -402.12 5.24 
-78.72 -402.17 5.27 
-79.17 -402.13 5.31 
-79.54 -402.10 5.34 
-82.71 -402.15 5.09 
-69.17 -395.09 5.14 
-68.02 -395.15 5.06 
-69.26 -395.14 5.15 
-68.04 -395.79 5.02 
-68.30 -395.79 5.04 
-68.90 -397.00 5.02 
-68.95 -397.51 4.99 
-68.95 -397.73 4.98 
-68.95 -398.19 4.95 
-68.96 -398.52 4.94 
-68.99 -398.90 4.92 
-69.00 -399.25 4.90 
-63.19 -400.74 4.69 
-63.51 -400.73 4.71 
-63.85 -400.72 4.73 
-64.32 -400.66 4.77 
-64.70 -400.62 4.79 
-65.55 -400.61 4.86 
-65.92 -400.66 4.88 
-66.30 -400.67 4.91 
-66.73 -400.67 4.94 
-67.67 -400.69 5.02 
-67.79 -400.71 5.03 
-62.75 -400.77 4.67 
-64.86 -400.97 4.77 
-66.97 -400.91 4.94 
-67.97 -400.77 5.04 
-68.27 -400.83 5.07 
-68.73 -400.84 5.11 
-69.03 -401.07 5.12 
-66.97 -401.27 4.92 
-69.07 -401.32 5.11 
-69.07 -401.68 5.08 
-63.14 -402.23 4.80 
-63.42 -402.23 4.82 
-64.08 -402.22 4.86 
-64.22 -402.22 4.87 
-64.77 -402.20 4.91 
-65.08 -402.20 4.94 
-65.47 -402.19 4.97 
-65.91 -402.18 5.01 
-66.31 -402.16 5.05 
-66.51 -402.16 5.07 
-69.07 -402.10 5.05 
-69.50 -402.18 5.09 
-69.87 -402.18 5.13 
-70.25 -402.16 5.18 
-70.66 -402.16 5.22 
-71.00 -402.18 5.26 
-71.45 -402.13 5.31 
-71.89 -402.13 5.36 
-72.36 -402.15 5.24 
-72.67 -402.14 5.27 
-73.04 -402.14 5.31 
-73.53 -402.16 5.18 
-73.88 -402.15 5.22 
-74.26 -402.13 5.26 
-74.64 -402.13 5.30 
-75.04 -402.12 5.34 
-75.44 -402.12 5.38 
-75.81 -402.11 5.42 
-76.26 -402.11 5.47 
-76.57 -402.12 5.51 
-77.02 -402.08 5.56 
-77.52 -402.07 5.61 
-77.85 -402.09 5.64 
-78.26 -402.08 5.69 
-79.84 -402.10 5.37 
-80.16 -402.09 5.40 
-80.67 -402.09 5.45 
-81.17 -402.07 5.49 
-81.52 -402.06 5.52 
-81.79 -402.09 5.55 
-82.26 -402.05 5.59 
-82.64 -402.04 5.63 
-83.06 -402.03 5.67 
-83.45 -402.04 5.70 
-58.68 -399.72 4.92 
-59.05 -399.69 4.93 
-59.63 -400.33 5.16 
-59.88 -400.28 5.17 
-60.25 -400.25 5.18 
-60.71 -400.15 5.21 
-61.08 -400.07 5.23 
-61.49 -400.04 5.25 
-61.85 -400.03 5.27 
-62.26 -400.01 5.29 
-62.67 -400.01 5.31 
-63.17 -400.00 5.34 
-63.34 -400.18 5.33 
-59.10 -400.48 5.13 
-59.47 -400.42 5.15 
-60.45 -400.96 5.09 
-62.53 -400.75 5.20 
-63.16 -401.30 5.43 
-69.07 -401.75 5.38 
-59.23 -402.06 5.17 
-59.42 -402.07 5.17 
-59.89 -402.04 5.18 
-60.14 -402.03 5.19 
-60.69 -402.03 5.20 
-61.12 -402.04 5.21 
-61.34 -402.04 5.22 
-62.23 -402.00 5.26 
-63.37 -401.94 5.34 
-69.12 -402.09 5.36 
-69.47 -402.14 5.40 
-69.90 -402.12 5.45 
-70.22 -402.12 5.49 
-70.52 -402.11 5.53 
-73.20 -402.11 5.52 
-73.48 -402.09 5.55 
-73.86 -402.07 5.60 
-74.32 -402.07 5.65 
-74.70 -402.06 5.70 
-75.10 -402.05 5.75 
-75.50 -402.04 5.80 
-75.96 -402.07 5.86 
-78.72 -402.05 5.74 
-78.92 -402.10 5.76 
-79.46 -402.04 5.82 
-79.85 -402.05 5.87 
-80.24 -402.02 5.91 
-80.65 -402.04 5.96 
-81.08 -402.00 6.01 
-81.59 -402.00 6.06 
-81.96 -401.99 6.11 
-82.35 -401.97 6.15 
-82.65 -401.99 6.18 
-83.13 -401.96 6.24 
-59.18 -401.54 5.45 
-81.03 -398.51 6.65 
-81.33 -398.51 6.69 
-64.10 -398.14 3.19 
-64.91 -398.73 3.23 
-65.75 -398.72 3.26 
-66.11 -398.73 3.28 
-66.49 -398.72 3.29 
-64.27 -398.77 3.21 
-64.52 -398.77 3.22 
-64.91 -398.75 3.23 
-65.35 -398.75 3.25 
-65.76 -398.74 3.27 
-66.08 -398.74 3.28 
-69.02 -399.74 3.41 
-70.12 -399.72 3.44 
-69.02 -400.11 3.42 
-61.23 -400.67 3.14 
-69.03 -400.55 3.43 
-59.67 -400.99 3.09 
-60.14 -400.97 3.11 
-69.03 -400.82 3.44 
-58.53 -401.50 3.05 
-69.06 -401.31 3.45 
-58.55 -401.60 3.06 
-69.08 -401.75 3.46 
-58.91 -402.33 3.09 
-59.25 -402.32 3.11 
-59.72 -402.30 3.13 
-60.14 -402.28 3.14 
-60.42 -402.26 3.16 
-69.08 -402.15 3.47 
-74.53 -402.30 3.65 
-74.87 -402.31 3.66 
-76.05 -402.27 3.69 
-76.42 -402.30 3.70 
-76.86 -402.28 3.71 
-77.31 -402.27 3.73 
-77.75 -402.28 3.74 
-78.08 -402.28 3.75 
-78.51 -402.27 3.76 
-79.30 -402.24 3.79 
-80.30 -402.23 3.81 
-80.62 -402.22 3.82 
-80.91 -402.22 3.83 
-81.30 -402.25 3.84 
-81.72 -402.21 3.85 
-82.23 -402.21 3.87 
-82.48 -402.24 3.88 
-82.94 -402.20 3.89 
-83.34 -402.19 3.90 
-58.50 -402.43 3.04 
-58.89 -402.42 3.02 
-59.30 -402.41 3.04 
-59.78 -402.39 3.06 
-60.11 -402.37 3.07 
-62.73 -402.40 3.25 
-69.11 -402.35 3.48 
-69.33 -402.40 3.49 
-69.74 -402.39 3.50 
-70.10 -402.38 3.51 
-70.52 -402.37 3.52 
-70.89 -402.37 3.54 
-71.41 -402.35 3.55 
-71.72 -402.36 3.56 
-72.09 -402.35 3.57 
-72.55 -402.34 3.59 
-72.85 -402.33 3.60 
-73.20 -402.33 3.61 
-73.70 -402.35 3.62 
-74.55 -402.33 3.65 
-74.90 -402.33 3.66 
-76.03 -402.32 3.69 
-64.05 -397.76 3.51 
-64.03 -398.15 3.52 
-64.07 -398.52 3.52 
-64.49 -398.72 3.54 
-64.88 -398.71 3.55 
-65.26 -398.70 3.57 
-65.70 -398.68 3.59 
-66.14 -398.68 3.61 
-67.68 -398.62 3.67 
-68.17 -398.60 3.69 
-64.11 -398.75 3.52 
-68.97 -398.93 3.73 
-68.96 -399.24 3.73 
-68.97 -399.66 3.73 
-70.08 -399.65 3.78 
-68.99 -400.13 3.74 
-69.00 -400.51 3.74 
-58.56 -401.00 3.32 
-58.98 -401.00 3.45 
-59.37 -400.99 3.46 
-59.69 -400.98 3.48 
-60.19 -400.90 3.46 
-60.36 -400.99 3.31 
-69.00 -401.00 3.74 
-69.04 -401.27 3.75 
-69.03 -401.74 3.75 
-58.60 -402.31 3.33 
-58.95 -402.29 3.46 
-59.28 -402.28 3.47 
-59.66 -402.27 3.48 
-60.05 -402.29 3.47 
-69.04 -402.08 3.75 
-70.92 -402.31 3.84 
-71.42 -402.30 3.86 
-71.73 -402.30 3.88 
-72.07 -402.30 3.89 
-72.42 -402.28 3.91 
-72.88 -402.28 3.93 
-73.37 -402.28 3.95 
-73.71 -402.25 3.97 
-74.11 -402.25 3.99 
-74.45 -402.25 4.01 
-74.88 -402.25 4.03 
-76.12 -402.24 4.09 
-76.48 -402.24 4.10 
-76.92 -402.23 4.13 
-77.23 -402.24 4.14 
-77.64 -402.22 4.16 
-78.11 -402.22 4.18 
-78.46 -402.22 4.20 
-78.73 -402.22 4.21 
-79.37 -402.21 4.25 
-80.27 -402.11 4.29 
-80.37 -402.20 4.30 
-80.90 -402.18 4.32 
-81.40 -402.15 4.35 
-81.74 -402.15 4.36 
-81.98 -402.18 4.37 
-82.42 -402.14 4.40 
-82.87 -402.17 4.42 
-83.11 -402.15 4.43 
-58.88 -402.41 3.29 
-59.38 -402.41 3.31 
-62.64 -402.34 3.59 
-62.73 -402.34 3.60 
-69.29 -402.35 3.76 
-69.67 -402.34 3.78 
-70.15 -402.34 3.80 
-70.50 -402.32 3.82 
-70.99 -402.36 3.84 
-71.28 -402.32 3.86 
-71.53 -402.32 3.87 
-68.09 -395.82 4.08 
-68.39 -395.90 4.09 
-68.95 -399.78 4.06 
-68.93 -400.09 4.13 
-68.96 -400.44 4.13 
-58.51 -400.97 3.60 
-58.91 -400.97 3.74 
-59.17 -400.91 3.88 
-59.90 -400.94 3.90 
-68.97 -401.00 4.19 
-68.98 -401.34 4.19 
-68.99 -401.74 4.18 
-58.99 -402.30 3.84 
-59.36 -402.31 3.86 
-59.64 -402.29 3.87 
-60.06 -402.27 3.89 
-62.58 -402.28 3.94 
-62.71 -402.28 3.94 
-69.00 -402.13 4.17 
-69.33 -402.28 4.19 
-69.70 -402.28 4.21 
-70.11 -402.30 4.09 
-70.54 -402.28 4.18 
-70.92 -402.27 4.22 
-71.37 -402.24 4.33 
-71.68 -402.24 4.35 
-72.04 -402.25 4.37 
-72.48 -402.26 4.24 
-72.94 -402.24 4.27 
-73.25 -402.23 4.29 
-73.71 -402.23 4.32 
-74.11 -402.22 4.35 
-74.47 -402.21 4.37 
-74.81 -402.22 4.39 
-76.08 -402.17 4.48 
-76.48 -402.17 4.50 
-76.79 -402.17 4.53 
-77.20 -402.18 4.55 
-77.71 -402.16 4.59 
-78.06 -402.15 4.61 
-78.44 -402.14 4.64 
-78.77 -402.24 4.66 
-79.10 -402.12 4.68 
-80.24 -402.10 4.76 
-80.53 -402.10 4.78 
-80.83 -402.10 4.80 
-81.16 -402.09 4.83 
-81.65 -402.08 4.86 
-82.06 -402.11 4.89 
-82.50 -402.07 4.92 
-82.87 -402.07 4.95 
-83.15 -402.09 4.97 
-69.23 -402.33 4.04 
-71.07 -402.34 4.46 
-68.08 -395.76 4.48 
-68.36 -395.81 4.50 
-68.83 -396.91 4.48 
-68.84 -397.28 4.47 
-68.86 -397.83 4.45 
-68.87 -398.14 4.44 
-68.89 -398.57 4.42 
-68.90 -398.93 4.59 
-68.90 -399.27 4.57 
-62.93 -399.73 4.35 
-63.28 -399.77 4.37 
-63.67 -399.78 4.38 
-64.05 -399.74 4.40 
-68.91 -399.62 4.55 
-68.94 -400.17 4.69 
-68.95 -400.50 4.67 
-62.25 -401.10 4.50 
-62.40 -401.10 4.50 
-62.96 -400.93 4.54 
-63.29 -400.90 4.56 
-63.69 -400.84 4.58 
-64.76 -401.08 4.62 
-68.97 -400.76 4.66 
-64.74 -401.25 4.61 
-66.86 -401.64 4.72 
-62.63 -402.25 4.18 
-69.31 -402.23 4.61 
-69.70 -402.21 4.65 
-70.11 -402.20 4.68 
-70.48 -402.19 4.72 
-70.88 -402.20 4.75 
-71.33 -402.18 4.79 
-71.68 -402.18 4.83 
-72.15 -402.18 4.71 
-72.48 -402.18 4.74 
-72.86 -402.17 4.77 
-73.24 -402.16 4.81 
-73.68 -402.17 4.67 
-74.06 -402.17 4.70 
-74.46 -402.16 4.73 
-74.83 -402.14 4.77 
-75.08 -402.16 4.79 
-75.99 -402.11 4.86 
-76.42 -402.12 4.90 
-76.87 -402.09 4.94 
-77.31 -402.10 4.98 
-77.70 -402.12 5.01 
-78.00 -402.09 5.04 
-78.42 -402.10 5.08 
-79.27 -402.08 5.15 
-79.63 -402.09 5.18 
-80.00 -402.05 5.22 
-80.45 -402.05 5.26 
-69.14 -395.10 5.00 
-68.91 -395.14 4.98 
-68.08 -395.73 4.89 
-68.36 -395.76 4.91 
-68.83 -396.96 4.87 
-68.81 -397.35 4.85 
-68.84 -397.82 4.82 
-68.85 -398.12 4.80 
-68.85 -398.49 4.78 
-68.87 -398.71 4.77 
-62.50 -399.74 4.92 
-64.10 -400.71 4.62 
-64.45 -400.70 4.64 
-64.72 -400.70 4.65 
-65.28 -400.68 4.69 
-65.64 -400.67 4.71 
-66.03 -400.64 4.74 
-66.39 -400.62 4.77 
-66.75 -400.63 4.80 
-67.36 -400.63 4.84 
-67.65 -400.64 4.87 
-68.09 -400.63 4.90 
-68.45 -400.63 4.93 
-68.71 -400.63 4.96 
-64.06 -400.73 4.61 
-64.73 -400.89 4.64 
-66.87 -400.91 4.78 
-68.94 -400.91 4.96 
-66.88 -401.37 4.75 
-68.95 -401.31 4.93 
-68.95 -401.72 5.04 
-62.97 -402.21 4.66 
-63.24 -402.21 4.68 
-63.67 -402.20 4.70 
-64.07 -402.19 4.72 
-64.47 -402.19 4.75 
-65.79 -402.16 4.85 
-66.06 -402.16 4.87 
-66.47 -402.15 4.90 
-66.88 -402.15 4.94 
-67.23 -402.13 4.97 
-67.58 -402.12 5.01 
-68.97 -402.01 5.02 
-69.25 -402.13 5.04 
-69.67 -402.12 5.09 
-69.95 -402.12 5.12 
-70.46 -402.12 5.02 
-70.89 -402.14 5.06 
-71.32 -402.10 5.11 
-71.63 -402.10 5.15 
-72.02 -402.10 5.19 
-72.41 -402.08 5.23 
-72.82 -402.07 5.28 
-73.20 -402.06 5.33 
-73.61 -402.08 5.20 
-73.94 -402.07 5.23 
-74.46 -402.09 5.10 
-74.91 -402.09 5.15 
-75.27 -402.08 5.19 
-75.66 -402.07 5.23 
-76.00 -402.07 5.26 
-76.42 -402.06 5.31 
-76.85 -402.05 5.35 
-77.25 -402.03 5.40 
-77.58 -402.04 5.43 
-78.07 -402.02 5.49 
-78.45 -402.00 5.53 
-78.79 -402.03 5.56 
-79.24 -401.99 5.61 
-80.92 -402.03 5.30 
-81.10 -402.07 5.32 
-81.58 -402.01 5.36 
-82.07 -402.01 5.41 
-82.60 -402.00 5.45 
-82.89 -402.02 5.48 
-83.36 -401.98 5.52 
-60.94 -399.49 4.90 
-58.51 -399.71 4.85 
-58.86 -399.66 4.85 
-59.28 -399.65 4.86 
-59.64 -399.63 4.86 
-60.02 -399.64 4.87 
-60.41 -399.68 4.87 
-60.79 -399.64 4.88 
-61.36 -400.26 5.11 
-61.59 -400.23 5.12 
-61.99 -400.21 5.14 
-62.36 -400.18 5.15 
-62.91 -400.13 5.18 
-63.13 -400.08 5.20 
-60.46 -400.46 5.07 
-60.95 -400.41 5.08 
-61.17 -400.36 5.09 
-63.23 -400.37 5.16 
-58.80 -400.98 4.99 
-59.21 -400.83 5.01 
-62.46 -400.91 5.06 
-62.90 -401.43 5.26 
-63.13 -401.41 5.28 
-68.94 -401.30 5.23 
-58.89 -402.12 5.10 
-61.25 -402.01 5.12 
-61.70 -402.00 5.13 
-62.24 -401.99 5.15 
-62.38 -401.98 5.15 
-70.08 -402.08 5.28 
-70.42 -402.07 5.32 
-70.84 -402.06 5.37 
-71.33 -402.06 5.43 
-74.09 -402.03 5.43 
-74.43 -402.02 5.47 
-74.79 -402.02 5.52 
-75.24 -402.00 5.57 
-75.73 -401.99 5.63 
-76.13 -401.98 5.68 
-76.43 -401.99 5.72 
-76.76 -401.99 5.76 
-79.64 -401.99 5.66 
-80.15 -402.00 5.71 
-80.83 -401.97 5.79 
-81.32 -401.95 5.84 
-81.64 -401.95 5.88 
-81.91 -401.96 5.91 
-82.35 -401.92 5.96 
-82.80 -401.94 6.01 
-83.07 -401.92 6.04 
-83.45 -401.90 6.08 
-60.83 -400.95 5.50 
-64.01 -398.15 3.07 
-64.00 -398.80 3.09 
-64.24 -398.77 3.10 
-64.65 -398.76 3.11 
-65.05 -398.75 3.13 
-65.48 -398.74 3.14 
-65.86 -398.73 3.16 
-66.23 -398.73 3.17 
-68.91 -399.68 3.29 
-69.55 -399.70 3.32 
-69.86 -399.71 3.33 
-62.59 -400.08 3.07 
-68.92 -400.14 3.31 
-68.94 -400.51 3.32 
-58.73 -401.04 2.93 
-59.10 -401.02 2.95 
-59.44 -401.00 2.96 
-59.88 -400.98 2.98 
-60.19 -400.96 2.95 
-60.48 -400.79 2.89 
-61.23 -400.78 2.91 
-68.93 -400.78 3.32 
-68.95 -401.24 3.34 
-68.96 -401.67 3.35 
-58.99 -402.32 2.98 
-59.58 -402.30 3.00 
-59.85 -402.29 3.01 
-60.22 -402.29 2.99 
-60.62 -402.27 2.97 
-61.02 -402.19 2.98 
-68.97 -402.08 3.36 
-74.82 -402.28 3.56 
-76.31 -402.26 3.60 
-76.59 -402.27 3.61 
-77.08 -402.27 3.62 
-77.51 -402.25 3.64 
-77.92 -402.26 3.65 
-78.25 -402.26 3.66 
-78.66 -402.27 3.67 
-79.08 -402.24 3.68 
-80.33 -402.25 3.72 
-80.54 -402.22 3.73 
-80.99 -402.20 3.74 
-81.42 -402.20 3.75 
-81.80 -402.23 3.76 
-82.37 -402.20 3.78 
-82.68 -402.20 3.79 
-83.03 -402.19 3.80 
-58.66 -402.38 2.91 
-59.09 -402.39 2.91 
-59.39 -402.34 2.97 
-59.84 -402.38 2.94 
-60.10 -402.38 2.95 
-62.60 -402.39 3.13 
-69.12 -402.39 3.37 
-69.48 -402.38 3.39 
-69.84 -402.37 3.40 
-70.26 -402.37 3.41 
-70.64 -402.36 3.42 
-71.03 -402.40 3.44 
-71.36 -402.35 3.45 
-71.82 -402.33 3.46 
-72.24 -402.33 3.48 
-72.63 -402.32 3.49 
-73.02 -402.32 3.50 
-73.40 -402.31 3.51 
-73.90 -402.29 3.53 
-74.18 -402.30 3.54 
-74.47 -402.31 3.54 
-74.92 -402.31 3.56 
-75.97 -402.30 3.59 
-76.33 -402.29 3.60 
-76.76 -402.28 3.61 
-78.65 -402.29 3.67 
-79.11 -402.27 3.69 
-63.94 -397.75 3.39 
-63.93 -398.60 3.40 
-65.55 -398.69 3.46 
-67.78 -398.60 3.56 
-68.20 -398.59 3.58 
-64.01 -398.75 3.40 
-64.28 -398.74 3.41 
-64.62 -398.73 3.43 
-65.01 -398.71 3.44 
-65.36 -398.70 3.46 
-68.86 -398.97 3.61 
-68.86 -399.27 3.61 
-68.88 -399.73 3.61 
-69.81 -399.66 3.65 
-62.51 -400.01 3.35 
-68.88 -400.10 3.61 
-60.75 -400.71 3.20 
-68.90 -400.58 3.62 
-58.64 -400.98 3.32 
-59.41 -400.98 3.35 
-59.76 -400.96 3.48 
-60.20 -400.88 3.34 
-60.60 -400.87 3.20 
-60.98 -400.97 3.22 
-68.91 -400.93 3.62 
-68.93 -401.28 3.62 
-68.93 -401.76 3.76 
-58.64 -402.30 3.34 
-59.06 -402.27 3.34 
-59.43 -402.28 3.35 
-59.82 -402.27 3.35 
-60.27 -402.28 3.37 
-60.64 -402.28 3.24 
-61.08 -402.26 3.26 
-68.92 -402.11 3.76 
-72.24 -402.27 3.78 
-72.63 -402.27 3.80 
-73.03 -402.26 3.82 
-73.38 -402.25 3.84 
-73.81 -402.26 3.86 
-74.27 -402.24 3.88 
-74.67 -402.23 3.90 
-75.04 -402.25 3.92 
-75.93 -402.22 3.96 
-76.21 -402.23 3.98 
-76.60 -402.22 3.99 
-77.01 -402.21 4.01 
-77.38 -402.20 4.03 
-77.81 -402.21 4.05 
-78.27 -402.19 4.08 
-78.62 -402.19 4.09 
-79.13 -402.16 4.12 
-79.31 -402.20 4.13 
-80.30 -402.15 4.18 
-80.68 -402.16 4.20 
-80.93 -402.17 4.21 
-81.38 -402.15 4.23 
-81.88 -402.14 4.26 
-82.30 -402.16 4.28 
-82.52 -402.14 4.29 
-83.03 -402.13 4.31 
-58.69 -402.37 3.18 
-59.02 -402.38 3.18 
-59.37 -402.39 3.20 
-59.77 -402.32 3.21 
-62.58 -402.34 3.48 
-69.10 -402.33 3.77 
-69.41 -402.32 3.79 
-69.80 -402.31 3.81 
-70.20 -402.32 3.69 
-70.64 -402.32 3.71 
-71.02 -402.34 3.73 
-71.48 -402.30 3.75 
-71.80 -402.29 3.76 
-72.22 -402.29 3.78 
-67.90 -395.75 3.94 
-67.98 -395.91 3.95 
-68.23 -395.90 3.96 
-68.79 -398.83 3.94 
-68.80 -399.32 4.09 
-68.84 -399.21 3.93 
-68.74 -399.61 3.92 
-68.83 -399.83 4.08 
-62.52 -399.95 3.78 
-68.84 -400.06 4.08 
-68.85 -400.49 4.07 
-58.68 -400.97 3.62 
-58.98 -400.96 3.75 
-59.37 -400.97 3.76 
-68.87 -400.88 4.06 
-68.87 -401.31 4.05 
-68.90 -401.64 4.04 
-58.70 -402.28 3.72 
-58.99 -402.28 3.73 
-59.44 -402.26 3.74 
-62.60 -402.29 3.83 
-68.97 -402.12 4.17 
-69.43 -402.25 4.19 
-69.82 -402.24 4.22 
-70.20 -402.26 4.11 
-70.63 -402.25 4.14 
-70.97 -402.25 4.11 
-71.40 -402.25 4.10 
-71.82 -402.24 4.19 
-72.21 -402.20 4.30 
-72.65 -402.20 4.28 
-72.98 -402.18 4.46 
-73.49 -402.24 4.17 
-73.89 -402.23 4.20 
-74.19 -402.21 4.22 
-74.58 -402.21 4.24 
-74.91 -402.20 4.27 
-75.89 -402.15 4.33 
-76.23 -402.18 4.35 
-76.62 -402.17 4.38 
-77.01 -402.16 4.41 
-77.43 -402.17 4.44 
-77.88 -402.16 4.47 
-78.21 -402.14 4.49 
-78.44 -402.13 4.50 
-79.03 -402.12 4.55 
-79.28 -402.17 4.56 
-80.18 -402.10 4.62 
-80.61 -402.10 4.66 
-81.03 -402.10 4.68 
-81.42 -402.11 4.71 
-81.79 -402.08 4.74 
-82.28 -402.07 4.77 
-82.53 -402.09 4.79 
-82.94 -402.06 4.82 
-83.40 -402.08 4.85 
-69.94 -402.30 3.95 
-70.25 -402.29 3.97 
-70.53 -402.31 3.99 
-70.96 -402.32 4.30 
-67.92 -395.77 4.34 
-68.23 -395.82 4.36 
-68.75 -397.69 4.31 
-68.75 -398.04 4.30 
-68.77 -398.45 4.46 
-68.76 -398.81 4.61 
-68.80 -399.07 4.60 
-68.77 -399.19 4.59 
-68.80 -399.36 4.58 
-62.05 -399.74 4.21 
-62.64 -399.77 4.22 
-63.01 -399.73 4.24 
-63.40 -399.72 4.25 
-63.76 -399.74 4.27 
-64.20 -399.76 4.29 
-64.56 -399.74 4.30 
-68.80 -399.64 4.56 
-68.85 -400.19 4.54 
-68.84 -400.67 4.51 
-63.13 -401.08 4.42 
-63.42 -400.93 4.44 
-63.79 -400.89 4.46 
-64.17 -400.83 4.48 
-64.55 -400.77 4.51 
-62.14 -401.31 4.36 
-62.70 -401.11 4.40 
-63.01 -401.10 4.41 
-68.86 -401.33 4.47 
-64.65 -401.73 4.43 
-66.72 -401.49 4.57 
-68.88 -401.73 4.45 
-68.98 -402.13 4.44 
-69.38 -402.21 4.46 
-69.85 -402.21 4.50 
-70.29 -402.18 4.54 
-70.68 -402.19 4.58 
-70.98 -402.19 4.60 
-71.39 -402.16 4.64 
-71.78 -402.16 4.68 
-72.25 -402.15 4.72 
-72.61 -402.14 4.75 
-72.98 -402.13 4.79 
-73.40 -402.13 4.66 
-73.79 -402.12 4.70 
-74.15 -402.11 4.73 
-74.56 -402.13 4.59 
-74.80 -402.13 4.61 
-75.84 -402.09 4.70 
-76.13 -402.10 4.73 
-76.58 -402.09 4.76 
-77.08 -402.09 4.81 
-77.48 -402.10 4.84 
-77.88 -402.11 4.88 
-78.15 -402.08 4.90 
-78.47 -402.08 4.93 
-78.95 -402.06 4.97 
-79.39 -402.04 5.01 
-79.74 -402.04 5.04 
-80.12 -402.04 5.08 
-80.66 -402.03 5.13 
-81.11 -402.03 5.17 
-81.42 -402.01 5.19 
-68.13 -395.76 4.76 
-68.68 -396.70 4.73 
-68.72 -397.24 4.70 
-68.74 -397.67 4.68 
-68.73 -398.03 4.66 
-68.77 -398.31 4.64 
-65.15 -400.67 4.55 
-65.39 -400.66 4.56 
-65.79 -400.54 4.59 
-66.16 -400.49 4.62 
-66.57 -400.49 4.65 
-67.12 -400.45 4.69 
-67.41 -400.45 4.71 
-67.81 -400.45 4.74 
-68.20 -400.44 4.77 
-68.63 -400.47 4.81 
-64.93 -400.69 4.53 
-66.76 -400.89 4.63 
-68.83 -400.88 4.79 
-68.79 -401.53 4.73 
-63.88 -402.20 4.58 
-64.19 -402.18 4.60 
-64.66 -402.17 4.63 
-64.80 -402.17 4.63 
-65.45 -402.17 4.67 
-65.89 -402.16 4.70 
-66.12 -402.16 4.72 
-66.60 -402.15 4.76 
-66.98 -402.14 4.79 
-67.38 -402.13 4.82 
-67.76 -402.13 4.86 
-68.22 -402.12 4.90 
-68.58 -402.10 4.94 
-69.05 -402.13 4.85 
-69.39 -402.12 4.88 
-69.77 -402.11 4.92 
-70.17 -402.10 4.96 
-70.57 -402.09 5.01 
-70.94 -402.12 4.90 
-71.35 -402.10 4.94 
-71.77 -402.09 4.99 
-72.13 -402.08 5.03 
-72.53 -402.07 5.07 
-72.93 -402.06 5.12 
-73.35 -402.04 5.16 
-73.77 -402.04 5.21 
-74.27 -402.05 5.09 
-74.58 -402.05 5.13 
-75.03 -402.08 5.00 
-75.44 -402.07 5.04 
-75.79 -402.05 5.07 
-76.16 -402.05 5.11 
-76.54 -402.05 5.15 
-76.94 -402.03 5.20 
-77.30 -402.04 5.23 
-77.77 -402.01 5.28 
-78.22 -402.01 5.33 
-78.54 -402.01 5.37 
-79.05 -401.98 5.42 
-79.43 -401.99 5.46 
-79.81 -401.97 5.51 
-80.07 -401.97 5.53 
-81.73 -402.00 5.22 
-82.16 -402.01 5.26 
-82.57 -401.98 5.30 
-83.08 -401.97 5.35 
-83.35 -401.99 5.37 
-58.58 -399.80 4.76 
-58.99 -399.69 4.77 
-59.37 -399.64 4.77 
-59.78 -399.63 4.77 
-60.20 -399.63 4.77 
-60.54 -399.61 4.78 
-60.97 -399.60 4.79 
-61.41 -399.65 4.79 
-61.77 -399.63 4.80 
-62.05 -399.57 4.81 
-62.65 -400.22 5.04 
-62.93 -400.19 5.05 
-60.74 -400.64 4.95 
-60.82 -400.62 4.96 
-61.33 -400.53 4.97 
-61.83 -400.40 5.00 
-62.12 -400.37 5.01 
-63.11 -400.41 5.03 
-59.04 -400.89 4.98 
-60.68 -400.72 4.94 
-58.99 -401.35 4.87 
-62.76 -401.47 5.13 
-62.99 -401.44 5.14 
-58.52 -402.16 4.86 
-59.45 -402.19 5.13 
-60.12 -402.10 5.01 
-60.91 -402.08 5.01 
-62.18 -401.98 5.04 
-63.14 -401.90 5.08 
-70.77 -402.04 5.18 
-70.95 -402.05 5.20 
-71.39 -402.04 5.25 
-71.76 -402.04 5.30 
-72.18 -402.01 5.35 
-72.40 -402.04 5.38 
-74.98 -402.00 5.36 
-75.32 -401.99 5.40 
-75.76 -401.98 5.45 
-76.23 -401.96 5.51 
-76.61 -401.95 5.56 
-76.99 -401.95 5.60 
-77.42 -401.96 5.66 
-77.73 -401.94 5.70 
-78.06 -401.94 5.74 
-80.36 -401.95 5.57 
-80.64 -401.95 5.60 
-80.80 -401.99 5.61 
-81.38 -401.93 5.68 
-81.83 -401.92 5.73 
-82.24 -401.93 5.78 
-82.49 -401.91 5.80 
-82.83 -401.90 5.84 
-83.35 -401.91 5.90 
-60.16 -399.71 5.16 
-61.93 -401.08 5.41 
-64.03 -398.77 2.98 
-64.42 -398.76 3.00 
-64.83 -398.74 3.01 
-65.21 -398.73 3.03 
-65.59 -398.72 3.04 
-65.99 -398.71 3.06 
-66.41 -398.70 3.08 
-68.82 -399.69 3.19 
-69.56 -399.66 3.22 
-68.82 -400.14 3.21 
-61.08 -400.54 2.91 
-68.84 -400.41 3.22 
-59.23 -401.03 2.84 
-59.53 -401.00 2.85 
-60.03 -400.96 2.84 
-60.90 -400.84 2.86 
-61.05 -400.75 2.91 
-68.86 -400.79 3.23 
-60.04 -401.43 2.80 
-68.85 -401.14 3.24 
-68.87 -401.66 3.25 
-60.95 -402.24 2.88 
-61.29 -402.22 2.89 
-61.92 -402.18 2.91 
-68.87 -402.01 3.26 
-75.81 -402.20 3.50 
-76.30 -402.21 3.51 
-76.81 -402.22 3.53 
-77.27 -402.21 3.54 
-77.76 -402.21 3.56 
-78.05 -402.21 3.57 
-78.48 -402.19 3.58 
-79.13 -402.18 3.60 
-80.17 -402.17 3.63 
-80.46 -402.16 3.64 
-80.87 -402.15 3.65 
-81.26 -402.15 3.67 
-81.41 -402.19 3.67 
-81.98 -402.13 3.69 
-82.41 -402.14 3.70 
-82.79 -402.17 3.71 
-83.38 -402.11 3.73 
-58.82 -402.34 2.86 
-59.15 -402.34 2.84 
-59.54 -402.33 2.84 
-59.95 -402.31 2.87 
-60.26 -402.27 2.92 
-62.54 -402.39 3.02 
-68.97 -402.37 3.27 
-69.20 -402.36 3.28 
-69.56 -402.35 3.29 
-70.01 -402.34 3.31 
-70.39 -402.33 3.32 
-70.79 -402.33 3.34 
-71.20 -402.33 3.35 
-71.60 -402.31 3.36 
-72.03 -402.29 3.38 
-72.38 -402.29 3.39 
-72.84 -402.27 3.40 
-73.17 -402.27 3.41 
-73.59 -402.27 3.43 
-73.99 -402.25 3.44 
-74.39 -402.26 3.45 
-74.84 -402.25 3.47 
-76.10 -402.23 3.51 
-76.34 -402.24 3.52 
-76.97 -402.23 3.53 
-77.53 -402.23 3.55 
-78.60 -402.29 3.59 
-67.56 -398.58 3.44 
-67.98 -398.57 3.46 
-68.39 -398.53 3.48 
-64.05 -398.73 3.30 
-64.38 -398.72 3.31 
-64.77 -398.70 3.33 
-65.27 -398.67 3.35 
-68.76 -398.89 3.50 
-61.74 -399.14 3.09 
-61.83 -399.17 3.10 
-68.77 -399.28 3.50 
-68.79 -399.69 3.50 
-69.57 -399.65 3.54 
-62.50 -400.00 3.24 
-68.79 -400.06 3.50 
-68.81 -400.42 3.51 
-58.99 -400.99 3.12 
-59.20 -400.91 3.22 
-59.59 -400.94 3.06 
-60.10 -400.94 3.23 
-60.50 -400.74 3.09 
-60.82 -400.73 3.10 
-61.14 -400.74 3.11 
-61.82 -400.74 3.14 
-68.80 -400.64 3.51 
-68.82 -401.26 3.65 
-59.09 -401.65 3.05 
-68.82 -401.63 3.65 
-58.87 -402.25 3.34 
-59.12 -402.10 3.17 
-59.60 -402.24 3.24 
-60.03 -402.24 3.25 
-60.33 -402.23 3.26 
-60.85 -402.23 3.14 
-61.20 -402.23 3.16 
-68.83 -402.06 3.65 
-73.15 -402.21 3.72 
-73.66 -402.21 3.75 
-74.00 -402.20 3.76 
-74.34 -402.20 3.78 
-74.73 -402.20 3.80 
-75.78 -402.11 3.85 
-75.95 -402.17 3.86 
-76.41 -402.17 3.88 
-76.82 -402.17 3.90 
-77.18 -402.17 3.92 
-77.56 -402.17 3.94 
-77.98 -402.15 3.96 
-78.39 -402.14 3.98 
-78.90 -402.14 4.01 
-79.19 -402.15 4.02 
-80.11 -402.09 4.07 
-80.44 -402.11 4.08 
-80.74 -402.09 4.10 
-81.12 -402.10 4.12 
-81.53 -402.09 4.14 
-81.84 -402.13 4.15 
-82.26 -402.08 4.17 
-82.75 -402.06 4.20 
-83.22 -402.05 4.22 
-83.45 -402.09 4.23 
-58.94 -402.29 3.23 
-59.17 -402.27 3.24 
-59.43 -402.28 3.14 
-60.43 -402.26 3.13 
-62.49 -402.34 3.37 
-62.61 -402.33 3.26 
-68.95 -402.31 3.65 
-69.17 -402.30 3.66 
-69.59 -402.29 3.68 
-69.97 -402.28 3.70 
-70.35 -402.27 3.72 
-70.74 -402.28 3.74 
-71.20 -402.27 3.63 
-71.60 -402.26 3.65 
-72.00 -402.25 3.67 
-72.42 -402.24 3.69 
-72.77 -402.24 3.70 
-73.26 -402.23 3.73 
-67.98 -395.88 3.83 
-68.21 -395.89 3.84 
-68.70 -398.87 3.98 
-68.71 -399.25 3.97 
-68.73 -399.66 3.96 
-62.40 -399.96 3.67 
-68.75 -399.98 3.95 
-68.77 -400.43 3.94 
-58.65 -400.97 3.40 
-59.23 -400.92 3.65 
-59.44 -400.90 3.66 
-68.78 -400.82 3.93 
-68.79 -401.17 3.92 
-68.79 -401.61 4.04 
-58.81 -402.24 3.61 
-59.18 -402.22 3.63 
-59.60 -402.23 3.64 
-68.81 -402.03 4.03 
-69.24 -402.22 4.05 
-69.63 -402.22 4.08 
-69.99 -402.21 4.10 
-70.38 -402.21 4.13 
-70.72 -402.19 4.15 
-71.16 -402.19 4.19 
-71.59 -402.20 4.08 
-72.04 -402.21 4.06 
-72.40 -402.20 4.04 
-72.80 -402.19 4.08 
-73.17 -402.15 4.24 
-73.62 -402.14 4.22 
-73.92 -402.12 4.40 
-74.32 -402.18 4.10 
-74.80 -402.17 4.14 
-75.16 -402.17 4.16 
-75.56 -402.14 4.19 
-75.96 -402.13 4.21 
-76.38 -402.13 4.24 
-76.83 -402.12 4.27 
-77.19 -402.12 4.30 
-77.58 -402.13 4.32 
-77.98 -402.13 4.35 
-78.39 -402.12 4.38 
-78.89 -402.11 4.41 
-79.16 -402.09 4.43 
-79.51 -402.08 4.46 
-79.99 -402.07 4.49 
-80.44 -402.08 4.52 
-80.75 -402.06 4.54 
-81.04 -402.10 4.56 
-81.57 -402.04 4.60 
-82.00 -402.04 4.63 
-82.40 -402.05 4.66 
-82.92 -402.03 4.70 
-83.25 -402.01 4.72 
-58.61 -402.25 3.61 
-62.37 -402.28 3.72 
-68.93 -402.25 4.03 
-69.21 -402.24 4.05 
-69.58 -402.23 4.07 
-70.97 -402.30 3.89 
-71.21 -402.24 3.91 
-71.59 -402.24 3.93 
-71.85 -402.23 3.95 
-68.05 -395.81 4.23 
-68.63 -398.03 4.52 
-68.66 -398.43 4.50 
-68.69 -398.74 4.15 
-68.70 -399.09 4.46 
-62.55 -399.76 4.12 
-62.79 -399.79 4.12 
-63.07 -399.76 4.13 
-68.71 -399.67 4.42 
-62.38 -399.87 4.11 
-68.73 -400.03 4.40 
-68.75 -400.49 4.38 
-62.48 -401.01 4.30 
-62.85 -400.89 4.32 
-63.18 -400.73 4.34 
-63.45 -400.71 4.35 
-66.65 -401.02 4.48 
-68.76 -400.85 4.36 
-62.00 -401.13 4.28 
-64.58 -401.39 4.34 
-68.77 -401.27 4.33 
-68.77 -401.60 4.45 
-62.51 -402.01 4.21 
-68.81 -402.06 4.42 
-69.13 -402.17 4.43 
-69.56 -402.17 4.39 
-69.95 -402.16 4.45 
-70.29 -402.17 4.40 
-70.62 -402.16 4.42 
-71.34 -402.14 4.49 
-71.63 -402.16 4.51 
-71.96 -402.13 4.54 
-72.36 -402.12 4.58 
-72.74 -402.11 4.62 
-73.19 -402.09 4.66 
-73.57 -402.09 4.70 
-74.03 -402.09 4.57 
-74.37 -402.08 4.61 
-74.73 -402.07 4.64 
-75.08 -402.04 4.84 
-75.75 -402.08 4.55 
-76.01 -402.07 4.58 
-76.36 -402.06 4.61 
-76.72 -402.05 4.64 
-77.08 -402.04 4.67 
-77.54 -402.05 4.71 
-78.04 -402.05 4.75 
-78.41 -402.06 4.78 
-78.78 -402.02 4.82 
