# .PCD v0.7 - Point Cloud Data file format
VERSION 0.7
FIELDS x y z
SIZE 4 4 4
TYPE F F F
COUNT 1 1 1
WIDTH 243
HEIGHT 1
VIEWPOINT 0 0 0 1 0 0 0
POINTS 243
DATA ascii
-63.67 -371.69 4.78 
-67.23 -370.31 4.93 
-68.80 -367.41 5.04 
-69.74 -367.66 5.08 
-70.11 -367.68 5.09 
-63.95 -368.43 4.85 
-66.54 -369.95 4.92 
-66.85 -369.97 4.94 
-67.36 -370.44 4.95 
-63.51 -370.94 4.79 
-63.74 -371.04 4.79 
-64.05 -372.02 4.79 
-68.85 -367.40 5.06 
-69.64 -367.72 5.09 
-63.35 -370.80 4.68 
-63.00 -371.11 4.66 
-63.46 -372.00 4.66 
-63.71 -371.93 4.68 
-65.18 -372.16 4.73 
-58.60 -364.02 4.62 
-58.94 -363.94 4.64 
-60.61 -364.48 4.69 
-60.93 -364.58 4.70 
-59.84 -365.54 4.64 
-60.13 -365.72 4.65 
-60.17 -365.89 4.65 
-63.05 -368.39 4.70 
-64.05 -368.28 4.74 
-63.68 -368.49 4.72 
-65.03 -369.74 4.75 
-66.32 -369.66 4.80 
-64.55 -370.20 4.72 
-66.54 -370.11 4.80 
-66.91 -370.14 4.82 
-63.54 -371.83 4.65 
-65.26 -371.96 4.72 
-61.12 -364.41 4.70 
-68.43 -367.24 4.93 
-69.08 -367.24 4.96 
-62.91 -368.68 4.60 
-63.22 -368.58 4.61 
-63.50 -368.83 4.62 
-63.80 -368.97 4.62 
-63.95 -369.99 4.61 
-64.94 -369.74 4.65 
-63.99 -370.11 4.61 
-64.21 -370.35 4.61 
-64.60 -370.12 4.63 
-66.82 -370.24 4.72 
-64.23 -370.69 4.61 
-58.84 -363.73 4.54 
-59.15 -363.84 4.55 
-60.32 -363.71 4.59 
-59.47 -364.22 4.55 
-60.21 -364.12 4.58 
-60.74 -364.19 4.60 
-61.16 -364.16 4.62 
-62.95 -368.71 4.55 
-63.58 -368.88 4.57 
-64.40 -369.87 4.59 
-64.96 -369.78 4.61 
-63.76 -370.42 4.55 
-64.05 -370.54 4.56 
-63.09 -371.81 4.50 
-58.80 -363.56 4.49 
-59.15 -363.62 4.50 
-59.85 -363.94 4.52 
-59.51 -364.30 4.50 
-60.17 -364.16 4.53 
-60.51 -364.19 4.54 
-60.84 -364.24 4.55 
-62.72 -368.54 4.43 
-63.03 -368.42 4.44 
-64.63 -369.82 4.48 
-63.86 -370.16 4.44 
-63.81 -370.43 4.44 
-64.11 -370.59 4.45 
-63.16 -371.82 4.39 
-59.11 -363.55 4.37 
-59.81 -363.93 4.39 
-60.14 -364.03 4.40 
-60.49 -364.30 4.41 
-60.82 -364.24 4.43 
-59.00 -365.38 4.34 
-59.53 -365.23 4.36 
-64.59 -369.77 4.40 
-64.27 -370.15 4.38 
-63.69 -370.38 4.35 
-63.94 -371.02 4.35 
-58.75 -363.88 4.28 
-59.74 -363.83 4.32 
-60.40 -363.59 4.35 
-59.47 -364.08 4.31 
-60.12 -364.14 4.33 
-59.16 -364.47 4.29 
-63.02 -367.87 4.24 
-63.99 -369.29 4.25 
-63.67 -370.33 4.22 
-63.10 -371.01 4.19 
-63.39 -370.94 4.20 
-60.22 -363.22 4.22 
-60.48 -364.32 4.48 
-59.19 -366.32 4.39 
-60.50 -363.83 5.66 
-61.46 -364.25 5.68 
-62.24 -368.71 4.09 
-62.63 -368.77 4.10 
-64.36 -369.79 4.15 
-65.26 -369.79 4.19 
-65.54 -369.93 4.20 
-65.77 -370.33 4.20 
-63.78 -370.63 4.11 
-58.59 -364.07 4.03 
-59.26 -363.99 4.06 
-59.61 -364.05 4.07 
-59.95 -364.16 4.08 
-60.34 -364.20 4.10 
-58.99 -364.37 4.04 
-58.53 -365.51 4.27 
-58.90 -366.20 4.27 
-59.56 -366.05 4.30 
-59.24 -366.48 4.28 
-59.44 -363.67 5.51 
-59.73 -363.74 5.52 
-60.13 -363.77 5.53 
-61.19 -364.22 5.56 
-64.70 -369.60 4.20 
-64.96 -370.01 4.20 
-65.84 -369.96 4.24 
-65.88 -370.47 4.23 
-63.84 -371.25 4.14 
-63.87 -371.16 4.14 
-62.48 -371.73 4.08 
-63.60 -371.39 4.12 
-62.91 -371.92 4.09 
-59.20 -363.95 4.09 
-59.49 -363.95 4.10 
-59.70 -364.30 4.23 
-59.92 -364.47 4.10 
-61.90 -364.52 4.45 
-59.04 -365.31 4.06 
-61.55 -365.31 4.42 
-58.51 -365.46 4.30 
-58.75 -365.61 4.04 
-59.54 -365.75 4.33 
-60.21 -365.43 4.36 
-58.93 -366.50 4.30 
-59.26 -366.70 4.31 
-62.84 -369.15 4.41 
-64.77 -372.30 4.43 
-66.11 -368.36 5.29 
-60.09 -363.65 5.56 
-60.73 -363.93 5.57 
-60.46 -364.34 5.55 
-61.44 -364.52 5.58 
-62.23 -368.68 3.98 
-62.96 -368.80 4.00 
-58.60 -363.51 3.93 
-59.21 -363.95 3.94 
-59.56 -364.03 3.96 
-61.79 -364.01 4.31 
-58.94 -364.40 3.93 
-59.94 -364.28 3.96 
-60.28 -364.20 3.98 
-59.47 -365.49 4.19 
-61.10 -365.68 4.25 
-61.48 -365.50 4.27 
-59.43 -365.79 4.18 
-58.86 -366.31 4.15 
-60.13 -366.20 4.20 
-59.19 -366.73 4.16 
-62.78 -369.14 4.26 
-64.57 -372.31 4.28 
-64.88 -370.72 5.33 
-59.34 -363.45 5.39 
-59.95 -364.09 5.39 
-61.01 -364.10 5.43 
-61.36 -364.25 5.44 
-61.67 -364.29 5.45 
-62.29 -368.68 3.88 
-62.63 -368.57 3.89 
-63.43 -370.64 3.89 
-59.23 -363.96 3.84 
-59.79 -364.23 3.86 
-60.13 -364.18 3.87 
-60.41 -364.11 3.89 
-58.53 -366.01 4.04 
-58.92 -366.46 4.05 
-59.24 -366.31 4.06 
-62.88 -369.02 4.17 
-63.20 -368.99 4.18 
-65.26 -372.33 4.21 
-64.43 -369.93 5.24 
-65.02 -370.17 5.25 
-61.37 -363.59 5.37 
-61.06 -364.24 5.33 
-60.16 -364.84 4.01 
-59.05 -365.60 3.70 
-59.88 -365.30 3.99 
-58.63 -366.28 3.92 
-59.45 -366.13 3.96 
-64.50 -370.43 5.10 
-64.80 -370.63 5.11 
-58.93 -363.47 5.16 
-59.27 -363.55 5.17 
-59.66 -363.72 5.18 
-60.35 -363.70 5.20 
-61.07 -364.00 5.22 
-61.42 -364.14 5.23 
-60.06 -364.42 5.16 
-66.44 -368.20 5.28 
-63.42 -368.73 5.12 
-64.18 -368.77 5.15 
-59.23 -365.41 3.74 
-58.84 -366.21 3.72 
-62.41 -368.93 3.81 
-62.73 -368.94 3.82 
-64.52 -370.35 4.87 
-59.13 -363.37 4.94 
-59.47 -363.74 4.94 
-60.24 -363.76 4.96 
-60.22 -364.28 4.94 
-60.79 -364.01 4.97 
-61.31 -364.11 4.99 
-59.95 -364.38 4.93 
-63.54 -368.69 4.90 
-61.10 -365.24 3.91 
-59.07 -363.55 5.03 
-59.45 -363.66 5.04 
-59.79 -363.57 5.06 
-60.46 -363.84 5.07 
-60.91 -364.15 5.08 
-67.04 -370.26 4.86 
-60.99 -363.39 4.89 
-59.95 -363.65 4.85 
-60.33 -363.74 4.86 
-60.77 -363.93 4.87 
-60.30 -363.75 4.74 
-60.01 -364.11 4.72 
-60.74 -363.89 4.75 
-61.11 -364.03 4.76 
-61.38 -363.93 4.77 
-64.08 -370.51 4.59 
