# .PCD v0.7 - Point Cloud Data file format
VERSION 0.7
FIELDS x y z
SIZE 4 4 4
TYPE F F F
COUNT 1 1 1
WIDTH 2277
HEIGHT 1
VIEWPOINT 0 0 0 1 0 0 0
POINTS 2277
DATA ascii
-66.94 -105.71 2.66 
-77.77 -107.08 2.72 
-73.43 -106.42 2.62 
-72.87 -106.13 2.60 
-71.64 -106.05 2.60 
-71.12 -105.80 2.59 
-70.16 -105.61 2.59 
-66.94 -105.30 2.64 
-77.84 -106.68 2.70 
-73.30 -105.93 2.59 
-72.46 -105.90 2.59 
-72.16 -105.57 2.57 
-77.91 -106.29 2.68 
-77.98 -105.92 2.66 
-73.83 -105.04 2.98 
-75.13 -105.00 2.99 
-68.69 -128.92 2.20 
-68.33 -129.09 1.88 
-66.91 -128.39 1.88 
-68.21 -128.18 1.88 
-70.67 -126.60 2.17 
-66.95 -119.81 2.61 
-75.43 -120.25 2.62 
-75.63 -119.22 2.59 
-66.92 -117.68 2.54 
-66.99 -117.20 2.52 
-66.90 -116.80 2.51 
-75.79 -118.24 2.56 
-66.98 -116.25 2.49 
-75.96 -117.45 2.54 
-66.79 -115.70 2.48 
-66.46 -115.69 2.48 
-66.11 -115.69 2.49 
-65.87 -115.53 2.49 
-65.81 -115.02 2.47 
-76.11 -116.38 2.50 
-77.02 -116.11 2.51 
-76.60 -116.03 2.50 
-76.28 -115.96 2.49 
-77.30 -115.86 2.50 
-76.19 -115.93 2.79 
-66.88 -109.32 2.84 
-66.87 -108.77 2.82 
-66.80 -108.55 2.81 
-77.26 -109.55 2.84 
-68.72 -107.44 3.21 
-71.16 -107.51 3.18 
-68.92 -107.36 3.20 
-66.86 -106.95 3.23 
-74.29 -107.37 3.17 
-73.71 -107.03 3.13 
-77.70 -107.49 3.24 
-66.91 -105.83 3.15 
-73.99 -106.58 3.10 
-73.30 -105.44 3.01 
-72.55 -105.42 3.00 
-75.29 -105.24 3.01 
-75.42 -105.23 3.01 
-78.32 -104.97 3.07 
-66.82 -124.15 2.74 
-70.43 -123.55 2.71 
-70.66 -123.40 2.70 
-70.39 -123.40 2.70 
-68.12 -122.77 2.69 
-71.20 -123.04 2.69 
-70.95 -122.96 2.69 
-70.20 -122.83 2.68 
-72.00 -122.70 2.68 
-71.73 -122.87 2.69 
-71.50 -122.79 2.68 
-70.05 -122.22 2.66 
-70.00 -122.24 2.67 
-68.63 -122.18 2.67 
-67.01 -121.90 2.67 
-69.83 -121.92 2.66 
-75.07 -121.83 2.67 
-66.98 -120.85 2.64 
-67.04 -120.36 2.62 
-75.25 -121.30 2.66 
-74.49 -120.03 2.93 
-74.83 -118.88 2.89 
-65.99 -115.85 3.21 
-66.77 -115.84 3.19 
-66.26 -115.83 3.20 
-66.14 -115.83 3.20 
-65.84 -115.66 3.20 
-76.12 -116.56 3.21 
-65.86 -114.77 3.15 
-77.15 -116.27 3.21 
-76.93 -116.24 3.21 
-76.61 -116.17 3.20 
-76.30 -116.12 3.19 
-65.79 -114.30 3.13 
-65.64 -114.16 3.13 
-77.32 -115.98 3.20 
-65.64 -114.09 3.12 
-65.62 -113.54 3.09 
-77.44 -115.26 3.16 
-77.56 -114.59 3.13 
-77.71 -114.27 3.11 
-77.69 -113.87 3.09 
-66.77 -108.67 3.36 
-77.41 -109.65 3.40 
-73.27 -106.59 3.58 
-74.63 -106.63 3.59 
-74.41 -106.29 3.55 
-73.99 -105.71 3.49 
-72.14 -105.30 3.45 
-71.20 -105.31 3.46 
-72.96 -104.94 3.41 
-71.13 -104.81 3.41 
-72.34 -127.51 2.84 
-72.08 -126.44 2.80 
-71.38 -124.45 3.08 
-70.74 -124.07 3.07 
-69.36 -121.84 3.02 
-74.11 -121.94 2.99 
-67.00 -119.37 3.38 
-75.24 -120.39 3.42 
-75.47 -119.96 3.40 
-66.99 -118.32 3.32 
-75.64 -119.34 3.36 
-75.80 -118.36 3.31 
-67.00 -117.21 3.26 
-66.90 -116.66 3.23 
-75.96 -117.45 3.26 
-75.19 -117.37 3.59 
-76.37 -116.05 3.52 
-76.19 -116.04 3.52 
-75.43 -116.06 3.52 
-65.74 -113.21 3.73 
-77.68 -114.06 3.76 
-69.49 -108.30 3.79 
-71.99 -108.35 3.76 
-71.58 -108.04 3.73 
-71.63 -106.35 4.03 
-73.69 -106.46 4.04 
-75.10 -106.20 4.02 
-78.04 -106.23 4.11 
-73.57 -105.53 3.92 
-72.39 -105.23 3.88 
-70.96 -105.19 3.90 
-78.10 -105.83 4.07 
-73.84 -104.79 3.83 
-66.93 -123.88 3.62 
-66.94 -123.58 3.61 
-66.96 -121.03 3.47 
-74.52 -120.17 3.75 
-66.40 -116.03 3.92 
-66.19 -116.01 3.93 
-65.80 -115.94 3.93 
-65.83 -115.67 3.91 
-65.82 -114.95 3.86 
-76.99 -116.43 3.93 
-76.43 -116.32 3.91 
-65.82 -114.21 3.80 
-65.81 -113.53 3.75 
-77.56 -114.36 3.78 
-71.23 -108.43 4.30 
-72.65 -108.01 4.23 
-67.83 -126.87 3.78 
-72.42 -126.00 3.72 
-72.13 -125.61 3.69 
-70.22 -125.37 3.68 
-68.92 -124.78 3.65 
-67.60 -124.39 3.64 
-71.68 -124.62 3.64 
-70.86 -123.96 3.98 
-70.00 -122.91 3.94 
-70.83 -122.58 3.91 
-70.58 -122.49 3.91 
-69.49 -122.54 3.93 
-67.87 -121.46 3.90 
-75.64 -119.44 4.14 
-75.81 -118.01 4.03 
-71.67 -126.27 4.10 
-70.78 -126.17 4.11 
-76.00 -118.01 4.78 
-66.04 -116.22 4.67 
-76.36 -116.49 4.63 
-77.35 -116.28 4.63 
-75.84 -118.37 4.82 
-76.57 -116.44 5.34 
-76.14 -116.35 5.32 
-67.23 -106.56 0.22 
-67.09 -105.87 0.26 
-77.78 -112.73 0.52 
-67.00 -108.95 0.62 
-67.10 -106.81 0.70 
-67.07 -106.42 0.72 
-77.62 -107.69 0.72 
-67.04 -106.04 0.73 
-77.69 -107.29 0.73 
-77.75 -106.90 0.75 
-77.82 -106.54 0.76 
-77.87 -106.19 0.78 
-77.94 -105.86 0.79 
-78.03 -105.37 0.81 
-78.11 -104.90 0.83 
-73.67 -112.81 0.72 
-74.09 -110.60 0.81 
-66.94 -108.69 1.17 
-67.00 -108.37 1.17 
-66.96 -108.00 1.18 
-67.04 -107.63 1.19 
-75.60 -108.59 0.89 
-75.29 -108.59 0.89 
-74.89 -108.42 0.90 
-66.95 -107.45 1.19 
-67.10 -106.85 1.20 
-77.57 -108.17 1.22 
-67.05 -106.55 1.20 
-77.63 -107.71 1.23 
-67.08 -106.16 1.21 
-77.70 -107.32 1.23 
-77.76 -106.95 1.24 
-77.82 -106.57 1.25 
-77.89 -106.25 1.25 
-77.95 -105.89 1.26 
-78.04 -105.41 1.27 
-78.12 -104.93 1.28 
-67.15 -120.42 0.98 
-67.10 -119.29 1.00 
-75.53 -119.90 1.01 
-67.09 -118.05 1.02 
-67.00 -117.49 1.03 
-67.07 -116.97 1.03 
-75.83 -118.14 1.04 
-66.93 -116.70 1.04 
-75.97 -117.30 1.06 
-67.09 -115.72 1.05 
-66.11 -115.46 1.06 
-75.96 -116.92 1.06 
-66.81 -115.48 1.06 
-66.41 -115.46 1.06 
-66.03 -115.29 1.06 
-76.11 -116.55 1.07 
-65.96 -114.83 1.07 
-66.02 -114.43 1.08 
-77.29 -115.86 1.09 
-76.98 -115.84 1.09 
-76.55 -115.78 1.09 
-76.23 -115.77 1.08 
-65.96 -113.82 1.09 
-77.41 -115.28 1.10 
-65.80 -113.76 1.09 
-77.52 -114.68 1.11 
-77.71 -113.48 1.14 
-77.80 -112.82 1.15 
-67.03 -108.87 1.17 
-77.89 -106.28 1.73 
-77.96 -105.94 1.73 
-78.04 -105.45 1.73 
-78.13 -104.98 1.73 
-78.13 -104.69 1.73 
-66.60 -125.45 0.90 
-67.19 -125.20 0.90 
-66.96 -125.20 0.90 
-67.06 -121.22 0.97 
-75.36 -120.92 1.00 
-76.37 -115.82 1.33 
-77.72 -113.56 1.78 
-77.81 -112.82 1.77 
-67.02 -108.96 1.71 
-66.88 -108.85 1.71 
-66.94 -108.13 1.70 
-67.03 -107.68 1.70 
-66.99 -107.28 1.70 
-66.96 -106.86 1.70 
-77.10 -107.97 1.99 
-66.93 -106.47 1.69 
-77.63 -107.76 1.74 
-77.70 -107.37 1.74 
-77.76 -106.99 1.73 
-77.84 -106.63 1.73 
-78.07 -105.32 2.19 
-78.13 -105.01 2.19 
-77.71 -105.15 1.97 
-78.19 -104.71 2.18 
-67.10 -119.34 1.78 
-75.54 -120.02 1.80 
-67.01 -118.73 1.77 
-67.08 -118.14 1.77 
-75.69 -119.09 1.79 
-67.00 -117.53 1.76 
-67.07 -116.97 1.76 
-75.83 -118.22 1.79 
-66.99 -116.44 1.76 
-75.98 -117.40 1.78 
-67.06 -115.93 1.75 
-66.40 -115.58 1.76 
-66.11 -115.53 1.76 
-66.80 -115.58 1.75 
-66.03 -115.35 1.76 
-76.11 -116.61 1.78 
-65.97 -114.83 1.75 
-66.05 -114.37 1.75 
-77.31 -115.99 1.79 
-77.04 -115.98 1.79 
-76.52 -115.89 1.91 
-76.24 -115.88 1.78 
-75.95 -115.79 2.05 
-65.95 -114.08 1.75 
-77.42 -115.35 1.79 
-76.80 -115.36 2.05 
-66.00 -113.72 1.75 
-65.92 -113.35 1.75 
-77.53 -114.73 1.78 
-77.63 -114.16 1.78 
-67.00 -109.10 2.26 
-66.94 -108.79 2.25 
-66.99 -108.49 2.24 
-66.94 -108.19 2.24 
-66.98 -107.92 2.23 
-77.42 -109.06 2.29 
-67.00 -107.33 2.21 
-71.14 -107.43 2.17 
-69.52 -107.28 2.18 
-68.68 -107.36 2.19 
-66.93 -107.07 2.21 
-70.61 -107.06 2.16 
-66.94 -106.45 2.19 
-77.64 -107.77 2.25 
-77.71 -107.41 2.24 
-77.77 -107.03 2.23 
-77.83 -106.58 2.22 
-77.90 -106.32 2.22 
-72.92 -105.29 2.55 
-77.96 -105.97 2.21 
-73.04 -105.25 2.55 
-72.65 -104.99 2.54 
-72.34 -104.87 2.53 
-78.02 -105.64 2.20 
-77.62 -105.59 2.46 
-77.73 -105.02 2.44 
-67.51 -126.95 1.83 
-72.37 -127.05 1.83 
-72.10 -127.00 1.83 
-71.60 -126.42 1.83 
-70.20 -125.97 1.82 
-71.84 -126.05 1.82 
-69.98 -125.58 1.82 
-67.28 -124.70 1.81 
-69.71 -124.88 1.81 
-70.87 -123.45 1.80 
-71.66 -123.10 1.80 
-71.07 -122.52 1.79 
-67.17 -121.96 1.79 
-71.43 -122.43 1.79 
-75.19 -122.00 1.81 
-67.13 -120.60 1.78 
-74.58 -121.07 2.08 
-75.37 -120.94 1.80 
-74.91 -119.32 2.07 
-75.22 -117.82 2.06 
-65.92 -114.24 2.43 
-77.43 -115.42 2.48 
-65.94 -113.68 2.41 
-77.54 -114.79 2.46 
-77.69 -114.47 2.45 
-77.83 -114.14 2.45 
-77.82 -112.96 2.41 
-71.03 -108.85 2.75 
-66.97 -108.00 2.75 
-76.93 -109.28 2.57 
-66.92 -107.70 2.74 
-66.94 -107.30 2.72 
-72.02 -107.95 2.70 
-77.11 -108.10 2.53 
-71.61 -107.20 2.65 
-66.92 -106.53 2.68 
-77.66 -107.88 2.77 
-73.36 -107.10 2.65 
-73.09 -107.20 2.66 
-71.50 -106.68 2.63 
-71.15 -106.81 2.64 
-70.36 -106.55 2.63 
-69.08 -106.43 2.63 
-77.71 -107.38 2.75 
-73.49 -106.70 2.63 
-71.93 -106.63 2.62 
-70.69 -106.34 2.61 
-70.27 -106.11 2.60 
-69.45 -106.06 2.61 
-69.28 -106.16 2.62 
-68.92 -106.13 2.62 
-77.79 -107.11 2.74 
-73.89 -106.29 2.62 
-73.70 -106.41 2.62 
-72.94 -106.39 2.61 
-72.52 -106.11 2.60 
-77.86 -106.75 2.72 
-72.66 -106.04 2.59 
-77.92 -106.39 2.70 
-70.98 -104.93 2.97 
-78.09 -105.39 2.66 
-78.15 -105.07 2.64 
-78.21 -104.76 2.63 
-66.35 -129.00 1.85 
-68.91 -129.13 2.15 
-66.14 -128.75 1.85 
-67.03 -128.43 1.84 
-66.77 -128.46 1.84 
-68.28 -128.37 1.84 
-67.22 -125.19 2.14 
-66.95 -125.13 2.14 
-67.08 -119.53 2.57 
-75.54 -120.03 2.59 
-67.00 -118.89 2.55 
-67.06 -118.32 2.53 
-75.70 -119.13 2.57 
-66.98 -117.71 2.51 
-67.05 -117.17 2.50 
-75.84 -118.24 2.54 
-66.97 -116.62 2.48 
-75.84 -117.83 2.53 
-75.98 -117.45 2.52 
-66.79 -115.70 2.46 
-66.38 -115.70 2.46 
-66.19 -115.65 2.46 
-66.00 -115.51 2.46 
-76.12 -116.70 2.50 
-77.15 -116.12 2.49 
-77.03 -116.10 2.49 
-76.73 -116.04 2.49 
-76.30 -115.97 2.48 
-77.32 -116.04 2.49 
-76.90 -116.05 2.49 
-76.58 -116.00 2.48 
-76.25 -115.96 2.48 
-66.99 -109.18 2.81 
-66.93 -108.86 2.80 
-66.98 -108.58 2.78 
-68.52 -107.54 3.21 
-70.84 -107.56 3.18 
-69.06 -107.46 3.19 
-68.75 -107.41 3.19 
-69.38 -106.03 3.08 
-68.87 -106.04 3.09 
-74.09 -106.69 3.12 
-72.92 -106.24 3.07 
-73.19 -105.95 3.05 
-72.94 -105.76 3.03 
-73.62 -105.70 3.03 
-72.27 -105.32 3.00 
-78.06 -105.79 3.15 
-73.97 -105.12 2.99 
-75.30 -105.22 3.02 
-69.15 -129.21 2.15 
-69.48 -125.07 2.72 
-69.14 -125.16 2.73 
-66.87 -124.23 2.71 
-67.77 -123.45 2.68 
-70.41 -123.50 2.67 
-70.93 -122.94 2.66 
-70.71 -122.82 2.65 
-68.09 -122.68 2.66 
-71.68 -122.86 2.66 
-71.43 -122.84 2.65 
-71.17 -122.82 2.65 
-67.00 -121.79 2.64 
-70.70 -122.15 2.63 
-70.32 -122.22 2.63 
-75.20 -122.09 2.65 
-67.14 -120.63 2.60 
-75.36 -120.85 2.62 
-74.69 -120.05 2.90 
-74.91 -119.67 2.88 
-75.22 -118.07 2.83 
-66.80 -115.84 3.16 
-66.40 -115.84 3.17 
-66.17 -115.80 3.17 
-76.13 -116.74 3.21 
-65.98 -114.79 3.12 
-77.14 -116.24 3.20 
-76.92 -116.19 3.20 
-76.58 -116.15 3.19 
-76.29 -116.10 3.18 
-65.91 -114.35 3.10 
-77.34 -116.15 3.20 
-65.78 -114.03 3.09 
-77.45 -115.51 3.17 
-77.64 -114.76 3.13 
-77.87 -114.40 3.12 
-77.85 -113.11 3.05 
-66.97 -108.03 3.28 
-74.78 -106.77 3.62 
-74.50 -106.50 3.59 
-77.96 -106.61 3.70 
-74.40 -106.25 3.56 
-66.45 -104.78 3.53 
-78.03 -106.24 3.67 
-74.15 -105.75 3.51 
-72.54 -105.57 3.47 
-72.92 -105.24 3.44 
-71.12 -104.94 3.41 
-71.81 -127.62 2.80 
-72.11 -127.43 2.80 
-67.12 -125.92 2.76 
-66.83 -125.95 2.76 
-71.12 -126.30 3.10 
-69.14 -124.62 3.06 
-69.39 -124.57 3.06 
-71.72 -124.09 3.03 
-71.16 -123.92 3.03 
-69.85 -123.53 3.02 
-70.25 -122.79 3.00 
-68.95 -122.55 3.00 
-68.69 -122.49 3.01 
-74.32 -122.05 2.96 
-75.72 -119.26 3.34 
-75.49 -117.16 3.55 
-75.99 -117.13 3.23 
-76.60 -116.10 3.50 
-75.66 -116.06 3.49 
-76.82 -115.94 3.49 
-75.96 -115.96 3.49 
-77.76 -113.80 3.74 
-72.17 -108.23 3.74 
-72.33 -107.92 3.71 
-73.70 -106.41 4.04 
-71.23 -106.26 4.03 
-73.90 -106.30 4.03 
-72.14 -105.19 3.88 
-74.35 -104.89 3.86 
-70.66 -123.73 3.55 
-67.04 -121.57 3.46 
-75.21 -122.16 3.49 
-74.89 -120.18 3.72 
-74.68 -120.17 3.72 
-75.21 -118.52 3.63 
-66.64 -116.02 3.88 
-66.34 -116.02 3.89 
-76.14 -116.86 3.94 
-77.25 -116.32 3.92 
-76.85 -116.35 3.91 
-76.29 -116.25 3.89 
-77.46 -115.61 3.87 
-65.87 -113.71 3.73 
-77.65 -114.11 3.76 
-72.78 -107.95 4.23 
-73.84 -107.56 4.19 
-71.35 -107.32 4.15 
-77.77 -107.63 4.31 
-67.31 -126.88 3.74 
-72.14 -125.95 3.68 
-69.98 -125.77 3.67 
-67.64 -124.25 3.60 
-69.52 -122.66 3.89 
-70.87 -122.64 3.87 
-75.39 -120.61 4.21 
-75.56 -120.26 4.19 
-75.71 -118.92 4.09 
-75.86 -118.45 4.05 
-76.00 -117.63 3.99 
-77.90 -113.21 4.35 
-71.43 -126.33 4.07 
-76.53 -116.47 4.63 
-77.60 -115.16 4.53 
-67.04 -124.73 4.54 
-70.61 -124.72 4.51 
-77.95 -113.69 5.05 
-76.81 -116.72 5.39 
-67.00 -104.91 0.34 
-77.84 -113.49 0.52 
-77.86 -112.69 0.55 
-78.00 -112.44 0.56 
-77.31 -109.39 0.67 
-77.63 -107.75 0.73 
-77.73 -107.30 0.75 
-77.78 -106.93 0.76 
-77.85 -106.60 0.78 
-67.13 -105.03 0.79 
-77.90 -106.27 0.79 
-77.99 -105.82 0.81 
-78.07 -105.36 0.83 
-78.15 -104.94 0.84 
-74.57 -119.59 0.50 
-74.79 -118.93 0.52 
-73.29 -113.99 0.70 
-73.54 -112.87 0.74 
-73.61 -112.42 0.76 
-74.50 -108.69 0.90 
-74.68 -108.48 0.91 
-77.61 -108.01 1.25 
-76.96 -107.94 0.94 
-77.67 -107.68 1.25 
-77.74 -107.32 1.26 
-77.80 -106.98 1.27 
-77.86 -106.64 1.27 
-67.14 -105.04 1.24 
-77.95 -106.17 1.28 
-78.03 -105.70 1.29 
-78.08 -105.41 1.30 
-77.51 -105.12 1.05 
-78.16 -104.98 1.30 
-67.06 -120.29 1.02 
-67.13 -119.50 1.03 
-67.04 -118.76 1.04 
-75.59 -119.63 1.06 
-67.11 -118.05 1.05 
-67.03 -117.29 1.06 
-75.87 -118.05 1.08 
-67.18 -116.63 1.07 
-76.00 -117.33 1.09 
-67.10 -115.97 1.08 
-67.15 -115.45 1.09 
-66.89 -115.42 1.09 
-66.42 -115.43 1.09 
-66.10 -115.40 1.09 
-76.11 -116.44 1.11 
-66.02 -114.91 1.10 
-76.23 -115.94 1.12 
-77.28 -115.85 1.13 
-76.96 -115.82 1.12 
-76.52 -115.75 1.12 
-77.41 -115.43 1.14 
-77.52 -114.84 1.14 
-77.67 -113.50 1.17 
-77.79 -113.24 1.17 
-77.87 -112.75 1.18 
-77.96 -112.25 1.19 
-77.52 -108.88 1.23 
-77.09 -107.53 1.48 
-67.03 -105.53 1.70 
-78.04 -105.75 1.77 
-78.05 -105.52 1.77 
-77.52 -105.19 1.52 
-78.17 -105.02 1.77 
-67.06 -125.15 0.95 
-67.15 -121.13 1.01 
-75.29 -121.33 1.03 
-74.53 -119.85 1.30 
-74.80 -118.99 1.31 
-76.47 -115.70 1.37 
-76.76 -114.70 1.38 
-77.89 -112.84 1.82 
-77.98 -112.36 1.81 
-76.87 -108.75 2.02 
-77.56 -108.48 1.78 
-77.62 -108.08 1.78 
-77.69 -107.74 1.77 
-77.74 -107.36 1.77 
-77.81 -107.03 1.77 
-77.87 -106.70 1.77 
-66.99 -104.94 2.15 
-77.94 -106.22 1.77 
-77.54 -105.65 2.00 
-67.06 -120.36 1.82 
-67.13 -119.57 1.82 
-75.45 -120.46 1.85 
-67.04 -118.81 1.81 
-75.60 -119.70 1.84 
-67.11 -118.14 1.80 
-75.74 -118.88 1.84 
-67.04 -117.35 1.80 
-75.88 -118.13 1.83 
-67.18 -116.73 1.79 
-76.01 -117.40 1.83 
-67.11 -116.03 1.79 
-76.13 -116.68 1.82 
-67.14 -115.54 1.78 
-66.83 -115.54 1.78 
-66.41 -115.55 1.79 
-66.10 -115.48 1.79 
-66.02 -114.99 1.78 
-76.24 -116.00 1.82 
-75.51 -115.85 2.08 
-66.07 -114.55 1.78 
-77.30 -115.99 1.83 
-76.98 -115.93 1.83 
-76.54 -115.86 1.82 
-75.98 -115.84 2.08 
-77.42 -115.49 1.83 
-77.47 -115.07 1.83 
-76.77 -115.08 2.08 
-77.63 -114.37 1.82 
-77.72 -113.84 1.82 
-77.81 -113.34 1.82 
-73.22 -108.17 2.24 
-71.85 -108.21 2.23 
-69.49 -107.21 2.20 
-77.63 -108.12 2.31 
-71.23 -107.34 2.20 
-69.38 -106.84 2.19 
-77.69 -107.75 2.30 
-69.09 -106.55 2.18 
-77.76 -107.41 2.29 
-67.00 -105.74 2.18 
-77.81 -107.05 2.28 
-66.97 -105.33 2.17 
-77.87 -106.65 2.27 
-77.96 -106.24 2.26 
-78.05 -105.78 2.25 
-77.56 -105.78 2.49 
-78.10 -105.48 2.24 
-78.18 -105.05 2.24 
-67.55 -127.07 1.88 
-70.72 -126.43 1.87 
-72.13 -126.44 1.88 
-71.62 -126.50 1.88 
-70.50 -126.25 1.87 
-67.25 -124.64 1.86 
-70.00 -124.70 1.86 
-67.41 -124.65 1.86 
-72.16 -124.90 1.86 
-69.19 -124.25 1.85 
-72.64 -124.14 1.86 
-72.42 -124.17 1.86 
-71.90 -124.05 1.85 
-70.36 -123.76 1.85 
-71.58 -123.04 1.84 
-68.76 -122.78 1.84 
-71.33 -122.48 1.84 
-68.55 -122.26 1.83 
-68.30 -122.30 1.84 
-67.15 -121.20 1.83 
-75.14 -121.94 1.86 
-75.30 -121.47 1.85 
-74.50 -121.01 2.12 
-74.79 -119.57 2.11 
-75.04 -118.26 2.10 
-66.06 -114.69 2.46 
-76.48 -115.90 2.08 
-77.54 -114.97 2.52 
-77.82 -114.33 2.50 
-77.67 -114.49 2.50 
-77.89 -113.70 2.48 
-77.77 -113.03 2.46 
-78.06 -112.70 2.46 
-77.90 -112.89 2.46 
-76.89 -108.90 2.59 
-72.07 -107.73 2.72 
-69.13 -107.50 2.71 
-68.89 -107.19 2.70 
-68.93 -106.79 2.67 
-68.80 -106.79 2.67 
-77.71 -107.84 2.83 
-73.38 -107.16 2.70 
-71.68 -107.06 2.68 
-67.03 -106.23 2.67 
-77.77 -107.47 2.81 
-70.30 -106.33 2.64 
-69.96 -106.16 2.63 
-69.48 -105.97 2.62 
-67.00 -105.81 2.65 
-77.84 -107.15 2.80 
-73.05 -106.37 2.65 
-72.27 -106.23 2.63 
-69.56 -105.88 2.62 
-66.96 -105.39 2.63 
-77.96 -106.48 2.77 
-74.07 -106.02 2.64 
-73.66 -106.13 2.64 
-73.30 -106.03 2.63 
-72.80 -106.00 2.63 
-72.51 -105.73 2.61 
-66.98 -104.99 2.61 
-78.02 -106.18 2.75 
-73.60 -105.66 2.62 
-72.23 -105.51 2.59 
-72.35 -104.93 3.00 
-78.12 -105.57 2.72 
-73.30 -104.79 2.91 
-78.20 -105.11 2.70 
-78.28 -104.70 2.69 
-68.59 -129.32 1.90 
-66.47 -128.71 1.90 
-66.23 -128.68 1.90 
-67.14 -128.61 1.89 
-68.84 -128.16 2.19 
-69.21 -127.64 2.19 
-71.45 -126.38 2.17 
-70.67 -125.66 2.17 
-67.57 -125.38 2.18 
-67.51 -125.38 2.18 
-66.73 -125.19 2.19 
-70.53 -124.80 2.16 
-67.11 -119.79 2.61 
-67.02 -119.06 2.59 
-75.42 -120.17 2.65 
-75.61 -119.73 2.63 
-67.09 -118.35 2.57 
-75.75 -118.94 2.61 
-67.08 -117.45 2.54 
-75.89 -118.16 2.59 
-76.02 -117.45 2.57 
-66.40 -115.66 2.49 
-66.09 -115.63 2.49 
-76.17 -116.99 2.55 
-66.72 -115.65 2.49 
-66.00 -115.18 2.48 
-77.13 -116.09 2.54 
-76.92 -116.06 2.54 
-76.53 -116.00 2.67 
-76.10 -115.99 2.67 
-75.52 -116.07 2.81 
-77.32 -116.08 2.55 
-77.44 -115.57 2.53 
-68.65 -107.75 3.24 
-77.62 -108.72 2.87 
-70.23 -107.36 3.19 
-69.32 -107.21 3.19 
-68.86 -107.41 3.21 
-70.38 -107.30 3.19 
-74.33 -106.97 3.19 
-74.04 -106.96 3.18 
-68.79 -105.97 3.10 
-77.92 -106.90 3.29 
-74.15 -106.68 3.16 
-69.07 -105.77 3.08 
-66.99 -105.25 3.08 
-66.94 -104.96 3.06 
-74.43 -105.67 3.09 
-73.31 -105.41 3.05 
-71.32 -105.10 3.01 
-70.00 -105.05 3.01 
-78.92 -105.20 3.21 
-78.34 -104.90 3.16 
-67.26 -124.71 2.77 
-67.05 -124.38 2.76 
-66.83 -124.15 2.75 
-67.97 -123.18 2.72 
-70.44 -123.43 2.72 
-71.38 -123.21 2.71 
-71.08 -122.93 2.70 
-68.27 -122.68 2.70 
-72.11 -122.72 2.70 
-71.65 -122.88 2.70 
-71.47 -122.81 2.70 
-69.06 -122.36 2.69 
-68.57 -122.16 2.68 
-70.12 -122.26 2.68 
-69.38 -121.93 2.67 
-68.87 -121.88 2.67 
-75.14 -122.32 2.71 
-67.05 -120.54 2.64 
-75.30 -121.37 2.68 
-74.69 -119.96 2.93 
-75.05 -118.54 2.89 
-67.13 -115.81 3.19 
-66.51 -115.78 3.19 
-66.10 -115.80 3.20 
-66.05 -114.83 3.15 
-77.22 -116.24 3.26 
-76.85 -116.20 3.25 
-77.46 -115.67 3.24 
-77.56 -115.07 3.21 
-77.66 -114.50 3.18 
-77.92 -113.87 3.15 
-77.78 -114.10 3.16 
-77.85 -113.03 3.10 
-78.10 -112.88 3.10 
-77.69 -108.99 3.44 
-77.73 -107.91 3.36 
-69.39 -106.73 3.64 
-77.80 -107.59 3.34 
-74.82 -106.47 3.65 
-75.23 -106.32 3.64 
-74.65 -106.25 3.62 
-74.53 -106.22 3.61 
-72.91 -105.13 3.47 
-70.59 -104.88 3.44 
-78.22 -105.43 3.68 
-73.53 -104.87 3.46 
-72.46 -127.53 2.86 
-67.34 -126.44 2.82 
-72.03 -126.49 2.82 
-70.85 -124.22 3.08 
-70.47 -124.15 3.08 
-71.69 -124.09 3.07 
-68.86 -122.84 3.05 
-70.27 -122.38 3.03 
-69.49 -122.27 3.03 
-70.06 -121.95 3.01 
-74.27 -121.96 3.00 
-75.45 -120.37 3.45 
-75.63 -119.86 3.43 
-67.14 -118.42 3.33 
-67.03 -117.58 3.28 
-75.91 -118.31 3.35 
-76.02 -117.20 3.29 
-76.48 -116.12 3.54 
-76.11 -116.05 3.54 
-75.74 -115.98 3.53 
-76.81 -115.57 3.52 
-77.64 -108.82 3.98 
-71.71 -107.98 3.76 
-77.70 -108.40 3.94 
-66.89 -105.24 4.01 
-74.68 -106.34 4.11 
-71.06 -105.11 3.91 
-72.50 -105.24 3.93 
-71.07 -124.34 3.64 
-67.15 -123.84 3.63 
-66.92 -123.55 3.61 
-67.13 -121.58 3.50 
-75.32 -121.58 3.52 
-74.79 -120.29 3.77 
-75.05 -118.97 3.70 
-76.17 -116.95 4.00 
-77.27 -116.36 3.99 
-76.83 -116.33 3.97 
-76.36 -116.27 3.96 
-77.47 -115.74 3.94 
-73.50 -107.51 4.23 
-73.77 -107.45 4.23 
-77.91 -107.33 4.36 
-75.29 -106.49 4.15 
-78.07 -106.31 4.25 
-78.14 -106.12 4.23 
-67.89 -126.84 3.78 
-67.76 -125.76 3.73 
-69.23 -124.55 3.65 
-67.59 -124.32 3.65 
-68.52 -122.09 3.91 
-67.80 -121.46 3.89 
-75.92 -118.39 4.11 
-76.04 -117.31 4.03 
-77.86 -113.44 4.44 
-76.53 -116.48 4.70 
-76.76 -116.50 4.71 
-77.62 -115.36 4.62 
-77.76 -114.96 4.59 
-67.55 -124.75 4.58 
-68.00 -123.54 4.48 
-77.88 -114.48 5.23 
-78.01 -113.39 5.10 
-67.18 -105.80 0.29 
-67.05 -105.36 0.32 
-67.07 -104.82 0.35 
-77.78 -112.77 0.52 
-78.05 -112.41 0.54 
-77.91 -112.63 0.53 
-77.48 -109.11 0.66 
-77.62 -108.38 0.69 
-67.22 -107.03 0.71 
-77.63 -107.91 0.71 
-67.17 -106.60 0.73 
-77.71 -107.62 0.72 
-67.19 -106.32 0.74 
-77.76 -107.29 0.73 
-67.16 -105.73 0.76 
-77.82 -106.96 0.75 
-77.90 -106.50 0.77 
-67.17 -104.83 0.80 
-77.98 -106.04 0.78 
-67.08 -104.74 0.80 
-78.03 -105.77 0.80 
-78.11 -105.34 0.81 
-78.16 -105.03 0.82 
-73.30 -114.21 0.68 
-73.55 -112.74 0.73 
-73.72 -112.48 0.74 
-73.94 -110.89 0.80 
-74.71 -108.42 0.90 
-74.50 -108.56 0.89 
-76.96 -108.38 0.91 
-77.64 -107.94 1.24 
-77.72 -107.66 1.25 
-77.77 -107.31 1.26 
-67.15 -105.86 1.23 
-77.83 -107.00 1.26 
-67.20 -105.47 1.23 
-77.91 -106.53 1.27 
-67.17 -104.88 1.24 
-78.00 -106.10 1.28 
-78.04 -105.80 1.28 
-78.12 -105.38 1.29 
-78.20 -104.98 1.30 
-77.61 -105.05 1.04 
-67.26 -120.06 1.01 
-67.17 -119.01 1.03 
-67.24 -118.06 1.04 
-75.88 -118.13 1.06 
-67.18 -116.89 1.06 
-75.98 -117.36 1.08 
-76.11 -116.80 1.09 
-76.21 -116.19 1.10 
-77.33 -115.74 1.11 
-76.92 -115.81 1.11 
-76.58 -115.74 1.11 
-77.50 -115.09 1.13 
-77.82 -112.96 1.16 
-77.93 -112.69 1.17 
-78.00 -112.20 1.18 
-77.60 -108.92 1.23 
-77.66 -108.55 1.23 
-76.98 -108.53 1.46 
-77.07 -107.88 1.47 
-67.05 -106.50 1.70 
-67.09 -106.14 1.70 
-67.04 -105.75 1.70 
-67.08 -105.41 1.69 
-77.36 -106.39 1.49 
-67.03 -105.05 1.69 
-67.07 -104.72 1.69 
-77.44 -105.75 1.50 
-78.16 -105.29 1.77 
-78.21 -105.02 1.77 
-67.19 -125.12 0.93 
-67.19 -121.17 0.99 
-74.31 -121.32 1.26 
-75.36 -121.07 1.02 
-74.53 -120.43 1.27 
-75.39 -116.35 1.33 
-76.46 -115.86 1.34 
-76.99 -114.15 1.37 
-77.94 -112.75 1.81 
-78.02 -112.29 1.81 
-67.10 -109.05 1.72 
-67.15 -108.56 1.72 
-67.09 -108.09 1.71 
-67.13 -107.66 1.71 
-77.48 -109.11 1.78 
-67.06 -107.34 1.71 
-77.61 -108.39 1.78 
-76.99 -108.63 2.01 
-67.10 -106.94 1.70 
-77.66 -108.03 1.78 
-77.72 -107.70 1.78 
-77.79 -107.38 1.78 
-77.84 -107.04 1.78 
-77.92 -106.58 1.78 
-67.02 -105.16 2.15 
-78.01 -106.14 1.78 
-77.47 -105.95 2.00 
-67.06 -104.83 2.14 
-78.06 -105.86 1.78 
-78.11 -105.57 1.77 
-77.73 -104.91 1.99 
-67.27 -120.09 1.80 
-67.18 -119.08 1.80 
-75.47 -120.03 1.83 
-75.63 -119.64 1.83 
-67.24 -118.17 1.79 
-75.77 -118.90 1.82 
-67.17 -117.16 1.78 
-75.89 -118.21 1.82 
-76.01 -117.54 1.82 
-76.13 -116.91 1.81 
-66.26 -115.55 1.77 
-76.23 -116.27 1.81 
-77.34 -115.83 1.82 
-76.90 -115.91 1.82 
-76.50 -115.85 1.81 
-77.52 -115.17 1.82 
-77.60 -114.65 1.82 
-76.83 -114.59 2.06 
-77.69 -114.16 1.82 
-76.98 -114.25 2.06 
-77.78 -113.68 1.81 
-77.86 -113.19 1.81 
-67.12 -108.80 2.26 
-67.06 -108.32 2.24 
-72.60 -108.47 2.24 
-67.11 -107.86 2.23 
-72.40 -108.30 2.23 
-72.10 -108.39 2.23 
-67.05 -107.44 2.22 
-77.61 -108.41 2.33 
-70.27 -107.49 2.20 
-67.09 -107.03 2.20 
-77.68 -108.07 2.32 
-71.43 -107.31 2.20 
-67.04 -106.63 2.19 
-77.73 -107.71 2.31 
-69.24 -106.56 2.17 
-67.08 -106.24 2.18 
-77.79 -107.40 2.30 
-73.04 -106.63 2.19 
-67.03 -105.87 2.17 
-77.85 -107.08 2.30 
-67.07 -105.52 2.16 
-77.93 -106.62 2.29 
-67.06 -104.88 2.59 
-78.01 -106.17 2.28 
-77.50 -106.27 2.51 
-78.06 -105.88 2.27 
-77.58 -105.74 2.49 
-71.21 -104.76 2.55 
-78.14 -105.46 2.26 
-77.67 -105.42 2.49 
-78.22 -105.05 2.25 
-77.76 -105.03 2.48 
-74.93 -104.69 2.60 
-67.49 -127.14 1.86 
-67.75 -126.71 1.86 
-71.80 -126.52 1.86 
-69.84 -125.62 1.85 
-67.64 -124.52 1.84 
-67.36 -124.60 1.84 
-72.31 -124.85 1.85 
-70.14 -124.68 1.84 
-69.26 -124.39 1.84 
-72.57 -124.14 1.84 
-72.06 -124.12 1.84 
-70.42 -123.78 1.83 
-71.76 -123.14 1.83 
-69.96 -122.82 1.82 
-69.69 -122.68 1.82 
-68.71 -122.71 1.82 
-71.23 -122.65 1.82 
-69.59 -122.51 1.82 
-68.73 -122.36 1.82 
-68.37 -122.37 1.82 
-71.46 -122.37 1.82 
-67.20 -121.22 1.81 
-75.22 -121.97 1.84 
-75.38 -121.24 1.84 
-74.53 -121.13 2.10 
-74.67 -119.89 2.09 
-74.81 -119.31 2.09 
-75.00 -118.75 2.09 
-77.62 -114.71 2.51 
-77.83 -114.34 2.50 
-77.88 -113.24 2.47 
-78.13 -112.70 2.46 
-77.96 -112.77 2.46 
-67.05 -108.48 2.78 
-67.10 -107.97 2.75 
-76.90 -109.05 2.59 
-72.90 -108.31 2.76 
-72.25 -108.20 2.75 
-67.04 -107.55 2.73 
-70.57 -107.72 2.71 
-67.09 -107.13 2.70 
-68.96 -107.10 2.68 
-67.03 -106.72 2.68 
-77.76 -107.82 2.85 
-73.50 -107.05 2.70 
-72.16 -106.89 2.67 
-67.08 -106.32 2.66 
-77.81 -107.47 2.83 
-73.93 -106.82 2.69 
-72.61 -106.85 2.68 
-70.41 -106.29 2.63 
-69.38 -106.32 2.64 
-69.00 -106.05 2.62 
-67.02 -105.93 2.64 
-77.93 -106.85 2.81 
-77.41 -106.75 2.52 
-74.16 -106.57 2.69 
-71.96 -106.17 2.63 
-71.13 -105.89 2.61 
-70.44 -105.91 2.61 
-69.83 -105.90 2.61 
-67.07 -105.58 2.62 
-73.50 -105.95 2.64 
-73.15 -106.08 2.64 
-72.49 -105.76 2.62 
-71.95 -105.83 2.61 
-71.18 -105.69 2.60 
-70.28 -105.70 2.60 
-67.02 -105.20 2.60 
-78.04 -106.25 2.78 
-72.61 -105.62 2.61 
-78.11 -105.81 2.76 
-78.19 -105.40 2.75 
-78.27 -104.99 2.73 
-68.82 -129.59 1.88 
-68.38 -128.94 2.18 
-68.81 -128.86 1.87 
-66.72 -128.64 1.87 
-68.52 -128.27 2.17 
-70.36 -127.74 2.16 
-70.13 -126.95 2.16 
-70.77 -126.47 2.15 
-67.42 -125.37 2.16 
-67.16 -119.37 2.58 
-75.49 -120.12 2.64 
-75.64 -119.67 2.62 
-67.23 -118.40 2.55 
-75.78 -118.93 2.60 
-67.18 -117.19 2.52 
-75.89 -118.22 2.58 
-76.01 -117.50 2.56 
-67.22 -116.45 2.49 
-76.17 -117.13 2.55 
-66.17 -115.68 2.48 
-77.30 -116.09 2.54 
-76.95 -116.03 2.54 
-76.49 -115.97 2.59 
-76.13 -116.06 2.66 
-77.44 -115.76 2.54 
-76.70 -115.58 2.79 
-77.41 -115.48 2.53 
-77.53 -115.21 2.52 
-76.86 -114.81 2.77 
-76.98 -114.22 2.75 
-67.10 -109.19 2.81 
-67.13 -108.80 2.79 
-77.59 -108.82 2.89 
-71.15 -107.57 3.21 
-69.02 -107.41 3.20 
-77.70 -108.16 2.86 
-67.06 -106.45 3.15 
-73.92 -106.73 3.18 
-67.01 -106.07 3.12 
-74.21 -106.69 3.18 
-67.03 -105.50 3.08 
-67.04 -105.01 3.04 
-71.65 -105.22 3.03 
-73.07 -105.31 3.05 
-72.56 -104.87 3.01 
-70.19 -104.86 2.99 
-75.45 -105.17 3.10 
-73.65 -104.93 3.38 
-72.70 -104.86 3.01 
-78.71 -105.12 3.24 
-68.10 -129.12 2.18 
-69.64 -125.00 2.75 
-67.37 -124.68 2.75 
-67.15 -124.16 2.73 
-70.48 -123.39 2.70 
-71.46 -123.23 2.70 
-70.44 -122.86 2.69 
-72.02 -122.67 2.69 
-71.71 -122.78 2.69 
-69.11 -122.30 2.67 
-70.26 -122.23 2.67 
-69.93 -121.97 2.66 
-69.62 -121.91 2.66 
-69.37 -121.93 2.66 
-67.19 -121.56 2.65 
-68.53 -121.63 2.65 
-75.22 -121.98 2.69 
-67.24 -120.52 2.62 
-75.37 -121.14 2.67 
-74.58 -120.68 2.94 
-74.78 -120.14 2.93 
-75.01 -118.96 2.89 
-66.25 -115.82 3.18 
-76.42 -116.10 3.24 
-76.24 -116.11 3.24 
-77.53 -115.10 3.21 
-77.65 -114.82 3.20 
-77.73 -114.28 3.18 
-77.82 -113.83 3.16 
-77.90 -113.32 3.13 
-78.09 -112.86 3.11 
-77.98 -112.89 3.11 
-77.45 -109.63 3.50 
-67.11 -107.95 3.27 
-77.75 -108.87 3.46 
-71.18 -108.14 3.25 
-67.02 -107.72 3.25 
-77.72 -108.24 3.41 
-77.78 -107.89 3.39 
-70.33 -105.02 3.45 
-71.96 -104.98 3.46 
-70.54 -104.91 3.44 
-78.49 -104.99 3.70 
-72.48 -127.49 2.84 
-70.99 -124.14 3.06 
-71.27 -124.09 3.05 
-70.77 -123.61 3.04 
-68.75 -122.44 3.02 
-74.33 -121.96 2.98 
-67.15 -119.51 3.37 
-67.23 -118.53 3.32 
-75.66 -119.42 3.40 
-75.81 -119.08 3.39 
-67.18 -117.26 3.25 
-75.90 -118.01 3.33 
-67.21 -116.60 3.21 
-76.02 -117.37 3.30 
-76.16 -117.04 3.28 
-77.24 -116.25 3.27 
-76.91 -116.21 3.26 
-76.59 -116.15 3.39 
-76.18 -116.04 3.53 
-75.63 -116.20 3.54 
-76.72 -115.89 3.53 
-76.88 -115.05 3.48 
-77.12 -114.60 3.46 
-78.00 -112.98 3.77 
-67.10 -108.12 3.81 
-74.77 -107.42 3.77 
-74.61 -107.44 3.76 
-77.94 -107.37 3.89 
-66.97 -105.63 4.03 
-74.15 -106.31 4.12 
-73.85 -106.29 4.11 
-73.73 -104.80 3.92 
-67.18 -121.66 3.49 
-67.25 -120.57 3.43 
-75.52 -120.19 3.44 
-74.83 -119.84 3.73 
-75.03 -119.30 3.70 
-75.24 -118.25 3.65 
-77.22 -116.38 4.00 
-76.81 -116.33 3.98 
-77.48 -115.95 3.97 
-77.57 -115.42 3.94 
-77.66 -114.88 3.90 
-77.73 -114.16 3.85 
-77.84 -113.90 3.83 
-78.03 -107.15 4.40 
-74.89 -106.48 4.17 
-78.08 -106.84 4.37 
-78.19 -106.26 4.31 
-78.29 -105.68 4.25 
-68.36 -127.06 3.78 
-69.61 -126.40 3.74 
-70.43 -125.30 3.68 
-69.05 -124.69 3.64 
-69.33 -124.63 3.64 
-67.73 -124.31 3.63 
-68.36 -121.84 3.88 
-77.80 -108.48 4.54 
-77.92 -107.80 4.47 
-76.99 -116.57 4.74 
-76.31 -116.46 4.71 
-77.41 -116.44 4.74 
-77.60 -115.36 4.64 
-78.23 -113.37 5.14 
-76.44 -116.20 5.41 
-67.20 -105.79 0.27 
-78.01 -112.53 0.51 
-78.17 -112.09 0.53 
-78.17 -111.96 0.53 
-67.21 -108.61 0.63 
-77.45 -109.30 0.63 
-77.67 -108.38 0.67 
-67.27 -106.92 0.70 
-77.67 -107.90 0.69 
-77.75 -107.62 0.70 
-67.29 -106.48 0.72 
-77.80 -107.31 0.71 
-67.24 -105.92 0.74 
-77.86 -106.85 0.73 
-67.28 -105.43 0.76 
-77.94 -106.35 0.75 
-67.22 -104.98 0.77 
-78.00 -106.12 0.76 
-78.08 -105.72 0.78 
-78.16 -105.32 0.79 
-78.22 -104.94 0.81 
-74.77 -119.19 0.46 
-67.24 -108.45 1.17 
-76.97 -108.03 0.90 
-67.28 -106.89 1.19 
-77.76 -107.67 1.24 
-67.31 -106.46 1.20 
-77.81 -107.33 1.24 
-67.24 -105.95 1.21 
-77.89 -106.88 1.25 
-67.29 -105.43 1.21 
-77.96 -106.44 1.26 
-78.02 -106.18 1.27 
-67.22 -104.86 1.22 
-78.10 -105.75 1.27 
-77.50 -105.57 0.99 
-78.16 -105.35 1.28 
-78.23 -104.97 1.29 
-75.64 -119.76 1.02 
-67.29 -118.94 1.00 
-67.35 -117.73 1.02 
-75.88 -118.45 1.04 
-75.99 -117.83 1.05 
-76.09 -117.19 1.06 
-76.13 -116.76 1.07 
-67.31 -115.42 1.06 
-67.00 -115.40 1.06 
-66.51 -115.39 1.06 
-76.29 -116.04 1.08 
-77.36 -115.80 1.09 
-77.02 -115.79 1.09 
-76.67 -115.72 1.09 
-77.49 -115.49 1.10 
-77.57 -115.00 1.11 
-77.90 -113.15 1.14 
-77.96 -112.72 1.15 
-78.03 -112.28 1.16 
-78.10 -111.87 1.17 
-76.67 -109.38 1.42 
-77.46 -109.33 1.20 
-77.64 -108.77 1.22 
-77.72 -108.50 1.22 
-76.99 -108.20 1.44 
-77.69 -107.93 1.23 
-67.19 -106.28 1.68 
-67.13 -105.78 1.67 
-77.24 -106.62 1.47 
-67.17 -105.28 1.67 
-67.13 -104.80 1.67 
-77.51 -105.64 1.49 
-77.57 -105.09 1.50 
-78.27 -104.89 1.78 
-74.35 -121.40 1.23 
-75.39 -121.23 0.99 
-75.52 -120.51 1.00 
-74.56 -119.91 1.25 
-74.78 -119.25 1.26 
-75.33 -116.36 1.31 
-76.39 -115.88 1.32 
-75.55 -115.75 1.32 
-78.05 -112.36 1.80 
-78.12 -111.94 1.80 
-67.23 -108.55 1.69 
-77.47 -109.39 1.78 
-67.17 -107.93 1.69 
-67.20 -107.41 1.68 
-77.62 -108.51 1.77 
-77.71 -108.01 1.77 
-67.15 -106.79 1.68 
-77.77 -107.70 1.77 
-77.83 -107.39 1.77 
-77.90 -106.94 1.77 
-77.29 -106.99 1.99 
-67.17 -105.42 2.13 
-77.97 -106.48 1.77 
-67.12 -104.93 2.12 
-78.06 -106.07 1.77 
-78.13 -105.66 1.77 
-77.54 -105.77 1.99 
-78.18 -105.41 1.78 
-77.61 -105.23 1.98 
-78.22 -105.14 1.78 
-77.68 -104.95 1.98 
-75.65 -119.85 1.81 
-67.30 -119.01 1.77 
-75.77 -119.18 1.81 
-67.36 -117.69 1.76 
-75.89 -118.52 1.81 
-76.00 -117.89 1.80 
-67.27 -116.46 1.75 
-76.10 -117.27 1.80 
-76.21 -116.69 1.80 
-67.31 -115.50 1.75 
-67.00 -115.49 1.75 
-66.59 -115.49 1.75 
-77.37 -115.94 1.81 
-77.05 -115.92 1.81 
-76.62 -115.85 1.80 
-76.30 -115.98 1.80 
-77.50 -115.57 1.81 
-76.69 -115.84 1.80 
-76.46 -115.81 1.80 
-77.58 -115.06 1.81 
-77.66 -114.57 1.81 
-77.75 -114.09 1.81 
-77.83 -113.64 1.81 
-77.03 -113.86 2.04 
-77.91 -113.22 1.80 
-77.98 -112.77 1.80 
-67.22 -108.73 2.23 
-72.08 -108.41 2.23 
-67.16 -108.11 2.21 
-77.55 -109.07 2.35 
-72.65 -108.17 2.22 
-72.46 -108.29 2.23 
-72.02 -108.15 2.22 
-71.72 -108.03 2.21 
-77.67 -108.38 2.33 
-72.93 -107.90 2.22 
-69.06 -107.30 2.18 
-67.23 -107.24 2.19 
-67.14 -106.94 2.18 
-77.72 -108.05 2.33 
-70.36 -107.16 2.18 
-69.50 -107.16 2.17 
-77.77 -107.72 2.32 
-71.57 -107.09 2.18 
-67.18 -106.39 2.16 
-77.83 -107.41 2.31 
-73.19 -106.52 2.18 
-67.13 -105.88 2.14 
-77.92 -106.97 2.30 
-77.99 -106.54 2.29 
-67.12 -104.98 2.56 
-78.07 -106.11 2.29 
-78.13 -105.64 2.28 
-77.56 -105.90 2.50 
-78.21 -105.30 2.27 
-77.63 -105.42 2.48 
-78.24 -104.99 2.26 
-70.72 -126.21 1.83 
-70.16 -126.22 1.83 
-72.06 -125.89 1.83 
-71.83 -126.05 1.83 
-70.66 -125.89 1.83 
-68.44 -125.42 1.82 
-71.47 -125.01 1.82 
-69.88 -124.81 1.82 
-71.04 -124.58 1.82 
-70.34 -122.85 1.80 
-71.40 -122.49 1.80 
-68.95 -122.37 1.80 
-75.25 -121.99 1.83 
-75.42 -121.42 1.82 
-75.53 -120.60 1.82 
-74.59 -120.69 2.08 
-74.80 -119.63 2.07 
-74.99 -118.67 2.07 
-66.40 -117.32 2.09 
-75.36 -116.81 2.05 
-75.96 -115.87 2.05 
-75.56 -115.81 2.05 
-77.96 -114.10 2.50 
-77.92 -113.24 2.47 
-78.00 -112.84 2.46 
-78.16 -112.70 2.46 
-77.99 -112.71 2.46 
-78.24 -112.32 2.45 
-67.22 -108.81 2.77 
-76.85 -109.53 2.60 
-67.16 -108.19 2.74 
-72.69 -108.24 2.75 
-70.24 -107.93 2.71 
-67.20 -107.56 2.70 
-71.84 -107.60 2.70 
-67.14 -106.99 2.67 
-70.65 -107.41 2.52 
-72.97 -107.01 2.69 
-72.24 -107.13 2.68 
-71.55 -107.04 2.67 
-67.18 -106.47 2.64 
-70.93 -106.61 2.64 
-70.79 -106.57 2.64 
-69.93 -106.21 2.62 
-69.51 -106.08 2.61 
-67.13 -105.94 2.62 
-77.94 -106.99 2.83 
-73.25 -106.16 2.65 
-71.48 -106.07 2.62 
-70.63 -105.92 2.60 
-70.27 -106.07 2.61 
-70.06 -106.12 2.61 
-67.17 -105.45 2.59 
-78.02 -106.61 2.82 
-77.39 -106.68 2.52 
-73.78 -105.92 2.65 
-72.46 -105.68 2.61 
-78.10 -106.19 2.80 
-73.88 -105.67 2.64 
-72.60 -105.65 2.61 
-72.29 -105.42 2.59 
-78.18 -105.79 2.78 
-78.27 -105.26 2.76 
-78.22 -105.51 2.77 
-74.50 -104.83 2.90 
-78.34 -104.71 2.74 
-68.43 -129.02 2.00 
-71.55 -126.89 2.13 
-69.22 -126.51 2.13 
-69.55 -126.23 2.13 
-68.19 -125.73 2.13 
-67.85 -125.71 2.13 
-67.92 -125.62 2.13 
-67.70 -124.89 2.13 
-67.45 -124.87 2.13 
-71.08 -124.89 2.11 
-69.96 -124.90 2.12 
-70.59 -123.90 2.11 
-67.29 -119.35 2.56 
-75.66 -119.90 2.62 
-75.78 -119.20 2.60 
-67.35 -118.00 2.52 
-75.90 -118.56 2.58 
-76.01 -117.93 2.57 
-76.13 -117.39 2.55 
-67.30 -116.22 2.46 
-76.26 -116.92 2.54 
-67.31 -115.66 2.45 
-66.98 -115.61 2.45 
-66.64 -115.62 2.45 
-77.40 -116.06 2.54 
-77.06 -116.03 2.53 
-76.60 -115.99 2.59 
-76.25 -116.07 2.65 
-75.57 -115.92 2.78 
-77.52 -115.61 2.53 
-76.79 -115.40 2.77 
-77.60 -115.11 2.52 
-77.74 -114.52 2.50 
-77.11 -114.48 2.75 
-76.92 -114.70 2.75 
-77.16 -112.98 2.70 
-77.42 -109.72 2.94 
-77.50 -109.49 2.94 
-77.70 -109.00 2.92 
-77.77 -108.67 2.90 
-67.13 -107.20 3.18 
-77.76 -108.16 2.88 
-67.17 -106.63 3.14 
-77.80 -107.81 2.86 
-77.86 -107.49 2.85 
-71.60 -106.64 3.13 
-67.13 -106.04 3.09 
-67.17 -105.52 3.05 
-67.11 -105.07 3.02 
-73.23 -105.56 3.08 
-75.34 -105.60 3.15 
-69.84 -124.96 2.73 
-69.62 -124.94 2.73 
-70.37 -124.24 2.71 
-69.57 -124.09 2.70 
-68.79 -123.38 2.68 
-70.62 -123.54 2.69 
-69.10 -123.05 2.67 
-71.13 -123.05 2.68 
-69.32 -123.00 2.67 
-68.54 -122.87 2.67 
-71.80 -122.82 2.67 
-70.13 -122.41 2.65 
-68.88 -121.73 2.63 
-69.08 -121.75 2.63 
-75.27 -122.11 2.68 
-75.40 -121.30 2.66 
-75.54 -120.62 2.64 
-74.60 -120.79 2.93 
-74.82 -119.86 2.90 
-75.01 -118.85 2.87 
-75.22 -117.38 2.82 
-67.31 -115.79 3.15 
-67.02 -115.75 3.15 
-66.63 -115.75 3.15 
-77.61 -115.03 3.22 
-77.72 -114.76 3.21 
-77.79 -114.24 3.18 
-77.87 -113.80 3.16 
-77.96 -113.36 3.14 
-78.02 -112.92 3.12 
-78.26 -112.70 3.12 
-67.19 -109.17 3.33 
-67.18 -107.96 3.24 
-77.64 -108.84 3.47 
-77.78 -108.74 3.47 
-77.82 -107.88 3.41 
-75.10 -106.38 3.70 
-74.74 -106.14 3.66 
-74.49 -106.34 3.67 
-71.46 -105.05 3.46 
-67.74 -124.58 3.07 
-66.34 -124.47 3.08 
-69.78 -123.92 3.03 
-74.38 -121.98 2.96 
-67.29 -119.38 3.34 
-75.66 -119.67 3.41 
-67.37 -117.94 3.26 
-76.03 -118.02 3.33 
-67.26 -116.93 3.21 
-76.12 -117.14 3.29 
-66.16 -115.60 3.56 
-65.95 -115.55 3.56 
-76.21 -116.54 3.26 
-75.57 -116.27 3.53 
-77.44 -116.21 3.27 
-77.10 -116.18 3.26 
-76.59 -116.15 3.39 
-76.27 -116.11 3.38 
-77.54 -115.71 3.25 
-76.82 -115.64 3.51 
-76.95 -114.61 3.45 
-78.12 -112.60 3.76 
-78.19 -112.19 3.74 
-67.15 -104.74 3.89 
-73.10 -105.18 3.97 
-71.45 -124.18 3.60 
-68.98 -122.03 3.48 
-75.54 -120.59 3.46 
-74.84 -120.12 3.73 
-66.67 -115.92 3.86 
-77.56 -115.80 3.97 
-77.73 -114.83 3.91 
-77.89 -113.89 3.85 
-78.05 -113.04 3.79 
-78.21 -106.22 4.36 
-75.52 -106.03 4.17 
-78.39 -105.56 4.30 
-78.43 -105.08 4.25 
-78.52 -104.78 4.22 
-70.46 -126.29 3.71 
-69.85 -124.76 3.63 
-69.31 -124.86 3.63 
-69.58 -124.61 3.62 
-77.86 -108.46 4.59 
-78.02 -107.51 4.49 
-71.69 -125.41 4.02 
-77.07 -116.53 4.75 
-77.52 -116.51 4.77 
-77.70 -115.50 4.68 
-78.02 -114.18 5.26 
-78.03 -113.63 5.20 
-78.34 -113.20 5.16 
-76.72 -116.78 5.51 
-77.89 -114.63 5.31 
-67.34 -105.80 0.29 
-78.13 -112.38 0.52 
-78.19 -112.02 0.53 
-78.26 -111.62 0.55 
-77.64 -108.70 0.66 
-77.75 -108.33 0.67 
-77.73 -107.82 0.69 
-67.40 -106.92 0.72 
-77.78 -107.48 0.71 
-77.84 -107.24 0.72 
-67.43 -106.12 0.75 
-67.33 -105.76 0.76 
-77.92 -106.81 0.73 
-77.99 -106.39 0.75 
-78.07 -105.99 0.77 
-78.14 -105.60 0.78 
-78.20 -105.22 0.80 
-78.27 -104.86 0.81 
-74.50 -121.59 0.38 
-77.39 -112.53 0.73 
-67.55 -109.09 0.87 
-67.37 -109.11 0.87 
-77.21 -107.94 0.90 
-67.41 -106.87 1.21 
-77.29 -107.36 0.93 
-77.38 -107.16 0.93 
-67.43 -106.16 1.22 
-67.32 -106.06 1.22 
-77.93 -106.85 1.27 
-78.01 -106.43 1.27 
-67.35 -105.31 1.23 
-78.07 -106.04 1.28 
-77.60 -106.03 0.98 
-78.15 -105.63 1.29 
-77.66 -105.52 1.00 
-78.22 -105.26 1.30 
-78.20 -104.70 1.22 
-76.00 -118.06 1.06 
-76.10 -117.51 1.07 
-76.19 -116.91 1.08 
-67.17 -115.42 1.08 
-76.30 -116.38 1.09 
-77.25 -115.78 1.11 
-76.37 -115.84 1.10 
-77.49 -115.77 1.11 
-76.90 -115.72 1.11 
-76.56 -115.67 1.10 
-77.56 -115.31 1.12 
-77.60 -114.68 1.13 
-77.87 -113.51 1.15 
-77.94 -113.10 1.16 
-78.01 -112.68 1.17 
-78.09 -112.30 1.17 
-78.15 -111.91 1.18 
-78.22 -111.50 1.19 
-76.95 -109.28 1.44 
-77.70 -108.45 1.23 
-77.74 -107.85 1.25 
-77.22 -107.98 1.46 
-77.80 -107.58 1.25 
-77.86 -107.28 1.26 
-67.19 -105.96 1.69 
-67.22 -105.25 1.68 
-77.62 -106.10 1.49 
-77.68 -105.59 1.50 
-67.37 -125.20 0.93 
-74.51 -121.53 1.25 
-75.44 -121.33 1.01 
-74.70 -120.58 1.26 
-75.68 -119.90 1.03 
-74.90 -119.71 1.27 
-75.40 -116.76 1.32 
-66.37 -115.22 1.36 
-66.10 -115.22 1.37 
-75.93 -115.74 1.34 
-75.70 -115.73 1.33 
-77.33 -113.54 1.37 
-77.39 -112.74 1.39 
-78.16 -111.95 1.82 
-78.25 -111.59 1.82 
-67.28 -108.79 1.71 
-77.60 -108.88 1.80 
-67.22 -107.62 1.70 
-77.68 -108.40 1.80 
-77.73 -108.02 1.80 
-67.25 -106.85 1.70 
-77.82 -107.63 1.80 
-77.43 -107.39 2.01 
-77.90 -107.19 1.80 
-77.97 -106.75 1.80 
-67.22 -105.39 2.14 
-78.03 -106.48 1.80 
-77.66 -106.26 2.01 
-78.08 -106.08 1.80 
-77.74 -105.92 2.01 
-78.17 -105.69 1.80 
-78.23 -105.30 1.80 
-77.83 -105.31 2.01 
-78.31 -104.81 1.80 
-77.94 -104.91 2.00 
-67.36 -119.64 1.80 
-75.79 -119.35 1.83 
-75.90 -118.74 1.83 
-76.01 -118.11 1.83 
-67.41 -117.39 1.78 
-76.11 -117.58 1.83 
-76.20 -116.99 1.82 
-67.19 -115.54 1.77 
-66.90 -115.54 1.77 
-76.31 -116.45 1.82 
-77.51 -115.86 1.83 
-77.28 -115.90 1.83 
-76.93 -115.84 1.83 
-76.49 -115.86 1.82 
-77.58 -115.37 1.83 
-77.56 -115.17 1.83 
-77.66 -114.91 1.83 
-77.75 -114.45 1.83 
-77.82 -114.02 1.83 
-77.89 -113.59 1.83 
-77.96 -113.15 1.83 
-78.03 -112.75 1.83 
-77.42 -112.87 2.05 
-78.10 -112.36 1.83 
-67.28 -108.94 2.25 
-67.21 -107.96 2.22 
-72.53 -108.12 2.25 
-72.12 -108.06 2.24 
-77.70 -108.46 2.37 
-77.17 -108.45 2.02 
-73.00 -107.68 2.24 
-72.71 -107.69 2.24 
-71.85 -107.72 2.23 
-67.25 -107.01 2.19 
-77.78 -107.96 2.36 
-73.39 -107.60 2.24 
-73.15 -107.62 2.24 
-70.96 -107.13 2.20 
-70.60 -107.30 2.20 
-70.22 -107.08 2.19 
-77.83 -107.67 2.35 
-77.91 -107.22 2.34 
-71.06 -106.52 2.18 
-67.19 -106.17 2.17 
-77.99 -106.81 2.34 
-78.03 -106.46 2.33 
-78.11 -106.11 2.32 
-77.75 -105.85 2.52 
-78.20 -105.60 2.31 
-77.83 -105.66 2.52 
-78.24 -105.28 2.31 
-78.33 -104.84 2.30 
-68.19 -126.67 1.86 
-67.95 -126.69 1.86 
-68.48 -124.49 1.84 
-67.68 -124.42 1.84 
-67.84 -124.34 1.84 
-73.08 -124.48 1.85 
-72.80 -124.39 1.85 
-72.26 -124.41 1.85 
-71.86 -124.25 1.84 
-72.50 -124.10 1.84 
-71.92 -123.68 1.84 
-71.46 -123.86 1.84 
-70.34 -122.89 1.83 
-68.88 -122.65 1.82 
-68.54 -122.57 1.82 
-71.30 -122.42 1.83 
-70.53 -122.43 1.82 
-67.49 -121.59 1.82 
-74.55 -122.13 2.11 
-71.00 -121.62 1.82 
-70.74 -121.54 1.82 
-75.31 -122.03 1.85 
-74.74 -121.13 2.10 
-75.56 -120.64 1.84 
-74.93 -120.12 2.10 
-75.70 -120.01 1.84 
-75.12 -118.80 2.09 
-75.28 -118.37 2.08 
-75.44 -117.15 2.07 
-66.47 -115.28 2.09 
-66.10 -115.30 2.09 
-65.75 -115.24 2.10 
-75.94 -115.81 2.07 
-75.73 -116.01 2.07 
-77.98 -113.21 2.50 
-78.05 -112.80 2.49 
-78.21 -112.68 2.50 
-78.26 -112.17 2.48 
-77.03 -109.49 2.62 
-77.13 -109.24 2.61 
-67.21 -108.08 2.74 
-77.62 -108.94 2.38 
-77.20 -108.59 2.60 
-67.24 -107.19 2.70 
-72.05 -107.43 2.73 
-77.46 -107.52 2.57 
-68.89 -106.81 2.67 
-67.19 -106.26 2.64 
-77.54 -107.11 2.56 
-71.76 -106.66 2.68 
-71.61 -106.50 2.67 
-70.42 -105.82 2.62 
-69.92 -105.81 2.62 
-67.22 -105.44 2.60 
-78.13 -106.35 2.85 
-77.69 -106.31 2.54 
-72.48 -105.72 2.64 
-71.73 -105.54 2.62 
-70.68 -105.61 2.61 
-70.09 -105.40 2.60 
-77.76 -106.02 2.53 
-72.57 -105.52 2.63 
-70.84 -105.33 2.60 
-78.21 -105.80 2.83 
-78.31 -105.30 2.82 
-78.24 -105.44 2.82 
-75.16 -104.87 2.67 
-74.53 -104.70 2.64 
-78.37 -104.90 2.80 
-69.06 -127.52 2.16 
-69.81 -127.06 2.16 
-69.52 -126.91 2.16 
-71.58 -126.83 2.15 
-71.31 -126.35 2.15 
-67.00 -125.70 2.16 
-67.90 -125.43 2.15 
-70.78 -124.93 2.14 
-71.10 -123.69 2.12 
-75.82 -119.47 2.64 
-76.03 -118.19 2.60 
-75.91 -118.50 2.61 
-67.43 -117.16 2.51 
-76.12 -117.61 2.59 
-76.25 -117.16 2.58 
-76.37 -116.68 2.57 
-67.20 -115.69 2.47 
-66.91 -115.66 2.47 
-66.46 -115.43 2.83 
-76.29 -116.24 2.55 
-66.17 -115.38 2.83 
-77.52 -115.91 2.57 
-77.26 -116.03 2.57 
-76.86 -115.95 2.55 
-76.52 -115.95 2.55 
-75.95 -115.89 2.81 
-77.60 -115.44 2.56 
-77.68 -114.96 2.54 
-77.85 -114.44 2.53 
-77.31 -114.46 2.78 
-78.04 -114.02 2.53 
-77.44 -113.00 2.73 
-67.28 -109.11 2.80 
-77.68 -109.33 2.98 
-77.75 -108.56 2.94 
-67.23 -107.45 3.21 
-77.87 -107.75 2.91 
-67.18 -106.52 3.14 
-77.94 -107.31 2.89 
-71.76 -106.62 3.17 
-67.21 -105.67 3.08 
-72.36 -105.90 3.13 
-73.58 -105.75 3.15 
-78.67 -105.05 3.33 
-67.42 -124.41 2.74 
-67.70 -124.12 2.73 
-67.48 -124.14 2.73 
-70.41 -124.23 2.74 
-67.97 -123.87 2.72 
-68.76 -122.83 2.69 
-71.91 -122.79 2.70 
-71.33 -122.68 2.69 
-70.81 -122.65 2.69 
-70.59 -122.51 2.68 
-68.25 -122.30 2.67 
-69.03 -121.57 2.65 
-75.47 -121.45 2.69 
-67.35 -120.46 2.62 
-75.45 -121.09 2.68 
-74.78 -120.73 2.95 
-74.94 -120.10 2.93 
-75.68 -119.76 2.65 
-74.97 -119.92 2.93 
-75.14 -119.46 2.91 
-75.31 -118.12 2.87 
-75.47 -117.35 2.85 
-67.19 -115.81 3.17 
-66.91 -115.81 3.17 
-77.80 -114.62 3.24 
-77.83 -113.97 3.21 
-77.93 -113.72 3.20 
-78.01 -113.30 3.18 
-78.10 -112.60 3.15 
-78.29 -112.31 3.14 
-67.23 -107.95 3.25 
-72.04 -108.40 3.31 
-77.76 -108.41 3.50 
-77.85 -108.15 3.49 
-77.90 -107.84 3.47 
-78.05 -106.96 3.42 
-74.76 -106.05 3.70 
-67.95 -127.69 2.85 
-71.12 -126.90 2.82 
-66.62 -124.39 3.10 
-66.95 -124.09 3.09 
-72.21 -124.23 3.06 
-71.98 -124.20 3.06 
-71.64 -124.44 3.06 
-70.73 -124.34 3.06 
-71.10 -123.98 3.05 
-67.96 -122.64 3.03 
-69.56 -122.64 3.02 
-69.30 -122.56 3.02 
-74.59 -121.97 2.99 
-67.41 -118.02 3.29 
-75.93 -118.61 3.40 
-66.59 -115.54 3.56 
-66.03 -115.53 3.57 
-65.73 -115.49 3.58 
-75.79 -116.40 3.57 
-77.56 -116.03 3.30 
-77.23 -116.18 3.30 
-76.82 -116.18 3.43 
-76.42 -116.09 3.56 
-76.20 -116.11 3.56 
-77.63 -115.53 3.28 
-77.49 -114.28 3.48 
-77.56 -109.78 3.59 
-74.33 -106.67 3.75 
-75.22 -106.05 3.73 
-67.18 -104.84 3.91 
-73.36 -105.12 4.03 
-78.49 -104.71 3.80 
-66.85 -127.02 3.18 
-67.45 -123.86 3.61 
-67.99 -123.46 3.59 
-67.73 -123.66 3.60 
-75.38 -122.32 3.58 
-67.29 -115.98 3.88 
-66.91 -115.98 3.88 
-77.78 -108.92 4.12 
-78.22 -106.52 4.47 
-78.32 -106.23 4.45 
-78.45 -105.45 4.37 
-68.49 -127.00 3.78 
-70.74 -125.99 3.73 
-72.54 -125.69 3.72 
-69.22 -124.34 4.00 
-67.26 -124.03 4.01 
-71.76 -124.30 3.64 
-70.91 -123.27 3.93 
-74.61 -122.15 3.87 
-66.57 -115.72 4.31 
-77.86 -108.57 4.67 
-77.99 -108.09 4.63 
-78.10 -107.49 4.57 
-78.16 -107.00 4.52 
-66.66 -124.28 4.03 
-77.69 -115.61 4.74 
-77.83 -109.50 4.78 
-77.05 -116.55 4.81 
-78.36 -113.36 5.25 
-78.11 -113.61 5.26 
-78.51 -112.94 5.21 
-77.78 -114.55 5.36 
-78.07 -114.13 5.32 
-78.22 -112.26 0.49 
-78.35 -111.80 0.50 
-77.66 -108.99 0.62 
-77.77 -108.60 0.63 
-77.83 -108.30 0.64 
-77.78 -107.80 0.66 
-77.84 -107.54 0.68 
-77.91 -107.11 0.69 
-77.99 -106.70 0.71 
-78.05 -106.30 0.73 
-78.12 -105.91 0.74 
-78.19 -105.55 0.76 
-78.27 -105.06 0.78 
-73.77 -113.64 0.65 
-73.93 -113.18 0.67 
-76.98 -109.43 0.81 
-66.63 -107.27 0.92 
-77.98 -106.64 1.25 
-77.52 -106.74 0.92 
-78.07 -106.34 1.26 
-78.13 -105.92 1.27 
-78.20 -105.57 1.28 
-77.78 -105.43 0.97 
-78.29 -105.09 1.29 
-78.35 -104.74 1.30 
-76.03 -118.34 1.02 
-76.12 -117.78 1.03 
-76.21 -117.24 1.04 
-76.30 -116.72 1.05 
-76.38 -116.21 1.06 
-67.41 -115.49 1.04 
-77.42 -115.79 1.07 
-77.09 -115.74 1.07 
-76.57 -115.70 1.07 
-77.58 -115.63 1.08 
-77.66 -115.18 1.09 
-77.73 -114.73 1.10 
-77.94 -113.49 1.12 
-78.02 -113.11 1.13 
-78.07 -112.68 1.14 
-78.09 -112.42 1.14 
-78.19 -111.92 1.15 
-78.26 -111.57 1.16 
-78.33 -111.25 1.17 
-76.99 -109.40 1.41 
-77.61 -109.09 1.20 
-77.11 -109.22 1.41 
-77.74 -108.71 1.21 
-77.84 -108.34 1.22 
-77.80 -107.84 1.23 
-77.86 -107.57 1.23 
-77.39 -107.51 1.44 
-77.93 -107.15 1.24 
-77.47 -107.16 1.45 
-66.76 -106.04 1.48 
-78.00 -106.73 1.25 
-77.53 -106.80 1.46 
-77.81 -105.51 1.48 
-77.93 -104.91 1.49 
-77.87 -105.20 1.49 
-67.42 -125.12 0.89 
-75.54 -121.78 0.96 
-74.52 -121.49 1.20 
-74.70 -121.06 1.21 
-74.69 -120.56 1.22 
-74.83 -119.90 1.23 
-75.67 -119.76 0.99 
-75.65 -119.85 0.99 
-76.76 -115.83 1.30 
-76.42 -115.85 1.30 
-75.87 -115.82 1.30 
-77.37 -112.90 1.35 
-77.51 -112.59 1.36 
-77.67 -108.82 1.79 
-67.30 -107.52 1.68 
-77.75 -108.37 1.79 
-77.82 -107.91 1.79 
-77.90 -107.48 1.79 
-77.51 -107.34 2.00 
-77.98 -107.08 1.79 
-77.58 -106.96 2.00 
-78.02 -106.80 1.79 
-77.65 -106.63 2.00 
-78.09 -106.39 1.79 
-78.18 -105.88 1.80 
-78.25 -105.51 1.80 
-78.33 -105.04 1.80 
-78.13 -105.15 1.90 
-77.89 -105.19 2.00 
-78.37 -104.79 1.80 
-78.17 -104.83 1.90 
-66.88 -125.02 1.16 
-66.62 -124.95 1.16 
-75.95 -119.00 1.80 
-76.04 -118.39 1.80 
-76.14 -117.87 1.80 
-76.23 -117.35 1.79 
-76.20 -117.09 1.79 
-76.32 -116.81 1.79 
-76.39 -116.18 1.79 
-67.33 -115.53 1.73 
-77.46 -115.91 1.81 
-77.10 -115.87 1.80 
-76.71 -115.78 1.79 
-77.60 -115.70 1.81 
-77.68 -115.25 1.81 
-77.73 -114.70 1.81 
-77.82 -114.37 1.81 
-77.89 -113.96 1.81 
-77.96 -113.56 1.81 
-78.03 -113.16 1.81 
-78.10 -112.78 1.81 
-77.55 -112.78 2.03 
-78.16 -112.39 1.81 
-78.23 -112.03 1.81 
-78.27 -111.58 1.81 
-77.13 -109.30 2.01 
-77.21 -108.86 2.00 
-73.19 -108.14 2.25 
-72.57 -108.18 2.24 
-72.13 -108.11 2.23 
-77.80 -108.27 2.37 
-73.31 -107.98 2.25 
-72.94 -107.80 2.23 
-72.18 -107.75 2.22 
-77.84 -107.95 2.36 
-71.48 -107.37 2.20 
-71.23 -107.22 2.19 
-70.77 -107.31 2.19 
-67.31 -107.04 2.17 
-77.92 -107.53 2.35 
-71.00 -106.69 2.17 
-77.99 -107.10 2.35 
-73.26 -106.51 2.20 
-78.04 -106.84 2.34 
-78.10 -106.33 2.33 
-78.20 -105.92 2.33 
-78.27 -105.56 2.32 
-78.07 -105.58 2.42 
-78.32 -105.17 2.32 
-78.39 -104.84 2.31 
-78.06 -104.83 2.50 
-68.53 -127.20 1.81 
-67.95 -126.77 1.81 
-67.66 -124.63 1.80 
-67.43 -124.64 1.80 
-71.24 -124.68 1.80 
-71.07 -124.54 1.80 
-70.53 -124.63 1.80 
-69.53 -124.13 1.79 
-73.03 -124.11 1.80 
-72.80 -124.11 1.80 
-70.83 -123.72 1.79 
-70.25 -123.01 1.78 
-68.94 -122.75 1.78 
-69.95 -122.46 1.78 
-69.70 -122.56 1.78 
-75.40 -122.11 1.81 
-74.57 -121.97 2.07 
-75.54 -121.32 1.81 
-74.74 -121.52 2.06 
-75.62 -120.75 1.80 
-74.91 -120.61 2.06 
-75.70 -119.94 1.80 
-75.83 -119.54 1.80 
-75.79 -116.10 2.03 
-76.89 -115.97 2.04 
-78.06 -113.25 2.49 
-78.19 -112.74 2.48 
-78.34 -112.30 2.48 
-78.41 -111.96 2.47 
-77.16 -109.41 2.61 
-77.06 -109.65 2.61 
-77.25 -109.01 2.60 
-77.70 -108.73 2.37 
-77.48 -107.82 2.57 
-70.92 -107.42 2.60 
-77.45 -107.64 2.56 
-73.43 -107.12 2.74 
-72.30 -107.03 2.71 
-77.69 -106.74 2.54 
-73.81 -106.27 2.71 
-70.64 -106.24 2.64 
-77.75 -106.41 2.54 
-73.06 -105.87 2.66 
-72.77 -105.90 2.66 
-72.50 -106.04 2.66 
-71.76 -105.63 2.62 
-71.14 -105.84 2.62 
-70.81 -105.70 2.61 
-78.27 -105.89 2.86 
-77.82 -106.08 2.53 
-77.80 -105.92 2.52 
-73.80 -105.73 2.68 
-77.88 -105.76 2.52 
-78.38 -105.15 2.83 
-75.29 -104.86 2.69 
-74.84 -104.83 2.67 
-78.45 -104.80 2.82 
-68.99 -128.37 2.12 
-68.75 -128.17 2.12 
-70.30 -127.02 2.10 
-71.71 -126.50 2.10 
-71.47 -126.37 2.10 
-67.77 -125.42 2.10 
-67.15 -125.24 2.11 
-67.51 -125.00 2.10 
-76.04 -118.25 2.58 
-76.16 -117.93 2.57 
-76.24 -117.37 2.56 
-76.48 -116.56 2.54 
-76.35 -116.77 2.55 
-67.35 -115.69 2.43 
-66.65 -115.41 2.78 
-77.48 -116.03 2.55 
-77.09 -115.98 2.54 
-76.65 -115.92 2.53 
-75.99 -115.89 2.78 
-77.61 -115.67 2.54 
-77.06 -115.63 2.78 
-77.70 -115.32 2.54 
