# .PCD v0.7 - Point Cloud Data file format
VERSION 0.7
FIELDS x y z
SIZE 4 4 4
TYPE F F F
COUNT 1 1 1
WIDTH 2391
HEIGHT 1
VIEWPOINT 0 0 0 1 0 0 0
POINTS 2391
DATA ascii
-36.88 -73.15 4.55 
-57.67 -72.57 3.96 
-57.35 -72.43 3.96 
-56.84 -72.35 3.94 
-37.27 -72.74 4.53 
-36.99 -72.74 4.54 
-35.83 -72.67 4.65 
-57.07 -72.02 3.98 
-47.62 -72.04 4.46 
-38.34 -72.24 4.60 
-37.34 -72.37 4.60 
-36.83 -72.24 4.73 
-56.49 -71.60 4.00 
-56.07 -71.65 3.98 
-47.89 -71.86 4.50 
-47.61 -71.74 4.50 
-48.33 -71.43 4.17 
-42.58 -68.01 4.56 
-42.44 -68.08 4.55 
-43.06 -67.74 4.60 
-42.84 -67.79 4.59 
-42.30 -67.74 4.60 
-41.98 -67.82 4.59 
-41.75 -67.72 4.60 
-43.32 -67.30 4.66 
-42.19 -67.36 4.66 
-41.56 -67.35 4.66 
-55.40 -66.65 4.47 
-50.71 -66.74 4.35 
-50.26 -66.75 4.34 
-49.92 -66.75 4.33 
-49.66 -66.77 4.32 
-47.17 -66.77 4.78 
-46.77 -66.78 4.77 
-46.33 -66.80 4.76 
-46.01 -66.81 4.76 
-45.59 -66.81 4.75 
-45.21 -66.81 4.75 
-44.76 -66.82 4.74 
-43.93 -66.92 4.72 
-43.74 -66.83 4.73 
-42.53 -67.12 4.69 
-42.13 -67.15 4.69 
-41.60 -67.16 4.69 
-40.31 -66.95 4.73 
-39.91 -66.98 4.74 
-39.52 -66.96 4.75 
-38.74 -66.97 4.76 
-35.77 -67.15 4.80 
-35.13 -67.18 4.81 
-34.75 -67.13 4.85 
-34.43 -67.19 4.82 
-34.01 -67.02 4.86 
-43.62 -66.75 4.75 
-41.64 -62.69 4.82 
-40.99 -62.68 4.83 
-57.70 -73.56 4.41 
-48.85 -73.62 4.68 
-58.11 -73.12 4.48 
-57.60 -73.04 4.45 
-57.59 -72.88 4.47 
-57.09 -72.82 4.45 
-56.86 -72.78 4.44 
-47.84 -72.90 4.72 
-47.70 -72.79 4.73 
-37.61 -72.64 4.85 
-36.27 -72.56 5.03 
-36.48 -72.44 5.06 
-36.08 -72.46 5.05 
-36.66 -72.01 5.15 
-36.57 -71.88 5.18 
-47.75 -71.20 4.59 
-47.94 -70.98 4.64 
-58.21 -66.70 4.55 
-50.26 -66.72 4.87 
-49.98 -66.73 4.86 
-49.62 -66.75 4.85 
-49.22 -66.75 4.83 
-48.79 -66.75 4.82 
-48.35 -66.76 4.81 
-48.01 -66.76 4.80 
-47.59 -66.77 4.79 
-44.02 -66.83 5.20 
-39.38 -66.93 5.19 
-37.10 -67.15 5.26 
-36.69 -67.10 5.27 
-36.25 -67.18 5.26 
-35.18 -67.04 5.31 
-34.34 -67.12 5.33 
-33.80 -67.22 5.31 
-33.57 -67.22 5.32 
-41.88 -62.72 5.36 
-41.57 -62.66 5.37 
-41.24 -62.66 5.37 
-48.09 -74.15 4.89 
-57.00 -73.63 4.88 
-49.91 -73.37 5.20 
-48.71 -72.18 4.90 
-58.28 -66.68 5.20 
-48.87 -66.76 5.34 
-39.67 -66.92 5.64 
-38.89 -66.94 5.65 
-36.91 -67.12 5.75 
-34.00 -67.20 5.80 
-58.10 -66.63 5.20 
-57.53 -66.63 5.17 
-43.89 -66.81 5.67 
-39.20 -66.83 5.67 
-42.17 -62.63 5.92 
-41.84 -62.59 5.93 
-34.18 -67.00 6.28 
-56.39 -66.69 5.73 
-48.69 -66.64 5.87 
-46.50 -66.74 5.76 
-40.53 -66.83 6.11 
-57.19 -66.69 5.78 
-56.79 -66.69 5.76 
-44.19 -66.88 6.14 
-58.42 -66.63 5.87 
-58.00 -66.64 5.84 
-57.60 -66.66 5.82 
-57.29 -66.63 5.80 
-50.34 -66.68 5.95 
-50.14 -66.68 5.94 
-48.32 -66.72 6.35 
-46.70 -66.71 6.27 
-44.45 -66.74 6.18 
-43.89 -66.42 6.23 
-50.01 -66.64 6.47 
-49.63 -66.65 6.45 
-48.50 -66.70 6.37 
-42.19 -62.65 7.04 
-41.96 -62.52 7.07 
-41.57 -62.53 7.06 
-41.35 -62.55 7.06 
-52.90 -66.49 6.72 
-56.09 -66.55 6.99 
-41.18 -77.05 1.90 
-41.13 -77.01 1.90 
-33.57 -76.90 2.12 
-34.51 -73.25 2.17 
-33.99 -73.47 2.17 
-43.46 -72.84 1.87 
-35.26 -72.85 2.15 
-35.08 -72.96 2.16 
-34.64 -73.17 2.16 
-57.55 -72.15 1.71 
-49.08 -72.29 2.02 
-35.98 -72.43 2.14 
-35.85 -72.52 2.14 
-35.43 -72.77 2.15 
-37.59 -72.03 2.10 
-37.45 -72.05 2.11 
-36.20 -72.26 2.14 
-36.79 -71.60 2.13 
-36.56 -71.88 2.13 
-38.31 -71.23 2.09 
-38.07 -71.24 2.10 
-37.77 -71.26 2.11 
-37.22 -71.35 2.12 
-36.98 -71.47 2.13 
-43.29 -69.29 2.34 
-42.32 -69.18 2.37 
-42.08 -69.12 2.38 
-43.08 -68.89 2.36 
-42.87 -68.93 2.37 
-42.00 -69.05 2.39 
-44.00 -68.56 2.34 
-39.77 -68.51 2.48 
-34.96 -68.44 2.62 
-39.60 -68.15 2.50 
-38.83 -68.02 2.52 
-37.39 -68.00 2.57 
-36.80 -68.08 2.58 
-36.43 -68.13 2.59 
-36.08 -68.07 2.60 
-35.66 -68.19 2.61 
-35.24 -68.29 2.62 
-46.46 -67.49 2.30 
-45.24 -67.52 2.34 
-44.82 -67.54 2.35 
-44.56 -67.59 2.36 
-39.27 -67.85 2.52 
-38.88 -67.91 2.53 
-38.50 -67.83 2.54 
-37.97 -67.79 2.56 
-37.51 -67.83 2.57 
-36.80 -67.94 2.59 
-36.07 -67.95 2.61 
-53.92 -66.54 2.07 
-53.32 -66.55 2.10 
-52.86 -66.56 2.11 
-52.40 -66.57 2.13 
-51.96 -66.58 2.14 
-51.64 -66.58 2.15 
-51.31 -66.60 2.17 
-50.90 -66.60 2.18 
-50.49 -66.60 2.19 
-50.06 -66.63 2.21 
-49.67 -66.64 2.22 
-49.28 -66.65 2.24 
-48.86 -66.65 2.25 
-48.54 -66.66 2.26 
-48.01 -66.66 2.28 
-47.65 -66.68 2.29 
-47.22 -66.69 2.31 
-45.99 -66.72 2.35 
-57.24 -66.46 1.96 
-56.80 -66.47 1.97 
-56.39 -66.48 1.99 
-55.97 -66.50 2.00 
-55.71 -66.50 2.01 
-53.69 -66.53 2.08 
-41.21 -77.08 2.23 
-41.15 -77.02 2.23 
-33.62 -73.27 2.58 
-48.32 -72.67 2.44 
-34.34 -73.04 2.57 
-34.08 -73.12 2.57 
-33.88 -73.18 2.57 
-37.55 -72.10 2.57 
-37.48 -72.07 2.42 
-42.53 -69.35 2.36 
-42.15 -69.23 2.38 
-41.63 -69.27 2.39 
-41.32 -69.28 2.40 
-40.83 -69.27 2.42 
-40.49 -69.26 2.43 
-40.20 -69.19 2.44 
-33.50 -69.35 2.62 
-41.86 -69.08 2.39 
-40.96 -69.07 2.42 
-40.02 -68.88 2.46 
-34.72 -68.85 2.61 
-34.48 -68.87 2.62 
-34.07 -68.88 2.63 
-33.70 -69.10 2.63 
-39.91 -68.67 2.47 
-34.82 -68.77 2.61 
-34.33 -68.77 2.62 
-34.16 -68.78 2.63 
-50.45 -77.09 2.52 
-41.24 -77.08 2.66 
-57.98 -74.68 2.14 
-58.08 -74.28 2.16 
-57.58 -74.14 2.18 
-58.11 -74.08 2.17 
-57.63 -73.96 2.19 
-57.78 -73.49 2.21 
-56.84 -73.44 2.23 
-49.19 -73.53 2.77 
-57.60 -73.01 2.24 
-57.49 -73.27 2.23 
-56.94 -73.22 2.24 
-49.20 -73.26 2.58 
-48.98 -73.33 2.78 
-48.49 -73.23 2.79 
-48.16 -73.33 2.79 
-56.83 -72.68 2.27 
-56.18 -72.71 2.28 
-50.49 -72.77 2.39 
-50.05 -72.93 2.39 
-48.36 -72.83 2.82 
-47.99 -72.73 2.83 
-56.64 -72.32 2.29 
-50.69 -72.56 2.39 
-50.10 -72.54 2.41 
-49.15 -72.32 2.44 
-48.07 -72.53 2.65 
-47.91 -72.46 2.85 
-56.47 -72.03 2.31 
-56.08 -71.86 2.33 
-55.81 -71.88 2.33 
-50.31 -71.86 2.44 
-37.58 -72.12 3.04 
-57.45 -71.69 2.31 
-50.15 -71.58 2.46 
-49.98 -71.22 2.48 
-49.75 -71.21 2.49 
-33.65 -69.44 3.22 
-34.07 -69.00 3.25 
-33.82 -69.11 3.25 
-42.54 -67.61 2.86 
-41.72 -67.72 2.88 
-42.41 -67.39 2.88 
-41.61 -67.37 2.90 
-55.68 -66.59 2.63 
-52.84 -66.62 2.69 
-52.44 -66.62 2.70 
-52.04 -66.63 2.70 
-51.60 -66.63 2.71 
-50.25 -66.64 2.74 
-49.95 -66.66 2.75 
-49.56 -66.66 2.75 
-49.18 -66.68 2.76 
-48.80 -66.69 2.77 
-47.45 -66.70 2.80 
-47.22 -66.73 2.80 
-46.86 -66.73 2.81 
-46.60 -66.73 2.82 
-46.23 -66.74 2.83 
-44.81 -66.78 2.86 
-44.49 -66.80 2.86 
-44.03 -66.86 2.87 
-43.77 -66.77 2.88 
-43.37 -66.88 2.89 
-42.36 -66.90 2.91 
-40.50 -66.94 2.96 
-40.10 -66.91 2.97 
-39.69 -66.92 2.98 
-39.34 -66.92 2.99 
-38.92 -66.92 3.00 
-38.44 -66.94 3.01 
-38.07 -66.96 3.02 
-37.55 -66.97 3.03 
-37.23 -66.98 3.04 
-36.83 -66.99 3.05 
-36.45 -67.00 3.06 
-36.07 -67.01 3.07 
-35.67 -67.02 3.08 
-35.32 -67.03 3.09 
-34.91 -67.04 3.11 
-34.48 -67.06 3.12 
-34.10 -67.06 3.13 
-33.60 -67.08 3.14 
-48.58 -66.60 2.78 
-43.77 -66.36 2.91 
-43.73 -65.13 2.98 
-43.78 -64.89 2.99 
-43.72 -64.67 3.01 
-43.66 -62.60 3.13 
-43.35 -62.57 3.14 
-42.83 -62.49 3.16 
-41.91 -62.61 3.18 
-41.65 -62.63 3.18 
-50.53 -77.11 2.89 
-41.30 -77.08 3.00 
-57.34 -74.88 2.68 
-58.45 -74.50 2.70 
-57.99 -74.17 2.72 
-57.92 -74.37 2.71 
-57.48 -74.25 2.72 
-56.80 -74.23 2.72 
-56.32 -74.16 2.72 
-58.10 -73.72 2.75 
-56.78 -74.09 2.73 
-56.04 -73.95 2.73 
-49.77 -74.14 3.12 
-49.26 -73.97 3.13 
-57.31 -73.58 2.76 
-56.31 -73.63 2.75 
-50.45 -73.52 2.76 
-50.03 -73.74 2.75 
-49.32 -73.67 2.95 
-48.88 -73.62 3.15 
-57.66 -73.00 2.80 
-56.58 -73.06 2.79 
-50.19 -73.27 2.78 
-49.79 -73.29 2.78 
-48.97 -73.07 2.80 
-38.50 -73.33 3.20 
-37.75 -73.43 3.49 
-57.53 -72.85 2.81 
-56.31 -72.68 2.82 
-38.04 -72.87 3.26 
-37.90 -72.94 3.25 
-37.24 -72.97 3.27 
-57.36 -72.39 2.84 
-56.81 -72.15 2.85 
-56.08 -72.44 2.84 
-48.51 -72.41 2.85 
-38.55 -72.65 3.27 
-38.18 -72.59 3.28 
-37.82 -72.68 3.28 
-37.51 -72.54 3.31 
-57.24 -71.82 2.88 
-56.59 -71.85 2.87 
-55.77 -72.05 2.86 
-48.00 -72.16 2.87 
-47.76 -72.19 3.07 
-37.68 -72.13 3.35 
-37.45 -72.17 3.35 
-36.48 -72.19 3.37 
-36.24 -72.29 3.37 
-57.05 -71.66 2.89 
-36.83 -71.92 3.39 
-36.70 -71.97 3.39 
-57.34 -71.13 2.92 
-39.26 -71.40 3.39 
-37.16 -71.55 3.42 
-37.02 -71.54 3.43 
-56.92 -70.82 2.95 
-37.89 -71.04 3.46 
-56.71 -70.33 2.98 
-43.17 -68.09 3.25 
-41.72 -68.00 3.28 
-43.12 -67.84 3.27 
-42.91 -67.84 3.27 
-42.42 -67.81 3.29 
-42.17 -67.81 3.29 
-41.65 -67.78 3.30 
-41.43 -67.59 3.32 
-42.41 -67.47 3.31 
-58.42 -66.60 3.24 
-51.99 -66.69 3.26 
-51.66 -66.70 3.26 
-51.44 -66.68 3.27 
-50.37 -66.75 3.27 
-50.14 -66.70 3.27 
-49.75 -66.70 3.28 
-49.27 -66.71 3.28 
-48.88 -66.73 3.28 
-47.29 -66.76 3.30 
-46.91 -66.77 3.30 
-46.27 -66.78 3.31 
-46.10 -66.77 3.31 
-44.92 -66.77 3.33 
-44.49 -66.85 3.33 
-44.05 -66.84 3.34 
-43.78 -66.78 3.35 
-41.69 -67.12 3.36 
-40.76 -66.94 3.39 
-40.57 -66.92 3.40 
-40.11 -66.92 3.41 
-39.75 -66.93 3.41 
-38.52 -66.96 3.44 
-38.16 -66.98 3.45 
-37.55 -66.99 3.46 
-37.23 -67.00 3.47 
-36.83 -66.89 3.49 
-36.48 -66.86 3.51 
-35.99 -66.94 3.51 
-35.65 -67.04 3.51 
-35.21 -67.06 3.69 
-34.87 -67.10 3.70 
-34.48 -67.10 3.71 
-34.18 -67.07 3.72 
-33.74 -67.15 3.88 
-51.34 -66.58 3.27 
-43.79 -63.45 3.62 
-43.39 -62.50 3.70 
-42.37 -62.65 3.71 
-42.07 -62.66 3.71 
-50.58 -77.10 3.26 
-50.01 -74.46 3.50 
-49.59 -74.58 3.47 
-49.46 -74.31 3.50 
-49.05 -74.43 3.47 
-56.64 -73.83 3.27 
-50.50 -73.99 3.14 
-50.28 -74.21 3.12 
-57.36 -73.37 3.33 
-57.02 -73.42 3.31 
-50.53 -73.67 3.17 
-50.04 -73.68 3.16 
-49.89 -73.56 3.17 
-49.38 -73.55 3.17 
-48.38 -73.86 3.51 
-50.76 -73.29 3.21 
-49.39 -73.36 3.18 
-48.80 -73.47 3.56 
-48.44 -73.41 3.56 
-48.29 -73.16 3.58 
-47.85 -73.26 3.56 
-38.53 -73.33 3.78 
-38.02 -73.22 3.51 
-37.84 -73.29 3.51 
-56.72 -72.63 3.37 
-49.20 -72.95 3.22 
-48.92 -72.91 3.22 
-48.58 -72.82 3.42 
-48.03 -73.06 3.59 
-47.87 -73.00 3.59 
-38.52 -73.00 3.53 
-38.26 -72.95 3.54 
-37.80 -73.12 3.63 
-37.47 -72.97 3.56 
-36.94 -73.08 3.56 
-36.68 -73.03 3.57 
-49.46 -72.41 3.27 
-48.94 -72.42 3.26 
-48.46 -72.48 3.25 
-47.76 -72.58 3.63 
-47.46 -72.38 3.65 
-38.99 -72.55 3.74 
-38.56 -72.68 3.57 
-38.15 -72.74 3.57 
-37.70 -72.75 3.58 
-56.30 -72.09 3.41 
-48.50 -71.99 3.30 
-48.21 -72.13 3.28 
-37.36 -72.14 3.67 
-48.46 -71.49 3.34 
-37.22 -71.92 3.70 
-35.88 -71.76 3.76 
-48.10 -71.35 3.35 
-47.91 -71.08 3.38 
-43.09 -67.96 3.69 
-42.80 -68.00 3.69 
-42.13 -67.99 3.70 
-42.91 -67.69 3.72 
-42.44 -67.88 3.71 
-42.04 -67.77 3.73 
-42.72 -67.33 3.76 
-42.45 -67.37 3.76 
-42.00 -67.44 3.76 
-41.75 -67.46 3.76 
-41.17 -67.39 3.78 
-51.61 -66.69 3.82 
-51.36 -66.70 3.82 
-50.94 -66.71 3.81 
-50.57 -66.72 3.81 
-50.09 -66.72 3.81 
-49.68 -66.71 3.81 
-49.19 -66.73 3.80 
-48.81 -66.74 3.80 
-48.44 -66.75 3.80 
-48.06 -66.79 3.79 
-47.71 -66.79 3.79 
-47.28 -66.76 3.80 
-46.89 -66.79 3.79 
-46.28 -66.78 3.80 
-46.04 -66.76 3.80 
-44.82 -66.83 3.80 
-44.51 -66.84 3.80 
-44.09 -66.84 3.80 
-43.55 -67.08 3.78 
-41.51 -66.78 3.84 
-40.89 -67.04 3.82 
-40.55 -66.96 3.83 
-40.19 -66.94 3.84 
-39.86 -66.94 3.85 
-35.93 -67.04 3.94 
-35.64 -67.06 3.95 
-35.32 -67.08 3.96 
-34.92 -67.09 3.97 
-45.67 -66.70 3.81 
-45.27 -66.70 3.81 
-43.90 -66.51 3.84 
-41.66 -66.75 3.84 
-43.54 -62.66 4.24 
-41.93 -62.58 4.27 
-41.69 -62.56 4.28 
-41.44 -77.08 3.68 
-49.86 -74.29 3.91 
-58.48 -73.94 3.31 
-58.31 -73.83 3.31 
-47.94 -74.02 3.85 
-58.34 -73.62 3.33 
-48.46 -73.66 3.92 
-47.99 -73.82 3.88 
-38.79 -73.87 3.97 
-38.22 -73.74 4.00 
-50.78 -73.30 3.64 
-49.82 -73.32 3.61 
-49.37 -73.24 3.60 
-49.07 -73.39 3.98 
-37.67 -73.27 4.09 
-49.28 -72.76 3.65 
-48.66 -72.92 3.62 
-48.07 -72.72 4.02 
-47.67 -72.98 3.97 
-57.62 -72.44 3.40 
-48.06 -72.70 4.02 
-38.54 -72.61 4.20 
-57.61 -71.85 3.45 
-57.17 -72.11 3.42 
-48.52 -71.99 3.72 
-48.03 -71.96 3.71 
-39.44 -72.16 3.94 
-57.55 -71.64 3.47 
-57.48 -71.63 3.47 
-49.22 -71.76 3.76 
-39.68 -71.92 3.98 
-48.78 -71.48 3.78 
-48.80 -70.65 3.87 
-43.52 -67.59 4.18 
-43.49 -67.59 4.18 
-42.93 -67.68 4.17 
-42.43 -67.95 4.14 
-42.14 -67.80 4.16 
-43.43 -67.46 4.20 
-42.74 -67.40 4.21 
-42.04 -67.39 4.21 
-48.45 -66.77 4.32 
-48.09 -66.77 4.31 
-47.74 -66.77 4.31 
-47.25 -66.78 4.30 
-46.90 -66.78 4.30 
-46.36 -66.81 4.29 
-46.04 -66.79 4.29 
-45.73 -66.79 4.29 
-45.33 -66.80 4.28 
-44.86 -66.81 4.28 
-44.47 -66.84 4.27 
-44.15 -66.84 4.27 
-41.87 -67.05 4.25 
-40.55 -66.95 4.28 
-40.13 -66.93 4.29 
-39.78 -66.98 4.29 
-36.09 -67.00 4.38 
-35.69 -67.10 4.36 
-35.26 -67.13 4.35 
-34.90 -67.15 4.34 
-34.49 -67.17 4.34 
-34.27 -67.10 4.35 
-43.99 -66.71 4.29 
-41.74 -66.73 4.30 
-41.62 -66.39 4.34 
-50.23 -74.13 3.95 
-50.84 -73.75 4.02 
-49.45 -73.60 3.97 
-38.31 -73.94 4.53 
-58.15 -73.33 3.92 
-57.91 -73.30 3.91 
-57.38 -73.23 3.90 
-50.24 -73.29 4.05 
-38.15 -73.64 4.31 
-57.66 -72.87 3.94 
-49.63 -73.00 4.05 
-48.61 -72.83 4.13 
-37.60 -72.95 4.46 
-57.21 -72.34 3.97 
-50.37 -72.46 4.16 
-48.55 -72.44 4.08 
-37.18 -72.70 4.52 
-36.18 -72.51 4.59 
-57.73 -72.01 4.02 
-57.36 -72.01 4.01 
-48.20 -72.09 4.11 
-47.94 -72.13 4.09 
-36.08 -72.37 4.62 
-57.50 -71.73 4.04 
-57.96 -71.01 4.13 
-48.49 -71.25 4.23 
-48.51 -70.91 4.27 
-48.49 -70.64 4.31 
-43.36 -67.73 4.61 
-42.91 -67.75 4.60 
-42.51 -67.73 4.60 
-42.21 -67.82 4.59 
-42.55 -67.59 4.62 
-42.03 -67.48 4.64 
-41.84 -67.51 4.64 
-52.40 -66.67 4.40 
-51.68 -66.72 4.38 
-51.34 -66.71 4.37 
-50.87 -66.71 4.36 
-50.51 -66.72 4.36 
-50.19 -66.70 4.35 
-49.69 -66.72 4.34 
-49.22 -66.72 4.33 
-48.83 -66.74 4.32 
-45.99 -66.77 4.78 
-45.66 -66.79 4.77 
-45.27 -66.80 4.76 
-44.87 -66.81 4.76 
-44.47 -66.86 4.74 
-44.18 -66.82 4.75 
-42.32 -66.98 4.72 
-41.72 -67.14 4.69 
-40.82 -66.91 4.73 
-40.52 -67.05 4.71 
-40.21 -66.93 4.73 
-39.74 -66.93 4.74 
-35.71 -67.14 4.79 
-35.24 -67.13 4.81 
-34.88 -67.18 4.80 
-34.57 -67.19 4.81 
-34.16 -67.15 4.85 
-33.82 -67.10 4.89 
-44.05 -66.58 4.78 
-42.34 -62.73 4.80 
-42.02 -62.65 4.82 
-41.75 -62.66 4.82 
-49.85 -73.57 4.41 
-49.29 -73.85 4.74 
-58.00 -73.05 4.51 
-57.41 -72.82 4.50 
-49.77 -73.07 4.47 
-49.20 -72.93 4.46 
-48.28 -72.97 4.80 
-47.64 -72.79 4.79 
-37.80 -72.97 4.75 
-57.78 -72.59 4.55 
-57.15 -72.57 4.51 
-48.33 -72.59 4.46 
-39.32 -72.67 4.81 
-37.54 -72.34 4.90 
-37.10 -72.44 4.89 
-50.45 -66.74 4.89 
-50.16 -66.74 4.89 
-48.40 -66.74 4.84 
-47.77 -66.75 4.82 
-47.33 -66.75 4.81 
-46.99 -66.77 4.80 
-40.57 -66.88 5.19 
-36.42 -67.14 5.27 
-36.17 -67.17 5.27 
-34.45 -67.20 5.29 
-34.10 -67.22 5.30 
-33.75 -67.22 5.31 
-50.79 -66.60 4.93 
-50.52 -66.69 4.90 
-50.11 -66.71 4.89 
-49.63 -66.71 4.87 
-49.24 -66.72 4.86 
-48.86 -66.73 4.85 
-48.59 -66.73 4.84 
-48.13 -66.74 4.83 
-42.35 -62.69 5.36 
-42.07 -62.63 5.37 
-49.67 -74.02 4.75 
-58.21 -72.14 4.62 
-57.72 -66.65 5.21 
-49.68 -66.76 5.40 
-36.87 -67.06 5.78 
-36.60 -67.07 5.78 
-36.09 -67.10 5.77 
-49.51 -66.73 5.40 
-47.02 -66.75 5.30 
-40.93 -66.84 5.65 
-40.29 -66.86 5.65 
-52.03 -66.66 5.53 
-46.67 -66.75 5.80 
-44.32 -66.77 5.72 
-42.49 -62.60 5.93 
-42.25 -62.53 5.95 
-57.87 -66.60 5.89 
-51.73 -66.67 6.09 
-51.31 -66.67 6.06 
-50.98 -66.69 6.04 
-49.26 -66.71 5.93 
-46.09 -66.64 6.30 
-45.93 -66.63 6.30 
-44.29 -66.48 6.26 
-44.07 -62.56 6.53 
-43.82 -62.53 6.53 
-42.43 -62.55 6.51 
-42.28 -62.45 6.53 
-50.92 -66.53 6.63 
-49.04 -66.66 6.47 
-42.12 -62.48 7.09 
-57.74 -66.48 6.57 
-57.15 -66.49 6.52 
-54.57 -66.47 6.94 
-43.64 -62.48 7.12 
-55.90 -66.40 7.08 
-41.17 -77.01 1.82 
-33.72 -73.67 2.14 
-33.59 -73.71 2.14 
-34.32 -73.36 2.12 
-33.80 -73.60 2.13 
-35.46 -72.86 2.10 
-34.98 -73.08 2.11 
-34.77 -73.16 2.11 
-57.61 -72.15 1.61 
-49.08 -72.23 1.94 
-36.22 -72.47 2.08 
-35.86 -72.66 2.09 
-37.48 -72.03 2.04 
-36.57 -72.13 2.07 
-36.37 -72.35 2.08 
-37.64 -71.95 2.04 
-36.98 -71.68 2.06 
-36.79 -71.81 2.07 
-37.34 -71.43 2.05 
-37.17 -71.51 2.06 
-43.41 -69.36 2.25 
-43.01 -69.24 2.27 
-42.57 -69.30 2.29 
-42.26 -69.19 2.30 
-41.84 -69.24 2.31 
-41.42 -69.34 2.32 
-41.03 -69.21 2.34 
-41.93 -69.02 2.32 
-40.09 -68.87 2.38 
-39.90 -68.61 2.40 
-39.66 -68.23 2.42 
-39.51 -68.03 2.43 
-38.88 -68.03 2.45 
-36.64 -68.04 2.52 
-36.38 -68.12 2.53 
-35.79 -68.13 2.54 
-35.42 -68.14 2.55 
-35.05 -68.21 2.56 
-46.19 -67.50 2.22 
-45.28 -67.79 2.24 
-45.01 -67.68 2.26 
-39.30 -67.82 2.44 
-39.04 -67.92 2.45 
-38.60 -67.84 2.47 
-37.90 -67.88 2.49 
-45.67 -67.38 2.25 
-53.88 -66.52 1.97 
-53.11 -66.54 2.00 
-52.61 -66.55 2.02 
-52.13 -66.56 2.04 
-51.90 -66.56 2.05 
-51.31 -66.58 2.07 
-50.95 -66.60 2.08 
-50.61 -66.60 2.09 
-50.16 -66.61 2.11 
-49.75 -66.63 2.12 
-49.32 -66.63 2.14 
-48.93 -66.64 2.15 
-48.54 -66.64 2.17 
-47.89 -66.63 2.19 
-46.40 -66.68 2.24 
-46.23 -66.68 2.25 
-56.10 -66.49 1.89 
-55.81 -66.48 1.90 
-54.41 -66.50 1.96 
-54.16 -66.51 1.97 
-53.62 -66.53 1.98 
-53.36 -66.53 1.99 
-52.87 -66.54 2.01 
-52.39 -66.54 2.03 
-51.68 -66.54 2.06 
-41.20 -77.03 2.18 
-43.62 -72.74 2.13 
-43.56 -72.58 2.13 
-37.59 -72.05 2.51 
-33.75 -70.30 2.53 
-40.62 -69.26 2.35 
-40.28 -69.17 2.37 
-33.62 -69.41 2.56 
-34.62 -68.85 2.55 
-33.83 -69.02 2.57 
-34.85 -68.70 2.55 
-34.62 -68.81 2.55 
-34.21 -68.74 2.57 
-33.71 -68.65 2.98 
-33.60 -68.66 2.99 
-50.47 -77.07 2.30 
-50.46 -76.99 2.51 
-41.27 -77.06 2.65 
-58.13 -74.23 2.10 
-57.62 -74.25 2.11 
-57.74 -74.01 2.12 
-57.62 -73.86 2.13 
-48.01 -74.06 2.70 
-57.74 -73.53 2.14 
-56.57 -73.68 2.16 
-57.66 -73.27 2.16 
-56.78 -73.17 2.18 
-49.30 -73.17 2.33 
-56.62 -72.86 2.20 
-50.99 -72.79 2.32 
-50.65 -72.75 2.33 
-50.08 -72.87 2.33 
-49.96 -72.61 2.35 
-56.92 -72.48 2.21 
-56.60 -72.47 2.22 
-50.88 -72.52 2.33 
-50.19 -72.59 2.34 
-49.17 -72.32 2.38 
-48.25 -72.52 2.39 
-48.04 -72.46 2.40 
-56.53 -72.00 2.25 
-56.19 -71.91 2.26 
-50.12 -72.10 2.37 
-48.09 -72.20 2.41 
-37.62 -72.09 2.99 
-57.69 -71.58 2.25 
-56.21 -71.69 2.27 
-56.01 -71.61 2.28 
-50.23 -71.64 2.39 
-55.93 -71.14 2.30 
-49.91 -71.23 2.42 
-49.78 -70.72 2.45 
-41.73 -67.69 2.81 
-42.51 -67.24 2.82 
-41.70 -67.32 2.83 
-52.93 -66.59 2.61 
-52.43 -66.61 2.62 
-52.21 -66.60 2.63 
-51.84 -66.61 2.63 
-51.50 -66.61 2.64 
-50.16 -66.65 2.67 
-49.84 -66.65 2.67 
-49.44 -66.65 2.68 
-49.02 -66.67 2.69 
-48.71 -66.68 2.70 
-47.68 -66.75 2.72 
-47.44 -66.71 2.73 
-47.02 -66.71 2.74 
-46.58 -66.73 2.75 
-46.21 -66.73 2.75 
-44.90 -66.79 2.78 
-44.57 -66.80 2.79 
-44.06 -66.83 2.80 
-43.87 -66.79 2.81 
-43.43 -66.83 2.82 
-42.46 -66.84 2.84 
-42.26 -66.78 2.85 
-40.59 -66.87 2.89 
-40.16 -66.89 2.90 
-39.86 -66.89 2.91 
-39.42 -66.90 2.92 
-38.97 -66.91 2.93 
-38.62 -66.92 2.94 
-38.14 -66.93 2.95 
-37.81 -66.94 2.96 
-37.38 -66.95 2.97 
-37.04 -66.96 2.98 
-36.63 -66.97 2.99 
-36.21 -66.98 3.00 
-35.84 -66.99 3.01 
-35.41 -67.00 3.03 
-34.95 -67.01 3.04 
-34.56 -67.02 3.05 
-34.18 -67.03 3.06 
-33.80 -67.04 3.07 
-51.33 -66.54 2.65 
-48.60 -66.56 2.71 
-43.83 -66.46 2.83 
-43.80 -65.20 2.90 
-43.79 -64.82 2.92 
-43.79 -64.40 2.95 
-42.51 -62.59 3.08 
-42.06 -62.60 3.09 
-57.75 -74.80 2.65 
-57.50 -74.34 2.68 
-56.83 -74.22 2.69 
-56.02 -74.20 2.69 
-57.43 -73.82 2.71 
-57.67 -73.50 2.73 
-50.14 -73.70 2.72 
-49.90 -73.57 2.73 
-49.63 -73.46 2.74 
-49.23 -73.44 2.74 
-38.02 -73.70 3.42 
-57.55 -73.12 2.76 
-56.51 -73.32 2.74 
-56.46 -73.15 2.75 
-49.93 -73.17 2.76 
-49.48 -73.34 2.75 
-49.18 -73.23 2.76 
-48.57 -73.25 2.76 
-48.28 -73.21 2.76 
-38.53 -73.33 3.16 
-56.50 -72.76 2.78 
-56.28 -72.86 2.77 
-48.38 -72.86 2.79 
-38.08 -72.91 3.21 
-37.38 -72.95 3.22 
-37.26 -72.96 3.22 
-57.64 -72.28 2.81 
-56.83 -72.15 2.82 
-48.58 -72.48 2.81 
-48.12 -72.59 2.81 
-47.98 -72.55 2.81 
-38.58 -72.60 3.23 
-38.33 -72.67 3.23 
-37.92 -72.64 3.24 
-57.23 -72.11 2.82 
-56.69 -71.92 2.83 
-48.83 -72.05 2.84 
-48.11 -72.23 2.83 
-48.03 -72.03 2.85 
-37.75 -72.09 3.30 
-37.67 -72.12 3.30 
-36.91 -72.07 3.32 
-36.66 -72.12 3.32 
-36.29 -72.20 3.32 
-56.51 -71.52 2.86 
-48.19 -71.67 2.87 
-37.33 -71.64 3.36 
-37.15 -71.64 3.36 
-36.83 -72.01 3.33 
-39.33 -71.40 3.34 
-39.08 -71.58 3.33 
-38.06 -71.47 3.36 
-37.16 -71.53 3.37 
-57.78 -70.89 2.90 
-56.93 -70.78 2.91 
-56.75 -70.70 2.91 
-56.92 -70.32 2.94 
-56.67 -70.31 2.94 
-43.24 -68.05 3.20 
-41.83 -67.96 3.23 
-42.97 -67.79 3.22 
-42.47 -67.75 3.23 
-42.13 -67.75 3.24 
-41.72 -67.56 3.26 
-42.54 -67.25 3.27 
-41.44 -67.55 3.27 
-52.51 -66.67 3.20 
-52.18 -66.66 3.21 
-51.84 -66.68 3.21 
-50.25 -66.70 3.22 
-49.83 -66.70 3.22 
-49.42 -66.71 3.22 
-49.00 -66.72 3.23 
-48.73 -66.68 3.23 
-47.34 -66.76 3.24 
-47.02 -66.76 3.25 
-46.57 -66.77 3.25 
-46.21 -66.77 3.25 
-44.98 -66.81 3.27 
-44.58 -66.80 3.27 
-44.14 -66.83 3.28 
-43.89 -66.90 3.28 
-41.78 -66.95 3.31 
-40.60 -66.89 3.34 
-40.20 -66.92 3.34 
-39.85 -66.91 3.35 
-38.60 -66.96 3.38 
-38.15 -66.95 3.39 
-37.81 -66.96 3.39 
-37.38 -66.97 3.40 
-37.11 -66.98 3.41 
-36.10 -66.93 3.44 
-35.82 -67.01 3.44 
-35.41 -67.02 3.46 
-34.96 -67.02 3.47 
-34.54 -67.05 3.48 
-34.17 -66.91 3.50 
-33.77 -66.90 3.52 
-42.44 -62.59 3.64 
-42.11 -62.58 3.65 
-50.55 -77.10 2.90 
-41.49 -77.08 3.50 
-49.85 -74.49 3.09 
-49.58 -74.32 3.10 
-50.11 -74.09 3.13 
-49.62 -73.97 3.13 
-49.54 -73.72 3.15 
-49.04 -73.56 3.16 
-48.83 -73.47 3.16 
-47.75 -73.50 3.55 
-49.65 -73.40 3.18 
-49.10 -73.25 3.18 
-48.08 -73.32 3.16 
-38.66 -73.39 3.74 
-37.80 -73.30 3.47 
-37.70 -73.56 3.72 
-50.95 -72.73 3.25 
-49.15 -72.86 3.22 
-48.72 -72.74 3.22 
-38.70 -72.91 3.51 
-38.29 -73.07 3.49 
-38.00 -73.18 3.63 
-37.58 -73.01 3.51 
-36.98 -73.08 3.51 
-36.74 -72.99 3.53 
-36.24 -73.17 3.52 
-49.43 -72.60 3.24 
-49.00 -72.47 3.25 
-48.36 -72.46 3.24 
-47.92 -72.28 3.25 
-38.70 -72.72 3.53 
-37.77 -72.71 3.85 
-37.43 -72.48 3.58 
-37.21 -72.71 3.55 
-36.64 -72.63 3.88 
-36.45 -72.67 3.73 
-48.38 -71.97 3.28 
-47.79 -72.22 3.26 
-47.66 -72.16 3.26 
-38.72 -72.21 3.59 
-37.44 -72.39 3.59 
-36.06 -72.27 3.64 
-36.18 -71.75 3.70 
-48.50 -71.27 3.35 
-48.17 -71.33 3.34 
-47.98 -71.25 3.35 
-35.99 -71.62 3.72 
-42.92 -67.97 3.65 
-42.99 -67.74 3.68 
-42.78 -67.73 3.68 
-42.27 -67.66 3.69 
-42.02 -67.86 3.67 
-42.59 -67.36 3.72 
-42.06 -67.43 3.71 
-41.83 -67.27 3.73 
-41.41 -67.22 3.74 
-41.22 -67.40 3.73 
-50.28 -66.71 3.77 
-49.84 -66.72 3.77 
-49.44 -66.72 3.77 
-49.03 -66.73 3.77 
-48.72 -66.74 3.76 
-48.12 -66.77 3.76 
-47.48 -66.75 3.76 
-47.03 -66.78 3.76 
-46.62 -66.79 3.76 
-46.22 -66.81 3.75 
-45.85 -66.77 3.76 
-44.92 -66.84 3.75 
-44.60 -66.82 3.76 
-44.20 -66.82 3.76 
-43.82 -66.92 3.75 
-41.66 -66.85 3.78 
-41.12 -67.11 3.76 
-40.74 -66.91 3.78 
-40.38 -66.91 3.79 
-38.63 -66.93 3.82 
-35.86 -67.03 3.87 
-35.46 -67.05 3.88 
-34.97 -67.07 3.90 
-34.55 -67.06 3.91 
-34.32 -66.99 3.93 
-45.40 -66.71 3.77 
-45.14 -66.72 3.77 
-43.98 -66.57 3.79 
-43.06 -66.74 3.77 
-41.73 -66.71 3.79 
-42.18 -62.66 4.20 
-50.65 -77.12 3.31 
-50.30 -77.26 3.68 
-50.25 -77.03 3.70 
-41.49 -77.08 3.75 
-57.63 -74.82 3.22 
-50.14 -74.49 3.53 
-50.06 -74.30 3.54 
-58.42 -73.84 3.31 
-49.96 -74.07 3.56 
-48.16 -73.99 3.91 
-57.79 -73.53 3.32 
-57.38 -73.69 3.30 
-49.83 -73.76 3.59 
-49.56 -73.57 3.60 
-38.97 -73.82 3.97 
-38.83 -73.69 3.99 
-57.65 -73.32 3.33 
-49.49 -73.27 3.62 
-49.20 -73.27 3.61 
-48.63 -73.43 3.58 
-48.19 -73.34 3.58 
-47.88 -73.23 3.58 
-37.82 -73.50 4.02 
-58.10 -72.67 3.39 
-57.10 -72.72 3.36 
-56.71 -72.75 3.35 
-49.36 -73.02 3.64 
-49.09 -72.87 3.65 
-48.31 -72.81 3.63 
-37.68 -73.20 4.08 
-56.87 -72.37 3.39 
-56.42 -72.23 3.39 
-57.11 -72.00 3.42 
-56.31 -72.10 3.40 
-48.38 -72.07 3.71 
-39.67 -72.09 3.93 
-47.79 -71.88 3.72 
-57.32 -71.23 3.48 
-49.40 -71.33 3.82 
-48.77 -70.48 3.89 
-43.54 -67.57 4.15 
-43.00 -67.75 4.13 
-42.58 -67.85 4.12 
-42.21 -67.84 4.12 
-43.44 -67.34 4.18 
-52.12 -66.72 3.79 
-51.70 -66.69 3.79 
-51.39 -66.70 3.78 
-51.20 -66.73 3.78 
-50.71 -66.70 3.78 
-47.02 -66.79 4.27 
-46.61 -66.79 4.27 
-46.20 -66.80 4.26 
-45.85 -66.80 4.26 
-45.45 -66.80 4.26 
-45.03 -66.81 4.25 
-44.69 -66.82 4.25 
-44.26 -66.88 4.24 
-42.95 -67.06 4.21 
-42.10 -66.95 4.23 
-41.94 -67.02 4.22 
-40.68 -66.95 4.24 
-36.92 -66.88 4.30 
-36.12 -66.94 4.32 
-35.88 -67.02 4.31 
-35.51 -67.04 4.32 
-35.04 -67.05 4.33 
-34.59 -67.06 4.35 
-34.27 -66.98 4.37 
-41.78 -66.69 4.26 
-41.69 -66.38 4.30 
-41.62 -77.03 4.01 
-58.18 -73.85 3.90 
-58.12 -73.70 3.91 
-51.22 -73.62 4.11 
-50.40 -73.74 4.05 
-48.83 -73.71 3.98 
-38.32 -73.85 4.54 
-58.11 -73.32 3.94 
-49.59 -73.21 4.07 
-49.29 -73.13 4.07 
-38.25 -73.50 4.32 
-37.15 -73.38 4.34 
-58.45 -72.92 3.99 
-57.92 -72.80 3.98 
-57.54 -72.79 3.97 
-48.98 -72.98 4.07 
-48.84 -72.83 4.08 
-48.34 -72.78 4.06 
-36.97 -73.26 4.37 
-57.31 -72.33 4.00 
-49.04 -72.65 4.11 
-48.79 -72.61 4.10 
-57.93 -72.17 4.04 
-57.47 -71.98 4.03 
-48.59 -71.99 4.17 
-48.47 -71.92 4.17 
-47.99 -72.06 4.14 
-57.82 -71.59 4.08 
-48.29 -71.66 4.20 
-39.38 -72.01 4.28 
-57.87 -71.30 4.11 
-36.70 -71.55 4.71 
-49.78 -70.97 4.35 
-48.62 -70.98 4.30 
-48.34 -70.55 4.34 
-43.46 -67.66 4.60 
-43.07 -67.70 4.59 
-42.62 -67.81 4.57 
-42.41 -67.72 4.58 
-43.34 -67.58 4.61 
-42.34 -67.53 4.61 
-41.88 -67.43 4.62 
-53.70 -66.67 4.42 
-53.07 -66.68 4.41 
-52.71 -66.67 4.40 
-52.15 -66.72 4.38 
-51.68 -66.73 4.37 
-51.42 -66.71 4.36 
-51.03 -66.72 4.35 
-50.65 -66.73 4.34 
-50.19 -66.71 4.34 
-49.87 -66.72 4.33 
-49.46 -66.73 4.32 
-49.05 -66.73 4.31 
-48.75 -66.73 4.31 
-48.14 -66.77 4.29 
-47.39 -66.78 4.28 
-47.20 -66.79 4.28 
-44.71 -66.82 4.74 
-44.30 -66.84 4.73 
-42.40 -66.99 4.69 
-36.15 -67.01 4.74 
-35.88 -67.02 4.75 
-35.50 -67.03 4.76 
-35.11 -67.04 4.77 
-34.57 -67.16 4.76 
-34.21 -67.10 4.79 
-33.82 -67.08 4.81 
-44.11 -66.55 4.77 
-43.28 -62.60 4.76 
-42.21 -62.63 4.76 
-49.96 -74.25 4.40 
-49.53 -73.75 4.44 
-49.81 -73.40 4.50 
-48.82 -73.24 4.46 
-37.59 -73.28 4.66 
-49.77 -72.90 4.56 
-48.26 -72.73 4.49 
-39.11 -73.05 4.72 
-48.46 -72.35 4.56 
-39.46 -72.71 4.80 
-37.33 -72.78 4.77 
-36.52 -72.65 4.81 
-49.08 -71.12 4.76 
-48.29 -71.18 4.71 
-42.53 -67.41 5.09 
-50.60 -66.75 4.91 
-50.28 -66.76 4.89 
-49.90 -66.74 4.88 
-49.48 -66.74 4.87 
-49.07 -66.73 4.86 
-48.77 -66.73 4.85 
-47.52 -66.76 4.81 
-47.05 -66.77 4.79 
-46.60 -66.78 4.78 
-46.24 -66.78 4.77 
-45.90 -66.78 4.77 
-45.47 -66.80 4.76 
-45.05 -66.80 4.75 
-40.98 -66.89 5.16 
-36.65 -66.98 5.18 
-35.64 -67.00 5.20 
-34.90 -67.19 5.24 
-34.67 -67.18 5.24 
-34.28 -67.20 5.25 
-33.92 -67.21 5.25 
-42.63 -62.69 5.32 
-42.32 -62.63 5.33 
-48.58 -73.14 4.88 
-50.39 -72.94 5.07 
-49.43 -72.88 4.99 
-48.43 -72.93 4.91 
-52.18 -66.73 4.97 
-51.95 -66.71 4.96 
-35.17 -67.04 5.76 
-46.54 -66.76 5.30 
-46.36 -66.78 5.29 
-40.60 -66.87 5.63 
-40.46 -66.86 5.63 
-49.43 -71.18 5.25 
-49.04 -70.98 5.26 
-57.97 -66.67 5.24 
-57.64 -66.68 5.22 
-50.71 -66.76 5.48 
-50.30 -66.74 5.46 
-49.76 -66.76 5.43 
-51.84 -66.65 5.55 
-50.58 -66.70 5.48 
-50.24 -66.73 5.46 
-49.95 -66.72 5.45 
-45.31 -66.80 5.76 
-45.16 -66.78 5.76 
-35.52 -66.94 6.12 
-42.59 -62.68 5.89 
-35.39 -67.07 6.25 
-51.06 -66.71 6.09 
-49.48 -66.76 5.98 
-49.23 -66.67 5.98 
-45.73 -66.73 6.31 
-45.53 -66.75 6.29 
-44.09 -62.53 6.52 
-52.33 -66.67 6.18 
-51.85 -66.67 6.15 
-48.64 -66.71 6.49 
-48.49 -66.68 6.49 
-46.25 -66.72 6.34 
-45.99 -66.73 6.32 
-52.25 -66.54 6.81 
-51.78 -66.53 6.77 
-51.55 -66.53 6.75 
-43.09 -62.51 7.09 
-43.49 -62.48 7.11 
-43.12 -62.49 7.09 
-58.08 -66.47 7.38 
-40.89 -77.02 1.78 
-34.00 -73.25 2.11 
-33.80 -73.31 2.12 
-34.92 -72.86 2.09 
-34.60 -73.01 2.10 
-34.21 -73.15 2.11 
-57.32 -72.25 1.54 
-48.79 -72.30 1.89 
-48.77 -72.27 1.89 
-35.68 -72.53 2.06 
-35.40 -72.70 2.07 
-35.10 -72.79 2.08 
-57.24 -72.11 1.55 
-37.24 -72.03 2.01 
-37.12 -72.00 2.02 
-36.20 -72.18 2.05 
-35.91 -72.40 2.06 
-37.12 -71.97 2.02 
-36.55 -71.78 2.04 
-36.87 -71.51 2.03 
-43.54 -69.21 2.21 
-42.92 -69.34 2.23 
-42.49 -69.35 2.24 
-42.20 -69.30 2.25 
-41.87 -69.22 2.27 
-41.34 -69.34 2.28 
-40.94 -69.31 2.30 
-40.60 -69.23 2.31 
-40.18 -69.25 2.33 
-41.71 -69.10 2.28 
-39.96 -69.15 2.34 
-39.82 -68.92 2.35 
-39.65 -68.68 2.37 
-39.47 -68.47 2.38 
-39.31 -68.13 2.40 
-38.75 -68.02 2.42 
-38.59 -68.04 2.42 
-35.83 -68.05 2.52 
-35.23 -68.20 2.53 
-34.97 -68.19 2.54 
-46.24 -67.52 2.17 
-45.84 -67.71 2.17 
-45.25 -67.62 2.20 
-44.83 -67.78 2.21 
-44.54 -67.71 2.22 
-39.17 -67.92 2.41 
-38.83 -67.93 2.42 
-38.52 -67.89 2.43 
-37.81 -67.91 2.46 
-37.36 -67.93 2.47 
-49.34 -67.33 2.05 
-48.70 -67.33 2.08 
-50.15 -66.63 2.05 
-48.80 -66.67 2.10 
-47.97 -66.67 2.13 
-46.07 -66.71 2.20 
-56.04 -66.51 1.82 
-55.73 -66.52 1.83 
-54.11 -66.54 1.90 
-53.68 -66.55 1.91 
-53.27 -66.55 1.93 
-52.87 -66.57 1.94 
-52.47 -66.57 1.96 
-52.09 -66.56 1.97 
-51.71 -66.59 1.99 
-51.34 -66.59 2.00 
-50.97 -66.60 2.02 
-50.50 -66.61 2.04 
-49.71 -66.61 2.07 
-49.48 -66.62 2.07 
-48.62 -66.64 2.11 
-48.20 -66.64 2.12 
-40.92 -77.06 2.15 
-43.26 -72.86 2.09 
-43.25 -72.51 2.10 
-37.26 -72.07 2.49 
-34.20 -68.89 2.54 
-33.61 -68.91 2.56 
-34.56 -68.67 2.54 
-34.02 -68.72 2.55 
-33.85 -68.71 2.56 
-40.96 -77.09 2.53 
-57.28 -74.24 2.07 
-57.35 -73.96 2.08 
-57.44 -73.48 2.10 
-56.71 -73.32 2.13 
-55.73 -73.06 2.16 
-48.97 -73.13 2.30 
-56.52 -72.84 2.15 
-55.91 -72.74 2.17 
-50.65 -72.82 2.28 
-47.90 -72.80 2.34 
-56.38 -72.51 2.17 
-50.63 -72.49 2.30 
-49.90 -72.52 2.31 
-48.84 -72.33 2.35 
-48.00 -72.56 2.36 
-47.92 -72.45 2.36 
-57.17 -71.82 2.19 
-56.14 -72.02 2.20 
-55.69 -71.88 2.22 
-50.05 -72.03 2.34 
-49.96 -71.91 2.35 
-47.78 -72.18 2.38 
-37.30 -72.10 2.97 
-55.55 -71.76 2.23 
-50.00 -71.68 2.36 
-49.84 -71.63 2.36 
-37.46 -72.01 2.98 
-55.89 -71.32 2.25 
-49.68 -71.29 2.39 
-49.44 -70.78 2.42 
-41.45 -67.70 2.79 
-41.43 -67.36 2.81 
-53.96 -66.62 2.54 
-52.56 -66.63 2.57 
-52.19 -66.66 2.58 
-51.69 -66.68 2.59 
-51.24 -66.66 2.60 
-51.09 -66.67 2.60 
-49.72 -66.69 2.63 
-49.39 -66.70 2.64 
-48.87 -66.70 2.65 
-48.64 -66.71 2.66 
-47.30 -66.76 2.69 
-46.94 -66.73 2.70 
-46.56 -66.73 2.71 
-46.21 -66.75 2.72 
-45.81 -66.75 2.73 
-44.48 -66.84 2.76 
-44.18 -66.84 2.76 
-43.76 -66.86 2.77 
-43.04 -66.86 2.79 
-42.34 -66.78 2.82 
-42.07 -66.84 2.82 
-40.37 -66.90 2.86 
-40.07 -66.93 2.87 
-39.79 -66.90 2.88 
-39.38 -66.90 2.89 
-38.95 -66.91 2.90 
-38.61 -66.92 2.91 
-38.12 -66.94 2.92 
-37.72 -66.95 2.93 
-37.32 -66.95 2.95 
-36.91 -66.96 2.96 
-36.55 -66.97 2.97 
-36.13 -66.98 2.98 
-35.70 -66.98 2.99 
-35.36 -67.00 3.00 
-34.96 -67.01 3.01 
-34.57 -67.01 3.03 
-34.14 -67.02 3.04 
-33.82 -67.04 3.05 
-56.43 -66.51 2.49 
-53.74 -66.56 2.55 
-52.14 -66.63 2.58 
-51.78 -66.63 2.59 
-51.41 -66.64 2.60 
-51.01 -66.55 2.61 
-48.32 -66.60 2.67 
-45.60 -66.65 2.74 
-43.33 -66.74 2.79 
-43.57 -65.11 2.88 
-43.56 -64.74 2.90 
-42.82 -62.61 3.04 
-42.55 -62.62 3.05 
-42.19 -62.61 3.06 
-50.18 -77.13 2.49 
-40.99 -77.08 2.91 
-57.45 -74.81 2.63 
-57.33 -74.48 2.65 
-56.51 -74.37 2.66 
-56.45 -74.12 2.67 
-57.18 -73.54 2.71 
-56.20 -73.54 2.71 
-49.79 -73.72 2.71 
-49.40 -73.49 2.72 
-48.98 -73.50 2.73 
-37.75 -73.86 3.40 
-56.21 -73.22 2.73 
-49.78 -73.37 2.73 
-49.27 -73.44 2.73 
-48.88 -73.28 2.74 
-48.27 -73.31 2.74 
-38.15 -73.26 3.16 
-57.09 -72.75 2.76 
-56.22 -72.83 2.75 
-55.88 -72.83 2.75 
-48.08 -72.94 2.77 
-37.85 -72.93 3.20 
-37.55 -72.93 3.21 
-37.02 -72.99 3.21 
-57.38 -72.39 2.78 
-56.49 -72.25 2.79 
-48.35 -72.44 2.80 
-47.82 -72.46 2.80 
-38.49 -72.70 3.22 
-38.14 -72.69 3.22 
-37.67 -72.77 3.22 
-37.49 -72.80 3.22 
-56.42 -71.87 2.81 
-56.37 -72.13 2.80 
-48.46 -72.14 2.82 
-48.06 -71.96 2.84 
-47.61 -72.21 2.82 
-37.49 -72.17 3.29 
-36.21 -72.22 3.31 
-35.99 -72.26 3.31 
-56.21 -71.58 2.83 
-36.84 -71.75 3.34 
-36.66 -71.90 3.33 
-36.34 -71.78 3.35 
-35.97 -71.96 3.34 
-57.48 -70.99 2.87 
-39.04 -71.35 3.35 
-37.74 -71.30 3.37 
-37.01 -71.50 3.36 
-35.88 -71.54 3.39 
-57.55 -70.92 2.87 
-56.58 -70.78 2.88 
-37.70 -71.12 3.39 
-56.52 -70.35 2.91 
-57.16 -70.05 2.93 
-42.85 -68.09 3.18 
-41.56 -68.00 3.21 
-42.82 -67.81 3.20 
-42.59 -67.84 3.20 
-42.17 -67.77 3.22 
-41.83 -67.86 3.22 
-41.47 -67.70 3.24 
-41.14 -67.60 3.25 
-41.42 -67.59 3.24 
-52.51 -66.69 3.18 
-52.21 -66.71 3.18 
-51.75 -66.69 3.18 
-51.34 -66.73 3.19 
-49.97 -66.73 3.20 
-49.77 -66.76 3.20 
-49.48 -66.75 3.20 
-48.93 -66.78 3.20 
-48.62 -66.78 3.21 
-47.32 -66.78 3.22 
-46.94 -66.78 3.22 
-46.46 -66.78 3.23 
-46.18 -66.79 3.23 
-45.81 -66.79 3.24 
-44.54 -66.83 3.25 
-44.13 -66.87 3.26 
-43.76 -66.88 3.26 
-41.50 -67.06 3.28 
-40.44 -66.92 3.32 
-40.09 -66.91 3.32 
-39.76 -66.93 3.33 
-39.52 -66.92 3.34 
-38.17 -66.96 3.36 
-37.73 -66.97 3.37 
-37.33 -66.98 3.38 
-36.89 -66.99 3.39 
-35.68 -66.97 3.43 
-35.37 -67.02 3.43 
-34.96 -67.03 3.45 
-34.58 -67.04 3.46 
-34.15 -67.03 3.47 
-33.78 -66.95 3.49 
-51.15 -66.65 3.19 
-42.06 -62.68 3.62 
-50.24 -77.17 2.90 
-50.21 -77.07 2.91 
-41.13 -77.11 3.29 
-49.70 -74.31 3.11 
-49.46 -74.39 3.10 
-49.32 -74.08 3.13 
-49.29 -73.61 3.16 
-49.12 -73.58 3.16 
-48.74 -73.54 3.16 
-49.00 -73.33 3.18 
-48.31 -73.39 3.17 
-47.77 -73.32 3.17 
-38.66 -73.40 3.75 
-38.32 -73.54 3.73 
-37.80 -73.39 3.45 
-37.45 -73.52 3.51 
-48.99 -72.97 3.21 
-48.54 -72.84 3.22 
-39.03 -73.16 3.48 
-38.29 -73.02 3.50 
-37.85 -73.11 3.59 
-37.32 -72.95 3.52 
-36.64 -73.11 3.51 
-36.34 -72.98 3.53 
-35.92 -73.17 3.51 
-49.09 -72.59 3.25 
-48.68 -72.68 3.23 
-48.14 -72.64 3.23 
-47.92 -72.41 3.25 
-38.66 -72.82 3.52 
-38.41 -72.66 3.54 
-37.21 -72.65 3.71 
-36.09 -72.86 3.55 
-47.89 -72.06 3.28 
-37.07 -72.37 3.59 
-36.31 -72.04 3.65 
-47.81 -71.38 3.34 
-35.53 -71.64 3.71 
-48.12 -71.11 3.36 
-42.79 -67.89 3.66 
-42.60 -67.91 3.66 
-42.26 -67.96 3.65 
-41.85 -67.99 3.65 
-42.21 -67.58 3.69 
-41.76 -67.40 3.71 
-41.46 -67.44 3.71 
-40.97 -67.38 3.72 
-48.91 -66.79 3.76 
-48.57 -66.77 3.76 
-48.12 -66.79 3.75 
-47.75 -66.80 3.75 
-47.33 -66.80 3.75 
-46.96 -66.79 3.75 
-46.57 -66.80 3.75 
-46.19 -66.82 3.75 
-45.81 -66.84 3.75 
-45.36 -66.83 3.75 
-44.49 -66.89 3.74 
-44.14 -66.90 3.75 
-43.81 -66.83 3.75 
-42.21 -66.86 3.76 
-41.52 -66.98 3.76 
-40.76 -67.13 3.75 
-40.25 -66.93 3.78 
-35.67 -67.03 3.86 
-35.35 -67.05 3.87 
-35.00 -67.05 3.88 
-34.59 -67.08 3.89 
-34.16 -67.05 3.90 
-45.24 -66.73 3.76 
-44.99 -66.75 3.76 
-43.66 -66.49 3.79 
-41.49 -66.72 3.78 
-50.30 -77.18 3.33 
-41.18 -77.12 3.68 
-58.33 -74.13 3.29 
-49.59 -74.00 3.59 
-57.76 -73.65 3.31 
-57.36 -73.47 3.32 
-57.09 -73.80 3.29 
-49.56 -73.68 3.62 
-48.77 -73.80 3.58 
-47.74 -73.57 3.57 
-38.79 -73.91 3.98 
-37.99 -73.82 3.98 
-36.75 -73.70 4.00 
-49.49 -73.48 3.64 
-48.98 -73.28 3.64 
-48.63 -73.22 3.63 
-37.73 -73.40 4.05 
-37.40 -73.55 4.03 
-56.67 -73.01 3.34 
-56.33 -72.89 3.34 
-48.64 -72.95 3.66 
-48.13 -73.06 3.64 
-47.87 -73.11 3.62 
-47.07 -72.80 3.63 
-37.21 -72.91 4.14 
-57.60 -72.29 3.41 
-56.56 -72.24 3.39 
-48.08 -72.52 3.69 
-57.07 -72.17 3.41 
-56.07 -72.12 3.39 
-49.24 -72.01 3.77 
-48.86 -71.98 3.77 
-36.38 -72.18 4.27 
-57.43 -71.47 3.47 
-56.81 -71.45 3.46 
-48.94 -71.56 3.81 
-48.75 -71.93 3.77 
-48.24 -71.84 3.76 
-49.04 -71.26 3.84 
-43.33 -67.65 4.15 
-42.90 -67.70 4.14 
-42.53 -67.85 4.12 
-42.21 -67.76 4.13 
-41.78 -67.92 4.11 
-43.23 -67.53 4.16 
-43.11 -67.45 4.17 
-52.40 -66.71 3.79 
-51.70 -66.73 3.78 
-51.36 -66.74 3.78 
-51.03 -66.73 3.78 
-50.53 -66.75 3.77 
-50.12 -66.76 3.77 
-49.79 -66.76 3.76 
-49.50 -66.77 3.76 
-45.74 -66.83 4.27 
-45.39 -66.82 4.26 
-44.94 -66.83 4.26 
-44.59 -66.83 4.26 
-44.13 -66.89 4.25 
-43.89 -66.86 4.25 
-41.67 -67.08 4.22 
-40.56 -66.91 4.24 
-36.47 -66.93 4.29 
-36.29 -66.93 4.30 
-35.76 -66.98 4.30 
-35.34 -67.04 4.31 
-35.00 -67.05 4.31 
-34.59 -67.07 4.32 
-34.20 -67.04 4.34 
-33.73 -66.96 4.36 
-52.70 -66.67 3.79 
-41.48 -66.57 4.28 
-36.17 -66.90 4.30 
-33.92 -66.92 4.36 
-42.34 -62.57 4.19 
-42.12 -62.72 4.18 
-41.42 -77.04 4.11 
-48.14 -74.07 3.96 
-57.73 -73.73 3.92 
-49.93 -73.68 4.09 
-49.33 -73.94 4.03 
-48.54 -73.90 4.00 
-48.13 -73.76 3.99 
-47.89 -73.63 4.00 
-38.22 -73.92 4.56 
-51.07 -73.51 4.17 
-49.49 -73.33 4.11 
-49.22 -73.19 4.11 
-57.82 -73.01 3.99 
-57.01 -72.79 3.97 
-49.10 -72.94 4.13 
-48.48 -72.76 4.12 
-48.25 -72.88 4.10 
-48.46 -72.60 4.14 
-48.17 -72.50 4.14 
-47.62 -72.64 4.10 
-57.17 -72.03 4.05 
-47.87 -72.15 4.17 
-36.59 -72.28 4.58 
-36.28 -72.30 4.57 
-57.07 -71.77 4.07 
-39.16 -72.04 4.29 
-49.34 -71.21 4.35 
-48.14 -70.86 4.34 
-48.58 -70.69 4.38 
-43.10 -67.67 4.62 
-42.61 -67.89 4.58 
-42.28 -67.87 4.58 
-42.98 -67.61 4.62 
-41.82 -67.51 4.62 
-41.49 -67.40 4.64 
-52.67 -66.73 4.41 
-51.67 -66.74 4.38 
-51.42 -66.74 4.38 
-51.05 -66.74 4.37 
-50.58 -66.75 4.36 
-50.13 -66.74 4.35 
-49.86 -66.78 4.34 
-49.56 -66.76 4.34 
-48.94 -66.79 4.32 
-48.59 -66.77 4.32 
-48.09 -66.80 4.30 
-47.73 -66.82 4.30 
-47.37 -66.82 4.29 
-46.96 -66.82 4.28 
-46.57 -66.83 4.28 
-46.20 -66.84 4.27 
-45.93 -66.81 4.27 
-42.20 -66.98 4.70 
-36.49 -67.01 4.72 
-36.23 -67.02 4.73 
-35.70 -67.03 4.74 
-35.38 -67.04 4.74 
-34.99 -67.04 4.75 
-34.60 -67.06 4.76 
-34.28 -67.07 4.77 
-33.76 -67.07 4.79 
-42.10 -62.79 4.74 
-49.37 -74.22 4.45 
-49.60 -73.62 4.54 
-48.17 -73.73 4.43 
-48.10 -72.95 4.53 
-47.88 -72.89 4.52 
-36.97 -73.24 4.69 
-47.72 -72.77 4.53 
-58.05 -71.84 4.10 
-37.22 -72.51 4.85 
-47.69 -71.25 4.74 
-50.14 -66.77 4.92 
-49.79 -66.78 4.91 
-48.92 -66.78 4.88 
-48.58 -66.82 4.87 
-48.18 -66.80 4.85 
-47.88 -66.80 4.85 
-47.36 -66.81 4.83 
-46.99 -66.80 4.82 
-46.51 -66.81 4.81 
-46.14 -66.81 4.80 
-45.86 -66.82 4.79 
-45.41 -66.83 4.78 
-44.96 -66.83 4.77 
-44.61 -66.84 4.76 
-44.17 -66.87 4.75 
-43.84 -66.85 4.74 
-36.57 -66.98 5.17 
-36.15 -67.02 5.17 
-35.26 -67.02 5.19 
-34.85 -67.05 5.20 
-34.72 -67.04 5.20 
-33.69 -67.16 5.26 
-49.14 -66.77 4.89 
-47.69 -66.79 4.84 
-46.71 -66.80 4.81 
-46.33 -66.80 4.80 
-43.83 -66.56 4.78 
-43.87 -66.42 4.80 
-43.08 -62.64 5.34 
-42.71 -62.64 5.33 
-47.92 -73.62 4.86 
-58.43 -73.19 4.63 
-57.72 -73.32 4.58 
-48.67 -72.64 5.07 
-58.07 -72.09 4.72 
-47.65 -72.13 5.06 
-51.88 -66.77 4.99 
-50.41 -66.80 4.93 
-46.87 -66.83 5.35 
-46.67 -66.84 5.34 
-44.03 -66.86 5.25 
-36.45 -66.99 5.62 
-36.04 -66.99 5.63 
-34.12 -67.13 5.76 
-33.93 -67.16 5.76 
-52.61 -66.69 5.03 
-52.20 -66.72 5.01 
-51.70 -66.74 4.99 
-51.46 -66.73 4.98 
-58.47 -66.68 5.31 
-52.48 -66.74 5.64 
-51.54 -66.68 5.59 
-50.50 -66.78 5.52 
-50.18 -66.76 5.51 
-49.83 -66.77 5.49 
-44.25 -66.81 5.77 
-44.01 -66.62 5.80 
-37.68 -66.89 6.09 
-35.09 -66.95 6.11 
-34.61 -66.98 6.12 
-48.56 -66.64 6.02 
-46.53 -66.81 5.87 
-46.34 -66.82 5.86 
-51.28 -66.72 6.18 
-51.04 -66.73 6.16 
-50.80 -66.74 6.15 
-48.21 -66.74 6.54 
-47.91 -66.73 6.52 
-46.21 -66.77 6.40 
-46.02 -66.78 6.39 
-43.95 -62.55 6.55 
-49.56 -66.63 6.67 
-43.39 -62.55 7.13 
-58.34 -66.58 6.77 
-57.69 -66.58 6.71 
-58.08 -66.57 7.47 
-57.40 -66.56 7.40 
-55.82 -66.55 7.24 
-40.93 -77.02 1.70 
-48.93 -72.37 1.82 
-33.53 -72.57 2.12 
-57.34 -72.24 1.46 
-48.83 -72.28 1.83 
-34.37 -72.21 2.09 
-34.01 -72.35 2.11 
-33.72 -72.47 2.11 
-37.29 -72.04 1.98 
-35.49 -71.75 2.06 
-35.18 -71.87 2.07 
-34.81 -71.97 2.08 
-34.60 -72.08 2.09 
-43.11 -69.31 2.19 
-43.06 -69.15 2.20 
-42.93 -69.08 2.20 
-42.31 -69.08 2.23 
-41.94 -69.03 2.24 
-41.54 -69.09 2.26 
-41.20 -69.04 2.27 
-40.36 -69.18 2.30 
-40.03 -68.99 2.32 
-42.77 -68.66 2.23 
-39.89 -68.75 2.33 
-39.74 -68.58 2.35 
-39.55 -68.31 2.36 
-39.46 -67.99 2.38 
-39.14 -67.79 2.40 
-38.88 -67.84 2.41 
-38.39 -67.91 2.42 
-37.99 -67.90 2.44 
-37.56 -67.84 2.45 
-37.25 -67.76 2.47 
-36.78 -68.02 2.48 
-36.46 -68.03 2.49 
-36.13 -68.07 2.50 
-44.87 -67.51 2.19 
-56.41 -66.52 1.74 
-56.08 -66.52 1.76 
-54.46 -66.55 1.83 
-54.00 -66.56 1.85 
-53.55 -66.57 1.86 
-53.11 -66.58 1.88 
-52.67 -66.59 1.90 
-52.40 -66.59 1.91 
-51.93 -66.62 1.93 
-51.58 -66.60 1.95 
-51.19 -66.63 1.96 
-50.41 -66.63 1.99 
-49.92 -66.64 2.01 
-49.57 -66.63 2.03 
-49.20 -66.65 2.04 
-48.74 -66.66 2.06 
-48.40 -66.66 2.08 
-48.06 -66.67 2.09 
-47.59 -66.71 2.11 
-47.20 -66.70 2.12 
-46.78 -66.70 2.14 
-46.38 -66.71 2.16 
-45.92 -66.73 2.17 
-45.67 -66.72 2.18 
-45.13 -66.75 2.21 
-44.90 -66.73 2.21 
-44.17 -66.75 2.24 
-40.98 -77.08 2.11 
-37.36 -72.09 2.47 
-37.32 -72.06 2.47 
-33.53 -69.15 2.55 
-34.54 -68.78 2.53 
-33.91 -68.85 2.55 
-41.02 -77.10 2.52 
-57.59 -73.68 2.04 
-56.43 -73.68 2.06 
-56.48 -73.17 2.09 
-49.46 -73.18 2.25 
-49.41 -73.18 2.26 
-56.37 -72.91 2.11 
-49.22 -73.08 2.27 
-48.91 -73.02 2.28 
-56.56 -72.48 2.12 
-50.89 -72.66 2.25 
-49.33 -72.55 2.29 
-48.10 -72.63 2.32 
-56.35 -72.17 2.15 
-56.19 -71.94 2.16 
-55.43 -72.16 2.17 
-48.90 -72.33 2.32 
-47.88 -72.07 2.36 
-37.34 -72.11 2.97 
-55.81 -71.72 2.18 
-54.97 -71.69 2.20 
-49.50 -71.63 2.34 
-48.26 -71.89 2.36 
-37.45 -72.09 2.97 
-36.64 -72.05 2.99 
-56.32 -71.17 2.20 
-49.35 -71.28 2.36 
-38.42 -71.54 2.99 
-48.77 -71.04 2.39 
-48.47 -71.03 2.40 
-37.53 -70.67 3.08 
-37.38 -70.61 3.09 
-42.57 -67.90 2.74 
-42.18 -68.03 2.74 
-41.47 -67.69 2.78 
-41.29 -67.45 2.80 
-43.29 -66.84 2.78 
-42.27 -66.93 2.80 
-42.12 -66.89 2.81 
-40.36 -66.93 2.86 
-39.99 -66.95 2.87 
-39.57 -66.91 2.88 
-39.27 -66.92 2.89 
-38.70 -66.95 2.90 
-38.36 -66.94 2.92 
-37.98 -66.93 2.93 
-37.63 -66.95 2.94 
-37.17 -66.96 2.95 
-36.83 -66.96 2.96 
-36.40 -66.96 2.97 
-35.95 -66.98 2.99 
-35.58 -67.00 3.00 
-35.19 -67.00 3.01 
-34.80 -67.01 3.02 
-34.39 -67.01 3.04 
-34.04 -67.04 3.05 
-33.63 -67.05 3.06 
-54.33 -66.63 2.50 
-53.85 -66.65 2.51 
-52.74 -66.65 2.54 
-52.34 -66.64 2.55 
-51.92 -66.64 2.56 
-51.64 -66.66 2.57 
-51.25 -66.66 2.58 
-49.94 -66.72 2.61 
-49.47 -66.70 2.62 
-49.18 -66.73 2.63 
-48.76 -66.73 2.64 
-48.46 -66.69 2.65 
-47.20 -66.75 2.68 
-46.86 -66.75 2.69 
-46.44 -66.75 2.70 
-46.04 -66.75 2.71 
-45.74 -66.76 2.72 
-44.67 -66.79 2.74 
-44.32 -66.79 2.75 
-43.86 -66.81 2.76 
-43.65 -66.69 2.78 
-43.62 -66.31 2.80 
-43.61 -64.18 2.92 
-50.25 -77.15 2.47 
-41.06 -77.09 2.93 
-57.37 -74.75 2.61 
-57.21 -74.59 2.62 
-56.48 -74.60 2.62 
-58.25 -73.93 2.66 
-56.42 -74.07 2.65 
-50.41 -73.98 2.68 
-50.44 -73.64 2.70 
-49.61 -73.79 2.69 
-48.01 -73.87 2.70 
-56.04 -73.33 2.70 
-50.33 -73.48 2.71 
-50.05 -73.51 2.71 
-49.53 -73.51 2.71 
-49.35 -73.38 2.72 
-57.28 -73.00 2.72 
-55.96 -72.92 2.73 
-48.47 -73.11 2.75 
-48.05 -73.14 2.75 
-38.87 -72.94 3.20 
-37.97 -73.20 3.18 
-37.69 -73.03 3.20 
-37.06 -72.95 3.22 
-57.06 -72.57 2.75 
-56.19 -72.40 2.76 
-48.44 -72.55 2.79 
-48.14 -72.44 2.80 
-47.68 -72.58 2.79 
-38.75 -72.72 3.22 
-38.62 -72.58 3.24 
-37.64 -72.82 3.22 
-37.36 -72.76 3.24 
-36.81 -72.67 3.25 
-36.42 -72.70 3.26 
-36.11 -72.77 3.26 
-57.17 -72.07 2.78 
-56.53 -71.99 2.79 
-55.82 -72.18 2.78 
-48.41 -72.39 2.80 
-47.69 -72.08 2.83 
-38.49 -72.45 3.25 
-56.50 -71.55 2.82 
-36.06 -71.81 3.36 
-56.41 -71.35 2.83 
-47.92 -71.47 2.87 
-47.61 -71.56 2.86 
-47.35 -71.53 2.87 
-36.06 -71.71 3.37 
-56.82 -70.66 2.87 
-41.86 -68.17 3.20 
-42.75 -67.90 3.20 
-42.40 -67.94 3.21 
-41.64 -67.95 3.22 
-41.29 -67.84 3.23 
-41.28 -67.38 3.27 
-52.88 -66.78 3.17 
-52.03 -66.80 3.17 
-50.23 -66.81 3.19 
-48.83 -66.80 3.21 
-47.19 -66.82 3.22 
-46.78 -66.83 3.23 
-43.94 -66.86 3.27 
-41.25 -67.08 3.30 
-40.45 -66.93 3.32 
-40.09 -67.00 3.33 
-39.64 -66.94 3.34 
-38.34 -66.95 3.37 
-38.05 -66.97 3.37 
-37.64 -66.98 3.38 
-37.18 -66.99 3.39 
-36.89 -66.99 3.40 
-35.59 -67.02 3.44 
-35.20 -67.03 3.45 
-34.81 -67.03 3.46 
-34.38 -67.05 3.47 
-34.14 -67.04 3.48 
-51.85 -66.75 3.18 
-51.59 -66.75 3.18 
-51.34 -66.74 3.18 
-49.96 -66.75 3.20 
-49.60 -66.76 3.20 
-49.25 -66.76 3.20 
-48.79 -66.76 3.21 
-48.49 -66.72 3.22 
-47.25 -66.79 3.22 
-46.83 -66.80 3.23 
-46.43 -66.80 3.23 
-46.12 -66.81 3.24 
-45.77 -66.74 3.25 
-44.41 -66.83 3.26 
-43.70 -66.82 3.27 
-39.39 -66.84 3.35 
-35.86 -66.92 3.44 
-50.30 -77.15 2.92 
-41.22 -77.12 3.35 
-50.22 -74.30 3.14 
-49.65 -74.25 3.14 
-49.34 -74.12 3.14 
-49.17 -73.81 3.16 
-48.96 -73.62 3.18 
-38.01 -73.86 3.42 
-37.10 -73.77 3.73 
-48.87 -73.42 3.19 
-48.32 -73.22 3.20 
-38.57 -73.68 3.75 
-37.94 -73.45 3.47 
-37.71 -73.41 3.55 
-37.13 -73.36 3.48 
-37.04 -73.36 3.48 
-36.47 -73.43 3.78 
-36.27 -73.42 3.78 
-48.89 -73.03 3.23 
-48.45 -72.92 3.23 
-48.04 -72.95 3.22 
-47.70 -72.92 3.22 
-47.13 -72.98 3.21 
-38.53 -72.93 3.53 
-37.73 -73.09 3.51 
-37.28 -73.17 3.51 
-36.98 -73.13 3.67 
-36.45 -73.14 3.52 
-36.12 -73.01 3.85 
-47.69 -72.65 3.25 
-47.27 -72.50 3.25 
-36.86 -72.86 3.55 
-36.56 -72.74 3.57 
-36.06 -72.83 3.56 
-47.99 -72.03 3.30 
-47.34 -72.05 3.29 
-36.42 -72.38 3.61 
-47.08 -71.88 3.31 
-47.02 -71.79 3.32 
-36.14 -71.87 3.68 
-57.44 -70.77 2.86 
-47.42 -71.15 3.37 
-42.94 -68.14 3.65 
-42.43 -68.24 3.65 
-42.15 -68.03 3.67 
-42.23 -67.36 3.74 
-42.08 -67.48 3.72 
-41.48 -67.64 3.71 
-47.74 -66.84 3.77 
-46.68 -66.86 3.77 
-46.49 -66.85 3.77 
-46.09 -66.86 3.77 
-44.86 -66.89 3.77 
-41.93 -67.21 3.75 
-37.62 -67.00 3.83 
-37.23 -67.01 3.84 
-36.88 -67.01 3.85 
-35.57 -67.04 3.87 
-35.23 -67.05 3.88 
-34.82 -67.07 3.89 
-34.39 -67.07 3.90 
-34.16 -67.08 3.91 
-47.56 -66.82 3.78 
-47.25 -66.82 3.78 
-46.88 -66.81 3.78 
-46.39 -66.83 3.77 
-46.05 -66.82 3.77 
-45.55 -66.84 3.77 
-45.26 -66.84 3.77 
-44.42 -66.86 3.77 
-43.97 -66.86 3.78 
-36.82 -66.93 3.86 
-50.44 -74.53 3.61 
-50.04 -74.42 3.61 
-48.50 -74.45 3.55 
-57.53 -74.09 3.28 
-57.34 -74.14 3.27 
-50.06 -74.18 3.63 
-49.83 -74.07 3.64 
-49.13 -74.19 3.60 
-58.42 -73.89 3.31 
-50.00 -73.77 3.67 
-48.42 -73.94 3.60 
-47.94 -73.87 3.59 
-47.87 -73.79 3.60 
-38.27 -73.97 4.01 
-58.05 -73.19 3.36 
-56.66 -73.25 3.33 
-56.22 -73.23 3.32 
-49.88 -73.41 3.70 
-49.25 -73.52 3.67 
-48.50 -73.38 3.66 
-37.96 -73.58 4.07 
-57.55 -73.00 3.36 
-56.16 -73.07 3.33 
-49.07 -73.02 3.71 
-48.37 -73.03 3.69 
-48.08 -73.00 3.68 
-38.53 -73.19 3.82 
-38.20 -73.21 3.82 
-37.48 -73.01 3.84 
-57.30 -72.70 3.38 
-56.56 -72.44 3.39 
-36.78 -72.70 3.89 
-57.58 -72.10 3.43 
-56.86 -72.02 3.43 
-55.96 -72.35 3.39 
-48.46 -72.22 3.78 
-48.62 -71.69 3.83 
-57.20 -71.41 3.48 
-56.66 -71.50 3.46 
-48.56 -71.54 3.85 
-42.80 -68.19 4.12 
-42.44 -67.96 4.15 
-41.99 -67.82 4.16 
-41.64 -67.81 4.16 
-42.70 -67.48 4.21 
-41.49 -67.64 4.18 
-44.19 -66.91 4.29 
-37.11 -67.00 4.30 
-36.79 -67.04 4.29 
-36.45 -67.06 4.30 
-36.02 -67.06 4.31 
-35.58 -67.04 4.32 
-35.21 -67.05 4.33 
-34.83 -67.06 4.33 
-34.43 -67.07 4.34 
-34.13 -67.03 4.36 
-33.72 -67.01 4.37 
-51.63 -66.75 3.80 
-51.39 -66.74 3.80 
-50.79 -66.78 3.79 
-50.49 -66.75 3.79 
-49.87 -66.77 3.79 
-49.64 -66.76 3.79 
-49.28 -66.77 3.79 
-48.82 -66.78 3.78 
-48.36 -66.78 3.78 
-48.02 -66.80 3.78 
-47.81 -66.78 3.78 
-43.98 -66.88 4.29 
-33.95 -66.99 4.37 
-33.53 -66.99 4.38 
-41.31 -77.43 4.16 
-41.22 -77.30 4.18 
-41.01 -77.04 4.20 
-40.93 -76.87 4.23 
-38.26 -74.23 4.27 
-47.58 -74.01 4.01 
-38.24 -73.84 4.34 
-49.68 -73.58 4.16 
-49.27 -73.44 4.16 
-48.93 -73.34 4.15 
-48.49 -73.15 4.15 
-37.80 -73.22 4.45 
-49.09 -72.63 4.24 
-48.57 -72.71 4.21 
-48.25 -72.79 4.18 
-37.13 -72.87 4.51 
-50.87 -72.38 3.83 
-48.58 -72.33 4.25 
-47.98 -72.36 4.22 
-42.48 -67.62 4.67 
-42.14 -67.44 4.69 
-41.76 -67.45 4.69 
-45.31 -66.89 4.30 
-42.02 -67.24 4.72 
-37.53 -67.00 4.74 
-37.12 -66.99 4.75 
-36.85 -67.02 4.75 
-36.44 -67.03 4.75 
-36.04 -67.03 4.76 
-35.63 -67.04 4.76 
-35.23 -67.04 4.77 
-34.84 -67.05 4.78 
-34.44 -67.07 4.78 
-34.02 -67.07 4.79 
-33.66 -67.08 4.80 
-51.41 -66.75 4.42 
-50.80 -66.81 4.40 
-50.51 -66.76 4.40 
-49.90 -66.77 4.39 
-49.66 -66.78 4.38 
-49.30 -66.78 4.38 
-48.84 -66.79 4.37 
-48.38 -66.79 4.36 
-48.05 -66.79 4.35 
-47.67 -66.81 4.34 
-47.27 -66.82 4.33 
-46.85 -66.82 4.33 
-46.46 -66.82 4.32 
-46.05 -66.83 4.31 
-45.69 -66.83 4.31 
-45.28 -66.86 4.30 
-44.90 -66.86 4.30 
-44.53 -66.87 4.29 
-50.30 -73.78 4.17 
-48.74 -73.83 4.55 
-37.92 -73.49 4.72 
-57.73 -72.95 4.03 
-56.88 -72.91 4.00 
-49.68 -73.13 4.21 
-48.06 -73.17 4.59 
-57.72 -72.62 4.05 
-56.95 -72.48 4.04 
-49.47 -72.74 4.25 
-48.08 -72.79 4.64 
-47.91 -72.75 4.64 
-57.85 -72.22 4.09 
-56.84 -72.06 4.07 
-38.53 -72.56 4.94 
-35.70 -72.51 4.89 
-49.76 -71.03 4.46 
-49.42 -70.71 4.48 
-36.05 -70.34 5.00 
-44.23 -66.94 4.80 
-42.75 -67.12 4.75 
-33.78 -67.08 5.24 
-53.07 -66.73 4.47 
-52.51 -66.72 4.45 
-48.79 -66.75 4.95 
-47.71 -66.85 4.90 
-47.26 -66.83 4.89 
-46.91 -66.82 4.88 
-46.50 -66.81 4.87 
-46.04 -66.84 4.85 
-45.65 -66.84 4.84 
-45.33 -66.85 4.84 
-44.85 -66.84 4.83 
-44.47 -66.84 4.82 
-44.01 -66.72 4.82 
-37.01 -66.98 5.21 
-36.44 -67.00 5.21 
-43.92 -66.27 4.89 
-43.91 -65.97 4.93 
-50.22 -73.47 4.70 
-49.15 -72.84 4.71 
-49.08 -71.04 4.94 
-33.53 -67.07 5.70 
-53.25 -66.71 5.13 
-52.81 -66.74 5.11 
-52.39 -66.74 5.09 
-51.96 -66.76 5.07 
-51.71 -66.75 5.06 
-50.42 -66.77 5.01 
-49.92 -66.79 4.98 
-49.69 -66.78 4.98 
