# .PCD v0.7 - Point Cloud Data file format
VERSION 0.7
FIELDS x y z
SIZE 4 4 4
TYPE F F F
COUNT 1 1 1
WIDTH 2277
HEIGHT 1
VIEWPOINT 0 0 0 1 0 0 0
POINTS 2277
DATA ascii
-22.25 -455.60 5.84 
-30.84 -460.51 6.16 
-30.84 -460.22 6.14 
-30.82 -459.82 6.13 
-30.80 -459.43 6.11 
-30.80 -459.04 6.09 
-30.79 -458.70 6.08 
-30.78 -458.27 6.06 
-30.77 -457.84 6.05 
-30.76 -457.54 6.03 
-30.74 -457.03 6.02 
-30.73 -456.65 6.00 
-30.74 -456.39 6.00 
-30.71 -455.88 5.98 
-30.71 -454.98 5.96 
-18.26 -479.19 7.37 
-18.18 -475.47 7.14 
-18.17 -474.93 7.04 
-22.02 -461.45 6.37 
-22.04 -461.19 6.36 
-22.00 -460.79 6.33 
-21.98 -460.42 6.31 
-21.94 -460.12 6.29 
-27.85 -454.72 6.17 
-29.10 -458.02 6.41 
-18.09 -479.67 7.91 
-18.04 -479.32 7.84 
-12.58 -472.90 3.68 
-12.65 -472.84 3.68 
-14.66 -478.68 4.12 
-14.51 -471.96 3.65 
-15.42 -456.14 3.14 
-15.27 -456.00 3.13 
-15.47 -455.36 3.11 
-15.38 -454.99 3.09 
-15.24 -454.76 3.08 
-15.82 -456.45 3.15 
-15.83 -456.21 3.14 
-15.83 -455.81 3.12 
-15.69 -455.57 3.11 
-15.85 -454.82 3.04 
-16.38 -465.32 3.50 
-16.27 -457.70 3.20 
-16.09 -454.86 3.04 
-17.04 -472.03 3.60 
-16.89 -469.11 3.56 
-16.97 -468.35 3.55 
-16.85 -467.00 3.52 
-16.76 -465.41 3.49 
-16.71 -464.19 3.46 
-16.82 -463.80 3.44 
-16.79 -463.55 3.44 
-16.86 -461.10 3.34 
-17.28 -471.85 3.60 
-17.11 -467.25 3.52 
-17.05 -466.79 3.51 
-16.97 -463.47 3.43 
-16.98 -461.68 3.36 
-17.02 -461.34 3.35 
-17.08 -461.09 3.34 
-17.72 -472.04 3.59 
-17.69 -471.72 3.58 
-17.77 -471.39 3.58 
-17.77 -471.00 3.57 
-17.80 -470.58 3.57 
-17.71 -468.97 3.54 
-17.68 -468.68 3.54 
-17.72 -467.02 3.50 
-17.54 -461.32 3.33 
-18.34 -479.37 4.13 
-18.33 -479.00 4.12 
-18.33 -478.66 4.11 
-18.33 -478.18 4.10 
-18.29 -477.36 4.07 
-18.29 -476.81 4.06 
-18.27 -476.47 4.05 
-18.25 -476.15 4.04 
-18.24 -475.77 4.03 
-18.24 -475.46 4.02 
-17.94 -470.20 3.56 
-17.93 -466.88 3.49 
-17.99 -466.54 3.48 
-18.00 -466.20 3.47 
-17.99 -465.90 3.47 
-17.97 -465.24 3.45 
-17.95 -464.97 3.44 
-17.94 -464.62 3.43 
-17.88 -463.36 3.40 
-17.88 -462.94 3.38 
-17.86 -462.57 3.37 
-17.85 -462.36 3.36 
-17.83 -461.82 3.34 
-17.81 -461.31 3.32 
-17.76 -460.90 3.31 
-17.80 -460.56 3.29 
-17.80 -460.25 3.28 
-14.24 -472.56 4.24 
-14.24 -472.27 4.23 
-14.38 -472.23 4.22 
-14.51 -471.93 4.07 
-14.76 -471.95 4.21 
-15.56 -456.47 3.61 
-15.29 -456.26 3.59 
-15.48 -454.95 3.44 
-15.97 -457.67 3.67 
-15.79 -456.20 3.37 
-15.92 -455.83 3.48 
-15.84 -455.34 3.46 
-15.77 -455.08 3.45 
-15.78 -454.71 3.45 
-16.08 -456.01 3.49 
-16.10 -455.79 3.49 
-16.13 -455.44 3.47 
-16.91 -463.92 3.66 
-16.97 -464.20 3.67 
-16.98 -463.81 3.66 
-17.13 -461.28 3.56 
-18.23 -475.25 4.01 
-18.21 -474.97 4.20 
-18.23 -474.67 4.19 
-18.21 -474.14 3.98 
-18.20 -473.70 3.97 
-18.20 -473.37 3.96 
-18.18 -472.95 3.94 
-18.18 -472.64 3.93 
-18.14 -472.01 3.92 
-18.14 -471.66 3.91 
-18.14 -471.31 3.89 
-18.13 -470.91 3.88 
-18.11 -470.55 3.87 
-18.10 -470.06 4.01 
-18.10 -469.86 4.00 
-18.08 -469.28 3.98 
-18.06 -468.95 3.97 
-18.06 -468.53 3.95 
-18.05 -468.15 3.94 
-18.03 -467.72 3.92 
-18.01 -467.33 3.90 
-18.00 -466.95 3.89 
-17.99 -466.55 3.88 
-17.98 -466.15 3.86 
-17.96 -465.73 3.84 
-17.95 -465.37 3.83 
-17.94 -465.02 3.79 
-17.92 -464.55 3.82 
-17.91 -464.23 3.79 
-17.88 -463.74 3.77 
-17.88 -463.36 3.75 
-17.86 -462.97 3.74 
-17.84 -462.57 3.72 
-17.83 -462.22 3.71 
-17.81 -461.74 3.69 
-17.80 -461.35 3.67 
-17.78 -460.99 3.66 
-17.76 -460.42 3.64 
-17.75 -460.23 3.63 
-17.73 -459.69 3.61 
-17.72 -459.30 3.71 
-17.71 -459.06 3.71 
-17.67 -457.63 3.66 
-17.62 -456.61 3.62 
-18.44 -474.53 4.38 
-18.37 -474.10 4.36 
-18.39 -473.86 4.34 
-10.80 -479.68 4.91 
-10.93 -479.68 4.91 
-13.77 -472.61 4.52 
-14.34 -478.68 4.54 
-14.04 -472.56 4.53 
-14.22 -472.05 4.49 
-13.99 -471.92 4.48 
-14.73 -478.63 4.54 
-14.32 -472.05 4.50 
-14.58 -471.97 4.50 
-14.94 -478.47 4.53 
-14.90 -472.12 4.52 
-15.25 -472.31 4.54 
-15.54 -456.34 3.83 
-15.92 -455.84 3.84 
-15.88 -455.42 3.83 
-15.96 -454.81 3.82 
-16.31 -458.57 3.95 
-16.12 -457.85 3.92 
-16.18 -457.41 3.90 
-16.28 -455.39 3.84 
-16.06 -454.96 3.83 
-18.23 -474.90 4.78 
-18.26 -474.66 4.77 
-18.33 -473.58 4.70 
-18.33 -473.45 4.69 
-18.27 -471.42 4.56 
-18.28 -471.06 4.54 
-18.07 -468.92 4.40 
-18.12 -468.72 4.39 
-18.14 -466.13 4.25 
-18.13 -465.82 4.23 
-17.90 -463.28 4.22 
-17.88 -462.96 4.21 
-18.06 -462.28 4.07 
-17.98 -461.70 4.04 
-17.96 -461.19 4.02 
-17.96 -461.08 4.02 
-17.94 -460.51 4.00 
-17.94 -460.28 3.99 
-17.91 -459.76 3.97 
-17.91 -459.45 3.96 
-17.84 -458.86 3.97 
-17.78 -458.60 3.99 
-17.66 -458.17 4.02 
-17.66 -457.80 4.01 
-17.73 -457.40 3.95 
-17.65 -456.91 3.98 
-17.80 -456.09 3.88 
-18.45 -478.51 4.57 
-18.39 -475.30 4.81 
-18.52 -474.61 4.77 
-18.35 -473.22 4.67 
-18.29 -471.19 4.55 
-18.35 -468.72 4.40 
-18.15 -462.73 4.09 
-18.66 -455.44 4.00 
-22.37 -462.82 4.26 
-22.37 -462.53 4.24 
-14.32 -478.95 4.98 
-14.24 -478.40 4.94 
-14.22 -478.29 4.93 
-14.08 -472.83 4.84 
-14.04 -472.13 4.92 
-14.71 -478.56 4.96 
-14.59 -472.44 4.82 
-14.35 -472.21 4.79 
-14.55 -471.91 4.78 
-14.52 -471.41 4.73 
-14.99 -478.70 4.97 
-14.74 -472.52 4.84 
-14.79 -471.81 4.78 
-15.43 -479.20 5.02 
-15.29 -478.30 4.95 
-15.96 -456.37 4.10 
-16.33 -456.36 4.13 
-16.00 -455.89 4.09 
-17.59 -456.38 4.24 
-18.41 -477.19 4.94 
-18.08 -468.91 4.69 
-18.17 -468.53 4.67 
-18.22 -468.26 4.65 
-18.18 -466.46 4.67 
-18.16 -466.17 4.52 
-18.15 -464.83 4.69 
-18.13 -464.64 4.68 
-18.09 -463.94 4.39 
-18.07 -463.75 4.38 
-18.06 -463.47 4.36 
-18.10 -462.26 4.55 
-17.79 -456.75 4.26 
-17.67 -456.62 4.20 
-17.70 -456.17 4.19 
-17.73 -454.72 4.22 
-18.38 -475.47 4.82 
-18.34 -472.83 5.01 
-18.31 -471.58 4.90 
-18.32 -471.40 4.89 
-18.27 -470.04 4.78 
-18.32 -468.63 4.68 
-18.20 -466.59 4.81 
-18.19 -466.04 4.51 
-18.32 -462.71 4.59 
-22.38 -462.76 4.59 
-22.38 -462.54 4.58 
-30.91 -462.57 4.57 
-30.90 -462.28 4.56 
-13.87 -478.40 5.34 
-14.15 -478.41 5.35 
-14.28 -478.11 5.33 
-14.26 -471.73 5.31 
-14.60 -478.54 5.38 
-14.69 -472.73 5.16 
-14.58 -471.91 5.35 
-15.11 -478.82 5.42 
-14.93 -478.73 5.40 
-14.76 -471.43 5.30 
-17.95 -463.23 4.95 
-17.93 -462.88 4.80 
-17.79 -457.16 4.55 
-17.78 -457.02 4.55 
-17.60 -456.28 4.51 
-17.74 -455.23 4.51 
-18.27 -462.32 5.06 
-22.42 -462.79 4.94 
-22.40 -462.53 4.93 
-30.91 -462.64 5.12 
-30.91 -462.30 5.10 
-30.93 -462.48 5.11 
-30.92 -462.32 5.10 
-13.35 -471.99 5.56 
-14.02 -479.15 5.85 
-13.67 -478.24 5.74 
-14.38 -478.64 5.81 
-14.32 -477.89 5.72 
-14.15 -471.40 5.62 
-14.46 -478.57 5.80 
-14.34 -471.86 5.61 
-15.10 -479.03 5.88 
-14.78 -471.90 5.65 
-18.17 -479.64 6.07 
-18.09 -478.89 5.98 
-18.14 -478.56 5.95 
-18.16 -478.27 5.92 
-18.11 -477.69 5.85 
-18.16 -477.48 5.83 
-18.15 -477.04 5.79 
-18.07 -475.19 5.98 
-18.07 -474.91 5.95 
-18.03 -474.58 5.91 
-18.13 -474.08 5.85 
-18.09 -473.62 5.80 
-18.06 -473.25 5.75 
-18.03 -472.82 5.70 
-18.05 -472.46 5.66 
-18.08 -472.19 5.63 
-18.01 -471.21 5.84 
-18.09 -470.91 5.81 
-18.00 -470.49 5.75 
-18.03 -470.05 5.70 
-18.00 -469.88 5.68 
-18.04 -469.24 5.61 
-18.03 -468.92 5.57 
-17.99 -468.50 5.52 
-17.97 -467.66 5.71 
-17.98 -467.22 5.66 
-17.96 -466.88 5.62 
-17.99 -466.58 5.59 
-17.92 -466.16 5.54 
-17.98 -465.69 5.51 
-17.90 -465.27 5.45 
-17.90 -464.91 5.42 
-17.97 -464.63 5.41 
-18.01 -463.23 5.32 
-17.98 -462.93 5.30 
-17.82 -461.72 5.46 
-17.98 -455.92 5.13 
-17.98 -455.75 5.13 
-18.72 -477.59 5.87 
-18.63 -472.52 5.71 
-18.54 -468.52 5.58 
-18.45 -464.50 5.47 
-18.55 -464.19 5.47 
-18.10 -457.15 5.24 
-18.08 -457.08 5.24 
-18.74 -472.40 5.71 
-18.66 -468.38 5.58 
-19.31 -462.74 5.50 
-22.46 -462.78 5.29 
-22.45 -462.52 5.28 
-22.98 -477.60 6.11 
-22.97 -477.25 6.07 
-22.96 -476.81 6.03 
-22.95 -476.38 5.99 
-22.93 -475.97 5.95 
-22.92 -475.56 5.91 
-22.91 -475.17 5.87 
-22.90 -474.79 5.84 
-22.89 -474.41 5.80 
-22.89 -473.97 5.76 
-22.96 -473.68 5.74 
-22.79 -469.97 5.82 
-22.78 -469.76 5.80 
-22.76 -469.10 5.74 
-22.75 -468.84 5.72 
-22.82 -465.49 5.48 
-23.04 -464.76 5.46 
-23.10 -464.50 5.45 
-25.88 -471.56 5.77 
-26.06 -471.52 5.78 
-26.40 -471.53 5.81 
-26.84 -471.59 5.85 
-27.27 -471.58 5.88 
-27.30 -469.35 5.72 
-28.55 -462.52 5.45 
-28.58 -462.38 5.45 
-29.34 -462.26 5.51 
-31.57 -478.98 6.11 
-31.50 -475.86 5.88 
-31.48 -475.52 5.86 
-31.52 -474.03 5.76 
-31.65 -473.78 5.75 
-31.80 -473.54 5.75 
-33.29 -471.27 5.69 
-14.00 -479.53 6.34 
-14.33 -477.87 6.12 
-14.43 -478.81 6.26 
-14.44 -478.43 6.21 
-14.95 -479.00 6.31 
-14.87 -471.78 6.08 
-17.56 -455.91 5.35 
-17.51 -455.65 5.34 
-17.49 -455.25 5.34 
-17.48 -454.91 5.34 
-18.24 -479.31 6.51 
-18.17 -478.90 6.46 
-18.18 -478.27 6.38 
-18.13 -477.69 6.30 
-18.14 -476.11 6.10 
-18.12 -475.68 6.05 
-18.12 -473.97 6.22 
-18.18 -472.73 6.06 
-17.98 -471.93 5.93 
-18.07 -471.74 5.92 
-18.06 -471.46 5.88 
-18.01 -468.47 5.81 
-17.95 -468.08 5.76 
-18.05 -467.81 5.74 
-17.95 -466.37 5.83 
-17.92 -466.03 5.79 
-18.05 -465.79 5.79 
-17.90 -464.43 5.63 
-17.98 -464.05 5.62 
-17.89 -463.70 5.58 
-17.88 -463.48 5.56 
-17.61 -457.02 5.43 
-17.68 -455.97 5.37 
-17.66 -454.85 5.37 
-18.20 -456.49 5.47 
-18.10 -456.18 5.44 
-21.87 -475.04 6.25 
-21.57 -463.95 5.91 
-22.09 -474.78 6.24 
-22.33 -474.52 6.23 
-21.76 -462.36 5.86 
-22.32 -455.59 5.50 
-23.03 -479.54 6.30 
-23.01 -479.15 6.26 
-23.01 -478.78 6.23 
-22.99 -478.41 6.19 
-22.99 -477.94 6.14 
-22.88 -472.68 6.08 
-22.86 -472.36 6.05 
-22.85 -471.96 6.01 
-22.81 -471.61 5.97 
-22.81 -470.75 5.89 
-22.80 -470.40 5.86 
-22.78 -470.18 5.84 
-22.71 -467.19 5.96 
-22.68 -466.27 5.88 
-22.68 -465.27 5.81 
-22.63 -464.29 5.74 
-22.52 -461.48 5.59 
-22.52 -461.28 5.58 
-22.49 -460.66 5.56 
-22.50 -460.46 5.56 
-25.44 -462.41 5.60 
-26.38 -462.42 5.70 
-27.28 -464.80 5.91 
-27.73 -476.18 6.29 
-27.87 -475.99 6.28 
-27.80 -471.57 5.92 
-27.64 -462.26 5.83 
-27.69 -461.96 5.82 
-27.99 -475.86 6.28 
-28.12 -471.55 5.94 
-27.74 -461.51 5.81 
-27.81 -461.02 5.80 
-27.83 -460.74 5.79 
-27.82 -459.10 5.75 
-28.72 -474.89 6.25 
-28.47 -471.54 5.97 
-28.87 -474.66 6.24 
-29.06 -474.37 6.23 
-29.21 -474.16 6.23 
-29.37 -473.91 6.22 
-29.57 -473.58 6.21 
-30.75 -471.75 6.16 
-30.77 -471.61 6.16 
-30.86 -462.26 5.64 
-30.76 -455.52 5.44 
-30.76 -454.92 5.43 
-30.74 -454.75 5.43 
-31.17 -470.58 6.12 
-31.25 -470.24 6.10 
-31.31 -469.79 6.08 
-31.31 -469.42 6.05 
-31.29 -469.01 6.02 
-31.23 -467.02 5.90 
-31.21 -466.75 5.88 
-31.20 -465.84 5.83 
-31.19 -465.59 5.82 
-31.01 -462.11 5.65 
-31.03 -461.91 5.64 
-30.78 -455.26 5.44 
-14.35 -478.93 6.70 
-18.24 -478.61 6.89 
-18.21 -477.55 6.73 
-18.07 -477.10 6.66 
-18.11 -474.37 6.66 
-18.08 -474.07 6.61 
-18.12 -473.69 6.56 
-18.10 -470.67 6.44 
-21.62 -457.86 6.11 
-21.60 -457.60 6.10 
-21.54 -457.20 6.08 
-21.45 -456.81 6.05 
-21.36 -456.36 6.03 
-21.75 -459.86 6.22 
-21.74 -459.58 6.21 
-21.73 -459.18 6.18 
-21.70 -458.77 6.16 
-21.67 -458.35 6.14 
-21.64 -458.06 6.12 
-22.46 -460.81 6.01 
-22.43 -460.37 5.98 
-22.41 -460.06 5.96 
-22.35 -459.18 5.90 
-22.36 -458.81 5.89 
-22.34 -458.41 5.87 
-22.34 -458.13 5.86 
-22.25 -455.84 5.78 
-22.24 -455.60 5.78 
-30.88 -460.71 6.12 
-30.84 -460.15 6.09 
-30.83 -459.83 6.07 
-30.83 -459.44 6.05 
-30.80 -458.99 6.03 
-30.79 -458.64 6.02 
-30.78 -458.22 6.00 
-30.77 -457.78 5.98 
-30.76 -457.44 5.97 
-30.75 -457.02 5.95 
-30.73 -456.58 5.94 
-30.73 -456.24 5.93 
-30.72 -455.98 5.92 
-30.69 -454.92 5.89 
-30.68 -454.76 5.88 
-30.94 -461.09 6.14 
-30.89 -460.46 6.11 
-18.19 -479.57 7.03 
-18.20 -479.33 7.00 
-18.17 -474.71 7.12 
-21.80 -460.08 6.25 
-29.21 -460.10 6.46 
-29.25 -459.78 6.45 
-18.07 -479.63 7.53 
-18.20 -478.74 7.87 
-12.70 -472.76 3.73 
-12.87 -472.70 3.72 
-14.80 -478.55 4.19 
-14.63 -471.82 3.70 
-14.96 -478.47 4.19 
-15.61 -455.79 3.21 
-15.56 -455.57 3.20 
-15.40 -455.24 3.19 
-15.32 -454.89 3.17 
-15.90 -456.28 3.23 
-15.72 -455.95 3.21 
-16.50 -464.17 3.54 
-16.12 -455.65 3.19 
-16.77 -471.72 3.67 
-16.96 -467.01 3.59 
-16.88 -466.68 3.59 
-16.99 -465.05 3.55 
-16.73 -464.12 3.53 
-16.82 -463.90 3.52 
-16.85 -463.55 3.51 
-16.91 -461.08 3.43 
-16.80 -458.93 3.34 
-17.15 -468.18 3.61 
-17.16 -467.78 3.60 
-17.23 -466.76 3.58 
-17.19 -465.00 3.54 
-17.09 -464.86 3.54 
-17.13 -463.34 3.50 
-16.95 -461.72 3.45 
-17.83 -470.96 3.64 
-17.84 -470.69 3.63 
-17.81 -469.73 3.62 
-17.78 -469.39 3.61 
-17.77 -469.05 3.61 
-17.77 -468.65 3.60 
-17.81 -468.32 3.60 
-17.69 -467.60 3.59 
-17.64 -467.08 3.58 
-17.65 -466.72 3.57 
-17.54 -466.33 3.56 
-17.71 -464.81 3.52 
-17.45 -461.08 3.41 
-17.27 -454.90 3.12 
-18.44 -479.44 4.22 
-18.45 -479.13 4.21 
-18.41 -478.77 4.20 
-18.38 -477.75 4.17 
-18.36 -477.40 4.16 
-18.38 -476.98 4.14 
-18.36 -476.59 4.13 
-18.35 -476.23 4.12 
-18.34 -475.87 4.11 
-18.34 -475.52 4.10 
-18.31 -475.04 4.09 
-18.31 -474.66 4.08 
-18.29 -474.39 4.07 
-17.95 -468.16 3.59 
-17.98 -467.96 3.58 
-18.08 -465.06 3.52 
-18.04 -464.79 3.51 
-17.96 -463.45 3.48 
-17.95 -463.10 3.47 
-17.93 -462.71 3.46 
-17.92 -462.28 3.44 
-17.91 -461.93 3.43 
-17.87 -460.89 3.39 
-17.86 -460.65 3.39 
-17.85 -460.26 3.37 
-17.85 -459.99 3.36 
-14.33 -472.43 4.33 
-14.29 -472.07 4.31 
-14.63 -472.13 4.01 
-14.51 -471.89 4.15 
-14.82 -471.82 4.31 
-15.53 -455.40 3.65 
-15.51 -455.07 3.64 
-15.47 -454.85 3.63 
-15.97 -456.31 3.58 
-15.92 -455.93 3.56 
-15.88 -455.54 3.55 
-15.71 -455.14 3.53 
-16.09 -456.32 3.58 
-16.17 -455.95 3.57 
-16.07 -455.52 3.56 
-16.17 -455.16 3.53 
-16.01 -454.86 3.41 
-16.70 -456.82 3.70 
-16.65 -455.89 3.58 
-16.41 -455.27 3.64 
-17.07 -463.81 3.74 
-17.00 -459.08 3.78 
-16.88 -456.68 3.69 
-17.49 -463.69 3.73 
-17.66 -458.95 3.79 
-18.28 -474.15 4.06 
-18.26 -473.79 4.05 
-18.25 -473.43 4.04 
-18.24 -473.04 4.03 
-18.24 -472.69 4.02 
-18.23 -472.24 4.01 
-18.21 -471.86 3.99 
-18.21 -471.56 3.98 
-18.18 -470.87 3.96 
-18.18 -470.20 4.11 
-18.17 -469.85 4.09 
-18.15 -469.45 4.08 
-18.14 -469.02 4.06 
-18.12 -468.65 4.05 
-18.11 -468.27 4.03 
-18.10 -467.83 4.02 
-18.09 -467.45 4.00 
-18.07 -467.07 3.99 
-18.06 -466.64 3.97 
-18.05 -466.25 3.95 
-18.04 -465.85 3.94 
-18.02 -465.47 3.92 
-18.01 -465.04 3.91 
-18.00 -464.66 3.89 
-17.99 -464.24 3.88 
-17.96 -463.84 3.95 
-17.95 -463.44 3.87 
-17.94 -463.06 3.83 
-17.92 -462.65 3.81 
-17.90 -462.25 3.80 
-17.89 -461.90 3.78 
-17.87 -461.49 3.77 
-17.85 -460.98 3.75 
-17.84 -460.67 3.74 
-17.83 -460.36 3.84 
-17.80 -459.83 3.70 
-17.79 -459.53 3.69 
-17.78 -459.13 3.79 
-17.68 -456.52 3.70 
-17.66 -456.40 3.70 
-17.66 -455.52 3.46 
-13.87 -472.43 4.63 
-14.44 -478.61 4.64 
-14.12 -472.43 4.64 
-14.29 -471.96 4.61 
-14.67 -478.54 4.63 
-14.61 -478.42 4.63 
-14.53 -471.89 4.61 
-14.35 -471.70 4.59 
-14.34 -471.18 4.56 
-14.97 -478.72 4.65 
-14.90 -478.40 4.63 
-14.94 -471.81 4.61 
-15.38 -472.13 4.65 
-15.96 -456.56 3.94 
-16.02 -456.20 3.93 
-15.96 -455.90 3.90 
-15.81 -455.43 3.90 
-15.87 -454.69 3.88 
-16.06 -456.61 3.95 
-16.12 -456.32 3.94 
-16.30 -455.88 3.94 
-16.12 -455.44 3.91 
-16.08 -455.03 3.90 
-16.01 -454.83 3.89 
-16.66 -456.38 3.91 
-16.57 -455.55 3.95 
-18.32 -474.97 4.50 
-18.33 -474.61 4.48 
-18.15 -468.68 4.50 
-18.27 -468.27 4.48 
-18.19 -465.74 4.34 
-18.18 -465.42 4.32 
-18.16 -465.24 4.31 
-17.94 -462.97 4.19 
-17.95 -462.69 4.30 
-18.02 -461.09 4.11 
-18.01 -460.67 4.09 
-17.98 -460.34 4.08 
-17.97 -459.39 4.05 
-17.94 -459.05 4.03 
-17.94 -458.62 4.02 
-17.93 -458.27 4.01 
-17.92 -457.86 4.00 
-17.73 -457.63 4.09 
-17.79 -457.16 4.02 
-17.68 -456.46 3.95 
-17.72 -456.24 3.94 
-18.50 -476.10 4.56 
-18.49 -475.80 4.54 
-18.46 -475.40 4.52 
-18.61 -474.47 4.48 
-18.41 -473.37 4.81 
-18.41 -473.10 4.79 
-18.36 -471.05 4.66 
-18.29 -468.51 4.50 
-18.33 -468.14 4.48 
-18.70 -455.64 4.08 
-18.70 -455.48 4.08 
-22.46 -463.04 4.37 
-22.42 -462.47 4.34 
-23.02 -462.32 4.36 
-13.87 -472.55 4.95 
-14.37 -478.80 5.09 
-14.29 -478.25 5.05 
-14.20 -471.97 4.91 
-14.78 -478.42 5.07 
-14.58 -472.36 4.96 
-14.62 -471.85 4.91 
-15.13 -478.56 5.09 
-14.87 -472.31 4.96 
-15.95 -456.34 4.17 
-16.10 -456.68 4.19 
-16.09 -456.24 4.18 
-16.26 -455.29 4.17 
-18.26 -474.87 4.90 
-18.30 -474.64 4.89 
-18.15 -468.91 4.82 
-18.17 -468.66 4.81 
-18.26 -467.55 4.73 
-18.22 -465.74 4.61 
-18.20 -465.44 4.59 
-18.17 -463.83 4.74 
-17.98 -463.24 4.57 
-17.97 -462.98 4.68 
-18.01 -462.71 4.67 
-18.14 -462.17 4.40 
-18.05 -460.93 4.58 
-18.05 -460.79 4.58 
-17.69 -456.93 4.34 
-17.73 -456.63 4.27 
-17.75 -456.23 4.26 
-17.96 -455.90 4.21 
-17.81 -455.50 4.19 
-17.80 -455.10 4.19 
-18.45 -475.42 4.94 
-18.46 -475.18 4.93 
-18.48 -474.48 4.88 
-18.40 -472.23 5.10 
-18.32 -469.35 4.87 
-18.33 -469.16 4.85 
-18.31 -468.52 4.80 
-18.28 -467.67 4.74 
-18.24 -465.79 4.88 
-18.25 -465.44 4.73 
-18.34 -462.57 4.56 
-18.15 -462.11 4.40 
-18.07 -456.60 4.22 
-22.46 -462.82 4.71 
-30.95 -462.16 4.67 
-30.95 -462.13 4.67 
-30.97 -462.63 4.69 
-30.96 -462.39 4.68 
-13.54 -471.83 5.46 
-13.75 -471.86 5.18 
-14.35 -477.94 5.46 
-14.11 -473.00 5.32 
-14.05 -472.27 5.24 
-14.05 -471.86 5.19 
-14.14 -471.57 5.46 
-14.67 -478.42 5.51 
-14.45 -471.58 5.48 
-15.24 -478.81 5.56 
-14.93 -478.44 5.52 
-17.99 -462.86 4.92 
-17.81 -457.01 4.63 
-17.68 -456.56 4.60 
-18.26 -462.08 5.15 
-22.49 -462.91 5.06 
-22.47 -462.49 5.04 
-30.99 -462.62 5.24 
-30.97 -462.28 5.22 
-30.96 -462.12 5.21 
-13.70 -478.11 5.89 
-14.40 -477.75 5.87 
-13.95 -471.33 5.71 
-14.30 -471.21 5.72 
-14.54 -478.41 5.96 
-14.84 -471.75 5.84 
-15.38 -472.59 5.67 
-18.22 -479.64 6.24 
-18.26 -479.26 6.20 
-18.21 -478.70 6.14 
-18.10 -476.92 5.94 
-18.22 -476.51 5.90 
-18.13 -474.11 6.04 
-18.13 -473.79 6.00 
-18.11 -473.37 5.95 
-18.12 -473.03 5.91 
-18.13 -472.63 5.86 
-18.07 -472.15 5.80 
-18.08 -471.76 5.75 
-18.11 -471.41 5.72 
-18.07 -470.10 5.89 
-18.09 -469.77 5.86 
-18.05 -469.35 5.80 
-18.05 -468.90 5.75 
-18.03 -468.59 5.71 
-18.01 -468.24 5.66 
-18.00 -467.77 5.61 
-18.03 -467.52 5.58 
-17.98 -466.53 5.75 
-17.99 -466.14 5.71 
-17.98 -465.84 5.68 
-18.02 -465.37 5.63 
-17.98 -465.02 5.59 
-17.93 -464.65 5.55 
-17.91 -464.17 5.50 
-17.95 -463.83 5.48 
-18.04 -463.13 5.44 
-18.03 -462.69 5.40 
-17.87 -462.18 5.59 
-17.87 -461.79 5.57 
-17.80 -460.25 5.49 
-18.79 -477.07 5.99 
-18.69 -471.70 5.80 
-18.56 -467.64 5.66 
-18.48 -463.64 5.54 
-18.44 -463.44 5.52 
-18.05 -456.29 5.21 
-18.66 -467.45 5.65 
-19.23 -462.59 5.58 
-22.52 -462.95 5.41 
-22.50 -462.53 5.39 
-23.02 -476.51 6.17 
-23.00 -476.06 6.13 
-22.99 -475.62 6.08 
-22.95 -474.38 5.96 
-22.95 -474.00 5.93 
-22.94 -473.62 5.89 
-23.02 -473.24 5.86 
-22.80 -468.35 5.83 
-22.79 -468.15 5.81 
-22.75 -466.93 5.71 
-22.72 -465.49 5.60 
-22.94 -464.77 5.57 
-22.99 -464.65 5.57 
-22.56 -462.33 5.39 
-23.31 -472.92 5.85 
-23.32 -462.30 5.47 
-24.67 -462.31 5.62 
-25.94 -471.43 5.92 
-26.11 -471.38 5.93 
-26.59 -471.45 5.97 
-26.44 -471.40 5.95 
-26.84 -471.43 5.99 
-27.36 -469.81 5.90 
-27.36 -469.59 5.89 
-27.34 -469.31 5.87 
-28.85 -462.65 5.60 
-28.88 -462.32 5.59 
-29.09 -462.15 5.60 
-29.76 -462.16 5.66 
-31.60 -477.05 6.12 
-31.59 -476.68 6.10 
-31.56 -475.72 6.03 
-31.55 -475.47 6.01 
-31.92 -474.23 5.95 
-32.02 -473.95 5.93 
-13.97 -479.48 6.53 
-14.12 -479.31 6.51 
-14.50 -478.72 6.44 
-14.50 -478.28 6.38 
-14.88 -471.64 6.14 
-17.56 -455.30 5.39 
-17.53 -454.98 5.39 
-18.24 -478.17 6.56 
-18.10 -477.90 6.52 
-18.26 -477.40 6.46 
-18.11 -476.90 6.39 
-18.26 -476.16 6.30 
-18.19 -475.71 6.24 
-18.20 -475.39 6.20 
-18.15 -475.01 6.15 
-18.11 -474.56 6.09 
-18.14 -473.85 6.40 
-18.02 -472.65 6.23 
-18.05 -472.03 6.15 
-18.09 -471.29 6.05 
-18.04 -470.81 5.98 
-18.11 -470.73 6.15 
-18.06 -469.23 6.11 
-18.19 -468.31 6.00 
-18.05 -467.87 6.08 
-18.01 -467.36 5.86 
-18.01 -467.03 5.82 
-18.09 -466.51 5.84 
-18.00 -466.14 5.99 
-18.07 -465.70 5.95 
-17.98 -464.84 5.84 
-17.97 -464.27 5.78 
-17.94 -463.72 5.72 
-17.92 -463.40 5.69 
-17.91 -462.73 5.63 
-18.03 -462.32 5.63 
-18.19 -455.75 5.51 
-18.13 -455.52 5.50 
-21.89 -474.42 6.36 
-22.28 -474.00 6.35 
-21.77 -462.19 5.96 
-23.09 -479.25 6.45 
-23.05 -478.79 6.40 
-23.07 -478.46 6.37 
-23.05 -478.06 6.33 
-23.05 -477.70 6.29 
-23.03 -477.21 6.24 
-23.02 -476.85 6.20 
-22.92 -472.45 6.23 
-22.90 -472.10 6.20 
-22.86 -471.71 6.15 
-22.86 -471.39 6.12 
-22.83 -469.67 5.95 
-22.82 -469.31 5.92 
-22.54 -460.66 5.66 
-22.53 -459.94 5.63 
-22.53 -459.84 5.63 
-25.65 -462.27 5.72 
-27.11 -471.42 6.01 
-26.79 -462.24 5.85 
-27.34 -471.45 6.03 
-27.09 -458.88 5.75 
-27.85 -476.06 6.45 
-27.77 -471.43 6.06 
-27.52 -464.03 6.02 
-28.08 -471.41 6.08 
-27.87 -462.18 5.96 
-27.92 -461.96 5.96 
-27.96 -461.64 5.95 
-28.02 -461.20 5.94 
-28.08 -460.85 5.93 
-28.60 -475.07 6.42 
-28.70 -474.93 6.41 
-28.56 -471.39 6.12 
-28.13 -460.64 5.93 
-28.14 -460.35 5.92 
-28.15 -459.93 5.90 
-28.15 -459.22 5.88 
-28.14 -458.78 5.87 
-28.87 -474.70 6.41 
-29.08 -474.42 6.40 
-29.24 -474.22 6.39 
-29.51 -473.86 6.38 
-29.65 -473.64 6.38 
-30.71 -472.17 6.34 
-30.57 -462.08 5.72 
-31.39 -470.24 6.26 
-31.38 -469.81 6.23 
-31.37 -469.46 6.20 
-31.35 -469.08 6.18 
-31.35 -468.74 6.15 
-31.33 -468.36 6.13 
-31.26 -467.32 6.06 
-31.29 -467.09 6.05 
-31.06 -461.88 5.76 
-31.07 -461.54 5.74 
-18.24 -479.65 6.75 
-18.25 -479.36 6.71 
-18.14 -474.42 6.48 
-18.17 -472.30 6.56 
-18.14 -471.79 6.48 
-18.11 -471.45 6.43 
-18.11 -471.08 6.37 
-18.12 -470.16 6.58 
-18.05 -469.02 6.39 
-18.22 -467.97 6.26 
-21.66 -458.74 6.26 
-21.63 -457.25 6.18 
-21.61 -456.92 6.17 
-21.55 -456.52 6.14 
-21.49 -456.10 6.12 
-21.71 -458.91 6.28 
-21.71 -458.51 6.25 
-21.69 -458.10 6.23 
-21.67 -457.67 6.21 
-21.65 -457.36 6.19 
-22.48 -459.59 6.06 
-22.46 -459.30 6.04 
-22.41 -458.95 6.01 
-22.38 -458.43 5.98 
-22.37 -458.09 5.96 
-22.36 -457.69 5.94 
-22.33 -456.88 5.90 
-22.32 -456.49 5.89 
-22.31 -456.15 5.88 
-22.57 -459.88 6.09 
-22.50 -459.76 6.07 
-30.88 -459.32 6.17 
-30.86 -459.05 6.16 
-30.85 -458.71 6.14 
-30.84 -458.33 6.12 
-30.83 -457.86 6.10 
-30.82 -457.52 6.09 
-30.80 -457.09 6.07 
-30.74 -455.46 6.01 
-30.74 -455.11 6.00 
-30.72 -454.69 5.98 
-30.94 -459.98 6.21 
-30.90 -459.59 6.19 
-30.88 -459.07 6.16 
-18.09 -475.16 7.01 
-18.20 -472.57 6.99 
-18.33 -478.84 7.65 
-18.28 -478.42 7.58 
-18.25 -477.60 7.43 
-18.25 -478.92 8.16 
-18.24 -478.62 8.11 
-18.32 -477.41 7.88 
-12.64 -472.75 3.91 
-12.94 -472.72 3.90 
-14.82 -478.57 4.39 
-14.66 -471.85 3.88 
-15.96 -455.26 3.40 
-15.87 -455.04 3.39 
-16.32 -456.18 3.43 
-16.38 -455.72 3.42 
-16.05 -455.22 3.40 
-16.08 -455.01 3.39 
-16.87 -465.25 3.75 
-16.76 -465.12 3.75 
-16.75 -464.04 3.73 
-16.83 -463.77 3.72 
-16.91 -461.72 3.66 
-16.81 -461.53 3.66 
-16.68 -455.75 3.42 
-16.68 -455.36 3.40 
-17.13 -465.32 3.74 
-17.17 -465.01 3.74 
-17.15 -463.67 3.71 
-17.07 -463.48 3.70 
-17.06 -460.96 3.63 
-17.46 -465.80 3.75 
-18.52 -479.48 4.41 
-18.48 -478.17 4.37 
-18.44 -477.65 4.36 
-18.45 -477.26 4.35 
-18.42 -476.91 4.34 
-18.41 -476.56 4.33 
-18.39 -476.17 4.32 
-18.38 -475.84 4.31 
-18.39 -475.27 4.29 
-18.38 -474.91 4.28 
-18.36 -474.55 4.27 
-18.35 -474.12 4.26 
-18.34 -473.69 4.25 
-18.33 -473.38 4.24 
-18.19 -469.39 3.79 
-18.18 -468.97 3.78 
-18.17 -468.52 3.78 
-18.16 -468.09 3.77 
-18.15 -467.73 3.77 
-18.12 -467.36 3.76 
-18.08 -466.95 3.75 
-18.10 -466.56 3.75 
-18.09 -466.10 3.74 
-18.07 -465.69 3.73 
-18.07 -465.27 3.72 
-18.04 -464.87 3.71 
-18.01 -463.58 3.68 
-17.99 -463.35 3.67 
-17.97 -462.92 3.66 
-17.95 -462.51 3.65 
-17.94 -462.18 3.64 
-17.91 -461.68 3.63 
-17.91 -461.36 3.62 
-17.89 -461.00 3.61 
-17.89 -460.56 3.59 
-17.85 -460.09 3.57 
-17.84 -459.92 3.57 
-17.62 -454.83 3.34 
-18.52 -479.15 4.40 
-18.51 -478.82 4.39 
-14.25 -472.70 4.56 
-14.32 -472.34 4.38 
-14.48 -472.14 4.54 
-14.62 -471.80 4.36 
-14.85 -471.76 4.20 
-14.81 -471.51 4.51 
-15.97 -455.62 3.65 
-15.89 -455.41 3.76 
-15.73 -454.97 3.74 
-16.33 -456.12 3.80 
-16.23 -455.81 3.78 
-16.19 -455.35 3.75 
-16.13 -455.07 3.73 
-16.51 -456.12 3.68 
-16.63 -455.80 3.67 
-18.32 -473.17 4.23 
-18.31 -472.96 4.22 
-18.27 -472.50 4.21 
-18.27 -472.09 4.20 
-18.24 -471.22 4.17 
-18.23 -470.94 4.16 
-18.22 -470.54 4.15 
-18.21 -470.12 4.14 
-18.19 -469.69 4.13 
-18.18 -469.33 4.12 
-18.18 -468.89 4.26 
-18.18 -468.60 4.25 
-18.16 -468.13 4.08 
-18.14 -467.71 4.07 
-18.12 -467.28 4.05 
-18.10 -466.93 4.04 
-18.10 -466.57 4.03 
-18.09 -466.14 4.02 
-18.07 -465.69 4.00 
-18.06 -465.37 3.99 
-18.04 -464.93 3.98 
-18.02 -464.57 3.97 
-18.01 -464.13 3.95 
-17.99 -463.72 3.94 
-17.98 -463.24 4.05 
-17.97 -462.97 4.04 
-17.95 -462.47 4.06 
-17.95 -462.12 4.02 
-17.92 -461.71 3.99 
-17.90 -461.31 3.97 
-17.88 -460.94 3.96 
-17.85 -460.46 3.94 
-17.84 -460.04 3.92 
-17.83 -459.84 3.92 
-17.79 -458.85 4.00 
-17.78 -458.55 3.98 
-17.77 -458.17 3.97 
-17.65 -455.78 3.96 
-18.44 -471.40 4.55 
-18.41 -468.62 4.42 
-18.32 -467.75 4.38 
-18.29 -467.33 4.36 
-18.31 -466.91 4.34 
-18.37 -462.61 4.15 
-14.35 -479.39 4.89 
-14.26 -478.76 4.86 
-14.41 -478.35 4.84 
-14.11 -472.54 4.88 
-14.31 -472.01 4.85 
-14.81 -478.60 4.86 
-14.56 -471.84 4.84 
-15.00 -479.14 4.88 
-15.10 -478.60 4.86 
-15.09 -478.32 4.84 
-14.88 -471.68 4.84 
-15.30 -478.73 4.87 
-15.30 -471.86 4.86 
-15.96 -455.75 4.12 
-15.92 -455.32 4.11 
-15.87 -454.77 4.09 
-16.26 -456.08 4.16 
-16.22 -455.31 4.13 
-16.10 -454.98 4.11 
-16.49 -456.44 4.18 
-16.41 -455.13 4.13 
-18.35 -474.79 4.71 
-18.37 -474.55 4.69 
-18.19 -468.84 4.74 
-18.23 -468.62 4.73 
-18.16 -463.66 4.45 
-18.08 -463.30 4.43 
-17.97 -462.94 4.41 
-17.99 -462.65 4.39 
-17.96 -458.84 4.24 
-17.95 -458.51 4.22 
-17.94 -458.14 4.21 
-17.79 -456.94 4.23 
-17.73 -456.61 4.16 
-17.85 -456.01 4.15 
-17.81 -455.77 4.24 
-18.68 -479.52 4.94 
-18.55 -476.01 4.77 
-18.55 -475.68 4.75 
-18.55 -475.44 4.74 
-18.60 -474.50 4.69 
-18.44 -473.11 5.02 
-18.46 -472.99 5.02 
-18.43 -471.21 4.90 
-18.40 -470.94 4.88 
-18.36 -468.53 4.73 
-18.26 -466.48 4.61 
-18.41 -462.61 4.41 
-22.48 -463.04 4.59 
-22.48 -462.90 4.58 
-22.47 -462.42 4.56 
-22.59 -462.34 4.56 
-23.12 -462.32 4.58 
-13.90 -471.93 5.15 
-14.33 -478.27 5.29 
-14.08 -471.95 5.16 
-14.74 -478.59 5.32 
-14.64 -471.77 5.16 
-15.09 -478.56 5.32 
-15.02 -471.78 5.18 
-15.67 -479.17 5.38 
-15.54 -478.09 5.30 
-15.28 -471.69 5.18 
-15.82 -479.20 5.38 
-16.37 -456.07 4.41 
-18.32 -474.82 5.13 
-18.35 -474.59 5.12 
-18.19 -468.82 5.06 
-18.23 -468.60 5.05 
-18.01 -463.16 4.80 
-17.99 -462.91 4.78 
-18.05 -462.58 4.77 
-18.07 -461.31 4.58 
-18.07 -461.02 4.57 
-17.69 -456.84 4.55 
-17.67 -456.63 4.54 
-17.76 -456.09 4.46 
-17.81 -455.78 4.52 
-17.82 -455.22 4.38 
-18.55 -476.76 5.27 
-18.52 -474.52 5.12 
-18.37 -469.25 5.11 
-18.42 -468.53 5.05 
-18.31 -467.65 4.98 
-18.27 -465.98 4.86 
-18.24 -465.87 4.85 
-18.19 -463.99 4.73 
-18.18 -463.82 4.72 
-18.27 -462.51 4.78 
-18.17 -462.19 4.75 
-18.09 -456.57 4.42 
-18.57 -462.59 4.67 
-22.48 -462.68 4.92 
-22.49 -462.51 4.91 
-31.01 -462.59 4.90 
-31.00 -462.18 4.88 
-31.47 -461.98 4.89 
-13.93 -478.54 5.76 
-13.93 -478.17 5.73 
-13.71 -471.87 5.46 
-14.01 -472.43 5.53 
-14.04 -471.44 5.73 
-14.74 -472.74 5.60 
-14.51 -471.72 5.48 
-15.24 -478.85 5.82 
-14.80 -471.48 5.46 
-15.35 -472.55 5.60 
-18.03 -462.97 5.17 
-17.71 -456.50 4.82 
-17.92 -456.24 4.83 
-18.31 -462.06 5.39 
-22.54 -463.04 5.30 
-22.52 -462.69 5.28 
-22.51 -462.46 5.26 
-22.56 -462.94 5.29 
-22.70 -462.32 5.27 
-31.01 -462.08 5.42 
-13.44 -471.90 5.76 
-14.07 -479.50 6.35 
-14.21 -479.34 6.33 
-14.41 -477.80 6.16 
-14.31 -471.14 6.02 
-14.48 -472.06 5.84 
-14.72 -471.70 5.81 
-14.86 -471.69 6.14 
-15.30 -478.95 6.32 
-18.32 -479.04 6.45 
-18.30 -478.75 6.42 
-18.28 -477.67 6.30 
-18.19 -476.92 6.21 
-18.27 -476.18 6.14 
-18.21 -475.63 6.08 
-18.18 -475.15 6.02 
-18.17 -474.82 5.99 
-18.16 -474.47 5.95 
-18.22 -474.01 5.90 
-18.18 -473.24 6.22 
-18.19 -472.97 6.19 
-18.19 -472.49 6.13 
-18.14 -472.04 6.07 
-18.06 -471.73 6.03 
-18.11 -471.11 5.96 
-18.10 -470.82 5.93 
-18.11 -470.45 5.89 
-18.08 -470.06 5.84 
-18.08 -469.61 5.79 
-18.09 -469.29 5.75 
-18.09 -468.86 6.03 
-18.04 -468.46 5.98 
-18.04 -468.04 5.93 
-18.03 -467.68 5.88 
-18.03 -467.29 5.84 
-18.06 -466.89 5.80 
-18.00 -466.52 5.75 
-17.98 -466.06 5.70 
-17.98 -465.60 5.69 
-18.01 -465.30 5.76 
-17.99 -464.84 5.85 
-18.00 -464.50 5.81 
-17.99 -464.03 5.77 
-17.97 -463.64 5.73 
-17.94 -463.33 5.69 
-17.91 -462.75 5.64 
-17.88 -462.37 5.61 
-17.87 -462.17 5.59 
-17.85 -461.66 5.55 
-17.85 -461.28 5.52 
-17.87 -460.90 5.60 
-18.49 -465.43 5.69 
-18.41 -459.96 5.55 
-18.42 -459.48 5.53 
-18.42 -459.33 5.53 
-18.40 -458.70 5.50 
-18.84 -474.42 5.98 
-18.69 -469.49 5.83 
-18.65 -465.32 5.70 
-22.54 -462.38 5.61 
-23.15 -479.54 6.15 
-23.22 -479.26 6.13 
-23.05 -475.42 6.33 
-23.05 -475.09 6.29 
-23.03 -474.65 6.25 
-23.01 -474.32 6.22 
-23.01 -474.02 6.19 
-23.00 -473.62 6.15 
-22.98 -473.22 6.11 
-22.98 -472.74 6.07 
-22.95 -472.36 6.03 
-22.93 -471.81 5.98 
-22.91 -471.49 5.95 
-22.90 -471.19 5.92 
-22.90 -470.71 5.88 
-22.90 -470.33 5.85 
-23.04 -470.02 5.83 
-22.83 -467.64 6.02 
-22.81 -467.04 5.97 
-22.77 -466.01 5.88 
-22.57 -463.03 5.65 
-22.56 -462.81 5.64 
-22.64 -462.24 5.61 
-22.64 -461.92 5.60 
-22.62 -461.55 5.58 
-22.67 -461.19 5.56 
-22.76 -460.73 5.55 
-22.81 -460.39 5.54 
-22.86 -459.94 5.53 
-23.42 -479.12 6.13 
-23.19 -469.81 5.83 
-23.34 -469.60 5.82 
-22.89 -459.77 5.53 
-22.89 -457.98 5.47 
-27.17 -462.51 5.66 
-27.15 -462.36 5.65 
-27.72 -478.17 6.24 
-31.63 -477.11 6.36 
-31.62 -475.90 6.27 
-31.61 -475.29 6.23 
-31.56 -474.54 6.17 
-31.55 -474.19 6.15 
-31.52 -473.25 6.08 
-31.52 -472.94 6.06 
-31.51 -472.55 6.04 
-31.50 -472.18 6.01 
-31.50 -471.67 5.98 
-31.47 -471.35 5.96 
-31.47 -471.05 5.94 
-31.46 -470.64 5.91 
-31.44 -470.24 5.88 
-31.43 -469.83 5.86 
-31.72 -478.53 6.47 
-31.72 -478.12 6.44 
-31.67 -476.92 6.35 
-31.66 -476.53 6.32 
-31.65 -476.15 6.29 
-31.63 -475.66 6.26 
-31.51 -468.55 5.79 
-31.66 -468.21 5.78 
-31.76 -467.95 5.77 
-14.48 -478.83 6.76 
-14.37 -477.83 6.61 
-17.62 -457.57 5.70 
-17.61 -457.23 5.68 
-17.60 -456.84 5.65 
-17.59 -456.46 5.64 
-17.56 -456.01 5.61 
-17.55 -455.63 5.60 
-17.55 -455.25 5.59 
-17.54 -454.87 5.58 
-18.30 -477.53 6.77 
-18.25 -476.63 6.65 
-18.24 -476.34 6.61 
-18.26 -476.11 6.58 
-18.23 -475.69 6.53 
-18.25 -475.26 6.48 
-18.18 -474.81 6.42 
-18.24 -474.45 6.37 
-18.18 -474.05 6.32 
-18.22 -473.69 6.28 
-18.07 -472.75 6.55 
-18.17 -472.34 6.50 
-18.11 -472.09 6.46 
-18.27 -470.78 6.30 
-18.08 -469.31 6.09 
-18.03 -466.56 6.05 
-18.19 -465.86 6.28 
-18.01 -463.97 6.03 
-17.98 -463.79 6.00 
-17.98 -463.39 5.96 
-17.93 -462.44 5.87 
-17.92 -461.33 5.78 
-17.75 -458.34 5.77 
-17.66 -458.07 5.73 
-17.65 -457.80 5.71 
-17.63 -457.34 5.69 
-17.62 -456.94 5.66 
-17.74 -456.17 5.65 
-17.63 -455.57 5.61 
-17.67 -455.23 5.61 
-17.71 -454.84 5.61 
-22.25 -478.24 6.56 
-22.45 -478.10 6.56 
-22.22 -471.48 6.34 
-21.83 -462.45 5.88 
-22.71 -477.90 6.55 
-22.49 -471.19 6.33 
-22.66 -470.92 6.32 
-22.30 -465.25 6.14 
-23.05 -477.66 6.55 
-23.08 -476.58 6.44 
-23.09 -476.36 6.42 
-23.07 -475.88 6.37 
-23.07 -475.66 6.35 
-22.82 -470.69 6.31 
-22.88 -469.36 6.19 
-22.88 -469.14 6.17 
-22.87 -468.77 6.13 
-22.57 -459.87 5.84 
-22.54 -459.54 5.83 
-22.48 -458.12 5.78 
-28.23 -471.77 6.36 
-28.45 -471.42 6.35 
-28.60 -471.13 6.34 
-28.74 -470.92 6.33 
-28.88 -470.62 6.32 
-29.03 -470.32 6.31 
-29.15 -470.09 6.30 
-29.30 -469.79 6.29 
-29.44 -469.51 6.28 
-29.54 -469.28 6.27 
-29.67 -468.97 6.26 
-29.86 -468.69 6.26 
-29.97 -468.47 6.25 
-30.13 -468.16 6.24 
-30.36 -467.63 6.23 
-30.42 -467.47 6.22 
-31.13 -461.65 5.96 
-31.11 -461.32 5.95 
-31.08 -460.96 5.93 
-30.98 -458.79 5.84 
-30.99 -458.58 5.83 
-30.97 -458.23 5.82 
-30.85 -455.38 5.73 
-30.82 -454.96 5.71 
-18.29 -479.66 7.05 
-18.32 -479.40 7.01 
-18.28 -476.35 7.08 
-18.17 -468.83 6.70 
-18.12 -467.16 6.44 
-22.43 -458.32 6.21 
-22.42 -458.04 6.19 
-22.38 -457.46 6.16 
-22.37 -457.07 6.14 
-22.36 -456.73 6.12 
-22.50 -458.74 6.24 
-22.50 -458.45 6.23 
-27.60 -454.96 6.36 
-30.84 -457.98 6.32 
-30.80 -456.09 6.24 
-30.77 -455.70 6.22 
-30.76 -455.31 6.21 
-30.75 -454.97 6.19 
-30.91 -458.93 6.37 
-30.90 -458.60 6.36 
-30.89 -458.25 6.34 
-30.85 -457.72 6.31 
-30.81 -456.24 6.25 
-18.37 -479.42 7.55 
-18.38 -479.16 7.51 
-18.34 -478.02 7.33 
-18.22 -475.28 7.37 
-28.01 -456.99 6.49 
-28.03 -457.30 6.51 
-28.04 -457.15 6.50 
-18.25 -478.89 7.98 
-14.82 -478.70 4.40 
-14.94 -478.68 4.40 
-16.32 -454.96 3.47 
-16.90 -465.26 3.78 
-16.90 -464.02 3.76 
-16.80 -461.59 3.71 
-16.62 -455.71 3.51 
-17.03 -463.91 3.76 
-17.11 -463.72 3.75 
-17.07 -454.78 3.46 
-18.35 -472.91 4.26 
-18.34 -472.49 4.24 
-18.33 -472.18 4.24 
-18.21 -468.29 3.80 
-18.22 -468.04 3.79 
-18.21 -467.64 3.79 
-18.12 -467.25 3.79 
-18.18 -466.83 3.78 
-18.17 -466.41 3.77 
-18.15 -465.99 3.77 
-18.13 -465.62 3.76 
-18.13 -465.27 3.76 
-18.07 -463.94 3.73 
-18.06 -463.67 3.73 
-18.05 -463.30 3.72 
-18.04 -462.83 3.71 
-18.02 -462.50 3.70 
-18.00 -462.13 3.69 
-17.97 -461.73 3.68 
-17.97 -461.29 3.67 
-17.95 -460.86 3.66 
-17.93 -460.46 3.65 
-17.92 -460.24 3.64 
-17.69 -455.10 3.45 
-17.69 -455.00 3.44 
-18.55 -479.06 4.42 
-18.59 -478.86 4.41 
-18.58 -478.49 4.40 
-18.55 -477.63 4.38 
-18.53 -477.14 4.37 
-18.49 -476.83 4.36 
-18.49 -476.45 4.35 
-18.48 -476.07 4.34 
-18.46 -475.72 4.33 
-18.47 -475.22 4.32 
-18.45 -474.82 4.31 
-18.43 -474.43 4.30 
-18.42 -474.05 4.29 
-18.42 -473.81 4.28 
-18.39 -472.90 4.26 
-18.38 -472.37 4.24 
-18.36 -472.05 4.23 
-14.46 -472.80 4.62 
-14.38 -472.48 4.42 
-14.67 -472.01 4.41 
-14.57 -471.54 4.56 
-14.63 -471.47 4.56 
-14.85 -471.63 4.57 
-16.27 -454.86 3.83 
-16.78 -459.69 3.98 
-16.64 -456.45 3.96 
-16.40 -455.45 3.71 
-18.33 -471.98 4.23 
-18.32 -471.68 4.22 
-18.30 -471.28 4.21 
-18.30 -470.79 4.20 
-18.30 -470.35 4.19 
-18.29 -469.94 4.17 
-18.28 -469.61 4.17 
-18.26 -469.19 4.33 
-18.26 -468.85 4.32 
-18.23 -468.53 4.14 
-18.22 -468.00 4.12 
-18.20 -467.62 4.11 
-18.19 -467.23 4.10 
-18.18 -466.89 4.09 
-18.16 -466.45 4.08 
-18.15 -466.04 4.06 
-18.13 -465.62 4.05 
-18.11 -465.21 4.04 
-18.11 -464.80 4.03 
-18.09 -464.38 4.02 
-18.08 -464.04 4.00 
-18.07 -463.66 3.99 
-18.04 -463.21 4.11 
-18.03 -462.85 4.10 
-18.00 -462.46 3.96 
-17.99 -462.05 3.94 
-17.98 -461.69 3.93 
-17.96 -461.18 3.91 
-17.94 -460.81 3.90 
-17.92 -460.43 3.89 
-17.91 -460.07 3.88 
-17.89 -459.64 3.86 
-17.69 -454.97 3.74 
-18.34 -471.84 4.23 
-18.34 -471.55 4.22 
-18.33 -471.17 4.21 
-18.39 -470.80 4.39 
-18.39 -470.47 4.38 
-18.38 -470.09 4.36 
-18.45 -469.66 4.53 
-18.47 -468.71 4.49 
-18.27 -464.38 4.30 
-18.24 -464.00 4.28 
-18.23 -463.65 4.26 
-18.26 -462.71 4.23 
-18.24 -462.27 4.21 
-18.56 -462.70 4.23 
-18.88 -461.59 4.19 
-18.77 -461.22 4.18 
-18.82 -456.80 4.01 
-18.76 -455.34 3.96 
-19.20 -462.36 4.23 
-19.06 -462.01 4.21 
-18.93 -461.72 4.20 
-19.39 -462.78 4.25 
-14.27 -478.88 4.91 
-14.21 -472.73 4.98 
-14.26 -472.05 4.93 
-14.83 -478.86 4.91 
-14.56 -478.52 4.89 
-14.56 -471.97 4.93 
-14.54 -471.73 4.92 
-14.91 -479.66 4.95 
-15.08 -478.52 4.90 
-14.82 -472.05 4.95 
-15.30 -478.89 4.92 
-15.32 -478.51 4.90 
-16.27 -455.22 4.20 
-16.20 -454.90 4.19 
-18.26 -468.85 4.83 
-18.06 -463.17 4.50 
-18.03 -462.86 4.49 
-18.08 -460.25 4.37 
-18.07 -460.00 4.36 
-18.06 -459.64 4.34 
-18.04 -459.22 4.33 
-17.84 -456.69 4.23 
-17.77 -456.30 4.22 
-17.87 -455.23 4.19 
-17.83 -454.70 4.18 
-18.62 -475.87 4.81 
-18.63 -475.66 4.80 
-18.61 -475.38 4.79 
-18.45 -474.72 4.76 
-18.68 -474.59 4.75 
-18.51 -471.87 5.03 
-18.49 -471.57 5.01 
-18.44 -469.64 4.89 
-18.42 -469.39 4.87 
-18.39 -468.69 4.83 
-18.48 -468.57 4.82 
-18.35 -467.07 4.73 
-18.33 -466.87 4.72 
-18.24 -464.26 4.57 
-18.24 -464.00 4.55 
-18.23 -463.78 4.54 
-18.31 -462.72 4.49 
-18.22 -462.23 4.46 
-18.67 -468.60 4.83 
-18.60 -462.70 4.50 
-22.56 -463.01 4.67 
-22.55 -462.78 4.66 
-31.10 -462.76 4.45 
-31.08 -462.51 4.44 
-31.05 -462.19 4.43 
-14.29 -478.43 5.37 
-13.97 -471.99 5.27 
-14.58 -478.41 5.38 
-15.16 -478.86 5.42 
-14.90 -478.58 5.39 
-15.35 -478.76 5.41 
-15.34 -478.53 5.40 
-15.22 -472.55 5.36 
-15.21 -472.07 5.32 
-15.82 -479.30 5.46 
-18.39 -474.72 5.21 
-18.26 -469.04 5.19 
-18.26 -468.81 5.17 
-18.08 -463.19 4.90 
-18.07 -462.85 4.88 
-18.07 -459.21 4.81 
-18.05 -458.84 4.80 
-18.00 -455.95 4.46 
-18.67 -478.02 5.43 
-18.61 -476.00 5.30 
-18.55 -474.70 5.21 
-18.53 -473.97 5.16 
-18.28 -469.08 5.19 
-18.43 -468.75 5.18 
-18.49 -468.43 5.15 
-18.38 -467.52 5.08 
-18.33 -465.88 4.96 
-18.32 -465.67 4.94 
-18.25 -463.87 4.82 
-18.24 -463.73 4.81 
-18.34 -462.71 4.89 
-18.28 -462.26 4.86 
-18.14 -461.47 4.68 
-18.14 -461.20 4.66 
-18.15 -460.97 4.65 
-18.09 -459.50 4.83 
-18.01 -456.01 4.47 
-18.62 -462.69 4.91 
-22.58 -463.08 5.04 
-22.56 -462.82 5.02 
-31.10 -462.57 4.99 
-13.99 -478.25 5.84 
-13.67 -471.99 5.61 
-14.05 -472.59 5.69 
-14.28 -471.72 5.60 
-14.53 -477.95 5.82 
-14.57 -471.68 5.61 
-14.96 -471.34 5.59 
-15.29 -478.82 5.92 
-15.46 -472.71 5.76 
-18.09 -463.31 5.31 
-18.11 -462.81 5.28 
-18.43 -462.35 5.28 
-18.35 -462.15 5.25 
-22.61 -463.03 5.40 
-22.60 -462.70 5.38 
-22.68 -462.45 5.37 
-31.11 -462.38 5.54 
-31.10 -462.12 5.53 
-14.51 -477.85 6.30 
-14.88 -471.83 6.00 
-18.40 -477.52 6.42 
-18.29 -477.00 6.35 
-18.27 -476.68 6.32 
-18.34 -476.36 6.29 
-18.29 -475.92 6.24 
-18.32 -475.61 6.21 
-18.28 -475.15 6.16 
-18.23 -474.77 6.11 
-18.27 -474.42 6.08 
-18.25 -473.90 6.02 
-18.29 -473.62 6.00 
-18.26 -472.71 5.90 
-18.18 -471.86 6.21 
-18.20 -471.51 6.17 
-18.19 -471.22 6.13 
-18.16 -470.89 6.09 
-18.18 -470.35 6.03 
-18.17 -469.93 5.98 
-18.17 -469.68 5.96 
-18.15 -469.21 5.90 
-18.18 -468.89 5.87 
-18.09 -468.36 5.80 
-18.09 -468.02 5.76 
-18.14 -467.65 5.81 
-18.12 -467.14 5.99 
-18.06 -466.72 5.94 
-18.07 -466.39 5.90 
-18.04 -465.97 5.85 
-18.09 -465.58 5.81 
-18.04 -465.18 5.76 
-18.02 -464.76 5.72 
-17.99 -464.36 5.67 
-17.99 -463.99 5.64 
-18.02 -463.59 5.67 
-18.03 -463.17 5.83 
-17.96 -462.65 5.77 
-18.01 -462.37 5.75 
-18.00 -461.94 5.72 
-17.97 -461.57 5.68 
-17.94 -461.24 5.65 
-17.92 -460.78 5.61 
-17.98 -460.40 5.60 
-17.83 -460.01 5.55 
-17.84 -459.62 5.61 
-17.87 -459.36 5.52 
-17.79 -458.59 5.47 
-17.77 -458.49 5.47 
-17.75 -457.97 5.45 
-17.71 -457.33 5.43 
-18.38 -471.85 6.22 
-18.33 -470.87 6.10 
-18.30 -469.36 5.93 
-18.20 -464.67 5.73 
-18.49 -463.68 5.67 
-18.14 -456.39 5.54 
-18.88 -473.24 5.99 
-18.74 -467.92 5.81 
-18.61 -463.65 5.68 
-19.52 -462.82 5.72 
-20.09 -462.63 5.78 
-23.27 -479.50 6.25 
-23.25 -479.16 6.22 
-23.24 -478.71 6.19 
-23.25 -478.29 6.15 
-23.09 -474.09 6.32 
-23.10 -473.88 6.31 
-23.08 -473.53 6.27 
-23.06 -473.10 6.23 
-23.05 -472.69 6.19 
-23.04 -472.29 6.15 
-23.03 -471.89 6.12 
-23.01 -471.50 6.08 
-23.00 -471.12 6.05 
-22.98 -470.67 6.01 
-22.97 -470.23 5.97 
-22.95 -469.88 5.94 
-22.94 -469.47 5.90 
-22.92 -469.07 5.86 
-22.94 -468.68 5.83 
-23.02 -468.43 5.82 
-22.84 -465.91 6.01 
-22.71 -462.27 5.73 
-22.68 -461.97 5.71 
-22.68 -461.50 5.68 
-22.65 -461.13 5.66 
-22.64 -460.69 5.63 
-22.61 -460.26 5.61 
-22.55 -458.65 5.53 
-22.53 -458.27 5.51 
-22.51 -457.93 5.50 
-22.46 -456.59 5.46 
-23.46 -478.12 6.15 
-23.15 -468.21 5.81 
-23.34 -467.94 5.80 
-23.67 -477.97 6.14 
-26.42 -462.60 5.70 
-26.50 -462.38 5.70 
-26.69 -462.31 5.71 
-27.16 -462.16 5.74 
-27.07 -458.56 5.58 
-29.24 -462.20 5.92 
-31.40 -467.54 5.82 
-31.39 -467.19 5.80 
-31.39 -467.02 5.79 
-31.39 -466.46 5.76 
-31.79 -477.73 6.51 
-31.77 -477.30 6.48 
-31.78 -476.90 6.45 
-31.75 -476.48 6.42 
-31.73 -476.08 6.39 
-31.72 -475.68 6.36 
-31.70 -475.30 6.34 
-31.69 -474.30 6.27 
-31.65 -474.04 6.25 
-31.65 -473.69 6.22 
-31.64 -473.21 6.19 
-31.62 -472.86 6.16 
-31.61 -472.52 6.14 
-31.59 -472.06 6.11 
-31.57 -471.71 6.09 
-31.56 -471.28 6.06 
-31.56 -470.95 6.04 
-14.97 -471.76 6.35 
-17.57 -455.11 5.67 
-17.56 -454.87 5.66 
-18.39 -479.47 6.63 
-18.47 -479.32 6.61 
-18.40 -478.45 6.52 
-18.34 -477.88 6.45 
-18.34 -476.28 6.77 
-18.31 -475.84 6.71 
-18.37 -475.68 6.69 
-18.29 -475.16 6.62 
-18.29 -474.67 6.56 
-18.29 -474.30 6.51 
-18.27 -473.91 6.47 
-18.32 -473.63 6.43 
-18.24 -472.74 6.32 
-18.21 -472.31 6.27 
-18.20 -470.19 6.39 
-18.20 -470.02 6.36 
-18.19 -469.08 6.24 
-18.18 -468.20 6.47 
-18.16 -467.99 6.44 
-18.08 -466.77 6.26 
-18.05 -465.46 6.39 
-18.07 -465.00 6.19 
-18.08 -464.19 6.23 
-18.05 -463.88 6.19 
-18.05 -463.36 6.13 
-17.98 -461.91 5.97 
-17.97 -461.74 5.95 
-17.92 -460.37 5.83 
-17.79 -457.10 5.77 
-17.70 -456.77 5.77 
-17.68 -456.39 5.75 
-17.62 -456.01 5.72 
-17.66 -455.60 5.70 
-17.67 -455.24 5.69 
-17.69 -454.71 5.67 
-21.18 -462.58 5.92 
-21.47 -462.57 5.95 
-22.29 -477.14 6.58 
-21.93 -462.58 6.01 
-22.53 -476.96 6.57 
-22.74 -476.80 6.57 
-22.48 -469.76 6.33 
-22.59 -469.60 6.32 
-22.92 -476.63 6.56 
-23.16 -476.27 6.54 
-23.15 -475.88 6.50 
-23.14 -475.39 6.45 
-23.14 -475.03 6.42 
-23.12 -474.67 6.38 
-23.11 -474.32 6.35 
-22.73 -469.37 6.31 
-22.89 -469.09 6.30 
-22.90 -468.76 6.27 
-22.90 -467.44 6.15 
-22.88 -467.01 6.11 
-22.65 -459.86 5.94 
-22.60 -458.98 5.90 
-22.56 -458.21 5.86 
-27.95 -470.40 6.35 
-28.10 -470.13 6.34 
-28.26 -469.84 6.33 
-28.33 -469.70 6.32 
-28.88 -468.52 6.28 
-29.68 -466.72 6.22 
-29.78 -466.50 6.22 
-29.98 -466.11 6.21 
-30.01 -462.17 5.99 
-30.55 -464.08 6.14 
-30.38 -462.20 6.02 
-31.14 -461.69 6.06 
-31.16 -461.25 6.05 
-31.16 -461.01 6.03 
-31.05 -458.76 5.93 
-31.04 -458.40 5.92 
-31.02 -458.08 5.91 
-31.01 -457.67 5.89 
-30.99 -457.33 5.88 
-30.99 -456.99 5.87 
-30.93 -456.30 5.84 
-30.95 -456.13 5.84 
-30.91 -455.33 5.81 
-31.83 -479.60 6.65 
-31.83 -479.30 6.63 
-31.83 -478.30 6.56 
-31.78 -478.11 6.54 
-18.41 -479.50 7.19 
-18.46 -478.57 7.07 
-18.32 -477.04 6.86 
-18.32 -476.75 6.83 
-18.24 -472.30 6.68 
-18.16 -470.99 6.88 
-18.22 -470.70 6.84 
-18.24 -469.89 6.72 
-18.14 -469.16 6.60 
-18.20 -468.79 6.56 
-18.21 -467.81 6.76 
-22.41 -456.97 6.24 
-22.39 -456.50 6.21 
-22.40 -456.33 6.21 
-22.37 -455.82 6.18 
-22.34 -455.01 6.14 
-22.57 -457.68 6.31 
-22.49 -457.42 6.28 
-22.46 -457.15 6.26 
-27.59 -456.35 6.51 
-27.60 -456.15 6.50 
-27.50 -455.47 6.46 
-27.66 -456.39 6.52 
-30.77 -454.88 6.29 
-30.94 -457.73 6.43 
-30.89 -457.30 6.40 
-30.87 -456.86 6.38 
-30.85 -456.50 6.36 
-30.83 -456.10 6.35 
-30.81 -455.72 6.33 
-30.79 -455.31 6.31 
-30.79 -454.87 6.29 
-18.38 -476.47 7.29 
-18.29 -472.86 7.19 
-18.30 -470.60 7.22 
-27.72 -456.85 6.55 
-27.69 -456.62 6.53 
-18.39 -475.67 7.66 
-18.32 -475.30 7.59 
-18.28 -472.62 7.57 
-18.34 -478.99 8.22 
-18.36 -478.69 8.17 
-18.32 -476.92 8.37 
-14.83 -475.52 4.26 
-15.07 -475.07 4.25 
-16.78 -456.65 3.57 
-16.63 -456.35 3.57 
-17.04 -460.61 3.64 
-17.07 -460.40 3.64 
-16.87 -458.39 3.61 
-17.59 -463.62 3.66 
-17.44 -460.51 3.63 
-18.12 -463.85 3.65 
-18.11 -463.09 3.64 
-18.10 -462.67 3.64 
-18.10 -462.31 3.63 
-18.08 -461.87 3.63 
-18.03 -460.67 3.61 
-18.03 -460.33 3.61 
-18.01 -459.88 3.60 
-17.99 -459.51 3.60 
-17.97 -459.08 3.59 
-17.96 -458.66 3.58 
-17.94 -458.26 3.58 
-17.93 -457.88 3.57 
-17.91 -457.54 3.56 
-17.90 -457.10 3.55 
-18.65 -479.45 4.34 
-18.60 -479.07 4.33 
-18.57 -478.70 4.32 
-18.62 -478.44 4.31 
-18.59 -477.97 4.30 
-18.51 -475.92 4.26 
-18.49 -475.51 4.25 
-18.49 -475.14 4.24 
-18.49 -474.65 4.23 
-18.48 -474.29 4.22 
-18.46 -473.59 4.21 
-18.44 -473.10 4.19 
-18.41 -472.57 4.18 
-18.39 -472.26 4.18 
-18.39 -471.89 4.17 
-18.36 -471.61 4.16 
-18.34 -470.70 4.14 
-18.35 -470.24 4.13 
-18.34 -469.87 4.12 
-18.32 -469.50 4.11 
-18.31 -469.04 4.10 
-18.28 -468.67 4.09 
-18.27 -468.24 4.08 
-18.26 -467.92 4.08 
-18.14 -463.46 3.65 
-18.12 -462.95 3.64 
-14.20 -469.41 4.51 
-14.48 -469.14 4.31 
-14.48 -468.83 4.48 
-14.72 -468.80 4.30 
-15.12 -468.88 4.49 
-16.65 -456.45 3.79 
-16.65 -455.64 3.76 
-18.14 -464.37 3.99 
-18.12 -462.98 3.96 
-18.10 -462.66 3.95 
-18.08 -462.30 3.94 
-18.07 -461.93 3.93 
-18.06 -461.46 3.92 
-18.05 -461.08 3.91 
-18.03 -460.70 3.90 
-18.03 -460.21 4.02 
-18.01 -459.88 4.01 
-17.99 -459.54 4.00 
-17.97 -459.06 3.85 
-17.95 -458.71 3.84 
-17.93 -458.24 3.83 
-17.92 -457.87 3.82 
-17.90 -457.49 3.81 
-17.88 -456.97 3.79 
-17.86 -456.53 3.78 
-17.86 -456.44 3.78 
-17.98 -455.36 3.98 
-17.89 -455.06 3.85 
-17.95 -454.71 3.96 
-18.24 -467.77 4.07 
-18.25 -467.52 4.07 
-18.25 -467.08 4.06 
-18.24 -466.61 4.04 
-18.32 -466.24 4.22 
-18.22 -465.81 4.21 
-18.26 -465.51 4.20 
-18.19 -465.10 4.01 
-18.18 -464.72 4.00 
-18.16 -464.27 3.99 
-18.14 -463.85 3.98 
-18.14 -463.44 3.97 
-18.13 -463.06 3.96 
-18.21 -461.35 4.21 
-18.22 -461.05 4.20 
-18.19 -460.62 4.18 
-18.19 -460.40 4.17 
-18.30 -459.49 4.14 
-18.18 -459.06 4.12 
-22.52 -459.93 4.21 
-12.68 -462.23 4.62 
-14.07 -469.59 4.90 
-14.17 -468.99 4.86 
-14.44 -475.23 4.76 
-14.40 -468.77 4.85 
-14.77 -475.77 4.79 
-14.88 -475.37 4.77 
-14.67 -469.26 4.89 
-14.71 -468.76 4.86 
-15.33 -475.92 4.80 
-15.25 -475.51 4.78 
-15.06 -468.99 4.88 
-15.73 -475.67 4.79 
-18.01 -459.90 4.42 
-18.00 -459.56 4.41 
-18.60 -477.19 4.88 
-18.58 -473.84 4.73 
-18.59 -473.47 4.72 
-18.57 -473.19 4.71 
-18.37 -471.74 4.64 
-18.39 -471.50 4.63 
-18.48 -469.67 4.55 
-18.45 -469.45 4.54 
-18.50 -469.25 4.54 
-18.41 -467.29 4.84 
-18.40 -467.10 4.83 
-18.21 -465.78 4.75 
-18.27 -465.51 4.74 
-18.38 -465.08 4.71 
-18.28 -463.06 4.60 
-18.28 -462.82 4.58 
-18.19 -460.57 4.46 
-18.18 -460.35 4.45 
-18.23 -459.49 4.41 
-18.07 -457.68 4.32 
-18.07 -457.42 4.31 
-18.07 -457.20 4.30 
-19.01 -477.17 4.88 
-18.77 -471.41 4.63 
-18.49 -459.48 4.42 
-23.08 -477.47 4.93 
-23.05 -477.08 4.91 
-22.53 -459.79 4.57 
-23.20 -476.96 4.91 
-31.71 -477.14 5.00 
-31.72 -476.85 4.99 
-31.76 -476.56 4.98 
-32.13 -476.57 4.99 
-32.39 -476.52 4.99 
-9.39 -464.65 5.10 
-9.38 -464.30 5.06 
-12.68 -462.20 4.84 
-13.74 -468.77 5.20 
-14.11 -475.20 5.27 
-14.56 -468.73 5.22 
-14.81 -475.34 5.29 
-14.92 -475.26 5.28 
-14.69 -468.64 5.22 
-15.22 -475.65 5.31 
-15.28 -469.41 5.30 
-15.76 -476.13 5.35 
-18.04 -459.85 4.83 
-18.03 -459.56 4.81 
-17.98 -455.05 4.45 
-18.60 -477.19 5.47 
-18.38 -471.74 5.12 
-18.52 -470.90 5.07 
-18.44 -469.32 4.97 
-18.46 -469.06 4.95 
-18.25 -461.77 4.83 
-18.08 -460.09 4.99 
-18.34 -459.50 4.83 
-18.24 -459.02 4.66 
-18.11 -458.12 4.60 
-18.10 -457.91 4.59 
-19.03 -477.19 5.48 
-18.68 -471.36 5.10 
-18.53 -459.48 4.84 
-23.10 -477.36 5.57 
-23.04 -477.04 5.55 
-22.55 -459.84 4.95 
-23.31 -476.95 5.55 
-23.66 -476.95 5.56 
-9.46 -463.84 5.33 
-12.65 -462.36 5.30 
-13.50 -468.77 5.57 
-14.09 -475.66 5.82 
-13.92 -468.60 5.56 
-14.57 -475.38 5.80 
-14.43 -474.68 5.74 
-14.50 -468.68 5.59 
-14.69 -468.67 5.60 
-18.28 -475.65 5.92 
-18.17 -474.71 5.84 
-18.25 -474.33 5.81 
-18.10 -467.69 5.66 
-18.13 -467.40 5.63 
-18.34 -474.22 5.80 
-18.23 -467.22 5.62 
-18.34 -459.05 5.21 
-18.94 -474.97 5.88 
-23.07 -472.49 5.83 
-22.57 -460.00 5.33 
-22.58 -459.80 5.32 
-23.09 -472.11 5.80 
-23.26 -471.82 5.78 
-23.53 -471.62 5.78 
-27.14 -468.33 5.71 
-31.08 -459.36 5.42 
-31.23 -458.85 5.41 
-31.69 -477.22 5.78 
-31.67 -476.73 5.75 
-31.82 -476.58 5.75 
-31.30 -458.72 5.41 
-32.42 -476.51 5.76 
-12.65 -462.35 5.52 
-14.35 -468.00 5.87 
-15.12 -468.78 6.01 
-18.33 -478.69 6.18 
-18.37 -477.88 6.11 
-18.34 -477.47 6.08 
-18.23 -477.15 6.05 
-18.20 -476.26 5.97 
-18.24 -473.36 6.24 
-18.28 -472.96 6.20 
-18.24 -472.59 6.16 
-18.25 -472.32 6.13 
-18.21 -471.86 6.08 
-18.16 -471.39 6.03 
-18.18 -470.55 5.94 
-18.22 -470.28 5.92 
-18.18 -469.86 5.87 
-18.22 -469.45 5.84 
-18.17 -469.05 5.79 
-18.13 -468.56 5.74 
-18.13 -468.23 5.71 
-18.12 -467.86 5.87 
-18.15 -467.38 6.02 
-18.14 -467.09 5.99 
-18.11 -466.68 5.94 
-18.05 -466.18 5.88 
-18.10 -465.83 5.84 
-18.09 -465.50 5.81 
-18.06 -465.01 5.75 
-18.03 -464.61 5.70 
-18.03 -464.18 5.66 
-18.05 -463.86 5.63 
-18.01 -463.43 5.58 
-17.99 -463.00 5.66 
-18.04 -462.63 5.60 
-17.98 -462.17 5.76 
-18.01 -461.81 5.72 
-17.97 -461.46 5.68 
-17.95 -461.02 5.63 
-17.95 -460.58 5.58 
-17.92 -460.22 5.55 
-17.94 -459.99 5.53 
-17.89 -459.42 5.54 
-17.88 -459.01 5.43 
-17.90 -458.67 5.45 
-17.89 -458.17 5.62 
-17.88 -457.80 5.59 
-17.90 -457.45 5.57 
-17.87 -457.00 5.53 
-17.87 -456.64 5.50 
-17.87 -456.29 5.48 
-17.82 -455.80 5.44 
-17.85 -455.49 5.43 
-18.46 -479.56 6.26 
-18.47 -478.62 6.18 
-18.42 -478.05 6.13 
-18.38 -477.12 6.05 
-18.18 -466.09 5.88 
-18.20 -465.78 5.84 
-18.22 -464.57 5.71 
-18.16 -462.09 5.77 
-18.12 -460.85 5.63 
