# .PCD v0.7 - Point Cloud Data file format
VERSION 0.7
FIELDS x y z
SIZE 4 4 4
TYPE F F F
COUNT 1 1 1
WIDTH 2392
HEIGHT 1
VIEWPOINT 0 0 0 1 0 0 0
POINTS 2392
DATA ascii
-21.60 -66.67 4.32 
-21.60 -66.18 4.39 
-21.59 -65.70 4.45 
-21.64 -65.44 4.48 
-21.62 -65.00 4.54 
-15.81 -64.06 4.90 
-15.48 -64.07 4.91 
-15.20 -59.37 4.89 
-24.98 -73.90 4.04 
-22.99 -73.49 4.08 
-24.57 -73.19 4.15 
-23.74 -73.17 4.14 
-23.46 -73.15 4.14 
-23.06 -73.21 4.13 
-25.15 -72.75 4.22 
-23.27 -72.63 4.23 
-23.34 -72.17 4.30 
-25.09 -72.02 4.34 
-22.02 -67.27 4.69 
-24.47 -67.11 4.66 
-24.13 -67.12 4.67 
-23.72 -67.12 4.68 
-23.26 -67.12 4.69 
-22.88 -67.13 4.69 
-22.51 -67.13 4.70 
-22.06 -67.14 4.71 
-21.73 -67.03 4.74 
-33.29 -67.09 4.05 
-32.87 -67.08 4.05 
-32.45 -67.06 4.05 
-32.11 -67.10 4.05 
-31.70 -67.08 4.06 
-31.25 -67.08 4.06 
-30.85 -67.07 4.07 
-30.43 -67.07 4.07 
-30.00 -67.07 4.08 
-29.70 -67.06 4.08 
-29.36 -67.10 4.08 
-21.69 -66.45 4.83 
-16.41 -65.73 5.18 
-16.15 -65.72 5.19 
-21.59 -64.56 4.60 
-18.14 -63.87 4.85 
-17.79 -63.88 4.87 
-17.40 -63.88 4.89 
-17.02 -63.88 4.91 
-16.65 -63.90 4.93 
-16.28 -63.90 4.95 
-15.30 -63.94 5.01 
-21.64 -63.66 4.72 
-21.59 -63.98 4.68 
-20.12 -63.57 4.80 
-19.77 -63.87 4.77 
-19.44 -63.87 4.79 
-19.04 -63.85 4.81 
-18.61 -63.86 4.83 
-18.35 -63.86 4.84 
-21.59 -63.33 4.76 
-21.44 -62.93 4.82 
-21.09 -62.94 4.84 
-20.66 -62.95 4.85 
-20.33 -62.95 4.87 
-15.27 -60.87 5.36 
-23.97 -72.96 4.55 
-15.80 -70.98 5.19 
-15.25 -70.91 5.15 
-26.66 -67.11 4.64 
-25.25 -67.10 4.65 
-24.92 -67.10 4.66 
-22.18 -67.25 5.16 
-30.88 -67.08 4.63 
-30.59 -67.05 4.64 
-30.17 -67.04 4.64 
-29.25 -66.92 4.65 
-21.68 -65.98 4.90 
-21.69 -65.44 4.99 
-21.69 -64.92 5.07 
-21.73 -64.63 5.11 
-21.67 -64.36 5.16 
-17.20 -63.87 5.43 
-15.83 -64.07 5.46 
-15.59 -64.07 5.47 
-21.68 -63.76 5.25 
-19.87 -63.76 5.32 
-19.55 -63.82 5.32 
-15.38 -63.14 5.63 
-21.61 -63.05 5.36 
-20.71 -62.90 5.42 
-20.40 -62.95 5.42 
-21.41 -62.83 5.40 
-21.15 -62.82 5.41 
-23.14 -72.73 4.94 
-15.45 -71.08 5.59 
-15.73 -70.94 5.62 
-24.72 -67.09 5.16 
-24.05 -67.11 5.16 
-33.33 -67.04 4.66 
-32.94 -67.06 4.65 
-32.46 -67.07 4.65 
-32.08 -67.03 4.65 
-21.83 -63.86 5.77 
-18.64 -63.80 5.90 
-15.52 -63.65 6.12 
-24.60 -67.06 5.67 
-22.66 -67.07 5.67 
-22.11 -67.10 5.67 
-33.40 -67.04 5.27 
-33.03 -67.04 5.26 
-32.56 -67.04 5.25 
-32.07 -67.05 5.24 
-31.72 -66.96 5.24 
-30.94 -67.07 5.21 
-30.55 -67.04 5.21 
-30.02 -67.03 5.20 
-29.81 -67.05 5.19 
-23.98 -66.97 5.68 
-21.77 -62.91 5.94 
-20.41 -62.91 5.99 
-21.53 -62.83 5.97 
-23.83 -67.05 6.16 
-22.49 -67.03 6.17 
-22.01 -67.06 6.16 
-31.38 -67.07 5.81 
-30.55 -67.05 5.78 
-30.29 -67.02 5.78 
-19.76 -63.76 6.41 
-21.92 -63.00 6.50 
-20.44 -62.90 6.56 
-21.21 -62.85 6.55 
-20.79 -62.84 6.56 
-27.86 -66.87 6.28 
-32.85 -66.90 5.89 
-19.55 -63.68 6.98 
-19.19 -63.67 6.99 
-18.87 -63.68 7.00 
-18.39 -63.69 7.02 
-17.96 -63.70 7.04 
-17.62 -63.70 7.05 
-17.06 -63.71 7.08 
-16.74 -63.71 7.09 
-20.16 -63.62 6.97 
-33.19 -66.87 6.53 
-32.70 -66.85 6.50 
-22.74 -67.12 2.28 
-22.37 -67.10 2.31 
-21.92 -67.11 2.33 
-21.62 -67.11 2.35 
-26.77 -67.07 2.02 
-26.41 -67.05 2.05 
-25.42 -66.98 2.11 
-25.25 -67.02 2.12 
-24.81 -67.05 2.15 
-24.39 -67.06 2.18 
-23.99 -67.08 2.20 
-23.61 -67.10 2.23 
-23.22 -67.11 2.25 
-22.75 -67.10 2.28 
-21.58 -66.91 2.37 
-29.62 -66.96 1.84 
-29.20 -66.95 1.87 
-28.96 -66.86 1.89 
-27.55 -67.02 1.97 
-27.23 -67.04 1.99 
-26.86 -67.04 2.02 
-26.33 -66.95 2.06 
-26.05 -66.93 2.08 
-25.48 -66.93 2.11 
-21.53 -66.27 2.40 
-33.19 -66.91 1.60 
-32.87 -66.92 1.62 
-32.42 -66.92 1.65 
-31.97 -66.92 1.68 
-31.72 -66.87 1.70 
-30.65 -66.92 1.77 
-30.42 -66.93 1.79 
-21.52 -65.85 2.42 
-21.51 -65.42 2.44 
-21.50 -64.96 2.46 
-21.49 -64.49 2.48 
-16.97 -63.86 2.79 
-15.47 -63.96 2.87 
-15.15 -63.96 2.89 
-21.47 -64.02 2.50 
-19.69 -63.87 2.62 
-19.42 -63.85 2.64 
-19.21 -63.80 2.65 
-18.55 -63.83 2.69 
-18.34 -63.81 2.70 
-17.14 -63.79 2.78 
-15.13 -63.58 2.91 
-14.53 -63.50 2.95 
-14.30 -63.43 2.96 
-21.48 -63.64 2.52 
-8.72 -62.60 3.32 
-21.47 -63.13 2.54 
-14.69 -62.62 2.98 
-14.05 -62.56 3.02 
-9.10 -61.96 3.33 
-8.76 -61.99 3.35 
-21.45 -62.87 2.55 
-21.19 -62.87 2.57 
-20.78 -62.88 2.59 
-20.35 -62.89 2.62 
-15.03 -61.69 3.00 
-13.83 -60.91 3.10 
-15.04 -59.45 3.09 
-9.21 -58.11 3.49 
-8.63 -58.16 3.52 
-14.90 -57.75 3.18 
-14.87 -57.38 3.19 
-29.66 -78.57 1.48 
-29.63 -78.50 1.68 
-29.57 -78.46 1.29 
-24.05 -74.18 2.23 
-24.13 -73.94 2.24 
-23.88 -73.91 2.26 
-24.30 -73.52 2.26 
-24.40 -72.95 2.29 
-23.85 -73.22 2.30 
-24.56 -72.84 2.29 
-23.87 -72.77 2.14 
-23.83 -72.27 2.37 
-23.44 -71.80 2.42 
-15.58 -71.06 2.73 
-23.85 -71.59 2.41 
-23.48 -71.51 2.43 
-23.42 -71.39 2.45 
-14.71 -63.76 3.26 
-14.36 -63.68 3.28 
-14.15 -63.48 3.31 
-13.85 -62.91 3.36 
-14.07 -62.78 3.36 
-13.57 -62.58 3.40 
-13.39 -62.36 3.43 
-9.04 -61.98 3.71 
-13.12 -61.70 3.49 
-29.72 -78.60 2.06 
-29.68 -78.51 2.07 
-23.78 -74.59 2.56 
-24.40 -74.48 2.55 
-24.19 -74.24 2.57 
-23.79 -74.29 2.58 
-25.18 -73.88 2.57 
-23.70 -73.92 2.62 
-23.43 -73.79 2.64 
-23.05 -73.76 2.66 
-25.18 -73.73 2.58 
-23.80 -73.34 2.66 
-22.98 -73.20 2.71 
-22.81 -73.27 2.71 
-23.51 -72.96 2.71 
-23.21 -73.05 2.71 
-22.79 -72.89 2.74 
-23.97 -72.53 2.73 
-23.04 -72.70 2.75 
-22.77 -72.70 2.76 
-24.77 -71.75 2.35 
-24.30 -71.80 2.37 
-15.67 -71.11 3.25 
-23.80 -71.45 2.42 
-22.63 -67.15 2.77 
-22.44 -67.13 2.78 
-22.03 -67.17 2.80 
-21.75 -67.14 2.82 
-25.21 -67.08 2.63 
-24.83 -67.08 2.65 
-24.38 -67.09 2.68 
-24.04 -67.09 2.70 
-23.79 -67.11 2.71 
-21.60 -66.71 2.85 
-27.48 -67.06 2.51 
-27.23 -67.05 2.53 
-26.96 -67.05 2.54 
-21.59 -66.34 2.88 
-33.19 -66.94 2.22 
-32.80 -66.95 2.24 
-32.42 -66.95 2.26 
-32.05 -66.96 2.28 
-31.76 -66.86 2.30 
-30.73 -66.98 2.35 
-30.50 -66.98 2.36 
-21.61 -66.02 2.90 
-21.61 -65.56 2.93 
-21.63 -65.23 2.95 
-21.61 -64.79 2.98 
-21.56 -64.53 3.00 
-17.05 -63.88 3.30 
-15.75 -63.98 3.37 
-15.37 -63.96 3.40 
-21.55 -64.03 3.03 
-19.87 -63.88 3.14 
-19.45 -63.87 3.16 
-18.40 -63.84 3.23 
-21.52 -63.56 3.07 
-20.14 -63.58 3.14 
-21.52 -63.01 3.10 
-21.30 -62.87 3.13 
-15.12 -61.46 3.58 
-20.47 -79.01 2.85 
-20.49 -78.99 2.86 
-20.40 -78.94 2.76 
-29.76 -78.55 2.46 
-24.99 -74.62 2.87 
-23.67 -74.57 2.91 
-24.93 -74.56 2.88 
-24.24 -74.02 2.95 
-23.89 -73.92 2.97 
-23.36 -73.71 3.00 
-23.90 -73.63 3.00 
-23.67 -73.56 3.01 
-22.98 -73.21 3.06 
-24.87 -73.09 3.03 
-23.59 -72.92 3.08 
-22.82 -73.10 3.08 
-23.89 -72.69 3.09 
-23.61 -72.50 3.12 
-23.60 -72.29 3.14 
-15.69 -71.10 3.60 
-22.66 -67.16 3.24 
-22.44 -67.17 3.25 
-22.05 -67.20 3.27 
-25.57 -67.01 3.13 
-25.27 -67.13 3.13 
-24.88 -67.13 3.15 
-24.48 -67.12 3.17 
-24.05 -67.12 3.18 
-22.69 -67.14 3.24 
-21.69 -66.98 3.30 
-25.93 -67.00 3.11 
-25.75 -66.99 3.12 
-21.68 -66.59 3.34 
-33.33 -66.99 2.83 
-32.93 -66.99 2.85 
-32.56 -66.99 2.86 
-32.17 -67.01 2.87 
-31.69 -67.00 2.89 
-31.33 -67.01 2.90 
-21.70 -66.07 3.38 
-21.69 -65.65 3.42 
-21.68 -65.22 3.46 
-21.64 -64.37 3.54 
-17.10 -63.88 3.82 
-15.86 -63.99 3.88 
-15.70 -64.01 3.89 
-21.63 -63.89 3.58 
-19.95 -63.90 3.66 
-19.61 -64.03 3.67 
-18.36 -63.88 3.75 
-20.21 -63.57 3.68 
-21.62 -63.36 3.63 
-21.58 -62.94 3.67 
-21.40 -62.95 3.68 
-29.83 -78.55 2.85 
-24.66 -74.26 3.28 
-24.42 -74.38 3.27 
-23.64 -74.31 3.28 
-24.20 -73.94 3.32 
-23.78 -74.00 3.32 
-22.99 -73.80 3.35 
-23.88 -73.43 3.39 
-22.55 -73.34 3.41 
-24.96 -73.28 3.39 
-24.84 -73.17 3.41 
-24.48 -73.26 3.40 
-24.13 -73.32 3.40 
-23.64 -73.08 3.43 
-24.95 -72.84 3.45 
-24.04 -72.82 3.46 
-23.39 -72.83 3.46 
-23.29 -72.61 3.49 
-24.12 -71.98 3.56 
-15.71 -71.07 3.96 
-22.44 -67.18 3.73 
-22.11 -67.23 3.74 
-26.00 -67.09 3.62 
-25.64 -67.10 3.63 
-25.27 -67.12 3.64 
-24.87 -67.12 3.65 
-24.50 -67.13 3.66 
-24.09 -67.12 3.68 
-23.69 -67.13 3.69 
-23.28 -67.14 3.70 
-22.83 -67.16 3.72 
-22.57 -67.15 3.73 
-21.75 -66.92 3.78 
-29.25 -67.03 3.54 
-21.73 -66.53 3.83 
-21.73 -66.13 3.87 
-16.95 -65.50 4.17 
-16.66 -65.52 4.18 
-16.29 -65.52 4.20 
-21.74 -65.60 3.93 
-19.47 -65.55 4.03 
-19.01 -65.50 4.06 
-18.57 -65.46 4.09 
-18.19 -65.46 4.11 
-17.82 -65.49 4.12 
-17.39 -65.50 4.14 
-17.10 -65.49 4.16 
-21.71 -65.26 3.97 
-21.73 -64.92 4.00 
-21.75 -64.58 4.04 
-21.70 -64.32 4.07 
-15.88 -64.01 4.39 
-21.68 -63.82 4.13 
-20.24 -63.58 4.22 
-21.67 -63.31 4.19 
-15.36 -62.57 4.48 
-21.17 -62.95 4.25 
-20.79 -62.96 4.26 
-20.55 -62.97 4.27 
-15.34 -60.52 4.72 
-20.72 -78.95 3.64 
-24.55 -74.75 3.57 
-23.52 -74.35 3.62 
-25.10 -73.78 3.71 
-23.82 -73.63 3.72 
-25.58 -73.40 3.77 
-24.36 -73.27 3.78 
-23.86 -73.19 3.79 
-23.75 -73.07 3.80 
-24.92 -72.92 3.83 
-24.23 -72.87 3.83 
-23.61 -72.78 3.84 
-23.55 -71.83 3.98 
-23.36 -71.78 3.99 
-22.91 -71.96 3.97 
-15.78 -71.04 4.31 
-22.14 -67.20 4.22 
-25.69 -67.08 4.15 
-25.34 -67.08 4.15 
-24.92 -67.10 4.16 
-24.50 -67.12 4.17 
-24.15 -67.12 4.17 
-23.73 -67.11 4.18 
-23.32 -67.12 4.19 
-22.92 -67.13 4.20 
-22.51 -67.14 4.21 
-22.14 -67.14 4.22 
-21.84 -66.76 4.28 
-21.82 -66.38 4.34 
-33.27 -66.98 3.46 
-32.88 -66.98 3.46 
-32.50 -66.99 3.47 
-32.12 -67.00 3.48 
-31.68 -67.03 3.48 
-31.39 -67.01 3.49 
-31.05 -67.00 3.50 
-30.58 -67.01 3.51 
-21.82 -65.96 4.39 
-21.81 -65.55 4.45 
-15.97 -64.06 4.85 
-15.55 -64.11 4.86 
-15.36 -63.87 4.90 
-21.62 -62.93 4.23 
-21.44 -62.94 4.24 
-15.26 -59.96 4.78 
-15.25 -58.76 4.92 
-23.59 -73.79 4.06 
-23.84 -73.17 4.16 
-23.75 -72.99 4.19 
-24.51 -72.74 4.24 
-23.29 -72.40 4.28 
-15.94 -71.04 4.66 
-22.28 -67.26 4.68 
-23.35 -67.14 4.68 
-22.95 -67.12 4.69 
-22.57 -67.12 4.70 
-22.10 -67.13 4.71 
-21.92 -67.01 4.73 
-28.88 -67.04 4.11 
-26.51 -67.07 4.13 
-26.05 -67.07 4.14 
-21.91 -66.64 4.79 
-33.34 -66.97 4.09 
-32.93 -66.99 4.08 
-32.55 -66.99 4.08 
-32.21 -66.96 4.09 
-30.92 -67.05 4.09 
-21.82 -64.99 4.52 
-21.82 -64.51 4.58 
-16.77 -63.92 4.88 
-16.37 -63.93 4.90 
-15.98 -63.97 4.92 
-15.45 -63.99 4.95 
-21.79 -64.14 4.63 
-19.85 -63.83 4.75 
-19.65 -63.85 4.76 
-18.71 -63.90 4.79 
-18.58 -63.88 4.80 
-17.16 -63.91 4.86 
-21.83 -63.91 4.66 
-21.78 -63.63 4.70 
-15.33 -63.08 5.01 
-21.71 -63.02 4.79 
-21.30 -62.92 4.82 
-20.87 -62.94 4.83 
-20.52 -62.94 4.84 
-15.35 -60.84 5.32 
-15.32 -58.53 5.64 
-25.30 -67.06 4.67 
-24.94 -67.09 4.67 
-24.47 -67.11 4.67 
-24.19 -67.10 4.67 
-23.76 -67.12 4.68 
-27.28 -67.05 4.66 
-26.94 -67.05 4.66 
-26.76 -67.02 4.67 
-25.66 -67.05 4.67 
-25.47 -67.07 4.67 
-21.91 -66.22 4.85 
-21.90 -65.82 4.91 
-21.90 -65.37 4.98 
-21.87 -64.97 5.05 
-21.89 -64.44 5.13 
-16.44 -64.06 5.40 
-16.00 -64.06 5.42 
-15.56 -64.10 5.43 
-21.88 -63.97 5.20 
-19.64 -63.82 5.30 
-19.27 -63.82 5.31 
-17.48 -63.88 5.38 
-15.42 -63.71 5.50 
-21.93 -63.73 5.24 
-20.29 -63.64 5.30 
-20.01 -63.78 5.29 
-15.46 -63.34 5.55 
-21.93 -63.19 5.32 
-21.87 -63.44 5.28 
-15.39 -62.91 5.63 
-21.70 -62.88 5.38 
-20.69 -62.77 5.43 
-25.00 -67.06 5.18 
-24.16 -67.00 5.19 
-22.69 -67.09 5.19 
-22.05 -67.11 5.19 
-27.54 -67.03 5.21 
-27.04 -67.05 5.20 
-33.39 -66.98 4.71 
-33.01 -66.97 4.71 
-32.63 -66.97 4.70 
-32.29 -66.93 4.70 
-30.97 -67.04 4.68 
-18.81 -63.83 5.87 
-20.30 -63.73 5.84 
-22.42 -67.06 5.69 
-26.11 -67.03 5.73 
-25.93 -67.03 5.72 
-32.95 -66.96 5.33 
-32.57 -66.96 5.32 
-32.19 -66.98 5.31 
-31.83 -66.97 5.30 
-31.45 -67.00 5.28 
-31.22 -66.98 5.28 
-30.30 -66.99 5.26 
-21.98 -63.78 5.79 
-22.00 -63.40 5.85 
-22.02 -63.02 5.92 
-21.85 -62.86 5.95 
-20.71 -62.80 5.99 
-22.60 -67.11 6.18 
-22.32 -67.02 6.19 
-26.82 -67.02 5.74 
-26.30 -67.01 5.73 
-24.07 -67.00 6.22 
-30.62 -66.90 5.88 
-33.48 -66.95 5.35 
-33.21 -66.96 5.34 
-22.08 -64.07 6.29 
-17.57 -63.78 6.47 
-20.01 -63.72 6.40 
-19.84 -63.74 6.40 
-19.32 -63.76 6.41 
-19.02 -63.74 6.43 
-21.69 -62.82 6.55 
-21.35 -62.82 6.56 
-21.00 -62.82 6.56 
-24.93 -67.01 6.23 
-24.76 -67.01 6.23 
-17.77 -63.70 7.03 
-17.33 -63.72 7.04 
-16.98 -63.72 7.05 
-19.03 -63.69 6.99 
-18.49 -63.69 7.00 
-18.17 -63.69 7.01 
-17.93 -63.70 7.02 
-21.67 -62.66 7.17 
-33.43 -66.81 6.65 
-20.03 -78.90 1.55 
-29.39 -78.57 1.11 
-29.35 -78.50 1.12 
-21.77 -67.21 2.17 
-23.33 -67.08 2.07 
-23.02 -67.08 2.09 
-22.62 -67.08 2.11 
-22.24 -67.06 2.14 
-21.84 -67.06 2.17 
-21.45 -66.92 2.20 
-26.59 -67.06 1.84 
-25.85 -66.94 1.90 
-25.51 -66.96 1.92 
-25.14 -67.02 1.94 
-24.58 -67.03 1.98 
-24.23 -67.04 2.01 
-23.80 -67.04 2.04 
-21.46 -66.46 2.22 
-29.44 -67.00 1.65 
-29.11 -67.00 1.67 
-27.69 -67.04 1.77 
-27.39 -67.05 1.79 
-26.98 -67.06 1.82 
-26.17 -66.94 1.88 
-26.01 -66.93 1.89 
-21.46 -66.07 2.24 
-32.67 -67.02 1.42 
-32.25 -66.99 1.45 
-31.87 -67.00 1.47 
-31.61 -66.93 1.50 
-30.55 -67.01 1.57 
-30.27 -67.00 1.59 
-29.87 -67.00 1.62 
-29.66 -67.00 1.63 
-28.87 -66.88 1.69 
-21.45 -65.68 2.25 
-33.12 -66.99 1.39 
-32.76 -66.97 1.41 
-21.47 -65.17 2.27 
-21.44 -65.34 2.27 
-21.41 -64.52 2.31 
-17.06 -63.78 2.62 
-15.81 -63.78 2.70 
-15.37 -63.83 2.73 
-15.06 -63.83 2.75 
-21.40 -64.08 2.32 
-19.65 -63.78 2.45 
-19.40 -63.79 2.47 
-19.18 -63.72 2.49 
-18.49 -63.74 2.53 
-18.33 -63.74 2.54 
-16.90 -63.75 2.63 
-14.46 -63.37 2.81 
-14.35 -63.35 2.81 
-8.72 -62.43 3.20 
-21.39 -63.61 2.35 
-20.01 -63.58 2.44 
-14.14 -62.86 2.85 
-13.98 -62.58 2.87 
-14.66 -62.54 2.83 
-14.01 -62.47 2.87 
-9.10 -61.77 3.20 
-8.76 -61.79 3.22 
-21.40 -63.10 2.37 
-21.23 -62.81 2.39 
-20.77 -62.83 2.42 
-20.36 -62.83 2.45 
-15.01 -62.00 2.83 
-13.85 -61.91 2.91 
-13.83 -60.42 2.97 
-14.96 -59.62 2.93 
-13.69 -58.67 3.05 
-9.21 -57.95 3.36 
-9.37 -57.90 3.35 
-20.13 -78.93 1.88 
-20.07 -78.90 1.88 
-24.05 -74.02 2.08 
-23.92 -74.08 2.08 
-23.80 -73.88 2.10 
-23.50 -73.80 2.12 
-24.30 -72.88 2.14 
-23.76 -72.81 1.98 
-24.39 -72.56 2.15 
-24.09 -72.71 2.16 
-23.69 -72.69 2.18 
-23.71 -72.16 2.21 
-15.45 -70.96 2.60 
-23.30 -71.79 2.26 
-14.66 -63.64 3.11 
-14.26 -63.61 3.14 
-14.04 -63.49 3.16 
-13.77 -63.09 3.20 
-13.96 -62.88 3.20 
-13.45 -62.69 3.25 
-13.33 -62.53 3.26 
-13.18 -62.33 3.29 
-13.07 -61.86 3.32 
-12.96 -61.28 3.37 
-12.10 -60.38 3.48 
-11.88 -60.35 3.50 
-12.16 -60.12 3.49 
-12.55 -59.98 3.48 
-12.37 -59.81 3.50 
-20.16 -78.94 2.32 
-29.42 -78.60 1.51 
-29.39 -78.50 1.52 
-24.26 -74.45 2.40 
-23.58 -74.41 2.43 
-24.08 -74.36 2.42 
-23.73 -74.26 2.44 
-23.51 -74.10 2.46 
-23.48 -73.55 2.51 
-23.03 -73.67 2.51 
-22.75 -73.58 2.53 
-23.82 -73.48 2.50 
-22.92 -73.19 2.56 
-22.73 -73.18 2.57 
-24.06 -73.00 2.53 
-22.70 -72.74 2.61 
-22.54 -72.58 2.63 
-15.50 -70.98 3.12 
-24.16 -71.84 2.21 
-23.64 -71.64 2.25 
-23.26 -71.68 2.27 
-24.86 -71.57 2.19 
-23.65 -71.41 2.27 
-23.31 -71.35 2.29 
-33.35 -71.79 1.71 
-21.85 -67.24 2.64 
-23.77 -67.09 2.54 
-22.22 -67.09 2.62 
-21.89 -67.10 2.64 
-21.57 -67.01 2.67 
-26.36 -67.08 2.39 
-25.10 -67.06 2.46 
-24.64 -67.08 2.49 
-24.29 -67.08 2.51 
-23.98 -67.07 2.52 
-21.51 -66.59 2.70 
-27.80 -67.04 2.31 
-27.47 -67.06 2.33 
-27.11 -67.05 2.35 
-21.49 -66.24 2.72 
-32.72 -67.02 2.04 
-32.33 -67.03 2.06 
-31.93 -67.02 2.08 
-31.71 -66.99 2.10 
-30.68 -67.05 2.15 
-21.50 -65.81 2.75 
-33.12 -67.03 2.02 
-21.51 -65.38 2.78 
-21.50 -64.97 2.80 
-21.49 -64.55 2.83 
-16.98 -63.80 3.15 
-15.81 -63.84 3.22 
-15.43 -63.85 3.24 
-21.52 -64.20 2.85 
-19.73 -63.81 2.98 
-19.46 -63.85 3.00 
-19.22 -63.76 3.02 
-18.56 -63.77 3.06 
-18.34 -63.77 3.07 
-17.13 -63.79 3.14 
-21.51 -63.75 2.88 
-20.12 -63.53 2.98 
-15.17 -63.02 3.31 
-21.53 -63.42 2.90 
-21.47 -63.15 2.92 
-21.31 -62.84 2.95 
-15.10 -61.88 3.39 
-15.15 -60.58 3.47 
-15.10 -58.17 3.63 
-20.28 -78.96 2.65 
-29.50 -78.61 1.91 
-24.83 -74.53 2.75 
-23.36 -74.56 2.78 
-24.05 -74.10 2.80 
-22.54 -74.10 2.84 
-24.13 -73.99 2.81 
-23.59 -73.88 2.84 
-23.21 -73.59 2.88 
-24.33 -73.45 2.86 
-23.70 -73.49 2.87 
-23.49 -73.34 2.89 
-22.75 -73.18 2.93 
-23.45 -72.72 2.96 
-22.56 -72.99 2.96 
-22.91 -72.29 3.02 
-23.49 -72.28 3.00 
-15.53 -70.98 3.47 
-23.86 -67.13 3.02 
-22.58 -67.11 3.09 
-22.25 -67.12 3.10 
-21.84 -67.14 3.12 
-21.64 -67.08 3.13 
-26.24 -67.04 2.93 
-25.96 -67.00 2.94 
-25.55 -66.99 2.96 
-25.11 -67.11 2.97 
-24.67 -67.11 2.99 
-24.31 -67.11 3.00 
-24.00 -67.11 3.02 
-21.59 -66.46 3.19 
-21.59 -66.08 3.22 
-32.74 -67.07 2.66 
-32.34 -67.08 2.68 
-31.95 -67.07 2.69 
-31.68 -67.08 2.70 
-21.59 -65.69 3.26 
-33.14 -67.07 2.65 
-21.59 -65.27 3.29 
-21.57 -64.87 3.33 
-15.78 -63.88 3.73 
-15.43 -63.88 3.75 
-21.61 -64.28 3.38 
-19.84 -63.84 3.51 
-19.56 -63.95 3.51 
-18.46 -63.78 3.59 
-17.03 -63.81 3.67 
-21.60 -63.86 3.42 
-20.20 -63.47 3.52 
-21.60 -63.35 3.46 
-21.57 -62.93 3.50 
-21.35 -62.85 3.52 
-15.18 -61.09 4.02 
-15.16 -59.33 4.02 
-15.08 -58.82 4.07 
-29.55 -78.62 2.32 
-24.48 -74.29 3.15 
-23.97 -74.03 3.18 
-23.57 -74.17 3.17 
-23.08 -73.61 3.24 
-22.73 -73.71 3.23 
-24.71 -73.39 3.25 
-24.28 -73.28 3.27 
-24.10 -73.22 3.28 
-23.70 -73.37 3.26 
-24.74 -73.19 3.27 
-24.20 -72.93 3.31 
-23.83 -72.92 3.31 
-23.50 -72.98 3.31 
-23.19 -72.80 3.34 
-23.14 -72.57 3.37 
-23.91 -72.12 3.41 
-23.09 -72.07 3.43 
-22.82 -72.06 3.43 
-15.55 -70.97 3.82 
-33.39 -72.30 2.80 
-23.57 -67.13 3.53 
-23.10 -67.11 3.55 
-22.69 -67.13 3.56 
-22.29 -67.12 3.58 
-21.85 -67.14 3.60 
-21.69 -67.04 3.61 
-25.99 -67.10 3.45 
-25.53 -67.10 3.47 
-25.07 -67.10 3.48 
-24.72 -67.10 3.50 
-24.32 -67.11 3.51 
-23.95 -67.11 3.52 
-21.66 -66.40 3.68 
-16.79 -65.42 4.02 
-16.52 -65.41 4.04 
-16.08 -65.41 4.06 
-21.65 -66.04 3.72 
-19.34 -65.46 3.89 
-18.86 -65.40 3.92 
-18.51 -65.38 3.94 
-18.18 -65.39 3.95 
-17.70 -65.39 3.98 
-17.25 -65.40 4.00 
-16.95 -65.40 4.02 
-21.65 -65.63 3.77 
-21.64 -65.23 3.81 
-21.66 -64.69 3.87 
-15.81 -63.89 4.25 
-15.56 -63.88 4.26 
-21.64 -64.36 3.91 
-21.66 -63.79 3.97 
-15.21 -63.09 4.27 
-21.63 -63.42 4.01 
-21.68 -63.19 4.03 
-20.75 -62.90 4.10 
-20.58 -62.90 4.11 
-15.19 -61.46 4.45 
-15.17 -60.64 4.54 
-20.49 -78.94 3.57 
-29.66 -78.65 2.73 
-23.34 -74.35 3.50 
-23.94 -73.28 3.65 
-23.64 -73.20 3.66 
-24.68 -73.30 3.65 
-24.41 -73.26 3.66 
-24.18 -72.99 3.69 
-23.57 -72.93 3.70 
-24.87 -72.85 3.31 
-23.52 -72.69 3.73 
-23.41 -72.66 3.74 
-22.93 -71.91 3.84 
-15.67 -70.95 4.18 
-23.12 -71.66 3.88 
-23.43 -67.12 4.04 
-23.17 -67.10 4.05 
-22.74 -67.10 4.06 
-22.41 -67.10 4.07 
-21.90 -67.11 4.08 
-21.74 -67.02 4.10 
-25.03 -67.09 4.00 
-24.77 -67.08 4.01 
-24.42 -67.08 4.02 
-23.96 -67.10 4.03 
-23.58 -67.10 4.04 
-21.79 -66.85 4.12 
-21.75 -66.65 4.15 
-29.39 -67.06 3.36 
-21.79 -66.47 4.17 
-32.41 -67.07 3.29 
-32.02 -67.06 3.30 
-31.76 -67.07 3.31 
-31.00 -67.08 3.32 
-30.77 -67.07 3.33 
-30.07 -67.07 3.35 
-21.74 -65.89 4.24 
-33.21 -67.07 3.28 
-32.79 -67.07 3.28 
-21.75 -65.47 4.30 
-15.43 -63.99 4.72 
-15.27 -63.70 4.77 
-21.61 -62.92 4.06 
-21.27 -62.90 4.08 
-20.93 -62.90 4.10 
-15.16 -59.73 4.64 
-15.13 -58.78 4.75 
-24.53 -73.48 4.02 
-24.07 -73.60 3.99 
-25.22 -72.94 3.70 
-24.91 -72.86 3.71 
-24.13 -72.54 4.15 
-15.79 -70.94 4.53 
-22.78 -67.09 4.55 
-22.45 -67.09 4.56 
-22.04 -67.13 4.56 
-26.47 -67.11 3.97 
-26.02 -67.09 3.99 
-25.58 -67.08 3.99 
-25.22 -67.07 4.00 
-21.84 -66.88 4.60 
-26.75 -67.09 3.97 
-32.34 -67.07 3.92 
-32.07 -67.06 3.92 
-30.86 -67.12 3.92 
-32.86 -67.06 3.92 
-32.59 -67.08 3.92 
-21.74 -65.06 4.35 
-21.74 -64.63 4.41 
-16.30 -63.81 4.76 
-15.92 -63.84 4.77 
-15.61 -63.87 4.79 
-21.74 -64.19 4.47 
-18.65 -63.80 4.64 
-18.52 -63.79 4.65 
-17.41 -63.78 4.70 
-17.14 -63.81 4.71 
-16.84 -63.82 4.73 
-21.73 -63.74 4.53 
-19.50 -63.78 4.61 
-15.27 -62.99 4.86 
-21.71 -63.01 4.62 
-21.35 -62.87 4.65 
-20.88 -62.88 4.67 
-20.62 -62.88 4.68 
-15.22 -62.34 4.95 
-15.23 -60.53 5.19 
-15.23 -59.57 5.32 
-15.21 -58.56 5.46 
-23.57 -72.93 4.47 
-23.14 -73.09 4.43 
-23.50 -72.44 4.56 
-23.16 -67.12 4.54 
-25.54 -67.07 4.52 
-25.17 -67.07 4.52 
-24.82 -67.07 4.53 
-24.45 -67.09 4.53 
-24.04 -67.06 4.54 
-23.56 -67.10 4.54 
-23.34 -67.10 4.54 
-26.79 -67.03 4.52 
-21.84 -66.32 4.68 
-21.83 -65.76 4.77 
-33.22 -67.09 3.91 
-21.82 -65.37 4.83 
-21.82 -64.95 4.89 
-16.33 -63.89 5.26 
-16.01 -63.81 5.30 
-15.61 -63.90 5.30 
-21.83 -64.49 4.96 
-18.56 -63.76 5.19 
-17.28 -63.78 5.24 
-15.33 -63.60 5.35 
-21.84 -64.02 5.04 
-19.89 -63.72 5.14 
-19.63 -63.75 5.15 
-19.22 -63.75 5.16 
-15.35 -63.10 5.43 
-21.84 -63.55 5.11 
-15.36 -62.58 5.51 
-21.83 -63.07 5.18 
-20.56 -62.87 5.25 
-15.29 -62.19 5.57 
-21.67 -62.84 5.22 
-24.09 -67.05 5.05 
-32.31 -67.10 4.53 
-31.11 -67.08 4.53 
-21.98 -65.81 5.27 
-33.29 -67.08 4.55 
-32.93 -67.06 4.55 
-32.53 -67.07 4.54 
-32.17 -67.02 4.54 
-17.49 -63.73 5.77 
-16.22 -63.78 5.82 
-20.29 -63.65 5.69 
-18.78 -63.72 5.72 
-15.36 -60.08 5.90 
-15.34 -58.04 6.23 
-23.09 -67.04 5.56 
-31.45 -67.05 5.14 
-32.21 -67.05 5.16 
-22.07 -65.28 5.90 
-21.94 -63.85 5.62 
-21.94 -63.38 5.70 
-21.79 -62.81 5.80 
-20.74 -62.75 5.84 
-15.46 -61.60 6.28 
-15.44 -59.89 6.59 
-23.88 -66.95 6.10 
-23.32 -67.00 6.07 
-22.91 -67.00 6.07 
-27.30 -67.01 5.63 
-26.48 -67.04 5.60 
-25.99 -67.05 5.59 
-25.79 -67.06 5.59 
-33.34 -67.10 5.19 
-32.95 -67.08 5.18 
-32.56 -67.07 5.17 
-19.15 -63.67 6.27 
-18.98 -63.68 6.28 
-20.49 -63.57 6.26 
-21.75 -62.78 6.40 
-21.34 -62.78 6.41 
-21.01 -62.78 6.41 
-24.04 -66.97 6.10 
-27.26 -66.86 6.21 
-27.06 -66.85 6.21 
-31.81 -66.95 5.79 
-31.55 -66.96 5.78 
-17.25 -63.63 6.89 
-16.93 -63.63 6.90 
-16.61 -63.63 6.92 
-18.87 -63.61 6.85 
-18.49 -63.62 6.85 
-18.15 -63.62 6.86 
-17.81 -63.62 6.87 
-20.05 -78.87 1.44 
-29.34 -78.50 1.00 
-21.79 -67.17 2.07 
-23.35 -67.04 1.97 
-23.10 -67.04 1.99 
-22.63 -67.05 2.02 
-22.25 -67.05 2.05 
-21.88 -67.05 2.07 
-21.53 -67.04 2.10 
-25.31 -67.05 1.83 
-25.07 -67.01 1.85 
-24.69 -67.03 1.88 
-24.32 -67.03 1.90 
-23.80 -67.03 1.94 
-23.54 -67.03 1.96 
-21.44 -66.56 2.13 
-27.79 -67.03 1.66 
-27.48 -67.02 1.68 
-27.05 -67.03 1.71 
-26.63 -67.04 1.74 
-26.27 -66.99 1.77 
-25.92 -66.92 1.80 
-25.58 -66.98 1.82 
-21.43 -66.23 2.14 
-21.43 -65.86 2.16 
-29.92 -67.00 1.51 
-29.55 -66.99 1.53 
-29.14 -66.99 1.56 
-28.95 -66.94 1.58 
-21.43 -65.49 2.17 
-31.95 -66.96 1.36 
-31.67 -66.95 1.38 
-30.35 -66.99 1.48 
-30.14 -66.97 1.49 
-21.45 -65.22 2.18 
-32.68 -67.00 1.31 
-32.36 -66.96 1.33 
-21.44 -64.84 2.20 
-15.54 -63.81 2.64 
-15.17 -63.81 2.67 
-14.51 -63.39 2.73 
-21.43 -64.44 2.22 
-19.35 -63.90 2.38 
-18.34 -63.71 2.46 
-16.97 -63.73 2.55 
-14.37 -63.30 2.74 
-14.12 -63.24 2.76 
-9.51 -62.15 3.10 
-21.40 -63.91 2.24 
-19.63 -63.77 2.37 
-19.31 -63.75 2.39 
-15.03 -62.96 2.71 
-13.94 -62.57 2.80 
-9.12 -61.76 3.14 
-8.77 -61.75 3.16 
-21.39 -63.50 2.26 
-21.38 -63.06 2.28 
-20.37 -62.81 2.36 
-13.88 -61.87 2.83 
-21.31 -62.79 2.30 
-21.03 -62.80 2.32 
-20.58 -62.80 2.35 
-15.00 -61.51 2.78 
-13.85 -60.43 2.90 
-14.98 -59.96 2.84 
-13.75 -59.54 2.94 
-8.75 -57.93 3.33 
-9.33 -57.92 3.29 
-20.11 -78.91 1.79 
-24.04 -74.06 1.99 
-23.86 -74.10 2.00 
-24.09 -73.84 2.00 
-23.78 -73.90 2.01 
-23.58 -73.82 2.03 
-24.63 -73.64 1.98 
-24.40 -73.55 2.00 
-23.87 -72.88 2.07 
-23.78 -72.81 2.08 
-23.70 -72.73 1.89 
-15.40 -70.93 2.52 
-14.73 -63.63 3.03 
-14.42 -63.56 3.06 
-14.10 -63.49 3.08 
-14.10 -62.97 3.11 
-14.00 -62.76 3.13 
-9.03 -61.87 3.51 
-13.91 -62.38 3.16 
-13.48 -61.81 3.23 
-13.28 -61.83 3.24 
-13.90 -61.57 3.22 
-13.06 -61.16 3.30 
-20.15 -78.91 2.26 
-29.40 -78.54 1.42 
-24.23 -74.40 2.33 
-23.74 -74.34 2.36 
-23.53 -74.23 2.37 
-23.02 -73.98 2.42 
-24.20 -73.96 2.37 
-23.84 -73.65 2.41 
-23.66 -73.70 2.41 
-24.15 -73.51 2.41 
-23.49 -73.55 2.43 
-23.11 -73.21 2.47 
-22.75 -73.27 2.48 
-25.01 -73.41 1.97 
-24.11 -73.02 2.25 
-23.63 -73.05 2.47 
-22.84 -72.73 2.52 
-22.62 -72.63 2.54 
-24.04 -72.80 2.07 
-15.52 -70.96 3.04 
-23.71 -72.07 2.13 
-24.14 -71.91 2.12 
-23.42 -71.76 2.17 
-22.59 -67.07 2.52 
-22.26 -67.07 2.54 
-21.77 -67.06 2.57 
-21.57 -66.96 2.59 
-25.17 -67.05 2.37 
-24.75 -67.05 2.39 
-24.15 -67.05 2.43 
-23.84 -67.07 2.45 
-23.62 -67.05 2.46 
-21.53 -66.53 2.62 
-27.49 -67.03 2.24 
-26.59 -67.07 2.29 
-26.37 -67.02 2.30 
-21.50 -65.90 2.66 
-21.51 -65.51 2.68 
-32.05 -67.01 1.98 
-31.77 -67.02 2.00 
-21.53 -65.24 2.70 
-32.77 -67.06 1.94 
-32.32 -67.01 1.97 
-21.49 -64.77 2.73 
-15.55 -63.83 3.16 
-15.24 -63.83 3.18 
-21.49 -64.35 2.76 
-19.43 -63.93 2.91 
-18.44 -63.75 2.99 
-17.04 -63.76 3.07 
-15.18 -63.50 3.20 
-21.49 -63.95 2.79 
-19.65 -63.80 2.91 
-19.25 -63.74 2.94 
-15.11 -62.90 3.25 
-21.47 -63.54 2.82 
-20.11 -63.43 2.91 
-21.50 -63.19 2.84 
-15.16 -62.18 3.29 
-21.41 -62.86 2.86 
-21.21 -62.78 2.88 
-20.24 -78.94 2.61 
-29.50 -78.59 1.84 
-23.62 -74.74 2.69 
-23.28 -74.60 2.71 
-24.19 -74.18 2.73 
-23.78 -73.95 2.76 
-23.60 -73.80 2.78 
-23.28 -73.57 2.81 
-24.45 -73.51 2.79 
-23.52 -73.56 2.81 
-22.71 -73.25 2.86 
-22.74 -72.90 2.90 
-22.64 -73.00 2.89 
-15.58 -70.98 3.39 
-23.13 -72.22 2.95 
-23.52 -71.22 2.62 
-21.91 -67.19 3.03 
-23.76 -67.14 2.95 
-22.71 -67.04 3.01 
-22.28 -67.11 3.02 
-21.79 -67.10 3.05 
-21.60 -66.84 3.08 
-25.16 -67.12 2.89 
-24.80 -67.10 2.91 
-24.35 -67.09 2.93 
-23.90 -67.09 2.95 
-21.62 -66.51 3.11 
-26.31 -67.13 2.84 
-26.07 -67.04 2.85 
-25.63 -67.00 2.88 
-21.61 -66.07 3.15 
-32.32 -67.07 2.60 
-21.59 -65.41 3.20 
-32.88 -67.07 2.57 
-32.60 -67.06 2.58 
-21.58 -65.05 3.24 
-15.88 -63.83 3.66 
-15.58 -63.86 3.67 
-15.34 -63.86 3.69 
-21.58 -64.64 3.27 
-18.43 -63.78 3.51 
-17.21 -63.80 3.58 
-21.57 -64.25 3.31 
-20.03 -63.77 3.43 
-19.58 -63.86 3.44 
-19.37 -63.74 3.47 
-15.26 -63.12 3.76 
-21.58 -63.82 3.34 
-15.20 -62.41 3.82 
-21.57 -63.39 3.38 
-21.48 -62.90 3.43 
-21.25 -62.80 3.45 
-15.16 -60.90 3.81 
-15.08 -60.58 3.84 
-15.08 -59.75 3.92 
-15.05 -58.99 3.98 
-15.03 -58.11 4.06 
-20.33 -78.97 2.84 
-29.52 -78.56 2.27 
-23.62 -74.44 3.09 
-24.44 -74.26 3.11 
-23.52 -74.07 3.13 
-22.92 -74.10 3.14 
-24.58 -73.99 3.14 
-23.62 -73.66 3.18 
-24.26 -73.46 3.20 
-23.71 -73.45 3.20 
-23.04 -73.28 3.23 
-23.49 -73.11 3.25 
-23.37 -73.07 3.25 
-23.05 -72.81 3.29 
-15.57 -70.94 3.75 
-23.91 -72.36 2.92 
-23.53 -67.12 3.47 
-23.14 -67.12 3.48 
-22.74 -67.12 3.49 
-22.31 -67.11 3.51 
-21.90 -67.12 3.53 
-21.66 -66.78 3.57 
-25.84 -67.13 3.39 
-25.61 -67.09 3.40 
-25.23 -67.09 3.41 
-24.76 -67.09 3.43 
-24.30 -67.10 3.44 
-23.94 -67.10 3.45 
-23.68 -67.10 3.46 
-21.68 -66.55 3.60 
-16.46 -65.41 3.96 
-16.23 -65.41 3.98 
-26.73 -67.14 3.36 
-26.32 -67.12 3.38 
-26.02 -67.10 3.39 
-21.68 -66.12 3.64 
-18.19 -65.38 3.88 
-17.86 -65.38 3.90 
-17.38 -65.38 3.92 
-16.93 -65.39 3.94 
-16.49 -65.39 3.96 
-21.68 -65.66 3.69 
-19.34 -65.46 3.82 
-19.03 -65.44 3.83 
-18.60 -65.36 3.86 
-15.88 -64.46 4.10 
-21.67 -64.91 3.77 
-15.84 -63.91 4.17 
-15.38 -63.87 4.20 
-21.64 -64.59 3.81 
-15.27 -63.44 4.25 
-21.64 -64.19 3.85 
-21.64 -63.77 3.90 
-15.20 -62.50 4.25 
-15.16 -61.93 4.32 
-15.16 -61.19 4.40 
-15.15 -60.48 4.48 
-24.77 -73.55 3.38 
-23.89 -73.40 3.60 
-23.73 -73.31 3.61 
-23.16 -73.36 3.60 
-24.84 -73.27 3.21 
-24.56 -73.30 3.21 
-24.27 -73.13 3.64 
-23.62 -73.09 3.64 
-23.17 -73.00 3.65 
-23.02 -73.00 3.65 
-24.00 -72.71 3.29 
-23.52 -72.75 3.68 
-15.69 -70.94 4.10 
-33.34 -72.29 2.73 
-23.18 -67.11 3.99 
-22.79 -67.09 4.00 
-22.44 -67.11 4.00 
-22.01 -67.14 4.01 
-24.25 -67.09 3.96 
-23.99 -67.09 3.97 
-23.64 -67.08 3.98 
-21.75 -66.67 4.08 
-21.76 -66.31 4.13 
-30.22 -67.11 3.27 
-21.77 -65.90 4.18 
-31.85 -67.07 3.24 
-31.36 -67.11 3.24 
-32.91 -67.09 3.21 
-32.62 -67.09 3.22 
-15.62 -63.96 4.64 
-15.22 -63.22 4.75 
-21.64 -63.33 3.95 
-21.50 -62.89 4.00 
-21.11 -62.89 4.02 
-20.76 -62.89 4.03 
-15.13 -59.73 4.57 
-15.11 -58.94 4.66 
-15.10 -58.02 4.76 
-25.08 -73.85 3.55 
-24.78 -73.49 3.59 
-24.01 -73.57 3.97 
-24.63 -73.22 3.83 
-25.56 -72.89 3.68 
-24.94 -72.98 3.66 
-23.07 -72.44 4.13 
-23.09 -71.73 3.82 
-22.05 -67.13 4.50 
-25.54 -67.10 3.94 
-25.28 -67.08 3.94 
-24.81 -67.08 3.95 
-24.44 -67.08 3.96 
-26.79 -67.10 3.92 
-26.39 -67.10 3.92 
-25.99 -67.09 3.93 
-25.73 -67.09 3.93 
-28.03 -67.07 3.90 
-21.76 -65.60 4.22 
-32.11 -67.09 3.86 
-30.86 -67.07 3.87 
-21.77 -65.35 4.25 
-32.00 -66.98 3.88 
-21.75 -64.85 4.32 
-16.34 -63.80 4.68 
-16.13 -63.81 4.69 
-15.72 -63.86 4.70 
-21.74 -64.45 4.37 
-18.58 -63.80 4.57 
-17.63 -63.76 4.62 
-17.30 -63.80 4.63 
-16.89 -63.81 4.65 
-16.57 -63.81 4.67 
-15.32 -63.25 4.81 
-21.74 -64.04 4.42 
-21.74 -63.61 4.48 
-15.21 -62.60 4.84 
-21.73 -63.19 4.53 
-21.59 -62.87 4.58 
-21.12 -62.87 4.60 
-20.71 -62.88 4.61 
-15.24 -61.78 4.95 
-15.21 -61.15 5.03 
-15.20 -60.40 5.13 
-15.20 -59.59 5.24 
-15.19 -58.76 5.35 
-23.96 -72.19 4.18 
-23.06 -67.11 4.49 
-22.78 -67.09 4.50 
-22.49 -67.08 4.50 
-21.85 -66.87 4.54 
-25.31 -67.08 4.47 
-24.86 -67.07 4.48 
-24.40 -67.07 4.48 
-24.04 -67.08 4.48 
-23.58 -66.96 4.51 
-23.25 -67.08 4.49 
-21.85 -66.55 4.59 
-27.35 -67.06 4.47 
-26.92 -67.07 4.47 
-26.69 -66.97 4.48 
-25.59 -67.09 4.47 
-25.43 -67.07 4.47 
-21.85 -66.19 4.65 
-27.81 -67.10 4.47 
-21.84 -65.85 4.70 
-32.36 -67.11 3.86 
-21.83 -65.52 4.75 
-33.20 -67.12 3.86 
-32.97 -67.09 3.86 
-32.67 -67.10 3.86 
-21.86 -65.04 4.82 
-16.49 -63.91 5.18 
-16.14 -63.92 5.19 
-15.66 -63.96 5.20 
-21.84 -64.72 4.87 
-17.34 -63.77 5.16 
-15.50 -63.34 5.32 
-21.84 -64.31 4.93 
-20.15 -63.72 5.07 
-19.72 -63.75 5.08 
-19.39 -63.75 5.09 
-19.06 -63.72 5.10 
-15.29 -63.09 5.35 
-21.85 -63.88 5.00 
-15.28 -62.48 5.45 
-21.85 -63.45 5.06 
-21.85 -62.99 5.13 
-21.65 -62.82 5.16 
-20.61 -62.84 5.19 
-15.26 -61.84 5.55 
-22.46 -67.16 4.99 
-25.24 -67.08 5.00 
-25.05 -67.08 5.00 
-21.95 -65.70 5.24 
-29.94 -67.06 4.48 
-33.26 -67.13 4.50 
-33.03 -67.09 4.51 
-32.64 -67.10 4.50 
-19.90 -63.72 5.63 
-15.30 -60.93 5.69 
-15.32 -59.24 5.95 
-15.33 -58.36 6.09 
-24.82 -72.85 4.94 
-23.94 -66.94 5.55 
-26.98 -67.07 5.03 
-27.72 -67.06 5.04 
-27.51 -67.06 5.03 
-26.77 -66.93 5.04 
-31.44 -67.09 5.11 
-31.16 -67.10 5.10 
-22.00 -64.38 5.47 
-21.94 -64.17 5.51 
-21.96 -63.73 5.58 
-20.19 -63.68 5.63 
-20.05 -63.67 5.63 
-15.44 -62.71 6.00 
-21.96 -63.30 5.66 
-15.43 -62.07 6.12 
-21.96 -62.85 5.74 
-21.79 -62.82 5.75 
-20.70 -62.79 5.77 
-21.64 -62.73 5.76 
-15.43 -61.34 6.25 
-15.41 -60.69 6.37 
-15.41 -59.89 6.51 
-22.37 -67.01 6.03 
-24.92 -67.06 5.54 
-23.09 -66.98 6.05 
-26.64 -67.03 5.59 
-26.24 -67.03 5.58 
-25.94 -67.02 5.57 
-27.37 -67.03 5.61 
-31.69 -67.10 5.12 
-31.50 -67.08 5.12 
-33.37 -67.09 5.17 
-33.01 -67.16 5.15 
-32.05 -67.06 5.13 
-31.79 -67.05 5.13 
-17.59 -63.69 6.25 
-15.89 -63.68 6.32 
-19.71 -63.69 6.20 
-18.90 -63.68 6.22 
-18.60 -63.57 6.25 
-15.71 -63.21 6.42 
-22.12 -63.80 6.15 
-15.58 -62.88 6.57 
-21.29 -62.78 6.35 
-20.93 -62.77 6.36 
-15.41 -59.08 6.66 
-15.42 -58.15 6.82 
-23.61 -66.98 6.06 
-23.34 -66.99 6.05 
-26.09 -66.88 6.15 
-24.88 -66.91 6.11 
-30.92 -66.93 5.75 
-30.84 -66.98 5.74 
-22.27 -64.83 6.50 
-17.07 -63.63 6.83 
-16.27 -63.63 6.85 
-18.29 -63.62 6.80 
-17.91 -63.63 6.80 
-17.31 -63.62 6.82 
-20.50 -63.57 6.77 
-29.95 -66.93 6.32 
-33.20 -66.89 6.52 
-20.07 -78.88 1.31 
-29.36 -78.53 0.87 
-23.73 -72.77 1.59 
-23.68 -72.68 1.59 
-21.61 -67.06 2.01 
-22.72 -66.92 1.94 
-22.29 -67.07 1.96 
-22.03 -67.08 1.98 
-21.66 -66.98 2.01 
-21.48 -66.71 2.03 
-24.58 -67.01 1.80 
-24.10 -67.02 1.83 
-23.64 -67.04 1.86 
-22.91 -66.90 1.92 
-21.51 -66.41 2.05 
-26.52 -67.02 1.65 
-26.29 -66.98 1.67 
-24.97 -67.00 1.77 
-21.52 -65.92 2.07 
-27.81 -67.00 1.56 
-27.41 -67.01 1.59 
-27.00 -67.02 1.62 
-26.70 -67.01 1.64 
-21.47 -65.38 2.10 
-8.66 -62.40 3.09 
-29.74 -66.98 1.42 
-29.38 -66.97 1.45 
-28.98 -66.95 1.48 
-21.47 -65.04 2.11 
-15.67 -63.77 2.57 
-15.44 -63.80 2.59 
-15.19 -63.80 2.60 
-30.53 -66.97 1.36 
-30.26 -66.98 1.38 
-30.00 -66.98 1.40 
-21.45 -64.69 2.13 
-16.95 -63.70 2.49 
-15.12 -63.17 2.64 
-9.08 -61.74 3.10 
-33.06 -66.97 1.17 
-32.76 -66.97 1.20 
-32.32 -66.98 1.23 
-31.88 -66.98 1.26 
-31.64 -66.94 1.28 
-21.44 -64.32 2.15 
-19.57 -63.79 2.30 
-19.18 -63.69 2.33 
-18.42 -63.70 2.39 
-15.07 -62.65 2.66 
-9.54 -61.54 3.08 
-21.45 -63.92 2.16 
-21.47 -63.44 2.18 
-15.12 -62.16 2.68 
-21.47 -63.02 2.20 
-21.00 -62.83 2.25 
-20.55 -62.82 2.28 
-15.06 -61.61 2.71 
-21.38 -62.79 2.22 
-21.21 -62.79 2.23 
-15.10 -61.08 2.73 
-15.04 -60.47 2.76 
-15.09 -59.90 2.78 
-14.31 -59.67 2.85 
-14.07 -59.54 2.87 
-15.01 -59.29 2.82 
-13.95 -58.85 2.91 
-9.40 -57.90 3.25 
-15.06 -58.61 2.84 
-14.99 -57.90 2.88 
-14.89 -56.82 2.94 
-20.07 -78.88 1.69 
-23.60 -74.20 1.91 
-23.65 -73.91 1.93 
-23.47 -73.84 1.94 
-23.68 -73.46 1.96 
-23.49 -73.35 1.97 
-23.00 -73.42 2.00 
-15.45 -70.93 2.44 
-15.15 -63.69 2.94 
-14.57 -63.60 2.98 
-14.33 -63.57 3.00 
-14.11 -63.44 3.02 
-14.01 -63.15 3.04 
-15.13 -62.86 2.99 
-14.00 -62.48 3.09 
-13.96 -62.00 3.13 
-13.90 -61.53 3.16 
-13.87 -60.86 3.21 
-13.89 -59.11 3.33 
-20.21 -78.97 2.05 
-20.14 -78.90 2.06 
-29.42 -78.58 1.31 
-24.20 -74.47 2.25 
-23.57 -74.42 2.28 
-23.39 -74.28 2.30 
-22.91 -74.12 2.33 
-24.34 -74.17 2.27 
-24.18 -74.09 2.28 
-22.96 -73.81 2.35 
-22.67 -73.69 2.38 
-24.79 -73.88 1.87 
-24.68 -73.77 1.88 
-24.03 -73.83 2.31 
-23.63 -73.73 2.33 
-22.68 -73.20 2.42 
-24.63 -73.55 1.90 
-23.00 -73.11 2.41 
-22.41 -72.63 2.48 
-15.50 -70.94 2.97 
-23.53 -72.31 2.04 
-23.31 -72.16 2.06 
-23.70 -71.81 2.06 
-23.28 -71.72 2.09 
-22.42 -67.08 2.45 
-22.07 -67.08 2.47 
-21.63 -66.92 2.51 
-24.83 -67.06 2.31 
-24.54 -67.07 2.33 
-24.07 -67.06 2.35 
-23.82 -67.05 2.37 
-21.55 -66.44 2.55 
-26.58 -67.05 2.21 
-26.37 -67.04 2.22 
-25.06 -67.06 2.30 
-21.54 -66.11 2.57 
-27.83 -67.08 2.13 
-27.31 -67.06 2.16 
-26.81 -67.03 2.20 
-21.56 -65.63 2.60 
-21.57 -65.18 2.63 
-15.82 -63.79 3.08 
-15.44 -63.81 3.10 
-21.57 -64.96 2.64 
-21.54 -64.72 2.66 
-17.09 -63.76 3.00 
-33.27 -67.05 1.82 
-32.72 -67.03 1.85 
-21.53 -64.34 2.69 
-19.89 -63.79 2.82 
-19.56 -63.85 2.84 
-19.27 -63.72 2.87 
-18.42 -63.73 2.92 
-21.54 -63.95 2.71 
-19.94 -63.73 2.83 
-21.52 -63.17 2.77 
-15.15 -61.62 3.27 
-21.39 -62.83 2.80 
-15.13 -60.47 3.35 
-15.11 -59.26 3.43 
-15.08 -57.99 3.52 
-20.31 -78.96 2.56 
-20.19 -78.90 2.31 
-29.48 -78.58 1.76 
-24.21 -75.08 2.58 
-23.46 -74.84 2.62 
-24.07 -74.10 2.68 
-23.57 -73.89 2.71 
-25.30 -73.84 2.26 
-23.41 -73.66 2.74 
-22.52 -73.08 2.82 
-24.40 -73.14 2.35 
-23.98 -73.20 2.36 
-23.48 -73.22 2.78 
-23.85 -72.72 2.41 
-15.53 -70.91 3.32 
-23.13 -72.31 2.47 
-23.06 -72.23 2.48 
-23.59 -71.41 2.53 
-21.99 -67.23 2.96 
-22.81 -67.00 2.94 
-22.38 -67.13 2.95 
-22.08 -67.13 2.96 
-21.73 -67.11 2.98 
-24.99 -67.11 2.83 
-24.52 -67.11 2.85 
-24.11 -67.09 2.87 
-23.64 -67.10 2.89 
-23.34 -67.01 2.91 
-22.98 -67.01 2.93 
-21.64 -66.66 3.02 
-21.63 -66.35 3.05 
-26.60 -67.09 2.76 
-26.27 -67.10 2.77 
-25.84 -67.13 2.79 
-25.44 -67.12 2.81 
-25.16 -67.09 2.82 
-21.63 -66.02 3.08 
-27.70 -67.08 2.71 
-27.08 -67.11 2.73 
-26.82 -67.08 2.75 
-21.59 -65.76 3.11 
-21.61 -65.24 3.15 
-15.88 -63.82 3.59 
-15.47 -63.84 3.61 
-21.64 -64.91 3.18 
-21.58 -64.71 3.20 
-17.12 -63.77 3.52 
-15.24 -63.26 3.68 
-33.45 -67.11 2.47 
-33.07 -67.13 2.49 
-32.88 -67.07 2.50 
-32.49 -67.12 2.51 
-21.63 -64.53 3.21 
-19.85 -63.81 3.37 
-19.61 -63.86 3.38 
-19.39 -63.72 3.40 
-18.44 -63.75 3.45 
-21.60 -63.90 3.27 
-20.01 -63.82 3.36 
-15.19 -62.29 3.69 
-21.62 -63.45 3.31 
-15.08 -62.01 3.65 
-21.61 -63.05 3.34 
-21.12 -62.89 3.38 
-20.66 -62.79 3.42 
-15.07 -61.40 3.71 
-21.41 -62.89 3.37 
-20.98 -62.80 3.40 
-15.09 -60.71 3.77 
-15.09 -59.99 3.83 
-15.10 -59.14 3.91 
-15.06 -58.56 3.96 
-15.04 -57.88 4.03 
-23.45 -74.59 3.02 
-23.37 -74.53 3.03 
-24.53 -74.54 3.02 
-24.52 -73.58 2.72 
-23.67 -73.44 3.15 
-24.53 -73.23 2.75 
-24.48 -73.25 2.75 
-23.49 -73.12 3.19 
-23.24 -73.20 3.19 
-23.61 -72.76 2.82 
-15.66 -70.92 3.67 
-23.62 -72.30 2.87 
-22.92 -72.14 2.90 
-23.73 -71.87 2.91 
-23.30 -72.00 2.91 
-22.04 -67.22 3.45 
-22.97 -67.10 3.43 
-22.50 -67.11 3.44 
-22.13 -67.11 3.45 
-21.84 -67.11 3.47 
-16.38 -65.46 3.90 
-16.04 -65.39 3.92 
-24.96 -67.13 3.36 
-24.59 -67.12 3.37 
-24.22 -67.12 3.38 
-23.78 -67.10 3.40 
-23.42 -67.09 3.41 
-21.70 -66.62 3.52 
-17.87 -65.47 3.82 
-17.56 -65.49 3.83 
-17.30 -65.49 3.85 
-16.75 -65.47 3.88 
-26.34 -67.08 3.32 
-25.92 -67.09 3.33 
-25.51 -67.09 3.34 
-25.12 -67.11 3.35 
-21.70 -66.14 3.58 
-18.37 -65.36 3.81 
-18.14 -65.36 3.82 
-15.93 -64.70 4.01 
-26.89 -67.06 3.30 
-26.66 -67.07 3.31 
-21.69 -65.65 3.63 
-15.88 -64.29 4.06 
-21.71 -65.24 3.67 
-15.81 -63.83 4.11 
-15.54 -63.86 4.07 
-15.31 -63.68 4.10 
-21.72 -64.86 3.72 
-21.71 -64.49 3.76 
-19.64 -63.80 3.92 
-19.34 -63.74 3.94 
-15.21 -62.86 4.15 
-21.68 -64.19 3.79 
-19.90 -63.79 3.91 
-15.19 -62.42 4.20 
-21.68 -63.82 3.83 
-15.16 -61.89 4.26 
-15.16 -61.26 4.33 
-15.15 -60.66 4.40 
-15.15 -59.94 4.48 
-20.42 -78.95 3.33 
-24.80 -73.69 3.12 
-23.03 -73.27 3.57 
-25.15 -73.55 3.13 
-24.87 -73.46 3.14 
-24.15 -73.47 3.15 
-23.96 -73.17 3.18 
-23.55 -73.18 3.38 
-24.66 -73.15 3.18 
-24.38 -73.06 3.19 
-23.90 -72.94 3.21 
-23.52 -72.72 3.24 
-15.78 -70.91 4.03 
-15.69 -70.91 4.03 
-22.59 -72.10 3.32 
-23.74 -71.89 3.33 
-23.02 -71.60 3.38 
-24.26 -71.70 3.35 
-22.94 -67.07 3.94 
-22.59 -67.08 3.95 
-22.14 -67.11 3.96 
-21.87 -67.06 3.97 
-23.48 -67.07 3.93 
-23.20 -67.08 3.93 
-21.79 -66.52 4.04 
-21.81 -66.17 4.09 
-27.70 -67.09 3.28 
-15.83 -64.33 4.51 
-15.80 -63.94 4.56 
-15.54 -63.92 4.57 
-15.28 -63.38 4.66 
-33.26 -67.07 3.14 
-32.67 -67.07 3.16 
-21.68 -63.43 3.87 
-20.98 -62.90 3.96 
-20.72 -62.88 3.98 
-21.53 -62.92 3.94 
-21.18 -62.88 3.96 
-15.13 -59.28 4.55 
-15.11 -58.58 4.63 
-15.18 -58.20 4.67 
-20.30 -79.27 3.53 
-20.24 -79.20 3.54 
-20.09 -78.98 3.56 
-25.13 -73.94 3.51 
-24.00 -73.57 3.54 
-23.88 -73.26 3.58 
-23.65 -73.14 3.59 
-23.61 -72.84 3.63 
-23.37 -72.55 3.67 
-25.73 -72.71 3.67 
-23.47 -72.46 3.68 
-24.62 -67.09 3.90 
-24.19 -67.09 3.91 
-23.84 -67.07 3.92 
-26.30 -67.07 3.88 
-25.98 -67.07 3.88 
-25.46 -67.08 3.89 
-25.08 -67.07 3.90 
-28.19 -67.12 3.85 
-27.75 -67.11 3.85 
-27.37 -67.07 3.86 
-26.51 -67.07 3.87 
-21.79 -65.86 4.13 
-21.80 -65.33 4.19 
-15.97 -63.77 4.64 
-15.62 -63.73 4.66 
-21.80 -64.81 4.26 
-17.28 -63.76 4.57 
-15.47 -63.34 4.72 
-21.84 -64.66 4.28 
-21.80 -64.45 4.31 
-18.58 -63.76 4.52 
-15.25 -62.92 4.72 
-21.81 -64.17 4.35 
-20.08 -63.69 4.47 
-19.74 -63.74 4.47 
-15.30 -62.66 4.75 
-15.25 -62.35 4.80 
-21.82 -63.79 4.40 
-21.85 -63.49 4.44 
-20.77 -62.86 4.56 
-15.23 -61.79 4.88 
-21.60 -62.86 4.53 
-21.14 -62.84 4.54 
-15.23 -61.15 4.96 
-15.22 -60.55 5.04 
-15.21 -59.88 5.14 
-15.20 -59.17 5.23 
-15.19 -58.44 5.33 
-15.24 -58.12 5.37 
-24.68 -73.47 3.98 
-24.57 -72.97 4.05 
-23.52 -72.95 4.03 
-23.72 -71.66 4.23 
-22.64 -67.06 4.46 
-22.20 -67.09 4.46 
-21.91 -66.99 4.48 
-24.56 -67.06 4.44 
-24.22 -67.07 4.44 
-24.01 -67.01 4.45 
-21.89 -66.57 4.54 
-25.33 -67.07 4.43 
-25.04 -67.06 4.44 
-24.75 -67.05 4.44 
-21.90 -66.07 4.61 
-27.83 -67.08 4.43 
-27.62 -67.08 4.43 
-27.20 -67.06 4.43 
-26.79 -67.05 4.43 
-21.90 -65.73 4.67 
-28.12 -67.05 4.44 
-21.91 -65.38 4.72 
-16.47 -63.87 5.12 
-16.06 -63.90 5.12 
-15.62 -63.82 5.16 
-15.32 -63.92 5.15 
-21.91 -65.02 4.77 
-17.25 -63.74 5.11 
-16.88 -63.77 5.12 
-16.62 -63.71 5.14 
-15.29 -63.46 5.22 
-32.86 -67.09 3.81 
-21.91 -64.68 4.83 
-18.65 -63.74 5.06 
-33.34 -67.07 3.81 
-21.93 -64.22 4.89 
-20.12 -63.68 5.02 
-19.84 -63.72 5.02 
-15.49 -62.56 5.37 
-21.93 -63.83 4.95 
-15.36 -62.10 5.43 
-21.92 -63.34 5.03 
-15.36 -61.51 5.52 
-15.35 -60.89 5.62 
-24.78 -73.80 4.35 
-24.62 -72.79 4.51 
-25.78 -67.06 4.98 
-24.80 -67.05 4.97 
-22.06 -66.45 5.07 
-28.53 -67.07 4.43 
-17.54 -63.73 5.64 
-32.91 -67.09 4.47 
-32.49 -67.09 4.47 
-18.88 -63.67 5.61 
-15.44 -63.14 5.85 
-33.40 -67.08 4.48 
-21.96 -62.95 5.09 
-21.66 -62.82 5.12 
-15.42 -60.59 5.67 
-15.35 -60.26 5.72 
-15.34 -59.57 5.83 
-15.32 -58.88 5.94 
-15.34 -58.03 6.08 
-25.34 -72.68 5.01 
-24.78 -72.49 5.01 
-22.15 -67.04 5.48 
-23.89 -67.05 5.50 
-23.56 -67.05 5.50 
-23.19 -67.03 5.49 
-27.88 -67.08 5.01 
-27.51 -67.04 5.01 
-27.19 -67.06 5.00 
-26.79 -66.98 5.01 
-22.01 -64.56 5.40 
-22.02 -64.17 5.46 
-20.26 -63.65 5.58 
-19.91 -63.68 5.58 
-15.44 -62.59 5.95 
-22.01 -63.79 5.53 
-22.03 -63.37 5.60 
-15.45 -61.98 6.06 
-22.04 -62.90 5.68 
-21.85 -62.77 5.71 
-20.83 -62.69 5.74 
-15.43 -61.42 6.16 
-15.43 -60.79 6.27 
-15.43 -60.15 6.39 
-24.68 -67.02 5.52 
-26.93 -67.09 5.57 
-26.39 -67.01 5.56 
-26.07 -67.02 5.55 
-27.89 -66.93 5.63 
-16.47 -63.61 6.25 
-16.14 -63.81 6.29 
-15.55 -63.47 6.37 
-32.27 -66.96 5.13 
-18.89 -63.67 6.17 
-18.59 -63.64 6.18 
-18.25 -63.65 6.18 
-17.84 -63.66 6.19 
-17.59 -63.66 6.20 
-33.46 -66.96 5.17 
-32.71 -66.96 5.15 
-19.79 -63.64 6.16 
-19.51 -63.65 6.16 
-19.16 -63.66 6.16 
-21.31 -62.76 6.32 
-21.03 -62.76 6.32 
-15.41 -59.49 6.51 
-15.40 -58.77 6.64 
-15.41 -57.95 6.79 
-24.64 -66.86 6.09 
-17.25 -63.75 6.88 
-17.10 -63.75 6.89 
-16.02 -63.77 6.89 
-17.48 -63.59 6.77 
-21.66 -62.79 6.31 
-28.47 -66.85 6.26 
-28.70 -66.86 6.27 
-21.68 -62.60 6.95 
-20.05 -78.83 1.17 
-29.37 -78.48 0.73 
-23.71 -72.67 1.46 
-21.83 -67.15 1.86 
-21.54 -67.04 1.89 
-22.37 -67.04 1.83 
-22.04 -67.06 1.85 
-21.74 -67.01 1.87 
-21.47 -66.58 1.91 
-24.04 -66.99 1.71 
-23.75 -66.98 1.73 
-21.46 -66.29 1.93 
-8.70 -62.33 2.99 
-25.16 -66.96 1.62 
-24.91 -66.99 1.64 
-24.44 -66.98 1.68 
-21.47 -65.96 1.94 
-26.89 -66.96 1.50 
-26.54 -66.97 1.52 
-26.27 -66.90 1.54 
-21.48 -65.63 1.96 
-21.49 -65.28 1.97 
-15.77 -63.71 2.45 
-15.46 -63.76 2.47 
-8.61 -61.66 3.02 
-27.82 -66.95 1.43 
-27.45 -66.97 1.45 
-27.10 -66.97 1.48 
-21.51 -65.04 1.98 
-17.07 -63.67 2.36 
-16.92 -63.64 2.37 
-15.11 -63.18 2.52 
-29.47 -67.00 1.30 
-29.18 -66.95 1.32 
-21.52 -64.63 2.00 
-19.48 -63.87 2.18 
-18.46 -63.67 2.26 
-30.41 -66.97 1.23 
-29.98 -66.97 1.26 
-19.90 -63.73 2.16 
-19.69 -63.72 2.17 
-19.34 -63.70 2.20 
-15.10 -62.38 2.56 
-32.30 -66.99 1.09 
-32.05 -66.96 1.11 
-31.72 -66.92 1.14 
-21.48 -63.91 2.04 
-33.23 -67.00 1.02 
-32.90 -66.96 1.04 
-32.51 -66.97 1.07 
-21.46 -63.35 2.06 
-15.08 -61.55 2.59 
-21.45 -62.79 2.09 
-21.18 -62.77 2.11 
-20.79 -62.79 2.14 
-20.49 -62.80 2.16 
-15.07 -60.67 2.64 
-15.05 -59.68 2.68 
-14.37 -59.41 2.74 
-8.68 -57.89 3.19 
-15.04 -58.66 2.73 
-13.99 -58.02 2.83 
-14.20 -57.85 2.82 
-15.01 -57.66 2.77 
-15.06 -55.97 2.85 
-20.13 -78.88 1.56 
-23.58 -74.13 1.80 
-23.31 -73.97 1.82 
-22.95 -73.35 1.88 
-22.72 -73.12 1.91 
-15.46 -70.88 2.32 
-15.24 -63.80 2.80 
-14.67 -63.65 2.85 
-14.34 -63.56 2.88 
-14.14 -63.49 2.89 
-9.55 -62.36 3.27 
-15.50 -63.81 2.79 
-15.16 -63.46 2.83 
-14.07 -63.19 2.92 
-15.10 -63.23 2.85 
-14.04 -62.71 2.95 
-15.10 -62.73 2.89 
-13.95 -62.42 2.98 
-13.99 -61.97 3.01 
-13.91 -61.31 3.06 
-13.90 -60.67 3.10 
-13.92 -59.97 3.15 
-13.97 -59.02 3.21 
-13.87 -58.63 3.24 
-13.84 -57.97 3.29 
-20.17 -78.89 1.95 
-29.44 -78.53 1.19 
-23.40 -74.37 2.18 
-23.95 -74.33 1.76 
-23.55 -74.08 2.20 
-23.01 -74.12 2.22 
-22.85 -73.80 2.25 
-23.39 -73.57 1.84 
-22.90 -73.47 2.07 
-22.79 -73.37 2.29 
-24.81 -73.81 1.75 
-24.70 -73.66 1.76 
-23.66 -73.49 1.83 
-22.70 -73.11 2.31 
-15.53 -70.89 2.85 
-23.88 -72.92 1.86 
-24.06 -72.77 1.86 
-23.64 -72.29 1.91 
-23.37 -71.97 1.95 
-23.19 -71.73 1.97 
-23.11 -71.55 1.99 
-21.64 -67.02 2.38 
-22.51 -67.04 2.32 
-22.17 -67.03 2.35 
-21.65 -66.80 2.39 
-24.10 -67.03 2.23 
-23.76 -67.02 2.25 
-21.62 -66.43 2.42 
-21.58 -66.25 2.43 
-25.23 -67.02 2.16 
-24.92 -67.02 2.18 
-24.53 -67.01 2.21 
-21.62 -65.97 2.45 
-27.00 -67.03 2.06 
-26.64 -67.00 2.08 
-26.36 -66.94 2.10 
-21.58 -65.46 2.49 
-15.84 -63.75 2.96 
-15.49 -63.77 2.98 
-15.24 -63.58 3.01 
-27.59 -67.05 2.02 
-21.56 -64.99 2.52 
-17.13 -63.72 2.88 
-21.56 -64.66 2.54 
-18.47 -63.70 2.80 
-21.56 -64.30 2.57 
-20.01 -63.75 2.70 
-19.76 -63.74 2.72 
-19.41 -63.72 2.74 
-21.59 -63.86 2.59 
-15.23 -62.00 3.12 
-21.35 -62.78 2.68 
-15.22 -61.13 3.18 
-15.21 -60.19 3.25 
-15.20 -59.21 3.31 
-20.28 -78.92 2.48 
-20.22 -78.85 2.36 
-29.52 -78.62 1.64 
-24.26 -74.14 2.16 
-24.00 -74.20 2.17 
-24.12 -73.85 2.19 
-23.41 -73.50 2.25 
-23.20 -73.51 2.66 
-24.25 -73.32 2.23 
-23.84 -73.53 2.23 
-23.04 -73.02 2.30 
-22.66 -73.17 2.70 
-15.62 -70.91 3.20 
-23.77 -72.74 2.30 
-23.18 -72.28 2.36 
-23.15 -72.13 2.37 
-21.98 -67.13 2.85 
-21.82 -67.10 2.86 
-22.90 -67.09 2.81 
-22.44 -67.10 2.83 
-22.16 -67.11 2.84 
-21.66 -66.78 2.90 
-24.43 -67.06 2.74 
-24.15 -67.08 2.75 
-23.66 -67.12 2.77 
-23.36 -67.11 2.78 
-21.65 -66.48 2.92 
-21.63 -66.24 2.94 
-25.68 -67.05 2.68 
-25.36 -67.05 2.70 
-24.94 -67.06 2.72 
-24.64 -67.06 2.73 
-21.67 -66.12 2.95 
-15.24 -63.85 3.35 
-26.96 -67.07 2.63 
-26.66 -67.06 2.64 
-26.20 -67.06 2.66 
-25.88 -67.06 2.67 
-21.62 -65.62 3.00 
-15.96 -63.78 3.47 
-15.49 -63.81 3.50 
-15.21 -63.69 3.45 
-27.43 -67.05 2.61 
-21.63 -65.29 3.03 
-17.18 -63.73 3.40 
-15.24 -63.26 3.48 
-21.66 -64.73 3.07 
-18.51 -63.71 3.33 
-15.12 -62.78 3.46 
-21.65 -64.22 3.12 
-20.03 -63.79 3.24 
-19.76 -63.83 3.25 
-19.51 -63.77 3.27 
-15.12 -62.27 3.50 
-21.66 -63.84 3.15 
-15.11 -61.76 3.55 
-21.65 -63.46 3.19 
-15.33 -61.69 3.70 
-15.10 -61.23 3.60 
-21.62 -62.98 3.23 
-21.26 -62.88 3.26 
-20.91 -62.87 3.28 
-20.63 -62.86 3.29 
-21.59 -62.82 3.25 
-15.10 -60.66 3.65 
-15.08 -60.11 3.70 
-15.07 -59.50 3.75 
-15.06 -58.88 3.81 
-15.05 -58.25 3.87 
-20.32 -78.91 2.75 
-24.35 -74.17 2.57 
-24.13 -74.13 2.58 
-23.31 -74.24 2.98 
-24.18 -73.77 2.61 
-23.70 -73.78 2.62 
-23.49 -73.55 2.65 
-24.56 -73.66 2.61 
-15.65 -70.88 3.56 
-24.57 -73.26 2.65 
-24.23 -73.05 2.68 
-23.64 -72.81 2.71 
-23.33 -72.88 2.72 
-23.63 -72.54 2.74 
-23.50 -72.44 2.75 
-22.96 -72.18 2.79 
-23.67 -72.00 2.79 
-23.63 -71.82 2.81 
-16.34 -65.45 3.78 
-16.04 -65.44 3.80 
-22.87 -67.07 3.32 
-22.51 -67.07 3.34 
-22.15 -67.07 3.35 
-21.82 -66.90 3.38 
-17.16 -65.45 3.74 
-16.75 -65.45 3.76 
-16.54 -65.44 3.77 
-24.19 -67.07 3.28 
-23.77 -67.09 3.29 
-23.39 -67.09 3.30 
-23.15 -67.06 3.31 
-21.76 -66.46 3.43 
-17.96 -65.33 3.71 
-17.74 -65.32 3.72 
-15.91 -64.45 3.91 
-25.41 -67.06 3.24 
-24.99 -67.07 3.25 
-24.58 -67.08 3.27 
-21.75 -65.99 3.48 
-15.47 -63.89 3.89 
-15.29 -63.88 3.90 
-26.35 -67.06 3.21 
-25.84 -67.06 3.23 
-21.72 -65.53 3.53 
-15.92 -63.81 3.99 
-15.65 -63.85 3.94 
-15.21 -63.65 3.93 
-21.72 -65.20 3.57 
-15.18 -63.23 3.98 
-21.73 -64.85 3.60 
-18.93 -63.71 3.85 
-18.71 -63.69 3.86 
-15.19 -62.71 4.04 
-21.72 -64.36 3.66 
-20.10 -63.75 3.79 
-19.93 -63.75 3.80 
-19.41 -63.71 3.83 
-19.07 -63.70 3.84 
-15.18 -62.23 4.09 
-15.18 -61.70 4.15 
-33.46 -67.06 2.36 
-33.02 -67.12 2.37 
-15.17 -61.17 4.21 
-15.16 -60.62 4.27 
-15.15 -60.05 4.34 
-20.45 -78.95 3.02 
-24.36 -74.60 2.93 
-24.93 -73.74 3.03 
-24.57 -73.44 3.06 
-23.96 -73.34 3.07 
-15.80 -70.83 3.92 
-15.69 -70.85 3.92 
-24.57 -73.27 3.08 
-24.05 -73.00 3.11 
-23.70 -72.89 3.13 
-23.40 -72.85 3.13 
-22.91 -72.82 3.14 
-24.86 -72.70 3.14 
-23.64 -72.50 3.17 
-23.52 -72.52 3.17 
-22.89 -71.71 3.27 
-23.65 -71.84 3.25 
-24.34 -71.54 3.28 
-22.90 -67.07 3.84 
-22.57 -67.04 3.85 
-22.17 -67.11 3.85 
-21.85 -66.92 3.88 
-23.09 -67.06 3.84 
-21.84 -66.49 3.94 
-15.49 -63.94 4.45 
-15.29 -63.95 4.45 
-27.01 -67.07 3.19 
-26.68 -67.06 3.20 
-16.38 -63.87 4.42 
-16.07 -63.89 4.43 
-15.68 -63.92 4.44 
-15.25 -63.65 4.49 
-28.24 -67.04 3.16 
-27.92 -67.08 3.17 
-27.56 -67.08 3.18 
-27.25 -67.06 3.19 
-15.26 -63.13 4.56 
-21.72 -63.82 3.71 
-33.41 -67.04 3.04 
-21.71 -63.45 3.76 
-15.39 -61.54 4.27 
-21.68 -62.95 3.81 
-21.31 -62.86 3.84 
-20.98 -62.86 3.85 
-20.68 -62.86 3.86 
-21.62 -62.85 3.82 
-15.13 -59.45 4.40 
-15.13 -58.81 4.48 
-15.13 -58.14 4.55 
-20.90 -79.07 3.31 
-20.81 -78.89 3.33 
-20.60 -78.58 3.36 
-24.04 -73.77 3.44 
-24.21 -73.49 3.48 
-23.94 -73.48 3.47 
-23.74 -73.24 3.50 
-25.08 -73.22 3.52 
-23.98 -72.86 3.55 
-23.60 -72.95 3.54 
-16.16 -70.56 4.33 
-15.79 -70.31 4.38 
-25.82 -73.13 3.54 
-23.41 -72.35 3.62 
-23.21 -72.35 3.62 
-25.66 -72.58 3.61 
-23.99 -72.24 3.63 
-24.16 -67.04 3.82 
-23.81 -67.06 3.82 
-23.46 -67.06 3.83 
-23.21 -67.05 3.84 
-25.47 -67.04 3.79 
-25.07 -67.03 3.80 
-24.65 -67.04 3.81 
-24.35 -67.05 3.81 
-21.86 -65.97 4.00 
-26.73 -67.07 3.77 
-26.31 -67.09 3.78 
-25.97 -67.07 3.78 
-21.86 -65.66 4.04 
-16.05 -63.74 4.52 
-15.66 -63.67 4.54 
-28.04 -67.05 3.76 
-27.69 -67.05 3.76 
-27.18 -67.08 3.77 
-21.86 -65.17 4.11 
-17.32 -63.73 4.46 
-28.31 -67.03 3.76 
-21.83 -64.73 4.16 
-18.71 -63.77 4.40 
-15.25 -62.68 4.62 
-21.84 -64.39 4.21 
-19.91 -63.68 4.36 
-19.62 -63.72 4.37 
-15.23 -62.20 4.69 
-21.83 -64.05 4.25 
-20.17 -63.67 4.35 
-21.84 -63.66 4.30 
-15.23 -61.67 4.76 
