# .PCD v0.7 - Point Cloud Data file format
VERSION 0.7
FIELDS x y z
SIZE 4 4 4
TYPE F F F
COUNT 1 1 1
WIDTH 2395
HEIGHT 1
VIEWPOINT 0 0 0 1 0 0 0
POINTS 2395
DATA ascii
-16.21 -40.48 4.42 
-16.19 -40.11 4.47 
-16.19 -39.70 4.53 
-16.19 -39.27 4.60 
-16.22 -38.91 4.65 
-16.22 -38.54 4.59 
-16.19 -38.08 4.65 
-16.19 -37.74 4.83 
-16.27 -36.93 4.69 
-16.20 -35.36 4.92 
-16.11 -34.05 4.67 
-16.11 -33.66 4.73 
-16.11 -33.26 4.78 
-16.11 -31.98 4.96 
-16.11 -31.10 5.09 
-16.11 -30.61 5.15 
-16.03 -30.30 5.20 
-16.42 -42.20 4.57 
-16.49 -49.66 4.46 
-16.44 -43.95 4.90 
-16.33 -41.35 4.71 
-16.29 -40.79 4.79 
-16.27 -37.42 4.88 
-16.26 -36.47 5.02 
-16.19 -36.24 5.06 
-16.19 -35.90 5.11 
-16.19 -35.17 5.23 
-16.16 -34.84 5.28 
-16.24 -33.32 5.21 
-19.77 -46.59 4.27 
-16.32 -37.84 5.27 
-16.19 -32.83 5.60 
-16.25 -32.66 5.62 
-16.20 -31.06 5.88 
-16.18 -30.61 5.95 
-16.15 -30.22 6.02 
-16.33 -35.24 5.69 
-16.26 -30.54 5.61 
-16.28 -35.86 5.82 
-16.25 -33.64 6.22 
-16.45 -39.80 5.78 
-16.43 -38.52 5.86 
-16.35 -33.87 6.18 
-16.33 -33.29 6.01 
-16.39 -36.98 6.31 
-16.27 -33.23 6.29 
-16.28 -32.78 6.37 
-16.27 -31.06 6.68 
-16.27 -30.58 6.77 
-16.15 -30.33 6.82 
-16.54 -41.89 5.89 
-16.52 -36.77 6.17 
-16.33 -32.63 6.40 
-16.33 -31.32 6.64 
-16.49 -34.16 6.87 
-8.85 -50.23 1.30 
-8.69 -38.95 1.91 
-9.06 -46.52 1.42 
-9.53 -41.13 1.72 
-10.76 -41.04 1.65 
-11.15 -41.01 1.63 
-13.76 -49.06 1.00 
-13.69 -48.59 1.03 
-13.77 -48.12 1.06 
-14.04 -49.29 0.97 
-14.15 -46.88 1.11 
-14.41 -50.56 0.88 
-14.24 -46.46 1.13 
-14.18 -37.17 1.69 
-14.84 -53.38 0.70 
-14.89 -52.95 0.72 
-14.97 -44.72 1.19 
-14.96 -43.89 1.24 
-14.83 -40.87 1.43 
-14.89 -40.29 1.46 
-14.99 -44.10 1.23 
-14.99 -43.70 1.25 
-15.02 -42.57 1.31 
-15.12 -41.87 1.35 
-14.95 -41.47 1.38 
-15.10 -40.81 1.42 
-15.95 -54.48 0.79 
-15.94 -54.23 0.80 
-8.70 -39.00 2.42 
-9.53 -41.22 2.19 
-9.97 -41.03 2.19 
-9.79 -40.84 1.96 
-10.39 -41.05 2.17 
-11.04 -54.16 1.31 
-10.74 -41.03 2.15 
-11.19 -41.04 2.13 
-14.14 -37.64 1.90 
-14.08 -36.98 1.94 
-14.90 -44.98 1.41 
-14.83 -42.99 1.53 
-14.83 -42.69 1.55 
-14.62 -40.54 1.69 
-15.39 -47.24 1.48 
-16.01 -54.55 1.05 
-16.01 -54.31 0.99 
-15.96 -53.65 0.93 
-15.99 -53.34 1.05 
-15.96 -52.99 0.97 
-15.94 -52.55 0.90 
-15.94 -51.62 0.95 
-15.84 -50.04 1.27 
-15.80 -48.12 1.41 
-16.02 -54.06 1.01 
-16.01 -53.71 1.03 
-15.97 -51.95 1.14 
-15.99 -51.73 1.15 
-15.97 -51.35 1.07 
-15.97 -50.84 1.21 
-15.98 -50.70 1.22 
-15.96 -50.12 1.26 
-15.97 -49.75 1.29 
-15.93 -49.47 1.08 
-15.98 -46.45 1.52 
-15.99 -46.15 1.45 
-15.97 -45.75 1.57 
-15.95 -45.39 1.51 
-15.97 -45.08 1.62 
-15.99 -44.47 1.66 
-15.98 -44.13 1.69 
-15.96 -43.78 1.72 
-15.97 -43.24 1.76 
-15.98 -42.93 1.78 
-16.57 -46.49 1.49 
-16.85 -46.52 1.48 
-16.74 -46.15 1.23 
-17.22 -46.50 1.47 
-17.72 -46.51 1.45 
-17.99 -46.51 1.44 
-18.11 -46.12 1.15 
-18.49 -46.48 1.42 
-18.78 -46.49 1.41 
-18.84 -46.12 1.11 
-19.51 -46.15 1.07 
-8.84 -41.30 2.69 
-9.57 -41.21 2.67 
-10.08 -40.85 2.49 
-11.01 -37.35 2.44 
-10.99 -36.63 2.50 
-11.01 -36.24 2.53 
-11.04 -35.73 2.57 
-14.26 -48.02 1.90 
-14.21 -47.89 1.91 
-14.73 -48.48 1.85 
-14.34 -48.09 1.89 
-14.34 -47.64 1.93 
-14.97 -48.54 1.85 
-14.96 -48.11 1.81 
-14.73 -47.87 1.71 
-15.29 -49.02 1.80 
-15.50 -48.41 1.85 
-15.52 -48.27 1.86 
-15.12 -47.86 1.90 
-16.05 -54.55 1.56 
-16.04 -54.23 1.59 
-15.99 -52.62 1.31 
-15.97 -52.27 1.33 
-15.97 -51.51 1.39 
-15.89 -50.05 1.71 
-15.79 -48.89 1.80 
-15.84 -48.53 1.72 
-15.67 -48.33 1.85 
-16.06 -53.68 1.44 
-16.06 -53.33 1.46 
-16.02 -52.95 1.39 
-16.02 -52.49 1.52 
-16.03 -52.13 1.55 
-16.02 -51.75 1.51 
-16.13 -50.80 1.65 
-16.03 -50.59 1.56 
-16.00 -50.14 1.63 
-16.02 -49.76 1.73 
-16.02 -49.35 1.65 
-16.07 -48.97 1.79 
-15.94 -45.36 1.85 
-16.10 -44.28 1.93 
-15.97 -42.57 1.81 
-15.98 -42.22 1.83 
-15.97 -41.76 1.87 
-15.93 -41.32 2.04 
-15.89 -40.94 2.20 
-15.92 -38.55 2.26 
-15.96 -38.23 2.14 
-15.96 -37.79 2.18 
-15.95 -37.33 2.21 
-15.97 -37.01 2.24 
-15.96 -36.55 2.28 
-15.95 -35.73 2.34 
-15.94 -35.39 2.37 
-15.96 -35.02 2.40 
-15.93 -34.72 2.42 
-17.60 -46.22 1.71 
-18.97 -46.53 1.40 
-19.25 -46.50 1.40 
-19.29 -46.21 1.65 
-20.26 -47.30 1.31 
-20.22 -46.76 1.34 
-20.06 -46.47 1.37 
-10.08 -41.06 2.67 
-10.43 -41.06 2.66 
-10.36 -40.90 3.02 
-10.80 -41.07 2.64 
-10.79 -33.85 3.38 
-11.15 -41.06 2.63 
-11.04 -38.05 2.94 
-11.05 -37.37 3.01 
-11.03 -37.01 3.05 
-11.03 -36.65 3.08 
-11.03 -36.29 3.12 
-11.07 -35.35 3.22 
-11.00 -35.14 3.24 
-11.00 -34.74 3.12 
-11.00 -34.30 3.33 
-14.35 -48.71 2.10 
-14.22 -48.20 2.28 
-14.25 -47.86 2.27 
-14.28 -47.47 2.39 
-14.75 -49.26 2.22 
-14.61 -49.02 2.18 
-14.48 -48.60 2.28 
-14.41 -48.39 2.30 
-14.90 -49.31 2.21 
-15.12 -49.02 2.05 
-15.31 -47.93 2.15 
-16.07 -54.11 2.00 
-16.05 -53.29 1.88 
-16.04 -53.04 1.90 
-15.92 -50.06 2.15 
-16.12 -54.63 1.95 
-16.09 -54.30 1.98 
-16.10 -53.73 1.85 
-16.07 -53.36 1.88 
-16.06 -53.06 1.79 
-16.06 -52.57 1.83 
-16.05 -52.18 1.94 
-16.07 -51.76 1.93 
-16.03 -51.50 1.81 
-16.17 -50.81 2.09 
-16.10 -50.57 2.04 
-16.05 -50.23 2.14 
-16.06 -49.77 2.18 
-16.01 -49.52 1.99 
-16.25 -48.28 2.10 
-16.01 -46.23 2.02 
-16.00 -45.76 2.06 
-16.01 -45.40 2.23 
-16.07 -44.46 2.18 
-16.08 -44.22 2.34 
-16.01 -43.89 2.23 
-16.00 -43.47 2.41 
-16.06 -41.76 2.42 
-16.01 -41.42 2.46 
-16.02 -41.02 2.49 
-16.01 -40.55 2.54 
-16.02 -40.15 2.58 
-16.05 -39.03 2.68 
-16.02 -38.50 2.74 
-16.01 -38.25 2.76 
-16.01 -37.80 2.80 
-16.05 -37.53 2.83 
-15.90 -36.64 2.55 
-15.97 -34.29 2.74 
-15.94 -33.43 2.81 
-15.97 -32.81 2.86 
-15.90 -32.52 2.89 
-17.11 -46.52 1.98 
-18.23 -46.30 2.23 
-18.96 -46.30 2.21 
-20.37 -46.92 1.89 
-8.77 -34.31 3.79 
-9.18 -34.31 3.77 
-11.05 -36.43 3.46 
-11.12 -35.59 3.55 
-11.00 -32.93 3.47 
-11.05 -32.26 3.54 
-10.97 -31.51 3.62 
-10.96 -30.97 3.68 
-14.63 -48.65 2.63 
-14.56 -48.24 2.60 
-14.56 -47.96 2.63 
-15.06 -49.31 2.65 
-14.92 -49.11 2.67 
-14.96 -48.73 2.65 
-14.88 -48.42 2.74 
-15.37 -49.41 2.61 
-15.28 -49.02 2.51 
-15.21 -48.67 2.72 
-16.10 -54.60 2.19 
-16.09 -54.23 2.22 
-16.07 -53.50 2.28 
-15.96 -50.07 2.59 
-16.15 -54.67 2.27 
-16.10 -54.27 2.22 
-16.09 -53.86 2.14 
-16.10 -53.42 2.17 
-16.11 -53.03 2.21 
-16.10 -52.57 2.25 
-16.11 -52.17 2.29 
-16.08 -51.81 2.43 
-16.06 -51.43 2.42 
-16.06 -51.03 2.50 
-16.08 -50.61 2.49 
-16.11 -50.21 2.58 
-16.09 -49.72 2.50 
-16.08 -49.50 2.45 
-16.09 -46.53 2.49 
-16.06 -45.76 2.57 
-16.10 -44.48 2.70 
-16.07 -44.15 2.73 
-16.05 -43.79 2.77 
-16.08 -43.43 2.81 
-16.06 -43.04 2.85 
-15.98 -42.68 2.63 
-16.11 -41.77 2.99 
-16.05 -41.44 3.03 
-16.02 -40.99 2.94 
-15.97 -39.94 2.91 
-15.99 -38.15 3.09 
-15.98 -37.41 3.16 
-16.00 -36.40 2.94 
-16.06 -36.19 3.12 
-16.03 -35.85 2.99 
-15.99 -35.41 3.04 
-16.00 -35.07 3.07 
-16.45 -48.83 2.27 
-16.40 -48.72 2.28 
-16.15 -36.48 2.93 
-20.31 -46.79 2.48 
-11.07 -31.27 4.01 
-11.06 -30.56 4.09 
-11.07 -29.78 4.17 
-14.52 -48.18 3.20 
-15.10 -49.07 3.11 
-15.01 -48.71 3.15 
-14.92 -47.38 2.86 
-15.02 -46.96 2.91 
-15.45 -49.57 3.07 
-15.50 -47.18 2.89 
-15.58 -47.31 2.88 
-16.18 -53.11 2.51 
-16.17 -52.53 2.57 
-16.16 -51.81 2.86 
-16.15 -51.40 2.90 
-16.17 -50.97 2.95 
-16.17 -50.70 2.88 
-16.10 -45.77 3.07 
-16.08 -45.37 3.01 
-16.05 -45.00 2.95 
-16.09 -44.61 3.10 
-16.08 -44.23 3.18 
-16.10 -43.80 3.30 
-16.12 -43.44 3.34 
-16.07 -43.03 3.17 
-16.08 -42.62 3.22 
-16.07 -42.35 3.25 
-16.07 -40.84 3.43 
-16.03 -40.46 3.14 
-16.04 -40.30 3.15 
-16.15 -39.81 3.21 
-16.10 -39.47 3.25 
-16.04 -38.98 3.30 
-16.08 -38.49 3.36 
-16.05 -38.27 3.38 
-16.06 -37.80 3.44 
-16.04 -37.49 3.47 
-16.02 -37.09 3.52 
-16.02 -36.61 3.58 
-16.06 -36.07 3.64 
-16.08 -35.85 3.67 
-16.06 -35.40 3.72 
-16.02 -34.98 3.59 
-16.05 -34.71 3.62 
-16.01 -33.41 3.57 
-15.98 -33.01 3.61 
-16.01 -32.64 3.65 
-16.14 -33.61 3.54 
-19.04 -46.31 2.78 
-19.32 -46.29 2.78 
-19.71 -46.35 2.77 
-14.75 -48.26 3.20 
-14.74 -47.78 3.26 
-14.72 -47.64 3.28 
-14.97 -48.57 3.17 
-14.92 -48.29 3.20 
-15.49 -49.31 3.10 
-16.04 -50.07 3.04 
-15.68 -49.67 3.07 
-16.27 -54.48 3.04 
-16.26 -53.85 3.09 
-16.26 -53.43 3.13 
-16.26 -52.91 3.19 
-16.26 -52.38 3.24 
-16.17 -50.51 3.00 
-16.16 -50.23 3.03 
-16.18 -49.84 3.07 
-16.18 -45.88 3.56 
-16.17 -45.39 3.56 
-16.15 -45.05 3.48 
-16.11 -43.26 3.37 
-16.10 -43.05 3.39 
-16.11 -42.71 3.44 
-16.12 -42.27 3.49 
-16.11 -41.68 3.57 
-16.13 -41.40 3.60 
-16.12 -41.09 3.64 
-16.10 -40.57 3.71 
-16.12 -40.27 3.75 
-16.09 -39.83 3.68 
-16.09 -39.46 3.72 
-16.10 -39.12 3.90 
-16.10 -38.70 3.95 
-16.13 -38.24 4.01 
-16.13 -37.18 3.87 
-16.08 -36.52 3.95 
-16.15 -35.51 4.08 
-16.07 -34.84 4.16 
-16.07 -34.29 3.85 
-16.04 -33.99 3.89 
-16.05 -33.60 3.93 
-16.05 -33.21 3.98 
-16.04 -32.84 4.03 
-16.05 -32.43 4.07 
-16.05 -32.03 4.12 
-16.05 -31.61 4.17 
-15.80 -29.94 4.38 
-16.11 -32.27 4.09 
-19.44 -46.34 3.34 
-19.83 -46.33 3.35 
-20.38 -47.38 2.99 
-20.38 -47.00 3.03 
-20.39 -46.79 3.05 
-14.84 -48.85 3.57 
-14.87 -48.67 3.60 
-15.04 -48.41 3.64 
-14.98 -48.05 3.69 
-15.29 -49.32 3.54 
-15.51 -48.57 3.65 
-16.37 -54.60 3.45 
-16.36 -54.02 3.24 
-16.27 -51.42 3.35 
-16.25 -50.42 3.46 
-16.19 -44.47 3.74 
-16.17 -44.20 3.78 
-16.18 -43.78 3.84 
-16.19 -43.43 3.89 
-16.18 -43.14 3.93 
-16.18 -42.70 3.99 
-16.20 -42.25 4.05 
-16.18 -41.93 4.00 
-16.19 -41.53 4.16 
-16.20 -41.06 4.23 
-16.19 -40.67 4.28 
-16.24 -38.60 4.36 
-16.11 -37.96 4.05 
-16.14 -37.50 4.11 
-16.11 -37.04 4.17 
-16.13 -36.71 4.22 
-16.12 -36.23 4.28 
-16.15 -35.83 4.34 
-16.11 -35.40 4.40 
-16.13 -35.04 4.45 
-16.11 -34.71 4.49 
-16.12 -34.33 4.55 
-16.13 -33.84 4.45 
-16.11 -33.61 4.65 
-16.08 -31.90 4.53 
-14.73 -47.86 4.15 
-15.74 -49.07 4.05 
-16.06 -48.24 4.20 
-16.47 -52.13 3.93 
-16.37 -51.96 3.73 
-16.49 -50.90 3.87 
-16.33 -49.87 3.90 
-16.36 -49.56 3.86 
-16.24 -44.09 4.34 
-16.20 -40.30 4.34 
-16.21 -39.85 4.40 
-16.19 -39.50 4.46 
-16.20 -39.04 4.52 
-16.20 -38.66 4.58 
-16.22 -38.33 4.63 
-16.19 -37.96 4.57 
-16.21 -37.57 4.75 
-16.20 -36.41 4.67 
-16.12 -33.19 4.71 
-16.11 -32.83 4.76 
-16.12 -32.42 4.81 
-16.12 -31.16 4.99 
-16.11 -30.73 5.05 
-16.01 -30.45 5.09 
-16.42 -41.73 4.53 
-16.30 -37.10 4.70 
-16.27 -35.41 4.81 
-16.19 -30.98 5.02 
-19.45 -46.39 3.91 
-19.84 -46.38 3.93 
-16.37 -45.60 4.63 
-16.28 -40.68 4.69 
-16.29 -37.93 5.14 
-16.19 -36.38 4.93 
-16.18 -36.06 4.98 
-16.19 -35.38 5.09 
-16.20 -35.03 5.14 
-16.20 -33.57 5.37 
-16.18 -33.20 5.43 
-16.19 -32.80 5.50 
-16.48 -44.52 4.82 
-16.43 -43.66 4.81 
-16.25 -35.92 5.00 
-16.25 -33.78 5.20 
-16.25 -33.04 5.46 
-16.25 -31.69 5.36 
-20.04 -46.45 4.51 
-20.26 -46.57 4.22 
-16.38 -42.95 5.08 
-16.09 -30.44 5.88 
-16.47 -41.39 5.21 
-16.30 -36.35 5.39 
-16.32 -35.48 5.53 
-16.33 -33.66 5.84 
-16.29 -31.09 5.77 
-16.20 -30.71 5.83 
-16.54 -42.53 5.61 
-16.52 -39.10 5.62 
-16.44 -33.99 6.03 
-16.21 -30.33 6.69 
-16.40 -36.75 6.22 
-16.28 -32.36 6.32 
-16.26 -31.99 6.39 
-16.27 -31.56 6.47 
-16.26 -31.14 6.55 
-16.30 -30.82 6.61 
-16.64 -36.78 6.76 
-16.49 -34.43 6.68 
-16.48 -34.07 6.74 
-16.46 -31.52 7.02 
-16.49 -32.14 7.13 
-8.64 -46.44 1.13 
-9.03 -44.49 1.37 
-10.32 -44.44 1.29 
-13.53 -48.33 0.93 
-14.19 -49.29 0.85 
-13.95 -49.00 0.87 
-14.28 -49.15 0.85 
-8.82 -50.28 1.24 
-8.79 -46.44 1.47 
-9.11 -50.27 1.23 
-9.60 -41.14 1.74 
-10.25 -40.92 1.72 
-10.38 -40.89 1.72 
-11.06 -54.08 1.14 
-10.68 -40.92 1.70 
-10.56 -40.90 1.71 
-11.08 -40.89 1.68 
-10.91 -40.87 1.69 
-10.99 -36.30 1.96 
-10.98 -35.95 1.98 
-13.79 -48.95 1.08 
-13.71 -48.66 1.10 
-13.70 -47.89 1.15 
-13.79 -47.54 1.16 
-14.20 -50.13 1.00 
-14.15 -49.84 1.02 
-14.10 -49.05 1.06 
-14.07 -46.95 1.18 
-14.51 -50.57 0.87 
-14.36 -50.39 0.98 
-14.47 -49.38 1.03 
-14.21 -46.61 1.19 
-14.44 -39.29 1.61 
-14.17 -37.84 1.71 
-14.99 -54.25 0.66 
-14.89 -53.47 0.78 
-14.88 -52.86 0.73 
-14.71 -50.61 0.95 
-14.89 -44.51 1.28 
-14.60 -39.30 1.60 
-15.20 -53.88 0.58 
-15.03 -41.97 1.42 
-14.96 -41.37 1.46 
-15.97 -54.61 0.50 
-15.98 -54.35 0.51 
-16.08 -54.01 0.91 
-16.10 -53.88 0.91 
-16.08 -53.37 0.94 
-15.98 -53.02 0.97 
-8.76 -38.90 2.41 
-9.55 -40.96 2.21 
-9.51 -40.75 2.23 
-10.06 -40.92 2.20 
-10.19 -40.94 2.19 
-11.06 -54.39 1.20 
-14.02 -38.86 1.89 
-14.00 -37.80 1.95 
-14.23 -39.35 1.85 
-14.10 -39.07 1.87 
-14.13 -37.51 1.97 
-14.84 -40.97 1.72 
-14.62 -40.49 1.76 
-14.61 -39.59 1.82 
-15.10 -42.25 1.63 
-15.09 -41.47 1.68 
-14.90 -40.97 1.72 
-15.82 -48.06 1.49 
-15.78 -47.94 1.49 
-16.02 -54.58 1.07 
-16.03 -54.19 1.10 
-16.02 -53.70 1.12 
-16.01 -53.34 1.19 
-16.02 -53.03 1.26 
-15.99 -52.61 1.09 
-15.98 -52.17 1.12 
-15.99 -51.76 1.17 
-15.97 -51.39 1.20 
-16.01 -50.93 1.29 
-15.99 -50.75 1.30 
-15.97 -50.06 1.35 
-15.98 -49.77 1.37 
-15.91 -49.51 1.17 
-16.16 -46.40 1.59 
-15.95 -46.21 1.55 
-15.96 -45.79 1.64 
-15.97 -45.43 1.66 
-15.98 -44.97 1.70 
-15.98 -44.51 1.73 
-15.97 -44.14 1.76 
-15.97 -43.75 1.78 
-15.96 -43.35 1.81 
-15.92 -42.90 1.70 
-15.97 -42.52 1.87 
-15.93 -42.20 1.75 
-15.97 -41.76 1.93 
-16.51 -46.39 1.32 
-16.48 -46.35 1.32 
-16.73 -46.37 1.31 
-16.81 -46.34 1.31 
-17.30 -46.39 1.42 
-17.14 -46.35 1.48 
-18.15 -46.37 1.54 
-18.82 -46.33 1.37 
-19.21 -46.29 1.20 
-19.74 -46.29 1.17 
-19.90 -46.34 1.16 
-8.99 -41.17 2.67 
-9.67 -41.19 2.65 
-9.57 -40.85 2.69 
-10.07 -40.94 2.66 
-10.31 -40.93 2.66 
-10.69 -40.93 2.65 
-11.15 -41.05 2.43 
-11.14 -40.91 2.64 
-11.00 -37.05 2.47 
-10.99 -36.65 2.65 
-10.97 -36.41 2.52 
-14.33 -47.65 1.98 
-14.34 -47.52 1.99 
-14.87 -48.45 1.81 
-14.93 -48.30 1.92 
-14.99 -47.75 1.82 
-14.79 -47.54 1.79 
-15.44 -48.32 1.92 
-15.35 -47.56 1.77 
-15.90 -49.96 1.79 
-15.77 -48.75 1.81 
-15.70 -48.25 1.92 
-16.10 -54.62 1.57 
-16.08 -53.60 1.53 
-16.08 -53.36 1.62 
-16.06 -53.03 1.61 
-16.05 -52.62 1.60 
-16.04 -52.20 1.52 
-16.05 -51.89 1.65 
-16.07 -50.56 1.74 
-16.01 -50.19 1.73 
-15.99 -49.73 1.80 
-16.03 -48.97 1.86 
-16.03 -46.25 2.08 
-16.01 -45.79 2.12 
-16.01 -45.53 2.14 
-16.10 -44.47 1.98 
-15.95 -44.20 2.00 
-15.94 -42.98 2.10 
-16.09 -41.73 2.19 
-15.96 -41.44 1.95 
-15.96 -40.95 2.06 
-15.96 -38.62 2.17 
-15.93 -38.33 2.33 
-15.98 -37.75 2.23 
-15.94 -37.53 2.25 
-15.93 -36.97 2.29 
-15.93 -36.67 2.32 
-15.96 -36.30 2.35 
-15.94 -35.09 2.44 
-15.96 -34.71 2.47 
-18.02 -46.41 1.77 
-18.31 -46.44 1.76 
-19.64 -46.34 1.50 
-20.22 -47.38 1.42 
-20.20 -46.87 1.45 
-20.08 -46.36 1.49 
-9.61 -41.25 2.99 
-10.81 -41.10 2.96 
-11.09 -38.19 2.91 
-11.08 -37.57 2.97 
-11.03 -37.07 3.03 
-11.02 -36.74 3.06 
-11.02 -36.39 3.10 
-11.04 -35.97 3.14 
-11.06 -35.54 3.18 
-11.00 -34.97 3.24 
-11.00 -34.58 3.28 
-10.99 -34.19 3.32 
-10.92 -33.85 3.36 
-11.03 -32.76 3.47 
-14.28 -48.18 2.19 
-14.27 -47.36 2.43 
-14.66 -49.06 2.22 
-14.59 -48.62 2.26 
-14.40 -48.29 2.35 
-14.70 -47.31 2.44 
-14.84 -49.20 2.27 
-14.81 -47.11 2.37 
-15.49 -48.32 2.36 
-15.19 -47.11 2.47 
-15.92 -49.98 2.22 
-15.71 -48.87 2.11 
-16.13 -54.62 2.00 
-16.11 -54.20 2.06 
-16.10 -53.75 2.01 
-16.09 -53.38 2.03 
-16.11 -53.03 2.02 
-16.07 -52.64 2.01 
-16.07 -52.21 1.93 
-16.08 -51.83 1.96 
-16.08 -50.52 2.18 
-16.05 -50.21 2.12 
-16.04 -49.80 2.24 
-16.31 -48.57 2.13 
-15.92 -47.64 2.21 
-16.01 -45.35 2.16 
-16.15 -44.46 2.50 
-16.05 -44.25 2.25 
-16.00 -43.76 2.29 
-16.00 -43.36 2.33 
-16.01 -43.08 2.45 
-16.10 -41.68 2.48 
-16.00 -41.45 2.50 
-16.00 -41.00 2.54 
-16.00 -40.64 2.57 
-16.00 -40.40 2.59 
-16.00 -38.90 2.73 
-15.99 -38.65 2.76 
-15.99 -38.23 2.80 
-16.02 -37.76 2.84 
-16.02 -36.21 2.99 
-15.97 -35.84 2.84 
-15.88 -35.34 2.70 
-16.41 -48.65 2.27 
-16.11 -39.04 2.72 
-16.16 -36.40 2.97 
-18.64 -46.44 2.28 
-18.81 -46.47 2.28 
-19.32 -46.43 2.04 
-19.66 -46.43 2.16 
-19.94 -46.42 2.27 
-8.79 -34.45 3.73 
-9.17 -34.43 3.72 
-10.96 -32.53 3.49 
-10.95 -32.07 3.54 
-10.96 -31.59 3.59 
-14.54 -48.63 2.74 
-14.59 -48.33 2.69 
-14.98 -49.12 2.70 
-14.93 -48.66 2.68 
-14.96 -47.18 2.86 
-15.36 -49.41 2.69 
-15.25 -49.19 2.61 
-15.27 -48.64 2.76 
-15.20 -47.41 2.71 
-15.30 -47.12 2.74 
-16.13 -54.62 2.28 
-16.14 -54.24 2.33 
-16.11 -53.79 2.34 
-16.13 -53.40 2.37 
-16.13 -52.99 2.40 
-16.13 -52.64 2.43 
-16.14 -52.23 2.35 
-16.09 -51.81 2.38 
-16.08 -51.43 2.42 
-16.08 -51.03 2.45 
-16.08 -50.61 2.60 
-16.10 -50.22 2.64 
-16.07 -49.84 2.62 
-16.03 -45.37 2.65 
-16.07 -45.09 2.96 
-16.09 -44.25 2.76 
-16.05 -43.76 2.81 
-16.05 -43.36 2.85 
-16.07 -43.13 2.87 
-16.12 -41.74 2.89 
-16.06 -41.47 3.05 
-16.05 -40.99 3.10 
-16.02 -40.72 3.00 
-16.03 -40.40 3.16 
-16.03 -38.80 3.05 
-15.97 -38.28 3.10 
-16.07 -37.36 3.19 
-16.02 -35.92 3.34 
-15.98 -35.35 3.23 
-15.98 -35.11 3.10 
-15.99 -34.77 3.13 
-20.20 -46.54 2.42 
-10.98 -30.87 4.03 
-11.03 -30.58 4.06 
-10.99 -30.12 4.11 
-14.64 -48.16 3.22 
-15.12 -49.08 3.14 
-14.97 -48.70 3.17 
-14.87 -48.15 3.23 
-15.02 -46.80 2.95 
-15.48 -49.45 3.12 
-15.50 -49.13 3.15 
-15.67 -49.59 3.11 
-16.18 -53.51 2.77 
-16.19 -52.18 2.65 
-16.17 -51.88 2.91 
-16.16 -51.05 2.99 
-16.17 -50.60 3.04 
-16.16 -50.23 3.07 
-16.12 -49.95 3.10 
-16.09 -45.45 3.13 
-16.09 -45.09 3.17 
-16.10 -44.74 3.21 
-16.09 -44.29 3.19 
-16.09 -43.88 3.24 
-16.08 -43.37 3.37 
-16.08 -43.00 3.31 
-16.10 -42.70 3.38 
-16.09 -42.34 3.38 
-16.07 -41.88 3.33 
-16.06 -40.77 3.45 
-16.15 -39.81 3.23 
-16.11 -39.48 3.38 
-16.08 -39.03 3.32 
-16.03 -38.24 3.40 
-16.07 -37.76 3.46 
-16.05 -37.53 3.48 
-16.02 -36.96 3.55 
-16.00 -36.71 3.58 
-15.99 -36.42 3.61 
-16.04 -35.89 3.67 
-16.04 -35.44 3.72 
-16.04 -35.08 3.76 
-16.03 -34.79 3.80 
-16.03 -34.27 3.86 
-16.02 -33.76 3.92 
-16.01 -32.92 3.64 
-16.18 -39.73 3.24 
-16.09 -35.29 3.74 
-16.08 -33.61 3.94 
-19.43 -46.46 2.83 
-19.63 -46.49 2.83 
-20.07 -46.47 2.83 
-14.90 -48.63 3.61 
-14.87 -48.41 3.63 
-15.14 -47.24 3.35 
-15.27 -49.25 3.56 
-16.27 -54.51 3.11 
-16.29 -53.77 3.17 
-16.28 -53.16 3.23 
-16.28 -52.52 3.29 
-16.27 -52.00 3.33 
-16.24 -51.57 3.38 
-16.16 -49.66 3.13 
-16.04 -46.14 3.53 
-16.16 -45.84 3.51 
-16.18 -45.49 3.57 
-16.16 -45.06 3.61 
-16.18 -44.72 3.72 
-16.17 -44.29 3.77 
-16.17 -44.04 3.81 
-16.15 -42.89 3.77 
-16.09 -42.22 3.51 
-16.13 -41.86 3.73 
-16.11 -41.46 3.60 
-16.10 -40.99 3.66 
-16.08 -40.65 3.70 
-16.11 -40.29 3.75 
-16.09 -39.93 3.79 
-16.08 -39.56 3.84 
-16.10 -39.06 3.90 
-16.09 -38.71 3.82 
-16.08 -38.24 3.88 
-16.10 -37.81 4.07 
-16.10 -37.46 3.98 
-16.09 -37.24 4.14 
-16.04 -36.41 3.97 
-16.10 -35.86 4.04 
-16.02 -34.42 4.21 
-16.03 -33.38 3.96 
-16.03 -33.04 4.00 
-15.98 -30.31 4.33 
-16.03 -32.64 4.05 
-16.04 -32.27 4.09 
-16.01 -31.90 4.14 
-16.03 -31.50 4.19 
-16.01 -31.10 4.23 
-16.05 -30.59 4.29 
-16.06 -30.11 4.35 
-20.07 -46.51 3.39 
-20.38 -47.33 3.07 
-16.37 -53.90 3.58 
-16.38 -53.27 3.64 
-16.27 -50.62 3.48 
-16.12 -49.99 3.54 
-16.25 -46.37 4.00 
-16.18 -43.84 3.83 
-16.16 -43.55 3.87 
-16.17 -43.17 3.92 
-16.16 -42.74 3.98 
-16.17 -42.31 4.04 
-16.17 -41.87 4.10 
-16.19 -41.44 4.16 
-16.17 -41.09 4.21 
-16.17 -40.71 4.16 
-16.18 -40.28 4.33 
-16.19 -39.93 4.27 
-16.16 -39.65 4.42 
-16.16 -37.77 4.46 
-16.10 -36.94 4.18 
-16.10 -36.65 4.22 
-16.10 -36.35 4.26 
-16.09 -35.90 4.32 
-16.10 -35.42 4.38 
-16.10 -34.76 4.47 
-16.09 -34.43 4.52 
-16.04 -32.56 4.44 
-15.94 -30.09 4.75 
-16.41 -46.43 4.01 
-16.21 -38.68 4.34 
-16.23 -37.26 4.53 
-16.15 -35.29 4.40 
-16.10 -34.08 4.57 
-16.11 -33.56 4.64 
-16.10 -33.01 4.71 
-16.08 -32.64 4.76 
-16.04 -32.08 4.50 
-20.46 -47.44 3.62 
-14.89 -47.46 4.21 
-15.82 -48.99 4.08 
-15.93 -48.27 4.19 
-16.50 -52.65 3.87 
-16.41 -51.14 3.87 
-16.25 -40.63 4.68 
-16.18 -39.39 4.45 
-16.16 -39.15 4.49 
-16.17 -38.74 4.55 
-16.17 -38.35 4.61 
-16.17 -37.93 4.67 
-16.17 -37.50 4.73 
-16.15 -37.09 4.79 
-16.16 -36.33 4.91 
-16.16 -36.03 4.95 
-16.21 -39.05 4.50 
-16.21 -38.24 4.62 
-16.27 -36.51 4.88 
-16.16 -35.91 4.72 
-16.16 -35.72 5.00 
-16.09 -32.26 4.82 
-16.09 -31.86 4.87 
-16.09 -31.48 4.92 
-16.09 -31.06 4.98 
-20.21 -46.56 3.96 
-16.35 -43.78 4.90 
-16.48 -46.55 4.82 
-16.49 -46.34 4.86 
-16.39 -44.33 4.82 
-16.37 -39.23 4.89 
-16.17 -35.40 5.05 
-16.19 -35.16 5.09 
-16.16 -34.76 5.15 
-16.21 -33.61 5.33 
-16.17 -33.17 5.40 
-16.16 -32.61 5.49 
-16.17 -32.33 5.38 
-16.18 -31.89 5.30 
-20.55 -46.69 4.28 
-16.48 -43.43 5.38 
-16.37 -41.11 5.21 
-16.38 -38.62 5.65 
-16.28 -35.80 5.44 
-16.16 -30.64 5.80 
-16.16 -30.38 5.84 
-19.57 -46.48 4.78 
-16.46 -42.43 5.57 
-16.46 -42.16 5.62 
-16.35 -37.70 5.97 
-16.26 -32.33 6.01 
-16.21 -31.85 6.35 
-16.21 -31.47 6.42 
-16.51 -39.81 6.07 
-16.32 -34.34 6.61 
-16.44 -33.83 6.71 
-16.23 -31.02 6.50 
-16.22 -30.63 6.57 
-16.24 -30.33 6.62 
-16.60 -36.97 6.64 
-16.45 -31.56 7.16 
-16.48 -30.95 7.05 
-16.71 -32.59 7.54 
-13.79 -48.84 0.75 
-13.95 -48.92 0.73 
-14.21 -49.26 0.70 
-8.80 -46.49 1.30 
-9.09 -46.46 1.29 
-10.67 -40.88 1.54 
-13.72 -48.78 0.94 
-13.64 -48.42 0.96 
-13.74 -48.03 0.98 
-14.21 -49.90 0.85 
-14.17 -49.52 0.69 
-14.04 -49.16 0.81 
-13.97 -48.93 0.92 
-13.98 -48.03 0.97 
-14.11 -46.94 1.02 
-14.27 -50.04 0.84 
-14.31 -49.25 0.88 
-14.20 -46.59 1.04 
-14.33 -46.20 1.05 
-14.97 -53.11 0.57 
-14.87 -52.70 0.59 
-14.88 -44.50 1.12 
-15.23 -53.97 0.43 
-14.92 -43.93 1.15 
-15.02 -42.45 1.23 
-15.02 -41.71 1.28 
-15.12 -39.57 1.40 
-16.00 -54.66 0.72 
-15.98 -54.42 0.74 
-16.01 -53.39 0.60 
-15.96 -53.17 0.61 
-15.97 -52.79 0.83 
-15.96 -51.99 0.87 
-8.52 -38.89 2.23 
-9.43 -41.08 2.02 
-9.93 -40.97 1.91 
-10.35 -40.93 2.00 
-11.05 -54.38 1.18 
-10.67 -40.92 1.99 
-11.08 -40.92 1.98 
-11.01 -37.23 2.27 
-14.61 -40.63 1.59 
-14.53 -39.56 1.66 
-15.37 -47.12 1.39 
-15.03 -45.19 1.30 
-15.09 -44.28 1.35 
-15.10 -43.31 1.41 
-14.97 -42.54 1.46 
-15.09 -41.60 1.51 
-14.86 -41.13 1.55 
-14.82 -39.73 1.63 
-15.85 -50.23 1.18 
-15.83 -49.88 1.20 
-15.76 -47.95 1.33 
-16.00 -54.39 0.97 
-16.01 -53.96 0.96 
-16.00 -53.64 0.97 
-16.00 -53.11 1.00 
-16.00 -52.75 1.12 
-16.00 -52.38 1.08 
-15.99 -52.05 1.07 
-15.97 -51.52 1.00 
-15.96 -51.21 1.02 
-15.96 -50.76 1.08 
-15.98 -50.49 1.16 
-15.95 -49.98 1.09 
-15.95 -49.62 1.22 
-15.94 -46.30 1.43 
-15.89 -46.03 1.41 
-15.96 -45.57 1.48 
-15.95 -45.13 1.51 
-15.93 -44.78 1.45 
-15.95 -44.35 1.57 
-15.92 -44.02 1.50 
-15.96 -43.62 1.62 
-15.94 -43.24 1.65 
-15.94 -42.76 1.68 
-15.95 -42.55 1.70 
-15.96 -42.02 1.74 
-15.94 -41.21 1.80 
-16.95 -46.35 1.40 
-18.48 -46.34 1.37 
-18.62 -46.32 1.06 
-19.54 -46.30 1.02 
-19.94 -46.34 1.16 
-20.23 -47.71 1.23 
-20.22 -47.48 1.25 
-20.17 -46.51 0.98 
-8.71 -41.17 2.47 
-8.65 -41.16 2.47 
-8.66 -38.84 2.71 
-9.16 -41.18 2.46 
-9.53 -41.19 2.42 
-9.95 -41.01 2.38 
-10.37 -40.95 2.45 
-10.65 -40.95 2.45 
-11.05 -40.94 2.44 
-11.06 -37.41 2.54 
-10.97 -36.54 2.33 
-10.97 -36.20 2.35 
-10.96 -35.88 2.38 
-14.30 -47.83 1.61 
-14.35 -47.75 1.79 
-15.02 -48.64 1.72 
-14.78 -48.40 1.74 
-14.77 -47.64 1.80 
-15.24 -48.87 1.70 
-15.16 -48.41 1.73 
-15.10 -47.90 1.77 
-15.25 -47.55 1.80 
-15.86 -49.90 1.62 
-15.77 -48.76 1.50 
-16.09 -54.50 1.48 
-16.11 -53.63 1.37 
-16.07 -53.16 1.43 
-16.05 -52.76 1.52 
-16.04 -52.40 1.49 
-16.04 -52.12 1.47 
-16.15 -51.05 1.54 
-16.03 -50.70 1.46 
-16.00 -50.42 1.55 
-16.00 -49.92 1.55 
-16.00 -49.63 1.64 
-16.12 -49.08 1.68 
-15.93 -48.83 1.49 
-16.02 -48.57 1.72 
-16.13 -46.38 1.89 
-15.95 -46.02 1.87 
-16.00 -45.58 1.95 
-15.94 -43.94 1.84 
-15.94 -43.13 1.91 
-16.04 -41.77 2.01 
-15.92 -40.77 1.96 
-15.93 -38.29 2.01 
-15.96 -37.98 2.04 
-15.94 -37.22 2.09 
-15.93 -36.38 2.16 
-15.93 -35.95 2.19 
-15.89 -35.78 2.48 
-15.93 -35.20 2.25 
-15.92 -34.89 2.27 
-16.39 -46.39 1.89 
-15.99 -36.56 2.14 
-18.02 -46.44 1.60 
-18.65 -46.42 1.58 
-19.99 -46.38 1.43 
-20.24 -46.48 1.31 
-8.75 -41.16 2.90 
-9.12 -41.18 2.90 
-9.46 -41.19 2.89 
-9.68 -41.16 2.89 
-9.95 -41.07 2.90 
-10.31 -40.98 2.91 
-10.67 -40.98 2.90 
-14.17 -48.47 2.06 
-14.47 -48.83 2.06 
-14.29 -48.53 2.05 
-14.33 -48.07 2.18 
-14.27 -47.80 2.20 
-14.63 -47.33 2.25 
-14.78 -49.21 2.02 
-14.89 -47.58 2.23 
-14.89 -47.02 2.28 
-15.15 -49.24 1.90 
-15.23 -48.82 2.13 
-15.08 -47.16 2.08 
-15.90 -50.26 2.02 
-15.88 -49.91 2.05 
-16.11 -54.39 1.87 
-16.10 -54.02 1.90 
-16.10 -53.60 1.87 
-16.07 -53.19 1.83 
-16.09 -52.73 1.91 
-16.09 -52.37 1.92 
-16.05 -51.97 1.78 
-16.05 -51.72 1.69 
-16.21 -51.05 1.96 
-16.10 -50.74 1.87 
-16.06 -50.40 1.90 
-15.95 -50.02 1.93 
-16.03 -49.64 2.07 
-16.20 -48.47 1.95 
-15.99 -45.73 2.19 
-16.07 -44.38 2.18 
-15.99 -43.96 2.22 
-15.98 -43.63 2.12 
-15.98 -43.25 2.15 
-15.99 -42.86 2.18 
-16.03 -41.59 2.29 
-15.97 -41.23 2.33 
-15.98 -40.79 2.37 
-16.01 -40.35 2.41 
-16.01 -38.89 2.54 
-15.97 -38.43 2.58 
-15.97 -38.04 2.62 
-15.98 -37.64 2.66 
-15.97 -36.11 2.80 
-15.93 -35.31 2.70 
-15.97 -34.90 2.92 
-15.91 -34.56 2.58 
-16.64 -48.63 1.93 
-16.29 -48.56 1.94 
-16.16 -39.06 2.52 
-16.04 -36.31 2.78 
-16.76 -48.68 1.93 
-19.61 -46.44 1.98 
-19.85 -46.37 1.87 
-20.27 -46.55 2.07 
-9.43 -34.39 3.50 
-11.05 -40.97 2.90 
-11.02 -37.23 3.15 
-11.03 -36.34 3.24 
-10.96 -34.01 3.48 
-11.31 -40.97 2.90 
-14.59 -48.47 2.50 
-14.54 -48.07 2.59 
-15.02 -49.22 2.32 
-14.89 -48.86 2.53 
-14.90 -48.62 2.55 
-14.98 -47.20 2.70 
-14.91 -46.96 2.72 
-15.33 -49.32 2.31 
-15.14 -47.34 2.69 
-15.18 -47.02 2.72 
-15.52 -46.96 2.74 
-16.19 -54.41 2.16 
-16.19 -53.96 2.16 
-16.15 -53.60 2.24 
-16.08 -53.20 2.21 
-16.09 -52.82 2.24 
-16.10 -52.39 2.27 
-16.12 -52.02 2.30 
-16.09 -51.59 2.22 
-16.06 -51.19 2.25 
-16.08 -50.88 2.28 
-16.09 -50.44 2.32 
-16.00 -49.95 2.42 
-16.07 -49.65 2.50 
-15.99 -46.01 2.39 
-16.04 -45.64 2.56 
-16.05 -44.90 2.78 
-16.09 -44.32 2.55 
-16.01 -44.01 2.58 
-16.03 -43.63 2.62 
-16.04 -43.20 2.66 
-16.03 -42.87 2.70 
-16.07 -41.57 2.83 
-16.02 -41.23 2.87 
-16.01 -40.82 2.78 
-16.05 -40.42 2.95 
-16.07 -39.00 3.11 
-15.97 -38.50 2.88 
-15.97 -38.17 2.91 
-15.96 -35.36 3.19 
-15.95 -33.76 3.35 
-15.94 -33.35 3.39 
-16.20 -41.78 2.81 
-16.17 -39.10 3.10 
-16.11 -33.83 3.34 
-16.00 -33.59 3.37 
-14.53 -48.08 3.01 
-14.58 -47.85 3.04 
-15.09 -49.10 2.93 
-14.97 -48.89 2.94 
-14.78 -48.37 2.99 
-14.86 -48.11 3.02 
-15.36 -49.51 2.90 
-15.13 -49.19 2.92 
-15.62 -49.89 2.88 
-15.63 -49.59 2.91 
-16.16 -54.29 2.54 
-16.16 -53.98 2.57 
-16.16 -53.21 2.62 
-16.16 -51.50 2.52 
-16.17 -50.74 2.83 
-16.07 -49.97 2.79 
-16.13 -49.72 2.93 
-16.04 -45.97 3.00 
-16.08 -45.57 2.91 
-16.08 -45.20 2.95 
-16.08 -44.81 2.99 
-16.07 -44.45 3.03 
-16.07 -44.01 3.01 
-16.07 -43.68 3.05 
-16.08 -43.21 3.17 
-16.07 -42.88 3.21 
-16.07 -42.47 3.26 
-16.06 -42.01 3.24 
-16.09 -41.60 3.36 
-16.08 -41.33 3.40 
-16.07 -40.79 3.23 
-16.06 -39.97 3.33 
-16.07 -39.66 3.37 
-16.04 -39.38 3.40 
-16.04 -38.79 3.13 
-16.04 -38.44 3.17 
-15.99 -38.06 3.21 
-15.99 -37.69 3.25 
-15.99 -36.44 3.39 
-16.02 -36.11 3.43 
-16.01 -35.69 3.48 
-16.11 -37.13 3.31 
-16.08 -36.76 3.36 
-16.06 -35.72 3.47 
-18.53 -46.51 2.62 
-18.80 -46.45 2.91 
-19.73 -46.55 2.62 
-19.82 -46.51 2.63 
-20.15 -46.48 2.64 
-20.34 -46.54 2.63 
-14.66 -47.68 3.49 
-15.11 -48.85 3.38 
-14.90 -48.62 3.39 
-14.91 -48.05 3.46 
-15.28 -48.90 3.39 
-16.27 -52.52 3.10 
-16.26 -51.89 3.16 
-16.25 -51.25 3.22 
-16.10 -46.09 3.32 
-16.12 -45.67 3.38 
-16.13 -45.20 3.43 
-16.12 -44.89 3.41 
-16.14 -44.45 3.53 
-16.14 -43.99 3.52 
-16.13 -43.63 3.63 
-16.15 -43.20 3.69 
-16.14 -42.82 3.55 
-16.15 -41.80 3.68 
-16.06 -41.13 3.42 
-16.07 -40.79 3.46 
-16.10 -40.42 3.51 
-16.07 -40.12 3.54 
-16.08 -39.65 3.60 
-16.09 -39.27 3.65 
-16.09 -38.91 3.69 
-16.07 -38.42 3.76 
-16.06 -38.04 3.80 
-16.06 -37.66 3.85 
-16.06 -37.25 3.91 
-16.05 -36.71 3.98 
-16.05 -36.41 4.02 
-16.05 -36.14 4.05 
-16.12 -38.46 3.75 
-16.10 -37.16 3.92 
-16.10 -36.27 3.76 
-16.04 -35.31 3.88 
-16.08 -34.82 3.94 
-16.07 -34.43 3.98 
-16.07 -34.02 4.03 
-16.08 -33.59 4.09 
-16.04 -33.25 4.13 
-16.11 -33.06 4.15 
-16.11 -32.62 4.20 
-17.71 -46.59 3.11 
-20.38 -47.74 2.85 
-20.35 -47.52 2.87 
-20.40 -46.52 3.08 
-15.01 -48.37 3.86 
-14.77 -47.79 3.91 
-15.51 -49.00 3.73 
-15.16 -47.22 3.59 
-16.35 -53.39 3.45 
-16.35 -52.64 3.52 
-16.35 -52.11 3.43 
-16.21 -46.14 3.80 
-16.22 -45.63 3.87 
-16.15 -42.85 3.73 
-16.14 -42.46 3.78 
-16.14 -42.06 3.84 
-16.14 -41.64 3.90 
-16.15 -41.30 3.94 
-16.15 -40.88 4.00 
-16.14 -40.55 4.04 
-16.15 -40.10 4.11 
-16.15 -39.63 4.17 
-16.13 -39.28 4.22 
-16.14 -39.03 4.26 
-16.27 -44.51 3.85 
-16.17 -40.38 4.07 
-16.15 -39.30 4.01 
-16.15 -38.78 4.30 
-16.14 -38.53 4.33 
-16.15 -38.04 4.19 
-16.20 -37.59 4.25 
-16.23 -36.15 4.45 
-16.10 -35.67 4.11 
-16.07 -35.21 4.18 
-16.08 -34.89 4.22 
-16.08 -34.57 4.26 
-16.07 -34.10 4.32 
-16.07 -33.60 4.39 
-16.07 -33.26 4.44 
-16.07 -32.92 4.48 
-16.07 -32.56 4.53 
-16.07 -32.13 4.43 
-16.07 -31.83 4.63 
-16.08 -31.45 4.68 
-19.29 -46.60 3.69 
-19.18 -46.46 3.45 
-19.84 -46.59 3.71 
-20.44 -47.78 3.39 
-20.44 -47.68 3.40 
-16.33 -50.12 3.98 
-16.25 -40.68 4.41 
-16.30 -38.81 4.70 
-16.19 -38.44 4.35 
-16.14 -38.15 4.39 
-16.15 -37.75 4.45 
-16.16 -37.27 4.52 
-16.15 -36.93 4.57 
-16.14 -36.52 4.63 
-16.15 -36.08 4.69 
-16.17 -35.74 4.74 
-16.16 -35.26 4.69 
-16.16 -34.83 4.88 
-16.22 -34.64 4.66 
-16.24 -34.20 4.72 
-16.18 -33.09 4.88 
-16.16 -32.68 4.94 
-16.12 -31.33 4.70 
-16.07 -31.08 4.74 
-16.04 -30.45 4.82 
-20.13 -46.58 3.73 
-16.32 -44.21 4.58 
-16.33 -43.65 4.67 
-16.40 -43.30 4.57 
-16.49 -41.98 4.80 
-16.41 -41.04 4.95 
-16.25 -37.97 4.83 
-16.27 -35.09 5.29 
-16.14 -33.59 5.07 
-16.14 -33.24 5.13 
-16.18 -33.00 5.16 
-16.13 -32.56 5.23 
-16.14 -32.18 5.29 
-16.18 -30.89 5.34 
-16.13 -30.69 5.53 
-19.59 -46.61 4.25 
-20.72 -46.77 4.30 
-16.49 -39.28 5.26 
-16.45 -39.02 5.46 
-16.29 -32.56 5.70 
-19.33 -46.64 4.77 
-16.51 -39.86 5.77 
-16.31 -31.24 6.18 
-16.14 -30.27 6.35 
-16.32 -34.46 6.29 
-16.39 -34.10 6.27 
-16.33 -33.80 6.42 
-16.20 -30.26 6.35 
-16.46 -36.08 6.51 
-16.42 -31.57 6.86 
-14.84 -45.02 0.83 
-8.74 -46.55 1.26 
-9.12 -41.23 1.56 
-9.52 -41.26 1.54 
-10.16 -41.03 1.52 
-10.89 -40.98 1.49 
-13.70 -49.19 0.89 
-13.67 -48.77 0.92 
-13.69 -48.35 0.94 
-13.68 -48.04 0.96 
-13.68 -47.66 0.79 
-14.08 -49.46 0.78 
-13.93 -49.19 0.80 
-13.91 -48.82 0.73 
-13.95 -48.05 0.94 
-13.76 -47.62 0.98 
-14.02 -47.28 0.98 
-14.06 -46.92 1.00 
-14.22 -49.63 0.84 
-14.14 -46.59 1.02 
-14.97 -54.36 0.56 
-15.00 -52.54 0.49 
-15.10 -52.33 0.50 
-14.97 -43.89 1.13 
-15.00 -42.24 1.23 
-15.03 -41.96 1.24 
-14.91 -41.62 1.27 
-14.89 -41.14 1.30 
-14.87 -40.80 1.32 
-14.88 -39.72 1.38 
-15.45 -52.46 0.47 
-15.95 -54.25 0.54 
-15.93 -53.89 0.37 
-15.92 -53.46 0.39 
-15.97 -53.04 0.60 
-15.96 -52.66 0.81 
-15.92 -52.36 0.64 
-8.50 -39.02 2.16 
-9.13 -41.26 1.96 
-8.79 -38.97 2.16 
-9.58 -41.25 1.95 
-9.56 -41.06 1.96 
-9.68 -41.29 1.94 
-10.22 -41.03 1.94 
-10.64 -41.02 1.93 
-11.05 -41.02 1.92 
-11.00 -38.12 2.15 
-11.02 -37.23 2.22 
-10.98 -37.06 2.23 
-10.98 -36.49 2.28 
-14.18 -39.04 1.68 
-14.08 -38.77 1.70 
-14.63 -40.15 1.60 
-14.74 -39.45 1.63 
-14.55 -39.20 1.66 
-15.38 -47.46 1.34 
-15.97 -54.31 0.92 
-15.97 -53.78 0.95 
-15.99 -53.44 0.96 
-15.99 -53.11 0.98 
-15.99 -52.77 1.06 
-15.99 -52.21 1.03 
-15.98 -51.91 1.05 
-15.99 -51.51 1.07 
-16.02 -51.03 1.00 
-16.01 -50.74 1.02 
-15.93 -50.31 1.15 
-15.97 -50.04 1.16 
-15.96 -46.27 1.40 
-15.93 -45.87 1.43 
-15.93 -45.49 1.40 
-15.94 -45.17 1.40 
-15.96 -44.78 1.51 
-15.96 -44.35 1.54 
-15.96 -43.84 1.57 
-15.94 -43.57 1.59 
-15.93 -43.23 1.62 
-15.88 -42.70 1.47 
-15.95 -42.01 1.70 
-15.94 -41.53 1.74 
-15.94 -40.93 1.78 
-15.93 -40.73 1.80 
-16.43 -46.50 1.38 
-16.83 -46.30 1.26 
-17.18 -46.46 1.36 
-17.47 -46.47 1.36 
-17.91 -46.83 1.32 
-20.06 -48.39 1.18 
-20.09 -46.51 0.97 
-20.23 -48.50 1.17 
-20.23 -48.17 1.19 
-20.18 -47.52 1.23 
-20.22 -46.84 1.27 
-20.12 -46.20 0.99 
-8.60 -38.97 2.61 
-9.00 -41.27 2.37 
-9.44 -41.28 2.36 
-9.56 -41.01 2.25 
-9.71 -41.30 2.36 
-9.87 -40.85 2.25 
-10.25 -41.05 2.37 
-10.66 -41.04 2.36 
-11.01 -41.03 2.36 
-11.04 -37.34 2.50 
-10.96 -36.35 2.58 
-11.26 -41.03 2.35 
-14.59 -48.88 1.88 
-14.32 -48.33 1.77 
-14.30 -47.96 1.73 
-14.38 -47.73 1.74 
-14.91 -49.06 1.86 
-14.73 -48.84 1.73 
-14.85 -48.27 1.61 
-14.93 -47.35 1.58 
-15.23 -49.27 1.63 
-15.03 -48.84 1.66 
-15.12 -48.42 1.69 
-15.72 -49.16 1.64 
-15.64 -48.71 1.67 
-15.62 -48.38 1.56 
-16.06 -54.33 1.45 
-16.04 -53.51 1.36 
-16.03 -53.15 1.38 
-16.03 -52.78 1.45 
-16.03 -52.22 1.43 
-16.05 -51.95 1.58 
-16.03 -51.61 1.65 
-16.06 -50.99 1.51 
-16.01 -50.68 1.53 
-16.02 -50.32 1.45 
-15.96 -49.94 1.48 
-16.03 -49.43 1.51 
-15.90 -49.23 1.63 
-16.00 -46.32 1.85 
-15.98 -45.93 1.88 
-15.96 -45.55 1.77 
-15.93 -45.26 1.71 
-16.00 -44.31 1.95 
-15.99 -43.92 2.04 
-15.95 -43.63 1.95 
-15.94 -42.76 1.89 
-15.90 -40.67 2.06 
-15.91 -38.39 2.15 
-15.93 -37.92 2.14 
-15.90 -37.24 2.32 
-15.89 -35.57 2.46 
-16.22 -48.77 1.67 
-16.41 -46.69 1.82 
-16.39 -46.50 1.83 
-16.12 -44.49 2.00 
-15.94 -37.81 2.01 
-15.94 -37.56 2.03 
-15.95 -37.17 2.06 
-15.99 -36.71 2.10 
-15.93 -36.28 2.13 
-15.95 -35.96 2.15 
-15.92 -35.47 2.19 
-15.94 -35.09 2.49 
-15.92 -34.74 2.52 
-16.61 -46.86 1.81 
-17.48 -46.63 1.82 
-18.61 -46.23 1.56 
-19.70 -46.21 1.54 
-9.01 -41.27 2.78 
-9.64 -41.27 2.78 
-9.57 -41.02 2.81 
-9.73 -41.31 2.77 
-10.27 -41.06 2.80 
-10.67 -41.06 2.80 
-11.05 -41.01 2.76 
-11.03 -37.85 2.67 
-11.01 -36.93 2.76 
-11.02 -36.50 2.80 
-11.05 -36.10 2.84 
-11.00 -35.62 2.89 
-11.25 -41.08 2.80 
-14.16 -48.14 2.11 
-14.60 -49.43 2.01 
-14.43 -49.11 2.03 
-14.32 -48.87 2.05 
-14.39 -48.36 2.01 
-14.25 -47.99 2.12 
-14.77 -49.61 2.00 
-14.68 -48.65 1.89 
-14.79 -47.22 2.20 
-15.37 -48.87 2.07 
-15.29 -47.29 2.20 
-15.63 -47.80 1.96 
-16.13 -54.38 1.82 
-16.11 -53.98 1.85 
-16.07 -53.52 1.78 
-16.07 -53.14 1.81 
-16.10 -52.73 1.92 
-16.08 -52.29 1.91 
-16.12 -51.93 1.99 
-16.07 -51.55 2.05 
-16.07 -51.14 2.04 
-16.06 -50.74 1.94 
-16.03 -50.35 1.86 
-16.03 -49.96 1.89 
-15.86 -49.74 1.80 
-15.97 -46.29 2.31 
-16.04 -45.92 2.34 
-16.02 -45.58 2.30 
-16.01 -44.21 2.27 
-15.99 -43.52 2.21 
-16.00 -43.15 2.24 
-15.99 -42.81 2.27 
-15.97 -41.55 2.25 
-15.99 -41.17 2.42 
-15.97 -40.78 2.41 
-15.99 -40.53 2.34 
-15.98 -40.11 2.37 
-16.34 -48.31 1.91 
-16.11 -41.83 2.22 
-16.05 -41.55 2.52 
-16.04 -40.23 2.36 
-16.04 -39.08 2.47 
-15.98 -38.77 2.50 
-15.98 -38.42 2.53 
-15.99 -37.55 2.61 
-16.07 -36.45 2.71 
-15.97 -36.03 2.75 
-19.42 -46.24 2.07 
-19.97 -46.25 2.06 
-20.28 -46.92 1.80 
-20.31 -46.61 2.03 
-20.30 -46.42 2.05 
-11.01 -36.34 3.16 
-11.05 -35.31 3.26 
-11.06 -34.85 3.31 
-10.98 -34.14 3.39 
-11.03 -32.38 3.57 
-10.96 -30.35 3.79 
-11.01 -30.08 3.81 
-14.56 -48.77 2.46 
-14.52 -48.48 2.49 
-14.47 -48.13 2.52 
-14.99 -49.54 2.41 
-14.95 -49.13 2.35 
-14.85 -48.86 2.28 
-14.63 -48.56 2.48 
-14.94 -47.17 2.63 
-14.89 -46.99 2.65 
-15.33 -49.81 2.40 
-15.29 -49.63 2.41 
-15.25 -47.86 2.57 
-15.17 -47.65 2.59 
-15.38 -46.85 2.49 
-16.07 -54.37 2.11 
-16.07 -53.99 2.13 
-16.10 -53.58 2.16 
-16.11 -53.17 2.18 
-16.14 -52.82 2.27 
-16.09 -52.23 2.25 
-16.07 -51.98 2.26 
-16.06 -51.59 2.29 
-16.08 -51.22 2.35 
-16.08 -50.81 2.23 
-16.06 -50.37 2.27 
-16.08 -50.00 2.30 
-16.08 -49.56 2.23 
-16.03 -45.25 2.66 
-16.04 -44.35 2.62 
-16.03 -43.98 2.52 
-16.04 -43.60 2.70 
-16.06 -43.17 2.74 
-16.02 -42.87 2.63 
-16.03 -41.64 2.76 
-16.04 -41.24 2.80 
-16.03 -40.83 2.84 
-16.02 -40.43 2.88 
-15.95 -38.46 2.82 
-15.99 -38.10 3.13 
-15.93 -37.27 2.94 
-16.15 -44.52 2.47 
-16.12 -41.84 2.74 
-16.07 -41.28 2.79 
-16.09 -39.08 3.02 
-16.02 -38.84 2.92 
-16.04 -38.44 3.09 
-15.99 -37.86 3.16 
-15.99 -37.44 2.92 
-16.11 -36.30 3.03 
-15.94 -35.56 3.11 
-15.95 -35.20 3.14 
-15.94 -34.86 3.18 
-20.32 -47.03 2.33 
-14.59 -48.34 2.90 
-14.57 -47.99 2.94 
-14.97 -49.46 2.82 
-14.79 -48.89 2.86 
-14.95 -48.05 2.96 
-14.90 -47.64 3.00 
-15.38 -49.94 2.80 
-15.06 -49.17 2.85 
-15.63 -50.03 2.81 
-16.15 -53.41 2.57 
-16.16 -53.03 2.60 
-16.15 -52.39 2.65 
-16.14 -51.47 2.72 
-16.16 -50.83 2.77 
-16.15 -49.91 2.61 
-15.97 -46.23 2.76 
-16.09 -46.01 2.92 
-16.08 -45.58 2.83 
-16.10 -45.19 3.01 
-16.08 -44.77 2.92 
-16.09 -44.35 2.97 
-16.09 -43.97 3.01 
-16.08 -43.58 3.05 
-16.08 -43.22 3.09 
-16.08 -42.80 3.14 
-16.07 -42.45 3.11 
-16.08 -42.02 3.16 
-16.06 -41.63 3.20 
-16.07 -41.25 3.32 
-16.06 -40.67 3.28 
-15.92 -38.26 3.44 
-16.09 -42.22 2.99 
-16.10 -41.15 3.22 
-16.08 -40.94 3.35 
-16.09 -40.37 3.42 
-16.09 -38.86 3.37 
-16.08 -37.69 3.51 
-16.13 -37.21 3.23 
-16.08 -36.88 3.26 
-16.02 -36.43 3.32 
-16.02 -36.02 3.36 
-16.03 -35.74 3.39 
-16.08 -31.56 3.87 
-17.16 -46.56 2.78 
-17.48 -46.56 2.79 
-20.38 -47.38 2.84 
-20.35 -46.64 2.57 
-20.29 -46.38 2.59 
-14.92 -49.10 3.25 
-15.05 -48.94 3.28 
-14.86 -48.38 3.33 
-14.72 -48.05 3.36 
-15.30 -49.49 3.25 
-15.16 -49.28 3.26 
-15.14 -47.32 3.48 
-15.23 -29.90 4.08 
-16.35 -54.13 2.99 
-16.27 -52.45 3.07 
-16.34 -51.88 3.23 
-16.25 -51.59 3.13 
-16.13 -49.93 3.03 
-16.26 -49.63 3.07 
-16.06 -46.32 3.21 
-16.12 -45.97 3.26 
-16.12 -45.58 3.30 
-16.13 -45.18 3.35 
-16.13 -44.85 3.39 
-16.14 -44.38 3.40 
-16.15 -44.01 3.49 
-16.13 -43.68 3.43 
-16.14 -43.22 3.59 
-15.79 -29.75 4.09 
-16.17 -43.88 3.51 
-16.16 -43.57 3.54 
-16.17 -43.28 3.58 
-16.15 -42.76 3.65 
-16.14 -42.40 3.69 
-16.14 -42.02 3.74 
-16.13 -41.55 3.61 
-16.08 -39.99 3.47 
-16.09 -39.57 3.52 
-16.07 -39.23 3.56 
-16.09 -38.87 3.61 
-16.10 -38.42 3.66 
-16.07 -38.06 3.71 
-16.07 -37.70 3.75 
-16.08 -37.21 3.82 
-16.06 -36.83 3.86 
-16.05 -36.47 3.78 
-16.05 -35.55 3.90 
-16.06 -35.15 3.95 
-16.04 -34.78 3.86 
-16.03 -34.40 3.90 
-16.03 -34.01 3.95 
-16.00 -31.38 3.90 
-15.90 -30.42 4.01 
-15.09 -47.91 3.82 
-15.68 -49.62 3.68 
-16.35 -53.66 3.40 
-16.35 -52.56 3.48 
-16.47 -52.72 3.54 
-16.35 -50.95 3.62 
-16.23 -46.33 3.69 
-16.23 -45.87 3.74 
-16.23 -45.40 3.80 
-16.23 -44.90 3.87 
-16.19 -41.84 3.77 
-16.14 -41.62 3.79 
-16.15 -41.23 3.85 
-16.15 -40.82 3.90 
-16.15 -40.40 3.96 
-16.16 -40.06 4.01 
-16.17 -39.61 4.07 
-16.16 -39.31 4.11 
-16.14 -38.89 4.07 
-16.17 -38.48 4.23 
-16.16 -38.02 4.29 
-16.15 -37.68 4.34 
-16.14 -36.43 4.30 
-16.16 -36.07 4.35 
-16.12 -34.96 4.31 
-16.09 -34.27 4.20 
-16.08 -33.98 4.24 
-16.11 -33.60 4.29 
-16.09 -33.33 4.33 
-16.09 -32.69 4.41 
-16.09 -32.37 4.46 
-16.12 -31.96 4.51 
-16.09 -31.67 4.55 
-16.09 -31.33 4.60 
-16.12 -30.89 4.66 
-16.01 -30.51 4.71 
-16.45 -51.73 3.66 
-16.43 -49.97 3.89 
-16.23 -42.80 4.15 
-16.23 -41.25 4.20 
-16.23 -38.86 4.57 
-16.25 -37.64 4.75 
-16.18 -37.24 4.41 
-16.16 -36.91 4.45 
-16.15 -36.52 4.51 
-16.17 -36.03 4.58 
-16.15 -35.28 4.69 
-16.16 -34.76 4.65 
-16.24 -34.45 4.82 
-16.20 -33.67 4.94 
-16.15 -33.22 4.88 
-16.17 -31.38 5.01 
-16.47 -45.54 4.58 
-16.34 -42.97 4.65 
-16.34 -40.84 4.99 
-16.27 -39.13 4.71 
-16.26 -36.33 4.96 
-16.26 -34.95 5.18 
-16.16 -32.84 5.06 
-16.16 -32.34 5.14 
-16.26 -31.16 5.33 
-16.18 -30.88 5.37 
-16.08 -30.49 5.43 
-16.27 -33.00 5.49 
-16.42 -31.02 5.82 
-16.44 -36.58 5.74 
-16.52 -33.79 6.08 
-16.35 -34.44 6.13 
-16.35 -34.14 6.19 
-16.33 -31.91 6.62 
-16.45 -32.29 6.35 
-16.50 -31.62 6.68 
-16.45 -31.39 6.72 
-13.98 -46.88 0.71 
-14.72 -45.24 0.74 
-14.87 -45.28 0.73 
-8.93 -41.09 1.46 
-9.66 -41.10 1.43 
-10.16 -40.88 1.42 
-10.48 -40.88 1.40 
-13.61 -48.87 0.80 
-13.64 -48.06 0.76 
-14.04 -49.69 0.73 
-13.88 -49.14 0.69 
-13.76 -48.99 0.70 
-13.79 -48.45 0.81 
-13.74 -47.93 0.84 
-13.78 -47.64 0.77 
-13.84 -47.22 0.70 
-14.15 -49.60 0.73 
-14.14 -46.87 0.89 
-15.16 -52.04 0.39 
-15.15 -50.61 0.46 
-14.90 -44.69 0.98 
-14.97 -42.55 1.10 
-14.99 -42.03 1.14 
-14.91 -41.56 1.17 
-14.89 -41.21 1.19 
-14.75 -40.76 1.22 
-15.98 -54.41 0.41 
-15.95 -53.93 0.25 
-15.94 -53.53 0.27 
-15.97 -53.21 0.47 
-15.93 -52.86 0.31 
-15.95 -52.46 0.51 
-15.97 -52.00 0.73 
-15.94 -51.59 0.56 
-8.73 -41.24 1.70 
-9.47 -40.81 1.85 
-9.63 -41.22 1.66 
-9.53 -40.93 1.84 
-10.14 -40.93 1.78 
-10.58 -40.92 1.81 
-10.89 -40.92 1.74 
-11.02 -38.77 1.97 
-10.99 -38.61 1.98 
-10.97 -37.95 2.04 
-10.96 -37.71 2.06 
-10.90 -37.11 1.85 
-11.00 -36.34 2.17 
-10.95 -35.76 2.21 
-14.10 -47.77 1.44 
-14.10 -38.31 1.63 
-14.04 -37.81 1.66 
-13.95 -37.02 1.72 
-14.90 -48.18 1.39 
-14.49 -39.42 1.54 
-15.00 -40.29 1.47 
-15.99 -54.52 0.84 
-15.95 -53.98 0.82 
-15.96 -53.58 0.84 
-15.97 -53.18 0.86 
-15.99 -52.77 0.97 
-16.00 -52.34 1.01 
-15.98 -52.00 1.01 
-15.95 -51.63 0.95 
-15.96 -51.19 0.97 
-15.96 -50.79 1.00 
-15.96 -50.37 1.07 
-15.93 -50.09 1.14 
-15.97 -49.76 1.26 
-15.79 -48.33 1.15 
-15.76 -48.16 1.16 
-16.01 -46.69 1.26 
-15.93 -46.47 1.16 
-15.91 -46.00 1.21 
-15.93 -45.62 1.18 
-15.94 -45.18 1.36 
-15.93 -44.78 1.33 
-15.94 -44.41 1.41 
-15.94 -43.99 1.44 
-15.93 -43.57 1.47 
-15.93 -43.21 1.50 
-15.93 -42.88 1.52 
-15.93 -42.43 1.56 
-15.90 -41.95 1.50 
-15.91 -41.63 1.52 
-15.92 -41.25 1.64 
-15.92 -40.88 1.67 
-16.22 -46.72 1.25 
-16.06 -46.39 1.05 
-15.96 -40.92 1.67 
-16.66 -46.69 1.24 
-16.59 -46.36 1.03 
-20.09 -48.31 1.07 
-20.18 -48.62 1.05 
-20.18 -48.46 1.06 
-20.18 -47.99 1.09 
-20.18 -47.50 1.12 
-20.18 -46.69 0.94 
-20.16 -46.39 0.87 
-8.59 -38.86 2.47 
-8.50 -38.80 2.48 
-8.71 -38.90 2.46 
-9.48 -41.02 2.23 
-9.62 -41.28 2.09 
-9.73 -41.03 2.23 
-10.19 -40.94 2.23 
-10.56 -40.94 2.23 
-10.95 -40.93 2.22 
-11.02 -38.63 2.44 
-11.01 -37.83 2.52 
-10.98 -37.03 2.40 
-11.18 -40.92 2.22 
-14.33 -48.34 1.78 
-14.28 -48.14 1.62 
-14.76 -49.15 1.71 
-14.72 -48.68 1.54 
-14.70 -48.42 1.66 
-14.73 -48.18 1.58 
-14.97 -48.73 1.54 
-14.96 -48.46 1.56 
-15.72 -49.08 1.52 
-15.71 -48.86 1.43 
-15.64 -48.49 1.45 
-15.65 -47.96 1.39 
-16.10 -54.47 1.28 
-16.04 -53.52 1.24 
-16.02 -53.19 1.26 
-16.03 -52.79 1.33 
-16.02 -52.40 1.37 
-16.03 -52.04 1.42 
-16.09 -51.72 1.50 
-16.00 -50.79 1.40 
-16.00 -50.38 1.47 
-15.96 -50.00 1.50 
-16.03 -49.55 1.38 
-15.96 -49.22 1.51 
-15.73 -48.80 1.33 
-15.76 -48.18 1.58 
-16.02 -46.70 1.69 
-15.95 -46.43 1.66 
-15.97 -45.98 1.69 
-15.97 -45.60 1.61 
-15.99 -44.33 1.76 
-15.97 -44.00 1.91 
-15.97 -43.64 1.94 
-15.98 -43.28 1.97 
-15.97 -42.87 2.00 
-15.91 -40.71 1.93 
-16.44 -48.61 1.55 
-16.16 -48.36 1.35 
-16.33 -46.72 1.69 
-16.08 -44.38 1.88 
-16.01 -42.91 2.00 
-16.03 -41.73 1.85 
-15.90 -38.70 2.09 
-15.91 -37.59 2.05 
-15.93 -36.39 2.01 
-15.90 -36.11 2.17 
-15.89 -35.73 2.33 
-15.90 -35.06 2.39 
-15.87 -34.76 2.41 
-15.89 -33.65 2.50 
-16.75 -48.37 1.57 
-16.68 -46.74 1.69 
-16.66 -46.42 1.48 
-17.93 -46.76 1.69 
-17.76 -46.40 1.45 
-18.94 -46.39 1.43 
-20.24 -46.65 1.38 
-8.64 -41.18 2.62 
-8.98 -41.15 2.62 
-9.54 -41.18 2.62 
-9.54 -40.80 2.66 
-9.69 -41.19 2.62 
-10.18 -40.95 2.64 
-10.58 -40.96 2.64 
-10.96 -40.96 2.64 
-11.02 -37.40 2.73 
-10.99 -36.99 2.61 
-11.00 -36.71 2.64 
-11.03 -36.22 2.69 
-10.98 -35.77 2.73 
-11.20 -40.94 2.65 
-14.49 -49.16 1.89 
-14.40 -48.87 1.95 
-14.33 -48.49 1.98 
-14.21 -48.17 1.97 
-14.80 -49.58 1.87 
-14.65 -49.37 1.88 
-14.57 -48.89 1.92 
-14.64 -48.13 2.19 
-14.79 -47.67 2.02 
-14.86 -47.33 2.05 
-15.35 -49.19 2.10 
-15.07 -47.43 2.05 
-16.14 -54.49 1.66 
-15.99 -54.03 1.71 
-16.03 -53.65 1.70 
-16.04 -53.21 1.66 
-16.05 -52.85 1.68 
-16.08 -52.43 1.77 
-16.08 -52.04 1.81 
-16.09 -51.61 1.90 
-16.07 -51.30 1.93 
-16.07 -50.83 1.81 
-16.03 -50.42 1.84 
-16.00 -50.05 1.86 
-16.02 -49.69 1.66 
-16.11 -47.66 2.05 
-15.99 -46.47 2.15 
-16.03 -46.02 2.19 
-16.00 -45.62 2.06 
-15.97 -41.62 2.38 
-15.96 -41.36 2.13 
-15.96 -40.85 2.31 
-16.03 -41.66 2.24 
-15.97 -41.17 2.15 
-15.97 -40.86 2.18 
-15.97 -40.50 2.21 
-15.97 -40.10 2.25 
-15.95 -38.31 2.41 
-15.96 -37.97 2.44 
-15.98 -37.58 2.48 
-15.97 -37.38 2.50 
-16.05 -36.32 2.59 
-15.95 -36.05 2.62 
-18.98 -46.68 1.70 
-19.93 -46.44 1.92 
-20.30 -48.46 1.57 
-20.32 -47.09 1.77 
-20.33 -46.85 1.88 
-9.29 -34.52 3.26 
-10.99 -35.53 3.10 
-10.91 -34.01 3.26 
-10.96 -31.91 3.48 
-11.03 -32.67 3.40 
-14.48 -48.51 2.33 
-14.85 -49.25 2.29 
-14.85 -48.93 2.31 
-14.64 -48.40 2.35 
-14.90 -47.27 2.47 
-15.26 -49.66 2.27 
-15.28 -49.35 2.30 
-15.26 -47.50 2.46 
-15.08 -47.25 2.38 
-15.01 -46.97 2.41 
-15.48 -49.59 2.29 
-16.20 -54.45 2.05 
-16.05 -54.08 2.01 
-16.05 -53.67 2.03 
-16.10 -53.25 2.06 
-16.09 -52.87 2.08 
-16.14 -52.46 2.17 
-16.06 -52.07 2.13 
-16.04 -51.62 2.16 
-16.07 -51.26 2.22 
-16.06 -50.84 2.22 
-16.08 -50.42 2.25 
-16.09 -49.95 2.17 
-16.11 -49.72 2.07 
-16.08 -47.56 2.49 
-16.03 -46.33 2.61 
-16.07 -46.02 2.64 
-16.04 -45.61 2.47 
-16.02 -44.42 2.46 
-16.00 -44.05 2.37 
-16.01 -43.64 2.41 
-16.01 -43.30 2.44 
-16.01 -42.88 2.49 
-16.10 -44.38 2.34 
-16.08 -43.21 2.72 
-16.06 -42.67 2.78 
-16.08 -42.17 2.84 
-16.07 -41.67 2.61 
-16.00 -41.27 2.65 
-16.02 -40.90 2.69 
-16.02 -40.45 2.73 
-16.12 -39.08 2.88 
-15.99 -38.74 2.78 
-15.98 -38.41 2.82 
-16.01 -38.08 2.99 
-16.02 -37.67 3.03 
-16.12 -36.94 3.11 
-16.01 -36.41 2.89 
-15.94 -36.05 2.92 
-15.96 -35.71 2.96 
-15.95 -35.39 2.99 
-15.94 -35.07 3.02 
-16.08 -33.79 3.15 
-20.28 -48.17 2.12 
-14.93 -49.30 2.68 
-14.82 -48.72 2.72 
-14.75 -48.50 2.74 
-14.74 -48.07 2.78 
-15.28 -49.67 2.67 
-15.06 -49.38 2.68 
-15.01 -48.83 2.73 
-15.64 -49.93 2.67 
-15.49 -49.85 2.67 
-15.03 -29.79 3.95 
-16.16 -53.93 2.42 
-16.14 -53.63 2.44 
-16.13 -52.84 2.49 
-16.13 -51.78 2.56 
-16.13 -50.93 2.62 
-16.12 -50.19 2.68 
-16.17 -49.73 2.47 
-16.12 -46.50 2.82 
-16.07 -45.66 2.67 
-16.07 -45.24 2.72 
-16.07 -44.85 2.76 
-16.05 -44.45 2.80 
-16.05 -44.05 2.84 
-16.05 -43.65 2.88 
-16.03 -42.81 2.98 
-15.93 -38.49 3.26 
-16.12 -45.67 2.92 
-16.09 -43.73 3.02 
-16.07 -43.33 2.92 
-16.06 -42.96 2.96 
-16.06 -42.49 3.01 
-16.05 -42.10 3.06 
-16.05 -41.67 3.00 
-16.06 -41.27 3.08 
-16.06 -40.91 3.20 
-16.06 -40.50 3.19 
-16.06 -40.10 3.29 
-16.05 -39.69 3.27 
-16.07 -39.29 3.39 
-16.08 -37.97 3.32 
-16.09 -36.79 3.46 
-16.06 -36.43 3.17 
-16.01 -36.09 3.38 
-15.99 -30.88 3.81 
-20.35 -47.14 2.38 
-20.27 -46.77 2.58 
-14.86 -48.61 3.14 
-14.70 -48.10 3.18 
-15.14 -47.48 3.29 
-16.25 -54.11 2.83 
-16.25 -53.82 2.85 
-16.24 -51.96 2.97 
-16.24 -51.05 3.04 
-16.14 -46.72 3.02 
-16.11 -46.32 3.06 
-16.11 -46.11 3.08 
-16.12 -45.73 3.12 
-16.11 -45.19 3.18 
-16.10 -44.92 3.21 
-16.09 -44.30 3.28 
-16.37 -54.44 2.81 
-16.26 -49.85 2.87 
-16.15 -46.28 3.06 
-16.12 -45.35 3.16 
-16.12 -44.89 3.22 
-16.11 -44.49 3.26 
-16.10 -44.05 3.31 
-16.10 -43.73 3.35 
-16.12 -43.34 3.40 
-16.13 -42.89 3.46 
-16.13 -42.52 3.46 
-16.12 -42.17 3.55 
-16.13 -41.79 3.53 
-16.13 -41.25 3.67 
-16.15 -40.95 3.71 
-16.12 -40.62 3.56 
-16.13 -39.62 3.69 
-16.05 -38.86 3.45 
-16.05 -38.41 3.50 
-16.07 -38.07 3.54 
-16.08 -37.66 3.60 
-16.06 -37.26 3.65 
-16.07 -36.90 3.69 
-16.04 -36.56 3.74 
-16.04 -36.06 3.80 
-16.05 -35.64 3.73 
-16.05 -35.27 3.77 
-16.04 -34.91 3.82 
-16.06 -34.58 3.86 
-16.07 -34.19 3.91 
-16.02 -30.77 4.20 
-15.13 -48.64 3.57 
-15.61 -49.38 3.54 
-15.51 -47.34 3.76 
-16.30 -54.31 3.23 
-16.55 -54.60 3.19 
-16.32 -52.16 3.38 
-16.32 -50.44 3.52 
-16.23 -45.86 3.57 
-16.22 -45.33 3.64 
-16.13 -40.78 3.73 
-16.13 -40.44 3.78 
-16.13 -40.09 3.82 
-16.13 -39.68 3.88 
-16.14 -39.28 3.94 
-16.13 -38.83 4.00 
-16.14 -38.50 4.04 
-16.12 -38.24 3.98 
-16.17 -37.80 4.04 
-16.15 -37.29 4.11 
-16.13 -37.01 4.26 
-16.16 -36.54 4.22 
-16.14 -35.89 4.20 
-16.20 -35.44 4.26 
-16.19 -35.12 4.31 
-16.15 -34.54 4.39 
-16.05 -33.42 4.15 
-16.06 -32.97 4.21 
-16.09 -32.60 4.26 
-16.06 -31.86 4.36 
-16.07 -31.36 4.43 
-16.08 -30.97 4.48 
-16.06 -30.52 4.55 
-16.02 -30.19 4.59 
-16.44 -44.46 4.24 
-16.35 -43.13 4.25 
-16.20 -41.52 4.15 
-16.23 -38.52 4.42 
-16.16 -36.22 4.37 
-16.13 -35.76 4.44 
-16.13 -35.37 4.50 
-16.15 -34.97 4.56 
-16.10 -34.59 4.61 
-16.12 -34.17 4.68 
-16.15 -33.76 4.62 
-16.12 -33.41 4.79 
-16.12 -32.96 4.86 
-16.16 -32.57 4.92 
-16.14 -32.30 4.71 
-16.16 -30.61 4.95 
-20.62 -48.64 3.67 
-16.48 -45.99 4.29 
-16.33 -41.19 4.57 
-16.33 -38.97 4.94 
-16.13 -32.16 4.99 
-16.18 -30.94 5.18 
-16.13 -30.50 5.25 
-16.00 -30.32 5.27 
-16.32 -38.19 5.23 
-16.36 -37.84 5.14 
-16.37 -35.39 5.57 
-16.24 -33.62 5.41 
-16.55 -41.91 5.00 
-16.42 -36.57 5.36 
-16.49 -39.88 5.37 
-16.08 -30.28 5.99 
-16.36 -32.12 6.17 
-16.28 -31.45 6.48 
-16.29 -31.11 6.55 
-16.33 -31.72 6.43 
-9.05 -41.66 0.93 
-9.00 -41.21 0.95 
-9.46 -40.92 0.94 
-14.83 -42.80 0.73 
-8.59 -41.26 1.34 
-8.64 -38.95 1.48 
-9.50 -41.24 1.30 
-9.47 -40.93 1.32 
-10.06 -41.03 1.29 
-10.30 -41.03 1.28 
-10.82 -40.99 1.25 
-11.16 -40.99 1.24 
-14.03 -49.64 0.60 
-14.21 -49.60 0.52 
-14.26 -49.30 0.46 
-14.30 -48.96 0.47 
-14.17 -46.85 0.76 
-14.66 -48.91 0.45 
-14.95 -51.37 0.47 
-15.03 -50.56 0.35 
-15.04 -48.38 0.84 
-15.07 -47.38 0.90 
-15.14 -45.97 0.77 
