# .PCD v0.7 - Point Cloud Data file format
VERSION 0.7
FIELDS x y z
SIZE 4 4 4
TYPE F F F
COUNT 1 1 1
WIDTH 2521
HEIGHT 1
VIEWPOINT 0 0 0 1 0 0 0
POINTS 2521
DATA ascii
-19.59 56.95 4.65 
-20.13 56.97 4.72 
-21.45 56.81 4.87 
-21.33 57.01 4.87 
-21.23 57.37 4.88 
-21.69 56.73 4.89 
-22.27 56.75 4.97 
-23.34 50.81 4.89 
-23.44 51.17 4.82 
-22.59 56.44 4.99 
-23.68 50.84 4.83 
-23.58 51.70 4.86 
-23.50 52.00 4.87 
-24.69 50.65 4.95 
-24.53 50.88 4.94 
-9.59 57.88 4.18 
-9.92 57.57 4.19 
-9.92 57.79 4.21 
-9.68 58.46 4.24 
-10.40 57.69 4.26 
-10.14 58.45 4.30 
-10.68 57.59 4.29 
-10.70 57.94 4.32 
-11.84 58.33 4.50 
-11.73 58.49 4.50 
-12.38 58.24 4.56 
-12.26 58.60 4.57 
-11.97 59.23 4.59 
-12.81 57.88 4.58 
-13.13 57.83 4.61 
-14.06 57.76 4.73 
-14.22 57.34 4.71 
-14.24 57.66 4.74 
-14.24 58.46 4.81 
-14.12 58.87 4.83 
-14.83 57.37 4.79 
-15.22 57.35 4.84 
-14.95 57.91 4.85 
-15.55 57.40 4.89 
-16.69 57.94 4.65 
-16.64 58.23 4.66 
-18.91 45.38 4.72 
-17.16 57.19 4.65 
-21.23 57.50 5.14 
-23.03 52.99 5.08 
-23.73 50.77 5.04 
-24.65 50.45 5.14 
-23.88 56.98 5.18 
-24.79 50.46 5.16 
-24.32 56.72 5.22 
-24.15 56.99 5.33 
-23.96 57.29 5.32 
-24.06 57.75 5.49 
-24.54 56.59 5.24 
-25.90 53.20 5.44 
-25.78 54.29 5.27 
-26.63 56.55 5.50 
-26.46 56.75 5.49 
-26.47 57.20 5.51 
-27.72 51.68 5.39 
-27.07 56.74 5.79 
-27.90 52.11 5.50 
-27.37 56.59 5.59 
-29.12 52.47 5.81 
-28.61 56.91 5.76 
-28.61 57.24 5.78 
-28.73 57.05 5.79 
-9.55 57.68 4.53 
-10.11 57.53 4.57 
-10.38 57.66 4.62 
-10.38 57.90 4.90 
-10.78 57.67 4.80 
-10.63 57.98 4.94 
-12.05 58.47 4.88 
-14.87 58.02 5.18 
-16.47 57.64 5.03 
-16.80 57.23 5.04 
-16.74 57.47 5.05 
-18.86 45.43 5.21 
-18.74 45.60 5.11 
-17.29 56.96 5.09 
-17.22 57.43 5.31 
-17.02 57.73 5.41 
-17.81 57.07 5.17 
-19.23 57.27 5.38 
-19.08 58.04 5.41 
-19.73 57.28 5.44 
-19.73 57.49 5.46 
-19.54 58.03 5.48 
-19.89 57.16 5.46 
-20.26 57.07 5.50 
-21.33 57.35 5.67 
-22.54 51.68 5.46 
-21.63 57.17 5.70 
-21.61 57.94 5.75 
-21.37 58.01 5.73 
-22.83 51.02 5.56 
-22.83 51.45 5.49 
-22.84 52.11 5.53 
-22.09 56.80 5.74 
-23.44 50.35 5.51 
-23.25 50.80 5.51 
-23.12 51.02 5.50 
-23.13 52.85 5.62 
-22.50 56.69 5.79 
-23.32 52.70 5.64 
-24.04 50.77 5.82 
-24.58 50.46 5.69 
-24.80 50.11 5.70 
-12.65 57.91 5.21 
-12.64 58.90 5.32 
-12.82 58.47 5.30 
-12.94 58.97 5.37 
-15.06 58.29 5.60 
-18.79 45.45 5.70 
-23.80 57.27 6.01 
-24.04 56.93 6.02 
-24.43 56.58 6.05 
-24.93 57.06 6.16 
-26.01 55.09 6.18 
-25.84 55.45 6.18 
-26.86 52.47 6.35 
-26.90 54.94 6.30 
-26.79 55.16 6.30 
-26.92 57.25 6.46 
-27.29 57.03 6.50 
-18.89 45.42 5.87 
-17.61 58.15 5.96 
-22.73 51.20 6.18 
-21.88 57.89 6.59 
-22.98 51.14 6.22 
-23.70 50.90 6.33 
-23.69 51.26 6.35 
-23.27 52.16 6.35 
-24.12 50.88 6.39 
-24.35 50.74 6.42 
-24.33 51.53 6.48 
-26.11 54.19 6.97 
-26.04 55.05 7.03 
-26.20 53.99 6.97 
-26.15 55.37 7.07 
-26.14 55.41 7.07 
-26.75 54.88 7.13 
-26.56 55.22 7.13 
-27.46 52.14 7.05 
-27.13 55.41 7.24 
-28.24 52.89 7.24 
-18.92 45.38 6.92 
-23.96 51.06 7.14 
-27.04 52.39 7.84 
-27.60 54.14 8.09 
-27.84 54.70 8.18 
-9.43 47.60 2.38 
-9.64 47.45 2.40 
-9.61 47.89 2.41 
-10.22 47.29 2.45 
-10.05 47.42 2.44 
-10.79 47.08 2.50 
-10.97 47.05 2.52 
-13.00 46.32 2.71 
-13.02 46.79 2.73 
-13.07 47.13 2.74 
-16.22 46.66 3.06 
-16.27 46.56 3.07 
-12.49 57.69 3.34 
-13.93 57.60 3.47 
-13.75 57.88 3.47 
-18.90 45.43 3.32 
-18.69 45.90 3.49 
-21.91 45.99 3.66 
-12.39 57.34 3.68 
-12.04 58.71 3.73 
-12.81 57.29 3.73 
-13.03 57.26 3.75 
-14.56 57.00 3.91 
-18.85 45.43 3.89 
-18.69 45.90 4.04 
-16.28 58.70 3.74 
-17.06 56.98 3.75 
-16.70 57.17 3.72 
-17.83 57.25 3.83 
-18.70 57.97 3.95 
-19.21 57.23 3.97 
-19.65 57.08 4.01 
-19.94 57.11 4.04 
-21.32 57.87 4.20 
-21.25 58.14 4.21 
-21.94 56.87 4.23 
-21.72 57.13 4.21 
-21.59 57.49 4.22 
-21.41 58.02 4.22 
-23.69 51.19 4.19 
-23.27 51.81 4.17 
-23.25 52.32 4.19 
-23.12 52.63 4.19 
-24.36 51.26 4.27 
-25.99 55.15 4.58 
-27.64 52.18 4.64 
-27.60 52.40 4.65 
-27.62 52.70 4.66 
-26.57 56.82 4.70 
-27.88 53.17 4.70 
-27.80 54.13 4.53 
-28.25 57.16 4.88 
-8.56 56.11 3.48 
-9.23 57.96 3.67 
-9.16 58.26 3.69 
-11.55 58.02 3.91 
-13.00 58.24 4.08 
-14.01 57.61 4.15 
-14.43 57.42 3.92 
-14.98 56.89 3.95 
-14.82 57.48 4.23 
-15.78 56.93 4.05 
-18.80 45.39 4.46 
-16.66 56.90 4.15 
-16.53 57.36 4.16 
-17.07 56.74 4.19 
-16.90 56.80 4.17 
-16.65 57.24 4.17 
-17.43 56.25 4.21 
-16.98 57.49 4.22 
-17.78 56.73 4.27 
-17.53 56.89 4.25 
-18.33 56.78 4.34 
-17.94 57.52 4.58 
-18.44 56.64 4.35 
-19.44 56.78 4.48 
-19.15 57.08 4.46 
-19.67 56.64 4.50 
-20.18 56.57 4.55 
-22.45 52.16 4.81 
-22.53 52.52 4.84 
-21.36 57.20 4.73 
-21.88 56.60 4.76 
-21.68 56.87 4.75 
-23.80 50.53 4.73 
-23.67 50.94 4.73 
-23.50 51.47 4.73 
-23.44 52.09 4.75 
-22.23 56.23 4.79 
-22.14 56.51 4.79 
-23.90 50.82 4.75 
-23.96 51.38 4.78 
-23.51 52.08 4.75 
-22.57 56.26 4.83 
-22.99 56.29 4.88 
-24.63 50.73 4.84 
-24.98 51.87 4.93 
-9.73 57.39 3.98 
-9.77 57.81 4.18 
-9.45 58.11 4.34 
-10.06 57.57 4.03 
-10.15 57.94 4.40 
-9.84 58.19 4.06 
-9.85 58.56 4.09 
-10.55 57.66 4.10 
-10.37 57.72 4.09 
-10.89 57.68 4.15 
-12.15 57.92 4.32 
-12.00 58.26 4.33 
-11.86 58.54 4.34 
-12.50 57.55 4.34 
-12.53 58.04 4.38 
-12.87 57.56 4.39 
-14.39 57.16 4.55 
-14.38 57.60 4.58 
-14.76 57.28 4.61 
-14.46 57.52 4.59 
-14.46 58.11 4.63 
-14.32 58.42 4.64 
-14.25 58.83 4.66 
-15.02 56.98 4.62 
-14.97 57.22 4.63 
-15.83 56.76 4.71 
-15.44 57.03 4.68 
-18.69 45.82 4.60 
-18.83 45.75 4.62 
-16.98 56.98 4.89 
-16.72 57.30 4.87 
-16.57 57.59 4.88 
-16.95 57.24 4.90 
-18.92 57.61 4.69 
-18.80 58.14 4.71 
-19.00 57.37 4.69 
-21.16 57.49 4.94 
-21.00 57.66 4.93 
-22.68 53.46 4.90 
-22.96 53.27 4.93 
-24.62 50.59 5.00 
-24.46 50.87 5.00 
-24.68 50.58 5.01 
-24.15 56.52 5.04 
-24.09 56.94 5.05 
-24.02 57.34 5.27 
-24.78 56.53 5.12 
-24.41 57.31 5.32 
-25.97 54.04 5.15 
-26.57 54.05 5.23 
-26.35 54.49 5.22 
-26.45 56.59 5.33 
-27.92 52.01 5.32 
-26.75 56.33 5.35 
-26.50 56.92 5.35 
-26.56 57.37 5.48 
-28.06 51.83 5.33 
-27.98 52.30 5.34 
-27.29 56.21 5.42 
-27.09 57.35 5.64 
-27.59 56.14 5.45 
-28.91 52.98 5.65 
-28.65 56.43 5.60 
-29.00 56.95 5.67 
-9.45 58.66 4.39 
-9.57 58.83 4.41 
-10.42 57.86 4.56 
-10.36 58.40 4.76 
-10.78 57.74 4.75 
-10.68 57.91 4.75 
-10.59 58.42 4.79 
-11.70 58.82 4.65 
-11.78 59.39 4.71 
-12.20 58.58 4.69 
-12.17 58.92 4.71 
-12.85 58.46 4.75 
-14.72 58.42 4.98 
-15.19 58.09 5.00 
-18.81 45.40 5.05 
-18.71 45.86 5.17 
-18.74 45.72 5.16 
-16.69 58.15 4.93 
-17.37 57.07 4.94 
-17.56 56.75 4.95 
-17.44 56.87 4.94 
-17.50 58.04 5.29 
-17.97 56.84 5.01 
-17.71 57.98 5.31 
-19.20 57.32 5.21 
-19.15 57.85 5.24 
-19.45 57.10 5.23 
-19.44 57.84 5.28 
-19.99 56.85 5.29 
-20.07 57.22 5.33 
-21.91 50.77 5.20 
-20.39 56.90 5.35 
-22.21 50.74 5.24 
-22.75 50.87 5.33 
-21.50 56.92 5.51 
-21.39 57.13 5.51 
-23.05 50.56 5.36 
-22.89 51.80 5.40 
-22.85 52.01 5.40 
-21.57 56.70 5.50 
-23.46 50.63 5.42 
-23.55 51.43 5.64 
-23.16 52.58 5.48 
-22.98 52.85 5.47 
-22.44 56.26 5.60 
-21.78 57.76 5.60 
-23.82 51.23 5.67 
-22.44 56.64 5.62 
-22.34 56.99 5.63 
-24.58 49.72 5.55 
-24.67 50.12 5.58 
-24.32 50.36 5.54 
-24.43 50.90 5.58 
-24.85 50.57 5.63 
-24.75 50.89 5.63 
-12.92 57.83 5.06 
-12.87 57.94 5.06 
-12.85 58.68 5.13 
-13.12 57.81 5.08 
-14.93 58.10 5.37 
-15.36 57.98 5.43 
-15.13 58.02 5.39 
-17.08 57.42 5.63 
-17.57 57.64 5.73 
-17.86 57.59 5.77 
-17.65 58.01 5.77 
-19.51 58.36 5.57 
-22.48 51.24 6.03 
-21.13 57.80 5.74 
-21.58 57.93 5.81 
-24.21 56.90 5.89 
-24.12 57.14 5.89 
-24.66 56.62 5.94 
-24.60 56.87 5.95 
-24.25 57.52 5.94 
-24.97 56.55 5.98 
-25.96 55.44 6.06 
-26.14 55.94 6.30 
-26.69 56.78 6.24 
-27.00 56.68 6.28 
-26.80 57.16 6.28 
-27.31 56.62 6.32 
-18.77 45.74 5.74 
-19.96 57.63 6.10 
-19.79 57.89 6.09 
-20.13 57.59 6.12 
-20.56 57.66 6.19 
-21.32 57.40 6.29 
-23.09 50.85 6.11 
-22.98 51.13 6.11 
-23.12 52.21 6.20 
-21.99 57.36 6.40 
-23.73 50.95 6.29 
-24.20 50.57 6.28 
-24.10 50.85 6.28 
-18.85 45.65 6.32 
-26.34 54.60 6.91 
-26.28 55.10 6.93 
-26.41 55.46 6.98 
-27.21 55.07 7.08 
-28.26 52.21 7.08 
-23.97 50.97 7.02 
-24.25 50.14 7.02 
-24.06 50.78 7.03 
-24.05 51.27 7.06 
-18.90 45.67 6.91 
-27.48 53.81 7.91 
-27.89 54.32 8.02 
-9.42 47.65 2.39 
-9.74 47.52 2.42 
-9.56 47.66 2.41 
-10.12 47.46 2.46 
-10.67 47.28 2.51 
-13.01 46.47 2.74 
-13.03 46.86 2.75 
-13.05 47.28 2.77 
-16.22 46.62 3.09 
-16.23 46.79 3.09 
-14.06 57.58 3.48 
-13.97 57.79 3.48 
-18.87 45.59 3.34 
-18.69 46.04 3.50 
-18.63 46.20 3.49 
-14.44 57.63 3.52 
-12.05 57.63 3.67 
-12.71 57.20 3.72 
-12.41 57.40 3.70 
-12.36 57.57 3.70 
-12.94 57.40 3.76 
-13.27 57.22 3.79 
-13.29 57.52 3.81 
-18.85 45.57 3.93 
-18.73 46.01 4.05 
-14.73 57.11 3.95 
-13.96 59.22 3.54 
-16.41 57.45 3.70 
-16.99 57.21 3.75 
-18.96 57.55 3.96 
-18.68 58.19 3.95 
-19.32 57.31 3.98 
-19.21 57.55 3.98 
-19.03 57.94 3.98 
-19.57 57.30 4.01 
-19.38 58.03 4.02 
-22.60 52.36 4.13 
-23.46 50.92 4.16 
-23.12 51.97 4.17 
-22.93 52.20 4.15 
-23.33 51.59 4.17 
-21.62 57.13 4.21 
-20.99 58.39 4.19 
-23.82 51.65 4.23 
-23.74 52.12 4.24 
-22.04 56.95 4.24 
-21.68 57.49 4.23 
-24.31 51.71 4.28 
-22.57 57.08 4.30 
-25.61 55.05 4.54 
-25.49 55.26 4.53 
-27.15 52.94 4.62 
-27.83 52.55 4.68 
-27.85 52.81 4.69 
-28.18 52.71 4.73 
-27.94 53.13 4.71 
-28.42 57.76 4.93 
-9.31 57.89 3.64 
-9.74 57.52 3.99 
-11.61 58.06 3.89 
-11.92 58.96 3.98 
-13.91 57.79 4.12 
-14.69 57.53 4.19 
-14.43 57.51 4.16 
-14.20 57.93 3.94 
-15.52 56.85 4.03 
-15.75 58.35 4.36 
-16.93 56.89 4.20 
-16.44 57.59 4.39 
-16.21 58.23 4.40 
-16.25 58.62 4.43 
-17.37 56.33 4.22 
-17.43 56.96 4.26 
-17.25 57.41 4.47 
-17.75 56.92 4.30 
-17.59 57.05 4.29 
-18.67 57.98 4.67 
-19.51 56.87 4.51 
-19.58 57.33 4.54 
-22.42 52.05 4.79 
-23.13 51.24 4.84 
-22.59 52.68 4.85 
-23.76 50.54 4.75 
-23.75 50.88 4.77 
-23.57 51.41 4.76 
-23.43 51.67 4.76 
-23.43 51.96 4.77 
-23.39 52.29 4.78 
-21.46 57.27 4.77 
-24.15 51.17 4.83 
-23.92 51.42 4.81 
-23.66 52.13 4.95 
-22.34 56.34 4.83 
-22.06 56.62 4.81 
-21.88 56.85 4.80 
-22.15 57.61 4.87 
-22.94 56.46 4.91 
-9.23 58.24 4.27 
-9.75 57.92 4.16 
-9.40 58.22 4.28 
-9.38 58.80 4.33 
-10.29 57.53 4.06 
-10.11 57.68 4.05 
-9.84 58.20 4.06 
-9.82 58.52 4.22 
-10.61 57.77 4.12 
-10.93 57.74 4.16 
-12.47 57.49 4.33 
-12.15 58.12 4.34 
-11.93 58.48 4.34 
-12.87 57.60 4.39 
-12.64 57.96 4.39 
-12.50 58.22 4.39 
-18.79 45.47 4.51 
-18.68 46.00 4.60 
-14.82 56.98 4.61 
-14.39 57.37 4.58 
-14.43 57.70 4.61 
-14.35 57.88 4.61 
-14.20 58.50 4.64 
-14.87 57.31 4.64 
-14.47 58.42 4.67 
-15.33 57.10 4.68 
-15.83 56.93 4.74 
-15.67 57.26 4.74 
-16.76 57.22 4.89 
-16.72 57.47 4.90 
-16.96 57.09 4.91 
-16.92 57.34 4.92 
-16.86 57.54 4.92 
-18.52 58.39 4.67 
-18.94 57.89 4.69 
-19.34 57.74 4.73 
-21.69 57.55 5.00 
-24.59 50.77 5.00 
-24.45 51.06 5.00 
-22.09 57.31 5.03 
-24.18 56.66 5.08 
-23.89 56.86 5.05 
-23.98 57.33 5.17 
-24.80 56.55 5.15 
-24.41 56.58 5.10 
-24.35 57.13 5.12 
-26.35 54.62 5.26 
-25.89 55.88 5.41 
-25.84 56.16 5.42 
-27.92 51.97 5.35 
-28.20 52.49 5.41 
-26.95 56.27 5.41 
-26.61 56.63 5.38 
-27.40 56.35 5.47 
-26.67 57.42 5.42 
-26.71 57.92 5.62 
-29.02 56.35 5.67 
-28.69 56.48 5.64 
-29.06 57.03 5.71 
-9.82 57.94 4.62 
-10.23 57.90 4.68 
-10.49 57.72 4.69 
-10.37 57.80 4.68 
-10.78 57.77 4.74 
-10.87 58.17 4.79 
-10.59 58.69 4.81 
-11.71 59.25 4.64 
-12.01 59.16 4.67 
-13.59 58.06 4.76 
-18.91 45.37 5.12 
-18.77 45.48 5.10 
-18.72 45.94 5.16 
-13.91 58.88 4.87 
-16.83 58.41 5.20 
-17.53 56.83 4.97 
-17.47 57.11 4.98 
-17.24 58.26 5.24 
-17.97 56.93 5.04 
-17.83 57.04 5.02 
-19.05 57.51 5.23 
-21.98 50.87 5.25 
-19.96 56.85 5.31 
-19.64 57.16 5.28 
-19.49 57.45 5.28 
-19.33 57.76 5.28 
-19.25 58.02 5.48 
-20.09 57.26 5.35 
-23.04 50.71 5.40 
-22.83 50.90 5.38 
-20.40 56.95 5.38 
-23.49 50.41 5.45 
-23.27 50.69 5.43 
-22.90 51.62 5.54 
-22.86 51.90 5.48 
-23.27 52.49 5.53 
-23.10 52.79 5.52 
-22.92 53.04 5.51 
-21.33 57.20 5.53 
-24.25 50.53 5.57 
-23.31 52.54 5.54 
-22.06 56.74 5.60 
-21.80 56.98 5.58 
-21.68 57.89 5.62 
-24.76 50.00 5.63 
-24.74 50.35 5.64 
-24.47 51.08 5.63 
-22.51 56.54 5.65 
-21.88 57.80 5.64 
-24.81 51.03 5.68 
-22.61 56.86 5.69 
-12.56 57.97 5.02 
-13.03 58.04 5.09 
-12.79 58.33 5.08 
-12.79 58.78 5.13 
-14.26 57.60 5.23 
-15.19 58.00 5.41 
-15.02 58.20 5.40 
-15.34 57.96 5.43 
-17.22 57.66 5.69 
-17.84 57.69 5.79 
-17.80 57.90 5.80 
-21.68 57.97 5.80 
-23.82 57.15 5.88 
-24.55 56.71 5.96 
-24.36 57.02 5.95 
-24.17 57.33 5.94 
-24.27 57.71 5.98 
-24.96 56.69 6.02 
-26.00 55.31 6.09 
-25.95 55.56 6.09 
-26.08 55.53 6.25 
-25.91 55.94 6.25 
-26.69 56.87 6.28 
-26.96 56.73 6.31 
-26.82 57.25 6.32 
-27.40 56.75 6.38 
-18.75 45.48 5.69 
-18.72 45.96 5.72 
-22.35 51.31 6.05 
-20.00 57.65 6.13 
-19.80 57.89 6.11 
-20.16 57.62 6.15 
-22.99 51.09 6.15 
-22.94 51.36 6.16 
-20.60 57.72 6.23 
-23.83 50.87 6.28 
-23.54 51.17 6.25 
-23.36 52.06 6.27 
-23.20 52.23 6.26 
-21.35 57.44 6.32 
-24.08 50.73 6.31 
-23.95 51.00 6.31 
-22.04 57.50 6.44 
-18.84 45.86 6.31 
-27.57 51.99 6.99 
-26.50 55.04 7.00 
-26.26 55.19 6.97 
-26.73 54.89 7.03 
-26.39 55.56 7.02 
-27.63 55.09 7.19 
-18.85 45.89 6.88 
-24.22 50.30 7.07 
-23.98 51.64 7.12 
-18.87 45.38 6.93 
-18.98 45.80 6.91 
-27.15 52.35 7.79 
-27.39 53.90 7.94 
-28.00 53.63 8.04 
-27.93 54.41 8.08 
-9.64 47.94 2.52 
-10.13 47.98 2.57 
-11.11 48.27 2.69 
-24.10 52.18 3.66 
-11.98 57.89 3.38 
-19.01 45.94 3.61 
-12.72 57.70 3.44 
-12.38 57.97 3.42 
-12.75 58.06 3.46 
-12.43 60.58 3.34 
-14.58 57.43 3.61 
-14.43 57.68 3.60 
-15.09 57.45 3.66 
-14.53 58.32 3.64 
-16.87 57.27 3.83 
-16.62 57.46 3.81 
-17.21 57.23 3.86 
-11.84 58.48 3.80 
-19.08 45.83 4.16 
-18.99 45.96 4.16 
-12.64 57.73 3.85 
-12.54 57.84 3.84 
-12.22 58.59 3.85 
-13.13 57.68 3.90 
-12.97 57.87 3.90 
-14.37 57.57 4.04 
-16.64 58.08 3.84 
-22.94 51.40 4.22 
-19.50 57.37 4.10 
-19.21 57.67 4.08 
-19.07 57.99 4.08 
-23.63 50.91 4.28 
-23.36 51.23 4.26 
-23.15 51.43 4.25 
-22.98 51.78 4.24 
-20.15 57.13 4.16 
-19.90 57.31 4.14 
-23.89 50.86 4.31 
-23.71 51.24 4.30 
-23.13 52.48 4.28 
-22.95 52.75 4.27 
-20.36 57.79 4.21 
-23.70 52.47 4.34 
-23.19 53.16 4.32 
-23.02 53.29 4.30 
-22.99 53.66 4.31 
-20.70 57.46 4.23 
-24.86 50.66 4.40 
-24.83 50.89 4.41 
-21.52 57.32 4.31 
-21.44 57.85 4.32 
-28.67 52.28 4.87 
-26.99 56.83 4.86 
-26.86 57.05 4.85 
-26.47 57.70 4.84 
-9.91 58.71 3.81 
-12.25 58.36 4.04 
-14.61 57.54 4.07 
-14.34 57.81 4.06 
-14.11 58.39 4.06 
-14.87 57.54 4.19 
-14.36 58.37 4.09 
-14.23 58.94 4.30 
-15.60 57.57 4.37 
-17.24 56.74 4.35 
-16.87 57.44 4.34 
-16.58 57.74 4.32 
-17.25 57.36 4.38 
-18.23 57.49 4.51 
-19.14 57.43 4.62 
-18.98 57.81 4.62 
-19.44 57.23 4.64 
-19.21 57.58 4.63 
-23.63 50.51 4.96 
-23.34 51.32 4.96 
-23.30 51.55 4.97 
-20.18 57.34 4.74 
-24.08 50.51 5.02 
-23.89 51.01 5.02 
-23.84 51.39 5.03 
-23.48 51.74 4.95 
-23.43 52.10 4.90 
-23.90 51.38 5.04 
-23.59 52.41 4.94 
-23.36 52.67 4.92 
-23.28 52.91 4.92 
-21.26 57.77 4.90 
-22.00 57.02 4.95 
-21.53 57.50 4.92 
-22.24 57.00 4.98 
-22.88 56.98 5.06 
-9.63 58.04 4.11 
-10.20 57.91 4.17 
-10.00 58.06 4.16 
-9.82 58.42 4.27 
-10.95 58.13 4.49 
-10.75 58.34 4.28 
-19.05 45.84 4.72 
-19.00 45.96 4.71 
-12.36 57.98 4.46 
-12.13 58.43 4.46 
-11.92 58.60 4.45 
-11.81 59.02 4.47 
-19.18 45.87 4.74 
-12.82 57.98 4.52 
-12.60 58.02 4.49 
-12.48 58.52 4.52 
-12.91 58.29 4.56 
-14.22 57.75 4.69 
-14.28 58.07 4.73 
-14.79 57.50 4.75 
-14.80 57.79 4.78 
-14.25 58.20 4.73 
-14.34 58.68 4.78 
-14.14 58.97 4.78 
-15.35 57.53 4.83 
-15.20 57.64 4.82 
-14.31 58.93 4.80 
-15.68 57.30 4.86 
-16.61 57.81 5.03 
-16.37 58.14 5.02 
-16.79 57.69 5.04 
-19.86 58.51 4.92 
-19.63 58.60 4.90 
-24.43 52.48 5.16 
-24.43 52.74 5.17 
-24.28 57.21 5.25 
-23.95 57.51 5.29 
-23.91 57.70 5.23 
-25.76 54.79 5.33 
-24.46 57.28 5.34 
-24.40 57.68 5.42 
-25.95 55.16 5.37 
-25.13 57.32 5.36 
-26.80 54.80 5.46 
-28.59 52.65 5.70 
-26.55 57.27 5.54 
-26.39 57.42 5.53 
-27.28 56.17 5.70 
-27.15 56.98 5.61 
-26.85 57.09 5.57 
-26.37 57.86 5.55 
-27.30 56.80 5.74 
-27.73 57.91 5.72 
-28.62 57.17 5.80 
-28.85 57.61 5.85 
-28.75 57.62 5.84 
-29.36 57.25 5.90 
-10.28 58.22 4.80 
-10.65 58.26 4.86 
-10.50 58.94 4.91 
-10.27 58.98 4.88 
-19.05 45.83 5.27 
-13.25 58.32 4.79 
-12.89 59.07 4.81 
-17.21 57.51 5.09 
-17.09 57.67 5.08 
-16.59 58.05 5.04 
-17.44 57.43 5.12 
-21.77 51.37 5.38 
-17.70 58.46 5.37 
-22.59 51.53 5.51 
-19.28 57.81 5.40 
-19.04 57.91 5.38 
-19.00 58.42 5.41 
-23.29 50.85 5.58 
-23.35 51.23 5.61 
-23.04 51.55 5.61 
-22.71 51.78 5.54 
-22.64 52.23 5.55 
-22.67 52.61 5.58 
-19.78 57.53 5.46 
-19.74 57.90 5.48 
-19.21 58.32 5.43 
-20.23 57.44 5.51 
-20.06 57.85 5.52 
-24.36 50.84 5.79 
-24.12 51.04 5.77 
-23.33 53.09 5.70 
-23.05 53.42 5.68 
-22.83 53.59 5.66 
-24.33 51.90 5.85 
-24.11 52.07 5.77 
-23.71 52.54 5.80 
-23.86 52.89 5.84 
-23.29 53.28 5.71 
-21.49 57.26 5.69 
-21.19 57.71 5.67 
-21.71 57.37 5.72 
-21.67 57.65 5.74 
-21.47 58.09 5.74 
-22.33 57.24 5.81 
-22.12 57.37 5.78 
-22.62 57.19 5.84 
-12.97 58.42 5.22 
-12.76 58.61 5.21 
-12.60 58.99 5.22 
-14.82 58.65 5.52 
-14.76 58.64 5.51 
-15.05 58.53 5.55 
-17.20 58.13 5.85 
-17.63 58.17 5.92 
-24.20 57.31 6.08 
-23.98 57.46 6.06 
-23.61 57.79 6.03 
-24.38 57.19 6.10 
-23.98 57.74 6.08 
-25.76 55.94 6.23 
-24.70 57.33 6.16 
-26.10 55.55 6.26 
-26.73 55.61 6.36 
-27.53 55.49 6.47 
-27.10 56.39 6.54 
-26.67 57.63 6.47 
-27.26 56.83 6.51 
-27.10 57.45 6.52 
-26.76 57.99 6.50 
-27.35 57.42 6.56 
-19.09 45.86 5.84 
-17.43 58.57 5.92 
-22.93 51.56 6.31 
-22.65 51.78 6.27 
-19.63 58.41 6.26 
-24.24 51.27 6.52 
-23.75 51.42 6.44 
-23.30 52.61 6.44 
-24.17 51.98 6.55 
-23.75 52.58 6.51 
-19.19 45.73 6.43 
-25.64 53.97 6.93 
-25.90 54.38 7.00 
-25.95 55.40 7.08 
-26.10 55.87 7.14 
-26.70 55.34 7.21 
-26.73 55.92 7.25 
-27.33 55.96 7.36 
-27.62 54.71 8.21 
-23.48 51.98 3.71 
-23.45 52.15 3.71 
-23.47 52.48 3.72 
-23.32 52.74 3.71 
-23.17 53.15 3.71 
-24.41 52.03 3.79 
-24.33 52.19 3.79 
-23.08 53.59 3.72 
-27.61 52.91 4.10 
-27.59 53.15 4.10 
-27.64 53.44 4.11 
-25.60 55.56 3.99 
-27.72 53.74 4.13 
-18.80 46.47 3.70 
-18.74 46.59 3.70 
-12.77 57.52 3.36 
-12.59 57.72 3.35 
-11.26 58.89 3.44 
-14.29 58.14 3.54 
-13.75 58.58 3.67 
-14.44 58.67 3.58 
-14.28 58.92 3.58 
-15.11 58.14 3.79 
-14.80 58.36 3.61 
-15.42 58.25 3.83 
-15.21 58.55 3.82 
-16.66 57.54 3.92 
-16.37 57.80 3.90 
-16.07 58.06 3.88 
-16.11 58.43 3.91 
-17.50 57.37 3.85 
-16.75 57.91 3.95 
-18.80 46.48 4.26 
-18.73 46.60 4.25 
-12.66 57.46 3.97 
-12.48 57.79 3.97 
-12.15 58.06 3.95 
-11.90 58.23 3.93 
-13.08 57.35 4.01 
-12.71 57.72 3.99 
-12.68 58.22 4.02 
-13.38 58.00 4.09 
-21.82 52.06 4.24 
-16.66 58.40 3.96 
-16.26 58.87 3.94 
-16.01 58.86 3.92 
-22.47 52.19 4.31 
-17.46 58.06 4.03 
-16.54 58.85 3.97 
-23.29 51.67 4.38 
-23.08 51.97 4.37 
-22.69 52.14 4.33 
-22.55 52.44 4.33 
-17.90 58.22 4.08 
-22.55 53.18 4.36 
-24.66 51.31 4.52 
-23.95 51.77 4.46 
-22.91 53.14 4.40 
-22.64 53.47 4.38 
-19.07 58.06 4.19 
-18.75 58.33 4.17 
-18.59 58.60 4.17 
-24.54 51.59 4.52 
-24.39 51.77 4.51 
-24.23 52.42 4.51 
-22.92 53.91 4.43 
-22.73 54.16 4.42 
-19.55 58.07 4.25 
-19.85 58.03 4.27 
-20.19 58.38 4.33 
-21.34 57.74 4.42 
-20.95 58.13 4.39 
-20.86 58.34 4.39 
-21.94 57.80 4.48 
-21.33 58.17 4.44 
-20.89 58.67 4.41 
-22.27 57.78 4.52 
-24.36 57.97 4.75 
-24.08 58.03 4.72 
-23.88 58.30 4.71 
-23.56 58.51 4.69 
-24.58 58.08 4.78 
-26.17 56.83 4.90 
-26.47 57.94 4.97 
-26.29 58.12 4.96 
-26.46 58.56 5.00 
-27.16 58.15 5.06 
-9.95 58.54 3.88 
-12.13 59.27 4.17 
-12.91 59.13 4.25 
-14.65 57.46 4.21 
-14.29 57.77 4.19 
-14.19 58.08 4.19 
-13.71 58.59 4.30 
-15.12 57.33 4.26 
-15.03 57.51 4.26 
-14.55 58.13 4.37 
-14.34 58.34 4.29 
-15.54 57.42 4.32 
-14.47 58.92 4.41 
-13.70 59.82 4.38 
-16.51 57.42 4.44 
-15.31 58.57 4.49 
-17.08 57.12 4.50 
-16.79 57.25 4.47 
-16.57 57.73 4.47 
-16.54 57.92 4.47 
-17.79 57.13 4.58 
-17.43 57.22 4.54 
-16.67 58.46 4.64 
-17.16 57.98 4.55 
-16.57 58.65 4.64 
-22.80 52.27 5.05 
-22.25 52.55 5.00 
-22.36 52.84 5.02 
-22.95 52.36 5.08 
-22.72 52.59 5.06 
-23.89 52.15 5.19 
-23.50 52.33 5.15 
-19.24 57.39 4.78 
-19.03 57.90 4.78 
-22.94 53.57 5.14 
-18.92 58.68 4.92 
-19.30 58.44 4.96 
-19.16 58.62 4.95 
-18.80 46.47 4.82 
-10.62 58.10 4.38 
-10.22 58.59 4.50 
-10.88 58.00 4.41 
-12.46 57.69 4.60 
-12.49 58.08 4.63 
-12.16 58.44 4.62 
-11.91 58.71 4.60 
-12.55 58.45 4.67 
-13.21 58.26 4.74 
-12.83 58.70 4.73 
-14.40 57.65 4.86 
-14.24 58.04 4.87 
-14.93 57.57 4.93 
-14.36 58.54 4.92 
-15.50 57.59 5.01 
-14.22 58.96 4.94 
-23.99 52.31 5.21 
-19.97 58.52 5.04 
-20.98 58.64 5.17 
-21.75 58.57 5.26 
-26.23 53.80 5.57 
-22.43 57.94 5.31 
-21.98 58.37 5.28 
-21.72 58.83 5.27 
-23.52 58.52 5.48 
-25.97 56.15 5.66 
-25.97 56.44 5.67 
-24.00 58.46 5.53 
-27.22 56.66 5.84 
-18.83 46.50 5.39 
-10.35 58.16 4.96 
-10.86 58.06 5.02 
-10.72 58.40 5.04 
-10.64 58.60 5.04 
-16.53 57.91 5.18 
-17.29 57.28 5.25 
-16.94 57.54 5.21 
-16.93 57.74 5.23 
-17.82 57.44 5.33 
-17.36 57.60 5.28 
-19.24 57.66 5.56 
-24.07 52.18 5.95 
-23.84 52.50 5.93 
-19.78 57.63 5.63 
-20.29 57.52 5.70 
-19.70 58.27 5.67 
-19.62 58.43 5.67 
-12.90 58.30 5.36 
-12.87 58.67 5.39 
-12.79 59.25 5.43 
-13.01 59.25 5.47 
-15.05 58.41 5.70 
-15.18 58.57 5.74 
-15.06 58.70 5.73 
-25.68 54.88 6.36 
-25.97 55.11 6.41 
-27.74 55.01 6.67 
-27.36 55.14 6.62 
-27.19 55.27 6.61 
-18.87 46.52 5.97 
-17.66 58.42 6.12 
-18.99 46.42 6.57 
-19.15 46.14 3.40 
-19.06 46.29 3.40 
-14.56 57.72 3.32 
-15.40 57.64 3.40 
-15.11 57.75 3.37 
-14.44 58.14 3.32 
-24.31 51.03 4.02 
-23.80 51.15 3.98 
-23.27 51.84 3.95 
-23.62 51.66 3.97 
-23.15 52.26 3.95 
-15.95 57.92 3.46 
-23.19 52.64 3.96 
-23.05 52.98 3.96 
-23.11 53.35 3.98 
-23.09 53.71 3.98 
-23.05 53.83 3.98 
-18.25 57.60 3.66 
-28.62 52.45 4.46 
-28.37 52.56 4.44 
-27.17 57.45 4.47 
-26.56 57.51 4.42 
-26.62 58.00 4.44 
-19.09 46.13 3.96 
-9.96 58.50 3.50 
-9.72 59.17 3.36 
-10.85 58.53 3.60 
-9.91 59.14 3.38 
-12.56 58.16 3.76 
-12.94 58.24 3.80 
-12.60 58.47 3.77 
-12.51 58.64 3.77 
-12.07 58.97 3.75 
-12.78 59.26 3.83 
-12.10 59.60 3.78 
-15.08 57.77 4.00 
-14.66 58.01 3.97 
-14.49 58.25 3.97 
-15.51 57.84 4.05 
-14.98 58.07 4.01 
-14.37 58.53 3.97 
-14.61 59.09 4.02 
-14.30 59.17 3.99 
-14.28 59.59 4.01 
-16.91 57.94 4.21 
-16.74 58.18 4.20 
-23.77 50.71 4.67 
-23.93 51.11 4.70 
-23.77 51.28 4.69 
-23.40 51.58 4.66 
-25.33 50.54 4.84 
-23.90 51.57 4.72 
-23.40 51.93 4.67 
-25.12 50.93 4.83 
-17.46 57.89 4.27 
-16.71 58.37 4.21 
-16.62 58.63 4.21 
-24.49 52.84 4.83 
-17.95 57.70 4.31 
-17.84 57.83 4.31 
-16.76 58.80 4.24 
-20.04 57.50 4.53 
-20.15 57.86 4.56 
-20.02 58.03 4.55 
-19.78 58.11 4.53 
-19.38 58.48 4.51 
-19.76 58.38 4.54 
-25.64 54.36 5.03 
-22.50 57.44 4.80 
-22.14 57.60 4.77 
-21.84 57.80 4.74 
-21.64 57.93 4.73 
-25.97 55.21 5.10 
-21.84 58.49 4.78 
-26.99 54.69 5.19 
-26.53 55.00 5.15 
-26.28 55.12 5.13 
-26.06 55.29 5.11 
-27.72 54.79 5.28 
-26.16 55.86 5.15 
-24.07 57.68 4.99 
-27.71 55.31 5.30 
-26.07 56.38 5.16 
-24.44 57.64 5.03 
-24.14 58.01 5.01 
-25.20 57.56 5.11 
-25.11 57.84 5.11 
-28.41 55.39 5.38 
-27.36 56.27 5.30 
-27.37 56.86 5.32 
-27.77 57.69 5.41 
-27.41 57.78 5.37 
-27.19 58.11 5.36 
-19.13 46.08 4.53 
-10.16 58.22 4.08 
-10.37 58.24 4.10 
-10.20 58.57 4.11 
-10.88 58.38 4.17 
-10.77 58.47 4.17 
-10.38 58.85 4.15 
-12.62 58.58 4.39 
-13.12 58.59 4.45 
-12.98 58.81 4.45 
-12.86 59.12 4.46 
-14.33 58.30 4.58 
-12.93 59.54 4.50 
-23.17 51.49 5.34 
-23.04 51.77 5.33 
-22.97 52.09 5.34 
-15.31 58.61 4.72 
-15.21 58.93 4.73 
-17.47 58.36 4.98 
-17.99 58.33 5.04 
-17.65 58.81 5.03 
-17.80 59.00 5.06 
-19.13 46.09 5.12 
-10.64 58.11 4.65 
-10.61 58.34 4.66 
-12.00 59.54 4.96 
-24.61 51.10 5.52 
-24.30 51.30 5.48 
-24.10 51.45 5.46 
-24.36 51.81 5.52 
-23.94 52.95 5.52 
-19.90 58.59 5.30 
-25.99 54.42 5.87 
-26.44 54.94 5.95 
-22.20 58.42 5.59 
-26.61 55.63 6.01 
-26.45 55.80 6.00 
-26.52 56.15 6.03 
-26.99 56.67 6.12 
-28.20 56.18 6.25 
-19.20 46.01 5.70 
-10.81 58.37 5.33 
-27.85 54.59 6.98 
-28.04 54.97 7.03 
-19.24 46.03 6.30 
-19.35 45.93 6.91 
-23.84 52.37 3.54 
-23.95 52.62 3.56 
-23.76 52.90 3.55 
-23.23 53.25 3.52 
-27.91 53.96 3.89 
-27.84 54.15 3.89 
-18.84 46.76 3.60 
-22.86 52.19 4.18 
-22.36 52.33 4.14 
-22.17 52.43 4.12 
-24.49 51.58 4.32 
-22.69 52.45 4.18 
-22.37 52.77 4.16 
-24.77 51.74 4.35 
-24.57 51.95 4.34 
-24.27 52.22 4.32 
-24.77 52.36 4.37 
-24.42 52.53 4.35 
-22.81 53.23 4.21 
-22.74 53.44 4.22 
-13.94 58.35 3.55 
-13.74 58.69 3.54 
-24.59 52.65 4.37 
-23.03 53.84 4.26 
-14.79 58.54 3.64 
-13.67 59.05 3.55 
-13.62 59.26 3.56 
-22.93 54.16 4.26 
-22.73 54.43 4.25 
-16.51 58.00 3.78 
-15.25 58.45 3.68 
-13.78 59.47 3.58 
-17.04 58.22 3.84 
-16.30 58.35 3.78 
-16.16 58.90 3.78 
-19.08 58.40 4.04 
-19.85 58.32 4.12 
-19.54 58.35 4.09 
-18.74 58.87 4.03 
-20.93 58.44 4.22 
-25.25 56.38 4.57 
-20.94 58.87 4.24 
-24.01 58.47 4.52 
-23.87 58.67 4.52 
-26.99 57.42 4.77 
-26.61 58.20 4.77 
-26.43 58.69 4.77 
-18.90 46.62 4.18 
-18.82 46.76 4.18 
-9.66 58.47 3.71 
-9.65 58.78 3.73 
-10.36 58.69 3.80 
-10.10 58.77 3.78 
-9.69 58.96 3.75 
-9.97 59.46 3.81 
-14.63 58.16 4.25 
-12.41 59.12 4.05 
-12.34 59.32 4.06 
-11.59 59.82 4.00 
-14.61 58.41 4.26 
-14.51 58.72 4.26 
-15.42 58.69 4.36 
-24.10 51.47 5.02 
-24.03 51.64 5.02 
-23.26 52.28 4.95 
-23.03 52.43 4.93 
-22.37 52.82 4.87 
-23.99 52.35 5.04 
-23.41 52.35 4.97 
-22.96 52.69 4.94 
-22.70 52.75 4.91 
-22.39 53.04 4.88 
-23.00 53.60 4.98 
-22.93 53.81 4.98 
-22.90 54.05 4.99 
-16.91 58.42 4.52 
-16.76 58.73 4.52 
-17.57 58.72 4.61 
-16.99 58.79 4.55 
-16.77 59.11 4.54 
-28.12 53.56 5.59 
-19.20 58.82 4.80 
-28.11 53.95 5.61 
-21.52 57.98 5.02 
-20.02 58.77 4.89 
-20.51 58.91 4.96 
-20.03 59.06 4.91 
-19.17 59.53 4.83 
-26.25 56.16 5.49 
-25.93 56.23 5.45 
-22.34 58.24 5.13 
-21.99 58.56 5.11 
-21.51 58.77 5.06 
-21.13 58.91 5.03 
-26.10 56.61 5.49 
-21.87 58.76 5.10 
-26.37 56.80 5.53 
-27.37 56.73 5.65 
-23.99 58.79 5.35 
-23.62 58.83 5.31 
-18.91 46.63 4.77 
-18.86 46.76 4.77 
-10.10 58.96 4.37 
-10.38 58.90 4.40 
-9.97 59.23 4.38 
-12.62 59.71 4.74 
-12.39 59.97 4.74 
-19.00 46.63 5.38 
-18.89 46.78 5.37 
-23.93 52.10 5.77 
-24.12 52.44 5.81 
-23.93 52.63 5.80 
-23.95 53.09 5.83 
-27.67 55.17 6.47 
-27.32 55.42 6.43 
-26.67 55.52 6.35 
-19.55 47.39 8.03 
-24.63 52.20 3.68 
-23.39 52.38 3.59 
-23.41 52.64 3.60 
-24.52 52.36 3.68 
-23.65 52.98 3.62 
-23.36 53.10 3.61 
-23.42 53.38 3.62 
-23.34 53.58 3.62 
-23.21 53.78 3.61 
-23.17 54.02 3.62 
-27.70 53.30 3.95 
-25.74 55.83 3.87 
-25.95 56.21 3.89 
-18.88 46.86 3.69 
-23.29 51.69 4.30 
-24.95 51.49 4.46 
-23.34 52.07 4.32 
-23.15 52.24 4.31 
-24.80 51.69 4.45 
-24.57 51.83 4.44 
-23.28 52.53 4.33 
-22.87 52.84 4.30 
-22.58 52.97 4.28 
-23.55 52.92 4.37 
-22.56 53.09 4.28 
-23.98 53.07 4.42 
-22.69 53.47 4.31 
-10.14 58.78 3.28 
-9.81 58.79 3.25 
-23.28 54.26 4.40 
-23.02 54.38 4.38 
-12.50 58.86 3.52 
-11.97 58.96 3.47 
-24.01 54.37 4.47 
-14.37 58.44 3.68 
-13.92 58.62 3.64 
-11.64 59.42 3.46 
-14.78 58.43 3.72 
-13.95 58.97 3.66 
-13.87 59.06 3.66 
-11.61 59.81 3.47 
-15.53 58.57 3.80 
-15.40 58.71 3.79 
-13.88 59.59 3.68 
-17.12 58.31 3.95 
-17.00 58.61 3.95 
-16.56 58.65 3.90 
-16.29 58.96 3.89 
-14.00 60.13 3.71 
-25.37 55.85 4.67 
-19.62 58.34 4.19 
-19.07 58.75 4.15 
-19.77 58.73 4.22 
-18.84 59.00 4.14 
-22.30 58.24 4.45 
-21.23 58.51 4.36 
-21.01 58.77 4.35 
-19.07 59.61 4.19 
-26.65 56.67 4.82 
-24.20 58.30 4.64 
-21.47 59.40 4.42 
-24.59 58.30 4.68 
-23.95 58.58 4.63 
-27.12 57.94 4.92 
-23.96 59.03 4.65 
-27.18 58.59 4.95 
-26.89 58.73 4.93 
-26.66 58.89 4.91 
-18.94 46.70 4.29 
-18.89 46.85 4.29 
-10.10 58.92 3.87 
-10.48 58.83 3.91 
-10.35 58.95 3.90 
-12.55 59.24 4.17 
-13.71 58.83 4.27 
-12.74 59.21 4.19 
-12.48 59.44 4.17 
-12.34 59.56 4.16 
-11.75 59.74 4.10 
-12.29 59.93 4.18 
-11.76 60.05 4.12 
-14.69 59.36 4.42 
-14.23 59.59 4.38 
-13.97 59.63 4.35 
-24.17 52.19 5.17 
-23.81 52.28 5.13 
-23.70 52.47 5.13 
-22.94 52.41 5.03 
-22.72 52.62 5.02 
-23.72 52.52 5.13 
-23.09 52.97 5.08 
-25.95 54.78 5.51 
-25.63 54.90 5.48 
-26.84 54.92 5.62 
-25.76 55.25 5.51 
-17.09 59.00 4.67 
-26.07 55.67 5.57 
-17.52 58.99 4.72 
-16.89 59.25 4.66 
-25.79 56.37 5.57 
-19.22 58.91 4.92 
-26.75 56.34 5.68 
-26.20 56.34 5.61 
-25.87 56.71 5.59 
-19.80 59.06 4.99 
-19.45 59.38 4.97 
-27.29 56.57 5.76 
-26.69 56.55 5.68 
-26.42 56.75 5.66 
-26.18 56.91 5.64 
-21.76 58.80 5.21 
-20.29 59.18 5.06 
-26.27 57.21 5.66 
-21.71 59.01 5.21 
-21.71 59.31 5.23 
-18.93 46.78 4.90 
-26.00 55.42 6.38 
-27.88 55.13 6.64 
-27.57 55.27 6.60 
-27.69 55.67 6.64 
-27.50 55.82 6.62 
-23.83 51.85 3.67 
-23.83 52.30 3.68 
-23.48 52.40 3.65 
-23.31 52.59 3.65 
-24.64 52.36 3.75 
-23.23 53.06 3.65 
-23.92 53.09 3.71 
-23.21 53.30 3.66 
-23.36 53.62 3.68 
-23.35 53.87 3.68 
-25.68 55.77 3.92 
-25.95 56.19 3.95 
-18.94 46.92 3.77 
-24.96 51.59 4.55 
-24.65 51.79 4.52 
-23.35 51.93 4.40 
-24.75 51.87 4.54 
-23.42 52.34 4.42 
-23.22 52.49 4.40 
-23.52 52.91 4.45 
-23.25 52.88 4.42 
-22.74 53.05 4.38 
-22.56 53.21 4.36 
-24.15 52.91 4.51 
-23.35 53.08 4.44 
-24.11 53.93 4.55 
-23.92 54.19 4.54 
-9.38 58.64 3.26 
-10.49 59.03 3.39 
-10.07 58.97 3.35 
-14.58 58.48 3.77 
-14.24 58.50 3.74 
-12.53 58.93 3.58 
-12.09 58.85 3.54 
-14.92 58.53 3.80 
-14.63 58.68 3.78 
-14.16 58.84 3.74 
-12.20 59.33 3.57 
-11.75 59.54 3.53 
-11.61 59.68 3.52 
-26.18 55.91 4.83 
-25.44 55.85 4.75 
-17.11 58.40 4.02 
-16.58 58.68 3.97 
-14.04 59.09 3.74 
-13.99 59.29 3.74 
-12.10 59.64 3.57 
-11.49 59.81 3.52 
-17.06 58.63 4.02 
-16.57 58.79 3.98 
-16.37 59.02 3.97 
-14.13 59.46 3.76 
-14.03 59.79 3.77 
-13.79 59.93 3.75 
-19.64 58.32 4.27 
-19.20 58.73 4.24 
-16.29 59.37 3.97 
-26.85 56.82 4.93 
-19.86 58.75 4.30 
-19.64 58.76 4.28 
-19.17 59.00 4.24 
-19.00 59.25 4.24 
-26.22 57.40 4.89 
-21.15 58.92 4.44 
-19.38 59.25 4.27 
-18.93 59.39 4.24 
-24.32 58.18 4.73 
-23.98 58.46 4.70 
-23.76 58.70 4.69 
-24.72 58.66 4.79 
-23.47 58.81 4.67 
-27.24 58.59 5.03 
-26.98 58.83 5.02 
-26.76 58.95 5.00 
-26.67 59.16 5.00 
-19.00 46.75 4.40 
-18.94 46.92 4.40 
-9.27 59.04 3.85 
-10.29 58.90 3.96 
-10.10 58.92 3.94 
-13.91 59.00 4.38 
-12.70 59.31 4.26 
-12.21 59.26 4.20 
-12.63 59.44 4.26 
-12.37 59.68 4.24 
-12.44 60.04 4.27 
-12.46 60.33 4.29 
-24.38 52.21 5.30 
-23.99 52.31 5.26 
-23.20 52.50 5.17 
-22.80 52.58 5.12 
-23.87 52.53 5.25 
-22.67 52.77 5.12 
-23.79 53.66 5.29 
-24.43 53.77 5.38 
-23.85 53.83 5.31 
-26.13 55.34 5.66 
-26.18 55.66 5.68 
-27.72 55.78 5.87 
-14.91 59.39 4.52 
-14.85 59.56 4.52 
-26.10 56.48 5.71 
-17.16 59.06 4.77 
-14.85 59.61 4.52 
-27.43 56.52 5.87 
-27.33 56.79 5.87 
-26.36 56.90 5.76 
-17.32 59.53 4.81 
-26.40 57.21 5.78 
-19.54 59.42 5.07 
-21.76 59.22 5.32 
-27.77 55.82 6.78 
-24.62 51.96 3.82 
-24.09 51.98 3.78 
-23.60 52.07 3.74 
-23.54 52.29 3.75 
-23.36 52.49 3.74 
-23.07 52.74 3.72 
-22.77 53.18 3.71 
-22.97 53.60 3.74 
-22.86 53.94 3.74 
-22.84 54.32 3.75 
-22.85 54.59 3.76 
-22.77 54.81 3.76 
-18.97 46.99 3.88 
-23.95 51.66 4.56 
-23.60 51.50 4.52 
-23.95 51.91 4.57 
-23.80 52.00 4.56 
-24.00 52.39 4.59 
-23.79 52.47 4.57 
-23.55 52.52 4.55 
-23.10 52.58 4.51 
-23.27 52.94 4.54 
-22.97 52.95 4.51 
-23.07 53.34 4.53 
-23.18 53.62 4.56 
-23.63 54.07 4.62 
-23.14 54.13 4.57 
-23.38 54.50 4.61 
-25.99 55.98 4.93 
-25.89 56.18 4.93 
-12.63 59.00 3.72 
-26.05 56.43 4.95 
-14.75 58.79 3.92 
-13.85 59.11 3.84 
-12.85 59.28 3.75 
-12.51 59.38 3.72 
-11.61 59.64 3.64 
-25.74 56.99 4.94 
-17.41 58.79 4.18 
-17.00 58.78 4.14 
-15.58 59.04 4.01 
-14.58 59.05 3.91 
-14.17 59.26 3.88 
-12.96 59.55 3.77 
-12.41 59.54 3.72 
-12.21 59.70 3.71 
-11.79 59.75 3.67 
-26.82 57.14 5.06 
-21.61 58.28 4.58 
-19.58 58.66 4.39 
-16.89 59.10 4.14 
-16.48 59.20 4.11 
-16.15 59.22 4.08 
-14.84 59.52 3.96 
-14.13 59.75 3.90 
-14.05 59.93 3.90 
-22.45 58.45 4.67 
-22.20 58.57 4.65 
-21.41 58.70 4.58 
-20.31 58.87 4.47 
-19.80 59.09 4.43 
-19.37 59.08 4.39 
-26.99 57.95 5.11 
-22.24 58.89 4.67 
-21.99 58.79 4.64 
-21.40 59.08 4.59 
-21.26 59.16 4.58 
-19.32 59.33 4.39 
-24.16 58.88 4.86 
-23.90 59.00 4.84 
-21.30 59.46 4.60 
-19.55 59.75 4.43 
-19.12 59.78 4.39 
-24.58 59.07 4.91 
-27.42 59.05 5.19 
-26.89 59.09 5.14 
-19.00 46.92 4.53 
-10.13 59.49 4.11 
-24.25 52.02 5.41 
-22.89 52.28 5.25 
-24.12 52.34 5.41 
-22.83 52.60 5.26 
-24.07 52.70 5.42 
-23.27 52.94 5.33 
-23.77 53.36 5.41 
-23.78 53.52 5.42 
-23.69 53.97 5.43 
-26.05 55.56 5.79 
-12.79 59.98 4.44 
-12.54 60.26 4.43 
-19.37 46.88 7.97 
-19.24 47.49 7.99 
-24.83 51.71 3.89 
-24.18 51.77 3.84 
-24.59 51.85 3.88 
-23.95 51.92 3.83 
-23.35 52.11 3.79 
-23.00 52.35 3.77 
-22.84 52.69 3.76 
-22.68 52.49 3.74 
-23.19 52.98 3.80 
-23.82 53.43 3.86 
-23.92 53.73 3.88 
-23.17 53.86 3.82 
-23.10 54.24 3.83 
-23.13 54.49 3.84 
-25.72 56.17 4.10 
-15.33 58.26 3.32 
-19.04 46.80 3.96 
-18.99 46.96 3.96 
-23.93 51.56 4.64 
-23.96 51.96 4.66 
-23.56 52.27 4.63 
-23.35 52.53 4.62 
-23.40 52.93 4.64 
-22.59 53.02 4.56 
-25.34 52.83 4.83 
-23.41 53.73 4.67 
-23.18 53.91 4.65 
-23.17 54.17 4.66 
-26.18 55.58 5.02 
-26.09 55.96 5.02 
-25.97 56.21 5.02 
-26.32 56.66 5.07 
-10.60 58.80 3.58 
-14.80 58.76 3.99 
-14.14 58.95 3.94 
-26.85 57.20 5.15 
-21.72 58.21 4.67 
-17.12 58.65 4.22 
-17.06 58.78 4.22 
-15.66 59.00 4.09 
-13.98 59.06 3.93 
-13.90 59.23 3.92 
-12.60 59.43 3.80 
-12.28 59.47 3.77 
-27.14 57.64 5.20 
-19.97 58.89 4.52 
-19.49 58.87 4.47 
-17.00 59.06 4.23 
-14.98 59.30 4.03 
-14.80 59.40 4.02 
-14.23 59.72 3.98 
-13.26 59.55 3.87 
-13.01 59.56 3.85 
-12.29 59.88 3.79 
-22.46 58.58 4.76 
-22.25 58.75 4.74 
-20.16 58.94 4.54 
-19.40 59.05 4.47 
-17.08 59.48 4.25 
-14.15 59.98 3.98 
-24.19 58.92 4.95 
-22.24 59.04 4.75 
-21.77 59.05 4.71 
-21.48 59.18 4.68 
-21.21 59.31 4.66 
-20.34 59.36 4.58 
-23.98 59.11 4.93 
-20.09 59.83 4.57 
-19.32 59.85 4.49 
-24.46 52.01 5.54 
-24.31 52.37 5.54 
-24.11 52.69 5.53 
-24.28 53.04 5.57 
-24.05 53.18 5.55 
-23.81 53.37 5.52 
-26.22 54.86 5.89 
-26.26 55.46 5.93 
-26.13 55.12 5.89 
-12.83 59.99 4.54 
-28.08 55.03 6.13 
-28.08 55.29 6.14 
-27.27 57.72 6.16 
-24.82 51.64 3.92 
-24.65 51.85 3.91 
-24.57 52.09 3.91 
-23.46 52.13 3.83 
-23.17 52.47 3.82 
-22.37 52.40 3.75 
-22.29 52.63 3.75 
-24.98 53.05 3.98 
-22.62 53.02 3.79 
-23.62 53.79 3.89 
-23.25 54.22 3.87 
-23.20 54.64 3.88 
-25.82 55.36 4.11 
-25.84 55.66 4.12 
-25.82 55.96 4.13 
-25.31 56.02 4.09 
-23.68 52.57 4.70 
-23.11 52.69 4.65 
-23.05 52.89 4.65 
-22.63 53.05 4.62 
-23.41 53.76 4.72 
-23.24 54.25 4.72 
-26.41 55.22 5.08 
-25.97 55.63 5.05 
-25.99 56.29 5.08 
-27.66 56.68 5.26 
-27.14 56.43 5.20 
-26.38 56.73 5.13 
-27.59 56.92 5.26 
-27.12 57.34 5.23 
-13.84 59.07 3.97 
-12.75 59.34 3.88 
-22.52 58.52 4.82 
-19.93 58.74 4.57 
-17.25 59.03 4.31 
-16.99 59.14 4.29 
-15.36 59.27 4.13 
-14.89 59.32 4.09 
-12.68 59.63 3.88 
-12.31 59.72 3.85 
-22.14 58.89 4.79 
-21.45 58.93 4.73 
-19.49 59.05 4.53 
-17.84 59.19 4.38 
-16.93 59.38 4.29 
-14.80 59.52 4.09 
-14.27 59.67 4.04 
-12.30 59.99 3.86 
-24.33 58.84 5.01 
-22.47 59.03 4.83 
-22.04 59.08 4.79 
-21.24 59.23 4.72 
-20.40 59.31 4.64 
-19.73 59.50 4.58 
-12.34 60.29 3.87 
-27.53 55.68 6.16 
-27.97 56.15 6.24 
-24.71 52.05 3.97 
-23.16 52.26 3.86 
-22.40 52.38 3.80 
-25.05 52.48 4.01 
-24.59 52.56 3.98 
-22.35 52.63 3.81 
-23.05 53.20 3.88 
-23.88 53.44 3.95 
-22.98 53.39 3.88 
-23.41 53.85 3.93 
-23.49 54.28 3.95 
-23.35 54.27 3.93 
-23.13 54.55 3.92 
-25.73 55.88 4.17 
-15.07 58.54 3.40 
-14.77 58.61 3.38 
-23.63 53.55 4.81 
-23.54 53.80 4.81 
-26.49 55.21 5.16 
-26.12 55.37 5.13 
-27.15 56.04 5.26 
-27.32 56.30 5.29 
-27.10 56.40 5.27 
-26.33 56.40 5.19 
-27.65 56.88 5.34 
-26.42 56.73 5.21 
-27.00 57.26 5.29 
-10.28 58.92 3.69 
-17.57 59.05 4.42 
-17.04 58.94 4.36 
-14.08 59.16 4.08 
-12.68 59.49 3.95 
-21.95 58.93 4.85 
-19.46 58.98 4.60 
-17.38 59.44 4.41 
-15.24 59.47 4.20 
-14.90 59.46 4.17 
-14.43 59.68 4.13 
-12.70 59.76 3.96 
-21.94 59.21 4.86 
-21.33 59.15 4.80 
-20.59 59.34 4.73 
-19.79 59.47 4.66 
-17.36 59.71 4.42 
-28.19 56.18 6.37 
-23.33 52.17 3.94 
-23.13 52.33 3.93 
-23.08 52.59 3.93 
-22.39 52.65 3.88 
-23.97 53.46 4.03 
-23.41 53.54 3.99 
-23.26 53.77 3.98 
-23.51 54.14 4.02 
-23.37 54.15 4.00 
-23.20 54.46 4.00 
-25.98 55.98 4.27 
-20.03 58.41 3.86 
-15.03 58.53 3.47 
-19.84 58.58 3.85 
-19.56 59.04 3.84 
-23.06 52.73 4.82 
-23.41 53.19 4.87 
-24.07 53.69 4.96 
-26.50 54.84 5.25 
-25.97 54.95 5.20 
-26.38 55.43 5.26 
-26.38 55.73 5.27 
-27.79 56.33 5.44 
-27.48 56.47 5.41 
-26.91 56.57 5.36 
-27.72 56.95 5.45 
-26.49 56.75 5.32 
-26.66 57.14 5.35 
-13.01 59.33 4.06 
-12.42 59.39 4.00 
-17.80 59.12 4.53 
-17.39 59.16 4.49 
-15.10 59.51 4.28 
-12.82 59.44 4.05 
-22.14 59.16 4.97 
-22.09 59.38 4.98 
-19.94 59.31 4.76 
-17.48 59.60 4.52 
-14.78 59.69 4.25 
-24.49 52.31 4.05 
-23.45 52.34 3.97 
-23.24 52.50 3.95 
-25.07 52.77 4.11 
-22.88 52.67 3.93 
-23.21 53.05 3.97 
-23.16 53.47 3.98 
-23.02 53.85 3.98 
-23.41 54.28 4.02 
-23.25 54.52 4.02 
-23.13 54.77 4.02 
-26.09 55.94 4.29 
-25.91 56.13 4.28 
-14.65 58.63 3.46 
-19.89 58.56 3.88 
-19.45 58.75 3.85 
-19.93 58.95 3.89 
-19.47 59.03 3.86 
-23.98 53.52 4.97 
-23.91 53.79 4.98 
-27.10 55.25 5.35 
-26.40 55.26 5.28 
-26.08 55.47 5.26 
-28.01 55.50 5.46 
-26.48 55.93 5.32 
-27.05 56.53 5.40 
-27.49 56.65 5.45 
-26.82 57.03 5.40 
-26.32 56.90 5.34 
-27.75 57.10 5.49 
-26.31 57.16 5.35 
-27.14 57.55 5.45 
-12.88 59.24 4.09 
-12.77 59.41 4.09 
-17.55 59.63 4.57 
-15.06 59.67 4.33 
-12.81 60.02 4.12 
-23.73 52.73 4.10 
-23.36 53.05 4.08 
-23.09 53.41 4.07 
-23.35 53.78 4.10 
-24.58 54.51 4.22 
-23.87 54.56 4.16 
-17.62 58.64 3.78 
-15.69 58.77 3.63 
-15.17 58.74 3.59 
-15.00 58.90 3.58 
-14.69 58.99 3.56 
-19.74 58.86 3.96 
-17.56 58.90 3.79 
-14.61 59.22 3.56 
-12.80 59.48 3.42 
-12.73 59.38 3.41 
-19.70 59.30 3.97 
-14.62 59.61 3.57 
-24.37 52.59 5.10 
-23.29 52.66 4.99 
-24.32 53.44 5.13 
-24.19 53.79 5.13 
-24.31 54.08 5.15 
-26.30 55.01 5.39 
-26.64 55.44 5.44 
-26.52 55.73 5.44 
-26.67 56.97 5.50 
-15.38 59.91 4.47 
-23.89 52.70 4.14 
-24.31 53.13 4.19 
-23.31 53.12 4.11 
-23.43 53.46 4.13 
-23.10 53.65 4.11 
-23.28 54.01 4.14 
-23.88 54.57 4.20 
-24.63 54.78 4.27 
-23.75 54.78 4.20 
-23.53 54.90 4.18 
-20.18 58.78 4.04 
-17.63 58.83 3.83 
-15.77 58.99 3.69 
-15.13 58.92 3.64 
-15.05 59.16 3.64 
-19.73 59.14 4.01 
-14.72 59.25 3.62 
-14.52 59.41 3.60 
-12.68 59.41 3.46 
-14.49 59.70 3.61 
-24.51 53.70 5.22 
-24.20 53.91 5.19 
-24.16 54.21 5.20 
-26.70 55.57 5.51 
-28.20 55.89 5.67 
-26.89 56.12 5.55 
-26.63 57.04 5.56 
-28.24 57.35 5.73 
-27.34 57.66 5.65 
-26.81 57.51 5.59 
-27.24 58.03 5.66 
-13.13 59.41 4.30 
-15.44 59.97 4.55 
-19.77 47.19 7.91 
-19.85 47.35 7.93 
-19.77 47.48 7.93 
-19.63 47.70 7.91 
-22.93 53.67 4.13 
-23.04 54.02 4.15 
-23.58 54.82 4.21 
-23.25 55.03 4.19 
-23.00 55.25 4.18 
-21.36 59.12 4.17 
-20.14 58.87 4.07 
-19.71 58.92 4.03 
-15.38 59.11 3.70 
-14.83 59.09 3.65 
-14.31 59.24 3.62 
-19.76 59.26 4.05 
-14.16 59.59 3.61 
-23.96 53.90 5.22 
-23.87 54.35 5.23 
-27.87 55.88 5.69 
-26.25 55.83 5.52 
-27.61 56.08 5.67 
-26.25 57.05 5.57 
-27.03 57.63 5.67 
-27.20 58.11 5.71 
-15.11 60.09 4.58 
-20.17 58.83 4.16 
-17.61 58.89 3.96 
-15.69 59.07 3.81 
-15.16 59.09 3.77 
-14.70 59.13 3.74 
-20.33 59.21 4.18 
-19.75 59.26 4.14 
-17.58 59.13 3.96 
-24.27 54.23 5.38 
-24.32 54.75 5.41 
-26.58 56.52 5.70 
-27.34 57.48 5.81 
-27.41 58.25 5.85 
-14.67 58.93 3.80 
-17.27 59.31 4.02 
-14.84 59.25 3.83 
-16.79 59.39 3.99 
-14.24 60.22 3.81 
-24.09 53.88 5.45 
-23.11 53.52 5.34 
-24.00 54.12 5.45 
-24.00 54.44 5.47 
-23.89 54.75 5.47 
-15.31 59.18 3.88 
-14.72 59.13 3.83 
-14.25 59.20 3.80 
-16.78 59.46 4.00 
-16.62 59.78 4.00 
-14.20 59.80 3.81 
-14.21 60.12 3.83 
-14.36 60.52 3.85 
-22.99 53.32 5.35 
-23.12 53.69 5.38 
-24.01 54.31 5.49 
-23.96 54.65 5.50 
-23.90 54.94 5.50 
-24.04 55.04 5.52 
-14.28 59.49 3.88 
-14.57 59.90 3.92 
-14.20 59.77 3.88 
-14.10 59.98 3.88 
-21.71 48.25 3.58 
-22.35 47.42 3.50 
-22.02 48.23 3.57 
-22.26 47.51 3.41 
-22.03 48.35 3.49 
-22.34 48.24 3.47 
-22.04 47.84 3.79 
-8.76 54.65 4.37 
-9.07 54.58 4.35 
-21.95 47.83 3.39 
-21.96 48.43 3.44 
-22.35 47.63 3.36 
-22.27 47.85 3.38 
-22.55 49.27 4.60 
-22.92 48.36 4.50 
-22.81 49.08 4.58 
-22.67 49.48 5.01 
-8.63 54.42 3.53 
-9.01 54.86 3.55 
-9.85 55.40 3.55 
-10.37 54.71 3.48 
-8.67 54.69 4.27 
-9.07 54.74 4.26 
-10.76 54.97 4.23 
-11.21 54.88 4.20 
-13.21 55.24 4.17 
-13.49 55.07 4.15 
-15.40 54.77 4.07 
-8.74 54.85 4.68 
-10.28 55.54 4.68 
-10.88 55.41 4.65 
-11.14 55.04 4.61 
-11.55 55.06 4.59 
-12.49 54.51 4.51 
-12.59 55.59 4.61 
-13.27 54.29 4.46 
-13.08 54.84 4.52 
-13.74 54.51 4.47 
-14.01 54.41 4.45 
-14.83 54.66 4.45 
-15.18 54.81 4.45 
-15.71 54.11 4.37 
-16.15 54.30 4.37 
-21.61 48.82 3.73 
-22.63 50.11 3.82 
-22.48 49.44 4.50 
-22.84 48.28 4.37 
-22.69 48.64 4.41 
-22.65 49.18 4.47 
-23.12 48.16 4.36 
-23.89 48.81 4.43 
-22.45 49.57 4.90 
-22.74 48.90 4.83 
-22.56 49.13 4.85 
-23.76 48.70 4.80 
-10.37 54.92 3.42 
-10.48 55.10 3.42 
-8.60 55.09 4.20 
-8.92 54.72 4.16 
-10.93 55.37 4.15 
-11.25 55.16 4.12 
-12.65 54.81 4.04 
-13.46 55.08 4.04 
-13.23 55.35 4.08 
-15.37 54.77 3.96 
-15.90 55.21 3.99 
-16.20 55.08 3.97 
-17.85 54.94 3.91 
-17.90 54.93 3.91 
-18.48 54.76 3.88 
-8.89 55.13 4.59 
-10.22 55.80 4.60 
-10.51 55.83 4.59 
-10.86 55.34 4.54 
-11.32 55.16 4.50 
-12.67 55.90 4.53 
-12.73 54.75 4.41 
-13.35 54.52 4.37 
-13.21 55.20 4.44 
-13.76 54.75 4.38 
-14.09 54.70 4.37 
-14.89 55.07 4.38 
-15.39 54.64 4.32 
-15.20 54.91 4.35 
-15.71 54.96 4.34 
-17.68 54.89 4.28 
-18.78 54.86 4.24 
-21.55 49.35 3.68 
-21.47 48.53 4.28 
-22.85 48.45 4.26 
-22.73 48.77 4.30 
-22.69 49.24 4.35 
-23.15 48.20 4.24 
-22.55 49.56 4.38 
-22.92 48.53 4.65 
-22.80 48.90 4.70 
-22.81 49.27 4.73 
-22.69 49.44 4.75 
-23.95 48.89 4.31 
-22.57 49.77 4.79 
-8.54 54.87 4.11 
-8.92 54.81 4.09 
-8.99 55.42 4.15 
-10.92 55.59 4.10 
-11.31 55.30 4.06 
-12.26 54.80 3.99 
-12.54 54.86 3.98 
-13.10 55.39 4.02 
-13.17 54.69 3.95 
-13.57 55.02 3.97 
-14.01 54.82 3.94 
-15.47 54.69 3.89 
-15.27 55.00 3.92 
-15.92 54.90 3.90 
-16.32 55.07 3.90 
-17.59 54.79 3.84 
-17.67 55.70 3.93 
-18.11 54.79 3.83 
-18.57 54.73 3.82 
-18.86 54.65 3.80 
-20.07 54.76 3.79 
-19.93 55.17 3.83 
-20.30 54.51 3.76 
-20.71 54.58 3.76 
-21.43 54.65 3.75 
-21.44 49.24 3.44 
-21.84 48.96 3.57 
-26.54 51.16 3.36 
-8.77 54.87 4.50 
-9.23 55.18 4.51 
-10.28 55.52 4.50 
-10.56 55.34 4.48 
-11.36 55.25 4.44 
-11.94 55.75 4.47 
-12.70 54.71 4.34 
-12.56 55.37 4.41 
-12.39 55.94 4.47 
-13.29 54.51 4.31 
-13.15 55.09 4.37 
-13.67 54.65 4.31 
-13.96 54.68 4.30 
-15.07 54.87 4.28 
-14.85 55.13 4.32 
-15.38 54.78 4.27 
-15.76 54.96 4.27 
-16.06 54.74 4.24 
-17.73 55.37 4.26 
-18.09 55.01 4.21 
-18.56 54.72 4.17 
-18.87 54.73 4.17 
-19.73 54.92 4.16 
-19.96 54.61 4.13 
-20.37 54.71 4.13 
-20.94 54.66 4.11 
-21.47 48.74 4.21 
-22.83 48.44 4.18 
-22.73 49.00 4.24 
-23.20 48.43 4.18 
-21.59 48.68 4.59 
-22.47 49.59 4.68 
-22.80 48.56 4.57 
-22.78 49.35 4.66 
-23.15 48.37 4.55 
-25.30 50.72 4.42 
-25.53 50.71 4.42 
-26.62 51.62 4.51 
-26.90 51.42 4.49 
-25.31 51.13 4.83 
-25.54 50.28 4.74 
-8.63 54.97 4.04 
-8.96 55.08 4.04 
-9.19 55.01 4.02 
-8.75 55.02 4.43 
-9.10 55.15 4.43 
-9.37 55.19 4.42 
-10.37 55.87 4.07 
-10.76 55.96 4.06 
-11.19 55.38 3.99 
-11.01 55.83 4.04 
-11.58 55.58 4.00 
-12.31 54.99 3.92 
-13.03 55.68 3.97 
-13.32 55.18 3.91 
-13.40 55.49 3.94 
-13.79 55.14 3.90 
-14.15 54.97 3.87 
-15.53 55.02 3.84 
-15.68 54.76 3.81 
-15.92 55.11 3.84 
-16.20 55.07 3.83 
-17.97 55.12 3.79 
-17.94 55.90 3.86 
-18.30 55.12 3.78 
-18.56 54.95 3.76 
-18.89 54.89 3.75 
-20.23 54.72 3.70 
-20.07 55.10 3.74 
-20.06 55.73 3.80 
-20.65 54.81 3.70 
-20.95 54.70 3.69 
-21.40 54.90 3.70 
-21.58 49.80 3.57 
-22.14 48.88 3.48 
-22.04 55.27 3.72 
-22.56 54.89 3.67 
-22.81 54.79 3.66 
-23.30 54.83 3.66 
-26.44 50.92 3.26 
-26.85 50.91 3.26 
-9.49 55.47 4.45 
-10.20 55.99 4.47 
-10.44 55.60 4.43 
-10.93 54.92 4.34 
-10.83 55.76 4.43 
-11.28 55.23 4.36 
-11.87 55.96 4.41 
-12.65 55.26 4.32 
-12.60 56.18 4.41 
-12.81 54.72 4.26 
-13.46 54.71 4.24 
-13.21 54.97 4.27 
-13.79 54.77 4.23 
-14.11 54.88 4.24 
-14.99 55.35 4.25 
-15.38 55.01 4.21 
-15.80 54.76 4.17 
-16.16 54.91 4.18 
-17.54 55.69 4.21 
-18.22 54.79 4.11 
-18.60 54.89 4.11 
-19.18 55.39 4.14 
-19.81 55.16 4.11 
-20.04 54.91 4.08 
-20.72 54.90 4.06 
-20.56 55.20 4.09 
-21.16 54.90 4.05 
-22.50 55.33 4.06 
-23.02 54.97 4.01 
-22.87 55.29 4.05 
-24.49 51.50 3.67 
-21.70 48.84 4.12 
-22.77 48.83 4.12 
-22.70 49.49 4.19 
-23.08 48.59 4.09 
-21.72 48.96 4.52 
-22.86 48.86 4.50 
-22.82 49.33 4.55 
-22.97 49.66 4.59 
-22.80 49.93 4.62 
-23.15 48.74 4.48 
-25.60 50.34 4.28 
-25.58 50.79 4.33 
-27.07 51.62 4.42 
-25.44 51.11 4.73 
-25.75 51.08 4.73 
-25.79 52.21 4.85 
-27.09 51.79 4.80 
-27.36 51.69 4.79 
-8.53 55.12 3.94 
-8.64 55.33 3.96 
-9.16 55.10 3.92 
-8.96 55.42 3.96 
-10.31 56.11 3.98 
-11.01 55.66 3.91 
-11.35 55.58 3.90 
-12.48 55.20 3.83 
-13.45 54.68 3.75 
-13.31 55.04 3.79 
-8.74 55.05 4.32 
-9.40 55.27 4.32 
-10.35 55.45 4.30 
-10.18 55.98 4.36 
-10.72 55.66 4.31 
-10.66 56.08 3.97 
-10.81 54.87 4.23 
-11.36 55.22 4.24 
-11.47 55.79 3.91 
-11.77 55.93 3.92 
-12.74 55.03 4.18 
-12.74 55.19 4.20 
-12.47 56.01 3.90 
-12.86 54.58 4.13 
-13.03 54.92 4.16 
-13.00 55.26 3.82 
-13.43 54.59 4.12 
-13.27 54.85 4.15 
-13.85 54.68 4.11 
-13.96 54.89 4.13 
-13.77 55.31 3.80 
-14.04 55.22 3.79 
-14.71 55.28 3.78 
-15.36 54.77 4.08 
-15.58 55.07 3.73 
-15.44 55.48 3.77 
-15.43 56.17 3.84 
-15.75 54.63 3.87 
-15.81 55.00 3.72 
-16.17 55.01 3.71 
-16.40 54.85 3.69 
-17.48 55.68 3.75 
-17.61 55.19 3.70 
-17.75 56.12 3.78 
-18.15 55.23 3.69 
-18.69 55.27 3.68 
-19.24 55.62 3.70 
-19.67 55.16 3.65 
-20.24 54.91 3.62 
-20.18 55.13 3.64 
-20.58 54.84 3.60 
-20.65 55.11 3.63 
-20.89 54.82 3.60 
-21.20 54.79 3.59 
-21.51 49.91 3.48 
-23.08 49.54 3.09 
-26.40 51.28 3.20 
-12.68 55.92 4.27 
-15.03 55.12 4.12 
-14.90 55.69 4.18 
-16.13 54.70 4.05 
-17.43 55.28 4.07 
-17.87 55.50 4.08 
-18.28 54.87 4.01 
-18.07 55.16 4.04 
-18.55 54.77 3.99 
-18.93 54.89 3.99 
-19.97 54.82 3.96 
-20.63 55.02 3.97 
-20.95 54.57 3.92 
-22.40 55.23 3.95 
-22.67 55.04 3.92 
-23.03 55.01 3.91 
-23.55 55.27 3.93 
-26.89 50.89 3.48 
-21.55 49.31 4.05 
-22.03 49.10 4.02 
-22.55 49.22 4.04 
-22.70 48.96 4.01 
-23.18 48.92 4.00 
-24.90 50.81 4.20 
-21.56 49.31 4.42 
-22.60 49.90 4.48 
-22.91 48.72 4.35 
-22.72 48.96 4.38 
-22.72 49.52 4.44 
-23.26 48.72 4.35 
-25.52 50.97 4.59 
-25.90 51.08 4.23 
-25.55 51.14 4.24 
-26.28 51.05 4.23 
-26.50 50.44 4.17 
-26.47 50.80 4.21 
-27.34 50.96 4.23 
-27.26 52.84 4.42 
-26.49 51.90 4.68 
-27.15 51.61 4.65 
-26.86 51.88 4.68 
-27.33 51.40 4.63 
-26.09 52.31 5.43 
-26.50 52.30 5.44 
-8.69 55.10 3.90 
-9.14 55.67 3.94 
-9.16 54.97 3.87 
-10.34 55.94 3.93 
-10.22 56.32 3.97 
-10.67 55.97 3.92 
-10.93 55.58 3.88 
-11.47 55.65 3.87 
-12.52 55.11 3.79 
-12.49 55.96 3.87 
-12.95 55.21 3.79 
-13.35 55.10 3.76 
-13.23 55.66 3.82 
-13.74 55.29 3.77 
-14.10 55.12 3.75 
-15.47 55.04 3.71 
-15.34 55.37 3.74 
-15.93 54.75 3.67 
-15.75 54.98 3.69 
-16.25 54.76 3.66 
-8.69 55.18 4.30 
-9.32 55.37 4.29 
-10.27 55.65 4.29 
-10.12 56.16 4.34 
-10.54 55.54 4.27 
-11.06 55.30 4.23 
-11.00 55.53 4.25 
-11.35 55.24 4.21 
-11.47 55.50 4.24 
-11.86 55.97 4.27 
-12.39 56.65 4.32 
-12.63 55.30 4.18 
-12.60 56.16 4.26 
-12.80 54.85 4.13 
-13.38 54.76 4.10 
-13.18 55.04 4.14 
-13.72 54.84 4.10 
-14.04 55.00 4.11 
-15.07 55.05 4.08 
-14.88 55.41 4.12 
-15.32 54.90 4.06 
-15.85 54.75 4.03 
-15.73 54.90 4.05 
-17.52 55.18 3.67 
-17.82 55.23 3.85 
-17.68 56.14 3.76 
-18.19 54.96 3.82 
-18.49 55.11 3.65 
-18.78 55.03 3.63 
-19.89 55.17 3.63 
-19.89 55.78 3.68 
-20.17 54.86 3.59 
-20.20 55.10 3.61 
-20.70 54.77 3.57 
-20.55 55.09 3.61 
-21.05 54.74 3.56 
-21.43 49.59 3.42 
-22.37 55.76 3.64 
-22.21 55.98 3.66 
-22.54 55.07 3.57 
-22.48 55.84 3.64 
-22.88 54.75 3.53 
-23.33 54.94 3.55 
-17.49 55.40 4.05 
-17.41 55.96 4.11 
-18.17 55.39 4.03 
-18.68 55.03 3.99 
-19.57 55.43 4.01 
-19.19 55.50 4.02 
-19.79 55.21 3.98 
-20.14 55.18 3.97 
-20.59 55.07 3.95 
-21.51 49.30 3.99 
-22.71 55.31 3.93 
-22.45 55.45 3.95 
-22.67 55.96 3.99 
-22.91 55.07 3.90 
-23.60 55.51 3.93 
-26.43 52.17 3.57 
-26.99 50.78 3.44 
-21.71 49.18 4.35 
