# .PCD v0.7 - Point Cloud Data file format
VERSION 0.7
FIELDS x y z
SIZE 4 4 4
TYPE F F F
COUNT 1 1 1
WIDTH 2476
HEIGHT 1
VIEWPOINT 0 0 0 1 0 0 0
POINTS 2476
DATA ascii
-3.02 -468.93 1.53 
-3.08 -468.43 1.51 
-3.03 -467.87 1.49 
-3.14 -467.37 1.47 
-3.25 -466.85 1.44 
-3.28 -465.85 1.40 
9.64 -479.56 2.95 
9.65 -479.22 2.94 
9.63 -478.77 2.92 
9.64 -478.38 2.90 
9.62 -478.03 2.88 
9.63 -477.55 2.86 
9.62 -477.12 2.84 
9.62 -476.68 2.82 
9.62 -476.34 2.81 
9.61 -475.99 2.79 
9.60 -475.59 2.77 
9.61 -475.16 2.76 
9.60 -474.92 2.75 
9.56 -475.00 2.75 
9.54 -474.67 2.73 
9.57 -474.49 2.73 
9.46 -470.28 1.92 
9.44 -470.01 1.90 
9.45 -469.62 1.88 
9.43 -469.15 1.86 
9.45 -468.92 1.85 
9.42 -466.64 1.73 
9.40 -466.31 1.71 
9.41 -465.82 1.69 
9.41 -465.38 1.66 
9.40 -464.96 1.64 
9.34 -464.69 1.63 
9.39 -464.51 1.62 
9.39 -464.04 1.60 
9.38 -463.58 1.57 
9.72 -479.45 3.45 
9.71 -479.12 3.44 
9.71 -478.65 3.42 
9.60 -478.37 3.40 
9.48 -478.19 3.39 
9.41 -477.82 3.37 
9.40 -477.52 3.36 
9.38 -477.06 3.35 
9.39 -476.64 3.34 
9.35 -476.38 3.33 
9.57 -474.25 2.72 
9.56 -473.88 2.70 
9.56 -473.58 2.69 
9.55 -473.07 2.67 
9.56 -472.74 2.66 
9.55 -472.32 2.65 
9.53 -472.07 2.64 
9.55 -471.57 2.62 
9.52 -471.16 2.60 
9.54 -470.79 2.59 
9.19 -468.34 2.49 
9.13 -467.92 2.48 
9.35 -461.06 1.45 
9.28 -460.74 1.43 
9.34 -460.48 1.42 
9.34 -459.94 1.40 
9.33 -459.36 1.37 
3.00 -455.38 1.04 
2.61 -455.40 1.03 
2.18 -455.40 1.03 
1.77 -455.42 1.02 
1.38 -455.40 1.01 
0.95 -455.44 1.01 
-2.68 -455.47 0.96 
-3.08 -455.49 0.96 
-3.29 -455.38 0.96 
9.51 -479.39 3.92 
9.51 -479.00 3.92 
9.51 -478.61 3.91 
9.51 -478.20 3.90 
9.39 -475.95 3.32 
9.39 -475.47 3.31 
9.37 -475.02 3.30 
9.33 -474.74 3.29 
9.35 -474.32 3.28 
9.29 -474.03 3.27 
9.34 -473.53 3.26 
9.34 -473.11 3.26 
9.18 -467.77 2.47 
9.18 -467.39 2.46 
9.18 -466.98 2.45 
9.14 -466.67 2.44 
9.17 -466.18 2.42 
9.16 -465.76 2.41 
9.15 -465.33 2.40 
9.09 -465.07 2.39 
9.14 -464.88 2.39 
9.14 -464.43 2.37 
9.15 -463.94 2.36 
9.65 -479.52 4.44 
9.51 -477.89 3.90 
9.50 -477.68 3.89 
9.50 -477.37 3.89 
9.49 -477.05 3.89 
9.50 -476.70 3.88 
9.49 -476.26 3.88 
9.49 -475.79 3.88 
9.45 -475.02 3.87 
9.31 -470.39 3.21 
9.32 -469.88 3.20 
9.30 -469.39 3.19 
9.31 -469.03 3.19 
9.25 -470.19 3.20 
9.25 -469.16 3.19 
9.29 -468.68 3.18 
9.27 -468.18 3.18 
9.29 -467.93 3.17 
9.29 -467.55 3.17 
9.30 -467.14 3.17 
9.28 -466.76 3.16 
9.64 -478.54 4.43 
9.64 -477.93 4.44 
9.64 -476.18 4.44 
9.44 -472.93 3.86 
9.43 -472.64 3.86 
9.42 -472.20 3.86 
9.44 -471.76 3.86 
9.40 -471.36 3.86 
9.42 -470.99 3.86 
9.43 -470.51 3.86 
9.37 -470.32 3.86 
9.42 -469.84 3.86 
9.23 -466.50 3.15 
9.29 -466.34 3.16 
9.29 -465.92 3.15 
9.28 -465.50 3.15 
9.28 -465.06 3.14 
9.24 -464.70 3.14 
9.27 -464.14 3.13 
9.26 -463.68 3.13 
9.77 -479.56 4.95 
9.73 -479.24 4.95 
9.77 -478.99 4.96 
9.73 -478.66 4.96 
9.77 -477.98 4.97 
9.76 -477.35 4.98 
9.72 -476.99 4.98 
9.63 -475.35 4.45 
9.64 -474.98 4.45 
9.60 -474.66 4.45 
9.59 -474.20 4.46 
9.59 -473.80 4.46 
9.59 -473.40 4.47 
9.56 -473.04 4.47 
9.58 -472.56 4.48 
9.55 -472.18 4.49 
9.42 -469.50 3.87 
9.41 -469.15 3.87 
9.41 -468.62 3.87 
9.41 -468.07 3.87 
9.37 -467.78 3.87 
9.40 -467.30 3.88 
9.39 -466.92 3.88 
9.40 -466.50 3.88 
9.40 -466.09 3.89 
9.34 -466.26 3.88 
9.24 -461.14 3.11 
9.20 -460.71 3.11 
9.21 -459.83 3.10 
9.76 -476.69 5.00 
9.73 -476.30 5.00 
9.71 -475.61 5.02 
9.85 -474.69 5.06 
9.82 -474.27 5.07 
9.72 -469.01 4.57 
9.58 -471.82 4.50 
9.55 -471.43 4.50 
9.57 -470.90 4.52 
9.56 -470.59 4.52 
9.54 -470.15 4.53 
9.40 -465.67 3.89 
9.40 -465.22 3.90 
9.39 -464.79 3.90 
9.42 -463.88 3.91 
9.33 -464.98 3.89 
9.32 -464.54 3.90 
9.38 -464.33 3.91 
9.79 -473.52 5.09 
9.67 -468.54 4.58 
9.68 -467.99 4.59 
9.64 -467.69 4.60 
9.62 -467.37 4.61 
9.40 -460.84 3.95 
9.85 -468.82 5.27 
9.81 -468.46 5.29 
9.72 -464.61 4.69 
9.67 -464.25 4.70 
9.66 -463.77 4.72 
9.92 -465.95 5.41 
9.89 -465.59 5.43 
9.73 -465.42 5.42 
9.66 -460.71 4.82 
9.62 -460.24 4.83 
9.52 -459.84 4.84 
9.69 -465.05 5.44 
9.62 -464.79 5.44 
9.69 -463.20 5.53 
9.64 -462.82 5.55 
9.55 -459.24 4.86 
9.68 -462.21 5.58 
9.67 -461.70 5.61 
9.68 -461.18 5.64 
9.60 -460.86 5.65 
9.68 -460.07 5.70 
9.67 -458.31 5.80 
9.59 -457.95 5.81 
9.68 -457.67 5.84 
9.59 -457.31 5.85 
-2.10 -466.29 0.01 
-2.25 -466.28 0.01 
-2.98 -479.21 1.23 
-2.97 -478.88 1.20 
-2.50 -466.81 0.06 
-2.60 -466.33 0.02 
-3.00 -478.76 1.19 
-3.02 -478.45 1.16 
-3.02 -478.03 1.12 
-3.03 -477.58 1.08 
-2.97 -466.68 0.05 
-3.56 -477.42 1.06 
-3.63 -477.40 1.06 
-3.15 -466.69 0.05 
-3.41 -466.28 0.01 
-3.22 -466.10 -0.01 
-3.78 -466.66 0.04 
-3.90 -466.29 0.01 
-3.56 -466.19 0.00 
-4.15 -466.19 0.00 
-4.68 -466.28 0.00 
-4.41 -466.14 -0.01 
9.45 -479.50 1.66 
9.45 -479.08 1.63 
9.44 -478.72 1.60 
9.45 -478.27 1.57 
9.82 -468.37 0.83 
9.82 -467.92 0.80 
9.80 -466.67 0.71 
9.74 -466.27 0.68 
9.42 -478.32 1.57 
9.43 -477.87 1.54 
9.43 -477.45 1.51 
9.42 -477.00 1.47 
9.43 -476.66 1.45 
9.41 -476.35 1.42 
9.42 -475.93 1.39 
9.41 -475.47 1.36 
9.40 -474.96 1.32 
9.40 -474.57 1.29 
9.39 -474.16 1.26 
9.40 -473.84 1.23 
9.38 -473.44 1.20 
9.38 -473.10 1.18 
9.37 -472.63 1.14 
9.37 -472.18 1.11 
9.32 -471.92 1.09 
9.36 -471.49 1.06 
9.35 -471.00 1.02 
9.49 -466.26 0.67 
9.28 -466.24 0.67 
9.23 -466.03 0.65 
9.27 -465.55 0.62 
9.25 -465.09 0.58 
9.24 -464.73 0.56 
9.26 -464.09 0.51 
9.24 -463.72 0.49 
9.21 -463.41 0.46 
9.25 -462.92 0.43 
9.17 -462.70 0.41 
9.27 -459.73 0.20 
9.19 -459.38 0.17 
9.20 -458.87 0.13 
-2.12 -466.22 0.56 
-2.94 -479.54 1.62 
-2.94 -479.15 1.60 
-2.95 -478.88 1.58 
-2.95 -478.50 1.56 
-2.56 -466.71 0.59 
-2.71 -466.62 0.58 
-2.99 -478.39 1.42 
-3.01 -478.09 1.40 
-2.99 -477.58 1.36 
-3.02 -477.31 1.34 
-2.95 -466.62 0.58 
-3.13 -466.26 0.55 
-3.15 -465.24 0.48 
-3.32 -464.74 0.44 
-3.55 -463.85 0.38 
-3.49 -456.73 -0.13 
-3.67 -456.21 -0.17 
-3.87 -456.30 -0.16 
9.49 -479.34 2.09 
9.49 -479.01 2.07 
9.48 -478.66 2.05 
9.49 -478.21 2.02 
9.47 -477.85 2.00 
9.47 -477.45 1.97 
9.47 -477.03 1.94 
9.47 -476.69 1.92 
9.31 -476.45 1.90 
9.38 -476.31 1.90 
9.46 -475.90 1.87 
9.46 -475.46 1.85 
9.46 -475.09 1.83 
9.45 -474.69 1.80 
9.45 -474.29 1.78 
9.43 -473.86 1.75 
9.44 -473.45 1.73 
9.43 -473.07 1.71 
9.41 -472.54 1.67 
-2.91 -479.64 1.98 
-2.90 -479.22 1.97 
-2.90 -478.90 1.96 
-2.96 -477.89 1.66 
-2.95 -477.61 1.64 
-2.95 -477.33 1.63 
-2.47 -466.66 1.12 
-2.70 -466.56 1.11 
-2.97 -477.09 1.91 
-2.94 -466.57 1.11 
9.56 -479.41 2.54 
9.55 -478.94 2.51 
9.56 -478.54 2.49 
9.54 -478.26 2.48 
9.54 -477.82 2.46 
9.54 -477.38 2.43 
9.54 -477.04 2.42 
9.53 -476.56 2.39 
9.53 -476.14 2.37 
9.89 -468.53 1.46 
9.88 -468.26 1.45 
9.88 -467.80 1.42 
9.87 -467.35 1.39 
9.88 -467.02 1.38 
9.82 -466.29 1.34 
9.43 -472.21 1.66 
9.40 -471.89 1.64 
9.39 -471.39 1.61 
9.41 -471.02 1.59 
9.39 -470.63 1.56 
9.39 -470.26 1.54 
9.38 -469.84 1.52 
9.43 -466.15 1.32 
9.31 -465.82 1.30 
9.34 -465.40 1.28 
9.34 -465.06 1.26 
9.34 -464.70 1.24 
9.33 -464.33 1.22 
9.28 -464.84 1.24 
9.32 -463.95 1.20 
9.33 -463.55 1.18 
9.32 -463.17 1.16 
9.25 -460.23 1.00 
9.28 -459.67 0.97 
9.24 -459.03 0.94 
0.70 -463.96 1.03 
-2.07 -466.18 1.10 
-2.87 -479.52 2.46 
-2.86 -479.09 2.47 
-2.88 -478.68 2.35 
-2.88 -478.32 2.35 
-2.91 -477.96 2.21 
-2.91 -477.70 2.21 
-2.91 -477.16 2.21 
-2.57 -465.99 1.08 
-3.08 -465.90 1.07 
-3.17 -464.82 1.02 
-3.35 -464.36 1.00 
-3.30 -463.87 0.97 
-3.45 -463.64 0.96 
-3.58 -463.22 0.94 
-3.72 -462.79 0.92 
-3.49 -457.04 0.64 
-3.51 -456.90 0.64 
-3.66 -456.26 0.60 
-3.91 -456.35 0.61 
-4.05 -455.70 0.57 
9.61 -479.31 2.98 
9.60 -478.89 2.97 
9.61 -478.56 2.95 
9.61 -478.15 2.94 
9.61 -477.90 2.93 
9.53 -475.77 2.36 
9.52 -475.39 2.34 
9.51 -474.99 2.32 
9.52 -474.59 2.30 
9.52 -474.18 2.29 
9.49 -474.36 2.29 
9.52 -473.77 2.27 
9.51 -473.34 2.25 
9.51 -472.90 2.23 
9.49 -472.59 2.22 
9.50 -472.20 2.20 
9.47 -471.82 2.19 
9.46 -471.32 2.16 
9.47 -471.03 2.15 
9.46 -470.50 2.13 
9.47 -470.12 2.12 
9.45 -469.72 2.10 
9.46 -469.31 2.09 
9.43 -468.94 2.07 
9.45 -468.59 2.06 
9.45 -468.15 2.04 
9.43 -467.91 2.03 
9.45 -467.38 2.01 
9.42 -466.97 2.00 
9.44 -466.60 1.99 
-2.05 -466.08 1.64 
-2.83 -479.48 2.71 
-2.90 -479.07 2.72 
-2.83 -478.20 2.75 
-2.87 -477.88 2.63 
-2.87 -477.42 2.64 
-2.87 -477.09 2.65 
-2.39 -466.62 1.65 
-2.67 -466.47 1.64 
-2.46 -466.12 1.63 
-3.04 -479.02 2.71 
-2.93 -466.48 1.63 
-3.03 -465.55 1.61 
-3.08 -464.73 1.59 
-3.20 -464.63 1.58 
-3.28 -464.42 1.58 
-3.32 -463.97 1.57 
-3.33 -462.70 1.53 
9.70 -479.27 3.43 
9.60 -477.65 2.92 
9.60 -477.35 2.91 
9.59 -476.95 2.89 
9.60 -476.60 2.88 
9.59 -476.12 2.86 
9.60 -475.68 2.85 
9.58 -475.35 2.84 
9.59 -474.91 2.83 
9.58 -474.51 2.82 
9.58 -474.09 2.80 
9.57 -473.73 2.79 
9.56 -473.27 2.78 
9.58 -473.02 2.78 
9.56 -472.55 2.76 
9.57 -472.10 2.75 
9.56 -471.75 2.74 
9.53 -471.83 2.74 
9.53 -471.30 2.73 
9.54 -470.92 2.72 
9.52 -470.58 2.71 
9.43 -466.25 1.97 
9.44 -465.93 1.96 
9.43 -465.40 1.94 
9.36 -463.51 1.88 
9.40 -462.97 1.86 
9.41 -462.55 1.85 
9.35 -462.31 1.84 
9.30 -460.12 1.76 
9.37 -459.93 1.76 
9.37 -459.45 1.74 
9.36 -458.95 1.73 
9.29 -458.68 1.72 
-2.82 -478.65 3.00 
-2.81 -478.18 3.03 
-2.92 -476.91 2.80 
-3.25 -460.47 1.48 
9.69 -478.86 3.42 
9.69 -478.44 3.41 
9.69 -478.06 3.40 
9.68 -477.77 3.39 
9.68 -477.31 3.38 
9.67 -476.91 3.37 
9.67 -476.50 3.36 
9.66 -476.07 3.36 
9.68 -475.77 3.35 
9.67 -475.29 3.34 
9.65 -474.93 3.34 
9.66 -474.51 3.33 
9.66 -474.19 3.33 
9.65 -473.76 3.32 
9.65 -473.35 3.32 
9.64 -473.03 3.31 
9.54 -470.14 2.71 
9.51 -469.80 2.70 
9.52 -469.34 2.69 
9.52 -468.91 2.68 
9.52 -468.48 2.67 
9.52 -468.02 2.66 
9.51 -467.73 2.66 
9.52 -467.42 2.65 
9.47 -467.01 2.64 
9.49 -465.44 2.62 
9.47 -464.80 2.61 
9.49 -464.36 2.60 
9.77 -479.66 3.90 
9.77 -479.25 3.89 
9.74 -478.86 3.88 
9.58 -478.51 3.86 
9.45 -478.02 3.84 
9.45 -477.61 3.83 
9.45 -477.26 3.83 
9.45 -476.83 3.83 
9.46 -476.55 3.83 
9.65 -472.80 3.31 
9.55 -472.48 3.30 
9.45 -476.10 3.82 
9.44 -475.64 3.82 
9.44 -475.16 3.82 
9.44 -474.76 3.82 
9.44 -474.36 3.82 
9.49 -472.37 3.30 
9.34 -472.06 3.28 
9.37 -471.69 3.28 
9.30 -471.28 3.27 
9.30 -470.89 3.27 
9.29 -470.51 3.27 
9.30 -470.12 3.27 
9.29 -469.72 3.27 
9.29 -469.43 3.27 
9.29 -468.88 3.27 
9.29 -467.99 3.27 
9.49 -463.98 2.60 
9.45 -463.65 2.59 
9.31 -463.54 2.58 
9.24 -463.40 2.58 
9.15 -462.94 2.57 
9.58 -478.16 4.32 
9.57 -477.65 4.32 
9.58 -477.31 4.32 
9.57 -476.90 4.32 
9.59 -476.24 4.33 
9.55 -475.56 4.33 
9.44 -474.05 3.82 
9.44 -473.73 3.82 
9.43 -473.30 3.83 
9.43 -472.86 3.83 
9.42 -472.40 3.83 
9.43 -472.05 3.84 
9.42 -471.82 3.84 
9.39 -471.13 3.84 
9.35 -470.71 3.85 
9.39 -470.36 3.85 
9.36 -469.92 3.86 
9.28 -466.90 3.27 
9.27 -466.40 3.27 
9.26 -465.74 3.27 
9.27 -465.38 3.27 
9.26 -464.85 3.27 
9.26 -464.29 3.28 
9.26 -463.91 3.28 
9.23 -463.59 3.28 
9.26 -463.12 3.28 
9.68 -478.22 4.80 
9.67 -477.92 4.80 
9.67 -477.57 4.80 
9.58 -475.30 4.34 
9.58 -474.71 4.35 
9.57 -473.03 4.38 
9.53 -472.65 4.39 
9.55 -472.35 4.40 
9.53 -471.95 4.40 
9.34 -469.10 3.87 
9.38 -468.86 3.88 
9.37 -468.42 3.88 
9.38 -468.11 3.89 
9.38 -467.67 3.90 
9.37 -467.18 3.91 
9.37 -466.88 3.91 
9.38 -466.55 3.92 
9.33 -465.96 3.93 
9.26 -462.71 3.29 
9.24 -460.52 3.30 
9.24 -460.07 3.31 
9.23 -459.60 3.31 
9.23 -459.10 3.31 
9.69 -476.31 4.83 
9.65 -476.00 4.83 
9.69 -475.75 4.85 
9.69 -474.78 4.87 
9.68 -474.17 4.89 
9.64 -473.82 4.90 
9.67 -473.54 4.91 
9.64 -473.17 4.92 
9.57 -471.62 4.42 
9.52 -471.48 4.42 
9.52 -471.20 4.42 
9.52 -470.82 4.44 
9.51 -470.45 4.45 
9.52 -470.04 4.46 
9.52 -469.64 4.47 
9.51 -469.22 4.49 
9.50 -468.84 4.50 
9.51 -468.35 4.52 
9.36 -465.53 3.94 
9.36 -465.19 3.95 
9.34 -464.90 3.95 
9.37 -464.46 3.97 
9.36 -464.08 3.98 
9.37 -463.68 3.99 
9.35 -463.30 4.00 
9.36 -462.89 4.01 
9.36 -462.48 4.02 
9.31 -463.46 3.99 
9.63 -471.03 5.01 
9.59 -470.62 5.03 
9.64 -470.26 5.05 
9.49 -467.95 4.53 
9.50 -467.61 4.54 
9.49 -467.19 4.56 
9.51 -466.80 4.58 
9.52 -466.31 4.60 
9.48 -466.05 4.60 
9.51 -465.64 4.62 
9.49 -465.30 4.63 
9.51 -464.93 4.65 
9.34 -460.30 4.08 
9.34 -459.83 4.09 
9.34 -459.33 4.11 
9.33 -458.87 4.12 
9.88 -469.17 5.13 
9.66 -464.70 5.37 
9.60 -459.30 4.92 
9.62 -458.78 4.95 
9.61 -459.71 5.69 
9.55 -458.42 5.78 
9.38 -478.63 1.26 
-1.57 -466.39 0.18 
-2.14 -466.45 0.19 
-2.96 -479.55 1.41 
-2.97 -479.20 1.38 
-2.97 -478.82 1.35 
-2.54 -466.91 0.23 
-2.99 -478.71 1.34 
-3.01 -478.36 1.30 
-3.01 -477.95 1.27 
-3.01 -477.72 1.24 
-3.05 -477.38 1.21 
-3.00 -466.85 0.23 
-3.15 -466.51 0.20 
-3.65 -477.49 1.22 
-3.37 -466.42 0.19 
-3.72 -466.73 0.22 
-3.92 -466.52 0.20 
-4.14 -466.31 0.18 
-4.51 -466.23 0.17 
-4.44 -463.91 -0.05 
-7.50 -468.41 0.54 
-7.79 -468.47 0.54 
-8.19 -468.55 0.55 
-8.19 -468.51 0.55 
9.44 -479.44 1.76 
9.44 -479.05 1.73 
9.44 -478.59 1.69 
9.43 -478.22 1.66 
9.43 -477.83 1.63 
9.86 -468.68 0.96 
9.84 -468.28 0.93 
9.82 -467.88 0.90 
9.82 -466.57 0.80 
9.42 -477.85 1.63 
9.41 -477.43 1.60 
9.42 -477.03 1.57 
9.41 -476.61 1.54 
9.40 -476.18 1.51 
9.40 -475.77 1.48 
9.40 -475.42 1.45 
9.39 -475.11 1.43 
9.39 -474.61 1.39 
9.39 -474.12 1.35 
9.38 -473.72 1.32 
9.39 -473.33 1.30 
9.37 -472.98 1.27 
9.36 -472.53 1.24 
9.37 -472.28 1.22 
9.37 -471.85 1.19 
9.34 -471.44 1.15 
9.36 -470.97 1.12 
9.64 -466.48 0.80 
9.29 -466.18 0.77 
9.31 -465.80 0.74 
9.24 -463.72 0.59 
9.28 -463.21 0.56 
9.25 -462.71 0.52 
-2.10 -466.41 0.70 
-2.92 -479.56 1.74 
-2.93 -479.20 1.71 
-2.94 -478.79 1.69 
-2.96 -478.35 1.66 
-2.95 -477.97 1.64 
-2.96 -477.61 1.62 
-2.52 -466.91 0.74 
-2.54 -466.27 0.69 
-2.99 -478.27 1.54 
-2.99 -477.34 1.73 
-2.90 -466.79 0.73 
-3.10 -465.89 0.66 
-3.12 -464.98 0.60 
-3.16 -465.44 0.63 
-3.29 -465.02 0.60 
-3.35 -456.66 0.01 
-3.81 -458.59 0.15 
-3.77 -456.02 -0.04 
9.47 -479.39 2.18 
9.48 -478.99 2.15 
9.48 -478.55 2.12 
9.47 -478.20 2.10 
9.46 -477.79 2.07 
9.47 -477.38 2.05 
9.46 -476.98 2.02 
9.47 -476.56 2.00 
9.46 -476.05 1.96 
9.44 -477.03 2.02 
9.44 -476.52 1.99 
9.45 -476.32 1.98 
9.45 -475.69 1.94 
9.45 -475.35 1.92 
9.44 -475.04 1.90 
9.44 -474.62 1.88 
9.44 -474.24 1.85 
9.43 -473.77 1.83 
9.44 -473.46 1.81 
9.42 -473.04 1.78 
9.43 -472.63 1.76 
9.43 -472.20 1.74 
9.42 -471.76 1.71 
9.39 -471.35 1.69 
-1.94 -466.39 1.22 
-2.08 -466.37 1.21 
-2.88 -479.49 2.16 
-2.88 -479.19 2.16 
-2.90 -478.74 2.03 
-2.91 -478.29 2.02 
-2.92 -477.81 2.01 
-2.92 -477.58 2.00 
-2.64 -466.79 1.23 
-2.87 -466.76 1.22 
-3.04 -466.46 1.21 
-3.05 -465.54 1.17 
-3.11 -465.06 1.14 
-3.26 -464.97 1.14 
9.54 -479.66 2.62 
9.55 -479.36 2.60 
9.54 -478.97 2.58 
9.53 -478.59 2.56 
9.54 -478.17 2.54 
9.53 -477.76 2.52 
9.52 -477.35 2.50 
9.52 -476.91 2.47 
9.52 -476.53 2.46 
9.52 -476.13 2.44 
9.51 -475.68 2.41 
9.52 -475.26 2.40 
9.52 -474.90 2.38 
9.91 -468.55 1.54 
9.92 -468.14 1.52 
9.89 -467.72 1.50 
9.92 -467.30 1.47 
9.90 -467.02 1.46 
9.90 -466.71 1.44 
9.48 -474.68 2.37 
9.43 -470.89 1.66 
9.43 -470.53 1.64 
9.43 -470.17 1.62 
9.40 -469.71 1.59 
9.52 -466.44 1.42 
9.39 -466.15 1.40 
9.35 -465.80 1.38 
9.38 -463.77 1.27 
9.36 -463.42 1.25 
9.37 -463.04 1.23 
9.36 -462.68 1.21 
9.29 -462.45 1.20 
1.42 -464.15 1.15 
1.14 -464.16 1.14 
0.68 -464.15 1.14 
0.27 -464.15 1.13 
0.04 -463.85 1.11 
0.03 -463.21 1.08 
0.04 -462.50 1.05 
-2.82 -479.52 2.70 
-2.84 -479.14 2.60 
-2.87 -478.76 2.49 
-2.87 -478.33 2.38 
-2.86 -477.86 2.51 
-2.90 -477.37 2.39 
-2.90 -477.28 2.26 
-3.06 -464.56 1.12 
-3.24 -464.70 1.12 
-3.29 -463.82 1.08 
-3.44 -463.69 1.07 
-3.59 -463.50 1.06 
-3.65 -459.14 0.86 
-3.80 -456.38 0.73 
-3.96 -455.56 0.69 
-4.16 -455.70 0.69 
9.60 -479.35 3.04 
9.60 -478.83 3.01 
9.59 -478.43 3.00 
9.60 -478.11 2.98 
9.59 -477.76 2.97 
9.59 -477.32 2.95 
9.58 -476.95 2.94 
9.60 -476.66 2.93 
9.51 -474.53 2.36 
9.51 -474.15 2.34 
9.51 -473.76 2.33 
9.51 -473.45 2.31 
9.47 -474.11 2.34 
9.51 -473.26 2.31 
9.49 -473.00 2.29 
9.48 -472.52 2.27 
9.49 -472.10 2.26 
9.48 -471.71 2.24 
9.48 -471.27 2.22 
9.48 -470.93 2.21 
9.51 -470.53 2.19 
9.48 -470.21 2.18 
9.50 -469.79 2.16 
9.49 -469.35 2.15 
9.49 -468.89 2.13 
9.47 -468.56 2.12 
9.38 -468.20 2.10 
9.48 -467.35 2.07 
9.45 -466.98 2.06 
9.47 -466.61 2.05 
9.45 -466.20 2.03 
9.47 -465.66 2.01 
-1.93 -466.30 1.73 
-2.35 -466.83 1.73 
-2.07 -466.28 1.72 
-2.83 -478.97 2.72 
-2.82 -478.71 2.73 
-2.83 -478.25 2.75 
-2.83 -477.90 2.76 
-2.83 -477.40 2.78 
-2.86 -477.16 2.78 
-2.69 -466.68 1.72 
-2.44 -466.48 1.72 
-2.86 -466.68 1.72 
-2.99 -466.14 1.71 
-3.06 -465.07 1.68 
-3.08 -464.89 1.68 
-3.25 -464.89 1.67 
-3.27 -464.31 1.66 
-3.39 -463.29 1.63 
-3.31 -460.53 1.57 
9.68 -479.64 3.48 
9.68 -479.20 3.47 
9.67 -478.80 3.46 
9.68 -478.49 3.45 
9.67 -478.00 3.43 
9.57 -476.46 2.92 
9.58 -476.07 2.91 
9.57 -475.71 2.90 
9.57 -475.24 2.88 
9.58 -474.82 2.87 
9.58 -474.44 2.86 
9.57 -474.06 2.84 
9.56 -473.66 2.83 
9.57 -473.27 2.82 
9.56 -472.91 2.81 
9.57 -472.43 2.80 
9.55 -472.11 2.79 
9.56 -471.77 2.78 
9.55 -471.21 2.77 
9.59 -470.77 2.76 
9.58 -470.42 2.75 
9.58 -469.55 2.73 
9.53 -471.28 2.77 
9.53 -470.96 2.76 
9.55 -470.13 2.74 
9.57 -469.80 2.74 
9.56 -469.30 2.73 
9.39 -462.63 1.91 
-1.91 -466.22 2.24 
-2.26 -466.75 2.24 
-2.04 -466.22 2.24 
-2.74 -479.17 3.17 
-2.74 -478.66 3.21 
-2.79 -477.40 3.04 
-2.60 -466.60 2.23 
-2.39 -466.23 2.23 
-2.85 -466.62 2.23 
-2.94 -465.83 2.22 
-2.97 -465.03 2.22 
-3.18 -456.74 1.48 
9.76 -479.59 3.92 
9.76 -479.23 3.91 
9.75 -478.84 3.90 
9.68 -477.64 3.42 
9.67 -477.29 3.41 
9.67 -476.83 3.40 
9.67 -476.49 3.39 
9.66 -476.08 3.38 
9.66 -475.62 3.37 
9.66 -475.27 3.37 
9.65 -474.83 3.36 
9.67 -474.53 3.36 
9.65 -474.07 3.35 
9.65 -473.57 3.34 
9.65 -473.16 3.34 
9.64 -472.86 3.33 
9.64 -472.54 3.33 
9.63 -472.02 3.32 
9.63 -471.78 3.32 
9.57 -468.90 2.72 
9.53 -468.55 2.71 
9.56 -468.08 2.70 
9.56 -467.65 2.69 
9.55 -467.37 2.69 
9.54 -466.90 2.68 
9.55 -466.47 2.67 
9.53 -466.05 2.66 
9.55 -465.84 2.66 
9.53 -463.26 2.62 
9.55 -479.09 4.32 
9.74 -478.39 3.89 
9.76 -478.02 3.89 
9.75 -477.64 3.88 
9.74 -477.17 3.87 
9.73 -476.83 3.87 
9.57 -476.44 3.85 
9.46 -476.18 3.83 
9.65 -471.55 3.32 
9.62 -471.19 3.31 
9.63 -470.79 3.31 
9.65 -470.33 3.31 
9.64 -470.20 3.31 
9.44 -475.86 3.83 
9.43 -475.68 3.83 
9.42 -475.24 3.83 
9.42 -474.87 3.82 
9.42 -474.32 3.82 
9.42 -473.93 3.82 
9.42 -473.53 3.83 
9.42 -473.13 3.83 
9.48 -470.00 3.30 
9.34 -469.52 3.29 
9.33 -469.27 3.28 
9.33 -468.87 3.28 
9.33 -468.47 3.28 
9.33 -468.18 3.28 
9.53 -462.69 2.61 
9.51 -462.38 2.61 
9.57 -478.64 4.32 
9.55 -476.93 4.31 
9.55 -476.42 4.32 
9.57 -475.90 4.32 
9.56 -475.18 4.33 
9.52 -474.71 4.33 
9.56 -474.46 4.33 
9.41 -472.71 3.83 
9.41 -472.40 3.83 
9.42 -472.06 3.83 
9.41 -471.62 3.84 
9.39 -471.21 3.84 
9.44 -470.74 3.85 
9.44 -469.37 3.86 
9.66 -477.79 4.78 
9.63 -476.53 4.79 
9.67 -475.97 4.81 
9.65 -475.55 4.82 
9.55 -473.49 4.35 
9.51 -473.15 4.35 
9.54 -472.87 4.36 
9.53 -472.25 4.37 
9.58 -470.68 4.42 
9.43 -468.58 3.88 
9.43 -467.59 3.89 
9.43 -467.15 3.90 
9.43 -466.85 3.91 
9.42 -466.40 3.91 
9.42 -465.93 3.92 
9.41 -465.61 3.93 
9.63 -475.13 4.82 
9.63 -474.20 4.85 
9.66 -473.95 4.86 
9.63 -473.61 4.87 
9.66 -472.31 4.92 
9.57 -470.19 4.43 
9.56 -469.95 4.44 
9.57 -469.69 4.45 
9.57 -469.44 4.45 
9.56 -469.19 4.46 
9.57 -468.78 4.47 
9.58 -468.35 4.49 
9.54 -467.95 4.50 
9.57 -467.53 4.52 
9.55 -467.07 4.53 
9.43 -463.52 3.98 
9.42 -463.16 3.99 
9.39 -462.67 4.00 
9.65 -471.65 4.94 
9.64 -471.11 4.96 
9.68 -470.04 5.02 
9.69 -469.27 5.05 
9.56 -466.64 4.55 
9.56 -466.34 4.56 
9.57 -466.00 4.58 
9.54 -465.60 4.59 
9.70 -468.46 5.10 
9.55 -463.13 4.70 
9.80 -465.67 5.26 
9.89 -461.97 5.50 
9.41 -479.41 1.57 
9.40 -479.08 1.54 
9.79 -468.64 0.61 
9.39 -479.37 1.56 
9.39 -478.86 1.52 
9.39 -478.50 1.49 
9.39 -478.11 1.45 
9.39 -477.78 1.43 
9.38 -477.33 1.39 
9.38 -476.92 1.35 
9.35 -474.59 1.14 
9.35 -474.16 1.11 
9.34 -473.84 1.08 
9.35 -473.45 1.04 
9.34 -472.98 1.00 
9.33 -472.54 0.96 
9.31 -471.37 0.86 
9.31 -470.90 0.81 
8.76 -474.38 1.13 
-2.10 -466.66 0.43 
-2.94 -479.58 1.54 
-2.96 -479.25 1.51 
-2.98 -478.28 1.52 
-2.67 -467.10 0.47 
-2.56 -466.76 0.44 
-2.99 -477.96 1.49 
-3.04 -467.05 0.47 
-3.14 -466.74 0.44 
-3.52 -477.78 1.47 
-3.64 -477.72 1.46 
-3.43 -466.80 0.44 
-3.34 -466.56 0.42 
-3.73 -467.02 0.46 
-3.84 -466.62 0.43 
-3.97 -466.55 0.42 
-4.21 -466.53 0.42 
-4.31 -464.27 0.21 
-4.44 -464.23 0.20 
9.46 -479.39 1.98 
9.46 -478.98 1.95 
9.44 -478.58 1.92 
9.45 -478.14 1.88 
9.44 -477.70 1.85 
9.44 -477.33 1.82 
9.44 -476.95 1.79 
9.44 -476.63 1.77 
9.87 -468.92 1.20 
9.87 -468.53 1.17 
9.61 -466.69 1.04 
9.42 -477.44 1.83 
9.42 -476.99 1.80 
9.43 -476.50 1.76 
9.43 -476.17 1.73 
9.42 -475.75 1.70 
9.41 -475.32 1.67 
9.43 -474.92 1.64 
9.41 -474.51 1.61 
9.42 -474.14 1.58 
9.40 -473.73 1.55 
9.41 -473.31 1.52 
9.39 -472.91 1.49 
9.40 -472.53 1.46 
9.39 -472.19 1.44 
9.38 -471.71 1.40 
9.39 -471.30 1.37 
9.36 -470.93 1.34 
9.36 -470.43 1.31 
9.36 -470.29 1.30 
9.36 -466.65 1.03 
-1.99 -466.61 0.92 
-2.14 -466.61 0.91 
-2.92 -479.49 1.91 
-2.91 -479.19 1.89 
-2.94 -478.77 1.87 
-2.95 -478.40 1.84 
-2.96 -477.99 1.82 
-2.94 -477.68 1.91 
-2.63 -467.06 0.94 
-2.93 -467.01 0.94 
-3.09 -466.19 0.88 
-3.10 -465.35 0.82 
-3.16 -464.93 0.79 
-3.34 -465.08 0.80 
-3.22 -457.11 0.24 
-3.77 -456.24 0.18 
-3.49 -455.57 0.13 
9.49 -479.35 2.39 
9.49 -478.94 2.36 
9.50 -478.51 2.33 
9.49 -478.08 2.31 
9.48 -477.69 2.28 
9.48 -477.31 2.26 
9.49 -476.89 2.23 
9.48 -476.50 2.20 
9.48 -476.12 2.18 
9.46 -475.69 2.15 
9.47 -475.28 2.13 
9.47 -474.86 2.10 
9.47 -474.59 2.09 
9.47 -474.24 2.06 
9.43 -474.83 2.10 
9.44 -474.37 2.07 
9.47 -474.06 2.05 
9.46 -473.70 2.03 
9.45 -473.28 2.01 
9.44 -472.84 1.98 
9.45 -472.46 1.96 
9.44 -472.10 1.94 
9.44 -471.64 1.91 
9.43 -471.20 1.88 
9.41 -470.91 1.87 
9.43 -470.53 1.85 
9.41 -470.14 1.82 
-1.99 -466.58 1.39 
-2.13 -466.54 1.39 
-2.87 -479.54 2.29 
-2.87 -479.09 2.28 
-2.90 -478.70 2.27 
-2.90 -478.32 2.27 
-2.89 -477.86 2.37 
-2.93 -477.62 2.14 
-2.65 -467.00 1.41 
-2.46 -466.72 1.39 
-2.93 -466.96 1.40 
-3.03 -466.66 1.39 
-3.04 -465.88 1.35 
-3.04 -464.99 1.31 
-3.23 -465.23 1.32 
-3.28 -464.69 1.29 
-3.24 -464.21 1.27 
-3.42 -463.86 1.25 
-3.64 -463.78 1.24 
-5.74 -456.96 0.47 
-5.60 -456.90 0.47 
-6.08 -457.04 0.47 
-6.55 -457.11 0.48 
-6.89 -457.14 0.48 
-7.23 -457.21 0.48 
-7.80 -457.33 0.49 
-7.58 -457.29 0.48 
-8.14 -457.40 0.49 
-8.47 -457.46 0.49 
9.56 -479.29 2.80 
9.56 -478.87 2.78 
9.55 -478.50 2.76 
9.55 -478.06 2.73 
9.55 -477.63 2.71 
9.55 -477.28 2.69 
9.54 -476.87 2.67 
9.54 -476.47 2.65 
9.55 -476.03 2.63 
9.53 -475.67 2.61 
9.53 -475.28 2.59 
9.53 -474.83 2.57 
9.53 -474.42 2.55 
9.53 -474.07 2.53 
9.52 -473.75 2.52 
9.91 -468.86 1.77 
9.92 -468.58 1.75 
9.72 -466.66 1.64 
9.42 -466.62 1.63 
1.94 -464.37 1.35 
1.40 -464.37 1.34 
0.88 -464.36 1.33 
0.62 -464.37 1.32 
0.21 -464.32 1.32 
0.06 -463.66 1.28 
0.04 -463.06 1.25 
0.05 -462.43 1.22 
0.01 -463.93 1.29 
0.00 -463.36 1.27 
-1.98 -466.50 1.87 
-2.39 -467.03 1.88 
-2.26 -466.49 1.87 
-2.83 -479.45 2.67 
-2.82 -479.06 2.78 
-2.85 -478.54 2.69 
-2.83 -478.05 2.81 
-2.89 -477.51 2.60 
-2.50 -466.97 1.87 
-2.72 -466.90 1.87 
-2.92 -466.89 1.87 
-2.99 -466.41 1.85 
-3.32 -463.63 1.24 
-3.34 -460.73 1.10 
-3.43 -457.10 0.93 
-3.52 -459.72 1.05 
-3.70 -456.68 0.91 
-4.14 -455.81 0.87 
-3.94 -455.64 0.86 
9.61 -479.68 3.24 
9.63 -479.26 3.22 
9.62 -478.85 3.20 
9.62 -478.40 3.18 
9.60 -477.98 3.16 
9.61 -477.66 3.15 
9.61 -477.26 3.13 
9.60 -476.87 3.12 
9.60 -476.44 3.10 
9.60 -476.08 3.09 
9.60 -475.64 3.07 
9.52 -473.32 2.50 
9.52 -472.95 2.48 
9.52 -472.56 2.46 
9.52 -472.15 2.45 
9.52 -471.74 2.43 
9.51 -471.32 2.41 
9.50 -472.31 2.45 
9.48 -471.71 2.43 
9.47 -471.08 2.40 
9.51 -471.00 2.40 
9.51 -470.41 2.37 
9.50 -470.07 2.36 
9.49 -469.71 2.34 
9.49 -469.25 2.33 
9.44 -468.98 2.31 
9.48 -466.90 2.24 
9.44 -466.58 2.22 
-2.80 -479.20 2.97 
-2.79 -478.63 3.11 
-2.80 -478.22 3.03 
-2.81 -477.68 3.06 
-2.83 -477.43 2.95 
-2.98 -465.51 1.83 
-3.10 -464.81 1.81 
-3.31 -464.37 1.80 
-3.47 -463.50 1.78 
-3.36 -460.73 1.71 
9.70 -479.54 3.66 
9.70 -479.13 3.64 
9.69 -478.72 3.63 
9.70 -478.33 3.61 
9.70 -478.03 3.60 
9.70 -477.59 3.59 
9.69 -477.15 3.58 
9.69 -476.83 3.57 
9.68 -476.55 3.56 
9.60 -475.21 3.06 
9.60 -474.87 3.04 
9.60 -474.40 3.03 
9.60 -473.99 3.01 
9.60 -473.62 3.00 
9.59 -473.29 2.99 
9.58 -472.84 2.98 
9.58 -472.38 2.97 
9.59 -472.06 2.96 
9.57 -471.63 2.95 
9.58 -471.22 2.94 
9.58 -470.88 2.93 
9.55 -470.35 2.91 
9.57 -470.08 2.91 
9.57 -469.62 2.90 
9.57 -469.26 2.89 
9.57 -469.01 2.88 
9.53 -468.85 2.88 
-2.32 -466.95 2.35 
-2.06 -466.82 2.35 
-2.61 -466.74 2.34 
-2.91 -466.83 2.34 
-2.93 -466.08 2.34 
-2.94 -465.28 2.33 
-2.95 -464.40 2.33 
-3.02 -464.01 2.33 
-3.22 -457.06 1.62 
9.79 -479.50 4.09 
9.79 -479.22 4.08 
9.78 -479.51 4.09 
9.77 -479.10 4.07 
9.77 -478.82 4.07 
9.77 -478.37 4.05 
9.76 -477.93 4.04 
9.77 -477.59 4.04 
9.70 -476.35 3.55 
9.69 -475.96 3.54 
9.68 -475.67 3.54 
9.68 -475.22 3.53 
9.68 -474.76 3.52 
9.68 -474.42 3.51 
9.67 -473.95 3.50 
9.68 -473.51 3.49 
9.66 -473.19 3.49 
9.67 -472.76 3.48 
9.67 -472.36 3.48 
9.66 -471.95 3.47 
9.67 -471.53 3.47 
9.66 -471.08 3.46 
9.67 -470.76 3.46 
9.56 -466.77 2.84 
9.59 -479.56 4.49 
9.58 -479.02 4.47 
9.58 -478.17 4.46 
9.77 -477.37 4.03 
9.76 -477.14 4.03 
9.76 -476.72 4.02 
9.77 -476.35 4.01 
9.72 -476.03 4.01 
9.53 -475.61 3.98 
9.46 -475.34 3.97 
9.66 -470.30 3.46 
9.67 -469.95 3.45 
9.67 -469.59 3.45 
9.63 -469.27 3.45 
9.44 -475.00 3.96 
9.44 -474.74 3.96 
9.45 -474.39 3.96 
9.45 -474.04 3.96 
9.45 -473.48 3.96 
9.44 -473.11 3.96 
9.44 -472.72 3.96 
9.45 -472.32 3.96 
9.44 -471.91 3.96 
9.52 -469.03 3.44 
9.43 -468.92 3.43 
9.58 -475.55 4.45 
9.57 -475.05 4.45 
9.57 -474.18 4.46 
9.58 -473.62 4.47 
9.44 -471.49 3.96 
9.44 -471.07 3.97 
9.40 -470.81 3.97 
9.43 -470.38 3.97 
9.43 -469.92 3.98 
9.42 -469.46 3.98 
9.70 -477.35 4.91 
9.70 -475.61 4.93 
9.69 -475.11 4.94 
9.68 -474.70 4.94 
9.65 -474.28 4.95 
9.57 -472.67 4.48 
9.55 -472.33 4.48 
9.58 -472.07 4.49 
9.58 -471.44 4.50 
9.56 -470.10 4.53 
9.57 -469.39 4.55 
9.42 -467.14 4.01 
9.68 -473.69 4.97 
9.66 -473.37 4.97 
9.70 -473.12 4.99 
9.65 -472.80 4.99 
9.69 -471.51 5.04 
9.69 -470.86 5.06 
9.57 -468.90 4.57 
9.57 -466.78 4.64 
9.52 -468.74 4.57 
9.55 -467.08 4.63 
9.55 -466.52 4.65 
9.64 -470.50 5.07 
9.64 -470.24 5.08 
9.68 -469.47 5.12 
9.67 -468.74 5.15 
9.74 -466.57 5.27 
9.78 -466.18 5.30 
9.42 -479.68 1.64 
9.43 -479.16 1.59 
9.41 -479.37 1.61 
9.41 -478.94 1.58 
9.40 -478.54 1.54 
9.40 -478.14 1.51 
9.41 -477.67 1.47 
9.39 -477.26 1.44 
9.40 -476.96 1.41 
9.38 -475.39 1.28 
9.37 -474.57 1.21 
9.36 -474.19 1.18 
9.38 -473.68 1.13 
9.37 -473.32 1.10 
9.35 -472.89 1.07 
9.37 -472.59 1.04 
9.37 -472.21 1.01 
9.36 -471.92 0.98 
9.34 -471.36 0.94 
8.70 -474.44 1.20 
-1.33 -467.02 0.59 
-2.93 -479.51 1.62 
-2.95 -479.10 1.58 
-2.96 -478.76 1.54 
-2.60 -467.14 0.60 
-2.51 -466.65 0.56 
-2.97 -467.17 0.60 
-3.09 -466.81 0.57 
-3.39 -466.75 0.57 
-3.69 -467.15 0.60 
-3.84 -466.75 0.57 
-4.16 -466.64 0.56 
-4.29 -466.55 0.55 
-4.33 -464.39 0.35 
-4.46 -464.34 0.35 
9.47 -479.66 2.04 
9.46 -479.21 2.00 
9.46 -478.82 1.98 
9.46 -478.47 1.95 
9.47 -478.13 1.93 
9.46 -477.72 1.90 
9.46 -477.29 1.86 
9.46 -476.93 1.84 
9.91 -469.21 1.30 
9.87 -469.03 1.28 
9.43 -478.04 1.92 
9.43 -477.62 1.89 
9.44 -477.32 1.87 
9.44 -476.80 1.83 
9.44 -476.47 1.80 
9.45 -476.10 1.78 
9.44 -475.70 1.75 
9.44 -475.29 1.72 
9.43 -474.84 1.69 
9.43 -474.47 1.66 
9.43 -474.07 1.63 
9.42 -473.77 1.61 
9.42 -473.30 1.58 
9.43 -472.83 1.55 
9.41 -472.44 1.52 
9.42 -472.07 1.49 
9.40 -471.73 1.47 
9.42 -471.32 1.44 
2.28 -464.54 0.91 
1.82 -464.54 0.91 
1.46 -464.55 0.90 
1.05 -464.54 0.90 
0.58 -464.54 0.90 
-2.90 -479.50 1.94 
-2.91 -479.09 1.92 
-2.93 -478.67 1.85 
-2.92 -478.39 1.90 
-2.92 -477.90 1.97 
-2.74 -467.12 1.05 
-2.97 -477.70 1.96 
-2.99 -467.10 1.05 
-3.04 -466.29 0.99 
-3.09 -465.87 0.97 
-3.11 -465.43 0.94 
-3.11 -465.11 0.91 
-3.24 -464.85 0.90 
-3.25 -463.93 0.84 
-3.28 -463.03 0.78 
-3.28 -457.44 0.41 
-3.44 -457.00 0.38 
-3.72 -457.87 0.43 
9.50 -479.67 2.44 
9.50 -479.28 2.41 
9.50 -478.88 2.39 
9.51 -478.50 2.36 
9.50 -478.09 2.34 
9.50 -477.67 2.31 
9.49 -477.25 2.29 
9.49 -476.81 2.26 
9.49 -476.43 2.24 
9.49 -476.06 2.21 
9.49 -475.66 2.19 
9.49 -475.34 2.17 
9.48 -474.93 2.15 
9.47 -475.62 2.19 
9.48 -475.10 2.16 
9.48 -474.77 2.14 
9.47 -474.41 2.12 
9.48 -474.01 2.09 
9.48 -473.66 2.07 
9.48 -473.30 2.05 
9.46 -472.87 2.03 
9.47 -472.38 2.00 
9.47 -472.00 1.98 
9.46 -471.60 1.96 
9.45 -471.25 1.94 
2.54 -464.47 1.45 
1.74 -464.50 1.44 
1.46 -464.50 1.43 
0.96 -464.49 1.42 
0.63 -464.50 1.42 
0.31 -464.46 1.41 
0.27 -464.05 1.39 
0.23 -463.63 1.38 
-2.35 -467.23 1.50 
-2.01 -466.70 1.48 
-2.85 -479.42 2.39 
-2.86 -479.11 2.39 
-2.89 -478.68 2.29 
-2.89 -478.31 2.28 
-2.89 -477.85 2.28 
-2.73 -467.10 1.49 
-2.42 -466.70 1.48 
-2.92 -467.10 1.49 
-2.99 -466.77 1.48 
-3.00 -466.01 1.44 
-3.05 -465.65 1.43 
-3.09 -465.28 1.41 
-3.21 -464.66 1.38 
-3.44 -464.16 1.36 
-3.43 -463.83 1.35 
-3.73 -464.03 1.35 
-5.68 -456.43 0.58 
-6.04 -456.50 0.59 
-6.49 -456.54 0.59 
-6.94 -456.64 0.59 
-7.29 -456.72 0.60 
-7.62 -456.77 0.60 
-8.07 -456.84 0.60 
-8.47 -456.94 0.61 
9.97 -468.88 1.83 
9.56 -479.61 2.84 
9.57 -479.25 2.82 
9.56 -478.86 2.80 
9.56 -478.45 2.78 
9.55 -478.04 2.75 
9.56 -477.61 2.73 
9.56 -477.18 2.71 
9.55 -476.85 2.69 
9.55 -476.45 2.67 
9.54 -475.99 2.65 
9.55 -475.59 2.63 
9.54 -475.20 2.61 
9.53 -474.76 2.59 
9.55 -474.44 2.58 
9.54 -473.99 2.56 
9.54 -473.58 2.54 
9.53 -473.27 2.53 
9.54 -472.86 2.51 
9.53 -472.59 2.50 
9.95 -469.13 1.84 
9.92 -468.97 1.83 
0.19 -463.22 1.36 
0.15 -462.76 1.34 
-1.93 -466.64 1.94 
-2.34 -467.16 1.95 
-2.80 -479.54 2.91 
-2.82 -478.93 2.85 
-2.84 -478.64 2.67 
-2.85 -478.14 2.58 
-2.83 -477.79 2.79 
-2.92 -477.58 2.59 
-2.72 -467.02 1.94 
-2.40 -466.58 1.93 
-2.91 -467.03 1.93 
-2.95 -466.52 1.92 
-2.96 -465.77 1.91 
-3.08 -465.31 1.90 
-3.34 -459.56 1.16 
-3.27 -457.33 1.07 
-3.41 -456.82 1.04 
-3.60 -456.83 1.04 
-3.75 -456.47 1.03 
-4.03 -455.86 1.00 
10.01 -469.04 2.39 
9.62 -479.60 3.25 
9.62 -479.20 3.23 
9.62 -478.81 3.21 
9.62 -478.39 3.19 
9.62 -478.02 3.18 
9.62 -477.60 3.16 
9.61 -477.23 3.15 
9.61 -476.83 3.13 
9.61 -476.42 3.11 
9.59 -476.04 3.10 
9.60 -475.61 3.08 
9.61 -475.20 3.07 
9.61 -474.79 3.06 
9.61 -474.45 3.05 
9.54 -472.39 2.49 
9.54 -472.10 2.48 
9.54 -471.80 2.47 
9.54 -471.40 2.45 
9.54 -470.99 2.44 
9.93 -468.91 2.38 
9.51 -472.45 2.49 
9.51 -471.86 2.47 
9.52 -471.62 2.46 
9.52 -471.24 2.45 
-1.99 -466.58 2.40 
-2.31 -467.09 2.39 
-2.78 -479.31 3.10 
-2.77 -478.78 3.14 
-2.80 -478.40 2.97 
-2.83 -477.49 3.02 
-2.66 -466.97 2.39 
-2.96 -464.94 1.89 
-3.17 -464.35 1.88 
-3.37 -464.30 1.87 
-3.47 -463.88 1.86 
-3.51 -463.52 1.86 
-3.34 -461.27 1.81 
-3.44 -460.94 1.80 
9.70 -479.54 3.66 
9.69 -479.18 3.65 
9.69 -478.78 3.63 
9.70 -478.37 3.62 
9.69 -477.96 3.60 
9.69 -477.50 3.59 
9.70 -477.20 3.58 
9.69 -476.80 3.57 
9.69 -476.35 3.56 
9.70 -475.92 3.55 
9.70 -475.68 3.54 
9.60 -474.31 3.04 
9.60 -473.96 3.03 
9.61 -473.59 3.02 
9.61 -473.14 3.01 
9.59 -472.83 3.00 
9.59 -472.39 2.99 
9.61 -472.01 2.98 
9.60 -471.62 2.97 
9.58 -471.16 2.96 
9.58 -470.84 2.95 
9.58 -469.44 2.92 
-1.84 -466.58 2.41 
-2.92 -466.33 2.38 
-2.96 -465.93 2.38 
-2.91 -465.53 2.39 
-3.04 -465.08 2.39 
-2.94 -464.79 2.39 
-3.16 -464.30 2.39 
-3.15 -463.24 2.39 
-3.29 -463.33 2.39 
9.78 -479.48 4.08 
9.77 -479.05 4.07 
9.77 -478.65 4.05 
9.77 -478.24 4.04 
9.76 -477.82 4.03 
9.77 -477.49 4.03 
9.76 -477.18 4.02 
9.76 -476.66 4.01 
9.69 -475.45 3.54 
9.68 -475.16 3.53 
9.68 -474.77 3.52 
9.68 -474.37 3.51 
9.68 -473.93 3.51 
9.68 -473.52 3.50 
9.69 -473.14 3.50 
9.67 -472.73 3.49 
9.69 -472.30 3.49 
9.67 -471.90 3.48 
9.68 -471.52 3.48 
9.67 -471.24 3.47 
9.66 -470.78 3.47 
9.57 -479.27 4.46 
9.58 -478.87 4.45 
9.56 -478.06 4.44 
9.76 -476.24 4.00 
9.77 -475.92 4.00 
9.76 -475.57 4.00 
9.77 -475.13 3.99 
9.76 -474.74 3.99 
9.60 -474.32 3.97 
9.64 -469.24 3.46 
9.45 -473.91 3.95 
9.44 -473.57 3.95 
9.44 -473.03 3.95 
9.44 -472.66 3.95 
9.44 -472.28 3.95 
9.44 -471.99 3.96 
9.45 -471.49 3.96 
9.44 -471.09 3.96 
9.40 -470.85 3.96 
9.57 -476.47 4.43 
9.58 -474.72 4.43 
9.57 -474.23 4.44 
9.55 -473.82 4.44 
9.57 -473.17 4.45 
9.57 -472.23 4.47 
9.68 -473.24 4.95 
9.58 -471.64 4.48 
9.55 -469.59 4.53 
9.55 -469.37 4.54 
9.51 -469.22 4.54 
9.65 -472.92 4.95 
9.69 -472.67 4.97 
9.65 -472.36 4.97 
9.69 -471.71 5.00 
9.64 -471.39 5.00 
9.68 -471.11 5.02 
9.65 -470.76 5.03 
9.41 -479.40 1.69 
9.41 -479.03 1.66 
9.40 -478.65 1.63 
9.40 -478.22 1.60 
9.40 -477.79 1.56 
9.40 -477.33 1.52 
9.40 -476.92 1.49 
9.40 -476.52 1.46 
9.40 -476.19 1.43 
9.39 -475.81 1.40 
9.38 -475.38 1.36 
9.39 -474.93 1.33 
9.40 -474.26 1.27 
9.39 -473.79 1.23 
9.37 -473.44 1.20 
9.38 -473.05 1.17 
9.37 -471.66 1.05 
8.74 -474.48 1.30 
-1.28 -467.05 0.73 
-2.94 -478.74 1.69 
-2.95 -478.54 1.59 
-2.95 -478.12 1.55 
-2.58 -467.25 0.76 
-2.50 -466.66 0.70 
-2.90 -467.17 0.75 
-3.10 -466.80 0.72 
-3.14 -466.64 0.70 
-3.51 -477.91 1.53 
-3.41 -466.72 0.71 
-3.81 -466.80 0.72 
-3.90 -466.67 0.71 
-4.05 -466.70 0.71 
-4.23 -466.58 0.70 
-4.28 -464.37 0.51 
-4.41 -464.33 0.50 
-7.83 -460.15 0.13 
-8.12 -460.36 0.15 
9.46 -479.34 2.08 
9.45 -478.91 2.05 
9.45 -478.54 2.02 
9.45 -478.18 2.00 
9.46 -477.79 1.97 
9.46 -477.53 1.95 
9.44 -478.08 1.99 
9.44 -477.69 1.96 
9.45 -477.33 1.93 
9.45 -476.99 1.91 
9.45 -476.59 1.88 
9.45 -476.18 1.85 
9.45 -475.74 1.82 
9.45 -475.41 1.80 
9.44 -475.01 1.77 
9.44 -474.55 1.74 
9.44 -474.16 1.71 
9.44 -473.77 1.68 
9.42 -473.37 1.65 
9.42 -473.04 1.63 
9.40 -471.58 1.53 
2.22 -464.56 1.01 
1.74 -464.56 1.00 
1.37 -464.56 1.00 
1.02 -464.55 1.00 
0.56 -464.55 1.00 
-2.92 -478.80 2.01 
-2.93 -478.61 1.92 
-2.93 -478.04 1.88 
-2.68 -467.11 1.16 
-2.95 -467.13 1.16 
-3.01 -466.45 1.12 
-3.02 -465.78 1.07 
-3.11 -465.23 1.04 
-3.22 -465.37 1.05 
-3.25 -464.81 1.01 
-3.50 -464.51 0.99 
-3.23 -463.70 0.94 
-3.13 -456.93 0.49 
-3.86 -456.43 0.46 
-3.97 -457.93 0.56 
9.49 -479.30 2.47 
9.49 -478.88 2.44 
9.50 -478.52 2.42 
9.50 -478.14 2.39 
9.50 -477.75 2.37 
9.49 -477.36 2.34 
9.49 -476.96 2.32 
9.49 -476.54 2.29 
9.49 -476.17 2.27 
9.49 -475.74 2.24 
9.49 -475.32 2.22 
9.49 -474.95 2.20 
9.47 -475.43 2.22 
9.48 -474.96 2.20 
9.49 -474.49 2.17 
9.48 -474.14 2.15 
9.49 -473.70 2.12 
9.48 -473.29 2.10 
9.46 -472.98 2.08 
9.44 -471.51 2.00 
3.99 -464.53 1.53 
3.28 -464.53 1.52 
3.03 -464.52 1.52 
2.27 -464.53 1.51 
1.82 -464.51 1.50 
0.99 -464.51 1.49 
0.36 -464.49 1.48 
0.36 -464.01 1.46 
0.36 -463.55 1.44 
0.35 -463.08 1.42 
-1.90 -466.71 1.56 
-2.35 -467.23 1.58 
-2.03 -466.72 1.56 
-2.10 -466.56 1.55 
-2.86 -478.83 2.48 
-2.88 -477.94 2.31 
-2.89 -477.68 2.39 
-2.67 -467.10 1.57 
-2.44 -466.78 1.56 
-2.94 -467.10 1.57 
-2.98 -466.91 1.56 
-2.98 -466.28 1.53 
-2.98 -465.58 1.50 
-3.17 -465.13 1.48 
-2.99 -464.90 1.48 
-3.18 -464.31 1.45 
-3.23 -464.71 1.47 
-3.32 -464.25 1.45 
-3.41 -463.94 1.43 
-3.51 -463.59 1.42 
-3.66 -463.78 1.42 
-5.90 -457.82 0.81 
-6.22 -457.87 0.81 
-6.53 -457.89 0.81 
-6.83 -457.89 0.81 
-7.25 -457.92 0.81 
-7.66 -457.98 0.82 
-8.07 -458.00 0.82 
-8.48 -458.07 0.82 
9.55 -479.28 2.86 
9.55 -478.86 2.84 
9.55 -478.48 2.82 
9.55 -478.10 2.79 
9.55 -477.71 2.77 
9.55 -477.30 2.75 
9.56 -476.89 2.73 
9.55 -476.53 2.71 
9.55 -476.11 2.69 
9.55 -475.74 2.67 
9.55 -475.33 2.65 
9.55 -474.93 2.63 
9.54 -474.54 2.61 
9.55 -474.11 2.59 
9.54 -473.75 2.58 
9.54 -473.30 2.56 
9.54 -472.90 2.54 
-1.95 -466.66 1.98 
-2.34 -467.16 1.99 
-2.78 -478.97 2.94 
-2.80 -478.87 2.82 
-2.79 -478.53 2.89 
-2.82 -478.01 2.74 
-2.62 -467.04 1.98 
-2.88 -467.04 1.98 
-2.93 -466.65 1.97 
-2.93 -466.02 1.96 
-3.05 -465.24 1.94 
-3.12 -464.78 1.93 
-3.17 -464.27 1.92 
-3.34 -464.42 1.92 
-3.41 -463.88 1.91 
-3.27 -460.76 1.30 
-3.38 -459.67 1.25 
-3.39 -456.88 1.13 
-3.48 -456.58 1.12 
-3.62 -456.37 1.11 
-3.61 -455.94 1.09 
-3.77 -455.66 1.08 
-4.01 -455.95 1.09 
9.61 -479.69 3.29 
9.60 -479.32 3.27 
9.61 -478.89 3.24 
9.61 -478.43 3.22 
9.60 -478.08 3.20 
9.61 -477.69 3.19 
9.61 -477.29 3.17 
9.61 -476.89 3.15 
9.60 -476.44 3.13 
9.60 -476.02 3.11 
9.61 -475.72 3.10 
9.60 -475.32 3.09 
9.61 -474.93 3.07 
9.61 -474.51 3.06 
9.61 -474.09 3.04 
9.60 -473.68 3.03 
9.60 -473.30 3.02 
-1.95 -466.59 2.41 
-2.27 -467.13 2.40 
-2.76 -477.67 3.11 
-2.62 -466.99 2.40 
-2.86 -466.99 2.39 
-2.89 -466.47 2.40 
-2.89 -465.79 2.40 
-2.99 -465.15 2.40 
-3.13 -464.91 2.40 
-3.50 -463.13 1.90 
-3.38 -461.06 1.86 
-3.42 -460.71 1.85 
-3.45 -459.78 1.83 
-3.47 -459.69 1.83 
-3.33 -457.01 1.78 
-3.49 -456.87 1.78 
9.69 -479.63 3.68 
9.68 -479.27 3.67 
9.69 -478.89 3.65 
9.69 -478.46 3.63 
9.68 -478.03 3.61 
9.69 -477.57 3.60 
9.68 -477.17 3.58 
9.68 -476.76 3.57 
9.69 -476.43 3.56 
9.69 -476.08 3.55 
9.69 -475.65 3.53 
9.68 -475.18 3.52 
9.69 -474.82 3.51 
9.69 -474.49 3.50 
9.69 -474.13 3.50 
9.60 -472.83 3.00 
9.60 -471.49 2.97 
-2.56 -466.90 2.82 
-2.84 -466.87 2.81 
-2.87 -466.37 2.82 
-3.16 -464.19 2.40 
-3.15 -463.22 2.40 
-3.00 -460.80 2.41 
-3.65 -456.70 1.77 
9.76 -479.62 4.09 
9.76 -479.25 4.07 
9.77 -478.87 4.06 
9.77 -478.43 4.04 
9.76 -478.00 4.03 
9.76 -477.61 4.02 
9.77 -477.26 4.01 
9.76 -476.86 4.00 
9.77 -476.44 3.99 
9.77 -475.99 3.98 
9.77 -475.55 3.97 
9.77 -475.20 3.97 
9.76 -474.98 3.96 
9.69 -473.90 3.49 
9.69 -473.64 3.49 
9.68 -473.34 3.48 
9.68 -472.82 3.47 
9.70 -471.38 3.45 
9.60 -479.24 4.46 
9.55 -478.50 4.43 
9.57 -477.72 4.41 
9.55 -477.20 4.40 
9.56 -476.65 4.39 
9.56 -476.24 4.39 
9.76 -474.73 3.96 
9.75 -474.34 3.95 
9.77 -473.96 3.95 
9.75 -473.62 3.95 
9.76 -473.15 3.95 
9.75 -472.82 3.94 
9.58 -474.61 4.38 
9.57 -473.34 4.39 
9.68 -474.98 4.84 
9.66 -471.35 4.91 
9.39 -479.33 1.84 
9.39 -478.91 1.81 
9.38 -478.52 1.78 
9.39 -478.12 1.75 
9.38 -477.70 1.72 
9.38 -477.36 1.69 
9.38 -476.94 1.65 
0.32 -464.89 0.72 
-1.23 -467.34 0.94 
-1.32 -467.30 0.94 
-2.66 -467.49 0.96 
-2.57 -467.26 0.94 
-3.00 -467.46 0.96 
-3.08 -467.08 0.92 
-3.19 -467.03 0.92 
-3.41 -467.22 0.94 
-3.40 -466.92 0.91 
-3.75 -467.23 0.94 
-3.94 -466.91 0.91 
-4.28 -466.87 0.91 
-4.17 -464.64 0.71 
-4.57 -466.89 0.91 
-5.54 -459.94 0.31 
-5.75 -460.05 0.32 
-6.23 -460.38 0.34 
-6.81 -460.66 0.37 
-6.60 -460.57 0.36 
-6.99 -460.81 0.38 
-7.45 -461.14 0.41 
-7.89 -461.46 0.44 
-7.75 -461.34 0.43 
-8.21 -461.69 0.46 
9.44 -479.66 2.25 
9.44 -479.29 2.22 
9.44 -478.95 2.20 
9.44 -478.47 2.17 
9.45 -477.98 2.13 
9.43 -479.31 2.23 
9.43 -478.84 2.19 
9.43 -478.47 2.17 
9.43 -478.20 2.15 
9.44 -477.67 2.11 
9.44 -477.23 2.08 
9.43 -476.98 2.06 
9.29 -458.48 0.80 
9.32 -458.21 0.78 
9.32 -457.82 0.76 
9.02 -459.81 0.89 
9.03 -459.39 0.86 
2.10 -464.85 1.18 
1.78 -464.85 1.18 
1.33 -464.85 1.18 
0.94 -464.85 1.18 
0.65 -464.84 1.18 
0.38 -463.31 1.08 
0.30 -464.82 1.17 
0.28 -464.43 1.15 
0.28 -463.15 1.07 
0.24 -462.88 1.05 
-2.03 -467.02 1.31 
-2.41 -467.55 1.34 
-2.20 -467.19 1.32 
-2.13 -467.01 1.31 
-2.72 -467.42 1.33 
-2.57 -467.28 1.32 
-2.95 -467.42 1.33 
-3.04 -467.28 1.32 
-3.15 -466.66 1.28 
-3.32 -467.52 1.34 
-3.64 -467.38 1.33 
-3.52 -466.78 1.29 
-3.30 -461.11 0.93 
-3.51 -459.00 0.79 
-3.84 -466.92 1.30 
-3.91 -464.59 1.15 
-4.01 -463.23 1.06 
-3.74 -459.13 0.80 
-4.10 -464.85 1.17 
-4.13 -459.07 0.80 
-4.27 -458.32 0.75 
9.47 -479.61 2.63 
9.47 -479.22 2.60 
9.47 -478.83 2.58 
9.47 -478.41 2.55 
9.47 -478.05 2.52 
9.47 -477.63 2.50 
9.47 -477.20 2.47 
9.47 -476.89 2.45 
4.61 -464.81 1.69 
3.93 -464.80 1.68 
3.25 -464.80 1.67 
2.97 -464.83 1.67 
2.17 -464.82 1.65 
1.40 -464.83 1.64 
0.93 -464.81 1.64 
0.52 -464.78 1.63 
0.48 -463.46 1.57 
0.38 -463.28 1.56 
0.34 -464.24 1.60 
0.34 -462.95 1.55 
-1.90 -467.00 1.70 
-2.35 -467.53 1.72 
-2.23 -467.18 1.70 
-2.78 -467.40 1.71 
-2.60 -467.38 1.71 
-2.48 -466.95 1.69 
-2.94 -467.39 1.71 
-2.99 -467.06 1.69 
-3.02 -466.35 1.66 
-3.00 -465.91 1.65 
-3.20 -465.65 1.63 
-3.11 -465.17 1.61 
-3.25 -464.63 1.59 
-3.24 -464.44 1.58 
-3.21 -461.62 1.47 
-3.41 -464.66 1.59 
-3.59 -464.22 1.57 
-3.46 -464.11 1.57 
-3.29 -461.27 1.45 
-3.73 -464.11 1.57 
-5.97 -457.23 0.93 
-6.27 -457.24 0.93 
-6.58 -457.23 0.93 
-7.09 -457.31 0.94 
-7.60 -457.41 0.94 
-7.39 -457.36 0.94 
-7.90 -457.43 0.95 
-8.32 -457.48 0.95 
9.53 -479.57 3.01 
9.53 -479.21 2.99 
9.53 -478.81 2.96 
9.53 -478.40 2.94 
9.53 -478.00 2.92 
9.53 -477.66 2.90 
9.53 -477.28 2.88 
9.53 -476.95 2.86 
9.40 -459.53 1.53 
9.40 -459.18 1.52 
9.39 -458.81 1.50 
9.39 -458.44 1.48 
9.38 -458.08 1.47 
9.40 -457.66 1.45 
0.48 -464.75 2.08 
0.30 -464.76 2.08 
0.16 -463.92 2.06 
0.11 -463.68 2.06 
-1.89 -466.97 2.09 
-2.02 -466.95 2.09 
-2.31 -467.47 2.09 
-2.41 -467.06 2.08 
-2.73 -467.34 2.08 
-2.95 -467.35 2.08 
-2.95 -466.86 2.07 
-2.96 -466.34 2.06 
-3.01 -466.05 2.06 
-3.06 -465.56 2.05 
-2.97 -465.12 2.04 
-3.15 -464.68 2.03 
-3.20 -464.27 2.02 
-3.10 -457.22 1.29 
-3.37 -464.40 2.02 
-3.44 -463.98 2.01 
-3.51 -463.54 2.01 
-3.31 -460.06 1.40 
-3.30 -457.36 1.29 
-3.44 -456.95 1.27 
-3.61 -457.00 1.28 
-3.84 -456.37 1.25 
-4.09 -456.32 1.25 
9.58 -479.56 3.40 
9.59 -479.20 3.38 
9.59 -478.80 3.36 
9.58 -478.36 3.33 
9.58 -477.99 3.32 
9.59 -477.62 3.30 
9.59 -477.24 3.28 
9.59 -476.89 3.26 
-1.94 -466.91 2.48 
-2.30 -467.42 2.47 
-2.39 -467.08 2.47 
-2.36 -466.89 2.47 
-2.72 -467.30 2.46 
-2.92 -466.72 2.46 
-2.94 -466.27 2.46 
-2.96 -465.81 2.47 
-3.00 -465.59 2.47 
-3.15 -465.12 2.47 
-3.21 -464.28 2.47 
-3.17 -457.74 1.90 
-3.26 -465.31 2.46 
-3.27 -464.74 2.47 
-3.29 -463.96 2.47 
-3.46 -461.36 1.97 
-3.32 -461.29 1.97 
-3.47 -460.78 1.96 
-3.32 -457.46 1.90 
-3.45 -457.20 1.89 
-3.61 -457.09 1.89 
-3.69 -456.84 1.88 
9.66 -479.59 3.80 
9.66 -479.19 3.78 
9.67 -478.80 3.76 
9.66 -478.39 3.74 
9.66 -477.97 3.72 
9.67 -477.59 3.70 
9.67 -477.21 3.69 
9.66 -476.88 3.67 
9.48 -459.37 2.19 
9.48 -459.01 2.18 
9.41 -458.43 2.17 
9.44 -457.17 2.13 
9.48 -456.67 2.12 
9.47 -456.27 2.11 
9.47 -455.82 2.10 
9.41 -455.55 2.09 
9.47 -455.38 2.09 
9.46 -454.93 2.08 
-2.01 -467.17 2.86 
-2.01 -466.90 2.87 
-2.30 -467.34 2.85 
-2.40 -467.07 2.86 
-2.71 -467.23 2.85 
-2.87 -466.46 2.86 
-2.91 -466.19 2.87 
-2.87 -465.91 2.88 
-2.92 -465.59 2.88 
-2.87 -465.29 2.89 
-2.89 -464.71 2.91 
-2.95 -464.41 2.92 
-3.08 -460.78 2.49 
-3.13 -460.01 2.49 
-3.43 -463.57 2.47 
9.74 -479.53 4.19 
9.74 -479.11 4.17 
9.74 -478.69 4.15 
9.74 -478.32 4.14 
9.75 -477.91 4.12 
9.75 -477.50 4.11 
9.75 -477.10 4.10 
9.75 -476.79 4.09 
9.54 -458.51 2.86 
-3.08 -457.84 2.50 
9.86 -479.66 4.61 
9.83 -479.45 4.60 
9.77 -478.98 4.57 
9.77 -478.84 4.56 
9.60 -478.03 4.51 
9.54 -477.49 4.49 
9.54 -476.91 4.47 
9.53 -476.79 4.47 
9.55 -458.12 2.86 
9.55 -457.74 2.86 
9.52 -457.22 2.85 
9.55 -456.92 2.85 
9.55 -456.52 2.85 
9.52 -455.97 2.84 
9.51 -455.54 2.84 
9.54 -455.22 2.84 
9.54 -454.76 2.84 
9.65 -479.20 4.96 
9.33 -459.53 3.52 
9.33 -459.18 3.52 
9.30 -458.69 3.53 
9.33 -458.43 3.53 
9.33 -458.05 3.54 
9.31 -457.53 3.54 
9.32 -457.26 3.55 
9.34 -456.84 3.56 
9.33 -456.43 3.56 
9.30 -455.86 3.57 
9.33 -455.55 3.57 
9.32 -455.11 3.58 
9.44 -459.68 4.19 
9.44 -459.33 4.20 
9.44 -458.96 4.21 
9.41 -458.68 4.21 
9.44 -458.23 4.23 
9.44 -457.84 4.24 
9.43 -457.45 4.26 
9.40 -457.12 4.27 
9.44 -456.63 4.28 
9.44 -456.21 4.30 
9.57 -459.45 4.88 
9.58 -459.08 4.90 
9.41 -455.85 4.31 
9.40 -455.42 4.32 
9.44 -454.85 4.35 
9.69 -456.17 5.06 
9.65 -455.89 5.07 
9.55 -458.61 4.92 
9.58 -458.34 4.93 
9.59 -457.96 4.95 
9.56 -457.46 4.98 
9.59 -457.17 5.00 
9.58 -456.76 5.02 
9.70 -455.73 5.08 
9.70 -455.29 5.11 
9.82 -455.04 5.89 
9.40 -479.66 1.99 
0.26 -464.77 0.86 
-1.18 -467.43 1.08 
-1.29 -467.41 1.08 
-1.43 -467.10 1.05 
-2.66 -467.57 1.09 
-2.96 -467.53 1.09 
-3.10 -467.12 1.06 
-3.37 -467.15 1.06 
-3.73 -467.43 1.08 
-3.90 -467.04 1.05 
-4.24 -466.99 1.04 
-4.19 -464.69 0.85 
-4.34 -463.31 0.73 
-4.25 -463.21 0.73 
-4.48 -466.38 1.16 
-5.49 -459.77 0.43 
-5.79 -459.97 0.45 
-6.18 -460.23 0.47 
-6.72 -460.56 0.50 
-6.56 -460.45 0.49 
-7.04 -460.76 0.51 
-7.42 -461.04 0.54 
-7.90 -461.37 0.56 
-7.67 -461.22 0.55 
-8.35 -461.71 0.59 
-8.15 -461.59 0.58 
9.45 -479.66 2.37 
9.38 -463.04 1.27 
9.39 -462.78 1.25 
9.48 -462.35 1.22 
9.47 -461.90 1.19 
9.49 -461.47 1.17 
9.45 -461.08 1.14 
9.37 -460.71 1.12 
9.35 -460.39 1.10 
9.33 -460.10 1.08 
9.35 -458.71 0.99 
9.31 -458.26 0.96 
9.09 -459.94 1.07 
9.07 -459.47 1.04 
4.13 -464.95 1.34 
3.70 -464.95 1.33 
2.51 -464.94 1.32 
2.15 -464.95 1.32 
1.79 -464.94 1.32 
1.35 -464.94 1.31 
0.88 -464.93 1.31 
0.49 -464.93 1.31 
0.34 -464.93 1.31 
0.32 -464.62 1.29 
0.34 -463.40 1.21 
-2.01 -467.14 1.43 
-2.37 -467.63 1.45 
-2.42 -467.23 1.43 
-2.69 -467.52 1.45 
-2.98 -467.43 1.44 
-3.04 -467.06 1.42 
-3.01 -466.84 1.40 
-3.02 -465.79 1.34 
-3.41 -467.56 1.44 
-3.36 -466.88 1.40 
-3.27 -463.91 1.22 
-3.31 -461.67 1.09 
-3.46 -459.17 0.93 
-3.67 -467.40 1.43 
-3.70 -466.96 1.41 
-3.81 -464.81 1.28 
-3.96 -463.28 1.18 
-3.85 -463.25 1.18 
-3.79 -459.21 0.93 
-4.16 -459.15 0.93 
9.46 -479.54 2.74 
4.29 -464.94 1.81 
3.64 -464.92 1.80 
2.42 -464.90 1.77 
2.15 -464.92 1.77 
1.78 -464.92 1.76 
1.35 -464.91 1.75 
0.92 -464.91 1.75 
0.49 -464.91 1.74 
0.59 -463.40 1.68 
0.36 -464.52 1.72 
0.36 -463.35 1.68 
0.31 -463.11 1.67 
-2.01 -467.10 1.79 
-2.39 -467.51 1.80 
-2.40 -467.15 1.79 
-2.72 -467.48 1.80 
-3.02 -467.46 1.79 
-2.98 -467.17 1.78 
-2.98 -466.70 1.76 
-2.98 -466.20 1.75 
-3.05 -465.66 1.72 
-3.09 -465.32 1.71 
-3.18 -464.75 1.69 
-3.33 -464.72 1.69 
-3.56 -464.35 1.67 
-3.26 -461.17 1.55 
-3.27 -460.15 1.51 
-6.26 -458.28 1.12 
-6.62 -458.29 1.12 
-7.05 -458.30 1.12 
-7.43 -458.34 1.12 
-7.78 -458.36 1.12 
-8.19 -458.39 1.12 
9.53 -479.62 3.12 
9.45 -462.93 1.84 
9.41 -462.72 1.83 
9.44 -462.37 1.81 
9.41 -461.94 1.79 
9.43 -461.51 1.78 
9.39 -461.12 1.76 
9.42 -460.59 1.73 
9.42 -460.27 1.72 
9.43 -459.93 1.71 
9.42 -459.62 1.69 
9.42 -459.10 1.67 
9.35 -458.73 1.65 
9.42 -458.22 1.63 
1.72 -464.86 2.20 
0.99 -464.86 2.18 
0.17 -464.23 2.15 
0.17 -462.98 2.13 
-2.00 -467.05 2.16 
-2.36 -467.56 2.16 
-2.37 -467.00 2.15 
-2.71 -467.44 2.15 
-2.96 -467.38 2.15 
-2.94 -466.52 2.13 
-3.03 -465.84 2.12 
-2.95 -465.46 2.12 
-3.12 -465.06 2.11 
-3.14 -464.51 2.10 
-3.20 -464.25 2.09 
-3.04 -457.37 1.41 
-3.40 -464.15 2.09 
-3.49 -463.55 2.08 
-3.24 -457.53 1.41 
-3.47 -457.04 1.39 
-3.76 -456.56 1.37 
-3.99 -456.44 1.37 
9.58 -479.59 3.51 
9.50 -463.09 2.43 
9.49 -462.67 2.42 
9.50 -462.25 2.41 
9.48 -461.87 2.39 
9.51 -461.52 2.39 
9.49 -460.96 2.37 
9.50 -460.76 2.37 
9.50 -460.28 2.35 
9.45 -459.91 2.34 
-1.91 -467.01 2.53 
-2.29 -467.48 2.69 
-2.65 -467.36 2.69 
-2.92 -466.98 2.51 
-2.91 -466.37 2.51 
-3.01 -465.75 2.51 
-2.95 -465.54 2.52 
-3.16 -464.99 2.52 
-3.31 -464.79 2.51 
-3.34 -463.82 2.52 
-3.39 -461.08 2.04 
-3.45 -460.32 2.03 
-3.29 -457.83 2.00 
-3.36 -457.31 1.99 
-3.48 -457.08 1.98 
-3.74 -457.22 1.98 
-3.81 -456.44 1.97 
9.65 -479.54 3.89 
9.51 -459.45 2.33 
9.47 -459.02 2.32 
9.49 -458.78 2.32 
9.49 -458.42 2.31 
9.50 -457.86 2.29 
9.47 -457.39 2.28 
9.48 -456.93 2.27 
9.49 -456.52 2.26 
9.45 -456.21 2.25 
9.49 -455.71 2.24 
9.47 -455.31 2.23 
9.48 -454.86 2.22 
-1.85 -466.96 2.90 
-2.31 -467.14 2.88 
-2.67 -467.27 3.23 
-2.85 -467.10 3.23 
-2.90 -466.93 2.87 
-2.87 -466.68 2.88 
-2.86 -466.14 2.90 
-2.87 -465.62 2.91 
-2.96 -465.32 2.92 
-3.07 -464.81 2.93 
-3.15 -464.67 2.93 
-3.11 -463.73 2.96 
-3.13 -461.26 2.54 
-3.14 -459.28 2.56 
-3.27 -461.20 2.54 
9.73 -479.46 4.28 
9.58 -462.96 3.01 
9.59 -462.69 3.01 
9.58 -462.27 3.01 
9.64 -461.76 3.01 
9.62 -461.49 3.00 
9.60 -461.22 3.00 
9.57 -460.95 3.00 
9.56 -460.64 2.99 
9.57 -460.31 2.99 
9.56 -460.01 2.99 
9.51 -457.70 2.97 
9.56 -457.55 2.98 
-3.05 -457.41 2.58 
9.83 -479.60 4.70 
9.82 -479.49 4.69 
9.68 -462.81 3.61 
9.65 -462.60 3.61 
9.67 -462.27 3.61 
9.60 -461.83 3.61 
9.56 -457.18 2.98 
9.55 -456.78 2.97 
9.52 -456.26 2.97 
9.56 -455.97 2.97 
9.55 -455.57 2.97 
9.55 -455.14 2.97 
9.56 -454.70 2.97 
9.28 -460.08 3.61 
9.34 -459.80 3.62 
9.33 -459.30 3.62 
9.27 -459.09 3.62 
9.33 -458.60 3.63 
9.34 -458.23 3.64 
9.33 -457.88 3.64 
9.34 -457.48 3.65 
9.32 -457.12 3.65 
9.30 -456.59 3.66 
9.33 -456.31 3.67 
9.34 -455.90 3.67 
