# .PCD v0.7 - Point Cloud Data file format
VERSION 0.7
FIELDS x y z
SIZE 4 4 4
TYPE F F F
COUNT 1 1 1
WIDTH 2449
HEIGHT 1
VIEWPOINT 0 0 0 1 0 0 0
POINTS 2449
DATA ascii
7.15 -444.41 4.82 
6.55 -448.20 5.00 
6.60 -447.48 5.16 
6.62 -444.64 5.04 
6.65 -444.54 5.03 
6.74 -442.79 5.05 
6.95 -442.26 4.95 
7.04 -442.08 4.95 
6.10 -448.16 4.99 
6.25 -447.43 5.15 
6.54 -445.09 4.84 
6.48 -444.92 4.83 
5.75 -448.11 4.98 
5.63 -447.41 5.14 
6.19 -444.20 4.79 
6.04 -443.83 4.92 
6.15 -443.72 4.92 
5.40 -447.39 5.13 
5.46 -443.36 4.73 
5.79 -441.55 4.89 
5.10 -447.34 5.12 
5.02 -444.76 4.79 
5.36 -444.42 5.10 
5.05 -443.72 4.74 
5.07 -443.52 4.73 
5.42 -442.09 4.90 
5.03 -443.48 4.73 
4.72 -443.00 4.70 
4.16 -447.93 4.95 
4.33 -447.28 5.10 
3.84 -447.89 4.94 
3.80 -447.24 5.09 
3.44 -447.22 5.08 
2.31 -447.72 5.08 
1.63 -447.63 5.06 
1.34 -447.62 5.05 
1.36 -447.05 5.03 
1.38 -447.04 5.03 
0.94 -447.56 5.04 
0.84 -446.97 5.02 
0.65 -447.53 5.04 
0.64 -446.98 5.02 
0.15 -447.47 4.88 
0.08 -446.95 5.00 
-0.23 -447.43 4.88 
-3.79 -452.03 5.27 
-3.77 -451.71 5.25 
-3.74 -451.34 5.23 
-3.72 -451.12 5.22 
-4.21 -452.81 5.22 
-4.12 -452.60 5.29 
-3.98 -452.18 5.28 
-3.97 -451.68 5.14 
-4.13 -449.39 5.18 
-4.03 -449.03 5.17 
-4.25 -449.70 5.18 
-4.23 -449.50 5.00 
15.28 -449.63 5.24 
14.80 -449.60 5.23 
14.99 -448.18 5.39 
14.57 -448.18 5.38 
13.53 -448.10 5.35 
13.02 -448.05 5.34 
13.78 -437.73 5.16 
12.55 -448.02 5.33 
12.23 -447.97 5.32 
11.75 -447.91 5.30 
12.03 -443.55 5.33 
10.90 -448.70 5.59 
11.34 -442.75 5.09 
10.47 -448.64 5.57 
10.90 -444.85 5.35 
10.96 -443.79 5.11 
10.11 -448.61 5.55 
9.72 -448.56 5.53 
9.76 -447.74 5.25 
9.38 -448.53 5.52 
9.33 -447.74 5.24 
9.81 -443.74 5.24 
8.92 -448.48 5.50 
8.47 -448.43 5.48 
8.14 -448.39 5.46 
8.17 -447.63 5.20 
7.84 -448.36 5.45 
7.79 -447.62 5.59 
7.43 -448.31 5.43 
7.67 -442.91 5.10 
6.94 -448.25 5.41 
7.16 -443.36 5.44 
6.47 -448.20 5.39 
6.68 -447.52 5.54 
6.73 -444.02 5.29 
6.77 -441.66 5.25 
6.11 -448.16 5.38 
6.31 -447.46 5.52 
6.49 -444.63 5.49 
6.29 -444.21 5.45 
6.37 -444.10 5.45 
6.45 -443.00 5.29 
6.62 -442.75 5.29 
5.76 -448.11 5.37 
5.99 -442.40 5.25 
5.35 -448.07 5.35 
5.47 -447.43 5.48 
5.42 -444.57 5.43 
5.59 -444.41 5.43 
5.44 -444.01 5.38 
5.88 -441.98 5.22 
4.94 -448.02 5.33 
5.38 -444.06 5.38 
4.58 -447.98 5.32 
4.11 -447.93 5.30 
4.18 -447.30 5.42 
3.70 -447.87 5.29 
3.39 -447.85 5.28 
3.51 -447.24 5.39 
2.99 -447.80 5.26 
2.60 -447.75 5.42 
2.35 -447.72 5.57 
1.52 -447.64 5.53 
1.38 -447.04 5.30 
0.96 -447.59 5.51 
-0.09 -447.47 5.47 
-0.58 -447.40 5.45 
-3.94 -453.56 5.71 
-3.91 -453.25 5.68 
-3.87 -452.85 5.65 
-3.84 -452.54 5.62 
-3.78 -452.05 5.58 
-3.75 -451.61 5.54 
-3.69 -451.24 5.51 
-3.67 -451.01 5.49 
-3.66 -450.70 5.47 
-3.53 -448.77 5.54 
-4.09 -452.93 5.62 
-4.02 -452.53 5.59 
-3.89 -450.02 5.70 
-3.83 -449.80 5.67 
-3.81 -449.00 5.58 
14.50 -448.17 5.93 
14.22 -448.20 5.91 
13.73 -449.01 5.72 
13.64 -448.13 5.88 
13.39 -448.97 5.70 
13.91 -437.70 5.61 
12.86 -448.90 5.67 
12.40 -448.84 5.65 
12.56 -448.02 5.83 
12.10 -448.81 5.64 
11.72 -448.79 5.62 
11.77 -447.98 5.79 
11.29 -448.74 5.60 
11.48 -444.86 5.82 
11.47 -444.29 5.78 
11.76 -443.97 5.78 
11.58 -442.69 5.53 
11.69 -442.25 5.52 
10.92 -447.89 5.75 
11.10 -445.32 5.83 
11.19 -445.02 5.81 
11.46 -442.95 5.54 
11.34 -442.79 5.53 
10.51 -447.86 5.73 
10.99 -442.61 5.50 
11.06 -442.36 5.50 
10.35 -447.81 5.72 
10.47 -443.01 5.49 
9.74 -448.56 5.99 
9.38 -448.53 5.97 
9.42 -447.77 5.67 
8.91 -448.47 5.94 
8.55 -448.41 5.92 
8.13 -448.38 5.89 
8.11 -447.65 5.61 
7.83 -448.34 5.87 
7.33 -448.29 5.84 
6.85 -448.22 5.81 
6.48 -448.20 5.79 
6.19 -448.16 5.77 
5.97 -448.10 5.76 
6.30 -443.85 5.75 
5.85 -448.12 5.75 
5.68 -448.11 5.75 
5.96 -444.26 5.76 
5.39 -442.15 5.81 
4.12 -447.94 6.02 
3.70 -447.90 5.99 
2.50 -447.76 5.91 
1.85 -447.67 5.87 
0.48 -447.53 5.79 
0.17 -447.50 5.77 
-0.71 -447.42 5.88 
-0.85 -447.41 6.02 
-3.91 -453.76 6.08 
-3.87 -453.00 5.99 
-3.67 -451.30 5.81 
-3.75 -449.59 5.97 
-3.46 -449.12 6.07 
-3.64 -448.91 5.86 
-3.48 -448.71 5.77 
-4.07 -453.14 6.04 
-4.00 -452.49 5.97 
-3.93 -451.88 5.90 
-3.78 -449.18 5.91 
15.95 -448.35 6.00 
15.35 -448.29 5.97 
14.52 -449.09 6.31 
13.57 -449.02 6.25 
12.59 -447.88 6.33 
12.34 -448.06 6.32 
11.75 -448.35 6.09 
11.84 -448.00 6.29 
12.18 -442.54 6.02 
11.39 -447.95 6.25 
11.53 -443.10 6.00 
11.87 -442.68 6.00 
11.14 -448.26 6.05 
10.98 -447.92 6.22 
11.25 -443.37 5.99 
10.61 -447.90 6.20 
10.77 -442.70 5.92 
11.09 -442.21 5.93 
10.13 -448.60 6.02 
10.12 -447.83 6.16 
10.48 -442.52 5.90 
9.85 -447.83 6.14 
9.35 -448.06 6.37 
9.49 -447.80 6.12 
9.05 -447.73 6.09 
8.64 -449.02 6.42 
8.70 -448.54 6.37 
8.75 -448.15 6.34 
6.60 -444.10 6.13 
6.13 -443.68 6.04 
6.22 -442.24 6.22 
1.32 -447.65 6.16 
0.61 -447.61 6.42 
0.25 -447.58 6.40 
-0.25 -447.52 6.36 
-0.59 -447.49 6.34 
-0.92 -447.46 6.32 
-3.97 -453.13 6.45 
-3.92 -452.13 6.31 
-3.81 -451.56 6.42 
-3.77 -451.28 6.56 
-3.71 -451.00 6.52 
-3.66 -450.32 6.41 
-3.70 -449.06 6.53 
-3.42 -448.58 6.46 
-3.98 -452.82 6.40 
-3.81 -449.39 6.26 
15.99 -449.25 6.41 
15.74 -449.26 6.40 
15.43 -447.81 6.52 
15.13 -447.84 6.50 
13.39 -447.68 6.37 
12.39 -448.44 6.64 
12.05 -448.37 6.61 
12.61 -442.86 6.54 
11.74 -448.33 6.58 
11.66 -442.44 6.43 
10.89 -448.23 6.51 
11.41 -443.19 6.44 
10.36 -448.18 6.46 
10.82 -442.88 6.37 
9.83 -448.11 6.41 
8.79 -448.43 6.81 
8.91 -448.02 6.78 
8.52 -450.02 6.51 
8.58 -449.69 6.48 
-3.89 -452.42 6.74 
-3.82 -452.10 6.69 
-3.83 -451.79 6.64 
-3.71 -449.11 6.53 
-3.43 -448.90 6.53 
16.50 -449.33 7.05 
16.17 -449.31 7.02 
15.78 -449.28 6.98 
15.40 -449.24 6.95 
15.01 -449.19 6.91 
14.65 -449.15 6.88 
12.70 -448.46 7.18 
11.35 -448.30 7.03 
10.66 -448.23 6.96 
11.01 -442.45 6.80 
8.75 -448.93 6.87 
8.30 -452.90 7.32 
8.35 -452.48 7.27 
8.39 -452.08 7.22 
8.53 -450.82 7.08 
8.57 -450.46 7.03 
8.65 -449.75 6.96 
8.67 -449.39 6.91 
15.81 -449.28 7.57 
15.43 -449.24 7.53 
15.05 -449.20 7.49 
11.55 -448.35 7.56 
10.20 -448.20 7.38 
9.69 -448.15 7.32 
9.21 -448.09 7.26 
8.53 -451.89 7.71 
8.57 -451.63 7.68 
8.62 -451.24 7.63 
8.64 -450.93 7.59 
8.67 -450.55 7.54 
8.72 -450.11 7.48 
8.77 -449.67 7.42 
8.82 -449.26 7.37 
8.87 -448.76 7.31 
8.93 -448.37 7.27 
8.94 -448.21 7.25 
8.19 -453.88 7.45 
8.26 -453.61 7.41 
13.28 -448.50 7.77 
13.08 -448.52 7.75 
12.14 -448.42 7.63 
11.02 -448.30 7.98 
10.49 -448.25 7.90 
9.87 -448.14 7.80 
9.49 -448.15 7.75 
8.48 -452.56 7.81 
8.53 -452.15 7.75 
8.79 -450.80 8.07 
8.83 -450.43 8.02 
8.86 -449.95 7.95 
8.92 -449.64 7.91 
8.97 -449.21 7.85 
9.02 -448.91 7.81 
9.04 -448.56 7.76 
9.07 -448.14 7.70 
8.28 -454.41 8.07 
8.32 -454.09 8.02 
8.35 -453.72 7.97 
8.44 -452.82 7.84 
8.49 -452.30 7.77 
6.34 -450.54 7.76 
15.90 -449.32 8.18 
15.13 -449.24 8.08 
13.12 -448.54 8.29 
8.98 -452.08 8.30 
8.91 -451.55 8.20 
8.77 -451.18 8.13 
10.48 -448.01 4.34 
9.82 -447.94 4.36 
7.67 -447.70 4.40 
7.41 -447.71 4.40 
6.12 -443.12 3.99 
2.55 -444.53 4.17 
2.21 -445.19 4.19 
2.21 -444.85 4.19 
2.45 -444.48 4.17 
1.90 -445.52 4.23 
1.97 -445.11 4.20 
1.62 -444.73 4.21 
-1.50 -447.39 4.34 
-1.57 -446.89 4.33 
-1.89 -447.35 4.35 
-1.66 -446.89 4.33 
-2.25 -447.29 4.35 
-2.47 -447.28 4.36 
-3.87 -451.00 4.38 
-3.83 -450.87 4.38 
-3.74 -450.57 4.38 
-3.75 -449.12 4.38 
-3.74 -448.95 4.38 
-4.41 -453.04 4.48 
-4.30 -452.74 4.48 
-4.31 -452.36 4.47 
-4.22 -452.01 4.46 
-4.07 -450.99 4.38 
-3.88 -449.68 4.38 
-3.86 -449.27 4.38 
-3.86 -448.86 4.39 
-3.88 -448.26 4.39 
-3.85 -448.01 4.39 
-3.85 -447.75 4.38 
-4.66 -453.19 4.49 
-4.53 -452.81 4.48 
14.73 -449.33 4.64 
14.53 -449.36 4.64 
14.02 -449.28 4.64 
13.64 -449.22 4.64 
13.22 -449.20 4.64 
12.93 -449.16 4.64 
11.82 -443.62 4.44 
11.16 -444.44 4.47 
10.36 -448.81 4.64 
10.73 -444.83 4.49 
10.80 -444.61 4.48 
10.77 -443.91 4.46 
10.08 -448.81 4.64 
9.88 -448.75 4.64 
10.17 -445.37 4.51 
10.27 -444.83 4.49 
10.58 -443.95 4.46 
9.61 -448.75 4.64 
10.03 -445.43 4.51 
10.15 -444.58 4.48 
9.26 -448.71 4.64 
8.49 -448.62 4.64 
8.06 -448.56 4.64 
7.65 -448.51 4.64 
7.26 -448.45 4.64 
6.89 -448.43 4.64 
7.05 -443.43 4.45 
7.43 -442.72 4.64 
7.30 -442.22 4.62 
6.52 -448.38 4.64 
6.49 -447.61 4.42 
6.57 -445.48 4.53 
6.79 -444.79 4.50 
7.08 -442.02 4.62 
6.07 -447.60 4.81 
6.15 -444.92 4.51 
6.22 -444.59 4.49 
6.31 -443.62 4.67 
5.56 -447.52 4.44 
6.08 -444.68 4.50 
6.09 -444.30 4.48 
5.97 -443.88 4.47 
6.11 -443.17 4.33 
5.41 -447.53 4.81 
4.98 -447.47 4.63 
4.55 -447.43 4.64 
4.20 -447.41 4.64 
3.70 -447.35 4.48 
3.41 -447.32 4.81 
2.56 -447.25 4.81 
1.43 -447.16 4.81 
0.90 -447.11 4.67 
0.59 -447.09 4.67 
0.08 -447.62 4.65 
0.12 -447.04 4.68 
-0.31 -447.54 4.65 
-0.21 -447.02 4.68 
-1.82 -447.36 4.65 
-1.74 -446.89 4.70 
-2.23 -447.31 4.66 
-2.50 -447.27 4.66 
-3.96 -452.33 4.88 
-3.92 -452.01 4.88 
-3.88 -451.62 4.86 
-3.82 -451.16 4.69 
-3.77 -449.20 4.65 
-3.53 -447.57 4.74 
-4.16 -454.27 4.75 
-4.42 -453.30 5.10 
-4.21 -452.73 4.93 
-4.19 -452.32 4.97 
-4.19 -451.98 4.96 
-4.18 -451.61 4.85 
-4.09 -449.59 4.76 
-3.95 -449.10 4.79 
-3.90 -448.70 4.80 
-3.97 -448.37 4.81 
-3.91 -447.92 4.68 
-3.72 -447.70 4.66 
-4.60 -453.33 4.93 
-4.49 -452.80 4.90 
-4.43 -451.71 4.86 
14.72 -448.41 4.82 
14.51 -448.34 4.82 
13.34 -448.28 4.82 
12.50 -449.11 5.17 
12.06 -442.50 4.63 
11.99 -442.26 4.62 
11.34 -448.09 4.82 
11.63 -445.04 4.95 
11.50 -444.80 4.94 
11.09 -444.39 4.91 
10.62 -445.84 4.97 
10.59 -445.33 4.95 
10.77 -444.89 4.93 
10.95 -444.68 4.70 
10.88 -442.64 4.63 
9.88 -448.74 5.11 
10.12 -447.98 4.81 
10.39 -444.15 4.68 
10.65 -442.81 4.64 
9.73 -448.76 5.11 
9.63 -447.93 4.81 
9.81 -447.90 4.81 
9.26 -448.70 5.10 
9.30 -448.67 5.10 
9.32 -447.90 4.81 
8.93 -448.66 5.10 
9.02 -447.87 4.81 
8.49 -448.59 5.09 
8.58 -447.83 4.81 
8.07 -448.56 5.08 
8.17 -447.76 4.81 
7.66 -448.51 5.07 
7.75 -447.75 4.81 
7.27 -448.46 5.07 
7.66 -444.13 4.84 
6.83 -448.39 5.06 
7.03 -447.66 5.01 
6.51 -448.36 5.05 
6.15 -448.32 5.05 
5.97 -447.59 5.19 
6.29 -445.57 4.90 
6.42 -445.15 4.88 
6.43 -443.35 4.78 
5.72 -448.27 5.04 
5.96 -444.62 4.84 
6.09 -444.38 4.83 
5.98 -443.83 4.80 
5.30 -448.22 5.03 
5.44 -447.54 5.18 
5.73 -444.81 4.85 
5.70 -443.33 4.93 
5.72 -443.02 5.07 
5.75 -442.77 5.06 
5.67 -441.74 4.92 
4.90 -448.17 5.03 
4.92 -447.49 5.17 
5.14 -444.26 5.02 
5.26 -443.40 4.88 
5.22 -442.98 4.82 
4.50 -448.12 5.02 
4.90 -443.64 4.78 
4.76 -442.40 4.93 
4.08 -448.07 5.01 
4.11 -447.39 5.15 
3.69 -448.02 5.01 
3.26 -447.97 5.00 
3.29 -447.33 5.14 
2.88 -447.93 5.00 
2.89 -447.31 5.13 
2.51 -447.88 4.99 
2.57 -447.27 5.12 
2.12 -447.83 4.99 
2.08 -447.23 5.12 
1.69 -447.78 4.98 
1.65 -447.74 4.98 
1.70 -447.21 5.11 
1.32 -447.73 4.98 
1.41 -447.72 4.98 
1.43 -447.18 5.10 
1.03 -447.71 4.98 
0.80 -447.67 4.98 
0.84 -447.11 5.09 
0.56 -447.10 5.09 
0.07 -447.58 5.13 
0.16 -447.07 5.09 
-0.29 -447.54 5.13 
-0.13 -447.03 5.08 
-0.64 -447.50 5.18 
-0.66 -446.99 5.07 
-1.04 -447.45 5.12 
-1.03 -446.96 5.07 
-1.48 -447.40 5.11 
-1.55 -446.91 5.06 
-1.81 -447.35 5.06 
-1.74 -446.90 5.06 
-2.15 -447.32 5.11 
-4.10 -453.78 5.49 
-4.01 -453.11 5.45 
-3.97 -452.75 5.42 
-3.89 -452.25 5.39 
-3.90 -452.11 5.38 
-3.83 -451.52 5.35 
-3.81 -451.20 5.32 
-3.68 -447.62 4.99 
-4.39 -452.67 5.32 
-4.00 -449.63 5.23 
-4.01 -449.23 5.20 
-3.85 -448.83 5.18 
-3.94 -448.48 5.15 
-3.81 -447.87 5.17 
-3.89 -447.73 5.15 
-4.56 -453.10 5.35 
-4.49 -452.79 5.33 
-4.44 -449.85 5.14 
-4.39 -449.53 5.12 
-4.31 -449.18 5.09 
-4.24 -448.84 5.07 
-4.17 -447.85 5.16 
16.20 -445.53 5.06 
16.44 -444.11 5.24 
16.42 -443.75 5.23 
15.94 -443.40 5.20 
13.97 -449.25 5.20 
13.55 -449.23 5.19 
13.22 -449.18 5.18 
13.68 -437.91 5.14 
11.40 -448.11 5.31 
11.76 -444.63 5.39 
11.58 -443.75 5.33 
11.71 -443.53 5.12 
11.74 -443.23 5.11 
11.01 -448.07 5.30 
11.35 -443.92 5.33 
10.67 -448.04 5.29 
10.69 -445.09 5.38 
9.99 -448.80 5.60 
10.42 -444.89 5.36 
10.49 -444.32 5.32 
9.64 -448.76 5.58 
9.67 -447.94 5.27 
9.85 -447.92 5.27 
10.11 -444.41 5.32 
10.19 -444.31 5.31 
9.30 -448.73 5.57 
9.35 -447.91 5.26 
9.53 -447.88 5.26 
8.95 -448.67 5.56 
8.92 -447.88 5.25 
8.62 -448.64 5.55 
8.41 -448.61 5.54 
8.04 -448.55 5.52 
8.21 -447.82 5.24 
7.69 -448.53 5.51 
7.65 -447.75 5.22 
7.29 -448.45 5.50 
7.81 -442.95 5.38 
6.85 -448.40 5.48 
6.97 -447.72 5.61 
7.19 -443.83 5.18 
6.53 -448.37 5.47 
6.08 -448.32 5.46 
6.05 -447.63 5.57 
6.20 -444.27 5.52 
6.33 -443.81 5.49 
6.59 -442.95 5.33 
5.65 -448.27 5.44 
5.96 -444.15 5.27 
6.08 -443.83 5.31 
6.26 -443.27 5.44 
6.14 -442.94 5.24 
5.34 -448.23 5.43 
5.30 -447.57 5.54 
5.45 -444.00 5.13 
5.70 -443.35 5.31 
5.78 -441.86 5.24 
4.91 -448.18 5.42 
4.86 -447.51 5.52 
5.28 -444.53 5.16 
4.58 -448.13 5.41 
4.62 -447.51 5.52 
4.04 -448.06 5.39 
4.20 -447.45 5.50 
3.73 -448.03 5.38 
3.81 -447.44 5.48 
3.27 -447.98 5.37 
3.45 -447.38 5.47 
2.87 -447.92 5.36 
2.85 -447.32 5.45 
2.52 -447.88 5.35 
2.65 -447.31 5.44 
2.07 -447.83 5.34 
2.00 -447.25 5.42 
1.70 -447.78 5.33 
1.88 -447.25 5.41 
1.33 -447.74 5.32 
0.90 -447.69 5.48 
0.75 -447.67 5.31 
0.22 -447.61 5.46 
0.13 -447.09 5.36 
-0.29 -447.55 5.61 
-0.56 -447.52 5.60 
-0.49 -447.01 5.34 
-0.87 -447.49 5.60 
-4.01 -453.10 5.81 
-3.96 -452.79 5.78 
-3.93 -452.44 5.75 
-3.86 -451.82 5.70 
-3.80 -451.24 5.65 
-3.78 -450.94 5.62 
-3.57 -447.54 5.58 
-4.19 -449.48 5.46 
-3.89 -449.29 5.78 
-3.84 -448.80 5.73 
-3.80 -448.29 5.67 
-4.29 -449.77 5.48 
-4.28 -449.65 5.47 
16.00 -449.99 5.87 
16.18 -445.54 5.61 
15.44 -449.92 5.85 
15.21 -449.87 5.84 
13.76 -437.86 5.59 
12.53 -449.05 5.69 
12.07 -449.04 5.68 
12.09 -448.17 5.83 
11.79 -449.01 5.67 
11.79 -448.16 5.82 
11.25 -448.95 5.65 
11.49 -448.15 5.80 
11.63 -444.57 5.84 
11.53 -444.17 5.80 
11.64 -442.60 5.53 
11.55 -442.34 5.51 
10.81 -448.87 5.63 
10.94 -448.10 5.78 
11.06 -444.82 5.82 
10.39 -448.81 5.61 
10.42 -448.05 5.76 
11.04 -442.62 5.50 
10.23 -448.83 5.61 
10.11 -448.00 5.74 
9.78 -447.99 5.73 
9.30 -447.94 5.71 
8.74 -447.87 5.68 
8.45 -448.60 6.00 
8.09 -448.56 5.98 
8.29 -447.85 5.67 
7.69 -448.52 5.96 
7.76 -447.81 5.64 
7.29 -448.46 5.93 
7.49 -447.78 5.63 
6.92 -448.43 5.92 
6.56 -448.38 5.90 
6.55 -445.11 5.61 
6.97 -443.92 5.89 
6.10 -448.33 5.87 
6.35 -444.79 5.57 
6.32 -444.08 5.86 
6.46 -443.85 5.85 
5.66 -448.27 5.85 
6.10 -444.43 5.53 
5.32 -448.23 5.84 
5.76 -443.47 5.76 
5.08 -448.20 5.82 
4.15 -448.09 5.78 
3.64 -448.03 5.76 
2.73 -447.91 5.72 
2.53 -447.90 5.71 
2.63 -447.34 5.76 
-0.01 -447.61 5.95 
-0.75 -447.53 5.92 
-1.95 -447.39 5.88 
-2.24 -447.35 5.88 
-4.07 -453.90 6.26 
-3.81 -451.59 6.01 
-3.79 -451.29 5.97 
-3.70 -450.53 5.89 
-4.15 -452.61 6.16 
-4.14 -452.26 6.12 
-4.06 -451.54 6.04 
-3.98 -451.27 6.01 
-3.97 -449.80 5.84 
-3.98 -449.60 5.82 
-3.90 -448.16 5.98 
-3.76 -447.52 5.89 
13.83 -448.79 6.28 
12.77 -448.63 6.21 
13.79 -437.91 6.04 
12.57 -448.64 6.20 
12.10 -448.57 6.17 
12.07 -447.78 6.31 
11.67 -447.74 6.28 
10.95 -448.10 6.27 
11.47 -442.58 5.97 
11.49 -442.28 5.96 
10.52 -448.88 6.12 
10.45 -448.07 6.24 
10.97 -443.27 5.97 
10.73 -443.09 5.95 
10.01 -448.81 6.09 
10.12 -448.04 6.21 
9.72 -448.74 6.07 
9.85 -448.03 6.20 
9.39 -447.99 6.17 
8.96 -448.67 6.03 
8.85 -447.91 6.13 
8.35 -447.88 6.10 
8.07 -447.86 6.08 
7.15 -443.92 5.90 
6.51 -444.19 6.24 
5.06 -448.20 6.22 
4.64 -448.18 6.20 
2.82 -447.96 6.09 
1.23 -447.78 6.35 
1.01 -447.76 6.34 
-0.23 -447.60 6.27 
-1.05 -447.52 6.23 
-2.23 -447.39 6.35 
-2.66 -447.35 6.41 
-3.03 -447.31 6.48 
-3.87 -452.24 6.42 
-3.47 -447.46 6.40 
-3.34 -447.27 6.37 
-4.05 -452.12 6.51 
-4.05 -451.80 6.47 
-3.97 -451.11 6.38 
-3.99 -449.32 6.48 
-3.93 -448.77 6.40 
-3.69 -447.34 6.17 
16.40 -449.53 6.47 
16.18 -449.55 6.46 
15.72 -449.47 6.43 
15.26 -449.44 6.40 
14.73 -449.38 6.37 
12.92 -448.69 6.76 
13.85 -437.93 6.05 
12.08 -444.47 6.32 
11.97 -442.56 6.46 
11.21 -448.50 6.62 
10.56 -448.42 6.57 
9.94 -448.34 6.52 
9.69 -448.31 6.50 
9.35 -448.27 6.47 
8.78 -448.20 6.43 
8.30 -450.45 6.64 
8.35 -450.06 6.60 
8.42 -449.50 6.55 
8.46 -449.14 6.51 
8.56 -448.45 6.44 
8.59 -448.20 6.42 
6.30 -443.92 6.54 
-0.79 -447.56 6.57 
-1.10 -447.56 6.56 
-3.55 -448.39 6.67 
-3.49 -447.94 6.59 
15.66 -449.50 7.03 
15.13 -449.44 6.98 
14.43 -449.35 6.92 
14.07 -448.78 6.85 
13.87 -448.81 6.83 
13.90 -436.81 6.42 
11.51 -448.54 7.15 
10.99 -448.49 7.10 
10.23 -448.40 7.03 
8.22 -451.86 7.31 
8.27 -451.43 7.26 
8.29 -451.22 7.23 
8.34 -450.81 7.18 
8.46 -449.85 7.07 
8.58 -448.86 6.95 
5.91 -450.64 7.00 
13.61 -448.80 7.37 
13.28 -448.75 7.33 
12.52 -448.67 7.26 
12.08 -448.61 7.21 
9.57 -448.36 7.45 
8.69 -448.86 7.44 
8.93 -448.41 7.40 
7.89 -454.68 7.67 
7.95 -454.18 7.60 
8.02 -453.43 7.51 
8.08 -453.16 7.47 
8.13 -452.79 7.43 
8.16 -452.41 7.38 
8.20 -452.08 7.34 
8.45 -450.72 7.68 
8.52 -450.36 7.63 
8.53 -450.13 7.60 
8.60 -449.58 7.53 
15.53 -449.50 7.62 
13.35 -448.80 7.90 
11.86 -448.62 7.72 
11.33 -448.57 7.66 
10.80 -448.51 7.59 
9.39 -448.37 7.91 
8.73 -449.62 8.03 
8.78 -449.16 7.97 
8.84 -448.73 7.90 
8.89 -448.37 7.86 
8.07 -454.07 8.16 
8.13 -453.57 8.08 
8.29 -452.34 7.91 
8.34 -451.91 7.85 
8.39 -451.48 7.79 
8.40 -451.12 7.73 
14.00 -448.88 7.98 
12.51 -448.74 8.34 
11.92 -448.66 8.26 
10.60 -448.52 8.07 
10.10 -448.45 8.01 
8.95 -452.27 8.49 
8.74 -451.30 8.31 
8.60 -450.78 8.21 
8.68 -449.99 8.09 
8.01 -454.55 8.23 
12.98 -448.74 8.40 
11.54 -448.65 4.43 
11.12 -444.09 4.31 
10.12 -448.46 4.47 
9.20 -448.70 4.28 
8.40 -448.63 4.29 
8.07 -448.57 4.30 
8.04 -448.30 4.52 
7.71 -448.50 4.31 
7.78 -448.26 4.52 
6.09 -447.44 4.32 
5.56 -447.31 4.33 
4.31 -447.08 4.35 
4.39 -446.88 4.35 
2.19 -445.38 4.30 
2.17 -445.03 4.35 
2.03 -445.61 4.31 
2.01 -445.36 4.33 
1.61 -445.67 4.33 
1.42 -445.41 4.38 
-1.51 -447.31 4.47 
-1.94 -447.24 4.48 
-2.29 -447.19 4.50 
-2.63 -447.17 4.50 
-3.10 -447.10 4.51 
-3.63 -447.73 4.52 
-3.50 -447.41 4.52 
-3.41 -447.06 4.52 
-4.36 -454.66 4.96 
-3.99 -449.59 4.53 
-4.00 -449.30 4.55 
-3.86 -448.84 4.53 
-3.80 -448.55 4.53 
-3.79 -448.06 4.53 
-3.90 -447.72 4.54 
-3.72 -447.36 4.53 
-3.67 -447.04 4.52 
-4.84 -453.11 4.68 
-4.68 -452.91 4.67 
-4.25 -449.30 4.58 
-4.11 -447.62 4.54 
15.18 -449.46 4.74 
14.81 -449.46 4.74 
14.31 -449.39 4.75 
14.11 -449.35 4.74 
13.68 -449.30 4.75 
13.23 -449.25 4.75 
12.80 -449.21 4.75 
12.51 -449.17 4.75 
11.14 -448.98 4.75 
11.72 -444.18 4.55 
10.88 -448.93 4.75 
11.11 -444.42 4.56 
10.51 -448.89 4.76 
10.60 -445.98 4.63 
10.85 -444.97 4.59 
10.70 -444.45 4.57 
10.78 -444.29 4.56 
10.06 -448.79 4.76 
9.75 -448.77 4.76 
10.08 -445.22 4.60 
9.33 -448.73 4.76 
8.40 -448.60 4.76 
8.04 -448.56 4.76 
7.64 -448.51 4.77 
7.33 -448.46 4.77 
6.87 -448.42 4.77 
6.72 -448.36 4.77 
7.35 -443.97 4.78 
6.32 -444.95 4.62 
5.78 -445.39 4.50 
6.18 -444.51 4.71 
6.05 -443.71 4.63 
5.39 -445.51 4.51 
5.34 -445.39 4.51 
5.88 -443.24 4.55 
2.07 -447.71 4.87 
1.33 -447.64 4.89 
0.90 -447.57 4.86 
0.54 -447.53 4.81 
0.15 -447.49 4.78 
-0.28 -447.43 4.83 
-1.63 -447.29 4.73 
-1.79 -447.28 4.78 
-1.88 -447.25 4.81 
-2.18 -447.24 5.01 
-2.29 -447.21 4.91 
-2.61 -447.18 4.89 
-3.04 -447.13 4.91 
-4.03 -452.08 5.13 
-4.02 -451.81 4.89 
-3.90 -450.85 4.86 
-3.74 -448.74 4.81 
-3.61 -447.67 4.91 
-3.49 -447.34 4.90 
-3.37 -447.09 4.92 
-4.52 -453.63 5.33 
-4.39 -453.19 4.92 
-4.22 -452.89 4.91 
-4.15 -452.51 5.06 
-4.20 -452.10 4.99 
-4.25 -451.66 5.06 
-4.18 -449.96 4.85 
-4.10 -449.32 4.95 
-4.03 -448.80 4.96 
-3.92 -448.61 4.81 
-3.98 -448.03 4.95 
-3.89 -447.71 4.96 
-3.71 -447.34 4.85 
-4.71 -453.20 5.14 
-4.61 -452.91 5.12 
-4.55 -451.64 5.07 
-4.29 -449.91 4.85 
-4.29 -449.38 5.04 
-4.22 -448.82 4.93 
-4.16 -448.29 4.90 
-4.15 -448.01 4.89 
16.20 -449.16 4.93 
15.99 -449.08 4.93 
15.74 -449.11 4.93 
15.54 -449.04 4.93 
15.29 -449.07 4.94 
13.25 -448.81 4.94 
12.90 -448.78 4.94 
13.63 -437.19 4.50 
12.43 -448.77 4.94 
11.94 -449.07 5.28 
11.69 -448.68 4.94 
11.37 -448.65 4.95 
11.61 -444.82 5.04 
10.90 -448.93 5.27 
10.88 -448.58 4.95 
11.07 -444.47 5.01 
11.29 -443.54 4.74 
11.43 -443.45 4.74 
10.48 -448.85 5.26 
10.47 -448.52 4.95 
10.81 -445.18 4.93 
10.63 -444.99 5.04 
9.92 -448.81 5.25 
10.52 -445.58 5.07 
9.64 -448.75 5.25 
9.77 -448.46 4.95 
10.09 -444.57 4.79 
9.45 -448.74 5.24 
8.91 -448.66 5.23 
8.95 -448.37 4.95 
8.47 -448.61 5.23 
8.53 -448.35 4.95 
8.05 -448.56 5.22 
8.24 -444.24 4.97 
7.65 -448.50 5.22 
7.65 -448.26 4.96 
8.03 -444.05 4.96 
7.33 -448.45 5.21 
6.87 -448.39 5.21 
6.72 -448.35 5.20 
7.21 -444.16 5.16 
6.50 -448.35 5.20 
6.59 -445.18 5.21 
6.77 -443.16 4.89 
6.82 -442.93 4.88 
6.14 -448.16 5.11 
6.31 -445.58 5.03 
6.46 -445.36 5.21 
6.42 -445.01 5.10 
6.24 -444.37 5.16 
6.57 -444.27 4.96 
6.67 -443.63 4.92 
6.56 -443.34 4.90 
6.56 -443.01 5.10 
5.74 -448.24 5.19 
6.10 -444.58 5.07 
6.02 -443.67 5.02 
5.96 -443.05 5.09 
5.30 -448.11 5.27 
5.66 -443.35 5.10 
5.65 -442.36 4.84 
5.01 -448.06 5.27 
5.14 -443.30 5.09 
5.33 -442.86 4.86 
4.48 -448.08 5.18 
4.14 -447.96 5.25 
4.64 -443.67 4.91 
3.79 -447.98 5.17 
3.33 -447.87 5.25 
2.91 -447.82 5.24 
2.55 -447.77 5.24 
2.19 -447.75 5.21 
1.75 -447.69 5.23 
1.39 -447.65 5.21 
0.92 -447.60 5.18 
0.53 -447.54 5.23 
0.15 -447.49 5.19 
-0.28 -447.45 5.23 
-0.68 -447.40 5.22 
-1.10 -447.34 5.21 
-1.33 -447.32 5.21 
-1.52 -447.28 5.14 
-1.99 -447.27 5.27 
-1.83 -447.24 5.14 
-2.29 -447.24 5.27 
-2.26 -447.19 5.15 
-2.62 -447.21 5.27 
-2.61 -447.14 5.15 
-2.99 -447.17 5.27 
-3.08 -447.10 5.29 
-4.06 -452.62 5.65 
-4.03 -452.08 5.61 
-3.99 -451.73 5.59 
-3.91 -451.07 5.54 
-3.59 -447.67 5.31 
-3.54 -447.20 5.22 
-3.40 -447.05 5.27 
-4.22 -453.65 5.72 
-4.17 -453.19 5.69 
-4.12 -452.84 5.67 
-3.88 -449.90 5.46 
-3.94 -449.68 5.45 
-3.94 -449.26 5.42 
-3.99 -447.99 5.33 
-3.89 -447.67 5.25 
-3.70 -447.40 5.18 
-3.64 -447.02 5.15 
-4.65 -452.82 5.57 
-4.52 -449.78 5.36 
-4.43 -449.39 5.33 
-4.36 -448.83 5.29 
-4.24 -448.37 5.25 
-4.27 -447.87 5.22 
-4.17 -447.72 5.21 
16.16 -445.68 5.14 
16.32 -445.48 5.13 
15.61 -449.99 5.37 
16.13 -444.71 5.32 
12.88 -449.17 5.30 
13.75 -437.98 5.18 
13.64 -437.18 4.98 
12.63 -448.72 5.47 
12.08 -448.72 5.46 
11.38 -448.64 5.45 
11.75 -443.83 5.44 
11.78 -443.47 5.20 
11.79 -442.96 5.18 
10.90 -448.58 5.44 
10.43 -448.55 5.43 
10.65 -445.13 5.50 
10.11 -448.51 5.43 
10.50 -445.05 5.49 
10.42 -444.82 5.47 
10.61 -442.87 5.15 
9.68 -448.47 5.42 
10.14 -444.43 5.43 
9.17 -448.66 5.72 
8.93 -448.68 5.71 
8.97 -448.40 5.41 
8.49 -448.61 5.70 
8.07 -448.54 5.68 
7.66 -448.50 5.67 
7.28 -448.44 5.66 
7.57 -444.18 5.34 
6.90 -448.41 5.65 
7.21 -444.39 5.35 
6.53 -448.36 5.64 
6.43 -448.22 5.50 
7.05 -443.51 5.28 
6.08 -448.30 5.63 
5.96 -448.12 5.76 
6.56 -444.03 5.50 
6.31 -443.67 5.47 
6.52 -443.51 5.26 
5.65 -448.16 5.68 
6.03 -443.87 5.47 
5.29 -448.12 5.67 
5.54 -444.08 5.28 
5.79 -443.25 5.42 
5.73 -442.76 5.29 
4.89 -448.08 5.66 
5.40 -444.28 5.29 
5.26 -444.03 5.46 
5.42 -443.31 5.22 
4.47 -448.01 5.64 
4.99 -444.47 5.30 
4.15 -447.99 5.64 
3.72 -447.93 5.62 
3.32 -447.89 5.61 
2.95 -447.84 5.60 
2.55 -447.83 5.54 
2.11 -447.75 5.55 
1.77 -447.70 5.57 
1.36 -447.66 5.55 
0.88 -447.60 5.53 
0.55 -447.56 5.51 
0.16 -447.52 5.54 
-0.30 -447.46 5.67 
-0.56 -447.42 5.66 
-1.08 -447.36 5.60 
-1.44 -447.31 5.64 
-1.68 -447.27 5.56 
-4.10 -453.01 6.06 
-4.03 -452.06 5.97 
-3.94 -451.51 5.92 
-3.61 -447.22 5.81 
-4.34 -454.02 5.75 
-4.21 -453.30 6.09 
-4.34 -452.80 6.01 
-4.20 -452.41 5.99 
-4.23 -451.98 5.93 
-4.02 -449.64 5.74 
-3.94 -449.21 5.70 
-4.13 -448.73 5.63 
-3.85 -447.90 5.89 
-3.88 -447.62 5.61 
-4.29 -449.56 5.71 
15.98 -450.02 5.99 
15.22 -449.45 5.93 
14.84 -449.45 5.92 
15.17 -445.31 5.65 
14.35 -449.39 5.90 
13.91 -449.28 5.88 
13.81 -437.91 5.63 
13.70 -437.17 5.46 
12.56 -448.81 6.01 
12.20 -448.77 5.99 
11.68 -448.73 5.97 
11.26 -448.96 5.79 
11.19 -448.68 5.95 
11.79 -444.01 5.92 
11.60 -442.62 5.61 
10.80 -448.92 5.77 
10.93 -448.62 5.94 
11.38 -443.19 5.73 
11.37 -442.80 5.61 
10.37 -448.83 5.76 
10.85 -443.21 5.61 
10.06 -448.82 5.75 
10.34 -444.08 5.85 
9.63 -448.51 5.89 
9.28 -448.45 5.88 
8.93 -448.44 5.87 
8.16 -448.32 5.84 
7.69 -448.52 6.13 
7.30 -448.45 6.11 
6.90 -448.41 6.09 
6.54 -448.36 6.08 
6.98 -443.20 5.61 
6.09 -448.31 6.06 
6.16 -448.14 5.77 
6.59 -443.54 5.62 
5.75 -448.27 6.04 
5.57 -448.23 6.03 
6.18 -443.73 5.62 
5.42 -448.23 6.03 
5.24 -448.19 6.02 
4.91 -448.15 6.01 
4.54 -448.09 5.99 
3.96 -447.95 6.06 
3.69 -447.99 5.96 
3.25 -447.93 5.94 
2.97 -447.89 5.93 
1.21 -447.66 5.87 
0.90 -447.61 5.86 
0.55 -447.57 5.97 
0.22 -447.53 5.86 
-1.80 -447.29 6.14 
-3.98 -451.75 6.30 
-3.90 -451.07 6.22 
-3.83 -449.68 6.06 
-3.53 -447.07 6.11 
-4.16 -453.30 6.48 
-4.19 -452.53 6.41 
-4.22 -452.23 6.40 
-4.21 -451.83 6.35 
-4.13 -449.55 6.08 
-3.99 -449.38 6.06 
-3.89 -448.89 6.01 
-3.93 -448.46 5.96 
-3.89 -447.38 6.16 
16.06 -446.00 6.30 
14.33 -448.92 6.45 
14.03 -448.88 6.43 
13.69 -448.83 6.41 
13.39 -448.79 6.39 
12.98 -448.72 6.37 
13.72 -437.19 5.94 
12.08 -448.67 6.32 
11.67 -448.90 6.42 
12.00 -443.14 6.12 
11.37 -448.96 6.32 
11.43 -448.67 6.47 
10.88 -448.78 6.37 
11.40 -442.69 6.05 
10.34 -448.72 6.34 
9.57 -448.74 6.22 
9.64 -448.52 6.37 
9.30 -448.69 6.21 
9.42 -448.53 6.36 
8.93 -448.67 6.19 
8.85 -448.46 6.33 
8.50 -448.61 6.17 
8.60 -448.44 6.31 
7.98 -448.55 6.15 
8.11 -448.35 6.28 
7.56 -443.94 6.08 
7.12 -444.43 6.11 
7.22 -444.00 6.07 
7.28 -443.91 6.06 
5.85 -443.41 6.11 
4.94 -448.17 6.42 
2.89 -447.89 6.31 
1.00 -447.69 6.60 
0.32 -447.59 6.56 
-0.62 -447.47 6.52 
-1.48 -447.37 6.49 
-2.14 -447.29 6.47 
-2.66 -447.20 6.45 
-3.81 -450.64 6.50 
-4.11 -451.27 6.70 
-4.02 -450.95 6.66 
-3.99 -448.92 6.74 
-3.86 -448.38 6.65 
15.90 -449.51 6.57 
15.67 -449.52 6.56 
14.52 -448.89 6.45 
13.36 -448.91 6.59 
13.88 -437.93 6.09 
13.81 -437.30 6.44 
13.75 -437.17 6.43 
11.97 -448.61 6.84 
11.79 -448.72 6.50 
11.19 -448.53 6.79 
11.56 -444.43 6.40 
10.65 -448.44 6.75 
10.99 -444.36 6.59 
9.71 -448.33 6.68 
9.24 -448.26 6.64 
9.02 -448.24 6.63 
8.22 -450.17 6.81 
8.26 -449.87 6.78 
8.32 -449.48 6.73 
8.44 -448.63 6.64 
8.52 -448.31 6.61 
-1.83 -447.32 6.81 
-2.35 -447.26 6.80 
-2.97 -447.22 6.79 
-3.44 -447.24 6.79 
-4.09 -449.14 6.77 
16.43 -449.63 7.23 
16.07 -449.59 7.20 
15.02 -449.46 7.12 
14.38 -448.94 7.03 
14.58 -448.91 7.04 
14.05 -448.89 7.00 
13.75 -448.86 6.98 
13.43 -448.80 6.95 
10.95 -448.50 7.28 
10.46 -448.43 7.24 
10.10 -448.39 7.20 
9.51 -448.32 7.15 
8.84 -448.23 7.09 
8.22 -450.87 7.41 
8.25 -450.55 7.36 
8.37 -449.63 7.25 
8.43 -449.26 7.20 
8.46 -448.97 7.16 
8.56 -448.34 7.09 
14.53 -448.95 7.62 
13.18 -448.79 7.49 
12.60 -448.72 7.44 
13.48 -437.36 6.89 
13.53 -437.05 6.88 
12.30 -448.67 7.41 
11.74 -448.60 7.35 
9.36 -448.35 7.64 
7.94 -453.25 7.72 
8.02 -452.62 7.64 
8.03 -452.20 7.58 
8.07 -451.97 7.55 
8.14 -451.41 7.48 
8.19 -451.08 7.43 
8.54 -449.15 7.68 
8.58 -448.76 7.63 
8.70 -448.26 7.57 
7.73 -454.61 7.91 
7.79 -454.21 7.85 
7.85 -453.67 7.78 
7.87 -453.40 7.74 
7.93 -453.04 7.69 
7.97 -452.67 7.64 
12.96 -448.81 8.04 
12.10 -448.70 7.94 
10.78 -448.53 7.79 
10.06 -448.43 7.71 
9.18 -448.35 8.11 
8.74 -448.61 8.11 
8.79 -448.38 8.07 
8.05 -453.12 8.27 
8.12 -452.64 8.20 
8.15 -452.23 8.14 
8.21 -451.78 8.07 
8.23 -451.39 8.01 
8.30 -450.96 7.95 
8.35 -450.54 7.88 
8.42 -450.14 7.83 
13.56 -448.88 8.11 
11.61 -448.66 8.42 
11.78 -448.63 8.44 
11.36 -448.63 8.39 
10.59 -448.53 8.29 
9.87 -448.44 8.20 
8.58 -451.46 8.58 
8.67 -449.31 8.22 
8.72 -448.94 8.16 
8.43 -450.86 8.46 
8.48 -450.58 8.42 
8.53 -450.16 8.35 
8.59 -449.76 8.29 
8.61 -449.44 8.23 
8.66 -449.05 8.17 
14.80 -449.02 8.85 
14.26 -449.00 8.78 
13.22 -448.82 8.63 
12.73 -448.80 8.57 
12.08 -448.51 4.40 
10.32 -448.31 4.44 
10.40 -443.50 4.12 
9.26 -448.98 4.25 
8.97 -448.97 4.25 
8.56 -448.92 4.26 
7.90 -448.05 4.48 
6.68 -447.90 4.50 
4.34 -447.06 4.31 
4.12 -447.38 4.32 
2.12 -445.51 4.24 
2.19 -444.78 4.24 
1.67 -445.41 4.25 
1.74 -445.15 4.25 
-1.73 -447.49 4.41 
-1.74 -447.01 4.36 
-2.10 -447.44 4.42 
-2.22 -446.99 4.37 
-2.48 -447.38 4.42 
-2.55 -446.91 4.38 
-2.80 -447.34 4.42 
-2.84 -446.90 4.39 
-3.30 -447.28 4.43 
-3.22 -446.85 4.39 
-3.68 -447.27 4.43 
-3.64 -447.08 4.40 
-4.63 -453.41 4.79 
-4.62 -452.82 4.66 
-4.50 -452.58 4.65 
-4.63 -452.00 4.52 
-4.27 -449.25 4.42 
-4.34 -448.96 4.47 
-4.25 -447.95 4.45 
-4.05 -447.75 4.44 
-3.91 -447.29 4.44 
-4.54 -449.64 4.48 
-4.35 -447.78 4.45 
15.00 -449.78 4.77 
14.73 -449.71 4.76 
14.29 -449.66 4.76 
13.83 -449.60 4.76 
13.28 -449.54 4.76 
13.01 -449.52 4.76 
12.52 -449.43 4.76 
13.46 -438.23 4.39 
11.38 -449.24 4.76 
11.71 -443.79 4.57 
10.96 -449.23 4.76 
11.43 -444.29 4.59 
11.65 -443.90 4.57 
10.57 -449.16 4.76 
10.93 -444.57 4.60 
10.42 -445.71 4.64 
10.28 -445.04 4.62 
10.17 -444.44 4.60 
9.34 -448.99 4.76 
9.82 -445.51 4.63 
9.97 -444.33 4.59 
9.03 -448.95 4.76 
8.63 -448.91 4.76 
8.21 -448.84 4.76 
7.83 -448.77 4.76 
6.96 -448.66 4.76 
6.62 -448.64 4.76 
6.94 -443.73 4.58 
7.11 -442.50 4.75 
6.35 -445.67 4.65 
6.60 -445.05 4.83 
6.84 -443.76 4.58 
6.69 -443.17 4.56 
6.29 -445.76 4.66 
6.15 -444.21 4.81 
6.18 -443.86 4.79 
5.87 -444.65 4.62 
5.76 -444.09 4.60 
5.96 -443.38 4.43 
5.89 -442.70 4.76 
4.26 -447.63 4.55 
3.96 -447.62 4.74 
3.46 -447.57 4.75 
3.13 -447.55 4.93 
2.71 -447.48 4.75 
2.34 -448.06 4.76 
1.92 -448.00 4.76 
1.52 -447.94 4.76 
1.11 -447.88 4.76 
1.14 -447.33 4.77 
0.73 -447.83 4.76 
0.61 -447.28 4.93 
0.29 -447.23 4.77 
-0.02 -447.20 4.78 
-0.45 -447.16 4.78 
-1.61 -447.51 4.77 
-1.69 -447.02 4.79 
-2.04 -447.45 4.77 
-2.01 -446.99 4.79 
-2.50 -447.39 4.78 
-2.42 -446.94 4.80 
-2.82 -447.34 4.78 
-2.86 -446.91 4.80 
-3.30 -447.28 4.78 
-3.18 -446.87 4.85 
-4.27 -452.43 4.97 
-4.19 -451.57 4.76 
-3.74 -447.31 4.77 
-3.57 -446.90 4.86 
-4.73 -453.28 5.03 
-4.71 -452.88 5.01 
-4.44 -452.51 4.93 
-4.58 -452.14 4.98 
-4.38 -449.64 4.89 
-4.25 -449.20 4.88 
-4.27 -448.94 4.72 
-4.27 -448.52 5.02 
-4.24 -448.12 4.79 
-4.06 -447.64 4.76 
-4.06 -447.37 4.88 
-4.99 -453.25 5.03 
-4.85 -452.96 5.02 
-4.50 -449.59 4.97 
-4.50 -449.08 4.86 
-4.42 -448.28 4.83 
16.32 -443.75 4.78 
15.70 -444.43 4.80 
14.47 -448.77 4.94 
14.70 -448.74 4.94 
14.09 -448.73 4.94 
14.29 -448.69 4.94 
13.49 -438.23 4.84 
13.53 -436.94 4.58 
11.81 -444.61 5.08 
11.83 -442.47 4.74 
10.98 -449.21 5.30 
10.90 -448.38 4.94 
10.59 -449.17 5.29 
10.88 -444.55 5.06 
11.09 -444.19 5.05 
10.93 -443.47 4.78 
10.16 -448.25 4.93 
10.62 -444.28 4.92 
10.54 -443.59 4.78 
10.77 -443.52 4.78 
10.81 -442.89 4.76 
10.40 -444.12 4.80 
10.24 -443.66 4.78 
9.94 -444.45 4.81 
8.96 -448.95 5.26 
9.17 -448.20 4.93 
8.52 -448.89 5.25 
8.68 -448.12 4.93 
8.22 -448.84 5.25 
8.26 -448.08 4.93 
7.79 -448.80 5.24 
7.96 -448.04 4.93 
7.39 -448.74 5.23 
7.51 -448.01 4.93 
7.06 -448.67 5.23 
7.13 -447.95 4.93 
6.62 -448.63 5.22 
6.86 -447.91 4.93 
7.17 -444.17 4.99 
7.09 -443.63 5.16 
6.20 -448.56 5.21 
5.88 -448.52 5.21 
6.32 -443.71 4.95 
5.44 -448.46 5.20 
5.99 -444.37 5.17 
5.98 -443.24 5.12 
5.02 -448.41 5.20 
5.40 -442.64 4.88 
4.64 -448.35 5.19 
4.88 -444.56 5.16 
5.05 -443.61 4.93 
5.00 -443.38 5.01 
5.21 -442.55 5.08 
4.28 -448.31 5.19 
4.26 -447.65 5.31 
4.52 -445.18 5.01 
4.72 -444.03 4.95 
4.85 -443.54 4.93 
4.66 -442.69 5.07 
3.89 -448.25 5.18 
4.03 -447.64 5.31 
4.43 -443.36 4.91 
3.51 -448.20 5.18 
3.37 -447.58 5.30 
3.06 -448.14 5.17 
3.13 -447.55 5.29 
2.77 -448.11 5.17 
2.62 -448.07 5.16 
2.90 -447.52 5.29 
2.34 -448.04 5.16 
2.25 -447.43 5.28 
1.92 -447.99 5.16 
1.99 -447.42 5.27 
1.51 -447.92 5.15 
1.56 -447.39 5.27 
1.13 -447.86 5.15 
1.22 -447.35 5.26 
0.73 -447.83 5.15 
0.72 -447.29 5.26 
0.32 -447.77 5.14 
0.38 -447.27 5.25 
-0.08 -447.71 5.14 
-0.16 -447.22 5.25 
-0.51 -447.65 5.14 
-0.74 -447.63 5.14 
-0.89 -447.13 5.24 
-1.23 -447.54 5.13 
-1.20 -447.09 5.23 
-1.64 -447.49 5.13 
-1.61 -447.07 5.23 
-2.02 -447.44 5.13 
-2.04 -447.01 5.23 
-2.46 -447.38 5.13 
-2.34 -446.97 5.22 
-2.84 -447.33 5.13 
-2.89 -446.93 5.22 
-3.27 -447.27 5.13 
-3.09 -446.89 5.22 
-4.26 -452.34 5.55 
-4.20 -451.93 5.53 
-4.11 -451.18 5.48 
-4.03 -450.46 5.44 
-3.99 -449.59 5.39 
-3.96 -448.83 5.34 
-3.69 -447.27 5.18 
-3.59 -446.93 5.22 
-4.56 -452.81 5.18 
-4.08 -449.65 5.39 
-4.03 -448.95 5.35 
-4.00 -447.93 5.18 
-4.05 -447.69 5.18 
-4.00 -447.46 5.20 
-4.63 -449.45 5.28 
-4.62 -449.09 5.25 
-4.37 -447.81 5.17 
16.50 -444.51 5.39 
15.71 -449.80 5.39 
16.04 -448.89 5.56 
16.46 -444.33 5.15 
15.50 -449.84 5.39 
15.78 -445.96 5.21 
15.73 -445.09 5.17 
15.01 -449.78 5.38 
14.50 -449.70 5.37 
14.21 -449.67 5.36 
13.89 -449.62 5.36 
13.44 -449.56 5.35 
12.99 -449.50 5.34 
12.71 -449.46 5.33 
13.56 -438.24 5.29 
13.63 -438.15 5.29 
13.54 -436.94 5.06 
11.62 -449.31 5.31 
11.77 -449.27 5.31 
11.36 -449.28 5.31 
11.10 -448.42 5.45 
11.67 -443.93 5.26 
11.48 -443.54 5.24 
10.62 -448.36 5.44 
10.88 -445.23 5.57 
11.00 -443.85 5.25 
11.11 -443.24 5.22 
11.15 -443.11 5.22 
10.05 -445.11 5.53 
9.48 -448.25 5.42 
9.99 -444.54 5.49 
9.05 -448.19 5.41 
8.61 -448.12 5.40 
8.30 -448.10 5.39 
7.81 -448.81 5.72 
7.91 -448.07 5.38 
7.41 -448.75 5.71 
7.66 -448.04 5.38 
7.03 -448.69 5.70 
7.12 -447.95 5.37 
7.43 -442.78 5.30 
6.64 -448.65 5.69 
6.81 -447.93 5.36 
7.31 -443.04 5.31 
7.37 -442.85 5.30 
6.26 -448.59 5.67 
6.62 -443.70 5.33 
6.64 -443.55 5.32 
5.91 -448.53 5.66 
5.93 -447.82 5.34 
6.37 -443.67 5.32 
6.33 -442.80 5.26 
6.43 -442.76 5.26 
5.46 -448.48 5.65 
5.70 -447.83 5.34 
5.73 -443.78 5.40 
5.04 -448.43 5.64 
5.34 -444.79 5.37 
5.36 -444.41 5.34 
5.48 -444.25 5.42 
5.55 -443.68 5.48 
4.70 -448.37 5.63 
5.24 -443.66 5.29 
4.27 -448.30 5.61 
4.25 -447.70 5.70 
3.90 -448.26 5.60 
4.00 -447.68 5.69 
3.52 -448.21 5.59 
3.07 -448.15 5.58 
2.63 -448.10 5.57 
2.77 -447.54 5.65 
2.35 -448.07 5.57 
2.20 -448.04 5.56 
2.29 -447.49 5.63 
1.94 -448.00 5.56 
1.91 -447.46 5.62 
1.51 -447.93 5.55 
1.50 -447.42 5.61 
1.15 -447.88 5.54 
0.74 -447.83 5.53 
0.71 -447.33 5.58 
0.29 -447.76 5.52 
-0.17 -447.71 5.51 
-0.13 -447.24 5.56 
-0.48 -447.66 5.51 
-1.08 -447.58 5.50 
-0.92 -447.16 5.54 
-1.35 -447.55 5.50 
-1.25 -447.12 5.53 
-1.65 -447.51 5.49 
-1.61 -447.08 5.53 
-2.05 -447.44 5.49 
-1.92 -447.05 5.52 
-2.50 -447.39 5.48 
-2.81 -447.35 5.48 
-3.25 -447.29 5.48 
-3.05 -446.91 5.50 
-4.43 -453.67 5.64 
-4.36 -453.26 5.61 
-4.31 -452.77 5.58 
-4.20 -451.95 5.92 
-4.14 -451.65 5.89 
-4.10 -451.20 5.85 
-4.05 -451.00 5.84 
-4.00 -450.64 5.80 
-3.93 -449.95 5.75 
-3.82 -448.44 5.62 
-3.72 -447.53 5.54 
-3.69 -447.26 5.48 
-3.52 -446.88 5.49 
-4.57 -452.59 5.94 
-4.47 -452.09 5.90 
-4.45 -451.67 5.86 
-4.40 -449.22 5.65 
-3.98 -448.31 5.61 
-4.10 -447.76 5.53 
-3.91 -447.49 5.50 
-4.42 -447.97 5.55 
-4.33 -447.80 5.53 
14.83 -449.73 5.99 
14.52 -449.71 5.98 
14.24 -449.69 5.97 
13.40 -449.53 5.93 
13.00 -449.49 5.91 
13.62 -438.26 5.75 
13.67 -438.15 5.74 
13.62 -437.08 5.54 
13.56 -436.96 5.54 
11.37 -449.28 5.85 
11.53 -449.25 5.85 
11.35 -448.48 5.98 
10.86 -449.22 5.83 
11.02 -449.20 5.84 
10.71 -448.41 5.95 
11.26 -443.06 5.68 
10.19 -449.09 5.81 
10.11 -448.34 5.93 
10.29 -448.32 5.93 
10.65 -443.16 5.66 
9.89 -449.08 5.80 
9.84 -448.33 5.92 
10.28 -443.28 5.65 
9.37 -448.99 5.78 
8.98 -448.96 5.76 
9.32 -443.69 5.63 
8.76 -448.94 5.76 
8.69 -448.18 5.87 
8.16 -448.84 5.73 
8.35 -448.15 5.85 
7.87 -448.11 5.83 
7.51 -448.08 5.82 
6.96 -447.98 5.80 
6.71 -447.98 5.79 
6.19 -448.59 6.13 
6.56 -443.70 5.71 
6.66 -443.59 5.70 
6.91 -443.21 5.68 
5.89 -448.53 6.12 
5.92 -447.87 5.76 
5.50 -448.48 6.10 
5.56 -447.85 5.74 
5.05 -448.43 6.08 
4.71 -448.38 6.07 
4.30 -448.32 6.05 
4.15 -447.75 6.08 
3.83 -448.26 6.03 
3.80 -447.71 6.06 
3.58 -448.22 6.02 
1.66 -447.96 5.95 
1.26 -447.44 5.94 
0.74 -447.83 5.92 
-0.07 -447.73 5.90 
-0.05 -447.29 5.88 
-0.37 -447.70 5.89 
-1.26 -447.56 5.87 
-1.12 -447.18 5.84 
-1.54 -447.54 5.86 
-2.15 -447.45 5.85 
-2.98 -447.36 6.20 
-3.24 -445.20 5.91 
-4.42 -453.73 6.07 
-4.24 -452.40 6.35 
-4.18 -452.10 6.32 
-4.10 -451.22 6.23 
-4.04 -451.04 6.21 
-3.83 -448.17 5.90 
-3.68 -447.29 6.01 
-4.37 -449.72 6.10 
-4.16 -449.13 6.04 
-4.07 -448.87 6.01 
-4.06 -448.64 5.98 
-4.00 -447.96 5.91 
-3.91 -447.48 6.21 
16.50 -444.22 5.96 
15.51 -448.95 6.16 
13.04 -449.05 6.46 
12.61 -448.99 6.44 
13.63 -437.07 6.03 
13.61 -436.95 6.02 
12.19 -448.93 6.41 
12.37 -448.92 6.42 
11.82 -448.84 6.39 
11.13 -448.79 6.35 
10.74 -448.73 6.33 
10.92 -445.73 6.09 
11.27 -443.05 6.14 
10.37 -448.69 6.31 
10.26 -448.10 6.42 
10.57 -445.81 6.07 
10.57 -445.18 6.02 
10.58 -444.80 5.99 
10.64 -444.36 6.18 
9.92 -448.60 6.28 
10.04 -448.29 6.42 
10.28 -444.46 6.16 
9.54 -448.57 6.26 
9.00 -448.41 6.26 
8.62 -448.77 6.24 
8.26 -448.89 6.24 
8.29 -448.18 6.32 
8.45 -448.16 6.32 
7.83 -448.80 6.21 
7.92 -448.15 6.30 
7.42 -448.76 6.19 
7.44 -448.10 6.27 
6.97 -448.68 6.17 
6.65 -448.65 6.16 
6.67 -448.03 6.22 
6.86 -448.03 6.23 
6.36 -448.61 6.14 
6.43 -447.98 6.21 
5.42 -447.87 6.15 
5.63 -442.88 6.12 
3.69 -448.25 6.45 
0.60 -447.82 6.30 
0.50 -447.83 6.30 
-1.76 -447.52 6.22 
-2.09 -447.52 6.46 
-2.37 -447.48 6.57 
-3.20 -447.34 6.55 
-4.41 -453.74 6.50 
-4.35 -453.27 6.45 
-4.30 -452.83 6.40 
-3.70 -447.62 6.54 
-4.30 -448.67 6.37 
-4.20 -448.53 6.35 
-4.20 -448.23 6.31 
14.91 -449.30 6.57 
14.59 -449.27 6.56 
14.19 -449.17 6.53 
13.94 -449.17 6.51 
13.48 -449.10 6.49 
13.66 -437.07 6.51 
13.69 -436.95 6.51 
11.03 -448.78 6.88 
10.28 -448.69 6.83 
9.80 -448.63 6.79 
9.46 -448.57 6.77 
9.13 -448.54 6.74 
8.68 -448.47 6.71 
7.90 -451.39 7.00 
7.93 -451.14 6.97 
7.98 -450.80 6.93 
8.04 -450.35 6.88 
8.12 -449.81 6.83 
8.17 -449.37 6.78 
8.21 -449.07 6.75 
8.27 -448.67 6.71 
8.35 -448.43 6.69 
-3.95 -448.83 6.78 
-3.85 -448.47 6.73 
-3.78 -448.08 6.66 
15.37 -449.84 7.27 
15.05 -449.31 7.19 
14.72 -449.27 7.17 
14.30 -449.23 7.14 
13.82 -449.16 7.10 
13.37 -449.11 7.06 
13.07 -449.06 7.04 
12.64 -449.01 7.01 
12.23 -448.95 6.97 
11.81 -448.89 6.94 
11.41 -448.84 6.91 
9.72 -448.63 7.30 
7.66 -453.52 7.23 
7.71 -453.08 7.18 
7.72 -452.75 7.15 
7.79 -452.24 7.09 
7.96 -451.82 7.09 
7.86 -451.61 7.02 
8.23 -449.68 7.33 
7.57 -454.03 7.29 
7.61 -453.56 7.24 
11.47 -448.88 7.47 
10.70 -448.77 7.39 
8.01 -451.41 7.55 
8.04 -451.01 7.49 
8.10 -450.71 7.46 
8.17 -450.11 7.38 
16.47 -450.00 8.01 
15.10 -449.34 7.82 
14.66 -449.30 7.78 
14.34 -449.25 7.74 
14.03 -449.22 7.71 
10.51 -448.80 7.92 
8.78 -448.57 7.73 
8.02 -452.11 8.21 
8.08 -451.95 8.18 
8.26 -450.38 7.96 
8.29 -450.01 7.91 
8.35 -449.58 7.85 
8.40 -449.16 7.79 
8.46 -448.77 7.74 
5.60 -451.02 7.87 
14.11 -449.28 8.34 
13.21 -449.16 8.23 
12.35 -449.05 8.13 
10.32 -448.80 8.44 
9.46 -448.67 8.33 
8.11 -453.25 8.39 
8.44 -450.23 8.48 
8.46 -449.86 8.42 
8.52 -449.44 8.36 
8.57 -449.03 8.29 
8.60 -448.69 8.24 
7.95 -452.61 8.28 
8.01 -452.46 8.26 
12.97 -449.17 8.79 
12.12 -449.05 8.68 
11.32 -448.93 8.57 
10.97 -448.85 8.52 
15.35 -449.43 9.11 
14.80 -449.40 9.04 
13.87 -449.29 8.92 
11.85 -448.68 4.42 
10.99 -444.01 4.35 
10.26 -448.51 4.46 
9.99 -448.49 4.46 
8.95 -449.14 4.27 
8.56 -449.05 4.28 
8.17 -448.27 4.50 
7.82 -448.23 4.51 
6.95 -448.10 4.52 
4.22 -447.26 4.34 
3.96 -447.29 4.34 
1.91 -445.25 4.26 
2.16 -445.03 4.25 
1.86 -445.67 4.35 
1.72 -445.47 4.31 
-1.77 -447.56 4.44 
-1.72 -447.13 4.36 
-2.11 -447.52 4.45 
-2.02 -447.09 4.37 
-2.54 -447.45 4.45 
-2.93 -447.40 4.46 
-2.89 -446.99 4.39 
-3.43 -447.33 4.46 
-3.23 -446.95 4.40 
-3.90 -447.57 4.41 
-3.76 -447.26 4.46 
-3.67 -446.92 4.41 
-3.43 -445.14 4.43 
-4.84 -453.11 4.69 
-4.61 -452.74 4.81 
-4.74 -452.13 4.55 
-4.26 -447.98 4.47 
-4.06 -447.63 4.45 
-4.03 -447.24 4.47 
-5.17 -453.33 4.57 
-4.94 -452.75 4.56 
-4.65 -449.63 4.51 
-4.58 -449.21 4.51 
-4.48 -447.86 4.49 
16.31 -446.76 4.68 
15.23 -449.98 4.80 
15.88 -446.09 4.66 
14.60 -449.91 4.80 
13.38 -438.43 4.43 
11.29 -449.46 4.80 
10.91 -449.41 4.80 
10.62 -449.34 4.80 
10.18 -449.31 4.80 
10.43 -445.31 4.66 
10.37 -445.13 4.65 
9.81 -449.25 4.80 
10.12 -445.29 4.66 
10.23 -444.84 4.65 
9.33 -449.18 4.80 
9.83 -445.61 4.67 
9.82 -445.30 4.66 
8.48 -449.06 4.80 
8.16 -449.01 4.80 
8.09 -448.97 4.80 
7.84 -448.97 4.80 
7.64 -448.94 4.80 
7.51 -443.16 4.81 
6.96 -443.76 4.83 
7.01 -442.60 4.79 
6.84 -443.86 4.73 
6.81 -443.28 4.61 
5.79 -445.21 4.68 
5.78 -444.89 4.67 
5.68 -444.64 4.66 
5.88 -444.20 4.66 
6.02 -443.93 4.84 
5.93 -443.53 4.46 
4.52 -443.45 4.83 
3.68 -447.76 4.98 
2.25 -448.16 4.82 
2.20 -447.59 4.99 
1.88 -448.10 4.82 
1.98 -447.57 4.99 
1.46 -448.04 4.82 
1.41 -446.41 4.61 
1.06 -447.97 4.82 
1.11 -447.46 4.81 
0.64 -447.93 4.82 
0.32 -447.37 4.82 
-0.20 -447.30 4.65 
-0.55 -447.75 4.83 
-1.81 -447.57 4.84 
-1.68 -447.14 4.84 
-2.17 -447.52 4.84 
-2.09 -447.09 4.84 
-2.47 -447.46 4.84 
-2.55 -447.02 4.85 
-2.91 -447.40 4.84 
-2.82 -447.01 4.85 
-3.37 -447.35 4.85 
-3.28 -446.95 4.86 
-3.13 -444.80 4.80 
-3.88 -447.48 5.03 
-3.74 -447.25 4.92 
-3.59 -446.91 4.86 
-3.43 -445.16 4.76 
-4.81 -452.58 5.06 
-4.69 -452.06 5.04 
-4.47 -449.76 4.76 
-4.34 -449.18 4.93 
-4.41 -448.62 5.08 
-4.34 -448.42 5.07 
-4.30 -447.92 4.97 
-4.11 -447.57 4.93 
-5.12 -453.26 5.09 
-4.99 -452.94 5.08 
-4.62 -449.52 5.03 
-4.53 -449.15 5.10 
-4.54 -448.57 4.91 
-4.44 -448.26 4.89 
16.47 -444.68 4.83 
15.91 -449.17 4.98 
16.12 -444.33 4.82 
15.34 -449.06 4.97 
14.16 -448.92 4.97 
13.93 -448.94 4.97 
13.58 -448.90 4.97 
13.48 -438.33 4.88 
13.55 -437.14 4.62 
13.38 -438.42 4.88 
10.66 -448.56 4.98 
11.16 -445.19 5.15 
10.96 -444.82 5.12 
10.94 -444.08 4.83 
10.43 -445.79 5.17 
10.42 -445.38 5.15 
10.40 -444.98 5.13 
10.54 -444.26 4.84 
10.71 -443.80 4.82 
10.56 -443.59 4.81 
9.83 -449.25 5.34 
9.97 -445.57 5.15 
10.29 -445.25 5.14 
10.46 -443.98 4.83 
10.47 -443.29 4.80 
10.58 -442.67 4.78 
8.92 -448.32 4.97 
8.41 -448.99 5.32 
8.65 -448.33 4.98 
8.27 -448.29 4.98 
7.74 -448.94 5.31 
7.88 -448.23 4.98 
7.34 -448.90 5.30 
7.42 -448.17 4.98 
7.04 -448.85 5.30 
7.00 -448.14 4.98 
6.58 -448.75 5.29 
6.58 -448.10 4.98 
7.09 -444.43 5.06 
6.18 -448.72 5.29 
6.18 -448.04 4.98 
6.42 -445.45 4.89 
6.60 -444.61 5.07 
6.63 -442.97 4.98 
5.82 -448.67 5.28 
5.87 -448.01 4.98 
5.99 -445.47 5.11 
6.50 -443.27 4.99 
6.32 -443.13 5.18 
5.46 -448.62 5.28 
5.66 -444.06 5.03 
5.02 -448.55 5.27 
5.43 -444.68 5.06 
5.62 -443.90 5.20 
4.60 -448.49 5.27 
5.02 -443.63 5.09 
4.94 -443.12 5.16 
5.25 -442.70 4.95 
4.21 -448.42 5.26 
4.27 -447.83 4.98 
4.49 -445.18 5.08 
4.62 -443.96 5.01 
4.89 -443.24 4.98 
3.83 -448.36 5.26 
4.37 -443.86 5.18 
4.50 -442.92 5.14 
3.37 -448.30 5.25 
3.31 -447.70 5.37 
3.05 -448.24 5.25 
2.89 -447.68 5.37 
3.07 -447.67 5.37 
2.62 -448.20 5.25 
2.24 -448.14 5.24 
2.14 -447.60 5.36 
2.29 -447.61 5.36 
1.88 -448.09 5.24 
1.99 -447.57 5.35 
1.45 -448.03 5.24 
1.38 -447.48 5.35 
1.07 -447.97 5.23 
0.64 -447.92 5.23 
0.25 -447.85 5.23 
0.26 -447.37 5.34 
-0.16 -447.79 5.23 
-0.13 -447.33 5.33 
-0.52 -447.73 5.23 
-0.50 -447.29 5.33 
-0.96 -447.67 5.22 
-0.90 -447.25 5.33 
-1.23 -447.63 5.22 
-1.33 -447.20 5.32 
-1.73 -447.56 5.22 
-1.66 -447.16 5.32 
-2.13 -447.50 5.22 
-2.08 -447.10 5.32 
-2.53 -447.44 5.22 
-2.92 -447.39 5.22 
-2.84 -447.02 5.31 
-3.35 -447.32 5.22 
-3.23 -446.96 5.31 
-4.29 -451.65 5.20 
-3.73 -447.25 5.24 
-3.41 -445.17 5.09 
-4.84 -453.21 5.26 
-4.75 -452.85 5.25 
-4.51 -452.45 5.23 
-4.36 -451.87 5.20 
-4.20 -448.90 5.43 
-4.24 -447.85 5.27 
-4.04 -447.60 5.30 
-4.74 -449.13 5.35 
-4.52 -447.87 5.27 
16.38 -449.23 5.62 
16.41 -445.39 5.23 
16.17 -445.86 5.25 
16.23 -445.70 5.24 
16.22 -445.03 5.21 
16.23 -444.75 5.20 
15.60 -445.89 5.24 
14.94 -449.00 5.58 
15.61 -443.94 5.38 
14.38 -449.90 5.42 
14.95 -445.82 5.23 
14.08 -449.85 5.41 
14.33 -448.99 5.57 
13.79 -449.82 5.41 
13.08 -448.78 5.54 
12.49 -449.63 5.39 
13.48 -438.39 5.34 
13.57 -437.14 5.09 
12.08 -449.56 5.38 
11.49 -444.57 5.33 
11.53 -442.36 5.24 
11.02 -444.28 5.31 
10.17 -449.29 5.35 
10.15 -448.54 5.49 
10.41 -445.28 5.62 
10.46 -445.11 5.61 
10.76 -443.85 5.28 
10.44 -443.83 5.28 
9.39 -448.42 5.47 
9.90 -445.06 5.59 
9.06 -448.39 5.47 
8.68 -448.35 5.46 
9.03 -444.60 5.54 
8.19 -448.30 5.45 
7.85 -448.24 5.45 
7.48 -448.21 5.44 
7.46 -442.69 5.56 
7.49 -442.33 5.54 
7.12 -443.38 5.40 
6.21 -448.72 5.77 
6.35 -448.06 5.42 
6.66 -443.10 5.56 
5.83 -448.67 5.76 
6.36 -444.70 5.48 
6.17 -443.99 5.51 
6.27 -442.90 5.35 
6.30 -442.69 5.33 
6.50 -442.32 5.51 
5.39 -448.61 5.75 
5.42 -447.93 5.40 
5.71 -444.49 5.45 
5.69 -444.25 5.43 
6.06 -443.43 5.38 
6.08 -442.93 5.35 
4.95 -448.54 5.74 
5.07 -447.91 5.40 
5.28 -444.87 5.47 
5.40 -444.43 5.44 
5.50 -444.15 5.58 
4.61 -448.49 5.73 
4.65 -447.89 5.39 
5.07 -444.87 5.54 
5.16 -443.43 5.36 
4.20 -448.44 5.72 
4.30 -447.85 5.39 
3.79 -448.38 5.71 
4.03 -447.80 5.38 
3.39 -448.32 5.70 
3.36 -447.76 5.77 
3.01 -448.27 5.69 
3.05 -447.72 5.76 
2.63 -448.21 5.68 
2.18 -448.15 5.67 
2.24 -447.64 5.73 
1.82 -448.09 5.67 
1.91 -447.60 5.72 
1.45 -448.03 5.66 
1.45 -447.55 5.71 
1.08 -447.97 5.65 
1.11 -447.50 5.70 
0.66 -447.92 5.64 
0.65 -447.45 5.69 
0.27 -447.87 5.64 
0.37 -447.42 5.69 
0.49 -447.42 5.69 
-0.19 -447.79 5.63 
-0.54 -447.75 5.63 
-0.49 -447.31 5.67 
-0.79 -447.72 5.62 
-0.92 -447.69 5.62 
-1.17 -447.65 5.62 
-1.31 -447.23 5.65 
-1.74 -447.57 5.61 
-1.64 -447.19 5.64 
-2.17 -447.51 5.61 
-2.18 -447.12 5.63 
-2.53 -447.45 5.61 
-2.92 -447.41 5.61 
-2.87 -447.05 5.62 
-3.31 -447.35 5.61 
-3.20 -446.99 5.62 
-4.17 -450.69 5.93 
-3.95 -448.37 5.73 
-3.89 -447.64 5.67 
-3.73 -447.25 5.61 
-3.67 -446.96 5.62 
-4.47 -452.98 5.68 
-4.54 -451.58 5.97 
-4.43 -449.17 5.77 
-4.14 -448.95 5.78 
-4.24 -447.81 5.65 
-4.02 -447.55 5.63 
-4.54 -449.17 5.77 
-4.43 -447.91 5.66 
15.38 -450.04 6.08 
14.83 -449.94 6.06 
14.20 -449.85 6.04 
13.75 -449.78 6.02 
13.51 -449.78 6.01 
13.11 -449.67 5.99 
13.52 -438.40 5.80 
13.59 -437.13 5.57 
10.79 -448.64 6.03 
10.00 -449.23 5.88 
10.20 -448.57 6.01 
10.64 -444.25 5.77 
10.66 -443.17 5.71 
9.85 -449.26 5.88 
9.66 -448.52 5.99 
9.46 -449.19 5.87 
9.57 -448.48 5.98 
9.09 -449.12 5.86 
8.87 -448.41 5.96 
8.58 -449.06 5.84 
8.08 -449.01 5.83 
8.25 -448.34 5.93 
7.66 -448.95 5.81 
7.80 -448.92 5.81 
7.84 -448.27 5.92 
7.36 -448.91 5.80 
7.44 -448.25 5.90 
7.06 -448.87 5.80 
6.87 -448.83 5.79 
7.21 -448.22 5.89 
6.53 -448.77 5.78 
6.58 -448.11 5.87 
6.24 -448.11 5.86 
6.78 -443.36 5.79 
6.25 -443.99 5.82 
6.32 -443.89 5.82 
5.38 -447.98 5.83 
5.92 -444.76 5.88 
5.04 -447.95 5.82 
4.54 -448.50 6.19 
4.69 -447.92 5.81 
4.20 -448.44 6.18 
4.26 -447.88 5.80 
3.80 -448.39 6.16 
3.40 -448.33 6.15 
3.01 -448.27 6.13 
2.63 -448.22 6.12 
1.47 -448.05 6.08 
0.72 -447.94 6.06 
0.38 -447.88 6.05 
-0.66 -447.74 6.03 
-0.91 -447.70 6.03 
-1.43 -447.25 5.98 
-1.65 -447.23 5.97 
-2.55 -447.47 6.00 
-2.78 -447.43 6.00 
-3.42 -447.35 5.99 
-3.36 -447.04 5.93 
-4.35 -451.93 6.03 
-4.29 -451.51 6.00 
-4.22 -451.11 6.36 
-4.16 -450.81 6.33 
-3.70 -447.30 5.99 
-3.66 -446.99 5.92 
-4.48 -452.93 6.12 
-4.41 -452.44 6.07 
-4.66 -452.02 6.01 
-4.20 -449.16 6.15 
-4.30 -448.74 6.15 
-4.16 -448.35 6.07 
-4.07 -447.55 6.02 
-4.34 -447.41 6.01 
15.62 -450.05 6.09 
16.37 -444.61 6.01 
15.07 -449.08 6.20 
13.61 -437.19 6.06 
11.71 -449.03 6.48 
10.99 -448.96 6.45 
11.12 -445.75 6.18 
10.78 -445.32 6.13 
10.95 -444.23 6.25 
11.08 -443.21 6.20 
10.22 -448.82 6.41 
10.59 -445.71 6.15 
10.62 -445.34 6.13 
9.78 -448.78 6.39 
9.80 -448.06 6.47 
9.35 -448.67 6.36 
9.51 -448.02 6.45 
8.92 -449.10 6.38 
9.16 -448.77 6.36 
8.53 -449.09 6.37 
8.19 -449.02 6.35 
8.28 -448.35 6.42 
7.79 -448.96 6.33 
7.60 -448.89 6.32 
7.86 -448.34 6.40 
7.37 -448.91 6.31 
7.50 -448.30 6.38 
6.97 -448.85 6.29 
6.59 -448.79 6.28 
6.64 -448.16 6.33 
6.16 -448.72 6.26 
6.30 -448.16 6.31 
5.86 -448.69 6.24 
5.89 -448.11 6.29 
5.48 -448.63 6.23 
5.04 -448.57 6.21 
5.11 -448.02 6.25 
4.70 -448.52 6.20 
4.74 -447.97 6.23 
4.24 -447.89 6.21 
0.53 -447.94 6.48 
-0.03 -447.84 6.45 
-3.18 -447.41 6.38 
-3.01 -444.98 6.25 
-4.40 -452.69 6.53 
-4.40 -452.48 6.51 
-4.33 -452.03 6.46 
-4.28 -451.56 6.41 
-3.93 -448.87 6.47 
-3.74 -447.91 6.35 
-3.53 -447.35 6.38 
-4.54 -451.92 6.50 
-4.43 -449.14 6.62 
-4.37 -448.77 6.57 
-4.21 -447.47 6.40 
15.70 -450.03 6.75 
15.98 -448.76 6.85 
14.82 -449.50 6.66 
15.43 -445.94 6.41 
14.39 -449.40 6.63 
14.19 -449.42 6.63 
13.87 -449.36 6.61 
13.44 -449.30 6.58 
13.09 -449.23 6.56 
13.23 -448.45 6.67 
12.58 -449.18 6.53 
13.68 -438.22 6.26 
13.72 -437.13 6.55 
