# .PCD v0.7 - Point Cloud Data file format
VERSION 0.7
FIELDS x y z
SIZE 4 4 4
TYPE F F F
COUNT 1 1 1
WIDTH 2413
HEIGHT 1
VIEWPOINT 0 0 0 1 0 0 0
POINTS 2413
DATA ascii
-3.71 -404.27 4.95 
-4.20 -404.18 4.95 
-4.73 -404.08 4.96 
-5.42 -403.98 4.97 
-5.77 -403.93 4.97 
-5.95 -403.83 4.98 
-6.83 -403.73 4.99 
-8.07 -403.56 5.01 
1.22 -403.53 5.13 
1.08 -403.37 5.13 
0.94 -403.26 5.14 
-2.63 -404.61 5.10 
-2.97 -404.55 5.10 
-3.34 -404.49 5.11 
-3.81 -404.40 5.12 
-4.17 -404.34 5.12 
-4.54 -404.27 5.13 
-4.95 -404.21 5.14 
-5.32 -404.14 5.14 
-5.61 -404.11 5.15 
-6.49 -403.96 5.17 
-6.92 -403.89 5.18 
-7.29 -403.83 5.19 
-7.71 -403.75 5.20 
-8.10 -403.69 5.21 
1.08 -402.84 5.71 
0.72 -404.51 5.52 
-2.13 -404.64 5.60 
-2.61 -404.56 5.61 
-2.96 -404.50 5.61 
-3.29 -404.44 5.62 
-3.77 -404.36 5.63 
-4.16 -404.30 5.63 
-4.49 -404.24 5.64 
-4.35 -404.16 5.54 
-4.94 -404.16 5.65 
-5.23 -404.11 5.66 
-5.35 -404.03 5.61 
-5.76 -403.98 5.62 
-6.11 -403.97 5.68 
-6.44 -403.92 5.69 
-6.86 -403.79 5.65 
-7.28 -403.77 5.72 
-7.70 -403.70 5.73 
-8.17 -403.58 5.68 
1.01 -404.50 6.13 
0.64 -404.50 6.13 
0.37 -404.48 6.13 
-1.82 -404.61 6.10 
-2.15 -404.54 6.11 
-2.54 -404.47 6.11 
-2.95 -404.40 6.12 
-3.32 -404.34 6.13 
-3.76 -404.30 6.14 
-4.15 -404.23 6.15 
-4.08 -404.14 6.14 
-4.48 -404.18 6.16 
-4.53 -404.07 6.14 
-4.93 -404.09 6.17 
-5.30 -403.99 6.17 
-5.65 -403.97 6.19 
-6.11 -403.90 6.21 
-6.50 -403.79 6.20 
-6.88 -403.76 6.23 
-7.27 -403.69 6.25 
-7.67 -403.64 6.27 
-8.16 -403.52 6.25 
-8.44 -403.50 6.30 
6.26 -403.84 6.88 
4.53 -404.43 6.76 
2.20 -404.29 6.70 
1.55 -403.75 6.74 
1.06 -404.27 6.68 
-5.56 -403.88 6.76 
-6.08 -403.77 6.77 
-6.52 -403.71 6.78 
-6.87 -403.65 6.79 
-7.27 -403.58 6.80 
-7.70 -403.52 6.82 
-8.02 -403.47 6.83 
-8.21 -403.42 6.83 
-8.40 -403.42 6.84 
6.80 -388.07 6.63 
4.18 -404.25 7.32 
3.76 -404.20 7.31 
3.33 -404.46 7.26 
3.33 -404.04 7.31 
2.70 -404.32 7.25 
2.29 -403.44 7.35 
1.73 -404.22 7.23 
1.96 -404.00 7.27 
4.74 -403.52 7.43 
10.54 -387.56 7.67 
10.15 -387.70 7.65 
10.04 -387.18 7.69 
9.93 -386.76 7.72 
9.00 -388.41 7.57 
8.72 -388.42 7.56 
8.33 -388.73 7.53 
8.37 -388.14 7.58 
8.40 -386.62 7.70 
7.88 -387.29 7.63 
6.96 -389.32 7.45 
7.05 -388.09 7.55 
6.86 -387.90 7.57 
6.37 -387.45 7.59 
6.41 -386.41 7.68 
4.64 -404.23 7.90 
7.84 -387.47 8.57 
9.09 -386.56 8.69 
-4.62 -404.27 3.59 
-5.07 -404.20 3.60 
-5.38 -404.15 3.60 
-5.66 -404.10 3.60 
-5.89 -404.05 3.60 
-6.25 -403.98 3.60 
-6.64 -403.92 3.61 
-6.97 -403.87 3.61 
-7.46 -403.78 3.61 
-7.78 -403.71 3.61 
-8.19 -403.66 3.61 
-2.69 -404.58 4.05 
-2.98 -404.53 4.06 
-3.36 -404.46 4.06 
-3.82 -404.38 4.06 
-4.28 -404.31 4.07 
-4.68 -404.24 4.07 
-4.97 -404.18 4.08 
-5.36 -404.11 4.08 
-6.30 -403.95 4.09 
-6.59 -403.90 4.10 
-7.04 -403.82 4.10 
-7.35 -403.77 4.11 
-7.85 -403.69 4.11 
-8.22 -403.61 4.12 
-2.68 -404.57 4.52 
-2.97 -404.53 4.53 
-3.35 -404.45 4.53 
-3.81 -404.36 4.54 
-4.15 -404.38 4.43 
-4.67 -404.23 4.55 
-5.08 -404.22 4.44 
-5.42 -404.18 4.45 
-6.35 -404.06 4.35 
-6.28 -403.93 4.58 
-6.58 -403.89 4.58 
-6.95 -403.90 4.47 
-7.47 -403.79 4.48 
-7.83 -403.68 4.61 
-8.25 -403.65 4.49 
-1.84 -404.67 4.98 
-2.25 -404.60 4.99 
-2.67 -404.53 4.99 
-2.96 -404.47 5.00 
-3.34 -404.40 5.01 
-3.77 -404.33 5.01 
-4.23 -404.24 5.02 
-4.66 -404.16 5.03 
-5.01 -404.15 5.00 
-5.51 -404.18 4.89 
-5.31 -404.05 5.04 
-6.34 -404.09 4.90 
-6.98 -403.97 4.91 
-7.34 -403.89 4.92 
-8.19 -403.74 4.94 
-4.04 -404.49 5.43 
-6.28 -403.91 5.07 
-6.57 -403.85 5.07 
-7.02 -403.78 5.09 
-7.34 -403.70 5.09 
-7.82 -403.63 5.11 
-8.20 -403.54 5.12 
1.43 -402.86 5.57 
0.09 -404.48 5.42 
-1.67 -404.66 5.46 
-1.89 -404.61 5.46 
-2.24 -404.56 5.47 
-2.66 -404.48 5.47 
-3.08 -404.40 5.48 
-3.37 -404.35 5.49 
-3.75 -404.28 5.49 
-4.21 -404.20 5.51 
-4.65 -404.12 5.52 
-4.87 -404.08 5.52 
-5.09 -404.03 5.53 
-5.34 -404.00 5.53 
-5.84 -403.92 5.55 
-6.19 -403.85 5.56 
-6.53 -403.80 5.57 
-7.01 -403.71 5.59 
-7.33 -403.65 5.60 
-7.79 -403.57 5.61 
-8.14 -403.63 5.57 
0.11 -404.44 5.99 
-1.45 -404.59 5.94 
-1.78 -404.55 5.95 
-2.22 -404.48 5.95 
-2.64 -404.41 5.95 
-2.90 -404.66 5.97 
-3.06 -404.34 5.96 
-3.35 -404.28 5.97 
-3.76 -404.26 5.98 
-4.16 -404.20 5.99 
-4.67 -404.04 6.01 
-5.00 -403.98 6.02 
-5.45 -404.21 6.01 
-5.33 -403.94 6.02 
-5.79 -404.15 6.02 
-5.85 -403.84 6.04 
-6.14 -404.08 6.03 
-6.18 -403.78 6.06 
-6.52 -403.73 6.07 
-7.00 -403.64 6.09 
-7.33 -403.58 6.10 
-7.73 -403.52 6.12 
-7.95 -403.47 6.13 
-8.25 -403.70 6.08 
-8.19 -403.44 6.14 
2.56 -404.31 6.51 
-2.71 -404.60 6.53 
-3.51 -404.50 6.54 
-5.95 -404.07 6.59 
-6.20 -404.03 6.59 
-6.45 -403.98 6.60 
-6.63 -403.93 6.61 
-6.96 -403.89 6.62 
-7.38 -403.81 6.63 
-7.72 -403.75 6.64 
-8.15 -403.68 6.66 
7.02 -388.61 6.44 
5.97 -403.91 6.67 
5.04 -404.36 6.59 
4.78 -404.19 6.59 
4.56 -404.08 6.60 
-4.50 -400.76 6.84 
-4.99 -400.97 6.83 
9.25 -385.18 6.67 
5.84 -403.43 7.27 
5.50 -404.60 7.12 
5.02 -404.51 7.10 
4.36 -404.40 7.08 
3.73 -402.99 7.23 
3.49 -403.73 7.13 
2.98 -404.17 7.05 
7.40 -389.04 7.30 
7.13 -389.17 7.29 
6.91 -388.88 7.30 
4.95 -404.61 7.61 
5.06 -403.99 7.70 
4.59 -404.68 7.58 
3.77 -404.25 7.60 
3.54 -404.24 7.59 
-3.87 -401.13 7.45 
-4.58 -401.04 7.46 
-4.90 -401.34 7.43 
-5.27 -401.25 7.45 
11.15 -387.52 7.51 
10.73 -387.42 7.50 
10.44 -387.04 7.52 
10.05 -386.46 7.56 
9.06 -388.32 7.39 
9.32 -385.93 7.58 
8.81 -388.20 7.40 
8.26 -388.14 7.39 
8.47 -385.93 7.57 
6.81 -386.50 7.49 
4.71 -403.41 7.76 
9.42 -386.54 8.49 
6.37 -385.95 8.47 
5.83 -386.83 8.37 
5.72 -386.16 8.44 
-4.61 -404.37 3.70 
-5.05 -404.28 3.70 
-5.29 -404.25 3.71 
-5.51 -404.22 3.71 
-5.84 -404.15 3.71 
-6.16 -404.09 3.71 
-6.58 -404.00 3.71 
-7.00 -403.93 3.71 
-7.36 -403.87 3.72 
-7.79 -403.79 3.72 
-8.14 -403.71 3.72 
-3.04 -404.63 4.14 
-3.47 -404.55 4.14 
-3.87 -404.49 4.14 
-4.27 -404.40 4.15 
-4.61 -404.33 4.15 
-4.90 -404.28 4.16 
-5.05 -404.25 4.16 
-5.24 -404.23 4.16 
-6.23 -404.03 4.17 
-6.54 -403.98 4.17 
-7.00 -403.89 4.18 
-7.44 -403.82 4.19 
-7.74 -403.75 4.19 
-8.18 -403.66 4.20 
-2.70 -404.68 4.58 
-3.03 -404.63 4.58 
-3.42 -404.54 4.58 
-3.85 -404.45 4.59 
-4.26 -404.37 4.60 
-4.63 -404.32 4.60 
-4.51 -404.15 4.40 
-4.94 -404.27 4.61 
-5.11 -404.03 4.41 
-5.37 -403.99 4.41 
-5.61 -403.98 4.42 
-6.15 -404.02 4.63 
-6.53 -403.96 4.64 
-7.00 -403.88 4.64 
-7.43 -403.80 4.65 
-7.22 -403.66 4.43 
-7.78 -403.66 4.55 
-8.17 -403.64 4.67 
-2.62 -404.65 5.02 
-3.01 -404.58 5.02 
-3.41 -404.50 5.03 
-3.84 -404.39 5.04 
-4.25 -404.33 5.05 
-4.16 -404.23 4.93 
-4.63 -404.28 5.05 
-4.57 -404.16 4.94 
-4.87 -404.24 5.06 
-5.06 -404.17 5.03 
-5.36 -404.03 4.95 
-5.60 -403.99 4.95 
-6.14 -403.97 5.09 
-6.53 -403.90 5.10 
-6.95 -403.83 5.11 
-7.04 -403.72 4.97 
-7.37 -403.72 5.06 
-7.75 -403.66 5.09 
-8.17 -403.59 5.09 
-0.57 -403.77 5.48 
-1.35 -403.93 5.47 
-2.22 -404.68 5.46 
-2.57 -404.61 5.47 
-2.54 -403.99 5.47 
-3.00 -404.53 5.48 
-3.40 -404.45 5.48 
-3.80 -404.38 5.49 
-4.23 -404.29 5.50 
-4.07 -404.23 5.47 
-4.48 -404.25 5.51 
-4.68 -404.21 5.51 
-5.03 -404.11 5.51 
-5.33 -404.08 5.53 
-5.74 -404.01 5.54 
-7.03 -403.72 5.52 
-7.19 -403.68 5.52 
-7.73 -403.59 5.53 
-8.34 -403.46 5.55 
-1.87 -404.67 5.91 
-2.06 -404.64 5.91 
-6.16 -403.93 5.56 
-6.56 -403.85 5.57 
-6.88 -403.79 5.58 
-7.14 -403.74 5.59 
-7.37 -403.70 5.60 
-7.72 -403.63 5.61 
-8.12 -403.56 5.62 
-0.50 -403.82 6.04 
-1.26 -403.88 6.03 
-2.26 -404.60 5.92 
-2.55 -404.54 5.92 
-2.98 -404.46 5.93 
-3.38 -404.39 5.94 
-3.78 -404.30 5.95 
-4.06 -404.27 5.96 
-4.21 -404.21 5.97 
-4.60 -404.15 5.97 
-4.99 -404.07 5.99 
-5.33 -404.02 5.99 
-5.73 -403.94 6.01 
-6.13 -403.86 6.03 
-6.48 -403.79 6.04 
-6.68 -403.74 6.05 
-6.96 -403.69 6.06 
-7.32 -403.64 6.07 
-7.72 -403.56 6.09 
-8.12 -403.49 6.11 
4.89 -404.45 6.55 
4.66 -404.27 6.56 
2.96 -404.48 6.47 
2.70 -404.58 6.46 
-4.30 -404.14 6.55 
-5.08 -403.98 6.57 
-6.11 -403.81 6.59 
-6.55 -403.71 6.61 
-6.91 -403.65 6.62 
-7.31 -403.58 6.63 
-7.73 -403.51 6.64 
-8.15 -403.42 6.66 
7.70 -388.36 6.52 
7.44 -387.65 6.55 
6.59 -404.01 6.67 
6.09 -404.14 6.64 
4.38 -404.63 7.01 
3.20 -404.30 6.99 
2.16 -404.19 6.97 
-3.33 -401.04 6.76 
-3.96 -400.94 6.77 
-4.53 -401.26 6.74 
-5.07 -401.18 6.76 
11.36 -382.59 6.90 
5.99 -403.63 7.21 
5.65 -403.95 7.16 
-4.93 -401.16 7.42 
-5.39 -401.09 7.43 
-5.71 -401.01 7.44 
9.65 -389.13 7.37 
9.31 -388.61 7.40 
9.65 -388.46 7.43 
8.54 -389.19 7.34 
7.83 -388.04 7.41 
7.61 -389.47 7.29 
7.07 -389.48 7.28 
7.18 -387.62 7.43 
6.81 -389.59 7.27 
5.33 -404.28 7.62 
11.48 -387.92 7.52 
11.12 -387.82 7.52 
11.09 -387.76 7.52 
10.98 -387.32 7.55 
10.73 -388.01 7.49 
10.70 -387.30 7.54 
9.03 -386.25 7.58 
9.52 -388.23 8.33 
7.16 -386.71 8.42 
6.77 -386.12 8.47 
6.20 -386.15 8.45 
4.16 -386.51 8.37 
-4.83 -404.34 3.80 
-5.18 -404.23 3.80 
-5.54 -404.14 3.80 
-5.96 -404.08 3.80 
-6.36 -404.01 3.81 
-6.68 -403.95 3.81 
-6.83 -403.92 3.81 
-7.19 -403.86 3.81 
-7.61 -403.77 3.81 
-7.96 -403.70 3.81 
-8.38 -403.63 3.82 
-2.95 -404.66 4.20 
-3.20 -404.63 4.20 
-3.57 -404.56 4.21 
-3.94 -404.47 4.21 
-4.32 -404.39 4.22 
-4.73 -404.33 4.22 
-4.96 -404.28 4.22 
-5.16 -404.17 4.23 
-6.02 -404.06 4.24 
-6.42 -403.99 4.24 
-6.66 -403.94 4.24 
-6.86 -403.88 4.25 
-7.16 -403.83 4.25 
-7.61 -403.75 4.26 
-8.05 -403.65 4.26 
-8.49 -403.62 4.27 
-8.47 -403.55 4.27 
-3.18 -404.61 4.62 
-3.56 -404.53 4.63 
-3.69 -403.61 4.46 
-3.93 -404.44 4.63 
-4.31 -404.38 4.64 
-4.69 -404.32 4.64 
-4.93 -404.29 4.65 
-5.25 -404.06 4.48 
-5.47 -404.02 4.48 
-6.00 -404.04 4.67 
-6.41 -403.96 4.67 
-6.31 -403.86 4.49 
-6.81 -403.86 4.64 
-7.17 -403.79 4.65 
-7.58 -403.67 4.62 
-7.99 -403.62 4.67 
-8.48 -403.63 4.72 
-8.45 -403.55 4.72 
-2.63 -404.68 5.03 
-2.87 -404.63 5.03 
-3.14 -404.57 5.04 
-3.51 -404.50 5.04 
-3.92 -404.41 5.05 
-4.30 -404.32 5.06 
-4.56 -404.26 5.07 
-4.78 -404.23 5.07 
-5.17 -404.08 4.99 
-5.46 -404.04 4.99 
-6.00 -404.00 5.10 
-6.37 -403.93 5.11 
-6.41 -403.88 5.06 
-6.79 -403.81 5.08 
-7.16 -403.74 5.11 
-7.59 -403.67 5.12 
-7.98 -403.59 5.13 
-8.38 -403.53 5.17 
-2.76 -404.61 5.46 
-3.13 -404.53 5.46 
-3.50 -404.45 5.47 
-3.66 -403.62 5.51 
-3.91 -404.36 5.48 
-4.24 -404.30 5.49 
-4.49 -404.25 5.49 
-4.77 -404.20 5.50 
-5.17 -404.11 5.51 
-5.53 -404.03 5.52 
-5.96 -403.96 5.53 
-6.29 -403.90 5.54 
-6.45 -403.85 5.55 
-6.78 -403.79 5.56 
-7.18 -403.70 5.58 
-7.58 -403.62 5.58 
-7.93 -403.56 5.59 
-8.16 -403.50 5.61 
-8.37 -403.51 5.62 
-2.23 -404.65 5.87 
-2.46 -404.60 5.88 
-2.74 -404.54 5.88 
-3.11 -404.47 5.89 
-3.49 -404.38 5.90 
-3.90 -404.30 5.91 
-4.15 -404.25 5.91 
-4.41 -404.20 5.92 
-4.75 -404.13 5.93 
-5.16 -404.05 5.96 
-5.52 -403.97 5.97 
-5.88 -403.90 5.97 
-6.03 -403.87 5.98 
-6.39 -403.79 5.99 
-6.80 -403.72 6.01 
-7.18 -403.64 6.03 
-7.45 -403.60 6.04 
-1.32 -403.17 6.07 
-1.59 -403.23 6.06 
-1.86 -403.28 6.06 
-2.32 -403.36 6.05 
-5.79 -403.92 6.03 
-6.12 -403.85 6.04 
-6.27 -403.83 6.04 
-6.73 -403.74 6.05 
-7.66 -403.54 6.06 
-7.81 -403.53 6.09 
-8.01 -403.47 6.06 
-8.42 -403.46 6.08 
5.20 -404.50 6.51 
5.45 -404.35 6.54 
4.87 -404.20 6.53 
3.13 -404.62 6.41 
2.85 -404.66 6.40 
-1.47 -403.14 6.61 
-1.94 -403.24 6.60 
-2.17 -403.33 6.59 
-3.32 -401.06 6.69 
-3.48 -401.04 6.69 
-3.74 -400.99 6.70 
-3.92 -400.93 6.71 
-5.33 -403.97 6.54 
-5.64 -403.90 6.55 
-5.94 -403.84 6.56 
-6.30 -403.77 6.57 
-6.71 -403.69 6.58 
-7.18 -403.59 6.59 
-7.57 -403.54 6.61 
-7.96 -403.45 6.62 
-8.36 -403.39 6.64 
8.03 -387.93 6.56 
7.75 -387.95 6.56 
7.31 -388.43 6.52 
7.13 -388.32 6.53 
4.42 -404.50 6.95 
4.31 -404.42 6.96 
3.50 -404.54 6.90 
-2.77 -400.09 6.80 
-4.34 -400.26 6.79 
12.18 -382.83 6.94 
11.64 -382.43 6.95 
6.17 -403.74 7.15 
4.92 -404.63 7.45 
3.02 -404.58 7.34 
-4.35 -400.82 7.40 
-4.83 -400.15 7.48 
-5.27 -400.05 7.49 
-5.55 -400.62 7.43 
12.25 -388.19 7.52 
11.78 -388.19 7.51 
11.26 -388.36 7.48 
11.27 -387.68 7.53 
10.77 -387.48 7.53 
10.21 -389.40 7.36 
9.83 -388.99 7.38 
9.65 -388.77 7.40 
9.01 -389.37 7.33 
8.63 -389.93 7.28 
8.15 -389.80 7.27 
8.26 -388.22 7.40 
7.80 -389.34 7.30 
7.89 -386.83 7.51 
7.17 -389.63 7.26 
6.04 -404.67 7.52 
5.75 -403.83 7.62 
5.07 -403.60 7.60 
9.93 -385.96 7.63 
9.28 -386.26 7.59 
7.95 -385.81 7.59 
7.73 -385.76 7.59 
9.70 -388.69 8.26 
6.68 -387.32 8.31 
5.18 -387.00 8.31 
10.82 -387.52 8.42 
9.36 -385.96 8.53 
8.97 -386.29 8.48 
7.62 -386.83 8.39 
7.21 -386.49 8.41 
6.64 -386.60 8.38 
5.94 -386.21 8.41 
5.20 -385.74 8.44 
-4.81 -404.34 3.87 
-5.19 -404.15 3.87 
-5.65 -404.13 3.87 
-6.05 -404.08 3.88 
-6.33 -404.02 3.88 
-6.56 -403.96 3.88 
-6.90 -403.89 3.88 
-7.30 -403.82 3.89 
-7.69 -403.74 3.89 
-7.90 -403.70 3.89 
-8.06 -403.65 3.89 
-8.42 -403.60 3.89 
-3.18 -404.65 4.25 
-3.48 -404.59 4.25 
-3.75 -404.53 4.25 
-4.05 -404.46 4.26 
-4.44 -404.39 4.26 
-4.80 -404.31 4.27 
-4.97 -404.26 4.27 
-5.09 -404.13 4.27 
-5.81 -404.12 4.28 
-6.02 -404.05 4.28 
-6.33 -403.99 4.29 
-6.49 -403.95 4.29 
-6.85 -403.89 4.29 
-7.27 -403.80 4.30 
-7.60 -403.72 4.30 
-7.83 -403.67 4.31 
-8.09 -403.63 4.31 
-3.17 -404.64 4.64 
-3.46 -404.57 4.64 
-3.74 -404.52 4.64 
-3.79 -402.79 4.50 
-4.04 -404.46 4.65 
-4.42 -404.36 4.66 
-4.77 -404.31 4.66 
-5.17 -403.15 4.52 
-5.74 -404.09 4.68 
-6.01 -404.03 4.68 
-6.28 -403.99 4.69 
-6.53 -403.90 4.64 
-6.86 -403.85 4.67 
-7.29 -403.75 4.68 
-7.59 -403.70 4.72 
-7.82 -403.66 4.72 
-8.08 -403.61 4.73 
-8.47 -403.52 4.70 
-2.77 -404.68 5.02 
-3.19 -404.58 5.03 
-3.63 -404.49 5.04 
-4.00 -404.40 5.04 
-4.40 -404.33 5.05 
-4.77 -404.27 5.06 
-5.73 -404.04 5.08 
-6.00 -403.99 5.09 
-6.26 -403.96 5.09 
-6.47 -403.88 5.07 
-6.83 -403.83 5.11 
-7.29 -403.71 5.11 
-7.53 -403.68 5.13 
-7.69 -403.63 5.14 
-8.08 -403.55 5.15 
-8.46 -403.49 5.14 
-2.75 -404.63 5.42 
-3.18 -404.55 5.43 
-3.59 -404.47 5.43 
-3.99 -404.39 5.44 
-4.39 -404.30 5.45 
-4.68 -404.23 5.46 
-4.82 -404.17 5.46 
-5.23 -404.07 5.48 
-5.60 -404.03 5.49 
-5.94 -403.96 5.50 
-6.15 -403.92 5.50 
-6.43 -403.86 5.51 
-6.84 -403.78 5.53 
-7.28 -403.68 5.54 
-7.64 -403.59 5.56 
-8.08 -403.50 5.57 
-2.36 -404.66 5.81 
-2.75 -404.58 5.82 
-3.04 -404.51 5.82 
-3.23 -404.48 5.82 
-3.57 -404.40 5.83 
-3.97 -404.31 5.84 
-4.32 -404.24 5.85 
-4.57 -404.18 5.86 
-4.77 -404.15 5.87 
-5.26 -404.04 5.88 
-5.65 -403.95 5.90 
-6.02 -403.88 5.91 
-6.43 -403.80 5.94 
-6.84 -403.70 5.94 
-7.15 -403.65 5.96 
-7.36 -403.60 5.99 
-7.64 -403.54 5.98 
-8.09 -403.46 6.02 
-2.59 -402.39 6.09 
-3.25 -402.57 6.07 
-4.08 -404.21 6.25 
-4.25 -404.20 6.26 
-4.44 -404.15 6.26 
-4.76 -404.08 6.28 
-5.21 -403.98 6.29 
-5.52 -403.91 6.31 
-5.72 -403.87 6.31 
-6.02 -403.80 6.33 
-6.41 -403.73 6.35 
-6.84 -403.64 6.37 
-7.25 -403.55 6.39 
-7.64 -403.47 6.41 
-8.04 -403.38 6.43 
-8.40 -403.32 6.45 
2.32 -404.41 6.77 
2.03 -404.65 6.73 
1.72 -404.18 6.77 
-2.53 -399.94 6.73 
-3.21 -401.11 6.60 
-6.47 -403.76 6.52 
-7.35 -403.59 6.54 
-8.17 -403.42 6.57 
8.40 -388.08 6.56 
3.28 -404.50 6.81 
2.92 -404.36 6.81 
2.63 -404.34 6.79 
11.91 -382.60 6.95 
8.87 -390.15 7.24 
8.49 -390.44 7.20 
8.46 -389.90 7.25 
8.06 -389.60 7.26 
7.67 -389.94 7.22 
5.51 -403.79 7.51 
5.34 -403.82 7.49 
4.50 -404.51 7.33 
3.88 -404.50 7.29 
4.20 -404.17 7.36 
12.04 -388.40 7.48 
11.95 -387.72 7.53 
11.61 -387.87 7.50 
10.47 -389.57 7.33 
10.60 -388.83 7.40 
10.14 -389.13 7.36 
9.97 -388.88 7.37 
9.88 -386.65 7.55 
9.62 -386.50 7.55 
9.39 -389.56 7.30 
10.59 -388.76 8.25 
10.48 -388.43 8.27 
10.18 -388.58 8.25 
9.62 -387.96 8.29 
9.46 -387.59 8.32 
9.43 -386.99 8.38 
8.03 -387.00 8.33 
7.70 -387.17 8.30 
7.30 -387.55 8.25 
7.23 -387.11 8.29 
7.08 -386.64 8.34 
4.60 -386.94 8.25 
4.40 -386.72 8.27 
4.40 -385.70 8.38 
3.90 -385.74 8.36 
10.37 -386.78 8.44 
9.36 -386.46 8.43 
5.46 -386.02 9.24 
3.84 -385.94 9.20 
-4.81 -404.24 3.87 
-5.03 -404.11 3.87 
-5.24 -404.10 3.87 
-5.73 -404.06 3.88 
-6.11 -403.99 3.88 
-6.39 -403.91 3.88 
-6.54 -403.89 3.88 
-6.90 -403.80 3.88 
-7.35 -403.72 3.89 
-7.79 -403.61 3.89 
-8.18 -403.55 3.89 
-3.17 -404.61 4.22 
-3.58 -404.51 4.23 
-3.99 -404.43 4.23 
-4.18 -404.40 4.23 
-4.44 -404.33 4.24 
-4.89 -404.18 4.24 
-5.70 -404.05 4.25 
-6.13 -403.96 4.26 
-6.56 -403.86 4.26 
-6.95 -403.76 4.27 
-7.38 -403.69 4.27 
-7.80 -403.58 4.28 
-8.21 -403.52 4.28 
-3.16 -404.59 4.59 
-3.57 -404.50 4.59 
-3.98 -404.43 4.60 
-4.17 -404.39 4.60 
-4.43 -404.31 4.60 
-4.80 -401.72 4.49 
-5.19 -401.90 4.49 
-5.42 -402.05 4.50 
-5.69 -404.03 4.62 
-6.12 -403.94 4.63 
-6.55 -403.86 4.64 
-6.94 -403.76 4.65 
-7.35 -403.68 4.66 
-7.78 -403.57 4.64 
-8.15 -403.49 4.64 
-2.71 -404.66 4.94 
-2.90 -404.61 4.95 
-3.18 -404.54 4.95 
-3.60 -404.46 4.96 
-3.89 -404.40 4.96 
-4.08 -404.36 4.96 
-4.46 -404.27 4.97 
-5.41 -402.01 5.00 
-5.60 -404.02 5.00 
-6.03 -403.91 5.01 
-6.28 -403.86 5.01 
-6.55 -403.79 5.02 
-6.94 -403.72 5.03 
-7.28 -403.65 5.04 
-7.41 -403.61 5.05 
-7.78 -403.52 5.05 
-8.17 -403.44 5.04 
-8.42 -403.39 5.02 
-2.69 -404.61 5.31 
-2.88 -404.58 5.32 
-3.19 -404.50 5.32 
-3.58 -404.41 5.33 
-3.82 -404.37 5.33 
-4.04 -404.32 5.34 
-4.46 -401.59 5.52 
-4.42 -404.23 5.35 
-4.70 -401.74 5.52 
-4.68 -404.20 5.35 
-5.01 -403.98 5.37 
-5.17 -401.93 5.51 
-5.40 -402.09 5.51 
-5.62 -403.98 5.38 
-5.97 -403.89 5.39 
-6.24 -403.83 5.40 
-6.54 -403.75 5.41 
-6.93 -403.67 5.42 
-7.22 -403.61 5.43 
-7.38 -403.57 5.44 
-7.77 -403.50 5.46 
-8.18 -403.41 5.47 
-2.35 -404.65 5.68 
-2.78 -404.54 5.69 
-3.21 -404.44 5.69 
-3.62 -404.35 5.70 
-3.81 -404.31 5.71 
-4.08 -404.25 5.71 
-4.44 -404.16 5.72 
-4.74 -404.09 5.73 
-4.94 -404.06 5.74 
-5.29 -403.98 5.75 
-5.38 -402.01 6.02 
-5.67 -403.89 5.76 
-5.92 -403.84 5.77 
-6.18 -403.77 5.78 
-6.53 -403.70 5.80 
-6.89 -403.63 5.81 
-7.10 -403.57 5.82 
-7.34 -403.53 5.83 
-7.75 -403.43 5.85 
-8.14 -403.39 5.89 
-8.33 -403.30 5.88 
-8.40 -403.35 5.98 
-2.25 -404.60 6.05 
-2.49 -404.55 6.06 
-2.75 -404.49 6.06 
-3.23 -404.37 6.07 
-3.47 -404.30 6.08 
-3.68 -404.27 6.08 
-4.03 -404.20 6.09 
-4.43 -404.11 6.10 
-4.60 -401.62 6.04 
-4.85 -404.01 6.12 
-5.28 -403.92 6.13 
-5.61 -403.84 6.15 
-5.81 -403.80 6.16 
-6.09 -403.73 6.17 
-6.53 -403.63 6.19 
-6.85 -403.57 6.20 
-7.04 -403.53 6.21 
-7.38 -403.46 6.27 
-7.75 -403.37 6.25 
-8.15 -403.42 6.32 
-8.33 -403.25 6.29 
3.44 -404.56 6.66 
2.76 -404.25 6.66 
-5.37 -402.03 6.53 
4.83 -404.48 6.76 
4.21 -404.51 7.15 
4.13 -403.61 6.81 
2.55 -404.46 7.03 
-2.57 -401.12 6.90 
-3.77 -401.10 6.89 
-4.17 -401.07 6.90 
-4.57 -401.02 6.91 
-7.11 -403.55 6.89 
12.51 -382.84 6.88 
9.06 -390.15 7.15 
8.92 -389.98 7.16 
6.79 -404.48 7.37 
6.53 -404.63 7.33 
6.20 -404.39 7.33 
5.83 -403.69 7.39 
5.73 -403.64 7.39 
4.36 -404.30 7.19 
4.44 -403.92 7.24 
4.07 -404.30 7.16 
12.89 -388.60 7.41 
12.51 -388.60 7.39 
11.94 -387.89 7.43 
11.83 -387.34 7.47 
10.43 -389.16 7.27 
9.88 -388.99 7.27 
9.96 -388.36 7.32 
11.03 -387.51 8.28 
10.23 -387.83 8.21 
9.93 -387.18 8.26 
9.72 -387.03 8.27 
9.71 -386.54 8.32 
8.36 -387.74 8.15 
3.54 -385.81 9.06 
-3.13 -404.65 3.91 
-4.84 -404.21 3.93 
-5.30 -403.99 3.93 
-5.61 -404.08 3.94 
-5.83 -404.03 3.94 
-6.14 -403.96 3.94 
-6.45 -403.89 3.94 
-6.75 -403.81 3.94 
-7.06 -403.75 3.95 
-7.37 -403.67 3.95 
-7.63 -403.60 3.95 
-7.93 -403.55 3.95 
-8.28 -403.46 3.95 
-8.49 -403.40 3.95 
-2.86 -404.68 4.25 
-3.17 -404.62 4.26 
-3.46 -404.56 4.26 
-3.76 -404.47 4.26 
-4.11 -404.38 4.27 
-4.41 -404.33 4.27 
-4.61 -404.24 4.27 
-4.87 -404.17 4.27 
-5.25 -404.10 4.28 
-5.54 -404.07 4.28 
-5.80 -404.00 4.29 
-6.28 -403.88 4.29 
-6.49 -403.84 4.30 
-6.68 -403.81 4.30 
-7.05 -403.73 4.30 
-7.37 -403.64 4.31 
-7.58 -403.60 4.31 
-7.89 -403.53 4.32 
-8.26 -403.48 4.32 
-8.46 -403.37 4.32 
-2.82 -404.67 4.59 
-3.17 -404.59 4.59 
-3.55 -404.52 4.60 
-3.80 -404.45 4.60 
-4.06 -404.39 4.61 
-4.40 -404.32 4.61 
-4.59 -404.15 4.62 
-5.42 -404.10 4.63 
-5.53 -404.03 4.63 
-5.78 -404.00 4.63 
-6.22 -403.90 4.64 
-6.48 -403.84 4.65 
-6.67 -403.79 4.65 
-7.00 -403.71 4.66 
-7.30 -403.65 4.67 
-7.53 -403.59 4.67 
-7.87 -403.50 4.68 
-8.20 -403.48 4.68 
-8.45 -403.37 4.69 
-2.57 -404.67 5.10 
-2.81 -404.62 5.10 
-3.19 -404.53 5.11 
-3.50 -404.46 5.11 
-3.72 -404.41 5.12 
-4.04 -404.33 5.12 
-4.37 -404.26 5.13 
-4.57 -404.15 4.96 
-5.38 -404.05 4.97 
-5.53 -404.02 4.98 
-5.80 -403.96 4.98 
-6.22 -403.84 5.00 
-6.63 -403.74 5.01 
-7.04 -403.66 5.02 
-7.46 -403.56 5.03 
-7.85 -403.48 5.04 
-8.15 -403.45 5.05 
-8.42 -403.32 5.06 
-2.30 -404.67 5.61 
-2.76 -404.57 5.62 
-3.20 -404.46 5.63 
-3.60 -404.35 5.64 
-4.06 -404.25 5.65 
-4.26 -404.21 5.65 
-4.56 -404.12 5.49 
-4.90 -404.06 5.49 
-5.27 -404.00 5.50 
-5.43 -403.96 5.51 
-5.80 -403.87 5.52 
-6.13 -403.79 5.53 
-6.32 -403.74 5.54 
-6.57 -403.70 5.55 
-7.08 -401.31 5.55 
-7.04 -403.63 5.38 
-7.24 -403.57 5.39 
-7.46 -403.52 5.40 
-7.84 -403.45 5.41 
-8.36 -403.30 5.44 
-2.23 -404.62 5.97 
-2.48 -404.57 5.97 
-2.72 -404.51 5.97 
-3.23 -404.38 5.98 
-3.54 -404.30 5.99 
-4.00 -404.20 6.00 
-4.25 -404.14 6.01 
-4.51 -404.08 6.01 
-4.92 -403.99 6.03 
-5.34 -403.89 6.04 
-5.75 -403.79 6.06 
-6.03 -403.73 6.07 
-6.24 -403.68 6.08 
-6.68 -403.61 5.92 
-7.04 -401.31 6.06 
-6.95 -403.55 5.93 
-7.15 -403.50 5.94 
-7.45 -403.43 5.95 
-7.83 -403.38 5.78 
-8.12 -403.36 5.79 
-8.36 -403.25 5.81 
-7.57 -403.37 6.15 
-7.83 -403.34 6.16 
-8.32 -403.20 6.19 
5.03 -404.67 6.69 
3.40 -404.64 6.57 
3.29 -404.49 6.58 
2.99 -404.40 6.57 
2.92 -404.28 6.58 
-2.30 -401.11 6.79 
-2.61 -401.11 6.79 
-2.91 -401.05 6.79 
-3.06 -401.01 6.80 
-3.54 -401.35 6.75 
-3.29 -400.95 6.80 
-3.83 -401.28 6.76 
-3.93 -400.84 6.82 
-4.16 -400.71 6.83 
-6.13 -400.64 6.61 
-6.73 -401.04 6.58 
-7.05 -401.19 6.57 
4.64 -404.65 7.08 
4.17 -404.16 7.10 
3.50 -403.83 7.09 
2.20 -404.66 6.88 
10.86 -389.61 7.23 
10.73 -389.45 7.24 
6.44 -404.51 7.27 
5.97 -403.81 7.31 
12.98 -388.89 7.37 
12.77 -388.79 7.37 
12.48 -388.76 7.36 
12.33 -388.33 7.38 
10.73 -388.92 8.08 
10.01 -386.66 8.27 
4.66 -386.99 8.85 
3.94 -386.10 8.95 
7.83 -387.22 8.95 
7.68 -387.05 8.96 
4.21 -385.87 8.99 
3.70 -385.88 8.97 
-3.15 -404.67 3.95 
-4.61 -404.26 3.97 
-5.01 -404.14 3.97 
-5.46 -404.11 3.97 
-5.86 -404.00 3.98 
-6.37 -403.88 3.98 
-6.75 -403.80 3.98 
-6.95 -403.74 3.99 
-7.17 -403.71 3.99 
-7.50 -403.61 3.99 
-7.76 -403.54 3.99 
-8.15 -403.46 3.99 
-8.39 -403.40 3.99 
-3.15 -404.64 4.27 
-3.54 -404.54 4.27 
-3.76 -404.48 4.28 
-4.08 -404.41 4.28 
-4.41 -404.34 4.28 
-4.66 -404.28 4.29 
-5.02 -404.19 4.29 
-5.21 -404.13 4.29 
-5.45 -404.08 4.30 
-5.76 -404.00 4.30 
-6.08 -403.92 4.31 
-6.28 -403.87 4.31 
-6.67 -403.79 4.31 
-6.87 -403.73 4.32 
-7.23 -403.65 4.32 
-7.58 -403.57 4.33 
-7.74 -403.53 4.33 
-8.08 -403.43 4.33 
-8.49 -403.33 4.34 
-2.88 -404.65 4.90 
-3.22 -404.57 4.91 
-3.50 -404.49 4.91 
-3.70 -404.43 4.91 
-4.17 -404.36 4.76 
-4.32 -404.29 4.92 
-4.43 -404.19 4.93 
-5.13 -404.04 4.94 
-5.46 -404.05 4.78 
-5.78 -403.96 4.79 
-6.07 -403.90 4.63 
-6.28 -403.86 4.63 
-6.66 -403.78 4.64 
-6.91 -403.72 4.65 
-7.21 -403.63 4.65 
-7.50 -403.57 4.66 
-7.71 -403.53 4.66 
-8.11 -403.46 4.67 
-2.58 -404.68 5.22 
-2.83 -404.62 5.22 
-3.19 -404.52 5.23 
-3.46 -404.44 5.23 
-3.68 -404.40 5.24 
-4.09 -404.32 5.24 
-4.31 -404.28 5.24 
-4.52 -404.10 5.26 
-4.85 -404.06 5.26 
-5.08 -404.03 5.27 
-5.41 -404.00 5.27 
-5.82 -403.92 5.12 
-6.01 -403.86 5.12 
-6.30 -403.78 5.13 
-6.62 -403.73 4.97 
-6.82 -403.67 5.14 
-7.20 -403.57 5.16 
-7.46 -403.51 5.34 
-7.65 -403.46 5.17 
-8.06 -403.40 5.18 
-8.31 -403.30 5.20 
-2.37 -404.68 5.55 
-2.62 -404.61 5.55 
-2.86 -404.56 5.55 
-3.19 -404.47 5.55 
-3.64 -404.36 5.56 
-4.00 -404.28 5.57 
-4.26 -404.21 5.57 
-4.52 -404.16 5.58 
-4.88 -404.07 5.59 
-5.12 -404.01 5.59 
-5.44 -403.92 5.60 
-5.75 -403.84 5.61 
-5.92 -403.81 5.62 
-6.34 -403.70 5.63 
-6.80 -403.60 5.65 
-7.20 -403.50 5.67 
-7.46 -403.43 5.68 
-8.18 -399.79 5.61 
-7.70 -403.39 5.69 
-8.04 -403.29 5.71 
-8.23 -403.25 5.72 
-2.34 -404.64 5.87 
-2.73 -404.53 5.88 
-3.12 -404.43 5.88 
-3.40 -404.36 5.89 
-3.92 -404.22 5.90 
-4.59 -404.07 5.91 
-5.02 -403.96 5.92 
-5.44 -403.86 5.94 
-5.93 -403.74 5.96 
-6.33 -403.64 5.97 
-6.54 -403.60 5.98 
-6.80 -403.53 5.99 
-7.15 -403.45 6.01 
-7.38 -403.40 6.02 
-7.70 -403.35 6.04 
-7.99 -403.25 6.06 
-8.20 -403.20 6.07 
-2.20 -401.18 6.67 
-2.33 -401.20 6.66 
-2.56 -401.14 6.67 
-2.96 -401.04 6.68 
-3.23 -400.35 6.77 
-3.15 -401.03 6.67 
-3.46 -400.29 6.77 
-3.67 -400.24 6.78 
-3.90 -400.31 6.77 
-4.12 -400.75 6.71 
6.05 -404.45 7.18 
5.36 -385.71 8.96 
4.69 -386.35 8.85 
4.48 -386.12 8.88 
-3.16 -404.68 3.98 
-3.35 -404.62 3.98 
-4.73 -404.23 4.00 
-5.04 -404.17 4.00 
-5.52 -404.07 4.00 
-5.88 -403.99 4.01 
-6.14 -403.92 4.01 
-6.43 -403.84 4.01 
-6.69 -403.79 4.01 
-6.94 -403.73 4.02 
-7.25 -403.64 4.02 
-7.47 -403.58 4.02 
-7.81 -403.55 4.02 
-8.07 -403.42 4.02 
-8.30 -403.36 4.03 
-3.07 -404.68 4.28 
-3.33 -404.60 4.28 
-3.63 -404.52 4.28 
-3.89 -404.47 4.29 
-4.11 -404.41 4.29 
-4.42 -404.28 4.29 
-4.68 -404.22 4.29 
-5.08 -404.14 4.30 
-5.55 -404.03 4.31 
-5.83 -403.96 4.31 
-6.08 -403.90 4.31 
-6.41 -403.84 4.32 
-6.71 -403.75 4.32 
-6.98 -403.68 4.32 
-7.27 -403.61 4.33 
-7.51 -403.55 4.33 
-7.84 -403.46 4.34 
-8.08 -403.39 4.34 
-8.34 -403.33 4.34 
-3.09 -404.65 4.65 
-3.32 -404.58 4.68 
-3.69 -404.49 4.63 
-3.87 -404.43 4.88 
-4.09 -404.36 4.88 
-4.36 -404.16 4.89 
-4.62 -404.12 4.90 
-5.12 -404.11 4.75 
-5.26 -404.06 4.90 
-5.56 -403.98 4.91 
-6.04 -403.85 4.92 
-6.42 -403.77 4.93 
-6.63 -403.72 4.93 
-6.99 -403.61 4.94 
-7.43 -403.50 4.95 
-7.72 -403.46 4.80 
-8.02 -403.38 4.81 
-8.29 -403.30 4.98 
-2.71 -404.67 5.17 
-3.03 -404.58 5.17 
-3.27 -404.53 5.18 
-3.61 -404.44 5.18 
-3.84 -404.36 5.18 
-4.12 -404.29 5.19 
-4.36 -404.17 5.20 
-4.67 -404.11 5.20 
-4.98 -404.07 5.20 
-5.26 -404.01 5.21 
-5.63 -403.92 5.22 
-6.05 -403.83 5.23 
-6.37 -403.74 5.23 
-6.59 -403.69 5.24 
-6.92 -403.59 5.25 
-7.15 -403.52 5.26 
-7.40 -403.47 5.27 
-7.76 -403.43 5.28 
-7.99 -403.33 5.29 
-8.24 -403.28 5.30 
-2.74 -404.62 5.48 
-3.21 -404.49 5.48 
-3.58 -404.40 5.48 
-3.82 -404.34 5.49 
-4.19 -404.25 5.49 
-4.66 -404.13 5.50 
-4.92 -404.06 5.51 
-5.19 -403.99 5.51 
-5.53 -403.90 5.52 
-5.77 -403.84 5.53 
-6.04 -403.77 5.54 
-6.31 -403.70 5.55 
-6.55 -403.64 5.55 
-6.88 -403.56 5.57 
-7.18 -403.48 5.58 
-7.43 -403.42 5.59 
-7.95 -403.29 5.61 
-8.33 -403.19 5.63 
-2.43 -404.65 5.78 
-2.78 -404.55 5.79 
-3.25 -404.42 5.83 
-3.55 -404.36 5.79 
-3.80 -404.26 5.90 
-4.12 -404.19 5.86 
-4.34 -404.14 5.80 
-4.61 -404.07 5.85 
-5.12 -403.93 5.87 
-5.49 -403.85 5.83 
-5.69 -403.79 5.84 
-6.07 -403.69 5.85 
-6.30 -403.64 5.86 
-6.61 -403.56 5.87 
-6.86 -403.50 5.88 
-7.09 -403.43 5.90 
-7.46 -403.35 5.91 
-7.71 -403.39 5.91 
-7.95 -403.23 5.94 
-8.26 -403.14 5.96 
-8.48 -403.09 5.97 
-6.93 -403.40 6.22 
3.16 -404.58 6.82 
7.05 -404.31 6.83 
6.15 -404.65 7.13 
6.19 -404.44 7.16 
4.03 -404.06 6.97 
7.35 -386.40 8.90 
5.59 -385.86 8.89 
4.88 -386.30 8.80 
4.56 -386.56 8.75 
9.89 -386.65 9.01 
-3.51 -404.62 4.02 
-4.05 -404.48 4.02 
-4.59 -404.29 4.03 
-4.88 -404.21 4.03 
-5.15 -404.19 4.04 
-5.44 -404.11 4.04 
-5.70 -404.03 4.04 
-6.00 -403.97 4.04 
-6.25 -403.90 4.05 
-6.51 -403.82 4.05 
-6.78 -403.77 4.05 
-7.05 -403.68 4.05 
-7.33 -403.59 4.05 
-7.62 -403.56 4.06 
-8.07 -403.41 4.06 
-3.22 -404.67 4.29 
-3.51 -404.58 4.30 
-3.76 -404.51 4.30 
-4.05 -404.43 4.30 
-4.32 -404.32 4.31 
-4.61 -404.25 4.31 
-5.15 -404.15 4.32 
-5.44 -404.07 4.32 
-5.66 -404.00 4.32 
-5.97 -403.95 4.32 
-6.21 -403.87 4.33 
-6.49 -403.80 4.33 
-6.76 -403.73 4.33 
-7.06 -403.65 4.34 
-7.30 -403.57 4.34 
-7.58 -403.51 4.35 
-8.14 -403.36 4.35 
-8.45 -403.19 4.36 
-3.23 -404.65 4.57 
-3.48 -404.57 4.62 
-3.75 -404.48 4.72 
-4.02 -404.42 4.66 
-4.32 -404.33 4.58 
-4.58 -404.23 4.63 
-4.90 -404.23 4.59 
-5.13 -404.14 4.63 
-5.38 -404.08 4.60 
-5.62 -404.00 4.64 
-5.95 -403.91 4.68 
-6.24 -403.85 4.68 
-6.50 -403.79 4.61 
-6.76 -403.70 4.69 
-7.04 -403.65 4.62 
-7.30 -403.55 4.77 
-7.58 -403.50 4.68 
-7.83 -403.41 4.64 
-8.09 -403.34 4.76 
-8.40 -403.18 4.95 
-2.90 -404.65 5.14 
-3.13 -404.60 5.14 
-3.44 -404.51 5.14 
-3.72 -404.43 5.15 
-3.96 -404.35 5.15 
-4.23 -404.24 5.15 
-4.57 -404.15 5.16 
-4.76 -404.14 5.16 
-5.12 -404.07 5.16 
-5.36 -404.02 5.16 
-5.64 -403.92 5.17 
-5.92 -403.83 5.18 
-6.18 -403.77 5.18 
-6.48 -403.71 5.19 
-6.74 -403.65 5.19 
-7.02 -403.55 5.20 
-7.29 -403.48 5.21 
-7.59 -403.46 5.22 
-7.84 -403.33 5.23 
-8.05 -403.29 5.24 
-2.60 -404.66 5.58 
-2.88 -404.61 5.43 
-3.12 -404.52 5.58 
-3.40 -404.45 5.58 
-3.67 -404.38 5.58 
-3.99 -404.32 5.43 
-4.24 -404.23 5.58 
-4.54 -404.15 5.58 
-4.77 -404.08 5.59 
-5.07 -404.01 5.59 
-5.33 -403.93 5.60 
-5.62 -403.85 5.60 
-5.86 -403.75 5.76 
-6.15 -403.71 5.62 
-6.41 -403.61 5.77 
-6.46 -403.67 5.48 
-6.70 -403.57 5.64 
-6.99 -403.52 5.50 
-7.20 -403.44 5.65 
-7.54 -403.41 5.66 
-7.80 -403.32 5.53 
-8.05 -403.25 5.54 
-8.35 -403.13 5.55 
-2.23 -404.65 6.03 
-2.50 -404.58 6.03 
-2.85 -404.48 6.03 
-3.06 -404.44 6.02 
-3.60 -404.28 6.02 
-4.31 -404.08 6.03 
-4.74 -403.98 6.03 
-5.47 -403.79 6.05 
-6.10 -403.63 6.07 
-6.81 -403.43 6.09 
-7.40 -403.35 5.81 
-7.76 -403.26 5.83 
-8.09 -403.17 5.84 
-8.34 -403.08 5.94 
3.37 -404.65 6.45 
4.74 -404.24 6.62 
-3.17 -400.93 6.86 
-3.36 -400.87 6.86 
-3.61 -400.80 6.87 
6.47 -404.32 7.21 
-6.68 -400.81 4.72 
-6.91 -400.86 4.56 
-7.19 -400.89 4.56 
-7.48 -400.92 4.56 
-7.76 -400.95 4.55 
-8.03 -400.98 4.55 
-8.31 -401.00 4.55 
-6.66 -400.77 5.04 
-6.83 -400.79 5.04 
-7.19 -400.82 5.03 
-7.52 -400.86 5.02 
-7.82 -400.89 5.01 
-8.03 -400.92 5.01 
-8.32 -400.95 5.00 
-6.88 -400.73 5.36 
-7.16 -400.77 5.34 
-7.44 -400.82 5.33 
-7.83 -400.84 5.32 
-8.05 -400.86 5.31 
-8.29 -400.90 5.30 
-0.24 -400.18 5.72 
-0.41 -400.07 5.72 
-1.07 -399.59 5.71 
-0.10 -400.53 5.71 
-0.75 -400.19 5.69 
-0.97 -400.23 5.67 
-5.43 -399.99 5.82 
-6.88 -400.70 5.68 
-7.16 -400.72 5.66 
-7.76 -400.78 5.63 
-8.31 -400.86 5.61 
-0.84 -398.77 6.21 
-0.81 -398.99 6.19 
-1.30 -398.89 6.17 
-0.41 -399.98 6.14 
-0.89 -399.62 6.13 
-1.29 -399.08 6.15 
-0.27 -400.80 6.09 
-0.41 -400.69 6.08 
-1.14 -399.71 6.11 
-1.85 -399.40 6.08 
-2.48 -399.04 6.07 
-2.51 -398.67 6.11 
-2.80 -398.50 6.10 
-0.16 -401.05 6.08 
-0.69 -400.82 6.05 
-3.33 -398.59 6.06 
-5.11 -399.44 6.25 
-5.37 -399.11 6.28 
-4.67 -400.08 6.21 
-5.67 -399.11 6.26 
-5.20 -400.01 6.18 
-6.12 -400.28 6.09 
-5.99 -400.43 6.08 
-5.29 -401.56 6.31 
-5.50 -401.36 6.32 
-3.42 -404.68 6.31 
-0.07 -398.82 6.26 
-0.57 -399.50 6.60 
-0.82 -399.34 6.59 
1.45 -401.35 6.62 
1.64 -402.32 6.56 
2.61 -403.57 6.58 
1.26 -402.36 6.52 
-1.62 -399.90 6.46 
-1.90 -399.85 6.44 
-2.05 -399.66 6.45 
2.28 -403.45 6.55 
-1.14 -400.81 6.41 
1.69 -403.62 6.47 
1.78 -404.26 6.44 
0.54 -404.46 6.66 
-5.06 -400.21 6.52 
-6.33 -399.50 6.53 
-4.31 -401.33 6.43 
-4.92 -401.16 6.40 
-6.15 -399.99 6.47 
-6.25 -400.30 6.42 
-0.41 -398.81 6.68 
1.94 -401.92 7.06 
1.86 -401.67 7.07 
0.64 -400.89 7.00 
0.49 -400.69 7.01 
-2.31 -398.28 7.00 
1.20 -401.69 6.99 
-0.02 -400.74 6.94 
-1.68 -399.19 6.95 
1.53 -402.69 6.94 
0.78 -402.07 6.90 
0.65 -401.78 6.91 
-0.05 -401.19 6.89 
-1.18 -400.33 6.86 
-1.84 -399.79 6.86 
-3.16 -398.78 6.87 
2.09 -403.62 6.93 
1.93 -403.51 6.92 
0.80 -402.61 6.87 
0.81 -402.41 6.89 
-1.80 -400.13 6.82 
-3.89 -398.85 6.80 
-4.01 -398.85 6.79 
-4.80 -398.11 6.83 
1.14 -403.36 6.82 
-1.06 -401.53 6.73 
-3.95 -399.21 6.74 
1.84 -404.48 6.83 
1.80 -404.08 6.85 
1.07 -403.63 6.79 
-5.13 -398.74 6.72 
1.75 -404.66 6.80 
-6.57 -400.92 4.53 
-6.69 -400.94 4.53 
-6.96 -400.96 4.52 
-7.28 -400.99 4.52 
-7.53 -401.02 4.52 
-7.85 -401.05 4.51 
-8.09 -401.07 4.51 
-8.36 -401.11 4.51 
-5.60 -400.70 4.72 
-5.85 -400.72 4.71 
-6.51 -400.87 5.01 
-6.74 -400.89 5.00 
-6.97 -400.91 5.00 
-7.25 -400.94 4.99 
-7.53 -400.96 4.98 
-7.90 -401.00 4.97 
-8.39 -401.07 4.95 
-6.50 -400.79 5.34 
-6.74 -400.84 5.33 
-7.00 -400.87 5.31 
-7.27 -400.89 5.30 
-7.55 -400.92 5.29 
-7.87 -400.95 5.27 
-8.35 -400.99 5.25 
-0.10 -400.38 5.73 
-0.18 -400.21 5.74 
0.18 -400.87 5.72 
-6.81 -400.78 5.65 
-6.99 -400.80 5.63 
-7.32 -400.83 5.61 
-7.82 -400.88 5.59 
-8.07 -400.89 5.57 
-0.70 -399.00 6.21 
-0.66 -399.28 6.19 
-1.09 -399.22 6.16 
-0.32 -400.17 6.15 
-0.48 -400.07 6.15 
-1.26 -399.22 6.15 
-3.17 -398.32 6.09 
-2.24 -399.04 6.09 
-3.10 -398.50 6.08 
-3.32 -398.40 6.07 
0.05 -401.25 6.11 
-0.23 -400.92 6.11 
-0.54 -400.95 6.08 
-1.16 -400.86 6.03 
-4.96 -399.49 6.25 
-5.10 -399.22 6.26 
-4.28 -400.12 6.23 
-5.08 -400.32 6.14 
0.87 -404.55 6.26 
-4.81 -401.17 6.07 
-5.15 -400.61 6.11 
-6.00 -400.45 6.06 
-6.02 -401.21 6.30 
-1.02 -398.35 6.24 
-1.75 -398.86 6.57 
-2.10 -398.64 6.57 
-2.07 -399.47 6.48 
-0.72 -400.49 6.48 
-1.17 -400.34 6.46 
-1.64 -400.17 6.46 
-1.87 -399.92 6.46 
-1.04 -401.11 6.43 
-1.30 -400.86 6.42 
-4.03 -399.19 6.35 
1.79 -403.52 6.56 
2.10 -404.18 6.56 
-4.46 -399.81 6.62 
1.89 -404.45 6.52 
-5.87 -399.45 6.55 
-4.83 -400.52 6.49 
-5.22 -400.35 6.48 
-5.95 -399.96 6.47 
-6.19 -399.68 6.49 
1.06 -404.54 6.69 
0.50 -404.58 6.63 
-4.12 -401.48 6.44 
-5.97 -400.39 6.41 
0.13 -404.49 6.60 
-0.03 -404.31 6.60 
-5.94 -400.72 6.37 
-3.34 -403.76 6.72 
-0.99 -398.37 6.69 
-1.26 -398.48 6.65 
-1.83 -398.72 7.01 
-2.01 -398.55 7.01 
1.60 -401.34 6.69 
1.03 -401.10 6.65 
1.57 -401.50 6.68 
0.27 -401.07 6.99 
-0.11 -400.74 6.98 
-1.73 -399.37 6.95 
-2.21 -399.36 6.90 
-1.05 -400.63 6.88 
-4.54 -398.33 6.81 
1.45 -402.68 7.01 
0.98 -402.10 6.99 
0.73 -401.97 6.97 
-3.56 -399.38 6.76 
1.60 -403.18 6.99 
1.18 -402.72 6.97 
0.22 -402.05 6.84 
-2.00 -400.83 6.80 
-4.93 -398.91 6.70 
-0.05 -404.35 6.98 
-3.41 -403.68 6.72 
-1.10 -399.05 7.05 
-1.10 -398.90 7.07 
2.35 -402.24 7.16 
2.03 -401.99 7.14 
2.18 -402.60 7.11 
1.40 -401.90 7.06 
2.23 -402.94 7.09 
0.35 -402.40 7.25 
-6.43 -403.13 3.64 
-6.94 -402.84 3.64 
-6.87 -403.00 3.65 
-6.95 -402.89 3.64 
-6.67 -400.99 4.52 
-6.94 -401.01 4.52 
-7.20 -401.04 4.51 
-7.54 -401.07 4.51 
-8.05 -401.11 4.50 
-8.36 -401.14 4.49 
-6.13 -400.81 4.70 
-6.35 -400.90 5.02 
-6.50 -400.92 4.85 
-6.99 -400.95 5.00 
-7.21 -400.97 4.99 
-7.56 -401.01 4.97 
-7.80 -401.02 4.97 
-8.01 -401.05 4.96 
-8.37 -401.09 4.94 
-6.64 -400.88 5.34 
-7.00 -400.91 5.32 
-7.19 -400.93 5.31 
-7.44 -400.95 5.30 
-7.83 -400.98 5.28 
-8.07 -401.02 5.26 
-8.45 -401.05 5.24 
-1.06 -399.05 5.78 
-0.96 -399.33 5.77 
-2.04 -398.87 5.73 
-0.84 -399.95 5.74 
-1.87 -399.30 5.71 
-2.14 -399.04 5.71 
-0.13 -400.63 5.76 
-0.29 -400.49 5.75 
-5.05 -400.49 5.81 
-4.91 -400.74 5.79 
-7.39 -400.47 5.75 
-7.98 -400.95 5.58 
-8.08 -400.95 5.57 
-8.39 -400.97 5.56 
-1.25 -399.34 6.19 
-2.74 -398.60 6.13 
-0.45 -400.20 6.19 
-0.65 -400.11 6.18 
-1.58 -399.55 6.14 
-1.64 -399.47 6.15 
-2.72 -398.84 6.11 
-1.98 -399.60 6.11 
-3.60 -398.85 6.05 
-0.90 -400.97 6.10 
-1.06 -401.26 6.07 
-5.75 -399.36 6.23 
-5.66 -399.46 6.23 
1.73 -403.80 6.20 
-5.76 -401.12 6.04 
0.36 -404.38 6.24 
-2.48 -404.63 6.08 
-0.64 -397.86 6.35 
-1.17 -397.81 6.31 
-0.89 -398.54 6.28 
-1.40 -398.47 6.24 
-1.51 -398.41 6.24 
-0.02 -399.37 6.29 
-0.67 -399.61 6.22 
-0.72 -399.39 6.23 
-3.23 -398.21 6.52 
-1.14 -399.71 6.61 
-0.67 -400.47 6.59 
-2.83 -399.42 6.47 
-3.24 -398.99 6.48 
1.52 -402.09 6.26 
-1.90 -400.43 6.38 
1.73 -402.44 6.26 
-4.59 -399.32 6.33 
-4.84 -399.32 6.31 
-4.65 -399.92 6.26 
1.94 -403.46 6.24 
-3.91 -400.46 6.65 
-5.53 -399.63 6.59 
-4.34 -400.60 6.59 
-6.10 -400.06 6.48 
-4.93 -401.09 6.47 
-5.68 -400.54 6.46 
-5.77 -400.44 6.46 
1.01 -404.61 6.28 
-4.69 -401.46 6.45 
-5.07 -401.40 6.42 
-5.75 -400.82 6.42 
0.32 -404.57 6.62 
-2.34 -403.39 6.54 
-5.89 -401.30 6.35 
-2.35 -403.79 6.50 
-2.40 -403.62 6.51 
0.74 -400.87 6.71 
-4.90 -397.94 6.86 
0.97 -401.34 6.70 
-2.97 -399.26 6.88 
-4.77 -398.20 6.84 
2.28 -402.61 6.77 
0.27 -401.19 6.64 
1.74 -402.73 6.70 
-5.59 -398.75 6.70 
-5.65 -398.67 6.70 
1.27 -402.71 6.65 
0.36 -402.37 6.82 
-4.49 -399.73 6.68 
2.37 -403.76 6.72 
0.42 -402.84 6.78 
1.93 -403.82 6.66 
1.07 -403.73 6.99 
-6.61 -400.49 6.91 
-1.79 -398.11 7.15 
-3.43 -398.94 7.33 
0.76 -401.78 7.36 
0.41 -401.26 7.09 
-0.63 -400.91 7.31 
1.93 -402.50 7.20 
0.19 -401.82 7.29 
1.83 -403.02 7.15 
1.54 -403.01 7.10 
0.50 -402.59 7.24 
1.81 -403.68 7.10 
1.55 -403.15 7.10 
1.76 -404.68 7.18 
-6.38 -403.19 3.66 
-6.68 -403.07 3.67 
-6.36 -401.08 4.41 
-6.65 -401.12 4.40 
-7.53 -400.70 4.66 
-7.72 -400.74 4.66 
-6.90 -401.13 4.40 
-7.22 -401.14 4.56 
-7.55 -401.16 4.55 
-8.06 -401.23 4.54 
-8.41 -401.23 4.54 
-6.91 -400.50 5.03 
-6.33 -401.01 4.92 
-6.70 -401.05 4.90 
-7.18 -400.63 5.03 
-7.70 -400.72 5.02 
-7.10 -401.08 4.89 
-7.60 -401.10 5.03 
-7.90 -400.88 5.02 
-8.24 -400.79 5.01 
-8.08 -401.18 5.01 
-6.13 -400.93 5.45 
-6.69 -400.97 5.41 
-7.00 -400.87 5.40 
-7.35 -400.63 5.39 
-7.18 -401.03 5.38 
-7.56 -401.05 5.36 
-7.85 -400.95 5.35 
-8.39 -400.78 5.36 
-8.11 -401.13 5.33 
-8.44 -401.14 5.31 
-1.96 -399.03 5.82 
-1.38 -399.74 5.82 
-1.93 -399.26 5.81 
-0.70 -400.88 5.81 
-0.83 -400.58 5.81 
-8.43 -401.07 5.63 
-0.82 -399.11 5.89 
-0.79 -399.41 5.88 
-2.45 -398.93 6.23 
-0.58 -400.12 5.85 
-2.37 -399.39 6.21 
0.10 -400.80 5.87 
-0.08 -400.76 5.86 
-1.35 -400.23 6.23 
-1.47 -399.99 6.24 
-2.95 -399.24 6.17 
-3.33 -399.09 6.15 
0.40 -401.35 5.87 
0.09 -401.14 5.85 
-1.55 -400.22 6.22 
0.36 -401.47 5.86 
-0.82 -401.22 6.22 
-4.48 -399.78 6.01 
-0.25 -401.84 6.23 
-1.01 -401.43 6.19 
-5.48 -400.21 6.27 
-5.06 -401.03 6.23 
-2.30 -404.29 6.27 
-0.80 -398.23 6.42 
-0.75 -398.46 6.41 
-1.01 -398.90 6.36 
-2.59 -398.30 6.58 
0.09 -399.81 6.39 
-0.36 -399.78 6.35 
-4.16 -398.17 6.60 
-0.17 -399.98 6.36 
-0.79 -400.15 6.29 
-1.60 -399.76 6.24 
-1.56 -400.43 6.64 
-0.40 -401.34 6.25 
-4.69 -399.70 6.39 
-5.35 -399.40 6.37 
1.41 -402.42 6.45 
-4.31 -400.11 6.39 
0.52 -402.38 6.45 
-5.74 -400.01 6.64 
2.63 -403.92 6.43 
-5.08 -400.60 6.64 
-6.17 -400.22 6.57 
2.39 -404.08 6.40 
1.99 -403.95 6.36 
1.82 -404.03 6.34 
-4.57 -401.34 6.62 
-4.89 -401.32 6.58 
-6.64 -400.50 6.54 
-6.02 -400.99 6.50 
-3.81 -403.51 6.38 
-1.44 -397.79 6.88 
-1.32 -398.42 6.84 
-1.18 -398.70 6.83 
-1.81 -398.69 6.76 
-2.40 -398.55 6.72 
0.28 -400.34 6.85 
0.25 -400.53 6.83 
-3.26 -399.12 6.91 
0.33 -401.01 6.80 
-0.58 -400.64 6.73 
-5.37 -399.04 6.80 
0.40 -401.58 6.77 
-5.47 -399.18 6.77 
0.68 -402.01 6.95 
0.34 -402.14 6.90 
-4.56 -400.07 6.76 
-5.95 -399.41 6.70 
2.37 -403.32 6.90 
-4.49 -400.31 6.74 
1.83 -403.45 6.83 
-3.69 -401.14 6.74 
-4.15 -400.92 6.71 
2.46 -404.20 6.87 
1.94 -404.00 6.82 
-2.95 -402.34 6.72 
0.26 -404.02 6.73 
-2.13 -403.23 6.75 
-2.02 -398.72 7.20 
-1.04 -400.12 7.43 
1.34 -402.60 7.28 
1.65 -402.75 7.32 
0.94 -402.61 7.23 
1.25 -403.28 7.22 
0.37 -402.79 7.28 
1.32 -403.68 7.21 
1.18 -403.44 7.20 
1.57 -404.29 7.21 
1.32 -404.11 7.18 
0.01 -403.94 7.12 
-6.90 -402.84 3.64 
-7.28 -402.69 3.65 
-7.22 -402.82 3.65 
-6.36 -401.16 4.41 
-6.79 -401.19 4.41 
-7.59 -400.75 4.64 
-7.84 -400.78 4.64 
-7.18 -401.22 4.40 
-8.44 -400.86 4.64 
-8.16 -401.30 4.55 
-8.48 -401.29 4.55 
-6.99 -400.65 5.01 
-6.34 -401.11 4.76 
-6.83 -401.12 4.92 
-7.08 -401.13 4.92 
-7.64 -400.74 5.00 
-7.96 -400.79 4.99 
-7.26 -401.16 4.91 
-7.61 -401.18 4.90 
-7.99 -401.22 4.88 
-8.27 -401.19 5.04 
-8.01 -401.31 5.04 
-8.48 -401.23 5.03 
-7.11 -400.67 5.37 
-6.30 -401.06 5.12 
-6.67 -401.06 5.28 
-7.12 -401.07 5.43 
-7.62 -400.73 5.36 
-8.00 -400.78 5.35 
-8.11 -400.78 5.34 
-7.29 -401.10 5.42 
-7.53 -401.11 5.40 
-8.03 -401.20 5.37 
-8.32 -401.16 5.36 
-8.48 -401.19 5.35 
0.08 -400.55 5.47 
-6.04 -401.00 5.50 
-8.31 -400.76 5.69 
-0.77 -399.24 5.94 
-1.95 -398.75 5.89 
-2.29 -398.77 5.87 
-0.52 -399.41 5.95 
-0.66 -399.33 5.95 
-1.71 -399.29 5.88 
-1.75 -399.49 5.86 
0.36 -400.89 5.95 
0.11 -400.95 5.93 
-0.64 -400.87 5.88 
0.37 -401.47 5.93 
-0.72 -401.08 5.86 
-3.94 -400.31 6.08 
-4.24 -399.92 6.09 
-4.89 -399.71 6.05 
-3.90 -400.44 6.08 
-4.67 -400.80 5.99 
-4.83 -400.72 5.98 
-5.96 -400.49 6.18 
-0.62 -397.80 6.54 
-0.69 -398.44 6.49 
-0.61 -398.65 6.48 
-0.75 -398.97 6.45 
-0.21 -399.92 6.44 
-2.29 -399.40 6.28 
-1.18 -400.36 6.32 
-1.42 -400.08 6.32 
1.46 -401.36 6.52 
-1.16 -400.41 6.32 
-4.38 -399.72 6.51 
-5.03 -399.43 6.47 
0.20 -401.38 6.52 
-0.60 -401.36 6.32 
-4.77 -400.13 6.43 
-0.41 -401.73 6.31 
-0.77 -401.60 6.29 
-3.80 -400.60 6.49 
-4.35 -400.52 6.44 
-5.48 -400.30 6.35 
1.64 -402.81 6.47 
-3.81 -401.00 6.45 
1.71 -402.95 6.47 
-5.80 -400.95 6.63 
2.85 -403.96 6.55 
2.34 -403.93 6.50 
-4.84 -401.58 6.30 
-5.79 -401.24 6.60 
2.00 -404.02 6.46 
2.23 -404.52 6.47 
0.69 -404.19 6.38 
-2.13 -403.88 6.44 
-1.52 -398.97 6.86 
-2.10 -399.10 6.79 
-3.93 -398.61 6.65 
-0.88 -399.89 6.85 
-1.59 -399.54 6.81 
-2.49 -399.25 6.74 
-3.70 -398.89 6.65 
-3.82 -398.97 6.89 
-0.28 -400.64 6.87 
-5.56 -399.07 6.87 
-0.51 -400.62 6.84 
-5.13 -399.31 6.88 
-5.33 -399.25 6.87 
-5.53 -399.18 6.86 
-0.61 -401.05 6.80 
-5.10 -399.93 6.82 
-5.71 -399.48 6.80 
-4.59 -400.60 6.81 
-6.46 -400.21 6.95 
-3.70 -401.37 6.84 
-4.91 -401.18 6.71 
-6.77 -400.55 6.89 
2.08 -404.20 6.95 
0.40 -404.09 6.79 
0.32 -404.32 6.76 
-1.68 -398.72 7.34 
0.51 -401.65 7.37 
0.42 -401.40 7.38 
-0.42 -401.07 7.29 
2.44 -402.60 7.07 
0.46 -401.87 7.35 
2.41 -403.14 7.04 
1.01 -402.90 7.36 
1.33 -403.59 7.36 
1.05 -403.57 7.32 
0.09 -403.70 7.21 
-1.37 -398.48 7.41 
0.67 -400.89 7.45 
-0.22 -400.27 7.52 
0.66 -401.23 7.42 
-7.13 -402.70 3.61 
-6.78 -402.88 3.61 
-7.04 -402.84 3.61 
-6.26 -401.18 4.42 
-6.71 -401.21 4.41 
-7.12 -401.25 4.41 
-6.24 -401.13 4.79 
-6.60 -401.16 4.78 
-6.86 -401.19 4.77 
-7.07 -401.19 4.76 
-7.51 -401.23 4.75 
-7.96 -401.26 4.91 
-8.30 -401.24 5.07 
-8.37 -401.27 4.90 
-7.18 -399.88 5.41 
-7.55 -400.32 5.37 
-8.09 -400.39 5.36 
-5.92 -401.05 5.18 
-6.25 -401.08 5.17 
-6.71 -401.12 5.15 
-6.89 -401.11 5.14 
-7.18 -401.14 5.30 
-7.49 -401.15 5.29 
-7.83 -401.20 5.26 
-8.27 -401.18 5.41 
-8.49 -401.22 5.40 
-1.42 -399.39 5.63 
-1.36 -399.48 5.47 
-0.35 -400.07 5.50 
0.58 -401.06 5.52 
0.22 -400.60 5.52 
-0.05 -400.74 5.50 
0.58 -401.08 5.52 
-4.91 -400.73 5.65 
-7.76 -400.29 5.74 
-6.84 -401.06 5.51 
-6.95 -401.08 5.50 
-7.07 -401.11 5.49 
-0.67 -398.43 6.05 
-2.48 -398.76 5.91 
0.60 -399.52 6.09 
-1.01 -399.45 5.98 
-1.71 -399.03 5.95 
-2.11 -398.99 5.93 
-0.55 -399.65 6.01 
-1.13 -399.87 5.95 
-1.52 -399.63 5.94 
-1.68 -399.46 5.93 
0.02 -400.45 6.01 
-0.43 -400.30 5.98 
0.11 -400.56 6.01 
-4.44 -399.68 6.17 
-4.83 -399.85 6.12 
0.31 -401.38 6.00 
-0.13 -401.21 5.97 
-6.43 -399.89 6.21 
0.20 -401.53 5.98 
-0.23 -401.55 5.95 
-0.71 -401.30 5.92 
-3.76 -400.92 6.14 
-4.43 -400.50 6.11 
-6.98 -400.01 6.17 
-4.02 -401.42 6.09 
2.78 -404.58 6.11 
2.62 -404.47 6.09 
-0.59 -399.16 6.53 
-0.86 -399.68 6.48 
-1.34 -399.51 6.44 
-2.73 -399.50 6.32 
-0.82 -400.21 6.45 
-1.16 -400.17 6.42 
-2.30 -399.86 6.34 
-6.52 -398.99 6.30 
-4.42 -400.17 6.56 
-0.74 -401.64 6.38 
-4.54 -401.39 6.45 
-4.03 -401.73 6.48 
-5.15 -401.60 6.37 
0.90 -403.56 6.48 
2.24 -404.45 6.57 
-2.18 -403.38 6.59 
-1.51 -398.92 6.97 
-4.34 -398.36 6.73 
-3.12 -398.73 6.82 
-4.42 -398.63 6.70 
-5.64 -398.24 6.86 
-4.25 -398.96 6.69 
-1.65 -399.89 6.88 
-3.52 -399.45 6.72 
-4.12 -399.34 6.66 
-5.12 -399.30 7.00 
-5.32 -399.15 6.99 
1.49 -401.45 6.61 
2.14 -402.15 6.64 
1.93 -401.91 6.63 
-1.64 -401.22 6.79 
-4.99 -400.66 6.87 
-4.51 -400.91 6.91 
-4.85 -400.87 6.87 
-3.58 -401.60 6.96 
0.99 -403.04 6.98 
-1.17 -402.39 6.77 
0.71 -403.37 6.93 
2.58 -404.18 6.62 
2.54 -404.37 6.61 
-4.67 -403.00 6.70 
0.02 -400.39 7.03 
-4.33 -399.43 7.08 
1.29 -400.85 7.15 
1.00 -401.35 7.09 
0.44 -402.04 7.00 
2.18 -403.02 7.14 
2.09 -404.04 7.09 
1.89 -404.10 7.06 
-0.38 -403.35 7.28 
0.70 -401.36 7.56 
1.07 -402.01 7.57 
0.11 -402.16 7.42 
-5.85 -401.25 4.36 
-6.16 -401.24 4.36 
-6.73 -399.89 4.96 
-5.78 -401.19 4.77 
-6.03 -401.18 4.76 
-6.43 -401.21 4.75 
-6.85 -401.23 4.74 
-7.28 -401.26 4.72 
-7.70 -401.34 4.71 
-8.10 -401.33 4.70 
-7.59 -400.37 5.31 
-8.18 -400.47 5.29 
-6.06 -401.13 5.16 
-6.47 -401.15 5.14 
-6.88 -401.19 5.12 
-7.27 -401.22 5.10 
-7.59 -401.22 5.09 
-7.81 -401.31 5.08 
-8.09 -401.28 5.06 
-8.48 -401.29 5.17 
-1.36 -399.09 5.46 
-0.77 -400.09 5.57 
-1.62 -399.71 5.43 
0.16 -400.27 5.51 
-0.18 -400.25 5.49 
0.48 -400.80 5.51 
0.23 -400.77 5.50 
-0.23 -400.83 5.47 
0.69 -401.29 5.51 
-7.67 -401.20 5.46 
-8.05 -401.20 5.43 
-7.94 -401.22 5.44 
-0.95 -398.73 6.02 
-2.27 -399.00 5.92 
-2.46 -398.85 5.92 
-1.46 -399.61 5.95 
-2.11 -399.33 5.92 
-0.13 -399.96 6.03 
-0.83 -399.75 5.99 
-1.37 -399.82 5.95 
-2.09 -399.71 5.90 
0.04 -400.40 6.03 
-0.34 -400.38 6.00 
-0.06 -400.72 6.01 
-5.35 -400.27 6.08 
-6.34 -399.89 5.97 
-0.41 -401.28 5.96 
-6.28 -400.51 6.12 
-0.56 -401.61 5.94 
-3.59 -401.86 6.14 
1.24 -404.28 6.00 
-2.33 -399.67 6.38 
-3.58 -399.53 6.28 
-3.93 -399.65 6.24 
-4.78 -399.43 6.18 
-4.81 -399.32 6.19 
-0.79 -400.48 6.47 
-4.31 -399.78 6.20 
-4.06 -400.40 6.18 
-3.73 -400.84 6.19 
-6.03 -400.80 6.51 
-5.66 -401.12 6.41 
-6.96 -400.99 6.42 
2.23 -402.81 6.12 
-0.32 -402.25 6.44 
-0.61 -402.22 6.41 
-0.73 -402.14 6.40 
2.22 -402.98 6.12 
2.74 -404.68 6.12 
-1.08 -398.41 6.56 
-0.05 -399.29 6.61 
-4.84 -398.89 6.68 
-0.62 -399.98 6.52 
-4.33 -399.28 6.70 
-5.07 -399.40 6.61 
0.67 -401.07 6.59 
-4.82 -399.99 6.59 
0.68 -401.25 6.58 
-0.37 -401.08 6.48 
-4.11 -400.63 6.62 
-7.19 -400.25 6.88 
-7.00 -400.56 6.85 
-3.58 -401.36 6.62 
-3.06 -402.16 6.63 
-3.82 -401.97 6.55 
-2.72 -402.55 6.64 
-2.86 -402.39 6.64 
-4.42 -403.07 6.83 
2.49 -404.28 6.65 
0.48 -404.46 6.85 
-4.12 -399.44 7.17 
-4.46 -399.36 7.14 
-1.22 -400.22 6.96 
-3.70 -399.80 7.19 
-6.05 -400.02 7.00 
-6.47 -399.99 6.97 
-4.30 -400.59 7.05 
-4.26 -401.04 7.01 
-3.72 -401.61 7.03 
-1.36 -399.19 7.54 
-2.40 -399.01 7.42 
-1.59 -399.19 7.51 
-2.72 -399.65 7.37 
-1.61 -400.46 7.40 
-0.96 -401.94 7.38 
0.94 -401.27 7.69 
-5.91 -401.29 4.38 
-6.17 -401.29 4.38 
-5.82 -401.23 4.80 
-6.17 -401.25 4.79 
-6.54 -401.25 4.78 
-6.87 -401.29 4.77 
-7.29 -401.32 4.76 
-7.83 -401.34 4.75 
-8.01 -401.38 4.74 
-7.71 -401.43 4.75 
-8.26 -401.37 4.73 
-6.69 -399.94 4.97 
-7.48 -400.41 5.33 
-8.11 -400.49 5.30 
-5.79 -401.15 5.24 
-6.15 -401.17 5.22 
-6.54 -401.22 5.20 
-6.99 -401.23 5.18 
-7.32 -401.24 5.16 
-7.80 -401.32 5.14 
-8.17 -401.31 5.12 
-2.41 -398.81 5.58 
-1.54 -399.14 5.51 
-1.84 -399.04 5.50 
-2.38 -398.95 5.58 
-1.28 -399.61 5.51 
-1.64 -399.51 5.54 
-0.85 -399.97 5.56 
-1.15 -399.85 5.59 
0.32 -400.55 5.57 
-0.06 -400.38 5.55 
-0.53 -400.53 5.60 
0.55 -400.83 5.58 
0.24 -400.96 5.56 
-0.24 -400.78 5.53 
0.90 -401.19 5.59 
0.67 -401.32 5.57 
0.35 -401.12 5.56 
-0.17 -401.03 5.53 
-5.14 -400.92 5.72 
0.87 -401.57 5.58 
-1.95 -399.54 6.00 
-1.86 -399.87 6.00 
-4.01 -399.82 5.85 
-4.59 -399.79 5.81 
-0.83 -400.45 6.05 
-1.12 -400.46 6.02 
-4.09 -400.19 5.83 
-5.80 -400.25 5.81 
-5.96 -400.04 5.81 
-6.62 -400.08 5.78 
-3.74 -400.67 5.83 
-6.70 -400.39 6.15 
-4.33 -401.03 5.77 
-5.43 -401.15 6.13 
-0.20 -401.92 6.04 
0.16 -398.73 6.19 
-3.37 -398.78 6.45 
-3.76 -398.54 6.43 
-0.22 -399.14 6.14 
-4.00 -398.91 6.39 
0.25 -399.47 6.16 
-0.21 -399.52 6.13 
-5.85 -399.10 6.32 
-6.79 -399.29 6.25 
0.48 -400.08 6.16 
-0.03 -400.10 6.12 
-0.59 -399.94 6.08 
-6.07 -399.79 6.25 
-6.58 -399.63 6.23 
-0.13 -400.53 6.10 
-6.16 -400.10 6.21 
-6.84 -400.17 6.17 
-4.95 -400.47 6.21 
-6.67 -400.58 6.54 
-4.68 -401.09 6.20 
-6.90 -400.68 6.52 
-4.58 -401.36 6.19 
-1.94 -404.29 6.32 
-0.37 -398.84 6.71 
-6.55 -398.76 6.75 
-1.24 -399.43 6.60 
-4.91 -399.38 6.76 
-5.23 -399.50 6.72 
-5.04 -399.62 6.73 
-3.77 -400.02 6.83 
-4.28 -400.34 6.75 
0.70 -400.83 6.71 
-0.15 -400.99 6.62 
-1.25 -400.79 6.53 
-6.45 -400.59 6.56 
0.57 -401.17 6.68 
-0.26 -401.25 6.60 
-4.46 -400.95 6.69 
-5.76 -400.78 6.60 
-4.86 -401.39 6.62 
-3.33 -401.81 6.76 
-4.81 -401.82 6.59 
-3.98 -403.44 6.59 
2.74 -404.62 6.79 
2.69 -404.46 6.79 
-6.68 -404.17 6.61 
-0.14 -401.56 7.14 
2.69 -403.04 6.83 
-4.24 -399.45 7.31 
-2.54 -399.91 7.49 
-2.38 -400.07 7.49 
-2.52 -400.74 7.42 
-3.55 -400.54 7.31 
0.85 -401.59 7.26 
-2.78 -401.23 7.35 
-0.07 -402.46 7.65 
-0.67 -402.48 7.56 
-2.54 -402.09 7.32 
1.80 -402.11 7.93 
1.27 -402.31 7.85 
-5.72 -401.29 4.36 
-6.04 -401.32 4.35 
-5.82 -401.21 4.81 
-6.07 -401.25 4.80 
-6.40 -401.26 4.79 
-6.91 -401.30 4.77 
-7.27 -401.32 4.76 
-7.69 -401.39 4.75 
-8.17 -401.38 4.74 
-7.82 -400.53 5.30 
-7.98 -400.54 5.30 
-8.48 -400.60 5.28 
-6.08 -401.20 5.25 
-6.47 -401.21 5.23 
-6.86 -401.23 5.21 
