# .PCD v0.7 - Point Cloud Data file format
VERSION 0.7
FIELDS x y z
SIZE 4 4 4
TYPE F F F
COUNT 1 1 1
WIDTH 2058
HEIGHT 1
VIEWPOINT 0 0 0 1 0 0 0
POINTS 2058
DATA ascii
13.26 -111.78 3.14 
13.89 -111.43 2.39 
7.38 -105.57 4.42 
16.43 -110.64 5.18 
16.33 -110.22 5.17 
16.44 -109.83 5.19 
16.31 -111.50 4.29 
15.92 -110.80 4.26 
16.23 -110.58 4.29 
16.15 -111.46 5.11 
16.34 -111.29 5.14 
15.79 -110.13 5.07 
16.47 -111.86 6.00 
16.03 -110.70 4.18 
16.16 -111.55 4.18 
15.51 -111.53 4.11 
15.73 -111.42 4.14 
15.81 -110.59 4.96 
16.04 -112.18 5.00 
15.91 -111.71 4.98 
16.16 -112.07 5.85 
16.31 -111.93 5.87 
16.48 -111.74 5.89 
14.88 -112.00 3.90 
15.01 -111.77 3.92 
14.93 -111.16 3.92 
15.35 -111.09 3.96 
16.30 -110.69 4.07 
16.37 -111.81 4.06 
16.47 -111.21 4.08 
15.80 -112.85 4.82 
15.88 -112.56 4.83 
15.43 -112.19 4.78 
15.99 -112.26 4.84 
15.38 -111.35 5.57 
15.61 -110.90 5.59 
15.78 -110.74 5.61 
16.42 -114.05 5.77 
16.16 -113.49 5.72 
16.37 -112.05 5.72 
16.01 -113.71 6.56 
16.31 -113.21 6.59 
15.71 -112.91 6.48 
15.01 -111.95 3.80 
15.14 -111.73 3.82 
14.29 -111.83 3.73 
15.28 -111.54 3.84 
15.59 -111.40 3.87 
16.00 -110.64 3.92 
16.36 -114.84 3.91 
16.22 -114.25 3.90 
15.87 -111.65 4.71 
16.20 -110.91 4.74 
15.51 -114.25 4.68 
15.87 -114.29 4.72 
15.95 -113.99 4.73 
15.67 -112.12 4.69 
15.92 -112.04 4.71 
16.31 -111.39 4.76 
14.27 -112.82 5.33 
15.13 -111.27 5.40 
16.06 -114.26 5.60 
16.25 -114.09 5.62 
15.32 -113.74 5.49 
16.08 -113.32 5.58 
16.50 -113.24 5.64 
16.24 -112.16 5.58 
16.11 -113.65 6.44 
16.40 -113.67 6.49 
14.95 -113.81 6.28 
15.32 -113.47 6.32 
15.80 -113.67 6.40 
14.95 -113.44 6.26 
16.18 -112.96 6.43 
16.49 -112.97 6.47 
13.61 -113.29 3.52 
13.70 -112.99 3.53 
13.72 -112.69 3.54 
15.08 -112.15 3.69 
16.14 -111.92 3.80 
14.48 -112.07 3.62 
14.89 -111.85 3.67 
15.25 -111.17 3.72 
13.44 -111.82 3.52 
13.63 -111.71 3.54 
14.87 -111.12 3.68 
11.16 -109.79 3.31 
15.41 -115.01 3.69 
16.32 -113.37 3.80 
15.24 -112.43 4.51 
15.54 -112.03 4.54 
13.52 -112.48 4.31 
13.19 -112.41 4.27 
13.44 -112.03 4.29 
11.83 -109.42 4.08 
16.35 -114.71 4.66 
15.67 -114.26 4.57 
14.02 -113.67 4.37 
15.63 -112.54 4.56 
16.16 -112.49 4.62 
16.44 -111.99 4.65 
16.48 -111.68 4.65 
13.67 -112.83 5.12 
15.39 -111.23 5.31 
15.66 -110.46 5.33 
14.79 -115.32 5.33 
16.25 -114.31 5.50 
14.64 -114.72 5.30 
14.74 -114.80 5.31 
16.00 -114.03 5.46 
14.56 -114.17 5.27 
16.12 -113.55 5.46 
15.42 -113.68 5.37 
14.34 -113.38 5.22 
14.68 -113.44 5.27 
16.11 -112.95 5.44 
16.44 -112.13 5.47 
15.08 -115.52 6.24 
15.44 -114.70 6.26 
15.33 -114.04 6.21 
15.80 -113.84 6.27 
14.52 -113.97 6.09 
14.82 -113.76 6.12 
15.23 -113.48 6.17 
15.90 -113.15 6.25 
16.29 -113.26 6.32 
13.55 -113.72 5.94 
13.79 -113.55 5.96 
15.55 -113.11 6.20 
12.88 -114.23 3.35 
14.42 -113.08 3.52 
13.44 -112.80 3.42 
13.83 -112.98 3.46 
15.00 -112.20 3.59 
13.14 -112.81 3.39 
14.41 -112.12 3.53 
14.49 -111.84 3.54 
14.97 -111.75 3.59 
15.61 -111.30 3.66 
12.68 -112.44 3.35 
12.92 -112.39 3.37 
13.92 -111.86 3.48 
16.17 -110.65 3.73 
13.55 -111.67 3.44 
11.30 -111.10 3.22 
10.86 -110.69 3.18 
11.43 -109.68 3.25 
13.29 -114.38 3.39 
10.45 -109.42 3.84 
15.39 -112.44 4.44 
16.40 -111.42 4.55 
13.41 -112.05 4.20 
13.69 -112.03 4.23 
10.73 -110.23 3.88 
11.01 -109.86 3.90 
15.54 -116.75 4.49 
16.49 -114.95 4.59 
13.79 -115.96 4.29 
15.46 -115.29 4.47 
16.35 -114.50 4.57 
15.87 -114.42 4.51 
15.43 -114.21 4.46 
14.13 -114.57 4.31 
14.35 -114.39 4.33 
15.71 -112.49 4.48 
16.05 -112.61 4.52 
16.45 -111.85 4.56 
15.06 -111.39 5.18 
15.31 -111.25 5.20 
14.41 -116.11 5.23 
13.92 -115.78 5.15 
14.54 -115.81 5.23 
13.87 -115.76 5.15 
16.06 -114.23 5.38 
15.32 -114.28 5.29 
16.36 -113.53 5.40 
14.16 -114.25 5.14 
15.31 -113.75 5.27 
15.83 -113.65 5.34 
16.03 -113.51 5.36 
13.63 -114.40 5.07 
14.34 -114.09 5.16 
13.68 -113.95 5.07 
14.20 -113.42 5.12 
16.50 -111.85 5.38 
0.16 -105.69 4.78 
14.23 -115.96 6.06 
15.12 -115.55 6.17 
13.80 -115.82 6.00 
16.37 -114.12 6.28 
15.14 -114.64 6.13 
15.67 -114.00 6.17 
15.84 -113.80 6.19 
16.37 -113.25 6.24 
13.53 -114.30 5.88 
14.50 -114.03 6.00 
14.59 -113.70 6.00 
15.15 -113.66 6.08 
16.04 -113.23 6.19 
13.08 -114.11 5.81 
13.53 -113.87 5.86 
16.02 -114.71 2.67 
15.68 -114.39 2.65 
13.52 -113.36 3.29 
13.90 -113.14 3.33 
15.13 -112.30 3.46 
14.60 -112.14 3.41 
14.10 -112.06 3.36 
16.06 -110.73 3.58 
13.78 -111.95 3.33 
14.68 -111.23 3.43 
14.93 -111.23 3.46 
15.17 -111.16 3.48 
13.45 -111.84 3.29 
11.18 -111.03 3.07 
10.31 -111.26 2.98 
10.62 -110.44 3.02 
10.23 -110.23 2.98 
10.14 -110.00 2.98 
15.12 -115.09 3.43 
12.88 -114.82 3.21 
16.16 -112.53 3.57 
13.42 -114.16 3.27 
13.46 -113.74 3.28 
16.23 -111.87 3.59 
9.48 -109.78 3.61 
10.03 -109.50 3.66 
15.43 -112.13 4.31 
12.99 -113.08 4.03 
13.13 -112.86 4.05 
13.42 -112.73 4.08 
13.37 -112.32 4.07 
9.88 -110.10 3.65 
10.07 -110.03 3.67 
10.49 -109.91 3.72 
16.18 -115.63 4.43 
13.77 -116.69 4.16 
13.82 -116.23 4.16 
14.01 -115.94 4.18 
16.28 -114.72 4.43 
15.90 -114.58 4.38 
13.90 -115.29 4.16 
14.01 -114.98 4.17 
15.15 -114.43 4.29 
15.39 -114.26 4.32 
16.43 -112.67 4.43 
15.49 -112.58 4.32 
16.35 -112.13 4.42 
10.48 -109.68 4.41 
9.74 -110.06 4.33 
9.82 -109.69 4.33 
13.89 -112.91 4.94 
15.28 -111.19 5.07 
14.90 -111.41 5.03 
15.38 -110.72 5.07 
11.10 -113.19 4.60 
10.40 -111.28 4.45 
14.98 -116.35 5.18 
15.92 -115.79 5.28 
14.29 -116.19 5.09 
14.66 -116.31 5.14 
16.14 -115.23 5.30 
14.72 -115.39 5.12 
14.66 -114.73 5.09 
16.04 -113.58 5.24 
16.24 -113.50 5.26 
15.29 -113.79 5.14 
15.81 -113.67 5.21 
14.43 -113.40 5.02 
16.37 -112.11 5.24 
15.72 -117.04 5.29 
16.34 -110.74 6.00 
14.80 -115.62 6.01 
15.45 -114.78 6.06 
15.53 -114.34 6.05 
15.58 -113.96 6.04 
15.84 -113.87 6.07 
15.92 -113.19 6.05 
16.25 -113.22 6.10 
13.52 -114.38 5.77 
14.66 -113.88 5.90 
14.82 -113.67 5.91 
15.65 -113.17 6.01 
13.21 -114.32 5.72 
13.72 -114.07 5.78 
14.14 -113.55 5.81 
16.14 -114.65 2.53 
15.31 -114.69 2.45 
15.84 -114.65 2.50 
15.54 -114.35 2.48 
14.66 -112.28 3.28 
13.13 -113.03 3.11 
14.30 -112.11 3.24 
15.98 -110.77 3.44 
12.81 -112.93 3.08 
13.98 -112.03 3.21 
14.61 -111.24 3.29 
14.88 -111.32 3.31 
13.36 -111.88 3.15 
13.58 -111.79 3.17 
14.61 -110.81 3.29 
10.20 -112.30 2.83 
11.15 -111.09 2.94 
10.41 -111.14 2.86 
11.22 -110.73 2.95 
10.02 -110.80 2.83 
10.61 -110.47 2.89 
9.42 -110.97 2.77 
10.25 -110.26 2.85 
9.92 -110.02 2.83 
9.38 -110.08 2.77 
16.11 -113.79 3.41 
13.32 -114.45 3.12 
13.49 -113.37 3.15 
13.74 -113.11 3.17 
14.92 -112.30 3.31 
13.44 -113.10 3.14 
13.01 -112.99 3.91 
13.38 -112.67 3.95 
16.07 -110.71 4.25 
13.12 -112.60 3.92 
13.36 -112.06 3.94 
10.42 -113.01 3.63 
12.21 -111.38 3.81 
10.83 -110.13 3.64 
11.79 -109.47 3.74 
10.00 -110.44 3.55 
9.46 -110.71 3.50 
9.88 -110.11 3.54 
10.06 -110.01 3.55 
9.18 -109.60 3.45 
16.42 -114.89 4.31 
14.00 -115.91 4.05 
15.89 -114.52 4.25 
15.18 -114.30 4.17 
13.85 -115.05 4.02 
12.82 -115.36 3.91 
16.43 -112.58 4.30 
15.51 -112.50 4.19 
16.16 -112.05 4.27 
16.40 -112.02 4.29 
15.30 -112.31 4.17 
15.80 -112.00 4.56 
16.35 -111.55 4.29 
16.28 -110.61 4.62 
16.49 -110.48 4.65 
9.82 -109.75 4.23 
11.18 -113.17 4.50 
9.47 -110.92 4.23 
9.71 -111.03 4.26 
15.92 -115.81 5.16 
14.66 -116.33 5.02 
14.17 -116.20 4.95 
14.68 -115.49 5.00 
14.54 -114.91 4.96 
15.82 -114.08 5.10 
15.79 -113.53 5.08 
15.99 -113.45 5.10 
14.42 -114.24 4.93 
14.55 -113.46 4.92 
16.14 -112.20 5.09 
16.33 -112.08 5.11 
13.93 -113.28 4.84 
16.19 -111.41 5.08 
15.01 -116.43 5.06 
16.32 -114.63 5.54 
16.44 -114.27 5.55 
15.76 -112.93 5.43 
16.31 -110.52 5.88 
13.72 -115.75 5.76 
15.01 -114.46 5.87 
15.46 -114.22 5.92 
15.78 -113.78 5.94 
15.52 -113.83 5.91 
16.06 -113.18 5.96 
14.45 -113.89 5.76 
14.64 -113.71 5.78 
14.96 -113.78 5.83 
15.59 -113.13 5.89 
13.92 -114.04 5.70 
13.18 -114.23 5.61 
13.42 -114.10 5.63 
13.59 -113.86 5.65 
13.80 -113.52 5.66 
16.50 -114.06 6.46 
15.14 -112.68 6.20 
15.40 -114.84 6.83 
15.88 -117.81 2.34 
15.31 -117.30 2.30 
15.91 -114.90 2.44 
16.37 -114.63 2.49 
15.28 -114.26 2.40 
15.79 -114.14 2.45 
13.80 -111.17 3.15 
12.67 -112.10 3.03 
10.61 -112.79 2.82 
11.23 -111.21 2.89 
10.41 -111.13 2.81 
10.61 -110.35 2.84 
10.94 -110.05 2.88 
10.07 -110.86 2.78 
9.27 -110.69 2.71 
10.21 -110.03 2.81 
9.00 -110.79 2.68 
9.12 -109.96 2.70 
15.61 -115.18 3.29 
14.99 -115.15 3.23 
16.43 -112.91 3.40 
15.74 -113.26 3.33 
15.36 -113.01 3.29 
16.04 -112.17 3.37 
13.40 -114.73 3.07 
13.62 -114.71 3.10 
14.59 -113.15 3.21 
16.14 -111.47 3.39 
15.47 -111.99 3.32 
15.93 -111.59 3.37 
13.37 -113.60 3.08 
13.94 -113.01 3.15 
14.16 -112.88 3.17 
14.62 -112.19 3.23 
14.90 -111.68 3.26 
13.00 -113.31 3.05 
14.28 -112.15 3.19 
13.23 -112.68 3.08 
10.74 -113.63 2.82 
15.46 -110.27 4.14 
11.09 -112.25 3.66 
10.12 -111.13 3.55 
9.31 -111.62 3.47 
9.65 -111.16 3.50 
10.56 -110.00 3.58 
10.04 -109.91 3.52 
10.05 -109.28 3.52 
8.99 -110.14 3.41 
8.55 -109.55 3.36 
16.47 -114.65 4.29 
14.63 -115.49 4.09 
14.87 -115.37 4.11 
15.67 -114.30 4.19 
16.37 -113.94 4.27 
13.29 -116.76 3.95 
15.33 -114.22 4.15 
15.83 -114.06 4.21 
13.32 -116.06 3.95 
13.45 -115.72 3.96 
14.55 -114.41 4.07 
14.87 -114.22 4.10 
13.67 -114.36 3.97 
14.49 -113.72 4.05 
15.65 -112.24 4.46 
15.74 -111.92 4.18 
13.35 -114.24 3.93 
16.24 -110.88 4.23 
16.49 -110.31 4.26 
11.91 -109.41 3.99 
16.17 -113.93 4.53 
15.87 -113.89 4.49 
15.77 -112.92 4.48 
16.50 -112.10 4.57 
9.84 -113.15 4.34 
10.22 -112.89 4.37 
9.89 -112.70 4.33 
9.55 -110.60 4.22 
9.53 -109.99 4.19 
15.38 -115.06 5.06 
15.94 -113.99 5.10 
14.59 -115.36 4.97 
15.16 -114.09 5.00 
15.16 -113.65 4.99 
15.91 -113.15 5.07 
14.55 -114.05 4.93 
15.19 -113.38 4.98 
15.33 -113.07 4.99 
16.07 -112.10 5.06 
14.22 -113.73 4.87 
16.22 -111.39 5.06 
13.76 -113.60 4.81 
14.07 -112.65 4.82 
11.30 -113.02 4.50 
14.67 -116.66 5.02 
14.62 -115.93 4.99 
15.31 -114.26 5.32 
16.44 -113.04 5.45 
-0.05 -105.00 4.71 
0.26 -104.93 4.73 
-0.36 -105.06 4.69 
15.50 -113.83 5.91 
15.96 -113.60 5.96 
16.48 -112.95 6.00 
14.53 -114.87 5.83 
15.64 -113.55 5.92 
15.86 -112.91 5.91 
16.10 -112.85 5.94 
14.40 -113.94 5.76 
14.98 -113.41 5.82 
13.58 -114.68 5.69 
14.31 -113.88 5.75 
14.54 -113.64 5.77 
13.97 -113.67 5.69 
16.23 -111.13 5.88 
13.39 -113.71 5.62 
13.46 -113.19 5.60 
14.23 -115.34 5.81 
15.96 -113.42 6.28 
13.51 -115.62 5.73 
14.84 -113.65 6.12 
15.05 -113.03 6.13 
15.05 -112.60 6.11 
16.10 -111.49 6.22 
15.52 -111.53 6.14 
10.06 -112.58 1.98 
10.41 -112.14 2.02 
15.70 -118.00 2.31 
16.34 -116.65 2.41 
14.91 -117.52 2.25 
15.73 -116.63 2.35 
15.26 -116.62 2.31 
14.69 -116.46 2.27 
14.37 -116.42 2.24 
15.42 -114.72 2.39 
15.86 -114.49 2.43 
16.15 -113.81 2.48 
16.28 -113.51 2.50 
14.00 -116.15 2.21 
15.92 -113.94 2.46 
16.14 -110.94 2.57 
15.70 -110.88 2.54 
11.25 -112.40 2.09 
10.32 -113.39 1.98 
10.59 -112.70 2.02 
12.06 -110.90 2.99 
11.46 -110.68 2.93 
10.20 -111.92 2.80 
11.67 -109.95 2.96 
10.35 -110.90 2.82 
9.68 -110.45 2.76 
10.31 -109.96 2.83 
10.48 -109.55 2.85 
9.14 -110.92 2.71 
9.82 -109.93 2.78 
9.05 -110.05 2.71 
8.60 -110.08 2.67 
15.77 -117.60 3.29 
15.62 -116.09 3.29 
15.98 -114.35 3.35 
14.40 -115.43 3.18 
15.42 -113.47 3.30 
15.74 -113.22 3.34 
16.21 -112.49 3.39 
15.61 -112.46 3.33 
15.85 -112.36 3.36 
16.43 -111.72 3.43 
16.47 -111.41 3.43 
13.42 -115.06 3.08 
14.53 -113.14 3.21 
14.69 -112.88 3.23 
13.44 -114.47 3.09 
14.04 -112.71 3.17 
15.79 -110.29 3.61 
15.78 -109.88 3.62 
9.78 -113.89 2.75 
10.86 -111.19 3.66 
10.23 -110.94 3.59 
10.99 -110.29 3.66 
9.36 -111.91 3.51 
9.81 -110.38 3.54 
9.89 -109.97 3.54 
10.08 -109.95 3.56 
8.77 -110.92 3.44 
9.13 -109.85 3.46 
9.26 -109.56 3.47 
8.69 -109.39 3.41 
14.54 -115.97 4.11 
14.95 -115.45 4.15 
15.43 -113.99 4.19 
15.79 -113.86 4.23 
14.70 -114.29 4.11 
14.95 -114.20 4.14 
15.14 -113.98 4.16 
13.83 -114.30 4.02 
16.42 -110.61 4.27 
13.48 -114.27 3.98 
15.61 -111.09 4.18 
12.86 -114.13 3.91 
15.35 -111.15 4.16 
15.88 -110.10 4.21 
14.77 -111.14 4.32 
10.44 -113.51 3.65 
10.02 -112.94 3.59 
16.34 -115.86 4.31 
14.56 -116.57 4.12 
14.94 -116.06 4.16 
14.28 -116.60 4.09 
15.09 -115.44 4.38 
15.25 -113.65 4.39 
15.14 -113.01 4.38 
9.50 -110.51 4.26 
9.54 -109.98 4.25 
15.33 -114.08 5.07 
16.05 -113.21 5.13 
15.06 -114.04 5.03 
16.02 -112.54 5.11 
16.18 -112.29 5.12 
14.01 -114.31 4.92 
14.46 -113.51 4.95 
15.35 -112.37 5.02 
16.38 -110.87 5.11 
13.57 -114.33 4.86 
13.59 -114.00 4.86 
14.55 -112.47 4.92 
14.74 -112.36 4.94 
0.48 -105.57 4.37 
-0.07 -105.56 4.32 
0.13 -105.52 4.34 
15.83 -116.85 5.22 
14.39 -117.20 5.06 
15.21 -114.84 5.30 
15.98 -114.09 5.15 
14.06 -116.06 4.98 
15.01 -114.96 5.28 
15.41 -113.13 5.29 
15.57 -112.47 5.29 
14.79 -113.12 5.20 
15.17 -112.38 5.24 
16.27 -112.63 6.02 
16.47 -112.55 6.04 
16.04 -112.76 5.99 
15.17 -113.40 5.91 
15.21 -113.10 5.90 
14.36 -113.43 5.80 
14.05 -113.36 5.76 
14.44 -115.46 5.92 
14.64 -115.25 5.93 
15.14 -114.42 5.96 
15.57 -113.61 5.97 
15.93 -113.74 6.03 
16.03 -113.29 6.14 
14.18 -115.52 5.89 
14.58 -114.95 6.13 
15.88 -112.70 6.22 
15.45 -112.89 6.16 
14.19 -113.30 6.00 
14.55 -112.92 6.03 
10.56 -110.81 2.09 
11.02 -110.10 2.15 
10.29 -110.66 2.07 
9.97 -110.59 2.05 
15.49 -116.44 2.36 
15.91 -115.74 2.42 
14.44 -116.89 2.26 
14.95 -116.04 2.33 
15.21 -115.17 2.38 
15.54 -114.60 2.42 
15.99 -113.66 2.49 
16.40 -113.30 2.54 
14.08 -116.77 2.23 
15.16 -113.29 2.43 
16.22 -111.29 2.59 
15.78 -111.02 2.56 
11.10 -112.13 2.10 
11.37 -110.10 2.38 
10.13 -112.44 2.01 
10.35 -111.21 2.86 
10.65 -110.02 2.90 
9.77 -110.84 2.81 
10.35 -109.85 2.87 
9.46 -110.78 2.78 
9.18 -109.85 2.76 
15.87 -115.49 3.37 
16.31 -115.12 3.42 
15.84 -114.80 3.37 
16.23 -113.84 3.42 
14.79 -115.93 3.26 
16.22 -112.95 3.43 
15.96 -112.65 3.41 
13.98 -115.45 3.18 
14.50 -115.16 3.24 
13.91 -114.60 3.18 
15.24 -111.98 3.53 
13.10 -114.64 3.10 
13.35 -114.55 3.13 
13.73 -112.55 3.18 
13.67 -112.06 3.18 
13.86 -111.40 3.21 
13.70 -111.54 3.19 
11.63 -112.40 2.98 
11.39 -112.43 2.95 
11.33 -110.19 3.14 
9.26 -113.25 2.74 
9.45 -113.00 2.76 
9.74 -112.36 2.80 
11.45 -109.48 3.16 
11.45 -109.12 3.17 
9.47 -112.28 2.77 
11.41 -108.59 3.17 
16.30 -114.09 3.62 
10.73 -111.08 3.71 
10.58 -110.32 3.68 
9.36 -111.34 3.57 
9.65 -110.77 3.59 
9.80 -109.82 3.59 
8.56 -111.17 3.49 
8.68 -110.91 3.49 
8.76 -110.41 3.49 
8.82 -109.91 3.49 
9.10 -109.85 3.52 
9.30 -109.12 3.53 
15.88 -113.87 4.30 
15.47 -113.66 4.26 
16.45 -112.10 4.35 
14.55 -114.30 4.16 
14.74 -113.46 4.17 
13.69 -114.91 4.08 
14.33 -113.72 4.13 
14.75 -111.05 4.15 
15.40 -116.86 4.29 
15.11 -116.10 4.25 
15.88 -115.11 4.32 
15.17 -115.00 4.24 
14.27 -116.05 4.15 
14.32 -115.70 4.15 
15.52 -113.56 4.44 
14.39 -115.16 4.15 
15.20 -113.61 4.40 
14.59 -113.56 4.33 
15.91 -112.98 5.19 
15.53 -112.84 5.14 
14.51 -113.72 5.05 
16.22 -110.82 5.17 
14.08 -113.76 5.00 
13.43 -113.88 4.92 
13.59 -113.60 4.93 
13.77 -113.34 4.94 
13.16 -113.93 4.89 
-0.09 -105.31 4.44 
15.17 -115.31 5.34 
15.42 -114.38 5.18 
15.05 -114.24 5.13 
15.60 -113.62 5.18 
15.96 -112.98 5.38 
13.77 -116.08 5.04 
15.21 -113.49 5.30 
16.00 -111.61 5.35 
14.65 -113.59 5.23 
15.14 -112.64 5.26 
15.57 -111.71 5.30 
16.36 -113.76 6.37 
15.90 -113.61 6.30 
16.40 -112.35 6.31 
15.02 -114.51 6.06 
15.64 -113.61 6.26 
15.83 -112.46 6.23 
14.55 -114.11 5.97 
15.88 -112.14 6.23 
13.89 -115.30 5.95 
14.83 -112.41 6.08 
15.29 -114.68 6.26 
16.25 -114.32 2.05 
15.82 -114.28 2.01 
11.17 -109.95 2.59 
11.33 -109.80 2.61 
10.36 -110.61 2.50 
10.00 -110.18 2.48 
10.15 -109.91 2.50 
14.76 -116.84 2.79 
15.73 -114.69 2.93 
16.31 -113.41 3.02 
16.42 -112.44 3.05 
15.44 -111.88 3.16 
16.13 -110.40 3.07 
14.21 -113.42 2.81 
14.63 -112.95 2.86 
15.01 -112.11 2.92 
13.32 -114.69 2.70 
13.92 -114.00 2.77 
13.88 -113.22 2.78 
14.51 -112.17 2.87 
13.07 -114.89 2.67 
13.54 -113.80 2.74 
13.73 -111.60 2.81 
13.44 -111.57 2.78 
11.57 -112.39 2.58 
10.64 -113.58 2.46 
10.81 -112.60 2.50 
11.88 -109.72 2.85 
10.11 -112.94 2.43 
11.18 -110.62 2.58 
10.19 -112.36 2.45 
9.60 -112.89 2.38 
9.71 -112.40 2.40 
9.23 -112.66 2.35 
8.96 -112.51 2.33 
10.76 -109.89 3.35 
9.80 -109.87 3.25 
9.89 -109.53 3.26 
8.98 -110.52 3.17 
9.33 -109.94 3.21 
8.94 -109.65 3.17 
16.04 -115.58 3.91 
15.50 -115.24 3.85 
15.45 -115.01 3.85 
15.38 -114.29 3.84 
15.97 -112.37 3.91 
16.24 -112.32 3.94 
16.35 -111.85 3.95 
14.04 -116.00 3.69 
14.37 -115.76 3.73 
15.71 -112.34 3.88 
16.21 -110.56 3.94 
14.32 -114.49 3.73 
13.11 -115.20 3.60 
14.71 -111.17 3.94 
12.87 -115.29 3.57 
14.23 -111.79 3.89 
14.56 -111.21 3.93 
13.38 -111.66 3.63 
11.85 -110.71 3.47 
11.77 -109.32 3.62 
10.39 -111.69 3.31 
9.56 -112.21 3.23 
9.62 -111.60 3.24 
10.66 -109.08 3.49 
6.64 -105.22 3.60 
14.84 -115.83 3.94 
10.17 -109.82 4.09 
9.92 -109.91 4.06 
9.03 -109.31 3.95 
16.34 -111.86 4.86 
14.74 -113.69 4.70 
14.72 -112.98 4.68 
13.94 -114.00 4.61 
14.12 -113.60 4.62 
14.06 -112.82 4.60 
10.07 -110.92 4.10 
6.77 -105.34 4.29 
15.94 -115.71 5.02 
16.24 -115.03 4.90 
16.28 -113.82 4.88 
14.46 -117.35 4.74 
15.13 -115.43 4.91 
16.31 -113.22 5.03 
15.47 -113.95 4.79 
14.42 -115.37 4.69 
14.02 -115.49 4.65 
0.07 -105.40 4.24 
13.77 -113.05 5.47 
13.21 -113.08 5.40 
16.12 -113.64 5.86 
15.82 -113.64 5.75 
16.24 -112.67 5.77 
15.27 -114.55 5.72 
15.42 -114.10 5.72 
15.53 -113.08 5.83 
15.92 -112.79 5.87 
14.45 -114.99 5.74 
15.33 -113.26 5.68 
13.59 -115.57 5.55 
14.11 -114.55 5.57 
14.63 -113.40 5.59 
14.86 -112.56 5.71 
14.27 -113.56 5.55 
13.49 -113.86 5.46 
13.84 -113.31 5.49 
6.73 -105.87 6.37 
10.82 -110.48 1.64 
10.76 -110.17 1.65 
9.74 -109.81 2.38 
16.17 -111.36 2.97 
14.46 -113.80 2.92 
15.16 -112.04 2.86 
15.52 -111.41 3.08 
15.51 -110.97 2.92 
15.12 -111.11 2.87 
15.10 -110.99 2.87 
13.47 -114.43 2.64 
13.69 -113.90 2.67 
13.97 -113.01 2.72 
14.15 -112.85 2.74 
14.42 -111.83 2.87 
13.42 -113.85 2.64 
13.56 -112.76 2.68 
13.91 -111.79 2.91 
14.22 -111.61 2.77 
13.64 -111.56 2.72 
13.90 -111.51 2.74 
12.95 -111.93 2.64 
11.69 -112.30 2.51 
10.72 -113.52 2.39 
10.96 -111.78 2.45 
11.34 -110.58 2.52 
11.78 -109.90 2.74 
9.89 -113.52 2.31 
10.62 -112.36 2.41 
11.32 -109.92 2.53 
9.84 -112.59 2.33 
10.75 -109.80 2.48 
9.51 -112.39 2.30 
10.24 -110.45 2.41 
10.20 -109.57 2.59 
6.84 -105.09 2.89 
6.67 -105.11 2.87 
16.12 -113.82 3.86 
16.45 -112.21 3.90 
14.64 -114.29 3.70 
14.83 -114.01 3.72 
14.94 -113.48 3.73 
14.40 -114.30 3.67 
12.97 -115.30 3.52 
13.86 -111.64 3.62 
14.35 -111.21 3.82 
10.92 -112.87 3.31 
11.64 -110.93 3.38 
10.92 -112.09 3.31 
10.34 -112.78 3.25 
11.49 -109.04 3.51 
10.58 -110.96 3.27 
9.75 -111.61 3.19 
10.46 -109.85 3.26 
10.58 -109.58 3.27 
10.62 -108.83 3.41 
9.21 -112.63 3.14 
10.17 -109.92 3.36 
9.49 -109.95 3.16 
9.05 -110.32 3.12 
6.79 -105.20 3.58 
16.25 -115.01 3.87 
15.89 -115.04 3.83 
14.28 -115.60 3.66 
14.56 -115.58 3.69 
13.88 -115.70 3.62 
16.30 -112.08 4.81 
15.60 -111.28 4.71 
15.94 -110.85 4.74 
10.35 -114.01 4.17 
10.68 -112.48 4.17 
10.08 -111.43 4.08 
9.43 -110.90 3.99 
6.77 -105.36 4.27 
16.47 -113.81 4.86 
16.28 -113.97 4.84 
16.24 -113.10 4.89 
15.15 -115.03 4.73 
15.68 -114.01 4.77 
15.29 -113.50 4.84 
15.38 -113.20 4.84 
16.29 -111.03 4.93 
14.84 -113.56 4.66 
15.23 -112.32 4.81 
14.36 -113.82 4.61 
14.49 -113.37 4.62 
14.06 -113.92 4.58 
6.76 -105.51 4.97 
0.36 -105.48 4.29 
-0.04 -105.45 4.26 
16.19 -113.37 5.77 
16.50 -112.72 5.78 
15.31 -114.86 5.71 
15.58 -114.19 5.72 
15.77 -113.12 5.70 
16.04 -112.69 5.77 
14.77 -115.14 5.66 
14.89 -114.99 5.67 
15.33 -114.19 5.69 
15.50 -113.27 5.74 
15.66 -112.73 5.78 
14.88 -113.28 5.60 
15.12 -113.03 5.62 
14.13 -112.81 5.48 
6.73 -105.70 5.69 
6.92 -105.90 6.45 
11.42 -112.24 1.60 
12.04 -109.61 1.78 
10.67 -110.29 1.43 
15.86 -114.71 2.68 
16.20 -110.95 2.98 
15.63 -111.37 2.74 
15.77 -110.99 2.76 
16.08 -110.39 2.81 
15.32 -111.34 2.71 
15.46 -110.73 2.91 
14.42 -112.77 2.58 
14.75 -112.15 2.80 
14.82 -111.61 2.65 
14.86 -110.93 2.67 
14.17 -112.84 2.56 
14.58 -111.63 2.63 
14.72 -111.27 2.65 
13.22 -114.25 2.43 
13.84 -112.68 2.53 
14.08 -111.82 2.57 
13.43 -112.40 2.50 
12.95 -112.79 2.44 
12.98 -112.36 2.45 
11.51 -111.96 2.32 
12.24 -109.57 2.61 
11.30 -110.53 2.34 
11.69 -109.02 2.57 
10.99 -110.28 2.31 
11.53 -109.23 2.55 
9.77 -113.41 2.12 
10.28 -110.56 2.24 
10.32 -109.89 2.26 
10.51 -109.79 2.28 
9.96 -110.53 2.21 
9.81 -109.94 2.21 
9.89 -109.13 2.39 
6.71 -105.17 2.74 
15.98 -111.78 3.69 
16.41 -110.69 3.74 
16.49 -109.62 3.91 
14.27 -114.18 3.50 
15.63 -110.30 3.66 
15.79 -110.14 3.68 
14.01 -114.15 3.47 
12.39 -111.76 3.43 
11.28 -113.14 3.19 
11.55 -112.21 3.22 
11.22 -112.38 3.30 
11.14 -109.60 3.18 
10.38 -111.34 3.10 
10.08 -111.09 3.07 
10.43 -109.85 3.11 
9.13 -112.59 2.97 
9.66 -111.43 3.03 
10.32 -108.62 3.22 
9.48 -109.28 3.01 
9.91 -109.02 3.05 
8.89 -110.75 2.95 
9.06 -110.31 2.97 
8.50 -111.06 2.91 
8.54 -110.27 2.91 
8.67 -109.83 2.93 
16.42 -113.98 3.73 
15.98 -114.53 3.68 
16.49 -113.32 3.88 
15.37 -115.20 3.61 
15.63 -115.07 3.64 
15.79 -113.83 3.73 
15.07 -115.28 3.58 
15.37 -113.92 3.68 
14.28 -115.68 3.50 
13.66 -116.55 3.43 
13.74 -115.93 3.44 
13.90 -115.52 3.46 
13.76 -113.35 3.57 
6.66 -105.28 3.45 
16.14 -111.10 4.64 
6.80 -105.41 4.18 
6.61 -105.42 4.16 
16.23 -113.83 4.69 
16.21 -113.09 4.68 
16.43 -112.88 4.70 
14.90 -116.59 4.59 
15.20 -115.09 4.60 
15.68 -114.74 4.64 
15.34 -113.67 4.69 
15.34 -113.34 4.58 
15.19 -112.87 4.55 
15.27 -112.34 4.55 
14.55 -113.65 4.49 
15.25 -111.83 4.65 
14.16 -113.32 4.44 
14.37 -112.35 4.45 
13.80 -113.14 4.40 
6.80 -105.57 4.91 
6.57 -105.57 4.89 
0.58 -105.52 4.26 
0.20 -105.50 4.22 
-0.14 -105.48 4.19 
16.30 -113.27 5.66 
16.39 -112.49 5.64 
15.65 -114.33 5.62 
15.90 -113.36 5.61 
16.13 -112.49 5.61 
15.30 -114.13 5.57 
15.41 -113.03 5.54 
15.33 -112.76 5.52 
15.53 -111.98 5.59 
14.83 -112.31 5.43 
14.30 -113.18 5.40 
16.19 -113.71 5.74 
15.51 -114.81 5.69 
14.62 -115.53 5.54 
14.99 -115.01 5.56 
14.67 -114.89 5.52 
6.72 -105.76 5.65 
6.92 -105.96 6.43 
11.68 -110.06 1.53 
10.65 -110.78 1.21 
10.72 -110.16 1.25 
10.45 -110.33 1.22 
15.53 -112.03 2.70 
15.73 -110.95 2.58 
15.23 -112.05 2.51 
15.25 -111.14 2.53 
15.47 -110.95 2.56 
15.68 -110.62 2.75 
13.91 -113.87 2.33 
13.92 -113.20 2.35 
14.14 -112.96 2.38 
14.60 -111.76 2.45 
13.24 -114.56 2.25 
13.49 -114.01 2.29 
13.92 -113.06 2.35 
14.23 -111.57 2.42 
13.76 -111.52 2.38 
12.92 -111.99 2.28 
11.63 -112.42 2.15 
10.86 -111.80 2.09 
11.23 -110.47 2.16 
9.87 -113.46 1.96 
10.18 -112.38 2.01 
10.69 -110.04 2.12 
10.98 -109.31 2.32 
10.28 -110.40 2.15 
10.50 -110.08 2.25 
6.46 -105.16 2.58 
16.39 -110.02 3.59 
16.11 -110.22 3.56 
12.14 -110.19 3.25 
11.78 -110.12 3.21 
10.87 -112.17 3.00 
11.09 -110.92 3.13 
11.09 -110.22 3.03 
11.13 -109.67 3.04 
11.21 -109.35 3.15 
10.55 -110.97 3.07 
9.44 -113.31 2.85 
9.79 -111.49 2.89 
10.21 -110.91 2.94 
10.41 -109.80 2.96 
10.50 -109.05 3.08 
9.01 -112.57 2.81 
9.40 -109.98 2.86 
9.78 -109.62 2.90 
8.96 -110.44 2.81 
16.02 -115.07 3.52 
16.32 -113.87 3.56 
16.42 -113.29 3.70 
15.98 -113.80 3.59 
15.25 -113.51 3.57 
14.21 -115.86 3.33 
14.41 -115.51 3.35 
14.52 -114.27 3.37 
14.78 -113.49 3.40 
13.86 -115.74 3.29 
14.25 -114.25 3.34 
14.40 -113.42 3.48 
13.94 -113.36 3.43 
6.81 -105.24 3.36 
6.63 -105.27 3.34 
11.04 -110.41 3.91 
8.88 -112.44 3.72 
16.35 -112.87 4.56 
15.65 -114.07 4.50 
16.03 -113.57 4.53 
16.18 -113.09 4.54 
15.61 -113.36 4.48 
15.67 -112.98 4.48 
15.33 -113.28 4.53 
14.76 -113.49 4.38 
14.89 -113.13 4.48 
14.33 -113.18 4.33 
14.55 -112.15 4.34 
13.96 -112.95 4.28 
10.37 -113.95 3.91 
10.40 -113.06 3.89 
6.80 -105.40 4.10 
6.58 -105.39 4.08 
15.20 -116.37 4.48 
0.12 -105.48 4.17 
-0.14 -105.49 4.15 
16.07 -113.11 5.51 
15.48 -113.17 5.44 
15.67 -112.92 5.46 
15.42 -112.57 5.46 
14.84 -112.53 5.34 
14.54 -113.17 5.33 
6.75 -105.55 4.85 
6.54 -105.56 4.83 
16.14 -113.39 5.53 
16.32 -113.08 5.55 
16.37 -112.49 5.59 
15.46 -114.73 5.50 
15.53 -114.53 5.55 
14.56 -115.36 5.41 
14.77 -114.70 5.41 
6.87 -105.94 6.42 
11.59 -110.20 1.38 
10.79 -110.76 1.09 
10.89 -110.14 1.13 
11.12 -109.74 1.36 
10.61 -110.44 1.09 
10.82 -109.67 1.34 
10.20 -110.62 1.05 
10.12 -110.23 1.06 
16.25 -111.30 2.51 
15.62 -112.07 2.58 
15.11 -111.99 2.38 
15.17 -111.70 2.40 
14.09 -114.75 2.21 
14.27 -113.41 2.26 
14.64 -111.88 2.34 
13.71 -114.57 2.18 
13.77 -113.72 2.20 
14.25 -111.67 2.31 
13.68 -112.59 2.23 
13.88 -111.60 2.27 
14.03 -111.55 2.29 
12.72 -109.30 2.37 
11.78 -112.24 2.20 
12.42 -109.89 2.33 
11.38 -111.98 2.02 
11.50 -110.23 2.22 
11.79 -109.04 2.29 
10.67 -112.52 1.94 
11.14 -110.29 2.05 
9.96 -113.25 1.86 
10.03 -112.40 1.88 
10.47 -109.85 1.99 
9.85 -112.65 1.86 
10.10 -110.63 1.94 
10.30 -110.38 1.96 
9.79 -110.51 1.91 
10.01 -109.24 2.11 
16.37 -114.78 2.58 
6.63 -105.15 2.51 
16.04 -110.48 3.46 
16.25 -110.23 3.48 
15.92 -110.15 3.45 
13.74 -111.56 3.21 
13.51 -111.59 3.18 
11.48 -111.84 2.97 
11.65 -109.72 3.00 
11.77 -109.19 3.12 
11.00 -112.15 2.92 
10.92 -109.87 2.92 
11.03 -109.36 3.04 
10.58 -110.24 2.98 
9.78 -111.71 2.80 
9.98 -110.57 2.83 
9.08 -113.49 2.73 
9.17 -112.68 2.74 
9.44 -110.59 2.77 
16.19 -113.82 3.45 
16.49 -113.31 3.61 
15.76 -115.04 3.40 
15.99 -113.98 3.43 
16.10 -111.96 3.46 
16.29 -111.64 3.48 
15.31 -113.56 3.47 
16.03 -111.89 3.45 
14.41 -115.87 3.26 
14.62 -115.71 3.28 
14.80 -114.23 3.31 
14.13 -115.99 3.23 
14.78 -113.42 3.31 
14.20 -114.35 3.24 
14.01 -113.48 3.33 
13.09 -115.32 3.12 
6.63 -105.26 3.28 
11.17 -110.29 3.86 
16.33 -112.88 4.48 
15.81 -114.01 4.44 
15.80 -113.11 4.43 
16.02 -112.77 4.45 
15.50 -113.35 4.43 
14.98 -113.50 4.34 
14.67 -113.44 4.30 
14.35 -113.35 4.26 
14.60 -112.37 4.28 
10.31 -114.11 3.83 
6.93 -105.38 4.08 
6.65 -105.40 4.05 
15.84 -114.76 4.46 
15.07 -112.32 5.31 
14.83 -112.52 5.29 
6.70 -105.57 4.83 
0.40 -104.99 4.16 
16.42 -113.66 5.57 
15.83 -114.36 5.48 
16.27 -113.30 5.50 
16.40 -112.47 5.48 
15.03 -114.78 5.40 
15.59 -112.81 5.39 
14.68 -115.47 5.38 
14.80 -114.90 5.38 
14.76 -113.16 5.30 
6.77 -105.78 5.64 
7.54 -105.54 6.33 
7.10 -106.07 6.50 
7.24 -105.79 6.48 
10.73 -112.98 1.10 
11.45 -110.35 1.29 
11.37 -110.03 1.29 
11.56 -109.81 1.32 
10.91 -110.28 1.15 
11.04 -109.96 1.27 
10.27 -112.52 1.08 
16.46 -111.79 2.48 
15.28 -115.48 2.26 
15.90 -111.34 2.43 
16.19 -110.42 2.48 
15.50 -111.46 2.39 
15.52 -111.05 2.40 
15.20 -111.82 2.35 
14.72 -111.39 2.31 
14.26 -110.99 2.28 
13.58 -112.51 2.17 
13.14 -112.16 2.14 
12.23 -112.53 2.18 
11.75 -111.96 2.15 
11.44 -110.55 2.02 
11.55 -109.99 2.04 
11.49 -109.91 2.04 
11.00 -110.08 1.99 
9.86 -113.34 1.80 
10.61 -110.66 1.94 
10.69 -109.92 1.96 
10.11 -110.38 1.89 
16.03 -115.27 2.49 
15.41 -111.98 2.52 
15.07 -111.93 2.48 
14.28 -114.33 2.34 
6.79 -105.11 2.49 
6.56 -105.13 2.47 
16.33 -110.40 3.47 
16.12 -110.52 3.44 
15.61 -110.07 3.39 
11.33 -110.52 2.94 
10.24 -110.71 2.91 
9.87 -110.57 2.79 
10.27 -109.82 2.83 
15.77 -117.35 3.38 
15.75 -117.15 3.38 
16.03 -115.60 3.51 
16.12 -113.63 3.43 
16.25 -113.14 3.45 
15.56 -114.91 3.36 
15.84 -113.77 3.40 
15.52 -113.76 3.36 
15.04 -114.25 3.31 
14.36 -114.33 3.24 
14.03 -114.16 3.21 
13.77 -113.96 3.18 
13.30 -113.95 3.13 
12.71 -111.81 3.17 
6.83 -105.24 3.29 
6.49 -105.23 3.25 
16.29 -112.81 4.48 
16.36 -112.14 4.48 
15.92 -113.45 4.45 
15.42 -113.01 4.38 
15.25 -112.70 4.36 
15.50 -111.72 4.37 
14.41 -113.76 4.28 
14.58 -113.34 4.29 
14.12 -114.01 4.25 
13.86 -114.02 4.22 
6.77 -105.38 4.07 
0.90 -104.91 3.38 
16.33 -113.65 4.50 
15.48 -114.01 4.41 
14.71 -115.55 4.35 
6.69 -105.56 4.86 
15.66 -114.07 5.47 
15.30 -113.02 5.39 
7.14 -106.54 6.64 
6.88 -106.48 6.60 
11.49 -109.77 1.41 
10.55 -112.85 1.11 
10.91 -110.54 1.14 
11.08 -110.12 1.18 
11.15 -109.62 1.39 
10.30 -110.66 1.09 
10.59 -110.43 1.12 
9.87 -112.39 0.98 
9.93 -110.16 1.08 
10.23 -110.18 1.10 
15.83 -113.55 2.49 
16.26 -111.44 2.58 
16.40 -110.87 2.60 
15.81 -112.74 2.50 
15.95 -112.15 2.53 
16.02 -111.53 2.55 
16.15 -111.02 2.57 
14.60 -113.76 2.37 
14.69 -113.23 2.39 
14.88 -111.89 2.43 
15.31 -111.31 2.49 
14.31 -113.88 2.34 
14.49 -112.56 2.38 
13.84 -113.47 2.30 
11.13 -112.98 2.06 
11.61 -110.33 2.16 
11.05 -112.52 2.06 
11.36 -110.46 2.14 
10.82 -109.66 2.10 
10.59 -109.79 2.08 
9.86 -110.26 2.00 
10.23 -109.82 2.18 
16.31 -116.66 2.46 
15.07 -113.48 2.56 
14.08 -114.95 2.43 
14.49 -111.46 2.55 
10.29 -113.24 2.11 
6.72 -105.15 2.63 
6.48 -105.14 2.61 
15.92 -115.01 3.55 
16.12 -113.72 3.57 
16.45 -113.12 3.71 
15.28 -116.09 3.48 
15.49 -115.72 3.50 
15.50 -114.95 3.51 
16.20 -110.77 3.58 
15.68 -113.45 3.52 
15.94 -110.93 3.55 
15.93 -110.73 3.55 
16.20 -110.02 3.58 
14.84 -114.01 3.44 
14.51 -114.98 3.40 
14.58 -114.21 3.41 
14.88 -113.31 3.54 
13.97 -114.21 3.35 
6.78 -105.27 3.45 
6.45 -105.28 3.42 
15.86 -112.54 4.58 
16.14 -113.37 4.63 
16.25 -112.77 4.63 
15.73 -113.18 4.58 
15.19 -114.24 4.55 
15.39 -113.16 4.54 
14.62 -115.71 4.52 
15.21 -113.41 4.53 
14.20 -115.81 4.47 
14.54 -113.39 4.46 
14.01 -113.69 4.40 
14.27 -113.50 4.43 
7.24 -105.59 4.28 
6.83 -105.45 4.27 
6.63 -105.47 4.25 
6.39 -105.45 4.23 
15.69 -114.14 5.67 
6.82 -105.63 5.10 
6.58 -105.63 5.07 
7.28 -105.79 5.84 
12.41 -109.83 1.73 
11.64 -110.70 1.45 
11.84 -109.16 1.71 
11.29 -110.54 1.43 
11.23 -110.13 1.44 
11.66 -109.30 1.69 
10.71 -112.77 1.31 
10.72 -110.65 1.38 
10.86 -110.08 1.41 
11.05 -109.97 1.61 
10.68 -110.32 1.38 
10.60 -109.66 1.59 
10.73 -109.22 1.61 
9.86 -110.79 1.30 
9.84 -110.47 1.31 
9.97 -110.02 1.34 
7.67 -104.72 1.51 
16.37 -112.64 2.84 
14.23 -111.40 2.66 
13.98 -112.42 2.62 
14.08 -111.78 2.64 
11.87 -110.79 2.45 
11.44 -111.27 2.41 
11.85 -108.97 2.60 
11.39 -110.17 2.42 
11.33 -109.83 2.41 
10.75 -110.20 2.49 
10.89 -109.44 2.38 
9.95 -113.99 2.25 
10.24 -112.54 2.29 
10.39 -110.74 2.32 
10.46 -109.91 2.34 
9.85 -109.74 2.28 
7.63 -104.83 2.26 
16.07 -116.56 2.77 
16.31 -114.60 2.95 
15.89 -114.17 2.78 
16.29 -113.05 2.97 
15.25 -113.76 2.86 
15.35 -113.34 2.88 
14.85 -113.59 2.83 
14.36 -114.58 2.63 
14.50 -113.53 2.80 
14.05 -114.67 2.61 
13.42 -115.96 2.53 
13.34 -114.55 2.54 
13.64 -114.43 2.57 
10.40 -112.68 2.43 
7.55 -104.98 3.02 
6.68 -105.28 2.88 
6.38 -105.29 2.85 
15.91 -115.45 3.88 
16.03 -114.98 3.89 
16.37 -113.82 3.91 
16.48 -113.21 3.92 
15.74 -113.98 3.85 
15.82 -113.43 3.85 
15.67 -112.72 3.92 
15.02 -113.04 3.77 
14.20 -113.60 3.70 
14.24 -112.69 3.69 
9.42 -112.35 3.22 
7.52 -105.16 3.80 
6.82 -105.45 3.74 
6.57 -105.43 3.71 
6.32 -105.44 3.69 
16.22 -113.55 5.01 
16.47 -112.62 4.98 
15.66 -114.29 4.95 
16.07 -112.45 4.93 
15.66 -113.17 4.91 
15.04 -113.39 4.85 
15.19 -112.78 4.85 
14.85 -113.70 4.84 
14.37 -113.45 4.78 
14.02 -113.40 4.74 
13.63 -113.03 4.69 
7.51 -105.36 4.59 
6.76 -105.60 4.58 
6.52 -105.61 4.56 
7.49 -105.58 5.39 
6.82 -105.79 5.45 
6.47 -105.78 5.41 
-2.08 -104.76 5.84 
-4.48 -104.91 5.67 
-4.71 -104.93 5.66 
11.42 -110.02 1.35 
11.27 -110.59 1.32 
10.65 -110.60 1.27 
10.82 -110.08 1.30 
10.99 -109.73 1.51 
11.05 -109.20 1.53 
9.90 -112.71 1.14 
10.27 -112.13 1.37 
10.28 -110.56 1.24 
10.35 -110.09 1.35 
10.48 -109.23 1.48 
10.06 -110.71 1.21 
7.71 -104.72 1.38 
7.51 -104.74 1.36 
16.50 -110.48 2.81 
14.31 -111.69 2.60 
13.55 -112.38 2.52 
13.65 -111.51 2.54 
11.40 -111.47 2.33 
11.49 -110.66 2.35 
10.99 -112.59 2.29 
11.36 -109.24 2.35 
10.38 -112.70 2.23 
10.59 -109.74 2.27 
10.02 -112.51 2.20 
10.28 -110.79 2.24 
10.37 -109.93 2.25 
9.84 -111.52 2.19 
9.92 -110.55 2.21 
9.92 -109.46 2.22 
7.66 -104.84 2.17 
16.43 -116.87 2.75 
16.33 -114.57 2.89 
16.21 -113.49 2.89 
16.37 -113.08 2.91 
16.50 -112.24 2.80 
15.78 -115.10 2.70 
15.83 -114.06 2.72 
16.19 -112.31 2.77 
15.54 -114.39 2.82 
15.58 -113.64 2.83 
15.87 -112.23 2.74 
14.98 -114.62 2.63 
14.46 -116.37 2.57 
14.38 -114.96 2.57 
14.57 -113.50 2.60 
13.78 -115.31 2.52 
13.42 -115.25 2.48 
7.54 -105.06 2.96 
6.75 -105.31 2.83 
6.41 -105.31 2.80 
16.30 -112.93 3.87 
16.48 -111.10 3.87 
15.71 -114.05 3.82 
15.69 -113.16 3.81 
15.93 -112.70 3.83 
14.90 -113.23 3.81 
15.33 -112.66 3.85 
14.80 -113.53 3.73 
14.61 -113.36 3.78 
14.38 -113.29 3.68 
16.15 -112.99 3.94 
15.65 -114.91 3.83 
7.50 -105.22 3.77 
6.92 -105.44 3.73 
6.69 -105.47 3.71 
6.42 -105.45 3.68 
16.01 -113.28 4.96 
16.36 -112.36 4.97 
15.63 -114.19 4.95 
15.25 -114.10 4.91 
15.55 -113.12 4.90 
15.48 -112.73 4.88 
14.73 -115.26 4.89 
14.51 -113.02 4.79 
7.48 -105.47 4.60 
6.87 -105.63 4.61 
6.65 -105.64 4.59 
6.40 -105.65 4.56 
7.74 -105.44 5.45 
6.87 -105.86 5.51 
6.47 -105.85 5.47 
-2.24 -104.99 6.33 
-2.76 -104.85 6.28 
-3.10 -104.84 6.25 
-3.48 -104.81 6.22 
-4.00 -104.73 6.18 
-4.36 -104.73 6.16 
-4.72 -104.73 6.13 
11.40 -110.04 1.28 
11.06 -109.67 1.44 
10.57 -110.15 1.39 
10.05 -112.45 1.09 
10.27 -112.01 1.31 
10.18 -110.57 1.25 
9.87 -110.15 1.15 
7.60 -104.69 1.32 
13.99 -111.67 2.50 
13.71 -111.78 2.48 
11.46 -110.65 2.30 
11.52 -109.70 2.31 
10.93 -109.85 2.26 
10.34 -112.71 2.18 
10.60 -109.84 2.23 
10.00 -112.63 2.16 
10.02 -111.47 2.17 
10.17 -109.44 2.20 
10.01 -109.87 2.18 
7.56 -104.86 2.13 
16.46 -114.46 2.83 
15.95 -116.68 2.63 
16.18 -114.08 2.67 
16.33 -112.47 2.70 
16.49 -112.08 2.72 
15.75 -114.90 2.63 
15.59 -114.33 2.75 
15.83 -114.04 2.64 
15.68 -113.63 2.77 
16.00 -111.69 2.68 
15.69 -111.65 2.65 
13.99 -115.03 2.47 
14.18 -113.49 2.50 
14.33 -111.77 2.53 
13.71 -115.27 2.45 
13.32 -115.10 2.42 
13.55 -112.37 2.46 
11.63 -112.78 2.29 
7.53 -105.03 2.95 
6.94 -105.29 2.85 
6.58 -105.27 2.82 
16.36 -113.04 3.82 
15.84 -113.39 3.78 
14.82 -113.48 3.68 
15.92 -114.65 3.80 
16.03 -113.08 3.87 
14.92 -116.12 3.72 
14.91 -112.88 3.76 
14.44 -113.42 3.72 
7.50 -105.22 3.79 
6.88 -105.42 3.75 
6.52 -105.43 3.72 
16.17 -113.16 4.94 
16.20 -112.92 4.93 
16.40 -112.32 4.93 
15.50 -113.95 4.90 
15.55 -113.03 4.87 
15.50 -112.76 4.86 
15.01 -112.25 4.79 
14.49 -113.01 4.76 
7.47 -105.46 4.63 
14.83 -115.25 4.88 
6.87 -105.60 4.65 
6.46 -105.62 4.62 
7.72 -105.31 5.48 
7.24 -105.34 5.43 
6.83 -105.83 5.57 
6.44 -105.82 5.53 
-0.75 -105.91 6.73 
-1.00 -105.85 6.70 
-5.97 -105.57 6.36 
11.62 -110.64 1.01 
11.04 -109.22 1.20 
10.73 -110.03 1.06 
11.39 -110.12 2.06 
11.60 -109.71 2.08 
11.01 -109.71 2.04 
11.21 -109.27 2.06 
10.64 -111.06 1.99 
10.63 -109.66 2.01 
10.41 -109.85 1.98 
9.93 -110.75 1.94 
10.03 -109.58 1.96 
7.67 -104.85 1.93 
16.07 -116.65 2.38 
16.28 -114.92 2.42 
16.18 -114.54 2.55 
16.42 -113.36 2.58 
16.49 -112.45 2.47 
15.91 -115.02 2.39 
15.96 -113.09 2.54 
16.04 -112.01 2.43 
15.51 -114.19 2.49 
15.83 -112.45 2.41 
14.46 -112.98 2.41 
14.06 -114.90 2.23 
13.93 -111.95 2.26 
14.20 -111.68 2.28 
13.71 -112.38 2.23 
10.45 -108.79 2.12 
7.64 -105.04 2.77 
7.38 -105.05 2.75 
6.63 -105.27 2.64 
14.71 -112.55 3.44 
16.32 -113.16 3.60 
16.32 -112.69 3.67 
16.02 -113.53 3.57 
16.10 -113.00 3.65 
15.44 -113.72 3.52 
15.67 -113.38 3.54 
14.97 -113.59 3.48 
15.31 -112.61 3.57 
14.75 -115.30 3.48 
14.09 -114.06 3.40 
14.39 -113.88 3.43 
7.61 -105.23 3.64 
7.34 -105.23 3.61 
6.93 -105.42 3.60 
6.50 -105.42 3.56 
16.10 -112.88 4.73 
16.28 -112.34 4.73 
15.74 -112.87 4.69 
15.42 -112.99 4.67 
15.17 -112.36 4.62 
14.86 -112.28 4.59 
14.39 -113.06 4.57 
16.18 -113.30 4.75 
14.67 -115.34 4.67 
7.59 -105.52 4.51 
7.31 -105.46 4.48 
6.76 -105.62 4.52 
6.48 -105.60 4.50 
7.55 -106.20 5.43 
6.67 -105.82 5.46 
6.82 -105.81 5.48 
6.32 -105.83 5.43 
-5.40 -106.29 6.49 
-5.78 -106.29 6.47 
-6.21 -106.27 6.44 
-6.78 -106.31 6.42 
11.39 -110.35 1.12 
11.42 -109.72 1.32 
10.71 -110.30 1.08 
11.07 -109.62 1.30 
10.36 -112.99 0.97 
10.24 -112.51 1.16 
10.34 -110.02 1.06 
9.96 -113.00 0.94 
9.89 -112.31 1.05 
11.27 -110.04 2.20 
10.48 -109.46 2.14 
9.89 -109.62 2.10 
7.40 -105.14 2.06 
7.15 -105.16 2.04 
16.16 -114.75 2.65 
15.77 -114.84 2.56 
15.85 -114.00 2.51 
15.41 -114.72 2.59 
14.42 -114.26 2.40 
14.12 -114.33 2.38 
14.22 -113.40 2.51 
14.25 -111.23 2.41 
13.73 -114.24 2.35 
13.90 -112.32 2.37 
14.11 -111.76 2.40 
13.35 -115.61 2.31 
13.40 -114.40 2.32 
11.96 -110.39 2.24 
11.46 -112.46 2.19 
11.34 -111.75 2.19 
10.84 -112.56 2.14 
10.01 -112.04 2.09 
7.33 -105.30 2.93 
7.12 -105.34 2.92 
6.70 -105.18 2.84 
6.29 -105.18 2.81 
16.19 -113.08 3.72 
16.01 -112.95 3.77 
15.72 -113.92 3.69 
15.82 -113.27 3.69 
15.27 -115.00 3.67 
15.03 -112.84 3.62 
14.41 -113.23 3.63 
14.56 -112.49 3.57 
14.21 -113.93 3.56 
14.19 -113.70 3.56 
14.23 -112.80 3.55 
13.88 -113.81 3.53 
7.31 -105.52 3.82 
7.09 -105.53 3.81 
6.66 -105.34 3.79 
6.24 -105.34 3.76 
16.44 -112.17 4.89 
15.99 -112.80 4.87 
16.12 -112.29 4.87 
15.62 -112.73 4.84 
15.24 -113.90 4.84 
15.35 -113.09 4.82 
14.75 -114.66 4.83 
14.54 -115.32 4.83 
14.60 -112.98 4.75 
7.29 -105.75 4.72 
7.06 -105.76 4.70 
6.61 -105.54 4.74 
6.18 -105.52 4.71 
7.47 -106.86 5.73 
6.83 -105.74 5.74 
6.39 -105.72 5.70 
-0.50 -107.00 7.26 
-0.54 -106.98 7.26 
-0.94 -106.95 7.23 
-5.33 -106.65 6.96 
-5.62 -106.68 6.95 
7.47 -104.85 1.80 
16.27 -114.30 2.25 
16.24 -113.48 2.38 
15.83 -114.10 2.22 
16.15 -112.77 2.26 
15.63 -113.71 2.33 
14.91 -113.69 2.27 
14.63 -113.08 2.26 
11.41 -112.57 1.90 
11.65 -110.63 1.94 
11.04 -112.71 1.87 
11.42 -111.06 1.92 
10.73 -109.76 1.88 
10.45 -109.77 1.86 
9.93 -110.66 1.81 
10.04 -109.61 1.83 
7.69 -105.07 2.71 
7.46 -105.06 2.70 
7.41 -105.02 2.69 
7.19 -105.07 2.67 
6.74 -105.28 2.60 
6.44 -105.25 2.58 
16.27 -112.73 3.52 
15.99 -112.95 3.50 
15.41 -110.78 3.37 
15.03 -113.03 3.36 
15.08 -112.48 3.42 
14.77 -113.62 3.35 
14.79 -112.83 3.40 
14.35 -113.45 3.31 
7.40 -105.26 3.61 
7.03 -105.33 3.59 
6.67 -105.41 3.58 
6.35 -105.41 3.56 
16.06 -113.19 4.66 
16.29 -112.21 4.65 
15.95 -114.01 4.68 
14.95 -114.65 4.61 
15.07 -112.31 4.54 
14.55 -113.04 4.52 
7.37 -105.48 4.52 
6.87 -105.60 4.59 
7.12 -105.51 4.50 
6.50 -105.60 4.56 
6.28 -105.61 4.54 
6.83 -105.80 5.59 
6.45 -105.80 5.55 
7.57 -104.88 1.57 
16.14 -113.23 2.12 
11.48 -110.98 1.68 
10.93 -109.83 1.65 
10.44 -112.60 1.58 
10.47 -110.81 1.60 
10.57 -109.79 1.62 
10.18 -109.65 1.60 
9.76 -109.80 1.56 
7.52 -105.08 2.49 
6.71 -105.27 2.39 
6.36 -105.25 2.36 
15.89 -112.86 3.26 
16.16 -112.55 3.28 
15.72 -113.40 3.19 
15.06 -112.74 3.19 
14.69 -112.72 3.16 
14.74 -112.58 3.10 
14.30 -113.97 3.08 
13.98 -113.95 3.05 
7.48 -105.28 3.42 
7.02 -105.49 3.43 
6.59 -105.42 3.39 
16.20 -113.09 4.46 
16.35 -112.16 4.45 
15.78 -112.75 4.42 
15.48 -113.01 4.40 
14.65 -112.89 4.32 
14.35 -112.94 4.29 
7.05 -105.57 4.33 
7.57 -105.52 4.38 
7.33 -105.54 4.36 
6.96 -105.63 4.43 
6.59 -105.64 4.40 
7.18 -105.64 5.46 
6.90 -105.64 5.44 
6.50 -105.63 5.40 
12.21 -109.21 1.75 
11.37 -110.02 1.68 
10.86 -109.31 1.65 
10.46 -112.73 1.57 
10.53 -110.98 1.60 
10.60 -109.75 1.62 
10.19 -109.60 1.59 
9.88 -109.53 1.57 
7.73 -104.87 1.57 
7.47 -104.88 1.55 
7.70 -105.14 2.52 
7.43 -105.11 2.49 
6.82 -105.29 2.41 
7.18 -105.11 2.47 
6.51 -105.28 2.39 
6.22 -105.26 2.37 
16.18 -112.26 3.30 
7.65 -105.31 3.47 
7.31 -105.33 3.44 
6.88 -105.44 3.45 
6.42 -105.45 3.41 
16.42 -112.06 4.50 
7.22 -105.57 4.40 
6.82 -105.67 4.48 
6.46 -105.65 4.45 
6.76 -105.86 5.53 
6.32 -105.85 5.49 
6.24 -105.52 5.45 
11.42 -110.11 1.45 
11.00 -109.90 1.43 
10.63 -109.82 1.40 
10.44 -112.46 1.35 
10.46 -110.68 1.38 
10.23 -109.77 1.37 
7.62 -104.87 1.36 
7.36 -104.90 1.34 
7.59 -105.10 2.32 
7.29 -105.08 2.30 
6.76 -105.25 2.22 
6.45 -105.25 2.20 
7.55 -105.31 3.30 
7.16 -105.36 3.28 
6.72 -105.43 3.28 
6.67 -105.42 3.27 
6.41 -105.43 3.25 
6.35 -105.41 3.25 
7.75 -105.39 4.30 
7.51 -105.45 4.28 
6.95 -105.69 4.36 
7.22 -105.45 4.26 
6.66 -105.67 4.33 
6.34 -105.64 4.31 
7.22 -106.17 5.48 
6.95 -106.13 5.45 
6.64 -106.15 5.43 
11.50 -109.79 1.30 
10.67 -110.98 1.22 
7.65 -104.86 1.20 
7.61 -105.09 2.18 
7.34 -105.08 2.16 
6.89 -105.23 2.10 
7.54 -105.29 3.18 
7.19 -105.36 3.18 
6.82 -105.42 3.17 
6.50 -105.40 3.14 
7.83 -105.36 4.21 
7.49 -105.27 4.18 
7.19 -105.27 4.15 
7.03 -105.61 4.27 
6.76 -105.63 4.25 
6.43 -105.64 4.22 
7.09 -106.37 5.42 
6.74 -106.42 5.39 
11.20 -109.64 1.13 
10.84 -109.74 1.10 
7.69 -105.06 2.07 
7.41 -105.06 2.05 
7.65 -105.28 3.10 
7.40 -105.31 3.08 
6.86 -105.39 3.08 
7.08 -105.31 3.06 
6.55 -105.39 3.06 
6.23 -105.39 3.03 
7.86 -105.22 4.14 
7.60 -105.24 4.12 
7.29 -105.24 4.09 
6.98 -105.26 4.07 
7.08 -105.61 4.21 
6.80 -105.64 4.19 
6.46 -105.60 4.16 
7.09 -106.45 5.37 
6.79 -106.43 5.35 
6.50 -106.46 5.33 
10.99 -109.60 1.11 
6.94 -105.10 2.03 
7.67 -105.28 2.11 
7.41 -105.31 2.10 
7.09 -105.33 2.07 
7.63 -105.52 3.17 
7.34 -105.55 3.15 
7.05 -105.56 3.13 
6.94 -105.28 3.16 
6.60 -105.30 3.14 
6.26 -105.27 3.11 
6.88 -105.51 4.28 
6.37 -105.51 4.25 
6.95 -106.68 5.50 
7.73 -105.62 3.12 
7.29 -105.59 3.09 
6.93 -105.31 3.10 
6.60 -105.32 3.08 
6.25 -105.30 3.05 
6.87 -105.54 4.25 
6.51 -105.52 4.22 
6.19 -105.54 4.20 
7.65 -105.34 3.10 
7.38 -105.37 3.08 
6.96 -105.39 3.10 
6.64 -105.41 3.08 
6.29 -105.40 3.05 
6.93 -105.62 4.28 
6.58 -105.63 4.25 
6.26 -105.64 4.23 
7.58 -105.56 2.92 
7.30 -105.57 2.90 
6.93 -105.30 2.91 
6.60 -105.29 2.89 
6.27 -105.29 2.87 
6.90 -105.52 4.12 
6.57 -105.52 4.10 
6.21 -105.54 4.07 
7.76 -105.32 2.81 
7.45 -105.33 2.79 
6.99 -105.39 2.79 
6.58 -105.41 2.78 
6.21 -105.39 2.76 
6.88 -105.63 4.04 
6.52 -105.64 4.01 
6.15 -105.65 3.99 
