# .PCD v0.7 - Point Cloud Data file format
VERSION 0.7
FIELDS x y z
SIZE 4 4 4
TYPE F F F
COUNT 1 1 1
WIDTH 2500
HEIGHT 1
VIEWPOINT 0 0 0 1 0 0 0
POINTS 2500
DATA ascii
13.28 -58.82 6.64 
13.31 -58.43 6.67 
-5.34 -78.25 4.95 
14.74 -63.49 7.04 
15.11 -63.53 7.07 
14.68 -63.19 7.06 
14.68 -62.82 7.09 
14.70 -62.47 7.12 
14.71 -62.09 7.16 
14.71 -61.73 7.19 
14.71 -61.37 7.22 
14.71 -60.99 7.26 
14.71 -60.59 7.30 
14.72 -60.22 7.33 
13.01 -59.56 7.22 
14.65 -59.70 7.37 
12.85 -59.40 7.22 
14.30 -59.44 7.36 
12.93 -58.44 7.32 
12.93 -58.02 7.36 
12.92 -57.61 7.40 
12.94 -57.17 7.44 
-5.24 -65.83 6.09 
-5.00 -65.78 6.34 
15.02 -63.54 7.38 
15.38 -63.63 7.41 
14.92 -63.26 7.39 
13.25 -59.60 7.54 
13.67 -59.63 7.58 
14.71 -59.58 7.69 
14.93 -59.77 7.70 
13.22 -59.26 7.57 
13.19 -58.95 7.59 
13.23 -58.51 7.64 
12.95 -56.73 7.49 
12.94 -56.28 7.53 
12.92 -55.69 7.58 
12.95 -55.37 7.62 
13.21 -55.35 7.92 
12.90 -55.01 7.65 
13.22 -54.90 7.97 
-5.54 -77.90 5.80 
14.70 -63.54 7.93 
15.08 -63.58 7.97 
14.66 -63.22 7.96 
14.67 -62.52 8.04 
14.67 -62.15 8.08 
16.02 -63.58 8.45 
16.44 -63.59 8.32 
16.11 -63.51 8.11 
14.66 -61.79 8.11 
14.68 -61.42 8.16 
14.68 -61.04 8.20 
14.67 -60.65 8.24 
13.32 -59.60 8.36 
13.77 -59.59 8.25 
14.15 -59.61 8.29 
14.61 -59.75 8.33 
13.29 -59.44 8.54 
14.30 -59.53 8.32 
13.14 -58.98 8.57 
12.88 -58.51 8.27 
12.88 -58.08 8.31 
12.89 -57.24 8.41 
12.90 -56.80 8.46 
12.89 -56.35 8.51 
12.90 -55.91 8.56 
12.89 -55.45 8.62 
-5.40 -54.97 7.73 
-5.18 -55.01 7.74 
12.86 -55.06 8.66 
-5.60 -54.85 7.73 
14.87 -60.60 8.61 
14.87 -60.23 8.65 
13.72 -59.61 8.57 
14.16 -59.62 8.62 
14.83 -59.69 8.70 
13.87 -59.55 8.60 
13.16 -58.60 8.61 
13.12 -55.88 8.90 
13.15 -55.39 8.96 
13.14 -54.97 9.00 
-5.60 -54.78 7.74 
14.68 -63.57 8.83 
15.05 -63.63 8.88 
14.67 -63.24 8.87 
14.66 -62.88 8.91 
14.68 -62.52 8.96 
14.68 -62.17 9.00 
14.68 -61.80 9.05 
14.68 -61.43 9.09 
14.68 -61.06 9.14 
14.69 -60.65 9.19 
14.69 -60.29 9.24 
12.97 -59.63 9.09 
14.51 -59.67 9.29 
14.70 -59.89 9.29 
14.25 -59.59 9.27 
12.87 -58.10 9.27 
12.89 -57.67 9.33 
12.89 -57.25 9.39 
12.90 -56.82 9.45 
14.75 -59.76 9.68 
13.11 -59.03 9.54 
12.90 -56.35 9.51 
12.89 -55.93 9.56 
13.06 -55.95 9.92 
12.99 -54.87 9.72 
12.74 -54.70 9.71 
15.03 -63.66 9.79 
15.88 -63.67 9.92 
16.27 -63.71 9.98 
14.65 -63.47 9.75 
14.67 -63.25 9.79 
14.63 -62.99 9.82 
14.69 -62.87 9.84 
14.69 -62.53 9.89 
14.63 -62.29 9.91 
14.69 -62.16 9.94 
14.64 -61.91 9.97 
14.68 -61.81 9.99 
14.63 -61.55 10.01 
14.70 -61.43 10.04 
14.67 -61.11 10.08 
14.65 -60.74 10.13 
12.94 -59.67 10.03 
13.32 -59.67 10.08 
13.70 -59.68 10.14 
12.88 -58.92 10.13 
12.86 -58.54 10.18 
14.84 -61.39 10.49 
14.69 -60.29 10.20 
14.49 -59.70 10.25 
14.69 -59.90 10.26 
14.23 -59.63 10.22 
13.12 -59.03 10.54 
12.87 -58.11 10.25 
12.87 -57.70 10.31 
12.87 -57.27 10.37 
12.85 -56.86 10.43 
12.83 -56.43 10.49 
12.88 -55.93 10.57 
12.98 -55.35 10.67 
12.90 -55.06 10.71 
12.98 -54.88 10.75 
10.85 -54.71 10.48 
11.58 -54.72 10.58 
14.83 -63.52 10.71 
15.11 -63.62 10.74 
14.85 -63.12 10.77 
14.84 -62.76 10.82 
14.81 -62.30 10.89 
14.79 -59.54 10.73 
13.17 -54.93 11.12 
14.81 -61.86 10.96 
14.85 -61.31 11.05 
14.80 -61.01 11.09 
14.80 -60.62 11.15 
14.84 -60.17 11.23 
14.84 -59.77 11.29 
13.34 -59.66 11.06 
14.30 -59.57 11.23 
14.55 -59.66 11.26 
13.03 -58.78 11.15 
13.04 -58.36 11.22 
13.02 -57.95 11.29 
13.04 -57.51 11.36 
13.04 -57.10 11.43 
14.90 -60.20 11.68 
14.90 -59.84 11.74 
13.04 -56.74 11.69 
13.03 -56.20 11.58 
13.02 -54.84 11.81 
16.43 -63.64 11.94 
13.81 -59.60 12.13 
14.17 -59.65 12.18 
13.14 -55.84 12.05 
13.05 -55.76 12.70 
13.06 -57.63 12.79 
13.05 -57.22 12.86 
13.06 -55.28 12.79 
13.14 -55.42 13.19 
-5.47 -78.24 2.71 
-5.18 -78.40 2.71 
-4.91 -78.48 2.72 
-6.52 -77.98 2.66 
-5.36 -77.70 2.74 
-5.35 -78.12 3.01 
2.66 -77.73 3.57 
-8.48 -70.12 3.32 
-7.89 -70.09 3.36 
-8.22 -69.77 3.36 
-7.86 -69.74 3.38 
-7.47 -69.84 3.40 
-7.07 -69.44 3.45 
-6.57 -69.26 3.49 
-6.20 -69.42 3.50 
4.18 -62.57 4.59 
4.19 -61.79 4.64 
4.07 -61.24 4.67 
3.85 -58.05 4.86 
5.63 -78.75 3.96 
-5.38 -78.17 3.44 
2.91 -77.76 3.83 
1.04 -77.65 3.71 
-7.96 -62.02 4.07 
-7.27 -62.03 4.11 
-6.79 -62.05 4.14 
-5.71 -62.08 4.21 
-5.36 -62.18 4.23 
-7.62 -57.95 4.35 
-6.19 -58.23 4.42 
-5.52 -58.25 4.46 
3.79 -56.20 4.97 
3.64 -55.88 4.98 
-5.40 -78.21 3.88 
-5.14 -65.79 4.35 
-4.92 -65.75 4.58 
-7.59 -62.05 4.50 
-6.47 -62.08 4.57 
-6.04 -62.15 4.60 
-5.74 -62.21 4.61 
-5.41 -78.21 4.17 
-5.16 -65.80 4.89 
-4.93 -65.76 5.13 
15.20 -63.38 6.43 
15.66 -63.39 6.47 
14.65 -61.92 6.22 
12.96 -58.15 6.37 
-5.25 -65.81 5.44 
13.16 -59.38 6.55 
13.51 -59.44 6.57 
13.17 -59.00 6.58 
13.18 -58.62 6.61 
13.16 -58.23 6.64 
13.18 -57.84 6.67 
13.18 -57.43 6.70 
13.21 -56.20 6.80 
-4.95 -65.78 5.69 
14.80 -63.50 6.98 
15.12 -63.57 7.01 
15.59 -63.51 7.07 
14.67 -63.29 6.99 
14.70 -62.89 7.03 
14.68 -62.41 7.07 
14.70 -62.04 7.11 
14.70 -61.80 7.13 
14.69 -61.31 7.17 
14.69 -60.93 7.21 
14.72 -60.69 7.23 
14.73 -60.09 7.29 
13.14 -59.57 7.18 
14.47 -59.53 7.32 
12.93 -58.99 7.22 
12.93 -58.59 7.26 
12.92 -58.19 7.29 
12.94 -57.75 7.34 
12.95 -57.33 7.38 
12.95 -56.89 7.42 
-5.15 -65.79 6.12 
-4.94 -65.76 6.25 
15.61 -63.45 7.39 
13.44 -59.51 7.51 
13.86 -59.52 7.56 
13.12 -58.68 7.56 
13.12 -58.28 7.59 
12.97 -55.98 7.51 
13.14 -56.28 7.78 
12.96 -55.53 7.56 
12.92 -54.93 7.61 
-5.29 -65.83 6.55 
14.74 -63.57 7.86 
15.09 -63.61 7.89 
15.53 -63.58 7.95 
15.93 -63.60 8.00 
16.22 -63.57 8.04 
14.65 -63.33 7.87 
14.88 -63.50 7.88 
14.67 -62.93 7.92 
14.67 -62.58 7.95 
14.64 -62.17 8.00 
14.64 -61.72 8.04 
14.66 -61.35 8.09 
14.66 -60.98 8.13 
14.69 -60.73 8.16 
13.51 -59.60 8.15 
12.86 -59.39 8.09 
12.88 -59.06 8.13 
15.63 -63.46 8.34 
16.10 -63.47 8.39 
14.66 -60.41 8.19 
14.68 -59.97 8.24 
13.87 -59.60 8.19 
14.25 -59.62 8.23 
14.62 -59.71 8.26 
13.57 -59.45 8.50 
13.98 -59.46 8.55 
14.38 -59.54 8.25 
13.01 -58.80 8.50 
12.88 -58.66 8.18 
12.95 -58.32 8.39 
12.89 -57.83 8.28 
12.91 -57.38 8.33 
12.89 -56.97 8.37 
12.92 -56.04 8.49 
12.91 -55.60 8.54 
12.88 -54.98 8.61 
-5.20 -54.89 7.69 
-4.89 -54.86 7.72 
14.72 -63.60 8.73 
15.08 -63.64 8.78 
15.50 -63.63 8.84 
14.65 -63.34 8.76 
14.84 -63.55 8.76 
14.69 -62.93 8.81 
14.70 -62.57 8.86 
14.62 -62.34 8.88 
13.04 -56.38 8.77 
12.97 -55.27 8.88 
13.07 -55.10 8.92 
13.01 -54.80 8.94 
14.65 -62.11 8.91 
14.65 -61.72 8.96 
14.66 -61.37 9.00 
14.64 -60.85 9.07 
14.69 -61.12 9.04 
14.63 -60.47 9.11 
14.70 -60.74 9.09 
14.62 -60.09 9.16 
14.68 -60.36 9.13 
14.39 -59.63 9.19 
14.71 -59.97 9.19 
12.86 -59.52 9.00 
12.84 -59.14 9.05 
12.88 -58.67 9.11 
12.90 -57.82 9.23 
12.90 -57.41 9.28 
12.82 -57.12 9.31 
12.91 -56.06 9.46 
12.78 -55.84 9.48 
14.43 -59.45 9.58 
13.00 -56.44 9.76 
12.15 -54.69 9.56 
12.70 -54.70 9.62 
14.71 -63.62 9.62 
15.07 -63.66 9.67 
15.45 -63.68 9.73 
15.86 -63.69 9.79 
16.26 -63.71 9.86 
14.67 -63.34 9.65 
14.81 -63.60 9.64 
14.70 -62.93 9.72 
14.70 -62.58 9.76 
14.64 -62.34 9.79 
14.71 -62.22 9.82 
14.64 -61.98 9.84 
14.69 -61.86 9.86 
14.63 -61.61 9.89 
14.67 -61.37 9.93 
14.67 -60.99 9.99 
14.67 -60.61 10.04 
14.67 -60.22 10.10 
13.61 -59.69 10.01 
14.19 -59.71 10.10 
14.55 -59.71 10.15 
14.67 -59.85 10.15 
12.85 -59.54 9.92 
13.17 -59.64 9.96 
12.84 -59.15 9.98 
12.84 -58.74 10.04 
12.80 -58.41 10.08 
12.89 -57.83 10.18 
14.05 -59.40 10.52 
14.49 -59.41 10.59 
12.89 -57.42 10.25 
12.83 -57.12 10.28 
12.88 -56.10 10.45 
12.85 -55.67 10.51 
12.89 -55.16 10.59 
11.43 -54.69 10.46 
11.78 -54.72 10.51 
12.10 -54.75 10.54 
12.48 -54.73 10.60 
15.90 -63.67 10.73 
14.84 -63.46 10.58 
15.14 -63.62 10.61 
15.54 -63.63 10.67 
14.85 -63.17 10.62 
14.84 -62.65 10.70 
14.82 -62.17 10.77 
14.81 -61.80 10.83 
14.82 -61.42 10.89 
14.81 -61.06 10.95 
13.09 -59.58 10.90 
13.47 -59.66 10.95 
13.01 -56.44 10.78 
12.94 -55.74 10.87 
14.82 -60.67 11.01 
14.82 -60.29 11.07 
14.86 -59.84 11.15 
14.35 -59.61 11.10 
14.69 -59.63 11.16 
12.99 -58.99 10.98 
12.95 -58.66 11.03 
13.04 -58.49 11.07 
13.04 -58.09 11.14 
13.02 -57.68 11.21 
13.01 -57.09 11.30 
13.01 -55.94 11.50 
12.91 -56.63 11.76 
12.94 -56.18 11.84 
13.03 -54.75 11.71 
14.20 -59.32 12.57 
13.06 -55.42 12.62 
13.00 -55.22 13.06 
12.99 -54.79 13.14 
-5.36 -78.15 2.69 
-5.19 -78.22 2.70 
1.26 -76.92 3.28 
1.26 -76.73 3.19 
-4.62 -65.76 3.47 
-7.35 -62.63 3.45 
-5.73 -62.68 3.54 
-8.38 -62.36 3.40 
-7.64 -62.35 3.44 
-8.21 -61.90 3.43 
-7.70 -61.96 3.46 
-6.93 -61.94 3.50 
-6.55 -61.94 3.52 
-6.38 -61.97 3.53 
-5.89 -61.97 3.56 
-7.47 -58.14 3.63 
-5.31 -58.10 3.75 
-8.08 -58.09 3.60 
-7.48 -57.45 3.66 
-5.31 -78.15 3.10 
2.71 -77.74 3.55 
-5.01 -65.78 3.77 
-5.34 -78.16 3.51 
2.89 -77.63 3.81 
-5.16 -65.74 4.30 
-5.02 -65.76 4.31 
15.76 -63.27 5.33 
16.14 -63.21 5.59 
14.83 -62.67 5.30 
14.85 -62.12 5.33 
14.84 -61.57 5.37 
14.86 -61.20 5.39 
14.85 -60.84 5.41 
14.86 -60.45 5.44 
14.55 -60.00 5.44 
13.78 -59.63 5.41 
14.13 -59.66 5.43 
14.36 -59.80 5.44 
15.08 -59.82 5.72 
13.24 -59.35 5.51 
13.57 -59.43 5.52 
13.98 -59.32 5.67 
14.32 -59.36 5.69 
14.73 -59.37 5.72 
15.08 -59.45 5.74 
12.77 -59.18 5.37 
13.32 -58.00 5.71 
13.32 -57.24 5.76 
-5.35 -78.18 3.79 
-4.86 -65.73 4.54 
-5.43 -62.37 4.57 
-8.28 -62.02 4.41 
-7.58 -62.06 4.46 
-6.02 -58.08 4.91 
-5.36 -78.19 4.06 
-5.18 -65.76 4.84 
-4.97 -65.77 4.96 
14.80 -63.40 6.10 
15.37 -63.34 6.29 
15.66 -63.37 6.18 
14.79 -63.06 6.13 
14.92 -62.58 6.45 
14.92 -62.08 6.48 
14.92 -61.73 6.51 
14.94 -61.38 6.54 
14.95 -60.66 6.59 
14.82 -60.11 6.36 
14.83 -59.72 6.39 
13.12 -59.38 6.40 
14.40 -59.38 6.38 
14.66 -59.50 6.39 
13.09 -58.92 6.43 
12.97 -56.48 6.49 
-5.20 -65.78 5.38 
-5.07 -65.81 5.39 
14.95 -60.30 6.62 
14.97 -59.93 6.65 
14.70 -59.41 6.67 
13.18 -58.56 6.60 
13.17 -58.16 6.63 
13.18 -57.78 6.66 
13.19 -57.38 6.69 
-5.23 -78.21 4.93 
16.20 -63.56 7.09 
15.03 -63.54 6.97 
15.43 -63.53 7.01 
15.67 -63.52 7.04 
14.75 -63.10 6.98 
14.75 -62.76 7.01 
14.76 -62.22 7.06 
14.75 -61.68 7.11 
14.77 -61.30 7.15 
14.77 -60.56 7.22 
14.79 -60.15 7.26 
14.80 -59.76 7.30 
12.98 -59.35 7.15 
13.66 -59.41 7.22 
13.95 -59.45 7.24 
14.30 -59.49 7.27 
14.58 -59.58 7.29 
12.97 -58.96 7.19 
12.98 -58.54 7.23 
12.97 -58.13 7.27 
12.98 -57.70 7.31 
12.96 -57.13 7.37 
12.95 -56.70 7.41 
13.00 -56.38 7.45 
12.96 -56.01 7.48 
12.97 -55.55 7.52 
12.95 -55.16 7.56 
-5.23 -65.80 5.92 
-5.09 -65.81 5.93 
15.30 -63.34 7.33 
14.84 -62.82 7.33 
14.86 -62.48 7.36 
14.85 -62.14 7.39 
14.85 -61.80 7.42 
14.84 -61.47 7.45 
14.88 -61.09 7.49 
14.88 -60.73 7.52 
14.89 -60.37 7.55 
14.89 -60.01 7.58 
13.09 -59.39 7.45 
13.45 -59.43 7.49 
13.09 -59.01 7.49 
13.11 -58.63 7.53 
13.10 -58.24 7.56 
13.13 -57.83 7.60 
13.11 -57.46 7.64 
13.12 -57.04 7.68 
13.13 -56.64 7.72 
16.17 -63.60 7.97 
15.01 -63.57 7.83 
15.39 -63.58 7.88 
15.78 -63.58 7.92 
15.92 -63.53 7.94 
14.74 -63.12 7.85 
14.75 -62.77 7.88 
14.75 -62.25 7.94 
14.75 -61.69 8.00 
14.76 -60.58 8.13 
14.75 -60.20 8.17 
14.77 -59.79 8.22 
12.94 -59.40 8.05 
13.48 -59.60 8.09 
13.89 -59.57 8.14 
14.21 -59.60 8.17 
14.55 -59.62 8.21 
12.96 -58.97 8.10 
12.95 -58.58 8.14 
12.96 -58.15 8.19 
15.17 -63.32 8.24 
15.52 -63.34 8.28 
16.37 -63.39 8.38 
14.78 -62.88 8.23 
14.79 -62.55 8.27 
14.78 -62.22 8.30 
14.78 -61.87 8.34 
14.82 -61.51 8.38 
14.81 -61.17 8.41 
14.81 -60.81 8.45 
14.82 -60.44 8.49 
13.08 -59.42 8.39 
13.47 -59.42 8.43 
13.89 -59.42 8.49 
13.01 -59.10 8.41 
13.03 -58.73 8.46 
13.02 -58.33 8.50 
13.02 -57.95 8.54 
13.01 -57.63 8.42 
13.00 -57.22 8.46 
12.98 -56.73 8.52 
12.97 -56.41 8.40 
12.93 -56.05 8.44 
12.94 -55.58 8.49 
12.90 -55.21 8.53 
15.29 -63.69 8.72 
14.87 -63.55 8.68 
15.75 -63.63 8.79 
14.75 -63.13 8.72 
14.75 -62.78 8.76 
14.75 -62.44 8.80 
14.76 -61.89 8.87 
13.06 -56.31 8.73 
13.05 -55.48 8.82 
13.05 -55.12 8.86 
15.11 -63.33 9.14 
15.55 -63.34 9.21 
14.77 -62.91 9.14 
14.78 -62.59 9.18 
14.76 -62.26 9.22 
14.77 -61.91 9.26 
14.78 -61.56 9.30 
14.81 -61.19 9.35 
14.77 -60.58 9.04 
14.76 -60.20 9.09 
14.77 -59.81 9.14 
13.04 -59.39 9.14 
14.32 -59.53 9.12 
14.52 -59.66 9.13 
12.96 -59.07 9.18 
12.95 -58.58 9.06 
12.96 -58.15 9.12 
12.96 -57.74 9.17 
12.98 -57.29 9.24 
12.97 -56.85 9.30 
12.97 -56.42 9.35 
12.93 -56.04 9.40 
13.11 -54.85 9.59 
15.20 -63.78 9.57 
14.87 -63.56 9.55 
15.72 -63.66 9.67 
15.85 -63.61 9.70 
14.76 -63.13 9.60 
14.76 -62.78 9.64 
14.77 -62.43 9.69 
14.80 -60.84 9.39 
13.01 -58.76 9.40 
12.96 -58.39 9.44 
13.00 -57.99 9.49 
12.99 -57.61 9.54 
13.01 -57.18 9.60 
16.10 -63.69 9.73 
15.15 -63.32 10.07 
14.80 -62.91 10.07 
14.77 -62.07 9.75 
14.77 -61.69 9.80 
14.78 -60.57 9.97 
14.76 -60.19 10.02 
14.78 -59.80 10.08 
13.43 -59.65 9.90 
13.85 -59.63 9.96 
14.14 -59.68 10.00 
14.50 -59.68 10.05 
12.95 -59.39 9.87 
12.93 -59.00 9.92 
12.95 -58.58 9.99 
12.95 -58.16 10.05 
12.96 -57.73 10.12 
12.94 -57.33 10.18 
12.91 -56.92 10.23 
15.66 -63.28 10.16 
14.78 -62.61 10.11 
14.79 -62.25 10.16 
14.79 -61.90 10.20 
14.80 -61.21 10.30 
13.00 -59.13 10.30 
13.22 -59.31 10.31 
13.63 -59.30 10.37 
14.03 -59.32 10.43 
13.00 -58.78 10.35 
13.01 -58.35 10.41 
13.00 -57.99 10.46 
13.02 -57.58 10.52 
13.01 -57.18 10.58 
12.96 -56.42 10.32 
12.96 -56.05 10.38 
13.05 -55.84 10.42 
12.98 -55.55 10.46 
13.03 -55.23 10.51 
13.07 -54.89 10.57 
15.04 -63.59 10.47 
15.39 -63.62 10.52 
15.85 -63.60 10.61 
16.22 -63.61 10.67 
14.91 -63.19 10.51 
14.91 -62.66 10.59 
14.90 -62.32 10.64 
14.92 -61.94 10.70 
14.92 -61.56 10.76 
14.91 -60.46 10.94 
14.92 -60.05 11.01 
13.55 -59.54 10.87 
14.46 -59.57 11.01 
13.09 -59.24 10.84 
13.10 -58.82 10.91 
13.09 -58.42 10.98 
14.92 -59.66 11.07 
13.11 -57.98 11.06 
13.10 -57.56 11.13 
13.11 -57.14 11.20 
13.11 -56.68 11.28 
13.08 -56.09 11.38 
13.10 -54.85 11.60 
13.14 -56.21 12.36 
13.12 -55.75 12.45 
13.08 -55.38 12.51 
13.06 -54.99 12.58 
-5.28 -78.11 2.61 
-6.72 -62.91 3.42 
-5.54 -62.67 3.50 
-7.57 -62.24 3.41 
-5.93 -62.23 3.50 
-5.50 -62.10 3.53 
-8.09 -61.97 3.39 
-7.70 -62.17 3.40 
-7.30 -62.02 3.43 
-7.52 -58.74 3.56 
-6.97 -58.21 3.62 
-6.59 -58.23 3.64 
-6.36 -58.23 3.65 
-5.98 -58.26 3.67 
-5.71 -58.21 3.69 
-8.39 -58.16 3.54 
-7.91 -58.19 3.56 
-5.29 -78.15 3.00 
2.74 -77.70 3.44 
2.80 -77.79 3.44 
-7.82 -62.44 3.75 
-7.68 -62.48 3.76 
-6.99 -62.56 3.80 
-6.69 -62.00 3.85 
-5.78 -62.01 3.91 
-8.24 -61.42 3.80 
5.34 -78.84 3.80 
5.28 -78.73 3.80 
2.66 -77.84 3.67 
-5.32 -78.18 3.38 
-5.13 -65.75 4.23 
15.28 -63.68 5.42 
15.86 -63.58 5.46 
14.91 -63.27 5.18 
15.64 -63.29 5.23 
15.99 -63.30 5.26 
14.82 -63.01 5.19 
14.85 -61.67 5.40 
14.83 -61.23 5.31 
14.88 -60.68 5.58 
14.96 -60.20 5.61 
14.38 -59.63 5.61 
14.76 -59.86 5.39 
14.94 -59.87 5.63 
13.60 -59.63 5.56 
13.99 -59.62 5.58 
14.78 -59.45 5.42 
12.98 -58.30 5.37 
13.04 -57.72 5.41 
12.97 -57.46 5.42 
13.02 -57.16 5.45 
13.02 -56.72 5.48 
13.06 -56.41 5.50 
12.40 -55.97 5.48 
12.68 -56.01 5.50 
13.06 -55.97 5.53 
13.30 -54.74 5.85 
-5.30 -78.20 3.77 
-5.33 -78.17 4.16 
-5.17 -65.73 4.76 
-5.09 -65.82 4.96 
15.47 -63.57 6.32 
14.83 -63.36 6.00 
15.19 -63.40 6.03 
15.54 -63.40 6.06 
14.77 -63.07 6.02 
14.78 -62.72 6.05 
14.76 -62.29 6.22 
14.77 -61.84 6.25 
14.79 -61.29 6.16 
14.80 -60.91 6.19 
14.80 -60.54 6.22 
14.83 -60.69 6.49 
14.82 -60.24 6.39 
14.73 -59.89 6.27 
14.80 -59.79 6.42 
13.03 -59.39 6.17 
13.35 -59.44 6.19 
14.74 -59.45 6.31 
13.00 -59.03 6.20 
13.00 -58.63 6.23 
13.01 -58.21 6.27 
12.93 -57.94 6.28 
13.00 -57.89 6.42 
13.01 -57.35 6.34 
12.98 -56.33 6.42 
-5.19 -65.80 5.65 
15.12 -63.45 6.86 
15.64 -63.48 6.91 
16.18 -63.50 6.96 
14.76 -63.09 6.85 
14.76 -62.75 6.89 
14.76 -62.23 6.94 
14.75 -61.70 6.99 
14.76 -61.32 7.02 
14.76 -60.95 7.06 
14.77 -60.57 7.10 
14.76 -60.19 7.13 
14.76 -59.80 7.17 
12.97 -59.46 7.03 
13.29 -59.50 7.06 
13.67 -59.48 7.10 
13.97 -59.51 7.12 
14.67 -59.53 7.19 
12.95 -59.08 7.07 
12.98 -58.65 7.11 
12.97 -58.25 7.15 
12.90 -57.98 7.17 
12.96 -57.82 7.19 
12.91 -57.54 7.22 
12.95 -57.24 7.25 
12.94 -56.82 7.29 
12.95 -56.36 7.34 
12.99 -56.05 7.38 
12.94 -55.69 7.41 
13.01 -55.09 7.48 
15.83 -63.65 7.24 
14.66 -62.29 7.24 
14.67 -61.94 7.27 
14.76 -60.76 7.39 
14.76 -60.41 7.42 
14.75 -59.88 7.47 
12.94 -58.47 7.42 
12.97 -58.05 7.46 
12.94 -57.68 7.50 
-5.13 -65.37 6.44 
14.75 -63.46 7.66 
15.07 -63.51 7.69 
15.51 -63.47 7.75 
16.00 -63.51 7.80 
14.72 -63.14 7.69 
14.72 -62.80 7.73 
14.74 -62.44 7.77 
14.73 -61.91 7.83 
14.73 -61.37 7.89 
14.74 -60.62 7.98 
14.73 -60.24 8.02 
14.75 -59.83 8.07 
12.94 -59.49 7.90 
13.29 -59.51 7.94 
13.66 -59.50 7.99 
13.95 -59.54 8.01 
14.65 -59.56 8.09 
12.92 -59.13 7.94 
12.92 -58.73 7.99 
12.93 -58.30 8.04 
12.93 -57.87 8.09 
12.92 -57.46 8.14 
12.86 -57.17 8.17 
12.90 -56.87 8.21 
15.87 -63.65 8.14 
16.31 -63.65 8.20 
14.61 -62.69 8.09 
14.64 -62.33 8.13 
14.62 -62.01 8.16 
14.63 -61.65 8.20 
14.69 -60.84 8.30 
14.70 -60.31 8.36 
14.73 -59.74 8.42 
13.61 -59.66 8.30 
13.99 -59.66 8.34 
12.85 -58.95 8.29 
12.86 -58.57 8.33 
12.85 -58.19 8.37 
12.97 -57.62 8.45 
12.94 -57.25 8.49 
12.95 -56.83 8.54 
12.90 -56.43 8.27 
12.93 -56.13 8.31 
12.91 -55.74 8.35 
12.90 -55.27 8.41 
12.95 -54.69 8.48 
15.07 -63.53 8.54 
15.48 -63.51 8.60 
15.76 -63.57 8.63 
14.74 -63.14 8.54 
14.74 -62.80 8.59 
14.75 -62.45 8.63 
14.74 -61.92 8.70 
14.74 -61.36 8.77 
14.74 -61.00 8.82 
14.75 -60.62 8.87 
14.75 -60.23 8.92 
12.94 -59.50 8.78 
13.25 -59.56 8.82 
12.91 -59.14 8.83 
12.93 -58.73 8.89 
12.92 -58.32 8.94 
14.56 -63.06 8.93 
14.56 -62.75 8.97 
14.64 -62.30 9.03 
14.62 -61.97 9.07 
14.58 -61.71 9.10 
14.67 -60.89 9.21 
14.67 -60.36 9.28 
14.71 -59.83 9.16 
14.26 -59.49 9.33 
14.64 -59.59 8.99 
12.80 -59.01 9.19 
12.79 -58.64 9.24 
12.81 -58.23 9.30 
12.91 -57.80 9.19 
12.93 -57.46 9.06 
12.89 -56.88 9.14 
12.93 -56.58 9.18 
12.94 -56.12 9.25 
12.85 -55.84 9.28 
12.94 -54.70 9.45 
14.76 -63.48 9.35 
15.05 -63.56 9.38 
15.45 -63.56 9.45 
15.76 -63.58 9.49 
16.15 -63.58 9.55 
14.75 -63.14 9.40 
14.75 -62.80 9.45 
14.76 -62.44 9.50 
14.74 -62.10 9.55 
14.76 -61.72 9.61 
14.75 -61.37 9.66 
12.92 -59.52 9.67 
12.91 -57.29 9.44 
12.89 -56.90 9.48 
16.06 -63.55 10.01 
14.66 -62.30 9.95 
14.65 -61.96 9.99 
14.67 -61.61 10.04 
14.74 -61.00 9.71 
14.76 -60.62 9.77 
14.74 -60.24 9.83 
14.75 -59.84 9.89 
13.21 -59.60 9.70 
13.63 -59.55 9.76 
13.93 -59.58 9.80 
14.61 -59.62 9.90 
12.92 -59.14 9.73 
12.91 -58.74 9.79 
12.90 -58.33 9.85 
12.90 -57.90 9.92 
12.88 -57.51 9.97 
12.88 -57.08 10.04 
12.94 -56.59 10.13 
12.94 -56.18 10.19 
13.01 -56.01 10.23 
12.95 -55.71 10.27 
13.02 -55.53 10.31 
15.13 -63.49 10.28 
15.49 -63.51 10.34 
15.73 -63.49 10.38 
16.19 -63.56 10.45 
14.90 -63.19 10.29 
14.89 -62.68 10.37 
14.89 -62.33 10.42 
14.68 -60.53 10.20 
14.68 -60.18 10.25 
13.76 -59.55 10.19 
14.69 -59.80 10.30 
13.51 -59.48 10.16 
12.88 -58.11 10.27 
12.91 -57.70 10.33 
12.89 -57.31 10.39 
12.95 -55.24 10.35 
13.03 -55.06 10.38 
14.66 -62.99 10.77 
14.90 -61.96 10.49 
14.89 -61.60 10.54 
14.88 -61.24 10.60 
14.90 -60.85 10.67 
14.89 -60.49 10.73 
14.90 -60.09 10.80 
14.69 -59.54 10.86 
14.88 -59.71 10.86 
13.05 -59.38 10.62 
13.30 -59.52 10.63 
13.07 -58.96 10.69 
13.06 -58.57 10.76 
13.07 -58.13 10.84 
13.06 -57.71 10.91 
13.06 -57.28 10.98 
12.85 -54.91 10.74 
14.66 -62.65 10.82 
12.88 -58.90 11.10 
12.87 -58.52 11.16 
13.07 -56.83 11.06 
13.03 -56.48 11.12 
13.00 -56.10 11.18 
13.08 -55.92 11.23 
14.96 -63.44 11.67 
13.01 -59.36 11.99 
13.92 -59.44 12.15 
13.09 -56.82 12.03 
13.00 -55.63 12.25 
13.08 -55.46 12.30 
13.04 -55.07 12.37 
-5.53 -62.47 3.39 
-7.51 -62.29 3.28 
-6.80 -62.28 3.32 
-7.58 -61.93 3.29 
-7.16 -61.91 3.32 
-7.00 -61.83 3.33 
-5.55 -61.83 3.41 
-7.99 -61.80 3.27 
-7.46 -58.19 3.46 
-5.37 -58.05 3.59 
-8.02 -57.98 3.43 
2.83 -77.78 3.35 
2.77 -77.69 3.35 
-5.25 -78.11 2.88 
-0.94 -77.61 3.09 
-0.88 -77.68 3.09 
14.90 -62.59 5.15 
-6.25 -62.23 3.73 
-6.04 -61.96 3.76 
-6.50 -58.13 3.98 
5.58 -78.52 3.75 
-5.26 -78.12 3.24 
16.23 -63.36 5.20 
-5.10 -65.69 4.09 
14.94 -63.04 5.36 
15.32 -63.07 5.39 
15.75 -63.06 5.42 
16.43 -63.13 5.46 
14.96 -62.65 5.39 
14.95 -62.33 5.41 
14.96 -61.98 5.43 
14.96 -61.65 5.45 
14.95 -61.31 5.47 
14.97 -60.94 5.49 
14.98 -60.59 5.52 
14.97 -60.23 5.54 
14.91 -59.99 5.55 
14.83 -59.39 5.35 
13.51 -59.13 5.50 
13.87 -59.24 5.40 
14.21 -59.16 5.55 
14.53 -59.19 5.57 
14.91 -59.22 5.60 
13.14 -58.94 5.49 
13.18 -58.20 5.42 
13.19 -57.79 5.45 
13.18 -57.27 5.36 
13.20 -56.95 5.50 
13.20 -56.53 5.53 
13.11 -56.13 5.43 
13.19 -55.93 5.45 
13.12 -55.66 5.46 
13.28 -55.38 5.49 
13.24 -55.00 5.51 
-5.28 -78.13 3.60 
15.10 -63.44 5.92 
14.89 -63.30 5.92 
-5.28 -78.12 4.22 
15.31 -63.57 5.93 
15.79 -63.46 5.98 
-5.06 -65.72 4.61 
14.94 -63.04 6.22 
15.20 -63.12 6.24 
15.60 -63.14 6.27 
14.85 -62.79 6.09 
14.86 -62.36 6.13 
14.86 -62.01 6.15 
14.88 -61.58 6.19 
14.88 -61.13 6.22 
14.85 -60.71 6.39 
14.91 -60.82 6.11 
14.88 -60.40 6.28 
14.88 -60.03 6.31 
14.83 -59.59 6.20 
13.41 -59.47 6.09 
14.50 -59.38 6.19 
13.12 -59.02 6.10 
14.39 -59.02 6.48 
13.12 -58.61 6.14 
13.10 -58.20 6.30 
13.11 -57.69 6.34 
13.07 -56.83 6.54 
13.09 -56.40 6.58 
13.08 -55.69 6.37 
-5.08 -65.74 5.13 
13.09 -55.99 6.61 
13.10 -55.54 6.65 
15.01 -63.52 6.72 
15.27 -63.61 6.74 
15.76 -63.51 6.80 
16.21 -63.57 6.84 
-5.17 -65.73 5.65 
-5.04 -65.77 5.65 
14.84 -63.34 6.72 
15.55 -63.20 7.14 
15.95 -63.21 7.18 
-5.14 -65.55 5.35 
14.86 -62.82 6.77 
14.85 -62.31 6.82 
14.85 -61.95 6.85 
14.82 -61.72 7.03 
14.88 -61.22 6.93 
14.89 -60.84 6.96 
14.87 -60.49 6.99 
14.89 -60.08 7.04 
13.98 -59.57 6.99 
14.47 -59.56 7.04 
14.88 -59.73 7.07 
12.99 -59.23 6.93 
13.16 -59.52 6.92 
13.71 -59.50 6.97 
13.06 -59.09 6.95 
13.09 -58.23 7.04 
13.09 -57.81 7.08 
13.10 -57.36 7.13 
13.11 -56.93 7.17 
13.11 -56.48 7.21 
13.13 -56.00 7.26 
13.09 -55.42 7.32 
13.14 -55.07 7.36 
13.09 -54.69 7.39 
14.79 -60.77 7.28 
14.76 -60.44 7.30 
14.77 -60.08 7.34 
13.71 -59.26 7.30 
14.23 -59.19 7.36 
12.98 -58.48 7.30 
12.99 -58.09 7.34 
12.99 -57.69 7.38 
12.99 -57.30 7.42 
13.01 -56.89 7.46 
13.01 -56.49 7.50 
13.01 -56.07 7.54 
13.01 -55.64 7.58 
13.02 -55.21 7.62 
14.89 -63.51 7.53 
15.25 -63.65 7.56 
15.68 -63.58 7.62 
16.03 -63.58 7.66 
-5.19 -65.73 6.17 
-5.07 -65.80 6.17 
14.80 -63.25 7.55 
14.81 -62.84 7.59 
14.84 -62.33 7.65 
14.80 -62.05 7.68 
14.85 -61.62 7.73 
14.79 -61.39 7.75 
14.85 -61.26 7.78 
14.85 -60.89 7.82 
14.85 -60.52 7.86 
14.84 -60.14 7.90 
13.97 -59.59 7.86 
14.35 -59.58 7.91 
14.75 -59.68 7.95 
13.15 -59.54 7.77 
13.64 -59.58 7.83 
13.01 -59.18 7.80 
13.05 -58.29 7.91 
13.06 -57.85 7.96 
13.06 -57.42 8.01 
13.06 -56.99 8.07 
13.07 -56.53 8.12 
13.06 -56.09 8.17 
15.60 -63.18 8.03 
15.98 -63.22 8.07 
16.43 -63.19 8.13 
14.70 -61.92 8.05 
14.69 -61.23 8.12 
14.72 -60.86 8.16 
14.72 -60.49 8.20 
14.71 -60.15 8.24 
13.94 -59.23 8.25 
14.50 -59.25 8.31 
12.92 -58.56 8.20 
12.92 -58.17 8.24 
12.92 -57.78 8.29 
12.92 -57.39 8.33 
12.93 -56.99 8.38 
12.93 -56.58 8.43 
12.92 -56.18 8.47 
12.93 -55.73 8.52 
13.00 -55.47 8.40 
13.04 -55.00 8.30 
14.97 -63.58 8.35 
15.26 -63.65 8.38 
15.66 -63.61 8.44 
14.79 -63.33 8.36 
14.80 -62.92 8.41 
14.83 -62.52 8.47 
14.81 -62.05 8.53 
14.85 -61.63 8.59 
14.78 -61.39 8.61 
14.85 -61.27 8.63 
14.86 -60.89 8.68 
14.85 -60.53 8.73 
14.85 -60.13 8.78 
13.20 -59.71 8.62 
14.73 -59.70 8.82 
13.05 -59.53 8.62 
14.42 -59.52 8.81 
13.04 -59.10 8.68 
13.05 -58.28 8.79 
13.05 -57.86 8.85 
13.05 -57.42 8.91 
15.64 -63.17 8.92 
14.67 -60.20 9.14 
14.30 -59.14 9.22 
12.88 -57.83 9.20 
12.85 -57.46 9.24 
12.89 -57.04 9.30 
13.07 -56.98 8.98 
12.86 -56.67 9.35 
13.06 -56.54 9.04 
13.02 -55.94 9.11 
14.93 -63.63 9.17 
15.27 -63.64 9.22 
15.63 -63.64 9.28 
16.02 -63.64 9.34 
16.31 -63.69 9.38 
14.79 -63.34 9.19 
14.82 -62.91 9.25 
14.83 -62.49 9.32 
14.80 -62.10 9.37 
14.84 -61.98 9.39 
14.78 -61.75 9.42 
14.85 -61.63 9.44 
14.83 -61.32 9.49 
14.83 -60.95 9.54 
14.83 -60.58 9.60 
14.85 -60.13 9.67 
13.15 -59.76 9.47 
13.92 -59.64 9.60 
14.30 -59.63 9.66 
14.59 -59.67 9.70 
13.05 -59.53 9.49 
13.47 -59.62 9.54 
13.03 -59.11 9.55 
13.01 -58.36 9.67 
12.88 -56.24 9.41 
12.87 -55.81 9.47 
15.63 -63.19 9.81 
16.03 -63.21 9.87 
14.63 -62.67 9.72 
14.56 -62.06 9.79 
14.64 -61.29 9.91 
14.68 -60.91 9.97 
14.68 -60.56 10.02 
14.79 -59.67 9.73 
12.88 -58.22 10.07 
13.00 -57.95 9.73 
13.04 -57.42 9.82 
13.06 -56.98 9.89 
13.03 -56.55 9.95 
13.01 -56.13 10.02 
13.11 -55.56 10.12 
13.17 -55.00 10.22 
15.19 -63.57 10.06 
15.72 -63.57 10.16 
16.05 -63.59 10.21 
16.31 -63.56 10.26 
14.95 -63.34 10.06 
14.99 -63.23 10.08 
14.96 -62.95 10.12 
14.96 -62.61 10.18 
14.96 -62.09 10.26 
14.98 -61.85 10.30 
14.97 -61.37 10.38 
14.99 -61.13 10.43 
13.12 -59.48 10.39 
13.32 -59.57 10.41 
13.18 -59.34 10.43 
13.89 -59.11 10.10 
14.28 -59.11 10.16 
12.87 -57.84 10.13 
12.88 -57.43 10.19 
12.89 -57.04 10.25 
12.88 -56.65 10.31 
15.00 -60.75 10.49 
15.01 -60.36 10.56 
14.99 -59.99 10.62 
14.66 -59.59 10.63 
15.01 -59.60 10.69 
13.81 -59.58 10.49 
14.37 -59.56 10.59 
14.77 -59.54 10.66 
13.18 -58.10 10.64 
13.19 -57.67 10.72 
13.18 -57.23 10.80 
13.20 -56.79 10.88 
13.20 -56.33 10.96 
13.18 -55.90 11.03 
13.20 -55.41 12.09 
13.22 -54.91 12.20 
5.68 -78.82 3.04 
5.91 -78.89 3.05 
6.33 -78.93 3.07 
-5.22 -78.04 2.46 
-6.69 -62.93 3.24 
-6.76 -62.69 3.25 
-5.83 -62.42 3.32 
-7.52 -62.29 3.22 
-6.84 -62.28 3.26 
-6.05 -61.85 3.33 
-5.85 -61.86 3.34 
-5.51 -61.85 3.36 
-7.69 -61.83 3.23 
-7.37 -61.92 3.24 
-7.06 -61.79 3.27 
-6.19 -61.80 3.32 
-5.26 -61.62 3.39 
-6.98 -57.98 3.44 
-8.36 -57.95 3.35 
-7.18 -57.98 3.43 
1.85 -56.19 4.05 
2.84 -77.77 3.28 
-0.91 -77.65 3.02 
-5.23 -78.09 2.80 
15.00 -63.35 5.07 
15.66 -63.37 5.12 
16.10 -63.33 5.15 
14.90 -63.17 5.08 
15.02 -63.19 5.08 
14.87 -62.87 5.09 
14.94 -62.75 5.11 
14.95 -62.39 5.13 
14.91 -61.82 5.16 
14.92 -61.45 5.19 
14.92 -61.09 5.21 
-5.37 -62.20 3.72 
-7.77 -62.22 3.56 
-8.27 -61.89 3.55 
-7.91 -62.12 3.56 
-6.87 -61.95 3.64 
-6.32 -61.58 3.70 
-5.79 -61.55 3.74 
5.58 -78.47 3.69 
5.64 -78.59 3.69 
-5.23 -78.13 3.35 
-4.98 -65.69 4.02 
14.98 -60.60 5.24 
14.98 -60.23 5.27 
13.52 -59.33 5.22 
13.95 -59.14 5.49 
14.29 -59.17 5.52 
13.19 -58.84 5.34 
13.69 -59.09 5.48 
13.19 -58.43 5.48 
13.14 -57.77 5.29 
13.14 -57.35 5.32 
13.16 -56.89 5.35 
13.22 -56.01 5.64 
13.24 -55.70 5.55 
13.25 -55.28 5.57 
-5.28 -78.12 3.57 
15.14 -63.41 5.87 
15.58 -63.46 5.90 
15.90 -63.47 5.93 
14.90 -63.12 5.87 
14.89 -62.83 5.89 
14.88 -62.40 5.92 
14.91 -61.96 5.96 
-5.25 -78.10 4.04 
-5.01 -65.71 4.52 
14.83 -61.82 6.25 
14.92 -61.53 6.00 
14.89 -61.12 6.03 
14.94 -61.01 6.04 
14.92 -60.70 6.06 
14.92 -60.33 6.09 
14.92 -59.95 6.12 
14.82 -59.55 6.15 
13.16 -59.32 6.02 
13.43 -59.44 6.03 
14.48 -59.34 6.13 
13.15 -58.92 6.05 
13.11 -58.54 6.22 
13.10 -58.26 6.10 
13.16 -58.09 6.12 
13.13 -57.74 6.15 
13.15 -57.29 6.19 
13.09 -56.97 6.21 
13.14 -56.65 6.24 
13.19 -56.33 6.27 
13.13 -55.74 6.45 
13.31 -54.78 6.41 
-5.30 -78.04 4.28 
15.07 -63.48 6.64 
15.50 -63.53 6.68 
15.82 -63.55 6.72 
16.16 -63.56 6.75 
14.83 -63.25 6.64 
14.88 -63.14 6.66 
14.87 -62.86 6.68 
14.87 -62.52 6.71 
-5.11 -65.59 5.15 
14.90 -62.12 6.76 
13.12 -55.30 6.61 
16.50 -63.57 6.79 
16.28 -63.50 6.77 
15.00 -63.17 7.00 
16.13 -63.12 7.13 
14.74 -62.90 7.00 
14.77 -62.55 7.03 
-5.06 -65.74 5.54 
14.75 -62.07 7.07 
14.87 -61.65 6.80 
14.91 -61.40 6.83 
14.85 -61.17 6.84 
14.91 -61.04 6.86 
14.89 -60.73 6.89 
14.89 -60.36 6.93 
14.89 -59.98 6.96 
13.91 -59.57 6.90 
14.38 -59.58 6.95 
14.87 -59.66 6.99 
13.11 -59.37 6.84 
13.57 -59.38 7.04 
13.13 -58.94 6.89 
13.05 -58.60 7.07 
13.08 -58.28 6.95 
13.13 -58.11 6.97 
13.10 -57.77 7.00 
13.10 -57.35 7.05 
13.07 -56.99 7.08 
13.16 -56.80 7.11 
13.15 -56.37 7.15 
13.17 -55.43 7.25 
13.17 -54.96 7.30 
15.08 -63.53 7.44 
15.45 -63.59 7.48 
15.81 -63.57 7.53 
14.85 -63.19 7.45 
14.87 -62.84 7.49 
14.87 -62.50 7.53 
-5.15 -65.66 5.95 
13.00 -58.25 7.25 
13.00 -55.43 7.53 
13.01 -54.99 7.57 
16.20 -63.56 7.58 
14.98 -63.20 7.85 
14.68 -62.96 7.83 
14.69 -62.63 7.87 
14.86 -62.17 7.57 
14.88 -61.80 7.61 
14.88 -61.44 7.65 
14.89 -61.07 7.70 
14.88 -60.72 7.74 
14.88 -60.35 7.78 
14.87 -60.01 7.82 
13.89 -59.59 7.75 
14.21 -59.60 7.79 
14.69 -59.61 7.84 
13.13 -59.53 7.67 
13.58 -59.57 7.72 
13.68 -59.51 7.73 
13.08 -59.00 7.73 
13.09 -58.59 7.78 
13.09 -58.16 7.83 
13.05 -57.83 7.86 
13.05 -57.40 7.91 
13.03 -57.04 7.96 
13.10 -56.88 7.98 
13.08 -55.59 8.14 
13.13 -55.01 8.21 
14.99 -63.55 8.23 
15.28 -63.62 8.26 
15.79 -63.60 8.33 
14.88 -63.16 8.26 
16.18 -63.10 8.01 
14.87 -62.84 8.30 
14.65 -59.65 8.19 
13.88 -59.23 8.15 
14.32 -59.19 8.20 
14.62 -59.26 8.23 
13.53 -59.22 8.10 
14.03 -59.15 8.17 
12.89 -58.75 8.08 
12.91 -55.96 8.41 
12.85 -55.68 8.43 
12.93 -55.52 8.46 
12.90 -55.12 8.50 
14.90 -63.13 8.70 
14.66 -63.00 8.68 
14.87 -62.50 8.34 
14.89 -62.15 8.39 
14.88 -61.80 8.44 
14.89 -61.25 8.51 
14.89 -60.72 8.58 
14.90 -60.33 8.64 
14.90 -59.95 8.69 
14.53 -59.60 8.68 
13.12 -59.54 8.51 
13.08 -59.00 8.57 
13.10 -58.59 8.63 
13.08 -58.17 8.69 
13.09 -57.74 8.75 
13.02 -57.46 8.78 
13.05 -57.18 8.82 
13.10 -56.87 8.87 
15.09 -63.62 9.04 
15.26 -63.65 9.06 
14.87 -63.34 9.04 
15.22 -63.19 8.74 
14.86 -62.85 9.11 
14.60 -59.69 9.09 
14.60 -59.31 9.13 
13.10 -55.97 9.00 
12.87 -55.59 9.39 
13.24 -54.84 9.18 
16.44 -63.66 9.25 
15.76 -63.64 9.14 
16.08 -63.66 9.19 
14.88 -62.49 9.17 
14.88 -62.15 9.22 
14.90 -61.78 9.28 
14.90 -61.42 9.33 
14.90 -60.88 9.41 
14.91 -60.32 9.50 
14.90 -59.94 9.56 
14.17 -59.64 9.49 
14.47 -59.66 9.53 
14.80 -59.67 9.58 
13.07 -59.41 9.36 
13.53 -59.63 9.40 
13.88 -59.62 9.45 
13.07 -58.99 9.43 
13.07 -58.61 9.49 
13.07 -58.17 9.56 
13.03 -57.62 9.64 
13.08 -57.31 9.70 
15.31 -63.55 9.91 
15.02 -63.37 9.88 
15.24 -63.18 9.61 
16.07 -63.16 9.75 
16.50 -63.16 9.82 
13.02 -57.03 9.73 
13.10 -56.85 9.77 
13.06 -56.01 9.90 
13.03 -55.64 9.96 
13.14 -54.71 10.12 
15.86 -63.54 10.01 
16.20 -63.56 10.06 
15.00 -63.05 9.93 
15.01 -62.36 10.05 
15.02 -62.01 10.11 
15.02 -61.66 10.17 
15.03 -61.29 10.23 
15.03 -60.93 10.29 
15.03 -60.56 10.35 
15.04 -60.18 10.42 
14.96 -59.68 10.49 
13.24 -59.57 10.23 
13.60 -59.53 10.29 
14.05 -59.54 10.36 
14.56 -59.57 10.44 
13.21 -58.82 10.35 
13.23 -58.40 10.43 
12.87 -55.58 10.34 
12.85 -55.18 10.40 
14.59 -60.62 10.77 
13.23 -57.96 10.51 
13.19 -57.62 10.56 
13.20 -57.18 10.64 
13.16 -56.84 10.70 
14.64 -59.23 11.00 
13.24 -54.80 11.08 
14.61 -61.13 11.60 
15.06 -59.77 11.39 
14.65 -59.61 11.87 
13.15 -55.47 11.89 
13.23 -55.29 11.94 
-5.23 -78.03 2.40 
-5.15 -78.06 2.40 
-5.74 -61.99 3.30 
-6.74 -61.82 3.24 
-6.46 -61.81 3.26 
-5.87 -61.81 3.30 
-5.53 -61.82 3.32 
-5.31 -61.79 3.33 
-7.58 -61.78 3.19 
-7.33 -61.86 3.20 
-7.07 -61.77 3.22 
-8.23 -61.75 3.15 
-7.90 -61.65 3.18 
-7.51 -58.14 3.36 
-8.44 -57.91 3.31 
-7.81 -57.35 3.38 
2.82 -77.69 3.21 
-5.22 -78.06 2.70 
-5.12 -78.07 2.71 
16.01 -63.37 5.11 
16.49 -63.39 5.15 
14.92 -63.21 5.04 
15.05 -63.35 5.04 
14.95 -62.92 5.06 
14.96 -62.49 5.09 
14.96 -62.15 5.12 
14.94 -61.51 5.16 
14.93 -61.16 5.18 
14.97 -60.90 5.20 
14.97 -60.04 5.25 
14.48 -59.41 5.26 
13.15 -59.21 5.18 
13.15 -58.81 5.20 
13.16 -58.38 5.23 
-6.90 -61.93 3.59 
-6.07 -61.79 3.65 
-8.11 -61.86 3.51 
-7.74 -61.90 3.53 
-8.42 -61.81 3.49 
-8.08 -61.56 3.53 
-6.38 -58.10 3.88 
5.61 -78.49 3.62 
-5.25 -78.07 3.11 
-5.17 -78.09 3.01 
15.43 -63.10 5.33 
15.93 -63.00 5.37 
-5.03 -65.66 3.95 
-4.90 -65.60 3.82 
14.97 -59.66 5.28 
13.93 -59.09 5.47 
14.27 -59.10 5.50 
14.63 -59.09 5.53 
13.17 -57.96 5.26 
13.16 -56.04 5.62 
13.27 -56.01 5.40 
13.28 -55.54 5.43 
13.07 -55.37 5.65 
-5.17 -78.11 3.64 
15.61 -63.45 5.85 
14.88 -63.25 5.80 
15.13 -63.44 5.81 
14.94 -62.97 5.83 
14.87 -62.60 5.85 
14.93 -61.83 5.92 
14.90 -61.55 5.94 
14.94 -61.29 5.97 
14.93 -60.95 6.00 
-5.06 -65.51 4.17 
14.97 -60.70 6.02 
13.50 -59.47 5.99 
13.17 -59.11 5.99 
-5.05 -65.67 4.44 
-4.93 -65.69 4.45 
14.95 -60.39 6.04 
14.92 -60.09 6.07 
14.99 -59.96 6.08 
14.92 -59.71 6.10 
14.62 -59.44 6.09 
14.81 -59.44 6.11 
14.50 -59.06 6.39 
13.12 -58.83 6.01 
13.17 -58.46 6.05 
13.13 -58.00 6.08 
13.16 -57.72 6.11 
13.16 -57.28 6.15 
13.18 -56.84 6.19 
13.22 -56.52 6.22 
13.22 -56.07 6.26 
13.27 -55.54 6.30 
15.55 -63.51 6.61 
15.97 -63.47 6.66 
15.03 -63.44 6.57 
14.93 -62.50 6.65 
14.89 -62.23 6.67 
14.86 -61.94 6.70 
14.92 -61.81 6.71 
14.89 -61.43 6.75 
-5.07 -65.69 4.93 
-4.95 -65.69 4.94 
14.91 -60.97 6.80 
-5.20 -65.43 5.17 
13.16 -59.51 6.76 
15.88 -63.07 7.04 
16.24 -63.11 7.08 
-5.10 -65.69 5.43 
-4.97 -65.68 5.44 
14.92 -60.54 6.84 
14.89 -60.13 6.88 
14.92 -59.67 6.93 
13.45 -59.53 6.79 
13.64 -59.49 6.82 
14.05 -59.54 6.85 
14.59 -59.54 6.91 
14.21 -59.17 7.23 
14.57 -59.17 7.27 
13.15 -58.92 6.82 
13.10 -58.45 6.87 
13.13 -58.17 6.90 
13.03 -57.63 6.95 
13.13 -57.75 6.94 
13.14 -56.87 7.04 
13.14 -56.43 7.08 
13.18 -56.11 7.12 
13.19 -55.64 7.17 
13.19 -55.17 7.22 
15.53 -63.55 7.39 
15.86 -63.55 7.43 
16.34 -63.56 7.49 
14.99 -63.45 7.34 
14.87 -63.02 7.37 
14.87 -62.59 7.42 
14.87 -62.25 7.46 
14.84 -61.97 7.49 
14.90 -61.84 7.51 
14.86 -61.46 7.55 
14.90 -61.13 7.60 
15.89 -63.08 7.89 
16.30 -63.09 7.94 
14.85 -60.90 7.62 
14.88 -60.65 7.65 
14.92 -60.40 7.68 
14.87 -60.15 7.71 
14.89 -59.71 7.76 
13.44 -59.53 7.61 
13.62 -59.51 7.64 
14.04 -59.54 7.68 
14.50 -59.57 7.73 
14.75 -59.52 7.77 
13.13 -59.34 7.60 
13.11 -58.77 7.67 
13.11 -58.36 7.72 
13.05 -58.10 7.74 
13.08 -57.80 7.78 
13.09 -57.36 7.84 
13.09 -56.94 7.89 
13.14 -56.60 7.94 
13.13 -56.17 7.99 
13.14 -55.71 8.05 
13.15 -55.21 8.11 
13.14 -54.74 8.17 
15.48 -63.60 8.16 
15.84 -63.57 8.22 
14.98 -63.47 8.11 
14.87 -63.08 8.15 
14.88 -62.69 8.20 
14.85 -62.31 8.25 
14.90 -62.20 8.27 
14.87 -61.91 8.30 
14.87 -61.45 8.37 
14.26 -59.14 8.13 
14.60 -59.15 8.17 
12.78 -58.53 8.02 
12.77 -58.14 8.06 
12.86 -55.57 8.38 
14.87 -61.02 8.42 
14.88 -60.64 8.48 
14.90 -60.19 8.54 
14.92 -59.63 8.62 
13.42 -59.55 8.43 
14.54 -59.53 8.58 
14.72 -59.54 8.61 
13.13 -59.54 8.39 
13.11 -59.17 8.44 
13.11 -58.76 8.50 
13.11 -58.36 8.56 
13.08 -57.79 8.63 
13.08 -57.37 8.69 
13.09 -56.93 8.76 
13.12 -56.62 8.81 
13.13 -56.16 8.88 
13.06 -55.87 8.91 
15.40 -63.69 8.93 
15.84 -63.58 9.01 
16.19 -63.59 9.07 
16.48 -63.61 9.11 
14.94 -63.52 8.88 
15.18 -63.57 8.91 
14.84 -63.15 8.92 
14.88 -62.75 8.98 
14.91 -62.53 9.02 
14.88 -62.25 9.06 
14.89 -61.89 9.12 
14.88 -61.55 9.17 
14.60 -59.16 9.06 
12.72 -58.58 8.87 
12.73 -58.19 8.93 
13.15 -54.71 9.09 
14.88 -61.08 9.24 
14.88 -60.64 9.31 
14.90 -60.27 9.37 
14.89 -59.70 9.45 
13.71 -59.55 9.30 
13.90 -59.55 9.33 
14.32 -59.59 9.39 
14.66 -59.58 9.44 
13.11 -59.54 9.22 
13.40 -59.57 9.25 
13.10 -59.16 9.27 
13.09 -58.77 9.34 
13.09 -58.36 9.40 
13.06 -57.80 9.49 
13.06 -57.38 9.55 
13.03 -57.00 9.61 
13.09 -56.65 9.68 
13.12 -56.23 9.75 
16.26 -63.51 9.91 
16.47 -63.49 9.95 
15.04 -63.40 9.71 
15.18 -63.45 9.73 
15.60 -63.49 9.80 
15.93 -63.50 9.85 
16.37 -63.05 9.69 
14.99 -63.17 9.74 
15.04 -63.06 9.77 
15.98 -63.04 9.62 
15.00 -62.69 9.82 
15.02 -62.29 9.90 
15.02 -61.93 9.96 
14.61 -59.15 9.96 
13.09 -58.92 9.76 
13.43 -58.95 9.81 
13.80 -58.94 9.87 
13.22 -56.01 9.80 
13.21 -55.56 9.87 
13.22 -55.06 9.96 
15.04 -61.70 10.00 
15.02 -61.40 10.05 
15.02 -61.04 10.11 
15.01 -60.68 10.17 
15.03 -60.30 10.24 
15.00 -60.00 10.29 
14.07 -59.49 10.22 
14.37 -59.53 10.26 
14.70 -59.50 10.32 
15.01 -59.56 10.36 
13.22 -59.40 10.10 
13.47 -59.47 10.13 
13.80 -59.47 10.18 
13.23 -58.98 10.17 
13.25 -58.56 10.25 
13.23 -58.16 10.32 
13.17 -57.90 10.36 
13.25 -57.72 10.40 
13.21 -57.38 10.46 
13.18 -57.02 10.52 
12.71 -54.94 10.32 
13.25 -56.85 10.56 
13.22 -56.49 10.63 
13.19 -56.12 10.69 
13.20 -55.84 10.74 
14.74 -59.45 11.21 
12.69 -55.41 11.20 
12.78 -58.85 11.51 
12.77 -58.47 11.58 
13.25 -55.49 11.74 
13.25 -54.99 11.84 
-6.06 -61.75 3.19 
-5.72 -61.77 3.21 
-5.39 -61.74 3.23 
-7.35 -61.85 3.10 
-6.99 -61.80 3.12 
-8.48 -61.70 3.03 
-7.70 -61.60 3.09 
-7.15 -57.91 3.29 
-6.38 -57.92 3.34 
-7.84 -57.34 3.27 
5.55 -78.77 3.24 
16.01 -63.34 5.02 
16.47 -63.36 5.05 
15.36 -63.38 4.97 
15.68 -63.34 4.99 
14.99 -62.46 5.00 
15.00 -62.11 5.02 
15.01 -61.76 5.05 
15.00 -61.43 5.07 
15.02 -60.88 5.10 
-4.95 -65.58 3.35 
14.00 -59.36 5.13 
14.90 -59.38 5.19 
13.25 -59.32 5.08 
13.70 -59.36 5.11 
13.16 -58.97 5.09 
13.22 -58.81 5.11 
-6.90 -62.47 3.43 
-5.45 -62.16 3.55 
-6.44 -61.75 3.52 
-8.24 -61.82 3.39 
-7.90 -61.84 3.41 
-5.77 -58.54 3.78 
5.62 -78.50 3.51 
5.54 -78.15 3.52 
16.32 -62.95 5.31 
14.87 -62.93 5.20 
15.21 -62.95 5.23 
14.78 -62.10 5.25 
14.82 -61.75 5.27 
14.81 -61.43 5.29 
14.89 -60.97 5.33 
14.88 -60.47 5.36 
14.88 -59.95 5.39 
-4.97 -65.64 3.83 
14.89 -59.60 5.42 
-5.04 -65.46 3.57 
14.88 -59.26 5.44 
13.82 -58.97 5.38 
14.40 -59.02 5.42 
14.73 -59.03 5.44 
13.03 -57.98 5.38 
13.10 -57.45 5.42 
13.10 -56.85 5.46 
13.12 -56.24 5.51 
13.13 -55.81 5.53 
13.11 -55.39 5.56 
15.61 -63.42 5.73 
15.92 -63.43 5.76 
15.30 -63.47 5.70 
14.96 -62.82 5.72 
14.96 -62.49 5.75 
14.97 -62.14 5.78 
14.97 -61.81 5.81 
14.98 -60.75 5.90 
15.00 -60.37 5.93 
14.99 -60.01 5.96 
-5.00 -65.66 4.30 
15.00 -59.63 5.99 
-5.08 -65.47 4.05 
13.61 -59.47 5.88 
14.70 -59.43 5.98 
13.20 -59.45 5.85 
13.20 -58.83 5.90 
13.16 -58.52 5.92 
13.20 -58.02 5.97 
-5.17 -78.02 3.85 
14.68 -62.53 6.01 
14.69 -62.19 6.04 
14.69 -61.88 6.07 
14.77 -61.44 6.11 
14.75 -60.94 6.15 
14.75 -60.43 6.19 
14.75 -60.09 6.22 
14.78 -59.72 6.25 
-5.10 -65.48 4.53 
14.47 -58.99 6.28 
12.97 -57.60 6.26 
13.20 -57.60 6.00 
12.97 -57.21 6.29 
13.21 -57.18 6.04 
13.10 -56.76 6.20 
12.97 -56.42 6.36 
13.22 -56.26 6.12 
12.99 -55.98 6.40 
13.24 -55.81 6.16 
13.11 -55.48 6.31 
12.90 -55.29 6.45 
13.35 -54.70 6.26 
15.65 -63.44 6.49 
16.15 -63.52 6.53 
14.93 -63.47 6.41 
15.24 -63.48 6.44 
14.93 -63.01 6.45 
14.94 -61.49 6.60 
14.95 -61.13 6.64 
14.97 -60.75 6.68 
14.96 -60.41 6.72 
14.97 -60.03 6.75 
-5.02 -65.67 4.78 
14.86 -59.61 6.79 
-5.17 -65.45 5.02 
13.57 -59.50 6.66 
13.87 -59.51 6.69 
14.29 -59.54 6.73 
14.54 -59.49 6.77 
13.36 -59.46 6.65 
13.09 -59.03 6.66 
13.16 -58.87 6.69 
13.14 -58.53 6.72 
13.12 -58.19 6.75 
14.93 -62.95 6.81 
15.29 -62.95 6.85 
15.63 -62.98 6.88 
14.62 -62.75 6.79 
14.63 -62.26 6.84 
14.68 -61.84 6.89 
14.66 -61.54 6.91 
14.67 -61.02 6.97 
14.67 -60.51 7.02 
14.69 -60.14 7.05 
14.69 -59.81 7.09 
-5.05 -65.67 5.27 
14.10 -59.03 7.10 
14.42 -59.06 7.13 
13.19 -58.02 6.78 
12.90 -57.68 7.11 
13.16 -57.64 6.82 
13.19 -57.20 6.86 
13.04 -56.82 7.05 
12.90 -56.49 7.23 
13.19 -56.28 6.96 
13.20 -55.84 7.01 
13.19 -55.38 7.06 
13.22 -54.87 7.11 
15.56 -63.51 7.23 
15.98 -63.54 7.28 
16.51 -63.53 7.35 
14.91 -62.55 7.26 
14.92 -62.20 7.30 
14.92 -61.86 7.34 
14.92 -61.52 7.38 
14.93 -61.16 7.43 
14.92 -60.81 7.47 
14.93 -60.44 7.51 
14.93 -60.08 7.56 
-5.13 -65.67 5.75 
13.55 -59.52 7.46 
13.85 -59.53 7.49 
14.29 -59.55 7.54 
14.52 -59.51 7.58 
13.14 -59.44 7.42 
13.34 -59.48 7.44 
13.13 -58.91 7.49 
13.10 -58.58 7.52 
12.89 -56.09 7.27 
12.89 -55.65 7.31 
12.90 -55.22 7.36 
12.89 -54.80 7.40 
14.94 -62.96 7.62 
15.30 -62.95 7.67 
15.68 -62.95 7.72 
14.57 -62.80 7.59 
14.63 -62.24 7.67 
14.61 -61.92 7.70 
14.60 -61.60 7.73 
14.60 -61.10 7.79 
14.61 -60.58 7.85 
14.61 -60.24 7.89 
14.61 -59.90 7.93 
14.94 -59.69 7.61 
14.74 -59.56 7.60 
14.12 -59.01 7.97 
14.36 -59.07 7.99 
13.09 -58.18 7.57 
13.07 -57.83 7.61 
13.14 -57.66 7.64 
13.14 -57.26 7.69 
13.11 -56.89 7.73 
13.15 -56.34 7.81 
13.16 -55.89 7.86 
13.16 -55.42 7.92 
13.16 -54.95 7.98 
15.51 -63.56 7.98 
15.81 -63.56 8.02 
15.06 -63.52 7.92 
14.92 -63.19 7.94 
14.92 -62.70 8.01 
14.92 -62.21 8.08 
14.92 -61.86 8.12 
14.94 -61.50 8.17 
14.92 -61.17 8.22 
14.93 -60.80 8.27 
14.94 -60.43 8.32 
14.94 -60.07 8.37 
13.05 -59.46 8.20 
13.29 -59.47 8.23 
14.53 -59.10 8.01 
13.09 -58.99 8.28 
13.06 -58.65 8.32 
12.81 -57.00 8.05 
12.80 -56.61 8.10 
12.80 -56.20 8.15 
12.78 -55.84 8.19 
12.78 -55.36 8.25 
14.95 -62.96 8.44 
15.32 -62.95 8.50 
14.51 -62.71 8.41 
14.63 -62.92 8.40 
14.56 -62.31 8.47 
14.56 -61.98 8.51 
14.57 -61.65 8.56 
14.56 -61.15 8.62 
14.57 -60.63 8.69 
14.57 -60.29 8.73 
14.95 -59.68 8.43 
14.58 -59.52 8.40 
13.12 -58.51 8.35 
13.07 -58.23 8.38 
13.13 -58.09 8.41 
13.09 -57.75 8.45 
13.10 -57.32 8.52 
13.08 -56.96 8.56 
13.15 -56.78 8.60 
13.13 -56.35 8.66 
13.15 -55.88 8.73 
13.27 -54.76 8.91 
15.36 -63.69 8.70 
15.80 -63.57 8.79 
16.32 -63.42 8.89 
15.06 -63.52 8.68 
15.59 -63.52 8.76 
14.91 -63.19 8.71 
14.93 -62.85 8.76 
14.93 -62.53 8.81 
14.93 -62.19 8.86 
14.93 -61.86 8.91 
14.92 -61.52 8.96 
14.92 -61.16 9.02 
14.93 -60.61 9.10 
14.56 -59.96 8.77 
13.80 -59.57 9.10 
14.09 -59.59 9.14 
13.04 -59.46 9.00 
13.27 -59.50 9.03 
14.16 -58.97 8.85 
14.38 -59.05 8.87 
13.10 -58.92 9.10 
13.05 -58.65 9.14 
12.75 -57.06 8.92 
12.75 -56.67 8.97 
12.76 -56.25 9.03 
12.76 -55.82 9.09 
12.73 -55.42 9.14 
15.24 -62.98 9.31 
14.50 -62.68 9.23 
14.52 -62.35 9.28 
14.51 -62.03 9.33 
14.51 -61.71 9.37 
14.50 -61.21 9.45 
14.95 -60.05 9.19 
14.95 -59.68 9.25 
14.52 -59.59 9.20 
13.12 -58.49 9.17 
13.06 -58.23 9.21 
13.11 -58.09 9.24 
13.08 -57.75 9.29 
13.09 -57.32 9.36 
13.06 -56.97 9.41 
13.13 -56.79 9.45 
13.13 -56.33 9.53 
13.13 -55.89 9.60 
13.14 -55.40 9.68 
13.11 -54.98 9.75 
15.89 -63.49 9.60 
16.21 -63.50 9.66 
15.05 -63.37 9.48 
15.38 -63.52 9.51 
15.68 -63.44 9.57 
15.06 -63.04 9.53 
15.06 -62.72 9.59 
15.06 -62.39 9.64 
15.07 -62.04 9.70 
15.07 -61.71 9.76 
15.07 -61.35 9.82 
15.07 -61.00 9.88 
14.50 -60.70 9.52 
15.07 -60.64 9.95 
14.51 -60.35 9.58 
14.49 -60.03 9.62 
13.32 -59.45 9.87 
13.58 -59.47 9.91 
14.04 -59.06 9.69 
14.38 -59.06 9.75 
13.22 -59.19 9.90 
12.69 -57.92 9.66 
12.75 -57.45 9.74 
12.75 -57.05 9.81 
12.76 -56.65 9.87 
12.75 -56.25 9.93 
12.75 -55.82 10.00 
15.75 -62.87 10.27 
14.68 -62.85 10.07 
14.94 -62.93 10.11 
15.08 -60.25 10.02 
15.07 -59.91 10.07 
14.18 -59.47 10.00 
14.51 -59.48 10.06 
14.93 -59.51 10.12 
13.87 -59.48 9.95 
13.19 -58.86 9.95 
13.26 -58.70 9.99 
13.21 -58.27 10.06 
13.27 -57.87 10.15 
13.20 -57.60 10.18 
13.26 -57.45 10.22 
13.27 -57.03 10.30 
13.27 -56.57 10.38 
13.27 -56.11 10.47 
13.27 -54.72 10.73 
12.70 -55.87 10.91 
13.24 -55.70 11.44 
-5.32 -61.71 3.15 
-6.28 -61.71 3.09 
-6.14 -61.72 3.09 
-5.60 -61.44 3.14 
-7.60 -61.72 3.00 
-7.27 -61.71 3.02 
-6.27 -61.50 3.10 
-5.69 -60.99 3.16 
-8.31 -61.66 2.95 
-7.82 -61.68 2.98 
-5.64 -58.62 3.27 
-7.51 -58.49 3.15 
-6.14 -57.88 3.27 
-6.07 -57.66 3.29 
5.60 -78.75 3.13 
15.41 -63.43 4.90 
15.78 -63.36 4.93 
16.21 -63.35 4.96 
15.02 -63.25 4.88 
15.21 -63.34 4.89 
14.98 -63.02 4.89 
15.04 -62.89 4.90 
15.02 -62.63 4.92 
15.04 -62.13 4.95 
15.07 -61.57 4.99 
15.06 -61.24 5.02 
15.06 -60.72 5.05 
15.08 -60.18 5.09 
15.08 -59.81 5.11 
14.96 -59.41 5.13 
14.19 -59.36 5.07 
14.54 -59.39 5.10 
13.28 -59.31 5.01 
13.70 -59.36 5.04 
13.21 -58.94 5.03 
13.28 -58.79 5.04 
13.25 -58.47 5.06 
-4.95 -65.57 3.25 
13.29 -57.96 5.10 
13.30 -57.54 5.13 
13.31 -57.12 5.16 
13.26 -55.95 5.23 
-5.92 -61.87 3.44 
-5.62 -61.51 3.48 
-7.08 -61.86 3.36 
-7.75 -61.56 3.34 
15.78 -62.89 5.21 
16.11 -62.91 5.23 
14.78 -60.82 5.26 
14.79 -60.32 5.30 
14.78 -60.00 5.32 
14.84 -59.53 5.35 
14.83 -59.19 5.38 
-5.00 -65.48 3.55 
12.99 -57.63 5.34 
13.02 -57.22 5.37 
13.01 -56.82 5.39 
13.09 -56.27 5.44 
13.08 -55.86 5.46 
13.08 -55.45 5.49 
13.01 -55.20 5.50 
15.41 -63.44 5.61 
15.86 -63.44 5.65 
15.04 -63.33 5.58 
14.95 -63.04 5.60 
15.01 -62.93 5.61 
15.01 -62.61 5.64 
15.04 -61.60 5.73 
15.03 -61.27 5.76 
15.04 -60.74 5.80 
13.62 -59.45 5.78 
13.22 -59.27 5.76 
13.18 -58.96 5.78 
13.25 -58.82 5.80 
13.23 -58.48 5.83 
-5.01 -65.61 4.16 
13.19 -58.16 5.86 
-5.11 -65.42 3.93 
13.26 -57.58 5.91 
13.28 -57.15 5.95 
13.27 -56.73 5.99 
14.66 -60.94 6.05 
14.74 -60.33 6.11 
14.72 -59.99 6.13 
14.73 -59.65 6.16 
-5.13 -65.45 4.40 
12.87 -57.39 6.18 
12.94 -56.84 6.23 
12.94 -56.46 6.27 
13.29 -56.26 6.03 
12.92 -56.06 6.30 
13.29 -55.80 6.07 
12.95 -55.61 6.34 
13.32 -55.36 6.11 
12.93 -55.22 6.37 
15.37 -63.48 6.32 
15.80 -63.50 6.36 
16.15 -63.48 6.40 
15.03 -63.37 6.29 
15.18 -63.42 6.30 
14.98 -62.96 6.33 
15.00 -62.62 6.36 
15.02 -60.23 6.61 
15.04 -59.86 6.65 
14.71 -59.53 6.65 
14.98 -59.55 6.68 
13.86 -59.50 6.56 
14.15 -59.51 6.59 
14.46 -59.50 6.63 
13.29 -59.40 6.51 
-5.03 -65.61 4.63 
13.16 -58.20 6.63 
-5.20 -65.39 4.88 
13.03 -57.55 6.68 
13.20 -57.68 6.69 
13.06 -57.45 6.70 
13.26 -56.73 6.79 
16.32 -62.91 6.85 
14.61 -61.51 6.79 
14.60 -61.02 6.84 
14.66 -60.41 6.91 
14.66 -60.06 6.94 
14.66 -59.72 6.98 
-5.05 -65.61 5.09 
-5.29 -65.45 5.34 
-5.18 -65.47 5.35 
12.81 -57.05 7.05 
12.86 -56.54 7.11 
13.25 -56.29 6.84 
12.88 -56.11 7.15 
13.24 -55.85 6.89 
12.85 -55.73 7.19 
13.27 -55.36 6.94 
12.86 -55.29 7.24 
13.26 -54.89 6.99 
16.22 -63.53 7.15 
16.33 -63.48 7.16 
14.96 -63.30 7.01 
14.98 -61.66 7.21 
14.99 -61.31 7.25 
14.98 -60.98 7.29 
15.00 -60.61 7.34 
15.00 -60.26 7.38 
15.00 -59.90 7.42 
14.83 -59.55 7.45 
13.57 -59.50 7.30 
13.99 -59.52 7.35 
14.45 -59.51 7.41 
13.12 -59.02 7.31 
13.18 -58.88 7.34 
13.15 -58.56 7.37 
-5.01 -65.62 5.57 
13.13 -58.23 7.41 
13.19 -58.06 7.44 
13.16 -57.74 7.48 
13.17 -57.31 7.53 
13.15 -56.96 7.57 
12.86 -54.85 7.28 
15.06 -63.42 7.73 
16.41 -63.01 7.67 
14.53 -61.91 7.54 
14.53 -61.59 7.58 
14.53 -61.26 7.62 
14.57 -60.83 7.67 
14.58 -60.49 7.72 
14.58 -60.15 7.76 
14.57 -59.82 7.79 
14.57 -59.12 7.88 
14.29 -59.06 7.85 
12.78 -57.03 7.91 
13.21 -56.79 7.60 
12.77 -56.66 7.95 
13.21 -56.34 7.66 
13.22 -55.86 7.72 
13.22 -55.42 7.78 
13.23 -54.92 7.84 
15.34 -63.57 7.75 
15.63 -63.53 7.80 
15.92 -63.55 7.84 
15.35 -63.51 7.76 
14.97 -62.98 7.78 
14.99 -62.64 7.83 
14.98 -62.16 7.89 
14.99 -61.65 7.97 
14.98 -61.32 8.01 
14.99 -60.97 8.06 
15.00 -60.62 8.11 
15.00 -60.26 8.16 
15.01 -59.89 8.21 
14.82 -59.56 8.23 
13.55 -59.51 8.07 
14.54 -59.41 8.22 
13.24 -59.45 8.04 
13.14 -58.95 8.10 
13.16 -58.54 8.16 
13.12 -58.22 8.20 
13.18 -58.07 8.23 
13.15 -57.72 8.28 
13.12 -57.37 8.32 
13.20 -57.21 8.36 
12.76 -56.26 8.00 
12.78 -55.82 8.06 
12.77 -55.40 8.10 
12.77 -54.97 8.16 
15.36 -63.56 8.49 
15.60 -63.56 8.53 
15.93 -63.53 8.59 
15.13 -63.44 8.47 
14.99 -62.95 8.52 
14.99 -62.63 8.57 
14.47 -61.97 8.33 
14.48 -61.65 8.37 
14.46 -61.33 8.41 
14.54 -60.87 8.48 
14.52 -60.57 8.52 
14.53 -60.21 8.57 
14.55 -59.84 8.62 
14.11 -58.95 8.68 
14.43 -58.96 8.72 
13.17 -56.86 8.40 
13.21 -56.33 8.49 
13.20 -55.87 8.55 
16.39 -63.43 8.67 
14.99 -62.15 8.65 
14.98 -61.66 8.72 
14.98 -61.31 8.78 
14.98 -60.97 8.83 
15.00 -60.43 8.92 
15.00 -59.88 9.01 
14.81 -59.57 9.03 
13.95 -59.55 8.90 
14.42 -59.54 8.97 
13.17 -59.52 8.79 
13.32 -59.44 8.82 
13.18 -58.86 8.90 
13.15 -58.54 8.95 
13.15 -58.13 9.01 
13.15 -57.71 9.09 
13.11 -57.37 9.14 
13.19 -57.20 9.18 
12.73 -56.70 8.80 
12.73 -56.28 8.86 
12.70 -55.91 8.91 
12.71 -55.47 8.98 
15.86 -63.46 9.34 
16.31 -63.46 9.42 
15.13 -63.43 9.22 
15.36 -63.44 9.25 
15.12 -62.98 9.29 
15.12 -62.50 9.37 
14.47 -61.10 9.26 
14.47 -60.62 9.34 
14.47 -60.26 9.39 
14.47 -59.93 9.44 
12.65 -57.97 9.46 
13.16 -56.85 9.23 
13.12 -56.51 9.28 
13.19 -56.33 9.32 
13.18 -55.86 9.40 
13.16 -55.46 9.46 
13.28 -54.79 9.59 
16.41 -63.42 9.45 
15.13 -62.17 9.43 
15.12 -61.83 9.49 
15.13 -61.49 9.55 
15.13 -61.14 9.61 
15.12 -60.81 9.67 
15.15 -60.43 9.74 
15.14 -60.08 9.80 
15.09 -59.58 9.88 
13.90 -59.42 9.71 
14.17 -59.45 9.75 
14.59 -59.43 9.82 
13.35 -59.42 9.62 
13.61 -59.41 9.67 
13.28 -59.12 9.67 
13.28 -58.53 9.77 
13.30 -58.11 9.86 
13.29 -57.71 9.93 
12.64 -57.57 9.52 
12.61 -57.22 9.58 
12.61 -56.83 9.64 
12.58 -56.46 9.69 
12.67 -55.94 9.79 
12.71 -55.45 9.87 
12.70 -55.03 9.94 
15.31 -62.80 9.97 
14.75 -62.84 9.86 
14.50 -62.59 9.86 
14.54 -61.87 9.98 
14.54 -61.55 10.04 
13.31 -57.41 9.99 
13.33 -56.98 10.07 
13.34 -56.54 10.15 
13.35 -56.07 10.24 
13.30 -55.67 10.31 
12.62 -56.05 10.66 
14.55 -62.19 10.75 
-5.70 -61.86 3.06 
-5.52 -61.70 3.08 
-5.93 -61.68 3.06 
-7.10 -61.69 2.97 
-6.79 -61.69 3.00 
-6.45 -61.60 3.02 
-7.64 -61.62 2.94 
-7.62 -58.28 3.10 
-7.24 -57.79 3.15 
-7.93 -57.33 3.12 
5.65 -78.69 3.06 
15.81 -63.37 4.90 
16.22 -63.37 4.93 
15.36 -63.37 4.86 
15.09 -63.09 4.86 
15.10 -62.63 4.89 
15.11 -62.16 4.92 
15.10 -61.69 4.95 
15.12 -61.35 4.98 
15.12 -61.01 5.00 
15.12 -59.86 5.08 
15.01 -59.45 5.10 
14.05 -59.37 5.03 
14.47 -59.40 5.06 
13.54 -59.38 4.99 
13.32 -59.12 4.99 
