# .PCD v0.7 - Point Cloud Data file format
VERSION 0.7
FIELDS x y z
SIZE 4 4 4
TYPE F F F
COUNT 1 1 1
WIDTH 2433
HEIGHT 1
VIEWPOINT 0 0 0 1 0 0 0
POINTS 2433
DATA ascii
8.68 -563.12 8.99 
1.74 -563.42 9.04 
8.92 -563.52 9.06 
0.98 -564.06 9.15 
2.77 -564.41 9.20 
9.10 -564.17 9.17 
5.21 -564.56 9.22 
3.08 -564.43 9.21 
9.11 -564.55 9.24 
-8.03 -564.18 9.31 
-7.30 -564.53 9.35 
-7.69 -564.59 9.37 
1.77 -564.65 9.25 
-7.29 -565.29 9.48 
2.29 -565.04 9.31 
7.12 -565.70 9.42 
5.51 -559.78 9.32 
5.20 -559.88 9.34 
4.80 -560.47 9.46 
6.59 -561.36 9.63 
3.67 -561.51 9.67 
3.41 -561.57 9.69 
3.00 -561.89 9.75 
7.63 -562.03 9.76 
5.00 -562.02 9.76 
2.95 -562.21 9.81 
9.57 -562.35 9.83 
9.02 -562.19 9.79 
4.11 -562.33 9.83 
3.78 -562.39 9.84 
8.67 -562.84 9.92 
9.17 -563.08 9.97 
2.05 -562.28 9.84 
2.54 -562.52 9.88 
2.31 -562.43 9.87 
1.54 -563.00 9.98 
1.09 -563.48 10.08 
6.20 -563.49 10.04 
1.95 -563.97 10.33 
9.96 -564.15 10.18 
9.71 -564.13 10.18 
1.42 -564.41 10.26 
5.23 -564.75 10.29 
4.80 -564.76 10.30 
3.33 -565.64 10.48 
6.40 -566.35 10.60 
8.86 -566.80 10.70 
5.17 -560.93 10.50 
4.07 -560.85 10.50 
4.65 -561.00 10.52 
5.95 -561.38 10.60 
-8.24 -564.77 10.55 
-8.04 -565.13 10.61 
-7.81 -565.31 10.63 
5.03 -568.78 11.09 
5.59 -569.41 11.21 
5.93 -561.70 10.66 
3.90 -561.80 10.71 
8.41 -561.87 10.69 
5.61 -561.96 10.72 
8.61 -562.68 10.87 
3.89 -562.91 10.95 
5.81 -563.30 11.13 
2.32 -563.77 11.16 
2.68 -564.15 11.24 
2.36 -564.38 11.29 
4.81 -564.53 11.30 
1.90 -564.97 11.43 
6.48 -565.21 11.43 
5.95 -566.91 11.81 
5.26 -561.99 11.73 
3.64 -562.68 11.93 
6.42 -563.66 12.13 
4.52 -563.92 12.21 
2.72 -563.99 12.26 
3.95 -563.77 13.24 
5.24 -564.82 13.50 
4.00 -564.91 13.54 
16.00 -564.42 6.29 
15.77 -564.45 6.29 
13.32 -569.79 6.79 
12.99 -569.84 6.79 
12.66 -569.91 6.80 
11.51 -570.16 6.81 
11.43 -570.26 7.01 
11.04 -570.31 6.91 
10.72 -570.38 6.92 
10.32 -570.42 6.82 
9.11 -570.50 7.01 
4.96 -560.08 6.80 
7.65 -561.31 6.96 
7.08 -561.45 6.98 
8.23 -561.75 7.02 
7.74 -562.20 7.07 
8.86 -562.48 6.94 
7.73 -563.02 7.00 
10.05 -563.21 7.22 
8.21 -563.41 7.05 
7.98 -563.27 7.03 
9.04 -563.88 7.12 
3.09 -564.11 7.10 
9.35 -564.20 7.16 
8.78 -564.06 7.14 
3.96 -564.34 7.13 
3.71 -564.26 7.12 
1.47 -564.70 7.16 
16.37 -564.26 7.27 
9.60 -564.30 7.18 
9.03 -564.68 7.22 
6.02 -564.86 7.21 
1.07 -564.86 7.18 
15.94 -564.35 7.27 
10.21 -564.82 7.25 
7.95 -566.79 7.47 
13.68 -567.26 7.60 
3.10 -562.39 7.08 
0.04 -563.90 7.26 
3.47 -564.11 7.29 
2.78 -564.19 7.30 
3.70 -564.20 7.30 
4.80 -564.81 7.38 
-7.62 -565.44 7.46 
-8.05 -565.52 7.47 
4.14 -564.98 7.40 
4.94 -565.43 7.46 
7.67 -566.90 7.66 
0.12 -568.20 7.78 
13.94 -569.31 7.86 
14.28 -569.87 7.93 
13.29 -569.70 7.90 
12.97 -570.01 7.93 
12.63 -570.05 7.93 
11.31 -570.15 7.93 
12.31 -570.09 7.93 
11.96 -570.21 7.94 
11.63 -570.25 7.94 
10.97 -570.21 7.93 
10.64 -570.28 7.94 
10.29 -570.32 7.94 
14.62 -570.85 8.06 
9.54 -572.15 8.15 
10.18 -572.20 8.17 
5.86 -559.89 7.49 
3.03 -560.55 7.59 
3.56 -560.62 7.60 
9.27 -560.98 7.68 
3.15 -561.02 7.65 
3.54 -561.83 7.77 
4.03 -562.28 7.84 
4.49 -560.44 7.74 
5.14 -561.07 7.83 
4.65 -560.99 7.82 
3.38 -562.13 8.00 
2.97 -562.63 8.07 
1.15 -563.14 7.97 
4.26 -563.43 8.01 
2.22 -563.78 8.06 
1.97 -563.74 8.05 
11.34 -563.58 8.09 
11.10 -563.59 8.08 
9.04 -563.52 8.05 
5.24 -563.88 8.08 
9.34 -563.99 8.12 
5.42 -564.34 8.15 
3.95 -564.13 8.11 
1.13 -564.57 8.18 
16.34 -564.03 8.23 
15.88 -564.14 8.24 
15.47 -564.25 8.25 
8.37 -564.48 8.34 
6.03 -564.57 8.19 
5.56 -564.73 8.21 
4.54 -564.51 8.17 
2.02 -564.60 8.36 
-6.70 -565.14 8.30 
6.55 -565.26 8.29 
0.98 -566.22 8.42 
9.00 -559.93 8.43 
8.09 -560.06 8.44 
7.73 -559.90 8.41 
8.88 -560.36 8.50 
6.84 -560.56 8.53 
9.39 -560.69 8.56 
2.22 -566.99 8.71 
4.35 -560.68 8.55 
9.77 -561.16 8.64 
3.03 -561.37 8.67 
3.73 -562.33 8.83 
2.27 -562.64 9.06 
11.43 -562.99 8.98 
11.08 -562.97 8.97 
10.19 -562.91 8.95 
9.95 -562.91 8.95 
10.80 -563.26 9.02 
5.21 -563.79 9.08 
2.16 -563.82 9.09 
0.72 -564.05 9.14 
5.44 -563.94 9.10 
11.01 -564.37 9.21 
2.58 -564.64 9.23 
1.68 -564.74 9.25 
9.81 -564.70 9.25 
6.56 -564.83 9.26 
5.92 -564.71 9.23 
5.67 -564.73 9.24 
7.33 -565.61 9.39 
1.05 -564.66 9.24 
3.98 -564.99 9.43 
3.16 -565.82 9.58 
2.97 -565.69 9.40 
6.85 -566.10 9.61 
4.50 -566.28 9.50 
3.48 -566.62 9.56 
3.13 -566.48 9.54 
-5.60 -567.37 9.77 
3.53 -568.02 9.80 
5.66 -560.02 9.35 
5.27 -559.95 9.34 
8.31 -561.30 9.60 
4.73 -561.19 9.58 
3.81 -561.60 9.67 
3.23 -561.69 9.69 
9.35 -562.28 9.80 
9.11 -562.33 9.80 
8.78 -562.34 9.80 
8.49 -562.84 9.90 
5.78 -562.76 9.88 
3.87 -562.83 9.90 
10.46 -563.32 10.01 
2.10 -562.80 9.92 
2.68 -562.89 9.93 
2.35 -563.02 9.96 
1.77 -562.91 9.94 
1.25 -563.59 10.08 
11.00 -563.74 10.10 
6.01 -564.09 10.14 
3.61 -563.99 10.27 
2.63 -564.30 10.35 
10.69 -564.02 10.15 
10.14 -564.25 10.19 
8.67 -564.18 10.16 
6.51 -564.89 10.30 
5.28 -564.71 10.26 
7.03 -565.61 10.44 
7.32 -565.81 10.48 
6.74 -560.79 10.44 
5.88 -560.72 10.43 
4.80 -560.79 10.45 
4.53 -560.80 10.46 
5.26 -561.15 10.53 
5.03 -561.08 10.51 
8.80 -561.62 10.62 
7.66 -561.93 10.69 
7.44 -561.85 10.67 
-6.69 -564.78 10.47 
-7.79 -564.69 10.49 
-7.60 -565.20 10.58 
-8.10 -565.48 10.65 
-7.04 -566.38 10.78 
-6.77 -566.48 10.80 
-6.25 -567.02 10.88 
6.11 -567.59 10.82 
5.79 -567.54 10.81 
3.74 -568.11 10.93 
3.47 -568.03 10.92 
4.10 -561.53 10.62 
3.13 -561.97 10.73 
7.05 -562.66 10.85 
2.93 -563.05 11.10 
2.67 -563.06 11.11 
5.07 -564.16 11.19 
1.97 -564.09 11.35 
3.18 -564.52 11.28 
6.50 -564.56 11.36 
4.47 -565.08 11.50 
7.10 -565.98 11.65 
7.05 -567.99 12.02 
6.23 -562.07 11.71 
5.80 -562.15 11.73 
6.69 -562.62 11.84 
-7.83 -564.68 11.62 
-8.27 -564.79 11.66 
-7.70 -565.93 11.88 
-8.01 -565.80 11.86 
7.13 -563.72 12.11 
2.96 -563.88 12.20 
7.90 -564.87 12.39 
5.58 -566.19 12.72 
6.64 -563.06 12.97 
6.28 -563.50 13.09 
5.71 -563.36 13.06 
4.52 -563.44 13.10 
4.76 -563.76 13.18 
3.81 -563.74 13.19 
4.12 -564.97 6.29 
14.84 -564.57 6.38 
14.46 -564.63 6.38 
6.57 -565.00 6.32 
13.25 -570.08 6.70 
12.97 -570.11 6.70 
12.78 -570.19 6.70 
8.30 -560.99 6.83 
8.68 -562.85 6.88 
7.28 -562.85 7.04 
10.40 -563.43 7.14 
8.47 -563.85 7.00 
2.84 -564.20 6.99 
7.59 -566.21 7.28 
13.77 -567.27 7.49 
13.45 -567.28 7.49 
1.58 -562.52 6.98 
8.77 -563.84 7.18 
9.17 -564.20 7.22 
8.76 -564.14 7.21 
3.28 -564.47 7.22 
2.85 -564.27 7.19 
3.95 -564.73 7.25 
3.64 -564.64 7.24 
5.59 -565.47 7.35 
5.31 -565.35 7.33 
4.20 -565.98 7.40 
3.86 -566.27 7.44 
8.00 -567.05 7.56 
0.79 -567.79 7.60 
14.23 -569.26 7.74 
13.56 -569.72 7.78 
13.23 -570.01 7.81 
12.92 -570.04 7.81 
12.61 -570.10 7.81 
12.35 -570.15 7.82 
11.92 -570.26 7.82 
11.60 -570.22 7.81 
11.27 -570.19 7.81 
10.93 -570.28 7.81 
10.57 -570.34 7.81 
10.26 -572.17 8.03 
9.56 -572.23 8.03 
9.91 -572.27 8.04 
9.67 -572.29 8.20 
9.21 -572.31 8.04 
6.96 -560.17 7.59 
6.73 -560.02 7.57 
3.13 -560.21 7.43 
2.81 -560.43 7.46 
7.73 -560.44 7.49 
7.42 -560.53 7.65 
4.99 -560.79 7.52 
3.84 -560.80 7.52 
3.51 -561.30 7.59 
3.13 -561.11 7.56 
2.72 -561.04 7.55 
9.31 -561.10 7.60 
10.33 -562.07 7.75 
4.90 -562.91 7.82 
7.08 -560.68 7.67 
1.50 -561.77 7.83 
4.82 -562.12 7.87 
2.68 -562.56 7.94 
4.06 -562.81 7.97 
7.50 -563.04 8.01 
1.85 -563.46 7.89 
0.91 -563.62 7.92 
-0.36 -564.26 8.20 
7.69 -564.51 8.07 
5.89 -564.70 8.09 
16.06 -564.39 8.18 
7.97 -564.71 8.11 
5.56 -564.93 8.12 
5.26 -564.94 8.12 
4.85 -564.99 8.20 
3.81 -565.07 8.30 
6.43 -565.17 8.16 
4.51 -565.90 8.25 
3.46 -566.24 8.30 
1.22 -566.63 8.35 
2.32 -567.25 8.44 
13.55 -569.32 8.85 
13.24 -569.36 8.85 
12.73 -569.48 8.86 
12.24 -569.60 8.87 
11.91 -569.68 8.87 
11.59 -569.75 8.88 
11.27 -569.82 8.88 
10.76 -569.93 8.89 
10.27 -570.03 8.90 
9.32 -560.09 8.36 
8.78 -560.10 8.35 
8.23 -560.01 8.33 
8.00 -560.15 8.36 
9.05 -560.32 8.39 
7.67 -560.29 8.38 
9.52 -560.75 8.47 
9.80 -561.05 8.52 
9.55 -560.98 8.51 
2.41 -566.80 8.55 
9.89 -572.16 9.21 
4.74 -560.29 8.51 
4.64 -560.46 8.54 
4.40 -560.77 8.45 
3.10 -561.53 8.58 
2.83 -561.90 8.80 
2.26 -561.95 8.81 
8.13 -562.43 8.86 
5.79 -562.47 8.74 
3.81 -562.50 8.74 
10.58 -562.66 8.81 
10.34 -562.78 8.82 
6.86 -562.89 8.94 
6.30 -563.03 8.83 
2.76 -563.21 9.02 
11.54 -562.97 8.87 
11.19 -562.97 8.87 
10.04 -563.24 8.90 
2.01 -563.94 8.98 
0.82 -563.90 8.98 
10.90 -563.84 9.01 
8.24 -564.51 9.09 
7.35 -564.52 9.09 
3.04 -564.84 9.13 
1.26 -564.74 9.12 
8.47 -564.86 9.15 
7.03 -564.80 9.13 
5.85 -564.72 9.11 
-8.36 -563.80 9.32 
0.90 -564.12 9.19 
5.10 -564.33 9.18 
4.70 -564.98 9.29 
4.12 -564.89 9.28 
1.45 -565.32 9.22 
5.58 -565.12 9.31 
6.49 -566.43 9.53 
2.41 -566.52 9.41 
-6.33 -567.68 9.68 
-5.30 -567.80 9.69 
-6.00 -567.74 9.69 
3.58 -569.23 9.87 
7.98 -559.94 9.22 
5.85 -560.00 9.23 
5.56 -560.14 9.26 
7.10 -560.42 9.31 
7.63 -560.89 9.41 
3.33 -561.58 9.54 
8.40 -561.60 9.55 
3.36 -561.66 9.56 
9.47 -562.30 9.69 
10.01 -562.51 9.74 
9.55 -562.96 9.82 
5.97 -563.04 9.81 
8.86 -563.49 9.92 
7.96 -563.39 9.89 
-8.00 -564.47 9.42 
-8.24 -564.26 9.39 
2.33 -563.16 9.85 
1.88 -563.18 9.86 
-7.23 -563.68 10.13 
4.22 -563.32 9.87 
4.15 -563.47 9.90 
1.43 -563.81 9.98 
9.71 -563.77 9.98 
10.27 -564.22 10.07 
4.14 -564.42 10.21 
3.40 -564.58 10.12 
2.23 -564.79 10.30 
6.08 -564.90 10.17 
5.81 -564.74 10.14 
1.74 -565.03 10.21 
10.57 -564.87 10.20 
8.48 -564.88 10.18 
6.33 -565.02 10.20 
7.47 -565.78 10.35 
4.91 -560.60 10.28 
7.07 -560.79 10.32 
6.78 -560.92 10.35 
5.98 -560.81 10.33 
7.25 -561.22 10.41 
5.35 -561.38 10.45 
4.47 -561.29 10.44 
5.05 -561.53 10.48 
4.49 -561.48 10.48 
4.18 -561.64 10.51 
8.92 -561.83 10.55 
9.14 -562.15 10.62 
-7.08 -564.01 10.18 
-6.66 -564.76 10.31 
-8.08 -564.78 10.35 
-6.44 -564.93 10.34 
-7.24 -565.21 10.41 
-7.53 -565.19 10.41 
-5.67 -566.69 10.64 
-6.80 -566.83 10.70 
-7.09 -566.67 10.67 
-5.47 -566.95 10.69 
-6.13 -566.97 10.71 
-6.50 -566.98 10.72 
3.80 -567.87 10.74 
4.01 -568.34 10.83 
5.94 -569.10 10.98 
3.23 -562.13 10.63 
7.89 -562.26 10.64 
7.49 -562.12 10.61 
9.39 -562.67 10.74 
6.32 -562.56 10.70 
9.14 -563.04 10.82 
7.13 -563.07 10.81 
2.68 -563.23 10.87 
2.44 -563.18 10.86 
1.67 -563.69 10.98 
8.77 -563.61 10.94 
5.47 -564.41 11.10 
1.58 -564.36 11.13 
4.59 -565.06 11.34 
1.95 -565.24 11.31 
1.70 -565.22 11.31 
8.11 -565.57 11.36 
7.36 -566.67 11.59 
5.52 -561.89 11.54 
6.28 -562.23 11.62 
4.42 -563.13 11.85 
-7.77 -564.60 11.43 
-8.04 -564.53 11.42 
-8.39 -564.70 11.47 
-7.97 -566.05 11.73 
-7.77 -566.39 11.79 
-8.43 -566.25 11.79 
-7.55 -566.74 11.86 
-7.27 -566.80 11.86 
3.26 -563.28 11.90 
3.49 -563.40 11.92 
3.18 -563.45 11.94 
7.26 -563.84 12.01 
6.44 -563.79 12.00 
7.24 -564.62 12.19 
7.75 -565.99 12.53 
6.79 -562.77 12.75 
5.85 -563.55 12.97 
5.58 -563.29 12.90 
4.65 -563.32 12.92 
4.91 -563.87 13.06 
16.48 -564.33 6.42 
16.04 -564.40 6.42 
15.48 -564.53 6.43 
15.19 -564.60 6.43 
6.42 -564.92 6.15 
13.35 -570.04 6.74 
13.04 -570.15 6.75 
12.71 -570.22 6.75 
11.20 -570.36 6.81 
10.79 -570.36 6.84 
10.25 -570.41 6.93 
9.92 -570.50 6.94 
3.15 -561.83 6.93 
6.38 -562.59 7.04 
8.82 -562.96 6.94 
8.56 -563.35 6.98 
8.37 -563.77 7.03 
7.85 -566.30 7.33 
8.11 -566.35 7.34 
14.03 -567.24 7.54 
13.77 -567.31 7.54 
2.14 -563.49 7.12 
2.31 -563.98 7.18 
9.25 -564.05 7.24 
8.95 -564.10 7.25 
3.29 -564.21 7.22 
5.73 -564.55 7.27 
4.80 -564.79 7.30 
0.83 -564.85 7.28 
5.37 -564.89 7.31 
6.15 -565.41 7.38 
4.91 -565.72 7.41 
14.27 -569.31 7.79 
13.64 -569.68 7.83 
13.32 -569.98 7.86 
13.01 -570.04 7.86 
12.67 -570.12 7.87 
12.34 -570.20 7.87 
12.01 -570.23 7.87 
11.67 -570.17 7.86 
11.18 -570.22 7.86 
10.68 -570.34 7.86 
9.79 -571.73 8.18 
4.50 -571.78 7.96 
4.15 -571.79 7.96 
12.44 -571.94 8.24 
12.11 -571.93 8.23 
11.77 -571.97 8.23 
11.25 -571.97 8.23 
10.07 -571.79 8.19 
9.59 -571.81 8.19 
8.77 -571.92 8.19 
10.36 -572.18 8.08 
10.03 -572.26 8.09 
9.67 -572.22 8.08 
9.32 -572.30 8.08 
8.98 -572.42 8.09 
7.34 -560.00 7.60 
3.00 -560.38 7.48 
7.82 -560.49 7.53 
3.74 -560.83 7.55 
3.47 -560.87 7.55 
8.78 -560.78 7.72 
3.15 -561.09 7.58 
9.41 -561.24 7.66 
6.62 -562.19 7.77 
10.20 -562.13 7.80 
4.89 -562.61 7.81 
10.35 -563.42 8.11 
1.58 -564.04 8.17 
0.31 -564.21 8.20 
8.12 -563.81 8.15 
4.87 -564.04 8.17 
5.52 -564.74 8.13 
9.14 -564.90 8.32 
8.46 -564.85 8.17 
7.56 -564.66 8.13 
7.31 -564.72 8.14 
6.35 -565.06 8.18 
6.13 -564.90 8.23 
5.28 -564.93 8.30 
4.89 -565.05 8.17 
8.77 -565.02 8.20 
6.63 -565.20 8.20 
5.73 -565.20 8.19 
6.91 -565.81 8.44 
4.13 -566.31 8.34 
3.80 -566.42 8.36 
3.47 -566.60 8.38 
3.13 -566.78 8.40 
2.75 -566.81 8.57 
2.99 -566.89 8.58 
2.02 -567.32 8.48 
1.33 -567.80 8.54 
13.87 -569.33 8.91 
13.60 -569.38 8.91 
13.27 -569.45 8.91 
12.96 -569.56 8.92 
12.63 -569.63 8.93 
12.30 -569.71 8.93 
11.97 -569.79 8.94 
11.64 -569.88 8.95 
11.31 -569.98 8.96 
10.99 -570.03 8.96 
10.66 -570.15 8.97 
9.36 -560.08 8.39 
8.34 -560.08 8.38 
7.81 -560.14 8.39 
8.13 -560.25 8.41 
9.93 -560.82 8.53 
8.82 -560.58 8.47 
9.39 -560.91 8.54 
-7.81 -563.88 8.23 
-6.31 -568.26 8.82 
3.16 -569.09 8.90 
10.33 -572.12 9.25 
5.40 -560.05 8.49 
4.51 -560.95 8.50 
9.66 -561.27 8.60 
4.80 -561.76 8.78 
3.13 -561.82 8.72 
5.73 -562.38 8.75 
5.17 -562.40 8.88 
10.50 -562.79 8.87 
9.60 -562.67 8.93 
8.38 -562.58 8.91 
3.94 -563.00 8.98 
11.58 -562.83 8.89 
11.24 -563.04 8.92 
3.58 -563.26 9.03 
11.65 -563.15 8.95 
10.18 -563.27 8.95 
5.13 -564.19 9.18 
9.71 -564.39 9.22 
8.47 -564.69 9.16 
6.06 -564.75 9.15 
3.21 -564.90 9.17 
2.76 -564.86 9.16 
5.34 -565.77 9.32 
8.06 -559.88 9.25 
-7.78 -563.79 9.29 
-7.35 -564.33 9.37 
1.56 -564.14 9.19 
-7.28 -564.87 9.45 
5.28 -564.91 9.30 
1.72 -565.49 9.26 
6.89 -566.01 9.49 
5.97 -566.06 9.49 
-5.64 -568.23 9.77 
5.92 -560.19 9.29 
7.06 -560.68 9.39 
8.27 -561.16 9.50 
6.49 -561.12 9.57 
4.98 -561.22 9.49 
4.27 -561.29 9.62 
8.49 -561.36 9.54 
5.49 -561.72 9.59 
4.32 -561.85 9.61 
3.77 -561.71 9.58 
3.54 -561.62 9.57 
3.88 -561.90 9.74 
10.29 -562.66 9.81 
9.91 -562.47 9.77 
9.63 -562.39 9.75 
6.13 -563.26 9.89 
10.73 -563.38 9.96 
10.49 -563.48 9.97 
10.78 -563.58 10.00 
-6.18 -567.90 9.92 
2.92 -562.16 9.80 
7.00 -562.93 9.91 
2.38 -563.35 9.90 
2.07 -563.38 9.91 
-7.20 -563.83 10.14 
4.41 -563.58 9.94 
2.63 -563.58 9.94 
-6.84 -564.23 10.21 
7.55 -563.77 9.99 
5.79 -563.86 10.00 
2.69 -564.08 10.17 
10.20 -564.19 10.11 
4.73 -564.47 10.22 
1.06 -564.56 10.28 
9.03 -564.61 10.17 
6.06 -564.63 10.15 
11.07 -564.89 10.26 
8.98 -565.16 10.34 
8.43 -564.92 10.22 
7.87 -565.04 10.32 
7.19 -564.88 10.20 
6.30 -565.24 10.27 
5.22 -565.00 10.32 
3.86 -565.32 10.28 
3.28 -565.16 10.25 
7.48 -565.62 10.35 
8.66 -565.66 10.37 
8.05 -565.67 10.37 
2.43 -566.30 10.47 
5.26 -566.23 10.45 
3.42 -566.32 10.47 
9.29 -567.33 10.70 
7.19 -560.73 10.34 
6.09 -560.88 10.36 
5.03 -560.63 10.31 
6.89 -560.96 10.38 
6.36 -560.96 10.38 
5.77 -560.96 10.38 
5.19 -561.19 10.43 
5.05 -561.44 10.48 
9.03 -561.92 10.61 
4.55 -561.81 10.56 
9.29 -561.95 10.62 
7.61 -562.11 10.64 
-6.59 -564.77 10.30 
-6.33 -565.04 10.35 
-7.93 -565.04 10.49 
-8.45 -565.18 10.65 
-5.25 -566.88 10.67 
-5.64 -567.00 10.70 
-6.68 -566.81 10.68 
-6.09 -567.28 10.76 
-6.83 -567.37 10.79 
6.28 -569.43 11.07 
3.70 -561.89 10.59 
3.44 -562.03 10.62 
7.87 -562.32 10.69 
3.08 -562.48 10.72 
9.61 -562.54 10.75 
1.65 -563.82 11.02 
3.44 -563.93 11.03 
5.17 -564.34 11.11 
8.40 -564.92 11.25 
8.08 -565.14 11.30 
-8.04 -566.13 10.81 
-7.91 -564.58 11.40 
-7.68 -564.87 11.46 
4.93 -564.52 11.23 
7.83 -565.12 11.34 
7.00 -564.83 11.28 
1.98 -565.30 11.33 
6.54 -561.63 11.50 
5.91 -561.88 11.56 
6.72 -562.83 11.79 
4.12 -562.95 11.82 
-8.43 -565.00 11.51 
-7.42 -565.98 11.68 
-8.13 -566.69 11.85 
6.89 -563.77 12.02 
3.50 -564.22 12.21 
7.44 -564.52 12.20 
8.31 -564.84 12.28 
5.67 -564.79 12.26 
8.00 -565.33 12.40 
4.09 -562.65 12.76 
6.99 -562.71 12.76 
6.06 -563.50 12.97 
4.85 -563.76 13.04 
7.15 -564.55 13.25 
16.28 -564.32 6.36 
15.91 -564.39 6.36 
15.46 -564.48 6.36 
15.18 -564.55 6.37 
6.80 -564.94 6.10 
13.39 -570.16 6.69 
12.90 -570.15 6.69 
12.60 -570.31 6.70 
11.35 -570.38 6.88 
10.98 -570.43 6.78 
9.66 -570.53 6.87 
8.43 -561.10 6.82 
2.85 -561.82 6.87 
5.32 -563.62 7.10 
4.39 -563.80 7.11 
8.62 -564.21 7.20 
8.38 -564.21 7.19 
4.61 -564.36 7.18 
2.53 -564.27 7.16 
4.80 -564.91 7.25 
5.59 -565.33 7.30 
6.96 -568.37 7.68 
13.65 -569.77 7.78 
13.17 -569.87 7.78 
12.86 -569.93 7.78 
12.55 -570.00 7.79 
12.21 -570.07 7.79 
11.72 -570.17 7.80 
11.22 -570.28 7.80 
10.93 -571.48 8.10 
10.62 -571.47 8.09 
9.96 -571.44 8.08 
10.62 -572.09 8.01 
9.41 -571.89 8.13 
8.57 -572.17 8.15 
5.03 -572.14 7.95 
10.57 -572.12 8.01 
10.25 -572.20 8.02 
9.90 -572.29 8.02 
9.45 -572.37 8.03 
8.97 -572.50 8.04 
6.97 -560.14 7.56 
8.17 -560.35 7.59 
6.70 -560.65 7.49 
9.90 -560.87 7.56 
8.70 -560.77 7.66 
6.72 -561.04 7.54 
6.46 -560.93 7.52 
4.56 -560.93 7.51 
8.89 -561.08 7.70 
8.33 -561.08 7.57 
6.94 -561.13 7.56 
5.00 -561.54 7.60 
4.23 -561.39 7.57 
4.69 -562.28 7.70 
7.13 -562.92 7.82 
10.01 -563.18 7.89 
3.57 -560.91 7.66 
5.44 -562.76 7.93 
10.60 -563.19 8.02 
7.49 -564.16 8.14 
10.03 -564.44 8.20 
9.69 -564.43 8.07 
4.57 -564.36 8.15 
6.80 -564.93 8.10 
1.11 -565.03 8.25 
0.46 -564.97 8.24 
4.91 -565.37 8.15 
4.66 -565.16 8.27 
8.82 -565.38 8.19 
3.20 -566.41 8.44 
1.43 -566.68 8.48 
14.11 -569.65 8.90 
13.69 -569.93 8.93 
11.87 -570.14 8.93 
9.07 -560.01 8.33 
9.64 -560.28 8.38 
9.37 -560.47 8.41 
7.74 -560.26 8.35 
8.80 -560.75 8.45 
8.55 -560.86 8.46 
3.41 -560.80 8.41 
9.88 -561.11 8.52 
6.15 -561.04 8.47 
-6.83 -568.33 8.76 
4.69 -568.40 8.73 
13.20 -570.08 8.94 
12.86 -570.13 8.94 
12.55 -570.21 8.95 
12.21 -570.31 8.96 
11.54 -570.21 8.93 
11.21 -570.29 8.94 
5.01 -571.76 9.07 
4.73 -571.73 9.06 
9.55 -572.34 9.21 
5.05 -560.14 8.43 
10.21 -561.31 8.56 
9.61 -561.60 8.60 
4.42 -561.84 8.59 
4.09 -561.92 8.60 
2.74 -561.89 8.74 
9.12 -561.92 8.65 
9.23 -562.71 8.87 
5.40 -562.81 8.76 
1.61 -563.11 8.80 
11.41 -563.11 8.88 
5.02 -563.07 8.92 
1.20 -563.42 9.00 
11.70 -563.33 8.93 
10.99 -563.21 8.89 
6.50 -564.28 9.01 
6.20 -564.49 9.05 
7.02 -564.84 9.11 
5.26 -564.96 9.12 
2.26 -564.94 9.10 
10.62 -564.80 9.15 
7.63 -565.41 9.22 
3.07 -565.59 9.21 
2.78 -565.57 9.21 
7.26 -565.98 9.31 
8.40 -559.70 9.16 
1.28 -564.22 9.13 
-7.67 -564.69 9.35 
4.95 -564.97 9.24 
6.73 -565.27 9.29 
5.46 -565.77 9.37 
7.31 -566.24 9.35 
6.67 -566.81 9.44 
7.46 -560.10 9.23 
6.93 -560.22 9.24 
6.43 -560.35 9.27 
6.03 -560.25 9.24 
7.21 -560.54 9.31 
6.82 -560.61 9.32 
5.13 -561.11 9.50 
8.54 -561.43 9.49 
3.85 -561.67 9.51 
4.34 -562.04 9.58 
10.06 -562.59 9.74 
9.66 -562.55 9.72 
9.10 -562.56 9.72 
7.07 -562.58 9.78 
11.66 -563.07 9.86 
10.25 -563.45 9.91 
10.79 -563.50 9.93 
-7.00 -567.07 9.72 
2.61 -562.26 9.75 
2.40 -563.73 9.90 
5.31 -564.04 9.97 
2.94 -564.17 9.99 
11.39 -563.85 10.01 
10.53 -564.17 10.05 
7.60 -564.22 10.02 
7.35 -564.27 10.03 
-6.04 -564.91 10.23 
11.17 -564.42 10.11 
10.58 -564.45 10.10 
7.75 -564.76 10.12 
4.20 -564.73 10.15 
2.87 -564.90 10.24 
9.37 -565.11 10.21 
1.14 -565.50 10.38 
8.81 -565.31 10.24 
4.45 -566.30 10.40 
6.29 -559.86 10.08 
5.80 -560.64 10.24 
7.44 -561.19 10.37 
4.90 -561.54 10.44 
8.52 -561.92 10.54 
8.25 -561.85 10.53 
7.65 -561.60 10.47 
5.48 -561.77 10.49 
4.34 -561.99 10.54 
-8.13 -566.08 10.70 
4.37 -567.53 10.63 
-3.69 -568.12 10.79 
-3.97 -568.05 10.78 
4.03 -562.15 10.57 
3.65 -562.53 10.65 
3.29 -562.41 10.63 
9.87 -562.51 10.69 
9.32 -562.39 10.66 
10.05 -562.81 10.76 
9.64 -562.77 10.74 
7.65 -562.94 10.75 
3.60 -563.36 10.83 
1.76 -563.49 10.87 
2.44 -563.99 11.07 
2.00 -564.19 11.02 
-8.47 -566.14 10.72 
-8.33 -564.59 11.32 
2.02 -564.52 11.19 
-7.09 -564.90 11.35 
-7.50 -565.09 11.40 
-8.19 -564.95 11.39 
-6.83 -565.12 11.38 
-7.86 -565.12 11.42 
8.73 -567.49 11.75 
6.85 -561.53 11.41 
5.99 -561.23 11.33 
7.08 -561.62 11.43 
6.29 -561.73 11.45 
7.07 -562.55 11.66 
6.50 -562.74 11.70 
3.50 -562.87 11.80 
-8.32 -565.40 11.49 
-7.00 -566.52 11.68 
-5.86 -567.26 11.81 
-6.13 -567.06 11.77 
-5.83 -568.06 11.97 
4.09 -563.80 11.95 
7.56 -564.87 12.22 
8.76 -565.01 12.27 
4.52 -565.39 12.33 
6.52 -561.97 12.49 
5.68 -566.22 12.53 
4.73 -562.55 12.65 
4.47 -562.70 12.69 
7.32 -562.80 12.72 
5.23 -563.79 12.97 
6.70 -563.86 13.00 
3.69 -564.07 13.05 
8.11 -564.23 13.10 
-7.05 -566.48 12.83 
-7.36 -566.38 12.81 
-7.73 -566.41 12.84 
-8.43 -566.38 12.86 
-8.18 -566.65 12.91 
4.61 -564.60 13.21 
8.43 -564.79 13.26 
15.84 -564.45 6.28 
15.41 -564.54 6.28 
15.13 -564.59 6.28 
7.01 -565.00 6.02 
6.72 -564.97 6.01 
13.34 -569.50 6.72 
12.72 -569.92 6.75 
10.47 -570.38 6.77 
10.13 -570.44 6.77 
9.82 -570.51 6.77 
5.75 -562.33 6.86 
3.79 -562.56 6.87 
8.89 -563.54 7.03 
16.17 -564.06 7.20 
15.93 -564.12 7.20 
15.48 -564.22 7.20 
6.65 -564.96 7.18 
5.33 -564.89 7.16 
5.07 -564.94 7.16 
3.54 -565.23 7.18 
7.81 -565.17 7.21 
11.25 -569.90 7.81 
10.88 -570.01 7.82 
10.41 -570.06 7.82 
14.96 -570.19 7.90 
14.47 -570.13 7.88 
13.66 -570.09 7.87 
12.39 -570.07 7.70 
12.05 -570.15 7.70 
11.72 -570.24 7.70 
11.38 -570.29 7.71 
10.07 -570.17 7.83 
9.73 -570.24 7.83 
-1.84 -570.84 7.62 
-0.71 -571.25 7.86 
3.65 -571.93 7.97 
3.26 -571.96 7.97 
11.17 -572.09 7.91 
10.82 -572.12 7.91 
10.49 -572.21 7.92 
10.14 -572.28 7.92 
9.79 -572.33 7.92 
9.04 -572.47 8.01 
7.57 -560.45 7.52 
7.28 -560.49 7.52 
9.17 -561.17 7.63 
8.81 -561.06 7.61 
8.24 -561.01 7.48 
9.38 -561.68 7.59 
3.63 -561.04 7.58 
4.30 -562.58 7.80 
10.83 -563.15 7.93 
11.08 -563.32 7.96 
8.36 -563.43 7.95 
8.02 -564.89 8.02 
6.47 -564.84 8.13 
5.29 -564.90 8.13 
5.03 -565.01 8.15 
3.24 -565.12 8.16 
2.35 -565.06 8.15 
7.65 -565.03 8.17 
7.29 -565.69 8.26 
4.63 -565.73 8.25 
8.88 -566.01 8.19 
12.31 -570.09 8.83 
12.03 -570.12 8.83 
6.63 -559.77 8.18 
6.41 -559.86 8.19 
6.15 -559.86 8.19 
10.34 -560.73 8.39 
10.12 -560.78 8.39 
7.72 -560.81 8.36 
3.63 -560.87 8.34 
-6.05 -567.97 8.58 
-6.89 -568.13 8.61 
-5.68 -568.90 8.71 
-6.05 -568.89 8.71 
13.98 -570.02 8.85 
13.32 -570.10 8.85 
12.87 -570.19 8.85 
12.39 -570.29 8.86 
11.71 -570.23 8.84 
11.37 -570.38 8.85 
10.13 -572.33 9.11 
9.71 -572.35 9.10 
9.42 -572.36 9.10 
5.23 -560.19 8.35 
5.71 -560.42 8.39 
5.38 -560.54 8.41 
8.49 -561.56 8.50 
9.31 -561.93 8.57 
8.53 -561.92 8.56 
3.23 -561.92 8.51 
2.98 -562.03 8.66 
9.62 -562.46 8.66 
8.83 -562.83 8.71 
9.46 -562.97 8.83 
12.53 -563.27 8.86 
11.43 -563.87 8.93 
9.92 -563.68 8.95 
7.09 -564.11 9.00 
5.38 -563.83 8.84 
5.04 -563.84 8.83 
3.97 -564.11 8.99 
10.89 -563.95 8.93 
6.69 -564.80 9.01 
10.08 -564.98 9.09 
8.44 -565.01 9.15 
7.65 -565.27 9.10 
9.53 -559.89 9.14 
8.73 -559.77 9.10 
-8.39 -564.28 9.18 
-7.56 -564.72 9.23 
-7.79 -564.45 9.19 
-8.14 -564.58 9.22 
1.81 -564.36 9.04 
-7.56 -564.88 9.25 
-7.94 -564.89 9.26 
6.15 -565.23 9.18 
-7.56 -565.59 9.36 
2.80 -565.52 9.23 
5.69 -566.31 9.36 
3.17 -566.53 9.39 
9.22 -566.55 9.33 
3.90 -567.37 9.41 
3.52 -567.40 9.41 
3.26 -567.36 9.41 
9.81 -560.08 9.18 
9.24 -560.27 9.20 
8.97 -560.25 9.19 
10.31 -560.36 9.24 
7.92 -560.56 9.24 
6.84 -561.18 9.34 
7.39 -561.60 9.43 
6.45 -561.40 9.42 
3.82 -561.81 9.54 
7.96 -561.70 9.45 
4.29 -561.95 9.56 
4.04 -562.05 9.58 
8.38 -562.33 9.63 
5.96 -562.20 9.53 
2.85 -562.41 9.66 
12.09 -562.97 9.77 
9.91 -563.07 9.75 
9.64 -563.30 9.78 
-6.60 -567.45 9.64 
-5.24 -569.30 9.91 
5.23 -571.93 10.17 
2.22 -562.67 9.71 
2.48 -562.82 9.74 
3.03 -564.20 9.99 
2.72 -564.09 9.97 
1.74 -564.23 9.90 
10.29 -564.13 9.95 
4.37 -564.54 9.96 
5.30 -564.65 10.07 
4.54 -564.62 9.98 
5.47 -565.17 10.16 
8.43 -565.39 10.21 
4.55 -566.68 10.36 
8.58 -567.08 10.48 
5.44 -567.31 10.49 
6.37 -559.67 9.95 
5.21 -561.19 10.27 
4.61 -561.64 10.36 
4.02 -561.70 10.37 
8.45 -561.86 10.45 
4.31 -562.10 10.46 
8.72 -562.16 10.51 
9.23 -567.90 10.65 
8.87 -567.69 10.60 
9.92 -562.56 10.62 
9.06 -562.63 10.62 
3.68 -562.73 10.59 
9.36 -562.98 10.70 
10.22 -563.09 10.74 
2.10 -563.73 10.81 
7.06 -563.62 10.80 
2.38 -563.87 10.84 
9.69 -564.07 10.94 
2.66 -564.43 11.04 
7.94 -564.66 11.04 
-7.11 -568.33 10.94 
6.57 -560.72 11.12 
5.96 -561.01 11.19 
5.74 -560.95 11.17 
2.21 -565.09 11.18 
-6.81 -565.46 11.32 
-7.19 -565.74 11.39 
-7.56 -565.82 11.42 
8.25 -565.70 11.26 
2.73 -565.97 11.28 
2.48 -566.44 11.46 
4.92 -561.07 11.20 
7.36 -561.95 11.42 
6.76 -562.03 11.44 
9.62 -562.88 11.68 
-6.11 -566.44 11.50 
-6.41 -566.48 11.52 
-6.56 -566.77 11.58 
-5.34 -567.23 11.65 
-5.98 -567.17 11.65 
-5.70 -567.36 11.69 
-6.51 -567.88 11.81 
3.20 -563.74 11.83 
6.73 -564.34 11.99 
9.39 -564.64 12.09 
8.80 -564.90 12.15 
7.57 -564.90 12.13 
6.49 -561.99 12.40 
6.21 -561.95 12.39 
7.60 -562.46 12.54 
5.35 -562.40 12.50 
-6.94 -566.24 12.62 
4.88 -562.77 12.60 
8.18 -563.20 12.74 
7.85 -563.00 12.68 
7.31 -563.37 12.77 
6.99 -563.01 12.68 
8.46 -563.60 12.85 
3.80 -563.75 12.86 
5.82 -564.10 12.95 
4.95 -563.93 12.90 
9.02 -564.74 13.16 
-6.87 -566.65 12.71 
-7.76 -567.18 12.87 
5.08 -565.84 13.41 
16.26 -564.51 6.34 
15.99 -564.57 6.34 
15.23 -564.60 6.33 
7.20 -565.01 6.06 
6.93 -564.98 6.05 
13.43 -569.51 6.77 
12.79 -569.93 6.80 
11.06 -570.25 6.80 
5.37 -560.79 6.71 
5.11 -560.80 6.71 
3.90 -561.50 6.78 
3.84 -562.02 6.84 
3.52 -562.06 6.84 
9.17 -562.91 7.00 
4.44 -563.12 6.97 
3.92 -562.93 6.94 
8.88 -563.39 7.05 
16.38 -564.47 7.30 
15.97 -564.58 7.30 
15.34 -564.59 7.29 
-7.43 -565.32 7.18 
5.64 -565.13 7.22 
8.21 -565.59 7.30 
7.60 -565.45 7.28 
6.86 -567.89 7.56 
16.18 -568.50 7.77 
15.43 -568.97 7.81 
14.96 -568.96 7.80 
14.64 -568.96 7.79 
14.16 -568.90 7.78 
13.68 -568.91 7.77 
13.35 -568.87 7.76 
13.06 -569.87 7.87 
12.77 -569.92 7.88 
0.91 -570.29 7.61 
12.43 -570.02 7.88 
12.13 -570.07 7.88 
11.80 -570.14 7.89 
11.03 -570.30 7.89 
10.54 -570.39 7.90 
10.21 -570.47 7.90 
1.22 -570.54 7.64 
9.90 -570.54 7.91 
-0.21 -571.20 7.88 
1.43 -571.59 7.76 
-0.93 -571.35 7.89 
3.13 -572.06 8.01 
2.77 -572.05 8.00 
10.75 -572.20 7.96 
10.41 -572.29 7.97 
9.90 -572.41 7.97 
9.54 -572.25 8.10 
7.94 -560.13 7.51 
6.63 -560.48 7.55 
8.66 -560.86 7.62 
7.90 -561.24 7.67 
7.39 -561.08 7.64 
9.16 -561.48 7.71 
9.96 -562.15 7.71 
8.26 -561.58 7.72 
5.37 -562.23 7.78 
3.71 -562.59 7.83 
10.74 -563.08 7.96 
10.51 -563.18 7.97 
10.23 -563.39 8.00 
8.30 -563.67 7.90 
0.49 -564.06 8.02 
11.03 -564.51 8.06 
5.36 -564.70 8.13 
5.62 -565.05 8.18 
4.69 -565.12 8.19 
4.44 -565.11 8.18 
6.43 -565.58 8.26 
6.61 -566.87 8.45 
7.46 -559.96 8.34 
7.15 -560.01 8.26 
6.62 -559.85 8.23 
10.33 -560.77 8.45 
7.69 -560.75 8.39 
10.13 -561.05 8.49 
-7.92 -567.80 8.58 
-7.30 -568.05 8.61 
-8.16 -568.51 8.68 
1.03 -568.44 8.64 
3.50 -569.34 8.77 
12.54 -570.13 8.89 
11.55 -570.40 8.90 
9.71 -572.47 9.16 
6.08 -560.87 8.49 
5.52 -560.83 8.48 
3.44 -562.34 8.72 
10.77 -563.35 8.94 
10.64 -563.74 8.94 
9.65 -563.78 9.00 
1.59 -564.27 8.91 
9.30 -564.33 9.08 
5.37 -564.43 8.97 
6.88 -564.80 9.05 
6.19 -564.82 9.14 
4.78 -564.56 9.09 
9.86 -565.05 9.21 
7.48 -565.24 9.13 
7.73 -565.30 9.14 
7.13 -565.69 9.20 
8.93 -559.81 9.16 
8.66 -559.80 9.15 
7.87 -565.48 9.26 
6.89 -566.01 9.34 
4.24 -566.23 9.36 
9.93 -560.06 9.22 
9.48 -560.30 9.26 
6.59 -560.18 9.19 
5.36 -560.12 9.23 
10.32 -560.37 9.29 
7.89 -560.51 9.27 
7.64 -560.60 9.28 
8.19 -561.52 9.46 
3.97 -561.43 9.40 
7.13 -561.81 9.50 
7.23 -562.27 9.64 
4.85 -562.32 9.57 
2.85 -562.27 9.64 
8.25 -562.73 9.74 
5.71 -563.10 9.73 
-6.02 -567.45 9.63 
-6.17 -567.69 9.67 
-6.92 -567.94 9.72 
-5.28 -568.28 9.75 
-5.88 -568.40 9.78 
10.95 -571.62 10.25 
10.61 -571.69 10.25 
5.16 -571.76 10.18 
9.48 -571.94 10.27 
8.96 -572.02 10.27 
6.54 -563.44 9.86 
5.98 -563.39 9.85 
1.05 -563.96 9.97 
5.06 -564.20 9.93 
6.85 -564.71 10.05 
5.63 -564.81 10.05 
5.37 -564.84 10.05 
4.48 -564.52 9.98 
2.65 -564.70 10.01 
2.07 -564.89 10.04 
5.06 -565.17 10.11 
4.76 -565.22 10.12 
6.10 -565.32 10.21 
4.11 -565.35 10.14 
6.84 -560.12 10.09 
6.57 -560.06 10.07 
5.71 -561.18 10.30 
4.85 -561.74 10.41 
4.30 -561.74 10.41 
-8.04 -565.45 10.43 
-7.25 -566.72 10.63 
-6.76 -567.36 10.74 
9.11 -568.36 10.78 
9.11 -562.83 10.71 
3.07 -563.01 10.68 
10.27 -563.20 10.81 
9.37 -563.14 10.78 
2.73 -563.93 10.87 
2.42 -563.99 10.95 
7.72 -564.83 11.11 
7.31 -560.80 11.19 
5.41 -561.07 11.23 
-6.34 -563.77 10.94 
2.84 -566.03 11.32 
8.68 -566.17 11.41 
5.17 -561.35 11.29 
9.80 -561.73 11.46 
9.86 -561.85 11.49 
7.37 -562.16 11.51 
7.04 -562.14 11.50 
3.49 -562.94 11.69 
3.20 -562.98 11.70 
7.96 -563.60 11.86 
-5.95 -566.75 11.55 
-7.54 -566.42 11.52 
-6.81 -567.36 11.70 
-5.72 -568.13 11.84 
5.15 -568.63 11.89 
3.58 -563.68 11.84 
5.92 -563.94 11.92 
4.11 -564.61 12.06 
9.49 -564.67 12.15 
9.18 -564.55 12.12 
6.50 -564.66 12.09 
3.79 -566.05 12.42 
6.50 -561.65 12.35 
6.78 -562.05 12.45 
7.62 -562.50 12.59 
-8.06 -564.64 12.27 
-7.84 -564.96 12.33 
-8.44 -564.92 12.35 
-7.57 -565.17 12.37 
7.87 -562.60 12.62 
7.06 -562.68 12.62 
5.87 -562.88 12.66 
5.46 -562.82 12.64 
5.07 -562.90 12.66 
8.22 -563.23 12.79 
4.46 -563.31 12.76 
8.47 -563.45 12.85 
3.83 -563.62 12.84 
8.87 -564.70 13.19 
7.32 -564.62 13.14 
9.48 -564.99 13.28 
16.26 -564.54 6.33 
7.40 -565.02 6.05 
7.15 -564.99 6.05 
5.63 -564.97 6.22 
13.24 -570.02 6.79 
12.93 -569.92 6.78 
12.77 -570.11 6.79 
11.33 -570.28 6.79 
10.69 -570.40 6.79 
10.37 -570.48 6.79 
10.04 -570.52 6.79 
5.24 -560.80 6.69 
4.89 -561.64 6.79 
4.06 -561.53 6.77 
4.55 -562.22 6.85 
6.15 -562.46 6.90 
3.67 -562.49 6.88 
4.16 -563.06 6.95 
9.62 -563.15 7.02 
9.10 -563.34 7.04 
5.13 -564.30 7.10 
16.38 -564.49 7.29 
5.36 -564.85 7.17 
5.63 -565.03 7.19 
2.04 -565.29 7.19 
7.92 -565.51 7.27 
2.61 -565.51 7.22 
9.32 -566.06 7.36 
9.04 -565.86 7.33 
6.06 -566.44 7.36 
7.16 -568.07 7.56 
16.38 -568.26 7.73 
16.06 -568.22 7.71 
15.57 -568.24 7.71 
15.09 -568.21 7.70 
14.77 -568.23 7.69 
14.30 -568.22 7.68 
13.99 -568.16 7.67 
13.11 -568.38 7.68 
13.38 -568.42 7.69 
13.97 -569.85 7.87 
12.91 -569.98 7.86 
1.27 -570.27 7.59 
13.72 -570.10 7.89 
13.24 -570.24 7.90 
12.76 -570.36 7.91 
12.44 -570.23 7.89 
11.96 -570.37 7.90 
10.83 -570.37 7.88 
0.92 -570.39 7.60 
11.64 -570.44 7.90 
11.31 -570.51 7.90 
10.34 -570.47 7.88 
1.53 -570.96 7.67 
-0.06 -571.34 7.88 
1.77 -571.55 7.75 
4.18 -572.16 7.84 
2.87 -572.10 7.99 
1.80 -572.11 7.81 
3.66 -572.29 7.85 
3.31 -572.37 7.86 
9.36 -572.47 8.10 
8.32 -572.60 8.11 
7.94 -572.69 8.11 
8.11 -560.17 7.51 
8.02 -561.28 7.66 
7.55 -561.18 7.64 
8.85 -561.40 7.69 
8.57 -561.60 7.71 
8.32 -561.66 7.72 
5.41 -561.56 7.68 
9.31 -561.77 7.74 
8.51 -562.58 7.85 
7.70 -562.52 7.83 
3.53 -563.05 7.87 
10.62 -563.44 8.00 
10.20 -563.40 7.99 
9.92 -563.54 8.00 
6.24 -564.38 8.08 
4.80 -564.54 8.09 
2.05 -564.96 7.99 
6.48 -564.93 8.04 
5.84 -565.08 8.17 
5.46 -565.00 8.16 
9.36 -565.42 8.26 
6.68 -565.61 8.25 
6.99 -566.02 8.31 
8.12 -566.20 8.35 
2.25 -566.37 8.19 
3.17 -567.79 8.53 
7.84 -559.87 8.32 
6.91 -559.85 8.23 
3.73 -560.52 8.30 
4.26 -560.59 8.32 
0.95 -567.62 8.50 
-6.03 -568.83 8.68 
3.58 -571.99 9.12 
3.24 -572.04 9.13 
7.02 -560.91 8.48 
6.22 -561.10 8.51 
5.66 -560.94 8.48 
7.44 -561.65 8.61 
6.63 -562.00 8.66 
3.00 -563.73 8.82 
10.80 -563.84 8.96 
10.56 -563.96 8.97 
7.60 -564.18 8.95 
2.07 -564.40 8.92 
7.08 -564.80 9.04 
6.12 -564.80 9.11 
5.56 -564.64 9.08 
7.95 -565.31 9.14 
7.35 -565.71 9.20 
8.90 -559.88 9.17 
7.43 -560.21 9.20 
6.63 -560.19 9.19 
7.75 -560.50 9.26 
7.74 -561.09 9.37 
7.39 -561.81 9.50 
6.60 -562.06 9.58 
4.99 -562.32 9.56 
6.16 -562.64 9.64 
3.29 -562.63 9.68 
7.95 -562.78 9.73 
5.88 -563.13 9.73 
9.89 -563.36 9.84 
9.26 -563.12 9.80 
-5.71 -567.96 9.67 
-4.95 -568.59 9.76 
-5.25 -568.63 9.77 
-5.53 -568.38 9.73 
10.84 -571.69 10.24 
10.36 -571.82 10.25 
3.90 -571.90 10.26 
9.98 -571.91 10.26 
9.67 -571.96 10.26 
9.33 -572.06 10.27 
8.99 -572.16 10.28 
-8.03 -563.14 9.78 
2.63 -562.99 9.75 
-7.46 -563.38 9.82 
3.79 -564.02 9.87 
3.50 -563.98 9.86 
9.69 -564.19 10.00 
5.24 -564.23 9.93 
2.03 -564.09 9.87 
4.09 -564.59 10.05 
5.84 -564.84 10.05 
5.58 -565.06 10.09 
8.23 -565.21 10.16 
6.77 -565.25 10.14 
6.10 -565.29 10.18 
5.28 -565.19 10.11 
4.96 -565.25 10.11 
4.36 -565.42 10.14 
8.56 -565.62 10.24 
7.92 -566.05 10.34 
6.66 -560.30 10.12 
5.32 -561.47 10.35 
4.75 -561.58 10.37 
4.42 -561.77 10.41 
3.95 -561.70 10.43 
-7.65 -565.51 10.38 
-7.40 -566.73 10.59 
10.28 -562.18 10.60 
8.96 -562.62 10.66 
9.27 -562.88 10.72 
7.22 -562.84 10.67 
5.00 -562.86 10.64 
4.66 -563.00 10.67 
3.23 -563.05 10.67 
3.00 -563.03 10.66 
9.54 -563.18 10.79 
2.49 -563.84 10.89 
5.20 -564.69 11.03 
2.63 -564.76 11.08 
6.91 -560.77 11.17 
6.37 -561.10 11.24 
-6.09 -563.87 10.92 
-6.72 -564.94 11.16 
-5.47 -565.04 11.15 
-8.39 -566.06 11.43 
3.38 -566.29 11.36 
3.08 -566.17 11.33 
2.67 -566.28 11.40 
5.85 -566.94 11.52 
5.54 -566.92 11.51 
7.18 -562.20 11.51 
3.97 -563.18 11.71 
-5.04 -567.20 11.60 
-4.81 -567.40 11.63 
-6.50 -567.43 11.67 
5.47 -568.48 11.84 
3.33 -563.66 11.83 
9.41 -564.82 12.18 
8.85 -565.47 12.32 
7.46 -562.21 12.51 
6.92 -562.20 12.49 
6.64 -562.36 12.53 
-8.01 -564.74 12.24 
8.05 -562.56 12.61 
7.76 -562.60 12.61 
5.77 -562.76 12.62 
5.38 -562.93 12.66 
8.34 -563.11 12.76 
8.65 -563.50 12.87 
4.18 -563.94 12.91 
9.06 -564.68 13.19 
4.58 -564.87 13.16 
9.70 -564.98 13.29 
8.48 -564.97 13.25 
16.37 -564.54 6.31 
13.28 -570.05 6.78 
12.80 -570.16 6.78 
11.37 -570.48 6.79 
11.05 -570.53 6.79 
10.30 -570.54 6.78 
10.04 -570.58 6.78 
10.79 -572.28 6.95 
5.31 -560.87 6.68 
7.86 -561.30 6.76 
7.63 -561.26 6.75 
4.34 -562.34 6.84 
6.24 -562.69 6.90 
9.50 -563.18 7.00 
6.77 -562.97 6.94 
5.29 -564.43 7.09 
8.68 -564.88 7.19 
5.53 -564.93 7.15 
5.80 -565.16 7.19 
8.07 -565.53 7.26 
2.70 -565.53 7.20 
9.60 -566.02 7.33 
9.28 -566.03 7.33 
7.11 -568.09 7.54 
16.32 -568.29 7.72 
15.90 -568.29 7.71 
15.59 -568.34 7.71 
15.17 -568.32 7.70 
14.63 -568.28 7.68 
14.32 -568.27 7.67 
13.90 -569.88 7.85 
13.60 -570.18 7.88 
13.28 -570.27 7.89 
12.96 -570.34 7.89 
11.98 -570.33 7.87 
11.65 -570.40 7.88 
1.46 -570.28 7.57 
12.63 -570.42 7.89 
12.31 -570.47 7.90 
11.34 -570.47 7.88 
10.28 -570.54 7.87 
10.01 -570.52 7.87 
1.74 -571.03 7.66 
-1.38 -571.07 7.63 
2.00 -571.68 7.74 
5.47 -571.88 7.81 
5.11 -572.00 7.82 
4.77 -572.09 7.82 
2.98 -572.09 7.96 
4.42 -572.15 7.83 
4.06 -572.26 7.83 
3.60 -572.35 7.84 
3.05 -572.48 7.85 
2.01 -572.29 7.81 
10.43 -572.58 8.11 
9.67 -572.45 8.09 
8.65 -572.58 8.09 
8.36 -572.62 8.09 
8.02 -572.66 8.09 
7.69 -572.75 8.09 
5.83 -572.68 7.91 
8.14 -560.16 7.48 
6.60 -560.53 7.52 
2.40 -560.94 7.54 
8.92 -561.34 7.66 
8.09 -561.28 7.64 
9.47 -561.58 7.70 
9.18 -561.60 7.70 
8.66 -561.58 7.69 
8.39 -561.61 7.69 
9.41 -561.90 7.75 
8.61 -561.71 7.71 
5.47 -561.84 7.69 
7.83 -562.64 7.83 
7.58 -562.49 7.80 
3.70 -562.82 7.81 
3.44 -562.62 7.78 
11.43 -563.00 7.93 
7.52 -562.89 7.86 
11.17 -563.42 7.99 
10.86 -563.52 8.00 
10.00 -563.51 7.98 
7.28 -563.55 7.95 
0.74 -564.00 7.96 
0.35 -564.47 8.03 
5.51 -564.80 8.10 
4.94 -564.84 8.10 
5.78 -565.08 8.15 
9.85 -565.28 8.23 
6.62 -565.61 8.23 
6.90 -565.98 8.28 
6.03 -565.68 8.23 
7.14 -566.07 8.30 
0.49 -566.58 8.32 
7.49 -559.93 8.30 
4.49 -560.65 8.31 
4.21 -561.01 8.36 
0.81 -568.58 8.60 
3.20 -569.92 8.80 
3.98 -571.93 9.09 
3.62 -571.96 9.09 
3.29 -572.04 9.10 
7.28 -561.15 8.50 
9.99 -563.12 8.86 
9.13 -563.07 8.84 
11.70 -563.32 8.93 
3.62 -563.82 8.82 
10.64 -564.00 9.02 
9.76 -563.98 9.00 
5.05 -564.13 8.89 
9.44 -564.46 9.07 
5.49 -564.68 9.06 
2.90 -564.59 9.03 
4.46 -561.42 9.37 
4.22 -561.49 9.38 
8.33 -562.54 9.66 
7.57 -562.36 9.60 
5.56 -562.71 9.63 
3.13 -562.75 9.67 
8.88 -563.08 9.77 
9.85 -563.11 9.79 
9.47 -563.39 9.84 
8.61 -563.44 9.84 
3.85 -563.51 9.76 
3.60 -563.44 9.74 
5.70 -571.76 10.15 
3.94 -571.91 10.24 
4.71 -572.00 10.17 
4.03 -572.17 10.19 
3.58 -571.95 10.24 
-8.20 -562.95 9.70 
-6.86 -563.87 9.85 
6.75 -563.90 9.87 
7.76 -564.52 10.03 
8.01 -564.88 10.08 
7.38 -564.81 10.06 
7.12 -564.72 10.03 
6.53 -564.87 10.05 
6.24 -565.32 10.16 
8.67 -565.55 10.22 
4.17 -565.93 10.26 
5.92 -566.29 10.31 
6.76 -566.71 10.43 
7.09 -559.95 10.05 
6.62 -560.51 10.16 
6.12 -561.31 10.32 
6.63 -561.49 10.36 
4.71 -561.75 10.39 
4.04 -561.87 10.42 
-7.86 -565.50 10.32 
-6.88 -566.06 10.25 
-7.33 -566.71 10.53 
9.23 -568.25 10.74 
5.04 -568.89 10.78 
5.82 -562.80 10.63 
5.30 -563.00 10.66 
9.57 -563.14 10.78 
6.08 -563.43 10.76 
2.65 -563.81 10.80 
9.98 -563.88 10.90 
3.28 -563.97 10.84 
7.37 -564.29 10.97 
8.30 -564.93 11.10 
7.96 -564.89 11.11 
8.59 -565.15 11.15 
5.38 -571.83 11.34 
8.68 -565.79 11.32 
3.44 -566.17 11.31 
2.86 -566.62 11.43 
6.58 -566.77 11.48 
5.54 -561.48 11.31 
4.44 -562.19 11.46 
4.15 -562.60 11.55 
3.59 -563.02 11.63 
-5.23 -567.34 11.58 
2.90 -564.38 11.96 
4.70 -564.65 12.04 
6.20 -565.39 12.24 
7.72 -561.90 12.43 
7.20 -562.13 12.48 
-7.25 -564.64 12.14 
8.04 -562.63 12.63 
7.20 -562.69 12.62 
5.21 -562.70 12.59 
5.53 -562.98 12.66 
4.93 -563.21 12.71 
8.44 -563.44 12.85 
7.86 -563.61 12.88 
4.64 -563.87 12.88 
4.38 -563.95 12.90 
9.10 -564.28 13.09 
6.72 -564.06 12.97 
5.62 -565.02 13.11 
9.71 -564.77 13.24 
9.41 -564.76 13.22 
8.86 -564.79 13.21 
13.41 -570.25 6.80 
13.09 -570.32 6.80 
12.76 -570.38 6.80 
11.13 -572.47 6.96 
10.63 -572.59 6.96 
9.14 -562.18 6.89 
8.93 -565.14 7.22 
7.53 -565.07 7.19 
7.25 -565.08 7.19 
6.63 -565.14 7.19 
9.60 -566.26 7.36 
9.28 -566.42 7.37 
6.93 -566.39 7.33 
15.54 -566.97 7.56 
8.68 -566.77 7.40 
16.36 -567.04 7.59 
15.95 -567.04 7.58 
15.44 -567.00 7.56 
15.11 -567.00 7.55 
14.99 -569.85 7.88 
14.71 -570.15 7.90 
14.37 -570.21 7.90 
13.90 -570.32 7.91 
13.41 -570.44 7.91 
13.06 -570.28 7.89 
12.74 -570.35 7.89 
12.43 -570.45 7.89 
12.11 -570.54 7.90 
1.47 -570.33 7.55 
1.12 -570.47 7.56 
1.74 -570.68 7.60 
-1.46 -571.13 7.78 
1.76 -571.30 7.67 
5.52 -571.91 7.80 
5.17 -572.03 7.80 
4.83 -572.08 7.80 
2.03 -571.97 7.75 
12.24 -572.35 8.11 
11.95 -572.36 8.10 
11.10 -572.42 8.09 
4.49 -572.20 7.81 
10.59 -572.57 8.10 
10.27 -572.62 8.10 
4.14 -572.52 7.84 
3.80 -572.59 7.85 
3.45 -572.68 7.85 
8.01 -560.17 7.49 
7.71 -560.28 7.50 
6.70 -560.25 7.48 
10.85 -561.20 7.68 
8.37 -561.09 7.62 
3.19 -561.03 7.55 
9.92 -562.27 7.81 
9.13 -562.48 7.83 
4.54 -562.28 7.73 
10.23 -562.75 7.88 
9.10 -562.75 7.86 
9.54 -563.17 7.93 
8.86 -563.05 7.90 
8.62 -563.32 7.93 
1.61 -563.58 7.89 
12.40 -563.79 8.07 
12.01 -564.07 8.10 
3.60 -563.76 7.93 
11.75 -564.18 8.11 
8.02 -564.35 8.07 
4.97 -564.10 7.99 
11.52 -564.84 8.20 
10.97 -565.17 8.23 
10.68 -565.09 8.22 
7.46 -565.01 8.15 
7.22 -565.12 8.16 
6.36 -565.01 8.13 
6.05 -565.30 8.17 
3.82 -567.71 8.47 
9.75 -560.03 8.36 
9.01 -560.07 8.35 
5.91 -560.95 8.39 
5.15 -571.97 8.97 
4.81 -572.04 9.03 
4.13 -572.17 9.09 
3.08 -572.46 9.12 
10.55 -560.37 8.43 
11.04 -560.62 8.49 
8.47 -560.78 8.46 
8.23 -560.92 8.48 
6.43 -561.56 8.55 
4.61 -561.54 8.46 
8.76 -561.71 8.61 
3.45 -561.75 8.55 
7.75 -562.28 8.69 
13.01 -563.16 8.95 
5.00 -563.10 8.78 
12.76 -563.27 8.96 
10.53 -563.44 8.93 
2.89 -564.24 8.95 
11.74 -564.81 9.18 
10.33 -564.54 9.10 
7.45 -565.01 9.13 
6.57 -565.05 9.12 
9.08 -565.91 9.30 
3.91 -565.64 9.19 
3.67 -565.59 9.18 
4.46 -566.92 9.40 
9.68 -568.73 9.77 
7.42 -560.18 9.21 
7.16 -560.41 9.25 
6.74 -561.49 9.43 
4.31 -561.70 9.42 
3.70 -562.02 9.51 
11.53 -562.45 9.72 
9.62 -562.41 9.66 
6.84 -562.42 9.61 
10.18 -563.41 9.86 
7.46 -563.40 9.80 
3.85 -563.30 9.75 
5.75 -571.80 10.14 
5.11 -571.93 10.15 
4.77 -572.07 10.24 
11.06 -563.44 9.89 
4.09 -563.72 9.83 
8.75 -564.62 10.06 
2.32 -564.32 9.93 
7.27 -564.88 10.07 
4.64 -565.00 10.04 
8.56 -565.20 10.16 
8.32 -565.16 10.15 
6.87 -565.22 10.14 
6.29 -565.11 10.11 
4.60 -565.35 10.11 
6.48 -565.80 10.23 
4.80 -561.75 10.39 
10.65 -562.07 10.54 
10.39 -562.10 10.54 
-5.81 -567.65 10.60 
7.70 -562.54 10.58 
8.81 -562.84 10.66 
3.69 -563.60 10.76 
11.35 -564.17 11.00 
11.04 -563.93 10.94 
8.57 -564.15 10.93 
3.39 -564.06 10.86 
3.14 -564.09 10.86 
10.32 -564.97 11.14 
10.02 -564.87 11.11 
6.22 -564.99 11.07 
3.67 -564.84 11.02 
9.77 -565.40 11.22 
9.19 -565.41 11.21 
8.30 -565.16 11.14 
5.47 -565.28 11.15 
5.72 -571.78 11.32 
5.43 -571.82 11.32 
5.37 -571.83 11.32 
5.08 -571.91 11.33 
6.55 -565.66 11.22 
2.65 -566.17 11.30 
7.12 -567.04 11.51 
-4.53 -567.05 11.46 
-4.85 -567.07 11.47 
7.68 -568.01 11.73 
6.42 -561.42 11.32 
7.40 -562.69 11.55 
4.23 -563.51 11.76 
7.48 -564.26 12.01 
5.06 -564.35 11.92 
6.96 -564.69 12.10 
5.17 -564.72 12.06 
9.44 -565.32 12.21 
5.89 -565.07 12.09 
3.64 -565.83 12.30 
7.84 -561.66 12.39 
5.57 -563.18 12.72 
4.82 -563.54 12.80 
6.01 -564.21 13.00 
4.21 -564.33 12.99 
7.08 -564.60 12.99 
3.95 -564.51 13.03 
4.53 -566.16 13.47 
-6.84 -566.63 13.64 
13.44 -570.11 6.74 
12.97 -570.23 6.75 
11.18 -570.58 6.75 
11.03 -572.34 6.91 
10.71 -572.41 6.91 
8.25 -565.10 7.17 
16.42 -567.19 7.57 
15.93 -567.12 7.55 
15.43 -567.11 7.54 
15.10 -567.08 7.53 
14.79 -567.05 7.52 
14.48 -567.06 7.51 
14.65 -569.81 7.83 
14.37 -569.84 7.83 
-7.96 -568.88 7.28 
-8.01 -568.82 7.27 
14.11 -570.19 7.86 
13.78 -570.23 7.86 
13.45 -570.31 7.86 
13.14 -570.38 7.86 
12.47 -570.33 7.84 
12.81 -570.44 7.86 
12.14 -570.36 7.84 
11.48 -570.56 7.85 
-0.69 -570.53 7.69 
-0.99 -570.48 7.68 
-1.42 -570.47 7.67 
10.83 -572.47 8.06 
10.29 -572.50 8.05 
10.00 -572.54 8.05 
9.65 -572.59 8.05 
7.52 -561.15 7.59 
3.55 -561.07 7.52 
8.62 -562.16 7.74 
9.39 -562.21 7.77 
9.78 -562.90 7.87 
8.39 -562.77 7.82 
8.95 -563.10 7.88 
8.13 -563.11 7.87 
11.97 -563.81 8.04 
11.52 -563.87 8.04 
10.98 -563.68 8.00 
11.27 -564.14 8.07 
7.57 -564.05 7.99 
1.22 -563.75 7.87 
3.07 -563.97 7.92 
2.84 -564.02 7.92 
0.80 -564.45 7.97 
6.73 -564.99 8.10 
9.51 -566.50 8.36 
7.05 -566.08 8.26 
-8.31 -568.63 8.37 
8.93 -560.12 8.33 
8.46 -559.96 8.30 
5.18 -571.99 9.05 
9.98 -560.32 8.39 
9.27 -560.49 8.40 
7.74 -560.79 8.42 
7.49 -560.95 8.44 
5.35 -561.02 8.42 
8.04 -561.65 8.56 
3.79 -561.72 8.52 
7.21 -562.15 8.63 
12.28 -563.30 8.93 
7.01 -562.99 8.76 
6.13 -562.90 8.74 
5.90 -563.64 8.85 
-6.78 -563.31 8.66 
10.04 -564.41 9.05 
-6.57 -563.49 8.69 
6.74 -564.99 9.09 
5.84 -565.09 9.09 
8.55 -565.88 9.26 
0.88 -565.64 9.13 
5.29 -566.65 9.33 
3.77 -566.72 9.33 
9.31 -568.40 9.68 
-7.47 -567.69 9.36 
-8.04 -568.50 9.49 
6.89 -560.23 9.18 
6.65 -560.46 9.22 
4.27 -562.01 9.48 
9.49 -563.35 9.81 
5.00 -563.25 9.72 
1.95 -563.30 9.71 
4.80 -572.13 10.22 
10.56 -563.33 9.84 
4.75 -563.76 9.81 
7.25 -564.21 9.93 
-5.77 -563.78 9.75 
2.99 -564.28 9.89 
1.61 -564.18 9.87 
7.86 -565.11 10.11 
6.15 -564.96 10.05 
-7.33 -564.31 9.97 
9.06 -565.80 10.26 
7.60 -566.30 10.32 
8.56 -566.45 10.37 
6.11 -567.12 10.45 
6.13 -561.43 10.30 
5.34 -561.58 10.32 
10.02 -562.05 10.51 
4.21 -562.24 10.44 
-7.04 -566.83 10.32 
-3.59 -567.64 10.45 
-5.87 -567.99 10.61 
-7.37 -568.57 10.64 
3.95 -562.57 10.51 
3.63 -563.44 10.69 
9.61 -564.90 11.09 
9.31 -564.83 11.07 
7.87 -564.82 11.04 
6.72 -564.93 11.04 
4.41 -564.87 11.00 
2.63 -564.60 10.93 
1.54 -564.52 10.91 
7.60 -565.23 11.12 
-5.60 -564.52 10.92 
-7.87 -564.69 10.99 
8.79 -565.73 11.25 
5.84 -565.62 11.17 
2.90 -565.48 11.12 
1.74 -565.44 11.11 
-6.66 -564.86 11.01 
-7.60 -565.06 11.06 
-8.15 -565.06 11.10 
-5.47 -565.42 11.11 
4.28 -566.34 11.31 
3.15 -566.15 11.26 
1.97 -566.09 11.24 
9.16 -566.85 11.49 
6.44 -567.00 11.47 
4.61 -567.04 11.46 
-3.88 -567.33 11.50 
7.07 -567.84 11.66 
8.07 -563.56 11.75 
8.38 -564.03 11.87 
5.53 -564.36 11.89 
9.90 -565.38 12.22 
7.27 -564.98 12.07 
-7.30 -564.71 12.06 
-5.78 -565.17 12.13 
-6.46 -565.15 12.14 
-7.00 -564.80 12.07 
-7.30 -564.97 12.12 
5.80 -566.01 12.28 
6.10 -566.32 12.36 
4.97 -562.97 12.52 
5.23 -563.89 12.76 
4.65 -564.12 12.82 
4.92 -566.16 13.49 
12.41 -564.27 7.24 
4.67 -564.53 7.14 
4.42 -565.23 7.22 
4.36 -565.43 7.24 
16.18 -567.40 7.67 
15.86 -567.42 7.67 
15.54 -567.41 7.66 
15.45 -569.84 7.93 
15.16 -570.13 7.96 
14.68 -570.25 7.96 
14.20 -570.37 7.97 
13.19 -570.38 7.95 
13.89 -570.47 7.97 
12.87 -570.45 7.95 
-7.99 -568.99 7.37 
-8.25 -568.84 7.35 
5.27 -572.37 8.04 
10.12 -560.40 7.62 
8.61 -560.89 7.66 
4.59 -561.09 7.62 
10.90 -562.06 7.87 
9.80 -562.02 7.84 
10.14 -562.41 7.90 
9.30 -562.39 7.88 
5.23 -561.75 7.72 
11.30 -562.75 7.97 
12.22 -563.54 8.10 
11.82 -564.51 8.22 
4.97 -563.85 8.01 
4.36 -563.91 8.01 
10.91 -560.40 8.52 
10.63 -560.38 8.51 
9.51 -560.18 8.45 
8.54 -560.40 8.46 
8.87 -560.89 8.55 
8.88 -561.60 8.66 
7.82 -561.57 8.64 
8.40 -561.97 8.71 
4.68 -561.80 8.62 
7.68 -562.67 8.81 
11.75 -564.20 9.15 
4.09 -564.35 9.03 
7.78 -564.99 9.19 
4.38 -564.43 9.04 
6.24 -565.16 9.19 
-8.47 -563.55 8.91 
5.23 -565.73 9.27 
4.94 -565.75 9.26 
5.84 -567.04 9.49 
-6.06 -566.91 9.31 
-6.89 -568.25 9.53 
7.71 -560.20 9.28 
7.49 -560.21 9.28 
9.78 -562.49 9.76 
8.21 -562.85 9.78 
7.38 -562.74 9.75 
5.74 -563.17 9.80 
5.19 -563.37 9.83 
5.59 -572.32 10.34 
11.17 -563.09 9.91 
10.55 -563.70 10.00 
5.47 -563.83 9.92 
9.22 -565.05 10.22 
6.30 -564.61 10.07 
3.72 -564.38 9.99 
8.98 -565.19 10.24 
7.77 -565.17 10.20 
6.88 -564.97 10.15 
-5.88 -564.13 9.89 
6.96 -565.76 10.30 
4.91 -565.93 10.30 
4.61 -565.88 10.28 
7.01 -561.40 10.39 
6.44 -561.35 10.37 
6.23 -561.50 10.40 
8.13 -562.09 10.56 
6.98 -561.74 10.46 
5.98 -562.31 10.56 
6.73 -567.36 10.59 
-3.58 -567.73 10.55 
-4.60 -567.79 10.56 
-4.31 -568.34 10.66 
-4.10 -568.88 10.76 
-4.13 -569.52 10.88 
-4.79 -569.44 10.86 
7.89 -562.47 10.64 
5.17 -562.53 10.60 
11.38 -563.90 11.04 
9.14 -563.80 10.95 
11.16 -564.04 11.06 
4.84 -563.86 10.87 
6.88 -564.27 10.99 
4.61 -563.89 10.88 
10.71 -564.99 11.24 
7.74 -565.02 11.17 
7.50 -565.08 11.18 
-5.64 -564.30 10.96 
8.69 -565.31 11.25 
-5.12 -564.61 11.02 
-5.41 -564.48 10.99 
6.65 -565.78 11.30 
-4.90 -565.09 11.12 
-5.42 -564.93 11.09 
-6.97 -564.87 11.09 
10.29 -566.31 11.50 
4.00 -565.97 11.30 
-7.45 -565.04 11.19 
-7.95 -565.09 11.15 
10.02 -566.66 11.57 
4.23 -566.56 11.43 
-6.22 -565.81 11.27 
-7.18 -566.31 11.44 
5.81 -568.15 11.79 
-3.90 -567.40 11.59 
-4.34 -567.33 11.58 
7.87 -562.45 11.58 
8.73 -562.83 11.69 
7.61 -562.53 11.59 
9.37 -563.66 11.90 
6.21 -563.32 11.75 
5.43 -563.68 11.82 
-4.92 -567.82 11.68 
-7.81 -567.38 11.62 
10.42 -565.00 12.25 
5.98 -565.43 12.24 
-7.46 -564.68 12.12 
-6.46 -565.22 12.23 
-6.61 -565.05 12.20 
-6.05 -566.43 12.51 
6.76 -563.65 12.81 
7.43 -564.60 13.07 
5.65 -564.34 12.97 
5.08 -563.48 7.00 
16.27 -567.43 7.68 
15.93 -567.44 7.67 
15.61 -567.48 7.66 
14.95 -567.42 7.64 
14.61 -567.40 7.63 
14.88 -569.85 7.91 
14.55 -569.91 7.91 
14.27 -570.15 7.93 
13.94 -570.27 7.94 
13.63 -570.34 7.94 
-7.63 -568.99 7.32 
-7.97 -569.00 7.32 
5.16 -572.09 7.97 
10.18 -562.04 7.85 
8.98 -561.70 7.78 
9.41 -562.43 7.88 
11.58 -563.51 8.08 
11.31 -563.61 8.09 
10.91 -564.64 8.22 
6.81 -565.10 8.19 
6.32 -565.91 8.29 
9.03 -566.52 8.43 
-6.87 -568.16 8.35 
-7.68 -568.76 8.42 
-7.96 -568.74 8.42 
-7.12 -569.36 8.51 
-7.39 -569.27 8.50 
5.17 -572.13 9.12 
10.16 -560.45 8.52 
9.90 -560.45 8.52 
9.34 -560.61 8.53 
8.08 -560.92 8.54 
7.06 -561.57 8.62 
8.74 -562.09 8.75 
7.42 -562.02 8.70 
6.85 -561.70 8.64 
6.06 -562.80 8.80 
5.82 -563.35 8.88 
10.27 -564.43 9.16 
5.06 -564.53 9.06 
6.83 -565.01 9.17 
5.67 -565.13 9.16 
8.41 -566.09 9.37 
5.34 -565.49 9.21 
4.80 -565.59 9.22 
9.33 -568.85 9.84 
-5.78 -566.87 9.27 
-3.96 -567.83 9.44 
-5.60 -568.31 9.58 
-4.71 -569.25 9.66 
-5.43 -569.16 9.64 
6.92 -560.11 9.26 
6.70 -560.13 9.26 
9.05 -562.39 9.73 
4.92 -562.08 9.58 
7.47 -562.83 9.77 
4.38 -562.13 9.58 
10.55 -563.01 9.89 
9.45 -562.94 9.85 
4.67 -563.39 9.81 
8.27 -565.06 10.20 
8.24 -565.10 10.21 
6.81 -565.05 10.16 
9.24 -565.69 10.34 
6.26 -565.68 10.26 
-7.56 -564.10 9.92 
-7.17 -564.49 9.99 
-5.37 -565.39 10.13 
6.25 -561.36 10.38 
5.67 -561.36 10.36 
6.49 -561.55 10.42 
6.22 -561.62 10.43 
5.22 -562.14 10.52 
9.12 -567.54 10.68 
6.00 -567.34 10.56 
-8.37 -565.56 10.20 
-4.50 -567.41 10.49 
-5.51 -567.60 10.54 
-3.20 -568.26 10.63 
-5.25 -567.71 10.55 
-4.37 -568.37 10.64 
-2.60 -569.03 10.77 
-2.92 -569.02 10.77 
7.68 -562.28 10.61 
7.39 -562.07 10.56 
7.15 -562.46 10.63 
4.40 -562.38 10.55 
10.32 -563.43 10.93 
3.86 -562.56 10.58 
10.71 -564.03 11.07 
6.16 -564.34 11.00 
7.06 -564.81 11.11 
6.79 -565.00 11.15 
2.71 -564.57 10.98 
-6.32 -563.97 10.87 
9.98 -564.98 11.24 
9.75 -565.08 11.25 
9.42 -564.87 11.19 
9.25 -565.84 11.39 
8.95 -565.87 11.39 
-4.93 -564.59 10.99 
