# .PCD v0.7 - Point Cloud Data file format
VERSION 0.7
FIELDS x y z
SIZE 4 4 4
TYPE F F F
COUNT 1 1 1
WIDTH 1306
HEIGHT 1
VIEWPOINT 0 0 0 1 0 0 0
POINTS 1306
DATA ascii
-11.69735241 8.463850021 4.552618504
-12.60821247 9.188528061 2.221926928
-12.30696678 8.940279007 2.607203007
-12.28484249 8.949023247 3.029945135
-11.84137058 8.570534706 3.343469143
-11.83622932 8.591335297 3.759539843
-11.74177647 8.532583237 4.150638103
-11.74383831 8.563447952 4.58227396
-12.66739082 9.301182747 2.231048822
-12.29211235 8.986194611 2.607927322
-12.15374279 8.884907722 3.005562782
-11.86500168 8.646655083 3.35543704
-11.74245834 8.561349869 3.736848831
-11.63622665 8.51707077 4.54639101
-12.60586929 9.306530952 2.225390673
-12.29155922 9.042699814 2.610976934
-12.00157547 8.802652359 2.976662874
-11.74624825 8.593352318 3.329289675
-13.54257011 10.3005867 4.321197987
-12.44675064 9.306224823 4.430078506
-11.54440594 8.487188339 4.517541885
-13.44540024 10.11318207 1.853928208
-12.56777954 9.33029747 2.222535849
-12.90743256 9.674523354 2.720225573
-11.91491127 8.777277946 2.961922407
-11.79806614 8.696372032 3.348985434
-11.60674191 8.542164803 3.707184792
-11.49625778 8.466341019 4.084488869
-11.47501087 8.475046158 4.497647285
-13.44385815 10.15237427 0.9042934179
-13.41329765 10.15373516 1.377531409
-13.39863873 10.13431263 1.850879669
-12.56891823 9.387702942 2.224455595
-12.92888737 9.756480217 2.727365017
-11.9262228 8.84348774 2.968867779
-11.61543179 8.5759058 3.304825544
-11.5461998 8.538700104 3.694646597
-11.39441776 8.422832489 4.054653645
-13.7398901 10.69178391 5.474381447
-13.43605232 10.1765871 0.4277541935
-13.34893799 10.15815258 1.374689341
-13.35637569 10.15623856 1.848148942
-12.3972435 9.285592079 2.20502615
-12.87203693 9.765058517 2.721013069
-11.88414764 8.856737137 2.963778257
-11.65686035 8.669531822 3.321787119
-11.4476881 8.495808601 3.669451714
-11.35418415 8.434775352 4.047400951
-13.1234827 10.16751957 5.222864151
-13.36888504 10.17510986 0.4283756018
-13.32982826 10.1716404 0.9015164971
-13.31951904 10.19522285 1.372821927
-13.31100655 10.17832851 1.845209241
-12.42288017 9.368871689 2.210092068
-12.79523182 9.751180649 2.711022377
-11.87780571 8.906736374 2.966876507
-11.77703762 8.839614868 3.360372543
-11.41699314 8.519908905 3.666490555
-11.29459476 8.430481911 4.033277988
-12.94164276 10.05677605 5.156666756
-13.33213711 10.20519829 0.4267218709
-13.30615044 10.21406651 0.8993880153
-13.29285812 10.23496246 1.37102735
-13.28874493 10.22225094 1.844027281
-12.30548859 9.316179276 2.197364807
-14.21817112 11.17794418 2.961681604
-11.82853508 8.915709496 2.960426807
-11.75781631 8.877034187 3.361022949
-11.3876276 8.54524231 3.663980961
-12.76970863 9.918917656 4.598296165
-13.3110218 10.25338268 0.4237701595
-13.27926636 10.27857113 1.843821645
-12.44403458 9.508649826 2.216558456
-11.82893276 8.97253418 2.965093136
-11.76797485 8.94315052 3.369773865
-11.52268219 8.733786583 3.715449572
-12.50796795 9.726196289 4.509241104
-12.78776646 10.03548336 5.113948345
-12.35099316 9.481925011 2.206968546
-12.52145386 9.676081657 2.674056292
-11.77675819 8.981267929 2.958238363
-12.36222553 9.58505249 3.539702654
-11.44817734 8.718551636 3.698740959
-12.09583092 9.417713165 4.826462746
-12.59885216 9.787295341 2.240073442
-12.41559601 9.637126923 2.659231901
-11.77390671 9.038192749 2.962479115
-12.33181667 9.61930275 3.538174868
-11.41814899 8.743968964 3.696193933
-12.13365173 9.51874733 4.854591846
-12.62180614 9.872256279 2.244982719
-12.37946224 9.662873268 2.656408548
-11.78901291 9.110423088 2.970587492
-11.69182491 9.044445038 3.367605448
-11.38252544 8.763768196 3.691829205
-11.15698433 8.568007469 4.0241189
-12.0267725 9.472263336 4.819268227
-12.54237652 9.856552124 2.237050056
-12.28835869 9.63391304 2.643937111
-11.76037502 9.139625549 2.968866587
-11.65093994 9.060890198 3.362434149
-11.18327999 8.648692131 4.042822361
-12.21990013 9.728428841 4.915038586
-12.54074097 9.917777061 2.238903999
-12.29295826 9.699887276 2.648282051
-13.90843773 11.39456081 3.996974468
-13.56111336 11.07928276 4.427138329
-12.13424778 9.703547478 4.88910532
-12.71307182 10.15415859 2.26273489
-13.70912075 11.18895817 2.901793957
-13.08843613 10.59941006 3.280519962
-12.43540192 9.972806931 3.59386754
-12.67821503 10.25152302 4.143963814
-11.98239899 9.575902939 4.368330956
-12.08489323 9.715147972 4.879043102
-12.4664917 9.969684601 2.233703136
-12.84577179 10.38504124 2.753263474
-12.33655739 9.901723862 3.114772081
-12.25966644 9.857035637 3.551639795
-12.21865273 9.845956802 3.999993086
-11.99924088 9.654546738 4.384712696
-12.02759075 9.718261719 4.865462303
-12.53532982 10.10345459 2.244533539
-12.79463577 10.39943504 2.748079062
-12.35754585 9.986599922 3.124864817
-12.27629185 9.937271118 3.563199282
-12.75650978 10.46485519 4.187955856
-11.83870411 9.549881935 4.332480907
-11.66577816 9.403871536 4.716969967
-12.37666321 10.00530052 2.22654748
-12.77089882 10.44511127 2.747959375
-12.64454651 10.34704494 3.19601202
-12.25840187 9.982412338 3.565145254
-12.6540041 10.42904377 4.163272858
-11.75763607 9.529369354 4.311368942
-11.57808399 9.372092247 4.689395905
-12.34745693 10.04224777 2.225076914
-12.82165337 10.56483269 2.760941029
-12.23871708 10.02908611 3.566984415
-12.18370533 10.00328922 4.014583111
-11.94176006 9.78414917 4.393127918
-11.49187374 9.344000816 4.662926197
-12.31831741 10.07611942 2.223518133
-12.75773144 10.56604862 2.753526688
-12.08465004 9.897096634 3.078514338
-12.2217598 10.07561779 3.569289923
-11.89202023 9.759634018 3.925171375
-11.82860756 9.727053642 4.359113216
-11.56066704 9.477007866 4.705092907
-12.33856583 10.16178417 2.228273153
-12.63509464 10.50508499 2.735588074
-11.97719193 9.84705162 3.059054613
-11.90518665 9.836215973 3.938198566
-11.76746368 9.724238396 4.345347404
-12.56887627 10.50254726 2.727712154
-11.97576237 9.908572197 3.064087868
-11.95782471 9.955723763 3.964715958
-11.72091579 9.736658096 4.33728981
-12.1780262 10.26525879 5.006365776
-12.85683537 10.84314919 2.299115419
-11.91467571 9.906684875 3.055315018
-12.0050745 10.03840828 3.529147625
-11.88280964 9.974478722 4.411570072
-11.98092651 10.1174593 4.930139065
-12.88555145 10.90612888 1.822151423
-12.7541275 10.80314636 2.288307667
-12.64481163 10.72320747 2.749707222
-11.85908031 9.910270691 3.047802448
-12.00518799 10.10307026 3.536403656
-11.89167023 10.01562786 3.960389853
-11.99060345 10.15954971 4.465477943
-11.72690868 9.904829025 4.827676773
-12.82302189 10.91278267 1.817968845
-12.38045502 10.47347164 2.242725134
-12.7830267 10.94192219 2.778853655
-11.8086853 9.922307968 3.041765213
-11.93432713 10.09412098 3.523711443
-11.59283638 9.788322449 4.318207741
-11.70166588 9.944137573 4.829213619
-12.40914631 10.57199669 2.24873662
-11.78388214 9.958877563 3.041448116
-11.76211929 9.970079422 3.481401682
-11.82407856 10.07068443 3.955239534
-11.60850048 9.868693352 4.334967613
-11.7047081 10.01177216 4.84309864
-12.35253906 10.57821941 2.243768215
-11.92650223 10.14436531 2.631725073
-11.77353573 10.01147079 3.044556379
-11.6501503 9.910458565 3.456286192
-11.81037331 10.12046242 3.959616899
-11.51270485 9.825639725 4.30727005
-12.26786518 10.55318832 2.235162735
-12.08703899 10.42356586 3.124046087
-11.4599781 9.762514114 3.408373594
-11.76263237 10.13249779 3.952314854
-11.51245213 9.888751984 4.317806244
-11.90273285 10.36490154 4.95947361
-12.36229515 10.72594929 2.249774694
-11.82739925 10.16508293 2.621567011
-11.65321445 10.0063858 3.027363539
-11.38725281 9.743757248 3.394365072
-11.77058125 10.20695877 3.964295387
-12.17779922 10.58927822 2.228201628
-11.62296581 10.00470448 2.588305473
-11.60045147 10.01149654 3.020491123
-11.34339619 9.756938934 3.388728142
-11.69267082 10.18804741 3.947030067
-12.06029701 10.64387131 4.561516762
-11.91478729 10.51400185 4.991666317
-12.14892006 10.62864494 2.226948738
-11.57014275 10.00947189 2.582543373
-11.57754135 10.05332184 3.020989895
-11.28763199 9.759501457 3.379964113
-11.62690067 10.17897224 3.933458805
-11.99838734 10.64228153 4.548153877
-11.78800678 10.44008732 4.947052002
-12.07937336 10.6186161 2.220278025
-11.6170454 10.1272707 2.595143318
-11.52999306 10.06396008 3.015361547
-11.27352715 9.806265831 3.383054495
-11.21208382 9.767995834 3.79774189
-12.07197571 10.79667759 4.589916706
-11.726017 10.43633842 4.931682587
-12.02444935 10.62470055 2.215509176
-11.51171684 10.07205963 2.579718113
-11.52656555 10.12505531 3.020284891
-11.31192207 9.913884163 3.40166831
-12.10994053 10.87093067 4.121878147
-12.20760155 11.0249815 4.657363415
-11.67660427 10.44680214 4.922140598
-12.00752831 10.67410755 2.215720415
-11.46020889 10.07771683 2.574200392
-11.53056145 10.19521046 3.027049541
-11.27408791 9.934060097 3.397905111
-12.11197853 10.94438267 4.132768154
-12.17733288 11.0618391 4.657321453
-11.64705563 10.48035812 4.921905994
-12.04420757 10.78231812 2.222871065
-11.37895966 10.04852104 2.56315279
-11.69111919 10.44846916 3.071569443
-11.23778439 9.952710152 3.394233465
-11.1266346 9.858624458 3.794885635
-12.06191921 10.99836159 4.622306347
-11.55854034 10.44073582 4.893282413
-12.12395573 10.94530487 2.235865593
-11.36769485 10.10035324 2.565100193
-11.64410782 10.45785332 3.06597662
-11.21765804 9.993546486 3.395759344
-11.0982275 9.885812759 3.793568134
-12.11065769 11.1248827 4.654236794
-11.51053715 10.45190525 4.884334564
-11.86914539 10.71771812 2.204772711
-11.39762497 10.19774818 2.57456851
-11.65927315 10.54388428 3.075739145
-11.19354439 10.02984619 3.396141291
-11.04809666 9.890365601 3.78501749
-12.02790451 11.09917164 4.632601738
-11.50419426 10.51285934 4.895130634
-11.96749973 10.90370655 2.220282078
-11.39044762 10.25876808 2.577578545
-11.72096825 10.68612194 3.096896648
-11.35328579 10.28601551 3.451616049
-12.28082371 11.43728256 4.234918594
-11.92391682 11.05070782 4.602667332
-11.45972252 10.52815914 4.887917995
-11.81163692 10.79295921 2.202295542
-11.28132915 10.19514561 2.56127882
-11.69905186 10.73324299 3.098160982
-11.32645035 10.32423782 3.451838017
-12.12352562 11.32271194 4.18954277
-11.86149406 11.04786491 4.589281559
-11.46334267 10.60534668 4.904387474
-11.87924767 10.94449997 2.213821888
-11.25616646 10.23454762 2.560931206
-11.62191391 10.71039391 3.085650682
-11.70969772 10.85656166 3.575350761
-12.43680477 11.78278828 4.313652992
-11.87820148 11.14495277 4.609633923
-11.94767761 11.09515381 2.225397825
-11.25051594 10.29107666 2.563870668
-11.5751524 10.72376156 3.080543041
-11.57466698 10.75953484 3.542523861
-12.39707088 11.80837822 4.310181141
-11.87109852 11.20629978 4.6188941
-11.84374046 11.04164982 2.214158773
-11.38137817 10.5179863 2.592921257
-11.54760838 10.75693226 3.079843044
-11.54648781 10.79571152 3.542366266
-12.34867382 11.82321739 4.303595066
-12.00813484 11.44677925 4.689072132
-11.67379475 11.07542896 5.048444748
-11.54631233 10.78610516 2.628415108
-11.49705601 10.76534653 3.073812246
-11.46756172 10.76914597 3.526790857
-12.06249714 11.54614067 4.211191177
-12.09949303 11.63702679 4.741138935
-11.60372353 11.06121922 5.029557705
-11.33958626 10.60123825 2.593556643
-11.46513081 10.79662132 3.072387457
-11.52284241 10.90922165 3.552165031
-12.03390408 11.58719063 4.212098598
-12.24859715 11.9022131 4.81819582
-11.60040379 11.13068962 5.043079376
-11.4873724 10.89572906 3.084443569
-11.45246887 10.89302158 3.539217234
-11.99180317 11.6113596 4.208117962
-12.22462845 11.95157242 4.822058201
-11.55528927 11.14758492 5.036342144
-11.40792561 10.82709026 2.615629911
-11.76329422 11.31561852 3.159849882
-11.32384968 10.80245686 3.508287907
-11.97014523 11.66141701 4.211668015
-12.16344929 11.95372009 4.810072899
-11.57965755 11.25334454 5.063700676
-11.37083721 10.8517704 2.613106966
-11.72330475 11.34009743 3.156782627
-11.29902363 10.84249878 3.509241343
-11.96745872 11.73604488 4.222289562
-12.11304951 11.96930695 4.802687645
-11.55530834 11.29734898 5.067341805
-11.3680172 10.92004681 2.617202759
-11.69054985 11.37376404 3.155545473
-11.21728039 10.80963612 3.492594719
-12.07683468 12.00303841 4.801425934
-11.55526924 11.37318516 5.083093643
-11.31719398 10.92734051 2.612065554
-11.14667892 10.79030609 3.479333878
-12.02872467 12.02130604 4.795059204
-11.45834446 11.32282543 5.050935268
-11.1296072 10.84364986 3.483170986
-12.0055933 12.07628155 4.800296783
-11.13303852 10.92066097 3.493067503
-11.29206467 11.1730299 4.018388748
-12.01714516 12.17754078 4.820794582
-11.86040688 12.01462936 5.285119057
-11.23321152 11.12633514 3.533520937
-11.77011299 11.97545433 5.256912708
-6.014761448 6.6977911 0.4405261874
-5.977257252 6.666184425 0.4439356029
-5.9509058 6.660012722 0.4444434643
-5.922309875 6.648229122 0.4455817938
-5.881468773 6.874535561 2.701225281
-5.858276844 6.85678339 2.934165716
-5.890761375 6.628974915 0.4475631416
-5.891834259 6.884785175 2.233761072
-5.860342979 6.842177868 2.455951691
-5.867732525 6.629792213 0.447250694
-5.881404877 6.841573715 1.769862413
-5.816512585 6.831949234 2.68290782
-5.808405876 6.852275848 2.925179243
-5.846233368 6.634200573 0.4465202987
-5.901352882 6.841022015 0.8730621338
-5.881940365 6.829692364 1.31989491
-5.837413788 6.829950809 1.991222024
-5.823515892 6.833885193 2.218566179
-5.810389519 6.8371315 2.448597908
-5.797945499 6.84572649 2.683165312
-5.782849789 6.848072529 2.920140982
-5.82473135 6.638528824 0.445790112
-5.851973057 6.815586567 1.095239758
-5.843147278 6.830668926 1.541015148
-5.81242609 6.827162743 1.988374114
-5.807819843 6.855021954 2.219794989
-5.783373833 6.828976154 2.443683863
-5.779312611 6.859446049 2.683419466
-5.767593861 6.87072897 2.923342228
-5.802486897 6.640930653 0.4452706873
-5.851691246 6.798625946 0.6508690119
-5.832642555 6.788772583 0.8733243346
-5.837201118 6.838634968 1.094038963
-5.830307484 6.820196629 1.31656301
-5.817383289 6.82587719 1.538863182
-5.806928158 6.835017681 1.762764454
-5.789627075 6.829815388 1.986357927
-5.789889812 6.870604038 2.219982386
-5.766199112 6.846301556 2.444563627
-5.780253887 6.643247604 0.4447522461
-5.828183174 6.799275875 0.6502522826
-5.816478729 6.807987213 0.8717125654
-5.808809757 6.823977947 1.092934966
-5.808211803 6.824599266 1.315241218
-5.792712212 6.820573807 1.536774278
-5.798380852 6.874713898 1.765089035
-5.778857708 6.863836765 1.989031911
-5.755394459 6.635838032 0.4453484714
-5.81123209 6.816558361 0.6483607292
-5.804136276 6.834213734 0.8698653579
-5.789588928 6.835719109 1.091742992
-5.798658371 6.85835743 1.315055966
-5.77635479 6.839792728 1.536409736
-5.7397089 6.654655933 0.4429293573
-5.797381878 6.838978767 0.6460969448
-5.724925518 6.673052311 0.4405623674
-5.707316399 6.690312386 0.4382864535
-5.684306145 6.690398216 0.4379780591
-5.668651581 6.713122845 0.4350560606
-5.655584335 6.736937523 0.4320298135
-5.646137238 6.774168968 0.4274405837
-5.633076668 6.802053452 0.4239093959
-5.61948204 6.83215189 0.4200949669
-27.209692 78.01541138 3.511397123
-23.31577492 69.59098816 3.168640614
-22.48409653 69.95063782 5.631821632
-22.29562759 70.2098999 5.630698204
-14.49974251 41.65878677 0.8053565025
-22.03104782 71.17093658 5.656982422
-21.77102661 71.17802429 5.639293194
-19.85520363 64.1242981 2.890125513
-19.61798859 64.11539459 2.875732183
-19.39631653 64.21310425 2.863647699
-19.18182182 64.24629974 2.85118556
-18.64077759 62.98786926 2.802621365
-19.62188911 67.67127991 5.327693462
-18.47567558 63.25443268 2.796133757
-19.38913536 67.72788239 5.314463615
-18.37248039 63.83840179 2.797436476
-19.19909668 68.01970673 5.31521368
-18.97678375 68.12539673 5.305086136
-18.135149 64.82209778 2.795869112
-18.77801323 68.28218842 5.298994541
-8.218949318 23.11844063 7.37924099
-8.249765396 23.12255287 5.703089237
-8.195602417 23.12711716 6.531656265
-8.13842392 23.12087631 7.370587826
-8.287088394 23.18774033 4.080038548
-8.23237896 23.16587639 4.886446953
-8.166307449 23.11109161 5.692745209
-8.122534752 23.16535378 6.532373428
-8.290038109 23.08161354 2.466153145
-8.248820305 23.13768768 3.265877247
-8.193629265 23.1108799 4.063425541
-8.152384758 23.1713829 4.880078316
-8.263727188 23.0872612 0.8763071895
-8.265039444 23.09510803 1.669962287
-8.209402084 23.08281326 2.460808039
-8.171922684 23.13809967 3.260185957
-8.182498932 23.10449791 0.8717006445
-8.178431511 23.08708191 1.664706707
-16.40876198 63.24826813 2.672738552
-16.7217865 65.50388336 5.030207634
-16.1993866 63.33237076 2.661397696
-16.73819923 66.7521286 5.09026432
-15.93160534 63.12558746 2.642840862
-16.09803772 64.71849823 4.951711178
-15.81272221 65.58470917 4.973880768
-15.2162075 62.85413361 2.596980572
-14.98033619 62.37784576 4.767238617
-15.0002327 62.8948822 2.584753752
-14.718997 62.57684708 2.564023733
-14.86281872 64.19109344 4.845549107
-14.62209225 64.05209351 4.823257923
-14.22070217 63.04049683 4.74910593
-13.95888805 62.81044006 4.721196651
-13.72515678 62.80569839 4.705862999
-13.66419411 62.96347427 2.507018566
-13.25655556 62.71292877 4.671286583
-13.27098179 63.28620911 2.488191605
-12.96716595 62.19695663 4.628149033
-12.75828743 62.26184845 4.61789465
-12.74204159 62.6516571 2.448946953
-12.68062687 63.21895981 4.658613682
-12.47535896 63.33428192 4.651074886
-12.21652317 63.61315536 2.430896044
-12.03842831 63.38483047 4.625843525
-11.60278034 63.44419861 4.601275921
-11.48181915 66.07335663 4.71958828
-11.13558006 63.95663834 2.372612476
-11.24147797 65.99043274 4.700648308
-11.0291872 64.85163116 2.378236771
-10.17776299 66.70983124 4.669497013
-9.959703445 66.84867859 4.6628232
-9.56878376 65.98851776 2.309011698
-9.629440308 68.31756592 4.71329689
-9.459798813 69.22368622 4.74657917
-9.06319809 65.69297791 2.276083231
-9.080090523 67.69337463 4.650020599
-8.947704315 68.96734619 4.703341007
-8.593437195 67.30493164 4.60204649
-8.381772041 67.4336319 4.595562458
-8.138780594 67.29152679 4.574206352
-8.291855812 70.84778595 2.300231218
-7.921437263 67.69539642 4.580720425
-8.09227562 71.73514557 2.300615788
-7.976106167 72.29592133 4.805624962
-7.857649803 74.296875 4.895047665
-7.603433609 74.340271 4.882143021
-7.332047462 74.05966187 4.852653027
-7.135670185 71.91972351 2.248679876
-6.900147438 72.18386841 2.238830805
-6.254234791 75.23822021 2.242840052
-5.660279274 77.72613525 4.932468891
-5.372889996 76.93517303 4.877804279
20.26094246 89.88420868 1.01081121
18.28803062 72.78350067 3.521962166
1.094364405 13.77688599 1.506567955
1.22668612 14.0660305 2.004660368
1.148026228 13.78532124 1.504899979
17.08981323 53.9495697 2.712471962
17.24024582 53.79032135 2.699814081
17.49692726 53.92798996 2.696545601
17.87017632 54.3262825 2.700670004
17.65642738 53.49702072 4.657237053
17.81506348 53.65491104 2.672801495
17.71032333 53.10557938 4.62583971
17.89755058 53.33257294 2.655498981
17.9390831 53.14651871 4.623722553
18.04965973 53.1840477 2.64343667
17.98801231 52.75130081 4.592268944
18.19408798 53.01847839 2.630930662
18.00979233 52.2974472 4.55698967
18.20739937 52.26696777 4.550276279
18.38416672 52.45986557 2.599490881
18.4379425 52.31284714 4.548737049
18.59678841 52.46075439 2.592021227
18.37051964 51.66475296 4.500745296
18.71128464 51.96598434 4.51642561
18.83624649 52.05710602 2.565877438
19.0656414 52.29104996 4.533690929
18.93858337 51.80725861 2.551356792
19.26473618 52.28239059 4.528898239
19.80143166 53.56296158 0.5853333473
20.09766197 53.93564987 2.604380846
19.01392937 51.21908188 4.453426838
20.16929436 53.60168839 2.587313652
19.25485039 51.28651428 4.453662395
19.50197983 51.66575241 2.525740862
19.50095749 51.38591766 4.456267834
19.45757294 51.10189819 2.502695084
19.96973419 51.96675873 4.490865707
19.57037926 50.88751984 2.489538193
20.80104256 53.29433441 4.574726582
19.95547485 51.26018906 2.492689371
20.09483719 51.31142807 4.43914032
20.00665665 50.91422653 2.475975037
20.20724106 51.09595108 4.420848846
20.15510178 50.77806473 2.465113878
20.38199997 51.01366425 4.411437988
20.69297981 51.45667267 2.476486206
20.45783234 50.7256546 4.38850832
20.92204285 51.4821434 2.469987631
20.63477135 50.64968109 4.379647732
21.22337341 51.65403748 2.467438459
21.44062996 51.67264557 2.461103439
21.6032505 51.5792923 2.451787472
24.33636284 51.93072128 0.3485273719
24.27312088 51.39517593 0.3455609381
24.23751068 50.91667175 0.3419317603
24.22232819 50.4809227 0.3378222883
24.21821022 50.07027817 0.3334795237
24.19376945 49.62897491 0.3297702372
16.82970428 36.50811386 1.965762019
24.19643021 49.24049377 0.325375706
16.85890961 36.27257919 1.955158949
17.22068024 36.75239182 3.413507223
17.34306717 36.83820724 1.964132786
17.43493652 36.83397293 3.416743279
24.36942291 48.78468704 0.3122442067
17.35212135 36.56699753 1.952707052
17.71978951 37.03331375 3.427591562
17.49657631 36.50711823 4.845005512
24.54525375 48.7026329 0.3030872345
17.49964142 36.5338974 1.94702208
17.51995659 36.4236412 3.38648057
17.53907776 36.29747009 4.823981762
17.64921951 36.50363541 1.941420078
17.77965736 36.57871628 3.394553661
17.03270531 35.17378616 4.706820965
17.78446388 36.44874191 1.935253382
17.85753822 36.42776108 3.382982254
17.16537094 35.12488174 4.702794075
17.43193054 35.58527374 1.910220027
17.95222282 36.30573273 3.373319387
18.10669708 36.40444946 4.838718891
17.5445652 35.51251602 1.904027462
18.10772133 36.28403091 3.370141983
18.27399063 36.40097427 4.83964777
17.65460968 35.42206192 1.897215128
18.20365906 36.16473007 3.360746861
17.13277054 34.29244232 4.61875248
17.28349304 34.56588745 1.873083711
18.4139328 36.24415588 3.36421442
17.25529099 34.23116302 4.613634109
17.19153404 34.15722275 1.859171391
18.62900925 36.31534958 3.367098808
17.36442947 34.16122055 4.607590675
17.40078163 34.23414612 1.856393933
18.74057198 36.21986008 3.359350681
18.77854729 36.12935257 4.8167696
17.5281105 34.19195175 1.851140261
17.6592617 34.25764465 3.232396364
18.50863838 35.44953537 4.746556759
18.06490326 34.77987671 1.859808207
17.94591141 34.46378708 3.244163275
18.58520508 35.31846619 4.734287739
18.07380486 34.53466034 1.849749923
18.09776306 34.43085861 3.24053812
18.32962418 34.66148758 4.666596413
18.07907867 34.28643417 1.839697003
17.8817482 33.8431778 3.201635361
18.36812401 34.45192337 4.64628315
19.03478241 35.64439392 0.4204992354
17.87746048 33.73566055 1.823275805
18.4431076 34.46464539 3.239973783
18.54027176 34.47325134 4.650255203
19.12017632 35.52426529 0.4152916372
17.88865471 33.50392532 1.813766956
18.64086342 34.523983 3.242478132
18.72817802 34.5170784 4.65667057
18.2127552 33.74794006 1.814676404
18.83662224 34.55299377 3.242951632
18.89375687 34.51305008 4.658185482
18.39249229 33.77040482 1.810734034
18.57403946 33.90758133 3.200605154
19.07764816 34.52257156 4.661307335
18.34646034 33.45493317 1.799528837
18.74247742 33.91035461 3.199570656
19.21670341 34.48955154 4.659786224
18.36569214 33.23958588 1.790551186
18.75741768 33.69810104 3.184960604
19.15183449 34.14413834 4.625307083
19.54215622 34.72508621 1.817725658
18.81858253 33.54324341 3.173989534
19.51557732 34.42704773 4.657523155
19.62799072 34.61081314 1.81100142
18.74636841 33.19591141 3.15084362
19.58804131 34.28340912 4.644558907
20.00457573 34.90520096 1.81264925
18.96694565 33.27446365 3.154787064
19.65626526 34.14694595 4.63228941
19.83597946 34.42358017 1.798288226
18.9401226 33.00873566 3.136970997
19.729599 34.00637817 4.61975193
19.68052673 33.96637344 1.784559131
19.00834084 32.88074493 3.127937794
20.87617493 35.39771652 4.770116329
19.73220253 33.80788803 1.77709651
19.07596779 32.75264359 3.118937969
20.99252129 35.32074738 4.76443243
21.32385063 35.94094849 0.3182543814
19.7308445 33.56388855 1.767710686
19.2216301 32.72292709 3.116168737
21.09469604 35.2239418 4.756692886
20.31039619 34.13308716 1.774908781
19.2732029 32.57329178 3.105885267
21.24444389 35.18073654 4.754861355
21.56751823 35.76675415 0.3053818345
20.42606926 34.05002594 1.768799424
20.57374954 34.12538528 3.203289747
21.38949776 35.13045502 4.752346039
20.61165047 33.93521118 3.190447807
18.89832497 31.48209381 1.708842397
20.69821358 33.8127594 3.181938648
18.85227013 31.20830917 1.699560404
20.80583382 33.73123169 3.176097393
20.99888992 33.75240707 3.176754713
21.00643921 33.52509308 3.161747456
21.0476532 33.34431076 3.149728775
13.90047169 22.93903542 0.5272862315
14.00321674 22.91876221 0.5224746466
14.10351753 22.89492989 0.5177445412
8.203181267 12.18085861 2.389761448
8.27644825 12.17675781 2.391791582
8.37252903 12.18605042 2.395665884
8.483235359 12.25487614 2.986890078
8.468315125 12.19823265 2.39978838
8.542969704 12.23247623 2.988036394
8.580331802 12.22488689 2.405629873
8.629753113 12.23902607 2.993818521
8.623579025 12.19050217 2.404336214
8.701210022 12.22679615 2.996774673
8.588769913 12.14665413 1.243591547
8.734562874 12.21477127 2.41000104
8.594882011 12.10909081 0.6662290096
8.698401451 12.16962528 1.24240768
8.725010872 12.16276073 1.822762012
8.842925072 12.23570538 2.415337801
8.814303398 12.16608429 1.823699355
8.932426453 12.23855495 2.418629885
9.032443047 12.25029278 2.423006535
21.43020058 16.87341118 2.22789526
20.03288078 13.96265697 3.025292635
20.71570206 14.29996014 1.142809391
19.99085617 13.83283329 3.015976191
20.24335861 13.93574047 3.98793149
20.03354263 13.78546333 2.075947285
20.06727982 13.76846027 3.016373873
20.29682541 13.86330128 3.987130404
20.08835793 13.71433067 2.074407339
20.13954735 13.70687294 3.016747713
20.44455147 13.84171104 3.997776031
20.16759109 13.65625381 2.073894024
19.97269058 13.51649284 2.997809172
20.58762932 13.8113575 4.007463932
20.21012688 13.57293701 2.071693659
20.15732765 13.51005077 3.007058859
20.33713722 13.53441143 2.072970629
19.97458458 13.27923393 3.919197798
19.931633 13.21525383 2.05259943
21.27071381 13.88890457 3.08539772
19.9822979 13.17946148 3.912917852
21.72883606 14.08400917 1.128568292
20.04315376 13.17474651 2.053526878
20.9600296 13.6178894 3.054807901
20.01078606 13.09077454 3.909192562
20.4223423 13.27516079 4.911273003
21.70182228 13.95828533 1.126304626
19.95083809 13.02304649 2.046047211
20.83926582 13.4479332 3.039557934
20.47052574 13.22391415 3.956923485
20.46879387 13.19426537 4.909782887
21.83564186 13.92140484 1.124335647
20.01072311 12.9505415 2.044754028
20.1846981 13.0065546 2.982007027
20.85665321 13.32120991 3.996066332
20.51497078 13.11319065 4.90830946
21.65633774 13.71861839 1.121984839
21.47270203 13.59038448 2.099606037
20.03779221 12.83369255 2.965299368
21.14291763 13.35975456 4.022854805
20.53047371 13.0218277 4.902475357
20.61857796 13.0562191 2.061881542
19.97047997 12.69729424 2.95473671
20.29358292 12.8269453 3.915192604
20.53178215 12.91836929 4.894044876
20.58748055 12.93564701 2.056964636
19.95428658 12.58730984 2.948289394
20.32071686 12.73741341 3.911545992
20.56814575 12.83263969 4.891227245
21.24584579 13.19063568 1.115450621
20.60239983 12.83850193 2.053919792
20.01631165 12.51646328 2.948053122
20.44894218 12.70296097 3.920200586
20.64863586 12.76863956 4.895411015
21.27563858 13.10334015 1.113524199
20.69739723 12.78612709 2.054248333
20.04924583 12.43624592 2.945818663
20.55397034 12.65643787 3.926126719
20.63967896 12.66589642 4.886021614
20.56769562 12.62384987 2.045757294
20.38338661 12.50239563 2.967168808
20.59809303 12.57985497 3.924924374
20.61961365 12.55816078 4.874979496
20.84598923 12.65479469 2.053137779
20.50252914 12.46256256 2.971670151
20.53104019 12.44467449 3.9104321
20.60266685 12.45239925 4.864520073
20.78921127 12.52855206 2.047583103
20.8163147 12.50986099 2.991061926
20.45615959 12.306674 3.895135403
20.45131874 12.27813435 4.832801819
20.88194847 12.46886063 2.047719479
20.93955994 12.46466541 2.995600939
20.40758705 12.1820612 3.883013964
20.23633194 12.07552052 4.791377068
21.85181808 12.82117748 2.081839561
20.95259476 12.36708164 2.991620302
20.85391235 12.28964138 3.928467274
20.31277657 12.01103115 4.795406342
22.22111893 12.88574696 2.092553139
21.26558685 12.40911865 3.010834217
20.94395065 12.22866344 3.932470798
20.43579292 11.96775627 4.806684494
21.73828888 12.55405998 2.070440531
21.26021767 12.30224419 3.005478859
20.93248749 12.12576866 3.925080776
20.51017952 11.90148926 4.810453892
21.78418541 12.46871471 2.06875968
21.88403893 12.48818302 3.048727512
21.1071949 12.102911 3.938925982
20.97043419 11.99872875 2.034448624
21.49887085 12.20760918 3.014279604
21.19137573 12.03808689 3.942332506
22.26876831 12.47968102 2.080595493
21.08839035 11.91925621 2.978103638
22.33999825 12.4038105 2.079905033
21.13391113 11.83709621 2.976883173
21.86756706 12.06279659 3.028237104
21.8532505 11.95156956 3.022422791
21.89517021 11.87029648 3.021155357
21.17682266 11.53600883 3.911091566
22.1833992 11.92433834 2.061324835
21.43058968 11.57215977 2.981693506
21.16796112 11.43096638 3.904192448
25.65966797 13.29654121 2.187821388
21.2667675 11.37181377 3.909578323
25.73952293 13.21056271 2.187215567
21.26638031 11.27060604 3.903757095
48.87893677 22.78723717 1.060057878
22.25109863 11.63653755 2.054386616
25.98070526 13.15816784 3.309381247
49.01764679 22.64122391 1.056700468
25.70819092 12.95882702 2.179020166
25.87931252 12.99652386 3.296676874
49.16897202 22.48914909 1.053188324
25.79998398 12.87757874 2.178949833
49.45697784 22.40266991 1.049739122
24.16091347 12.1009903 2.115526438
25.79057121 12.72868061 3.280293465
24.34634018 12.06347561 2.119124651
25.65355682 12.56163311 3.265450239
24.55033493 12.03779125 2.123557329
25.57340813 12.41263676 3.254680634
26.23661423 12.64311123 4.42714262
24.41223526 11.87069893 2.115380764
25.91983986 12.4318037 3.275541544
25.19356537 12.06271553 2.140619993
26.24629211 12.44075584 3.294875145
26.24144173 12.41329002 4.415301323
26.25450325 12.35643482 2.175837517
25.23568535 11.93974686 3.215948582
26.25533295 12.30024624 4.410612106
25.62526703 12.0339632 5.443972111
24.73643303 11.66490841 2.118047953
25.21800041 11.81867504 3.210119247
26.05302238 12.10542965 4.381984711
25.5860157 11.90379906 5.430655479
24.63723946 11.51512623 2.111467838
25.41645813 11.7793541 3.220199823
25.83668709 11.90726089 4.351961613
25.41635132 11.72541809 5.398065567
24.76206398 11.45005512 2.112977743
24.69497108 11.39629173 3.162966728
26.12286186 11.89767075 4.37770319
25.4222641 11.61371231 5.391705513
24.78364944 11.34614086 2.110811472
24.75381851 11.3066473 3.162986755
26.01157761 11.74012566 4.359506607
25.59142113 11.56208611 5.40961647
25.6067009 11.53811455 6.518671989
26.00589752 11.71054173 1.054805279
25.23103523 11.39793587 2.12385416
24.96424294 11.27203846 3.17408824
26.168787 11.68713856 4.371321201
25.66186333 11.47361565 5.412934303
25.7973156 11.49898815 6.546046734
26.03024483 11.60869026 1.053243518
25.00246048 11.20776844 2.112968445
24.87826729 11.13480091 3.163838863
25.80933571 11.44732189 4.326272488
25.70783997 11.38182449 5.413045883
25.96571922 11.4507513 6.569291115
24.65814018 10.97814465 2.098059654
24.951437 11.05525398 3.165213823
26.09143066 11.43892097 4.351923943
25.88046455 11.33491802 5.431889534
25.84437561 11.29315376 6.538423061
24.80802155 10.92082787 2.1005826
25.14103317 11.01653481 3.175054312
26.01535034 11.29670715 4.337964535
25.8662014 11.22130489 5.423223972
25.26738358 10.97657204 2.114162445
25.18362427 10.91968822 3.174059153
26.08329582 11.20553112 4.339880943
25.97303963 11.14445114 5.432106495
29.66458702 12.4125185 1.040630341
24.8771553 10.72365475 2.0975492
25.25228691 10.83179665 3.174988508
26.02306175 11.06995106 4.327829838
25.97092247 11.02389622 5.424702644
29.72909927 12.30528259 1.03884089
24.81853676 10.59317589 2.092813253
25.20909882 10.69985485 3.16769886
25.90385437 10.91503239 4.309437752
25.91968155 10.89265537 5.410531521
24.75746155 10.46257687 2.088040352
25.52871704 10.70216084 3.186953545
25.55768967 10.684865 4.26642704
25.85677338 10.76381111 5.395089149
24.64489555 10.32092571 2.081649303
25.56456375 10.60197449 3.185616255
25.70482445 10.62184906 4.277279377
26.00183296 10.69912243 5.409813881
25.66436768 10.54946613 2.114566326
25.5242691 10.47664165 3.178869724
25.36052895 10.39626694 4.234771729
26.31054878 10.68730354 5.448433399
26.0112896 10.55047894 2.124002457
25.37152863 10.31520271 3.164148569
25.80040359 10.43420315 4.27774334
26.39152908 10.59947109 5.453835964
25.68523979 10.33159351 2.110123634
26.64833069 10.62166595 3.251733541
25.66295433 10.27783394 4.257868767
26.57432747 10.54968357 5.474417686
26.32750511 10.43038845 2.129898548
26.60024452 10.49091053 3.244468451
26.02532578 10.28157997 4.292149067
26.96097565 10.51613045 2.149171352
26.63155365 10.38575745 3.242916822
26.49436951 10.31630516 4.337893009
25.56467628 9.978849411 6.403181553
26.3187561 10.19944572 2.124545336
29.08807182 11.03486061 3.413589954
25.98191071 10.04890347 4.277999401
27.13897324 10.38133907 5.537628174
26.34333038 10.0933075 2.122919798
34.62221909 12.61819744 3.802071095
26.21519852 10.00851917 4.298361778
26.30027008 9.988897324 6.523393631
26.41566086 10.00744438 2.123082876
26.25769615 9.934104919 3.205624819
30.35457993 11.1267271 5.990244865
27.20526505 10.1312294 2.14762187
34.70090103 12.35986614 3.798760891
30.36730003 11.00924778 5.985821724
29.87232399 10.81290436 2.236112833
34.12067032 12.04357147 3.753380299
35.17182922 12.32278252 5.244551659
29.80115318 10.66582489 2.231099367
34.2243576 11.93194866 3.756360054
29.84265518 10.55214024 2.229957581
34.1628418 11.77214909 3.747768641
41.08360672 13.6825676 0.9888310432
34.74651718 11.83486652 2.393409967
33.40797806 11.42246246 3.690794706
35.28513718 11.93368721 5.239855766
35.06783295 11.8197031 1.002426744
34.16882324 11.53514862 2.371221304
35.06090546 11.73280811 5.210597992
34.20188522 11.41006947 2.369724989
34.55533981 11.47860813 3.763462067
35.15018463 11.62072086 5.214857578
33.89133835 11.18344021 2.356584549
34.40719604 11.29577446 3.7490623
34.89355469 11.39921951 5.181853294
33.80924988 11.02136898 2.351196051
34.48938751 11.17661381 3.750831842
34.81075668 11.23402596 5.167738914
33.91379929 10.91012955 2.352110624
34.52493286 11.04466724 3.749400139
34.12239075 10.82581139 2.356532335
34.59476089 10.92173481 3.750411749
35.42060089 11.10966778 5.221957684
34.31537628 10.73613453 2.360450983
34.89597702 10.85855579 3.76755023
35.53888321 11.00344086 5.229587555
35.54799652 10.91184998 2.398974657
35.1645546 10.79220963 3.782617807
34.91619492 10.61465454 2.37560606
35.07879257 10.62766647 3.772959471
34.34268188 10.32967281 2.354169369
35.23469162 10.53119183 3.780284405
34.34262085 10.19692802 2.351935625
35.35536575 10.36983681 6.606348991
34.43305969 10.07932854 2.352616787
47.98180771 13.20436192 0.9492009282
34.94545364 10.06892014 2.367354631
48.19490051 13.00334263 4.658627987
49.0485611 12.8188982 4.708418369
59.10795212 14.94374275 0.9095830321
44.75669861 11.70138741 2.679814339
48.71968842 12.55380058 4.681504726
48.79111099 12.37928772 4.682154655
44.37360764 11.26637936 2.662168503
49.22087479 12.28188801 4.707396507
43.55305862 10.91745186 2.632967234
48.91857529 12.03578091 4.682825565
65.90079498 15.47947311 0.8820709586
43.60551453 10.76598358 2.632419109
49.10157013 11.88390732 4.691310883
44.46437836 10.80173969 0.9482508898
74.3361969 16.69989777 0.8520451188
45.03259277 10.52529716 4.403189182
44.26176071 10.0564518 2.642753124
44.77535248 10.13500118 4.379148483
23.94479179 6.133884907 3.946223736
23.89681625 6.113418579 4.92848587
23.88354492 6.062111378 1.010435939
23.89160347 6.052534103 1.98357904
23.91812515 6.041488647 2.960472584
23.93242455 6.028152466 3.942343235
23.89617729 6.010268688 4.925131321
23.90530586 5.967355251 1.009827733
23.92707253 5.960473061 1.983555913
44.87019348 9.650726318 2.656229734
51.69321823 10.8536644 4.838039398
51.60493469 10.71213913 0.9167377353
50.95727921 10.38062668 2.847952366
51.18701935 10.22471428 2.853239298
51.7538681 10.1335392 2.869465828
51.77043152 10.10647392 4.830511093
51.41479492 9.88060379 2.856630802
51.49093246 9.863801003 4.808559418
51.43901825 9.659615517 4.80205965
56.47343826 10.06624794 3.012372494
56.70270157 9.887059212 3.017782927
51.04835892 9.025301933 4.767446518
51.08814621 8.837558746 4.767476559
63.71879196 8.60248661 3.224395752
69.7975235 9.267562866 5.997936249
54.43836975 5.331953526 0.8930675387
54.51470947 5.327474117 2.924378395
54.5567131 5.31026268 4.963107109
84.76150513 4.610003948 0.7880738974
39.30854797 1.221044779 0.9529824853
39.29340744 1.07175386 0.9536145329
39.31774139 0.9300524592 0.9541073442
39.32358932 0.7807783484 0.9547208548
90.88565826 -4.839329243 4.113729477
90.86903381 -5.167944908 4.116383076
90.73757172 -5.488776684 4.115463257
35.97425079 -4.931323051 2.405924082
-5.061537743 -46.44916916 3.873034954
-5.227401257 -46.46484756 3.883512497
-5.142606735 -46.4475708 5.543721199
-5.392495632 -46.45799637 3.892699957
-5.31645155 -46.45426559 5.554676056
-5.229651451 -46.39836884 7.219861507
-5.153234482 -46.42143631 8.909538269
-5.557590008 -46.45056915 3.901884794
-5.482138157 -46.46070862 5.565174103
-5.402988434 -46.39443207 7.230009079
-5.318423748 -46.41780853 8.919371605
-5.157466412 -46.33184052 12.33513641
-5.067923069 -46.3253746 14.08835411
-5.120670319 -32.48675919 1.914762616
-5.722630978 -46.4425621 3.911064148
-5.647240639 -46.45264053 5.574357033
-5.035496712 -34.35303497 5.67651701
-5.483427048 -46.40966797 8.928547859
-5.395069122 -46.36454391 10.62508583
-5.314429283 -46.33568573 12.34661865
-5.233386993 -46.33637238 14.10282135
-5.237456322 -32.48873901 1.921429992
-5.88885498 -46.45790863 3.92166543
-5.804083824 -46.44444275 5.583077908
-5.159729481 -34.37431335 5.68695879
-5.649295807 -46.4206543 8.940986633
-5.560527802 -46.36950684 10.6370182
-5.000586987 -34.90651321 9.633913994
-5.397736073 -46.31594849 14.10879993
-5.34738636 -32.36653137 1.925027132
-6.055019379 -46.46868515 3.932034969
-5.978005886 -46.44670486 5.59384346
-5.281714439 -34.34761429 5.691215515
-5.815484524 -46.43499374 8.954083443
-5.733813763 -46.36362076 10.64743042
-5.653514862 -46.34617615 12.37234974
-5.563129902 -46.32192993 14.12220573
-5.479177475 -32.52902985 1.936036229
-6.229180336 -46.47238541 3.942506313
-6.143966675 -46.45281219 5.604530334
-5.414402485 -34.40725327 5.707171917
-5.989625931 -46.44035721 8.966334343
-5.899444103 -46.36935425 10.65975952
-5.81926918 -46.35562134 12.38614845
-5.73704195 -46.33065796 14.13713551
-5.61094141 -32.7652092 1.948645949
-7.468607426 -64.04145813 5.010143757
-6.318237782 -46.457798 5.615675926
-5.534660816 -34.34997177 5.707542419
-6.154726028 -46.42986298 8.975506783
-6.074053764 -46.38570404 10.6749258
-5.992877007 -46.35422516 12.39808655
-5.90337944 -46.35084915 14.15479946
-5.747163296 -33.1329422 1.964362741
-7.683899879 -64.03122711 5.022328854
-7.186486721 -57.93320084 6.721306801
-5.657578945 -34.44314194 5.727244854
-6.311864853 -46.42526627 8.985198975
-6.223716259 -46.39724731 10.68753338
-6.141982555 -46.35778809 12.40957928
-6.060835838 -46.35561371 14.16775703
-5.852607727 -32.93525696 1.966099739
-7.709002495 -61.05373764 4.855368137
-7.385034084 -57.81957245 6.723184586
-6.908026695 -54.88675308 12.4220171
-6.225469589 -46.3400116 14.17584515
-5.990619659 -33.20185852 1.97974503
-7.926958084 -61.06583786 4.869053364
-7.581702709 -57.68939209 6.723492622
-7.104225159 -54.89776611 12.43798447
-6.912251472 -54.856987 16.54813957
-5.002285957 -17.78296852 0.9344750047
-6.352371216 -36.36644363 2.068849325
-8.141173363 -61.0254097 4.879583836
-7.790644646 -57.59745789 6.728136539
-7.308817387 -54.88579941 12.45011997
-7.108035564 -54.86098862 16.56427002
-5.076248169 -17.88327599 0.937171042
-6.483794689 -36.29377747 2.07479763
-7.881097794 -54.94209671 4.520046234
-7.802342415 -55.07999802 6.498269081
-7.711223125 -55.06877518 8.47933197
-7.505497456 -54.89929581 12.46688843
-7.304264069 -54.87005615 16.58200073
-5.140485287 -17.86375237 0.9409198165
-6.620933533 -36.45087433 2.086047649
-8.076705933 -54.93775177 4.531576633
-7.987596035 -54.94058228 6.49720192
-7.883392334 -54.88512802 8.467423439
-7.795205116 -54.92075729 10.46732426
-7.689046383 -54.86603928 12.47355652
-7.60520792 -55.0002594 14.55023098
-7.500087261 -54.87075043 16.59760094
-5.196989536 -17.76035881 0.9453539848
-6.752482891 -36.455513 2.093690157
-8.274748802 -54.9605751 4.544824123
-8.173206329 -54.93235016 6.508226871
-8.079857826 -54.89179611 8.481348038
-7.989559174 -54.89968872 10.477458
-7.881402493 -54.82152939 12.47875595
-7.784967899 -54.7852211 14.51340485
-7.690163136 -54.79387665 16.59181786
-5.263522148 -17.77029228 0.9488298893
-6.934603214 -37.01720428 2.116277456
-8.471565247 -54.96678543 4.557095051
-8.369909286 -54.93847275 6.521328449
-8.275238991 -54.88393402 8.493442535
-8.184784889 -54.88973618 10.48956776
-8.07767868 -54.82714462 12.49432278
-7.98234129 -54.80610657 14.53352165
-7.883391857 -54.76247025 16.59884453
-5.330328465 -17.78197098 0.9522935748
-7.092603683 -37.27949142 2.131020546
-8.668144226 -54.96832275 4.569123268
-8.568177223 -54.95975113 6.535976887
-8.472712517 -54.89908218 8.50867939
-6.908526421 -38.05970001 7.666733742
-8.273192406 -54.82230377 12.50789261
-8.178590775 -54.81077576 14.54990387
-8.079174995 -54.76304626 16.61495972
-5.400874615 -17.82923126 0.955485642
-7.25420475 -37.55904007 2.146351337
-9.738260269 -64.06576538 5.147951126
-8.77449894 -54.95953751 6.549239159
-6.73304987 -34.00048828 5.742217064
-7.037225246 -37.96774292 7.660998344
-8.482489586 -54.86068344 12.53120327
-8.385168076 -54.81959534 14.56823158
-8.277332306 -54.78980255 16.63857651
-5.466141224 -17.8225193 0.9591009021
-7.400788307 -37.60250854 2.155730009
-9.969036102 -64.08654022 5.163227081
-9.863771439 -64.07270813 7.45304966
-6.861774445 -33.99733734 5.750609398
-8.773060799 -54.88326645 10.53052711
-8.67857933 -54.85831451 12.54557896
-8.579538345 -54.79960632 14.57899761
-8.473659515 -54.79281998 16.65576935
-5.530295849 -17.80563927 0.9627862573
-7.555306911 -37.84768295 2.169927359
-10.19801998 -64.08663177 5.177268028
-10.08984852 -64.04493713 7.465204716
-6.988367081 -34.09563446 5.771759033
-9.864394188 -64.00928497 12.08992386
-8.867999077 -54.88750839 12.56583023
-8.767758369 -54.8187027 14.59859657
-8.667584419 -54.76828384 16.66545677
-5.593698025 -17.78257751 0.9665086269
-7.689275742 -37.82316208 2.177128315
-10.42708397 -64.08591461 5.191309929
-10.30785084 -64.04929352 7.479836464
-10.2007618 -64.02609253 9.783169746
-10.09391022 -64.01597595 12.10777855
-5.666830063 -17.84472847 0.9696277976
-7.847963333 -38.02070999 2.190554619
-10.65619564 -64.08439636 5.205351353
-10.53725052 -64.05164337 7.495096207
-7.219302177 -33.94642639 5.768889904
-10.3223505 -64.01006317 12.12364006
-5.025092125 -11.73326588 0.5704545975
-5.733085632 -17.84502983 0.9731877446
-8.001214981 -38.15803528 2.202376604
-10.88583851 -64.08602905 5.219645023
-10.76940918 -64.0769043 7.512701035
-7.337743282 -33.90476227 5.771909237
-10.55595112 -64.05040741 12.1475029
-5.075755119 -11.78151894 0.570654273
-5.810337543 -17.93442726 0.9761615396
-8.150543213 -38.2530632 2.213068247
-11.11653996 -64.09476471 5.234446526
-10.99843884 -64.07167053 7.527383804
-7.721349716 -36.19477463 6.088535786
-7.867249966 -38.03435898 7.732679844
-7.997559071 -39.86065674 9.522325516
-5.119679451 -11.77407074 0.573179841
-5.885233402 -17.99970055 0.9793223143
-8.280667305 -38.18481064 2.21913743
-11.34688473 -64.09873199 5.248999596
-7.8825984 -35.94482422 4.753574371
-7.844217777 -36.12373734 6.088261604
-11.00969219 -64.00318146 12.17388821
-8.274044991 -41.02264023 9.774249077
-5.159933567 -11.73873043 0.5768514872
-5.956744194 -18.03492928 0.9826926589
-8.434360504 -38.30654144 2.23067379
-11.578372 -64.10979462 5.264064789
-7.929253101 -35.26086807 4.694304466
-7.958304405 -35.98342514 6.078663349
-8.344177246 -39.72338104 8.042134285
-8.401508331 -40.84452438 9.749277115
-5.208236217 -11.76465797 0.5779790878
-6.024168491 -18.06239891 0.9859423041
-8.595095634 -38.47525406 2.243639469
-11.79841518 -64.11953735 5.278380871
-8.083171844 -35.46567535 4.723308086
-8.072445869 -35.85063171 6.070075035
-7.678703785 -33.18087387 6.932844162
-5.260828495 -11.83622932 0.5771260858
-6.078598976 -17.96829796 0.9900898337
-8.863335609 -39.49640274 2.281208992
-12.02712154 -64.10523987 5.291926384
-11.91935921 -64.07620239 7.589461327
-8.240157127 -36.19418335 6.12555027
-7.791378975 -33.11606216 6.931027889
-5.312770844 -11.88353729 0.5773932338
-6.158223152 -18.05824852 0.9931634665
-9.055403709 -39.85359192 2.300069332
-12.26006889 -64.1217804 5.307515621
-12.14215565 -64.10398102 7.607077599
-8.370247841 -36.1823616 6.133495331
-8.240685463 -35.64940643 7.375340462
-5.363564968 -11.90461063 0.578849256
-6.227689743 -18.07264709 0.9966820478
-9.18356514 -39.73475647 2.304977655
-12.4937849 -64.14144135 5.323370457
-12.38547993 -64.1100235 7.624177456
-8.487332344 -36.07382202 6.12834692
-8.367878914 -35.62948608 7.382044315
-5.4111166 -11.9179039 0.5805110335
-6.303816319 -18.10806274 1.00027585
-9.518672943 -41.0115509 2.351965666
-12.73743439 -64.1467514 5.339090347
-12.61373901 -64.08921814 7.637879848
-9.113648415 -39.59600067 6.61845541
-8.660552025 -36.7703743 7.589295387
-8.548429489 -36.45102692 8.893615723
-8.227430344 -34.97738647 11.25737286
-5.072227478 -9.280475616 0.3286782503
-5.461327553 -11.93266106 0.5822225809
-6.373635292 -18.12192535 1.003811955
-12.96814919 -64.14098358 5.353413105
-12.85643578 -64.08757782 7.654388428
-8.548686028 -34.60868835 5.948159695
-8.778741837 -36.65718842 7.580378056
-8.354580879 -34.05049515 8.40376091
-8.346122742 -34.91101456 11.25076008
-5.111203671 -9.308846474 0.3280049562
-5.510272503 -11.96765518 0.5828998089
-6.439601898 -18.10983658 1.007478714
-13.19956112 -64.13834381 5.367997169
-8.539960861 -33.30220032 4.557479382
-8.629613876 -34.29575729 5.914748669
-12.86333275 -64.07125092 12.32903862
-8.483072281 -34.12207031 8.428816795
-8.760118484 -36.51124191 10.31147289
-5.153752327 -9.34663868 0.3266974986
-5.561094761 -11.99816608 0.5838727951
-6.511778831 -18.13702583 1.010957479
-13.43224716 -64.14277649 5.38310194
-8.653530121 -33.24636459 4.560267925
-9.052002907 -36.28391266 6.196634293
-9.466231346 -39.49927902 8.093804359
-8.620741844 -34.20964432 8.457889557
-8.883387566 -36.44089127 10.30634403
-8.131346703 -31.61118507 10.33788395
-5.202431202 -9.419678688 0.3227374852
-5.612791061 -12.03242302 0.5847005248
-6.592974663 -18.23950577 1.013926506
-13.65500546 -64.15605164 5.398108482
-8.778035164 -33.26292038 4.570429802
-9.469770432 -38.14795303 6.46260643
-8.967559814 -35.29129028 7.375246525
-9.062098503 -36.32445526 8.912587166
-9.011097908 -36.44807053 10.31981182
-8.21407795 -31.42251587 10.29505157
-5.243531227 -9.455432892 0.3215153217
-5.672682762 -12.12795734 0.5829924941
-6.660554409 -18.25482941 1.017308712
-14.01040649 -64.2752533 3.114205599
-13.88107967 -64.18829346 5.414427757
-8.902019501 -33.31341553 4.583673
-8.983428001 -34.18747711 5.927698612
-9.079610825 -35.22118378 7.373060703
-9.209375381 -36.46118546 8.952340126
-9.106131554 -36.23772812 10.27962494
-8.331150055 -31.47167015 10.31993771
-5.286917686 -9.502822876 0.3194219172
-5.728208065 -12.19368362 0.5824884176
-6.71732378 -18.18454742 1.021232128
-14.22615528 -64.23973083 3.12610054
-14.11112309 -64.170578 5.428243637
-9.03370285 -33.40863419 4.601548672
-9.100878716 -34.17606735 5.935184479
-9.49973774 -37.06157684 7.703793049
-9.541675568 -37.77553558 9.240123749
-8.650592804 -32.43006516 9.349651337
-8.454534531 -31.52133942 10.3456974
-5.323837757 -9.500612259 0.3211245239
-5.780318737 -12.22335052 0.5835297108
-6.789580822 -18.20674133 1.024764419
-14.46576023 -64.27645111 3.140958071
-14.34185886 -64.15597534 5.442320347
-9.17173481 -33.50037384 4.619589329
-9.333646774 -34.83208466 6.035390854
-10.07993698 -39.80996704 8.193915367
-9.437107086 -36.25419235 8.931697845
-8.703424454 -32.00927734 9.256661415
-8.571193695 -31.52490044 10.35844707
-5.36750412 -9.525440216 0.3208727241
-5.834065437 -12.26068211 0.5842751861
-6.854424953 -18.18532562 1.028469205
-14.70166683 -64.2886734 3.155086994
-14.57530212 -64.15628815 5.457449913
-8.995790482 -31.72354698 4.446073055
