# .PCD v0.7 - Point Cloud Data file format
VERSION 0.7
FIELDS x y z
SIZE 4 4 4
TYPE F F F
COUNT 1 1 1
WIDTH 1265
HEIGHT 1
VIEWPOINT 0 0 0 1 0 0 0
POINTS 1265
DATA ascii
-6.210115433 -20.17038345 0.4062279165
-14.26268291 -45.10809326 1.534151673
-14.17779636 -45.1412468 3.157739878
-14.20026398 -45.16393661 4.789597988
-13.09372044 -41.69567871 5.987944126
-13.18795204 -41.88190842 10.66370296
-6.240674973 -20.03644943 0.4085196853
-14.43614101 -45.11697006 1.535306454
-14.35325813 -45.15602112 3.161373615
-14.37287903 -45.16892624 4.7947402
-13.24941254 -41.68919754 5.99315834
-13.35064125 -41.89271927 10.67771721
-6.304216385 -20.00508308 0.4087691605
-14.60356045 -45.1061821 1.536121011
-14.51903343 -45.13974762 3.163358212
-14.54570484 -45.17325974 4.799864292
-13.41017723 -41.69721985 6.000283718
-13.50319576 -41.87142181 10.68411064
-6.418910027 -20.12713814 0.4059604108
-14.77742195 -45.11373138 1.537238479
-14.68990326 -45.13801193 3.166139364
-14.72062206 -45.18259048 4.805484295
-13.56740475 -41.69330978 6.005945206
-13.6594677 -41.86065292 10.69316959
-6.490379333 -20.11790466 0.4057418108
-14.95087147 -45.11870575 1.538304925
-14.8615799 -45.13752747 3.169003963
-14.89133644 -45.17802429 4.809884071
-13.72603703 -41.69256592 6.012072086
-13.82331085 -41.87146759 10.70757866
-6.554102898 -20.08569908 0.4059668481
-15.12000561 -45.10977173 1.539127469
-15.03535652 -45.1420517 3.172155142
-15.05898952 -45.16337585 4.813407421
-13.88994503 -41.70624924 6.020109177
-14.02092171 -42.0011673 9.166838646
-13.98614025 -41.87794113 10.72107506
-6.63074398 -20.09108353 0.4054305851
-15.28860855 -45.09829712 1.539898872
-15.20674992 -45.13834381 3.174879789
-15.23126411 -45.16128159 4.818112373
-14.04377937 -41.68925095 6.024272442
-14.18051624 -41.99622345 9.17599678
-14.14982128 -41.88563156 10.73500156
-6.678474903 -20.01310349 0.4065422416
-15.4658947 -45.11072922 1.541069508
-15.37830257 -45.1339798 3.177585602
-15.40567112 -45.16417313 4.823313236
-14.20092869 -41.68104935 6.029623032
-14.33313274 -41.97027206 9.180968285
-14.30345249 -41.86323166 10.74175549
-6.75705719 -20.02363968 0.4058767557
-15.63107395 -45.11199188 1.541995049
-15.55066967 -45.13084793 3.180374384
-15.57717228 -45.18227386 4.829695225
-14.36347389 -41.68723297 6.036884785
-14.49160004 -41.9833374 9.193498611
-14.46683407 -41.86782837 10.75519848
-14.56298637 -42.07190704 14.07352829
-6.790765285 -19.91829681 0.407536447
-15.8061657 -45.11553192 1.542999744
-15.72015762 -45.14296341 3.183856726
-15.74402332 -45.16128922 4.832799911
-14.52623272 -41.69278336 6.044128895
-14.65423012 -41.9839859 9.204119682
-14.6225729 -41.87252808 10.76817703
-14.67213345 -41.96574783 12.40800667
-14.7247448 -42.06716537 14.08866882
-6.86517334 -19.9170723 0.4070804417
-15.97671318 -45.10522842 1.54376018
-15.89290428 -45.13851166 3.186607838
-15.91698837 -45.15655518 4.837429523
-14.68340492 -41.70399857 6.051837921
-14.81504822 -41.97846603 9.213585854
-14.78239727 -41.86487198 10.77890205
-14.88730431 -42.06359863 14.10437489
-6.886722565 -19.76033211 0.409701854
-14.98066425 -41.90118408 1.489811778
-16.06785965 -45.13902283 3.189645767
-16.09556198 -45.16614532 4.843412876
-14.84288883 -41.67583847 6.055189133
-14.97869968 -41.979702 9.224549294
-14.95355797 -41.86496735 10.79229164
-15.04936504 -42.05760956 14.11948013
-6.997440338 -19.85813904 0.4072341323
-16.33350372 -45.10044098 1.545573831
-16.24522781 -45.12101746 3.191846371
-16.27732658 -45.15908432 4.848173141
-15.00482273 -41.67576599 6.061897278
-15.14295769 -41.95921326 9.231702805
-15.11367416 -41.85604858 10.80298042
-15.21815968 -42.04651642 14.13398266
-7.064886093 -19.83737564 0.4071294963
-15.31074047 -41.89222717 1.491401792
-16.42190933 -45.12389374 3.195048094
-16.45290565 -45.15789795 4.85325861
-15.17109776 -41.68622971 6.070034027
-15.31378746 -41.97756577 9.246418953
-15.27800274 -41.85746765 10.81633472
-15.38988113 -42.06433487 14.15719986
-7.093468189 -19.71346283 0.4090873003
-16.68615532 -45.10320663 1.547439694
-16.60021591 -45.12982559 3.198434591
-12.91955185 -35.28490448 3.950325251
-15.33622742 -41.69231796 6.077670097
-15.48216438 -41.98787308 9.259601593
-15.45421791 -41.88925171 10.83727264
-15.55245018 -42.05640411 14.17224979
-7.171113491 -19.72038078 0.4084014297
-15.63501644 -41.88524246 1.492953777
-16.78159904 -45.14251328 3.202209234
-12.90819454 -34.89301682 3.918334246
-15.49876785 -41.69032288 6.08432436
-15.63891792 -41.96630859 9.26632309
-15.63432217 -41.92940903 10.86042881
-15.71583462 -42.0496254 14.1878624
-7.257518291 -19.74938202 0.4072555602
-16.95469093 -45.13209534 3.204741001
-13.01490784 -34.81602478 3.915324926
-13.19536209 -35.26540375 5.255871296
-15.80699825 -41.97348022 9.279088974
-15.80998993 -41.95607758 10.88043594
-15.86903667 -42.01543427 14.19472599
-7.342036724 -19.77241325 0.4062137902
-15.95485687 -41.8626709 1.49420774
-17.12503052 -45.11355209 3.206845284
-17.16070938 -45.15557861 4.874262333
-15.82724285 -41.69182587 6.09854269
-15.98038769 -41.96749496 10.89684677
-16.01106834 -41.95216751 14.19225788
-7.381098747 -19.68843651 0.4073523879
-17.38768578 -45.10715866 1.551009178
-17.29572868 -45.11784744 3.210059166
-17.33749962 -45.17437744 4.881145
-15.97738838 -41.67591858 6.103221893
-16.16736984 -42.04092407 10.92800522
-16.14983559 -41.90193176 14.19327164
-7.422944069 -19.60310936 0.4084796906
-17.56920242 -45.1149559 1.552011371
-17.47584152 -45.12215805 3.213449955
-14.13180447 -36.61988068 4.094578743
-16.14497375 -41.68248749 6.111250401
-16.30132866 -41.86258698 14.19891644
-7.489588261 -19.58082581 0.4083179832
-17.73907089 -45.09233475 1.552479625
-17.65397072 -45.12018967 3.216515064
-13.83883476 -35.52481461 3.997497797
-13.74846363 -35.27685165 5.281135082
-13.90763187 -35.63498688 6.660065651
-16.45417023 -41.82624435 14.2057085
-7.596968174 -19.64965248 0.4062583148
-17.91951561 -45.09501648 1.553377748
-17.83678246 -45.12862778 3.220171213
-13.54882526 -34.45811081 3.902812481
-16.50735855 -41.73857498 6.133505344
-13.60854435 -34.54564667 6.483747959
-16.61416054 -41.80706024 14.21830177
-7.672132492 -19.64710999 0.405664444
-18.11017799 -45.09936142 1.554339051
-14.31171036 -36.01615143 2.721641302
-13.69610405 -34.4671669 3.908111572
-14.16008186 -35.58166504 5.333780766
-13.71740246 -34.45876312 6.477353096
-16.78069878 -41.78254318 14.23028183
-7.695424557 -19.51860619 0.4076268673
-17.1662674 -42.38249207 1.507991195
-14.13552666 -35.24005508 2.681404352
-13.84687042 -34.50011444 3.915462017
-13.58054161 -33.83222961 5.110458851
-14.15321541 -35.18116379 6.608012676
-16.99925613 -42.02653885 9.372479439
-16.98538971 -41.96561813 10.98105717
-17.02298164 -42.00845337 12.64204979
-16.94961548 -41.78331757 14.24982262
-7.789556026 -19.56178093 0.4060733914
-17.16906929 -41.98282242 1.50181973
-14.24087334 -35.15541077 2.67925477
-9.259026527 -23.14690399 2.861381531
-13.71719551 -33.83579636 5.116996765
-17.09229279 -41.89151001 7.757259369
-17.08304787 -41.82167053 9.341906548
-17.07105637 -41.76540375 10.94591331
-17.09749603 -41.78075027 12.59338093
-17.14313316 -41.84165573 14.28854942
-7.893403053 -19.62663841 0.4040578902
-17.18639374 -41.62417984 1.496340394
-9.220811844 -22.86388206 2.002076149
-9.320587158 -23.07580757 2.857630014
-14.32207394 -34.95153427 5.270001888
-17.19224739 -41.72755814 7.739305496
-17.21824646 -41.74158096 9.337457657
-17.22978783 -41.7411232 10.95457363
-17.25408745 -41.7506485 12.60184956
-17.30746651 -41.82864761 14.30397797
-7.933574677 -19.54012489 0.4051288366
-9.202572823 -22.50670624 1.163991928
-9.295167923 -22.82601547 2.001613617
-14.65365124 -35.44141006 4.016308784
-14.32328606 -34.62341309 5.233137131
-17.3600769 -41.72524261 7.748929977
-17.37439156 -41.7309494 9.34702301
-17.4053669 -41.7556839 10.97305202
-17.43570328 -41.77862167 12.62729073
-17.47372246 -41.83918762 14.3263855
-7.990528584 -19.50271988 0.4052177966
-17.50821114 -41.6109848 1.497563601
-9.251612663 -22.52326202 1.986386776
-14.48644257 -34.71773911 3.95311904
-14.42411613 -34.53292084 5.227578163
-14.81690407 -35.42497635 6.682710648
-17.55178452 -41.74914169 9.363372803
-17.56637764 -41.75469971 10.98705578
-17.59677696 -41.77696609 12.64346027
-17.63685608 -41.82136917 14.3406105
-8.056124687 -19.47658157 0.4050272107
-17.67569351 -41.60832214 1.498251557
-17.60697556 -41.65559387 3.050244331
-9.227796555 -22.23594284 2.787523746
-14.7678299 -35.02045441 5.298137665
-17.68759537 -41.71805954 7.76751852
-17.72169876 -41.74856949 9.375915527
-17.72544098 -41.72852325 10.99565983
-17.77370644 -41.79108047 12.66525936
-17.81077194 -41.82748032 14.36296463
-8.114439964 -19.42498207 0.4053114653
-17.84978867 -41.61963654 1.499176264
-12.93863297 -30.56496429 2.436738729
-17.79455185 -41.64975357 4.61290884
-14.75086594 -34.64031219 5.254715443
-17.85599518 -41.71375275 7.777086258
-17.89182663 -41.74731827 9.388439178
-17.91050529 -41.74144745 11.01495743
-17.95037842 -41.78359222 12.68187046
-17.98649979 -41.83638 14.38646412
-8.191908836 -19.42583656 0.4045367837
-18.0207653 -41.60332108 1.499646664
-15.39885902 -35.85470963 2.733625174
-14.83443356 -34.53395081 3.9496665
-14.88339806 -34.62116241 5.258744717
-18.03253937 -41.70741653 7.786925316
-18.06775093 -41.73860931 9.400166512
-18.08083725 -41.7389183 11.02978134
-18.11613274 -41.76972198 12.69590664
-18.1627388 -41.82561874 14.40468597
-8.260516167 -19.40628815 0.4041694999
-18.18720818 -41.59494781 1.500212312
-13.22873878 -30.64674377 2.445948839
-14.97147655 -34.52555847 3.95346117
-15.35134125 -35.35412598 5.362704277
-15.39758205 -35.41693115 6.716809273
-18.23348045 -41.72519684 9.410377502
-18.25136566 -41.73569107 11.04458523
-18.28912163 -41.77107239 12.71455765
-18.33584595 -41.82608032 14.42581749
-8.263366699 -19.24064064 0.4068222046
-18.35710144 -41.59320068 1.50088644
-13.28189087 -30.48736763 2.439347029
-12.92587376 -29.66026497 3.499317169
-12.95694923 -29.70868492 4.618723869
-12.96620178 -29.6949749 5.741337299
-18.40902328 -41.73260498 9.425113678
-18.42530632 -41.73888397 11.06115818
-18.46234131 -41.77171326 12.73318768
-18.52258873 -41.85546875 14.45682144
-8.342154503 -19.24447823 0.405947268
-18.53300095 -41.60349655 1.501764417
-13.38190746 -30.43350792 2.438633919
-12.85765362 -29.2428894 3.463889122
-13.03234577 -29.60711479 4.610958576
-13.0450449 -29.60080528 5.732666492
-18.58403587 -41.73750305 9.439452171
-18.61969566 -41.78572083 11.08888817
-18.73361015 -41.93627548 14.50526142
-8.401880264 -19.20619392 0.4059349895
-18.69918251 -41.59126282 1.502239943
-13.46592903 -30.34480095 2.435975552
-12.83147335 -28.92418098 3.437708616
-13.37848091 -30.09739876 4.682155609
-13.15139771 -29.56749535 5.734520912
-18.90619278 -41.93095398 14.52516842
-8.494055748 -19.22973824 0.4045770168
-21.38375664 -47.00804138 1.598150373
-13.56623459 -30.29213715 2.435338259
-13.55807209 -30.23937798 3.566222429
-13.51330185 -30.10749817 4.689751148
-13.37889194 -29.79556656 5.781607628
-19.09430122 -41.95789337 14.55611038
-8.555360794 -19.19457245 0.4044715762
-13.56177235 -30.00138664 2.421455622
-13.44417 -29.71448898 3.520807266
-13.55841827 -29.93769264 4.673035145
-13.45007324 -29.67097855 5.768230915
-19.26893234 -41.93559647 14.57187748
-8.639565468 -19.2080307 0.4033334851
-13.48827171 -29.58148766 2.400163651
-13.24694729 -29.03452492 3.460335732
-13.6583643 -29.88646698 4.672194958
-13.73975754 -30.02396202 5.837281227
-19.43970871 -41.9229126 14.58997726
-8.683561325 -19.13627052 0.4039710462
-13.5276165 -29.40607452 2.392585039
-13.31537533 -28.9250412 3.453982592
-13.54666996 -29.39022064 4.611651421
-19.62219238 -41.93370438 14.61620235
-8.735819817 -19.08245087 0.4042214453
-13.53743172 -29.17128563 2.381644487
-13.44522762 -28.9447937 3.459946871
-13.5931406 -29.23165131 4.5963521
-13.67079258 -29.35884666 5.737689972
-19.80001259 -41.93338776 14.63891602
-8.823575974 -19.10225868 0.4029050767
-13.20426083 -28.22997665 2.330783844
-13.62831402 -29.0734024 3.476340055
-13.59454346 -28.98196793 4.568769455
-13.79380322 -29.35878944 5.745660782
-19.97974205 -41.93577194 14.66277122
-8.920362473 -19.13964081 0.4011983573
-13.26730633 -28.11725044 2.326641083
-13.76876259 -29.11153412 3.484156609
-13.6832552 -28.91459656 4.565723419
-14.04197884 -29.61381912 5.798222065
-13.81067371 -29.10617828 6.840538979
-20.1572113 -41.93225479 14.68486214
-8.960000038 -19.06000519 0.4019570053
-13.36145782 -28.06894875 2.326142073
-13.70365429 -28.73071289 3.451908588
-14.0402317 -29.3919239 4.636284351
-14.19682026 -29.67431259 5.817000866
-13.85398579 -28.94489861 6.815896034
-20.33320427 -41.92456818 14.70576859
-9.035725594 -19.05371284 0.4011463821
-13.67472076 -28.46226883 2.350696325
-13.79208279 -28.66478729 3.449775934
-14.1249361 -29.31239128 4.631762028
-14.25892258 -29.54658127 5.802934647
-13.98305798 -28.95767784 6.828712463
-20.51281738 -41.92300034 14.72897911
-9.090876579 -19.00601387 0.4012038708
-23.15452003 -46.95650101 1.603857398
-5.995458603 -12.88003826 1.467938066
-13.89272022 -28.6235218 3.450026274
-14.79318714 -30.39686394 4.78501749
-13.706707 -28.19687843 5.574563026
-14.1317997 -29.00849724 6.849840164
-20.69267654 -41.92068481 14.75217056
-9.159358978 -18.98490524 0.4006811678
-23.21203232 -46.67209244 1.599500775
-6.080498695 -12.94460678 1.472614169
-13.9410944 -28.47874832 3.440341711
-14.19548893 -28.95949364 4.596466541
-13.82558727 -28.19453239 5.582170963
-20.89092827 -42.05706406 11.36364079
-20.87986183 -41.98353577 13.0548048
-20.88492203 -41.94149017 14.78348351
-9.19778347 -18.90477753 0.4014104605
-23.27511978 -46.40208435 1.595382571
-14.91385651 -30.18454933 2.455734491
-14.42494965 -29.18961906 3.513088226
-14.42277145 -29.16254616 4.630387306
-13.98867702 -28.27790451 5.604936123
-20.96604347 -41.88144302 9.656510353
-21.05922318 -41.92570496 14.80256176
-9.331428528 -19.00250626 0.3982563913
-14.65793133 -29.31148911 1.292379856
-14.70213223 -29.52108955 2.420367241
-14.46734142 -29.02915382 3.502002716
-14.47573662 -29.01051331 4.61641407
-14.09820747 -28.25509071 5.609108925
-21.23279572 -41.90750885 14.82103539
-9.36126709 -18.90598869 0.3993134201
-14.75239372 -29.25129128 1.291718006
-14.68939304 -29.23998451 2.406870365
-14.50143909 -28.85458565 3.4895401
-14.3956604 -28.61610413 4.569037914
-14.29733086 -28.39238548 5.642032623
-21.42333412 -41.92082977 14.85053921
-6.348950386 -13.01438713 0.5257140994
-14.78340149 -29.19108391 2.406385899
-14.51602364 -28.64481163 3.473650217
-14.11674213 -27.84799004 4.470460415
-14.36776829 -28.30441856 5.634438038
-21.61601639 -41.93671417 14.88118267
-6.407960892 -13.0239954 0.5247983336
-23.50774384 -45.31627274 1.578644395
-15.37390995 -30.07227135 2.459332705
-14.46235847 -28.30839348 3.445447922
-14.31299019 -28.00282288 4.497624397
-14.46011734 -28.24694824 5.632688522
-21.79560852 -41.92640305 14.90308285
-9.549052238 -18.80707359 0.3983065188
-6.349522591 -12.79783154 0.9996361732
-15.55451202 -30.16654587 2.46728301
-6.280675888 -12.70375919 1.934021473
-14.43033981 -27.98334885 4.501646519
-14.58292866 -28.24670601 5.641139507
-21.97720718 -41.9187088 14.92612362
-9.510074615 -18.58522606 0.4020628631
-6.409965038 -12.81081676 1.000029922
-6.482959747 -12.99190998 1.482630968
-14.41164398 -27.75536537 3.400485039
-6.239560604 -12.51356792 2.382813931
-15.3482666 -29.42833519 5.860263824
-22.16084099 -41.91362381 14.95030499
-9.55524826 -18.52901649 0.4022625089
-23.28089523 -43.79523468 1.553307414
-6.533512592 -12.98965931 1.483514428
-14.30540371 -27.33504295 3.363906622
-14.3085413 -27.30737305 4.421531677
-14.92892265 -28.42875862 5.69079113
-22.34472084 -41.90776062 14.97446537
-9.603216171 -18.47102356 0.4024374485
-23.17702293 -43.25061035 1.544145942
-6.572851658 -12.96150398 1.4829638
-14.36536407 -27.22539902 3.357557535
-14.3744669 -27.21959305 4.41549015
-14.98937607 -28.31043625 5.678466797
-22.54357719 -41.92794418 15.00790501
-9.656844139 -18.41648102 0.4024710059
-23.2715683 -43.07316971 1.541526556
-15.02411842 -28.23963356 2.366359472
-14.45739174 -27.17502213 3.357003927
-14.45682049 -27.14052582 4.411304951
-15.17036247 -28.41178131 5.705416203
-22.72523117 -41.91543579 15.03027534
-6.414438248 -12.44045162 0.533138454
-6.355922699 -12.32064438 0.9918940663
-6.344339848 -12.34636688 1.449597597
-14.66214848 -27.31691551 3.37552762
-15.15422535 -28.17978477 4.561542034
-15.28505325 -28.37999344 5.709120274
-22.92177963 -41.91151047 15.05723
-6.466358185 -12.43894482 0.5324198604
-6.407486916 -12.31931973 0.9920148849
-6.393071651 -12.33982944 1.450255156
-23.27962112 -42.4982872 4.869908333
-16.14726639 -29.72896576 4.783026695
-13.04994488 -24.16949081 4.962627411
-23.09363937 -41.98716736 11.57719994
-23.09916687 -41.88908005 15.07665062
-9.86900425 -18.36672783 0.4001506269
-23.31645012 -42.11122131 1.52592063
-6.33298254 -12.13993359 1.439698458
-15.79068089 -28.88677597 3.538826227
-16.28625298 -29.73972702 4.79173708
-13.10718155 -24.08065796 4.954369068
-23.20783997 -41.88936234 9.852350235
-23.17073822 -41.7871933 11.54502296
-23.20519447 -41.79423904 13.2920332
-23.2388649 -41.79935837 15.07280254
-9.918943405 -18.313097 0.4001713693
-23.32738113 -41.79683304 1.520789623
-6.39787674 -12.16290092 1.442064404
-15.82052994 -28.7118969 3.526410818
-23.24565887 -41.72797394 6.466622829
-13.17178631 -24.00544357 4.948575497
-23.30105972 -41.71910095 9.83174324
-23.32118416 -41.71753693 11.54719162
-23.36253357 -41.73602676 13.29827213
-23.42673302 -41.79385376 15.09857273
-9.994521141 -18.30441093 0.3991787136
-23.37627792 -41.55222321 1.516894698
-15.9212389 -28.69836235 2.405644655
-15.91180706 -28.64605904 3.524731874
-23.38461876 -41.63951492 6.464697838
-13.31086349 -24.06026077 4.966265678
-23.47369957 -41.68826675 9.842107773
-23.50549126 -41.70645523 11.56495857
-23.55451393 -41.73748779 13.32299137
-23.62059975 -41.79748154 15.12780666
-10.08318043 -18.31790543 0.3976730406
-23.56115913 -41.54478073 1.517243743
-16.02528191 -28.6546936 2.405683041
-16.17736435 -28.88181305 3.552876711
-23.56103706 -41.6158905 6.471871853
-15.78552151 -28.14411354 5.712434292
-23.66514015 -41.68900681 9.859630585
-23.70372009 -41.71818161 11.5889473
-23.7390213 -41.72475433 13.34357738
-23.80322647 -41.78041458 15.15004444
-10.14585209 -18.28609657 0.3971653879
-23.75636292 -41.55382156 1.517880678
-16.17544365 -28.69004631 2.410345316
-16.82709122 -29.77199364 3.64593792
-13.41310501 -23.89394379 4.003584385
-13.32553291 -23.71397209 4.91939497
-23.85886002 -41.6923027 9.877885818
-23.88459206 -41.69874954 11.60488415
-23.94524193 -41.74790192 13.37544537
-24.00152779 -41.78898239 15.18155766
-10.20538044 -18.2488842 0.3967658877
-23.94582558 -41.55164337 1.518308043
-16.25831413 -28.60926247 2.408238649
-12.66093636 -22.45054245 2.924887657
-13.51070309 -23.87597847 4.007082462
-13.37340546 -23.61269379 4.908930779
-24.05090523 -41.69135284 9.8953619
-24.07751274 -41.69869995 11.62615108
-24.13618088 -41.74349213 13.39906693
-24.19726562 -41.79171753 15.2113018
-10.2657938 -18.21319008 0.3963196278
-24.13760185 -41.55208206 1.518774271
-16.40691948 -28.63998985 2.412667513
-12.74947357 -22.42844772 2.926549673
-13.36634064 -23.44939804 3.953255415
-24.18475533 -41.64507294 8.195549011
-24.25326729 -41.70645142 9.916591644
-24.27072525 -41.69779968 11.64739418
-24.32838058 -41.7399025 13.42317963
-24.39920425 -41.80345154 15.24450874
-10.33941841 -18.19959641 0.3953593075
-24.32043076 -41.53623581 1.518939376
-24.25441933 -41.58210373 3.174783707
-12.81042767 -22.35980034 2.923602104
-13.45952797 -23.42636681 3.956020832
-13.04748154 -22.70798683 4.760093212
-24.43887711 -41.6919899 9.931376457
-24.4642334 -41.69604492 11.66861248
-24.51189995 -41.72057343 13.44264603
-24.59462738 -41.8027916 15.27362537
-10.40068817 -18.1651516 0.3948574662
-24.51377487 -41.53672791 1.519390106
-24.44172668 -41.57247543 3.178129435
-13.45774364 -23.26593018 3.017873049
-24.52582169 -41.62110138 6.526349068
-13.107584 -22.63510323 4.754566193
-24.62772369 -41.68177414 9.947271347
-24.66206741 -41.70011902 11.69159317
-24.71260071 -41.72855759 13.47082138
-24.78538895 -41.79309082 15.29981327
-10.50430202 -18.19360352 0.3928409517
-24.71157265 -41.54320145 1.519940257
-24.62512589 -41.5552063 3.181050062
-13.5235281 -23.19831276 3.015221834
-13.98174095 -23.92326355 4.038657665
-14.24306107 -24.33161736 5.072664738
-24.81680679 -41.67074203 9.963143349
-24.86740685 -41.69895554 11.71449184
-24.91581726 -41.72302628 13.49634743
-24.97738266 -41.78419113 15.32655907
-10.55616474 -18.14322472 0.3926720321
-24.92098427 -41.55125427 1.520531893
-24.82933426 -41.55497742 3.185197592
-13.5481863 -23.05503273 3.005212307
-13.45899105 -22.88860321 3.898559332
-14.33754921 -24.29258537 5.074448586
-13.91932487 -23.57985115 5.902369976
-25.05059242 -41.67630386 11.73073483
-25.1222744 -41.73742676 13.52704144
-25.18185806 -41.77817154 15.35612583
-10.58785343 -18.06036186 0.3932389617
-25.10582542 -41.53378677 1.520633459
-25.03095818 -41.56496811 3.189778805
-13.60994911 -22.98209572 3.002033472
-13.55263805 -22.86842918 3.901768684
-14.24713135 -23.96319199 5.022536278
-13.79122829 -23.19522285 5.825849056
-13.99649239 -23.50527763 6.866421223
-25.3159008 -41.72952652 13.55103397
-25.38648796 -41.78705978 15.38979149
-10.64127064 -18.01314735 0.3929780424
-25.30564499 -41.53929138 1.521140933
-25.22558212 -41.56216812 3.193632364
-13.71132565 -22.97332382 3.005308867
-13.6463089 -22.84787178 3.904966593
-14.2767868 -23.83098793 5.006743908
-14.03885269 -23.41843796 5.886722088
-14.0490942 -23.41306496 6.85417366
-25.50875664 -41.71913528 13.57448959
-25.57525063 -41.7690506 15.4141407
-10.72315884 -18.01151657 0.3916510642
-25.48667526 -41.51340485 1.521073222
-13.72844315 -22.85871506 2.089056015
-13.22485065 -22.02501488 2.914033413
-13.77795982 -22.88749695 3.916773319
-13.55469418 -22.50210762 4.770284653
-14.28926277 -23.64185524 5.947946548
-14.11056328 -23.33562088 6.845928669
-27.97133446 -45.31105804 14.72907257
-10.74857044 -17.91991806 0.3923947215
-17.88547516 -29.19258881 1.298808694
-13.76996326 -22.75486565 2.085090399
-13.30351257 -21.99447441 2.91479373
-13.82099247 -22.78545189 3.908453226
-13.51210976 -22.26748085 4.735076427
-14.04152393 -23.08304596 5.831076145
-14.18210125 -23.27448845 6.842131615
-28.19496346 -45.31872559 14.76109886
-10.82633877 -17.91795731 0.3911155462
-13.84137821 -22.70737267 2.084360361
-13.36335373 -21.92598534 2.911943197
-13.83895683 -22.64484596 3.894620419
-13.57264233 -22.20576859 4.731370449
-13.9292326 -22.73567772 5.76248455
-14.2379179 -23.19755745 6.833456993
-28.41324997 -45.33362579 14.79419231
-10.85105705 -17.82623291 0.3918474615
-13.79157352 -22.46203041 2.071959734
-14.23654938 -23.12761307 3.037684679
-14.02808857 -22.78094482 3.920065403
-13.93877602 -22.61208534 4.814918518
-14.02604866 -22.71814537 5.768970966
-28.62199211 -45.3149147 14.81846428
-10.98782825 -17.90226364 0.3885666728
-28.53715706 -45.01158524 1.585876465
-13.81381798 -22.33146858 2.066373825
-14.33802509 -23.11455536 3.04072094
-14.14946079 -22.79265022 3.928432226
-13.80233383 -22.23466492 4.753165722
-14.19233036 -22.80734634 5.799961567
-25.51550865 -40.22986603 11.4989748
-28.84929276 -45.30644608 14.84777069
-10.99027729 -17.77671242 0.3900729418
-28.75326157 -44.99046707 1.58590126
-14.17862034 -22.72117233 2.09198904
-15.16732693 -24.21095467 3.156777143
-14.17407131 -22.66316414 3.916246653
-13.86788654 -22.16393471 4.748744011
-14.7370472 -23.4654026 5.962136269
-25.66120338 -40.15161133 11.50081921
-29.07123184 -45.30524445 14.87814617
-11.0314846 -17.7115345 0.3901540637
-14.6297617 -23.16415977 1.190887332
-14.24166775 -22.65146828 2.090078831
-14.59099865 -23.15458107 3.053846598
-14.19686031 -22.53211975 3.903816938
-14.2821312 -22.63214302 4.844545364
-14.62619686 -23.12488937 5.895029545
-29.29990387 -45.31271362 14.91157341
-11.06575298 -17.63627052 0.3904664814
-14.721735 -23.13464546 1.190538406
-14.68282986 -23.15513992 2.122566462
-14.45440865 -22.757267 3.942788839
-14.32775116 -22.53589249 4.835190296
-14.70636749 -23.07679939 5.895040512
-25.97346115 -40.02598572 11.51335526
-29.52898979 -45.31912994 14.94497108
-29.609972 -45.37770081 16.98556709
-11.15174007 -17.63918114 0.3889103234
-29.42425156 -45.00309753 1.587234974
-14.80475712 -23.17026329 2.125816822
-13.99876022 -21.92904091 2.937536478
-14.26443195 -22.30670929 3.884201288
-14.37067509 -22.43630409 4.825211525
-14.7896595 -23.03332138 5.896172047
-29.68748093 -45.28115082 12.98098183
-29.74127197 -45.29880142 14.97013092
-29.83284569 -45.37203979 17.02001381
-11.25348568 -17.66493607 0.3867875934
-29.63503265 -45.00157547 1.587539315
-14.86138058 -23.08689308 2.12315774
-14.10078239 -21.93044853 2.941769123
-14.22866726 -22.09184456 3.859567404
-14.36124992 -22.25960732 4.800743103
-29.87059784 -45.27943802 11.05266666
-29.90449715 -45.2673645 13.00437641
-29.97216415 -45.30475998 15.0039854
-30.05999374 -45.38807678 17.06089211
-11.3066988 -17.62425041 0.3863117993
-29.85269547 -44.99227524 1.5877105
-14.83776665 -22.89340782 2.113739014
-15.27878666 -23.51576996 3.108837605
-14.24386978 -21.9547863 3.846164465
-14.46562195 -22.26082993 4.809275627
-30.08259392 -45.25745773 11.07032871
-30.14136696 -45.2982254 13.03895283
-30.18912315 -45.3053627 15.03481197
-30.2835865 -45.38038635 17.09528351
-11.32777309 -17.53018379 0.3870333135
-30.07854462 -44.99355316 1.588063955
-14.9527235 -22.89762306 2.116356611
-14.90927505 -22.80330467 3.040263414
-15.02616882 -22.95261383 3.997619629
-24.95074081 -37.46557617 7.687288284
-15.01608086 -22.87609863 5.89313221
-30.36346817 -45.28887177 13.06407261
-30.41752625 -45.30446625 15.06707096
-30.50317001 -45.36536789 17.12732697
-11.42188168 -17.54333687 0.3851592839
-30.31042862 -45.00202942 1.58853817
-14.67282581 -22.32449913 2.084052563
-14.71982574 -22.36322403 2.999503374
-14.92240524 -22.63637352 3.958376169
-14.6174221 -22.16231537 4.808362961
-15.0776186 -22.80072403 5.887062073
-25.66398621 -38.13742828 11.10959244
-30.65727425 -45.31842804 15.10442829
-11.50597954 -17.54123116 0.3836327493
-30.53818512 -45.00285721 1.58886385
-14.68294716 -22.17941666 2.077591658
-14.77785683 -22.28706169 2.996180534
-14.82000351 -22.32603455 3.91985774
-14.89449883 -22.40343666 4.863006115
-15.14105034 -22.72842026 5.881736755
-25.7859745 -38.03445053 11.10466003
-30.88426018 -45.3122139 15.13560295
-11.5690937 -17.50226784 0.3829042315
-30.76516724 -45.00098419 1.589130402
-14.69565773 -22.03944778 2.071426392
-15.12019825 -22.61962891 3.035163403
-14.92259312 -22.30567932 3.924034595
-15.09993362 -22.53754234 4.897607327
-15.3268137 -22.83143234 5.917452812
-31.13716125 -45.3248291 15.17486858
-11.62919044 -17.46509552 0.3821981847
-30.99790573 -44.98937988 1.589224219
-14.82242584 -22.05576515 2.074873924
-15.23310757 -22.61131096 3.039211512
-15.23035908 -22.5848484 3.971907854
-15.2648344 -22.60313988 4.919830799
-15.47437382 -22.86967087 5.938795567
-11.73420238 -17.49137306 0.3799192905
-31.22443581 -44.98374557 1.589401841
-14.80066299 -21.86842537 2.065809965
-14.40826702 -21.28378105 2.90595293
-14.99770355 -22.09542847 3.906901836
-15.44831371 -22.7011528 4.94792223
-27.47315598 -39.61398697 9.886174202
-11.82909393 -17.50246239 0.3779889345
-31.45711327 -44.98521042 1.589698195
-14.70251942 -21.57569504 2.050283909
-14.47720718 -21.23006058 2.90482378
-14.84826565 -21.72917747 3.859807253
-15.89906693 -23.17128372 5.047367096
-27.32800484 -39.12446976 9.792058945
-26.04972267 -37.19085693 14.31510544
-12.04197693 -17.67715263 0.3719815612
-31.6878376 -44.98233032 1.589905381
-14.7479372 -21.48687935 2.047186613
-14.52968407 -21.15344048 2.901319027
-14.88757706 -21.63035393 3.852070093
-16.4686985 -23.79895401 5.177518368
-26.97081566 -38.3463707 9.629459381
-26.14960861 -37.06044006 14.29916286
-11.97383785 -17.46006203 0.3756638765
-31.90302658 -44.9726181 1.589965701
-14.77654648 -21.37532234 2.042691946
-14.61211491 -21.12609291 2.902746439
-14.87982178 -21.46716499 3.834791899
-26.49550056 -37.46838379 7.814549446
-27.12452888 -38.2961998 9.637434006
-25.67800522 -36.25045776 10.74962139
-26.25156403 -36.94676971 14.28791714
-12.18515682 -17.63528824 0.3696558774
-32.13326263 -44.96604156 1.590085506
-14.88672924 -21.38435936 2.045478106
-15.82858944 -22.64910507 3.066918373
-14.96116924 -21.427845 3.83586216
-26.51477242 -37.23962402 7.786077023
-27.26274681 -38.21050262 9.638163567
-26.34353638 -36.8065834 14.26846981
-12.24104691 -17.589468 0.3690479994
-32.3721199 -44.96967316 1.590380549
-14.90513134 -21.25972176 2.040175676
-15.47332573 -22.00544357 3.004239798
-15.9153862 -22.58505058 4.014699459
-26.61640167 -37.11159515 7.777813435
-27.3680954 -38.08001328 9.628341675
-25.62387276 -35.67232513 10.63299465
-26.40526199 -36.62618256 14.23394299
-12.30983925 -17.5611496 0.3679867089
-30.89488602 -42.65253067 1.548376322
-14.94537258 -21.16575241 2.036752224
-15.48197746 -21.86308098 2.994078636
-16.02788734 -22.57876205 4.021176815
-27.48424339 -38.01882172 7.969913483
-27.44595718 -37.91296005 9.609854698
-25.25675011 -34.92316818 10.44442749
-25.61547661 -35.30348587 13.76837444
-12.4561882 -17.63681984 0.3642788529
-31.03923988 -42.54285812 1.546574354
-15.01373005 -21.11023331 2.035699368
-15.47079372 -21.69533348 2.981215954
-16.11681747 -22.54010391 4.02287674
-27.33076859 -37.54224396 7.894592285
-26.25686455 -36.05092621 9.186364174
-25.31562424 -34.75326538 10.41986847
-29.22912979 -39.92804718 13.70346737
-25.72183609 -35.19349289 13.75936699
-12.49645519 -17.56928062 0.3641699553
-31.23243332 -42.4982605 1.54594779
-15.05316067 -21.01609993 2.03226161
-15.52913857 -21.62201309 2.978300571
-25.59800529 -35.01928329 5.900614738
-16.65597725 -23.06878662 5.097541332
-27.22711563 -37.08417892 9.454413414
-25.10609245 -34.22825241 10.29400158
-29.45036316 -39.93644714 13.73863983
-25.55884743 -34.727314 13.61538601
-13.01120186 -18.13035583 0.3480138183
-33.33891296 -44.98244858 1.591424108
-15.11736202 -20.95543671 2.030894518
-13.17001724 -18.34681892 2.636111975
-26.6381855 -36.14784241 6.082132339
-16.69313049 -22.95679855 5.086129665
-27.99847031 -37.83866119 9.656941414
-25.22560692 -34.14319229 10.29342556
-29.72583389 -40.01458359 13.79733562
-26.13724518 -35.24064255 13.84323215
-13.10808086 -18.12715149 0.3460731804
-33.5798378 -44.98038101 1.59156239
-15.76118279 -21.6581955 2.076953888
-13.16706467 -18.21661949 2.626414061
-24.56475639 -33.1571579 5.644893646
-26.87392998 -36.15007401 7.674246311
-25.28315544 -33.96497726 10.2674427
-29.91508293 -39.9632225 13.8149538
-26.24317932 -35.12898636 13.83416653
-13.17655849 -18.09244347 0.3450158536
-33.82153702 -44.96173859 1.591395259
-15.78870487 -21.53680801 2.072031736
-25.19574547 -33.78291321 4.287800312
-13.36319351 -18.32185745 3.417087317
-25.92727661 -34.65003204 7.398141384
-27.04088402 -36.04717255 9.269908905
-28.20898819 -37.52368546 11.31441116
-30.07859039 -39.89178085 13.82444382
-26.31839371 -34.96542358 13.80705833
-13.2583971 -18.07487679 0.3434990048
-31.38188934 -41.48949814 1.528191447
-15.87049198 -21.49420929 2.071887732
-13.37134075 -18.22598457 2.635926723
-13.44845676 -18.30645561 3.421050787
-26.02380943 -34.53098297 7.391078472
-27.17389297 -35.96470642 9.271307945
-28.35925102 -37.45236588 11.32072639
-28.44348526 -37.50525665 13.05805302
-26.95583916 -35.53762054 14.06021976
-12.85910034 -17.43818283 0.3580445647
-31.5335083 -41.40732956 1.526816607
-15.9681015 -21.47179985 2.073014259
-25.6274929 -33.87798309 4.313479424
-13.44718075 -18.17940521 3.408126831
-25.82215691 -34.02978134 7.308826923
-27.36334991 -35.96705246 9.292302132
-28.61023712 -37.50951385 11.36431026
-27.42376518 -35.89662933 14.23118591
-12.84229279 -17.30417442 0.3596948087
-34.56589508 -44.98419952 1.592226028
-13.46283245 -18.1262207 1.865970612
-13.3922348 -18.01050186 2.621079683
-13.51011181 -18.13541031 3.407795429
-26.0264492 -34.06348419 7.330975533
-27.4803772 -35.86332321 9.288780212
-28.69392204 -37.36505508 11.34847164
-28.9601593 -37.64707565 13.16829777
-27.56851578 -35.82725525 14.23994923
-12.9253931 -17.29226112 0.3580565453
-34.78153229 -44.94178009 1.591572285
-13.49454117 -18.0430069 1.862895608
-13.54705143 -18.08410645 2.633216619
-13.55512428 -18.07485199 3.404645681
-13.91458416 -18.50379562 4.269507885
-27.64336014 -35.81772995 9.299509048
-13.12761402 -17.46394539 5.596969604
-12.99612713 -17.26431084 0.3568193316
-32.83237839 -42.17678452 1.541198134
-13.55934048 -18.00204086 1.862471938
-13.51788235 -17.92430115 2.620297194
-13.63501453 -18.05222702 3.407622814
-13.95536137 -18.42872238 4.263449669
-13.76382065 -18.10733604 0.3325275481
-13.57415676 -17.89840126 1.858106971
-13.55699253 -17.85754585 2.617162943
-14.11757183 -17.50172806 4.943706512
-13.68360233 -16.97172165 5.581961155
-14.22810936 -17.58449364 6.579584599
-27.94054031 -33.60946655 13.7726717
-13.84674644 -17.13839912 2.578227758
-13.24928474 -16.37044716 4.671205521
-13.72487259 -16.90592957 5.575766563
-14.34481621 -17.60200119 6.602161407
-25.47846794 -30.51552963 12.57812309
-14.04606342 -17.26294899 0.3336420059
-13.58778477 -16.72793007 2.537095547
-14.15503788 -17.36868668 3.374624252
-14.43430996 -17.66718674 4.209915638
-13.31114864 -16.33820915 4.673389435
-13.86501217 -16.96055794 5.605038166
-14.53856754 -17.71357536 6.656939983
-14.4079113 -17.5353775 7.428312778
-14.03652287 -17.13125229 0.3349236548
-29.73373222 -35.23905945 1.414837718
-13.57239342 -16.62314796 1.800607681
-13.48276711 -16.49492645 2.515666246
-13.88532925 -16.93529701 3.313586712
-14.39856434 -17.50758171 4.186666012
-13.34344864 -16.26630592 4.66615963
-14.11374855 -17.12725258 5.669622898
-14.53721809 -17.58706284 6.630419254
-14.47539425 -17.49485016 7.431418896
-14.08644009 -17.07466316 0.3342222869
-29.77980804 -35.05068588 1.41136086
-13.25507164 -16.14219666 1.771841645
-13.60926056 -16.53039169 2.52397418
-13.91534996 -16.85672569 3.30795455
-14.40377522 -17.39057922 4.172541142
-13.38963604 -16.21063232 4.663043022
-14.09112072 -16.98676109 5.641254902
-14.45568562 -17.37612724 6.573317051
-14.46188736 -17.3619957 7.397546768
-14.09904957 -16.98129654 0.3346610367
-29.97536469 -35.03371048 1.411005259
-13.30824661 -16.10115433 1.771214604
-13.7256546 -16.55317688 2.530929804
-13.90829468 -16.73636246 3.295699835
-13.52541542 -16.28141022 3.953211308
-13.44728374 -16.16809845 4.66328907
-14.15131187 -16.94710541 5.642590046
-14.48648453 -17.30037498 6.562718391
-27.52991867 -32.01390839 13.31829834
-14.10736084 -16.87807083 0.3352633119
-36.73190308 -42.43385315 1.546099067
-13.48680973 -16.19693375 1.77957356
-13.86216259 -16.5977478 2.540371656
-13.93859577 -16.66479301 3.290815115
-14.05766487 -16.77407074 4.063798428
-13.55955887 -16.18707657 4.679242611
-14.18830681 -16.8755703 5.635019302
-14.57508945 -17.2841835 6.574009895
-28.50469017 -32.88783646 13.70858574
-14.15365887 -16.81831741 0.334630549
-36.85271454 -42.27854156 1.543183088
-13.61447811 -16.23339844 1.78412199
-13.90775776 -16.53879738 2.538290262
-13.95415401 -16.57147598 3.282809734
-13.93174839 -16.52124977 4.02073431
-13.95355988 -16.52046394 4.775614262
-14.22627544 -16.80543137 5.627885818
-14.64956951 -17.25172997 6.579676628
-26.25650024 -30.15702629 12.64083195
-14.2197237 -16.78077698 0.3333517909
-14.56001949 -17.13489532 1.083995223
-13.84643173 -16.3853054 1.796218872
-13.93582249 -16.46042252 2.534035683
-13.98514271 -16.49598694 3.277634621
-14.07500839 -16.57094002 4.040260315
-14.03731251 -16.50366211 4.782915115
-14.28220367 -16.75551224 5.626939297
-26.37382698 -30.08040619 12.64543247
-14.29640865 -16.75484848 0.3317220807
-14.596488 -17.06172943 1.082618594
-13.90047455 -16.33686447 1.79529798
-13.83001614 -16.23404884 2.51312089
-14.11028481 -16.52511978 3.289210558
-14.40045071 -16.82063866 4.10157299
-14.39431286 -16.76751518 5.645002842
-29.18576622 -33.01748276 12.233181
-26.76551628 -30.3049469 12.77296352
-14.36367512 -16.71821594 0.3303808272
-14.33146 -16.70404053 1.821576595
-13.54456043 -15.81239891 2.470079899
-14.14359856 -16.45219231 3.284491539
-14.58804798 -16.91482544 4.130809307
-27.15579987 -30.66135788 8.45333004
-8.625597 -10.34233475 3.686515808
-32.0851593 -35.95939255 13.31948471
-9.468421936 -11.23013306 5.010472298
-14.42956161 -16.674366 0.3291102052
-38.19680023 -42.60068893 1.548620105
-14.42298603 -16.6937294 1.823226333
-13.59129906 -15.75910568 2.468504429
-14.17257881 -16.36942291 3.278540611
-9.658563614 -11.42952919 2.991963387
-26.10235786 -29.30607986 8.125957489
-8.653849602 -10.30337906 3.683694601
-9.455498695 -11.14340591 4.987904549
-14.48173809 -16.6210041 0.3282221854
-38.4361763 -42.55451965 1.547626615
-14.64046383 -16.81421852 1.833608389
-13.61611176 -15.67690563 2.463882685
-14.14052963 -16.22637177 3.262496471
-9.691951752 -11.38817978 2.990058184
-14.54376507 -16.61166763 4.859033585
-8.664372444 -10.24869823 3.67559433
-27.41364288 -30.4248867 11.40741348
-9.509086609 -11.12535095 4.994153976
-14.53915787 -16.57333946 0.3271543682
-40.91464615 -44.93106842 1.590825319
-14.80054665 -16.87583542 1.840050817
-13.6799593 -15.64239693 2.464455128
-14.10224533 -16.0779171 3.245513916
-9.703130722 -11.32672596 2.983608723
-14.45690727 -16.40833855 4.818446159
-8.66929245 -10.18835926 3.665724754
-28.9072628 -31.81466866 11.9417448
-9.53599453 -11.08216476 4.989467621
-14.61553001 -16.5459156 0.3254737854
-38.90639877 -42.47800446 1.54590416
-41.08275604 -44.93196106 3.695202589
-13.74645615 -15.61053276 2.465350628
-14.13366222 -16.00532722 3.24078393
-9.83295536 -11.39223289 3.003970861
-9.294532776 -10.80135059 3.368726015
-8.68324852 -10.13804626 3.658946753
-9.165998459 -10.63503647 4.310490131
-9.567972183 -11.04448986 4.987083912
-14.7288847 -16.55747223 0.322614491
-39.11712265 -42.41185379 1.544514894
-41.36365128 -44.92364883 3.701356888
-13.79923725 -15.56387138 2.464576244
-14.85533905 -16.66552162 3.355422497
-9.843956947 -11.33046627 2.99750948
-8.661086082 -10.0620575 3.183261395
-8.717076302 -10.10900021 3.658792496
-9.206940651 -10.60987663 4.312407494
-9.627502441 -11.03587341 4.996805668
-14.87549782 -16.60326195 0.3186986148
-40.40105057 -43.49052048 1.563993216
-41.64361572 -44.9124527 3.707374811
-14.47027683 -16.17485809 2.539001465
-14.93103409 -16.63510895 3.357931614
-14.07787323 -15.71144295 3.935337305
-8.649652481 -9.989091873 3.171122313
-8.593314171 -9.914655685 3.606962442
-8.701472282 -10.01252174 4.105966568
-9.068471909 -10.38372421 4.737859249
-15.0171051 -16.64794731 0.3149006665
-39.45264435 -42.20112228 1.540279388
-41.91355896 -44.90426636 3.713304996
-14.57732105 -16.18045425 2.544470549
-14.96690369 -16.56271935 3.353607178
-14.16683865 -15.70600128 3.943241358
-8.673406601 -9.950256348 3.168284655
-8.666657448 -9.931053162 3.620526791
-9.085988998 -10.33532047 4.730312347
-39.73659515 -42.20876312 1.540197134
-15.4854641 -17.04584503 1.863522887
-14.66387272 -16.16392899 2.547438383
-14.89919281 -16.38841057 3.332161665
-14.16936588 -15.60512257 3.931302786
-8.679254532 -9.892988205 3.160593271
-8.710618973 -9.913272858 3.623897314
-9.345175743 -10.55309963 4.324777603
-9.143278122 -10.32815266 4.740054607
-40.95196915 -43.17586136 1.557576776
-42.52554321 -44.92662811 3.728599548
-15.05261612 -16.4592495 2.586500883
-14.90642166 -16.2877388 3.323132277
-14.98497105 -16.34276199 4.099164009
-8.730004311 -9.882284164 3.165210247
-8.667478561 -9.805840492 3.599014997
-9.335968971 -10.47598743 4.307832241
-9.105615616 -10.22343254 4.708870888
-42.93981552 -44.91942978 1.589068651
-14.8680706 -16.18695831 1.811117053
-15.19184494 -16.49365044 2.595547438
-14.97276878 -16.24833488 3.324205399
-15.12753391 -16.3807373 4.117580414
-8.772540092 -9.862912178 3.167582512
-8.68787384 -9.764292717 3.59487772
-9.434749603 -10.50945759 4.331611633
-9.192234993 -10.24606514 4.731280327
-43.20952606 -44.88773727 1.588211298
-15.20799255 -16.42751503 1.829712987
-15.26449203 -16.45898056 2.596633196
-9.945744514 -11.02473736 2.465834141
-10.06528187 -11.12899876 2.994616032
-8.809528351 -9.837755203 3.168457031
-8.71767807 -9.732430458 3.59382534
-29.23814201 -30.4666748 11.72912216
-9.262954712 -10.25187874 4.746763706
-15.56037331 -16.65829086 0.3011437953
-43.52594757 -44.90161514 1.588168621
-14.98300171 -16.09130096 1.809600592
-15.33988571 -16.42682648 2.598038673
-9.802375793 -10.80919075 2.435081244
-10.11505795 -11.10777664 2.996945858
-9.224395752 -10.1931324 3.271080494
-8.867022514 -9.820825577 3.631140947
-29.47061348 -30.49288177 11.77488804
-9.239139557 -10.16240501 4.721914768
-15.60532475 -16.59400368 0.300352633
-43.87545395 -44.9464035 1.588672638
-15.06276226 -16.06582642 1.810359001
-9.779582024 -10.71718121 2.424765825
-10.18854809 -11.110116 3.004433632
-9.238965034 -10.14273167 3.2655828
-8.948084831 -9.839352608 3.646386862
-9.486642838 -10.36060143 4.31128788
-41.12548828 -41.89868546 1.532937407
-15.15524483 -16.05269051 1.811965227
-30.50849915 -31.34935379 4.358712196
-9.82801342 -10.69696045 2.426417589
-9.738070488 -10.59061718 2.898310423
-9.020464897 -9.861098289 3.197870255
-9.033543587 -9.861544609 3.66294384
-9.803123474 -10.60764599 4.41539669
-44.51870728 -44.97257996 1.588480115
-15.12305641 -15.91523933 1.805163383
-31.91880417 -32.53478622 4.508538723
-9.852424622 -10.65276909 2.424075603
-9.781888962 -10.56622601 2.899741411
-9.044935226 -9.822579384 3.195363998
-9.00807476 -9.773736954 3.644226789
-9.549046516 -10.28983212 4.308405399
-9.965685844 -10.6818409 4.984773159
-44.82486725 -44.96697235 1.588020205
-30.15884781 -30.633358 2.807701826
-31.94839668 -32.34340286 4.496855259
-9.812898636 -10.54587746 2.41118288
-9.776265144 -10.49319553 2.890541553
-9.178751945 -9.891243935 3.221895695
-8.991865158 -9.695767403 3.628597975
-8.891462326 -9.582075119 4.053994179
-45.14440918 -44.97234344 1.587743878
-45.0520134 -45.00612259 3.791711569
-30.54441452 -30.75212669 4.319509029
-31.92808914 -32.0611496 6.049829483
-10.35221767 -10.98728371 3.006056786
-10.05274963 -10.67833328 3.443828344
-9.014404297 -9.656076431 3.625306845
-10.05525208 -10.63171291 4.991968632
-45.35827637 -44.87300873 1.585551262
-45.26896667 -44.909832 3.792653084
-32.16209412 -32.11387634 4.491594791
-29.69511223 -29.6796627 5.663003445
-8.998654366 -9.5919981 3.156564236
-9.116823196 -9.693527222 3.647119045
-8.956708908 -9.523591042 4.054233074
-11.12687111 -11.59305477 5.423401356
-45.65557098 -44.85316849 1.584785938
-45.57346725 -44.89720154 3.799356699
-32.2726326 -32.00271988 4.489434242
-29.81017876 -29.58947182 5.663196087
-9.752773285 -10.27095127 2.862036943
-9.010739326 -9.542777061 3.151075602
-9.694649696 -10.16846848 4.310714722
-10.3746624 -10.80030918 5.094645023
-45.9937439 -44.87047958 1.584678054
-45.89285278 -44.89680862 3.806963921
-33.26986313 -32.74007797 4.588603973
-30.78658485 -30.32219315 5.803755283
-9.778475761 -10.22996521 2.85981226
-9.052474976 -9.522035599 3.153395653
-9.006084442 -9.465465546 3.592079878
-9.801667213 -10.20502853 4.33693552
-43.67258453 -42.36078644 1.538767695
-46.19976044 -44.88233185 3.813671112
-46.32442474 -44.9234848 6.059050083
-29.96170044 -29.33390427 5.650899887
-9.317470551 -9.728035927 2.754857302
-9.101314545 -9.507860184 3.157568216
-9.078770638 -9.474064827 3.604626417
-30.11431885 -29.2837162 11.65391064
-11.26898289 -11.50302505 5.433036327
-46.63864136 -44.86806107 1.583740115
-46.51729965 -44.87583923 3.820995092
-32.3453331 -31.42477798 4.453769207
-30.01787949 -29.18814468 5.641695499
-9.411781311 -9.754997253 2.767503977
-9.40374279 -9.731541634 3.227526903
-8.976567268 -9.318126678 3.563035488
-30.61829948 -29.55609322 11.79694843
-9.020490646 -9.328155518 4.49316597
-46.94512177 -44.8485527 1.582914352
-46.84700394 -44.87861633 3.829028606
-32.8083725 -31.64552116 4.491627693
-11.08516884 -11.27463818 2.573442221
-9.530956268 -9.804347038 2.785284281
-9.41894722 -9.683842659 3.222747803
-8.993328094 -9.274684906 3.558415413
-9.067843437 -9.328519821 4.036718369
-9.04602623 -9.292580605 4.490776062
-47.26082611 -44.83562088 1.58219111
-47.19190979 -44.8932457 3.837957382
-32.75240326 -31.37865257 4.470833778
-10.61946869 -10.76936817 2.492050886
-9.55202961 -9.761551857 2.782462597
-9.393554688 -9.59876442 3.207564116
-11.14883137 -11.20857811 4.210483074
-9.279523849 -9.464626312 4.101027489
-10.4438324 -10.52094078 5.048270702
-47.57700348 -44.82101059 1.581420064
-47.51696014 -44.88699722 3.845513344
-33.48258591 -31.84031677 4.538274765
-10.83503819 -10.89921856 2.520212889
-9.417322159 -9.57541275 2.74725914
-9.393723488 -9.537914276 3.1990695
-9.79522419 -9.893636703 3.784428596
-9.13141346 -9.268708229 4.036896229
-9.122128487 -9.244477272 4.496329784
-47.93198776 -44.83986282 1.581236243
-47.84401321 -44.88037109 3.853115082
-47.94730377 -44.89605331 6.137760639
-11.04725266 -11.02365398 2.547642708
-9.555697441 -9.641160011 2.76894474
-9.354391098 -9.44139576 3.180549383
-9.847050667 -9.877691269 3.789855242
-9.143732071 -9.221049309 4.030127048
-9.195549965 -9.252378464 4.513463497
-48.25957489 -44.83119202 1.580537081
-48.17012024 -44.87064743 3.860573053
-33.31684875 -31.25795364 4.490878105
-10.57138634 -10.51979828 2.465657949
-9.615616798 -9.634275436 2.774280787
-9.430983543 -9.450850487 3.191729784
-10.07102966 -10.01730061 3.847577333
-9.151524544 -9.169518471 4.02183485
-9.159591675 -9.161088943 4.486348629
-17.8980732 -17.08020401 1.079415798
-48.50710678 -44.86857605 3.868640184
-48.59276199 -44.86625671 6.168084621
-11.3862524 -11.18853664 2.588419914
-9.75342083 -9.697248459 2.795628309
-9.506297112 -9.45855999 3.202527523
-10.16550541 -10.03806973 3.865718126
-9.163386345 -9.121911049 4.015062332
-9.275818825 -9.206887245 4.520700932
-17.95146179 -17.01498032 1.07802701
-48.84466553 -44.86468506 3.876656532
-40.85211182 -37.60391617 5.293683529
-10.5543232 -10.37006474 2.450792789
-10.07442188 -9.922901154 2.854423761
-9.533425331 -9.422628403 3.201072216
-9.664844513 -9.526947021 3.704167843
-9.203919411 -9.100059509 4.018430233
-9.199194908 -9.080137253 4.477504253
-49.19619751 -44.87095261 3.885465622
-40.90900421 -37.39730072 5.282770157
-10.5756073 -10.32254982 2.448136091
-9.76475811 -9.584156036 2.783890724
-9.522201538 -9.352695465 3.189970493
-9.619258881 -9.425771713 3.680601358
-9.240066528 -9.074181557 4.020271301
-9.179244041 -9.004741669 4.457287312
-46.53054428 -42.08436966 1.5287503
-69.16448212 -62.28428268 5.124128819
-41.42600632 -37.59916306 5.32231617
-10.6279335 -10.30264091 2.450364828
-9.74629879 -9.506777763 2.773189783
-9.593176842 -9.355711937 3.199631929
-9.619957924 -9.366268158 3.671092272
-9.17904377 -8.947267532 4.445110321
-69.74138641 -62.19467163 1.889784932
-69.61850739 -62.25378418 5.13387537
-41.08281326 -37.03952789 5.26777029
-10.58025455 -10.19465351 2.43699646
-9.8210783 -9.511745453 2.781506538
-9.639144897 -9.336333275 3.20298171
-9.573335648 -9.265786171 3.647535801
-9.915855408 -9.548380852 4.233745575
-8.996458054 -8.731421471 4.360611916
-70.08818817 -62.2340126 5.144486904
-40.34588242 -36.14181137 5.170868874
-10.64123344 -10.18242836 2.440611839
-9.840836525 -9.468263626 2.778648376
-9.627829552 -9.253959656 3.654268265
-9.930250168 -9.499669075 4.227416992
-9.169075966 -8.82511425 4.417313099
-42.5788002 -37.83044052 5.396147728
-9.955939293 -9.52359581 2.328694105
-9.148402214 -8.809333801 2.632222652
-10.62541199 -10.06850243 3.432271719
-9.821331024 -9.361560822 3.702234745
-9.63631916 -9.18609333 4.114707947
-9.301755905 -8.882759094 4.457922459
-42.81965637 -37.77774048 5.404950142
-9.151690483 -8.771244049 2.199223995
-10.69194889 -10.06068039 3.439975262
-9.888178825 -9.358838081 3.712448835
-9.693490028 -9.176159859 4.123592377
-9.230768204 -8.765626907 4.418201447
-68.37049866 -59.31864548 1.834428668
-68.28502655 -59.40390778 4.978486538
-42.86674118 -37.55799866 5.392882347
