# .PCD v0.7 - Point Cloud Data file format
VERSION 0.7
FIELDS x y z
SIZE 4 4 4
TYPE F F F
COUNT 1 1 1
WIDTH 1303
HEIGHT 1
VIEWPOINT 0 0 0 1 0 0 0
POINTS 1303
DATA ascii
22.99477768 -36.87118912 6.923931599
21.62809181 -34.68891144 7.990755558
20.89047241 -33.4803772 9.140106201
2.93883276 -5.478797436 2.161750078
2.925461769 -5.451568127 2.356844187
12.0154047 -20.04317474 0.8622301817
31.62654686 -50.96834183 3.04766202
26.7467041 -43.18953323 4.449243069
21.64456749 -35.06581497 5.170425415
21.30007172 -34.47859955 6.506756783
21.19792175 -34.27370453 7.890140533
31.80697823 -50.88915253 13.58048248
2.90811038 -5.466073513 2.155392408
2.900101423 -5.447111607 2.352328062
11.83858013 -19.90841866 0.8635991812
31.60957909 -51.33060074 3.064504147
24.37296486 -39.73622894 4.147074223
21.4263401 -34.98439789 5.154094696
22.75876808 -37.0570755 6.936370373
21.07954025 -34.34550095 7.893431187
22.48830795 -36.51906967 9.886686325
2.892020226 -5.476136208 2.155891895
2.880971193 -5.452271461 2.351153135
11.76272488 -19.93429184 0.8655869365
31.59891129 -51.70693207 3.08199954
31.61264229 -51.66452408 5.174905777
21.11634445 -34.7534256 5.118725777
21.51180649 -35.3428688 6.635812759
2.853225946 -5.450008392 2.145600796
2.844471455 -5.42970705 2.340493441
11.73179913 -20.03317642 0.867873013
31.60700989 -52.11779785 3.10107255
2.836406708 -5.478711128 1.563559651
2.830349445 -5.462959766 1.753461719
2.825709343 -5.447635174 1.944814205
2.814649343 -5.423669338 2.135300159
2.818328619 -5.423242092 2.335404634
2.826582193 -5.54763031 0.8075463772
2.828442335 -5.515348434 1.185599566
2.821836948 -5.496910572 1.373955607
2.8327806 -5.50878191 1.567477345
2.802962542 -5.454330444 1.750054598
2.802524328 -5.445772648 1.942344069
2.804820538 -5.443305969 2.138732433
2.805396795 -5.437886238 2.337567091
2.818818331 -5.585166454 0.4260718226
2.82314229 -5.586402416 0.6172263622
2.813455105 -5.562599659 0.8080626726
2.824538231 -5.55119133 0.9977058768
2.81435895 -5.528582096 1.186386108
2.797679424 -5.495305061 1.372956514
2.804233074 -5.498329163 1.564542532
2.795165539 -5.477481365 1.75337851
2.790828228 -5.464296818 1.944970489
2.810291052 -5.489865303 2.150045395
2.787379026 -5.444309235 2.336937428
2.803527355 -5.596698761 0.4264343381
2.798593283 -5.582504749 0.6182180047
2.789171457 -5.560861588 0.8085262179
2.789927244 -5.532399654 0.9969089031
2.793225765 -5.532011032 1.186313987
2.780544043 -5.503313065 1.37322855
2.798560858 -5.527166843 1.568200469
20.7626133 -35.17147446 8.008881569
22.92934608 -38.68250656 10.35557842
2.782036543 -5.479705811 2.144641399
2.778525829 -5.467551708 2.341915369
2.79022193 -5.611616611 0.4265326262
2.789408445 -5.604279518 0.6182765961
2.791168451 -5.571255684 0.998716414
2.784181356 -5.553692818 1.187834263
21.69205475 -37.08371735 5.386784554
20.83123779 -35.60329056 6.635623932
24.2276516 -41.20851135 9.267477989
20.98646545 -35.75608063 9.599637985
2.753885984 -5.469407558 2.139231682
2.758442402 -5.47057724 2.340165615
21.46486664 -37.32998276 0.9581692815
31.62417221 -54.22698593 3.199238062
22.44661331 -38.70396042 4.037323475
20.9157238 -36.06708145 5.251971245
22.23879051 -38.24352646 7.071424961
21.74720955 -37.37056351 8.447924614
31.66053963 -53.9029007 14.16534805
2.732808828 -5.470615387 2.137256861
2.734420776 -5.46693325 2.336178064
21.29725075 -37.33558273 0.9616342187
31.62213135 -54.650383 3.218996286
21.86575699 -38.02060318 3.975888014
20.80141258 -36.16896439 5.259096622
21.41797829 -37.15327454 6.879179478
21.65410614 -37.50518417 8.464185715
31.62001991 -54.28031158 14.23729706
2.716889143 -5.482206345 2.138252974
2.710458994 -5.463178158 2.33218646
21.21077156 -37.49466324 0.9659951925
31.60601044 -55.07646942 3.238928318
21.8288784 -38.27081299 3.994579077
23.18590546 -40.5276947 5.805599689
21.28934669 -37.23976898 6.884583473
20.83779907 -36.42277908 8.22507
31.62029076 -54.70994186 14.32341862
2.697796583 -5.486590862 2.137256384
2.686730385 -5.461430073 2.32877326
21.09092903 -37.58230591 0.9698374271
31.62077141 -55.53915787 3.260506868
21.78901291 -38.50366211 4.011917114
23.33441544 -41.10334778 5.87234354
20.73409462 -36.57772064 6.765061378
22.02061081 -38.7420578 8.698543549
31.66317368 -55.21789169 14.42909718
2.674797058 -5.484201431 2.134289265
2.668700933 -5.46739912 2.32812953
20.94201469 -37.61917114 0.973415792
31.61872864 -55.97835159 3.28104353
21.70108604 -38.65539551 4.022311211
23.41566849 -41.57025528 5.9252491
20.60391235 -36.64102173 6.767311573
20.59370995 -36.57693863 8.234573364
20.68227005 -36.6684761 9.755996704
6.718979836 -12.5056076 4.192178726
6.689256191 -12.43821812 4.673679829
20.89057541 -37.82778168 0.9778638482
31.61798096 -56.42512131 3.301944733
31.62377739 -56.36556244 5.53593111
31.64403534 -56.30846786 7.778860569
20.87737083 -37.41002655 6.88753891
20.39888 -36.52700806 8.212967873
22.75991249 -40.5817337 10.72144318
6.674222946 -12.52211761 4.191404819
6.571953297 -12.32818031 4.630092144
20.77923012 -37.93181992 0.9817789197
31.64198685 -56.92129135 3.325105429
31.50124931 -56.60208511 5.552432537
31.63597679 -56.74691391 7.825943947
20.79315948 -37.55987167 6.904198647
22.99604034 -41.39097977 9.21420002
23.19724083 -41.67462921 10.97899723
20.63768005 -37.12678528 11.38136005
6.500232697 -12.2958498 4.612787724
20.71798706 -38.12639999 0.9861738086
31.63167953 -57.36249161 3.345798731
31.25058365 -56.61231613 5.549614429
22.55077171 -41.03599548 5.839989662
20.90125847 -38.05284119 6.978062153
22.73105621 -41.25285721 9.173068047
23.06814957 -41.78043365 10.98952389
20.52145958 -37.2183876 11.39096642
20.77063942 -38.52937698 0.9917125106
31.91181755 -58.33185577 3.39045167
21.37531853 -39.32177353 4.069141865
22.39845848 -41.09337997 5.84142828
20.7004261 -37.99912262 6.960827351
20.72413445 -37.99352264 8.484473228
21.61850357 -39.52729797 10.4123354
20.30627632 -37.13378525 11.34930706
20.67187881 -38.66124344 0.9958062172
31.8652916 -58.72277069 3.408917189
20.34276009 -37.76848984 3.934100628
22.26330948 -41.18152237 5.846784592
20.5462513 -38.02757645 6.957368851
20.46879387 -37.83980179 8.441488266
31.00171089 -56.75049973 14.68277836
22.05066109 -40.57194138 12.33317661
20.55430603 -38.75949478 0.9997133613
23.12526512 -43.15958405 4.391546249
22.1039257 -41.22563171 5.846662521
20.40829659 -38.08491135 6.958786488
20.84606552 -38.83334732 8.636105537
30.76366997 -56.782444 14.66967297
20.10868645 -37.37897873 11.38719368
5.772946358 -11.35958004 4.27547121
20.45810318 -38.89788055 1.0038445
23.68226433 -44.53874588 4.506447315
22.02143288 -41.4105835 5.864251137
20.65438271 -38.84747314 7.077167988
22.05848312 -41.37471008 9.150072098
19.87971687 -37.26483154 11.33755398
6.380452156 -12.55659676 4.668474674
20.40172768 -39.11190414 1.008414626
31.79682732 -60.05612564 3.471728802
19.87348366 -37.82796097 3.932267427
21.52706528 -40.782547 7.389415264
20.18618393 -38.25016022 8.493643761
20.64612198 -39.03487396 10.23248577
19.93263626 -37.66749191 11.43791103
20.16158104 -38.98134995 1.01098001
31.90397072 -60.7555809 3.504286766
22.67773438 -43.39358139 4.403675079
21.79615021 -41.62139511 7.519704342
20.38026237 -38.92710114 8.622409821
19.73174667 -37.66867065 9.880037308
21.73789406 -41.35224533 12.48650455
5.642921925 -11.38351154 4.266818047
20.15762329 -39.31348801 1.016420841
29.40538979 -56.55885696 3.314614534
22.51965523 -43.47268295 4.407748699
21.81734657 -42.07586288 5.930655003
21.57372284 -41.5643158 7.501387596
20.18731499 -38.90211487 8.60595417
19.63449478 -37.79730225 9.898563385
21.60265541 -41.44105148 12.49443913
5.550762653 -11.30404663 4.234788895
20.12870026 -39.58583069 1.021371603
29.15330696 -56.55123138 3.315052509
22.3381691 -43.48904037 4.406647682
22.40438461 -43.54351807 6.108366013
21.44664764 -41.66884995 7.510270596
20.09501648 -39.05035019 8.6257658
19.60131264 -38.04841232 9.947347641
19.71780396 -38.21891403 11.54778957
19.65249252 -38.99462128 1.021054626
28.91816139 -56.57447815 3.316903114
28.95354652 -56.57312012 5.51532793
21.80119514 -42.75028229 6.003947735
20.8212204 -40.81845093 7.361932278
19.88987923 -38.98387527 8.6015625
19.42711639 -38.03309631 9.930500984
20.38313675 -39.80799866 11.98933411
5.453216553 -11.29635239 4.221662521
19.45022583 -38.92762756 1.023874044
28.66310692 -56.55766678 3.316944599
22.31571388 -44.17888641 4.460327625
21.49941444 -42.52561951 5.970603943
21.08292389 -41.66754913 7.493603706
19.98406601 -39.49303818 8.695476532
19.30004311 -38.10722733 9.935803413
28.94156837 -56.61847687 16.8057785
19.29572105 -38.95242691 1.027239084
28.54935455 -56.81563187 3.329487562
22.23138046 -44.38772964 4.475628376
21.43503761 -42.75941849 5.994414806
21.47348022 -42.78131866 7.668521881
19.66242027 -39.19986725 8.625041008
19.13427353 -38.10619736 9.922750473
28.67427826 -56.58063889 16.77158546
5.400917053 -11.3748188 4.237162113
19.17719269 -39.04809952 1.031040668
19.38088417 -39.18881989 2.528724194
19.40319061 -39.18518066 4.032301903
19.47774887 -39.26749802 5.555244923
19.66796494 -39.54322052 8.684976578
19.02553368 -38.21588135 9.936988831
28.54860687 -56.8177681 16.81650925
19.10061646 -39.21166229 1.035117269
31.6965313 -64.06468201 3.660923243
28.40909386 -57.41865921 5.574790955
21.5613308 -43.74207687 6.106013298
20.3429985 -41.27017212 7.404526234
19.54870605 -39.62722778 8.692420006
19.57027817 -39.61915588 10.26805019
28.54234886 -57.29331207 16.92974091
5.241997242 -11.23986912 4.182898045
19.37975121 -40.11357117 1.044192314
31.69863892 -64.59506989 3.685971022
20.62075996 -42.2844162 4.290664673
28.49110794 -58.00735474 7.870034695
20.2756443 -41.47164917 7.430187225
28.53116608 -57.91681671 12.41090012
19.42423248 -39.65026093 10.26342678
28.55875206 -57.7957077 17.05166626
19.28328896 -40.26354218 1.048413157
31.68631935 -65.13167572 3.711378336
28.43340492 -58.46622849 5.657470226
28.48607445 -58.47533417 7.921505451
20.04188728 -41.35747147 7.40385294
28.52757072 -58.412117 12.4970274
19.29485321 -39.73140717 10.27050495
28.54306793 -58.26558304 17.16302299
5.174130917 -11.28622532 4.188236237
19.08640862 -40.20823669 1.051261663
31.63555145 -65.59715271 3.733574629
28.41337776 -58.93564224 5.694208145
28.50658607 -59.02737808 7.983016968
20.69187164 -43.039711 7.671115875
28.53467751 -58.93635178 12.58895588
28.57243347 -58.91139984 14.93578339
28.57236862 -58.83337784 17.30217743
5.096705437 -11.22148132 4.162203312
18.85462379 -40.07812881 1.053572178
31.37619972 -65.63868713 3.736485958
28.41658974 -59.45941544 5.735543728
28.5026989 -59.5373764 8.039290428
28.5293541 -59.51789856 10.35216141
28.54189301 -59.46839905 12.68238258
28.56036377 -59.40342712 15.03699875
28.56398201 -59.33243561 17.42157745
31.10312843 -65.65036774 3.738050222
28.40951157 -59.96956253 5.775727272
19.9233532 -42.25534439 5.897174835
28.53941345 -60.06404495 10.43051815
28.5346241 -59.97814941 12.77119827
28.56214142 -59.93126678 15.14682388
28.56259346 -59.8530426 17.54698181
29.40015984 -62.65681076 3.602635622
28.42498016 -60.53436279 5.820525169
19.74648094 -42.20518875 7.512257099
28.67882156 -60.70643616 15.3166256
28.63480759 -60.45240021 20.17959976
13.3657732 -29.43391228 0.9881775975
29.12878609 -62.64143372 3.602941275
28.49558067 -61.22439957 5.875884533
19.54310417 -42.20248413 5.881307125
19.180439 -41.38483429 7.371515274
28.69147491 -61.27490234 15.43601227
28.62288094 -60.96692276 20.32029533
28.87229919 -62.65567017 3.604608536
28.48222351 -61.74587631 5.917020321
28.65382195 -61.93095779 10.70234299
28.69712639 -61.83712006 15.55375481
5.031045437 -11.57054043 3.808496714
28.63031197 -62.6996994 3.607647419
28.4899292 -62.32043457 5.962633133
28.71380997 -62.72577286 8.398575783
28.64999199 -62.48224258 10.7812624
28.77968216 -62.68162918 13.25987911
28.80236053 -62.64940262 15.73096752
4.982565403 -11.56946182 3.804058075
4.966831207 -11.51626301 4.229955673
28.59510803 -63.22177124 3.632574081
28.48391914 -62.90257263 6.00874424
28.62343025 -63.09972 8.437921524
28.6582222 -63.09674835 10.86984825
28.65062332 -63.00048828 13.30897617
28.68181801 -62.95817184 15.7871418
4.929523945 -11.55325508 3.795591116
4.925907135 -11.53075981 4.229839802
18.15097809 -41.11869049 1.083110929
29.43741798 -65.65314484 3.744672537
28.49572563 -63.50409698 6.056629181
28.66184616 -63.68192673 10.95414543
28.65163612 -63.57907104 13.4111433
28.67047882 -63.53821945 15.90792751
4.445351124 -10.60071659 3.522919178
4.743483543 -11.23212147 4.128715992
11.49557114 -26.59928894 0.978310287
29.17471313 -65.64458466 3.745340347
28.50242424 -64.07423401 6.10200882
28.66303062 -64.24126434 11.03472614
4.419417858 -10.62511063 3.526683807
4.722381592 -11.27735233 4.139187813
12.64396667 -29.43310165 1.001534224
28.90358353 -65.64547729 3.746506691
28.5253849 -64.71923828 6.153550148
28.67708969 -64.86766815 11.12557316
4.793848991 -11.53325844 4.217423916
28.63516426 -65.65077972 3.747886419
28.50868607 -65.28492737 6.198424816
28.72413254 -65.65998077 8.726280212
28.67910385 -65.47684479 11.2135725
4.669696808 -11.37024212 3.729268074
28.36869812 -65.658638 3.749395132
28.40023232 -65.65041351 6.226488113
28.4611702 -65.6776123 8.721956253
28.47479248 -65.6268158 11.22744465
28.83763695 -66.36743164 13.91475582
4.836402893 -11.84704494 3.859493971
4.565071583 -11.2187767 4.107517719
28.09931374 -65.6581192 3.750531912
28.12117577 -65.62815857 6.222021103
28.18498039 -65.66320038 8.713803291
28.22162437 -65.66546631 11.2234745
4.785420418 -11.83533669 3.852496624
4.42779398 -11.00430965 4.034440994
27.8302784 -65.65651703 3.751630783
27.8662014 -65.65972137 6.222124577
27.9194355 -65.67139435 8.708512306
27.95122528 -65.66321564 11.21304035
4.73997879 -11.83584785 3.848973989
4.141575336 -10.44232845 3.850031853
27.57105064 -65.67585754 3.75369978
27.59728241 -65.65727997 6.219426632
27.64952469 -65.66754913 8.701843262
27.68040848 -65.65805054 11.20227623
4.705286026 -11.86109734 3.852414131
4.10490036 -10.44954586 3.848601818
17.18824005 -41.98838806 1.11422503
27.29565811 -65.65552521 3.753963947
27.33262444 -65.66291809 6.217458725
27.39004517 -65.686409 8.698041916
27.40922928 -65.64994812 11.19117928
28.71076393 -68.63762665 14.31223869
28.74192238 -68.58929443 16.9777832
4.663651943 -11.87019539 3.851370573
17.08301926 -42.14048004 1.118471742
27.04079819 -65.68201447 3.756384373
27.06285095 -65.65464783 6.21437645
27.12382889 -65.6877594 8.692193031
27.14300728 -65.6517334 11.1818018
28.69814682 -69.27370453 14.42514133
3.998131037 -10.39742661 3.43691206
4.287943363 -11.07166386 4.040219307
16.99364281 -42.33304214 1.123050332
26.77230835 -65.67427826 3.757248402
26.80417252 -65.67105103 6.213414192
26.85340881 -65.67703247 8.684963226
26.88244438 -65.66520691 11.17443657
28.8731575 -70.37184906 14.63004112
16.94378471 -42.62553406 1.128454685
26.50496292 -65.66730499 3.758158207
26.545681 -65.68647003 6.212418556
26.58789062 -65.67624664 8.679039955
26.61983109 -65.67218781 11.16615677
28.75636482 -70.78083038 14.69750023
3.919376135 -10.39623547 3.430560589
4.052003384 -10.70396328 3.91524601
10.33010292 -26.59639549 0.999365747
26.2425251 -65.67036438 3.759539604
26.28144455 -65.68608093 6.210151196
26.32497978 -65.67992401 8.673749924
26.35305786 -65.66712952 11.15608215
28.75576019 -71.48129272 14.82294559
3.904088259 -10.44095993 3.827807188
10.2256031 -26.59509659 1.001202226
25.97812462 -65.66683197 3.760629654
26.00861359 -65.66242981 6.205988884
26.06085587 -65.67887878 8.667977333
26.08738518 -65.66282654 11.14626217
28.74617004 -72.17164612 14.94629478
3.710530758 -10.05971909 3.702963829
25.71781921 -65.67150116 3.762107611
25.75244522 -65.67844391 6.205196381
25.81694221 -65.72660828 8.668225288
25.8271637 -65.67035675 11.13846111
28.76274681 -72.93947601 15.08494377
3.811718464 -10.41843987 3.427975178
3.743931532 -10.23628426 3.755815983
10.00969601 -26.57264137 1.004674792
25.46211815 -65.68632507 3.764064074
25.48921204 -65.67489624 6.202816963
25.54385948 -65.69949341 8.659461975
25.57449913 -65.69523621 11.13356304
28.76846504 -73.69367218 15.22078228
3.77320528 -10.41897392 3.425275326
3.685542583 -10.18498802 3.7362082
9.920060158 -26.60739517 1.00678432
25.19359016 -65.66664124 3.76444602
25.23714256 -65.69818878 6.202731609
25.2791996 -65.69163513 8.653130531
25.30971146 -65.68784332 11.12363434
28.79940224 -74.52567291 15.37194157
28.87838936 -74.59280396 18.26486206
3.736866474 -10.42475986 3.424067736
3.594581127 -10.04950047 3.68996501
9.820300102 -26.61568451 1.008660674
24.9384613 -65.67943573 3.766331673
24.97231293 -65.68702698 6.199816227
25.01922989 -65.6938324 8.648109436
25.04957008 -65.69047546 11.11543465
28.77506828 -75.23039246 15.49778938
3.736982584 -10.52429104 3.44881916
3.560938358 -10.05829525 3.689586639
9.719202995 -26.61984444 1.01049161
24.67996407 -65.68190765 3.767754555
24.71574593 -65.69527435 6.198572636
24.76448822 -65.70801544 8.644629478
24.78836632 -65.68836212 11.10660839
3.524517536 -10.05980682 3.686937809
9.615393639 -26.61611748 1.012243509
24.42037392 -65.67961121 3.768969297
24.45302582 -65.6857605 6.195894718
24.50363159 -65.70449829 8.639090538
24.53372192 -65.70189667 11.10039806
3.496320963 -10.08268929 3.691086531
9.525594711 -26.6495018 1.014311552
24.17366982 -65.70999908 3.771700144
24.19419861 -65.68453217 6.193958759
24.24733925 -65.71109009 8.634865761
24.26960373 -65.68849945 11.09002972
28.91623497 -77.99323273 16.00297928
28.73534012 -77.36952972 18.85212708
3.426757336 -9.996003151 3.6606462
9.408196449 -26.60744095 1.015704036
23.90488243 -65.67946625 3.771637678
23.95015335 -65.72158813 6.195264339
23.98709869 -65.70552826 8.629254341
24.01684761 -65.70373535 11.08433819
28.6851387 -78.19996643 16.03027534
28.75631905 -78.24834442 19.04232216
23.65308189 -65.69290161 3.773611069
23.68561172 -65.70153809 6.191855431
23.73200798 -65.71198273 8.625185013
23.75678825 -65.69757843 11.07537174
28.70909691 -79.10391998 16.19505692
28.75390244 -79.08055878 19.22137833
3.488018274 -10.35954475 3.769330978
9.215075493 -26.63478851 1.019445419
23.39669609 -65.69223022 3.774945736
23.4289875 -65.7010498 6.190127373
23.48051643 -65.72682953 8.622213364
23.50249863 -65.70527649 11.06873035
28.72575188 -80.00523376 16.35921097
3.448098898 -10.3535223 3.764411926
15.65514565 -45.10384369 1.188825607
23.14399147 -65.69994354 3.776678324
23.16994286 -65.69207001 6.187738895
23.21379471 -65.69766235 8.614010811
23.24974442 -65.7157135 11.062644
28.74572945 -80.93350983 16.52856064
3.430396318 -10.40867138 3.778784752
15.5371685 -45.26198196 1.193232775
22.89681435 -65.72177887 3.77907443
22.92593384 -65.72340393 6.188759327
22.9675045 -65.72360992 8.612551689
22.99263954 -65.71212006 11.05445766
15.44380379 -45.4935379 1.198320031
22.63263512 -65.69364166 3.779175282
22.66810036 -65.71431732 6.186458588
22.70551682 -65.70365143 8.605632782
22.74560165 -65.73553467 11.05066776
15.33538342 -45.68524933 1.203051805
22.38464546 -65.70973969 3.781329155
22.42038727 -65.7325058 6.186476707
22.45767403 -65.72206879 8.603429794
22.48701477 -65.72439575 11.04152679
15.22583485 -45.87674332 1.207789183
22.13288689 -65.7135849 3.782929182
22.16124535 -65.71578979 6.183635712
22.20669365 -65.73014832 8.600063324
22.2281723 -65.7103653 11.03205395
15.11955547 -46.08130264 1.212658048
21.88012123 -65.71265411 3.784319639
21.91267586 -65.72827911 6.183274269
21.95083427 -65.722229 8.594851494
21.98364449 -65.73654175 11.02905464
15.00700951 -46.27047348 1.217390895
21.62823868 -65.712677 3.785765171
21.66431999 -65.73981476 6.182879925
21.70037651 -65.72838593 8.591418266
21.72855186 -65.7299118 11.02099323
14.90206814 -46.48600006 1.222381711
21.37787056 -65.71550751 3.787352324
21.41677475 -65.75230408 6.182610989
21.44137764 -65.70718384 8.584775925
21.47999191 -65.74106598 11.01585865
3.247679472 -10.64701176 3.833437204
14.79945087 -46.71278 1.227492571
21.12653923 -65.71359253 3.788730383
21.16752052 -65.75818634 6.181838989
21.20072937 -65.73972321 8.584682465
21.2223568 -65.72310638 11.00624752
3.216328144 -10.6672678 3.837020636
14.69666767 -46.94319916 1.23265028
20.87425804 -65.70690155 3.789898396
20.91178513 -65.74223328 6.179297924
20.94728851 -65.73168945 8.579788208
20.97062302 -65.72106934 10.99926853
3.187242746 -10.69471836 3.842877626
14.58521843 -47.15058136 1.237596869
20.62712669 -65.71446991 3.79173851
20.65336037 -65.71580505 6.175932407
20.70137787 -65.74537659 8.577588081
20.71852684 -65.71619415 10.99195957
14.47844696 -47.37683487 1.24273777
20.43132782 -65.80245972 6.182013512
20.47330475 -65.73109436 10.98788166
14.36147022 -47.57422256 1.247605562
20.19351768 -65.83886719 6.183961391
20.22643089 -65.7394104 10.98288059
14.26071548 -47.8287735 1.253048897
19.95690536 -65.87821198 6.186198711
19.97800636 -65.74114227 10.97695923
14.14978027 -48.05443954 1.258218288
19.69479752 -65.83274841 6.181435585
19.72929955 -65.74002075 10.97070694
14.04137516 -48.29333878 1.263532639
19.45495796 -65.85884094 6.18266201
19.48021317 -65.73607635 10.96412468
13.95112228 -48.59922409 1.269536734
19.20277214 -65.84197998 6.180366516
19.23592949 -65.74636078 10.95988941
13.82564354 -48.78976822 1.274389029
18.95537567 -65.83946991 6.179307461
18.99010849 -65.75003815 10.95473099
13.78666496 -49.28776169 1.282392383
18.70271111 -65.81686401 6.176626682
18.74669456 -65.76039886 10.95073223
13.6328907 -49.38945007 1.286362648
18.47558022 -65.88149261 6.181231499
18.49753571 -65.748909 10.94342518
12.09078217 -44.4878273 1.238561869
18.22877693 -65.87624359 6.180079937
18.25183487 -65.74791718 10.93787384
17.98758316 -65.88926697 6.18048954
18.01381302 -65.77270508 10.93646526
6.606296062 -25.37886047 1.043768048
17.74438858 -65.89372253 6.180232525
17.76848984 -65.76989746 10.93085289
6.495109558 -25.30511856 1.044438481
17.51278496 -65.93962097 6.183457375
17.52237511 -65.76235962 10.924613
6.427679062 -25.3953228 1.046827316
6.497959614 -25.40524483 1.931682825
6.500177383 -25.38243103 2.818420649
6.524296761 -25.42446899 3.716430664
6.515681744 -25.36024475 4.608306885
6.523412228 -25.35682869 5.516885757
6.545324802 -25.38846207 6.445594788
6.567588329 -25.40211296 8.341436386
6.339650631 -25.40790749 1.048392773
6.42056179 -25.42802811 2.822016478
6.441401482 -25.458498 3.719487667
6.442446232 -25.43049431 4.61744976
6.44204092 -25.39635658 5.521870136
6.451270103 -25.38072395 6.440302372
6.463234901 -25.39179993 7.37926054
6.470460892 -25.38380814 8.330559731
12.90395641 -51.50998306 1.329113364
16.77760124 -65.9179306 6.180174351
16.79467583 -65.76866913 10.91107368
10.05415154 -40.9159584 1.218067884
16.53434372 -65.91403961 6.17944479
16.55638313 -65.78431702 10.90888977
9.92500782 -40.99348068 1.221206188
16.29810333 -65.93630981 6.180928707
16.30950737 -65.76457214 10.90129757
10.00867748 -41.94491196 1.233842015
16.05046844 -65.91125488 6.178532124
16.06633186 -65.75733948 10.8957634
9.729934692 -41.41563797 1.230390429
15.81259823 -65.92404175 6.179316044
15.82852936 -65.77033234 10.8934927
9.605044365 -41.51938629 1.233820558
15.57393742 -65.93206787 6.179749012
15.59086323 -65.78245544 10.89119148
9.406564713 -41.30915451 1.233782291
15.33678532 -65.94504547 6.180635452
15.35466957 -65.79948425 10.88976097
9.143119812 -40.80757523 1.230474591
15.09564018 -65.93967438 6.180044174
15.10909653 -65.77522278 10.88200951
8.98841095 -40.77092361 1.232284307
14.85475445 -65.9334259 6.179422379
14.87009716 -65.77702332 10.87842178
2.130292892 -10.13623905 3.616517305
8.806331635 -40.6415062 1.233147979
14.60706139 -65.94828796 6.18059206
14.62203884 -65.79013062 10.87651348
2.099518299 -10.15881443 3.621721029
8.794931412 -41.25621796 1.24225831
14.36484623 -65.93244934 6.179263592
14.38677597 -65.80560303 10.87526703
2.057716131 -10.12482262 3.609724283
8.679533958 -41.37117386 1.245656013
14.14442253 -65.96002197 6.181574345
14.14565372 -65.79318237 10.86979103
2.023967266 -10.11838436 3.606276035
8.646324158 -41.91388702 1.254029632
13.90175629 -65.938591 6.179864883
13.92031384 -65.79680634 10.8670826
8.446369171 -41.6696167 1.253456354
9.2056036 -44.77503967 2.853710413
9.232831001 -44.84698486 4.431208134
13.68297195 -65.79811096 10.86394882
8.432471275 -42.3298378 1.263229728
13.35856438 -65.6927948 3.840615273
12.47670841 -61.20264053 7.958436012
12.48778725 -61.17502213 10.14312077
8.141987801 -41.62947083 1.257368207
13.14319897 -65.7937088 3.847211838
13.16193008 -65.80049133 6.168871403
12.2468586 -61.15402222 7.951295853
12.26774406 -61.1752243 10.14024448
8.052196503 -41.92449951 1.262953997
12.30407619 -62.76071167 3.705973387
12.33284664 -62.82334137 5.922237396
12.02761173 -61.15518951 7.950143337
12.04355812 -61.15330124 10.13403225
7.902914524 -41.92089844 1.265083313
12.08520794 -62.78942108 3.709105492
12.10124588 -62.78948975 5.919695854
11.80738735 -61.14971542 7.948269367
11.82272243 -61.14608002 10.13019943
7.689137459 -41.57484436 1.263195872
12.43597221 -65.79000092 3.852628708
11.72241306 -61.9854126 5.853318691
11.58506775 -61.13173676 7.944977283
11.60024261 -61.12834549 10.12483311
7.565383434 -41.69971466 1.266791701
12.2025547 -65.7975235 3.854871511
11.5035305 -61.99830246 5.854729176
11.3630476 -61.11293793 7.941655636
11.37986565 -61.11950302 10.12094307
7.648335457 -42.96543121 1.283848524
11.96956348 -65.80617523 3.85717988
11.28071976 -61.98885345 5.854326248
11.13253784 -61.10503006 7.939646721
11.16185379 -61.12153244 10.11883259
7.500443459 -43.02859116 1.286884308
11.72499847 -65.81407166 3.859560013
11.04669476 -61.97660065 5.853751659
10.9113884 -61.08653259 7.936499596
10.93161678 -61.11494064 10.11536884
7.317317963 -42.84761429 1.286898732
11.48801422 -65.79740906 3.860694408
10.82466125 -61.96746063 5.853454113
10.68549633 -61.10037994 7.937218189
10.71146488 -61.10172272 10.11109447
11.25439262 -65.79760742 3.862637997
10.61210823 -61.94781876 5.852299213
10.47701168 -61.0882225 7.93500042
10.49049187 -61.08187866 10.10588837
7.201091766 -43.90822983 1.303807974
11.03559113 -65.81472778 3.865298271
10.38980198 -61.93318176 5.851621628
10.26219559 -61.10062408 7.935722828
10.28232956 -61.07114029 10.10228825
7.152485371 -44.55276489 1.313756585
10.22888565 -62.36850357 3.703756809
10.16909599 -61.92559433 5.851568222
10.05204201 -61.07526398 7.932060242
10.06550026 -61.07117462 10.10034561
9.949151039 -61.92115402 5.851814747
9.830356598 -61.04302597 7.927612782
9.850013733 -61.07823944 10.09958649
2.931875229 -19.61231995 1.015010953
9.729361534 -61.91592407 5.852034569
9.614094734 -61.04136276 7.926860809
9.628036499 -61.04354477 10.09245872
2.866864681 -19.62440109 1.016091228
9.507303238 -61.89414978 5.850919247
9.397291183 -61.03500748 7.925617695
9.409508705 -61.02756882 10.08832264
2.816948414 -19.76385498 0.3529079854
2.791147232 -19.56505585 1.016292691
9.283684731 -61.85974884 5.84879446
9.181278229 -61.0317955 7.924814224
9.193571091 -61.02643967 10.08657742
9.068660736 -61.87973404 5.851223469
8.963615417 -61.01602936 7.922585964
8.977784157 -61.02453613 10.08480549
2.662219048 -19.59395409 1.018485785
5.744739532 -40.48039246 4.074735641
8.745887756 -60.99751663 7.920097351
8.763547897 -61.03164673 10.08452129
2.590369225 -19.55558014 1.018922091
5.564062595 -40.20204926 4.052164555
8.530101776 -60.99000931 7.918980598
8.543776512 -60.99885941 10.07816124
2.519356012 -19.52089691 1.01939559
8.413326263 -61.86209869 5.85229969
8.315535545 -60.98961258 7.918772697
8.327082634 -60.98484421 10.07479763
2.451741934 -19.5097332 1.020154953
5.312900543 -40.41744614 4.071229935
8.101132393 -60.98844147 7.91853857
8.111620903 -60.97790146 10.07261848
2.38398242 -19.49634743 1.02088058
7.973209858 -61.81613541 5.850367069
5.084309578 -39.63621521 5.38448
7.898397923 -60.98586273 10.07283688
2.302996397 -19.42872238 0.3691675365
2.318828583 -19.50255585 1.02184689
7.757811546 -61.82559586 5.852153301
5.213480473 -41.7843132 5.639436722
7.6829319 -60.97543335 10.07030582
2.236711502 -19.42276573 0.3704603016
2.250168085 -19.50694656 1.022830129
7.530348778 -61.82371902 5.853089333
4.827381611 -39.84270859 5.409077168
7.458109856 -60.97335434 10.06911755
2.168895721 -19.43085289 0.3714810014
2.18568778 -19.51864433 1.023857355
6.01225996 -51.05392456 3.187538862
4.727890491 -40.28221893 4.062665462
4.873613834 -41.43560791 5.59824276
7.241066456 -60.94565964 10.06410694
2.107065916 -19.43398094 0.372486949
2.121458292 -19.50392342 1.024500966
4.635816574 -40.63015366 4.092293262
4.562142849 -39.94017792 5.420905113
7.025929928 -60.93091583 10.06119061
2.055863619 -19.50523567 1.025387406
4.461643219 -40.33500671 4.068489552
4.437265873 -40.06027603 5.435352802
6.823513985 -60.9319191 10.06082344
1.984645247 -19.48171806 0.3735960722
1.991562366 -19.51825142 1.026419282
4.344098091 -40.53644562 4.086025715
4.33128643 -40.29571533 5.463521957
6.608264446 -60.91176224 10.05725002
1.919860005 -19.48854637 0.3745427728
4.222043991 -40.70781326 4.101090908
4.18154335 -40.19979477 5.452413559
6.395962238 -60.91639328 10.05759621
1.857830286 -19.52300072 0.3748651743
1.858387947 -19.49983788 1.027898788
6.273575783 -62.18347931 3.730172157
4.039887905 -40.30380249 4.068282127
6.170630932 -60.88845825 7.908730984
4.102413654 -40.71950912 6.937743664
1.792901516 -19.52938652 0.3757994771
1.795003057 -19.52212334 1.029038668
3.924622297 -40.54562759 4.089267731
3.972585678 -40.83168793 6.954947472
1.727396846 -19.52956963 0.3768584728
1.728896022 -19.51631546 1.029810548
3.705048323 -39.71172333 4.020674706
3.721137524 -39.74657059 5.399684429
3.839942932 -40.92180252 6.968802452
1.667243242 -19.58927155 0.3765959442
1.666233063 -19.54811668 1.031068444
3.613798857 -40.20856857 4.062958241
3.565199614 -39.54354858 5.37601757
3.689253092 -40.82251358 6.953463554
1.60097456 -19.55181503 1.031956434
5.394217968 -62.01185608 3.730234861
3.489101648 -40.36574173 4.076976776
3.427055597 -39.52392197 5.374165535
3.523730516 -40.54742813 6.911033154
3.47376895 -39.91843414 8.221833229
1.536530972 -19.5652504 1.032968402
3.39613843 -40.97401428 2.718576193
3.345814943 -40.31597519 4.073774338
3.276108027 -39.35142136 5.354197502
3.405063629 -40.7975502 6.949784279
3.354220629 -40.13362885 8.26253891
1.476884007 -19.64026451 1.034789324
4.96333313 -62.0019722 3.733980656
3.169297218 -39.85248947 4.03608942
3.165376902 -39.65540695 5.390865326
3.212953568 -40.17062378 6.853126526
1.410874844 -19.63731575 1.035580635
4.74811697 -61.99689102 3.735864162
3.044017076 -40.00427246 4.049735069
2.63069129 -34.56138229 4.786304474
3.057526588 -39.95472717 6.820012093
1.348627925 -19.68599892 1.03705287
4.532109261 -61.97910309 3.737145424
2.878709078 -39.63090515 4.019589424
2.511477232 -34.55237198 4.785795212
2.921484947 -39.97674942 6.82370615
1.320343614 -20.27051353 0.3678940237
4.316001415 -61.95656586 3.738207817
2.72717309 -39.41393661 4.002503395
2.376296997 -34.3170929 4.758433342
2.800215006 -40.20729065 6.859673023
4.102113724 -61.96316147 3.740689754
2.592714071 -39.42707443 4.004645348
2.26261878 -34.37456131 4.765892029
2.657196283 -40.13966751 6.849638939
3.887470722 -61.95705032 3.742569208
2.075414181 -33.43878555 3.50549531
2.118084669 -33.95596313 4.716797352
2.509113073 -39.98473358 6.826171875
1.264363885 -22.82650948 0.3158649802
3.673158884 -61.95416641 3.744616508
1.959313393 -33.40792084 3.50383997
1.997761607 -33.88766479 4.709369183
2.37543726 -40.04825592 6.83651638
1.195923686 -22.97855186 0.3136913776
3.45778513 -61.9305954 3.745672941
1.831930995 -33.17367554 3.485202789
1.880090833 -33.85660172 4.706401825
3.423779726 -60.79640961 10.04344082
2.172670126 -43.69096375 1.36694622
3.242513895 -61.90426636 3.74660635
1.705469728 -32.9250145 3.465366602
1.759371161 -33.7636528 4.696106434
3.212304115 -60.77999115 10.04189396
2.019915104 -43.62633896 1.367884994
3.028855085 -61.90511703 3.748868942
1.596713901 -32.99635315 3.472304106
1.657979488 -34.04315948 4.7301507
3.000389338 -60.75098419 10.0384903
1.875597835 -43.7429924 1.371278524
2.815136433 -61.90322113 3.751010895
1.480113506 -32.90804672 3.465906858
1.524012446 -33.66371536 4.685836792
2.78926897 -60.73308182 10.03689194
1.725580215 -43.73726273 1.372999549
2.600956678 -61.8885994 3.752546072
1.368235469 -32.91490173 3.467490435
1.410217047 -33.6905098 4.689886093
2.579671144 -60.7460289 10.04015446
1.582904339 -43.9288559 1.377415419
2.386600018 -61.86524582 3.753667831
1.269845486 -33.26589966 3.497914791
1.296408534 -33.72086716 4.694396496
1.308915854 -33.95950699 5.899405003
1.116099238 -34.424263 1.248518705
2.173292637 -61.86510086 3.755930185
1.160759568 -33.38554382 3.509000301
1.186047673 -33.85206223 4.710949421
2.158022642 -60.70653152 10.03683472
1.07446754 -34.32110214 2.416047096
1.064720273 -33.93509293 3.55614543
1.056145191 -33.40923309 4.659179688
1.947578907 -60.68962097 10.03574753
1.118422627 -43.4152298 1.375645876
1.746939301 -61.86856079 3.760675192
1.737967253 -60.69568253 10.03830433
1.532274485 -60.85513687 10.06468678
1.320035338 -61.84108734 3.763959885
1.106521964 -61.81324387 3.764930248
-13.30339432 8.275835991 1.831182837
-12.88005733 7.978900909 2.212709904
-13.49422169 8.468330383 2.72975111
-13.4632988 8.471035004 3.172676802
-14.34882641 9.169721603 3.851322174
-13.2455101 8.283071518 1.827187181
-12.91240788 8.05514431 2.217970371
-13.77057934 8.734387398 2.777584076
-14.33455372 9.190219879 3.357936859
-13.24829865 8.338932991 1.827738047
-12.88426781 8.085700989 2.216061831
-13.79651356 8.8085289 2.784482479
-14.14152718 9.10188961 3.321899176
-12.84972286 8.111284256 2.213397503
-13.22769928 8.425976753 2.69410038
-14.1394062 9.159931183 3.325687647
-14.16238022 9.154994011 1.896741629
-12.78995705 8.117168427 2.207730055
-13.44549561 8.650336266 2.73255372
-13.82767963 8.976163864 3.264626026
-14.13670635 9.1947155 1.895211935
-12.82278442 8.195118904 2.213114977
-12.83647728 8.228464127 2.635203838
-14.56219578 9.613275528 3.423067093
-14.26786232 9.411249161 3.858952045
-14.07948112 9.209691048 1.891325474
-12.78949928 8.221619606 2.210621834
-12.88091946 8.316615105 2.645171881
-14.51169682 9.636283875 3.416978121
-14.04890156 9.245427132 1.889433861
-12.86999321 8.338356972 2.221755028
-12.77745247 8.287783623 2.630787611
-13.00577545 8.50051403 2.239558458
-12.76559734 8.331540108 2.631513834
-13.74648952 9.147016525 3.264504671
-13.30959129 8.799853325 2.277594566
-12.73348904 8.359098434 2.628907681
-13.74377728 9.20422554 3.268263578
-12.95414448 8.568284988 2.236497402
-13.66741467 9.201605797 3.256444216
-13.5805254 9.189774513 3.242366791
-13.58678246 9.225119591 2.779235125
-13.3996067 9.099381447 3.208234072
-13.66152 9.349836349 2.794931173
-13.39078045 9.153687477 3.21093154
-13.38622475 9.211850166 3.214583397
-13.35566521 9.242378235 3.212261438
-52.67440033 42.42798233 2.545756578
-52.3770752 42.46984482 2.532479525
-51.26055527 42.38935089 2.486221552
-51.70702362 42.73213959 4.733305454
-49.44517517 41.66372299 2.420153856
-50.02335358 42.45385742 4.615103245
-49.55295563 42.30924225 4.581619263
-49.48241425 42.53718567 4.578474522
-48.95638275 42.35072708 4.54087162
-48.90032578 42.63238144 2.381417036
-48.37029648 42.39403152 4.500911713
-48.60541916 42.9046669 4.520987511
-48.71815109 43.60328293 4.534142971
-47.06832504 43.22690582 4.418171406
-45.68379211 42.77233887 2.240290403
-45.89090347 44.16851807 2.226146936
-46.01389313 44.25704193 4.354576111
-45.46097565 44.0295639 2.209721088
-45.8597908 44.40272141 4.345293522
-7.398415089 5.008801937 2.836054564
-45.25206757 44.11535645 2.199168205
-45.8662262 44.7143898 4.348332882
-7.391964436 5.031052589 2.838711739
-45.76295853 44.95056152 2.207478762
-8.846928596 6.570750713 2.903589249
-7.364503384 5.030964851 2.831994772
-45.6974678 45.19045258 2.200580597
-8.849798203 6.613883972 2.910066605
-7.42643261 5.156883717 2.87121582
-46.89118195 47.08413315 2.220899582
-7.313420773 5.063691616 2.825895309
-8.778302193 6.660007 2.902824402
-8.751355171 6.669137478 2.898988724
-7.362553596 5.177442074 2.859787226
-7.34509325 5.188371658 2.857729673
-45.02928543 46.35667801 2.151474476
-8.961008072 6.98479414 2.982755184
-7.255098343 5.117789745 2.822413206
-44.9189949 46.5546608 2.143229723
-8.8783741 6.890230656 2.369934797
-8.943685532 7.008521557 2.98283577
-7.496832371 5.40293169 2.708342791
-7.280946255 5.177052975 2.840198278
-44.97915649 46.94260025 2.139229774
-8.921098709 7.026363373 2.981117725
-7.479859829 5.415697098 2.706891298
-44.98644638 47.27487183 2.133840084
-8.888908386 6.987239361 2.379881382
-8.929331779 7.079264164 2.990146637
-44.79004669 47.38050842 2.123343229
-7.485090256 5.486256599 2.719955206
-7.273653507 5.260771275 2.85499382
-8.846382141 7.02515173 2.377348661
-7.384521484 5.402395248 2.684501886
-8.685738564 6.90700531 2.63060379
-7.450556278 5.511617184 2.717020273
-7.429473877 5.519783974 2.714006662
-8.581855774 6.847120285 2.325245142
-8.609416008 6.903220654 2.617898703
-7.419607639 5.541147709 2.715619326
-8.561861992 6.889784336 2.608719587
-7.342576027 5.482520103 2.689485073
-8.597787857 6.975388527 2.62446785
-8.835914612 7.282743454 3.002043724
-7.298158646 5.462026596 2.676727533
-7.152461052 5.305409431 2.835598946
-8.56635952 6.956723213 2.332953453
-8.538888931 6.948144436 2.611893177
-7.316742897 5.517261028 2.690150738
-7.134676933 5.315494061 2.833527088
-8.623517036 7.068833828 2.350809813
-8.494013786 6.937206745 2.603480101
-7.286357403 5.515081882 2.683506727
-8.22410965 6.587158203 1.728832126
-8.574529648 7.055775642 2.343003511
-8.550433159 7.051390171 2.625892878
-8.512291908 7.027801991 2.905927658
-7.237307072 5.488088608 2.668715477
-7.08379221 5.318254948 2.822379589
-8.224555969 6.628308296 1.730362058
-8.546803474 7.066019058 2.34019208
-8.504163742 7.038800716 2.61709547
-7.859074593 6.267548084 2.676188946
-7.203080654 5.478842735 2.660084486
-8.567677498 7.135957241 2.349364519
-8.452929497 7.017448425 2.606491089
-7.246037006 5.563718796 2.683755875
-7.064491272 5.356616974 2.825807571
-8.238107681 6.723079205 1.735019803
-8.579292297 7.192916393 2.35612154
-8.417896271 7.015722275 2.600782394
-7.89080143 6.382888317 2.698880911
-7.255917072 5.608129025 2.693584204
-7.034259796 5.349225521 2.817411184
-8.172460556 6.681501865 1.727650523
-8.583169937 7.24077177 2.361020088
-8.436871529 7.081368923 2.6115942
-7.793738842 6.298482418 2.668972254
-7.169486046 5.531418324 2.662494898
-8.122114182 6.658202171 1.722316742
-8.517847061 7.202138424 2.348747015
-8.42982769 7.114889145 2.614507437
-7.275379658 5.679381371 2.484391928
-7.172088146 5.566624165 2.669251919
-7.557404041 6.078503132 3.0861938
-8.101254463 6.677571774 1.721176028
-7.279163361 5.682404995 2.043798447
-8.361035347 7.076944828 2.599231958
-7.207346439 5.628982067 2.464752197
-7.494073868 6.038509846 3.063643456
-8.095933914 6.712453365 1.721990824
-7.943881512 6.541050911 1.955738425
-7.321045876 5.770372391 2.057485819
-8.358852386 7.118910789 2.603948116
-7.172893524 5.619052887 2.457137346
-7.497226238 6.080068111 3.072977304
-8.097809792 6.756774902 1.723796964
-7.263981342 5.73238802 2.046403646
-8.360050201 7.165596008 2.609773159
-7.176717281 5.658326626 2.463683844
-7.092041016 5.568653107 2.653509855
-8.082279205 6.779172897 1.723255634
-7.249547958 5.748787403 2.046017408
-8.319024086 7.157882214 2.602501631
-7.219491005 5.74875927 2.484803677
-8.373580933 7.274831772 2.625112057
-7.171637058 5.742126942 2.700484753
-6.931743145 5.445622921 2.814395428
-7.616507053 6.260327339 1.662840486
-7.238795757 5.807277203 2.05005455
-8.379933357 7.33206892 2.633060932
-7.081645012 5.641004562 2.444307327
-6.926595211 5.473829269 2.81917429
-7.547337055 6.210476398 1.654889703
-7.236446381 5.821153164 1.831097841
-7.235133648 5.840041637 2.052642345
-7.888356209 6.728566647 2.484057665
-7.062080383 5.670334816 2.665830851
-6.936142921 5.522042274 2.83142972
-7.539636612 6.238963127 1.655284047
-7.230960846 5.870604992 2.054966688
-7.882153511 6.762982368 2.487327576
-7.043889046 5.660118103 2.44059062
-6.991317749 5.609989643 2.640954971
-6.907526016 5.517373562 2.824148655
-7.504253387 6.230806351 1.651875377
-7.224684238 5.877577305 1.833521962
-7.810192108 6.709052086 2.469748497
-6.909555912 5.533620358 2.611026049
-6.832574844 5.449204445 2.793291092
-7.572638988 6.361480236 1.662798524
-7.202586174 5.884293079 1.831561923
-7.179790974 5.874610901 2.048675776
-7.809751987 6.751203537 2.474874496
-6.860317707 5.5004673 2.595348597
-6.832496166 5.482810497 2.80040431
-7.384910583 6.14597702 1.638230205
-7.122661114 5.83341217 2.037359238
-7.745126724 6.703834057 2.45924449
-6.818247795 5.456388474 2.370369196
-6.829185486 5.489920616 2.587346554
-6.815084457 5.491026878 2.798360825
-7.183903694 5.93045187 1.832595348
-7.127286434 5.874305725 2.041840315
-7.68086338 6.656095505 2.443635941
-6.815738201 5.484976292 2.374313593
-6.819643974 5.509042263 2.588986874
-6.789841652 5.488279343 2.792297125
-7.231650829 6.011470795 1.619754672
-7.15789175 5.929904938 1.829748869
-7.129362106 5.912082672 2.045703888
-7.65389967 6.661327839 2.440228701
-6.745926857 5.420090199 2.352342129
-6.783328056 5.492544174 2.578917742
-6.772743702 5.498485565 2.790781498
-7.321434021 6.173037529 1.633734703
-7.104306698 5.892836094 1.821500778
-7.073805332 5.871907234 2.034714699
-7.665841579 6.720781326 2.449420452
-6.768680096 5.48564291 2.366333008
-6.755006313 5.486889839 2.572403669
-6.731295586 5.474200249 2.776645184
-7.38452673 6.299696445 1.644064665
-7.078794479 5.89420557 1.818848848
-7.038094521 5.858762741 2.028870344
-7.042270184 5.886315346 2.252026081
-6.716630459 5.446278572 2.351361513
-6.759077549 5.526966572 2.580574036
-6.753858566 5.540669918 2.795772076
-7.328621864 6.261397362 1.637749672
-7.056771755 5.900312901 1.816895485
-7.052801609 5.916422844 2.036285162
-6.993172169 5.853877544 2.240647078
-6.770317078 5.556715965 2.377593279
-6.727431297 5.516383171 2.572543383
-6.742067337 5.558603287 2.797112703
-7.293782234 6.252045155 1.634376287
-7.037041664 5.909572124 1.815406203
-7.05805254 5.961308002 2.041272879
-6.964630604 5.850140095 2.235935926
-6.845592976 5.69961071 2.412538528
-6.736716747 5.564455032 2.583224297
-6.807516575 5.688457489 2.839105844
-7.516005516 6.607702732 1.667307138
-7.008170128 5.905739784 1.812064648
-7.043798923 5.978725433 2.041136503
-6.963074207 5.885006905 2.240089893
-6.740035534 5.583105087 2.376556635
-6.806077003 5.700306416 2.621674299
-7.631924629 6.816259384 1.685379982
-7.009998322 5.945798397 1.814966917
-7.021587372 5.984726429 2.03889513
-6.954622746 5.910213947 2.242019415
-6.686150074 5.539916039 2.360734224
-6.745665073 5.648190022 2.600496054
-6.783810139 5.726332664 2.842289925
-7.477274895 6.637415886 1.665125489
-7.003689289 5.974488258 1.81624043
-6.99713707 5.987374306 2.036054373
-6.966021061 5.964623928 2.250575304
-6.685366154 5.573816299 2.365899563
-6.742156982 5.678983212 2.605578661
-6.834565163 5.838151932 2.87731719
-7.760102749 7.091490269 1.707107782
-6.977007866 5.973697186 1.813357592
-6.924789429 5.919672966 2.020337343
-7.317280293 6.520036221 2.372518778
-6.748903751 5.70315361 2.396806479
-6.754687786 5.733892441 2.618214607
-6.792818546 5.813469887 2.863165855
-7.438326359 6.666865349 1.662932754
-6.936087132 5.953674316 1.807665467
-6.911721706 5.938306808 2.020506382
-7.071321964 6.197758198 2.295586824
-6.707396984 5.679618835 2.386179209
-6.744524956 5.757347107 2.62070322
-6.741731644 5.774186611 2.843888044
-7.395957947 6.649995804 1.658646464
-6.926242828 5.977284908 1.808239222
-6.898789406 5.959154129 2.020917654
-7.0420928 6.196328163 2.291140795
-6.72536087 5.743006229 2.399147272
-6.692306042 5.71568203 2.60309267
-6.724955082 5.787973404 2.843412399
-7.64623642 7.065647125 1.696351767
-6.889965534 5.963518143 1.80347836
-6.855917454 5.933303833 2.013017893
-6.996449471 6.167921543 2.280878067
-6.740993023 5.805531025 2.411606789
-6.670430183 5.721169949 2.600046158
-6.452760696 5.409805775 2.70381856
-7.664553165 7.137482166 1.700742602
-6.870774746 5.969285965 1.80185926
-6.822872162 5.919819355 2.007567883
-6.977922916 6.17804575 2.279488087
-6.54676342 5.543340206 2.338032484
-6.618264675 5.674628258 2.581557751
-6.367836475 5.312161446 2.664750814
-7.64279747 7.152075291 1.699467063
-6.891398907 6.039181232 1.808828115
-6.79776907 5.919975758 2.004457235
-6.946610928 6.170618057 2.274010897
-6.556145191 5.59343338 2.347519636
-6.338419914 5.279632092 2.454938889
-6.321289539 5.274101734 2.646758556
-6.880009174 6.061080933 1.809148192
-6.823470116 5.997885227 2.015330315
-6.916463852 6.164683819 2.268905878
-6.592763424 5.686284065 2.368285656
-6.34514904 5.323955059 2.464591742
-6.334989071 5.329422951 2.661808014
-6.964977741 6.209326267 1.604563713
-6.854431152 6.061304569 1.806497216
-6.77776289 5.966440201 2.006563425
-6.904499054 6.186705112 2.270025969
-6.856395721 6.134442806 2.482794523
-6.314110279 5.309629917 2.45615983
-6.307221889 5.320158482 2.654075384
-7.029911995 6.350321293 1.615670323
-6.852587223 6.0981493 1.808858752
-6.741933823 5.949715137 2.000483513
-6.888186932 6.202079296 2.269677639
-6.583467007 5.746104717 2.376307249
-6.247864246 5.260463238 2.628718853
-6.923588276 6.226836681 1.601760507
-6.837674618 6.11496067 1.808479667
-6.688195229 5.904441357 1.989373088
-6.858120918 6.19581604 2.264578581
-6.499866962 5.651409626 2.347575188
-6.261710644 5.295238018 2.443832397
-6.234705448 5.273562908 2.628966093
-6.892144203 6.218661308 1.598781466
-7.029354572 6.457142353 1.852139592
-6.662291527 5.902319908 1.985983014
-6.989416599 6.445721149 2.315671444
-6.452208996 5.612438679 2.333611488
-6.357028961 5.482550144 2.497034311
-6.26091671 5.350174427 2.651364803
-7.730854034 7.585087299 1.724165082
-6.978289604 6.421415806 1.84437573
-6.640646458 5.90678072 1.98377955
-6.597248554 5.860907555 2.184046745
-6.418474674 5.596926689 2.325677872
-6.254460335 5.374769688 2.655567646
-7.685270309 7.564455509 1.719505429
-6.993794918 6.489255428 1.850718379
-6.609777451 5.898266315 1.979162574
-6.499176502 5.741483688 2.154630184
-6.466664314 5.712025642 2.351965427
-6.435646057 5.684963703 2.550141811
-6.221877098 5.356820107 2.645009995
-6.872222424 6.311662674 1.600844264
-7.177505493 6.829159737 1.893419266
-6.62440443 5.959188461 1.987047553
-6.503925323 5.787296295 2.16128397
-6.404866219 5.647098541 2.33158803
-6.409735203 5.678385258 2.544216871
-6.35543251 5.612627506 2.729161263
-7.102909565 6.727103233 1.636932611
-7.239127636 6.973444462 1.909872413
-6.590229511 5.943232536 1.981300712
-6.467433929 5.766040325 2.153382301
-6.386294842 5.654094696 2.329757452
-6.393084526 5.688777924 2.543243885
-6.351860046 5.644237995 2.735569477
-7.082586288 6.739728928 1.635745287
-7.200338364 6.957766533 1.904804826
-6.573674679 5.955833435 1.980567932
-6.450472355 5.776557446 2.152391434
-6.375771523 5.67440176 2.33137846
-6.369428635 5.687484741 2.53877449
-6.349085808 5.677530289 2.742533445
-6.527215004 5.894968987 1.761169076
-6.746093273 6.281765461 2.034234047
-6.447644711 5.810624123 2.15647769
-6.369150162 5.701399803 2.334717751
-6.355715275 5.702730179 2.539296865
-6.318767548 5.664637566 2.733636618
-7.542776108 7.594299793 1.708805084
-6.507749081 5.902211189 1.759702921
-6.970116138 6.698951244 2.103336811
-6.446629047 5.848111629 2.161277771
-6.344448566 5.698169708 2.330294847
-6.358661175 5.74629879 2.548290968
-6.296342373 5.664823532 2.729273319
-7.515329838 7.601626396 1.706822991
-6.490306854 5.912791729 1.758684874
-6.429380894 5.858557701 2.160271168
-6.313865185 5.684723377 2.323292971
-6.241134644 5.608539581 2.70568943
-6.472827435 5.923310757 1.757665038
-6.625429153 6.206852436 2.012188196
-6.402151108 5.85197258 2.155645132
-6.317858696 5.730168343 2.331351757
-6.416257858 5.924145699 2.593118429
-6.248716354 5.659911633 2.718858719
-6.458330631 5.938910961 1.757314205
-6.942272663 6.791873932 2.109449387
-6.419492722 5.921782494 2.167288303
-6.333310604 5.795989513 2.344551802
-6.210199833 5.631486416 2.704903364
