# .PCD v0.7 - Point Cloud Data file format
VERSION 0.7
FIELDS x y z intensity
SIZE 4 4 4 4
TYPE F F F F
COUNT 1 1 1 1
WIDTH 1380
HEIGHT 1
VIEWPOINT 0 0 0 1 0 0 0
POINTS 1380
DATA ascii
-215.10162 -407.75827 0.96986157 80
-215.11743 -407.65649 0.96732986 45
-215.14871 -407.53665 0.96458632 45
-215.18729 -407.40747 0.96171516 30
-215.23747 -407.25946 0.95853502 47
-162.57042 -420.05347 0.98231506 17
-162.57962 -419.90842 0.98387492 34
-162.54532 -419.7634 0.98535138 34
-162.74353 -419.61893 0.98743099 34
-230.03333 -398.32666 0.98282671 10
-229.7718 -398.40005 0.98066431 9
-229.63599 -398.36246 0.97780758 9
-229.41777 -398.39532 0.97531909 9
-229.27621 -398.36459 0.97249168 9
-229.16812 -398.30591 0.96950018 9
-229.05994 -398.24774 0.96649784 9
-229.03311 -398.11917 0.96306902 9
-203.78319 -405.08829 0.97126991 63
-228.98767 -398.00632 0.95970303 9
-203.88316 -404.97385 0.97604877 9
-229.05185 -397.78864 0.95553303 9
-202.50882 -404.69186 0.89713126 36
-202.45805 -404.68954 0.89422876 18
-202.5517 -404.59662 0.8989504 7
-188.88475 -398.95392 0.92743504 46
-188.78741 -398.96613 0.92279524 51
-188.92195 -398.85226 0.93163317 46
-188.64337 -398.9162 0.91762972 52
-188.9632 -398.75543 0.9358958 46
-188.49886 -398.867 0.91242892 48
-188.9921 -398.64084 0.94005805 52
-188.3429 -398.81931 0.90669042 43
-189.0181 -398.5213 0.94422126 61
-188.18398 -398.76169 0.90107149 45
-188.04396 -398.73035 0.89564502 45
-189.04964 -398.40063 0.94866472 56
-187.89864 -398.68576 0.89031547 45
-189.12166 -398.25696 0.95551223 48
-189.28151 -398.10205 0.96660644 48
-189.17119 -398.09561 0.96180582 52
-189.53317 -397.82742 0.9849205 49
-189.43565 -397.84711 0.98001397 36
-189.37173 -397.91687 0.97536033 31
-189.23933 -397.88602 0.97017109 45
-189.50803 -397.62317 0.98897785 36
-197.06294 -461.32162 1.0801224 29
-197.81192 -460.69678 1.0896124 29
-197.68065 -460.66055 1.0864975 29
-197.55209 -460.59796 1.083167 34
-197.27583 -460.60217 1.0773786 11
-197.4248 -460.52704 1.07977 28
-217.7355 -446.02188 1.0318474 5
-207.73553 -442.95639 1.0898621 1
-214.37288 -434.58328 1.0522939 2
-214.36232 -434.48871 1.0507514 15
-214.38762 -434.38568 1.0493039 15.5
-214.58466 -434.2793 1.0488856 16
-214.50748 -434.29358 1.0486227 16
-214.44136 -434.31323 1.0485108 15
-192.33932 -431.38806 1.0715258 25
-192.30322 -431.33209 1.0690458 16
-180.3242 -428.17966 1.0140494 17
-180.53053 -428.0188 1.0141329 16
-181.50093 -427.55118 1.0164311 25.5
-181.41684 -427.44727 1.0153555 22
-178.56094 -428.12518 1.0043923 19
-180.83716 -427.46683 1.0124485 23
-178.45813 -428.05472 1.003497 9
-180.08134 -427.43808 1.0084662 42
-180.23914 -427.30051 1.0085655 33
-180.26071 -427.20218 1.0082002 41
-180.29099 -427.06281 1.0077097 28.5
-179.87941 -426.78073 1.0046327 8
-179.92741 -426.67993 1.0044881 33
-179.96643 -426.48654 1.0040168 16
-179.90149 -426.59586 1.0040834 33
-178.62602 -426.29636 0.99777991 37
-178.89334 -425.95624 0.99823534 18
-179.19617 -425.51846 0.99887413 8
-178.20723 -425.36652 0.99506623 37
-178.65855 -424.81433 0.99682295 36
-180.85579 -418.55853 1.0459338 28
-180.85808 -418.47717 1.0470507 42
-162.84024 -419.47513 0.98927492 34
-162.79738 -419.33783 0.99072194 17
-162.53111 -419.18997 0.99175382 17
-197.83124 -409.07254 1.0664325 4
-197.75713 -409.06497 1.0661539 2
-197.97711 -408.86746 1.0866545 17
-197.9158 -408.89218 1.0831748 9
-205.22578 -405.61337 1.0533892 100
-205.34131 -405.41168 1.0582577 12
-204.63942 -405.4061 1.020362 81
-204.74763 -405.26385 1.0253021 8
-189.69461 -397.22897 1.0075008 37
-189.54343 -397.33887 0.99782711 41
-189.44673 -397.36163 0.99286234 46
-189.52486 -397.13861 1.0020968 23
-189.58386 -396.88187 1.0113473 47
-189.63504 -396.7948 1.0159099 52
-189.6398 -396.63333 1.0202708 42
-189.67282 -396.50644 1.0250381 33
-189.73167 -396.41101 1.0301828 23
-189.77438 -396.29773 1.0350552 24
-189.76047 -396.09052 1.039762 53
-189.81509 -395.9942 1.0447541 43
-189.82904 -395.82935 1.0496569 55
-189.86537 -395.70981 1.0544209 50
-189.89941 -395.57565 1.0594634 55
-189.93422 -395.4415 1.0645483 50
-189.97984 -395.32455 1.0696896 46
-202.69666 -455.37943 1.1332093 5
-202.99417 -454.36798 1.128593 4
-204.96555 -452.96454 1.1496465 23
-203.26721 -453.39032 1.1238019 4
-204.8457 -452.86395 1.1465588 13
-203.35912 -453.14377 1.1230028 4
-204.71964 -452.70135 1.1427299 9
-204.60652 -452.6456 1.1401983 9
-204.49617 -452.61127 1.137925 9
-203.44664 -452.85904 1.1217346 9
-204.38551 -452.57056 1.1355754 9
-204.2787 -452.56531 1.133644 18
-204.16931 -452.53177 1.1313761 18
-204.06166 -452.51382 1.129289 23
-203.95522 -452.50739 1.1273333 37
-203.53899 -452.66583 1.1214657 18
-203.74812 -452.56119 1.1241757 100
-203.63441 -452.52817 1.1218029 50
-211.69048 -442.95294 1.1401836 13
-211.59723 -442.94626 1.1390342 24
-211.52374 -442.97852 1.1385689 33
-211.46434 -443.03928 1.1385975 24
-208.84392 -443.13544 1.1070322 2
-220.24344 -436.25641 1.113923 9
-220.26161 -436.06775 1.1107717 33
-220.21548 -436.13504 1.1116921 26
-220.34897 -435.92471 1.1087447 26
-220.29446 -435.99097 1.1096147 40
-220.42213 -435.8765 1.1082786 26
-213.60741 -435.02573 1.1277485 9
-213.61937 -434.92657 1.1308485 28
-213.87448 -434.76474 1.1466212 26
-213.78366 -434.78745 1.1419102 27
-213.6982 -434.81808 1.1372321 26
-213.64563 -434.8512 1.1339847 26
-237.94246 -421.19214 1.1570878 40
-235.65991 -421.19925 1.1511583 9
-235.94223 -420.65787 1.1588218 18
-235.45914 -420.75323 1.1564111 9
-234.93552 -420.52188 1.1579511 8
-235.01009 -420.41086 1.1594818 35
-234.59297 -419.65973 1.1669703 8
-233.76091 -419.86334 1.162667 8
-233.69312 -419.76016 1.1636301 8
-234.69447 -419.11679 1.1727921 34
-233.15848 -419.56305 1.1644032 15
-233.17766 -419.46182 1.1655085 7
-233.13638 -419.35626 1.1664882 7
-233.13884 -419.25522 1.1675119 23
-233.34647 -419.04312 1.1701112 15
-233.24886 -418.84268 1.1717538 31
-228.75175 -418.29239 1.1649489 49
-232.73863 -415.82782 1.1899568 61
-231.52066 -414.61542 1.1890908 42
-230.61987 -414.88 1.1856955 27
-229.6786 -414.87399 1.1824975 50
-229.67235 -414.77841 1.1825656 25
-229.35385 -414.74478 1.1814781 42
-229.34015 -414.65628 1.1814799 12
-229.2674 -414.5799 1.18125 24
-229.13765 -414.51587 1.1807959 24
-229.42632 -414.36337 1.1818513 18
-228.26207 -414.52399 1.177592 55
-228.0679 -414.39587 1.176814 49
-228.14853 -414.28995 1.1770482 44
-228.20143 -414.18973 1.1771657 44
-227.59492 -414.23978 1.1748657 52
-227.60475 -414.15118 1.1747962 26
-227.73502 -413.94177 1.1750035 59
-227.55495 -414.07257 1.1744887 42
-227.88145 -413.81793 1.175379 27
-227.91296 -413.72202 1.1753223 33
-231.60861 -412.57913 1.1881937 14
-228.3353 -413.52499 1.1766547 28
-231.51804 -412.39368 1.1873332 51
-227.85138 -413.46899 1.1744834 22
-231.61185 -412.26578 1.1873775 30
-227.74403 -413.05573 1.1727712 22
-227.92236 -412.9155 1.1730829 45
-227.79086 -412.86411 1.1722908 27
-227.87201 -412.65182 1.1718234 56
-227.81154 -412.76413 1.1719975 27
-227.32916 -412.72205 1.1695499 48
-227.24716 -412.65903 1.1688776 26
-227.31778 -412.54892 1.168712 59
-227.7446 -412.32584 1.1697366 28
-227.76372 -412.23386 1.1693755 22
-227.83064 -412.12161 1.1691355 28
-224.22926 -412.88367 1.1547889 15
-228.367 -411.65894 1.1693476 6
-223.98657 -412.84888 1.1532648 27
-228.24013 -411.60803 1.1683854 5
-224.03192 -412.71844 1.1526675 41
-223.90186 -412.68701 1.1517355 39
-223.60068 -412.71841 1.1502633 24
-223.14037 -412.77274 1.1480305 35
-223.37245 -412.57312 1.1479061 35
-223.30115 -412.51993 1.1470852 37
-223.18182 -412.40939 1.1455082 37
-223.06906 -412.52853 1.1457764 35
-223.08905 -412.36938 1.1446218 33
-222.4176 -412.55814 1.142068 34
-215.94003 -414.37924 1.1164236 1
-215.85767 -414.36758 1.1156958 22
-222.35583 -412.50549 1.141241 28
-215.84695 -414.32065 1.1150936 43
-222.78316 -412.25989 1.1418028 35
-222.74898 -412.20209 1.1410791 35
-222.76474 -412.04044 1.1397204 35
-222.78757 -411.9548 1.1390743 35
-221.68074 -412.27472 1.1347692 27
-222.83902 -411.8605 1.1385231 30
-221.89932 -412.10449 1.1345783 6
-221.95508 -412.00684 1.1339853 30
-221.81812 -411.99323 1.1329018 33
-221.82568 -411.91635 1.1321626 33
-221.80559 -411.85162 1.1313428 33
-221.79659 -411.77808 1.130496 15
-220.27408 -412.12643 1.1231788 5
-221.50302 -411.31754 1.1230522 33
-221.8484 -411.0769 1.1228355 31
-220.40138 -411.42621 1.1155651 30
-223.80032 -410.37195 1.1295213 24
-221.97424 -410.93414 1.1220747 34
-223.65057 -410.35583 1.1281818 32
-221.71078 -410.90808 1.1196299 37
-220.49948 -411.08261 1.1117973 14
-221.71524 -410.67065 1.1165866 34
-220.5062 -411.00595 1.1107986 11
-221.78453 -410.55685 1.1156554 34
-220.50905 -410.93103 1.1097785 5
-220.55177 -410.8378 1.1088412 2
-220.45398 -410.81732 1.1076765 11
-221.71875 -409.46826 1.0992525 16
-198.01007 -408.79245 1.0901371 3
-206.62216 -406.20746 1.130855 41
-206.57181 -406.21674 1.1283027 73
-206.49899 -406.21622 1.1245182 70
-206.40263 -406.21222 1.11948 69
-206.33621 -406.1731 1.1157677 66
-206.26579 -406.15802 1.1119947 68
-207.47745 -405.61279 1.171086 68.5
-207.37398 -405.61154 1.1658005 60.5
-206.73961 -405.83447 1.134582 17
-207.30171 -405.58719 1.1619575 64
-207.22951 -405.56223 1.1581056 68
-206.24135 -405.8327 1.1086324 133
-207.13054 -405.54129 1.1528975 65.5
-207.03235 -405.51611 1.1476916 65.5
-206.91109 -405.46313 1.1411066 57.333332
-197.0799 -405.0722 1.1447308 1
-196.54501 -405.2085 1.1484038 1
-196.99547 -405.02869 1.1418947 1
-196.9283 -405.02151 1.138913 1
-196.8441 -404.98059 1.1360275 3
-196.78459 -404.99014 1.1329702 17
-196.58333 -404.91269 1.125556 1
-190.28111 -394.65924 1.1009918 26
-190.36234 -394.60989 1.1060605 26
-190.17569 -394.66522 1.0959406 47
-190.42 -394.49628 1.1117222 47
-190.58255 -394.16132 1.1281055 32
-190.4064 -394.26019 1.1172848 43
-190.72807 -394.01459 1.1387786 53
-190.67276 -394.11584 1.1335194 48
-190.4651 -394.15594 1.1227622 37
-190.66057 -393.67545 1.1445652 22
-206.3336 -457.15402 1.2154288 26
-206.09518 -457.21817 1.2120537 21
-206.20982 -457.15363 1.2133381 26
-207.02254 -456.02267 1.2153369 5
-206.65468 -455.98221 1.2088567 5
-206.53166 -456.00168 1.2070115 5
-220.81139 -444.91275 1.2023658 5
-231.58722 -439.7337 1.2292149 26
-231.59177 -439.59631 1.2266493 52
-231.66199 -439.49634 1.2250539 42
-199.2951 -433.64944 1.2461671 8
-199.1586 -433.62146 1.2427062 12
-199.13736 -433.52179 1.2379181 14
-198.936 -433.60666 1.2385002 7
-199.11072 -433.25385 1.2255424 9
-199.07089 -433.25601 1.2250062 22
-198.1799 -433.26453 1.2118464 9
-198.25476 -433.14453 1.2076253 18
-198.31049 -433.08954 1.2060069 11
-240.72491 -418.21964 1.196324 11
-240.66341 -418.09479 1.1972394 11
-240.49789 -417.98175 1.1977665 11
-240.46356 -417.85666 1.1987088 11
-238.49704 -417.46716 1.19663 42
-237.67526 -417.4104 1.1948861 50
-237.64096 -417.29559 1.1956147 50
-237.50412 -417.18295 1.1960341 30
-237.4048 -417.06824 1.1965441 49
-237.65979 -416.92426 1.1981733 10
-237.68462 -416.81625 1.1989303 10
-237.65825 -416.70093 1.1995749 10
-237.96001 -416.55466 1.2012813 20
-238.22141 -416.29025 1.2035242 41
-237.73712 -416.21539 1.2025865 10
-237.70073 -416.10101 1.2030902 20
-238.20093 -415.8063 1.2059876 10
-237.63812 -415.98978 1.2034824 50
-238.00427 -415.70956 1.2058839 10
-238.15274 -415.57166 1.2069426 10
-238.26419 -415.43121 1.2078825 10
-233.19965 -415.97043 1.1907651 15
-233.0614 -415.88599 1.1906954 39
-232.85153 -415.71039 1.1907252 38
-233.10558 -415.46869 1.1923159 31
-232.66901 -415.6348 1.1904346 38
-232.73058 -415.42245 1.1913035 31
-233.09789 -415.15509 1.1932102 7
-232.92599 -415.28513 1.1923137 15
-233.10538 -415.05048 1.1935018 63
-232.92111 -414.97751 1.1930861 47
-232.87273 -414.88269 1.1931385 31
-232.04961 -414.92236 1.1903756 7
-231.97266 -414.83084 1.1902903 29
-231.91597 -414.74109 1.1902503 36
-208.86554 -401.25995 1.2150184 10
-208.80495 -401.22818 1.2117556 51
-208.74036 -401.21216 1.2083825 61
-208.63678 -401.22296 1.2031884 37
-198.11104 -403.12308 1.2469755 5
-197.96104 -403.07388 1.2409853 28
-197.85017 -402.94666 1.2390428 28
-197.78168 -402.9426 1.2358141 24
-198.0602 -402.05048 1.2738237 2
-198.30383 -401.95569 1.2884462 8
-198.24435 -401.9838 1.2847342 23
-198.14189 -401.98663 1.2796003 13.5
-183.61659 -405.01413 1.2569202 24
-188.30438 -401.79257 1.2366536 239
-188.18327 -401.76028 1.2382418 239
-188.08475 -401.75659 1.2391677 169
-188.51048 -399.38806 1.2775888 39
-188.4156 -399.40659 1.2778322 35
-188.54752 -399.26483 1.2796351 42
-188.2765 -399.34705 1.2797918 35
-188.1487 -399.30911 1.2813048 42
-188.58408 -399.14905 1.2815626 35
-188.01842 -399.27756 1.2827361 42
-188.61174 -399.01566 1.2838824 35
-187.90077 -399.25992 1.2838506 40
-187.77682 -399.22314 1.2853662 40
-188.65558 -398.90115 1.2857766 35
-187.64842 -399.18008 1.2870412 37
-188.67943 -398.74783 1.2885224 37
-187.51654 -399.13239 1.2888376 37
-190.94925 -392.14627 1.1987348 30
-190.97777 -391.95761 1.2051157 42
-191.02533 -391.80685 1.2113962 43
-191.07631 -391.66153 1.2177008 43
-191.11484 -391.50031 1.2238431 51
-191.16925 -391.35864 1.2302258 38
-191.21126 -391.18784 1.2368035 39
-191.25757 -391.02429 1.2433995 52
-191.31058 -390.8735 1.2499787 46
-191.36124 -390.71542 1.2566493 54
-191.40215 -390.54675 1.2631439 47
-191.45189 -390.3681 1.2703372 41
-191.50473 -390.20816 1.2771811 56
-191.57962 -390.09796 1.2837529 35
-218.85637 -456.7944 1.3865411 29
-218.8974 -456.58002 1.3844534 29
-218.93532 -456.36218 1.3822812 28
-219.51534 -456.03143 1.3847706 5
-218.97379 -456.14807 1.3801514 34
-219.02126 -455.95355 1.3783493 34
-219.04594 -455.71854 1.375798 11
-219.08722 -455.51718 1.3738289 5
-224.92351 -445.70148 1.3661125 21
-223.57008 -445.43668 1.3128375 13
-223.63525 -445.33704 1.3182009 26
-219.38496 -436.97876 1.3358961 6
-219.44431 -436.81082 1.3424861 37
-219.41534 -436.89835 1.3391386 34
-219.6288 -436.65186 1.3542438 34
-219.50804 -436.69687 1.3479602 35.5
-215.29698 -429.37454 1.3387264 32
-215.38727 -429.28299 1.3445235 11
-215.3297 -429.30124 1.3417225 30
-181.00117 -419.35355 1.375499 8
-181.04555 -419.28802 1.3727787 31
-181.03088 -419.21341 1.3718082 12
-201.24133 -404.50095 1.366012 39
-201.16998 -404.56577 1.360514 60.5
-201.0836 -404.54016 1.356782 72
-201.27782 -404.40244 1.3706608 30
-201.02531 -404.52554 1.3541948 67
-200.93669 -404.50626 1.3501842 63.5
-201.41652 -404.26532 1.3816934 7
-201.31604 -404.30991 1.3752354 39
-200.8488 -404.47906 1.3464388 27
-199.2654 -401.13547 1.3591684 43
-199.15771 -401.12268 1.3540921 48
-199.3338 -400.99777 1.3664508 31
-199.04126 -401.07971 1.3494221 52.5
-198.45982 -401.24377 1.3157904 24.5
-198.28755 -401.25891 1.3068107 2
-199.37157 -400.87256 1.3718462 29
-198.93074 -401.06049 1.3444005 47
-198.85464 -401.02789 1.3414851 38
-198.34724 -401.22327 1.3107568 9
-199.41309 -400.75897 1.3771099 27
-197.99753 -400.80597 1.3049001 2
-179.86536 -405.44696 1.3888568 21
-179.69611 -405.53571 1.3318636 7
-179.61526 -405.59393 1.333364 3
-179.7347 -405.44446 1.3314661 17
-180.12854 -405.16086 1.3244933 30
-180.02489 -405.19327 1.3265198 27
-179.85997 -405.30579 1.329455 14
-180.21681 -405.12247 1.3228426 16
-180.50441 -404.84906 1.3184931 33
-180.40807 -404.89209 1.3202182 23
-180.68054 -404.75635 1.3154789 33
-180.58562 -404.79358 1.3171786 37
-180.63329 -404.59052 1.3175534 27
-180.77676 -404.39993 1.3159879 20
-179.93852 -404.63068 1.3316082 3
-179.71794 -404.58017 1.3365337 14
-180.79709 -404.23337 1.3167837 7
-187.38629 -399.09808 1.2904032 37
-188.73405 -398.65097 1.2900623 30
-187.25563 -399.06439 1.2919782 37
-188.85266 -398.48279 1.2926624 30
-188.77063 -398.5188 1.2923781 33
-187.12352 -399.02966 1.2936006 40
-186.98378 -398.99292 1.2953347 38
-189.16599 -398.25781 1.2955848 27
-188.88678 -398.3436 1.2951572 27
-188.92262 -398.20615 1.2976279 27
-188.95361 -398.04684 1.3005574 30
-189.09712 -397.70248 1.3066589 31
-189.03682 -397.79706 1.3050507 35
-185.76857 -398.67264 1.3112122 43
-189.23323 -397.55362 1.3090804 28
-185.60474 -398.6127 1.3137292 47
-185.47205 -398.59253 1.3153218 39
-189.09915 -397.49881 1.310637 28
-185.32126 -398.54642 1.3175275 39
-185.16884 -398.49942 1.3197819 41
-211.90088 -390.97784 1.3063017 48
-185.02936 -398.47302 1.3215961 45
-211.80208 -390.94525 1.3011247 43
-189.18062 -397.22159 1.3158092 28
-184.87596 -398.42752 1.323873 41
-184.72171 -398.37332 1.3263134 41
-184.58287 -398.34286 1.3282381 37
-189.19107 -397.02817 1.3196051 25
-184.42647 -398.28851 1.3307372 38
-189.22166 -396.86319 1.32279 32
-184.27911 -398.25748 1.332796 42
-189.26596 -396.72531 1.3254123 36
-184.11748 -398.20764 1.3353177 38
-183.95644 -398.16025 1.3378139 42
-212.22687 -390.19589 1.3180317 5
-189.30519 -396.57471 1.3283212 32
-183.80028 -398.11227 1.3402834 42
-183.64992 -398.0827 1.3424283 40
-189.33661 -396.41705 1.3314095 36
-183.49513 -398.03949 1.344846 32
-183.33444 -397.99854 1.3473163 33
-213.70737 -389.40091 1.3873702 6
-189.36067 -396.24115 1.334901 37
-183.15588 -397.94391 1.3502173 41
-213.60269 -389.36401 1.3819534 6
-189.39775 -396.07944 1.3380917 37
-182.98932 -397.89828 1.352865 46
-213.50375 -389.30835 1.3767049 6
-213.13907 -389.36771 1.3588614 12
-182.82704 -397.85992 1.3553754 46
-182.66064 -397.81763 1.3580123 48
-213.3999 -389.26831 1.3712966 6
-213.28156 -389.27655 1.365442 12
-189.43909 -395.92496 1.3411447 41
-182.49318 -397.76651 1.3608065 48
-189.47809 -395.76318 1.3443704 30
-182.32574 -397.72595 1.36347 49
-189.51649 -395.59766 1.3476915 37
-182.15109 -397.66864 1.3664783 50
-181.99489 -397.64557 1.368793 41
-213.1712 -388.8623 1.3574908 33
-189.5631 -395.44858 1.3506802 42
-181.80742 -397.58395 1.3720635 47
-213.0679 -388.81573 1.3520442 33
-189.61058 -395.31256 1.3534162 38
-181.62923 -397.53589 1.3750474 52
-212.96439 -388.7695 1.3465821 33
-212.84125 -388.79294 1.3405428 79
-212.72371 -388.79758 1.3346657 53
-189.6691 -395.18744 1.3559309 38
-181.45105 -397.48062 1.3781482 53
-189.93935 -395.03052 1.3589454 27
-189.71201 -395.02371 1.3592833 31
-181.2617 -397.42197 1.3814629 53
-189.79761 -394.95956 1.3605391 23
-181.10686 -397.4079 1.383737 45
-189.93932 -394.75803 1.3646612 23
-180.91258 -397.34647 1.3871953 45
-190.18445 -394.57053 1.3685499 31
-190.23466 -394.41293 1.3718991 20
-190.04408 -394.5018 1.3700228 20
-189.94678 -394.54117 1.3692211 24
-190.31984 -394.32797 1.373728 20
-190.3206 -394.03812 1.3799249 16
-190.33681 -393.78345 1.3853958 17
-191.65149 -389.99377 1.2900233 35
-192.01584 -389.69431 1.3157049 35
-191.69066 -389.79526 1.297271 35
-191.85515 -389.59982 1.310495 42
-191.72495 -389.58191 1.3046924 36
-191.99937 -389.36462 1.3238417 29
-192.013 -389.10516 1.3315387 36
-192.09674 -388.98831 1.3387727 37
-192.22572 -388.6658 1.3538059 30
-192.10875 -388.68524 1.3475897 30
-189.38806 -429.50687 1.4675809 16
-189.37762 -429.45413 1.4649891 11
-189.37602 -429.0957 1.4457983 17.5
-189.32484 -429.0451 1.4444667 11
-203.83374 -405.0679 1.4875444 26
-202.54944 -404.57941 1.4322855 5
-202.45142 -404.65854 1.424852 34
-202.10361 -404.45779 1.4121631 16
-183.89117 -404.36606 1.477792 8
-183.82968 -404.43079 1.474234 34
-180.13217 -405.3775 1.3940988 52
-181.40041 -404.93951 1.4242799 49
-181.30354 -404.98969 1.4212446 9
-179.94118 -405.37769 1.3922023 42
-181.41037 -404.83292 1.4286079 39
-180.35887 -405.173 1.4041622 41
-180.24666 -405.21866 1.4012761 52
-180.12419 -405.25876 1.3985169 52
-181.44749 -404.7438 1.4325607 49
-180.37494 -405.07434 1.4081104 52
-181.43405 -404.62662 1.4370811 50
-180.44904 -404.89084 1.4159589 52
-180.36681 -404.95459 1.4126358 52
-181.49689 -404.5542 1.4406914 50
-181.48306 -404.42435 1.4457481 50
-180.37584 -404.72934 1.4214545 53
-181.48373 -404.30939 1.4503901 50
-180.36667 -404.61313 1.4258841 53
-180.4381 -404.54214 1.4294269 42
-199.09981 -399.20694 1.4044465 27
-181.23643 -404.02979 1.4588252 51
-181.50249 -403.74921 1.4734508 51
-181.41408 -403.8053 1.4700813 51
-181.25517 -403.81274 1.4678781 62
-181.15314 -403.85455 1.464964 84
-181.74004 -403.57486 1.483573 51
-181.69029 -403.65775 1.4795191 51
-181.57516 -403.6882 1.4768486 51
-199.33247 -398.57019 1.4340471 2
-199.25731 -398.5813 1.4299029 31
-199.1702 -398.5585 1.4261005 25
-199.27594 -397.97409 1.4478117 3
-173.64108 -404.42346 1.4764031 10
-173.54517 -404.22296 1.4789937 22
-173.21347 -403.86496 1.487572 34
-173.26501 -403.75833 1.4864793 17
-173.28047 -403.6344 1.4863094 34
-173.22189 -403.45288 1.4880478 23
-173.29976 -403.36301 1.4863542 34
-173.33173 -403.24176 1.4858444 47
-173.25887 -403.0549 1.4879985 35
-173.4175 -402.87598 1.4846892 41
-173.34789 -402.97214 1.4860871 29
-173.93939 -402.64807 1.4362342 56
-174.14479 -402.49393 1.4438465 55
-174.05701 -402.58276 1.4397354 55
-174.13115 -402.35355 1.4489229 55
-173.88399 -402.33505 1.4755131 47
-173.8222 -402.43661 1.4765825 52
-173.59224 -402.41656 1.4819523 6
-173.44467 -402.45734 1.4852437 6
-173.93004 -402.2218 1.4748664 35
-173.9899 -402.13104 1.4558525 56
-173.93484 -402.07761 1.4752953 29
-173.83952 -401.85767 1.4783052 30
-172.41966 -402.23117 1.4375021 58
-172.343 -402.33325 1.4331235 43
-172.52289 -402.14401 1.4416035 58
-215.61618 -390.01089 1.4846282 78
-172.58057 -402.02441 1.4464924 29
-215.51457 -389.96552 1.4794363 78
-215.35405 -389.93475 1.4714434 71
-215.19868 -389.87469 1.4635296 52
-215.09998 -389.82138 1.4584078 52
-214.98944 -389.80035 1.4528816 32
-214.87894 -389.77972 1.4473506 25
-214.77173 -389.75012 1.4419252 25
-214.66972 -389.70572 1.4366655 25
-214.56754 -389.66174 1.4313922 19
-214.45549 -389.64645 1.4257884 12
-214.34204 -389.61844 1.420037 6
-214.24263 -389.56604 1.4148326 6
-214.12959 -389.53696 1.4090801 6
-214.02669 -389.49478 1.4037473 6
-213.91995 -389.46442 1.398285 6
-213.80946 -389.44583 1.3926992 6
-167.20946 -401.6167 1.415188 34
-166.6532 -401.81989 1.404021 17
-167.32666 -401.51465 1.4195911 34
-166.66954 -401.67499 1.4090123 17
-166.72739 -401.54178 1.4139531 34
-167.21152 -401.29706 1.4261192 34
-180.72145 -397.29077 1.3905566 51
-167.03316 -401.04605 1.4333115 17
-180.51697 -397.22064 1.3943112 57
-167.12712 -400.93127 1.4380438 34
-180.33087 -397.17474 1.3975158 52
-180.15376 -397.13229 1.4005694 43
-179.95755 -397.07761 1.4040706 44
-179.75554 -397.01788 1.4077399 44
-179.56064 -396.96838 1.4111992 45
-179.35602 -396.90933 1.414941 46
-179.16513 -396.86801 1.4182833 46
-178.96973 -396.82321 1.4217567 41
-178.75316 -396.74698 1.4259481 54
-190.41959 -393.41006 1.3935052 21
-190.33698 -393.48172 1.3918848 21
-178.5499 -396.69684 1.4296468 48
-178.33006 -396.62988 1.4338201 55
-190.54274 -393.13416 1.3996245 18
-178.12549 -396.58203 1.437556 50
-190.4305 -393.1286 1.3996055 18
-177.91496 -396.52933 1.4414632 68
-177.69302 -396.46597 1.4456942 63
-177.4695 -396.39377 1.4500712 52
-177.25471 -396.3331 1.4542001 53
-177.032 -396.27484 1.4584515 72
-176.81129 -396.22076 1.4626473 67
-190.38641 -392.38449 1.4157159 24
-176.58585 -396.16351 1.4669782 55
-190.43042 -392.17731 1.4203058 40
-176.35143 -396.09882 1.4715596 56
-176.11765 -396.0369 1.4761248 64
-190.48311 -391.99078 1.4244791 45
-175.87483 -395.96759 1.4809415 64
-190.54095 -391.81558 1.428434 41
-175.63998 -395.89957 1.4856325 50
-190.59264 -391.61966 1.4328533 42
-190.63889 -391.42178 1.437323 36
-190.68596 -391.20499 1.4422326 37
-190.74144 -391.009 1.4467232 33
-190.79688 -390.80923 1.451319 44
-190.85672 -390.61899 1.4557371 33
-190.92081 -390.45715 1.4595524 11
-190.97607 -390.26498 1.4640392 23
-191.24217 -389.92975 1.4725513 23
-191.0309 -390.04819 1.4690976 23
-191.10623 -389.89243 1.4728774 23
-191.3299 -389.39914 1.4849243 18
-191.23351 -389.49524 1.4823458 18
-191.41658 -389.26886 1.4882609 30
-215.76111 -428.84341 1.5103137 11
-215.82959 -428.72232 1.5085592 7
-215.78366 -428.7627 1.5083243 39
-199.67413 -432.85654 1.5868484 5
-199.46562 -432.87109 1.5857283 5
-199.40242 -432.90863 1.5880492 8
-198.17508 -432.96619 1.583586 13
-192.17899 -431.47058 1.5227928 19
-192.1167 -431.43753 1.5217798 7.5
-185.15677 -429.55432 1.5854983 23.5
-185.0994 -429.47867 1.5834641 16
-183.1972 -428.21219 1.5817592 7
-183.13182 -428.12866 1.580138 19
-183.14503 -428.02039 1.5750651 20
-183.23833 -427.92276 1.5680115 30
-183.03644 -427.91824 1.5740362 20
-182.90047 -427.88931 1.5770003 24
-182.84537 -427.76599 1.5734923 16
-182.77599 -427.85614 1.5794419 26
-182.55394 -427.77963 1.5831015 22
-182.91064 -427.53589 1.5618408 24
-182.76031 -427.65085 1.5713049 18
-182.80806 -427.49506 1.5633439 20
-182.99117 -427.30789 1.5499135 20
-182.61873 -427.47708 1.5685087 22
-183.00316 -427.23648 1.5466136 24
-183.07732 -427.14911 1.5407281 17
-182.36667 -427.26663 1.5678055 16
-182.77419 -427.09363 1.5480038 39
-182.79478 -427.0199 1.5443885 20
-182.67981 -426.97964 1.5464009 30
-228.8945 -414.12338 1.5871435 17
-182.57185 -426.9335 1.5479681 20
-228.74068 -414.07028 1.5804057 21
-182.5251 -426.84109 1.5457845 24
-228.51305 -413.94193 1.5693357 21
-182.62871 -426.71381 1.5374871 26
-227.96182 -414.00122 1.5508009 16
-182.73073 -426.62228 1.5306646 26
-228.5242 -413.72421 1.5649022 17
-182.3533 -426.63831 1.543283 32
-182.30156 -426.58038 1.5426823 22
-228.6041 -413.59351 1.5648856 8
-182.49615 -426.46921 1.5321881 15
-227.86784 -413.73413 1.5415112 20
-182.01822 -426.43167 1.5460006 16
-181.72346 -426.56418 1.5604837 29
-227.6666 -413.69791 1.5334812 24
-181.83591 -426.39886 1.5505801 24
-227.26221 -413.73605 1.5197908 20
-182.03369 -426.28857 1.5400683 28
-227.15605 -413.67105 1.5145566 32
-181.90851 -426.24347 1.5423772 20
-181.78339 -426.19751 1.5446657 16
-227.1765 -413.56335 1.5129379 24
-226.85454 -413.57376 1.5016177 19
-181.23424 -426.2312 1.56356 4
-226.93303 -413.44623 1.5016613 15
-181.76834 -425.98901 1.5373952 22
-181.5786 -426.0947 1.5474133 12
-181.87399 -425.89984 1.5307066 16
-227.7139 -413.06921 1.5214691 12
-181.93672 -425.81903 1.5257221 22
-181.80084 -425.77286 1.5284245 12
-227.70728 -412.97287 1.5191506 21
-181.7892 -425.7049 1.5263339 8
-215.90161 -414.33585 1.5667473 21
-215.86453 -414.30338 1.5654136 45
-215.83281 -414.26852 1.5642941 21
-215.64343 -407.89972 1.5601295 35
-215.59444 -407.86356 1.5579717 59
-215.51427 -407.86426 1.5545405 57
-215.45009 -407.85278 1.5517689 63
-215.39209 -407.83096 1.5492404 63
-215.33272 -407.81085 1.5466528 54
-215.23546 -407.78592 1.5424215 59
-215.11671 -407.74738 1.5372283 64
-215.09262 -407.64713 1.5359814 33
-215.13702 -407.51224 1.537616 29
-215.16071 -407.39935 1.5383972 31
-215.19214 -407.27222 1.5394795 24
-197.87904 -409.00107 1.5526675 1
-197.81548 -409.04413 1.5503532 4
-197.74408 -409.05661 1.5498371 1
-197.97905 -408.83829 1.5264263 23.5
-197.91754 -408.86288 1.5232522 17
-205.2287 -405.58093 1.5502576 105
-205.3427 -405.40146 1.5617577 1
-204.69177 -405.4183 1.5248441 25
-204.74867 -405.24451 1.5329367 5
-203.88303 -404.97092 1.4929848 1
-181.49849 -403.27429 1.4930763 42
-181.16556 -402.90961 1.5041291 65
-181.23401 -402.71921 1.5130014 54
-181.16486 -402.78568 1.5093182 54
-180.62425 -402.14529 1.5293677 46
-172.83815 -404.18881 1.4964277 28
-172.78601 -404.01486 1.49787 23
-217.65514 -390.62775 1.5859169 33
-217.54778 -390.60681 1.5807023 33
-217.44196 -390.5694 1.5754724 39
-217.28099 -390.51862 1.5675337 38.5
-217.12151 -390.46497 1.5596379 52
-217.01051 -390.44006 1.5541971 52
-216.90111 -390.41196 1.5488082 58
-216.79874 -390.36771 1.5436683 65
-216.69467 -390.32748 1.5384599 71
-216.59047 -390.28766 1.5332403 78
-216.47023 -390.27185 1.5273676 78
-216.36359 -390.23834 1.5220491 100
-172.89957 -402.36462 1.4982327 25
-216.25307 -390.21448 1.5165882 97
-216.15152 -390.16879 1.511439 97
-216.0468 -390.14594 1.5062503 84
-215.93542 -390.12512 1.5007436 65
-215.83864 -390.06747 1.4957415 78
-215.72195 -390.04541 1.4899569 78
-172.42233 -401.87616 1.5107809 26
-173.24269 -400.95651 1.4954371 26
-173.16008 -401.0484 1.4968845 26
-174.35815 -395.52826 1.5115981 70
-174.19968 -395.54861 1.5142226 15
-174.42812 -395.41043 1.5114973 39
-173.59604 -395.32077 1.5271877 40
-173.35118 -395.27112 1.5320853 66
-173.09366 -395.22086 1.537245 58
-172.80699 -395.13535 1.5432807 68
-172.51892 -395.06064 1.5492731 60
-172.22893 -394.97711 1.5554043 61
-171.95009 -394.89703 1.5613221 62
-191.47025 -389.02362 1.4940881 12
-191.52269 -388.76877 1.5001514 12
-191.56923 -388.50983 1.5063019 13
-191.54607 -387.99875 1.5179034 13
-191.61131 -387.76862 1.5235299 13
-191.73946 -387.28329 1.5354143 14
-191.80148 -387.02429 1.5417578 14
-192.31018 -385.90912 1.570944 15
-192.20084 -386.01239 1.5677885 7
-192.32321 -385.40582 1.5828304 7
-210.5466 -443.23236 1.6094519 22
-210.46272 -443.26334 1.6046473 33
-210.38994 -443.32001 1.6006627 26
-214.37404 -434.54016 1.6748847 14
-214.38908 -434.38513 1.669279 17
-214.36778 -434.44977 1.6711297 16
-214.61662 -434.26392 1.6718894 13
-214.50858 -434.29037 1.6694256 23
-214.42934 -434.33798 1.6687275 17
-198.71367 -434.224 1.6856099 7.5
-200.15623 -433.43207 1.6387832 14.5
-200.08992 -433.30984 1.6281236 12
-199.91315 -433.35056 1.629016 14
-199.77335 -433.3786 1.6294897 9
-200.0453 -433.19556 1.6184162 12
-200.02321 -433.06055 1.6073698 12
-198.79187 -433.4039 1.6216717 10
-199.98836 -433.05237 1.6062626 12
-199.22797 -433.22742 1.6115432 5
-199.16673 -433.24002 1.6119622 18.5
-198.7562 -433.38348 1.619794 11
-199.57098 -433.03217 1.599623 11
-199.54161 -432.99103 1.5960413 6
-199.11911 -433.1839 1.607092 13
-199.62271 -432.94543 1.5933213 13
-198.08565 -433.1311 1.5960195 10
-185.15063 -429.65817 1.5907437 22
-182.84067 -430.19638 1.6831067 13.5
-228.70447 -417.30026 1.6543612 33
-182.88036 -430.0665 1.6757525 16
-228.70311 -417.20639 1.6520374 4
-182.82916 -429.93723 1.6711098 24
-182.60654 -429.952 1.6783102 25
-182.50237 -429.91794 1.6797587 23
-182.2867 -429.92728 1.686525 25
-182.94911 -429.59192 1.6513833 20
-182.38559 -429.73627 1.6747116 25
-182.11006 -429.76602 1.6842334 25
-181.95181 -429.74939 1.6881516 18
-182.50987 -429.38864 1.6550069 14
-182.43497 -429.34171 1.6550976 23
-182.37894 -429.28757 1.6543075 10
-182.35315 -429.22229 1.6521219 29
-182.23343 -429.19034 1.6542704 17
-182.20044 -429.1272 1.6524227 25
-182.71393 -428.87061 1.625464 24
-182.66125 -428.81622 1.6246271 18
-182.1924 -428.90274 1.6426492 19
-182.65485 -428.67349 1.6184909 12
-182.43013 -428.67578 1.6254133 20
-183.07498 -428.32138 1.5902472 18
-182.9875 -428.42029 1.5972391 1
-230.15257 -414.18808 1.6340355 24
-229.98163 -414.12845 1.6265075 19
-229.54825 -414.14142 1.6111465 18
-229.11487 -414.1629 1.5959834 18
-229.2861 -413.80276 1.5940906 18
-179.39165 -426.02969 1.6155955 5
-231.36484 -411.55164 1.6194129 11
-179.07663 -425.68494 1.6135486 25
-177.82088 -425.78568 1.6578984 11
-178.48305 -425.52872 1.6274176 5
-177.74982 -425.71216 1.6576476 22
-178.38509 -425.46078 1.6282653 10
-216.8728 -407.97971 1.6123773 5
-216.74252 -407.97757 1.6068875 28
-216.73627 -407.90079 1.6065409 22
-216.6514 -407.89832 1.6029547 7
-206.57317 -406.21671 1.6091063 40
-206.4805 -406.1897 1.6044962 61.333332
-206.38545 -406.17636 1.599375 58
-206.65163 -406.05219 1.6182812 22
-206.33841 -406.16669 1.5969321 59
-206.2693 -406.14258 1.5936251 59
-207.43329 -405.5878 1.6769994 63
-207.33536 -405.55521 1.6721503 65
-207.23711 -405.53552 1.6669329 64
-206.23901 -405.8559 1.5999589 132
-206.19601 -405.81113 1.5987475 67
-207.11588 -405.49548 1.6609542 66.333336
-207.01524 -405.48096 1.6554804 66
-206.78482 -405.59714 1.6387992 15
-206.96335 -405.46857 1.6528002 65
-206.91879 -405.43137 1.6512473 47
-206.87364 -405.39627 1.6496037 41
-219.17168 -396.52649 1.6827021 9
-219.03859 -396.47067 1.6764373 9
-218.91815 -396.3952 1.6706607 9
-218.83362 -396.3396 1.6665878 9
-218.80255 -396.20706 1.6646463 18
-218.86201 -395.9263 1.6662475 19
-218.97081 -395.56128 1.6697625 19
-219.08243 -395.18665 1.6733623 20
-219.20067 -394.78607 1.6771533 20
-219.32059 -394.38693 1.6810216 21
-219.45625 -393.95569 1.685474 21
-219.7984 -391.13608 1.6891509 34
-219.66429 -391.14499 1.682946 27
-219.50771 -391.19681 1.6758806 27
-219.41934 -391.12225 1.6714191 27
-219.29237 -391.12045 1.6654786 27
-219.17949 -391.09265 1.6600707 27
-219.06883 -391.07318 1.6547987 27
-218.95688 -391.04449 1.6494166 27
-218.85124 -391.00372 1.6442686 26
-218.74463 -390.96515 1.6390771 33
-218.63254 -390.93768 1.6336737 33
-218.52309 -390.90527 1.6283653 33
-218.4136 -390.87329 1.6230493 33
-218.3067 -390.8363 1.6178249 33
-218.20407 -390.79077 1.6127541 33
-218.08139 -390.78699 1.606931 33
-217.96928 -390.74884 1.6014327 33
-217.86638 -390.7045 1.5963343 33
-217.75574 -390.67679 1.5909431 33
-166.32748 -402.9628 1.662649 35
-166.1321 -403.01428 1.6679276 35
-165.87352 -403.03229 1.6748356 18
-165.6445 -403.06808 1.6810242 18
-166.25601 -402.76273 1.6641529 35
-166.28995 -402.621 1.6630131 26
-166.04828 -402.32175 1.6688704 36
-166.07162 -402.18832 1.6680692 36
-166.46774 -401.92856 1.6575 45
-166.64748 -401.70779 1.6527172 36
-166.4792 -401.77158 1.6570776 18
-166.64111 -401.53961 1.652796 36
-166.71411 -401.41895 1.6508954 36
-166.81677 -401.3082 1.6482698 45
-167.21513 -400.9097 1.6383355 44
-167.08142 -400.9834 1.641646 45
-166.90536 -401.03131 1.6460495 18
-167.30888 -400.80283 1.6360631 35
-192.39854 -385.1492 1.5893927 8
-192.4937 -384.99933 1.5936122 8
-192.55215 -384.65726 1.6021096 8
-192.63011 -383.83157 1.6222168 8
-230.60266 -440.97775 1.7176167 61
-230.63582 -440.85297 1.7217038 60
-230.71387 -440.76425 1.7268515 45
-212.7805 -445.09366 1.7544717 4
-212.70107 -445.15015 1.7499835 4
-213.61168 -435.04156 1.7558235 3
-213.6216 -434.93887 1.756053 20
-213.87463 -434.7731 1.7716848 75
-213.80331 -434.77158 1.7670845 28
-213.71045 -434.79068 1.761181 35.5
-213.6373 -434.84647 1.7566968 26
-198.70224 -434.68744 1.7220412 10
-198.4901 -434.34552 1.6934183 15
-198.42969 -434.40509 1.6976558 11
-182.66032 -430.93878 1.7243456 21
-182.74382 -430.81863 1.7160652 17
-182.57822 -430.49969 1.7052586 12
-182.39941 -430.49881 1.7103642 19
-181.76538 -429.74225 1.6933563 24
-232.83862 -414.46649 1.737712 5
-232.63545 -414.17358 1.7235757 11
-176.47069 -426.42169 1.7242255 6
-175.80728 -426.43744 1.7462808 12
-176.18686 -426.19846 1.7254895 12
-175.58 -426.38141 1.7516575 6
-221.436 -413.55789 1.784335 22
-221.41617 -413.49695 1.7838734 8
-221.30605 -413.46912 1.779771 22
-221.2598 -413.38437 1.7783976 30
-221.39821 -413.2298 1.7844651 24
-221.32379 -413.186 1.7817991 22
-176.35664 -425.6412 1.7005957 15
-221.32013 -413.11523 1.781983 8
-176.32567 -425.55676 1.6987253 15
-221.12535 -412.9856 1.7750382 28
-176.39615 -425.45981 1.6931342 30
-221.09608 -412.92868 1.7741545 20
-175.88942 -425.43173 1.7087442 12
-221.08133 -412.79697 1.7741481 8
-176.01799 -425.32721 1.7010309 18
-221.34117 -412.61984 1.7849633 16
-175.95033 -425.24551 1.7005167 18
-221.0674 -412.66434 1.7741616 18
-220.62798 -412.71323 1.7569073 11
-220.93047 -412.51099 1.7694639 8
-175.45569 -425.20941 1.7155116 18
-220.81407 -412.4888 1.7650263 10
-220.43384 -412.58707 1.7498546 22
-175.74495 -424.9982 1.6990764 31
-175.53351 -425.11023 1.7096863 15
-220.40874 -412.53033 1.7490934 7
-175.41177 -424.94067 1.7081227 18
-220.7809 -412.29517 1.7644715 22
-175.40109 -424.85065 1.7055494 18
-220.74074 -412.24014 1.7631092 30
-220.61629 -412.22723 1.7583025 24
-175.45042 -424.75516 1.7008457 28
-219.92917 -412.20636 1.7315228 22
-175.19345 -424.68665 1.7070856 22
-174.76137 -424.63095 1.7195055 16
-220.8965 -411.59891 1.7714055 18
-220.63304 -411.65616 1.7608918 28
-220.71219 -411.39368 1.7648089 24
-220.3286 -411.29868 1.7499835 46
-220.18059 -411.30487 1.7441298 38
-220.36275 -411.13629 1.7517731 16
-220.25159 -411.12332 1.7474172 74
-220.4752 -410.78946 1.7571096 8
-220.48376 -410.8551 1.7572851 16
-220.42636 -410.74228 1.75529 12
-220.32338 -410.64398 1.7514377 10
-220.3316 -410.5611 1.7519523 24
-197.16493 -405.07132 1.7178543 3
-196.55721 -405.17401 1.7747029 4
-197.03683 -405.00192 1.7177608 3
-196.92371 -404.96567 1.7162399 3
-196.43915 -405.09885 1.7794259 2
-196.85448 -404.95508 1.7146487 3
-196.78239 -404.93945 1.713271 37
-196.36575 -405.0697 1.7813916 2
-196.64578 -404.92517 1.7098022 3
-196.55585 -404.87668 1.7097937 3
-196.49118 -404.87839 1.7076914 3
-196.27774 -404.99094 1.7862481 2
-196.19128 -405.01599 1.7852629 2
-196.39687 -404.82361 1.7079301 3
-219.58557 -393.53967 1.6896913 22
-219.73445 -393.08453 1.6946406 23
-219.85443 -392.6731 1.698436 24
-220.00757 -392.14273 1.7032491 12
-220.14848 -391.67044 1.7077373 27
-220.2971 -391.1777 1.7124871 35
-220.2296 -391.064 1.7088641 49
-220.13242 -391.00284 1.7040862 56
-220.01859 -390.97183 1.6986619 56
-181.04985 -396.57492 1.7884337 65
-180.80762 -396.49475 1.787953 92
-180.57307 -396.42441 1.7871592 80
-180.34755 -396.35687 1.7864103 66
-180.10414 -396.2738 1.7861063 67
-179.88455 -396.22418 1.7846496 68
-179.63405 -396.14667 1.784001 68
-179.38707 -396.07477 1.783169 68
-179.12042 -395.98642 1.7827992 69
-178.84827 -395.88699 1.7828772 56
-178.59586 -395.8168 1.7819384 56
-178.34264 -395.74811 1.7809396 56
-178.0798 -395.67273 1.7801147 57
-177.80437 -395.58807 1.7795357 57
-177.52928 -395.49771 1.7792481 58
-177.2713 -395.43375 1.7780421 58
-176.99323 -395.35388 1.7772664 73
-176.69934 -395.26239 1.7767981 73
-176.39999 -395.16864 1.7763685 59
-176.10548 -395.07315 1.7761185 60
-174.81097 -394.6517 1.7753379 77
-174.90169 -394.55225 1.7811929 62
-174.54832 -394.60526 1.7734736 62
-174.23128 -394.50616 1.7731789 63
-173.901 -394.39862 1.7730874 63
-173.56525 -394.29834 1.7726165 64
-173.23151 -394.20264 1.7719967 64
-172.87508 -394.09116 1.7717704 66
-172.52061 -393.98444 1.7713901 67
-213.745 -444.76959 1.8113909 4
-213.64645 -444.77301 1.8053818 4
-213.79173 -444.63153 1.8135027 4
-213.51015 -444.67496 1.7965152 4
-215.27849 -429.39191 1.8519343 13
-215.36185 -429.26062 1.8575561 12
-215.29611 -429.30548 1.8530904 40
-233.40607 -419.59927 1.8844818 5
-233.43649 -418.92236 1.868166 5
-233.47581 -418.80435 1.8665953 5
-233.05011 -418.73993 1.8493274 11
-234.3757 -418.22864 1.8849983 18
-233.24998 -418.49039 1.8503259 5
-232.75041 -418.2226 1.8252435 11
-232.67502 -418.12668 1.8200693 22
-232.59702 -418.0148 1.8144079 16
-233.06706 -417.84109 1.8272878 11
-233.11819 -417.72025 1.8261472 11
-234.14755 -417.33344 1.8542306 12
-233.12541 -417.60556 1.8235579 5
-182.37389 -427.6283 1.831213 16
-182.38101 -427.5358 1.8292937 22
-182.40964 -427.40411 1.8261013 16
-182.38855 -427.28613 1.8245685 19
-182.22247 -427.25815 1.8286713 16
-182.18831 -427.18875 1.8284223 19
-182.24463 -427.00427 1.8237458 26
-182.2346 -427.08813 1.8254255 26
-182.04976 -426.98767 1.8289367 16
-182.58844 -426.72433 1.8095361 15
-182.35861 -426.71484 1.8158724 21
-182.39481 -426.62405 1.813436 12
-182.12292 -426.62555 1.8211826 16
-181.68384 -426.68088 1.834524 6
-181.84464 -426.55063 1.8280128 16
-181.85533 -426.37802 1.8252413 3
-181.72539 -426.50165 1.8307253 6
-181.59186 -426.37506 1.8327994 16
-181.69374 -426.26035 1.8282965 6
-181.0062 -426.37207 1.8497232 7
-181.17657 -426.19592 1.8424927 13.5
-181.29027 -426.0376 1.8371915 17
-181.05051 -426.01697 1.8439748 14
-181.12926 -425.90967 1.8403903 21
-180.99692 -425.86301 1.8437549 18
-180.68945 -425.85675 1.8527744 18
-180.44476 -425.83667 1.8598063 7
-180.16315 -425.82434 1.8680416 19
-180.69304 -425.60352 1.849966 18
-180.64758 -425.52795 1.8505609 18
-180.85983 -425.39423 1.8428978 14
-180.71199 -425.34366 1.8468515 7
-180.58759 -425.28665 1.8500663 14
-222.58347 -413.51022 1.8286475 2
-222.54745 -413.59747 1.8268051 10
-181.09241 -425.08353 1.8330401 10
-222.11542 -413.52539 1.8106066 10
-181.25876 -424.87744 1.8262624 16
-181.2124 -424.97177 1.8284515 6
-222.0898 -413.46411 1.8099369 21
-221.64021 -413.55334 1.7922088 44
-181.27122 -424.7952 1.8252232 16
-181.09752 -424.7493 1.8301487 13
-180.35684 -424.82297 1.8532628 18
-180.29434 -424.74951 1.8546451 3
-180.41698 -424.64194 1.8501554 7
-179.51576 -424.65323 1.8778762 4
-221.65236 -412.91629 1.7957177 12
-179.2475 -424.53098 1.8854223 8
-179.82504 -424.24921 1.8660883 7
-179.58856 -424.37695 1.8740571 4
-179.88113 -424.15585 1.8638995 19
-222.93604 -412.11032 1.8489114 15
-179.99586 -424.04822 1.8598495 18
-180.03427 -423.91373 1.8580971 11
-179.77364 -423.8298 1.8659079 7
-222.02795 -410.8923 1.8180248 8
-222.09546 -410.77673 1.8210315 4
-223.37691 -409.96228 1.8738467 16
-223.3942 -409.86877 1.8747993 27
-223.42525 -409.76764 1.8763117 13
-221.72862 -409.43909 1.8099154 2
-221.64095 -409.40842 1.806483 11
-180.76285 -418.80988 1.8606846 202
-180.77211 -418.73276 1.8615092 239
-180.81976 -418.57196 1.862385 239
-180.79381 -418.65222 1.8620063 239
-180.85199 -418.49222 1.8625787 239
-180.8783 -418.41641 1.8629266 239
-211.46619 -406.94955 1.8873169 100
-211.41364 -406.93799 1.8842769 99
-211.33289 -406.92456 1.8794986 99.5
-211.25797 -406.90109 1.8753595 100
-211.20927 -406.88333 1.8727384 100
-211.13428 -406.86063 1.8685867 99.5
-211.05545 -406.84531 1.8640049 93
-210.98505 -406.81464 1.8603667 88.5
-210.91267 -406.78784 1.8565086 87
-210.8587 -406.78677 1.8531364 87
-210.78535 -406.76251 1.8491616 91.5
-210.71371 -406.73505 1.8453871 93
-210.66829 -406.71219 1.8431402 90
-210.58784 -406.7001 1.838416 91.5
-210.51495 -406.67877 1.8344179 81
-210.4449 -406.646 1.8309097 73.5
-210.37128 -406.62076 1.8269835 66
-210.31615 -406.61899 1.8235896 51
-210.24776 -406.586 1.8202105 25.5
-210.17656 -406.56528 1.8163338 17
-210.10013 -406.55026 1.8119842 12.5
-210.02628 -406.52371 1.8081114 8
-209.98161 -406.50613 1.8058151 5
-208.33484 -402.48181 1.816826 11
-208.45978 -402.36328 1.827512 13
-208.78596 -401.31607 1.87598 23
-198.49367 -403.51242 1.8571216 11
-198.55484 -403.41846 1.8651212 15
-198.58029 -403.30643 1.872875 11
-197.98285 -403.23862 1.8546386 19
-198.01256 -403.15088 1.8609982 12
-197.85378 -403.07144 1.8599564 44
-224.04959 -392.67346 1.888606 7
-223.93152 -392.63654 1.8832219 7
-223.83212 -392.56424 1.8785491 7
-223.73721 -392.49576 1.8740819 7
-223.6003 -392.48624 1.8679247 7
-223.48897 -392.44141 1.8627867 7
-223.40973 -392.3512 1.8589261 7
-223.24092 -392.38922 1.8514794 7
-223.12265 -392.35565 1.8460485 7
-223.00894 -392.31604 1.8407927 7
-222.8974 -392.27356 1.8356187 7
-222.7455 -392.29117 1.8288318 7
-222.64484 -392.22324 1.824043 7
-222.54877 -392.15891 1.8194658 7
-222.45245 -392.09494 1.8148725 7
-222.30768 -392.10483 1.8083513 7
-222.19218 -392.0603 1.8029467 14
-188.89555 -398.909 1.8325787 97
-188.79099 -398.91132 1.8299545 88
-188.92245 -398.79294 1.8394064 97
-188.6445 -398.85797 1.8293047 90
-188.9523 -398.68008 1.8461528 81
-188.5047 -398.81494 1.8282799 91
-188.98857 -398.57535 1.8526399 90
-188.36205 -398.76941 1.8273344 83
-189.03142 -398.47119 1.8592721 100
-188.21758 -398.74567 1.8252149 74
-189.06906 -398.35892 1.866231 100
-188.04361 -398.66949 1.8251894 100
-187.91649 -398.64847 1.823365 85
-189.10245 -398.24759 1.8730491 91
-187.75354 -398.58981 1.822706 67
-189.12956 -398.12643 1.8802601 92
-187.60352 -398.54941 1.8214056 67
-189.1649 -398.02423 1.8866684 83
-187.45178 -398.50818 1.8201251 100
-187.28961 -398.45523 1.8192379 100
-187.13312 -398.41098 1.8180437 100
-186.97112 -398.3613 1.817024 81
-186.81734 -398.32343 1.8155959 91
-186.64664 -398.25848 1.8152087 92
-186.48042 -398.20831 1.8141739 100
-186.31749 -398.16367 1.8129442 73
-185.28314 -397.85361 1.8068948 78
-185.09938 -397.79572 1.8060282 79
-184.92288 -397.74783 1.8048229 79
-184.73524 -397.68893 1.8039645 80
-184.53635 -397.61911 1.803445 82
-184.37271 -397.59064 1.801581 58
-184.17505 -397.51797 1.8012658 71
-183.9861 -397.45673 1.8005699 60
-183.76971 -397.37494 1.8003737 97
-183.57686 -397.32089 1.7992809 61
-183.39696 -397.28256 1.7976798 61
-183.20003 -397.21967 1.7969837 74
-182.99306 -397.15567 1.796167 75
-182.79224 -397.1001 1.7950727 87
-182.5703 -397.03201 1.7942116 75
-182.33772 -396.94702 1.7939988 100
-182.14713 -396.89984 1.7927454 76
-181.95755 -396.86328 1.7910137 64
-181.71016 -396.76913 1.7910306 64
-181.4899 -396.70496 1.7901154 65
-181.2659 -396.63095 1.7896264 65
-211.48119 -443.00125 1.9408633 18
-211.60855 -442.89734 1.9398465 26
-211.53427 -442.92798 1.939145 28
-220.12164 -436.11142 1.9244349 11
-220.42947 -435.92535 1.9277624 27
-220.08998 -435.98828 1.9187317 23
-220.12106 -435.91089 1.9168591 28
-220.18185 -435.84982 1.9166033 23
-200.62257 -433.03189 1.9884119 24
-200.59123 -432.94235 1.9776739 13
-200.51648 -432.95328 1.9779223 12
-200.4987 -432.86292 1.9673074 12.666667
-199.94908 -433.01187 1.9784963 11
-199.80612 -433.09146 1.9864621 8.5
-199.73457 -433.04031 1.9800985 11.5
-200.38135 -432.80255 1.9589038 15.666667
-200.31128 -432.76913 1.9542476 15
-199.68915 -432.95837 1.9704298 10
-199.60669 -433.0101 1.9758352 7.6666665
-199.53677 -432.98892 1.9730296 8
-199.4529 -433.02328 1.9765368 5
-200.24214 -432.71259 1.9469975 18.666666
-200.14211 -432.78616 1.9544075 11
-200.03651 -432.75522 1.9498583 7
-199.50594 -432.93552 1.9667807 15
-199.42366 -432.96179 1.9693992 5
-199.90736 -432.76016 1.9493269 9
-199.39993 -432.89307 1.9614718 4
-199.20943 -432.88782 1.9602593 2
-198.98427 -432.95712 1.967748 6
-200.10873 -432.60654 1.9334831 19
-199.96326 -432.61307 1.932941 14
-199.11235 -432.80542 1.950713 10
-199.07214 -432.80719 1.950856 8
-198.53406 -432.9505 1.9674032 2
-198.22957 -433.0387 1.9784112 10
-198.9577 -432.81705 1.9518776 8
-198.36342 -432.98944 1.9723222 8
-198.9518 -432.66705 1.9349138 7
-198.8698 -432.69513 1.9381101 3.3333333
-198.81815 -432.58698 1.9259449 5
-198.64687 -432.66544 1.9350749 4
-198.49695 -432.71661 1.9412545 9.5
-198.19478 -432.80716 1.9527189 4.5
-198.21861 -432.53625 1.9223738 2
-198.13501 -432.61581 1.9317476 8.5
-197.96201 -432.42422 1.911718 3.5
-197.92691 -432.3497 1.9037616 4
-235.0817 -420.86218 1.979327 26
-234.7847 -420.75873 1.9656425 19
-234.31973 -420.66626 1.9460771 24
-233.68889 -420.5864 1.9207507 11
-235.50708 -419.89532 1.9694326 6
-233.88095 -420.34711 1.9214946 12
-233.62653 -420.47665 1.9155542 23
-234.06345 -420.22632 1.9250269 12
-234.09995 -420.11453 1.9234329 6
-192.25587 -431.63327 1.9850819 2
-192.20969 -431.61594 1.985458 2
-192.19048 -431.50455 1.9762723 2
-192.1916 -431.57019 1.9821078 4
-233.85362 -419.89755 1.9086959 12
-192.13063 -431.50385 1.9787586 2
-233.61606 -419.80811 1.8976288 23
-233.51521 -419.703 1.8911866 5
-236.19221 -418.8685 1.96798 7
-234.55582 -419.26389 1.9180522 25
-233.86588 -419.44418 1.8973612 6
-234.62825 -419.13953 1.9175067 6
-234.15608 -418.96002 1.8955522 6
-237.04755 -417.76923 1.9713944 15
-234.7222 -418.42755 1.9027497 12
-238.41467 -416.28006 1.9843798 16
-189.38135 -429.78146 1.9738727 19
-189.36584 -429.7337 1.9712156 15
-238.444 -416.00842 1.9787827 16
-238.79555 -415.81281 1.9868492 25
-238.90613 -415.65784 1.9871098 8
-238.96893 -415.51068 1.9858216 8
-189.34627 -429.09818 1.9266195 20
-189.28053 -429.02942 1.9255542 14
-240.01508 -414.06769 1.9892894 9
-239.77832 -413.98511 1.9787065 17
-239.56294 -413.89926 1.9688299 35
-239.57294 -413.74265 1.9654922 44
-239.60487 -413.59467 1.9631658 44
-239.64014 -413.44547 1.9609398 35
-178.14093 -425.01596 1.922374 9
-179.09161 -424.6514 1.8909143 12
-212.69565 -407.31006 1.957038 87.5
-212.58131 -407.28885 1.9501674 29
-212.45525 -407.23904 1.9432782 92
-212.36671 -407.22842 1.937832 89
-212.25859 -407.19849 1.9316256 16.5
-212.13504 -407.15723 1.9247299 75
-212.04774 -407.14227 1.919503 15.5
-211.9765 -407.11194 1.9157106 63
-211.90404 -407.08136 1.9118539 94.5
-211.81892 -407.06689 1.906777 86
-211.77362 -407.0419 1.9045253 63
-211.69371 -407.02213 1.8999325 85.5
-211.61424 -407.0123 1.8951157 92
-211.56699 -406.99625 1.89252 89
-211.51279 -406.97177 1.8897047 96
-197.96794 -408.82617 1.9673388 21
-197.92293 -408.8356 1.9659858 21
-197.9816 -408.76135 1.9731593 10
-197.87289 -408.83658 1.9653234 7
-162.88692 -415.78607 1.8938358 8
-202.48665 -404.57236 1.9640439 35
-202.55902 -404.49747 1.9723465 3
-202.1208 -404.44821 1.9540552 3
-202.06848 -404.44308 1.9518661 57
-201.21214 -404.53824 1.906105 37
-201.13005 -404.54099 1.9022468 50.5
-201.24947 -404.44574 1.913564 38
-201.01204 -404.50461 1.8992538 48
-200.92319 -404.47812 1.896969 42
-201.39095 -404.31226 1.9283438 35
-201.31154 -404.33371 1.9233813 40
-200.86487 -404.46597 1.895156 38
-201.42743 -404.2045 1.9367615 7
