# .PCD v0.7 - Point Cloud Data file format
VERSION 0.7
FIELDS x y z intensity
SIZE 4 4 4 4
TYPE F F F F
COUNT 1 1 1 1
WIDTH 872
HEIGHT 1
VIEWPOINT 0 0 0 1 0 0 0
POINTS 872
DATA ascii
-0.23340584453805846 -31.44261402966798 0.12425834 0.0
-78.11952854832036 -274.2644854728785 1.8769629 0.0
33.60544074368695 3.138018529355719 -0.44869098 0.0
18.357316265153152 -124.71141181107345 0.18371308 21.794121
27.09586943164949 -380.7171041567165 0.064160578 0.0
-1.1933977633706476 -144.43315744907233 -0.16997327 0.0
-49.90126828670694 -194.02449780168848 2.2053037 24.806465
-35.4328822779902 -179.00291794958486 0.65940922 0.0
-83.46176519212986 -227.94780506960313 6.2608886 21.166668
-47.64323521083858 -52.60065689542746 1.1488836 0.0
-125.15867814677897 -296.0207081675738 2.038805 0.0
-61.562745222704606 -67.67927505203909 4.8148646 116.42717
-13.822400683633596 -18.41409791628297 0.10269386 0.0
66.13759838892506 -393.2513492445999 -0.268884 0.0
-38.907189394315054 29.336335323443897 0.99580455 0.0
-29.65481341508631 -17.08206547588196 0.041967072 0.0
13.5936097774314 -29.51413287603603 -0.11609861 0.0
31.54200169122535 -332.29689998640293 -0.50755 0.0
-45.09681440266736 -145.60530930145543 1.0548985 0.0
-60.55888716700076 -273.4216127380689 2.5585709 47.134926
27.170114648304022 -392.0505858647312 4.5497937 12.433355
-65.06524879198064 -384.2086411585361 1.5628459 0.0
-1.3433105414888118 -156.42154246101856 2.3726294 95.343773
-96.26139999704799 -268.394516025602 2.390512 0.0
15.760991076186187 9.421032534411964 0.081317954 0.0
-139.33928044205436 -368.13004123983256 3.7733555 0.0
-27.214480509581296 -90.21342702797617 1.1708688 0.0
40.481492378518794 -21.400102361825347 -0.68591797 30.142859
-105.11937265457016 -333.29774277007846 2.3158178 0.0
6.9726147001711425 -55.767875865633286 0.60224348 15.60757
-28.77617085773856 -87.68900903825627 1.180804 0.0
38.84446498128931 -18.564208627972633 -0.62200677 59.0
-38.58466620396966 -335.72749102730825 1.1960917 0.0
-67.01332758210972 -99.35707759651393 0.84263062 0.0
-72.44260236350888 -369.8191037147551 2.0585468 0.0
-100.73919460790226 -133.81445979659873 1.5039288 0.0
-82.4835732400167 -227.56535019974632 1.8100327 0.0
5.3074716808792815 -31.319630025118414 0.013234019 0.0
-107.01708319822991 -309.00624665611406 2.6394627 0.0
38.83006716901511 3.0443455834019915 -0.14322692 0.0
-73.13231370020665 -274.49700034069144 1.72965 0.0
-141.0074202135742 -343.4195187893692 7.0034761 9.9041147
85.40978283314703 -379.52631730394165 0.59793478 12.008878
-19.69448455210751 43.28418396222598 1.3789635 13.20593
-0.9017420827804621 -30.882404004863005 1.737758 21.857143
17.356891254019004 -124.46974907726192 1.80714 35.500019
-50.891014160273585 -193.26080346412022 4.9582291 18.180691
-64.75178205211073 -317.10533950148374 1.6708236 0.36000013
-1.539983376118002 -88.6924619428708 2.7054129 37.26022
14.00736972870462 39.63887419275417 1.5397583 0.0
-74.42358720047609 -322.94025938708927 1.6217183 0.0
-10.673160294627088 -94.53201282036832 2.4743059 34.019474
-7.8263488384655915 -325.1138067072087 0.61431563 0.0
-84.22269048946873 -138.0147326366252 2.5624962 50.343758
-25.83382843475001 -22.241863807811328 0.011387462 0.0
-69.0260908445216 -9.763452895687763 1.3996112 0.0
7.941545425841584 12.200838872186559 -0.10892396 0.0
35.44609613195752 -337.61214083128885 -0.57330906 0.0
-41.32359905977336 -150.56511073624586 1.6931353 23.203531
-99.96431508906615 -266.02513798071095 4.8918281 17.259266
-56.32228032265239 38.01469704743136 3.0242968 0.0
-29.961971994497887 -330.521864491178 1.069912 0.0
-58.44306854270824 -94.29596906619508 0.81628782 0.0
-49.35003896886324 -141.16723487468272 0.94495505 0.99444491
-92.69616764452593 -128.78536538513757 1.3406636 0.0
-6.0325521765306505 -153.81814045120237 -0.059467018 0.0
-73.9582529832056 -222.55702668478722 1.8066802 0.0
-83.14286194303561 -175.65186579489463 1.7155535 0.0
-98.44990658256118 -304.0551118045912 2.1254079 0.29938281
-39.782224730584645 -187.8117276816937 0.73253 0.0
4.232179516478364 20.571960216921802 0.095236242 0.0
-107.89566945054538 -257.131901363063 2.0132406 0.0
-45.963995600229666 -363.47571469480107 1.60611 0.0
35.129090846128406 -45.42355242343031 2.6314042 50.090912
-62.438708479025095 -308.4377804069238 2.5971324 46.020687
0.7532403951108648 -80.02828821789878 4.5608497 29.392576
-71.74309066095697 -261.5078840296952 2.1204457 0.0
-7.68566793697547 -33.43513845460794 3.1045914 118.60528
-94.32107403947629 -314.46300875085495 2.0219715 0.13333334
-30.12820864428121 -86.6613163044482 5.2323413 12.25
-31.073969074095835 -93.27039798259884 1.0723364 0.0
35.32122209121678 -380.8675474159512 -0.14865904 0.0
22.15430882043718 34.41367963281374 2.6404903 0.0
-7.908998032451805 -368.504391697545 0.69600165 0.0
-84.30895997447341 -181.5519066007008 2.8723271 19.909092
-20.811756602059752 46.42840871620597 3.3635352 10.5
-73.51441875348515 -307.58957006488293 1.5226492 0.0
38.203959257343946 -29.70865917225889 -0.96196175 0.0
-29.48844434871238 -98.84532923391689 1.2545738 0.0
-44.94308126122242 -226.7475382899255 2.3037357 39.631596
36.9037243746956 -386.50898568998065 -0.02426987 0.0
23.94424117064281 28.90849283335964 2.623492 0.0
23.300193365418142 22.72078507027505 2.6006639 0.0
-20.19357431581248 35.084024705824355 3.7410047 12.185451
-18.023525231761745 -20.1693935871738 -0.098621078 0.0
-52.09549208097799 -54.538313490351456 0.92381835 0.0
-27.341404532309376 26.785713425391332 -0.071302786 0.0
77.72174413927834 -346.03498065474565 4.0968971 82.165207
-14.264698488720484 -337.7654947958003 1.1929706 8.205883
-42.728814470435594 -101.53971555649107 0.57119739 0.014285714
-61.374976190770425 -7.648605270442417 0.59731245 0.0
-76.41252461753845 -136.1164500607478 1.6829401 24.256107
-67.55750228490191 -182.9496814543149 1.5552003 0.22222222
-33.687126591944335 -148.54620929981704 0.53626108 0.0
18.504774561516427 -417.02938671051464 -0.1660372 0.0
-57.643708065172085 -229.89683321087705 1.7401186 0.0
-92.55131200436409 -264.2815043936487 2.0197453 0.0
-82.86679432536232 -311.2701460677497 2.6361368 24.502037
-19.08685644899853 -19.87589882615147 -0.07553336 0.0
-52.9748987586796 -54.285041252966835 0.95792818 0.0
77.17367762982258 -345.41685641374477 3.7360647 83.945198
-14.84762812219084 -337.595898090944 1.0580484 0.0
-43.69927397849158 -101.34630520827534 0.58223885 0.0
-62.12328075544997 -7.298994693907957 0.62107533 0.0
-9.381540950660057 -66.49287447873206 -0.23230246 0.0
-28.160983617675907 27.00467192703664 -0.041328005 0.0
-34.46234577293374 -148.40638112214842 0.54558593 0.0
-68.50901417027035 -182.66126381204066 1.5352682 0.44444448
-77.63771590405783 -135.85694111519675 1.4464991 0.0
-92.97595071469188 -264.07845176353726 2.1442826 0.0
17.4529741307217 -416.4828410982552 -0.089650556 0.0
-59.266423585175524 -229.82362805954904 1.8924654 0.0
-83.69996893371443 -310.93485368108054 2.5900993 23.634718
0.26825573874464936 -20.85496759758425 -0.40253544 0.0
18.53823125467659 -323.592516553124 -0.11065736 0.0
-58.40399182183088 -136.68956883879312 1.0367565 0.0
-42.94018789162181 -8.383529182621913 0.20164421 0.0
-24.60367855937914 -101.78644784577929 0.96147299 0.0
-33.63939415458277 -55.32203335077159 0.24169047 0.0
61.32635427606398 -335.8006596715437 -1.5052049 0.0
-15.230669692614015 -149.1670500946734 0.26394948 0.0
-82.97561082189773 -218.13685084521484 2.3544388 0.0
-73.71083413133644 -265.0648836491812 2.1608856 0.0
-49.542367195626824 -392.52334270054115 1.7456353 0.0
-125.933700800998 -206.21158296071954 3.9488955 92.5
-107.65194801695813 -299.2342441925213 5.1733189 17.805927
-0.3049340912707841 -83.82379786220162 4.2865748 24.946564
-64.1808009290031 -312.09045285336066 2.4726803 25.535719
-22.63078408583469 -29.332014820549105 0.0085503142 0.026262632
-13.681162128616542 -75.90272649907395 0.20675278 0.0
-56.498107447619574 -64.0700588994316 1.397595 23.48649
20.517147122242136 -41.863898450771885 -0.23736511 0.0
-96.60614869392788 -273.51135426735067 5.1989365 14.061552
9.963532225537154 34.43700174313024 0.9015941 0.0
-38.90594246964813 -15.071832117896705 5.2074761 1.3333334
-49.61356488848075 -25.20249256410426 0.89329284 0.0
27.8416778212487 -3.250503629178297 -1.0273669 0.0
-64.89591926605314 -153.5624974616161 1.4635389 0.0
-40.20387694131049 -72.26130135524981 0.35234275 0.61011928
89.5509273240048 -413.46062396109227 -1.0246198 0.0
-15.500687293877853 9.202950548800217 -0.28149852 0.0
-21.392737918351536 -166.0384646552017 0.42682829 0.0
79.42089800343372 -429.3867488326381 2.1919608 21.2841
-89.45119011438317 -235.00802093271534 2.7810688 0.0
21.02524472733812 -387.5875171496308 -0.048527282 0.0
-55.524424774255436 -200.5666872733004 1.1105937 0.0
-114.2568639964508 -316.431455480911 4.0318656 20.177935
-46.485598929291996 -16.919773078311607 1.0447369 0.0
-80.86851942977331 -272.4330385241985 1.8403882 0.0
30.991601643954148 4.886117305729066 -0.087329239 0.0
-17.985445761611558 -157.77888450435145 1.5613599 19.108036
-85.91414581978269 -226.68439829183666 6.4402843 18.717955
82.18761857988997 -326.1462477710024 2.5480454 82.801292
-10.083875167605555 -318.0571046598976 0.64652044 0.0
-58.63831683031635 -367.11671783332963 5.1194482 18.782183
-47.91464172180169 -67.05519508509843 1.1729124 0.0
-56.95240895543868 -19.78560846837574 1.4930032 63.781837
19.92210345288973 1.9919686445522444 -0.85458356 0.0
29.037545650737258 -45.29509680379421 -0.19142465 37.350014
3.6032498611730404 -335.53905943836503 0.45789894 0.0
-72.80489410559362 -148.23430958075835 2.1711938 0.0
-54.34071536751168 -242.45767896043543 2.3273933 25.33334
-136.41624502421777 -352.67329509739295 3.4100983 0.0
-24.373936524442605 -75.37770305474828 1.1539007 0.0
-102.29204727742285 -318.56650101548695 2.2216702 0.0083333403
9.146955531541604 -40.72527904367398 0.02215153 0.0
-6.405815394512757 -378.1022356179575 1.391104 0.0
-34.75857665553421 -141.98859382793634 0.55043191 0.0
-83.48404665100041 -191.3981610002295 4.9324665 18.318357
-26.222455190836634 -81.99655430796804 1.1324439 0.0
-139.97757494103672 -363.5932966861697 3.6426544 0.0
-28.2793657705337 -85.72351714947843 1.1546648 0.0
83.31249159176917 -394.7914497129134 -0.89744627 0.0
-70.05982452965179 -21.314803570423052 5.4947267 102.76862
3.074949465435001 -71.29942457992283 1.7389034 30.4
-74.44829552399253 -321.611115514855 1.5965711 0.0
-10.422915289934075 -93.56896204805605 2.4729691 32.386906
114.78486680046434 -354.155483626162 -2.3179417 58.666668
53.10401001754797 11.735552376533924 3.3356078 0.0
106.44810536038032 -338.78819718017786 5.8671746 77.0
-14.24260854528541 -94.64719192542339 0.42134753 0.0
10.680522773117673 -13.355376827185331 -0.23646484 49.944447
72.5158242557119 -423.91946517332224 -0.77261257 0.0
-32.63078152424084 -0.7482927762815876 0.14861663 0.10611113
-135.15011756413966 -325.29594018579996 2.472321 0.0
-23.255479066458488 -47.75340233592591 0.040541384 0.0
99.5355435072759 -435.19846583123336 -1.078513 0.0
-5.663575664809025 -12.119986135004524 -0.19556808 0.0
-45.08598090609181 -317.1168017578879 2.546649 30.349136
-73.38312726119771 -80.9780457181268 1.0939482 0.0
-39.52564957123546 -46.489782156235606 0.43244866 0.22686572
-64.36785126854095 -127.91806933190401 1.1471019 0.0
56.319241995858505 -422.83783184497037 -0.3369728 0.0
-48.718572478110346 0.38194584292740075 0.35304719 0.0
90.0135225990823 -387.670414545929 -1.0011166 0.0
-14.8731346594008 34.950359828812644 -0.37725082 0.0
-54.979246784541644 -174.87651656248855 1.2601879 0.0
55.77413746254926 -327.4544352341694 -1.3938301 0.0
-21.010204538076636 -140.50483573039108 0.11514692 0.0
31.27832645622169 -408.71938679696046 -0.30453432 0.0
-45.557170531778226 -221.80095695336263 1.2090185 0.0
1.4500424410518349 -12.942138554065949 -0.25844121 0.0
-66.38044079384063 -81.83748059122311 1.0417738 0.0
-32.43390867634452 -47.387652614637176 0.18680461 0.033333343
97.21929650960598 -389.1184970791142 -1.1341437 0.0
-7.870527894493258 34.010576288220456 -0.39616701 0.0
63.385540897134405 -423.69310215915584 -0.50348985 0.0
-41.8477715687182 -0.41520467630475366 0.26727679 0.10087723
-47.99495210648581 -175.76878421844438 1.7010146 0.0
-72.73772539646683 -257.1100975658707 2.1044731 0.0
-63.46047564349318 -304.0895862673423 2.1609755 0.0
0.3875323437544509 -16.807340032086863 -0.2964626 0.0
-33.46591863227699 -51.24209416982639 0.21565434 0.0
-42.85339968041805 -4.282525423180935 0.25409836 0.0
18.172430795833705 -319.5147372062355 -0.091601849 0.0
-58.54821956499773 -132.51819439475634 1.037075 0.0
-6.2828968514617 -401.0293036318483 0.7549758 0.0
-82.95130288545386 -213.84773056295273 2.1499505 0.0
28.25492970007717 -366.13184447693527 -0.0088170469 0.0
-49.11271303714943 -179.4904028322846 1.9221464 0.0
61.658600306541786 -332.1007502282557 -1.5513735 0.0
-15.057217240334175 -145.1621828234287 0.16644418 0.0
37.05848783918306 -413.42269198078833 -0.22604901 0.0
-68.41224511170495 9.369134463560655 0.69494396 0.0
-39.686952697408984 -226.54459182581843 1.2097435 0.0
-73.75413212631392 -260.9705108886369 2.1402709 0.0
-64.43850415397154 -307.91014497884356 2.2215896 0.0
-107.64035252648229 -295.40406683934737 5.2244992 19.874197
-90.79719704553125 -138.70030691583344 1.549733 73.595764
-32.32806266312368 -22.565857956059276 -0.0047518215 2.3333335
-28.533938868999215 -340.15111596006176 1.0307918 0.0
-56.865995351464086 -104.05038223230741 0.71985722 0.0
-48.05132409438385 -150.99264341134253 0.99291289 0.0
87.23357841868616 -380.04872743503404 1.7059771 12.907805
-18.012221119314347 43.23667213231555 2.2252538 13.641864
-81.57382121528624 -185.4620843665029 1.6673826 0.26515156
-72.30662105427649 -232.32358581188538 1.7067672 0.23225808
48.92842722952252 -1.7281348672323489 -0.83614606 0.0
-62.94649475978055 -279.36474687782754 1.6085888 0.0
15.095948865949165 -35.683009859621976 0.0067080855 0.0
-96.90235347831684 -313.7992762868776 2.1330171 0.0
0.20608342935646284 -17.71745152392498 -0.31685463 0.0
-33.75327430142902 -52.22714810299624 0.22178927 0.0
-154.7184928555176 -282.62523115629483 2.8366866 26.25
-43.15144196596506 -5.2016591556001615 0.24255002 0.0
-24.39783737661047 -99.2517335124517 0.88184017 0.0
18.63803288914407 -320.50908282165557 -0.075905934 0.0
-58.726214592837664 -133.48850618290513 1.0271997 0.0
-6.4887586290894745 -401.7182124300298 0.89412427 0.0
-83.19827152022549 -215.01207545717807 2.2360764 0.0
27.635120366555228 -367.8911306068411 -0.0040530562 0.0
-49.30887331727845 -180.46841593522527 1.9210693 0.0
-74.0028738935154 -261.91382773325995 2.1533508 0.0
-107.88417527255851 -296.4795185275525 4.6451216 39.315342
-64.9046305135148 -308.8899320926922 2.2385674 0.0
-0.14868791788459212 -18.768850375772246 -0.34080717 0.0
-43.43014331287984 -6.1777984883129164 0.23101348 0.41818205
-33.97974030760835 -53.14568673696199 0.22891919 0.0
95.75137465796594 -395.02470310020567 -1.0476702 0.0
-9.373922755812218 28.338167526080287 -0.39395249 0.0
-24.445302101151608 -100.23129048210086 0.8904469 0.0
17.73378399700121 -321.45345116571326 -0.069447532 0.0
-58.94884492002035 -134.49135435462097 1.030213 0.0
61.560366051416 -334.0780858149278 -1.5123882 0.0
-15.311912185876679 -146.95964711855228 0.18602076 0.0
27.35804094292463 -368.63695690934094 -0.0023130197 0.0
-49.57655795696398 -181.50120643692708 1.9128867 0.0
-83.4542804588778 -215.9022131650824 2.3220439 0.0
-74.2440249288308 -262.9034158864708 2.1666348 0.0
-108.10575757410685 -297.20359270484573 5.0178304 33.210354
-64.81613710590679 -310.0086038280261 2.3991733 10.07895
-0.6380078655552879 -20.398636326434342 -0.38103616 0.0
-43.88849000341122 -8.136027047736697 0.20793781 0.0
-34.507204119759265 -55.09383095046081 0.24295539 0.0
17.586057634258154 -323.73872836208375 -0.088416651 0.0
-59.44891318208762 -136.4605743973357 1.0452973 0.0
-25.469075109219947 -101.52697957471787 0.95661604 0.0
60.558995704987964 -335.9329774552925 -1.4727377 0.0
-15.852214841950541 -149.11311971583893 0.25359282 0.0
26.946150653243762 -370.39018250228855 -0.0035240506 0.0
-50.009540038077716 -183.28633159813438 1.9166442 0.0
-84.03861397498105 -217.8877708736676 2.4915707 0.0
-50.47324840074624 -392.18354659794517 1.7395196 0.0
-127.24055534558966 -205.8581968060599 6.3076863 85.375
-74.77671465859461 -264.81208184516896 2.1757162 0.0
-108.64347899537762 -298.91806171909025 5.6380601 18.20347
-65.44251305397295 -311.8035273518101 2.1933408 0.0
-1.1061930290518944 -21.755867494553698 -0.41122597 0.0
-156.09536527329504 -286.5643110974318 2.485043 0.0
-44.132518238380214 -9.083241214503602 0.2006854 0.05185185
17.145073846907522 -324.292167373804 -0.052804202 0.0
-59.71810822088507 -137.4531752061359 1.0674473 0.0
-34.76681065192267 -56.07308349108868 0.24969336 0.0
60.769454032384104 -336.5136478686335 -1.43716 0.0
11.931356491154816 -385.8466289680388 1.4587622 55.595543
-16.31921438001571 -149.78364183942318 0.27183542 0.0
26.642744234930944 -371.3237008766801 -0.0042352816 0.0
-50.35800350330978 -184.2514986016102 1.9558687 0.0
-84.22277075147184 -218.84818262155773 2.5602074 0.0
-75.1019814468267 -265.8124296459233 2.1656961 0.0
-50.664169172455246 -393.11223491973567 1.7635299 0.0
-127.40933118154229 -206.03375225479186 5.5033503 71.076958
-65.55809327593329 -312.74896582740786 2.2312834 2.7727273
-41.0550660775085 -32.777519550777754 0.72976339 0.0
-31.664215411549815 -79.66217028547462 0.27071914 0.0
40.64201345482029 -423.7235966718614 1.4639159 18.265308
-16.417048848521617 48.703152200001504 -0.26277491 0.0
54.739397636795886 -408.8921463988104 -0.50120854 0.0
-50.102422702998545 14.295384635474576 0.24397007 0.0
2.209006988590925 -45.31542372608352 -0.2521565 0.0
-65.81366760311646 -113.87023436351424 1.1493601 0.0
-13.796338545488439 -382.5634122348818 0.49789068 0.0
-90.24903471411452 -195.35903621090955 2.4457502 25.166672
-56.56212247761657 -160.9752996507928 1.2494228 0.0
92.54964510460333 -375.26457582128046 0.18974142 24.5879
-124.5000042186013 -229.9304171137639 8.1843977 87.701134
29.533843448935258 -394.9949123575588 -0.027395105 0.0
-47.183436395606094 -207.99343872923572 1.071828 0.0
-44.44391276651843 -122.85942501491877 0.720586 1.3715687
-19.75745770455545 -41.431432107916095 -0.0048749195 0.0
-28.79778566552029 5.495086454145181 -0.0086207064 0.32870382
-68.85054013808556 -204.2347421450314 1.7022704 0.0
76.00158328059473 -322.1166378758918 -2.4311886 0.0
27.08150912159917 -371.5376688329891 0.0021171714 0.0
-1.0755500486653986 -135.28358610877362 -0.24846415 0.0
-73.59922089253796 -266.34939109211365 5.5686431 12.0
-26.103203550268056 -216.60874179388713 0.85698241 20.625
-78.53420117398197 -157.06242422107036 1.8364069 0.0
-59.544501538582004 -251.28188993489982 1.6245281 0.0
-93.88195102902293 -285.56621582679225 2.0627699 0.0
8.425994660531813 -396.47822130123654 0.11035101 0.0
-4.767059576324929 18.580573890837123 6.1936965 62.894749
-135.71105317417212 -351.77575043567117 3.3814507 0.0
-24.14824879421665 -74.47562480946053 1.1355788 0.0
-139.65970786510837 -362.00741204414754 3.6174345 0.0
-28.09726152970084 -84.71311950503559 1.1308867 0.0
-105.73991700619828 -327.9621621688094 2.3139358 0.0
6.49737126334081 -50.08641513782237 0.016456624 0.0
-58.78464966798536 -341.2674609851318 5.7610312 13.200644
-128.98895440438065 -337.4093389641732 2.3860226 0.0
-65.40551503500086 -109.12630445525784 5.2783461 20.150955
-49.34556427182727 -341.22796204990505 2.1683104 23.427544
-77.9085211133588 -104.935646121481 1.3478577 16.116671
24.12715236469613 -1.211044875787124 -1.0190096 0.1923077
-43.77677862114431 -70.26478276289006 0.56862491 0.0
-19.176454462419414 11.169698170619299 -0.26068464 0.0
-6.171767168517533 -352.89410168660686 1.1752738 34.081821
-34.64240457284977 -117.28322203006758 0.82101977 0.0
95.10658356677817 -407.8128106189718 3.1649127 11.769231
-25.169151470299852 -164.1301813018872 0.49816051 0.0
-67.88201207816286 -151.41449393680193 1.9956355 0.0
-59.37835191758142 -198.56360968180275 1.3907818 0.0
-127.09482344319895 -267.4518116452067 6.0413308 23.972221
37.43450771987908 -388.55906541113194 -0.0098501891 0.0
24.346370305015036 26.604801437600205 2.6672511 0.0
-82.59602174221487 -188.78349703108822 2.2894158 26.0
-19.281488590149245 39.15485163438832 3.8228042 10.473686
39.61179247614196 13.556790474866176 3.0170786 0.0
-42.58142695957534 -36.80613805812169 1.3363436 24.055557
87.81327701418373 -377.9612883359277 -0.32120726 11.321429
-17.50169313687452 44.812740772912434 0.90081763 11.402178
112.86993188748076 -353.63254586549 -2.3556426 73.181824
51.571759099676996 12.153286669018428 3.3126256 0.0
-25.834397736030144 -73.16332838254118 4.4159999 19.175388
-11.545010464623516 -334.3672500716424 1.6387217 23.785723
-39.69918532021342 -98.23145820684005 0.48279971 0.0
-58.406563476997796 -4.460859234077844 0.39856178 0.0
-24.41318533826923 30.093318462104282 -0.099988908 0.0
-73.8853651115301 -132.4797214789567 1.6111913 23.774881
-20.422040911060265 -287.52308242629704 1.5242175 46.799999
-48.85408946776495 -51.39131286839782 0.97328109 0.0
-5.947964157562815 -63.63037409897662 -0.21389621 0.0
-15.162306749798304 -16.832418409681907 -0.12711559 0.0
-64.6487016132854 -179.5501659121516 1.5111676 0.0
46.31907882702053 -331.9493147518776 -1.0160979 0.0
-30.46528512738113 -145.14819983917542 0.43455037 0.0
21.354858800413027 -413.5202288374071 -0.24132726 0.0
-55.4441666159901 -226.52007708539873 1.6823574 0.0
-79.89748800283624 -308.0088769911842 2.5368588 25.152954
-92.28526308754431 -316.0368338908746 2.0648699 0.0
-28.679568446760655 -87.7127834899693 6.2919998 16.834948
-37.31708546612975 -100.92691992180744 0.431995 0.0
-70.11431446432444 -21.4170218702493 2.5697708 124.58067
-22.004534379581106 27.428294190715054 -0.24323876 0.0
-3.47711785522176 -66.55693241934759 -0.12047749 0.0
-61.15570055427319 -68.32592683683717 2.010602 19.5
-12.831199657595489 -19.497725799984295 -0.18150027 0.0
-71.40842467949776 -135.33449373407606 1.4686209 0.0
48.835976342529946 -334.71244715848115 -1.0855808 0.0
-28.316322686261213 -147.7357407313655 0.37640923 0.0
106.19511736466545 -377.40780508649567 1.8230942 9.0
-62.17348059608199 -182.23732835477338 1.4788536 0.0
-130.03519354960468 -251.23045854718242 8.4157648 82.478539
23.795163326057107 -415.8144555451718 -0.39241737 0.0
-52.80463593409539 -229.13039691312434 1.5626874 0.0
-90.01716169567514 -318.7455906867175 2.3448076 0.0
-26.674763957402156 -90.09787208448668 5.2982264 11.375
-54.02864869902921 50.5114787352492 5.7606959 0.0
106.53462050488325 -337.99031832711074 5.7223854 84.0
-14.104887207083923 -93.79810721558286 0.43812966 0.0
72.79795304126571 -422.70514267708734 -0.8248809 0.0
-32.38183620116196 0.19451591973640348 0.14284343 0.0037735857
10.959941604969217 -12.114631054640967 -0.28894567 41.180008
-135.01009750818528 -324.3457988027672 2.4838078 0.0
-22.991729591932454 -46.781534362578796 0.024020147 0.0
-63.48794569150021 -256.42715281831903 2.6102815 24.531254
-35.96080386825022 -99.25259794610707 0.47304693 0.0
-54.599142506250004 -5.306743023519381 0.36325514 0.0
-20.494898674661453 29.115666800322163 -0.29477981 0.0
49.89854121423579 -332.78311356370887 -1.143272 0.0
-26.80171582306328 -146.26219634571615 0.3244212 0.0
-70.15917067788898 -133.70297943442267 1.4478922 5.4000001
-60.69999398815201 -180.58259155640778 1.4215608 0.0
25.55255159745323 -414.463979867805 -0.35263795 0.0
-51.16477753207284 -227.600431070049 1.4578714 0.0
-128.53777104523667 -249.50787015646455 7.5761914 9.5294123
-62.69399182833564 -67.71506995771384 2.423275 127.0976
-14.405101713458048 -18.03905163705531 -0.14706731 0.0
-38.84398359776715 -99.42131357938837 0.46096066 0.0
-20.330576212554945 -288.24577790833865 1.9947338 15.0
-48.706796972408654 -51.97053480263435 0.99313915 0.0
-72.93810329553095 -133.80414829873155 1.4470812 0.0
-71.99466327518815 -20.839748800788684 2.2762067 129.9091
-23.627529127592123 28.898909238682723 -0.14809269 0.0
-57.70580310211542 -5.586948457574692 0.39051226 0.0
-4.93539623837929 -65.2512630843104 -0.18682265 0.0
-63.847132164322744 -180.79655323205535 1.5060712 0.0
46.93661670369438 -333.16081742965974 -1.0196562 0.0
-29.525669351301257 -146.29977260056992 0.3932575 0.0
22.14782873078738 -414.65275852338544 -0.30004486 0.0
-54.272013380891785 -227.73007340872897 1.5812594 0.0
-79.38979170916167 -309.1702618570805 2.7059088 24.181818
-15.63636461889604 -18.803088644387415 -0.1390906 0.0
-11.996610535069522 -336.0591799955131 1.5573164 24.620256
-40.20990874964661 -100.11193261193299 0.50557894 0.0
-6.468972370862016 -65.71453673086856 -0.17805064 0.0
-74.309773163613 -134.42900817318002 1.4468603 0.0
-58.78765528508071 -6.209182032999749 0.36886829 0.0
-30.90302044766842 -146.96763276507758 0.44782871 0.0
-65.15501049276043 -181.50269897793794 1.5328175 0.0
-80.39092280223258 -309.8800002810528 2.582695 25.110489
-88.39369720668775 -66.99637674722706 5.758225 104.67443
-40.03539558726604 -17.466958620991733 0.42860076 0.0
-30.901504384150975 -64.38987099574506 0.21801402 0.0
55.66066038192733 -393.5729489834452 -0.035613306 0.0
-49.22627334649649 29.770262711605294 0.83399737 0.0
20.60015555928007 -332.88110105875165 -0.10071146 0.0
-55.65952402350189 -145.73580075144312 1.1305437 0.0
-21.633231078986604 -111.07428167493507 0.26932964 0.0
-12.851646418845931 -367.10658232850517 0.79734582 0.0
-89.91181558355277 -180.0727101332777 2.4767351 105.51905
-57.028885041086305 -78.16924675743657 1.6273972 49.563278
10.649863726137411 -9.220893654158473 -0.46504843 0.75000012
72.51824236778164 -419.94364010753594 -0.87949145 0.0
-32.56552151058882 3.291652188869193 0.22310808 33.241768
-14.060549434907553 -90.56684933561436 0.43521234 0.0
-135.20163858198137 -321.26463664028154 2.9344256 0.0
-23.2046432938161 -43.629699290863115 0.017524643 0.0
-63.45232696625172 -253.20874956824287 2.3475387 19.681818
-1.395491735177167 -19.507116174992063 -0.33336416 0.0
16.42592913142461 -322.08173179376706 -0.051809199 0.0
-59.88100088259514 -135.27373863598268 1.1948886 0.0
-35.26493602194692 -53.879893685816455 0.22251277 0.0
-44.493555470674714 -6.97194427531619 0.22510345 0.0
94.47797741368335 -395.6444919183957 -1.0665148 0.0
-10.708055311091043 27.533711924402553 -0.38445902 1.5611116
59.82237790072027 -334.67883901969776 -1.4134965 0.0
-16.553536752930178 -147.9061434848365 0.218732 0.0
-50.61230519439482 -182.15330693554932 1.8986702 0.0
-84.61368030344538 -216.6877165564273 2.4893911 0.0
-75.4076405573066 -263.60874029885906 2.0833719 0.0
-109.24624424619697 -297.8661155072392 4.834949 18.824812
-65.94415410501173 -310.62959536649845 2.0949101 0.0
110.18390113216083 -347.23021306208346 7.9402924 79.5
-121.97384289520406 -380.25115550284823 2.7917044 0.0
-10.468549502093964 -102.93194152538359 0.80133218 21.333336
14.798884049049882 -21.558832160713465 -0.55476844 0.0
-131.33281719080787 -333.63343499619384 2.4035985 0.0
-19.28378022253856 -56.028079703669974 0.83991396 0.0
-53.27725201888782 -90.47583012659354 1.263718 0.0
51.24212765571602 -418.3235497173648 -0.38556433 0.0
-53.79912263111521 4.730671078172811 0.43295228 0.0
-25.515638259415056 -231.7594808392127 1.7763401 47.777786
-59.231753515704526 -265.83821350626255 2.533905 41.091373
-1.6420205136487915 -20.2283080117909 -0.3537403 0.0
16.330301471298867 -323.03047471564787 -0.032662977 0.0
-60.11533537913563 -136.23502862505487 1.2028501 0.0
94.16915266943742 -396.69153383987805 -1.1042937 0.0
-59.0868627497418 -22.926485588151223 2.4100683 50.184803
-10.969919012457353 26.60455644361442 -0.38428888 1.2243243
-44.726293496584915 -7.959363314019328 0.20917018 0.0
-35.49133496921296 -54.79853286653875 0.23004106 0.16734695
-74.82573123832927 -150.8064819626124 6.2406583 18.642864
-25.847201585375522 -101.48710975873928 0.97495168 0.0
59.73797326433295 -335.6896623590882 -1.4284084 0.0
-16.6033628620172 -148.47957845343294 0.22802186 0.0
25.552483271153505 -370.4023984303233 -0.0092461109 0.0
-51.09607425125638 -183.0438404633001 1.9683419 0.0
-84.92367159458482 -217.6834246411804 2.5930028 0.0
-51.37031942770592 -391.99432649568723 1.7408146 0.0
-128.00483558461457 -205.66623069931177 6.9110508 99.666672
-75.59974593427891 -264.52637576606935 2.0885227 0.0
-66.12834916284083 -311.54106227017644 2.0795565 0.0
110.05667253021302 -347.74384103848894 7.9334955 82.0
-122.2789739298833 -381.671132277977 2.800761 0.0
-10.744364828465585 -103.93677409155694 0.86487806 22.011908
14.524990101934701 -22.79972493206708 -0.58366078 0.0
-53.545584195584944 -91.48345394927767 1.1653326 0.0
-131.3870218197838 -334.59796238244195 2.4089336 0.0
-19.577584998803587 -57.025493550780524 0.89049011 0.0
50.86896934928198 -419.293476155472 -0.31148979 0.0
-54.12260539507359 3.798183939214397 0.42968646 0.90000004
-25.6932436124306 -231.82354888180197 1.7916988 44.875
-59.48292928505451 -266.82293979732646 2.5293994 40.919006
-2.119265166020245 -21.368630156235994 -0.3840479 0.0
16.26058419652668 -323.9224317860264 -0.039562851 0.0
-60.44777551199576 -137.18026685045203 1.2362691 0.0
-35.77913894248502 -55.82451926848569 0.2375641 2.0608535
-44.793186522331226 -8.937075988333973 0.20558661 0.0
59.24697936473079 -336.0812256775355 -1.4264779 0.0
11.652875351931172 -385.8546594784027 1.2462667 54.833336
-17.392063881907482 -149.62766842234655 0.26168886 0.0
-50.70251368015134 -184.00460940140775 1.9728656 0.0
-85.09898441502335 -218.57975242777792 2.6640768 0.0
-51.70576228598625 -392.9525384863228 1.7721626 0.0
-128.17839215252224 -205.81637181297523 5.2772865 92.956932
-66.42601215266214 -312.5442087160131 2.0895209 0.0
-43.536491591078416 -133.4504568190713 1.0371103 0.0
14.643377997781421 -17.44241070115082 -0.4648082 0.0
-53.22091075337005 -86.36898949871099 1.5187805 0.0
76.58078516556323 -428.05374720152014 -0.7100507 0.0
-28.596353340845678 -4.956310106229239 0.063905835 0.78878266
-131.0671795616196 -329.45620801027553 2.3870282 0.0
-19.27704021255511 -51.94171887301363 0.62505746 0.0
-1.2751478917317343 -354.8674288134689 0.97233474 0.0
-78.07987198632021 -167.92681534049967 2.9106827 18.0
-36.40188716644949 -46.35099320600396 0.2241606 0.0
-70.28558409429971 -80.70514335096313 1.0754461 0.0
93.39212108482126 -388.09004417531946 -1.0605843 0.0
-11.799865197871375 35.14868449809186 -0.35663286 0.0
59.26808364305403 -422.4974101314075 -0.4284949 0.0
-45.647194241921326 0.5823859203880914 0.30997011 0.19444452
-51.82057693185487 -174.67685839883944 1.5228522 0.0
58.42953898071994 -327.296321731277 -1.441906 0.0
-17.671933182512255 -140.23712815921988 0.059945505 0.0
-119.4788154494824 -243.37916621020668 4.547924 76.495903
34.106669703907684 -408.4518963422351 -0.22297743 0.0
-42.75217756352072 -221.24524329593567 1.1278672 0.0
-41.29272481327369 -30.534300942505354 0.75573045 0.0
-32.17268746615166 -77.46426084996268 0.26177248 0.93977308
111.95167553285376 -353.3461805373039 1.4190582 78.301941
-57.01892867216645 -158.8196235696839 1.2421689 0.11979167
-16.899422571651733 50.86300863484065 -0.24846472 0.0
-66.28119933624909 -111.86174610872283 1.4099009 0.0
2.0704783049844586 -42.91349336902104 -0.26982999 0.0
5.124164743626693 -360.01988332352937 1.6126719 64.0
-22.78928808513654 -124.08742357299013 0.026594656 0.0
-63.038260433825414 -334.13761738489353 2.1621981 49.061054
-49.695516261179584 -22.32051119290739 0.77359521 0.0
27.633585514464805 -0.4808472451087198 -1.0159487 0.0
-65.07747086512802 -150.45912371913076 1.5727949 0.0
89.53974334832115 -410.4951644062024 -1.0154712 0.0
-15.801059976241824 12.32826642125611 -0.32763344 0.0
46.44639534313201 -398.2929467382471 -0.35108548 0.0
-58.705466967774406 24.732477147352274 0.44622874 0.0
-40.40948653087378 -69.11768702610182 0.32318863 0.070588253
-21.53186290636009 -162.6321969592047 0.46426511 0.0
-55.825376655782655 -197.38923530788833 1.8366845 19.570356
-2.6674541250714157 -352.21871359555604 1.3191748 24.525246
-79.21221694461792 -165.43262296254107 4.8810205 19.644182
-31.228140084236856 -116.35715958282233 0.7903654 26.950003
40.64227878286597 -364.8535447924983 0.62844515 41.714146
12.325956470588771 -128.16672535461018 -0.37347078 0.0
-80.23360326512739 -278.9141188943493 2.1073442 4.165236
-12.888608011883868 -210.21556895126713 0.12229323 255.0
-124.02309399927323 -266.2105751487662 5.8560872 18.736843
16.050431565436995 -23.93575085590419 -0.63660979 0.0
-51.895392071589285 -92.68792218526968 1.122095 12.115081
-129.74533925475788 -336.0936374675425 2.3957202 0.0
-18.203228075417876 -58.16352278057505 0.87557662 0.0
0.18038630530432442 -361.3192759839976 0.39022154 0.0
-76.31131950948743 -174.2601536500404 2.0908887 0.0
-33.88961719119159 -395.73109002050484 1.7043291 0.0
-110.6127305497233 -209.09295887554208 5.4291205 18.976748
-120.31283838670525 -304.42150343251257 2.0420551 0.0
-8.458367047744598 -27.10384969215123 0.29939961 0.0
-110.98232780125412 -351.313014520651 2.4412937 0.0
0.6769918217437514 -73.76019542501643 0.39184424 0.0
-33.183211981949995 -108.25094013860249 1.4812702 0.0
-91.23935232144227 -223.83850084179858 4.0508232 12.75
1.475367095352631 -77.26601163925898 2.5786314 53.875004
35.91626506274696 -43.11513259350227 1.3122262 21.200003
-67.17850961945265 -322.3411067436205 1.4933217 0.0
-3.473733046206519 -94.01722785219195 2.6225877 44.829277
-101.1506644374238 -357.1210479766725 2.32142 0.0
-37.64472494724831 -128.68394257133514 5.4763365 15.361144
12.154644145080134 33.90758413999721 1.4752495 0.0
37.63499300115882 -387.62489546032526 -0.025673188 0.0
24.4738636658153 27.523507430934227 2.6717904 0.0
-49.47456283431461 -341.63971310562346 2.1465743 24.714466
-77.95825386237226 -105.57375550753056 1.4803625 25.093344
-19.42826357637383 10.179521126981491 -0.23028702 0.0
-44.01244412871366 -71.25516338976432 0.57909077 0.0
-34.91296906083251 -118.02531341442844 0.57482189 0.0
-25.48779513509509 -165.04617891200795 0.50588775 0.0
-127.17342336173363 -268.2944649756785 6.3006797 20.14286
-117.74879574944612 -315.59943099797005 6.4055443 12.0
37.304121545194036 -389.26157372990906 -0.0049366816 0.0
24.1067854856326 25.59309910867213 2.6599455 0.0
-19.204797481505864 37.8330740837384 4.0224576 11.644926
-78.1574057902547 -106.26173300264921 1.1019772 0.0
-19.552042275085444 9.187313663936948 -0.20003621 0.0
-44.325021951142524 -72.17993897504998 0.60937387 0.0
-35.050754138926386 -119.15005010923957 0.49098286 0.0
-25.712658923328902 -166.03741677383027 0.52644002 0.0
-59.684789851076395 -200.5461440634848 1.325042 0.0
-64.71429495013274 -262.1941150051606 5.1400113 19.361567
-16.08116295565506 -212.87366769930838 0.2324388 0.0
-118.16933713357635 -316.6295742145034 6.3701673 12.047621
23.943427347920732 24.59566571209705 2.6522646 0.0
-83.65016969693417 -191.53053384689633 2.7017848 26.0
-19.405281007721314 37.139705809544395 3.937851 12.373608
23.770873462559894 23.59884267539651 2.6426015 0.0
-83.66345955409152 -191.70973379478065 2.9399538 18.25
-19.504357973326393 36.16100833213912 3.3740215 12.079659
37.526431719701534 -392.8813035279479 -0.051502496 0.0
24.350918664951692 22.294370061763225 2.6625898 0.0
-19.400788890236534 35.015893178251545 3.3048875 15.0
-36.199419268020534 -100.22439157340733 0.48514596 0.0
-54.78788873316639 -6.378195839617611 0.35086203 0.0
-69.14710751836385 -21.5891651106498 2.3896189 127.81484
-20.809348418722102 28.16418072893751 -0.28559369 0.0
-2.1632167771355206 -65.76458060370962 -0.095520236 0.0
-70.31210704951866 -134.5973987968678 1.47346 0.0
49.662516395701616 -334.0110373696252 -1.1150219 0.0
-26.8319182603447 -147.18222939513518 0.338258 0.0
-60.96106939226877 -181.55041584129802 1.4313633 0.0
25.383483906883612 -415.42125430938665 -0.34705231 0.0
-51.5870066506793 -228.226886257712 1.4863341 0.0
-128.79093676198679 -250.49433446172412 7.5842481 9.6842117
-17.89159652277061 -97.68066139529918 0.46433574 0.0
102.52165069714141 -392.75819460609705 -1.1940788 0.0
-2.544947432372502 30.556202464726585 -0.52454334 0.0
68.66975142909442 -426.6449926571965 -0.27923471 22.839287
-36.64738192819638 -3.965609707509408 0.21007726 0.0
-139.05551383204596 -328.42873752165167 2.4544175 0.0
-27.25238367482799 -50.82275777063208 0.12585819 0.0
-9.069846290311418 -353.6957727026243 0.73799676 0.0
-86.32386820243043 -166.50504404823204 2.7484865 119.21053
43.28585089932176 -413.51053759889254 -0.35966611 0.0
-61.33649079682307 9.93413358808693 0.73099101 47.0
-33.436092753004914 -225.95358238558845 1.083863 0.0
-67.63922204908283 -260.28659232883496 2.3220079 0.0
-15.381242516494945 -17.764549179741124 -0.13285962 0.0
-6.246576612611875 -64.8142961040152 -0.19196184 0.0
-11.905538915561792 -335.37115888127005 1.5740012 23.805088
-39.9548570482458 -99.21768216513541 0.49424273 0.0
-20.59456052340869 -288.4477426033303 1.697535 39.333332
-49.116804930965586 -52.07466378228928 0.97793823 0.0
-58.64766192049596 -5.551508888040004 0.39525861 0.0
-73.92473236187455 -133.69721224266553 1.4491237 0.0
46.18141150067561 -332.6088202982964 -1.0003484 0.0
-30.750133695686692 -146.0679032972766 0.44499597 0.0
-64.9252144160561 -180.5277701279107 1.5232121 0.0
-80.1442877884293 -308.86918875155663 2.648844 24.20166
-22.754042903710662 -26.228730128541343 0.0059909695 0.33333343
-4.608843691068756 -328.9877291075383 0.67350644 0.0
-81.44648975767362 -141.86585215732515 2.3280337 121.25002
-13.228214911573929 -73.1768212903511 0.12624827 0.0
11.071832307336628 8.249375149782281 -0.21914031 0.0
47.655109809098334 -388.2494544735882 -0.11500201 0.0
-29.32660294432688 -201.33508352418608 1.3803097 17.253685
-4.102165435089219 -119.76751787450206 0.062729932 0.0
-96.96555923294737 -270.6139746991009 5.6853395 11.972228
-48.97053079671192 -23.561648833458023 0.76334935 0.0
28.34107225728242 -1.2233216228560764 -1.0611389 0.0
-39.77875864729691 -70.28767357499858 0.3421528 0.77820522
90.12688447251078 -411.8101013492857 -1.0216573 0.0
-15.020590561163843 11.114106858012079 -0.31859526 0.0
-64.38664337430149 -151.6691831106237 1.4378804 0.0
-21.236551639567537 -163.82586361892228 0.44116861 0.0
-1.9359694275921697 -353.4522584177062 1.1633576 8.9259272
-78.52019515293901 -166.6229492707211 5.0211501 36.143661
-30.581537729175583 -117.26271132643186 0.66417027 17.142859
-88.96553340970011 -233.10427422728935 2.7844844 0.0
41.31888066902337 -365.9217802930076 0.23450613 0.0
12.738354387021666 -129.5822229987844 -0.35967982 0.0
21.68062008202753 -385.6611764183566 -0.0076106479 0.0
-55.036620996956586 -198.72057624070976 1.7220452 14.689269
-80.03540020716127 -279.5690384874582 2.0587432 0.0
-46.32704893100411 -318.03819208964165 2.341948 24.691601
-74.6747473339483 -81.903670461688 1.0976754 0.0
55.122854869434974 -423.10657220931495 -0.16441511 13.121952
-49.96246540369219 -0.31013522040004204 0.36729604 0.0
-64.24670695849301 -15.091725300442441 2.689225 20.00001
-16.143513259994293 34.19043496964198 -0.38882601 0.0
-40.63955014832598 -47.110984944586065 0.74436015 74.220543
-16.94282065043545 -345.13216083126247 5.7501264 19.500006
2.0666026039414724 -59.64205268217536 -0.071333379 0.0
-65.44807266522915 -128.5886168523575 1.3701198 0.0
-80.14872795665426 -143.28412078940588 3.7201419 125.645
-31.80160824494073 -94.11885949881281 0.96656179 0.0
-56.1638264390307 -175.6343932055556 1.2382439 0.0
54.296650815495155 -327.81602853385385 -1.3471636 0.0
-22.045398748865956 -141.1247114887268 0.15469436 0.0
29.45589825493782 -409.37674812443964 -0.23067585 0.0
-46.78672180093601 -222.58478376209558 1.2297132 0.0
-124.35600482116274 -244.39760079959 6.5930333 14.562501
-46.016469945825264 -316.87063387932346 2.4988322 32.352692
-74.3240440890309 -80.99426012349053 1.0734286 0.0
-40.39048674913518 -46.21780023211355 0.47500947 0.93480408
-65.30285887869336 -127.61306792464504 1.1238656 0.0
55.35428198950726 -422.40985525093436 -0.33148366 0.0
-49.76996521878202 0.6323201781295396 0.36704668 0.0
-16.7286397125566 -344.19654285444807 5.2936158 18.538469
2.302301386861327 -58.69669252014447 -0.082723334 0.0
-55.88205201480553 -174.63117184445048 1.2292507 0.0
54.83011484163127 -327.13492862626424 -1.3699222 0.0
-21.577823954040156 -139.9158430227535 0.11342549 0.0
29.794133222391096 -408.3075543684759 -0.23045829 0.0
-46.53430910521857 -221.66878023445952 1.2167174 0.0
-124.00261358598004 -243.46602910917 5.9841576 17.704548
-72.82043178857738 -77.40381122892752 1.0237277 0.0
57.34623728560727 -418.3862542847303 -0.51988256 0.0
-47.89866637061691 4.345841302386937 0.35873055 0.0
-38.50844846911374 -42.70362811625199 0.4815774 0.0
100.49388611686902 -431.3738974635952 -1.1547184 0.0
-4.651728625040729 -8.31251777253096 -0.12143547 32.457523
91.21335724815334 -384.2631329403248 -1.0542659 0.0
-13.967455067829334 38.60745940562338 -0.35431287 0.0
-53.89200916991703 -170.9907717544593 1.219187 0.0
-63.16571208448656 -123.67275335594826 1.0025263 0.0
100.67164546939837 -380.86094316608273 3.5975571 12.313336
-20.20625030466737 -136.96189384163642 0.56481528 0.0
32.15120640734803 -404.7540820327939 -0.23896337 0.0
-44.61746347164052 -217.9726471046681 1.0795685 0.0
-121.80676901288321 -239.85689262687936 5.3767276 70.608734
-56.63760376087806 -64.4401888901258 1.3974802 23.149513
-13.563712483271338 -77.41820562625064 0.19812641 0.0
20.35790091259814 -43.02750282182676 -0.15206127 35.900002
11.143210988559726 4.153296000074988 -0.72929662 0.0
-22.813287788701814 -30.2382484150787 0.0094180107 0.16203709
-96.75831174651766 -274.18813136777567 5.4226756 12.442696
-64.19984917113499 -384.63563656248823 1.7302749 0.0
28.13897048947497 -392.37998806619464 4.319118 14.355045
-0.41022254787068846 -156.6710065931693 2.365792 41.333347
-18.84997543046179 -62.37537382423088 2.7485466 19.542257
91.41577699093125 -388.21112024539985 -1.0106763 0.0
-13.925959404345296 34.65936046832554 -0.3689374 0.0
-44.13179871407919 -317.36625210261 2.5008013 32.985195
-72.28347597323446 -81.34426201665096 1.0872028 0.0
-38.53458915432021 -46.830162359501486 0.39151973 0.0
13.760182836199675 -315.2934347485211 -0.047661602 0.0
-63.3793188722445 -128.19865407209963 1.1455851 0.0
57.327863570417534 -422.90701361593665 -0.36514169 0.0
-47.67830691262215 0.09491499086350075 0.33569759 0.0
56.14640268441565 -327.72360256983404 -1.4097153 0.0
100.79516376936975 -384.44977951456286 3.0183148 13.333334
-20.138652527476168 -140.66682538057677 0.11216663 0.0
-53.950257915085 -175.15985264844184 1.291006 0.0
31.953094045684296 -409.0560226148866 -0.29167628 0.0
-44.47005880596402 -222.25277893523855 1.201032 0.0
107.15521894585306 -339.1549703875416 6.0678825 79.0
-13.156155318538627 -94.97984418992118 0.47968936 0.0
-134.25507866740475 -325.5336492336306 2.4553893 0.0
-22.310087608462318 -48.04230856752518 0.10383525 0.0
11.65305030381289 -13.654885511608462 -0.24605329 55.578949
73.46355089018563 -424.14279843105396 -0.79557508 0.0
-31.58641041169492 -1.065726553029748 0.12835716 0.63615388
-52.008181005548224 -191.24176418017348 4.5684538 34.477104
-3.755770239368097 -141.46414165424963 0.036246218 0.0
46.96360750944346 2.934387246525233 0.41566643 0.0
79.9340344724169 -380.2829283194978 -0.76312006 0.0
-25.057976281689758 42.679906026770404 0.763587 0.0
-73.32008215694144 -6.5951168913799805 4.7154927 21.146748
-65.38781677307536 -318.7754892319653 1.6904372 0.0
-2.052472733007683 -90.61811287071072 2.6703081 51.778259
13.70737770890102 37.55599911096873 1.6923928 0.0
-68.52688198506814 -322.17703322219336 1.5478863 0.0
-4.484180345594304 -93.74297769384026 2.635124 20.422235
-66.76678521306127 12.355559486627122 11.153455 65.5
-102.20649794245129 -356.775751493028 2.2282481 0.0
-38.505371117961836 -128.51384743829152 4.7077041 13.132685
10.595729391882763 34.26534004998696 1.0421734 0.0
0.5230656853322397 -12.767871813448075 -0.24585135 0.0
-33.42770187777295 -47.15089556330108 0.17186987 0.0
96.27001398432941 -388.98663053064763 -1.1135378 0.0
-8.83546273094962 34.184741714520115 -0.38215584 2.7638431
62.48147327083632 -423.28967296725256 -0.49209642 0.0
-42.633116691849075 -0.20617023177573657 0.27582043 0.15238102
-24.544116768040634 -94.05532119503084 0.90092099 0.0
-67.49311064759767 -81.45642166528083 1.0598309 0.0
18.641629615506986 -315.51672184732087 -0.19883978 0.0
-57.988375140204944 -128.86566361571977 1.0001729 0.0
-49.006482463017136 -175.36473028674146 1.7092321 0.0
-73.57476127310473 -256.8561840031254 2.0365899 0.0
62.116436303395844 -327.7191899009768 -1.6511307 0.0
-14.778706999775991 -140.55695768980354 0.037976384 0.0
-64.2577088429438 -303.81555243509763 2.0616057 0.0
-6.215126105378232 -396.85520573452055 0.64348686 0.0
-82.42647731774399 -209.9271083101259 2.0014198 0.0
109.08713898582644 -348.75962178890177 7.7577472 79.0
-123.55837427183194 -382.25827176602235 2.8629327 0.0
-11.09419560978148 -104.66516084888093 0.77138406 21.660004
-54.710731402819974 -92.25820504179586 1.1104805 0.0
13.272176892503701 -23.001203763412178 -0.58282256 0.0
-132.4990753674871 -335.37710878713204 2.4222443 0.0
-20.936715089898108 -57.63927750914483 0.90101278 0.0
-2.6820800880752245 -360.55042053921443 0.43812943 0.0
-79.87680758262805 -173.63283417516635 2.9003046 18.230774
-0.06992162813309477 -94.23121005377428 6.9194555 34.266289
-3.074001635977975 -22.05020831749313 -0.39312086 0.0
-46.254941898316986 -9.507740536602697 0.20328461 0.50000006
15.264677751616375 -324.4501798455076 -0.016567608 0.0
-61.73969111889897 -137.88486222488783 1.411924 0.0
-37.09287289948386 -56.59361710579293 0.23316625 0.26870757
57.953116918112784 -337.64257235400794 -1.3697704 0.0
-18.66737258682604 -150.25534066284152 0.28373748 0.0
-86.45797232907209 -219.30073382325048 2.7351773 0.0
-23.776957039209456 -25.891633147779345 0.010860859 0.15708335
-66.99695402960461 -13.184230967530269 1.0137144 0.0
-57.88197178479927 -60.15549084783176 1.5743208 45.584362
10.127839781282262 8.559846205944538 -0.23567513 0.0
-5.213835298017337 -119.64131901255243 0.074059591 0.0
46.95556352389218 -388.0791437981908 -0.21259165 0.0
-29.391062074386305 -201.2757291779848 1.4495058 17.269236
37.526618914876224 -341.1931368657402 -0.57473922 0.0
-39.36005967311543 -154.03678054096113 1.5667837 24.260004
-97.60939658269005 -270.4428765246643 5.9021058 11.444445
-42.320497714178416 -129.0370673549326 1.0423727 0.0
15.999754334444809 -12.772766445621215 -0.44309562 4.8888888
-129.92103142132964 -324.78232435507414 2.5181282 0.0
-18.076752172975816 -47.0776547710861 0.016070008 0.0
-51.82297035921915 -81.56650702297173 1.5993358 0.0
77.80888934964412 -423.2308209145816 -0.8651101 0.0
-27.301471729965584 -0.13911402314742816 0.035506163 0.82301593
-34.185866138466416 -45.881889886661966 0.15078731 0.0
-68.10212148987662 -80.41071300956656 1.0725965 0.0
95.3118342489655 -387.69874604804136 -1.1277633 0.0
-9.540282907722558 35.432113010932206 -0.36468387 0.0
61.70726106858483 -421.982507269422 -0.49775204 0.0
-14.849395459115932 -234.66727174227088 1.4871143 47.833336
-43.438222750388825 1.1446150367042662 0.29200634 0.72222233
-0.19418636148251878 -11.250865780787358 -0.1639348 27.390629
-49.56385125315447 -174.24392955587538 1.6650779 0.0
61.12507629665524 -326.78564798170635 -1.606804 0.0
-15.650750924789406 -139.7565967763006 0.084040701 0.0
-117.70879311169148 -242.8564195738855 5.5645266 19.806456
-74.78530977865879 -255.5932584190066 2.0105956 0.0
-35.388198074243746 -46.60691913933614 0.14219138 0.0
-69.33046914095269 -81.00595865013179 1.0744107 0.0
-1.4349438949400923 -12.21020955263625 -0.21524107 0.0
94.32611742538579 -388.4597684912794 -1.0786705 0.0
-10.767651337331761 34.70458646099713 -0.34672394 0.0
60.33910637382611 -422.734019003535 -0.4540706 0.0
-44.63000184442292 0.35359139280398466 0.29500037 0.13461539
-50.89436705400966 -174.88639581878624 1.6588081 0.0
59.573870159605804 -327.28249438410876 -1.5096251 0.0
-17.223571763523125 -140.01672539329795 0.032600444 0.0
-118.96927252549818 -243.75245764731397 4.5097837 80.474403
-75.16235182690568 -256.5350081517434 2.0119898 0.0
-36.44581485902181 -34.912260227418244 0.47039342 0.0
