# .PCD v0.7 - Point Cloud Data file format
VERSION 0.7
FIELDS x y z
SIZE 4 4 4
TYPE F F F
COUNT 1 1 1
WIDTH 342
HEIGHT 1
VIEWPOINT 0 0 0 1 0 0 0
POINTS 342
DATA ascii
78.49 269.55 -6.22 
79.43 269.47 -6.43 
79.41 269.56 -5.95 
79.21 269.60 -5.59 
80.07 269.04 -6.99 
79.54 269.31 -6.09 
80.37 269.65 -7.26 
80.38 269.52 -4.66 
81.00 269.66 -6.96 
77.18 270.34 -8.05 
78.48 270.07 -7.22 
78.15 270.12 -6.60 
79.36 270.23 -7.86 
78.89 270.42 -7.11 
80.20 269.78 -7.31 
79.95 269.82 -5.85 
80.06 269.79 -5.07 
80.98 270.05 -7.13 
77.10 270.61 -7.85 
77.09 271.04 -7.36 
77.43 270.98 -7.88 
77.98 270.96 -4.09 
78.35 270.84 -8.14 
78.79 270.74 -7.59 
78.20 270.82 -6.43 
78.55 270.84 -5.88 
78.71 270.94 -4.36 
79.40 270.46 -7.90 
79.17 270.80 -7.13 
79.21 271.08 -4.43 
79.83 270.78 -8.05 
80.19 271.02 -6.07 
79.64 270.76 -4.91 
80.60 270.69 -8.34 
80.62 270.99 -6.25 
81.48 270.71 -6.88 
82.19 271.11 -7.04 
81.62 271.04 -6.93 
81.70 270.49 -5.27 
77.89 271.64 -7.73 
77.79 271.22 -7.34 
77.58 271.50 -6.37 
78.67 271.72 -7.88 
78.59 271.74 -7.31 
78.47 271.46 -6.73 
78.51 271.53 -5.97 
78.64 271.58 -4.31 
78.49 271.43 -4.06 
79.09 271.53 -8.40 
79.07 271.29 -7.58 
79.17 271.29 -5.84 
79.10 271.19 -5.09 
78.84 271.41 -4.64 
79.27 271.74 -4.04 
79.90 271.43 -8.05 
79.60 271.52 -7.57 
79.74 271.63 -5.00 
80.67 271.42 -8.34 
81.47 271.40 -8.34 
81.17 271.16 -5.20 
81.03 271.40 -4.80 
81.95 271.74 -7.86 
82.28 271.64 -7.08 
81.64 271.53 -4.75 
82.42 271.42 -7.02 
77.38 272.38 -3.98 
77.72 272.08 -7.03 
77.92 271.88 -6.89 
77.58 272.24 -6.07 
78.02 272.21 -5.65 
78.55 272.33 -7.71 
78.16 271.98 -7.70 
78.31 272.07 -6.35 
78.32 272.51 -6.29 
78.12 272.15 -5.08 
78.81 272.16 -4.35 
78.82 272.13 -3.73 
78.91 272.19 -7.83 
79.18 272.43 -7.70 
79.13 272.02 -5.64 
79.19 271.85 -5.20 
79.38 272.09 -4.31 
78.94 272.33 -3.93 
79.69 272.28 -8.39 
80.18 272.51 -7.25 
79.69 272.10 -6.33 
80.04 271.91 -5.68 
79.70 272.24 -5.21 
79.86 272.25 -4.95 
80.43 272.40 -8.38 
80.37 272.27 -6.67 
80.26 271.86 -5.66 
80.78 272.08 -4.99 
81.25 272.40 -8.34 
81.91 272.11 -7.68 
81.89 272.21 -6.99 
82.10 272.39 -5.70 
82.58 272.41 -6.97 
82.32 272.22 -4.86 
83.04 272.11 -6.91 
77.34 272.66 -7.71 
76.83 272.78 -7.13 
77.19 273.14 -4.80 
77.75 272.87 -6.86 
78.07 272.69 -5.59 
77.56 272.82 -4.73 
77.96 272.97 -4.14 
78.44 272.63 -7.69 
78.54 272.92 -6.06 
78.55 273.02 -5.58 
78.15 272.57 -4.74 
79.12 272.80 -8.04 
79.11 272.75 -7.54 
79.09 272.76 -5.94 
78.82 272.91 -5.47 
78.97 273.22 -4.68 
78.86 272.95 -3.48 
79.66 272.71 -7.69 
80.00 273.23 -5.97 
79.98 272.71 -5.20 
79.74 272.92 -4.38 
79.67 272.61 -4.20 
80.35 272.75 -8.04 
80.71 272.97 -7.66 
80.87 272.68 -6.93 
80.27 272.55 -6.19 
80.77 273.20 -5.39 
81.34 272.98 -7.85 
81.60 272.62 -7.22 
81.35 273.20 -6.31 
81.25 273.05 -6.25 
81.02 273.05 -5.53 
81.20 272.90 -4.72 
80.97 272.80 -3.79 
82.05 272.75 -8.24 
81.68 272.72 -7.22 
81.91 272.67 -6.98 
81.80 273.18 -6.23 
82.02 273.10 -5.58 
82.49 273.08 -7.00 
83.44 273.10 -6.92 
77.26 273.52 -4.70 
77.79 273.75 -6.84 
77.84 273.32 -4.81 
78.65 273.80 -6.76 
78.31 273.51 -6.22 
78.68 273.32 -4.79 
79.41 273.64 -7.82 
79.44 273.63 -7.51 
78.82 273.88 -6.95 
79.29 273.52 -6.29 
79.24 273.53 -4.55 
79.45 273.50 -4.04 
80.00 273.88 -8.24 
80.09 273.46 -7.66 
80.13 273.43 -6.76 
79.56 273.60 -6.19 
79.75 273.46 -5.50 
79.86 273.30 -4.10 
80.65 273.25 -8.37 
80.61 273.36 -7.26 
80.84 273.49 -6.96 
80.91 273.56 -5.99 
80.71 273.43 -4.88 
81.42 273.77 -7.52 
81.17 273.37 -6.28 
81.20 273.75 -5.56 
81.37 273.31 -4.56 
82.08 273.42 -7.74 
82.08 273.42 -7.74 
81.66 273.66 -6.96 
82.68 273.53 -6.83 
82.89 273.94 -6.26 
82.93 273.66 -5.59 
83.41 273.67 -6.84 
77.25 274.51 -6.57 
77.97 274.51 -7.12 
77.69 274.10 -6.79 
78.75 274.64 -6.72 
78.83 274.42 -6.80 
79.07 274.39 -5.87 
79.03 274.42 -4.21 
79.73 274.27 -7.50 
79.58 274.13 -6.20 
80.16 274.24 -5.48 
80.34 274.47 -6.11 
80.55 274.18 -5.43 
80.34 274.09 -4.34 
80.44 274.37 -4.03 
81.39 273.96 -7.56 
81.01 274.44 -6.77 
81.29 274.05 -5.20 
81.35 273.98 -4.42 
81.90 274.33 -7.56 
81.86 274.10 -5.36 
82.71 274.37 -6.03 
82.86 274.21 -5.28 
83.40 274.20 -6.25 
78.15 275.29 -8.01 
79.42 274.97 -7.51 
79.34 275.05 -6.68 
78.83 274.75 -6.23 
78.96 274.74 -5.59 
79.77 275.13 -6.88 
79.99 274.94 -5.97 
80.02 274.87 -5.22 
80.90 275.00 -6.90 
80.34 274.83 -6.18 
77.17 275.63 -6.93 
80.12 275.69 -7.62 
79.85 275.47 -5.86 
79.64 275.72 -5.31 
76.92 276.55 -6.71 
77.22 276.56 -5.17 
77.92 276.64 -6.01 
78.32 276.38 -8.04 
78.74 276.42 -6.45 
78.39 276.72 -6.19 
80.62 276.06 -7.70 
80.96 276.33 -7.55 
81.19 276.15 -6.44 
77.39 276.92 -8.34 
77.22 276.97 -6.75 
76.88 277.19 -4.68 
77.42 276.85 -7.78 
77.91 276.94 -5.63 
77.68 276.95 -5.26 
79.83 277.07 -6.41 
79.86 277.02 -5.82 
81.56 277.12 -7.42 
75.94 277.91 -7.73 
76.63 277.66 -7.72 
76.62 277.65 -6.85 
77.13 277.47 -7.79 
77.39 277.80 -7.03 
77.10 277.83 -6.15 
77.94 277.47 -7.77 
77.93 278.08 -7.06 
77.71 278.07 -6.71 
77.87 277.50 -5.73 
78.50 277.79 -5.69 
78.15 278.14 -4.76 
78.93 277.50 -7.99 
78.86 277.79 -6.72 
79.19 277.65 -5.36 
79.96 277.69 -7.77 
80.09 278.14 -5.73 
80.55 278.01 -7.07 
80.52 278.05 -5.94 
75.77 278.80 -6.11 
76.66 278.71 -5.89 
76.87 278.24 -6.71 
77.36 278.39 -5.90 
77.60 278.22 -7.78 
77.87 278.39 -6.06 
78.15 278.16 -7.03 
78.24 278.25 -6.74 
79.46 278.17 -6.69 
79.26 278.17 -6.12 
79.53 278.26 -6.07 
81.45 278.68 -7.37 
90.57 278.74 -7.93 
90.55 278.73 -6.38 
90.54 278.73 -5.60 
90.52 278.73 -4.82 
90.53 278.75 -3.57 
90.27 278.69 -3.32 
90.53 278.73 -2.74 
91.13 278.75 -6.45 
91.10 278.79 -2.53 
75.67 279.24 -7.98 
77.02 278.97 -7.36 
77.96 279.40 -7.42 
78.48 278.89 -7.98 
78.78 278.88 -6.69 
78.59 278.99 -5.70 
79.10 279.37 -7.97 
79.17 279.16 -6.69 
90.40 278.93 -7.95 
90.35 278.92 -6.90 
90.28 278.93 -5.85 
90.57 278.89 -2.29 
73.21 280.18 -7.97 
75.94 279.90 -5.06 
77.81 279.54 -6.49 
78.35 280.05 -7.41 
78.39 280.05 -5.58 
79.28 280.12 -7.42 
78.87 279.55 -6.05 
79.24 280.14 -5.60 
91.63 279.55 -7.30 
73.66 280.67 -6.03 
74.54 280.84 -7.67 
75.14 280.72 -4.85 
77.35 280.94 -4.94 
78.10 280.45 -6.68 
77.81 280.65 -4.54 
73.75 281.01 -5.78 
74.15 281.29 -7.28 
74.55 281.33 -6.98 
74.98 281.50 -6.33 
75.28 281.41 -5.73 
75.26 281.32 -4.77 
75.25 281.27 -3.81 
75.35 281.37 -4.95 
75.62 281.40 -4.83 
75.32 281.20 -3.95 
76.03 281.31 -4.76 
73.78 281.83 -4.94 
73.72 282.25 -4.71 
74.51 281.67 -5.72 
74.52 281.95 -5.59 
74.43 282.29 -4.63 
74.67 282.23 -7.97 
75.16 281.80 -3.73 
77.07 281.77 -6.93 
77.15 282.25 -5.88 
77.04 282.30 -5.52 
77.12 282.22 -4.43 
78.10 282.21 -5.62 
77.73 281.85 -4.48 
78.57 282.02 -6.94 
78.82 281.76 -6.44 
73.55 282.73 -4.58 
74.68 282.51 -5.90 
75.19 282.71 -5.55 
75.03 282.46 -3.28 
76.10 282.49 -4.35 
77.24 282.81 -4.79 
78.90 282.85 -6.40 
73.99 283.74 -6.89 
75.60 283.15 -5.85 
75.79 283.52 -3.65 
76.47 283.36 -3.70 
77.39 283.43 -5.35 
77.50 283.05 -4.83 
77.47 283.06 -3.78 
78.92 283.58 -6.28 
75.09 284.23 -6.84 
75.15 284.15 -4.66 
75.41 283.91 -5.77 
73.72 285.00 -7.57 
