# .PCD v0.7 - Point Cloud Data file format
VERSION 0.7
FIELDS x y z
SIZE 4 4 4
TYPE F F F
COUNT 1 1 1
WIDTH 516
HEIGHT 1
VIEWPOINT 0 0 0 1 0 0 0
POINTS 516
DATA ascii
115.67 161.36 -7.09 
116.22 161.55 -7.32 
117.09 162.02 -8.19 
117.23 161.76 -8.41 
117.41 161.93 -8.20 
117.51 161.98 -7.14 
117.47 161.97 -6.62 
115.62 162.32 -8.33 
115.41 162.20 -7.06 
116.35 162.67 -7.44 
116.88 162.15 -8.25 
116.69 162.56 -7.37 
116.76 162.23 -6.47 
117.14 162.28 -7.18 
116.10 162.86 -8.23 
115.94 162.83 -8.27 
116.21 163.35 -7.46 
116.07 163.08 -6.45 
116.46 162.92 -8.11 
116.78 162.82 -6.99 
116.73 163.27 -6.69 
116.73 163.25 -5.80 
117.14 163.18 -6.61 
117.32 162.80 -5.92 
117.37 163.13 -5.53 
115.57 163.98 -7.21 
115.43 163.85 -6.55 
115.91 163.84 -7.22 
116.23 163.74 -6.74 
116.55 163.72 -6.45 
117.15 163.69 -6.14 
117.55 163.54 -4.94 
117.57 163.89 -4.57 
95.06 164.82 -9.33 
96.88 164.44 -8.95 
115.62 164.44 -7.29 
115.08 164.59 -6.61 
115.88 164.53 -6.99 
116.17 164.58 -6.50 
94.47 165.31 -10.02 
94.62 165.30 -9.33 
95.37 165.19 -8.96 
94.83 164.92 -8.84 
95.33 165.10 -6.68 
95.58 165.26 -9.70 
95.46 165.43 -6.40 
96.53 165.05 -8.81 
96.48 164.94 -7.04 
96.56 165.02 -6.59 
97.08 165.19 -9.89 
96.95 165.33 -8.78 
97.48 165.30 -6.94 
97.13 165.34 -6.73 
97.57 165.37 -8.59 
98.17 165.28 -8.00 
98.55 165.62 -8.49 
98.23 165.25 -6.86 
115.54 165.23 -6.79 
115.91 165.20 -6.63 
93.87 165.85 -10.19 
93.95 165.82 -9.03 
93.60 165.77 -8.90 
94.57 165.85 -10.90 
94.41 165.89 -9.57 
94.61 165.57 -7.50 
94.24 165.77 -6.61 
94.89 166.05 -10.78 
94.94 166.19 -9.88 
95.16 166.03 -8.75 
94.72 165.77 -7.22 
95.15 165.76 -6.38 
95.94 166.16 -9.89 
95.49 166.16 -9.53 
96.01 165.65 -8.81 
95.92 165.97 -6.93 
95.94 166.08 -6.50 
96.33 166.23 -10.41 
96.70 165.78 -9.98 
96.42 166.10 -9.61 
96.17 166.01 -8.85 
96.16 165.59 -7.98 
96.59 166.06 -7.47 
96.72 165.96 -6.67 
97.33 166.02 -9.40 
97.09 166.00 -8.81 
97.29 165.96 -7.75 
97.10 165.89 -6.90 
96.82 166.09 -6.70 
97.65 166.16 -9.81 
97.64 165.81 -8.32 
98.13 165.80 -7.88 
97.61 165.73 -6.82 
98.75 165.86 -8.71 
98.56 166.06 -7.58 
98.37 165.94 -7.14 
98.22 165.88 -6.35 
93.90 166.45 -10.06 
93.75 166.43 -9.03 
94.37 166.43 -10.64 
94.30 166.48 -9.50 
94.58 166.48 -8.52 
94.22 166.76 -8.04 
94.05 166.86 -6.84 
94.84 166.71 -10.63 
94.89 166.35 -9.78 
95.34 166.62 -9.34 
95.11 166.55 -7.03 
94.88 166.90 -6.39 
95.60 166.70 -9.98 
95.74 166.67 -9.59 
95.56 166.54 -8.79 
95.58 166.43 -6.96 
95.78 166.59 -6.67 
96.58 166.81 -8.35 
96.12 166.63 -7.61 
96.61 166.72 -7.18 
96.14 166.57 -6.45 
97.14 166.37 -9.22 
97.31 166.46 -8.63 
97.26 166.42 -7.76 
97.35 166.37 -7.45 
97.23 166.30 -6.47 
97.71 166.68 -10.72 
97.69 166.29 -9.73 
97.75 166.48 -9.02 
97.79 166.65 -8.64 
97.98 166.77 -7.72 
98.11 166.78 -7.56 
97.78 166.66 -6.81 
98.61 166.93 -9.41 
98.66 166.91 -7.61 
98.68 166.38 -7.56 
93.53 167.22 -10.73 
93.91 167.40 -9.92 
93.64 167.11 -6.65 
94.24 167.34 -10.61 
94.55 167.00 -9.91 
94.54 167.48 -9.66 
94.17 166.95 -8.04 
94.05 167.29 -7.37 
94.33 167.45 -6.33 
94.43 167.38 -6.08 
94.94 167.01 -10.73 
95.24 167.46 -9.96 
95.23 166.96 -9.47 
94.80 167.57 -8.00 
95.28 167.19 -7.05 
95.18 166.95 -6.57 
95.49 167.02 -10.06 
95.73 167.52 -8.63 
95.75 167.16 -8.04 
95.44 167.44 -7.00 
95.84 167.37 -6.63 
95.57 167.12 -5.89 
96.69 167.56 -10.66 
96.45 167.33 -9.80 
96.62 167.15 -9.29 
96.25 167.33 -8.78 
96.73 167.41 -7.79 
96.34 167.30 -7.15 
96.28 167.03 -6.82 
97.26 167.30 -10.61 
97.28 167.40 -10.17 
97.32 167.39 -9.34 
97.15 167.15 -8.60 
96.99 167.17 -8.02 
97.22 167.29 -7.39 
97.27 167.12 -6.86 
97.47 167.18 -5.86 
97.75 167.12 -10.76 
98.11 167.53 -9.45 
97.66 167.47 -8.47 
97.72 167.32 -7.66 
97.54 167.42 -7.56 
97.88 167.13 -6.70 
97.87 167.53 -5.81 
98.27 166.97 -9.30 
98.33 167.00 -7.55 
93.13 168.01 -10.59 
92.86 167.65 -8.97 
92.92 168.06 -8.95 
93.62 167.90 -10.92 
93.94 167.97 -10.01 
94.45 168.32 -10.41 
94.12 168.28 -9.72 
94.34 168.03 -9.52 
94.52 168.18 -8.95 
94.70 167.80 -7.64 
94.26 167.69 -6.49 
94.83 167.76 -10.47 
94.79 167.82 -9.71 
95.01 168.18 -9.17 
94.78 167.92 -8.80 
95.37 168.04 -7.87 
95.26 168.20 -6.94 
95.00 167.85 -6.62 
94.97 167.80 -5.73 
95.79 167.98 -10.48 
95.80 167.98 -9.92 
95.87 168.15 -9.50 
95.80 168.04 -8.75 
95.64 168.05 -7.89 
95.43 167.92 -6.99 
95.71 167.68 -6.19 
95.99 168.12 -6.02 
96.54 167.91 -10.75 
96.37 167.89 -10.07 
96.57 167.67 -9.34 
96.79 168.12 -8.63 
96.45 167.73 -7.79 
96.55 167.98 -7.25 
96.55 168.07 -6.92 
96.95 167.99 -10.16 
97.29 168.08 -9.17 
97.02 167.96 -8.52 
97.04 168.09 -7.52 
97.02 168.15 -6.21 
97.69 167.76 -10.41 
97.77 168.20 -9.32 
98.03 168.25 -8.50 
97.71 167.95 -7.65 
97.84 167.74 -6.96 
97.78 168.26 -5.72 
98.42 167.85 -10.14 
98.50 168.25 -8.47 
92.91 168.82 -9.04 
93.11 168.79 -8.54 
93.22 168.88 -7.58 
93.33 168.47 -10.58 
93.62 169.02 -9.84 
93.35 168.37 -9.03 
93.44 168.33 -8.54 
93.56 168.34 -8.08 
93.86 168.85 -7.07 
94.64 168.58 -10.76 
94.36 168.65 -10.03 
94.41 168.47 -9.47 
94.59 168.61 -8.71 
94.58 168.93 -7.84 
94.70 168.63 -6.98 
94.83 168.84 -10.64 
95.01 168.49 -9.83 
94.90 168.90 -9.33 
95.24 168.98 -8.63 
94.71 168.98 -7.84 
95.16 168.36 -6.88 
95.31 168.96 -6.60 
95.31 168.37 -5.86 
95.65 168.45 -10.56 
95.67 168.63 -9.81 
95.61 168.37 -8.99 
95.68 168.81 -8.65 
95.45 168.67 -7.79 
95.72 168.88 -6.92 
96.35 169.03 -10.97 
96.66 168.75 -9.97 
96.28 168.70 -9.36 
96.47 168.58 -8.69 
96.44 168.72 -7.52 
96.21 168.48 -6.37 
97.01 168.65 -9.81 
97.40 168.65 -9.22 
97.40 168.93 -8.64 
97.35 168.78 -7.57 
97.35 168.78 -7.57 
97.66 168.68 -9.06 
97.88 168.47 -8.75 
97.56 168.49 -8.16 
98.17 168.85 -7.47 
98.29 168.34 -9.35 
98.32 168.57 -8.44 
98.38 168.85 -8.05 
99.06 168.82 -7.88 
93.07 169.46 -10.72 
92.73 169.15 -10.29 
93.03 169.39 -8.36 
92.67 169.27 -7.78 
92.93 169.59 -7.55 
93.20 169.25 -6.44 
92.69 169.57 -5.50 
93.37 169.17 -10.70 
93.48 169.42 -8.71 
93.92 169.55 -7.10 
93.32 169.34 -6.31 
94.51 169.21 -10.60 
94.37 169.05 -9.79 
94.61 169.49 -9.26 
94.27 169.57 -8.86 
94.61 169.14 -7.90 
94.41 169.20 -6.98 
94.60 169.33 -6.63 
95.00 169.59 -10.47 
95.02 169.21 -9.95 
94.99 169.14 -9.29 
94.96 169.69 -8.53 
94.71 169.11 -7.84 
95.34 169.35 -6.89 
95.01 169.73 -6.56 
95.49 169.25 -10.61 
96.03 169.38 -10.10 
96.05 169.45 -9.25 
95.56 169.40 -8.88 
95.58 169.54 -7.71 
95.63 169.48 -6.72 
96.80 169.58 -10.37 
96.44 169.27 -9.96 
96.19 169.36 -9.26 
96.52 169.59 -8.32 
96.65 169.40 -7.97 
96.50 169.17 -7.31 
97.30 169.38 -10.75 
97.35 169.21 -9.70 
97.22 169.16 -9.08 
97.36 169.31 -8.49 
97.29 169.58 -7.89 
97.43 169.63 -7.53 
97.70 169.73 -9.72 
97.84 169.39 -9.39 
97.74 169.56 -8.53 
97.84 169.45 -7.48 
98.36 169.51 -9.05 
98.51 169.27 -8.50 
98.36 169.04 -8.19 
98.47 169.22 -7.49 
98.95 169.33 -9.21 
92.80 169.90 -10.66 
93.29 170.26 -9.86 
92.89 170.00 -8.96 
93.12 170.01 -8.68 
92.85 170.46 -7.93 
92.89 170.41 -7.09 
92.61 170.40 -6.31 
92.66 170.32 -5.64 
93.79 169.98 -10.66 
93.60 169.98 -9.83 
93.76 170.20 -8.58 
93.65 170.09 -6.88 
93.64 170.42 -6.58 
94.22 169.96 -10.72 
94.44 170.39 -10.31 
94.31 170.21 -9.18 
94.44 170.19 -8.74 
94.36 169.96 -7.78 
94.23 169.82 -6.64 
94.90 169.91 -10.63 
95.16 169.92 -10.34 
94.72 169.91 -9.26 
94.69 170.08 -8.49 
95.24 170.08 -7.71 
95.16 169.85 -7.56 
95.86 170.10 -10.44 
95.94 169.99 -10.07 
95.80 169.79 -9.31 
95.84 170.32 -8.39 
95.48 170.24 -7.69 
96.38 170.01 -10.78 
96.59 170.23 -9.91 
96.50 170.20 -9.36 
96.21 169.76 -8.55 
96.23 170.40 -7.32 
97.10 170.10 -10.60 
97.11 170.07 -9.98 
97.15 170.11 -9.31 
96.99 170.12 -8.58 
96.98 170.16 -8.20 
97.30 169.94 -7.53 
98.01 170.05 -10.57 
97.92 170.36 -10.13 
97.67 169.75 -9.21 
97.59 170.31 -8.62 
97.80 170.13 -7.76 
98.49 169.81 -10.38 
98.54 170.12 -10.01 
98.28 170.03 -8.58 
98.61 170.11 -8.11 
98.99 170.10 -9.99 
99.02 169.77 -8.16 
93.04 170.55 -9.89 
93.24 170.63 -9.43 
93.15 171.01 -8.55 
92.85 170.46 -7.93 
92.88 170.70 -7.02 
93.04 170.51 -6.35 
92.65 171.04 -5.35 
92.70 170.49 -5.12 
93.82 171.06 -10.35 
93.75 170.89 -8.64 
93.33 170.66 -7.09 
93.46 170.85 -6.83 
94.46 170.87 -10.20 
94.49 170.99 -9.31 
94.19 170.48 -8.70 
94.61 171.10 -7.85 
94.89 170.81 -10.00 
95.01 170.76 -9.27 
95.28 171.09 -8.67 
95.34 170.71 -7.79 
95.68 170.61 -10.39 
95.90 170.56 -10.14 
95.77 170.82 -9.36 
95.85 170.89 -8.52 
95.98 171.00 -7.86 
96.20 170.39 -10.61 
96.17 170.96 -10.02 
96.73 170.76 -9.14 
96.74 170.68 -8.52 
96.67 171.12 -7.84 
96.84 170.99 -10.69 
97.36 170.43 -10.22 
96.88 170.88 -8.97 
97.20 170.57 -8.57 
96.87 171.06 -8.00 
97.74 170.84 -10.76 
97.58 170.60 -9.97 
97.70 170.80 -9.22 
97.93 170.84 -8.66 
97.80 170.85 -8.04 
98.21 170.49 -9.94 
98.34 170.74 -7.87 
92.89 171.54 -9.91 
92.79 171.53 -9.60 
93.14 171.39 -8.68 
92.91 171.31 -8.06 
92.65 171.43 -7.41 
93.76 171.24 -9.69 
93.86 171.42 -9.33 
93.69 171.84 -8.53 
94.35 171.27 -10.08 
94.19 171.18 -9.33 
94.26 171.47 -8.70 
94.24 171.38 -7.92 
94.90 171.44 -9.16 
94.92 171.18 -8.61 
95.08 171.35 -7.96 
95.62 171.54 -9.90 
95.75 171.34 -8.90 
95.54 171.25 -7.98 
95.81 171.50 -7.48 
96.43 171.60 -9.78 
96.79 171.59 -9.20 
96.50 171.47 -8.71 
96.30 171.29 -8.04 
96.57 171.49 -7.49 
97.46 171.46 -10.68 
97.18 171.42 -10.04 
97.00 171.64 -9.06 
97.14 171.82 -8.65 
97.01 171.30 -7.75 
97.37 171.25 -7.53 
97.81 171.14 -10.73 
97.74 171.48 -9.36 
97.68 171.52 -8.63 
97.64 171.39 -7.65 
98.44 171.59 -9.15 
98.37 171.27 -8.16 
93.12 172.43 -9.95 
93.10 172.47 -9.10 
93.28 172.25 -8.34 
92.83 172.33 -7.77 
92.65 171.83 -7.29 
93.63 172.50 -9.93 
93.41 172.39 -9.63 
93.60 172.08 -8.67 
93.60 172.08 -8.24 
94.60 172.34 -8.94 
94.08 172.08 -8.19 
95.03 171.91 -8.96 
95.24 171.78 -8.83 
95.96 171.83 -9.21 
95.86 171.94 -8.64 
95.97 172.13 -8.11 
95.96 172.00 -7.32 
96.16 172.21 -9.96 
96.76 172.38 -9.16 
96.51 171.88 -8.39 
96.43 172.23 -7.87 
97.24 171.89 -9.71 
96.93 172.18 -9.23 
96.93 172.05 -8.51 
97.43 172.06 -7.91 
97.67 171.97 -9.80 
98.08 171.85 -9.20 
98.18 171.93 -8.78 
97.96 172.30 -8.13 
92.82 172.81 -9.86 
93.20 172.64 -9.16 
93.07 172.65 -8.33 
92.83 172.74 -7.91 
93.69 173.17 -10.86 
93.50 172.62 -9.70 
93.53 172.77 -9.60 
93.67 173.15 -8.76 
93.96 173.21 -8.12 
95.24 172.56 -8.88 
96.95 172.58 -8.59 
96.93 172.57 -8.08 
92.87 173.52 -10.78 
92.71 173.74 -9.82 
93.04 173.61 -9.26 
92.70 173.74 -8.66 
92.72 173.35 -7.92 
93.62 173.70 -10.75 
93.45 173.69 -9.11 
93.34 173.35 -8.87 
93.64 173.35 -8.05 
94.22 173.33 -8.69 
94.36 173.57 -7.97 
92.77 174.10 -10.48 
92.77 174.54 -10.05 
92.63 174.32 -9.54 
92.93 174.28 -8.76 
93.47 174.58 -10.45 
93.59 174.23 -9.10 
92.82 174.67 -10.38 
93.13 174.90 -10.02 
93.44 174.66 -9.17 
