# .PCD v0.7 - Point Cloud Data file format
VERSION 0.7
FIELDS x y z
SIZE 4 4 4
TYPE F F F
COUNT 1 1 1
WIDTH 575
HEIGHT 1
VIEWPOINT 0 0 0 1 0 0 0
POINTS 575
DATA ascii
101.62 86.06 -11.34 
101.85 85.88 -11.44 
102.61 86.10 -11.73 
103.16 85.68 -11.62 
106.25 85.66 -11.58 
107.72 85.55 -11.70 
107.85 85.90 -11.51 
108.19 85.48 -11.51 
113.50 86.14 -14.09 
113.50 86.15 -13.08 
113.45 86.05 -11.45 
113.93 86.10 -14.40 
113.95 86.02 -14.14 
113.94 86.02 -13.43 
113.96 86.10 -12.69 
114.05 85.99 -12.13 
113.89 85.98 -11.37 
114.50 85.79 -14.39 
114.56 85.67 -14.13 
114.56 85.67 -13.38 
114.54 85.73 -12.58 
114.62 85.69 -11.76 
114.48 85.82 -11.37 
115.10 85.49 -14.12 
115.10 85.49 -13.16 
115.10 85.50 -12.19 
100.09 86.83 -11.56 
100.31 86.75 -11.38 
100.73 86.53 -11.37 
101.28 86.22 -11.48 
102.33 86.77 -11.73 
102.24 86.63 -11.39 
102.78 86.53 -11.40 
102.78 86.53 -11.40 
103.32 86.43 -11.40 
104.94 86.56 -11.37 
105.60 86.55 -11.59 
105.48 86.46 -11.37 
106.22 86.18 -11.62 
107.18 86.75 -11.51 
107.44 86.25 -11.70 
107.51 86.33 -11.51 
108.21 86.80 -11.48 
108.91 86.34 -11.64 
112.42 86.84 -14.74 
112.57 86.72 -14.20 
112.57 86.72 -13.43 
112.57 86.73 -12.66 
112.44 86.87 -11.73 
112.45 86.55 -11.46 
113.35 86.41 -14.41 
113.18 86.40 -14.19 
113.18 86.40 -13.42 
113.36 86.50 -12.60 
113.55 86.25 -12.13 
113.62 86.18 -14.22 
113.81 86.19 -13.43 
113.83 86.19 -12.35 
98.73 87.58 -11.36 
99.41 87.21 -11.40 
99.41 87.21 -11.40 
99.99 86.92 -11.36 
100.81 87.53 -14.86 
100.80 87.55 -12.99 
101.41 87.08 -14.24 
101.42 87.09 -13.48 
101.47 87.38 -12.89 
101.47 87.38 -12.07 
102.54 87.22 -11.61 
102.62 87.26 -11.36 
105.19 87.27 -11.36 
105.63 87.41 -11.63 
105.83 87.27 -11.36 
106.20 87.31 -11.55 
106.46 87.27 -11.36 
107.16 86.95 -11.70 
107.17 87.10 -11.52 
107.79 87.12 -11.48 
108.64 86.97 -11.64 
111.40 87.35 -14.17 
111.32 87.40 -13.39 
111.32 87.41 -12.68 
111.45 87.35 -12.05 
111.33 87.46 -11.71 
111.90 87.13 -14.70 
111.79 87.15 -14.15 
111.79 87.15 -13.42 
111.89 87.13 -12.59 
111.88 87.16 -11.72 
112.25 86.91 -14.16 
112.25 86.91 -13.23 
112.25 86.91 -12.31 
97.45 88.26 -11.44 
98.19 87.83 -11.75 
97.85 88.05 -11.43 
98.82 87.96 -11.62 
98.54 87.67 -11.44 
101.92 88.12 -11.62 
105.29 87.71 -11.55 
105.91 88.07 -11.51 
106.49 87.95 -11.51 
106.88 87.65 -11.70 
107.46 87.99 -11.49 
108.09 88.21 -11.65 
109.81 88.20 -14.81 
109.75 88.20 -14.19 
109.81 88.21 -13.41 
109.81 88.21 -12.70 
109.83 88.17 -11.97 
110.06 88.10 -11.44 
110.55 87.94 -14.50 
110.47 87.86 -14.17 
110.61 87.79 -13.42 
110.46 87.83 -12.73 
110.45 87.84 -11.94 
110.56 87.84 -11.44 
110.86 87.67 -14.04 
110.96 87.60 -13.46 
110.95 87.61 -12.76 
110.95 87.61 -12.06 
95.99 88.87 -11.60 
96.51 88.51 -11.59 
96.32 88.78 -11.42 
97.10 88.41 -11.57 
97.09 88.45 -11.35 
98.59 88.45 -11.62 
101.48 88.78 -11.73 
104.62 88.60 -11.56 
105.21 88.93 -11.51 
105.64 88.60 -11.51 
106.60 88.35 -11.70 
106.64 88.85 -11.45 
107.82 88.83 -11.65 
107.90 88.77 -11.46 
108.59 88.82 -14.17 
108.58 88.83 -13.46 
108.50 88.89 -12.67 
108.58 88.84 -12.04 
108.53 88.90 -11.43 
109.41 88.56 -14.39 
109.10 88.55 -14.17 
109.10 88.56 -13.46 
109.10 88.56 -12.74 
109.13 88.57 -12.01 
109.04 88.63 -11.44 
109.62 88.28 -14.17 
109.43 88.56 -13.33 
109.62 88.49 -12.54 
109.62 88.29 -12.01 
94.63 89.73 -14.91 
94.59 89.67 -13.87 
94.58 89.67 -13.28 
94.89 89.44 -13.00 
94.89 89.45 -12.34 
95.15 89.45 -11.55 
95.15 89.45 -11.55 
95.58 89.07 -11.64 
95.83 89.11 -11.45 
97.99 89.39 -11.62 
101.29 89.02 -11.63 
103.30 89.66 -11.60 
103.53 89.29 -11.52 
103.96 89.51 -11.56 
104.29 89.32 -11.55 
104.76 89.26 -11.65 
105.13 89.54 -11.46 
105.64 89.31 -11.46 
106.14 89.08 -11.46 
107.06 89.63 -14.18 
107.19 89.57 -13.52 
107.06 89.64 -12.77 
107.19 89.62 -11.62 
106.86 89.28 -11.46 
107.55 89.48 -14.50 
107.57 89.36 -14.18 
107.57 89.37 -13.47 
107.56 89.37 -12.77 
107.83 89.24 -11.89 
107.70 89.52 -11.51 
108.51 88.99 -14.50 
108.20 89.01 -14.20 
108.07 89.10 -13.47 
108.19 89.01 -12.48 
108.07 89.11 -12.05 
108.67 89.00 -11.54 
94.63 89.73 -14.91 
94.59 89.67 -13.87 
94.72 90.35 -13.07 
94.62 89.75 -12.61 
94.29 90.03 -11.63 
94.61 89.75 -11.46 
95.25 90.14 -14.44 
95.02 90.37 -13.72 
95.25 90.14 -13.66 
95.02 90.02 -12.39 
95.37 89.93 -11.89 
95.62 89.85 -14.35 
95.62 89.83 -12.53 
95.62 89.82 -11.62 
100.99 90.19 -11.60 
101.31 89.74 -11.60 
102.22 90.33 -11.49 
102.97 90.11 -11.59 
102.86 90.20 -11.54 
103.43 89.99 -11.56 
103.43 89.99 -11.56 
104.47 89.87 -11.65 
104.06 90.17 -11.46 
105.19 89.95 -11.45 
105.74 90.33 -14.36 
105.80 90.31 -14.14 
105.56 90.43 -13.49 
105.74 90.43 -12.63 
105.85 90.28 -12.11 
105.80 89.79 -11.45 
106.15 90.23 -14.39 
106.44 89.97 -14.25 
106.30 90.04 -13.60 
106.42 90.05 -12.57 
106.29 90.05 -12.11 
106.85 89.72 -14.34 
106.97 89.69 -14.24 
106.97 89.70 -13.52 
106.96 89.87 -12.54 
106.96 89.71 -12.07 
94.75 90.42 -14.27 
95.04 90.39 -13.08 
95.05 90.41 -12.44 
94.75 90.55 -11.68 
95.69 91.01 -14.43 
95.48 90.92 -13.80 
95.69 91.00 -13.64 
95.81 90.78 -12.69 
95.81 90.77 -11.83 
97.01 90.67 -11.63 
100.14 90.80 -11.52 
100.65 90.76 -11.73 
100.75 90.98 -11.48 
101.24 90.76 -11.49 
102.30 91.02 -11.59 
102.00 90.86 -11.53 
102.64 90.56 -11.59 
102.83 91.00 -11.52 
103.26 90.66 -11.52 
104.42 91.01 -14.34 
104.31 91.10 -13.45 
104.47 91.00 -12.27 
104.18 90.49 -11.65 
104.79 90.88 -14.34 
104.82 90.81 -14.26 
104.81 90.84 -13.45 
104.76 90.87 -12.67 
104.81 90.82 -12.13 
105.72 90.43 -14.50 
105.36 90.52 -14.24 
105.35 90.53 -13.42 
105.35 90.53 -12.60 
105.56 90.44 -12.09 
95.25 91.14 -14.46 
95.28 91.18 -13.84 
95.31 91.23 -13.21 
95.34 91.27 -12.58 
95.37 91.32 -11.95 
95.35 91.74 -11.48 
95.65 91.59 -14.35 
95.62 91.20 -14.31 
95.69 91.64 -13.02 
95.64 91.23 -12.92 
95.37 91.32 -11.95 
95.67 91.26 -11.52 
96.25 91.68 -14.38 
96.25 91.67 -13.51 
96.25 91.66 -12.64 
96.99 91.35 -11.60 
97.74 91.38 -11.44 
98.65 91.46 -11.51 
99.15 91.24 -11.51 
100.01 91.57 -11.60 
100.09 91.45 -11.42 
100.50 91.54 -11.55 
100.98 91.32 -11.54 
101.47 91.10 -11.54 
102.30 91.02 -11.59 
103.02 91.75 -14.38 
103.02 91.76 -13.66 
103.09 91.73 -13.61 
103.08 91.73 -12.82 
102.88 91.78 -12.13 
103.48 91.46 -14.37 
103.40 91.58 -14.23 
103.40 91.58 -13.51 
103.35 91.57 -12.67 
103.46 91.48 -12.10 
104.09 91.19 -14.37 
104.06 91.26 -14.10 
104.01 91.23 -13.45 
104.00 91.23 -12.65 
104.05 91.18 -12.08 
104.12 91.39 -11.50 
95.07 91.98 -12.55 
95.07 91.97 -11.74 
95.07 91.97 -11.74 
95.86 91.81 -14.52 
95.87 91.81 -13.77 
95.44 91.91 -13.55 
95.71 91.66 -12.35 
96.00 92.11 -11.52 
96.15 91.91 -14.42 
96.33 92.43 -14.30 
96.34 92.45 -13.57 
96.35 92.46 -12.85 
96.16 91.89 -11.98 
96.12 92.40 -11.44 
97.05 91.91 -11.51 
97.58 91.82 -11.51 
99.05 92.19 -11.64 
99.69 92.03 -11.60 
99.67 92.36 -11.52 
100.43 92.32 -11.56 
102.27 92.15 -14.50 
102.18 92.26 -14.12 
102.06 92.27 -13.52 
102.06 92.28 -12.82 
102.05 92.28 -12.12 
102.55 92.06 -14.36 
102.82 91.92 -14.11 
102.71 91.90 -13.48 
102.71 91.90 -12.69 
102.71 91.91 -11.90 
102.46 92.16 -11.48 
103.18 91.79 -11.50 
96.37 92.79 -14.51 
96.38 92.79 -13.74 
96.27 92.88 -12.96 
96.29 92.91 -12.26 
96.65 92.83 -11.91 
98.18 93.02 -11.52 
98.72 92.65 -11.64 
98.68 92.80 -11.52 
99.18 92.58 -11.52 
100.20 93.17 -14.30 
100.20 93.17 -13.54 
99.99 92.66 -11.56 
100.79 92.97 -14.38 
100.77 92.95 -14.18 
100.77 92.96 -13.46 
100.77 92.97 -12.75 
100.79 92.87 -11.99 
101.39 92.65 -14.37 
101.29 92.68 -14.17 
101.29 92.69 -13.46 
101.28 92.69 -12.75 
101.53 92.55 -11.89 
101.76 92.52 -14.03 
95.96 93.23 -13.56 
96.62 93.66 -14.46 
96.66 93.71 -13.78 
96.18 93.31 -13.51 
96.72 93.82 -12.40 
96.55 93.27 -11.55 
97.14 93.83 -14.39 
96.91 93.83 -13.71 
97.15 93.82 -13.54 
96.96 93.62 -12.79 
96.97 93.64 -12.04 
97.17 93.46 -11.52 
97.68 93.24 -11.52 
99.33 93.71 -14.31 
99.55 93.63 -13.52 
99.56 93.63 -12.83 
99.32 93.72 -12.22 
100.08 93.31 -14.23 
100.17 93.36 -13.31 
100.07 93.32 -12.83 
100.07 93.33 -12.13 
99.66 93.70 -11.53 
100.32 93.19 -14.30 
97.00 94.32 -14.33 
97.02 94.35 -13.61 
97.04 94.38 -12.88 
97.06 94.40 -12.15 
97.88 94.45 -14.44 
98.10 94.38 -14.20 
98.10 94.38 -13.47 
98.06 94.37 -12.83 
97.67 94.14 -11.56 
98.37 94.19 -14.43 
98.68 94.05 -14.19 
98.67 94.06 -13.47 
98.56 94.11 -12.83 
98.56 94.11 -12.12 
98.98 93.93 -13.52 
98.98 93.94 -12.76 
97.00 94.88 -14.21 
97.22 94.83 -13.52 
97.21 94.84 -12.75 
97.49 94.93 -12.04 
97.56 94.66 -14.20 
97.56 94.67 -13.47 
97.55 94.67 -12.73 
97.62 94.88 -11.95 
93.98 97.67 -9.72 
93.60 97.96 -9.43 
92.78 98.55 -8.94 
93.54 98.70 -11.01 
93.64 98.07 -9.15 
94.70 98.22 -9.62 
94.24 98.13 -9.40 
94.77 98.54 -9.24 
95.63 98.39 -7.13 
96.79 98.68 -6.13 
97.16 98.14 -6.04 
92.95 99.06 -8.77 
93.56 98.92 -8.77 
93.83 99.25 -6.06 
95.26 99.33 -7.22 
95.98 99.46 -6.12 
96.67 98.98 -6.10 
97.34 99.41 -9.23 
97.17 99.30 -6.08 
93.61 99.95 -8.27 
93.46 100.01 -7.13 
94.60 99.92 -6.20 
95.04 99.50 -7.17 
94.78 99.62 -6.09 
95.48 100.04 -6.17 
97.40 99.82 -9.31 
95.62 100.19 -9.30 
96.34 100.70 -10.33 
96.56 100.28 -9.43 
96.73 100.71 -5.21 
97.06 100.47 -9.26 
94.29 101.01 -9.35 
95.09 101.32 -9.28 
95.04 100.99 -7.27 
95.82 101.17 -9.76 
95.86 101.07 -9.43 
96.06 101.29 -5.97 
96.49 101.03 -9.15 
97.27 101.28 -3.75 
98.04 101.42 -3.31 
98.33 101.18 -3.22 
94.69 102.05 -9.35 
94.50 101.92 -8.40 
94.39 101.88 -8.03 
95.32 102.20 -10.34 
94.73 101.76 -9.33 
94.81 101.62 -8.28 
95.38 101.70 -3.20 
95.99 102.22 -10.35 
95.73 102.12 -10.03 
95.80 101.79 -3.15 
96.40 101.88 -10.32 
96.61 102.02 -5.33 
96.65 102.05 -3.36 
97.44 101.90 -4.35 
97.31 101.74 -3.31 
97.81 102.28 -9.31 
97.66 101.61 -3.24 
99.30 102.15 -8.38 
100.04 101.75 -4.46 
93.00 102.95 -11.84 
92.85 102.77 -11.03 
92.79 102.70 -10.21 
93.07 102.88 -9.32 
93.12 102.56 -8.37 
93.87 102.96 -11.80 
93.99 102.89 -10.31 
93.86 102.92 -9.69 
93.62 102.87 -8.93 
93.82 102.38 -7.93 
94.45 102.82 -11.41 
94.31 102.71 -10.38 
94.37 102.46 -9.19 
94.14 102.53 -8.37 
95.13 102.91 -10.35 
95.28 102.62 -9.70 
94.90 102.59 -3.05 
95.59 102.62 -10.27 
96.09 102.48 -9.62 
95.70 102.89 -3.98 
95.70 102.42 -3.30 
96.41 102.30 -10.31 
96.16 102.54 -9.49 
96.61 102.50 -9.43 
96.72 102.65 -7.83 
96.51 102.54 -3.93 
96.21 102.46 -3.77 
97.14 102.76 -9.17 
97.75 102.42 -9.37 
97.60 102.78 -8.37 
98.88 102.34 -8.15 
98.83 102.68 -4.50 
99.09 102.95 -8.36 
99.51 102.40 -4.52 
93.19 103.64 -13.31 
93.09 103.43 -12.67 
92.80 103.18 -12.13 
92.62 103.20 -11.24 
92.78 103.55 -10.40 
92.68 103.21 -8.39 
93.40 103.39 -12.86 
93.73 103.21 -11.82 
93.70 103.09 -10.98 
93.55 103.25 -10.77 
93.81 103.03 -7.65 
94.30 103.02 -10.37 
95.36 103.63 -8.36 
95.56 103.17 -11.37 
95.78 103.46 -9.37 
96.38 103.22 -9.19 
97.03 103.02 -9.11 
97.20 103.00 -8.30 
97.81 103.16 -8.93 
97.57 103.45 -8.63 
98.90 103.17 -8.33 
98.97 103.25 -8.43 
93.21 103.72 -12.51 
92.91 104.03 -12.01 
93.00 104.04 -10.93 
92.86 104.35 -10.69 
92.88 104.37 -9.77 
93.51 103.90 -12.42 
93.63 104.04 -11.98 
93.45 104.10 -11.40 
93.46 104.27 -10.44 
93.44 104.28 -9.46 
93.84 104.26 -8.29 
94.23 103.89 -12.37 
94.44 104.16 -11.36 
94.41 104.21 -10.38 
94.54 104.05 -9.33 
94.56 104.28 -8.45 
94.20 104.09 -6.41 
94.76 104.02 -10.37 
94.80 104.09 -9.63 
95.07 103.81 -9.38 
96.73 104.27 -8.37 
97.04 104.11 -8.36 
96.89 104.30 -7.43 
97.28 104.24 -7.33 
93.08 104.73 -9.25 
93.29 104.83 -8.41 
93.02 104.56 -7.38 
93.86 105.01 -6.25 
94.43 104.75 -9.01 
94.68 105.04 -8.21 
94.32 105.02 -5.31 
95.07 104.84 -10.36 
95.15 104.40 -9.21 
94.85 104.87 -8.44 
95.54 104.53 -8.45 
96.27 104.81 -7.44 
96.45 104.52 -7.29 
97.45 104.48 -7.78 
97.71 104.48 -7.52 
92.62 105.42 -10.32 
93.20 105.76 -8.46 
93.50 105.24 -9.45 
93.51 105.14 -9.32 
93.86 105.35 -8.44 
93.72 105.09 -6.49 
94.68 105.55 -7.55 
94.71 105.64 -5.27 
94.68 105.55 -7.55 
95.06 105.74 -6.51 
95.50 105.24 -7.46 
96.14 105.31 -8.31 
96.96 105.31 -8.22 
93.34 106.20 -7.54 
95.33 106.20 -7.16 
96.37 106.22 -7.29 
93.55 108.39 -8.24 
93.12 108.68 -7.65 
92.76 108.88 -7.19 
