# .PCD v0.7 - Point Cloud Data file format
VERSION 0.7
FIELDS x y z
SIZE 4 4 4
TYPE F F F
COUNT 1 1 1
WIDTH 107
HEIGHT 1
VIEWPOINT 0 0 0 1 0 0 0
POINTS 107
DATA ascii
113.44 228.84 -7.32 
114.60 228.64 -7.30 
117.48 229.20 -7.50 
112.22 229.94 -7.24 
111.80 229.93 -6.61 
112.57 229.84 -7.68 
113.53 229.74 -7.65 
113.29 229.38 -7.55 
114.62 229.80 -7.78 
114.74 229.71 -7.50 
115.30 229.77 -7.51 
116.34 229.85 -7.73 
116.73 229.51 -7.72 
117.50 229.81 -7.46 
111.63 230.08 -7.63 
111.62 230.12 -6.91 
112.28 230.38 -7.70 
111.88 230.34 -7.17 
112.28 230.44 -6.70 
112.42 230.19 -7.25 
112.41 230.19 -6.83 
113.07 230.51 -7.68 
114.08 230.64 -7.66 
114.75 230.56 -7.47 
116.94 230.54 -7.72 
116.76 230.51 -7.52 
111.50 231.01 -7.68 
112.04 231.14 -7.72 
112.75 230.77 -6.68 
115.56 231.18 -7.67 
115.24 231.22 -7.53 
115.90 231.25 -7.80 
117.22 230.84 -7.77 
117.49 231.08 -7.66 
110.58 231.79 -8.11 
110.35 231.55 -7.51 
111.29 231.99 -8.10 
112.11 231.56 -8.14 
112.59 231.92 -8.11 
114.49 231.57 -7.68 
115.71 231.76 -8.07 
115.79 232.04 -7.46 
116.34 231.87 -7.80 
116.38 231.57 -6.59 
116.69 231.95 -7.80 
116.98 231.71 -7.37 
117.33 231.75 -7.67 
117.50 231.83 -7.64 
110.21 232.67 -7.70 
110.33 232.48 -7.63 
112.60 232.62 -8.13 
113.43 232.32 -8.06 
113.53 232.43 -7.54 
114.37 232.56 -7.70 
114.60 232.60 -7.69 
115.76 232.43 -7.82 
115.33 232.58 -7.45 
115.97 232.69 -7.69 
116.50 232.45 -6.59 
116.95 232.31 -8.05 
117.11 232.17 -7.62 
117.28 232.29 -8.05 
117.47 232.14 -7.61 
110.76 232.99 -8.00 
111.33 232.81 -8.02 
111.74 233.15 -8.15 
113.40 232.84 -7.96 
113.88 233.38 -7.74 
114.46 233.10 -7.70 
115.09 233.25 -7.45 
115.65 233.10 -7.70 
115.41 232.86 -7.55 
116.09 232.94 -7.90 
116.24 233.35 -7.56 
116.86 233.06 -7.68 
109.76 233.55 -8.03 
110.70 233.92 -7.81 
111.28 233.45 -8.18 
112.50 233.73 -7.90 
113.60 233.61 -7.75 
114.20 233.90 -7.88 
114.69 233.81 -8.08 
114.89 233.79 -7.67 
114.93 233.96 -6.57 
115.55 233.69 -8.04 
115.51 233.64 -7.56 
116.24 233.68 -7.68 
109.99 234.24 -7.72 
110.40 234.85 -7.95 
111.53 234.67 -7.93 
111.73 234.62 -7.80 
112.61 234.27 -8.04 
113.70 234.74 -8.31 
113.40 234.77 -7.44 
114.19 234.49 -8.04 
114.05 234.30 -7.44 
114.99 234.74 -8.30 
109.91 235.14 -8.05 
110.75 235.30 -8.14 
111.34 235.00 -8.06 
111.04 235.28 -7.45 
111.96 235.23 -7.82 
112.39 235.15 -8.14 
112.69 235.22 -7.44 
113.49 235.13 -7.98 
113.86 234.97 -8.27 
115.17 234.99 -8.30 
