# .PCD v0.7 - Point Cloud Data file format
VERSION 0.7
FIELDS x y z
SIZE 4 4 4
TYPE F F F
COUNT 1 1 1
WIDTH 1074
HEIGHT 1
VIEWPOINT 0 0 0 1 0 0 0
POINTS 1074
DATA ascii
133.98 -161.95 -11.47 
134.03 -161.68 -10.37 
130.78 -160.62 -13.71 
131.22 -160.68 -13.71 
132.89 -161.22 -9.61 
133.31 -160.92 -10.59 
134.14 -161.02 -11.44 
134.12 -161.06 -11.00 
135.09 -160.86 -11.48 
135.10 -160.97 -11.22 
135.27 -160.57 -11.22 
131.00 -160.02 -13.03 
132.45 -160.15 -10.75 
132.85 -160.18 -10.99 
133.14 -160.38 -9.51 
133.76 -160.25 -9.55 
134.05 -159.97 -9.06 
136.56 -160.15 -11.29 
136.62 -160.38 -9.89 
132.08 -159.42 -11.69 
133.16 -159.45 -13.54 
132.62 -159.52 -11.69 
133.67 -159.82 -12.36 
133.79 -159.51 -9.94 
134.45 -159.67 -9.89 
134.52 -159.84 -9.63 
134.77 -159.23 -12.87 
135.17 -159.56 -9.81 
135.67 -159.84 -11.68 
135.66 -159.76 -10.35 
136.22 -159.45 -10.69 
136.19 -159.80 -10.35 
136.76 -159.29 -11.38 
136.85 -159.24 -10.72 
137.72 -159.36 -11.66 
132.79 -158.84 -12.85 
132.58 -158.81 -11.76 
133.83 -158.51 -13.74 
133.76 -158.64 -10.00 
134.29 -158.63 -12.76 
134.17 -158.79 -11.41 
135.15 -158.58 -12.82 
136.52 -158.62 -10.38 
137.26 -159.07 -10.77 
137.51 -158.91 -10.77 
131.75 -158.00 -11.17 
132.22 -158.28 -11.80 
133.51 -157.87 -9.92 
134.20 -157.90 -11.67 
134.98 -157.96 -13.58 
134.81 -158.17 -12.85 
134.75 -158.37 -10.29 
134.84 -158.27 -9.40 
135.68 -157.91 -12.87 
135.33 -157.79 -8.58 
136.29 -157.88 -12.00 
136.50 -158.21 -10.85 
136.10 -157.90 -9.98 
136.86 -158.06 -10.79 
137.76 -158.33 -10.47 
138.49 -157.87 -13.87 
130.74 -157.31 -12.18 
131.74 -157.12 -10.18 
131.95 -157.52 -10.00 
132.61 -157.36 -11.49 
132.58 -157.20 -10.68 
133.07 -157.31 -9.99 
133.49 -157.58 -11.18 
133.52 -157.71 -10.87 
133.73 -157.46 -10.12 
133.75 -157.41 -9.34 
133.81 -157.26 -8.49 
134.46 -157.71 -13.89 
134.06 -157.24 -12.89 
134.07 -157.17 -10.76 
134.64 -157.44 -13.23 
135.02 -157.65 -11.54 
134.94 -157.75 -10.85 
134.66 -157.46 -9.45 
135.45 -157.44 -13.99 
135.51 -157.70 -13.02 
135.45 -157.40 -12.49 
136.41 -157.60 -12.19 
136.84 -157.15 -12.25 
136.79 -157.61 -11.03 
137.51 -157.10 -12.26 
137.47 -157.41 -10.33 
138.96 -157.12 -13.90 
131.67 -156.85 -11.29 
132.18 -156.86 -11.93 
133.54 -156.80 -11.72 
133.73 -156.69 -10.79 
134.37 -156.89 -13.62 
134.46 -156.75 -13.03 
134.18 -156.94 -10.24 
135.64 -156.88 -12.25 
135.59 -156.94 -11.62 
135.87 -156.84 -10.75 
136.04 -156.67 -11.81 
136.30 -156.47 -11.07 
135.97 -156.43 -10.21 
136.84 -156.46 -11.69 
137.81 -156.36 -12.58 
137.56 -156.94 -10.27 
138.35 -157.02 -13.88 
138.20 -156.76 -12.57 
130.42 -156.00 -11.99 
130.95 -156.15 -10.89 
131.60 -155.86 -11.66 
131.37 -156.20 -10.97 
132.00 -156.19 -11.64 
132.39 -156.08 -10.97 
132.74 -156.17 -12.22 
132.75 -156.30 -11.21 
133.32 -155.96 -12.94 
133.53 -155.93 -11.77 
133.31 -156.32 -8.10 
134.29 -155.97 -13.05 
134.38 -155.92 -12.55 
133.99 -156.19 -10.40 
134.10 -155.72 -9.19 
134.40 -155.80 -7.81 
134.80 -156.16 -12.03 
134.58 -156.33 -11.07 
135.88 -156.21 -12.33 
135.79 -156.44 -11.07 
135.65 -155.98 -10.28 
136.15 -156.27 -12.29 
136.64 -155.69 -11.44 
136.43 -156.18 -11.08 
136.98 -156.25 -11.72 
136.98 -155.95 -11.02 
137.02 -155.87 -10.37 
138.22 -156.19 -13.89 
138.81 -156.34 -13.91 
131.38 -155.13 -12.24 
131.18 -155.58 -11.68 
131.88 -155.62 -12.29 
131.95 -155.51 -11.63 
133.01 -155.01 -13.00 
132.93 -155.24 -11.28 
133.68 -155.15 -12.97 
133.52 -155.56 -12.35 
133.72 -155.09 -10.15 
133.62 -155.13 -8.24 
134.04 -155.45 -13.30 
133.95 -155.42 -12.35 
133.88 -154.96 -9.23 
134.98 -155.06 -10.24 
134.69 -155.52 -9.63 
135.92 -155.08 -11.91 
136.36 -155.46 -12.61 
136.82 -155.29 -12.39 
137.38 -155.00 -10.70 
130.42 -154.65 -10.99 
130.97 -154.34 -10.42 
131.54 -154.94 -11.55 
131.59 -154.26 -11.07 
132.02 -154.59 -12.36 
131.99 -154.47 -11.03 
132.87 -154.37 -13.02 
132.89 -154.33 -12.34 
133.47 -154.38 -12.98 
133.44 -154.53 -12.34 
133.44 -154.36 -10.18 
134.42 -154.90 -9.66 
135.37 -154.71 -13.03 
135.85 -154.63 -12.29 
135.68 -154.54 -11.23 
136.55 -154.90 -12.30 
136.53 -154.76 -10.37 
131.28 -154.15 -11.00 
132.08 -153.69 -12.77 
132.31 -153.83 -12.60 
131.78 -154.04 -11.75 
132.88 -153.97 -12.21 
132.78 -153.56 -10.58 
133.34 -154.07 -13.09 
133.60 -153.85 -12.25 
133.96 -153.78 -12.50 
134.52 -153.66 -10.68 
135.21 -154.22 -12.65 
135.04 -154.22 -10.45 
135.78 -153.64 -12.27 
136.04 -154.14 -11.25 
131.16 -153.46 -13.36 
131.31 -153.55 -11.28 
131.69 -153.34 -11.17 
132.14 -152.88 -13.10 
131.84 -153.01 -11.71 
132.23 -153.02 -11.38 
132.46 -153.19 -13.06 
132.48 -153.12 -11.06 
133.70 -153.32 -12.54 
133.27 -152.98 -11.22 
134.16 -153.14 -12.84 
134.42 -153.38 -12.27 
134.67 -153.19 -12.68 
135.08 -153.06 -12.32 
135.05 -153.55 -10.59 
135.45 -153.28 -12.30 
135.65 -153.06 -9.91 
135.99 -153.15 -13.11 
136.23 -153.22 -12.57 
137.05 -153.32 -12.56 
129.19 -152.17 -12.29 
130.08 -152.19 -12.44 
131.67 -152.44 -11.74 
131.88 -152.83 -12.83 
132.21 -152.33 -12.26 
131.99 -152.47 -11.38 
132.93 -152.52 -13.38 
133.73 -152.39 -11.38 
134.40 -152.69 -12.70 
134.29 -152.20 -11.00 
134.72 -152.62 -13.05 
134.59 -152.50 -11.83 
134.67 -152.19 -10.72 
134.57 -152.69 -10.37 
135.92 -152.73 -12.73 
135.71 -152.42 -11.87 
135.28 -152.37 -10.84 
136.27 -152.62 -13.18 
136.55 -152.45 -12.56 
136.96 -152.71 -12.55 
137.57 -152.36 -12.44 
129.17 -151.67 -11.91 
130.84 -151.93 -13.75 
130.67 -152.10 -12.58 
130.64 -151.67 -11.38 
130.45 -151.80 -10.44 
131.85 -151.57 -13.95 
132.11 -151.72 -12.68 
132.01 -151.64 -12.28 
132.74 -151.94 -13.40 
132.54 -152.12 -13.13 
132.68 -151.58 -10.85 
133.83 -152.10 -11.86 
133.76 -151.50 -9.48 
133.89 -151.81 -11.38 
133.93 -151.64 -10.88 
135.18 -151.56 -12.18 
135.00 -152.00 -11.91 
134.73 -151.72 -10.44 
134.57 -151.82 -9.53 
135.64 -151.57 -12.18 
135.61 -151.60 -11.66 
135.35 -151.76 -10.78 
135.65 -151.46 -10.04 
136.08 -151.62 -12.19 
135.99 -151.50 -11.49 
136.46 -151.67 -11.04 
136.95 -151.83 -12.13 
136.68 -151.54 -11.45 
136.68 -151.52 -10.87 
130.00 -151.09 -12.66 
130.34 -150.87 -11.38 
129.98 -150.83 -10.82 
130.81 -150.96 -10.93 
131.59 -151.11 -14.98 
131.36 -150.88 -14.13 
131.54 -151.22 -13.96 
131.45 -151.24 -12.10 
131.12 -151.10 -11.39 
131.61 -150.93 -10.91 
132.39 -151.04 -13.99 
132.35 -151.06 -12.98 
132.56 -151.29 -13.15 
133.07 -151.04 -12.06 
133.04 -151.10 -9.44 
133.05 -150.90 -9.02 
133.07 -150.88 -8.18 
133.53 -151.38 -12.46 
133.77 -151.01 -10.04 
134.49 -150.76 -12.69 
134.36 -151.40 -11.46 
134.52 -150.96 -11.03 
134.18 -151.24 -10.43 
134.87 -151.16 -12.97 
134.85 -151.24 -11.99 
134.86 -151.20 -11.50 
135.86 -150.76 -13.02 
135.65 -151.30 -11.51 
136.21 -150.93 -13.01 
136.43 -151.15 -12.06 
136.47 -150.82 -11.78 
136.94 -151.00 -12.22 
136.78 -151.08 -11.76 
126.28 -150.27 -12.29 
126.28 -150.19 -11.11 
127.72 -150.51 -12.55 
130.87 -150.34 -11.98 
130.85 -150.35 -11.46 
130.60 -150.08 -11.06 
131.43 -150.42 -14.00 
131.35 -150.29 -12.27 
131.63 -150.61 -11.47 
131.44 -150.30 -11.10 
132.18 -150.62 -15.01 
132.11 -150.70 -14.01 
131.93 -150.13 -13.07 
132.08 -150.23 -12.22 
131.98 -150.33 -11.67 
132.31 -150.17 -11.05 
132.44 -150.39 -9.17 
133.08 -150.37 -14.32 
133.01 -150.45 -13.80 
133.07 -150.37 -12.67 
133.71 -150.37 -14.35 
133.54 -150.07 -13.04 
133.62 -150.39 -11.57 
133.75 -150.69 -11.03 
133.52 -150.60 -9.92 
133.86 -150.32 -11.58 
134.05 -150.10 -11.14 
135.17 -150.65 -13.11 
134.96 -150.64 -12.62 
135.02 -150.75 -11.08 
135.24 -150.45 -10.23 
135.55 -150.51 -13.04 
135.47 -150.66 -11.59 
135.75 -150.49 -11.15 
136.12 -150.73 -12.20 
136.06 -150.42 -11.70 
136.26 -150.49 -11.18 
137.16 -150.41 -13.28 
137.02 -150.46 -11.58 
137.10 -150.35 -11.03 
137.88 -150.45 -13.29 
137.55 -150.08 -11.80 
126.84 -149.99 -11.73 
126.76 -149.42 -11.03 
128.02 -149.69 -11.57 
128.58 -149.45 -13.68 
128.34 -150.05 -12.07 
129.00 -149.69 -12.49 
129.61 -149.82 -10.76 
129.46 -149.42 -10.49 
129.78 -149.67 -12.52 
129.76 -149.66 -11.49 
130.00 -150.02 -10.94 
130.20 -149.73 -11.51 
131.02 -150.03 -11.11 
131.52 -149.88 -13.14 
131.31 -149.70 -11.70 
131.76 -149.73 -10.94 
131.89 -149.64 -12.11 
131.89 -149.63 -11.54 
132.41 -149.80 -8.56 
132.62 -149.62 -12.12 
132.50 -149.78 -11.29 
133.01 -149.58 -10.78 
132.49 -149.61 -8.05 
133.83 -149.68 -14.13 
133.58 -149.62 -13.33 
133.77 -149.95 -13.27 
133.45 -149.94 -12.13 
133.19 -149.38 -11.33 
133.83 -149.63 -9.21 
133.90 -149.64 -14.78 
134.02 -149.38 -13.57 
133.95 -149.52 -13.10 
134.17 -149.86 -11.66 
134.52 -149.95 -11.19 
135.17 -149.45 -13.11 
134.98 -149.54 -11.89 
134.81 -149.55 -9.02 
134.84 -149.98 -7.95 
135.80 -149.89 -13.99 
135.38 -149.62 -11.23 
135.92 -149.88 -10.99 
136.55 -149.76 -12.34 
136.18 -149.98 -11.49 
136.37 -149.84 -11.03 
137.08 -149.49 -13.82 
136.95 -150.00 -13.31 
137.06 -149.54 -11.71 
137.11 -149.66 -11.05 
137.80 -149.55 -13.52 
137.53 -149.94 -13.28 
138.20 -149.62 -13.29 
127.44 -148.89 -11.13 
127.78 -149.16 -11.63 
128.78 -148.86 -12.70 
128.92 -149.17 -10.46 
129.32 -148.92 -12.57 
130.11 -148.90 -12.03 
129.86 -149.16 -11.87 
129.97 -149.33 -11.03 
130.50 -148.59 -12.34 
130.40 -149.13 -11.49 
131.09 -149.16 -12.68 
131.56 -149.14 -11.96 
131.25 -148.74 -11.34 
131.70 -149.17 -11.00 
131.81 -149.17 -13.85 
132.37 -148.83 -12.65 
131.93 -149.02 -12.12 
132.07 -149.34 -11.36 
131.88 -149.06 -11.21 
132.15 -148.83 -10.10 
132.05 -149.17 -8.57 
133.05 -149.10 -12.64 
132.93 -148.75 -12.24 
132.46 -149.04 -11.24 
132.48 -149.25 -10.09 
133.52 -148.80 -12.67 
133.70 -149.09 -12.19 
133.76 -149.03 -11.54 
133.50 -149.21 -11.14 
133.36 -149.27 -9.60 
133.87 -148.87 -12.67 
134.03 -148.81 -12.46 
133.76 -149.03 -11.54 
134.52 -148.95 -8.98 
134.24 -148.74 -7.26 
134.82 -149.16 -13.36 
134.77 -149.22 -12.88 
135.04 -149.25 -11.57 
134.84 -149.14 -8.44 
135.16 -148.95 -7.49 
135.33 -149.08 -13.37 
135.47 -148.93 -12.84 
135.50 -148.95 -11.66 
135.50 -148.82 -8.99 
136.16 -149.13 -13.37 
136.33 -148.66 -13.32 
136.61 -148.94 -11.56 
136.00 -149.17 -11.06 
137.29 -148.76 -14.12 
137.14 -149.11 -13.84 
137.40 -149.27 -13.52 
137.70 -149.28 -13.29 
128.02 -148.65 -13.72 
128.06 -148.52 -13.22 
127.90 -148.38 -12.56 
128.79 -148.37 -11.62 
129.13 -148.50 -12.60 
129.64 -148.43 -11.63 
130.23 -148.05 -12.71 
130.05 -148.53 -11.64 
130.94 -148.25 -12.35 
130.85 -148.32 -11.83 
131.53 -148.23 -13.39 
131.76 -148.04 -13.17 
131.34 -148.31 -12.18 
131.08 -148.26 -11.54 
131.52 -148.00 -9.92 
131.89 -148.07 -13.15 
132.34 -148.53 -11.29 
131.99 -148.28 -11.12 
132.07 -148.44 -9.94 
132.51 -148.25 -14.03 
132.49 -148.65 -13.50 
132.90 -148.34 -12.72 
132.95 -148.58 -12.38 
132.84 -148.53 -11.78 
133.00 -148.50 -10.30 
132.54 -148.16 -8.37 
133.43 -148.51 -14.86 
133.20 -148.49 -13.43 
133.29 -148.40 -13.17 
133.68 -148.36 -12.29 
133.78 -148.51 -11.81 
133.47 -148.37 -9.28 
133.19 -148.32 -7.17 
134.31 -148.65 -13.51 
134.43 -148.28 -12.85 
134.02 -148.48 -12.28 
134.06 -148.13 -11.43 
133.93 -148.14 -8.00 
134.56 -148.16 -12.77 
134.63 -148.08 -12.51 
134.56 -148.12 -11.85 
135.15 -148.35 -9.44 
135.08 -148.11 -8.71 
134.59 -148.56 -8.05 
135.51 -148.36 -13.53 
135.77 -147.98 -12.91 
135.46 -148.25 -11.46 
135.64 -148.20 -10.50 
135.64 -148.20 -10.50 
135.91 -148.30 -8.80 
135.52 -148.45 -8.01 
136.34 -148.31 -13.54 
136.39 -148.07 -13.30 
136.15 -148.20 -11.82 
136.23 -148.11 -11.21 
136.73 -148.06 -13.87 
137.18 -148.62 -13.20 
136.67 -148.62 -11.75 
136.71 -147.97 -11.21 
128.94 -147.35 -12.68 
129.40 -147.28 -12.70 
129.87 -147.55 -13.64 
129.88 -147.74 -12.72 
129.84 -147.32 -12.61 
130.25 -147.76 -11.85 
130.37 -147.43 -12.81 
130.81 -147.55 -12.21 
130.60 -147.71 -11.62 
131.64 -147.44 -13.34 
131.67 -147.51 -13.21 
131.20 -147.56 -12.15 
131.14 -147.48 -11.57 
131.14 -147.82 -11.09 
132.21 -147.69 -14.04 
131.88 -147.26 -13.45 
131.95 -147.74 -12.93 
132.05 -147.62 -10.86 
132.25 -147.49 -10.23 
132.70 -147.48 -13.44 
132.49 -147.62 -12.77 
133.11 -147.51 -9.32 
132.64 -147.26 -7.90 
133.63 -147.63 -13.45 
133.25 -147.72 -13.22 
133.54 -147.64 -12.30 
133.30 -147.75 -11.43 
133.63 -147.56 -9.36 
133.28 -147.71 -7.95 
133.46 -147.30 -7.29 
134.01 -147.57 -13.38 
134.00 -147.56 -12.88 
134.53 -147.59 -12.40 
134.41 -147.62 -11.53 
134.65 -147.48 -13.40 
134.98 -147.68 -12.41 
135.17 -147.27 -11.71 
135.09 -147.74 -9.11 
134.71 -147.87 -7.98 
135.76 -147.44 -12.83 
135.68 -147.48 -11.98 
135.43 -147.38 -11.57 
135.44 -147.69 -11.18 
135.77 -147.72 -10.34 
136.25 -147.65 -13.89 
135.99 -147.38 -12.98 
136.43 -147.60 -11.22 
136.05 -147.94 -10.52 
136.94 -147.77 -10.66 
137.14 -147.55 -10.47 
127.96 -146.77 -13.33 
128.32 -146.90 -13.79 
128.73 -146.75 -11.48 
129.60 -146.69 -14.14 
129.42 -146.87 -12.74 
129.53 -147.20 -11.23 
130.15 -146.80 -13.95 
129.91 -146.85 -12.76 
130.14 -146.92 -12.13 
129.91 -147.24 -10.72 
130.79 -146.89 -13.64 
130.78 -146.70 -12.97 
130.56 -147.05 -12.39 
130.80 -146.73 -11.32 
131.76 -146.75 -14.13 
131.63 -146.69 -13.53 
131.60 -146.73 -13.30 
131.74 -147.23 -10.28 
131.57 -147.03 -9.57 
131.77 -146.81 -13.47 
132.24 -146.92 -12.89 
132.19 -146.98 -8.22 
133.04 -146.84 -13.91 
133.08 -147.01 -13.01 
132.76 -146.56 -10.36 
132.85 -147.19 -9.69 
132.75 -146.72 -7.25 
133.77 -147.25 -13.39 
133.83 -146.79 -12.79 
134.45 -147.16 -13.48 
134.48 -147.10 -11.02 
134.13 -146.85 -10.48 
134.30 -147.21 -9.83 
134.68 -147.02 -13.30 
134.83 -146.80 -11.51 
135.18 -146.73 -11.20 
134.66 -147.01 -9.04 
135.43 -147.16 -12.38 
135.66 -146.95 -11.80 
135.49 -147.18 -8.85 
136.39 -146.75 -13.92 
136.03 -147.08 -13.22 
135.98 -147.22 -11.80 
136.60 -146.87 -10.72 
136.70 -147.18 -13.90 
136.68 -146.69 -10.88 
126.74 -146.23 -12.14 
127.12 -146.35 -12.13 
127.56 -145.86 -12.47 
128.27 -146.10 -13.82 
128.61 -146.13 -12.02 
129.43 -146.51 -14.08 
130.10 -146.01 -14.09 
129.87 -146.42 -10.75 
130.92 -145.87 -12.88 
130.64 -145.87 -12.20 
130.56 -145.88 -11.28 
131.28 -146.22 -13.71 
131.38 -145.94 -13.26 
131.26 -146.43 -12.25 
131.17 -146.15 -11.79 
132.45 -145.90 -13.18 
132.34 -145.90 -9.72 
132.66 -146.03 -10.39 
132.47 -145.94 -7.27 
133.46 -146.18 -14.19 
133.83 -146.11 -13.30 
133.72 -146.02 -10.69 
133.58 -146.06 -8.98 
133.90 -146.47 -13.57 
133.83 -146.11 -13.30 
134.34 -146.20 -9.15 
134.52 -146.34 -9.07 
134.98 -146.34 -13.59 
134.65 -146.36 -13.31 
135.04 -145.88 -12.54 
135.21 -146.02 -11.14 
135.50 -146.55 -12.59 
135.66 -146.41 -11.85 
136.29 -146.33 -13.93 
136.03 -146.32 -10.85 
136.67 -146.52 -11.22 
136.70 -146.49 -10.51 
126.96 -145.71 -13.68 
128.13 -145.53 -13.84 
127.78 -145.18 -11.50 
128.56 -145.45 -14.28 
128.65 -145.74 -11.49 
129.65 -145.45 -14.11 
129.37 -145.27 -13.70 
129.13 -145.65 -13.25 
129.54 -145.40 -12.41 
130.09 -145.53 -14.17 
130.04 -145.37 -13.43 
130.10 -145.30 -12.20 
129.87 -145.68 -11.58 
130.73 -145.84 -14.16 
130.89 -145.57 -13.99 
130.70 -145.63 -13.31 
130.95 -145.75 -11.37 
131.15 -145.18 -14.45 
131.10 -145.72 -12.44 
132.08 -145.33 -14.48 
131.84 -145.44 -13.42 
132.36 -145.18 -11.77 
132.28 -145.22 -10.43 
133.14 -145.80 -14.20 
132.48 -145.60 -13.57 
132.80 -145.83 -8.36 
133.53 -145.37 -10.71 
133.70 -145.53 -10.51 
133.70 -145.26 -8.20 
134.02 -145.40 -9.18 
134.60 -145.24 -13.53 
135.40 -145.70 -11.58 
136.36 -145.50 -14.04 
136.10 -145.52 -13.96 
136.13 -145.56 -10.90 
127.05 -144.60 -14.30 
126.97 -144.73 -13.44 
127.30 -144.71 -12.78 
128.42 -144.92 -14.29 
128.87 -144.82 -13.29 
128.44 -144.75 -11.85 
129.46 -144.52 -14.13 
129.57 -144.54 -13.35 
129.07 -145.11 -13.28 
129.11 -144.98 -11.54 
129.93 -144.92 -13.76 
130.33 -144.54 -13.10 
130.24 -144.76 -12.09 
130.20 -145.13 -11.37 
130.36 -144.68 -14.19 
130.97 -144.65 -13.47 
130.75 -144.92 -12.90 
130.90 -144.49 -11.82 
131.44 -144.73 -14.08 
131.26 -144.81 -13.46 
131.25 -144.85 -13.14 
131.30 -144.53 -12.44 
132.35 -145.03 -14.86 
132.02 -144.71 -14.21 
131.85 -144.58 -13.53 
131.78 -144.82 -12.94 
132.94 -144.91 -14.03 
132.80 -145.10 -13.53 
133.11 -144.83 -13.18 
133.07 -144.63 -11.90 
133.66 -144.70 -12.09 
133.19 -144.58 -11.59 
134.60 -144.65 -13.80 
134.89 -145.13 -11.39 
135.91 -144.74 -13.98 
136.00 -145.13 -14.40 
136.16 -145.04 -13.95 
126.74 -144.45 -14.31 
126.22 -144.32 -13.27 
127.14 -143.76 -14.73 
127.45 -143.97 -13.72 
128.26 -144.14 -12.05 
128.71 -144.00 -14.65 
128.40 -144.11 -12.26 
128.88 -144.22 -11.62 
128.48 -143.99 -10.81 
129.35 -144.12 -14.14 
129.25 -144.25 -13.74 
129.27 -144.34 -12.93 
128.98 -143.93 -12.56 
129.30 -144.36 -11.62 
130.08 -144.02 -14.21 
129.76 -144.34 -13.79 
130.00 -143.87 -13.12 
130.03 -144.38 -11.87 
130.62 -143.87 -14.05 
130.62 -144.03 -13.45 
130.47 -144.12 -12.93 
130.73 -144.30 -12.45 
130.52 -144.42 -11.73 
131.61 -143.88 -14.47 
131.37 -144.29 -13.77 
131.73 -144.27 -12.33 
131.59 -143.94 -11.14 
132.06 -143.91 -13.43 
131.92 -144.22 -12.26 
132.47 -144.26 -13.52 
132.73 -144.35 -12.73 
132.66 -143.88 -12.38 
132.97 -143.81 -11.64 
133.50 -144.12 -13.46 
133.84 -143.83 -12.78 
133.55 -143.85 -12.15 
133.41 -143.95 -11.67 
133.29 -143.88 -11.04 
134.51 -144.24 -13.82 
134.07 -144.01 -12.76 
133.94 -144.17 -10.68 
134.58 -144.01 -14.43 
135.86 -143.82 -13.98 
136.27 -144.23 -14.08 
135.96 -144.22 -13.97 
126.31 -143.59 -11.79 
127.49 -143.28 -14.06 
127.39 -143.38 -13.34 
128.17 -143.08 -14.93 
127.72 -143.35 -13.80 
128.87 -143.25 -12.64 
128.89 -143.59 -12.40 
128.75 -143.27 -11.72 
129.08 -143.60 -13.39 
129.11 -143.56 -12.98 
129.18 -143.50 -12.03 
129.99 -143.64 -14.22 
130.06 -143.37 -13.61 
130.14 -143.38 -12.50 
130.47 -143.54 -14.51 
130.46 -143.65 -13.46 
130.71 -143.64 -12.94 
130.69 -143.30 -12.29 
130.92 -143.49 -10.05 
131.40 -143.34 -14.23 
131.44 -143.14 -12.84 
131.53 -143.34 -12.45 
131.44 -143.24 -11.44 
131.67 -143.72 -11.09 
132.02 -143.25 -14.50 
132.35 -143.24 -13.50 
132.29 -143.63 -12.43 
132.88 -143.49 -13.49 
132.99 -143.73 -13.11 
132.72 -143.32 -12.37 
133.10 -143.27 -11.70 
133.31 -143.61 -13.99 
133.23 -143.18 -12.83 
133.25 -143.50 -12.40 
133.59 -143.32 -11.88 
134.10 -143.43 -13.68 
134.44 -143.42 -12.84 
133.86 -143.13 -11.44 
134.56 -143.56 -13.57 
135.24 -143.10 -12.98 
135.77 -143.43 -13.98 
125.93 -142.38 -12.33 
126.98 -142.57 -13.82 
127.05 -142.42 -12.78 
126.98 -142.52 -12.37 
128.51 -142.57 -14.33 
128.33 -142.89 -13.56 
128.84 -142.54 -13.21 
128.82 -142.56 -12.46 
129.23 -142.50 -15.43 
129.13 -142.68 -14.33 
129.07 -142.43 -13.59 
129.54 -143.01 -11.59 
130.31 -142.42 -14.25 
130.29 -142.73 -13.64 
130.03 -142.41 -12.68 
130.25 -142.36 -12.49 
129.77 -143.04 -11.79 
130.75 -142.56 -14.49 
130.47 -142.64 -13.60 
130.71 -142.78 -13.18 
130.87 -142.97 -12.11 
130.82 -142.84 -10.08 
131.08 -142.80 -14.11 
131.70 -142.49 -12.84 
131.28 -142.69 -12.16 
131.42 -142.93 -11.52 
131.16 -142.57 -9.69 
132.20 -142.68 -12.33 
132.78 -142.69 -12.19 
132.92 -142.73 -11.83 
133.75 -142.92 -13.70 
133.78 -142.94 -12.86 
133.46 -142.63 -12.57 
133.59 -142.44 -9.63 
134.17 -142.65 -13.90 
134.20 -142.48 -12.98 
133.96 -142.43 -12.26 
134.66 -142.80 -13.67 
134.65 -142.64 -13.18 
134.81 -142.70 -12.62 
135.58 -142.66 -14.00 
135.70 -142.66 -12.82 
124.41 -141.75 -12.94 
126.12 -142.10 -11.97 
125.95 -141.99 -11.57 
126.34 -142.33 -13.83 
126.47 -142.14 -11.99 
126.56 -141.94 -11.79 
127.80 -141.82 -14.35 
127.97 -141.78 -12.32 
127.65 -142.13 -11.87 
128.43 -141.81 -14.57 
128.44 -141.70 -13.83 
128.76 -142.05 -13.25 
128.57 -142.07 -12.33 
128.36 -141.85 -11.31 
129.12 -142.07 -15.42 
129.13 -142.32 -12.72 
129.24 -141.71 -12.21 
130.29 -142.17 -14.89 
129.91 -141.77 -14.19 
129.89 -142.02 -13.84 
129.86 -141.91 -12.68 
129.92 -141.73 -12.12 
130.98 -141.97 -14.08 
130.76 -141.97 -13.62 
130.44 -142.13 -13.19 
130.36 -141.78 -12.41 
130.45 -142.10 -11.42 
130.78 -142.17 -10.11 
130.71 -142.24 -9.42 
131.09 -141.84 -14.25 
131.13 -141.89 -14.01 
131.44 -141.68 -13.22 
131.12 -142.19 -12.57 
131.61 -141.86 -8.62 
132.04 -141.84 -12.88 
131.80 -142.05 -11.19 
132.68 -142.13 -12.96 
132.88 -142.10 -12.39 
133.11 -142.16 -11.43 
133.77 -142.23 -13.67 
133.61 -141.80 -12.63 
133.55 -141.84 -12.25 
133.50 -141.79 -11.62 
133.53 -141.80 -10.80 
133.31 -141.91 -9.62 
134.36 -141.97 -13.03 
134.33 -141.94 -12.30 
134.13 -141.75 -11.93 
134.84 -142.14 -13.05 
134.72 -141.76 -12.40 
134.60 -141.82 -11.61 
135.79 -142.25 -14.81 
135.79 -142.24 -14.11 
135.39 -141.84 -14.01 
135.63 -142.30 -13.16 
123.50 -141.56 -12.74 
124.06 -141.59 -12.95 
125.94 -141.61 -13.86 
125.71 -141.09 -12.07 
126.54 -141.52 -12.84 
127.18 -141.14 -14.01 
127.55 -141.63 -13.25 
127.06 -141.23 -12.19 
127.47 -141.44 -11.93 
127.61 -141.57 -14.36 
127.98 -140.97 -13.11 
127.70 -141.18 -12.25 
128.90 -141.18 -14.20 
128.79 -141.29 -13.50 
128.82 -141.47 -13.08 
128.58 -141.30 -12.32 
128.53 -140.86 -11.62 
129.22 -141.22 -13.91 
129.23 -141.58 -12.73 
130.12 -141.50 -14.87 
129.99 -141.37 -14.28 
130.03 -141.60 -13.52 
129.89 -141.33 -13.19 
129.75 -141.51 -12.48 
130.89 -141.34 -14.81 
130.59 -141.23 -14.28 
130.86 -141.34 -13.57 
130.48 -141.03 -13.03 
130.46 -141.28 -12.11 
130.96 -141.52 -11.62 
130.67 -141.44 -11.21 
130.36 -141.64 -10.09 
131.31 -141.39 -14.91 
131.45 -141.33 -14.64 
131.64 -141.36 -13.73 
131.40 -141.30 -12.63 
131.37 -141.13 -12.52 
131.15 -141.24 -11.82 
131.90 -141.07 -14.49 
131.83 -141.22 -13.35 
132.11 -141.28 -12.43 
132.39 -141.17 -11.80 
131.96 -140.99 -8.58 
132.77 -141.06 -13.32 
133.10 -141.00 -11.38 
133.04 -141.02 -10.79 
132.87 -141.43 -9.60 
133.44 -141.33 -13.03 
133.71 -141.41 -12.04 
133.44 -141.45 -11.67 
133.39 -141.13 -10.82 
133.39 -141.11 -10.00 
133.55 -141.04 -8.36 
134.31 -141.24 -13.64 
134.29 -141.61 -12.70 
134.33 -141.63 -12.38 
134.76 -141.26 -14.49 
135.21 -141.10 -14.02 
134.65 -141.38 -12.60 
134.65 -141.38 -12.60 
135.30 -141.47 -14.02 
135.54 -141.40 -12.65 
123.55 -140.93 -12.59 
124.63 -140.40 -13.96 
124.79 -140.30 -13.92 
126.12 -140.26 -12.69 
126.61 -140.45 -14.03 
126.34 -140.47 -13.07 
127.00 -140.89 -14.01 
127.19 -140.90 -13.09 
127.08 -140.58 -12.37 
127.49 -140.52 -11.89 
128.20 -140.30 -14.22 
127.73 -140.39 -13.12 
127.57 -140.52 -12.41 
128.05 -140.91 -11.91 
128.63 -140.85 -14.21 
128.56 -140.72 -13.52 
128.53 -140.38 -12.79 
128.43 -140.38 -12.20 
128.53 -140.86 -11.62 
129.42 -140.69 -14.30 
129.18 -140.49 -13.56 
129.04 -140.39 -13.05 
129.66 -140.31 -12.43 
129.59 -140.40 -11.54 
129.92 -140.84 -14.98 
130.21 -140.55 -14.15 
130.15 -140.57 -13.73 
129.90 -140.89 -13.23 
130.21 -140.74 -12.14 
130.10 -140.70 -10.78 
130.52 -140.70 -14.67 
130.58 -140.84 -13.59 
130.42 -140.61 -12.74 
130.89 -140.52 -12.23 
131.50 -140.73 -14.94 
131.17 -140.72 -13.40 
131.12 -140.53 -13.00 
131.54 -140.81 -12.20 
131.13 -140.88 -11.51 
131.44 -140.76 -10.92 
131.27 -140.68 -10.23 
131.52 -140.59 -9.48 
131.76 -140.92 -8.98 
132.08 -140.42 -15.03 
131.97 -140.47 -14.52 
132.12 -140.39 -13.49 
132.26 -140.55 -13.02 
132.11 -140.40 -8.79 
133.01 -140.71 -11.68 
132.85 -140.60 -9.97 
133.09 -140.69 -9.72 
132.95 -140.54 -8.31 
133.47 -140.68 -13.65 
133.45 -140.88 -13.12 
133.81 -140.94 -12.07 
133.18 -140.79 -11.52 
133.39 -140.63 -10.73 
133.49 -140.59 -9.72 
133.94 -140.47 -13.55 
134.36 -140.70 -13.11 
134.41 -140.92 -11.98 
135.12 -140.74 -14.03 
134.95 -140.37 -13.18 
134.80 -140.33 -12.11 
134.66 -140.55 -11.27 
134.85 -140.75 -11.02 
135.35 -140.37 -13.20 
135.28 -140.60 -11.35 
124.27 -139.89 -13.13 
126.42 -139.70 -13.09 
126.65 -140.18 -12.36 
126.86 -139.80 -12.70 
127.37 -139.85 -12.34 
127.17 -139.97 -11.90 
128.12 -139.99 -13.54 
128.00 -140.14 -13.18 
127.68 -140.02 -11.95 
127.76 -139.62 -11.87 
128.69 -139.77 -14.32 
128.89 -139.97 -13.58 
128.81 -140.09 -12.90 
128.33 -139.76 -12.37 
129.54 -139.58 -14.17 
129.57 -140.06 -13.64 
129.83 -140.13 -14.99 
129.93 -140.14 -14.16 
129.96 -140.11 -13.74 
130.28 -140.01 -13.00 
130.41 -139.85 -12.40 
130.34 -139.79 -10.55 
130.44 -139.69 -14.54 
130.46 -140.20 -13.27 
130.41 -139.85 -13.33 
130.45 -139.81 -12.62 
130.43 -139.90 -10.62 
130.85 -139.91 -10.26 
131.09 -139.70 -14.68 
131.42 -139.75 -13.35 
131.44 -140.21 -12.95 
131.34 -140.03 -12.22 
131.31 -139.81 -11.90 
131.16 -139.69 -9.83 
131.57 -139.56 -9.02 
131.32 -139.62 -8.12 
132.22 -139.97 -13.40 
132.24 -140.14 -13.10 
132.05 -140.10 -12.28 
131.82 -139.87 -10.33 
132.45 -140.05 -9.69 
132.30 -140.04 -8.24 
132.33 -140.04 -7.67 
132.55 -139.78 -13.52 
132.65 -139.82 -13.21 
132.86 -140.07 -11.53 
132.57 -139.60 -9.39 
133.14 -139.85 -8.78 
133.53 -139.79 -10.77 
133.47 -139.74 -10.07 
133.37 -140.23 -8.37 
134.20 -139.81 -13.43 
134.33 -140.13 -13.28 
133.95 -139.62 -11.73 
134.95 -140.02 -14.04 
135.23 -139.99 -13.33 
134.63 -139.64 -12.96 
135.04 -140.11 -12.05 
135.00 -140.11 -11.35 
128.23 -139.55 -13.10 
128.50 -139.53 -13.96 
129.62 -139.54 -13.75 
132.19 -139.55 -13.45 
132.71 -139.53 -8.33 
