# .PCD v0.7 - Point Cloud Data file format
VERSION 0.7
FIELDS x y z
SIZE 4 4 4
TYPE F F F
COUNT 1 1 1
WIDTH 189
HEIGHT 1
VIEWPOINT 0 0 0 1 0 0 0
POINTS 189
DATA ascii
127.45 261.12 -7.96 
128.03 261.37 -7.96 
138.59 260.72 -8.09 
128.59 261.62 -7.96 
129.72 262.05 -7.96 
130.40 262.19 -7.96 
131.04 262.32 -7.96 
131.71 262.42 -7.95 
134.11 262.76 -7.93 
134.64 262.85 -7.93 
136.94 263.24 -7.93 
137.77 263.37 -7.93 
138.16 263.43 -7.93 
140.20 264.69 -3.98 
139.70 264.65 -3.69 
127.61 265.00 -7.56 
128.53 265.03 -7.57 
129.40 265.05 -7.57 
130.20 265.08 -7.58 
130.95 265.12 -7.58 
131.67 265.16 -7.59 
132.38 265.17 -7.59 
133.01 265.22 -7.60 
133.66 265.22 -7.61 
134.28 265.23 -7.61 
134.86 265.24 -7.62 
135.41 265.27 -7.62 
139.38 265.34 -5.42 
139.41 265.34 -4.42 
140.09 265.33 -6.20 
140.12 265.45 -5.35 
139.75 265.36 -4.47 
139.91 265.14 -3.52 
140.70 265.60 -5.31 
140.63 265.58 -5.17 
140.35 265.52 -4.22 
141.30 265.52 -5.71 
141.02 265.60 -4.47 
140.93 265.19 -3.61 
141.04 265.38 -2.95 
141.11 265.42 -2.41 
141.70 265.58 -5.27 
139.35 266.15 -4.96 
139.78 266.11 -6.08 
140.05 266.03 -5.96 
139.99 265.84 -5.17 
140.18 265.87 -4.47 
140.32 265.89 -6.00 
140.30 266.19 -5.46 
140.47 265.90 -5.15 
140.50 265.86 -4.43 
140.69 265.65 -3.41 
140.89 265.83 -2.88 
141.09 265.83 -5.51 
141.45 265.95 -4.86 
141.60 266.28 -4.44 
140.96 265.79 -3.58 
142.18 266.15 -5.51 
141.82 265.71 -4.66 
142.27 265.71 -4.14 
141.63 266.01 -2.95 
142.41 265.70 -4.38 
139.40 266.85 -5.98 
139.33 266.99 -5.89 
139.21 266.87 -4.08 
139.63 266.60 -6.19 
140.02 266.80 -5.88 
140.10 266.54 -4.72 
139.84 266.60 -4.20 
140.65 266.83 -6.22 
140.74 266.98 -5.65 
140.36 266.61 -4.70 
141.12 266.34 -5.37 
141.31 266.90 -4.69 
141.40 266.77 -4.54 
141.08 266.38 -3.40 
141.85 266.52 -6.28 
141.74 266.86 -5.50 
141.81 266.77 -4.63 
142.26 266.84 -3.64 
142.39 266.88 -4.43 
138.65 267.15 -4.02 
138.46 267.41 -3.65 
139.31 267.44 -5.60 
139.19 267.17 -4.37 
139.31 267.44 -3.45 
139.31 267.07 -2.69 
139.93 267.46 -5.44 
139.90 267.65 -5.01 
140.07 267.64 -4.10 
139.76 267.57 -1.85 
140.90 267.41 -6.81 
140.59 267.15 -6.07 
140.66 267.23 -5.93 
140.31 267.03 -4.18 
140.42 267.20 -2.78 
140.53 267.61 -2.25 
141.54 267.42 -6.91 
141.46 267.43 -6.26 
141.24 267.53 -5.49 
141.18 267.33 -5.09 
141.22 267.27 -4.43 
140.97 267.61 -3.19 
141.74 267.20 -6.71 
141.82 267.31 -6.29 
141.99 267.26 -5.94 
142.02 267.57 -4.81 
141.80 267.48 -4.37 
142.55 267.49 -6.09 
142.41 267.69 -5.54 
142.49 267.36 -4.92 
142.52 267.60 -4.42 
142.34 267.43 -3.64 
136.86 268.25 -7.32 
137.42 268.17 -7.33 
139.43 267.85 -5.89 
139.10 268.17 -5.10 
139.44 268.14 -4.54 
138.85 267.75 -3.67 
139.84 267.89 -5.53 
139.63 267.77 -4.97 
140.07 268.05 -4.39 
139.77 268.03 -3.26 
140.01 268.39 -3.00 
140.66 267.87 -6.06 
140.80 267.82 -5.82 
140.57 268.08 -4.96 
140.66 268.11 -4.40 
140.79 267.80 -2.74 
141.54 267.76 -7.06 
141.25 267.88 -6.20 
141.25 267.97 -5.84 
141.23 268.10 -4.75 
140.92 267.80 -4.44 
141.37 267.97 -3.05 
141.80 267.83 -6.19 
142.07 267.82 -5.48 
141.86 268.01 -4.86 
141.90 267.90 -4.34 
141.76 268.24 -3.65 
142.37 267.91 -5.81 
142.36 268.08 -4.92 
142.36 268.01 -4.36 
142.47 267.87 -3.72 
138.58 268.57 -3.18 
138.94 268.61 -4.71 
139.21 268.69 -4.32 
139.51 268.48 -3.70 
139.68 268.43 -4.37 
140.02 269.01 -3.47 
139.67 268.58 -1.99 
140.84 268.69 -5.25 
140.64 268.81 -4.35 
140.37 268.77 -3.34 
140.42 268.74 -2.67 
140.63 268.52 -2.21 
141.41 268.82 -5.62 
141.09 268.90 -5.29 
141.38 268.90 -4.28 
141.55 268.63 -3.45 
141.54 268.80 -2.97 
141.69 268.84 -6.30 
142.07 268.69 -5.60 
141.99 268.97 -4.98 
141.77 268.85 -4.34 
141.97 268.79 -3.38 
142.39 268.78 -5.91 
142.46 268.68 -4.98 
140.11 269.38 -4.32 
140.77 269.32 -5.00 
140.82 269.56 -4.42 
140.45 269.41 -2.57 
140.43 269.59 -2.27 
141.29 269.26 -5.28 
141.29 269.53 -4.51 
141.49 269.36 -2.68 
141.05 269.25 -2.21 
141.38 269.15 -1.70 
142.30 269.71 -4.74 
141.92 269.13 -4.20 
141.64 269.49 -3.56 
141.93 269.73 -2.70 
141.79 269.82 -2.22 
142.57 269.13 -5.91 
142.57 269.29 -4.25 
132.52 270.35 -7.27 
133.47 270.04 -7.29 
140.49 269.90 -3.93 
131.49 270.68 -7.26 
