# .PCD v0.7 - Point Cloud Data file format
VERSION 0.7
FIELDS x y z
SIZE 4 4 4
TYPE F F F
COUNT 1 1 1
WIDTH 543
HEIGHT 1
VIEWPOINT 0 0 0 1 0 0 0
POINTS 543
DATA ascii
136.57 222.31 -2.45 
137.70 223.01 -1.55 
137.51 222.86 -1.23 
137.06 223.25 -2.55 
137.23 223.55 -1.28 
136.28 223.71 -2.11 
135.83 224.06 -1.84 
136.20 224.37 -0.98 
137.01 224.28 -3.68 
137.00 224.38 -2.81 
136.97 224.10 -2.43 
136.74 224.31 -1.56 
136.95 224.24 -1.02 
137.35 224.02 -3.29 
137.58 223.76 -2.13 
137.34 223.73 -1.57 
137.39 223.73 -0.97 
138.25 224.27 -0.70 
133.14 224.79 -1.89 
133.74 224.60 -2.39 
134.43 224.93 -3.51 
134.54 224.73 -2.98 
135.71 224.61 -1.13 
136.36 224.73 -1.32 
137.00 224.89 -2.25 
137.81 225.09 -4.13 
137.53 224.71 -3.66 
137.31 224.95 -3.34 
137.86 224.56 -2.30 
137.40 224.71 -1.94 
137.65 224.83 -0.68 
133.16 225.12 -1.94 
134.24 225.17 -4.90 
134.41 225.78 -2.36 
135.09 225.23 -5.62 
134.64 225.20 -4.95 
134.72 225.15 -3.01 
135.47 225.14 -3.07 
136.94 225.29 -3.65 
137.60 225.72 -4.08 
137.89 225.18 -3.61 
137.51 225.78 -1.24 
138.43 225.19 -4.70 
138.06 225.74 -3.93 
138.26 225.33 -3.07 
137.93 225.30 -1.27 
133.01 226.14 -2.41 
132.36 226.17 -0.88 
134.08 226.32 -2.43 
134.33 225.93 -1.42 
135.70 225.86 -5.75 
135.19 225.92 -5.19 
135.35 226.12 -4.06 
135.78 226.40 -3.16 
135.65 226.48 -2.63 
136.06 225.87 -3.92 
136.82 226.48 -5.85 
137.01 226.29 -4.15 
136.92 226.32 -3.75 
137.09 226.39 -1.42 
137.58 226.07 -4.49 
137.24 226.44 -3.40 
137.41 226.10 -3.11 
137.30 226.40 -1.59 
137.35 226.01 -1.25 
137.34 226.01 -0.16 
138.57 226.42 -4.70 
138.87 226.30 -4.75 
131.76 226.76 -0.88 
132.23 226.75 -0.21 
133.05 226.66 -4.94 
133.69 226.91 -4.12 
133.19 226.97 -4.00 
133.85 226.63 -4.83 
134.99 227.01 -5.67 
135.08 226.96 -4.97 
134.68 226.88 -4.63 
134.59 227.19 -3.66 
134.53 226.80 -3.27 
135.64 227.15 -5.04 
135.43 227.10 -4.44 
135.38 227.19 -3.87 
135.65 226.76 -3.20 
135.68 226.81 -2.34 
135.63 227.15 -1.82 
136.38 227.10 -5.48 
136.40 227.09 -4.90 
136.12 226.89 -4.48 
135.97 226.78 -3.68 
135.93 226.78 -2.89 
136.81 226.97 -4.77 
136.65 226.88 -3.13 
137.55 227.11 -4.88 
137.56 226.90 -4.76 
137.65 226.64 -3.83 
137.34 226.53 -1.39 
138.18 226.85 -4.75 
138.28 226.67 -4.79 
138.67 226.91 -4.79 
138.92 226.77 -4.71 
138.84 227.16 -3.84 
139.31 226.60 -4.72 
132.25 227.67 -1.36 
132.29 227.84 -1.22 
132.85 227.70 -3.54 
132.41 227.90 -2.15 
132.72 227.89 -0.34 
133.58 227.30 -3.56 
133.38 227.70 -2.22 
133.62 227.35 -1.47 
134.11 227.33 -5.06 
133.96 227.48 -4.28 
134.13 227.71 -3.65 
133.75 227.38 -2.00 
134.84 227.32 -5.08 
134.44 227.72 -4.55 
135.57 227.26 -6.68 
135.49 227.89 -5.97 
135.43 227.31 -4.98 
135.42 227.29 -4.44 
135.26 227.57 -3.73 
135.19 227.42 -3.06 
135.17 227.36 -2.39 
136.18 227.54 -7.61 
136.13 227.54 -6.92 
136.05 227.51 -6.22 
135.89 227.45 -6.06 
136.37 227.27 -4.96 
136.35 227.47 -4.45 
136.22 227.61 -3.72 
136.41 227.64 -2.36 
136.61 227.85 -5.59 
136.96 227.81 -5.40 
137.01 227.63 -4.50 
137.13 227.80 -3.80 
136.60 227.53 -1.64 
137.64 227.67 -5.44 
137.64 227.67 -5.44 
137.57 227.76 -4.35 
137.49 227.45 -3.81 
137.69 227.81 -3.32 
138.22 227.77 -5.52 
138.14 227.63 -5.43 
138.14 227.68 -4.58 
138.16 227.29 -3.82 
138.54 227.58 -2.81 
138.78 227.65 -5.50 
138.78 227.65 -5.50 
138.66 227.54 -4.58 
139.48 227.61 -5.35 
119.12 227.92 -7.55 
120.95 228.26 -7.51 
121.31 228.47 -7.46 
127.96 228.52 -2.71 
128.34 228.20 -2.54 
132.89 228.30 -2.86 
133.24 228.06 -3.58 
133.50 228.57 -2.36 
133.76 228.23 -2.10 
135.09 227.98 -5.80 
134.70 228.31 -5.05 
134.73 228.34 -4.12 
135.00 228.42 -3.79 
134.61 228.37 -1.81 
135.76 228.44 -6.51 
135.54 228.24 -5.58 
135.60 228.24 -5.07 
135.56 228.34 -4.56 
135.30 228.60 -3.54 
136.07 228.15 -7.58 
136.06 228.09 -6.96 
136.21 228.40 -6.51 
136.20 228.27 -5.73 
136.42 228.12 -4.88 
136.09 228.26 -4.19 
136.01 228.23 -3.40 
135.89 228.60 -3.34 
137.10 228.22 -5.65 
136.83 227.99 -5.25 
136.91 228.20 -4.45 
136.63 228.28 -3.85 
137.07 228.41 -3.38 
137.64 228.21 -6.01 
137.88 228.28 -5.21 
137.29 228.00 -4.21 
137.39 228.19 -1.88 
138.06 228.18 -6.00 
138.89 228.07 -5.23 
119.97 229.07 -6.63 
120.59 228.72 -7.48 
127.54 229.25 -3.77 
128.12 228.74 -2.80 
128.55 229.21 -2.65 
129.09 229.28 -4.34 
129.00 228.98 -1.90 
132.33 228.68 -2.86 
132.98 229.28 -1.35 
133.11 228.92 -2.36 
133.33 229.19 -1.76 
133.94 229.07 -5.69 
134.14 229.03 -3.25 
133.80 228.98 -1.79 
134.57 229.25 -5.68 
134.80 228.66 -3.27 
135.08 229.12 -2.60 
135.62 229.04 -5.72 
135.36 228.72 -4.97 
135.40 228.79 -2.87 
135.93 229.01 -2.41 
135.93 229.01 -2.41 
136.53 228.72 -3.32 
136.80 229.14 -2.17 
137.70 228.79 -2.22 
138.25 229.30 -5.57 
118.56 229.90 -7.72 
119.43 230.01 -7.74 
119.91 229.92 -7.74 
120.72 229.87 -7.67 
121.68 229.39 -7.59 
121.20 229.41 -7.48 
121.48 229.42 -6.66 
127.69 229.36 -3.78 
128.59 229.52 -4.41 
128.23 229.79 -3.57 
128.25 229.69 -2.86 
128.39 229.98 -2.63 
128.95 229.86 -4.89 
129.33 229.78 -4.20 
129.43 229.68 -3.96 
129.65 229.34 -4.96 
129.86 230.00 -4.15 
130.13 229.94 -2.76 
130.20 229.49 -1.41 
130.43 229.78 -1.15 
132.44 229.70 -5.97 
132.73 229.79 -1.44 
133.19 230.01 -6.09 
133.50 229.55 -5.01 
133.49 229.94 -3.66 
134.04 229.51 -5.78 
134.05 229.68 -4.14 
134.38 229.51 -3.86 
134.36 229.85 -3.24 
134.09 229.34 -2.26 
134.17 229.36 -1.64 
134.52 229.48 -5.71 
135.18 229.68 -5.03 
134.97 229.81 -4.37 
134.61 229.31 -2.57 
134.43 229.66 -1.55 
134.91 229.68 -0.72 
135.62 229.89 -5.74 
135.18 229.68 -5.03 
136.14 229.41 -5.68 
136.06 229.86 -4.59 
138.44 229.69 -2.82 
138.64 229.36 -5.56 
118.21 230.47 -8.03 
118.60 230.31 -8.02 
118.43 230.15 -7.51 
119.35 230.14 -7.51 
119.50 230.39 -7.45 
119.55 230.42 -6.62 
120.34 230.26 -7.68 
120.24 230.20 -7.50 
121.05 230.25 -8.06 
121.04 230.11 -7.49 
121.34 230.45 -8.24 
121.58 230.34 -7.45 
127.98 230.37 -6.30 
127.86 230.39 -4.79 
127.88 230.43 -2.72 
128.61 230.12 -4.11 
128.55 230.51 -3.83 
128.77 230.14 -2.73 
129.03 230.07 -4.82 
129.12 230.36 -4.51 
129.47 230.10 -3.50 
129.45 230.10 -2.89 
128.93 230.07 -1.99 
129.52 230.31 -4.03 
130.03 230.65 -2.85 
130.05 230.14 -1.47 
129.76 230.54 -1.17 
130.25 230.52 -5.67 
130.28 230.30 -5.37 
130.28 230.49 -1.22 
132.70 230.65 -1.50 
133.53 230.12 -6.32 
133.96 230.16 -6.25 
134.05 230.17 -6.11 
134.29 230.69 -4.21 
134.16 230.12 -3.90 
134.09 230.54 -2.33 
134.18 230.59 -1.42 
134.42 230.05 -6.10 
134.91 230.47 -4.75 
134.67 230.28 -3.31 
134.63 230.57 -2.45 
135.13 230.43 -5.06 
135.37 230.30 -4.72 
135.78 230.04 -3.07 
136.18 230.25 -5.75 
136.44 230.48 -5.24 
137.22 230.41 -4.57 
137.67 230.65 -2.06 
138.04 230.69 -8.09 
117.96 231.42 -7.76 
118.19 231.13 -7.46 
118.96 231.03 -7.64 
118.93 230.79 -7.30 
119.34 231.27 -7.98 
119.35 231.09 -6.62 
119.91 230.87 -8.00 
120.67 230.81 -8.12 
126.66 230.94 -4.26 
126.06 231.41 -1.60 
126.91 230.82 -2.72 
126.80 230.71 -1.83 
128.10 230.93 -6.33 
127.87 231.07 -3.35 
128.03 231.14 -1.31 
128.12 230.93 -4.86 
128.58 230.99 -4.10 
128.15 231.27 -2.03 
129.18 231.14 -6.18 
129.00 230.90 -4.85 
129.20 230.77 -4.66 
129.47 230.97 -3.71 
129.42 231.16 -3.04 
129.23 230.90 -0.87 
130.08 230.96 -5.41 
129.68 230.82 -4.09 
129.75 231.34 -3.71 
129.80 230.89 -2.91 
130.12 231.14 -2.12 
129.82 231.13 -1.96 
130.69 230.96 -5.81 
130.91 230.74 -2.04 
130.35 231.24 -1.65 
131.48 231.01 -5.89 
131.04 231.32 -4.96 
133.57 231.37 -8.06 
134.03 231.19 -8.07 
134.31 230.74 -2.54 
134.09 231.35 -1.46 
134.56 231.13 -8.07 
134.95 231.32 -4.54 
134.80 231.30 -2.79 
134.56 231.30 -1.77 
135.17 231.18 -8.07 
135.30 230.97 -5.50 
135.11 230.74 -4.48 
135.67 230.94 -4.06 
136.31 231.25 -8.06 
135.87 231.16 -2.35 
117.97 231.82 -8.01 
117.75 231.43 -7.53 
118.75 231.72 -8.00 
118.41 231.62 -7.57 
118.40 232.05 -6.62 
119.55 231.65 -7.98 
126.61 232.10 -2.78 
126.63 231.64 -0.60 
127.16 231.96 -5.75 
127.00 231.60 -0.99 
127.91 231.82 -3.42 
127.98 231.84 -1.38 
128.30 231.83 -6.26 
128.30 231.86 -5.11 
128.78 231.74 -4.59 
128.18 231.45 -3.35 
129.20 231.63 -5.50 
129.13 232.01 -5.19 
128.98 231.95 -4.44 
128.82 231.94 -2.86 
129.90 231.83 -5.91 
129.68 231.90 -4.97 
129.65 232.08 -4.39 
129.74 231.67 -2.14 
130.50 231.99 -6.28 
130.62 231.71 -5.70 
130.63 231.63 -4.94 
130.24 231.60 -2.22 
131.25 231.56 -6.17 
131.25 231.56 -6.17 
131.18 231.46 -5.17 
131.28 231.60 -4.77 
132.63 231.72 -8.06 
133.10 231.54 -8.06 
134.24 231.48 -1.76 
133.88 231.84 -0.72 
134.63 232.07 -2.81 
134.47 231.51 -2.42 
135.65 231.42 -3.27 
117.68 232.36 -7.86 
117.61 232.70 -7.55 
118.92 232.24 -7.66 
118.65 232.27 -7.54 
119.75 232.58 -8.28 
125.99 232.30 -0.56 
126.67 232.52 -3.82 
126.27 232.16 -2.85 
126.68 232.18 -1.91 
127.07 232.48 -2.01 
126.85 232.44 -1.95 
127.00 232.40 -1.08 
127.52 232.14 -1.35 
128.67 232.52 -6.65 
128.58 232.36 -5.81 
128.71 232.86 -5.11 
128.46 232.38 -1.16 
129.26 232.68 -7.42 
129.17 232.71 -6.57 
129.16 232.85 -5.89 
129.38 232.52 -4.90 
129.21 232.33 -3.59 
129.95 232.52 -6.31 
129.91 232.38 -6.01 
129.60 232.14 -4.95 
130.60 232.36 -6.44 
130.71 232.45 -5.60 
130.67 232.37 -5.33 
130.75 232.46 -4.37 
130.22 232.67 -3.90 
130.21 232.59 -3.07 
130.49 232.19 -1.45 
131.00 232.41 -6.64 
131.01 232.30 -5.31 
131.12 232.14 -4.38 
131.97 232.45 -8.05 
132.34 232.14 -8.06 
134.30 232.23 -2.30 
134.60 232.42 -2.69 
134.94 232.29 -2.67 
126.69 233.36 -5.61 
127.00 233.33 -5.65 
127.25 233.35 -3.46 
127.95 232.88 -5.81 
127.45 232.98 -5.24 
127.97 232.81 -4.63 
127.83 233.39 -3.04 
127.50 232.84 -1.43 
128.45 233.12 -6.97 
128.76 233.20 -6.33 
128.71 233.06 -5.64 
128.67 232.99 -5.47 
128.39 233.25 -4.10 
128.41 232.98 -2.90 
128.52 233.22 -1.23 
129.36 233.18 -8.21 
129.33 233.25 -7.05 
129.39 232.91 -6.72 
129.09 232.80 -5.69 
129.06 233.40 -5.31 
128.87 233.17 -4.47 
129.23 232.86 -3.04 
129.65 233.09 -7.03 
129.76 233.18 -6.49 
129.74 233.12 -6.08 
129.93 232.97 -5.43 
130.08 233.18 -4.36 
129.86 233.20 -3.93 
130.05 232.95 -5.87 
130.45 232.88 -5.01 
131.31 233.13 -8.03 
131.26 233.04 -6.20 
131.08 233.06 -4.99 
131.16 232.84 -2.59 
131.90 232.90 -6.20 
131.61 232.88 -6.17 
127.39 234.08 -6.20 
126.79 234.20 -5.23 
126.77 233.67 -4.77 
127.35 233.63 -3.89 
127.22 233.59 -2.85 
127.77 233.99 -6.21 
127.78 233.61 -5.95 
127.95 234.08 -4.61 
127.56 233.55 -3.96 
128.04 233.88 -0.88 
128.16 233.89 -4.96 
128.34 233.93 -1.26 
129.19 233.53 -6.51 
129.23 233.69 -5.72 
129.20 233.72 -4.94 
129.26 233.77 -4.32 
129.28 233.66 -3.90 
129.42 233.81 -3.21 
129.82 233.90 -6.06 
129.91 233.74 -4.91 
129.74 233.92 -4.46 
129.77 233.63 -3.05 
130.86 234.02 -8.00 
130.46 233.62 -2.41 
131.08 233.57 -8.02 
131.22 233.77 -5.15 
132.04 234.16 -5.11 
132.29 233.59 -4.63 
132.23 233.90 -3.42 
132.00 233.82 -3.33 
125.88 234.26 -3.00 
126.28 234.46 -5.21 
126.62 234.21 -4.12 
126.63 234.77 -3.95 
126.27 234.57 -2.10 
126.65 234.28 -1.78 
126.70 234.56 -1.27 
126.94 234.57 -3.86 
127.23 234.40 -3.12 
127.80 234.72 -3.93 
127.50 234.87 -2.30 
127.42 234.53 -0.84 
128.58 234.41 -5.88 
128.46 234.71 -4.97 
128.24 234.32 -3.92 
128.49 234.75 -3.16 
128.23 234.57 -2.28 
128.37 234.67 -1.48 
129.28 234.62 -6.39 
129.17 234.22 -5.99 
129.41 234.84 -4.60 
129.06 234.70 -3.55 
129.63 234.82 -5.73 
129.92 234.69 -4.04 
130.41 234.88 -7.98 
130.64 234.27 -4.82 
132.04 234.16 -5.11 
132.62 234.42 -5.05 
126.38 235.26 -3.15 
127.01 235.25 -1.86 
127.93 235.21 -3.03 
128.44 235.36 -6.47 
128.20 235.47 -5.55 
128.49 235.40 -3.20 
129.04 235.18 -6.61 
129.16 235.03 -3.22 
129.04 235.47 -2.57 
130.12 235.23 -7.97 
129.85 235.30 -4.17 
129.58 235.19 -4.07 
130.70 235.08 -5.67 
130.29 235.04 -4.11 
