# .PCD v0.7 - Point Cloud Data file format
VERSION 0.7
FIELDS x y z
SIZE 4 4 4
TYPE F F F
COUNT 1 1 1
WIDTH 1355
HEIGHT 1
VIEWPOINT 0 0 0 1 0 0 0
POINTS 1355
DATA ascii
132.61 115.88 -3.66 
133.27 115.74 -4.70 
133.32 115.64 -4.16 
135.45 115.71 -7.37 
136.15 115.40 -7.52 
138.99 116.03 -8.05 
139.71 116.03 -8.32 
139.58 116.03 -7.33 
140.18 116.05 -6.65 
141.30 115.71 -9.66 
141.34 116.04 -7.53 
140.79 115.94 -7.02 
129.29 116.45 -6.43 
129.87 116.51 -6.66 
129.84 116.57 -6.35 
130.24 116.63 -5.81 
131.46 116.45 -6.56 
132.71 116.28 -3.37 
133.17 116.34 -5.82 
133.38 116.27 -4.72 
133.43 116.30 -4.16 
134.89 116.42 -7.42 
135.16 116.33 -7.77 
137.73 116.67 -6.53 
137.58 116.47 -6.49 
138.44 116.77 -8.67 
138.42 116.61 -8.51 
138.34 116.08 -7.65 
137.97 116.09 -6.77 
138.79 116.69 -9.43 
139.16 116.63 -9.08 
138.86 116.45 -8.14 
138.84 116.30 -7.66 
139.18 116.73 -7.03 
139.95 116.69 -9.73 
139.57 116.69 -9.17 
139.55 116.39 -8.04 
139.73 116.55 -7.60 
139.39 116.44 -7.19 
139.83 116.63 -6.32 
140.67 116.63 -8.75 
140.35 116.48 -6.71 
140.10 116.07 -6.44 
141.21 116.65 -8.94 
140.89 116.66 -8.21 
141.13 116.61 -7.25 
140.92 116.40 -7.08 
129.94 116.78 -6.78 
130.39 116.82 -6.20 
131.49 116.78 -7.13 
131.17 117.04 -6.02 
131.72 117.09 -6.13 
132.90 116.99 -3.23 
132.86 116.96 -2.65 
133.21 116.96 -5.92 
133.30 116.90 -5.56 
133.31 116.78 -4.71 
133.16 116.98 -4.11 
133.19 116.97 -2.46 
133.85 117.19 -5.18 
133.93 117.09 -3.82 
134.60 116.91 -7.41 
137.77 117.04 -8.57 
138.59 116.90 -8.73 
138.23 117.25 -8.14 
138.55 117.19 -6.69 
138.46 116.97 -6.46 
139.25 117.06 -9.42 
139.03 116.97 -8.77 
138.96 117.02 -8.41 
138.90 117.28 -7.61 
139.39 117.11 -7.24 
138.95 117.34 -5.91 
139.88 117.22 -9.64 
139.64 117.05 -9.17 
139.35 117.07 -8.27 
139.73 117.11 -7.59 
139.56 117.14 -7.13 
139.53 117.36 -5.24 
140.24 117.04 -9.66 
140.34 117.44 -9.15 
140.52 117.11 -8.59 
140.39 117.41 -7.57 
140.44 117.08 -6.93 
140.03 117.02 -6.52 
141.11 117.30 -9.51 
141.07 117.03 -8.81 
140.83 117.26 -7.94 
141.00 117.10 -7.46 
140.73 116.97 -7.17 
141.67 117.08 -8.59 
141.71 117.17 -6.71 
142.49 117.30 -7.29 
130.67 117.97 -8.35 
131.53 118.09 -8.03 
131.75 118.11 -7.84 
132.59 117.87 -8.10 
132.89 117.82 -4.71 
133.28 117.73 -4.92 
133.43 117.62 -3.28 
133.12 117.72 -2.93 
134.29 117.58 -7.54 
133.97 117.60 -4.01 
133.86 117.54 -3.50 
134.52 118.03 -4.41 
135.24 118.12 -5.13 
135.26 118.13 -4.67 
138.61 117.91 -9.54 
138.24 117.93 -8.73 
138.19 117.59 -7.96 
138.27 118.03 -7.68 
138.48 117.65 -6.81 
138.29 117.62 -6.31 
138.48 117.98 -5.57 
138.84 118.13 -9.94 
139.10 117.97 -9.02 
139.19 117.79 -8.26 
139.17 117.88 -7.44 
138.78 117.91 -7.01 
138.93 118.08 -5.92 
138.73 118.00 -5.80 
139.78 117.90 -9.61 
139.73 117.79 -8.91 
139.80 118.07 -8.29 
139.64 117.58 -7.54 
139.51 117.69 -6.96 
139.81 117.65 -6.50 
140.56 117.78 -9.28 
140.34 117.83 -9.14 
140.49 117.86 -8.17 
140.47 117.90 -7.45 
140.53 117.94 -7.18 
140.31 117.50 -6.42 
140.92 117.78 -9.52 
141.02 118.08 -8.96 
141.17 117.68 -7.94 
141.11 117.77 -7.64 
141.01 117.71 -7.16 
141.34 118.07 -6.36 
141.95 117.68 -9.36 
141.92 117.48 -9.04 
141.72 117.98 -8.59 
141.59 117.88 -7.46 
141.49 118.01 -6.95 
142.50 118.01 -9.35 
142.13 118.14 -7.27 
131.60 118.67 -8.43 
131.96 118.68 -8.25 
132.14 118.63 -7.71 
132.10 118.62 -5.58 
132.44 118.78 -8.07 
132.57 118.73 -7.62 
133.74 118.51 -7.87 
133.37 118.79 -6.65 
133.77 118.47 -7.85 
134.00 118.80 -6.58 
133.85 118.56 -6.31 
134.17 118.69 -4.71 
134.94 118.39 -4.92 
134.64 118.26 -4.06 
135.67 118.79 -7.52 
135.87 118.39 -7.65 
136.06 118.74 -2.80 
136.78 118.72 -7.40 
137.71 118.36 -8.70 
137.62 118.52 -8.14 
137.62 118.30 -7.57 
137.64 118.58 -5.54 
138.12 118.81 -9.65 
138.22 118.33 -8.81 
138.33 118.72 -8.13 
138.25 118.52 -7.78 
138.36 118.38 -6.95 
138.16 118.51 -6.38 
138.27 118.38 -5.42 
139.08 118.82 -9.52 
139.30 118.37 -8.73 
138.68 118.72 -8.10 
138.96 118.65 -7.54 
139.08 118.67 -7.07 
138.74 118.20 -5.91 
139.09 118.85 -5.48 
139.58 118.60 -9.60 
139.46 118.70 -9.04 
139.42 118.73 -8.52 
139.78 118.60 -7.34 
139.59 118.55 -6.91 
139.67 118.78 -6.24 
139.53 118.77 -4.82 
140.45 118.64 -9.48 
140.34 118.60 -8.95 
140.50 118.39 -8.30 
140.47 118.38 -7.72 
141.35 118.80 -9.65 
141.23 118.39 -9.04 
141.06 118.62 -8.33 
141.18 118.36 -7.68 
141.12 118.49 -6.94 
141.09 118.60 -6.16 
141.63 118.85 -9.55 
141.69 118.72 -9.33 
141.80 118.53 -8.01 
141.45 118.63 -7.57 
141.87 118.78 -6.92 
142.03 118.46 -6.49 
141.54 118.48 -5.43 
142.18 118.57 -9.01 
142.12 118.66 -8.20 
142.47 118.86 -7.44 
142.35 118.64 -6.65 
127.72 119.56 -5.69 
129.89 119.37 -7.33 
129.90 119.20 -7.16 
130.68 119.07 -8.34 
130.59 119.47 -7.62 
131.19 119.26 -8.33 
131.16 119.63 -7.62 
131.38 119.25 -7.02 
131.87 119.33 -8.23 
132.31 118.97 -5.27 
132.41 118.91 -8.25 
132.93 118.95 -7.61 
133.00 119.08 -6.72 
133.02 119.44 -6.14 
133.49 119.42 -7.87 
133.32 119.19 -7.87 
133.61 119.07 -6.89 
133.02 119.44 -6.14 
133.62 119.11 -5.65 
133.88 119.56 -7.32 
133.98 119.22 -7.03 
134.11 119.44 -5.45 
134.17 119.12 -4.55 
134.51 119.16 -4.79 
134.48 118.99 -4.16 
135.55 119.18 -7.54 
135.59 118.90 -2.90 
136.08 119.56 -8.16 
135.95 119.27 -3.05 
136.07 119.25 -2.60 
136.90 118.90 -7.33 
136.99 119.04 -7.20 
137.73 119.28 -8.77 
137.60 119.06 -8.08 
137.69 119.41 -7.50 
137.49 118.98 -6.90 
137.72 119.37 -6.41 
137.83 118.96 -5.80 
137.73 119.24 -5.04 
137.73 119.18 -3.11 
138.25 118.88 -9.58 
138.21 119.33 -8.63 
138.45 119.20 -8.22 
138.33 119.18 -7.50 
138.19 119.24 -6.96 
138.41 119.11 -6.38 
138.99 119.35 -9.87 
138.98 119.10 -8.73 
138.93 119.08 -8.26 
138.68 118.94 -7.47 
139.12 118.96 -7.05 
139.25 118.87 -5.91 
139.25 118.95 -5.66 
139.10 119.35 -5.01 
139.78 119.40 -9.68 
139.84 119.41 -9.12 
139.82 119.49 -8.40 
139.52 118.91 -7.40 
139.55 118.96 -6.59 
139.64 119.25 -6.01 
139.45 119.48 -5.71 
139.56 118.88 -4.93 
140.17 119.04 -9.50 
140.27 119.28 -8.99 
140.53 119.09 -8.61 
140.65 119.48 -7.76 
140.04 119.50 -6.52 
140.08 118.95 -5.63 
141.24 119.02 -9.46 
141.19 119.10 -9.27 
141.00 119.34 -8.32 
140.86 119.05 -7.87 
141.03 119.07 -6.89 
140.77 118.97 -6.06 
141.51 119.04 -9.46 
141.72 119.17 -8.80 
141.80 119.01 -7.98 
141.89 119.23 -7.65 
141.51 119.18 -7.02 
141.70 119.34 -6.17 
142.09 118.89 -5.48 
142.39 118.88 -9.21 
142.50 119.00 -8.05 
142.25 119.29 -7.63 
142.59 118.92 -6.81 
142.34 119.23 -5.84 
142.30 119.23 -5.47 
120.04 120.09 -7.27 
127.36 120.21 -5.40 
127.74 119.89 -5.44 
127.60 119.70 -4.91 
128.62 119.80 -7.30 
128.57 119.93 -7.20 
128.18 120.07 -5.34 
129.16 119.77 -7.30 
129.13 119.76 -6.96 
129.82 119.67 -8.18 
129.79 119.85 -7.66 
130.12 119.65 -6.28 
129.92 120.22 -5.29 
130.72 120.02 -7.93 
130.56 119.80 -7.68 
130.89 119.89 -6.54 
130.52 120.03 -5.94 
130.56 120.11 -5.29 
131.29 119.97 -8.02 
131.16 119.94 -7.71 
131.19 120.21 -7.05 
131.39 119.98 -6.34 
130.98 119.62 -5.67 
131.94 119.93 -8.03 
131.93 119.94 -7.42 
131.97 120.07 -6.92 
131.96 120.14 -5.99 
132.07 120.08 -5.70 
132.33 120.24 -8.70 
132.46 119.89 -8.57 
132.84 120.07 -7.25 
132.49 120.03 -6.14 
132.59 120.18 -5.56 
132.40 120.13 -5.09 
133.64 119.97 -8.88 
133.47 119.70 -8.27 
133.22 120.16 -7.47 
133.16 120.06 -6.20 
133.13 119.94 -5.82 
134.03 119.96 -8.93 
134.03 120.02 -8.32 
133.88 120.22 -7.57 
134.02 120.12 -6.82 
134.08 120.01 -6.27 
134.19 119.81 -5.69 
134.26 119.58 -4.61 
134.92 120.21 -8.17 
134.86 120.12 -7.79 
134.52 120.16 -7.06 
134.87 119.95 -6.02 
134.76 119.90 -5.38 
135.51 119.87 -8.10 
135.65 119.92 -7.68 
135.51 119.90 -7.03 
135.47 120.21 -5.61 
135.91 119.70 -8.08 
136.08 119.81 -7.56 
136.32 120.07 -7.13 
135.87 120.06 -5.65 
136.05 120.22 -4.45 
136.20 119.85 -4.06 
136.16 120.14 -3.69 
136.89 119.72 -7.36 
137.13 120.17 -6.98 
137.88 119.66 -8.64 
137.57 120.12 -7.52 
137.76 119.82 -6.95 
137.90 119.80 -6.41 
137.91 120.22 -5.30 
138.47 119.60 -9.62 
138.46 119.97 -9.14 
138.59 119.98 -7.95 
138.00 119.84 -7.52 
137.83 119.74 -6.94 
138.28 120.18 -6.36 
138.51 119.88 -5.52 
138.60 120.12 -5.01 
138.98 119.83 -9.53 
138.87 119.70 -9.11 
138.93 120.05 -8.19 
138.91 120.12 -7.73 
138.98 120.27 -6.79 
138.95 120.07 -5.76 
138.95 120.07 -5.76 
138.85 119.84 -4.96 
139.26 120.17 -4.08 
139.84 120.25 -9.52 
139.46 119.95 -8.82 
139.66 120.03 -8.39 
139.86 120.09 -7.27 
139.55 120.19 -7.05 
139.75 120.13 -6.21 
139.40 120.27 -5.61 
139.36 119.98 -4.49 
139.54 119.91 -4.32 
140.19 119.99 -9.62 
140.44 119.90 -8.93 
140.49 119.99 -8.41 
140.74 120.09 -7.74 
140.15 120.16 -7.12 
140.29 119.80 -6.30 
141.26 120.01 -9.73 
140.95 119.81 -9.10 
140.86 120.14 -8.40 
140.74 120.09 -7.74 
141.01 119.92 -6.99 
141.38 120.18 -6.43 
141.41 120.16 -5.39 
141.34 120.04 -4.96 
141.80 119.81 -9.38 
141.64 120.14 -9.26 
141.60 119.97 -8.03 
141.79 120.14 -7.48 
141.58 120.16 -7.05 
141.75 119.80 -5.12 
142.12 119.99 -7.95 
142.27 119.74 -7.52 
142.17 119.92 -7.15 
142.12 120.06 -5.74 
128.05 120.51 -5.27 
127.81 120.45 -4.98 
128.64 120.73 -5.74 
128.58 120.79 -5.07 
129.21 120.69 -7.49 
129.05 120.69 -6.73 
129.17 120.46 -5.49 
130.19 120.42 -7.41 
130.06 120.70 -7.12 
130.07 120.88 -5.47 
130.46 120.82 -6.86 
130.59 120.93 -5.92 
130.59 120.93 -5.92 
131.17 120.53 -6.89 
130.97 120.40 -5.92 
131.40 120.63 -5.27 
132.15 120.61 -9.63 
132.23 120.70 -9.01 
132.15 120.59 -8.34 
132.14 120.90 -7.39 
132.18 120.91 -6.82 
131.72 120.39 -6.12 
131.80 120.30 -5.66 
131.75 120.36 -4.99 
132.51 120.92 -9.62 
132.66 120.86 -8.70 
132.59 120.87 -8.33 
132.76 120.81 -7.64 
132.63 120.67 -7.10 
132.60 120.45 -6.47 
133.72 120.60 -9.45 
133.64 120.78 -8.75 
133.52 120.45 -8.12 
133.29 120.48 -7.58 
133.04 120.50 -6.24 
133.43 120.62 -5.60 
133.95 120.68 -9.68 
133.84 120.57 -8.89 
134.11 120.66 -8.41 
134.02 120.44 -7.51 
134.04 120.65 -6.90 
133.99 120.46 -6.04 
134.02 120.77 -5.57 
133.85 120.88 -4.72 
134.57 120.55 -8.35 
134.66 120.47 -7.57 
134.58 120.52 -6.96 
134.98 120.92 -6.28 
134.64 120.60 -5.80 
135.30 120.86 -8.36 
135.54 120.49 -7.00 
135.25 120.87 -6.45 
135.47 120.21 -5.61 
135.44 120.67 -4.46 
135.85 120.67 -6.78 
135.91 120.30 -5.56 
136.09 120.30 -4.68 
136.26 120.97 -4.13 
136.08 120.49 -3.59 
136.60 120.90 -7.57 
136.91 120.44 -6.86 
136.85 120.90 -4.10 
136.89 120.62 -3.63 
137.86 120.78 -7.38 
137.69 120.42 -6.97 
138.43 120.31 -7.99 
138.21 120.43 -7.30 
138.10 120.89 -7.18 
138.28 120.83 -6.30 
139.03 120.44 -8.67 
139.18 120.72 -8.08 
139.04 120.53 -7.80 
138.84 120.59 -6.03 
138.77 120.30 -4.80 
139.84 120.25 -9.52 
139.59 120.50 -8.84 
139.54 120.36 -8.26 
139.74 120.52 -7.79 
139.56 120.59 -7.07 
139.57 120.73 -6.20 
139.46 120.52 -5.79 
140.45 120.73 -9.53 
140.49 120.50 -9.16 
140.46 120.52 -8.20 
140.34 120.63 -7.88 
140.09 120.41 -6.89 
140.54 120.62 -6.24 
141.21 120.60 -9.50 
141.23 120.50 -9.28 
140.95 120.41 -8.22 
141.11 120.70 -7.45 
141.02 120.55 -6.67 
141.10 120.87 -6.21 
140.99 120.77 -5.93 
141.35 120.47 -5.04 
141.49 120.43 -8.69 
141.58 120.72 -8.28 
141.45 120.89 -7.77 
141.87 120.44 -6.67 
141.58 120.75 -6.00 
141.59 120.97 -5.69 
142.22 120.69 -6.03 
122.41 121.51 -7.59 
127.95 121.05 -6.65 
128.72 121.09 -7.32 
128.39 121.34 -6.72 
128.16 121.23 -6.43 
128.76 121.00 -5.49 
128.91 121.67 -7.35 
129.30 121.28 -6.98 
129.25 121.13 -5.45 
130.09 121.64 -7.74 
129.83 121.56 -6.67 
129.80 121.32 -6.34 
129.67 121.42 -5.36 
130.26 121.64 -7.65 
130.52 121.55 -6.77 
130.57 121.42 -6.28 
130.48 121.09 -5.43 
131.59 121.22 -7.41 
131.39 121.47 -6.69 
131.29 121.43 -6.53 
131.83 121.21 -7.40 
132.30 121.10 -5.86 
131.70 121.27 -5.48 
132.42 121.03 -8.99 
132.85 121.36 -8.34 
132.91 121.18 -7.72 
132.43 121.11 -7.13 
132.54 121.12 -5.59 
132.68 121.42 -5.12 
133.50 121.40 -8.63 
133.54 121.37 -8.35 
133.18 121.28 -7.85 
133.46 121.30 -7.05 
133.39 121.50 -6.35 
133.21 121.29 -5.32 
133.45 121.69 -4.82 
134.11 121.37 -8.33 
134.15 121.53 -7.70 
133.84 121.25 -6.92 
133.88 121.05 -6.52 
133.97 121.33 -5.25 
133.79 121.65 -5.12 
134.68 121.24 -8.09 
134.80 121.41 -7.66 
134.74 121.54 -6.99 
134.47 121.63 -6.28 
135.28 121.47 -7.94 
135.29 121.55 -7.70 
135.54 121.80 -6.73 
135.21 121.28 -6.30 
135.37 121.39 -5.21 
136.24 121.47 -7.86 
136.22 121.33 -4.75 
136.03 121.61 -3.96 
136.08 121.64 -3.59 
137.13 121.03 -6.64 
136.97 121.33 -4.57 
136.91 120.99 -3.94 
137.40 121.09 -6.61 
137.32 121.21 -6.26 
137.33 121.07 -4.02 
138.41 121.00 -6.59 
138.89 121.06 -8.66 
138.74 121.09 -8.58 
138.69 121.05 -7.73 
138.89 120.93 -6.44 
139.81 121.17 -7.45 
140.59 121.00 -9.58 
140.37 121.07 -8.79 
140.26 121.29 -7.64 
141.40 121.22 -7.17 
141.67 121.02 -8.77 
141.50 121.03 -7.47 
141.45 121.23 -7.19 
117.98 121.90 -6.57 
117.87 122.25 -6.33 
120.68 121.82 -7.84 
121.28 122.07 -8.03 
121.73 122.19 -7.45 
122.30 122.06 -8.25 
122.00 121.90 -7.41 
122.70 122.25 -8.64 
122.63 122.25 -8.61 
123.56 122.02 -6.87 
123.31 121.99 -6.42 
124.33 121.95 -7.95 
124.36 122.05 -7.63 
126.55 122.18 -8.26 
127.10 122.27 -7.64 
127.14 122.12 -7.02 
128.07 121.90 -6.77 
128.52 122.27 -7.98 
128.76 122.35 -7.89 
128.64 122.07 -6.77 
128.39 121.69 -6.18 
129.21 122.16 -8.10 
129.27 122.36 -7.68 
129.24 122.05 -6.72 
129.23 122.11 -6.28 
129.67 121.92 -8.19 
129.62 121.99 -7.51 
129.74 122.18 -6.82 
130.45 122.26 -7.46 
130.42 121.88 -7.01 
131.39 122.25 -7.65 
131.03 121.88 -7.11 
132.26 121.77 -7.48 
132.88 122.10 -7.73 
132.83 122.04 -7.18 
132.45 121.78 -5.17 
132.83 121.97 -5.01 
133.44 121.73 -8.67 
133.26 122.00 -8.10 
133.36 122.20 -7.75 
133.37 122.30 -7.07 
133.58 122.06 -6.38 
133.05 121.98 -5.24 
133.33 121.78 -4.98 
133.63 121.85 -2.53 
134.10 121.82 -8.32 
134.13 122.00 -7.75 
133.96 122.04 -6.75 
133.89 122.26 -6.07 
134.02 121.99 -5.51 
133.78 121.81 -5.02 
133.76 121.88 -2.64 
134.76 121.90 -8.01 
134.75 121.83 -7.54 
134.85 122.06 -7.06 
135.09 121.89 -5.88 
135.01 121.81 -4.56 
135.41 121.93 -8.60 
135.34 121.91 -7.46 
135.45 122.06 -6.87 
135.30 121.84 -6.35 
135.57 122.00 -5.59 
135.69 121.71 -4.46 
135.39 122.40 -4.37 
135.41 121.80 -3.62 
136.23 122.00 -7.96 
136.04 121.96 -7.64 
135.90 122.30 -5.58 
136.33 121.98 -4.83 
136.12 121.78 -4.08 
136.31 121.74 -3.53 
136.58 122.05 -8.23 
136.58 122.27 -7.83 
137.11 122.14 -6.87 
137.32 122.02 -6.69 
137.82 122.17 -5.70 
118.15 123.01 -6.59 
117.94 123.06 -6.34 
121.52 122.48 -6.91 
122.45 122.47 -8.62 
121.90 123.05 -7.12 
123.16 122.97 -7.30 
122.97 122.83 -6.91 
122.95 122.99 -6.41 
123.83 122.73 -8.67 
123.62 122.92 -8.36 
123.66 122.97 -7.56 
123.76 122.93 -7.00 
123.75 122.94 -5.67 
123.95 122.68 -8.93 
123.99 122.47 -8.33 
124.31 122.57 -7.62 
124.21 122.87 -6.80 
124.31 122.94 -6.41 
125.06 122.88 -6.75 
124.62 122.83 -6.14 
125.66 122.79 -6.69 
125.43 122.73 -6.45 
126.66 122.88 -8.11 
126.57 122.94 -7.53 
126.81 122.67 -8.32 
126.82 122.68 -7.51 
127.69 122.71 -8.07 
128.73 122.89 -8.03 
128.39 122.55 -7.86 
129.27 122.90 -8.04 
129.03 122.50 -7.71 
129.34 122.48 -7.17 
129.84 122.87 -7.94 
129.99 122.64 -7.71 
130.34 122.98 -7.93 
130.47 122.63 -7.62 
131.18 122.50 -7.57 
131.72 122.64 -7.28 
131.82 122.57 -7.20 
132.30 122.96 -6.52 
131.85 122.95 -4.47 
132.95 122.49 -7.99 
132.82 122.57 -7.55 
132.68 122.67 -7.18 
132.83 122.84 -6.50 
132.98 123.02 -4.53 
132.87 122.88 -4.38 
133.59 122.68 -7.76 
133.59 122.57 -6.85 
133.68 122.56 -6.50 
133.64 122.58 -5.24 
133.69 122.42 -4.65 
134.21 122.41 -7.46 
133.62 122.67 -7.05 
133.99 122.65 -6.34 
134.00 122.63 -5.66 
133.88 122.74 -5.02 
134.96 122.55 -8.00 
134.86 122.37 -7.44 
135.01 122.39 -6.74 
134.54 122.90 -5.69 
135.11 123.01 -4.52 
135.02 122.48 -3.45 
135.38 122.99 -8.29 
135.41 122.62 -7.51 
135.60 122.77 -6.92 
135.46 122.73 -6.11 
135.67 122.81 -5.76 
135.80 122.76 -4.43 
135.36 122.58 -4.39 
135.25 122.62 -3.34 
136.23 122.87 -7.51 
135.89 122.80 -6.90 
136.15 122.74 -6.47 
136.33 122.50 -5.22 
136.24 123.04 -4.25 
137.04 122.86 -7.94 
136.81 122.79 -7.73 
136.97 122.48 -6.94 
136.63 122.77 -3.63 
137.43 122.81 -7.96 
137.38 122.74 -7.77 
137.74 122.56 -5.68 
118.18 123.67 -6.68 
117.93 123.37 -5.98 
118.38 123.75 -6.61 
118.42 123.55 -6.41 
120.97 123.62 -6.28 
121.74 123.70 -8.97 
121.68 123.64 -7.47 
121.42 123.59 -6.95 
121.15 123.60 -6.21 
121.51 123.73 -5.80 
122.09 123.63 -9.03 
122.52 123.76 -8.07 
122.21 123.77 -7.41 
122.42 123.60 -7.02 
122.41 123.49 -6.44 
122.38 123.77 -5.47 
122.79 123.72 -8.71 
123.01 123.45 -8.30 
122.83 123.44 -7.50 
122.84 123.31 -7.10 
122.79 123.28 -6.19 
123.01 123.62 -5.12 
123.50 123.23 -8.39 
123.53 123.44 -7.59 
123.63 123.62 -6.93 
123.40 123.21 -6.13 
124.06 123.49 -8.15 
124.37 123.45 -7.55 
124.19 123.29 -7.04 
124.43 123.16 -6.17 
124.95 123.65 -8.01 
124.88 123.63 -7.57 
125.16 123.43 -6.71 
125.79 123.51 -8.06 
125.75 123.32 -7.52 
125.86 123.39 -7.20 
126.28 123.23 -8.02 
126.14 123.36 -7.49 
126.56 123.15 -7.01 
127.05 123.71 -7.86 
127.48 123.73 -8.30 
128.36 123.44 -8.12 
129.22 123.50 -8.15 
129.99 123.36 -8.09 
130.73 123.28 -7.57 
132.28 123.35 -4.46 
132.18 123.54 -4.18 
131.97 123.60 -3.40 
132.68 123.07 -6.85 
133.00 123.63 -6.09 
132.28 123.35 -4.46 
133.15 123.38 -7.37 
133.17 123.68 -6.89 
133.63 123.31 -6.19 
133.61 123.41 -5.36 
133.37 123.50 -4.56 
133.58 123.55 -3.81 
134.02 123.65 -7.42 
134.09 123.30 -7.04 
133.81 123.27 -6.04 
133.71 123.45 -5.44 
135.00 123.36 -7.70 
134.74 123.34 -6.64 
134.65 123.34 -6.01 
134.63 123.12 -5.34 
134.98 123.09 -4.57 
135.81 123.28 -8.28 
135.37 123.55 -7.62 
135.79 123.25 -7.10 
135.76 123.20 -6.44 
135.14 123.74 -4.80 
135.83 123.13 -8.25 
136.22 123.49 -7.56 
136.07 123.46 -6.80 
136.04 123.47 -6.44 
135.89 123.12 -5.40 
136.74 123.27 -7.36 
136.57 123.65 -6.53 
136.76 123.24 -4.70 
136.73 123.23 -3.97 
137.48 123.11 -7.29 
141.15 123.42 -9.47 
141.14 123.41 -8.73 
141.26 123.64 -7.99 
141.25 123.64 -7.27 
141.49 123.29 -6.76 
141.12 123.41 -6.48 
141.11 123.40 -5.73 
141.10 123.40 -4.97 
141.20 123.64 -4.33 
141.21 123.25 -3.71 
141.53 123.11 -9.40 
141.52 123.11 -8.39 
141.51 123.11 -7.37 
141.49 123.29 -6.76 
141.50 123.11 -6.35 
141.48 123.11 -5.33 
141.45 123.30 -4.97 
141.43 123.30 -4.06 
142.56 123.26 -9.37 
142.55 123.26 -8.99 
142.53 123.26 -8.23 
142.54 123.49 -7.68 
142.36 123.49 -7.08 
118.04 124.09 -8.05 
118.04 124.09 -8.05 
118.18 123.81 -6.75 
118.50 124.12 -8.04 
118.40 124.27 -7.72 
118.79 124.17 -6.89 
118.90 123.91 -6.32 
119.17 124.03 -6.89 
121.09 124.22 -7.64 
120.66 124.31 -7.14 
120.96 124.00 -6.20 
121.71 123.89 -8.86 
121.75 124.14 -8.13 
121.57 124.27 -7.53 
121.69 124.20 -6.91 
121.25 124.11 -5.93 
122.27 124.28 -8.72 
122.14 124.29 -8.23 
122.26 124.04 -7.55 
122.14 123.86 -6.94 
122.20 124.04 -6.38 
122.01 124.06 -5.64 
122.76 123.95 -8.97 
122.93 124.13 -8.25 
122.89 123.86 -7.78 
123.13 123.83 -7.00 
122.89 124.31 -5.26 
123.56 124.07 -8.34 
123.81 123.91 -7.64 
123.51 124.17 -5.84 
123.83 124.30 -5.60 
124.31 124.05 -8.08 
124.49 123.94 -7.89 
124.14 123.99 -6.17 
124.23 124.02 -5.64 
125.09 124.08 -8.22 
125.07 124.36 -7.79 
125.68 123.89 -8.18 
125.44 123.82 -7.75 
126.58 124.40 -8.05 
126.48 124.06 -7.61 
127.05 124.08 -8.07 
127.00 123.93 -7.77 
127.48 123.84 -8.42 
128.99 124.02 -8.11 
132.12 124.01 -4.06 
132.03 123.88 -3.67 
132.88 124.13 -5.82 
133.68 123.82 -7.40 
133.21 123.79 -7.00 
133.57 123.79 -5.18 
133.41 124.26 -4.90 
133.60 124.26 -4.07 
133.72 124.29 -3.66 
134.25 124.20 -7.41 
134.22 123.78 -7.05 
134.05 124.39 -6.12 
133.75 124.37 -4.32 
134.53 124.52 -7.06 
134.93 124.14 -6.20 
134.42 124.37 -5.73 
134.65 124.18 -5.08 
135.59 123.95 -7.06 
136.16 124.02 -7.31 
136.31 124.15 -7.10 
136.36 123.90 -6.22 
136.64 124.43 -6.97 
142.25 123.81 -6.66 
119.01 124.92 -8.51 
118.91 124.69 -7.24 
119.39 125.03 -8.62 
119.03 124.84 -8.61 
119.10 124.78 -7.39 
119.09 124.66 -7.00 
119.85 125.16 -8.45 
119.73 125.17 -7.24 
120.90 124.82 -8.98 
120.77 124.77 -8.46 
120.99 124.96 -6.85 
120.91 124.50 -6.29 
121.66 124.94 -8.69 
121.62 124.93 -8.21 
121.43 124.88 -7.55 
121.49 125.04 -6.87 
121.61 125.08 -6.25 
122.05 124.66 -8.94 
122.17 124.64 -8.42 
121.89 124.61 -7.75 
122.07 125.11 -6.03 
122.37 124.67 -5.47 
122.31 124.93 -5.02 
122.91 124.63 -8.43 
122.78 125.16 -5.53 
122.66 124.60 -5.08 
123.27 124.75 -8.42 
123.37 124.99 -7.42 
123.54 124.95 -7.08 
124.68 124.82 -7.55 
124.01 124.80 -7.04 
124.77 124.63 -8.21 
124.87 124.85 -7.42 
125.56 124.54 -8.29 
125.61 124.74 -7.75 
126.46 124.75 -8.20 
126.62 124.61 -7.75 
126.80 124.51 -8.39 
132.10 125.13 -6.83 
132.68 124.98 -7.08 
133.39 124.94 -6.73 
133.15 124.73 -6.20 
133.40 124.72 -5.20 
133.66 125.17 -4.45 
133.67 125.14 -3.96 
134.25 124.80 -7.72 
133.78 124.74 -6.63 
133.91 124.82 -6.17 
134.12 124.79 -5.68 
134.07 125.02 -3.68 
134.43 124.91 -8.04 
134.53 125.00 -7.44 
134.66 124.90 -7.14 
134.55 125.16 -6.33 
134.73 124.55 -4.75 
135.97 124.62 -7.29 
136.41 124.77 -6.99 
117.89 125.83 -8.24 
119.53 125.70 -9.02 
119.68 125.64 -8.59 
119.33 125.80 -7.76 
119.83 125.28 -9.27 
120.13 125.78 -8.46 
120.04 125.55 -7.24 
120.23 125.54 -6.89 
120.05 125.83 -6.19 
121.00 125.93 -10.26 
120.91 125.80 -9.50 
120.89 125.27 -8.67 
120.99 125.61 -8.21 
120.68 125.65 -7.58 
120.27 125.50 -6.81 
120.71 125.38 -6.49 
120.91 125.50 -5.89 
121.22 125.82 -10.31 
121.45 125.92 -9.49 
121.24 125.62 -8.85 
121.29 125.55 -8.22 
121.36 125.34 -7.72 
121.38 125.19 -7.19 
121.28 125.37 -6.31 
122.18 125.84 -8.21 
122.12 125.57 -5.44 
122.74 125.71 -7.82 
122.65 125.34 -5.98 
123.53 125.67 -7.30 
123.26 125.61 -7.10 
124.40 125.56 -7.57 
124.24 125.55 -7.08 
124.65 125.85 -7.40 
124.83 125.69 -6.74 
125.97 125.63 -6.09 
125.95 125.81 -4.98 
132.08 125.51 -7.06 
132.35 125.45 -6.63 
133.00 125.74 -6.08 
133.40 125.55 -6.77 
133.22 125.54 -6.24 
133.61 125.20 -4.78 
134.44 125.44 -7.47 
134.28 125.21 -6.64 
133.81 125.72 -6.44 
134.01 125.21 -5.66 
134.07 125.19 -4.35 
134.52 125.36 -7.55 
134.46 125.48 -6.66 
134.74 125.41 -6.09 
134.98 125.75 -5.76 
117.66 126.49 -7.94 
117.93 126.41 -7.47 
119.01 126.36 -10.71 
118.92 126.13 -9.37 
119.01 125.95 -9.31 
118.58 126.16 -8.12 
118.55 126.34 -7.48 
118.45 126.36 -7.22 
118.71 126.02 -6.35 
119.25 126.39 -10.43 
119.28 126.30 -9.97 
119.60 126.44 -9.05 
119.45 126.27 -8.34 
119.32 126.14 -7.68 
119.29 126.15 -6.70 
119.27 126.12 -6.47 
119.91 126.49 -9.91 
120.02 126.27 -8.88 
120.05 126.32 -8.09 
120.29 126.32 -8.00 
120.12 126.18 -6.78 
120.79 126.16 -10.19 
120.98 126.15 -9.56 
120.99 126.01 -8.93 
120.80 126.14 -7.99 
120.82 126.21 -7.67 
120.49 125.97 -7.09 
121.01 126.34 -6.25 
121.06 126.03 -5.76 
121.17 126.02 -10.18 
121.18 126.01 -9.59 
121.18 125.99 -8.98 
121.65 126.33 -7.97 
121.49 126.06 -7.68 
121.46 126.49 -7.15 
121.58 126.31 -5.85 
122.04 126.24 -8.19 
121.91 126.54 -7.38 
121.88 126.49 -5.41 
122.93 126.32 -8.17 
123.03 126.29 -7.63 
123.71 126.44 -7.96 
123.52 126.47 -7.37 
124.04 126.53 -8.16 
124.49 125.99 -7.61 
125.01 126.18 -7.79 
124.72 125.88 -6.73 
125.40 126.19 -7.58 
125.95 126.08 -5.92 
126.06 126.30 -5.61 
126.35 126.22 -6.02 
126.06 126.30 -5.61 
131.96 126.49 -6.91 
132.05 126.40 -6.33 
133.01 125.95 -6.28 
133.26 126.35 -6.79 
133.20 126.20 -6.10 
133.05 126.50 -5.76 
134.38 126.00 -7.71 
133.86 126.18 -6.76 
134.17 126.01 -6.17 
134.78 125.93 -6.64 
134.62 126.11 -6.18 
134.73 125.92 -5.74 
135.25 126.09 -5.76 
118.10 126.76 -7.97 
117.77 126.77 -7.70 
118.58 127.00 -8.22 
118.72 126.87 -7.74 
118.90 126.59 -6.89 
119.52 126.72 -10.36 
119.49 126.66 -9.71 
119.58 126.57 -9.11 
119.29 126.85 -8.02 
119.59 126.86 -7.62 
120.20 127.22 -8.10 
120.05 126.96 -7.68 
120.31 126.95 -6.45 
120.45 126.68 -10.14 
120.87 126.67 -9.43 
120.47 127.23 -8.30 
120.52 126.57 -7.56 
120.58 126.66 -6.82 
120.99 126.69 -6.32 
120.63 127.27 -5.50 
121.64 126.59 -7.96 
121.62 127.19 -7.53 
121.17 127.18 -6.19 
121.33 127.14 -5.82 
122.01 127.00 -8.08 
122.20 126.95 -7.42 
121.89 126.97 -7.18 
121.97 126.77 -5.90 
122.29 126.96 -5.46 
122.99 126.58 -8.20 
122.94 126.81 -7.79 
122.70 127.10 -5.06 
123.41 126.78 -7.97 
123.75 126.87 -7.66 
123.51 126.58 -7.21 
124.43 127.14 -7.43 
125.08 126.59 -7.69 
126.00 126.58 -5.90 
126.21 126.60 -5.94 
126.09 126.60 -5.24 
132.11 126.58 -6.84 
133.14 126.60 -6.80 
133.47 126.59 -6.10 
133.65 126.87 -5.79 
117.96 127.89 -8.13 
118.24 127.81 -7.74 
118.52 127.32 -8.02 
118.43 127.78 -7.93 
119.82 127.81 -8.14 
119.46 127.49 -7.68 
119.23 127.68 -5.71 
120.09 127.66 -8.72 
120.02 127.71 -8.11 
120.19 127.80 -7.80 
120.37 127.38 -6.61 
120.02 127.75 -5.32 
121.09 127.57 -7.94 
120.63 127.56 -7.40 
120.83 127.80 -7.08 
121.01 127.44 -5.49 
121.21 127.28 -8.01 
121.59 127.72 -7.70 
121.41 127.90 -7.00 
121.40 127.43 -5.94 
121.54 127.68 -5.56 
121.59 127.71 -4.34 
122.51 127.59 -7.94 
122.05 127.88 -7.03 
121.88 127.77 -6.29 
122.39 127.87 -5.47 
121.82 127.50 -4.34 
123.07 127.83 -7.54 
123.16 127.42 -6.71 
123.00 127.59 -6.62 
122.76 127.61 -5.21 
122.94 127.59 -5.08 
123.30 127.57 -8.00 
123.63 127.68 -7.58 
123.37 127.43 -7.01 
123.49 128.05 -6.11 
124.26 127.84 -7.87 
124.05 127.71 -7.62 
125.13 127.96 -8.25 
125.13 127.86 -7.47 
125.48 127.87 -7.55 
125.44 127.64 -7.14 
118.11 128.27 -7.44 
118.05 128.17 -7.19 
118.33 128.23 -8.13 
118.82 128.33 -7.70 
119.67 128.33 -8.69 
119.61 128.41 -8.44 
119.22 128.04 -7.83 
119.57 128.11 -5.33 
119.85 128.26 -8.77 
120.03 128.43 -8.33 
119.91 128.51 -7.89 
119.84 128.28 -5.60 
120.95 128.00 -7.49 
121.08 128.20 -6.83 
120.89 128.43 -6.34 
120.44 128.07 -5.31 
121.50 128.09 -7.38 
121.37 128.39 -7.13 
121.48 128.42 -6.39 
121.74 128.28 -5.80 
121.83 128.14 -7.98 
121.95 128.49 -7.82 
122.38 128.35 -6.89 
122.48 128.30 -6.32 
122.38 128.20 -5.15 
122.69 128.15 -7.96 
123.19 128.20 -7.77 
123.18 128.25 -6.73 
122.57 128.02 -6.49 
122.66 128.61 -5.03 
123.39 128.16 -8.17 
123.60 128.17 -7.61 
123.60 128.29 -6.74 
123.54 128.43 -6.11 
123.52 128.53 -5.77 
124.42 128.26 -7.87 
124.19 128.45 -7.62 
123.99 128.15 -7.08 
124.02 128.01 -6.44 
124.86 128.44 -8.04 
125.13 128.20 -7.85 
125.36 128.53 -8.37 
125.43 128.15 -7.82 
118.14 128.83 -8.37 
118.12 129.27 -7.59 
118.46 129.32 -8.04 
118.36 128.92 -7.72 
119.47 128.82 -8.60 
119.16 128.77 -7.42 
119.73 128.74 -8.06 
120.19 129.12 -7.78 
119.94 129.22 -6.58 
120.03 128.75 -6.39 
120.22 129.11 -5.75 
120.18 129.34 -4.98 
120.86 129.24 -7.42 
120.85 128.74 -6.91 
120.52 128.78 -6.05 
120.63 128.81 -5.27 
120.59 129.19 -4.79 
121.75 128.84 -7.45 
121.43 129.05 -6.98 
121.70 129.20 -6.26 
121.35 129.33 -5.31 
122.31 129.19 -7.33 
121.88 129.27 -6.02 
122.04 128.99 -5.49 
122.86 129.26 -7.11 
122.82 129.27 -5.18 
122.76 128.85 -4.79 
123.62 128.70 -8.07 
123.83 128.80 -7.62 
123.50 129.04 -6.99 
123.60 128.82 -6.12 
123.57 129.02 -5.76 
124.20 129.34 -8.02 
124.11 129.13 -7.65 
125.16 128.86 -8.26 
124.63 128.67 -7.88 
118.13 129.55 -8.23 
118.33 129.88 -7.81 
118.41 129.69 -8.21 
118.33 129.88 -7.81 
119.53 129.84 -7.68 
119.51 129.93 -6.15 
119.07 129.96 -5.79 
119.18 130.01 -5.00 
120.17 129.46 -7.57 
120.03 129.67 -5.91 
119.92 129.81 -5.78 
120.94 129.65 -6.92 
120.53 129.58 -6.22 
121.71 129.71 -7.78 
121.60 129.61 -6.64 
121.23 129.96 -6.10 
121.82 129.47 -7.45 
121.95 129.77 -6.84 
122.01 129.57 -6.27 
122.96 129.66 -7.30 
122.79 129.67 -7.20 
122.77 129.47 -4.77 
123.64 129.88 -6.94 
123.24 129.73 -6.47 
123.65 129.92 -5.61 
124.21 129.42 -8.01 
124.27 129.57 -7.61 
123.98 129.89 -7.16 
124.71 129.49 -7.55 
118.15 130.11 -8.04 
118.13 130.22 -7.83 
118.94 130.71 -5.46 
119.66 130.70 -7.95 
119.70 130.32 -7.74 
119.16 130.45 -5.51 
119.89 130.25 -7.97 
120.05 130.19 -7.38 
120.83 130.55 -7.77 
121.24 130.37 -5.85 
122.12 130.12 -6.54 
122.17 130.47 -6.42 
123.65 130.14 -6.86 
123.63 130.24 -5.93 
123.70 130.46 -5.60 
123.85 130.37 -6.80 
119.68 130.93 -8.25 
119.30 131.21 -7.80 
119.98 131.36 -8.01 
120.21 131.15 -7.70 
120.54 130.86 -7.39 
122.35 130.84 -6.24 
123.77 130.77 -5.93 
125.78 131.44 -9.82 
125.79 131.42 -8.91 
125.79 131.41 -7.99 
125.80 131.39 -7.08 
125.80 131.38 -6.16 
127.33 131.10 -10.06 
127.26 131.36 -9.44 
127.13 131.43 -9.07 
127.13 131.40 -8.24 
127.28 131.47 -7.88 
127.44 131.38 -10.06 
127.44 131.36 -9.07 
127.44 131.35 -8.40 
127.43 131.34 -7.56 
130.08 130.87 -10.42 
120.34 131.49 -7.66 
120.44 131.61 -7.73 
125.77 132.13 -10.03 
125.80 131.98 -9.82 
125.74 131.99 -8.99 
125.77 132.10 -8.29 
125.77 132.09 -7.51 
125.81 131.94 -6.79 
125.81 131.93 -6.27 
126.08 131.76 -9.88 
126.09 131.75 -9.18 
126.09 131.74 -8.48 
126.10 131.73 -7.78 
126.11 131.71 -7.08 
126.11 131.70 -6.37 
126.93 131.63 -10.36 
127.03 131.63 -9.63 
127.16 131.56 -9.07 
127.16 131.56 -8.25 
127.03 131.61 -7.73 
126.98 131.73 -6.93 
126.98 131.72 -6.51 
125.62 132.18 -10.14 
125.72 132.26 -9.45 
125.70 132.17 -9.08 
124.22 134.93 -10.72 
126.37 135.46 -10.60 
