# .PCD v0.7 - Point Cloud Data file format
VERSION 0.7
FIELDS x y z
SIZE 4 4 4
TYPE F F F
COUNT 1 1 1
WIDTH 165
HEIGHT 1
VIEWPOINT 0 0 0 1 0 0 0
POINTS 165
DATA ascii
123.81 11.15 -11.93 
124.30 10.94 -11.77 
125.00 10.76 -11.99 
126.10 11.06 -12.39 
125.68 10.86 -12.16 
126.55 11.00 -12.53 
126.42 10.48 -12.18 
127.40 11.15 -13.17 
127.10 10.72 -12.64 
128.10 11.14 -13.80 
127.93 10.90 -13.21 
127.89 10.54 -12.81 
128.68 10.89 -13.93 
128.46 10.61 -13.26 
129.18 10.62 -13.93 
136.41 11.01 -11.72 
136.77 11.08 -13.94 
136.93 10.86 -13.20 
136.95 10.88 -12.70 
136.98 10.75 -11.91 
136.95 10.78 -11.37 
137.34 10.85 -13.15 
137.33 10.82 -12.15 
137.39 10.50 -11.06 
139.57 10.87 -9.10 
123.19 11.62 -11.84 
123.70 11.37 -11.85 
124.21 11.46 -12.05 
125.14 11.75 -12.52 
124.89 11.24 -12.14 
125.71 11.45 -12.67 
126.42 11.81 -13.72 
126.51 11.64 -13.17 
126.37 11.25 -12.68 
127.17 11.70 -13.87 
127.15 11.36 -13.29 
127.70 11.41 -13.94 
128.41 11.23 -14.22 
135.76 11.39 -13.09 
135.54 11.71 -12.73 
135.79 11.32 -11.72 
136.23 11.34 -13.79 
136.22 11.35 -13.19 
136.21 11.36 -12.60 
136.20 11.37 -12.00 
139.77 11.55 -8.91 
122.15 12.40 -14.28 
122.16 12.05 -11.77 
122.76 12.04 -13.91 
123.26 12.50 -12.74 
123.12 11.88 -12.04 
123.79 12.45 -12.59 
123.35 12.00 -12.10 
124.31 12.22 -12.64 
125.23 12.43 -13.30 
124.98 12.04 -12.73 
125.85 12.37 -13.78 
125.79 12.13 -13.29 
125.43 12.09 -13.01 
126.56 12.00 -13.80 
126.20 11.90 -13.29 
134.86 12.05 -13.21 
134.86 12.05 -12.72 
122.63 13.27 -13.50 
122.47 13.14 -12.77 
122.95 12.83 -14.12 
122.95 12.81 -13.23 
123.03 12.93 -12.64 
123.72 13.23 -13.22 
123.66 12.67 -12.74 
124.54 13.18 -13.92 
124.38 12.86 -13.31 
125.10 12.86 -13.92 
124.85 12.62 -13.33 
125.55 12.61 -13.88 
122.63 13.84 -13.19 
122.38 13.33 -12.68 
123.00 14.00 -13.95 
123.06 13.62 -13.33 
123.73 13.63 -13.93 
123.58 13.37 -13.35 
124.17 13.49 -14.19 
122.43 14.33 -13.83 
122.19 14.05 -13.15 
123.00 14.00 -13.95 
141.84 14.51 -14.12 
141.99 15.35 -11.86 
142.13 15.22 -11.23 
142.08 15.14 -10.62 
142.22 14.81 -10.09 
142.53 15.02 -12.54 
142.36 15.15 -11.86 
142.44 15.05 -11.25 
142.35 15.22 -10.61 
142.20 15.33 -9.90 
140.06 15.88 -14.11 
140.57 15.61 -14.10 
140.76 15.89 -11.89 
140.59 15.96 -11.37 
140.77 15.89 -10.59 
141.24 15.79 -11.86 
141.17 15.76 -11.37 
141.13 15.70 -10.63 
141.10 15.92 -10.05 
141.81 15.55 -11.81 
141.80 15.56 -11.33 
141.62 15.62 -10.69 
141.64 15.63 -9.98 
141.81 15.68 -9.47 
142.26 15.38 -9.80 
139.24 16.69 -13.85 
139.24 16.68 -13.30 
139.24 16.67 -12.75 
139.23 16.88 -11.87 
139.24 16.65 -11.08 
139.24 16.64 -10.52 
139.24 16.63 -9.96 
139.41 16.38 -9.47 
139.87 16.48 -14.05 
139.85 16.49 -13.28 
139.89 16.34 -12.55 
139.85 16.54 -11.87 
139.83 16.68 -11.36 
139.71 16.66 -10.61 
139.81 16.70 -10.11 
139.78 16.75 -9.49 
140.34 16.20 -13.92 
140.14 16.21 -13.12 
140.34 16.18 -12.90 
140.52 16.25 -11.90 
140.44 16.28 -11.23 
140.49 16.10 -10.68 
140.59 16.28 -10.02 
140.55 16.34 -9.38 
140.87 16.13 -11.75 
140.85 16.14 -11.04 
140.84 16.16 -10.32 
140.83 16.17 -9.60 
138.36 17.23 -14.04 
138.35 17.24 -13.50 
138.35 17.24 -12.58 
138.64 17.23 -11.85 
138.70 17.22 -11.36 
139.24 16.69 -13.85 
139.23 16.80 -13.25 
139.23 16.80 -12.76 
139.16 16.94 -11.89 
139.16 16.99 -11.30 
139.15 17.00 -10.81 
139.46 16.96 -9.45 
137.73 17.54 -14.02 
137.39 17.52 -13.46 
137.73 17.55 -12.95 
135.78 29.81 -14.16 
136.14 30.07 -13.80 
136.30 30.01 -13.71 
134.96 30.58 -14.06 
135.03 30.67 -13.57 
135.37 30.45 -14.02 
135.36 30.47 -13.46 
135.98 30.32 -13.90 
133.45 31.10 -13.94 
134.01 31.29 -13.92 
133.34 31.69 -13.95 
133.94 31.50 -13.92 
