# .PCD v0.7 - Point Cloud Data file format
VERSION 0.7
FIELDS x y z
SIZE 4 4 4
TYPE F F F
COUNT 1 1 1
WIDTH 117
HEIGHT 1
VIEWPOINT 0 0 0 1 0 0 0
POINTS 117
DATA ascii
149.94 -114.03 -15.53 
146.72 -112.45 -15.62 
147.93 -112.40 -15.55 
148.37 -112.07 -15.64 
146.83 -111.96 -15.62 
148.13 -111.74 -15.58 
145.93 -110.73 -15.70 
147.12 -111.05 -15.61 
147.58 -110.83 -15.65 
147.06 -110.47 -15.60 
147.62 -110.28 -15.58 
148.57 -110.32 -15.55 
147.26 -109.56 -15.65 
147.56 -109.81 -15.66 
146.46 -108.61 -15.55 
145.90 -107.31 -15.64 
146.49 -107.34 -15.64 
147.36 -107.16 -15.56 
144.71 -106.92 -15.75 
145.33 -106.63 -15.75 
145.71 -106.68 -15.63 
146.34 -106.91 -15.64 
147.19 -106.62 -15.55 
144.65 -106.29 -15.73 
145.16 -105.80 -15.73 
145.97 -106.14 -15.67 
146.15 -106.03 -15.64 
147.47 -105.82 -15.70 
147.57 -106.13 -15.70 
144.40 -105.20 -15.80 
145.06 -105.31 -15.73 
145.72 -105.38 -15.67 
146.68 -105.19 -15.64 
143.90 -104.98 -15.81 
144.51 -104.53 -15.70 
144.94 -104.67 -15.72 
145.55 -104.64 -15.66 
146.39 -104.39 -15.63 
143.78 -104.27 -15.80 
144.45 -103.97 -15.69 
145.32 -103.98 -15.67 
145.42 -104.04 -15.69 
146.29 -104.06 -15.61 
143.64 -103.57 -15.78 
144.39 -103.42 -15.68 
145.17 -103.56 -15.68 
144.30 -102.86 -15.67 
145.04 -100.26 -15.58 
143.09 -99.49 -15.70 
143.47 -99.41 -15.73 
142.93 -98.92 -15.69 
143.34 -99.26 -15.71 
142.86 -98.38 -15.73 
143.51 -98.30 -15.86 
144.05 -98.10 -15.72 
142.77 -97.79 -15.72 
143.84 -97.54 -15.71 
144.55 -96.76 -15.64 
142.76 -96.04 -15.60 
143.44 -96.46 -15.68 
143.16 -95.73 -15.73 
142.68 -94.53 -15.73 
150.18 -94.88 -15.29 
143.52 -94.23 -15.61 
150.06 -94.13 -15.15 
150.06 -94.13 -15.15 
150.04 -93.44 -15.23 
143.02 -93.05 -15.60 
150.03 -92.76 -15.16 
150.03 -92.76 -15.16 
150.20 -92.06 -15.23 
150.06 -92.31 -15.16 
153.53 -91.78 -15.37 
153.66 -91.86 -15.19 
153.80 -91.78 -13.93 
153.86 -92.12 -15.19 
150.17 -91.50 -15.26 
153.50 -91.38 -15.20 
153.34 -91.21 -14.73 
153.34 -91.19 -13.99 
153.35 -91.20 -13.31 
153.91 -91.41 -15.35 
154.14 -91.32 -14.85 
154.14 -91.31 -14.08 
154.70 -91.59 -15.26 
154.63 -91.68 -14.84 
154.62 -91.68 -14.07 
155.82 -91.12 -15.37 
155.77 -91.29 -14.83 
155.76 -91.28 -14.05 
156.07 -91.17 -15.27 
156.05 -91.17 -14.54 
156.03 -91.17 -13.80 
156.62 -91.01 -15.06 
153.50 -90.67 -15.27 
153.50 -90.66 -14.60 
153.49 -90.64 -13.93 
153.26 -90.58 -13.29 
154.17 -90.78 -15.46 
154.02 -90.69 -14.72 
154.03 -90.68 -14.01 
154.18 -90.77 -13.28 
155.37 -90.37 -14.73 
155.38 -90.37 -13.98 
152.96 -89.94 -15.47 
153.07 -89.78 -14.61 
153.07 -89.77 -13.95 
153.31 -90.13 -15.29 
153.49 -90.13 -14.65 
153.30 -90.10 -13.94 
154.51 -89.92 -15.21 
154.08 -89.79 -15.12 
154.07 -89.77 -14.24 
154.52 -89.91 -14.55 
154.52 -89.90 -13.89 
155.29 -90.26 -14.73 
155.29 -90.26 -13.99 
