# .PCD v0.7 - Point Cloud Data file format
VERSION 0.7
FIELDS x y z
SIZE 4 4 4
TYPE F F F
COUNT 1 1 1
WIDTH 130
HEIGHT 1
VIEWPOINT 0 0 0 1 0 0 0
POINTS 130
DATA ascii
152.74 -89.29 -15.46 
152.75 -89.28 -14.74 
152.75 -89.28 -14.01 
152.76 -89.27 -13.29 
155.00 -89.44 -15.17 
155.00 -89.41 -14.25 
156.58 -89.35 -14.73 
157.30 -89.52 -15.65 
152.54 -88.44 -15.15 
152.53 -88.65 -14.74 
152.54 -88.64 -14.03 
152.54 -88.64 -13.31 
153.38 -88.25 -15.48 
153.38 -88.25 -14.74 
153.38 -88.24 -14.01 
153.39 -88.24 -13.28 
155.30 -88.12 -14.73 
156.01 -88.63 -14.75 
156.00 -88.59 -13.79 
152.97 -87.76 -15.16 
154.54 -87.85 -15.50 
154.55 -87.85 -14.75 
154.55 -87.84 -13.99 
154.55 -87.84 -13.23 
155.30 -88.10 -13.77 
155.56 -87.45 -14.77 
153.00 -86.90 -15.02 
152.67 -86.76 -14.91 
152.67 -86.75 -14.10 
152.67 -86.75 -13.28 
153.77 -87.00 -15.21 
153.79 -86.99 -14.26 
153.81 -86.98 -13.31 
153.99 -87.39 -15.18 
154.00 -87.38 -14.16 
155.55 -87.41 -13.79 
158.27 -86.79 -15.36 
158.27 -86.78 -14.38 
153.10 -86.21 -14.91 
153.11 -86.21 -14.10 
153.11 -86.20 -13.28 
153.97 -86.52 -15.03 
153.99 -86.51 -14.14 
154.00 -86.50 -13.25 
154.70 -86.58 -15.23 
154.72 -86.57 -14.26 
154.74 -86.56 -13.30 
158.48 -86.58 -15.62 
158.47 -86.58 -14.61 
159.25 -86.31 -15.61 
159.24 -86.30 -14.61 
159.74 -86.23 -14.37 
154.09 -85.82 -14.92 
154.10 -85.81 -14.09 
154.10 -85.81 -13.25 
159.65 -86.02 -15.52 
160.47 -85.71 -15.51 
160.47 -85.71 -14.45 
156.95 -75.36 -14.85 
156.95 -75.35 -14.04 
156.70 -74.66 -14.67 
152.00 -72.67 -14.89 
153.33 -72.16 -14.82 
154.51 -72.03 -14.85 
150.31 -71.50 -14.80 
150.36 -71.58 -14.19 
148.67 -70.62 -14.91 
148.67 -70.62 -14.23 
149.99 -70.87 -14.76 
147.43 -70.00 -14.26 
147.96 -70.31 -14.25 
149.77 -70.44 -14.87 
146.91 -69.70 -14.27 
148.26 -69.69 -14.79 
145.26 -68.61 -14.26 
145.90 -69.12 -14.28 
146.61 -68.60 -14.95 
148.62 -68.69 -14.20 
149.20 -69.02 -14.19 
143.95 -68.03 -14.32 
144.61 -68.32 -14.30 
147.53 -68.02 -14.22 
148.09 -68.34 -14.21 
143.03 -67.50 -14.33 
143.67 -67.78 -14.95 
143.67 -67.78 -14.32 
145.02 -67.60 -15.00 
146.44 -67.41 -14.24 
146.98 -67.71 -14.23 
167.07 -67.22 -14.84 
167.25 -67.13 -13.76 
143.13 -66.69 -15.02 
145.41 -66.82 -14.26 
145.92 -67.11 -14.25 
165.66 -66.49 -14.91 
166.15 -66.70 -14.85 
166.28 -66.53 -13.66 
166.75 -66.92 -13.83 
166.77 -66.57 -12.78 
143.46 -65.73 -14.29 
143.94 -66.00 -14.28 
144.41 -66.24 -14.27 
164.30 -65.83 -14.93 
164.46 -65.74 -13.90 
164.96 -65.80 -14.65 
164.93 -65.89 -13.87 
165.32 -66.16 -14.86 
165.49 -66.07 -13.80 
165.82 -66.04 -12.81 
165.97 -65.82 -12.72 
166.83 -66.36 -12.69 
142.99 -65.46 -14.29 
163.60 -65.18 -14.87 
163.75 -65.09 -13.84 
164.41 -65.65 -14.76 
164.11 -65.37 -13.89 
163.99 -65.04 -12.88 
164.61 -65.57 -13.82 
165.07 -65.33 -12.75 
165.38 -65.67 -12.80 
165.92 -65.72 -12.58 
162.76 -64.71 -14.88 
162.91 -64.61 -13.86 
163.10 -64.97 -14.92 
163.46 -64.74 -13.60 
163.66 -64.66 -12.86 
164.18 -64.84 -12.78 
164.61 -64.74 -11.80 
166.39 -64.97 -14.89 
166.58 -64.89 -13.81 
