# .PCD v0.7 - Point Cloud Data file format
VERSION 0.7
FIELDS x y z
SIZE 4 4 4
TYPE F F F
COUNT 1 1 1
WIDTH 771
HEIGHT 1
VIEWPOINT 0 0 0 1 0 0 0
POINTS 771
DATA ascii
161.14 -63.79 -14.90 
161.59 -63.95 -13.94 
161.96 -64.28 -14.78 
161.95 -64.26 -13.95 
162.10 -64.18 -13.75 
162.31 -64.06 -12.93 
162.51 -64.40 -14.68 
162.41 -64.41 -13.92 
162.65 -64.28 -13.62 
162.47 -63.91 -12.84 
163.35 -64.30 -12.67 
163.37 -63.87 -11.83 
163.94 -64.37 -12.50 
163.89 -64.04 -11.74 
164.50 -63.90 -14.90 
164.77 -64.51 -11.69 
160.19 -63.43 -14.96 
160.41 -63.38 -14.80 
160.49 -63.24 -13.91 
160.65 -63.15 -12.99 
161.14 -63.79 -14.90 
161.28 -63.69 -13.89 
161.31 -63.72 -13.77 
161.47 -63.60 -12.96 
161.85 -63.83 -13.63 
161.95 -63.73 -12.92 
162.03 -63.28 -11.92 
162.89 -63.75 -11.88 
163.60 -63.38 -14.90 
163.08 -63.48 -11.60 
163.77 -63.30 -13.87 
163.91 -63.21 -10.76 
164.68 -63.82 -13.85 
165.14 -63.62 -12.78 
158.83 -62.50 -14.92 
159.11 -62.70 -14.95 
159.23 -62.61 -13.98 
159.55 -62.49 -13.68 
159.65 -62.94 -14.81 
159.77 -62.84 -13.80 
160.02 -62.56 -13.63 
160.05 -62.57 -12.92 
160.80 -63.00 -13.62 
160.84 -63.01 -12.90 
160.85 -62.51 -11.95 
161.49 -63.02 -12.58 
161.19 -62.83 -11.96 
161.43 -62.59 -11.68 
162.03 -63.28 -11.92 
162.25 -63.03 -11.64 
162.72 -62.88 -14.90 
162.99 -62.76 -10.82 
163.28 -62.60 -12.85 
163.24 -62.46 -10.68 
164.20 -63.10 -12.81 
157.90 -62.12 -14.97 
157.73 -61.79 -14.01 
158.38 -61.82 -14.73 
158.20 -61.98 -13.96 
158.50 -61.76 -12.97 
159.14 -62.25 -14.72 
158.95 -62.41 -13.94 
159.25 -62.13 -13.65 
159.26 -62.18 -12.95 
159.94 -62.12 -12.62 
159.75 -61.84 -11.92 
160.42 -62.14 -12.53 
160.55 -62.23 -11.89 
161.07 -61.88 -14.91 
161.26 -62.08 -11.49 
161.29 -61.84 -10.92 
161.85 -62.39 -14.91 
162.02 -62.00 -14.46 
162.17 -62.27 -10.87 
163.02 -61.88 -14.60 
162.39 -62.12 -12.88 
163.00 -61.82 -11.81 
162.68 -62.35 -10.79 
163.62 -61.95 -14.37 
163.29 -61.83 -13.52 
163.91 -61.87 -13.29 
163.91 -62.31 -11.77 
164.67 -61.77 -14.10 
156.17 -61.06 -14.97 
156.75 -61.15 -13.98 
157.17 -61.69 -14.97 
157.00 -61.37 -14.02 
156.97 -60.83 -13.70 
157.26 -61.18 -13.07 
157.62 -61.39 -14.74 
157.47 -61.56 -13.97 
157.72 -61.26 -13.68 
157.75 -61.34 -12.99 
158.02 -61.11 -12.10 
158.48 -61.69 -13.67 
158.85 -61.28 -12.58 
158.47 -61.26 -12.05 
159.25 -61.64 -12.01 
160.25 -61.41 -14.92 
159.63 -61.71 -12.56 
160.10 -61.07 -10.94 
160.64 -61.26 -14.48 
160.74 -61.15 -12.93 
160.48 -61.63 -11.52 
160.65 -61.21 -10.83 
161.59 -61.61 -12.90 
161.49 -61.60 -10.78 
161.75 -61.21 -14.62 
162.00 -61.16 -13.56 
162.18 -61.31 -11.85 
162.46 -61.34 -14.39 
162.72 -61.27 -13.33 
163.55 -61.21 -14.12 
163.95 -61.08 -13.05 
155.22 -60.44 -14.95 
155.92 -60.84 -14.94 
156.03 -60.74 -14.00 
155.81 -60.37 -13.11 
156.14 -60.57 -14.76 
156.13 -60.71 -13.87 
156.56 -60.80 -13.74 
156.43 -60.42 -12.88 
156.95 -60.89 -14.77 
156.97 -60.83 -13.70 
156.90 -60.44 -12.71 
157.23 -60.72 -12.13 
157.64 -60.85 -12.69 
157.72 -60.84 -12.08 
158.11 -60.38 -11.61 
158.66 -60.51 -14.93 
158.21 -60.99 -11.99 
158.78 -60.60 -11.06 
159.44 -60.96 -14.92 
158.89 -60.79 -11.58 
159.04 -60.37 -10.91 
159.91 -60.69 -12.96 
159.59 -61.00 -11.02 
159.84 -60.78 -10.87 
160.53 -60.58 -14.63 
160.77 -60.53 -13.60 
160.46 -60.39 -11.93 
161.34 -60.76 -14.40 
161.56 -60.69 -13.38 
161.53 -60.38 -12.53 
161.31 -60.84 -11.89 
162.57 -60.64 -14.13 
162.94 -60.52 -13.08 
162.38 -60.48 -12.30 
153.64 -59.72 -15.00 
154.32 -60.11 -14.99 
154.63 -59.95 -14.02 
154.63 -59.85 -13.16 
154.62 -60.01 -14.86 
154.72 -59.90 -13.90 
155.10 -59.98 -13.13 
155.40 -60.15 -14.77 
155.42 -60.30 -13.88 
155.50 -59.89 -13.70 
155.57 -60.13 -13.06 
155.77 -59.91 -12.19 
156.27 -60.32 -13.69 
156.57 -60.03 -12.63 
156.25 -60.03 -12.13 
157.13 -59.64 -14.93 
156.84 -60.03 -11.85 
157.18 -59.81 -11.15 
157.95 -59.77 -14.51 
157.78 -59.91 -14.11 
157.71 -59.88 -11.07 
158.22 -59.87 -14.51 
158.46 -59.83 -13.50 
158.30 -59.82 -13.01 
158.58 -60.28 -11.47 
158.25 -59.96 -10.96 
159.22 -59.67 -14.44 
159.10 -60.25 -12.98 
160.26 -60.20 -14.42 
159.63 -59.94 -11.97 
160.12 -59.70 -9.90 
160.47 -60.14 -13.41 
160.29 -59.77 -12.60 
161.24 -59.92 -12.36 
161.36 -59.89 -10.84 
161.07 -60.06 -9.83 
162.30 -59.63 -11.25 
162.27 -60.33 -10.79 
162.60 -59.74 -12.04 
152.32 -58.96 -15.00 
152.98 -59.34 -15.00 
153.26 -59.09 -13.20 
153.94 -59.31 -14.79 
153.34 -59.11 -13.92 
153.71 -59.21 -13.16 
154.65 -59.60 -14.80 
154.03 -59.50 -13.91 
154.20 -59.33 -13.09 
154.29 -59.22 -12.93 
154.60 -58.96 -12.12 
154.76 -59.60 -13.74 
155.07 -59.19 -12.67 
155.06 -59.52 -12.22 
155.42 -59.62 -12.74 
155.81 -59.18 -11.69 
155.68 -59.03 -11.22 
156.40 -59.22 -14.94 
156.24 -59.08 -14.15 
156.43 -59.42 -11.18 
157.02 -59.24 -14.53 
157.25 -59.20 -13.54 
156.77 -58.97 -13.05 
156.95 -59.48 -11.10 
158.06 -59.07 -12.52 
158.03 -59.08 -12.04 
157.61 -59.32 -10.76 
158.47 -59.34 -13.68 
158.82 -59.50 -12.01 
158.18 -59.09 -10.48 
158.35 -58.97 -10.03 
159.53 -59.14 -14.19 
159.42 -59.60 -13.45 
159.11 -59.19 -12.66 
158.98 -59.50 -10.45 
159.20 -59.35 -9.97 
160.14 -59.38 -12.42 
159.95 -59.00 -11.59 
159.69 -58.99 -10.94 
159.89 -59.27 -9.85 
160.51 -59.62 -14.17 
160.55 -59.41 -10.89 
160.61 -59.19 -9.69 
161.23 -59.57 -11.50 
151.45 -58.34 -15.01 
152.23 -58.52 -14.81 
151.98 -58.33 -13.94 
152.15 -58.19 -13.14 
152.92 -58.91 -14.80 
152.66 -58.72 -13.93 
152.82 -58.57 -13.13 
152.90 -58.44 -12.96 
152.98 -58.37 -12.29 
153.29 -58.77 -13.76 
153.28 -58.45 -12.79 
153.89 -58.58 -12.15 
154.32 -58.77 -12.69 
153.96 -58.43 -11.94 
154.18 -58.32 -11.29 
155.32 -58.37 -14.54 
154.67 -58.33 -14.18 
155.10 -58.30 -13.17 
154.67 -58.83 -11.92 
154.90 -58.69 -11.26 
155.88 -58.63 -14.54 
155.57 -58.33 -13.56 
156.02 -58.56 -13.07 
155.40 -58.75 -11.18 
156.37 -58.31 -13.74 
156.49 -58.24 -12.10 
156.14 -58.47 -10.81 
156.57 -58.34 -10.15 
157.26 -58.65 -14.47 
157.44 -58.58 -13.52 
156.84 -58.46 -12.58 
157.25 -58.65 -12.07 
156.85 -58.92 -10.79 
157.21 -58.27 -10.03 
158.06 -58.37 -12.53 
157.77 -58.30 -11.53 
157.51 -58.61 -10.08 
158.59 -58.67 -14.20 
158.84 -58.56 -13.22 
158.84 -58.57 -10.99 
158.73 -58.55 -9.83 
159.08 -58.87 -12.48 
159.50 -58.29 -12.20 
159.03 -58.89 -9.91 
159.85 -58.62 -11.43 
159.59 -58.92 -9.77 
160.50 -58.76 -12.15 
161.56 -58.34 -11.05 
150.93 -57.86 -15.01 
150.92 -57.60 -13.84 
151.06 -57.71 -13.22 
151.53 -58.12 -14.82 
151.61 -58.00 -13.83 
151.48 -57.82 -13.16 
151.55 -57.70 -12.99 
151.66 -57.61 -12.33 
152.15 -58.19 -13.14 
152.21 -58.06 -12.98 
152.52 -57.82 -12.19 
152.85 -57.94 -12.72 
153.26 -58.04 -11.96 
152.79 -57.56 -11.35 
153.32 -57.59 -14.21 
153.68 -57.57 -13.23 
153.63 -58.01 -11.75 
153.47 -57.95 -11.32 
154.11 -57.72 -14.56 
154.63 -58.13 -14.28 
154.58 -57.80 -13.11 
153.98 -57.98 -11.24 
154.65 -57.70 -10.87 
154.80 -58.05 -14.56 
155.10 -58.30 -13.17 
155.09 -57.59 -12.61 
154.73 -58.21 -11.58 
155.07 -57.58 -10.24 
155.50 -57.68 -14.50 
155.67 -57.61 -13.58 
155.88 -57.65 -12.81 
155.75 -57.88 -12.13 
155.39 -58.08 -10.84 
155.60 -57.57 -10.13 
156.41 -58.14 -14.49 
156.58 -58.07 -13.55 
156.51 -57.72 -11.62 
156.40 -57.92 -10.08 
156.99 -57.67 -13.28 
157.17 -57.86 -12.57 
157.21 -57.76 -11.08 
157.07 -57.82 -9.93 
157.90 -58.11 -13.25 
157.67 -57.97 -11.75 
158.02 -58.16 -11.04 
157.89 -58.18 -9.88 
158.53 -57.84 -12.25 
158.75 -58.14 -11.50 
160.47 -57.89 -11.12 
160.32 -57.65 -9.81 
150.87 -57.48 -14.86 
151.13 -57.52 -13.80 
150.94 -57.33 -13.77 
151.40 -56.87 -15.00 
151.38 -57.11 -12.74 
151.42 -57.34 -12.29 
152.04 -56.90 -14.24 
152.34 -56.87 -13.29 
152.11 -57.53 -12.73 
151.89 -57.29 -12.00 
152.38 -56.89 -11.21 
152.96 -57.11 -14.58 
152.99 -57.27 -14.31 
153.17 -57.07 -13.65 
153.09 -57.25 -11.19 
153.19 -56.93 -10.93 
153.76 -57.49 -14.57 
153.96 -57.45 -13.65 
153.85 -56.97 -12.68 
153.92 -57.31 -10.90 
154.62 -57.23 -14.51 
154.57 -57.32 -12.70 
154.31 -57.08 -12.18 
154.36 -57.10 -10.62 
154.33 -57.20 -10.28 
155.07 -56.97 -14.26 
154.78 -57.16 -13.60 
154.89 -57.16 -12.86 
155.02 -57.47 -12.16 
155.11 -57.51 -10.60 
154.85 -57.20 -10.17 
155.93 -57.34 -14.25 
155.59 -56.95 -11.88 
155.67 -57.00 -11.16 
155.49 -57.10 -10.02 
156.11 -57.25 -13.31 
156.21 -57.40 -12.62 
156.70 -56.97 -12.34 
156.43 -57.40 -11.12 
156.29 -57.44 -9.97 
156.83 -57.17 -11.63 
157.60 -57.40 -12.29 
158.01 -57.06 -10.72 
158.41 -57.03 -11.25 
158.43 -56.95 -9.95 
159.42 -57.45 -11.19 
159.28 -57.11 -10.44 
159.36 -57.30 -9.88 
150.83 -56.25 -14.27 
151.56 -56.50 -14.96 
151.47 -56.47 -14.34 
151.82 -56.48 -13.20 
151.46 -56.78 -12.20 
151.85 -56.44 -11.36 
151.98 -56.50 -14.59 
152.19 -56.46 -13.68 
152.51 -56.27 -12.80 
151.99 -56.14 -12.37 
152.50 -56.57 -10.95 
152.95 -56.36 -14.54 
153.09 -56.29 -13.66 
153.02 -56.22 -12.95 
152.91 -56.31 -12.23 
152.92 -56.45 -10.34 
153.77 -56.79 -14.53 
153.47 -56.16 -14.28 
153.92 -56.72 -13.63 
153.94 -56.68 -12.90 
153.61 -56.69 -12.21 
153.62 -56.69 -10.65 
153.92 -56.42 -10.11 
154.26 -56.56 -14.27 
154.41 -56.47 -13.36 
154.40 -56.52 -12.71 
154.27 -56.61 -11.78 
154.19 -56.23 -11.23 
154.10 -56.83 -10.21 
154.95 -56.19 -12.42 
155.01 -56.26 -11.75 
154.93 -56.61 -11.19 
154.70 -56.76 -10.06 
155.80 -56.60 -12.38 
155.88 -56.72 -11.69 
155.76 -56.28 -10.70 
155.97 -56.30 -9.66 
156.48 -56.26 -11.38 
156.73 -56.24 -10.06 
157.44 -56.62 -11.32 
156.88 -56.57 -10.82 
157.56 -56.62 -10.01 
158.19 -56.66 -10.53 
159.79 -56.41 -10.11 
149.46 -55.66 -15.18 
149.72 -55.73 -14.05 
149.99 -55.53 -14.62 
150.05 -55.73 -14.37 
150.32 -55.71 -13.41 
150.92 -55.95 -14.61 
150.53 -55.51 -13.21 
150.74 -55.51 -12.45 
151.62 -55.97 -14.74 
151.51 -55.48 -13.70 
151.68 -55.80 -12.80 
151.55 -55.56 -12.28 
152.15 -55.95 -14.55 
152.16 -55.79 -13.91 
152.29 -55.44 -13.13 
152.13 -55.78 -12.99 
152.22 -55.69 -11.91 
152.11 -55.94 -10.69 
152.51 -55.65 -10.17 
152.69 -55.77 -14.29 
152.83 -55.69 -13.41 
152.70 -55.69 -12.79 
152.71 -55.57 -12.07 
152.71 -55.53 -11.30 
153.11 -56.02 -10.47 
153.11 -56.02 -10.47 
153.61 -56.08 -13.38 
153.54 -56.10 -12.75 
153.62 -56.02 -12.01 
153.42 -55.90 -11.27 
154.13 -55.80 -12.45 
154.12 -55.84 -11.81 
154.65 -55.67 -11.00 
154.57 -55.77 -10.80 
154.36 -55.61 -9.74 
154.72 -55.48 -11.49 
155.07 -55.55 -10.17 
155.59 -55.86 -11.43 
155.70 -56.12 -10.92 
155.91 -55.88 -10.12 
156.13 -55.80 -10.71 
157.75 -55.64 -10.28 
158.75 -56.00 -10.20 
149.24 -55.04 -14.63 
149.32 -54.94 -14.07 
149.33 -54.93 -13.09 
149.59 -54.76 -12.91 
149.91 -54.84 -14.58 
150.03 -54.76 -13.74 
150.36 -54.81 -11.56 
150.62 -55.16 -14.57 
150.75 -55.08 -13.72 
150.61 -55.27 -12.86 
150.91 -55.17 -12.30 
151.20 -55.02 -14.31 
151.32 -54.94 -13.45 
151.27 -55.35 -13.03 
151.33 -55.13 -11.92 
151.63 -55.41 -11.46 
151.94 -55.39 -14.30 
152.07 -55.31 -13.43 
152.54 -55.04 -12.52 
152.44 -55.03 -11.91 
152.01 -55.16 -11.33 
152.34 -55.35 -10.25 
153.01 -54.76 -11.59 
152.66 -54.87 -10.89 
152.89 -54.86 -9.79 
153.32 -55.41 -12.49 
153.27 -55.43 -11.86 
153.65 -55.24 -11.09 
153.94 -55.41 -10.77 
153.63 -55.24 -9.76 
154.29 -54.96 -10.85 
154.32 -55.17 -10.21 
155.24 -55.36 -10.78 
155.90 -54.85 -10.42 
156.52 -55.05 -9.84 
156.81 -55.24 -10.35 
149.28 -54.69 -14.76 
149.68 -54.16 -14.06 
149.49 -54.24 -13.45 
149.63 -54.21 -12.92 
149.71 -54.18 -12.08 
150.02 -54.15 -14.30 
150.03 -54.14 -13.40 
150.04 -54.13 -12.49 
150.32 -54.60 -11.99 
150.04 -54.12 -11.59 
150.47 -54.66 -14.32 
150.72 -54.39 -13.18 
151.02 -54.31 -12.58 
150.87 -54.32 -12.00 
150.74 -54.36 -11.37 
151.77 -54.67 -12.55 
151.63 -54.64 -11.96 
151.45 -54.36 -11.00 
152.50 -54.21 -10.99 
152.25 -54.58 -10.46 
153.11 -54.20 -13.10 
153.13 -54.17 -12.13 
153.14 -54.15 -11.15 
152.86 -54.43 -10.29 
153.15 -54.13 -10.17 
153.38 -54.58 -10.92 
154.07 -54.15 -10.56 
154.05 -54.31 -10.10 
154.93 -54.51 -10.49 
155.25 -54.67 -9.98 
156.21 -54.10 -9.68 
148.36 -53.65 -15.18 
148.43 -53.60 -14.35 
148.54 -53.52 -13.52 
149.16 -53.73 -14.59 
149.11 -53.94 -14.34 
149.22 -53.86 -13.50 
149.17 -53.71 -12.93 
149.41 -53.90 -12.26 
150.15 -53.34 -14.63 
150.03 -53.88 -13.81 
150.39 -53.36 -13.39 
149.90 -53.45 -12.50 
150.12 -53.95 -12.04 
150.05 -53.62 -11.36 
150.76 -53.65 -11.70 
150.89 -53.54 -11.11 
150.87 -54.00 -10.60 
151.46 -54.03 -11.67 
151.46 -53.68 -10.36 
151.69 -53.56 -10.13 
152.40 -53.44 -10.67 
152.19 -53.48 -10.27 
153.02 -53.99 -13.02 
153.04 -53.95 -12.02 
153.06 -53.92 -11.01 
153.22 -53.79 -10.62 
153.08 -53.88 -10.00 
153.96 -53.49 -9.90 
155.06 -53.79 -9.79 
148.90 -53.26 -12.66 
149.71 -52.65 -14.58 
149.72 -52.64 -13.73 
149.31 -52.97 -11.78 
150.24 -53.21 -14.63 
150.34 -52.70 -14.39 
150.35 -52.69 -13.43 
150.26 -53.19 -12.87 
150.17 -53.32 -12.04 
150.10 -53.18 -11.16 
150.37 -52.73 -10.44 
150.47 -53.08 -12.76 
150.86 -52.74 -10.77 
150.87 -53.01 -10.13 
151.26 -53.10 -10.36 
152.06 -52.91 -10.08 
153.01 -53.22 -9.99 
153.84 -52.68 -10.97 
153.86 -52.65 -9.94 
148.99 -52.37 -14.34 
149.00 -52.37 -13.48 
149.00 -52.36 -12.63 
149.01 -52.35 -11.77 
149.73 -52.63 -12.88 
149.73 -52.62 -12.03 
149.73 -52.61 -11.17 
149.34 -52.10 -10.87 
150.35 -52.02 -14.77 
150.36 -52.00 -13.03 
150.37 -51.99 -12.16 
150.38 -51.98 -11.28 
150.38 -51.97 -10.41 
150.30 -52.28 -10.23 
150.90 -52.25 -13.79 
150.82 -52.55 -13.37 
150.70 -52.35 -12.84 
150.65 -52.42 -11.99 
150.66 -52.41 -11.10 
150.84 -52.52 -10.59 
150.72 -52.32 -10.14 
151.91 -52.27 -13.09 
151.93 -52.25 -12.14 
151.94 -52.23 -11.18 
151.95 -52.21 -10.22 
153.27 -52.02 -9.58 
154.15 -52.34 -9.50 
150.30 -51.51 -14.58 
150.31 -51.50 -13.71 
150.31 -51.49 -12.83 
150.32 -51.48 -11.95 
150.32 -51.47 -11.07 
150.33 -51.46 -10.19 
151.13 -51.50 -14.64 
150.76 -51.89 -14.39 
150.77 -51.88 -13.42 
151.14 -51.50 -12.83 
151.15 -51.49 -11.93 
150.97 -51.73 -11.01 
150.80 -51.85 -10.51 
151.16 -51.47 -10.13 
151.29 -51.41 -14.84 
151.30 -51.42 -13.78 
151.27 -51.72 -13.36 
151.30 -51.42 -12.72 
151.31 -51.42 -11.65 
151.29 -51.69 -10.54 
151.44 -51.47 -9.74 
152.34 -51.74 -9.66 
152.37 -51.80 -9.18 
154.61 -51.54 -9.88 
149.66 -51.02 -14.32 
149.66 -51.01 -13.44 
149.67 -51.00 -12.56 
149.67 -50.99 -11.67 
149.68 -50.99 -10.78 
149.72 -50.95 -9.88 
150.88 -50.98 -14.77 
150.89 -50.96 -12.99 
150.90 -50.95 -12.10 
150.91 -50.95 -11.20 
150.92 -50.94 -10.31 
150.57 -51.21 -9.81 
151.65 -50.64 -14.64 
151.20 -51.05 -14.38 
151.72 -50.86 -13.34 
151.67 -50.62 -12.79 
151.57 -50.56 -11.89 
151.74 -50.84 -11.44 
151.68 -50.60 -10.92 
151.58 -50.54 -10.05 
151.75 -50.82 -9.52 
150.92 -50.30 -14.58 
150.93 -50.29 -13.68 
150.94 -50.28 -12.78 
150.94 -50.27 -11.87 
150.94 -50.26 -10.97 
150.95 -50.24 -10.05 
151.43 -49.91 -14.77 
151.64 -50.20 -14.38 
151.84 -50.06 -13.01 
151.46 -49.88 -12.04 
151.46 -49.87 -11.12 
151.67 -50.17 -10.41 
151.47 -49.86 -10.20 
151.48 -49.85 -9.27 
152.18 -49.99 -14.28 
152.20 -49.97 -12.36 
152.21 -49.96 -11.39 
152.22 -49.95 -10.42 
151.86 -50.03 -9.89 
152.22 -49.94 -9.44 
153.25 -49.89 -12.99 
153.26 -49.87 -11.98 
153.28 -49.85 -10.97 
150.37 -49.57 -14.31 
150.37 -49.57 -13.39 
150.38 -49.56 -12.48 
150.39 -49.55 -11.56 
150.39 -49.54 -10.63 
150.40 -49.53 -9.71 
152.14 -49.71 -14.64 
152.21 -49.70 -13.76 
152.10 -49.56 -12.76 
152.16 -49.68 -11.81 
152.12 -49.30 -11.37 
152.11 -49.54 -10.89 
152.18 -49.66 -9.91 
152.14 -49.29 -9.35 
153.29 -49.83 -9.95 
151.60 -48.99 -12.72 
151.60 -48.98 -11.79 
151.61 -48.97 -10.85 
151.61 -48.96 -9.91 
152.01 -48.77 -14.77 
152.02 -48.76 -12.90 
152.03 -48.75 -11.97 
152.04 -48.74 -11.03 
152.05 -48.73 -10.09 
152.05 -48.72 -9.14 
152.66 -48.73 -12.72 
152.67 -48.72 -11.76 
152.69 -49.05 -11.34 
152.68 -48.71 -10.79 
152.68 -48.49 -9.84 
152.71 -49.03 -9.37 
151.13 -48.02 -14.29 
151.14 -48.00 -12.39 
151.15 -47.99 -11.44 
151.15 -47.98 -10.48 
151.16 -47.97 -9.52 
152.14 -47.75 -14.57 
153.19 -47.73 -12.69 
152.59 -48.41 -12.35 
152.60 -48.40 -11.33 
152.60 -48.40 -10.30 
153.21 -48.09 -9.28 
152.16 -47.72 -12.66 
152.16 -47.72 -11.71 
152.17 -47.70 -10.75 
152.17 -47.69 -9.78 
153.22 -47.43 -14.62 
153.06 -47.51 -14.38 
153.24 -47.42 -12.67 
153.20 -47.72 -11.71 
153.08 -47.48 -11.28 
153.21 -47.71 -10.72 
153.21 -47.70 -9.73 
153.69 -47.16 -12.25 
153.70 -47.15 -11.24 
153.71 -47.13 -10.22 
154.77 -47.19 -11.80 
154.78 -47.17 -10.72 
151.95 -46.34 -12.30 
153.33 -46.37 -14.76 
153.74 -46.69 -12.65 
153.49 -46.56 -12.29 
153.75 -46.68 -11.65 
153.76 -46.67 -10.65 
153.51 -46.54 -10.19 
151.96 -46.33 -11.31 
151.97 -46.32 -10.31 
152.90 -46.28 -12.59 
152.90 -46.27 -11.61 
152.91 -46.26 -10.61 
152.91 -46.25 -9.62 
153.85 -46.27 -12.62 
153.86 -46.26 -11.63 
153.86 -46.25 -10.62 
153.37 -46.32 -9.83 
154.27 -46.19 -14.27 
154.29 -46.16 -12.21 
154.30 -46.15 -11.18 
154.02 -45.04 -14.76 
153.99 -45.60 -14.37 
154.48 -45.08 -12.57 
154.00 -45.58 -12.25 
154.32 -45.60 -11.59 
154.05 -45.00 -10.71 
154.84 -45.13 -12.17 
152.96 -44.48 -14.25 
152.97 -44.47 -13.22 
152.97 -44.46 -12.19 
153.67 -44.77 -14.55 
153.68 -44.75 -13.54 
153.69 -44.74 -12.52 
153.69 -44.73 -11.50 
154.51 -44.59 -14.37 
154.53 -44.58 -12.22 
154.91 -44.49 -12.56 
154.76 -43.62 -13.72 
154.51 -43.12 -14.55 
