# .PCD v0.7 - Point Cloud Data file format
VERSION 0.7
FIELDS x y z
SIZE 4 4 4
TYPE F F F
COUNT 1 1 1
WIDTH 694
HEIGHT 1
VIEWPOINT 0 0 0 1 0 0 0
POINTS 694
DATA ascii
190.69 186.55 -6.96 
190.68 186.56 -5.91 
191.05 186.38 -6.90 
191.41 186.15 -5.89 
190.83 186.46 -4.99 
190.82 186.47 -3.92 
191.61 186.01 -7.11 
191.77 185.98 -5.84 
192.40 186.23 -6.92 
192.29 186.05 -5.88 
189.67 187.12 -6.82 
189.35 187.28 -6.08 
189.66 187.13 -5.75 
189.90 187.01 -4.87 
190.31 186.79 -6.92 
190.09 186.86 -6.07 
190.42 186.71 -5.74 
190.27 186.82 -4.81 
192.45 187.29 -7.16 
188.08 187.98 -6.86 
188.45 187.82 -5.95 
188.05 188.07 -4.86 
188.10 187.95 -4.01 
188.83 187.63 -6.96 
189.18 187.41 -5.94 
189.16 187.42 -4.88 
188.87 187.51 -3.99 
186.99 188.64 -7.03 
187.13 188.55 -6.12 
187.12 188.56 -5.07 
187.11 188.57 -4.01 
187.73 188.23 -7.02 
187.71 188.24 -5.96 
187.29 188.42 -5.80 
187.30 188.49 -4.87 
187.84 188.15 -3.99 
185.67 189.38 -6.15 
185.79 189.33 -4.90 
186.51 188.85 -6.90 
186.24 189.06 -5.99 
186.39 188.98 -5.08 
186.39 188.98 -5.08 
186.37 188.99 -4.03 
186.57 188.90 -5.95 
186.60 188.81 -5.13 
184.37 190.07 -6.24 
184.35 190.08 -5.18 
184.90 189.82 -6.16 
184.66 189.87 -5.23 
184.88 189.83 -5.11 
185.01 189.77 -3.84 
185.51 189.48 -6.01 
185.49 189.49 -4.95 
185.48 189.50 -3.90 
183.29 190.74 -6.05 
183.42 190.66 -5.14 
183.42 190.63 -4.94 
183.41 190.67 -4.09 
184.17 190.24 -6.18 
184.02 190.33 -4.98 
184.25 190.20 -3.84 
181.87 191.50 -6.05 
182.14 191.35 -5.23 
182.54 191.16 -6.06 
182.36 191.19 -5.29 
182.64 191.07 -4.95 
182.51 191.18 -3.94 
180.88 192.05 -6.40 
180.86 192.07 -5.33 
180.84 192.08 -4.27 
181.42 191.76 -6.29 
181.41 191.77 -5.24 
181.59 191.64 -4.24 
181.63 191.62 -6.38 
181.78 191.60 -5.01 
179.51 192.87 -6.12 
179.50 192.88 -5.04 
179.35 192.92 -4.31 
179.93 192.62 -6.32 
179.75 192.74 -5.20 
180.09 192.49 -4.29 
180.28 192.44 -6.11 
180.49 192.32 -5.19 
180.41 192.30 -4.95 
180.39 192.31 -3.86 
191.60 192.95 -0.32 
192.44 192.59 -0.63 
178.65 193.33 -6.45 
178.63 193.34 -5.39 
178.68 193.32 -5.05 
178.61 193.35 -4.33 
179.03 193.16 -6.27 
179.18 193.05 -5.29 
191.22 193.01 -0.41 
191.90 193.23 -4.08 
191.55 193.26 0.32 
192.23 193.61 -4.27 
192.44 193.14 -0.54 
192.44 193.48 0.41 
177.01 194.29 -6.38 
176.99 194.30 -5.33 
177.15 194.21 -4.37 
177.81 193.86 -6.37 
177.72 193.89 -5.31 
177.90 193.76 -5.06 
177.77 193.89 -4.21 
191.78 194.30 -3.22 
191.52 194.01 -3.01 
191.87 193.70 0.33 
192.46 194.10 -0.90 
176.27 194.71 -6.39 
176.26 194.72 -5.34 
176.25 194.73 -4.29 
176.79 194.43 -6.31 
176.77 194.46 -4.18 
190.64 194.58 -3.28 
190.95 194.43 -3.21 
191.59 194.71 -4.31 
191.54 194.62 -3.41 
191.94 194.60 -0.53 
188.83 195.35 -0.66 
190.27 195.43 0.15 
191.23 195.75 0.26 
191.90 195.70 -0.95 
191.74 195.20 -0.78 
192.24 195.41 -0.82 
192.52 195.36 0.24 
187.12 195.84 -1.29 
187.42 196.11 0.96 
188.21 196.22 0.32 
188.54 196.16 0.89 
189.13 196.28 -0.81 
190.00 196.44 -0.87 
189.57 196.27 0.36 
190.25 196.34 -0.69 
190.21 196.24 0.26 
190.80 196.40 -2.21 
191.29 195.88 -0.79 
190.78 196.21 0.13 
191.49 196.20 -3.33 
191.50 195.86 -2.80 
191.67 195.81 -1.57 
191.93 196.19 1.16 
192.25 196.34 -0.88 
187.04 197.02 -1.53 
187.01 196.48 0.84 
187.29 196.97 -2.21 
187.88 196.69 0.46 
188.48 196.58 -0.66 
187.92 197.03 0.23 
189.30 196.52 0.19 
189.44 197.00 -2.15 
189.41 196.82 -1.17 
189.98 196.47 -0.84 
190.24 196.87 -2.21 
190.16 196.64 -1.14 
190.38 197.13 1.27 
191.35 196.98 -3.45 
190.77 196.47 -2.44 
191.27 196.85 -2.11 
190.77 196.92 0.98 
191.95 196.61 -5.14 
191.70 196.75 -2.70 
191.68 196.73 -1.84 
191.82 197.07 -1.02 
191.82 197.00 0.13 
192.25 196.82 0.37 
184.42 197.58 0.17 
187.91 197.23 -0.26 
187.40 197.29 0.14 
188.21 197.76 -4.48 
188.55 197.84 -0.81 
188.91 197.65 -3.12 
189.30 197.29 -3.02 
188.95 197.73 -1.27 
189.42 197.43 -4.82 
189.98 197.86 -2.75 
190.18 197.76 -3.17 
190.43 197.25 -2.71 
190.21 197.74 0.63 
191.03 197.19 -5.31 
191.03 197.70 -3.49 
190.91 197.35 -2.84 
192.06 197.46 -5.85 
191.79 197.29 -5.30 
192.47 197.20 -5.29 
184.00 197.89 1.14 
184.65 198.48 0.00 
185.34 198.38 -0.65 
185.42 198.44 0.02 
188.41 197.97 -0.98 
188.14 197.96 -0.63 
189.04 198.15 -1.95 
189.80 198.34 -3.43 
189.72 198.27 0.72 
190.54 198.36 -3.44 
190.30 197.93 -2.84 
190.58 198.18 0.39 
191.22 198.00 -3.44 
191.04 198.57 -0.34 
190.76 198.25 1.13 
192.07 198.10 -2.72 
192.08 198.17 -1.07 
191.75 198.24 -0.63 
192.59 198.28 -3.92 
183.48 199.07 -3.67 
184.03 199.16 -3.65 
184.29 199.08 -2.46 
183.78 198.91 -2.30 
184.91 198.81 -3.66 
184.76 199.08 -0.60 
185.66 198.67 -3.57 
185.71 199.19 -1.01 
185.94 198.79 -3.32 
187.91 199.18 -3.50 
187.43 199.26 -0.54 
188.45 199.12 -5.01 
188.22 198.96 -4.08 
188.10 199.23 -3.36 
188.36 199.25 -3.03 
188.39 199.00 -1.94 
188.37 199.01 -0.86 
188.32 199.10 0.21 
188.77 198.92 -4.85 
188.64 198.88 -3.82 
188.90 198.69 -3.48 
189.58 199.10 -4.12 
189.48 199.03 -3.69 
190.12 198.72 -3.86 
190.07 198.67 -3.53 
191.20 198.99 -4.20 
191.18 198.73 -3.68 
191.16 199.05 -2.66 
191.65 198.64 -3.90 
191.64 198.63 -2.75 
191.70 198.61 -0.97 
192.53 198.85 -4.17 
181.99 199.87 0.29 
182.89 199.68 -2.77 
183.21 199.69 -2.72 
183.14 199.27 0.34 
184.34 199.29 -3.65 
183.74 199.80 -2.83 
184.24 199.96 0.91 
184.89 199.92 0.37 
185.13 199.55 -3.06 
185.73 199.89 -0.84 
186.39 199.58 -3.61 
186.35 199.50 -2.60 
186.50 199.67 -2.08 
186.31 199.47 -1.20 
185.94 199.86 0.27 
186.60 199.54 -3.41 
186.53 199.35 -2.47 
186.61 199.44 -1.57 
187.66 199.86 -6.92 
187.83 199.54 -5.35 
188.00 199.62 -6.93 
188.20 199.83 -6.06 
188.28 199.93 -5.19 
188.08 199.36 -4.37 
188.70 199.79 -4.86 
188.87 199.90 -4.17 
189.28 199.81 -2.36 
189.31 199.95 -0.26 
189.60 199.81 -4.53 
189.72 199.73 -4.21 
189.85 199.62 -2.65 
189.44 199.95 -1.48 
189.92 199.47 0.31 
190.67 199.94 -5.04 
190.36 199.67 -4.28 
190.55 199.38 -2.66 
190.08 199.52 0.06 
190.75 199.58 -4.41 
191.25 199.92 -3.20 
190.91 199.62 -2.85 
191.81 199.57 -4.89 
191.51 199.37 -4.35 
191.61 199.50 -2.97 
192.29 199.58 -1.66 
181.58 200.11 0.18 
183.96 200.17 -1.54 
183.99 200.44 0.25 
184.48 200.53 0.35 
184.60 200.54 0.87 
185.54 200.00 -0.06 
185.43 200.26 1.65 
186.94 200.14 -6.93 
186.98 200.48 -6.04 
187.20 200.40 -5.25 
186.95 200.65 -4.55 
187.19 200.64 -4.21 
187.44 200.28 -7.14 
187.50 200.23 -6.19 
187.54 200.19 -5.20 
187.38 200.15 -5.02 
187.54 200.21 -4.33 
187.87 200.55 -3.63 
187.85 200.55 -2.66 
187.83 200.51 -1.67 
187.80 200.57 -0.70 
188.01 200.31 -5.24 
188.48 200.05 -5.03 
188.16 200.51 -4.42 
188.22 200.61 -3.60 
188.59 200.28 -2.64 
188.59 200.31 -1.78 
188.13 200.56 -1.09 
188.61 200.24 -0.53 
188.58 200.45 0.35 
189.10 200.59 -5.14 
188.68 200.21 -4.14 
188.79 200.32 -3.25 
188.72 200.20 -2.76 
189.26 200.01 -1.79 
188.63 200.23 -1.44 
189.77 200.40 -5.25 
189.84 200.29 -3.04 
189.39 199.99 -2.77 
190.44 200.15 -5.20 
190.40 200.15 -2.96 
190.45 200.30 -1.37 
190.76 200.06 -3.32 
182.86 201.33 0.66 
183.11 201.12 -0.07 
183.69 201.19 0.72 
183.89 200.96 0.10 
184.71 200.92 -1.82 
184.56 201.12 -1.28 
185.50 200.77 -0.28 
186.30 200.76 -5.17 
186.32 200.80 -4.64 
186.38 201.02 -3.81 
186.34 201.13 -3.44 
186.26 201.01 -2.75 
186.62 200.77 -4.61 
187.11 200.90 -3.20 
187.22 200.90 -2.61 
187.09 201.37 -1.94 
187.70 200.75 -3.79 
187.71 200.87 -3.42 
187.78 201.10 -2.98 
187.39 201.07 -1.76 
187.49 201.19 -1.43 
187.68 201.33 -0.54 
188.39 200.83 -2.79 
188.42 200.89 -1.97 
188.37 201.03 0.09 
188.86 200.78 -3.12 
188.93 200.87 -2.06 
189.47 201.14 -1.42 
189.61 201.33 -0.65 
189.59 200.86 1.10 
190.42 200.71 -0.75 
190.86 200.94 -4.59 
191.66 201.05 -4.60 
182.88 201.51 -1.23 
182.52 201.87 -0.35 
182.79 201.50 0.11 
183.04 201.38 -1.19 
183.25 201.77 -0.38 
183.89 201.84 -0.99 
183.77 201.80 -0.92 
184.73 201.80 -4.74 
184.54 202.00 -1.34 
184.52 201.47 -0.68 
185.47 202.04 -4.73 
185.76 201.94 -1.78 
185.19 201.38 -0.96 
185.23 201.76 -0.40 
186.19 201.56 -1.84 
186.13 202.02 -0.94 
186.44 201.94 -0.91 
186.64 201.43 -2.12 
186.56 201.77 -1.36 
187.04 201.80 -0.76 
187.73 202.03 -3.89 
187.84 201.37 -2.17 
188.45 201.89 -0.65 
189.15 201.49 -0.70 
189.80 201.63 -4.65 
190.51 201.73 -4.66 
191.63 201.82 -1.25 
191.48 201.82 -0.72 
172.96 202.47 -1.41 
173.69 202.69 -0.02 
174.18 202.40 0.01 
181.58 202.24 -1.75 
182.98 202.15 -0.88 
183.83 202.18 -1.87 
183.85 202.08 -1.34 
184.95 202.59 -5.26 
185.68 202.64 -2.31 
185.13 202.27 -0.94 
185.99 202.49 -3.08 
186.36 202.42 -0.73 
186.07 202.52 -0.07 
186.98 202.57 -3.29 
186.74 202.34 -0.31 
186.69 202.46 0.38 
188.45 202.61 -5.09 
188.20 202.40 -4.22 
188.07 202.41 -2.45 
191.99 202.67 -1.43 
172.70 202.92 -1.23 
173.48 202.99 0.20 
174.10 202.80 -0.12 
183.71 203.26 -5.58 
184.17 203.17 -5.51 
184.66 202.94 -5.25 
184.76 202.85 -1.93 
185.05 203.39 -0.72 
185.59 203.43 -2.35 
187.05 203.13 -3.94 
187.02 203.43 -3.33 
186.63 203.14 -0.16 
186.60 202.88 0.61 
187.80 202.92 -4.92 
187.23 203.35 -3.89 
188.34 203.39 -5.11 
188.10 203.26 -4.24 
187.99 203.24 -1.62 
189.04 203.25 -2.85 
190.48 203.40 -1.88 
191.42 202.99 -0.63 
192.09 202.86 0.27 
171.99 204.11 -1.02 
173.15 203.66 -1.51 
173.21 203.87 0.12 
173.67 203.95 -0.44 
173.39 203.55 -0.11 
174.01 203.55 -0.86 
184.14 203.86 -1.98 
184.18 204.12 -0.35 
184.76 203.80 -0.33 
186.24 204.10 -3.14 
186.49 203.74 -2.45 
185.97 203.92 -1.63 
187.79 203.77 -4.94 
187.45 204.06 -0.98 
188.31 203.51 -5.29 
188.08 204.04 -5.13 
187.92 204.01 -1.67 
189.25 204.06 -3.25 
189.66 203.99 -2.89 
189.72 203.51 -1.77 
190.54 203.68 -2.26 
191.61 203.80 -0.95 
191.47 203.87 -0.74 
191.93 203.63 0.65 
192.47 203.55 0.24 
171.11 204.81 -2.13 
171.65 204.20 0.00 
172.08 204.84 -0.85 
173.18 204.86 -1.87 
172.52 204.34 -1.15 
173.14 204.86 -0.57 
173.73 204.48 -1.25 
173.78 204.21 -0.63 
173.28 204.21 -0.16 
174.08 204.72 -2.83 
174.81 204.41 -3.17 
185.01 204.75 -1.28 
186.15 204.20 -3.22 
186.08 204.27 -2.93 
187.20 204.85 -1.80 
187.15 204.38 -0.74 
187.37 204.64 -1.71 
187.35 204.49 -1.45 
189.47 204.31 -2.87 
191.29 204.44 -2.21 
191.35 204.38 -0.58 
168.48 205.43 -0.26 
169.11 205.34 -0.97 
169.04 205.16 -0.64 
169.93 205.16 1.18 
170.75 204.97 -0.09 
171.51 205.47 -2.12 
171.71 205.05 -0.58 
172.26 205.52 -4.82 
172.26 205.46 -3.06 
172.93 204.92 -2.96 
172.67 205.28 -0.62 
173.86 205.32 -3.06 
173.83 205.20 -2.63 
173.86 204.91 -1.02 
173.62 205.06 -0.69 
174.44 205.10 -3.05 
174.84 205.50 -3.81 
174.72 204.93 -3.60 
174.74 205.02 0.17 
185.74 204.96 -2.93 
185.72 205.07 -0.53 
186.43 205.31 -1.05 
187.01 205.11 -1.81 
187.14 204.89 0.10 
187.63 205.42 -1.74 
187.30 205.28 -1.28 
168.91 206.25 -1.05 
169.29 205.71 -0.31 
169.68 206.00 1.14 
170.22 206.26 -4.02 
170.08 205.99 -0.35 
170.59 206.16 -2.51 
170.60 205.72 0.54 
171.80 206.16 -3.27 
171.69 206.13 -1.20 
171.55 205.74 -0.41 
172.48 205.61 -3.28 
171.92 205.65 -2.56 
172.50 205.66 -1.23 
172.60 206.16 -4.86 
173.58 206.11 -3.10 
173.67 206.08 0.17 
174.05 205.63 -3.35 
174.30 205.62 0.15 
186.51 205.80 -1.46 
187.17 205.97 -1.33 
168.01 206.35 -3.79 
168.76 206.83 -3.80 
168.94 206.73 -2.23 
168.48 206.84 -1.57 
169.05 206.89 -3.13 
169.70 206.78 0.13 
169.36 206.28 0.59 
171.08 206.37 -4.85 
170.56 206.90 -0.53 
171.74 206.67 -4.91 
171.70 206.46 -2.31 
171.21 206.62 -1.24 
172.12 206.54 -2.80 
172.30 206.46 -2.29 
172.07 206.85 -1.46 
172.85 206.36 -3.42 
173.10 206.86 -0.22 
173.63 206.94 -4.05 
173.25 206.63 -3.63 
173.82 206.46 -0.40 
173.70 206.44 -0.23 
173.73 206.43 0.62 
174.31 206.96 -3.87 
174.34 206.52 -3.66 
175.17 206.84 -3.89 
175.03 206.35 -3.59 
175.98 206.73 -2.20 
168.30 207.60 -3.26 
167.81 207.31 -2.97 
168.95 207.17 -4.10 
169.17 207.07 -4.03 
170.28 207.44 -2.45 
170.22 207.33 -1.76 
170.06 207.08 -1.55 
170.15 207.16 -0.85 
170.93 207.49 -4.07 
170.80 207.27 -3.20 
170.86 207.23 -2.55 
171.75 207.29 -4.21 
171.73 207.02 -3.28 
171.60 207.07 -2.61 
171.58 207.05 -1.74 
171.85 207.57 -4.73 
172.15 207.27 -4.34 
172.17 206.99 -3.20 
173.21 207.32 -4.05 
172.52 207.15 -3.73 
172.55 207.06 -2.48 
173.79 207.45 -4.06 
173.33 206.98 -0.54 
174.55 207.33 -4.07 
175.22 207.10 -4.07 
174.90 207.56 -3.06 
175.29 207.36 -1.85 
175.52 207.41 -4.43 
175.55 207.49 -1.97 
168.03 207.85 -3.48 
167.86 207.87 -0.87 
167.91 207.97 0.10 
168.95 207.70 -4.39 
168.63 208.26 -0.49 
169.24 208.28 -3.77 
169.40 207.85 -3.16 
169.62 207.86 -1.94 
169.39 208.03 -1.06 
170.40 207.78 -4.00 
169.76 208.02 -2.84 
169.90 207.89 -1.90 
171.06 208.33 -0.98 
171.53 208.21 -6.55 
171.60 208.18 -6.48 
171.32 208.21 -5.79 
171.29 208.29 -5.00 
172.11 207.74 -6.40 
172.00 208.11 -5.78 
172.09 208.34 -4.96 
172.22 208.22 -4.37 
172.42 208.05 -2.46 
172.73 208.07 -3.23 
172.54 208.23 -2.10 
173.20 207.83 -1.50 
173.14 207.68 -0.76 
173.50 208.10 -4.78 
173.88 208.24 -3.45 
173.28 207.93 -3.01 
174.03 208.29 -5.38 
174.13 208.12 -4.95 
174.10 208.16 -3.32 
174.83 207.96 -4.93 
174.77 207.91 -3.30 
175.11 208.05 -1.98 
167.82 208.68 -2.49 
167.87 208.93 -1.66 
167.64 208.82 -0.12 
168.98 209.07 -0.98 
168.53 208.85 -0.79 
169.21 208.68 -2.44 
169.71 208.91 -1.63 
169.05 208.45 -0.68 
169.66 208.91 0.35 
170.93 208.68 -4.58 
171.07 208.48 -4.30 
170.97 208.73 -3.63 
170.71 208.73 -2.78 
171.01 208.53 -2.31 
170.82 208.71 -1.11 
171.12 208.65 -6.33 
171.30 208.71 -5.80 
171.30 208.48 -4.16 
171.30 208.64 -3.33 
171.32 208.91 -2.51 
171.19 208.37 -2.09 
171.80 208.54 -1.18 
171.98 208.47 -4.60 
172.07 208.72 -3.89 
172.17 208.60 -3.34 
172.01 208.52 -2.72 
171.86 208.57 -2.09 
172.63 208.42 -3.29 
173.07 208.70 -2.45 
172.80 208.88 -1.99 
173.43 208.46 -5.24 
173.81 208.52 -4.95 
173.71 208.44 -3.28 
173.87 208.59 -1.24 
173.95 208.85 -0.79 
167.91 209.10 -1.97 
167.99 209.29 -1.09 
168.19 209.08 -0.90 
168.60 209.23 -1.25 
169.02 209.58 -5.02 
169.61 209.23 -1.78 
170.39 209.21 -2.95 
170.25 209.46 -2.02 
170.63 209.16 -3.21 
170.78 209.14 -2.09 
170.85 209.61 -1.19 
171.00 209.34 -0.90 
171.60 209.69 -4.40 
171.65 209.15 -3.25 
171.50 209.30 -3.01 
171.17 209.42 -1.78 
171.34 209.29 -0.87 
172.02 209.70 -5.03 
171.84 209.38 -2.42 
172.38 209.14 -1.76 
172.52 209.47 -1.00 
172.57 209.18 -2.45 
172.67 209.11 -1.68 
172.52 209.47 -1.00 
172.69 209.45 -0.89 
174.26 209.58 -4.37 
174.08 209.08 -0.17 
175.09 209.71 -4.70 
175.52 209.16 -4.70 
167.62 209.93 -2.51 
167.88 209.81 -2.25 
168.92 210.05 -5.12 
168.87 210.24 -0.66 
169.39 210.43 -5.39 
169.62 210.23 -5.12 
169.34 210.24 -2.60 
169.43 209.90 -2.13 
169.38 210.29 -1.12 
170.07 209.79 -4.88 
170.41 210.03 -3.36 
170.34 209.80 -0.98 
170.21 210.12 -0.79 
170.45 210.15 -3.90 
170.41 210.03 -3.36 
171.76 210.38 -4.33 
171.45 209.96 -2.15 
171.86 210.45 -2.22 
172.33 209.91 -0.47 
174.97 209.96 -4.07 
