# .PCD v0.7 - Point Cloud Data file format
VERSION 0.7
FIELDS x y z
SIZE 4 4 4
TYPE F F F
COUNT 1 1 1
WIDTH 1239
HEIGHT 1
VIEWPOINT 0 0 0 1 0 0 0
POINTS 1239
DATA ascii
182.62 92.35 -5.38 
182.62 92.35 -5.38 
183.32 92.39 -5.58 
183.99 92.22 -5.78 
183.73 92.19 -5.26 
180.76 92.99 -5.60 
180.74 92.86 -5.24 
180.92 92.89 -5.50 
181.57 92.82 -5.18 
181.84 92.75 -5.38 
181.71 92.92 -4.84 
181.89 92.55 -4.24 
182.98 92.92 -5.57 
182.81 93.04 -4.93 
183.48 92.91 -5.94 
183.13 92.99 -5.67 
183.15 92.56 -5.24 
184.27 93.06 -6.71 
184.04 92.98 -6.27 
183.98 92.60 -5.78 
184.89 93.11 -6.98 
185.06 93.09 -6.48 
184.65 93.20 -5.82 
185.48 93.10 -6.86 
185.41 93.22 -6.55 
185.29 92.98 -5.94 
187.44 93.20 -6.49 
188.29 92.96 -6.12 
188.06 93.08 -5.47 
179.98 93.91 -6.12 
179.73 93.89 -5.93 
180.34 93.90 -6.56 
180.63 93.28 -4.85 
181.40 93.42 -5.38 
181.18 93.61 -5.06 
181.24 93.33 -4.55 
182.04 93.63 -6.08 
181.97 93.83 -5.44 
182.12 93.53 -4.83 
182.22 93.47 -4.46 
182.95 93.38 -6.11 
182.90 93.50 -5.50 
182.87 93.65 -5.15 
182.48 93.57 -3.99 
183.68 93.72 -6.77 
183.41 93.65 -6.15 
183.08 93.40 -5.66 
183.10 93.80 -5.15 
183.43 93.46 -4.26 
184.26 93.78 -6.90 
184.27 93.78 -6.04 
184.10 93.33 -5.44 
183.96 93.46 -4.82 
183.91 93.48 -4.35 
184.77 93.72 -6.89 
184.87 93.65 -6.49 
184.63 93.54 -6.00 
185.27 93.45 -6.69 
185.42 93.77 -6.48 
185.62 93.60 -5.69 
185.82 93.70 -5.06 
185.67 93.75 -4.40 
186.27 93.60 -6.31 
185.98 93.87 -5.79 
186.16 93.83 -4.59 
186.08 93.78 -4.26 
186.62 93.61 -6.74 
186.60 93.52 -5.69 
186.89 93.82 -4.70 
186.77 93.86 -4.52 
187.58 93.70 -6.22 
187.68 93.31 -5.50 
187.97 93.58 -6.20 
187.93 93.76 -5.77 
189.01 93.71 -5.74 
189.74 93.52 -5.69 
190.11 93.36 -5.66 
179.48 94.04 -5.70 
180.06 94.13 -6.22 
179.84 94.25 -5.79 
180.91 94.14 -6.67 
180.60 94.33 -6.31 
180.42 94.55 -5.66 
181.11 94.42 -6.82 
181.13 94.60 -6.47 
181.61 94.25 -4.66 
181.89 94.60 -6.77 
181.83 94.17 -6.12 
181.83 93.94 -5.37 
182.18 93.98 -4.82 
182.81 94.25 -6.08 
182.60 94.10 -5.48 
182.80 94.41 -5.00 
182.79 94.22 -4.10 
183.32 94.39 -6.41 
183.44 94.62 -5.00 
183.47 94.11 -4.40 
184.22 94.28 -6.78 
184.24 94.35 -6.51 
184.26 94.20 -5.79 
183.84 94.50 -4.62 
184.60 94.15 -6.76 
184.79 94.32 -6.47 
184.58 94.11 -5.41 
185.06 94.43 -4.97 
184.88 94.29 -4.38 
185.33 94.19 -6.71 
185.41 94.17 -6.34 
185.55 94.32 -5.60 
185.66 94.10 -4.64 
185.68 94.23 -4.38 
185.86 94.30 -6.12 
185.85 94.19 -5.53 
185.95 94.04 -3.85 
186.63 94.17 -6.51 
186.91 94.42 -5.88 
186.85 94.54 -3.99 
187.38 94.11 -5.98 
187.54 94.27 -5.89 
187.23 94.49 -5.16 
188.10 94.53 -5.91 
187.91 94.34 -5.56 
188.92 94.63 -6.79 
188.88 94.46 -6.55 
179.34 95.31 -6.05 
179.75 95.13 -6.10 
180.59 95.06 -6.22 
180.81 94.92 -5.66 
181.46 94.77 -6.75 
181.34 94.75 -6.30 
181.40 95.07 -5.86 
182.19 95.05 -6.62 
182.02 94.92 -6.42 
182.20 95.01 -5.77 
182.68 94.89 -6.74 
182.68 95.09 -6.32 
182.67 95.01 -5.91 
182.54 94.95 -5.19 
183.70 94.85 -6.83 
183.33 95.14 -6.55 
183.04 95.10 -5.86 
183.28 94.83 -5.14 
183.98 94.87 -6.76 
184.07 94.99 -6.39 
184.06 94.87 -5.77 
183.74 95.06 -5.11 
184.38 95.30 -4.56 
184.83 95.03 -6.10 
184.95 95.11 -5.77 
184.87 94.82 -4.74 
184.71 95.30 -4.41 
185.69 95.24 -8.96 
185.69 95.29 -8.54 
185.80 94.93 -6.83 
185.24 94.88 -6.25 
185.30 94.89 -5.79 
185.67 95.20 -5.02 
186.05 95.20 -8.98 
186.04 95.20 -8.52 
186.05 95.30 -8.06 
186.35 95.47 -6.87 
186.35 95.05 -6.21 
186.32 94.90 -5.72 
186.41 94.96 -4.07 
187.00 94.97 -6.20 
186.73 94.98 -5.82 
186.78 94.69 -4.29 
187.60 94.72 -5.98 
187.53 94.84 -5.61 
187.70 94.80 -5.12 
188.42 95.14 -6.70 
188.20 94.97 -6.34 
188.03 94.81 -5.81 
188.81 94.70 -6.67 
188.64 95.13 -5.99 
189.13 95.20 -5.76 
188.93 95.06 -4.72 
189.75 95.09 -6.12 
189.61 95.09 -5.44 
189.39 94.84 -4.69 
190.45 95.32 -5.36 
191.41 95.11 -5.32 
190.99 95.16 -4.85 
179.16 95.56 -6.48 
179.83 96.03 -6.58 
180.11 95.82 -6.18 
180.13 95.44 -5.87 
180.37 95.82 -6.73 
180.47 95.89 -6.17 
181.23 96.01 -6.12 
182.21 95.74 -6.18 
182.83 96.01 -9.16 
183.01 95.93 -7.00 
182.67 95.81 -6.31 
182.69 95.99 -5.57 
182.87 95.86 -5.14 
183.02 95.93 -9.01 
183.32 95.96 -6.76 
183.43 95.72 -6.34 
183.61 95.80 -5.78 
183.35 95.91 -4.79 
183.47 96.01 -4.50 
183.75 95.94 -7.56 
183.86 95.90 -6.70 
184.12 95.84 -6.27 
184.13 95.83 -5.80 
183.99 95.56 -5.13 
183.76 95.81 -4.54 
184.54 95.61 -6.43 
184.62 95.58 -5.88 
184.63 95.69 -4.37 
185.59 95.82 -9.01 
185.36 95.87 -8.35 
185.88 96.02 -7.12 
185.17 95.76 -6.05 
185.50 95.51 -5.79 
185.31 95.72 -4.16 
185.91 95.90 -9.00 
185.90 95.90 -8.63 
186.18 95.84 -7.86 
186.17 95.92 -7.11 
186.14 95.80 -6.33 
186.23 95.61 -5.54 
186.05 95.81 -4.27 
186.68 95.36 -6.22 
186.77 95.51 -5.64 
186.64 95.54 -4.95 
187.82 95.85 -6.10 
187.87 95.68 -5.78 
187.94 95.78 -6.10 
188.54 95.58 -5.41 
188.31 95.79 -4.95 
189.01 95.56 -6.32 
188.79 95.86 -5.54 
188.90 95.61 -5.06 
189.35 95.48 -6.16 
189.79 95.62 -5.61 
189.43 95.67 -5.25 
190.25 95.87 -5.64 
190.70 95.80 -5.26 
190.25 95.95 -4.38 
190.93 95.99 -5.47 
190.85 96.00 -4.38 
191.55 95.81 -5.78 
191.54 95.61 -5.22 
191.84 95.80 -4.31 
192.40 95.81 -6.05 
192.41 95.59 -5.95 
179.98 96.11 -6.67 
180.09 96.22 -6.50 
180.65 96.21 -6.43 
180.58 96.44 -5.76 
181.37 96.33 -6.06 
181.17 96.47 -5.60 
181.97 96.41 -6.17 
181.72 96.69 -5.79 
182.92 96.42 -8.92 
182.82 96.34 -8.41 
182.94 96.18 -7.86 
182.75 96.28 -7.03 
182.58 96.55 -6.06 
182.56 96.51 -5.94 
182.98 96.46 -4.32 
183.34 96.39 -9.04 
183.38 96.39 -8.40 
183.26 96.34 -7.74 
183.38 96.33 -7.06 
183.30 96.37 -6.38 
183.33 96.38 -5.86 
183.27 96.26 -4.74 
183.49 96.63 -3.95 
183.92 96.45 -8.92 
184.10 96.62 -8.43 
184.04 96.48 -7.65 
183.83 96.44 -6.98 
184.03 96.44 -6.37 
183.95 96.36 -5.64 
184.17 96.41 -4.31 
184.42 96.66 -7.68 
184.61 96.60 -7.16 
184.50 96.32 -6.32 
185.00 96.56 -5.52 
185.06 96.20 -4.66 
184.48 96.68 -4.07 
185.67 96.13 -9.03 
185.67 96.19 -8.36 
185.67 96.20 -8.03 
185.53 96.17 -6.21 
185.35 96.38 -5.42 
185.53 96.24 -4.97 
185.92 96.11 -7.69 
185.92 96.14 -7.02 
186.21 96.27 -6.14 
186.14 96.37 -5.62 
186.35 96.10 -4.25 
186.71 96.40 -6.15 
186.47 96.52 -5.65 
186.57 96.15 -5.05 
187.37 96.03 -5.98 
187.47 96.13 -5.89 
188.29 96.44 -6.40 
188.28 96.55 -5.37 
188.17 96.56 -5.19 
188.88 96.25 -6.57 
188.96 96.35 -5.54 
188.81 96.49 -5.11 
189.28 96.09 -6.38 
189.90 96.06 -5.83 
189.42 96.48 -5.11 
189.78 96.24 -4.39 
190.32 96.21 -5.84 
190.36 96.24 -4.63 
190.28 96.04 -4.36 
191.34 96.26 -6.00 
191.14 96.08 -5.81 
190.85 96.00 -4.38 
191.73 96.28 -5.49 
192.07 96.16 -5.11 
192.14 96.47 -6.01 
192.14 96.24 -5.48 
172.37 97.36 -6.09 
172.93 97.32 -6.02 
172.72 97.18 -5.71 
175.57 97.39 -5.95 
180.71 96.89 -5.82 
181.31 96.85 -6.17 
181.21 96.94 -5.76 
181.39 97.28 -4.81 
180.92 97.24 -4.53 
182.05 97.04 -6.10 
181.62 96.93 -5.90 
182.30 96.83 -4.82 
182.18 97.24 -4.47 
182.99 97.12 -8.98 
182.96 96.98 -8.45 
182.77 96.84 -7.72 
182.99 96.76 -6.94 
182.78 97.32 -5.97 
182.57 97.18 -5.80 
182.92 97.16 -4.91 
182.99 97.20 -4.29 
183.35 96.89 -9.13 
183.37 96.90 -8.41 
183.42 97.02 -7.72 
183.41 97.00 -6.99 
183.58 97.03 -6.31 
183.38 97.08 -5.71 
183.26 97.24 -4.56 
183.48 97.23 -4.58 
183.74 96.75 -8.18 
184.23 96.74 -7.81 
183.79 96.68 -6.89 
184.04 97.03 -6.16 
184.07 97.11 -5.53 
184.00 97.33 -5.21 
184.04 97.27 -4.24 
183.91 97.42 -3.75 
184.43 97.09 -6.02 
184.97 96.99 -5.50 
184.45 97.34 -5.12 
184.66 96.98 -4.17 
185.55 96.76 -6.21 
185.46 97.01 -5.63 
186.03 97.13 -5.97 
185.92 97.20 -5.70 
186.09 96.87 -4.99 
186.07 96.87 -4.16 
186.26 97.09 -3.45 
187.01 97.39 -8.98 
187.17 97.27 -8.52 
187.01 97.30 -6.39 
187.16 97.13 -5.92 
186.91 97.05 -3.99 
186.80 97.15 -3.58 
187.62 97.12 -9.09 
187.62 97.16 -8.50 
187.64 97.32 -7.93 
187.61 97.34 -6.77 
187.55 97.13 -6.17 
187.73 97.40 -5.71 
187.27 97.22 -4.40 
188.27 97.01 -6.31 
187.93 97.23 -5.60 
188.63 96.75 -6.58 
189.00 97.37 -5.83 
188.94 97.15 -5.16 
189.94 96.83 -5.77 
190.98 96.87 -5.76 
191.48 96.79 -5.74 
171.10 97.70 -4.63 
171.62 97.96 -4.69 
172.12 97.97 -6.10 
173.10 98.05 -6.22 
172.69 97.62 -5.86 
173.25 97.92 -6.16 
173.38 98.01 -5.64 
174.29 97.97 -5.71 
175.14 97.90 -6.08 
175.49 97.78 -5.99 
175.66 97.97 -5.86 
181.46 98.07 -5.67 
181.63 97.67 -4.97 
181.21 97.83 -4.50 
182.03 98.00 -6.03 
181.98 97.64 -5.72 
181.63 97.67 -4.97 
182.49 97.63 -6.00 
182.72 97.94 -5.80 
182.90 97.61 -4.64 
182.83 98.08 -4.32 
183.16 97.98 -6.29 
183.70 97.91 -5.74 
183.29 98.00 -4.82 
183.43 97.64 -3.94 
184.12 97.70 -6.12 
183.94 97.79 -5.39 
184.03 98.00 -5.01 
184.07 97.70 -4.05 
184.18 98.05 -3.77 
184.58 97.82 -6.14 
184.77 97.68 -5.62 
185.01 98.16 -5.07 
184.70 97.87 -4.03 
185.38 98.01 -5.66 
185.32 97.89 -5.06 
186.26 97.90 -5.81 
186.13 98.10 -4.97 
186.50 98.02 -3.96 
187.17 97.61 -8.95 
187.01 97.43 -8.44 
186.79 97.80 -5.69 
187.11 98.12 -5.23 
187.05 97.93 -4.07 
186.54 97.43 -3.50 
187.35 97.81 -8.98 
187.35 97.87 -8.49 
187.59 97.73 -7.92 
187.58 97.74 -6.90 
187.54 97.61 -6.37 
187.71 97.92 -5.56 
187.64 97.64 -5.05 
187.50 98.06 -4.55 
187.40 98.07 -3.81 
187.92 97.45 -6.36 
188.08 97.78 -5.54 
188.57 97.86 -5.25 
189.17 97.74 -6.06 
188.67 97.80 -5.46 
188.71 97.78 -5.11 
170.81 98.75 -5.04 
171.80 98.62 -5.94 
171.42 98.37 -5.13 
172.51 98.67 -6.27 
172.25 98.38 -5.74 
173.04 98.48 -6.08 
173.10 98.71 -5.78 
172.67 98.58 -4.87 
173.52 98.24 -5.97 
173.62 98.57 -5.71 
173.51 98.78 -5.25 
174.05 98.39 -5.60 
174.93 98.56 -6.02 
174.97 98.79 -4.87 
175.46 98.31 -5.63 
177.31 98.71 -5.53 
177.82 98.65 -5.52 
177.69 98.72 -4.89 
181.50 98.66 -5.65 
182.20 98.76 -6.44 
181.85 98.36 -5.64 
182.72 98.56 -6.21 
182.75 98.55 -5.90 
182.88 98.41 -4.69 
182.76 98.63 -4.25 
183.21 98.25 -6.04 
183.25 98.60 -5.60 
183.69 98.44 -5.11 
183.42 98.37 -4.32 
183.31 98.68 -3.67 
184.03 98.27 -5.63 
184.41 98.39 -4.81 
183.94 98.45 -4.29 
184.86 98.36 -6.07 
184.73 98.33 -5.71 
184.69 98.58 -4.80 
185.11 98.35 -4.07 
184.93 98.58 -3.41 
185.51 98.36 -5.40 
185.34 98.56 -5.07 
185.68 98.46 -4.12 
185.12 98.34 -3.28 
186.28 98.75 -5.98 
186.12 98.46 -5.75 
186.49 98.58 -5.17 
185.90 98.36 -4.54 
186.69 98.71 -5.97 
186.78 98.60 -5.55 
187.00 98.30 -4.14 
187.31 98.22 -5.78 
187.57 98.52 -4.59 
187.50 98.06 -4.55 
187.96 98.48 -8.99 
187.96 98.55 -8.36 
188.44 98.46 -7.71 
188.43 98.51 -7.09 
188.45 98.43 -6.08 
188.18 98.54 -5.31 
188.18 98.54 -5.31 
190.50 98.62 -5.10 
191.35 98.82 -6.03 
191.36 98.57 -5.36 
191.13 98.41 -4.60 
191.42 98.63 -5.71 
192.00 98.59 -4.26 
167.80 99.40 -4.88 
168.69 99.48 -5.37 
170.05 99.08 -5.08 
170.80 99.07 -5.03 
171.76 99.19 -5.72 
172.53 99.17 -6.10 
171.98 99.05 -5.55 
172.80 99.13 -5.99 
172.96 99.21 -5.75 
173.15 99.12 -5.11 
173.29 98.90 -6.14 
173.38 99.12 -5.72 
173.32 99.08 -4.86 
174.25 99.44 -5.49 
174.24 99.31 -4.92 
175.25 99.36 -5.80 
174.76 99.32 -4.99 
175.85 99.40 -5.77 
175.90 99.33 -4.87 
175.52 99.36 -4.39 
176.45 99.34 -5.40 
176.22 99.39 -5.04 
177.10 99.37 -5.84 
177.16 99.33 -5.10 
177.62 99.11 -5.64 
177.51 99.20 -5.23 
181.45 99.31 -5.70 
181.78 99.18 -5.48 
182.63 99.10 -6.01 
182.43 98.87 -5.92 
183.68 99.46 -5.69 
183.55 99.19 -3.67 
183.93 99.22 -5.41 
184.07 98.94 -4.85 
183.93 99.16 -4.07 
184.07 99.48 -3.60 
184.56 99.46 -5.60 
184.68 99.16 -5.03 
184.98 99.12 -4.54 
184.51 99.08 -3.54 
185.47 99.02 -5.45 
185.48 99.25 -5.03 
185.41 99.20 -4.25 
186.22 99.34 -5.56 
186.49 98.93 -5.02 
186.72 98.92 -6.03 
186.98 99.11 -5.68 
186.86 99.03 -5.09 
187.56 99.13 -6.06 
187.30 99.46 -5.51 
188.04 98.85 -5.52 
188.14 99.28 -4.98 
189.99 99.15 -5.49 
190.51 99.22 -5.55 
190.67 98.98 -4.72 
190.75 99.36 -6.32 
190.96 99.11 -5.71 
191.07 98.83 -4.99 
191.62 99.18 -5.71 
192.42 99.16 -5.73 
167.87 99.59 -4.80 
168.94 99.97 -5.43 
168.63 99.84 -5.13 
169.31 100.21 -5.46 
169.87 100.07 -5.45 
170.75 100.15 -5.48 
172.30 99.82 -6.07 
172.12 100.01 -5.63 
173.17 100.07 -6.11 
172.90 99.89 -5.56 
172.90 99.71 -5.04 
173.68 100.05 -5.42 
173.70 100.22 -5.08 
174.12 99.71 -5.48 
174.28 99.72 -5.19 
174.30 99.94 -4.49 
174.91 99.92 -5.61 
174.97 99.85 -4.90 
175.48 99.92 -5.56 
175.35 99.95 -4.78 
176.56 99.53 -5.27 
176.17 100.05 -5.03 
177.38 99.68 -6.03 
176.97 99.85 -5.54 
176.80 99.74 -5.06 
177.77 99.84 -6.05 
177.64 99.69 -5.64 
178.12 99.64 -6.02 
178.28 100.07 -5.60 
181.17 99.69 -5.56 
181.52 99.56 -5.16 
184.21 99.53 -5.52 
184.15 100.00 -4.85 
184.08 99.61 -4.40 
184.77 100.00 -4.83 
185.82 99.64 -5.53 
185.70 99.67 -4.77 
185.51 100.01 -4.36 
186.07 99.81 -5.67 
186.86 99.57 -6.39 
186.86 99.86 -5.43 
186.97 100.18 -5.08 
187.47 99.90 -6.12 
187.30 100.08 -5.37 
187.34 99.84 -5.04 
189.92 100.06 -4.44 
190.26 100.19 -6.11 
190.16 100.00 -5.85 
190.14 100.03 -5.11 
190.14 99.95 -4.29 
190.87 99.76 -6.08 
190.96 99.95 -5.46 
191.45 100.11 -5.47 
192.23 99.53 -5.83 
168.29 100.28 -4.51 
168.75 100.46 -4.49 
169.49 100.25 -5.68 
169.55 100.33 -4.80 
170.07 100.48 -5.55 
169.99 100.40 -5.01 
170.65 100.50 -5.43 
170.70 100.50 -4.79 
171.66 100.38 -5.57 
171.10 100.58 -4.93 
172.01 100.47 -6.05 
172.11 100.77 -5.64 
172.58 100.41 -6.18 
173.09 100.71 -5.36 
173.02 100.83 -5.19 
172.83 100.92 -3.99 
173.54 100.54 -5.58 
173.39 100.57 -5.10 
173.25 100.58 -4.47 
174.11 100.86 -9.11 
174.18 100.92 -8.63 
174.48 100.91 -6.94 
175.05 100.74 -5.84 
175.92 100.52 -4.93 
176.60 100.72 -6.07 
176.31 100.70 -5.49 
176.16 100.52 -4.90 
176.99 100.38 -5.67 
176.85 100.42 -5.13 
177.87 100.34 -6.11 
177.67 100.73 -5.66 
178.39 100.55 -5.32 
182.23 100.67 -5.34 
182.24 100.89 -5.04 
184.60 100.44 -4.85 
185.67 100.70 -8.23 
185.67 100.71 -7.53 
185.66 100.71 -7.18 
186.00 100.51 -8.22 
186.07 100.47 -7.52 
185.99 100.52 -7.17 
186.15 100.56 -5.82 
186.53 100.53 -6.13 
186.98 100.56 -5.81 
186.60 100.73 -5.23 
187.27 100.43 -5.55 
189.03 100.55 -3.98 
189.06 100.65 -3.68 
189.59 100.85 -8.12 
189.83 100.79 -6.40 
189.76 100.73 -5.90 
189.98 100.30 -5.03 
189.43 100.64 -4.29 
189.49 100.49 -3.83 
190.05 100.33 -5.54 
167.74 101.60 -5.53 
167.70 101.53 -4.99 
170.69 101.60 -9.16 
170.57 101.21 -8.17 
170.68 101.63 -7.67 
170.74 101.21 -7.26 
171.03 101.28 -6.40 
171.02 101.33 -5.34 
171.36 101.62 -9.01 
171.23 101.59 -8.13 
171.25 101.67 -7.71 
171.58 101.60 -7.11 
171.61 101.58 -6.11 
171.36 101.35 -5.57 
172.04 101.50 -6.54 
172.32 101.28 -5.54 
172.46 101.64 -4.98 
172.16 101.56 -3.88 
172.27 101.09 -3.79 
172.74 101.43 -6.02 
172.91 101.17 -5.70 
172.93 101.44 -5.02 
172.72 101.54 -4.14 
173.74 101.45 -9.13 
173.74 101.45 -8.40 
173.26 100.95 -5.52 
173.24 101.23 -5.23 
174.12 101.03 -9.11 
174.24 101.14 -8.24 
174.07 101.35 -7.70 
174.51 101.41 -6.97 
174.59 101.33 -6.32 
174.58 101.32 -5.85 
174.26 101.49 -4.74 
174.76 100.98 -6.31 
174.94 101.39 -5.32 
175.22 101.36 -4.99 
175.82 101.50 -5.03 
176.31 101.13 -4.93 
177.20 101.19 -6.15 
177.16 101.18 -5.67 
177.80 101.20 -5.35 
178.71 101.17 -5.21 
179.04 101.32 -5.30 
178.84 101.52 -4.71 
180.82 101.28 -5.55 
181.02 101.45 -5.36 
181.82 101.44 -5.62 
182.97 101.62 -8.96 
183.36 101.47 -8.32 
183.24 101.60 -7.61 
183.35 101.48 -7.22 
185.70 101.25 -8.14 
185.50 101.37 -7.63 
185.44 101.40 -7.23 
185.90 101.15 -8.14 
185.89 101.16 -7.60 
186.60 101.09 -5.58 
186.86 101.36 -5.22 
187.65 101.38 -5.28 
187.58 101.61 -5.25 
188.51 101.14 -5.59 
189.15 101.36 -5.29 
189.15 101.36 -5.29 
189.04 101.52 -3.91 
189.13 101.43 -3.53 
189.60 100.94 -7.36 
189.32 101.34 -5.23 
167.72 102.17 -5.39 
167.81 102.06 -5.26 
168.62 101.93 -5.49 
168.52 102.26 -4.74 
169.06 102.25 -5.07 
170.93 101.87 -9.02 
171.00 101.93 -8.36 
170.96 102.05 -7.83 
171.14 101.96 -7.09 
170.96 101.65 -6.55 
170.93 101.65 -5.72 
171.36 101.93 -9.16 
171.40 101.88 -8.36 
171.47 102.04 -7.71 
171.50 102.04 -7.09 
171.56 101.99 -6.40 
171.51 101.77 -5.42 
171.37 101.96 -4.90 
171.72 101.73 -4.24 
172.11 101.86 -9.06 
172.13 101.95 -8.53 
172.13 101.83 -7.52 
171.96 102.03 -6.91 
172.07 102.12 -6.22 
172.36 101.97 -5.62 
172.30 101.97 -5.10 
172.16 102.19 -4.43 
172.57 102.21 -7.00 
172.74 102.00 -6.33 
172.57 101.74 -5.71 
172.54 102.10 -4.77 
172.60 102.09 -4.11 
173.59 101.70 -9.14 
173.67 101.76 -8.41 
173.79 101.89 -8.05 
173.90 101.99 -7.27 
173.82 101.93 -5.40 
173.47 102.08 -4.98 
174.08 101.73 -7.86 
174.20 101.83 -7.28 
174.31 101.93 -6.52 
174.43 102.23 -4.83 
174.89 101.96 -5.30 
175.14 101.67 -5.07 
175.32 101.98 -4.56 
175.89 102.31 -5.31 
175.60 101.89 -5.04 
175.36 102.05 -4.33 
176.49 102.09 -5.16 
177.04 101.93 -5.81 
177.00 101.89 -5.24 
177.48 101.88 -5.53 
178.55 101.77 -5.34 
178.60 102.19 -4.76 
179.21 101.97 -5.40 
179.41 101.89 -4.72 
179.87 102.04 -4.80 
180.57 102.10 -4.83 
181.59 101.83 -5.65 
181.25 102.01 -4.83 
182.29 102.12 -8.79 
182.18 102.20 -8.13 
182.30 102.14 -7.47 
182.29 102.14 -7.25 
181.84 102.07 -4.87 
182.96 101.69 -8.91 
182.86 101.72 -8.33 
182.89 101.78 -7.65 
182.80 101.77 -7.26 
182.48 102.07 -5.58 
182.43 102.12 -4.89 
183.08 102.16 -8.82 
183.06 101.75 -8.16 
183.36 102.04 -7.93 
183.27 102.10 -7.14 
183.76 101.93 -9.14 
187.47 101.79 -4.09 
187.31 101.95 -3.64 
188.48 102.15 -4.92 
188.85 101.74 -5.26 
188.64 101.98 -5.33 
188.98 102.26 -3.89 
188.83 102.01 -3.50 
168.56 102.47 -4.84 
168.79 102.44 -4.03 
169.22 102.74 -4.79 
169.05 102.79 -4.25 
169.78 103.01 -4.57 
170.03 102.93 -4.26 
170.77 102.68 -9.35 
171.10 102.95 -8.64 
171.08 102.28 -7.81 
170.64 102.39 -7.21 
170.89 102.66 -5.16 
171.13 102.44 -9.14 
171.38 102.46 -8.14 
171.42 102.44 -7.52 
171.38 102.35 -7.07 
171.38 102.61 -6.31 
171.18 102.75 -5.48 
171.57 102.48 -5.08 
172.24 102.38 -6.98 
171.96 102.53 -6.37 
172.02 102.84 -5.72 
172.25 102.77 -4.96 
172.98 102.66 -4.98 
172.72 102.61 -4.50 
173.70 102.48 -5.46 
173.74 102.91 -4.90 
173.54 102.87 -4.42 
174.34 102.80 -5.39 
174.17 102.71 -5.21 
174.72 102.73 -5.19 
175.07 102.63 -4.51 
175.42 102.95 -9.36 
175.74 103.00 -4.62 
176.06 103.01 -6.41 
176.45 102.61 -5.27 
176.40 102.71 -5.23 
176.13 102.49 -4.28 
176.95 102.83 -5.46 
177.07 103.02 -4.77 
177.62 102.77 -5.50 
178.05 102.62 -4.73 
178.15 102.50 -5.03 
179.28 102.42 -5.08 
179.88 102.46 -5.12 
180.52 102.59 -5.17 
182.79 102.40 -9.14 
182.75 102.47 -7.48 
182.75 102.47 -7.15 
183.04 102.44 -9.08 
183.72 102.69 -8.32 
183.62 102.76 -7.76 
183.16 102.41 -7.17 
183.72 102.52 -6.64 
183.74 102.51 -9.09 
183.74 102.51 -8.60 
183.81 102.64 -7.89 
183.73 102.52 -7.14 
187.04 102.81 -8.07 
187.03 102.82 -7.60 
187.02 102.83 -7.14 
187.14 102.33 -4.57 
187.22 102.36 -3.87 
187.09 102.56 -3.39 
187.26 102.89 -8.03 
187.25 102.90 -7.17 
187.23 102.59 -3.53 
188.47 102.40 -5.32 
188.81 102.59 -3.76 
169.28 103.14 -4.77 
169.96 103.46 -5.64 
169.77 103.27 -4.98 
170.97 103.08 -8.12 
170.73 103.40 -4.86 
171.43 103.09 -6.31 
171.48 103.61 -4.75 
171.39 103.39 -4.44 
172.35 103.45 -4.60 
172.48 103.24 -4.32 
172.79 103.39 -4.93 
172.93 103.41 -4.44 
173.66 103.39 -4.99 
173.35 103.44 -4.35 
173.97 103.35 -4.45 
174.01 103.70 -3.38 
175.30 103.68 -9.12 
175.19 103.24 -5.29 
175.23 103.57 -5.11 
175.37 103.33 -9.15 
175.42 103.39 -8.60 
175.72 103.31 -7.59 
175.78 103.39 -7.01 
175.83 103.46 -6.43 
175.57 103.48 -5.32 
175.57 103.48 -5.32 
176.05 103.66 -7.04 
176.03 103.43 -6.42 
176.41 103.46 -5.48 
176.29 103.28 -5.17 
177.28 103.27 -5.53 
177.15 103.14 -4.73 
177.56 103.32 -5.69 
177.55 103.32 -5.08 
180.07 103.28 -9.17 
180.07 103.25 -8.12 
180.09 103.35 -7.42 
180.09 103.35 -7.18 
180.73 103.58 -9.05 
180.81 103.43 -8.36 
180.81 103.40 -7.78 
180.80 103.40 -6.99 
180.80 103.39 -6.53 
180.77 103.37 -5.65 
180.76 103.36 -5.11 
180.86 103.26 -4.56 
180.86 103.25 -3.86 
180.42 103.72 -2.86 
181.08 103.65 -9.27 
180.95 103.21 -8.67 
180.96 103.19 -7.92 
181.10 103.65 -6.87 
181.11 103.65 -6.17 
181.07 103.22 -5.78 
181.07 103.20 -4.81 
181.03 103.06 -4.50 
181.44 103.18 -3.56 
181.50 103.56 -2.61 
181.66 103.56 -9.22 
181.99 103.65 -3.49 
182.24 103.40 -2.63 
183.01 103.65 -4.60 
182.34 103.55 -3.56 
183.58 103.10 -9.20 
183.57 103.11 -8.37 
183.40 103.22 -7.78 
183.56 103.13 -7.29 
183.66 103.05 -4.57 
183.44 103.55 -4.48 
183.81 103.16 -4.60 
183.82 103.25 -4.48 
187.05 103.43 -8.11 
187.16 103.15 -7.66 
187.15 103.16 -7.25 
187.27 103.38 -9.29 
187.53 103.28 -8.21 
187.52 103.29 -7.49 
187.52 103.29 -7.13 
188.57 103.55 -3.64 
188.62 103.13 -3.50 
170.10 104.02 -5.46 
170.90 104.31 -5.28 
171.09 104.08 -4.77 
170.97 104.21 -4.28 
171.21 104.37 -5.55 
171.30 103.99 -5.13 
171.17 104.01 -4.51 
171.72 104.33 -3.51 
172.25 104.34 -4.89 
171.96 103.85 -4.45 
172.14 103.79 -3.82 
172.80 104.18 -4.76 
173.03 103.81 -4.23 
173.62 103.79 -4.99 
173.71 104.14 -4.36 
173.70 104.03 -3.58 
174.25 104.07 -5.41 
174.39 103.99 -4.66 
174.23 104.07 -3.88 
174.23 103.86 -3.74 
175.30 104.02 -8.17 
174.96 104.01 -5.34 
174.96 104.18 -4.85 
174.62 104.23 -4.56 
175.90 104.21 -9.17 
175.69 103.86 -8.17 
175.83 103.99 -7.70 
175.67 103.87 -7.04 
175.99 104.14 -6.29 
175.57 104.02 -5.55 
175.37 104.03 -4.84 
176.09 104.17 -9.29 
176.16 104.27 -8.65 
176.26 104.39 -8.01 
176.18 103.80 -6.76 
176.30 103.92 -6.30 
176.49 103.98 -5.38 
176.56 104.03 -5.25 
176.48 104.03 -4.30 
176.84 104.33 -6.11 
177.00 103.84 -5.56 
177.16 103.96 -4.82 
177.03 103.92 -4.13 
180.18 103.93 -8.86 
180.12 103.95 -7.16 
180.12 104.01 -5.35 
179.83 104.24 -4.91 
180.04 103.94 -3.50 
180.71 104.06 -9.20 
180.26 103.73 -8.34 
180.83 104.13 -6.79 
180.83 104.12 -6.33 
180.83 104.12 -5.86 
180.83 104.32 -4.94 
180.73 104.38 -4.40 
180.71 103.64 -3.50 
181.01 103.92 -9.23 
181.00 103.76 -8.60 
181.05 103.88 -6.86 
181.05 103.88 -6.41 
181.05 103.88 -5.49 
181.37 104.27 -4.61 
181.59 104.13 -4.17 
181.03 103.75 -3.46 
182.30 104.14 -4.62 
181.79 104.31 -4.49 
182.18 103.81 -3.69 
182.53 104.09 -4.96 
182.57 103.91 -4.50 
183.59 104.38 -5.00 
183.91 104.38 -5.05 
187.88 104.03 -8.99 
187.81 103.77 -8.20 
187.74 104.00 -7.88 
187.85 104.08 -7.05 
188.10 103.79 -7.86 
188.09 103.80 -7.35 
170.88 104.89 -5.60 
171.02 104.70 -5.09 
171.22 104.89 -5.54 
171.21 104.54 -4.71 
171.80 104.47 -4.49 
172.34 104.59 -4.83 
173.04 104.63 -5.09 
173.03 105.01 -4.48 
172.89 104.65 -3.29 
172.89 104.65 -3.29 
173.66 104.47 -4.65 
173.66 104.53 -4.01 
173.52 104.95 -3.57 
173.58 105.07 -2.70 
174.39 104.49 -4.86 
174.42 104.65 -4.32 
174.42 104.69 -3.80 
175.27 104.87 -5.35 
175.05 104.54 -4.65 
175.00 104.70 -4.19 
175.16 104.86 -3.46 
175.72 104.61 -6.11 
175.65 104.72 -5.44 
175.34 104.93 -5.16 
176.16 104.60 -8.15 
176.27 104.73 -7.55 
176.45 104.63 -6.75 
176.46 104.66 -6.12 
176.24 104.82 -5.75 
176.12 105.05 -4.86 
176.83 104.66 -6.36 
176.83 104.68 -5.76 
179.43 104.95 -5.37 
179.29 104.94 -5.23 
179.09 104.70 -3.62 
179.63 104.58 -5.37 
179.55 104.50 -4.93 
179.67 104.44 -3.63 
180.91 104.54 -9.43 
181.22 104.71 -5.01 
181.97 104.73 -5.03 
182.60 104.47 -5.29 
183.54 104.92 -5.35 
183.96 104.62 -5.46 
183.90 104.54 -4.75 
184.79 104.83 -8.91 
185.12 104.78 -8.50 
185.11 104.78 -7.68 
185.11 104.79 -6.87 
184.98 104.64 -6.35 
184.96 104.63 -5.89 
185.13 104.76 -9.32 
185.12 104.78 -8.50 
185.17 104.99 -7.74 
185.16 105.16 -7.09 
185.15 105.16 -6.36 
170.35 105.25 -5.55 
170.75 105.28 -5.67 
171.15 105.19 -5.13 
171.12 105.54 -5.04 
172.48 105.61 -4.89 
172.24 105.38 -4.53 
173.10 105.74 -4.83 
172.59 105.81 -4.31 
173.09 105.78 -3.23 
173.28 105.60 -4.83 
173.25 105.49 -3.45 
174.38 105.28 -4.47 
175.20 105.68 -5.58 
174.90 105.69 -4.99 
175.02 105.23 -4.28 
174.94 105.05 -3.64 
175.68 105.51 -5.33 
175.55 105.31 -5.12 
175.64 105.76 -4.23 
176.53 105.32 -5.34 
176.45 105.41 -4.82 
176.91 105.64 -4.57 
178.73 105.57 -4.99 
178.60 105.42 -4.15 
178.96 105.33 -5.72 
179.08 105.51 -4.66 
178.99 105.40 -3.89 
179.56 105.27 -4.96 
185.01 105.30 -9.27 
185.00 105.28 -8.60 
184.97 105.24 -7.59 
185.28 105.26 -9.10 
185.28 105.26 -8.26 
185.27 105.26 -7.60 
185.27 105.26 -7.09 
185.52 105.69 -6.53 
185.80 105.79 -5.96 
185.85 105.75 -8.95 
185.84 105.76 -8.45 
185.77 105.96 -7.63 
172.34 105.84 -4.53 
173.10 106.50 -5.48 
172.95 106.42 -5.07 
172.94 106.25 -4.22 
173.42 106.35 -4.83 
173.42 105.93 -4.08 
175.22 106.17 -5.50 
175.67 106.07 -5.51 
175.91 106.04 -4.98 
176.10 106.45 -5.00 
176.17 105.86 -4.52 
177.62 106.39 -9.14 
177.68 106.41 -5.11 
178.12 106.43 -6.07 
178.64 106.13 -5.30 
178.44 106.43 -5.00 
178.48 106.32 -4.23 
178.62 106.13 -3.75 
178.83 105.95 -5.43 
185.80 105.96 -9.02 
185.79 105.96 -8.56 
185.77 105.96 -7.63 
185.82 105.78 -6.96 
185.74 105.96 -6.24 
185.73 105.96 -5.77 
189.03 106.33 -7.97 
189.25 106.17 -7.36 
189.57 106.08 -7.50 
189.36 106.09 -6.95 
170.35 106.92 -5.08 
170.71 107.15 -4.89 
172.82 106.73 -5.33 
173.07 107.09 -5.26 
173.23 106.75 -5.21 
173.88 106.93 -4.38 
173.99 107.00 -4.52 
175.71 106.73 -5.61 
177.16 106.77 -9.15 
177.33 106.98 -8.40 
177.36 107.04 -7.67 
177.58 106.61 -8.14 
177.78 106.63 -7.66 
177.72 106.75 -6.98 
178.09 107.04 -6.21 
178.04 107.00 -5.48 
177.89 107.08 -4.59 
178.40 106.56 -5.46 
178.40 106.82 -4.58 
178.26 107.06 -4.29 
182.03 106.95 -4.79 
181.83 106.79 -4.44 
188.96 106.56 -7.55 
188.95 106.57 -6.94 
170.38 107.83 -5.36 
170.20 107.33 -5.09 
177.63 107.43 -4.76 
177.76 107.31 -4.55 
187.17 107.91 -5.90 
177.43 108.44 -4.66 
178.94 108.44 -4.02 
179.38 108.49 -3.72 
182.21 108.42 -4.85 
187.15 108.14 -8.84 
187.14 108.15 -8.21 
187.13 108.15 -7.59 
187.12 108.16 -6.96 
187.11 108.17 -6.33 
187.10 108.17 -5.70 
187.08 108.17 -5.06 
187.09 108.08 -4.09 
176.60 109.27 -3.94 
176.92 108.79 -3.91 
178.90 108.82 -4.48 
182.18 108.66 -4.90 
182.43 108.71 -4.66 
168.17 109.89 -3.29 
168.98 109.95 -3.93 
168.41 110.00 -3.75 
168.84 109.85 -3.02 
169.07 109.63 -3.34 
168.23 110.26 -3.90 
167.99 110.37 -3.52 
168.40 110.46 -4.21 
168.97 110.04 -3.37 
