# .PCD v0.7 - Point Cloud Data file format
VERSION 0.7
FIELDS x y z
SIZE 4 4 4
TYPE F F F
COUNT 1 1 1
WIDTH 101
HEIGHT 1
VIEWPOINT 0 0 0 1 0 0 0
POINTS 101
DATA ascii
172.406720 162.604970 -5.410922
171.645710 161.142200 -4.451263
171.444090 161.383730 -6.573406
171.500870 161.457890 -4.520970
172.530610 163.232760 -4.334125
172.462920 163.238830 -8.222238
173.543490 165.282470 -8.182283
171.567340 161.494540 -5.294317
173.655790 165.441960 -4.944545
171.598890 161.537320 -4.295113
172.591520 163.421920 -4.085519
175.966770 160.739460 -2.851944
171.105820 160.869350 -6.250352
171.142430 160.923980 -5.301061
172.291290 163.106380 -5.099225
171.172010 160.972270 -4.346222
172.324950 163.161440 -4.091964
176.330120 161.335530 -2.785593
171.778960 162.472110 -8.271995
169.114820 165.250090 -8.290012
171.523210 167.126270 -8.224143
171.341190 169.692920 -8.198511
173.452350 165.632770 -5.118454
171.908920 162.656160 -4.431096
173.490390 165.688230 -4.075865
170.079100 161.316070 -8.433685
171.284060 161.716860 -8.409398
169.592420 161.065490 -8.444350
171.084320 162.113080 -8.410987
167.803240 163.642880 -8.459075
170.885740 161.159760 -8.352031
168.664980 162.011990 -8.244550
169.680280 162.875340 -8.218045
170.728900 163.714320 -8.191247
172.905230 162.761400 -6.732325
167.829390 166.184050 -8.569568
173.875550 163.133210 -8.450202
177.515690 160.842290 -8.383774
177.441470 160.881810 -7.651934
177.366490 160.921660 -6.916172
177.291050 160.961810 -6.175736
173.653810 163.235530 -5.964278
177.215160 161.002230 -5.429881
177.138690 161.042540 -4.677863
168.884800 164.911990 -8.585615
168.343050 164.422320 -8.606057
169.402500 165.467350 -8.564187
170.959230 167.137020 -8.499750
172.810880 164.093960 -8.486263
177.312420 161.140990 -8.397656
177.253430 161.173890 -7.635446
177.193600 161.207090 -6.870019
177.133470 161.241070 -6.100567
173.996050 163.731640 -5.897875
177.077680 161.269790 -5.326894
177.017260 161.303330 -4.547347
174.471330 163.219150 -8.457993
174.310470 162.380910 -8.474171
176.776930 161.501890 -8.413183
178.110840 160.841900 -8.382714
178.056690 160.871280 -7.625324
176.718480 161.533290 -7.626225
178.002000 160.901230 -6.864969
177.946850 160.931660 -6.100871
173.042500 163.681720 -5.863216
174.891420 160.654920 -6.078095
176.600220 161.598050 -6.041998
177.895400 160.956760 -5.332823
177.840090 160.986820 -4.559216
176.485290 161.657390 -4.439516
176.416440 161.967590 -8.512857
176.269130 161.113100 -8.527661
177.797320 161.196560 -8.478071
179.073680 160.484700 -8.445905
177.745830 161.223190 -7.698463
179.025860 160.509570 -7.695265
174.386410 163.425520 -7.696356
173.418840 162.433960 -7.742071
177.693790 161.250310 -6.916131
178.977390 160.534740 -6.942075
172.347660 160.531460 -6.967948
174.812670 160.771160 -6.951189
177.641390 161.277890 -6.130300
178.928590 160.560390 -6.185594
173.689360 161.016110 -6.108773
176.248780 162.055420 -6.069649
177.592640 161.300380 -5.340695
178.879240 160.586170 -5.425063
176.196370 162.079940 -5.247782
177.540250 161.327580 -4.545741
178.834240 160.606190 -4.660454
176.139760 162.109240 -4.420262
178.785340 160.631160 -3.889866
181.395430 162.046050 -3.055146
169.356060 166.391080 -8.418105
168.807010 165.709210 -8.451465
168.976500 164.823390 -8.484548
168.359330 164.209080 -8.514131
172.412380 160.933560 -6.349966
172.169250 161.213620 -6.375553
173.019530 161.223560 -7.012507
