# .PCD v0.7 - Point Cloud Data file format
VERSION 0.7
FIELDS x y z
SIZE 4 4 4
TYPE F F F
COUNT 1 1 1
WIDTH 1218
HEIGHT 1
VIEWPOINT 0 0 0 1 0 0 0
POINTS 1218
DATA ascii
191.37 21.02 -13.80 
191.22 20.97 -13.18 
191.24 20.96 -12.45 
191.26 20.95 -11.71 
191.22 20.94 -10.71 
191.36 21.08 -10.06 
191.37 21.08 -9.44 
191.38 21.07 -8.81 
191.30 20.91 -8.25 
191.33 20.90 -7.42 
191.83 20.97 -13.72 
191.68 20.99 -13.11 
191.71 21.10 -12.37 
191.70 20.99 -11.54 
191.71 20.99 -11.01 
191.65 20.85 -10.15 
191.73 20.99 -9.41 
191.62 20.99 -8.81 
191.95 20.64 -8.16 
191.82 20.61 -7.77 
192.47 20.92 -13.57 
192.47 20.93 -13.11 
192.38 20.97 -12.29 
192.51 20.95 -11.66 
192.50 20.87 -10.98 
192.47 20.61 -10.34 
192.59 20.60 -9.50 
192.33 20.41 -8.72 
169.57 21.76 -13.63 
169.68 21.73 -13.34 
170.00 21.56 -13.70 
189.85 21.70 -13.89 
189.87 21.70 -13.19 
189.73 21.73 -12.32 
189.75 21.72 -11.48 
189.93 21.67 -11.07 
189.95 21.67 -10.35 
189.97 21.66 -9.64 
189.84 21.69 -8.92 
189.86 21.68 -8.06 
189.70 21.83 -7.51 
190.56 21.62 -13.70 
190.60 21.71 -13.02 
190.58 21.62 -12.25 
190.61 21.80 -11.63 
190.41 21.58 -10.77 
190.42 21.57 -10.17 
190.43 21.57 -9.57 
190.45 21.57 -8.96 
190.54 21.47 -8.10 
191.03 21.57 -13.58 
191.03 21.57 -13.12 
191.02 21.58 -12.32 
191.11 21.60 -11.64 
191.01 21.58 -10.96 
191.20 21.47 -10.28 
191.04 21.35 -9.51 
190.83 21.31 -9.04 
190.85 21.30 -8.34 
191.62 21.31 -13.57 
191.69 21.30 -13.14 
191.61 21.32 -12.31 
191.70 21.32 -11.62 
191.68 21.29 -10.90 
191.80 21.30 -10.50 
192.26 21.08 -13.62 
192.26 21.08 -12.97 
192.23 21.09 -12.34 
192.12 21.13 -11.64 
192.18 21.13 -10.99 
192.22 21.11 -10.45 
169.33 22.16 -13.58 
170.17 22.15 -13.65 
170.09 22.35 -13.34 
170.78 21.98 -13.79 
188.59 22.46 -13.86 
188.48 22.44 -13.18 
188.62 22.45 -12.55 
188.54 22.42 -11.41 
188.44 22.50 -10.37 
188.48 22.48 -9.43 
188.59 22.50 -8.71 
188.51 22.47 -8.47 
188.54 22.46 -7.52 
189.13 22.38 -13.58 
188.95 22.47 -13.04 
188.94 22.47 -12.27 
189.13 22.43 -11.63 
189.11 22.40 -11.05 
188.94 22.43 -10.24 
188.94 22.43 -9.74 
188.64 22.38 -8.71 
188.92 22.31 -8.37 
189.68 22.24 -13.71 
189.62 22.18 -13.11 
189.80 22.08 -12.20 
189.71 22.17 -11.66 
189.61 22.18 -10.97 
189.76 22.00 -10.20 
189.53 22.01 -9.60 
189.55 22.01 -8.99 
189.66 21.84 -8.47 
189.70 21.83 -7.51 
190.21 21.97 -13.63 
190.33 22.04 -12.98 
190.32 21.89 -12.39 
190.33 22.01 -11.66 
190.36 21.95 -10.97 
190.30 21.85 -10.28 
191.03 22.03 -13.78 
190.76 22.06 -13.00 
190.90 21.91 -12.48 
190.89 21.91 -11.71 
190.81 22.15 -10.90 
190.89 21.86 -10.46 
168.24 22.51 -13.87 
168.69 23.20 -13.86 
169.28 22.83 -13.99 
187.61 22.98 -13.85 
187.59 23.08 -13.07 
187.43 23.16 -12.48 
187.61 23.14 -11.52 
187.60 23.09 -10.82 
187.56 23.05 -10.12 
187.57 23.04 -9.50 
187.64 23.00 -8.74 
187.53 23.01 -7.83 
188.43 22.82 -13.67 
188.33 22.74 -13.05 
188.32 22.75 -12.26 
188.39 22.85 -11.68 
188.31 22.76 -11.00 
188.16 22.61 -10.20 
188.21 22.78 -9.35 
188.06 22.65 -9.14 
188.23 22.58 -7.95 
188.85 22.67 -13.63 
188.89 22.70 -13.00 
188.92 22.65 -12.44 
188.91 22.66 -11.60 
188.89 22.67 -10.95 
188.94 22.43 -10.24 
189.17 22.85 -9.70 
189.41 22.67 -13.70 
189.41 22.67 -13.20 
189.41 22.67 -12.35 
189.42 22.68 -11.67 
189.42 22.68 -10.80 
189.38 22.51 -10.52 
190.59 23.02 -13.70 
190.42 22.98 -13.14 
190.59 23.02 -12.39 
190.43 23.00 -11.82 
190.59 23.01 -11.07 
190.59 23.00 -10.18 
190.90 22.67 -13.50 
190.91 22.67 -12.97 
190.91 22.68 -12.09 
190.92 22.68 -11.38 
191.13 23.13 -10.96 
191.14 23.14 -10.22 
191.52 22.80 -13.75 
191.52 22.81 -13.18 
191.53 22.81 -12.61 
191.53 22.81 -11.85 
191.53 22.81 -10.69 
191.54 22.81 -10.29 
186.20 23.70 -13.20 
186.23 23.69 -12.32 
186.26 23.68 -11.43 
186.29 23.67 -10.54 
186.32 23.66 -9.65 
186.35 23.65 -8.75 
186.55 23.55 -13.83 
186.76 23.55 -13.17 
186.57 23.49 -12.35 
186.77 23.54 -11.68 
186.91 23.47 -10.85 
186.77 23.54 -10.17 
186.78 23.54 -9.66 
186.84 23.54 -8.89 
186.71 23.44 -8.10 
186.74 23.43 -7.23 
187.46 23.33 -13.90 
187.58 23.28 -12.92 
187.47 23.33 -12.50 
187.56 23.30 -11.74 
187.55 23.31 -10.94 
187.32 23.32 -10.44 
187.57 23.34 -9.30 
187.25 23.30 -8.18 
188.14 23.85 -13.73 
188.14 23.84 -13.17 
188.33 23.82 -12.32 
188.14 23.83 -11.48 
188.15 23.83 -10.91 
188.15 23.83 -10.34 
188.15 23.82 -9.20 
188.97 23.82 -13.60 
188.98 23.82 -13.13 
188.76 23.38 -12.20 
188.98 23.82 -11.70 
188.98 23.82 -11.23 
188.98 23.82 -10.27 
188.99 23.82 -9.78 
189.59 23.66 -13.57 
189.59 23.65 -13.18 
189.59 23.65 -12.39 
189.59 23.65 -11.60 
189.49 23.33 -10.97 
189.39 23.29 -10.16 
189.39 23.28 -9.65 
190.63 23.43 -13.82 
190.15 23.51 -13.29 
190.15 23.50 -12.45 
190.65 23.46 -11.78 
190.66 23.47 -11.09 
190.67 23.49 -10.39 
191.10 23.35 -13.71 
191.13 23.40 -13.16 
191.16 23.47 -12.32 
190.92 23.48 -11.50 
191.21 23.57 -11.17 
191.36 23.61 -10.14 
191.72 23.53 -13.74 
191.75 23.58 -12.85 
191.76 23.60 -12.40 
191.78 23.64 -11.65 
191.80 23.68 -10.89 
191.81 23.69 -10.58 
184.75 24.58 -13.80 
184.76 24.58 -13.21 
184.82 24.44 -12.41 
184.81 24.57 -11.43 
184.82 24.56 -10.84 
184.84 24.56 -10.24 
184.84 24.55 -9.63 
184.91 24.41 -9.18 
184.94 24.40 -8.36 
185.51 24.28 -13.93 
185.51 24.28 -13.19 
185.51 24.27 -12.45 
185.51 24.27 -11.70 
185.52 24.26 -10.96 
185.52 24.26 -10.21 
185.52 24.25 -9.46 
185.55 24.09 -8.99 
185.57 24.08 -8.13 
185.47 24.51 -7.10 
186.44 24.06 -13.83 
186.45 24.06 -13.20 
186.32 23.97 -12.42 
186.16 24.05 -11.34 
186.17 24.05 -10.71 
186.17 24.04 -10.08 
186.17 24.04 -9.45 
186.17 24.03 -8.82 
186.18 24.54 -7.92 
187.22 24.41 -13.17 
186.88 23.91 -12.45 
186.99 23.97 -11.66 
186.89 23.90 -11.04 
187.00 23.97 -10.13 
187.00 23.96 -9.62 
187.71 24.19 -13.69 
187.22 24.41 -13.17 
187.17 24.45 -12.44 
187.23 24.41 -11.64 
187.23 24.41 -11.12 
187.71 24.17 -9.91 
187.23 24.40 -9.57 
188.55 24.26 -13.66 
188.39 24.32 -13.17 
188.55 24.26 -12.31 
188.40 24.31 -11.46 
188.56 24.25 -10.94 
188.40 24.30 -10.31 
188.40 24.30 -9.73 
188.40 24.29 -9.15 
189.81 24.10 -13.57 
189.81 24.10 -13.17 
189.81 24.10 -12.37 
189.82 24.19 -11.62 
189.81 24.10 -10.75 
189.81 24.10 -10.33 
190.38 24.59 -13.75 
190.38 24.60 -13.19 
190.24 24.49 -12.51 
190.38 24.60 -11.86 
190.21 24.47 -11.10 
190.20 24.48 -10.53 
191.14 23.95 -13.51 
191.15 23.96 -13.17 
191.33 24.42 -12.32 
191.17 24.00 -11.45 
191.18 24.02 -10.75 
191.18 24.03 -10.39 
191.61 24.47 -13.49 
191.62 24.50 -13.18 
191.58 24.09 -12.38 
191.59 24.10 -11.61 
191.59 24.10 -11.23 
191.60 24.11 -10.06 
192.12 24.42 -12.05 
192.13 24.43 -11.73 
192.16 24.49 -10.76 
192.17 24.51 -10.43 
184.31 24.98 -13.78 
184.31 24.97 -13.22 
184.29 25.00 -12.16 
184.32 24.96 -11.54 
184.32 24.96 -10.97 
184.32 24.95 -10.40 
184.32 24.95 -9.83 
184.30 24.98 -9.16 
184.41 25.12 -8.44 
184.89 25.09 -14.00 
184.89 25.08 -13.20 
184.89 25.08 -12.40 
184.90 25.07 -11.60 
184.90 25.07 -10.80 
184.90 25.06 -9.99 
184.71 24.66 -8.50 
185.17 24.85 -14.05 
185.18 24.85 -13.22 
185.18 24.84 -12.38 
185.18 24.84 -11.55 
185.81 25.18 -10.59 
185.19 24.83 -9.88 
185.81 25.18 -9.71 
185.19 24.82 -9.04 
185.77 24.82 -7.91 
185.86 24.95 -13.77 
186.16 25.17 -13.19 
186.16 25.16 -12.23 
185.87 24.94 -11.46 
186.17 25.16 -11.26 
186.17 25.15 -10.29 
185.87 24.93 -9.72 
185.88 24.93 -9.13 
185.82 25.17 -7.95 
186.99 25.07 -13.83 
186.99 25.06 -13.19 
186.99 25.06 -12.55 
186.99 25.05 -11.91 
187.00 25.04 -10.63 
187.00 25.04 -9.98 
187.00 25.03 -9.33 
186.52 25.12 -9.02 
187.82 24.64 -13.17 
187.48 25.01 -12.43 
187.83 24.63 -11.58 
187.48 25.00 -10.99 
187.83 24.62 -9.99 
187.83 24.61 -9.19 
187.49 24.98 -8.82 
187.56 25.27 -8.42 
188.20 25.13 -13.69 
188.21 25.12 -13.14 
188.12 25.24 -12.36 
188.21 25.12 -11.49 
188.21 25.11 -10.94 
188.21 25.11 -10.38 
188.21 25.11 -9.82 
188.13 25.22 -9.15 
188.93 25.15 -13.68 
189.01 25.16 -13.21 
189.01 25.16 -12.27 
188.92 25.12 -11.64 
188.92 25.11 -10.82 
188.92 25.11 -10.40 
188.92 25.27 -9.64 
188.92 25.27 -9.04 
189.45 24.85 -13.68 
189.42 24.84 -13.12 
189.68 24.85 -12.20 
189.67 24.85 -11.53 
189.66 24.86 -11.03 
189.46 24.83 -10.23 
189.45 24.72 -9.67 
190.27 25.04 -13.69 
190.28 25.06 -13.16 
190.28 25.06 -12.32 
190.28 25.06 -11.48 
190.23 24.78 -10.92 
190.29 25.05 -10.19 
190.08 24.65 -9.49 
190.89 24.93 -13.27 
191.40 25.14 -12.64 
190.89 24.91 -11.49 
190.89 24.91 -11.04 
190.88 24.89 -10.14 
192.08 25.15 -13.54 
191.63 25.05 -13.18 
191.57 24.92 -12.30 
191.65 25.10 -11.71 
191.58 24.91 -10.88 
191.58 24.91 -10.40 
192.48 25.22 -13.67 
192.50 25.28 -12.83 
192.45 24.76 -12.54 
192.46 24.76 -11.70 
192.46 24.77 -10.85 
192.11 25.19 -10.29 
184.75 25.41 -8.51 
184.44 25.75 -8.44 
185.51 25.48 -14.05 
185.52 25.47 -13.21 
185.52 25.47 -12.37 
185.23 25.68 -11.59 
185.53 25.46 -10.69 
185.23 25.67 -9.97 
185.53 25.45 -9.85 
185.53 25.45 -9.00 
185.66 25.61 -8.38 
186.42 25.94 -13.77 
186.15 25.85 -13.19 
186.16 25.84 -12.32 
186.16 25.84 -11.44 
186.17 25.43 -10.85 
186.16 25.83 -10.57 
186.16 25.83 -9.68 
186.17 25.82 -8.80 
186.71 25.52 -13.81 
186.91 25.91 -13.14 
186.92 25.90 -12.10 
186.72 25.51 -11.36 
186.92 25.89 -11.07 
186.93 25.88 -10.03 
187.05 26.03 -9.44 
186.72 25.49 -8.87 
187.78 25.58 -13.86 
187.46 25.80 -13.21 
187.78 25.57 -12.42 
187.79 25.57 -11.69 
187.48 25.80 -10.99 
187.79 25.56 -10.24 
187.72 25.31 -9.47 
187.28 25.55 -8.63 
187.58 25.90 -8.42 
188.40 25.51 -13.76 
188.41 25.49 -13.15 
188.40 25.51 -12.40 
188.41 25.51 -11.61 
188.47 25.60 -10.90 
188.47 25.60 -10.34 
188.42 25.49 -9.72 
188.47 25.84 -9.12 
189.25 25.64 -13.68 
189.18 25.80 -13.15 
189.19 25.79 -12.56 
189.25 25.63 -11.77 
189.19 25.79 -10.79 
189.26 25.63 -10.33 
189.26 25.63 -9.84 
189.20 25.78 -8.99 
189.94 25.68 -12.61 
189.94 25.68 -11.60 
189.95 25.68 -11.09 
189.95 25.68 -10.07 
189.95 25.68 -9.55 
190.57 25.64 -13.66 
190.58 25.64 -13.13 
190.54 25.57 -12.29 
190.58 25.64 -11.53 
190.59 25.64 -11.00 
190.59 25.63 -10.46 
190.59 25.63 -9.37 
191.15 25.44 -12.81 
191.41 25.96 -12.33 
191.14 25.42 -11.45 
191.14 25.41 -10.99 
191.14 25.40 -10.07 
191.83 25.43 -13.72 
191.83 25.43 -12.76 
191.83 25.42 -12.28 
191.51 25.37 -11.55 
191.56 25.48 -11.06 
191.64 25.66 -10.22 
191.83 25.41 -9.85 
192.30 25.69 -13.55 
192.31 25.70 -13.14 
192.31 25.71 -12.31 
192.32 25.73 -11.48 
192.33 25.73 -11.06 
192.33 25.74 -10.22 
192.34 25.75 -9.79 
184.47 26.39 -8.45 
185.76 26.55 -13.80 
185.77 26.54 -13.19 
185.78 26.54 -12.57 
185.56 26.29 -11.57 
185.57 26.28 -10.75 
185.57 26.28 -9.94 
185.57 26.28 -9.12 
186.51 26.51 -13.19 
185.87 26.10 -12.36 
185.87 26.10 -11.52 
185.82 26.53 -10.72 
185.83 26.53 -10.10 
185.85 26.52 -9.47 
185.88 26.08 -8.97 
186.64 26.17 -13.67 
186.65 26.17 -13.15 
186.66 26.17 -12.11 
186.67 26.17 -11.59 
186.68 26.17 -11.06 
186.70 26.42 -10.18 
186.70 26.41 -9.58 
186.71 26.41 -8.97 
186.96 26.58 -7.28 
186.54 26.48 -6.97 
187.55 26.11 -13.83 
187.55 26.11 -13.18 
187.31 26.57 -12.56 
187.31 26.57 -11.93 
187.32 26.56 -10.67 
187.56 26.08 -9.90 
187.33 26.55 -9.39 
187.33 26.55 -8.75 
188.09 26.15 -13.86 
188.09 26.15 -13.13 
188.09 26.14 -12.40 
188.10 26.14 -11.67 
188.10 26.14 -10.94 
188.10 26.13 -10.21 
188.19 26.27 -9.36 
188.23 26.57 -9.12 
188.73 26.11 -13.70 
188.73 26.11 -13.13 
188.80 26.49 -12.34 
188.74 26.10 -11.44 
188.74 26.10 -10.87 
188.81 26.47 -9.90 
188.74 26.09 -9.72 
188.81 26.47 -9.08 
189.56 26.18 -13.68 
189.56 26.18 -13.20 
189.56 26.18 -12.22 
189.57 26.18 -11.73 
189.57 26.17 -11.24 
189.57 26.17 -10.26 
189.57 26.17 -9.76 
190.19 26.18 -13.11 
190.20 26.18 -12.08 
190.20 26.18 -11.57 
190.20 26.18 -11.05 
190.21 26.18 -10.01 
190.21 26.18 -9.49 
191.03 26.64 -13.59 
191.03 26.64 -13.14 
191.03 26.64 -12.24 
191.13 26.68 -11.47 
191.03 26.64 -10.88 
190.96 26.53 -10.00 
191.13 26.68 -9.80 
191.90 26.20 -13.55 
191.91 26.22 -12.75 
191.92 26.23 -12.35 
191.93 26.25 -11.55 
191.94 26.26 -10.74 
191.85 26.46 -10.06 
191.47 26.34 -9.86 
192.38 26.52 -13.74 
192.60 26.32 -13.14 
192.38 26.51 -12.23 
192.28 26.42 -11.60 
192.29 26.45 -10.80 
192.33 26.48 -10.15 
192.38 26.50 -9.70 
184.98 27.17 -13.75 
184.98 27.16 -12.06 
184.99 27.16 -11.50 
184.99 27.16 -10.94 
184.99 27.15 -10.37 
184.99 27.15 -9.80 
184.50 27.02 -8.45 
185.37 26.90 -13.79 
185.38 26.90 -13.20 
185.40 27.00 -12.15 
185.38 26.89 -11.44 
185.41 26.99 -11.15 
185.41 26.98 -10.15 
185.39 26.88 -9.66 
185.42 26.98 -9.15 
185.86 26.93 -14.00 
186.21 26.75 -13.20 
186.22 26.74 -12.35 
186.22 26.74 -11.50 
186.23 26.73 -10.65 
185.87 26.91 -9.91 
186.23 26.73 -9.79 
185.96 27.23 -8.81 
186.24 26.71 -7.20 
186.96 26.94 -13.77 
186.96 26.94 -13.17 
186.97 26.94 -12.57 
186.89 27.17 -11.41 
186.89 27.17 -10.52 
186.97 26.93 -10.14 
186.98 26.92 -9.53 
186.54 27.26 -8.94 
186.56 27.37 -7.16 
186.91 27.15 -6.91 
187.34 27.34 -13.17 
187.35 27.34 -12.19 
187.35 27.33 -11.20 
187.36 27.33 -10.22 
187.36 27.32 -9.23 
187.76 26.95 -9.18 
187.36 27.31 -7.23 
188.40 26.74 -13.86 
188.44 26.78 -13.14 
188.41 26.73 -12.39 
188.41 26.72 -11.65 
188.44 26.77 -10.96 
188.45 26.77 -10.41 
188.42 26.71 -9.43 
188.71 27.30 -13.69 
189.14 27.13 -13.14 
188.73 27.32 -12.38 
189.15 27.12 -11.51 
189.15 27.11 -10.69 
188.74 27.31 -10.14 
188.93 27.05 -9.63 
190.10 27.23 -13.69 
190.10 27.23 -13.19 
190.10 27.23 -12.68 
190.10 27.23 -11.67 
190.11 27.22 -10.65 
189.88 27.19 -10.07 
189.76 26.83 -9.48 
190.10 27.23 -13.69 
190.10 27.23 -13.19 
190.00 27.39 -12.52 
190.10 27.23 -11.67 
190.10 27.22 -11.16 
190.44 27.05 -10.05 
190.11 27.22 -9.62 
191.12 26.68 -13.67 
191.40 27.23 -13.12 
191.10 26.78 -12.30 
191.12 26.82 -11.56 
191.41 27.23 -10.88 
191.04 27.03 -10.27 
191.99 27.11 -13.73 
191.98 27.10 -12.76 
191.98 27.09 -12.27 
191.98 27.09 -11.79 
191.79 27.33 -10.73 
191.61 26.93 -10.35 
192.59 27.09 -13.60 
192.23 26.89 -13.15 
192.24 26.91 -12.32 
192.25 26.93 -11.49 
192.23 27.09 -10.72 
192.27 26.97 -10.23 
192.27 26.98 -9.80 
185.46 28.14 -9.12 
186.42 27.96 -9.49 
186.10 27.43 -8.93 
186.89 28.06 -13.19 
186.90 28.06 -12.33 
186.90 28.05 -11.46 
186.91 28.05 -10.60 
186.86 27.83 -9.60 
186.92 28.03 -7.10 
187.53 28.00 -13.78 
187.89 27.65 -13.18 
187.54 28.00 -12.54 
187.54 28.00 -11.92 
187.76 27.43 -11.03 
187.55 27.99 -10.05 
187.55 27.98 -9.43 
187.88 27.43 -9.14 
187.77 28.06 -8.19 
187.24 27.84 -7.78 
187.24 27.83 -6.87 
188.49 27.79 -13.83 
188.49 27.78 -13.16 
188.49 27.78 -12.48 
188.49 27.77 -11.81 
188.50 27.77 -11.13 
188.32 28.00 -10.23 
188.27 27.71 -9.86 
188.51 27.75 -8.39 
189.05 27.94 -13.86 
189.05 27.93 -13.11 
189.05 27.93 -12.36 
189.06 27.93 -11.61 
189.00 27.82 -10.88 
189.00 27.82 -10.31 
188.65 27.47 -9.82 
189.07 27.91 -8.58 
189.49 27.78 -13.96 
189.49 27.78 -13.14 
189.50 27.77 -12.31 
189.50 27.77 -11.49 
189.51 27.76 -10.66 
189.70 27.78 -10.52 
190.38 27.79 -13.70 
190.30 27.95 -13.13 
190.30 27.95 -12.51 
190.39 27.78 -11.63 
190.35 27.92 -10.86 
190.35 27.46 -10.47 
191.09 27.85 -13.10 
191.10 27.85 -12.55 
191.10 27.86 -11.46 
191.02 27.71 -10.75 
190.96 28.00 -10.28 
191.69 27.80 -13.68 
191.69 27.80 -13.11 
191.63 27.86 -12.18 
191.94 28.02 -11.39 
191.75 27.68 -11.00 
191.59 27.49 -10.31 
192.23 27.69 -13.74 
192.23 27.68 -13.24 
192.23 27.67 -12.25 
192.27 27.84 -11.38 
192.30 27.59 -11.13 
168.62 28.80 -12.85 
185.06 28.17 -9.08 
185.68 28.67 -9.75 
185.14 28.25 -9.18 
186.17 28.26 -9.61 
186.55 28.20 -14.00 
186.57 28.18 -10.68 
186.76 28.51 -10.06 
186.80 28.63 -9.30 
187.83 28.56 -13.78 
187.59 28.55 -13.17 
187.59 28.55 -12.27 
187.60 28.54 -11.37 
187.84 28.54 -10.64 
187.60 28.54 -10.47 
187.29 28.68 -9.39 
187.28 28.71 -8.82 
187.28 28.71 -7.94 
187.61 28.53 -7.73 
187.28 28.70 -7.05 
188.19 28.21 -13.82 
188.18 28.23 -13.11 
188.20 28.20 -12.52 
188.51 28.77 -11.85 
188.54 28.49 -10.89 
188.44 28.51 -10.20 
188.19 28.21 -8.89 
189.28 28.38 -13.70 
189.28 28.38 -13.13 
189.28 28.38 -12.56 
189.29 28.37 -11.41 
188.93 28.45 -10.71 
189.29 28.37 -10.26 
188.82 28.34 -9.02 
188.82 28.33 -8.32 
189.43 28.56 -13.86 
189.85 28.44 -13.13 
189.86 28.43 -12.30 
189.86 28.43 -11.46 
189.76 28.39 -10.89 
189.45 28.54 -9.29 
189.87 28.42 -8.95 
190.60 28.53 -13.75 
190.61 28.53 -13.12 
190.61 28.53 -12.49 
190.53 28.56 -11.48 
190.34 28.50 -11.13 
190.46 28.41 -10.38 
190.14 28.79 -9.44 
190.14 28.79 -8.82 
191.40 28.44 -12.54 
191.21 28.59 -11.57 
191.13 28.10 -11.26 
191.96 28.53 -13.61 
191.96 28.53 -13.12 
191.99 28.71 -12.22 
191.87 28.39 -11.63 
191.97 28.53 -11.16 
192.55 28.33 -13.74 
192.55 28.32 -13.23 
192.55 28.31 -12.21 
192.32 28.35 -11.80 
192.54 28.29 -11.19 
167.76 29.30 -13.84 
167.90 29.17 -12.83 
171.93 29.25 -13.93 
185.68 28.87 -9.93 
186.31 29.45 -10.64 
186.18 29.03 -10.31 
187.11 29.07 -10.64 
186.54 28.81 -10.15 
186.93 28.83 -8.96 
187.63 29.42 -13.18 
187.63 29.41 -12.30 
187.64 29.41 -11.42 
187.68 29.13 -11.03 
187.65 29.40 -8.78 
187.65 29.39 -7.88 
187.65 29.39 -6.99 
188.09 29.11 -13.78 
188.09 29.11 -13.15 
188.09 29.11 -12.52 
187.98 29.25 -11.35 
188.23 28.99 -10.92 
188.20 29.23 -10.26 
188.11 29.09 -8.67 
188.18 28.82 -8.15 
188.00 29.23 -7.68 
188.00 29.23 -6.75 
188.82 29.37 -13.83 
188.82 29.37 -13.16 
188.83 29.36 -12.49 
188.98 29.24 -11.42 
189.11 28.99 -11.17 
188.63 29.01 -9.92 
189.14 28.93 -9.67 
188.84 29.35 -9.12 
188.84 29.34 -8.44 
189.77 29.19 -13.86 
189.77 29.19 -13.10 
189.58 28.94 -12.54 
189.66 29.26 -11.63 
189.58 29.08 -11.01 
189.79 29.17 -10.02 
189.79 29.17 -9.24 
189.59 28.94 -9.02 
189.80 29.17 -8.46 
190.44 29.40 -13.72 
190.22 29.11 -13.12 
190.45 29.25 -12.01 
190.15 29.13 -11.74 
190.11 29.10 -10.81 
190.45 29.39 -10.00 
190.46 29.39 -9.37 
190.46 29.38 -8.74 
190.98 29.24 -13.71 
190.93 29.12 -13.12 
191.00 29.24 -12.24 
191.00 29.07 -11.85 
190.94 29.11 -9.25 
191.88 28.87 -13.60 
191.69 28.92 -12.91 
191.61 29.02 -12.37 
191.72 29.05 -11.96 
192.05 28.85 -10.11 
192.07 28.88 -9.68 
191.73 29.06 -9.09 
192.37 29.01 -13.69 
192.37 29.01 -13.10 
192.37 29.01 -12.51 
192.53 29.27 -11.94 
167.90 29.72 -13.59 
167.85 29.53 -12.97 
186.32 29.52 -10.70 
186.23 30.03 -10.57 
187.04 30.00 -11.40 
187.00 30.08 -11.27 
187.64 30.18 -12.30 
187.64 30.18 -11.45 
187.48 29.65 -11.24 
188.40 29.69 -13.79 
188.36 29.97 -13.16 
188.41 29.69 -12.50 
188.20 29.66 -11.64 
188.41 29.68 -11.21 
188.55 29.59 -10.14 
188.42 29.68 -9.26 
188.42 29.67 -8.60 
188.03 30.09 -7.83 
188.04 30.08 -6.92 
189.09 29.96 -13.83 
189.05 29.84 -13.09 
189.06 29.83 -12.03 
189.14 29.81 -11.97 
189.06 29.83 -10.96 
189.07 29.82 -9.88 
189.11 29.95 -9.75 
189.11 29.94 -9.07 
189.12 29.94 -8.37 
189.91 29.69 -13.64 
189.91 29.70 -13.10 
189.90 29.85 -12.12 
189.46 29.55 -11.74 
189.80 30.17 -11.00 
189.80 30.17 -10.28 
189.89 29.53 -9.55 
189.47 29.54 -8.91 
189.47 29.53 -8.19 
190.29 29.67 -13.91 
190.33 29.77 -13.10 
190.59 29.79 -12.27 
190.57 29.96 -11.68 
190.14 29.83 -10.76 
190.14 29.82 -9.97 
190.15 29.82 -9.19 
190.30 30.20 -8.84 
190.14 29.81 -8.40 
191.25 29.74 -13.76 
191.25 29.74 -13.11 
191.26 29.74 -12.46 
190.77 30.00 -10.58 
191.27 29.72 -9.18 
190.78 30.00 -8.66 
192.04 29.68 -13.08 
192.05 29.68 -12.51 
192.48 29.76 -13.50 
192.49 29.80 -13.06 
192.50 29.83 -12.62 
192.53 29.89 -11.73 
169.05 30.85 -12.92 
172.51 30.59 -12.84 
172.28 30.79 -11.11 
172.33 30.74 -10.46 
173.16 30.65 -12.83 
172.99 30.75 -11.81 
173.05 30.90 -11.02 
173.21 30.27 -10.56 
173.80 30.87 -12.88 
173.51 30.65 -10.82 
186.57 30.30 -11.33 
186.86 30.52 -11.23 
187.38 30.83 -12.08 
187.46 30.52 -11.89 
188.31 30.49 -13.69 
188.39 30.82 -13.16 
188.01 30.87 -12.29 
188.18 30.24 -11.63 
188.40 30.81 -10.48 
188.41 30.80 -9.58 
188.41 30.80 -8.68 
188.42 30.80 -7.77 
188.42 30.79 -6.86 
188.72 30.29 -13.79 
188.75 30.69 -13.15 
188.73 30.29 -12.48 
188.88 30.45 -11.33 
188.97 30.37 -10.11 
188.78 30.68 -9.45 
188.97 30.37 -9.09 
188.98 30.36 -8.06 
188.78 30.67 -7.57 
188.79 30.67 -6.63 
189.43 30.58 -13.83 
189.43 30.58 -13.15 
189.69 30.70 -12.11 
189.46 30.65 -10.94 
189.44 30.57 -10.39 
189.45 30.56 -9.70 
189.47 30.64 -8.77 
189.45 30.56 -8.30 
190.48 30.50 -13.87 
190.28 30.21 -13.11 
190.49 30.50 -12.30 
190.50 30.49 -10.72 
190.50 30.49 -9.93 
190.10 30.79 -9.51 
190.50 30.48 -9.13 
190.51 30.48 -8.33 
191.60 30.24 -13.73 
191.60 30.24 -13.17 
191.95 30.88 -12.14 
192.22 30.55 -12.15 
192.12 30.72 -11.96 
169.23 31.19 -14.08 
169.24 31.19 -12.91 
171.04 31.38 -10.62 
171.43 31.47 -10.96 
171.15 31.58 -10.19 
172.27 31.23 -12.90 
172.18 31.55 -12.05 
172.28 31.18 -11.32 
172.31 31.05 -10.95 
172.13 31.02 -10.48 
172.88 31.39 -12.81 
172.95 31.48 -12.09 
172.85 31.39 -11.54 
172.85 31.35 -11.06 
172.57 31.16 -10.56 
173.30 31.54 -13.91 
173.45 31.35 -12.87 
173.60 31.20 -12.16 
173.39 31.28 -11.69 
173.52 31.18 -10.90 
173.77 31.25 -10.33 
174.02 31.35 -12.86 
174.01 31.39 -12.15 
173.99 31.41 -11.42 
174.20 31.40 -10.89 
173.97 31.03 -10.49 
189.06 30.91 -13.79 
189.06 30.91 -13.13 
189.06 30.90 -12.47 
189.21 31.07 -11.29 
189.16 31.43 -11.28 
189.17 31.42 -10.34 
188.80 31.53 -9.54 
189.39 31.16 -11.10 
189.40 31.16 -10.07 
189.40 31.16 -9.05 
191.07 31.20 -12.27 
191.54 31.36 -13.08 
192.04 31.49 -12.66 
192.51 31.14 -12.29 
168.95 31.61 -12.95 
169.14 31.96 -12.94 
170.38 32.24 -11.32 
170.37 32.17 -11.10 
170.22 32.05 -10.43 
170.82 32.03 -10.96 
170.68 31.99 -10.25 
171.31 31.86 -12.41 
171.70 32.03 -11.56 
171.44 31.84 -11.06 
171.67 31.96 -10.42 
172.15 32.24 -13.88 
172.28 32.24 -13.20 
172.28 32.12 -12.54 
172.09 31.98 -11.65 
172.11 31.88 -10.84 
172.22 31.80 -10.50 
172.74 32.05 -13.90 
172.74 32.07 -12.93 
172.71 31.87 -12.30 
172.72 31.85 -11.63 
172.75 31.70 -11.02 
173.08 31.67 -10.49 
173.46 32.25 -13.54 
173.79 32.02 -12.77 
173.44 32.15 -12.39 
173.43 32.02 -11.65 
173.62 32.01 -10.98 
173.39 31.69 -10.49 
174.26 31.86 -12.85 
173.94 32.04 -12.47 
174.09 31.67 -10.53 
188.93 31.73 -11.35 
190.43 32.15 -13.16 
190.43 32.16 -12.60 
191.24 31.69 -13.56 
191.23 31.70 -13.11 
191.02 31.75 -12.51 
169.34 32.33 -12.93 
169.57 32.32 -11.38 
169.65 32.71 -10.88 
170.00 32.64 -12.88 
170.22 32.58 -10.91 
170.32 32.77 -10.29 
170.69 32.47 -13.83 
170.70 32.49 -12.97 
170.96 32.91 -12.33 
170.79 32.83 -11.69 
170.74 32.58 -11.10 
170.50 32.38 -10.27 
171.47 32.88 -13.87 
171.69 32.78 -13.09 
171.74 32.60 -12.34 
171.39 32.66 -11.73 
171.46 32.60 -11.12 
171.74 32.53 -10.12 
172.03 32.66 -13.85 
172.04 32.68 -12.94 
171.98 32.53 -12.34 
172.08 32.54 -11.50 
172.22 32.45 -11.15 
172.16 32.35 -10.21 
172.56 32.68 -13.89 
172.93 32.51 -13.18 
172.55 32.31 -12.19 
172.55 32.36 -11.50 
172.50 32.45 -10.80 
173.02 32.42 -10.41 
173.31 32.35 -13.57 
173.67 32.57 -12.83 
174.02 32.51 -12.75 
175.20 32.88 -10.32 
175.33 32.62 -10.19 
176.33 32.77 -10.27 
189.89 32.39 -13.71 
189.90 32.39 -13.09 
189.90 32.39 -12.46 
190.17 32.35 -13.07 
168.93 33.53 -13.88 
168.94 33.54 -12.98 
168.36 33.53 -9.38 
168.48 33.38 -8.97 
169.33 33.25 -12.96 
169.55 33.66 -12.07 
169.45 33.46 -11.50 
169.39 33.46 -10.90 
169.38 33.32 -9.91 
169.19 33.09 -9.27 
169.21 33.35 -8.99 
169.83 33.25 -13.63 
169.99 33.53 -12.89 
170.21 33.47 -12.19 
170.21 33.35 -11.75 
169.98 33.48 -10.98 
169.78 33.51 -10.46 
170.80 33.38 -13.86 
170.81 33.39 -12.94 
170.71 33.26 -12.34 
170.64 33.23 -11.37 
170.64 33.25 -11.05 
171.41 33.10 -13.86 
171.41 33.10 -12.94 
171.11 33.21 -12.29 
171.26 33.23 -11.47 
171.47 33.44 -11.02 
171.66 33.61 -9.96 
172.50 33.04 -12.89 
171.90 33.06 -11.07 
171.93 32.99 -10.24 
172.78 33.61 -12.87 
172.57 33.09 -10.69 
173.74 33.27 -12.74 
174.21 33.68 -12.88 
175.04 33.01 -10.28 
175.49 33.13 -10.29 
176.10 33.31 -10.24 
177.17 33.66 -10.20 
168.03 34.03 -13.78 
167.70 34.22 -12.88 
168.25 34.19 -11.48 
167.98 34.39 -11.05 
167.89 34.00 -10.15 
168.48 33.70 -13.42 
168.49 33.71 -12.98 
168.98 34.25 -12.30 
168.64 34.37 -11.45 
168.58 34.20 -11.12 
168.54 33.87 -10.22 
168.68 33.86 -9.17 
169.34 34.21 -13.91 
169.41 34.21 -13.08 
169.38 34.04 -12.18 
169.32 33.87 -11.65 
169.47 34.00 -11.12 
169.29 34.15 -10.43 
169.89 33.74 -13.84 
169.84 33.90 -13.09 
169.78 33.79 -12.34 
169.94 33.99 -11.61 
170.19 33.91 -11.08 
170.34 34.32 -10.05 
169.96 34.33 -9.72 
170.60 33.66 -11.64 
170.50 33.91 -11.06 
170.45 34.21 -10.25 
170.89 34.22 -7.27 
171.25 33.93 -13.92 
171.19 33.91 -10.93 
171.30 34.10 -7.33 
172.21 33.76 -9.93 
172.42 33.94 -9.55 
173.08 34.23 -12.85 
173.83 34.30 -12.80 
174.36 34.03 -12.77 
175.33 33.81 -10.33 
175.08 33.70 -9.86 
175.65 34.19 -10.30 
175.42 33.93 -9.83 
176.33 33.84 -10.36 
177.32 33.78 -10.27 
177.68 34.15 -10.20 
168.21 34.86 -13.81 
168.10 34.84 -12.85 
168.01 34.82 -12.37 
168.14 34.92 -11.72 
167.87 34.88 -11.13 
167.65 34.69 -10.16 
168.01 34.85 -9.60 
168.59 34.87 -13.92 
168.83 34.81 -13.26 
168.54 34.50 -12.34 
168.68 34.65 -11.69 
168.50 34.69 -11.02 
168.96 34.97 -10.31 
168.59 34.66 -9.70 
168.36 34.99 -9.11 
169.29 34.48 -13.62 
169.67 34.89 -12.93 
169.12 34.53 -12.32 
169.27 34.54 -11.65 
169.35 34.66 -11.00 
169.07 34.42 -10.45 
169.89 34.99 -12.53 
170.02 34.75 -11.58 
169.73 34.46 -10.44 
170.24 34.76 -9.87 
173.29 34.60 -12.72 
175.03 34.60 -10.04 
175.83 34.73 -10.38 
176.52 34.91 -10.30 
177.35 34.80 -10.37 
177.80 34.75 -10.39 
167.98 35.21 -13.80 
167.98 35.21 -13.33 
168.07 35.35 -12.26 
167.81 35.09 -11.51 
167.66 35.14 -10.96 
167.97 35.34 -10.28 
167.70 35.33 -9.71 
168.64 35.37 -13.91 
168.71 35.36 -13.30 
168.42 35.35 -12.08 
168.86 35.36 -11.43 
168.36 35.21 -10.98 
168.60 35.26 -10.47 
169.58 35.16 -13.59 
169.48 35.16 -11.87 
169.38 35.34 -10.99 
169.67 35.31 -10.19 
170.02 35.20 -10.60 
170.02 35.20 -10.60 
176.01 35.40 -10.26 
176.13 35.13 -10.33 
