# .PCD v0.7 - Point Cloud Data file format
VERSION 0.7
FIELDS x y z
SIZE 4 4 4
TYPE F F F
COUNT 1 1 1
WIDTH 155
HEIGHT 1
VIEWPOINT 0 0 0 1 0 0 0
POINTS 155
DATA ascii
187.89 60.69 -11.23 
187.46 61.07 -10.98 
187.45 61.05 -9.99 
187.62 61.19 -9.13 
190.17 61.37 -11.42 
190.16 61.35 -10.34 
190.15 61.34 -9.25 
191.41 61.38 -10.96 
191.54 61.34 -9.83 
191.53 61.33 -9.04 
191.98 61.23 -11.26 
191.79 61.27 -10.88 
191.96 61.18 -10.10 
191.94 61.17 -9.38 
192.00 61.22 -8.89 
192.33 61.00 -11.47 
192.32 61.00 -10.78 
192.34 60.97 -10.08 
192.30 60.96 -9.40 
192.31 61.07 -9.02 
187.53 61.64 -11.19 
187.98 61.69 -10.93 
187.53 61.62 -10.25 
187.35 61.99 -9.76 
187.96 61.65 -9.05 
188.45 61.87 -10.98 
188.45 61.86 -10.03 
188.44 61.85 -9.08 
189.92 62.04 -11.35 
189.91 62.04 -10.33 
189.90 62.03 -9.30 
190.71 61.91 -11.50 
190.54 61.90 -10.85 
190.54 61.90 -10.06 
190.60 61.94 -9.35 
190.60 62.00 -8.90 
191.25 61.61 -11.49 
191.15 61.63 -10.89 
191.14 61.63 -10.12 
191.14 61.63 -9.35 
191.23 61.67 -9.04 
191.69 61.41 -11.20 
191.81 61.42 -11.05 
191.65 61.54 -10.23 
191.55 61.53 -9.59 
192.44 61.73 -11.23 
192.25 61.47 -10.95 
192.43 61.73 -10.21 
192.43 61.73 -9.20 
188.45 62.45 -11.34 
188.59 62.56 -11.09 
188.44 62.42 -10.26 
188.57 62.51 -9.35 
189.14 62.63 -11.52 
189.23 62.74 -10.92 
189.23 62.74 -10.00 
189.33 62.54 -9.33 
189.36 62.67 -8.95 
189.83 62.48 -11.66 
189.72 62.29 -10.91 
189.72 62.25 -10.21 
189.90 62.23 -9.32 
189.82 62.42 -8.92 
190.32 62.15 -11.37 
190.25 62.36 -10.87 
190.37 62.18 -10.07 
190.45 62.13 -9.60 
190.18 62.18 -9.04 
190.97 62.21 -10.31 
190.96 62.22 -9.24 
191.58 62.17 -11.21 
191.57 62.17 -10.20 
191.57 62.17 -9.19 
187.99 63.41 -11.63 
187.99 63.41 -10.84 
187.98 63.41 -10.06 
187.87 63.46 -9.38 
187.98 63.47 -9.08 
188.55 63.16 -11.41 
188.33 63.09 -10.87 
188.42 63.16 -10.15 
188.42 63.15 -9.37 
188.39 63.22 -8.91 
189.10 62.80 -11.53 
188.97 62.85 -10.92 
188.97 62.85 -10.14 
188.97 62.85 -9.37 
188.95 62.91 -8.90 
189.92 63.00 -11.16 
189.91 62.98 -10.18 
189.90 62.97 -9.19 
187.69 63.64 -11.31 
187.69 63.63 -10.52 
187.69 63.55 -10.05 
187.69 63.62 -9.73 
187.69 63.62 -8.95 
192.20 77.36 -8.40 
191.99 76.79 -8.32 
192.43 77.05 -8.72 
192.44 77.10 -8.16 
192.03 77.69 -9.94 
191.98 78.12 -8.94 
191.72 77.68 -8.07 
191.72 78.03 -7.56 
191.91 78.05 -6.83 
192.45 77.93 -10.12 
192.53 78.09 -9.15 
192.42 77.76 -8.40 
192.39 78.12 -8.37 
191.84 78.52 -9.97 
191.89 78.44 -9.09 
191.61 78.52 -9.05 
192.00 78.44 -8.32 
192.02 78.68 -7.04 
192.56 78.42 -9.66 
192.32 78.38 -8.47 
192.52 78.44 -7.25 
192.46 78.82 -6.27 
191.28 79.00 -9.09 
191.51 79.09 -8.59 
191.50 78.93 -8.29 
192.01 79.16 -9.44 
191.95 79.21 -8.80 
192.23 79.51 -8.08 
192.18 79.53 -7.07 
192.05 79.37 -6.65 
192.43 79.27 -9.48 
192.34 79.58 -8.79 
192.60 79.22 -8.23 
192.32 79.25 -7.65 
192.45 79.31 -6.60 
192.58 79.39 -6.23 
191.59 79.67 -9.38 
191.83 79.96 -8.82 
191.96 79.99 -7.76 
191.73 79.75 -7.26 
192.03 79.89 -6.73 
192.50 80.27 -9.39 
192.54 80.18 -8.41 
192.40 79.86 -8.24 
192.41 79.60 -6.60 
191.54 80.63 -7.68 
192.16 80.85 -8.76 
192.00 80.80 -7.02 
192.09 80.58 -6.75 
192.58 80.38 -9.28 
192.51 80.73 -8.87 
192.42 80.84 -8.34 
192.35 80.53 -7.12 
192.43 80.36 -6.62 
191.98 81.39 -9.37 
192.15 81.45 -8.85 
192.59 81.27 -9.55 
192.59 81.34 -8.76 
192.06 81.82 -8.78 
