# .PCD v0.7 - Point Cloud Data file format
VERSION 0.7
FIELDS x y z
SIZE 4 4 4
TYPE F F F
COUNT 1 1 1
WIDTH 826
HEIGHT 1
VIEWPOINT 0 0 0 1 0 0 0
POINTS 826
DATA ascii
193.68 85.85 -5.35 
194.28 85.73 -6.10 
194.07 85.65 -5.75 
194.99 85.79 -6.56 
194.87 85.77 -6.24 
194.68 85.96 -5.75 
195.64 85.88 -7.26 
195.49 85.88 -6.89 
195.41 85.78 -6.34 
195.22 85.86 -5.69 
196.22 85.82 -7.33 
196.20 85.85 -7.03 
196.14 85.85 -6.26 
196.85 85.88 -7.50 
196.87 85.83 -7.03 
197.52 85.99 -7.44 
197.61 85.85 -6.92 
197.68 85.55 -5.95 
197.92 85.88 -5.75 
197.63 85.64 -5.08 
198.26 85.91 -7.25 
198.02 85.92 -7.00 
198.33 85.95 -6.20 
198.36 85.83 -5.51 
198.42 85.65 -5.11 
199.13 86.06 -8.00 
199.08 85.77 -7.72 
199.03 85.83 -6.83 
198.97 85.77 -6.23 
199.12 85.73 -5.57 
199.13 85.74 -4.79 
199.21 85.57 -4.07 
199.26 85.74 -3.57 
199.63 85.74 -8.03 
199.68 85.74 -7.65 
199.74 85.75 -6.90 
199.49 85.56 -6.30 
199.46 85.97 -5.80 
199.52 85.82 -4.98 
199.83 85.72 -4.06 
199.87 85.74 -3.33 
199.81 85.97 -2.92 
200.69 86.05 -8.96 
200.08 85.61 -8.17 
200.41 85.83 -7.42 
200.38 85.66 -7.02 
200.49 85.62 -6.22 
200.58 85.86 -5.30 
200.22 86.11 -4.55 
200.52 85.82 -4.29 
200.49 86.06 -3.55 
201.09 85.75 -7.61 
201.19 85.83 -6.97 
201.34 85.73 -6.03 
201.12 86.13 -5.49 
201.00 85.78 -4.91 
201.48 85.66 -8.05 
201.69 85.60 -7.71 
201.91 85.80 -6.85 
201.80 86.10 -6.44 
201.66 85.95 -5.74 
201.90 85.85 -4.65 
201.73 86.03 -4.24 
202.46 85.66 -7.61 
202.47 85.52 -7.10 
202.94 85.65 -8.08 
202.89 85.58 -7.63 
203.47 85.92 -6.73 
203.01 86.07 -6.43 
204.63 86.04 -6.21 
204.97 86.14 -7.48 
205.42 86.04 -6.14 
206.15 86.03 -6.10 
205.67 86.15 -5.63 
205.85 85.78 -5.09 
213.24 85.94 -8.69 
213.24 85.92 -7.57 
213.23 85.91 -7.20 
213.23 85.90 -6.46 
213.58 85.80 -8.83 
213.58 85.79 -8.51 
213.57 85.77 -7.42 
213.57 85.76 -6.99 
213.41 85.79 -6.33 
214.41 85.97 -8.83 
214.41 85.96 -8.37 
214.41 85.96 -7.45 
214.41 85.95 -7.00 
214.45 86.00 -6.30 
214.46 86.00 -5.63 
214.49 86.07 -5.05 
214.82 85.48 -8.71 
214.82 85.48 -8.30 
214.82 85.48 -7.89 
193.56 86.79 -6.30 
194.12 86.77 -6.79 
194.13 86.76 -6.18 
194.42 86.28 -5.77 
195.03 86.56 -6.74 
194.84 86.42 -6.13 
195.03 86.24 -5.72 
195.48 86.22 -7.15 
195.67 86.33 -6.13 
195.47 86.47 -5.75 
196.25 86.37 -7.32 
196.32 86.17 -6.90 
196.10 86.82 -6.22 
196.34 86.44 -5.79 
197.08 86.29 -7.50 
196.83 86.23 -6.95 
196.89 86.23 -6.27 
197.42 86.21 -7.42 
197.55 86.30 -7.15 
197.76 86.55 -6.44 
197.68 86.77 -5.40 
198.39 86.78 -9.14 
198.59 86.63 -8.22 
198.42 86.63 -7.55 
198.34 86.35 -6.85 
198.37 86.57 -6.48 
198.40 86.44 -5.69 
198.08 86.59 -4.87 
198.73 86.56 -8.89 
199.00 86.76 -8.15 
199.10 86.58 -7.59 
199.04 86.54 -7.03 
199.09 86.60 -6.39 
198.89 86.58 -5.42 
198.95 86.64 -4.99 
199.51 86.69 -9.00 
199.68 86.57 -8.20 
199.59 86.41 -7.60 
199.59 86.47 -6.99 
199.70 86.76 -6.12 
199.68 86.66 -5.64 
199.55 86.38 -4.71 
200.05 86.31 -3.94 
199.54 86.64 -3.56 
199.64 86.26 -2.99 
200.26 86.38 -7.32 
200.23 86.85 -6.90 
200.43 86.60 -6.28 
200.16 86.38 -5.55 
200.41 86.35 -4.94 
200.27 86.41 -3.91 
200.71 86.49 -3.42 
201.05 86.41 -8.96 
201.24 86.24 -8.16 
200.91 86.27 -7.36 
201.24 86.51 -6.99 
201.06 86.71 -6.50 
201.07 86.42 -5.58 
201.22 86.67 -4.71 
201.02 86.38 -3.88 
200.89 86.80 -3.41 
201.85 86.66 -7.41 
202.04 86.75 -7.13 
202.05 86.76 -6.46 
201.61 86.49 -5.55 
201.73 86.32 -4.99 
201.63 86.83 -3.88 
202.24 86.76 -7.36 
202.53 86.55 -7.11 
202.58 86.52 -5.50 
202.52 86.79 -5.02 
202.94 86.67 -7.30 
203.21 86.59 -7.22 
203.43 86.73 -6.22 
203.09 86.44 -5.46 
203.95 86.64 -6.08 
204.77 86.57 -6.03 
204.89 86.48 -5.28 
204.85 86.76 -5.12 
205.32 86.22 -6.16 
205.53 86.62 -5.75 
205.61 86.38 -5.04 
206.21 86.26 -6.41 
205.95 86.60 -5.66 
206.47 86.21 -6.47 
213.62 86.27 -6.16 
214.50 86.42 -6.13 
193.58 87.45 -6.69 
193.49 87.03 -6.36 
194.29 87.39 -7.25 
194.32 87.32 -6.72 
193.98 87.15 -6.41 
194.08 87.09 -5.79 
194.71 87.44 -7.24 
194.81 87.46 -6.85 
194.66 87.22 -6.35 
195.33 87.34 -7.25 
195.46 87.26 -6.99 
195.29 86.87 -6.39 
196.10 87.21 -6.96 
196.19 86.98 -6.28 
197.18 87.50 -8.59 
196.65 86.89 -6.68 
197.78 87.16 -9.19 
197.80 87.45 -8.26 
197.86 87.36 -7.88 
197.80 87.56 -6.85 
197.91 87.48 -6.19 
197.89 87.18 -5.53 
197.76 87.39 -4.45 
197.91 87.55 -3.82 
198.34 87.23 -8.97 
198.51 87.24 -8.37 
198.54 87.21 -7.63 
198.37 87.43 -6.97 
198.31 87.37 -6.24 
198.16 87.35 -5.72 
198.28 87.33 -4.94 
198.26 87.34 -4.21 
198.97 87.16 -8.88 
198.91 87.20 -8.22 
198.94 87.25 -7.55 
199.10 87.18 -6.90 
199.03 87.06 -6.22 
199.13 87.36 -5.47 
198.94 87.11 -5.15 
199.44 86.98 -8.82 
199.48 87.07 -8.21 
199.55 86.96 -7.62 
199.70 86.95 -7.01 
199.62 87.17 -6.19 
199.63 87.29 -5.59 
199.45 87.01 -5.04 
199.63 86.94 -3.28 
200.40 86.88 -7.18 
200.18 87.28 -7.04 
200.30 87.51 -6.16 
200.18 87.24 -5.17 
200.26 86.95 -4.89 
200.58 87.30 -3.99 
200.58 87.02 -3.74 
201.15 87.17 -7.32 
201.27 87.22 -6.74 
200.93 87.09 -4.72 
201.11 87.09 -3.43 
201.70 87.30 -7.42 
201.75 87.40 -6.91 
201.90 86.97 -6.60 
202.15 87.40 -5.35 
201.65 86.94 -4.76 
202.72 87.54 -8.76 
202.84 87.46 -7.95 
202.50 87.26 -7.42 
202.50 87.09 -6.82 
202.58 87.01 -6.52 
202.74 86.93 -5.70 
203.21 87.08 -7.66 
203.26 87.02 -7.10 
203.04 87.25 -5.97 
203.39 87.25 -5.62 
203.27 87.57 -4.78 
203.98 87.03 -7.33 
203.75 87.09 -7.24 
203.92 87.25 -6.34 
203.91 87.36 -5.77 
203.68 87.10 -5.14 
204.02 87.44 -4.25 
204.31 87.18 -6.10 
204.32 87.35 -5.78 
204.77 87.28 -5.00 
205.05 86.96 -5.27 
205.69 86.91 -4.99 
193.74 87.88 -7.36 
193.77 87.94 -7.27 
193.23 87.75 -6.50 
194.06 87.89 -7.38 
194.22 87.85 -6.89 
194.35 87.73 -6.06 
194.67 87.95 -7.37 
194.87 87.85 -6.92 
195.00 87.88 -6.45 
195.67 87.99 -7.26 
195.55 87.77 -6.84 
195.45 88.05 -6.43 
196.09 87.93 -6.98 
196.17 88.20 -6.45 
197.18 87.81 -8.98 
197.11 87.91 -6.73 
197.09 88.19 -6.21 
197.15 88.18 -5.69 
197.58 87.80 -8.68 
197.78 87.72 -8.20 
197.94 87.84 -7.81 
197.72 87.89 -6.83 
197.75 87.93 -6.23 
197.94 87.79 -5.60 
197.85 87.88 -4.31 
198.24 87.75 -8.64 
198.35 87.60 -8.43 
198.31 87.90 -7.42 
198.29 87.95 -6.96 
198.21 87.86 -6.17 
198.27 87.93 -5.79 
198.20 87.59 -4.87 
197.96 87.92 -4.09 
198.88 87.70 -7.29 
199.02 87.88 -6.87 
199.09 88.06 -6.11 
198.78 87.73 -5.40 
199.65 87.72 -7.48 
199.62 87.92 -6.98 
199.66 87.89 -6.40 
199.73 87.99 -5.48 
199.68 87.58 -5.11 
200.45 88.03 -7.53 
200.24 87.79 -6.80 
200.08 88.02 -6.13 
200.07 88.02 -5.62 
200.72 87.57 -4.60 
201.12 87.83 -7.41 
201.32 87.87 -6.60 
200.98 88.31 -6.18 
200.97 88.06 -5.59 
201.08 87.76 -4.83 
200.97 87.96 -3.20 
201.31 88.05 -2.94 
201.78 87.90 -7.52 
202.08 88.17 -6.80 
202.08 88.16 -6.46 
201.70 87.98 -5.37 
202.12 88.04 -4.79 
201.78 88.12 -2.65 
202.55 87.82 -8.82 
202.67 87.67 -7.99 
202.45 87.78 -7.64 
202.36 88.17 -7.17 
202.75 87.97 -6.32 
202.68 88.13 -5.44 
202.48 88.03 -4.95 
202.96 88.19 -8.18 
202.96 87.94 -7.39 
203.10 87.65 -6.94 
203.17 87.76 -6.10 
203.05 87.78 -5.49 
203.15 87.88 -4.88 
203.98 88.17 -8.43 
204.01 87.81 -5.27 
203.80 87.94 -4.90 
204.24 87.80 -4.09 
204.65 87.89 -5.43 
204.57 88.03 -4.95 
204.71 87.74 -4.20 
205.13 87.86 -5.21 
205.00 88.13 -4.91 
205.19 87.78 -3.81 
205.96 87.98 -7.39 
207.92 88.12 -3.64 
208.77 88.15 -3.37 
194.09 88.30 -7.17 
194.98 88.43 -6.78 
194.99 88.53 -6.22 
195.53 88.45 -6.73 
195.50 88.39 -6.23 
196.30 88.92 -7.25 
196.25 88.82 -6.87 
196.28 88.63 -6.41 
196.52 88.39 -3.76 
196.74 88.90 -7.26 
196.86 88.67 -6.84 
196.71 88.62 -6.36 
196.75 88.93 -5.59 
196.56 88.36 -3.77 
197.95 88.48 -7.35 
197.54 88.62 -7.04 
197.36 88.72 -6.49 
197.53 88.42 -5.82 
198.08 88.71 -7.59 
198.33 88.51 -7.02 
198.27 88.72 -6.19 
198.41 88.51 -5.50 
199.27 88.59 -7.47 
199.04 88.54 -6.95 
199.11 88.61 -6.18 
198.99 88.74 -5.64 
198.98 88.68 -5.11 
199.42 88.81 -7.34 
199.67 88.69 -6.98 
199.65 88.65 -6.30 
199.51 88.70 -5.69 
199.50 88.69 -4.98 
200.64 88.71 -7.48 
200.51 88.74 -6.80 
200.61 88.73 -6.14 
200.57 88.59 -5.55 
200.55 88.76 -3.88 
200.76 88.54 -3.28 
200.70 88.64 -2.86 
200.90 88.77 -7.97 
201.04 88.85 -7.45 
201.13 88.86 -6.81 
201.08 88.64 -6.30 
201.18 88.76 -5.29 
201.39 88.70 -4.77 
200.84 88.92 -3.82 
201.46 88.65 -2.84 
201.76 88.53 -8.15 
201.65 88.74 -7.58 
201.56 88.75 -6.92 
201.82 88.49 -6.49 
201.58 88.48 -5.74 
201.88 88.28 -4.88 
201.75 88.88 -4.04 
201.65 88.61 -3.53 
201.51 88.55 -2.74 
202.57 88.79 -8.36 
202.49 88.58 -7.74 
202.59 88.83 -7.17 
202.46 88.69 -6.49 
202.25 88.57 -5.33 
202.48 88.57 -4.67 
202.74 88.59 -4.29 
202.30 88.81 -3.72 
203.43 88.70 -8.79 
203.11 88.92 -8.07 
203.20 88.66 -7.59 
203.19 88.74 -6.86 
203.03 88.34 -6.33 
203.15 88.46 -5.34 
203.23 88.80 -4.91 
203.77 88.67 -8.85 
203.72 88.88 -8.21 
203.82 88.73 -7.71 
204.12 88.63 -6.67 
203.56 88.78 -6.19 
204.04 88.45 -5.49 
203.66 88.95 -4.88 
204.27 88.83 -7.90 
204.53 88.96 -6.67 
204.61 88.78 -5.33 
205.73 88.32 -7.35 
207.68 88.60 -3.51 
208.15 88.54 -3.87 
208.25 88.59 -3.48 
208.54 88.83 -4.05 
208.53 88.37 -3.62 
195.07 89.58 -6.95 
195.59 89.51 -7.30 
195.44 89.48 -6.92 
195.63 89.00 -6.32 
196.47 89.10 -7.27 
196.23 89.24 -6.92 
196.49 89.29 -6.07 
196.50 89.56 -5.53 
196.73 89.12 -7.26 
196.82 89.18 -7.16 
197.01 89.11 -6.33 
196.95 89.16 -5.71 
197.05 89.17 -5.14 
197.90 89.47 -8.08 
197.80 89.54 -7.64 
197.75 89.32 -6.88 
197.69 89.53 -6.49 
198.05 89.40 -8.12 
198.18 89.38 -7.66 
198.11 89.43 -6.96 
198.05 89.49 -6.39 
198.48 89.49 -5.73 
198.71 89.56 -7.56 
198.87 89.28 -6.92 
199.08 89.43 -5.94 
199.02 89.38 -5.59 
199.30 89.16 -5.14 
199.69 89.30 -7.52 
199.98 89.15 -6.83 
199.67 89.26 -6.11 
199.61 89.27 -5.60 
199.43 89.15 -5.09 
200.50 89.27 -7.66 
200.39 89.35 -6.96 
200.31 89.25 -6.34 
200.35 89.52 -5.66 
200.76 89.53 -5.10 
200.51 89.19 -4.44 
200.39 89.16 -3.52 
201.24 89.22 -7.97 
201.30 89.43 -7.42 
201.15 89.41 -6.98 
201.07 89.56 -6.21 
200.83 89.07 -5.67 
201.38 89.38 -4.86 
200.89 89.50 -4.39 
201.05 89.26 -3.29 
201.20 89.62 -2.81 
202.11 89.40 -8.75 
202.05 89.02 -8.22 
201.87 89.05 -7.65 
201.85 89.43 -6.92 
201.57 89.30 -6.31 
201.66 89.04 -5.33 
201.72 89.49 -4.91 
201.75 89.66 -3.24 
202.83 89.50 -8.70 
202.61 89.37 -8.35 
202.55 89.17 -7.72 
202.57 89.56 -7.06 
202.72 89.46 -6.30 
202.44 89.36 -5.21 
202.30 89.27 -4.67 
202.44 89.12 -3.90 
203.08 89.15 -8.85 
203.19 89.01 -8.07 
203.14 89.29 -7.73 
203.19 89.62 -6.83 
203.32 89.14 -6.32 
203.24 89.00 -5.57 
203.16 89.21 -4.79 
203.65 89.39 -7.92 
203.80 89.24 -6.56 
203.82 89.42 -6.13 
203.64 89.34 -4.80 
204.43 89.29 -6.60 
204.84 89.60 -3.68 
204.97 89.24 -6.65 
207.61 89.50 -7.94 
207.37 89.18 -7.86 
207.92 89.18 -4.47 
208.27 89.18 -4.25 
208.52 89.46 -4.46 
208.62 89.20 -4.28 
195.13 90.11 -7.25 
194.95 90.05 -7.09 
195.43 90.03 -7.30 
195.51 89.79 -6.89 
195.97 89.67 -6.95 
196.41 90.21 -6.19 
196.38 90.15 -5.30 
196.55 90.30 -4.76 
197.12 90.31 -6.77 
196.88 90.14 -6.10 
196.82 90.20 -5.68 
197.04 90.21 -4.58 
197.74 89.81 -8.35 
197.85 90.02 -7.66 
197.79 89.87 -6.99 
197.74 90.02 -6.47 
198.08 90.04 -8.02 
198.07 90.09 -7.55 
198.26 89.87 -6.98 
198.23 90.27 -5.92 
198.48 89.67 -5.57 
199.15 89.82 -7.25 
198.68 90.32 -7.16 
199.05 90.00 -6.14 
199.17 89.96 -5.53 
198.82 89.86 -4.91 
199.92 90.32 -7.96 
199.75 89.86 -7.60 
199.80 90.07 -6.99 
199.50 90.02 -6.00 
199.80 89.94 -5.67 
199.77 90.08 -4.83 
200.31 89.90 -7.64 
200.57 89.80 -6.68 
200.57 90.02 -6.33 
200.37 90.22 -5.53 
200.60 89.92 -4.90 
201.20 90.05 -7.41 
201.06 90.00 -6.96 
201.08 90.03 -6.28 
201.24 90.13 -5.28 
200.93 89.72 -4.68 
201.18 89.81 -3.99 
201.32 90.19 -3.38 
201.86 89.97 -7.98 
201.79 89.91 -7.40 
201.83 89.98 -6.73 
201.83 89.97 -6.26 
201.93 90.16 -5.58 
201.97 89.94 -4.83 
202.27 90.11 -8.34 
202.63 90.06 -7.34 
202.27 89.93 -6.84 
202.35 90.12 -6.05 
202.37 89.99 -5.50 
202.75 89.77 -4.75 
202.97 89.75 -8.47 
203.02 90.02 -7.57 
203.22 90.17 -6.65 
202.92 90.13 -6.26 
203.13 90.05 -5.20 
203.30 90.00 -4.95 
203.78 90.22 -7.66 
203.98 89.82 -6.10 
204.25 90.27 -5.04 
204.28 90.36 -7.69 
204.56 89.58 -6.77 
204.49 90.23 -4.89 
204.85 89.95 -3.54 
204.96 89.83 -6.65 
205.03 89.74 -6.45 
205.25 89.82 -4.03 
205.44 90.34 -3.18 
196.38 90.92 -6.72 
196.14 90.79 -6.37 
196.52 90.52 -5.24 
197.03 90.90 -7.38 
196.78 90.66 -6.65 
196.85 90.51 -6.36 
196.88 90.52 -5.36 
196.60 90.73 -5.08 
197.68 90.76 -8.04 
197.68 90.71 -7.70 
197.81 90.45 -6.97 
197.87 90.89 -4.67 
198.41 90.67 -8.00 
198.20 90.63 -7.55 
198.33 90.44 -7.19 
198.36 90.91 -5.07 
198.37 90.76 -5.00 
199.25 90.71 -7.56 
198.82 90.46 -7.21 
199.29 90.42 -5.75 
198.79 90.44 -4.76 
199.68 90.81 -7.98 
199.69 90.60 -7.62 
199.74 90.63 -7.20 
199.95 90.60 -5.81 
199.76 90.69 -5.60 
200.05 90.72 -4.70 
200.45 90.81 -7.94 
200.23 90.79 -7.58 
200.36 90.81 -7.17 
200.40 90.80 -6.16 
200.56 90.54 -5.56 
200.59 90.66 -5.13 
201.26 90.73 -7.22 
201.17 90.70 -6.82 
201.09 90.73 -6.24 
200.89 90.85 -5.49 
200.98 90.60 -4.90 
201.26 90.78 -4.41 
202.05 90.89 -7.44 
201.76 90.68 -6.73 
201.91 90.79 -6.28 
201.84 90.76 -5.59 
201.75 90.81 -5.00 
202.64 90.79 -8.53 
202.64 90.61 -7.38 
202.32 90.77 -6.83 
202.35 90.79 -6.37 
202.60 90.53 -5.36 
202.36 90.42 -4.87 
203.31 90.70 -7.55 
203.00 90.81 -6.70 
202.97 90.65 -6.39 
203.03 90.58 -5.35 
203.43 90.65 -4.82 
203.88 90.64 -7.56 
203.62 90.37 -6.83 
203.94 90.58 -4.89 
204.20 91.03 -4.24 
204.58 90.86 -7.44 
204.77 90.41 -7.21 
204.60 91.01 -5.81 
204.51 90.87 -4.77 
205.03 90.81 -7.33 
205.27 90.74 -6.62 
205.33 90.52 -6.47 
205.88 90.98 -6.46 
205.98 90.69 -5.71 
206.36 90.95 -5.71 
206.66 90.84 -2.78 
196.87 91.28 -7.61 
196.70 91.29 -6.73 
197.51 91.26 -8.07 
197.81 91.20 -7.74 
197.45 91.25 -4.41 
198.36 91.09 -7.82 
198.34 91.58 -5.57 
198.53 91.30 -4.53 
198.51 91.37 -4.32 
199.34 91.76 -8.02 
199.29 91.42 -7.73 
199.19 91.09 -7.22 
198.83 91.19 -5.55 
198.80 91.27 -4.57 
199.52 91.46 -8.08 
199.68 91.59 -7.56 
199.86 91.35 -6.88 
199.87 91.50 -5.86 
199.86 91.31 -5.60 
199.90 91.25 -4.92 
200.37 91.42 -8.06 
200.35 91.49 -7.69 
200.59 91.43 -7.12 
200.41 91.23 -6.15 
200.11 91.53 -5.72 
200.62 91.66 -4.92 
200.88 91.51 -7.36 
200.99 91.48 -6.89 
201.18 91.22 -6.20 
201.10 91.29 -5.55 
200.84 91.36 -4.70 
202.15 91.35 -7.34 
201.86 91.24 -6.91 
201.86 91.30 -6.39 
201.75 91.60 -5.38 
202.00 91.12 -5.01 
202.37 91.56 -7.45 
202.37 91.51 -6.74 
202.32 91.63 -6.43 
202.32 91.35 -5.00 
203.27 90.90 -7.58 
203.15 91.12 -6.69 
203.12 91.24 -6.45 
203.80 91.08 -7.32 
204.26 91.44 -5.51 
203.94 91.19 -4.91 
204.77 91.64 -6.17 
204.77 91.26 -5.29 
204.82 91.48 -4.80 
205.59 91.26 -6.78 
204.97 91.62 -5.83 
205.31 91.46 -4.94 
205.71 91.54 -6.60 
206.23 91.28 -6.46 
206.19 91.22 -5.37 
206.50 91.55 -6.59 
206.64 91.55 -5.79 
198.20 92.32 -5.87 
198.24 91.98 -5.56 
198.70 91.93 -5.29 
199.89 92.07 -8.09 
200.03 91.95 -7.73 
199.79 91.78 -7.09 
199.87 92.00 -5.93 
199.72 91.92 -5.74 
200.50 91.88 -8.17 
200.53 91.91 -7.73 
200.64 91.82 -6.91 
200.41 91.78 -5.63 
200.88 91.85 -7.99 
200.82 91.82 -7.76 
201.07 91.91 -7.14 
201.42 92.31 -5.90 
200.96 91.99 -4.95 
201.22 92.27 -4.43 
201.61 91.98 -6.69 
201.58 92.22 -6.44 
201.65 92.28 -5.56 
201.57 91.85 -4.51 
201.66 92.23 -4.08 
202.37 91.98 -7.60 
202.67 91.92 -7.04 
202.18 91.79 -6.39 
202.41 92.09 -4.63 
202.32 92.31 -3.98 
202.91 91.83 -7.13 
204.17 92.28 -7.97 
204.17 91.78 -4.88 
204.52 92.27 -7.91 
205.14 91.80 -5.99 
205.38 91.86 -5.46 
205.67 92.15 -4.80 
205.87 91.80 -6.63 
205.67 92.15 -4.80 
206.54 92.02 -6.65 
206.37 91.79 -6.34 
197.70 92.64 -5.85 
197.80 92.81 -5.42 
198.06 92.67 -5.50 
201.41 92.48 -4.32 
202.12 92.61 -5.89 
201.52 92.55 -4.52 
202.71 92.80 -6.75 
202.18 92.58 -5.84 
202.58 92.58 -4.44 
202.65 92.56 -4.05 
202.75 92.74 -3.19 
202.86 92.73 -6.76 
202.91 93.06 -4.47 
202.91 92.81 -4.24 
204.23 92.60 -8.06 
204.48 92.56 -7.94 
208.45 93.03 -2.02 
208.67 93.10 -1.88 
197.67 93.19 -5.58 
203.30 93.40 -4.42 
207.05 93.56 -3.11 
208.82 93.23 -2.10 
207.92 94.12 -6.45 
203.92 95.20 -4.28 
204.36 95.14 -4.31 
203.65 95.52 -4.38 
193.61 97.81 -4.02 
193.19 98.77 -5.45 
193.41 98.20 -4.14 
193.24 99.05 -5.70 
199.92 107.31 -7.04 
200.31 107.65 -8.86 
200.28 107.64 -7.52 
200.25 107.50 -7.07 
197.12 108.57 -7.02 
197.37 108.44 -7.39 
197.51 108.54 -7.20 
199.76 108.01 -7.09 
200.24 107.94 -7.47 
200.63 108.10 -7.06 
197.17 109.18 -9.09 
197.17 109.16 -8.12 
197.17 109.15 -7.47 
197.07 108.78 -6.98 
197.29 108.95 -8.89 
197.29 108.94 -8.42 
197.49 109.02 -7.24 
197.34 108.92 -7.01 
199.78 108.62 -9.12 
201.35 109.18 -7.06 
196.94 109.28 -6.79 
197.95 109.43 -7.37 
197.49 109.59 -6.92 
198.04 109.45 -9.15 
197.96 109.29 -7.18 
201.31 109.38 -6.83 
201.59 109.94 -8.75 
201.58 109.90 -7.48 
201.56 109.72 -6.94 
201.11 110.11 -6.81 
201.45 110.03 -6.54 
201.92 110.29 -8.77 
201.87 110.29 -7.56 
201.84 110.19 -6.86 
