# .PCD v0.7 - Point Cloud Data file format
VERSION 0.7
FIELDS x y z
SIZE 4 4 4
TYPE F F F
COUNT 1 1 1
WIDTH 1093
HEIGHT 1
VIEWPOINT 0 0 0 1 0 0 0
POINTS 1093
DATA ascii
207.20 185.83 -6.59 
207.19 185.82 -6.07 
207.24 185.80 -5.46 
207.25 185.80 -4.72 
207.16 185.75 -4.00 
207.15 185.74 -3.47 
206.75 185.69 -2.66 
207.42 185.96 -6.46 
207.43 186.13 -5.98 
207.35 186.02 -5.25 
207.77 185.71 -4.57 
207.44 186.15 -3.95 
207.43 186.14 -3.45 
208.29 185.61 -5.08 
208.27 185.73 -4.98 
212.02 185.64 -6.91 
212.32 185.81 -3.85 
207.42 186.49 -6.10 
207.39 186.44 -5.68 
207.40 186.45 -4.93 
207.38 186.41 -3.76 
207.37 186.39 -3.17 
207.36 186.37 -2.57 
207.72 186.57 -6.86 
207.58 186.45 -6.07 
207.57 186.34 -5.31 
207.63 186.50 -4.61 
207.64 186.60 -4.03 
207.65 186.54 -3.40 
207.60 186.36 -2.82 
212.27 186.51 -6.62 
212.29 186.54 -5.73 
212.29 186.34 -5.07 
212.33 186.62 -3.95 
211.86 186.73 -2.94 
211.70 186.79 -2.88 
212.51 186.80 -6.88 
212.51 186.80 -5.88 
212.31 186.58 -4.84 
212.50 186.81 -3.87 
212.31 186.38 -3.18 
212.49 186.81 -2.87 
207.94 187.05 -6.80 
207.91 187.07 -6.05 
207.98 187.10 -5.34 
207.92 187.00 -4.57 
207.97 187.14 -3.91 
207.91 186.99 -3.19 
207.74 187.32 -2.77 
208.10 187.35 -6.79 
208.16 187.49 -6.04 
208.14 187.44 -5.33 
208.15 187.39 -4.65 
208.60 187.35 -4.08 
208.13 187.36 -3.49 
208.16 187.31 -2.86 
209.52 187.10 -5.15 
209.23 187.25 -4.76 
208.95 187.43 -4.28 
209.67 187.34 -5.13 
209.58 187.51 -4.88 
209.94 187.56 -2.85 
210.65 187.41 -2.98 
210.65 187.41 -2.98 
211.16 187.42 -7.00 
211.15 187.42 -6.04 
211.28 187.05 -5.50 
211.11 187.47 -4.86 
211.10 187.48 -3.96 
211.31 187.13 -3.28 
211.04 187.16 -2.91 
211.64 187.27 -6.90 
211.82 187.08 -5.75 
211.92 187.01 -5.08 
211.63 187.27 -4.87 
211.79 187.10 -3.96 
211.90 187.01 -3.19 
211.62 187.28 -2.84 
208.07 187.65 -3.74 
208.06 187.62 -3.10 
208.49 188.10 -6.44 
208.33 187.98 -6.07 
208.41 187.88 -5.43 
208.42 187.97 -4.58 
208.52 187.82 -3.78 
208.40 187.93 -3.41 
208.21 188.08 -2.82 
209.35 187.66 -5.05 
209.41 187.85 -4.60 
209.09 188.03 -4.18 
209.11 188.23 -3.00 
209.08 188.10 -2.90 
209.95 187.87 -5.12 
209.63 187.92 -4.70 
209.82 188.25 -3.83 
209.75 187.88 -2.97 
209.75 187.88 -2.97 
210.73 187.76 -3.84 
210.34 187.87 -3.16 
210.73 187.76 -2.81 
211.13 187.93 -6.91 
211.13 187.93 -5.89 
211.43 188.07 -4.88 
207.62 188.96 -3.02 
207.44 188.84 -2.82 
208.78 188.57 -6.75 
208.61 188.47 -6.06 
208.76 188.54 -5.45 
208.72 188.51 -3.33 
208.63 188.75 -2.78 
208.89 188.81 -6.74 
208.89 188.94 -6.05 
208.91 188.82 -5.43 
208.98 188.88 -4.80 
209.17 188.71 -3.91 
208.85 188.86 -3.33 
208.88 188.77 -2.75 
209.94 188.64 -5.07 
209.88 188.51 -4.67 
209.56 188.88 -4.17 
209.53 188.31 -3.14 
210.40 188.69 -5.11 
210.35 188.83 -4.93 
211.35 188.40 -6.98 
211.36 188.42 -6.04 
211.30 188.51 -4.00 
211.99 188.78 -5.10 
211.78 188.83 -4.90 
206.61 189.65 -3.11 
206.59 189.33 -2.88 
207.09 189.37 -3.09 
207.00 188.99 -2.64 
207.92 189.29 -3.79 
207.94 189.04 -3.07 
207.91 189.29 -2.72 
209.17 189.26 -6.78 
209.16 189.40 -6.04 
209.15 189.39 -5.50 
209.32 189.32 -3.65 
209.12 189.32 -3.35 
209.12 189.39 -2.58 
210.00 189.16 -4.49 
209.83 189.30 -4.14 
210.76 189.19 -5.16 
210.41 189.44 -4.65 
210.93 189.60 -5.21 
210.92 189.64 -5.02 
212.02 189.62 -6.94 
211.77 189.10 -5.88 
212.04 189.65 -5.11 
212.08 189.25 -4.89 
212.05 189.67 -4.20 
196.65 190.35 -0.29 
197.06 190.24 -0.16 
204.95 190.27 -2.98 
205.65 190.08 -3.11 
206.29 189.71 -3.08 
206.93 189.83 -3.77 
206.75 189.69 -3.07 
206.93 189.83 -2.68 
209.41 189.74 -6.70 
209.45 189.82 -5.96 
209.45 189.81 -5.54 
209.47 189.97 -3.23 
209.36 189.92 -2.86 
209.63 190.14 -6.73 
209.62 190.05 -5.99 
209.61 190.03 -5.53 
210.16 189.88 -4.34 
209.92 190.08 -3.87 
209.66 190.14 -3.45 
209.65 190.12 -2.90 
210.58 189.69 -5.05 
210.66 189.99 -4.59 
210.29 190.23 -4.24 
211.18 190.11 -5.08 
211.01 190.16 -5.02 
212.17 189.94 -6.62 
212.18 189.97 -5.77 
211.95 190.30 -5.54 
211.95 190.31 -4.78 
212.22 190.04 -4.07 
212.37 190.22 -6.85 
212.38 190.22 -5.87 
212.38 190.23 -4.90 
195.64 191.00 -1.24 
196.66 190.79 -1.79 
196.98 190.44 -0.31 
197.79 190.58 -1.06 
197.73 190.49 -0.79 
203.30 191.07 -2.89 
204.22 190.98 -3.20 
204.96 190.69 -3.07 
209.87 190.65 -6.80 
209.98 190.74 -6.17 
209.94 190.70 -5.50 
210.16 190.63 -3.75 
210.02 190.85 -3.21 
209.93 190.64 -2.82 
210.55 191.05 -6.62 
210.48 190.98 -6.33 
210.39 191.01 -5.61 
210.51 190.52 -4.35 
210.58 190.84 -3.98 
211.15 190.90 -6.65 
211.23 190.65 -5.89 
211.50 190.63 -5.26 
211.12 190.77 -4.69 
211.01 190.70 -4.01 
211.83 190.53 -6.63 
211.81 190.54 -5.78 
211.70 190.81 -5.16 
211.80 190.55 -4.93 
211.79 190.56 -4.08 
194.98 191.68 -6.08 
195.41 191.16 -1.28 
195.79 191.08 -0.40 
197.45 191.32 -1.09 
197.17 191.14 -0.78 
197.76 191.74 -0.97 
198.28 191.75 0.14 
202.44 191.57 -2.95 
203.04 191.63 -3.23 
203.62 191.30 -3.22 
209.36 191.69 -6.66 
209.28 191.78 -6.35 
209.21 191.70 -5.64 
209.19 191.71 -4.85 
209.18 191.72 -4.06 
210.03 191.34 -6.72 
209.92 191.38 -5.85 
210.12 191.08 -5.40 
209.81 191.50 -4.81 
209.79 191.36 -4.04 
210.09 191.47 -2.65 
210.39 191.44 -6.86 
210.37 191.42 -5.95 
210.36 191.40 -5.50 
210.71 191.26 -4.90 
210.67 191.32 -3.87 
210.43 191.52 -3.31 
210.42 191.49 -2.73 
211.39 191.38 -4.60 
211.01 191.53 -4.13 
212.04 191.37 -5.11 
211.74 191.36 -4.89 
194.96 192.29 -5.84 
195.16 192.02 -0.66 
195.72 192.11 -1.02 
196.65 191.78 -1.86 
196.87 192.37 -1.29 
196.62 191.81 -0.77 
197.52 192.27 -3.14 
197.15 192.17 -2.86 
197.24 192.13 -1.13 
197.37 192.16 0.34 
197.79 191.94 0.35 
198.39 191.97 -0.22 
200.33 192.23 -3.19 
200.52 192.29 -3.29 
201.76 192.44 -3.30 
201.92 192.12 -3.27 
208.19 192.33 -6.69 
207.78 192.47 -6.37 
208.18 192.39 -5.60 
208.06 192.34 -4.88 
208.04 192.35 -4.10 
208.75 192.04 -6.75 
208.32 192.18 -6.36 
208.31 192.18 -5.60 
208.30 192.19 -4.84 
208.29 192.20 -4.08 
209.03 192.06 -6.73 
208.85 191.88 -6.35 
209.21 191.70 -5.64 
209.27 191.80 -4.82 
209.26 191.80 -4.05 
209.66 191.78 -5.13 
209.65 191.78 -4.19 
210.80 192.14 -6.72 
210.72 192.13 -6.17 
210.74 192.06 -5.49 
210.85 191.97 -3.71 
210.77 192.18 -3.22 
210.62 192.34 -2.70 
211.07 192.30 -6.57 
210.85 192.38 -6.09 
211.04 192.30 -5.48 
211.44 191.84 -4.39 
211.25 192.10 -3.95 
211.09 192.37 -3.35 
211.00 192.47 -2.79 
212.24 191.91 -5.07 
211.95 192.11 -4.69 
212.46 192.27 -5.07 
193.21 192.81 -0.65 
193.39 192.77 0.76 
193.51 193.12 0.47 
194.11 193.12 0.09 
195.24 192.48 -6.12 
195.30 192.67 -2.81 
195.89 193.13 -1.90 
196.78 192.90 -0.03 
196.97 192.85 -3.15 
197.58 192.94 -0.66 
197.59 192.59 -0.08 
197.88 192.57 -0.49 
200.77 192.54 -3.06 
201.24 192.58 -3.29 
206.69 193.09 -4.11 
206.86 192.90 -6.55 
206.99 193.00 -5.92 
207.08 193.00 -5.62 
206.94 192.96 -4.91 
206.93 192.97 -4.14 
207.46 192.56 -6.55 
207.59 192.67 -5.91 
207.63 192.70 -5.61 
207.50 192.65 -4.90 
207.48 192.66 -4.12 
210.90 192.50 -3.43 
211.16 192.87 -6.60 
211.16 192.86 -6.13 
211.12 192.82 -5.40 
211.25 192.64 -3.68 
211.12 192.79 -3.30 
211.24 192.99 -2.91 
212.08 192.75 -4.53 
211.84 192.89 -4.19 
212.72 192.78 -5.08 
212.50 192.87 -4.73 
213.05 192.86 -5.22 
193.13 193.79 -0.51 
193.19 193.49 0.44 
194.12 193.79 0.14 
195.09 193.80 -2.44 
195.12 193.57 -2.21 
196.07 193.60 -6.07 
196.07 193.23 -3.13 
195.51 193.78 -2.88 
196.69 193.84 -5.90 
196.25 193.77 -4.02 
196.41 193.31 -3.29 
196.61 193.87 -0.75 
196.53 193.87 0.15 
196.92 193.59 -0.54 
197.76 193.33 0.09 
205.77 193.67 -6.77 
205.76 193.68 -5.95 
205.60 193.69 -5.65 
205.84 193.58 -4.94 
205.83 193.59 -4.17 
206.26 193.24 -6.56 
206.38 193.34 -5.94 
206.48 193.32 -5.63 
206.17 193.38 -4.88 
206.23 193.26 -4.15 
207.10 193.18 -6.11 
211.47 193.46 -6.68 
211.50 193.55 -6.11 
211.45 193.42 -5.37 
211.57 193.31 -3.76 
211.50 193.48 -3.39 
211.49 193.46 -2.85 
211.64 193.77 -6.67 
211.66 193.84 -6.10 
211.73 193.78 -5.46 
211.97 193.49 -3.94 
211.69 193.61 -3.29 
211.62 193.76 -2.54 
212.87 193.41 -4.93 
212.76 193.57 -4.67 
212.35 193.69 -4.20 
213.23 193.49 -5.10 
213.12 193.64 -5.03 
194.00 194.46 -4.01 
193.96 194.43 -3.12 
193.51 193.96 0.27 
195.34 194.54 -5.75 
195.01 194.45 -4.91 
195.21 194.32 -4.30 
195.19 194.20 -3.29 
195.14 194.19 -1.55 
196.11 193.98 -6.12 
196.08 194.28 -4.22 
195.63 193.94 -3.14 
195.63 193.96 -2.14 
195.69 194.01 -1.14 
196.60 193.99 -6.02 
196.57 193.94 -5.15 
196.79 194.11 -4.20 
196.78 194.43 -3.21 
196.62 193.93 0.11 
197.11 194.67 -3.36 
197.66 194.31 -3.35 
198.27 194.08 0.63 
198.98 194.20 0.49 
199.19 193.91 0.55 
204.02 194.56 -6.44 
204.51 194.41 -5.15 
204.44 194.30 -5.01 
204.27 194.34 -4.25 
204.78 194.25 -6.45 
205.16 194.05 -5.97 
205.14 194.06 -5.14 
205.06 193.99 -4.91 
205.05 194.00 -4.15 
205.58 193.98 -5.96 
205.35 193.94 -5.65 
205.34 193.95 -4.86 
205.33 193.96 -4.07 
212.00 194.26 -6.73 
211.91 194.29 -6.08 
211.98 194.22 -5.43 
212.08 194.12 -3.70 
211.98 194.30 -3.18 
211.97 194.28 -2.58 
212.81 194.20 -4.45 
212.50 194.28 -4.02 
212.59 193.91 -3.38 
213.44 194.15 -5.03 
213.20 194.33 -4.59 
213.85 194.43 -5.10 
193.87 194.69 -4.17 
193.77 194.59 -3.29 
194.39 195.36 -5.91 
194.89 195.18 -5.21 
194.75 194.58 -4.22 
194.87 194.87 -5.89 
194.89 195.18 -5.21 
195.73 195.01 -5.08 
196.12 195.12 -3.21 
196.54 195.15 -5.08 
196.47 194.91 -3.37 
197.03 194.68 -4.92 
197.04 195.27 -4.31 
197.11 194.67 -3.36 
198.05 194.80 -0.33 
197.84 194.76 0.11 
198.48 194.76 -2.60 
203.15 195.06 -5.77 
203.03 195.00 -5.11 
203.14 195.07 -5.01 
202.93 195.18 -4.18 
203.89 194.60 -6.59 
203.67 194.64 -5.92 
203.65 194.65 -5.09 
203.68 194.77 -5.00 
203.66 194.78 -4.23 
204.18 194.72 -6.17 
204.18 194.72 -5.14 
204.18 194.59 -4.87 
203.99 194.59 -4.17 
212.21 194.86 -6.58 
212.19 194.77 -6.05 
212.19 194.82 -5.32 
212.16 194.77 -3.43 
212.15 194.75 -2.79 
212.37 194.95 -6.72 
212.36 194.92 -6.13 
212.35 194.85 -5.44 
212.66 194.68 -4.48 
212.65 194.89 -3.82 
212.33 194.99 -3.46 
212.31 194.96 -2.62 
213.24 194.92 -5.33 
213.40 194.90 -4.58 
213.13 195.05 -4.10 
213.29 195.00 -3.44 
213.94 194.87 -5.07 
213.73 195.14 -4.82 
192.84 195.75 -2.86 
193.56 195.96 -4.37 
193.84 195.84 -4.27 
193.83 195.91 -1.74 
194.24 195.43 -6.11 
194.40 195.40 -5.06 
194.59 195.52 -3.98 
194.33 195.86 -3.22 
194.63 195.54 -2.92 
194.40 195.80 -1.98 
195.19 195.35 -5.05 
195.27 195.50 -4.22 
195.44 195.76 -3.40 
194.92 195.68 -2.66 
195.22 195.51 -1.69 
196.16 195.42 -5.20 
196.09 195.70 -3.26 
195.94 195.93 -2.26 
196.36 195.40 -5.20 
196.87 195.31 -4.26 
196.52 195.44 -3.00 
196.28 195.85 -2.60 
197.06 195.31 -5.19 
201.54 195.97 -4.29 
201.81 195.71 -4.34 
202.18 195.57 -4.29 
203.12 195.96 -6.89 
203.12 195.97 -6.00 
202.52 195.51 -4.33 
203.62 195.76 -6.47 
203.69 195.44 -6.01 
203.61 195.76 -5.68 
203.35 195.81 -4.96 
204.00 195.52 -6.17 
211.89 195.29 -4.49 
211.86 195.30 -3.46 
212.76 195.75 -6.60 
212.75 195.74 -6.15 
212.75 195.53 -5.43 
212.90 195.87 -4.95 
212.96 195.39 -3.84 
212.71 195.66 -3.40 
212.60 195.48 -2.54 
213.07 195.60 -6.82 
213.07 195.60 -5.96 
213.07 195.60 -5.10 
213.67 195.49 -4.45 
213.34 195.74 -4.09 
213.08 195.96 -3.47 
214.19 195.47 -5.04 
214.00 195.58 -4.57 
214.55 195.33 -5.18 
193.26 195.99 -3.96 
192.85 196.36 -2.31 
193.04 196.24 -2.11 
193.67 196.15 -3.54 
193.74 196.37 -2.71 
194.11 196.24 -2.56 
194.28 196.49 -1.75 
195.03 196.02 -3.50 
196.11 196.17 -1.97 
196.22 196.13 -1.85 
197.59 196.59 -5.08 
197.99 196.44 -6.01 
197.91 196.58 -5.12 
197.93 196.34 -4.39 
197.63 196.62 -4.31 
200.08 196.68 -6.78 
200.07 196.69 -5.98 
200.38 196.66 -5.20 
200.26 196.66 -4.99 
200.25 196.67 -4.22 
200.48 196.55 -6.58 
200.70 196.43 -6.03 
200.64 196.37 -5.18 
200.55 196.62 -4.90 
200.79 196.37 -4.21 
201.15 196.30 -5.86 
201.17 196.27 -5.20 
201.18 196.27 -4.89 
201.33 196.07 -4.21 
202.32 196.37 -6.47 
201.98 196.40 -5.99 
202.34 196.39 -5.11 
202.30 196.38 -4.98 
202.95 196.04 -6.53 
202.65 196.02 -5.98 
202.93 196.06 -5.04 
203.01 196.10 -4.90 
212.10 196.10 -6.33 
212.03 196.13 -4.41 
212.00 196.15 -3.45 
212.95 196.10 -6.59 
212.94 196.08 -6.13 
212.87 196.01 -5.48 
212.94 196.23 -4.99 
212.97 195.99 -4.08 
212.91 196.15 -3.25 
212.92 196.17 -2.91 
213.26 196.42 -6.64 
213.25 196.40 -6.08 
213.24 196.38 -5.52 
213.41 196.30 -4.79 
213.31 196.38 -3.99 
213.19 196.29 -3.27 
213.41 196.29 -2.51 
216.93 196.50 -3.30 
217.26 196.57 -3.69 
217.53 196.39 -2.79 
217.24 196.59 -2.00 
193.13 197.35 -1.86 
193.46 197.32 -3.19 
193.76 197.04 -1.84 
194.08 197.17 -0.79 
193.59 197.15 0.20 
194.48 196.91 -4.21 
197.97 196.91 -5.22 
197.95 196.88 -4.38 
198.71 197.37 -6.05 
199.43 197.14 -6.61 
199.46 197.06 -6.00 
199.47 197.08 -5.13 
199.46 197.09 -4.36 
199.32 197.06 -4.37 
199.96 196.85 -6.60 
199.94 196.86 -5.84 
200.00 196.78 -5.11 
199.99 196.78 -4.35 
199.92 196.92 -4.15 
201.39 196.81 -6.75 
201.38 196.81 -5.97 
201.37 196.82 -5.18 
210.32 197.24 -3.44 
211.57 197.17 -6.65 
211.56 197.16 -6.19 
211.55 197.14 -5.72 
211.55 197.35 -4.50 
211.53 197.34 -4.02 
211.17 196.69 -3.45 
211.52 197.29 -2.82 
212.00 196.90 -6.59 
211.93 197.39 -5.96 
211.97 197.36 -5.43 
211.91 197.33 -4.79 
212.08 197.29 -3.83 
212.12 197.26 -3.30 
212.16 197.24 -2.77 
212.42 197.03 -6.98 
212.45 197.01 -6.34 
212.77 196.88 -5.47 
212.55 196.94 -4.43 
212.58 196.92 -3.79 
212.61 196.90 -3.15 
212.64 196.88 -2.51 
213.08 196.88 -6.36 
213.10 196.87 -5.67 
213.08 196.79 -4.94 
213.15 196.84 -4.30 
213.16 196.74 -3.25 
213.19 196.72 -2.69 
217.01 197.22 -3.32 
217.15 197.26 -2.50 
216.87 197.17 -2.11 
217.15 197.19 -1.45 
217.33 196.73 -3.66 
217.31 196.74 -2.93 
217.52 197.36 -2.74 
217.20 196.75 -2.21 
193.26 197.69 -3.29 
192.91 197.64 -2.89 
193.30 197.38 -1.78 
193.71 197.92 -1.03 
193.97 197.62 -0.22 
193.96 197.64 0.79 
194.20 197.47 -3.93 
194.18 197.68 -1.63 
194.92 198.03 -2.31 
197.77 197.69 -4.11 
198.94 197.38 -5.90 
198.70 197.38 -5.22 
198.69 197.39 -4.40 
209.44 197.81 -3.44 
209.91 197.84 -3.12 
210.87 197.78 -3.32 
210.21 198.05 -2.59 
211.59 197.45 -6.85 
211.74 197.48 -6.17 
211.56 197.39 -5.44 
211.15 197.77 -3.66 
211.16 197.78 -3.17 
211.20 197.76 -2.61 
211.94 197.72 -6.62 
211.93 197.70 -6.04 
211.92 197.68 -5.45 
212.07 197.67 -4.78 
211.93 197.97 -4.02 
211.83 197.64 -3.51 
211.85 197.63 -2.80 
212.34 197.86 -6.59 
212.42 198.04 -6.30 
212.56 197.83 -5.25 
212.57 197.94 -4.78 
213.08 198.00 -6.33 
213.11 198.04 -5.41 
213.13 198.07 -4.48 
216.42 197.95 -4.63 
216.29 197.55 -3.02 
216.21 197.80 -2.85 
216.68 197.74 -5.20 
217.15 197.80 -4.45 
216.83 197.69 -3.46 
217.32 197.88 -2.25 
192.90 198.33 -1.60 
192.80 198.75 -1.02 
193.26 198.74 -0.48 
193.98 198.65 -4.50 
193.77 198.19 -2.49 
193.82 198.26 -1.66 
194.06 198.30 -1.17 
193.93 198.38 -0.83 
194.06 198.33 0.71 
194.33 198.59 -4.36 
194.31 198.66 -4.20 
194.43 198.50 -2.14 
194.06 198.30 -1.17 
194.16 198.59 0.69 
208.53 198.40 -3.43 
210.09 198.29 -3.28 
209.63 198.67 -2.81 
210.40 198.52 -3.40 
210.42 198.51 -2.66 
212.18 198.43 -6.55 
212.17 198.42 -6.04 
212.17 198.15 -5.44 
212.18 198.33 -4.51 
212.15 198.36 -3.99 
212.48 198.66 -6.58 
212.47 198.64 -6.00 
212.54 198.57 -5.39 
212.51 198.48 -4.74 
212.43 198.57 -4.27 
213.13 198.50 -5.32 
216.28 198.50 -3.49 
215.97 198.22 -2.87 
217.17 198.45 -3.94 
216.87 198.44 -3.51 
217.03 198.61 -2.80 
217.53 198.19 -4.48 
217.29 198.34 -3.69 
217.58 198.12 -2.48 
217.57 198.72 -0.93 
192.73 199.07 -1.65 
194.09 198.87 -4.42 
193.76 198.99 -1.16 
193.67 198.91 -0.33 
193.78 199.16 -0.06 
194.66 199.04 -2.81 
194.58 199.12 -1.96 
194.11 199.17 -1.23 
194.93 198.88 -2.35 
207.69 199.03 -3.43 
208.77 199.46 -3.27 
208.79 199.16 -2.72 
209.28 198.82 -3.25 
209.24 198.94 -2.89 
209.64 198.99 -3.34 
209.67 198.97 -2.59 
211.45 199.23 -6.61 
211.42 199.25 -5.59 
212.72 199.09 -6.73 
212.62 199.22 -6.00 
212.61 199.21 -5.48 
212.79 199.19 -4.69 
212.59 199.16 -3.92 
213.07 199.14 -6.86 
213.06 199.11 -6.24 
213.12 198.91 -5.35 
213.14 199.23 -4.82 
213.26 199.19 -4.28 
215.03 199.06 -3.32 
215.37 199.14 -3.19 
215.88 199.43 -3.82 
215.99 199.08 -3.40 
216.43 198.86 -2.21 
216.36 198.96 -0.94 
217.07 199.06 -4.47 
217.01 199.14 -3.69 
217.01 199.14 -3.69 
217.06 199.26 -2.53 
216.88 199.10 -1.61 
217.43 199.34 -4.18 
217.25 198.83 -3.22 
217.20 199.29 -1.72 
193.82 199.97 -2.25 
193.99 199.95 -2.16 
193.60 199.78 -1.23 
193.66 199.93 -0.14 
194.74 199.64 -2.37 
206.72 199.66 -3.42 
206.96 199.96 -2.62 
207.95 199.97 -3.20 
208.01 199.69 -2.62 
208.53 199.54 -3.01 
208.16 199.59 -2.73 
211.85 199.98 -6.41 
211.82 200.00 -5.47 
211.78 200.02 -4.53 
212.85 199.65 -6.50 
212.85 199.63 -5.98 
212.84 199.62 -5.46 
212.79 199.34 -4.69 
212.87 199.57 -4.24 
213.26 199.89 -6.75 
213.26 199.88 -5.92 
213.27 199.95 -5.39 
213.26 199.93 -4.83 
213.24 199.90 -4.27 
215.73 199.91 -1.78 
216.31 199.63 -3.71 
216.28 200.03 -3.59 
216.50 199.81 -1.67 
216.33 199.84 -1.45 
217.09 199.89 -3.63 
217.03 199.82 -2.44 
216.73 199.60 -1.91 
217.44 199.84 -4.67 
217.43 199.97 -3.71 
217.51 200.05 -3.51 
217.36 199.58 -2.52 
193.24 200.23 -0.70 
198.04 200.63 -1.63 
197.86 200.66 -1.24 
198.85 200.80 -0.28 
199.14 200.61 -0.72 
205.73 200.30 -3.41 
206.52 200.83 -3.10 
207.09 200.49 -3.13 
206.97 200.30 -2.56 
207.54 200.21 -3.21 
207.58 200.18 -2.53 
210.97 200.55 -6.45 
210.94 200.57 -5.49 
210.91 200.59 -4.54 
211.63 200.74 -6.72 
211.81 200.90 -5.93 
211.89 200.57 -5.19 
212.10 200.80 -4.73 
212.15 200.76 -4.19 
212.47 200.61 -6.82 
212.51 200.58 -6.19 
212.55 200.56 -5.56 
212.70 200.66 -4.88 
212.63 200.51 -4.30 
213.04 200.24 -6.88 
213.31 200.24 -6.24 
213.11 200.41 -5.37 
213.14 200.38 -4.81 
213.29 200.18 -4.24 
215.70 200.42 -3.14 
216.26 200.34 -3.06 
217.14 200.29 -4.49 
217.21 200.74 -4.09 
217.45 200.41 -3.05 
217.36 200.75 -2.64 
217.55 200.68 -1.78 
217.54 200.73 -1.40 
197.57 201.48 -1.22 
197.95 201.39 -1.59 
197.95 201.39 -1.59 
198.82 201.33 -0.65 
199.03 200.97 -0.80 
205.03 201.46 -3.07 
205.43 201.49 -2.97 
205.96 201.15 -2.85 
206.20 201.04 -3.06 
210.07 201.14 -6.49 
210.03 201.16 -5.52 
210.00 201.18 -4.54 
210.85 201.56 -5.50 
210.90 201.53 -4.83 
211.00 201.44 -6.80 
211.19 201.52 -5.90 
211.24 201.49 -5.29 
211.28 201.46 -4.69 
211.05 201.48 -4.08 
211.81 200.91 -6.78 
212.05 200.95 -6.28 
212.05 200.95 -5.52 
212.06 200.94 -4.76 
211.81 200.99 -4.24 
212.31 200.89 -4.17 
217.19 201.42 -2.64 
217.53 201.20 -3.00 
217.53 201.32 -2.59 
217.50 200.99 -2.00 
217.45 200.98 -1.35 
198.02 201.78 -1.46 
198.21 202.09 -0.53 
198.71 201.80 -0.53 
203.94 202.10 -2.96 
204.16 202.19 -2.83 
204.90 201.76 -3.04 
204.94 201.72 -2.78 
209.13 201.75 -6.53 
209.10 201.77 -5.54 
209.11 202.20 -4.45 
209.23 202.13 -3.88 
210.17 201.98 -6.82 
210.17 201.98 -5.94 
210.23 202.11 -5.25 
209.98 202.08 -4.78 
210.17 201.96 -4.19 
210.77 201.62 -6.83 
210.81 201.59 -6.16 
210.32 202.11 -5.50 
210.35 202.09 -4.78 
210.38 202.07 -4.05 
211.11 201.63 -6.23 
211.14 201.61 -5.52 
211.17 201.59 -4.82 
197.94 202.57 -1.43 
197.93 202.54 -0.42 
198.59 202.45 -1.31 
203.98 202.32 -2.71 
208.16 202.39 -6.57 
208.76 202.41 -6.19 
208.74 202.97 -5.50 
208.75 202.96 -4.68 
208.76 202.95 -3.85 
209.02 202.85 -6.51 
209.31 202.54 -5.95 
209.13 202.78 -5.20 
209.18 202.74 -4.54 
209.05 202.63 -4.02 
209.59 202.43 -6.31 
209.60 202.43 -5.51 
209.57 202.37 -4.53 
209.61 202.41 -3.89 
207.16 203.05 -6.62 
207.82 203.58 -6.51 
207.86 203.35 -6.13 
207.92 203.32 -5.40 
207.99 203.47 -4.46 
208.05 203.28 -3.77 
208.51 203.22 -6.23 
208.42 203.12 -5.04 
208.58 203.17 -4.70 
208.42 203.11 -4.13 
205.05 204.33 -4.59 
206.53 204.38 -5.97 
206.64 204.00 -5.35 
206.70 203.96 -4.59 
206.90 204.13 -6.34 
206.92 204.11 -4.62 
206.76 203.92 -3.84 
207.55 203.80 -6.22 
207.59 203.78 -5.44 
207.63 203.75 -4.65 
207.66 203.73 -3.87 
193.91 204.86 -0.83 
194.22 204.97 -1.01 
204.80 204.73 -6.16 
204.96 204.63 -5.47 
205.12 204.54 -4.80 
205.28 204.44 -4.13 
205.63 204.89 -5.98 
205.45 204.72 -5.31 
205.69 205.01 -4.56 
205.64 204.87 -4.04 
206.67 204.42 -6.22 
206.04 204.48 -4.95 
206.14 204.42 -4.26 
206.71 204.39 -5.41 
193.33 205.74 -0.64 
194.17 205.61 -0.81 
194.52 205.45 0.11 
194.95 205.38 -0.90 
194.84 205.42 -0.06 
197.89 205.25 -2.35 
204.23 205.44 -4.45 
204.04 205.68 -4.10 
204.93 205.28 -6.14 
205.11 205.40 -5.60 
205.10 205.37 -4.88 
204.61 205.67 -3.66 
205.32 205.40 -6.07 
217.48 205.70 -5.43 
217.56 205.55 -3.47 
217.58 205.62 -2.82 
193.74 206.47 -0.69 
194.08 206.34 0.23 
194.55 205.99 0.16 
195.22 206.20 -0.06 
197.20 205.95 -2.98 
197.51 206.05 -2.28 
197.27 205.90 -2.06 
197.76 205.79 -2.32 
198.62 206.23 -1.83 
203.68 206.08 -4.16 
204.56 206.13 -6.05 
205.13 206.12 -6.35 
204.81 206.11 -5.57 
204.93 206.04 -4.84 
205.31 205.82 -6.49 
216.16 206.43 -4.19 
216.87 206.13 -5.33 
216.62 206.46 -4.45 
217.21 206.29 -5.23 
217.22 206.24 -4.73 
217.38 205.86 -3.17 
217.60 206.30 -2.69 
193.14 206.54 -0.56 
193.76 207.11 -0.59 
194.30 207.17 -0.94 
195.29 206.79 0.11 
196.02 206.96 0.05 
197.51 206.60 -2.04 
198.95 206.53 -2.04 
198.65 206.52 -1.37 
199.22 206.53 -2.39 
199.37 206.94 -2.17 
204.02 206.81 -6.36 
204.03 206.80 -5.44 
204.24 206.62 -4.93 
216.23 206.57 -4.43 
216.49 206.74 -3.74 
215.99 206.71 -3.59 
216.20 206.60 -2.63 
217.34 206.55 -4.58 
216.77 206.74 -4.04 
217.08 207.06 -3.50 
216.69 207.01 -2.58 
217.34 206.55 -4.58 
217.35 206.83 -4.03 
217.58 207.02 -3.07 
217.22 207.17 -2.48 
217.30 206.72 -1.19 
193.98 207.24 -1.32 
193.75 207.31 -0.72 
194.23 207.48 -1.11 
194.99 207.51 -1.38 
195.63 207.67 0.14 
196.35 207.24 0.01 
199.13 207.34 -1.39 
200.02 207.51 -2.19 
215.95 207.60 -1.75 
216.49 207.69 -0.74 
216.58 207.85 -3.71 
217.14 207.48 -3.51 
216.99 207.64 -2.36 
216.51 207.80 -1.73 
217.34 207.30 -3.68 
217.21 207.18 -3.60 
217.25 207.50 -2.35 
193.39 208.06 -0.47 
194.10 207.97 -0.62 
194.42 208.06 -2.69 
194.29 208.30 -1.13 
194.15 208.03 -0.66 
195.37 208.45 -0.25 
195.79 208.46 -0.81 
196.42 208.28 0.08 
196.93 208.09 0.04 
199.54 208.37 -0.27 
199.82 207.94 -0.49 
216.28 208.20 -3.40 
216.27 208.17 -2.34 
216.50 208.25 -2.23 
216.19 208.21 -1.30 
217.11 208.02 -4.66 
216.51 208.34 -3.41 
216.98 208.51 -2.38 
217.12 207.89 -1.63 
217.50 208.03 -4.58 
217.57 208.34 -4.15 
217.50 208.04 -3.04 
217.20 207.88 -2.06 
193.08 209.13 -1.72 
193.72 209.03 -2.59 
194.05 209.07 -2.12 
193.85 208.93 -1.08 
194.38 208.93 -1.77 
194.64 208.74 -1.16 
195.15 208.99 -3.95 
195.17 209.06 -3.63 
195.03 208.77 -1.95 
194.90 209.18 -0.28 
195.03 209.08 -0.02 
195.84 209.04 -1.67 
195.73 209.03 -0.71 
196.67 209.19 -4.31 
196.78 208.76 -2.69 
196.69 209.08 -2.12 
200.13 208.88 -0.32 
217.05 208.73 -4.27 
217.18 208.61 -1.52 
217.38 209.09 -4.17 
193.28 209.50 -1.84 
193.80 209.56 -1.87 
193.73 209.49 -1.11 
194.04 209.43 -0.43 
194.47 209.49 -3.71 
194.66 209.91 -3.04 
194.29 209.76 -1.68 
194.63 209.94 -0.18 
194.55 209.72 0.02 
194.87 209.54 -3.59 
195.42 209.61 -0.56 
195.69 209.90 -4.02 
196.12 209.73 -1.64 
195.87 209.41 -0.96 
195.78 209.81 -0.65 
196.61 209.60 -2.62 
196.32 209.38 -2.01 
194.02 210.15 -2.96 
194.58 210.35 -3.78 
194.66 209.99 -3.61 
195.52 210.40 -4.03 
195.85 210.04 -0.70 
196.56 210.32 -4.39 
196.54 210.11 -4.21 
196.20 209.99 -1.72 
