# .PCD v0.7 - Point Cloud Data file format
VERSION 0.7
FIELDS x y z
SIZE 4 4 4
TYPE F F F
COUNT 1 1 1
WIDTH 231
HEIGHT 1
VIEWPOINT 0 0 0 1 0 0 0
POINTS 231
DATA ascii
193.53 210.60 -3.75 
193.62 211.10 -2.37 
194.24 210.69 -5.14 
194.59 211.10 -4.02 
194.42 210.84 -3.81 
194.02 210.68 -2.14 
195.11 210.77 -4.03 
194.75 210.67 -3.66 
195.83 210.98 -4.44 
195.87 211.18 -3.46 
196.60 210.97 -4.73 
196.12 210.65 -4.42 
196.47 210.92 -3.47 
193.25 211.58 -5.11 
192.85 211.88 -2.35 
192.72 211.78 -1.19 
192.82 211.74 -1.10 
193.44 211.33 -5.07 
193.97 211.67 -2.69 
194.40 211.59 -4.30 
194.13 211.69 -3.52 
194.17 211.48 -3.15 
194.07 211.81 -1.82 
195.14 211.57 -4.45 
194.99 211.37 -2.36 
195.63 211.60 -4.72 
195.54 211.36 -4.45 
195.70 211.66 -3.46 
196.29 211.48 -5.01 
196.40 211.32 -2.47 
193.17 212.54 -4.08 
192.85 212.24 -3.42 
192.98 212.14 -2.95 
192.81 212.42 -0.78 
193.96 212.45 -5.52 
193.90 212.43 -4.92 
193.84 212.46 -4.57 
193.89 211.95 -3.35 
193.43 212.20 -2.82 
193.43 212.17 -2.13 
193.55 212.33 -1.22 
194.27 212.52 -5.46 
194.29 212.28 -5.15 
194.23 212.05 -4.54 
195.22 212.55 -5.67 
195.18 212.29 -5.11 
194.78 211.96 -4.60 
195.17 212.45 -3.59 
194.92 212.42 -2.80 
195.09 211.96 -1.49 
195.51 212.53 -5.57 
195.63 212.06 -5.02 
195.48 212.16 -3.58 
193.09 213.17 -5.72 
193.04 212.97 -5.17 
193.05 212.71 -4.43 
192.87 212.96 -3.69 
192.76 212.65 -2.62 
192.77 212.66 -1.93 
193.81 213.27 -6.12 
193.53 212.92 -5.37 
193.34 212.87 -5.17 
193.34 212.85 -4.70 
193.92 213.30 -2.61 
193.75 213.32 -2.52 
194.00 213.14 -1.32 
194.06 213.06 -6.12 
194.27 213.01 -5.98 
194.10 213.19 -5.15 
194.28 213.15 -4.51 
194.83 213.03 -3.81 
194.62 212.85 -2.80 
194.58 212.85 -2.14 
194.77 212.89 -4.10 
194.80 213.06 -3.45 
194.85 213.13 -2.93 
195.32 213.01 -2.42 
195.65 212.76 -2.25 
217.28 213.27 -1.78 
193.19 213.56 -6.27 
192.86 213.86 -5.53 
193.26 213.73 -5.21 
193.25 213.95 -4.67 
192.75 213.64 -3.32 
192.75 213.63 -3.13 
193.45 213.49 -6.19 
193.60 213.46 -5.71 
193.77 213.45 -4.96 
193.77 213.50 -4.32 
193.83 213.64 -3.43 
193.78 213.63 -2.76 
193.71 213.61 -2.09 
193.65 213.60 -1.42 
193.43 213.70 0.39 
194.17 213.35 -5.24 
194.30 213.33 -4.15 
194.52 213.38 -3.46 
194.43 213.54 -3.16 
195.34 213.53 -5.08 
195.07 213.34 -2.83 
194.77 213.63 -2.44 
195.56 213.35 -2.06 
217.31 213.39 -1.76 
192.83 214.07 -4.69 
192.85 214.20 -4.17 
192.86 214.31 -3.65 
193.18 214.60 -2.76 
192.87 214.43 -2.05 
192.61 214.13 -1.81 
193.35 214.09 -3.66 
193.55 214.24 -2.92 
193.64 214.32 -2.40 
193.46 214.03 1.07 
194.05 214.70 -1.87 
195.41 214.49 -5.21 
194.91 214.64 -3.82 
196.32 214.12 -2.82 
197.44 214.51 -2.81 
217.05 214.67 -2.98 
217.09 214.46 -1.62 
217.58 214.17 -3.42 
217.54 214.20 -1.66 
192.87 215.14 -5.02 
192.95 214.80 -2.66 
192.86 214.80 -2.37 
192.82 214.98 -1.40 
193.26 214.91 -0.22 
193.34 215.11 -5.10 
193.95 215.32 -3.51 
193.62 214.81 -2.26 
194.04 214.96 -3.59 
194.03 214.99 -1.15 
194.86 214.74 -5.12 
194.91 215.11 -4.19 
195.11 215.19 -2.96 
195.92 214.99 -5.26 
196.28 214.89 -3.42 
196.88 214.81 -3.52 
216.72 215.38 -4.55 
217.07 215.19 -2.67 
216.47 215.22 -2.31 
217.29 214.75 -4.99 
217.60 215.16 -3.01 
217.17 214.95 -2.39 
217.49 215.08 -1.65 
217.56 214.90 -1.08 
192.86 215.93 -5.25 
192.95 215.77 -5.30 
192.83 215.51 -1.02 
193.35 215.67 -5.42 
193.36 215.51 -5.20 
193.73 215.57 -3.31 
193.46 216.12 -2.76 
194.02 215.58 -3.16 
194.35 216.03 -2.31 
195.19 215.52 -5.15 
194.80 215.92 -4.37 
195.41 215.93 -2.39 
194.89 215.97 -0.94 
195.98 215.52 -5.17 
195.53 215.86 -2.43 
216.92 215.88 -4.42 
216.69 215.92 -2.20 
217.60 215.74 -3.72 
217.38 216.11 -2.41 
192.68 216.15 -5.32 
193.10 216.29 -2.72 
193.40 216.26 -2.86 
194.38 216.40 -3.69 
194.24 216.32 -2.28 
195.38 216.34 -5.09 
195.02 216.19 -4.00 
195.15 216.32 -1.26 
194.89 216.37 -0.50 
195.62 216.42 -2.16 
217.01 216.38 -4.66 
216.96 216.39 -3.96 
216.70 216.61 -2.38 
217.19 216.62 -4.23 
217.11 216.18 -3.96 
193.24 216.84 -2.77 
193.83 216.94 -3.48 
194.71 216.94 -3.99 
194.36 216.86 -2.34 
195.28 216.89 -1.14 
195.65 216.93 -1.90 
195.56 217.51 -0.83 
217.30 217.25 -3.55 
217.55 217.20 -2.33 
194.81 218.08 -1.87 
196.16 218.21 -0.91 
217.51 217.53 -2.23 
193.65 218.74 -0.08 
195.39 218.39 -1.29 
196.08 218.42 -0.57 
196.74 218.68 -3.83 
196.12 218.48 -0.51 
196.67 218.59 0.19 
195.80 218.93 -3.66 
196.10 219.12 -2.77 
195.71 219.47 -1.81 
196.01 219.24 -0.81 
196.14 218.92 -3.33 
197.01 219.28 -4.33 
197.06 219.45 -3.79 
197.59 219.20 0.30 
196.72 219.87 -2.85 
196.32 220.24 -1.99 
196.95 219.97 -3.08 
197.89 219.83 -3.74 
198.36 220.02 -4.07 
197.83 220.97 -4.44 
197.96 220.69 -3.71 
197.78 220.67 -2.21 
197.74 221.67 -3.65 
195.28 222.20 -6.31 
195.32 222.10 -5.23 
195.79 222.68 -6.78 
195.89 222.56 -5.71 
196.02 222.56 -4.13 
196.37 222.63 -5.43 
196.81 222.97 -4.11 
196.78 222.83 -3.59 
197.25 222.53 -4.48 
197.45 222.96 -3.27 
197.93 222.97 -4.11 
196.47 223.26 -6.06 
197.28 223.65 -3.53 
198.45 223.46 -4.32 
198.16 223.84 -3.56 
199.13 224.08 -3.57 
