# .PCD v0.7 - Point Cloud Data file format
VERSION 0.7
FIELDS x y z
SIZE 4 4 4
TYPE F F F
COUNT 1 1 1
WIDTH 157
HEIGHT 1
VIEWPOINT 0 0 0 1 0 0 0
POINTS 157
DATA ascii
195.60 -89.06 -14.04 
214.20 -89.23 -13.31 
215.59 -89.36 -13.30 
216.09 -89.46 -13.87 
216.08 -89.47 -13.17 
216.06 -89.47 -12.47 
215.79 -89.03 -12.16 
216.95 -89.09 -14.05 
216.49 -88.87 -13.15 
216.92 -89.10 -12.64 
195.78 -88.58 -14.01 
213.81 -88.36 -12.37 
214.59 -88.49 -13.03 
215.69 -88.76 -13.16 
216.06 -88.19 -13.91 
216.05 -88.19 -13.14 
216.32 -88.26 -12.55 
216.19 -88.16 -12.12 
216.71 -88.70 -13.64 
216.91 -88.24 -13.14 
216.92 -88.22 -12.69 
217.52 -88.25 -14.04 
217.51 -88.26 -13.32 
217.49 -88.27 -12.59 
195.80 -88.01 -14.01 
196.37 -87.46 -14.00 
214.19 -87.65 -12.36 
214.94 -87.91 -13.01 
216.35 -87.53 -12.35 
216.31 -87.64 -11.86 
216.68 -87.67 -14.00 
216.42 -87.62 -13.13 
216.66 -87.68 -12.53 
216.81 -87.75 -12.10 
217.37 -87.67 -13.85 
217.36 -87.67 -13.12 
217.35 -87.67 -12.39 
196.11 -87.26 -14.00 
214.57 -86.94 -12.35 
215.67 -86.72 -13.82 
215.66 -86.72 -12.99 
216.81 -87.03 -13.90 
216.80 -87.04 -13.11 
216.69 -86.88 -12.32 
216.66 -87.23 -12.07 
217.11 -87.07 -12.07 
196.78 -86.09 -13.99 
197.00 -86.43 -13.99 
214.95 -86.23 -12.34 
215.24 -86.42 -13.35 
215.37 -86.39 -12.15 
216.02 -86.12 -12.98 
217.03 -86.22 -12.30 
217.06 -86.30 -12.04 
217.18 -86.44 -13.10 
217.45 -86.50 -12.49 
217.41 -86.38 -12.04 
197.47 -85.67 -14.01 
215.64 -85.72 -13.34 
215.34 -85.52 -12.33 
216.39 -85.51 -12.96 
215.70 -85.73 -12.13 
217.59 -85.88 -13.08 
217.42 -85.59 -12.27 
197.66 -85.17 -13.98 
216.06 -85.03 -13.33 
215.74 -84.81 -12.32 
216.03 -85.06 -12.10 
216.77 -84.88 -13.79 
216.76 -84.88 -12.95 
197.86 -83.95 -13.97 
198.20 -84.09 -13.96 
216.12 -84.09 -12.31 
216.37 -84.38 -12.08 
216.46 -84.34 -13.32 
217.14 -84.25 -12.93 
198.49 -83.69 -14.00 
216.88 -83.63 -13.31 
216.52 -83.36 -12.29 
217.55 -83.65 -12.92 
198.83 -82.91 -13.95 
199.05 -82.67 -13.99 
216.91 -82.63 -12.28 
217.29 -82.93 -13.30 
198.61 -82.21 -13.96 
199.13 -82.40 -13.95 
199.49 -81.66 -13.94 
213.23 -79.78 -13.75 
213.22 -79.76 -12.77 
213.20 -79.74 -11.80 
213.77 -80.20 -13.66 
213.75 -80.18 -12.63 
213.91 -80.16 -11.80 
214.44 -79.83 -13.68 
214.41 -79.87 -12.68 
214.38 -79.91 -11.67 
212.11 -79.19 -13.73 
212.10 -79.17 -12.72 
212.08 -79.15 -11.71 
212.52 -79.35 -13.76 
212.50 -79.33 -12.78 
212.49 -79.31 -11.80 
214.98 -79.08 -13.71 
214.96 -79.12 -12.72 
214.93 -79.15 -11.72 
210.63 -78.36 -13.75 
210.62 -78.34 -12.73 
210.79 -78.46 -11.63 
211.06 -78.48 -13.79 
211.04 -78.46 -12.79 
211.03 -78.44 -11.80 
211.79 -78.92 -13.77 
211.75 -78.82 -12.79 
211.76 -78.88 -11.80 
209.32 -77.63 -13.76 
209.30 -77.61 -12.70 
209.89 -77.92 -13.76 
209.87 -77.90 -12.74 
209.86 -77.88 -11.71 
210.31 -78.04 -13.80 
210.30 -78.02 -12.80 
210.28 -78.00 -11.80 
211.56 -77.67 -14.23 
211.54 -77.66 -13.27 
211.52 -77.64 -12.31 
208.54 -77.22 -13.77 
208.53 -77.20 -12.71 
208.51 -77.17 -11.65 
209.13 -77.48 -13.78 
208.81 -77.09 -12.81 
209.10 -77.44 -11.71 
209.56 -77.59 -13.81 
209.47 -77.44 -12.79 
209.52 -77.56 -11.80 
210.69 -77.13 -13.28 
210.67 -77.12 -12.30 
209.77 -76.62 -13.51 
209.83 -76.53 -12.29 
216.49 -75.18 -11.52 
215.13 -74.14 -13.78 
215.12 -74.15 -12.72 
216.99 -74.24 -13.59 
216.97 -74.25 -12.53 
216.80 -74.15 -11.80 
216.95 -74.26 -11.48 
215.61 -73.27 -13.77 
215.59 -73.27 -12.70 
217.30 -73.21 -13.86 
217.46 -73.30 -13.57 
217.44 -73.32 -12.50 
217.27 -73.23 -11.76 
217.42 -73.33 -11.43 
216.09 -72.37 -13.76 
216.08 -72.38 -12.68 
216.06 -72.39 -11.60 
216.55 -71.42 -13.75 
216.53 -71.43 -12.66 
