# .PCD v0.7 - Point Cloud Data file format
VERSION 0.7
FIELDS x y z
SIZE 4 4 4
TYPE F F F
COUNT 1 1 1
WIDTH 1304
HEIGHT 1
VIEWPOINT 0 0 0 1 0 0 0
POINTS 1304
DATA ascii
249.97 10.80 -12.83 
249.97 10.80 -12.07 
249.97 10.79 -11.30 
249.97 10.79 -10.53 
249.96 10.78 -9.77 
249.96 10.78 -8.99 
249.96 10.78 -8.22 
249.95 10.77 -7.44 
250.61 11.19 -13.03 
250.60 11.19 -12.44 
250.60 11.19 -11.85 
250.60 11.19 -11.27 
250.60 11.19 -10.68 
250.60 11.19 -9.49 
251.36 11.05 -12.34 
250.84 10.66 -12.19 
251.35 10.74 -11.12 
250.95 11.06 -10.39 
251.37 11.09 -9.77 
251.35 10.75 -9.01 
251.35 10.75 -7.95 
250.96 11.09 -7.88 
250.96 11.10 -7.03 
250.82 10.67 -6.11 
251.35 10.76 -5.82 
251.78 10.69 -13.27 
251.83 10.76 -12.62 
251.83 10.76 -11.80 
251.78 10.69 -11.25 
251.78 10.70 -10.58 
251.78 10.70 -9.90 
251.78 10.70 -9.22 
251.83 10.78 -8.50 
251.83 10.78 -7.66 
251.83 10.79 -6.82 
252.43 11.09 -13.06 
252.61 10.66 -12.80 
252.60 10.66 -11.85 
252.42 11.07 -10.87 
252.41 11.06 -10.14 
252.41 11.05 -9.41 
252.59 10.64 -8.99 
252.59 10.63 -8.03 
252.40 11.04 -7.93 
252.58 10.62 -7.07 
252.58 10.62 -6.10 
253.13 10.85 -13.08 
253.43 11.12 -12.79 
253.30 10.99 -12.05 
253.12 10.85 -11.12 
253.40 11.09 -10.35 
253.40 11.08 -9.74 
253.39 11.08 -9.12 
253.12 10.84 -8.16 
253.11 10.84 -7.17 
253.11 10.84 -6.17 
253.96 10.68 -12.49 
253.94 10.65 -11.89 
253.91 10.62 -11.28 
253.89 10.58 -10.68 
253.87 10.55 -10.08 
254.66 10.60 -11.87 
254.65 10.58 -11.26 
254.63 10.56 -10.65 
254.61 10.54 -10.04 
250.35 11.53 -12.83 
250.35 11.52 -12.05 
250.35 11.52 -11.28 
250.34 11.52 -10.50 
250.34 11.51 -9.72 
250.34 11.51 -8.93 
250.33 11.50 -8.15 
250.33 11.50 -7.36 
251.32 11.80 -12.89 
251.33 11.81 -12.05 
251.33 11.82 -11.21 
251.34 11.83 -10.36 
251.34 11.83 -9.52 
251.22 11.51 -9.13 
251.34 11.84 -8.67 
251.35 11.85 -7.81 
251.22 11.51 -7.08 
251.22 11.51 -6.04 
251.85 11.44 -13.13 
251.86 11.45 -12.24 
252.12 11.44 -11.91 
251.86 11.47 -11.36 
251.87 11.48 -10.47 
251.87 11.49 -9.58 
251.99 11.29 -9.01 
252.13 11.45 -8.46 
251.88 11.52 -7.79 
251.99 11.30 -6.84 
252.10 11.23 -6.13 
251.76 11.63 -5.75 
252.85 11.86 -13.06 
252.65 11.50 -12.64 
252.65 11.50 -11.70 
252.65 11.50 -10.76 
252.65 11.50 -10.76 
252.65 11.50 -9.83 
252.35 11.61 -9.07 
252.35 11.62 -8.15 
252.81 11.81 -7.83 
253.53 11.69 -13.08 
253.00 11.48 -12.80 
252.99 11.47 -11.84 
252.99 11.47 -10.87 
253.26 11.83 -10.23 
252.98 11.46 -9.91 
252.98 11.46 -8.94 
253.25 11.82 -8.63 
252.98 11.45 -7.97 
252.97 11.44 -7.00 
252.96 11.44 -6.02 
253.71 11.25 -12.28 
253.98 11.82 -11.86 
253.71 11.25 -11.25 
253.71 11.25 -10.22 
253.86 11.63 -10.00 
253.70 11.26 -9.19 
253.70 11.26 -8.16 
253.70 11.26 -7.12 
250.74 12.28 -12.83 
250.74 12.28 -12.04 
250.73 12.27 -11.25 
250.73 12.27 -10.46 
250.73 12.27 -9.66 
250.73 12.26 -8.87 
250.73 12.26 -8.07 
251.44 12.57 -13.05 
251.44 12.57 -12.43 
251.44 12.57 -11.81 
251.44 12.57 -11.19 
251.43 12.57 -10.57 
251.43 12.57 -9.94 
251.43 12.57 -9.32 
251.65 12.56 -12.90 
251.63 12.36 -12.18 
251.63 12.36 -11.15 
251.63 12.36 -10.12 
251.62 12.36 -9.09 
251.62 12.36 -8.06 
251.62 12.37 -7.02 
251.62 12.37 -5.98 
252.21 12.27 -13.30 
252.56 12.24 -12.60 
252.57 12.25 -11.90 
252.40 12.17 -11.15 
252.26 12.27 -10.45 
252.40 12.18 -10.06 
252.57 12.26 -9.07 
252.56 12.31 -8.38 
252.28 12.31 -7.73 
252.40 12.19 -6.79 
253.12 12.35 -12.64 
253.12 12.35 -11.69 
253.39 12.30 -10.84 
253.12 12.35 -10.74 
253.12 12.35 -9.78 
253.12 12.35 -8.83 
253.12 12.35 -7.87 
254.02 11.89 -12.49 
254.01 12.11 -12.02 
254.12 12.12 -11.24 
254.02 12.13 -10.68 
254.02 12.14 -10.01 
254.12 12.13 -9.15 
254.12 12.13 -8.11 
251.14 13.05 -12.83 
251.14 13.05 -12.02 
251.13 13.05 -11.22 
251.13 13.04 -10.42 
251.13 13.04 -9.61 
251.13 13.04 -8.80 
251.13 13.03 -7.99 
252.14 12.60 -13.22 
252.15 12.61 -12.34 
252.04 13.23 -12.18 
252.04 13.23 -11.14 
252.16 12.64 -10.58 
252.16 12.65 -9.70 
252.04 13.24 -9.05 
252.03 13.24 -8.01 
251.68 12.62 -7.76 
252.66 13.05 -13.15 
252.71 13.21 -12.64 
252.72 13.21 -11.96 
252.67 13.08 -11.33 
252.67 13.09 -10.42 
252.67 13.10 -9.51 
252.17 12.66 -8.82 
252.68 13.12 -8.59 
252.68 13.13 -7.67 
253.28 12.67 -13.06 
253.03 13.10 -12.60 
253.14 13.22 -11.81 
252.97 13.10 -10.91 
253.53 13.19 -10.71 
253.15 13.24 -9.93 
253.03 13.11 -8.99 
253.03 13.11 -8.26 
253.24 12.62 -7.73 
253.82 12.97 -12.66 
253.81 12.96 -12.02 
253.81 12.95 -11.37 
253.68 12.63 -10.18 
253.86 13.18 -9.83 
253.79 12.92 -9.44 
253.67 12.62 -8.55 
253.85 13.17 -7.84 
254.54 13.01 -12.27 
254.31 12.66 -11.50 
254.54 13.01 -11.22 
254.54 13.02 -10.17 
254.28 12.64 -9.55 
254.54 13.02 -9.12 
254.54 13.02 -8.06 
252.06 13.36 -12.91 
251.55 13.86 -12.82 
252.06 13.37 -12.04 
252.07 13.38 -11.18 
252.08 13.40 -10.31 
251.54 13.84 -9.55 
251.54 13.84 -8.73 
252.08 13.41 -8.57 
251.54 13.84 -7.91 
252.55 13.41 -13.23 
252.56 13.42 -12.34 
252.53 13.39 -12.16 
252.53 13.39 -11.08 
252.57 13.45 -10.56 
252.57 13.46 -9.67 
252.53 13.40 -8.91 
252.53 13.41 -7.82 
253.50 13.44 -13.17 
253.40 13.92 -12.62 
253.40 13.93 -11.75 
253.51 14.00 -11.12 
253.46 13.37 -10.59 
253.40 13.94 -10.00 
253.44 13.34 -9.29 
253.40 13.94 -8.25 
253.73 13.51 -12.29 
254.22 13.53 -11.77 
254.21 13.53 -10.95 
254.21 13.52 -10.12 
253.72 13.48 -9.97 
254.20 13.51 -9.29 
253.70 13.47 -8.41 
254.97 13.92 -12.27 
254.77 13.33 -12.00 
254.77 13.34 -11.30 
254.97 13.93 -10.14 
254.78 13.36 -9.89 
254.79 13.37 -9.19 
254.94 13.29 -8.35 
254.33 13.42 -8.00 
255.74 13.59 -8.45 
251.97 14.68 -12.82 
251.97 14.68 -11.99 
251.97 14.68 -11.16 
251.97 14.67 -10.33 
251.96 14.67 -9.50 
251.96 14.67 -8.66 
252.48 14.19 -12.91 
252.49 14.20 -12.04 
252.49 14.21 -11.16 
252.50 14.22 -10.28 
252.46 14.13 -10.07 
252.50 14.23 -9.39 
252.50 14.24 -8.51 
252.45 14.13 -7.96 
253.26 14.19 -13.34 
253.26 14.19 -12.64 
253.26 14.20 -11.94 
253.26 14.20 -11.23 
253.26 14.20 -10.53 
253.26 14.20 -9.82 
253.26 14.21 -9.11 
253.40 13.94 -8.25 
252.96 14.33 -7.77 
253.95 14.06 -12.63 
253.95 14.06 -11.66 
254.20 14.38 -11.49 
253.95 14.06 -10.68 
253.95 14.06 -9.71 
253.95 14.07 -8.73 
254.18 14.35 -8.31 
253.58 14.11 -7.99 
254.30 14.09 -12.79 
254.68 14.40 -11.75 
254.67 14.39 -10.91 
254.29 14.07 -10.79 
254.67 14.38 -10.06 
254.66 14.38 -9.22 
254.97 14.00 -8.46 
254.85 14.38 -7.93 
255.59 14.65 -12.70 
255.59 14.66 -11.97 
255.32 14.43 -11.42 
255.17 14.57 -10.57 
255.40 14.78 -9.63 
255.29 14.41 -9.34 
255.28 14.40 -8.65 
253.34 15.09 -13.26 
253.35 15.11 -12.35 
252.92 15.06 -12.03 
253.35 15.12 -11.43 
253.36 15.14 -10.52 
253.36 15.15 -9.60 
252.94 15.09 -9.35 
253.37 15.16 -8.67 
252.88 15.04 -7.90 
253.84 15.24 -13.36 
254.02 14.93 -12.59 
254.00 14.95 -11.79 
254.02 14.93 -11.08 
254.02 14.94 -10.32 
254.01 14.97 -9.87 
254.01 14.98 -8.90 
253.84 15.26 -8.26 
254.70 15.30 -12.26 
254.38 14.95 -11.64 
254.70 15.30 -11.46 
254.73 14.97 -10.76 
254.72 14.97 -9.74 
254.68 15.28 -9.02 
254.39 14.96 -8.67 
255.07 15.14 -12.65 
255.06 15.13 -11.96 
255.30 15.31 -11.01 
255.42 14.81 -10.72 
255.04 15.10 -9.86 
255.41 14.86 -9.03 
255.13 15.27 -8.28 
252.52 15.61 -12.83 
252.51 15.61 -11.98 
252.51 15.61 -11.13 
252.51 15.60 -10.28 
252.51 15.60 -9.43 
252.51 15.60 -8.57 
253.36 15.93 -12.93 
253.03 15.39 -12.40 
253.37 15.94 -12.02 
253.32 15.98 -11.08 
253.03 15.39 -10.34 
253.32 15.98 -10.01 
253.31 15.98 -8.93 
253.39 15.98 -8.38 
253.88 15.62 -13.19 
253.79 16.00 -12.35 
253.89 15.65 -11.30 
253.89 15.66 -10.35 
253.89 15.67 -9.40 
253.82 15.81 -8.75 
253.90 15.69 -8.44 
254.55 15.92 -12.59 
254.44 15.85 -11.79 
254.45 15.86 -10.81 
254.56 15.93 -10.26 
254.46 15.88 -9.83 
254.30 15.69 -9.01 
254.56 15.94 -8.69 
255.18 15.92 -12.78 
255.18 15.91 -11.75 
255.17 15.90 -10.72 
255.17 15.89 -9.70 
255.16 15.89 -8.66 
255.86 15.81 -12.26 
256.11 15.95 -11.57 
255.86 15.82 -11.17 
256.09 15.90 -10.53 
255.85 15.82 -10.08 
255.85 15.82 -8.99 
252.98 16.51 -12.83 
252.98 16.50 -11.96 
252.97 16.50 -11.10 
252.97 16.50 -10.23 
253.34 16.35 -9.63 
252.97 16.50 -9.36 
252.97 16.50 -8.49 
254.33 16.53 -13.21 
254.76 16.58 -12.62 
254.76 16.59 -11.70 
254.46 16.38 -11.14 
254.76 16.59 -10.79 
254.46 16.39 -9.63 
254.46 16.39 -8.87 
254.36 16.60 -8.38 
255.13 16.23 -13.08 
255.17 16.32 -12.50 
255.15 16.30 -11.78 
255.14 16.29 -11.07 
255.13 16.27 -10.35 
255.11 16.20 -9.77 
255.10 16.19 -8.94 
255.76 16.26 -12.04 
255.75 16.26 -10.98 
256.08 16.16 -10.01 
256.08 16.16 -8.92 
256.71 16.33 -11.93 
256.71 16.34 -11.16 
256.72 16.35 -10.39 
256.73 16.36 -9.61 
256.73 16.37 -8.83 
257.55 16.76 -11.66 
257.49 16.67 -10.14 
257.46 16.62 -9.39 
253.46 17.44 -12.83 
253.46 17.44 -11.95 
253.46 17.43 -11.06 
253.46 17.43 -10.18 
253.45 17.43 -9.29 
253.97 17.05 -13.11 
254.26 16.92 -12.35 
253.83 16.85 -12.02 
253.83 16.86 -11.10 
253.97 17.05 -10.20 
253.97 17.05 -9.47 
253.75 16.93 -8.88 
254.80 17.48 -13.23 
254.92 16.81 -9.79 
254.92 16.82 -8.80 
254.28 16.97 -8.56 
255.29 16.81 -12.63 
255.30 16.81 -11.61 
255.12 16.97 -10.99 
255.30 16.81 -10.59 
255.63 16.85 -9.65 
255.12 16.98 -9.38 
255.30 16.81 -8.55 
256.18 17.22 -12.57 
256.23 17.24 -12.03 
256.22 17.24 -10.96 
256.17 17.21 -10.78 
256.22 17.24 -9.88 
256.22 17.23 -8.80 
256.68 17.22 -11.60 
256.67 17.18 -10.56 
256.65 17.14 -9.52 
257.58 16.80 -12.41 
254.73 17.85 -13.31 
254.81 17.49 -12.25 
254.30 17.79 -12.01 
254.74 17.88 -11.39 
254.75 17.89 -10.43 
254.65 17.98 -9.74 
254.82 17.53 -9.31 
255.24 17.53 -12.62 
255.24 17.53 -11.69 
255.13 17.59 -11.08 
255.24 17.54 -10.75 
255.24 17.55 -9.82 
255.13 17.60 -8.73 
255.77 17.78 -12.62 
255.77 17.78 -11.59 
255.71 18.07 -10.94 
255.77 17.78 -10.56 
255.78 17.78 -9.53 
255.71 18.08 -9.29 
256.10 17.82 -8.53 
256.54 17.71 -12.64 
256.53 17.70 -11.88 
256.52 17.69 -11.12 
256.52 17.68 -10.36 
256.51 17.67 -9.60 
256.50 17.66 -8.84 
257.72 17.95 -12.71 
257.26 17.59 -11.63 
257.73 17.97 -11.08 
257.25 17.56 -10.54 
257.75 17.99 -9.45 
258.71 17.63 -10.83 
258.68 17.61 -10.04 
253.96 18.41 -12.83 
253.96 18.41 -11.93 
253.96 18.41 -11.03 
253.96 18.40 -10.13 
253.96 18.40 -9.22 
254.78 18.75 -12.96 
254.79 18.76 -12.00 
254.79 18.78 -11.05 
254.80 18.79 -10.09 
254.80 18.80 -9.13 
255.22 18.83 -13.33 
255.22 18.85 -12.35 
255.23 18.86 -11.38 
255.24 18.88 -10.40 
255.31 18.51 -9.26 
256.24 18.29 -13.09 
255.85 18.58 -12.63 
255.85 18.58 -11.68 
256.22 18.27 -11.35 
255.85 18.59 -10.72 
255.85 18.60 -9.77 
256.71 18.25 -13.10 
256.72 18.24 -12.56 
256.72 18.23 -11.65 
256.70 18.24 -10.93 
256.60 18.85 -10.61 
256.70 18.24 -9.84 
256.69 18.24 -8.75 
257.58 18.54 -12.81 
257.57 18.54 -12.02 
257.56 18.53 -11.23 
257.56 18.52 -10.44 
257.55 18.52 -9.65 
257.15 18.53 -9.23 
254.49 19.42 -12.83 
254.49 19.42 -11.91 
254.49 19.42 -10.99 
254.49 19.42 -10.07 
254.49 19.42 -9.14 
255.03 18.92 -13.14 
255.03 18.92 -12.37 
255.03 18.92 -11.60 
255.03 18.92 -10.82 
255.03 18.92 -10.05 
255.02 18.92 -9.27 
255.79 19.46 -13.26 
255.85 18.89 -12.64 
255.85 18.89 -11.83 
255.80 19.49 -11.24 
255.81 19.50 -10.22 
255.85 18.90 -9.40 
255.81 19.52 -9.20 
256.83 19.40 -13.09 
256.52 19.43 -12.58 
256.52 19.43 -11.72 
256.52 19.44 -10.87 
256.81 19.38 -10.42 
256.53 19.44 -10.01 
256.53 19.45 -9.16 
257.30 19.30 -12.55 
257.29 19.30 -11.62 
257.28 19.29 -10.69 
257.28 19.29 -9.75 
257.81 19.36 -11.41 
258.09 19.17 -10.44 
257.78 19.29 -9.43 
258.07 19.13 -9.38 
255.40 19.83 -12.98 
255.41 19.84 -12.00 
255.41 19.86 -11.03 
255.42 19.87 -10.05 
255.72 19.85 -13.35 
255.73 19.86 -12.36 
256.29 19.73 -11.75 
255.74 19.88 -11.36 
255.74 19.89 -10.36 
256.30 19.75 -9.68 
255.75 19.91 -9.36 
256.68 19.78 -12.62 
256.68 19.79 -11.56 
256.48 20.18 -10.96 
256.68 19.79 -10.49 
256.68 19.79 -9.43 
256.48 20.19 -9.28 
257.25 19.94 -12.47 
257.24 19.92 -11.66 
257.23 19.90 -10.85 
257.21 19.88 -10.04 
257.20 19.86 -9.23 
258.32 19.77 -8.70 
258.72 19.85 -9.94 
258.71 19.83 -8.86 
258.91 19.83 -8.41 
255.04 20.48 -12.83 
255.04 20.48 -11.89 
255.04 20.48 -10.95 
255.04 20.48 -10.01 
256.25 20.90 -13.37 
256.25 20.92 -12.36 
255.94 20.90 -11.99 
256.26 20.93 -11.34 
256.27 20.95 -10.32 
255.95 20.93 -10.00 
256.27 20.96 -9.30 
256.80 20.77 -12.80 
256.81 20.78 -11.74 
256.81 20.79 -10.69 
256.93 20.70 -9.65 
257.46 20.57 -13.10 
257.20 20.85 -12.62 
257.20 20.69 -11.69 
257.20 20.70 -10.81 
257.44 20.54 -10.35 
257.44 20.54 -9.43 
257.21 20.71 -9.04 
258.30 20.79 -12.63 
258.29 20.78 -11.80 
258.29 20.77 -10.96 
258.28 20.76 -10.13 
258.27 20.75 -9.29 
258.72 20.53 -11.54 
258.71 20.50 -10.46 
258.69 20.47 -9.38 
260.77 20.52 -9.63 
260.76 20.49 -8.70 
255.62 21.58 -12.83 
255.62 21.58 -11.87 
255.62 21.58 -10.91 
255.62 21.58 -9.94 
255.62 21.58 -8.98 
256.23 21.03 -13.17 
256.23 21.04 -12.35 
256.23 21.04 -11.52 
256.04 21.09 -10.59 
255.99 21.01 -9.63 
256.23 21.04 -9.04 
256.84 21.58 -13.29 
256.84 21.59 -12.25 
256.85 21.61 -11.20 
256.85 21.62 -10.15 
256.41 21.12 -8.95 
257.30 21.68 -12.63 
257.30 21.68 -11.76 
258.40 21.53 -12.54 
258.39 21.53 -11.56 
258.39 21.52 -10.59 
258.38 21.52 -9.61 
258.38 21.51 -8.63 
259.09 21.21 -11.97 
258.92 21.32 -11.09 
258.91 21.28 -10.17 
259.06 21.19 -9.40 
258.89 21.25 -9.26 
258.80 21.22 -8.41 
259.50 21.21 -10.93 
259.50 21.19 -9.88 
259.49 21.17 -8.83 
259.24 21.55 -8.30 
260.47 21.34 -8.21 
260.77 21.37 -8.30 
256.14 21.94 -11.04 
256.13 21.92 -9.95 
256.12 21.90 -8.85 
256.49 21.99 -13.00 
256.93 22.11 -12.36 
256.50 22.00 -11.99 
256.94 22.12 -11.32 
256.94 22.14 -10.28 
256.49 22.00 -9.96 
256.52 22.04 -8.93 
257.50 21.79 -12.63 
257.50 21.80 -11.62 
257.31 21.69 -10.89 
257.35 21.89 -10.66 
257.35 21.90 -9.58 
257.31 21.70 -9.14 
257.66 21.89 -8.55 
258.12 21.80 -13.10 
257.93 22.03 -12.57 
257.93 22.04 -11.66 
258.10 21.79 -11.22 
257.93 22.04 -10.75 
257.94 22.05 -9.84 
257.94 22.05 -8.92 
258.09 21.76 -8.39 
258.76 21.87 -8.12 
259.42 21.86 -11.43 
259.41 21.83 -10.38 
259.19 22.03 -10.07 
259.39 21.80 -9.33 
259.59 22.02 -8.26 
260.15 21.82 -10.00 
260.16 21.83 -9.08 
260.16 21.84 -8.17 
260.23 22.12 -7.97 
256.10 22.68 -12.83 
256.10 22.68 -11.85 
256.10 22.68 -10.87 
256.10 22.68 -9.88 
256.10 22.68 -8.90 
257.39 22.70 -13.31 
257.39 22.71 -12.24 
257.40 22.73 -11.18 
257.40 22.74 -10.10 
257.41 22.76 -9.03 
258.10 22.96 -12.63 
258.11 22.97 -11.60 
258.11 22.98 -10.56 
258.11 22.98 -9.52 
258.11 22.99 -8.48 
259.05 22.76 -12.53 
259.04 22.75 -11.53 
259.04 22.75 -10.53 
259.03 22.74 -9.53 
258.79 23.07 -9.23 
259.03 22.74 -8.52 
259.76 23.07 -10.18 
259.75 23.04 -9.27 
259.74 23.01 -8.37 
259.20 23.07 -7.79 
260.24 22.49 -10.84 
260.23 22.47 -9.82 
260.06 23.07 -9.28 
260.20 22.81 -8.48 
260.22 22.44 -7.77 
261.87 22.65 -8.80 
261.69 22.85 -8.66 
256.86 23.28 -10.95 
256.86 23.27 -9.88 
256.85 23.25 -8.82 
257.61 23.46 -13.20 
257.61 23.46 -12.32 
257.08 23.15 -11.98 
257.51 23.27 -11.30 
257.46 23.25 -10.40 
257.20 23.33 -9.90 
257.19 23.31 -8.83 
257.41 23.16 -8.58 
257.69 23.56 -7.88 
258.20 23.32 -12.63 
258.20 23.32 -11.72 
258.21 23.33 -10.82 
258.21 23.33 -9.90 
258.21 23.33 -8.99 
258.21 23.34 -8.08 
258.44 23.32 -7.83 
258.71 23.47 -12.57 
258.80 23.10 -12.14 
258.80 23.09 -11.17 
258.72 23.49 -10.69 
258.72 23.49 -9.74 
258.72 23.50 -8.79 
258.94 23.65 -7.81 
260.09 23.52 -10.89 
260.07 23.09 -10.31 
260.07 23.49 -10.03 
260.06 23.46 -9.17 
260.29 23.35 -8.24 
260.43 23.75 -7.66 
260.93 23.71 -10.76 
260.93 23.69 -9.76 
260.92 23.68 -8.77 
260.92 23.66 -7.77 
261.53 23.54 -7.57 
262.46 23.68 -8.61 
262.44 23.65 -7.75 
262.26 23.68 -7.15 
262.67 23.32 -7.47 
266.64 23.66 -8.74 
266.63 23.65 -7.72 
266.62 23.64 -6.70 
249.03 24.29 -11.28 
249.88 24.04 -11.39 
250.62 24.39 -11.63 
250.11 24.15 -11.33 
250.85 24.13 -11.52 
256.73 23.89 -11.83 
256.73 23.89 -10.82 
256.73 23.89 -9.81 
256.73 23.90 -8.80 
257.69 24.34 -13.03 
257.70 24.35 -11.96 
257.70 24.36 -10.90 
257.71 24.38 -9.84 
257.71 24.39 -8.77 
258.10 24.45 -12.36 
258.11 24.46 -11.28 
258.12 24.48 -10.19 
258.74 24.18 -12.63 
258.74 24.19 -11.57 
258.74 24.20 -10.51 
258.74 24.21 -9.45 
258.74 24.21 -8.38 
259.54 24.48 -13.12 
259.73 24.04 -12.53 
259.53 24.48 -12.12 
259.26 24.12 -10.91 
259.72 24.04 -10.47 
259.72 24.03 -9.44 
259.25 24.10 -8.73 
259.71 24.03 -8.41 
259.24 24.08 -7.64 
260.87 24.36 -10.96 
260.71 24.30 -10.24 
260.86 24.35 -10.03 
260.70 24.28 -9.24 
260.68 24.25 -8.23 
260.62 24.33 -7.44 
261.58 24.09 -10.80 
261.58 24.11 -9.83 
261.59 24.12 -8.86 
261.60 24.13 -7.89 
265.69 24.19 -8.73 
265.69 24.19 -7.73 
265.68 24.18 -6.73 
266.48 24.27 -8.92 
266.46 24.27 -7.99 
266.45 24.26 -7.07 
267.54 24.36 -9.06 
267.53 24.36 -8.24 
267.27 23.83 -7.99 
267.26 23.83 -7.05 
266.98 24.47 -6.33 
248.32 25.02 -11.23 
249.26 24.89 -12.77 
249.26 24.90 -11.97 
248.97 25.05 -11.29 
249.78 24.53 -12.77 
249.72 25.08 -11.55 
249.66 24.72 -11.30 
250.13 24.74 -11.55 
250.83 24.71 -11.54 
257.39 25.16 -11.80 
257.56 24.57 -10.87 
257.39 25.16 -10.77 
257.55 24.55 -9.83 
257.54 24.53 -8.79 
257.53 24.51 -7.75 
257.89 24.61 -10.90 
257.88 24.59 -9.85 
258.13 24.50 -9.10 
257.93 24.96 -8.37 
257.87 24.84 -7.50 
259.18 25.10 -12.63 
259.56 25.03 -11.59 
259.56 25.03 -10.61 
259.19 25.11 -9.78 
259.56 25.04 -8.65 
259.56 25.04 -8.65 
259.19 25.12 -7.87 
259.92 24.57 -11.50 
259.90 24.55 -10.58 
259.89 24.52 -9.65 
260.55 25.00 -8.96 
260.50 24.91 -8.16 
260.45 24.80 -7.36 
260.79 25.11 -10.68 
260.77 25.07 -9.87 
260.92 24.71 -9.16 
260.91 24.68 -8.22 
260.72 24.96 -7.45 
260.89 24.65 -7.27 
261.43 25.18 -10.51 
261.42 25.15 -9.47 
261.59 24.84 -8.74 
261.41 25.12 -8.43 
261.58 24.83 -7.76 
262.04 24.76 -9.87 
262.03 24.73 -8.96 
262.02 24.70 -8.05 
262.01 24.68 -7.14 
262.78 24.53 -8.75 
262.78 24.51 -7.88 
262.77 24.50 -7.01 
263.69 24.95 -6.63 
264.77 24.71 -7.74 
264.76 24.70 -6.75 
264.61 24.67 -6.56 
264.91 25.17 -8.91 
264.90 25.16 -8.01 
265.35 24.99 -7.60 
264.89 25.16 -7.11 
265.34 24.99 -6.49 
265.68 24.76 -8.92 
266.06 25.18 -8.44 
265.57 25.17 -7.66 
265.66 24.75 -7.09 
265.56 25.16 -6.59 
266.78 25.02 -9.47 
266.32 25.00 -9.06 
266.73 24.98 -8.35 
266.67 24.85 -7.62 
266.43 25.00 -6.80 
266.72 25.02 -6.31 
267.26 24.96 -9.61 
267.17 24.96 -8.97 
267.15 24.92 -8.28 
267.15 24.96 -7.41 
267.26 25.05 -7.03 
267.15 24.98 -6.43 
267.58 24.78 -9.84 
267.57 24.78 -9.02 
267.55 24.78 -8.12 
267.59 24.77 -7.34 
267.47 24.65 -6.90 
247.34 25.46 -12.31 
247.72 25.38 -11.78 
247.32 25.42 -11.33 
248.30 25.83 -13.46 
248.47 25.71 -12.62 
248.47 25.71 -11.81 
248.25 25.68 -11.24 
248.83 25.49 -13.04 
248.87 25.66 -12.66 
249.12 25.47 -11.55 
248.84 25.50 -11.39 
249.43 25.31 -12.66 
249.43 25.31 -11.85 
249.68 25.57 -11.27 
250.50 25.27 -11.53 
250.13 25.20 -11.23 
251.10 25.74 -11.19 
258.33 25.59 -13.04 
258.34 25.61 -11.95 
258.34 25.62 -10.87 
258.22 25.79 -10.79 
258.35 25.64 -9.78 
258.20 25.76 -8.76 
258.36 25.65 -8.69 
258.20 25.74 -7.75 
258.54 25.82 -10.82 
258.53 25.80 -9.79 
258.52 25.78 -8.77 
258.51 25.77 -7.74 
259.40 25.46 -12.63 
259.40 25.47 -11.55 
259.40 25.48 -10.46 
259.41 25.49 -9.38 
259.41 25.49 -8.28 
260.45 25.40 -11.46 
260.44 25.40 -10.41 
260.44 25.39 -9.35 
260.43 25.39 -8.29 
260.43 25.39 -7.22 
261.11 25.63 -10.71 
261.09 25.60 -9.89 
261.08 25.57 -9.08 
261.07 25.54 -8.26 
261.06 25.51 -7.45 
261.31 25.46 -10.17 
261.56 25.42 -9.78 
261.34 25.72 -9.20 
261.33 25.69 -8.32 
261.31 25.66 -7.45 
261.28 25.38 -7.23 
263.04 25.65 -9.67 
263.04 25.64 -8.71 
263.03 25.63 -7.75 
263.02 25.63 -6.79 
263.89 25.23 -9.69 
263.89 25.22 -8.72 
263.88 25.22 -7.75 
263.87 25.21 -6.77 
264.25 25.60 -9.78 
264.24 25.60 -8.69 
264.24 25.60 -8.69 
264.50 25.73 -7.67 
264.14 25.56 -7.12 
264.22 25.59 -6.52 
265.14 25.63 -9.86 
265.14 25.63 -9.06 
265.21 25.65 -8.45 
265.21 25.65 -7.63 
265.20 25.64 -6.82 
265.96 25.63 -10.32 
265.95 25.63 -9.57 
265.67 25.71 -9.12 
265.88 25.59 -8.32 
265.87 25.59 -7.38 
265.67 25.60 -6.93 
265.85 25.59 -6.44 
266.20 25.58 -10.21 
266.50 25.35 -9.57 
266.43 25.41 -9.07 
266.40 25.32 -8.30 
266.56 25.27 -7.42 
266.66 25.38 -7.03 
266.38 25.41 -6.45 
266.88 25.30 -9.43 
266.82 25.32 -8.91 
266.95 25.44 -8.55 
266.94 25.44 -7.64 
266.93 25.43 -6.72 
266.95 25.62 -6.57 
246.54 26.45 -11.83 
247.35 26.52 -13.20 
247.21 26.50 -12.67 
247.06 26.57 -11.99 
247.09 26.54 -11.41 
247.43 26.41 -13.42 
247.43 26.41 -12.59 
247.43 26.42 -11.75 
247.81 26.31 -11.23 
248.04 26.23 -13.32 
248.15 26.10 -12.71 
248.15 26.11 -11.83 
248.00 26.15 -11.25 
249.36 26.25 -13.21 
248.79 26.12 -12.66 
248.80 26.13 -11.70 
248.73 26.48 -11.21 
251.30 25.94 -11.18 
258.08 26.50 -10.72 
258.08 26.50 -9.66 
258.09 26.51 -8.59 
258.09 26.51 -7.53 
258.91 25.94 -12.30 
258.91 25.95 -11.36 
258.97 26.58 -10.18 
258.91 25.95 -9.47 
258.94 26.52 -9.35 
258.91 25.95 -8.52 
258.91 25.96 -7.57 
260.48 26.08 -11.06 
260.52 26.28 -9.74 
260.47 26.07 -8.98 
260.51 26.26 -8.69 
260.47 26.06 -7.94 
261.56 25.92 -10.03 
261.55 25.90 -9.11 
261.87 26.51 -8.19 
261.38 26.15 -7.48 
261.86 26.49 -7.24 
261.99 26.23 -9.42 
262.22 25.96 -8.71 
262.12 26.44 -8.65 
261.97 26.17 -7.38 
262.21 25.93 -6.81 
263.17 26.18 -9.75 
262.72 26.00 -8.92 
262.71 25.98 -8.04 
263.03 26.43 -7.70 
263.02 26.43 -6.68 
263.15 26.18 -6.55 
263.98 26.25 -9.86 
263.97 26.25 -9.06 
263.69 26.44 -8.45 
264.01 26.28 -7.64 
263.78 26.00 -6.94 
263.95 26.55 -6.43 
264.41 26.43 -9.62 
264.41 26.40 -9.00 
264.41 26.39 -8.22 
264.40 26.39 -7.43 
264.56 26.29 -6.79 
264.27 26.52 -6.43 
264.84 26.50 -10.14 
265.08 26.12 -9.56 
265.02 26.17 -9.12 
265.07 26.03 -8.34 
265.01 26.07 -7.42 
265.15 26.27 -6.79 
264.97 26.17 -6.45 
266.14 25.89 -10.43 
265.83 26.19 -9.54 
265.61 25.98 -8.93 
265.82 26.18 -8.56 
265.81 26.18 -7.57 
265.59 25.88 -7.13 
265.80 26.18 -6.58 
245.79 27.29 -12.85 
246.25 27.20 -13.20 
246.42 26.93 -12.85 
246.25 27.21 -11.59 
246.77 27.03 -13.32 
246.76 26.86 -12.73 
246.76 26.87 -11.87 
246.67 26.96 -11.30 
247.49 27.06 -13.06 
247.50 26.64 -12.40 
247.34 26.87 -11.96 
247.34 27.29 -11.17 
248.39 26.70 -13.21 
248.40 26.70 -12.21 
248.39 26.68 -11.53 
248.32 27.06 -11.21 
248.80 26.98 -11.61 
248.86 27.10 -11.21 
249.95 27.21 -11.25 
250.55 27.28 -11.16 
250.94 26.71 -11.18 
251.76 27.22 -11.12 
258.85 26.96 -10.71 
258.84 26.95 -9.72 
259.14 26.94 -8.74 
259.13 26.92 -7.73 
259.59 27.26 -8.48 
259.58 27.23 -7.67 
259.56 27.20 -6.86 
260.47 26.70 -11.55 
260.26 27.06 -10.64 
260.26 27.07 -9.64 
260.26 27.07 -8.64 
260.48 26.72 -7.47 
261.12 27.29 -9.70 
261.20 26.83 -9.25 
261.11 27.29 -8.67 
261.10 27.29 -7.64 
261.09 27.29 -6.61 
262.08 26.96 -8.71 
262.24 27.15 -8.27 
262.23 27.15 -7.48 
262.25 27.20 -6.86 
262.10 26.74 -6.58 
263.20 27.06 -9.71 
263.22 27.02 -9.00 
263.13 27.01 -8.36 
263.18 27.05 -7.46 
263.18 27.05 -6.70 
263.17 27.03 -6.45 
263.76 26.81 -9.69 
263.75 26.77 -8.96 
263.74 26.77 -8.20 
263.74 26.77 -7.45 
263.73 26.76 -6.69 
263.72 26.80 -6.43 
264.16 26.73 -9.48 
264.23 26.59 -9.23 
264.24 26.81 -8.54 
264.23 26.81 -7.74 
264.21 26.81 -6.93 
264.82 26.66 -9.58 
264.90 26.76 -8.66 
264.89 26.75 -7.60 
264.88 26.75 -6.54 
245.17 27.65 -12.86 
245.70 27.56 -11.59 
245.94 27.31 -13.07 
246.06 27.44 -12.42 
246.06 27.45 -11.53 
246.06 27.45 -11.53 
246.69 27.75 -13.20 
246.64 27.64 -12.74 
246.65 27.65 -11.86 
246.71 27.75 -11.15 
247.41 27.83 -13.04 
247.33 27.56 -12.29 
247.65 27.51 -11.73 
247.40 27.81 -11.37 
249.01 27.60 -12.00 
249.05 27.31 -11.25 
250.59 27.42 -11.17 
250.99 27.56 -11.13 
251.79 27.77 -11.99 
251.78 27.76 -11.11 
252.66 27.54 -11.43 
258.81 27.91 -10.66 
258.81 27.91 -9.57 
258.82 27.92 -8.48 
259.77 27.97 -10.68 
259.76 27.95 -9.70 
259.76 27.93 -8.71 
259.75 27.92 -7.73 
259.74 27.90 -6.74 
260.25 27.95 -9.68 
260.24 27.94 -8.70 
260.24 27.94 -7.73 
260.23 27.93 -6.76 
261.13 27.75 -9.86 
261.12 27.75 -9.07 
261.12 27.80 -8.45 
261.11 27.80 -7.66 
261.10 27.75 -6.71 
261.50 27.95 -10.38 
261.32 27.65 -9.93 
261.69 27.50 -9.24 
261.68 27.50 -8.45 
261.68 27.50 -7.66 
261.67 27.49 -6.87 
261.43 27.95 -6.44 
262.50 27.50 -9.60 
262.37 27.49 -8.91 
262.36 27.49 -8.18 
262.33 27.48 -7.42 
262.34 27.48 -6.72 
262.31 27.48 -6.44 
262.83 27.59 -9.56 
262.77 27.33 -9.08 
262.76 27.33 -8.28 
262.75 27.33 -7.47 
262.82 27.38 -7.02 
262.74 27.32 -6.44 
263.81 27.35 -9.76 
263.80 27.35 -8.68 
263.79 27.34 -7.61 
263.79 27.34 -6.53 
245.72 28.02 -13.08 
245.73 28.04 -12.20 
245.79 28.23 -12.18 
245.74 28.05 -11.32 
246.37 28.05 -12.30 
246.38 28.06 -11.25 
246.76 28.24 -12.90 
246.76 28.25 -11.97 
247.81 28.12 -13.06 
247.53 28.31 -12.72 
247.80 28.11 -12.07 
248.35 28.48 -12.20 
249.27 28.10 -11.77 
249.69 28.67 -11.91 
250.69 28.32 -11.13 
251.44 28.42 -11.35 
251.62 28.37 -11.75 
251.57 28.06 -11.10 
252.21 28.23 -11.35 
259.44 28.07 -9.67 
259.43 28.05 -8.71 
259.43 28.04 -7.74 
259.42 28.02 -6.77 
260.54 28.47 -10.45 
260.29 28.25 -10.04 
260.28 28.25 -9.25 
260.27 28.24 -8.47 
260.26 28.24 -7.69 
260.54 28.10 -6.88 
260.46 28.47 -6.40 
260.74 28.43 -10.61 
260.73 28.42 -9.77 
260.72 28.42 -8.94 
260.71 28.42 -8.10 
260.62 28.46 -7.43 
260.70 28.42 -7.26 
260.61 28.46 -6.43 
261.36 28.10 -10.59 
261.35 28.09 -9.75 
261.34 28.09 -8.92 
261.46 28.52 -8.33 
261.46 28.53 -7.26 
261.31 28.08 -6.43 
245.40 28.75 -12.86 
245.40 28.76 -12.00 
246.56 29.06 -12.29 
246.43 28.72 -11.61 
246.56 29.06 -11.24 
246.70 28.74 -13.34 
246.71 28.75 -12.42 
246.70 29.37 -11.63 
246.71 28.77 -11.49 
247.95 29.16 -12.62 
247.51 28.93 -11.70 
249.92 29.27 -11.67 
249.94 28.78 -11.34 
250.39 29.07 -11.12 
251.35 28.81 -12.45 
251.34 28.80 -11.54 
251.26 28.84 -11.10 
260.72 29.16 -10.23 
260.72 29.16 -9.20 
260.72 29.16 -8.18 
260.72 29.17 -7.14 
246.17 29.49 -12.20 
246.45 29.47 -12.17 
246.45 29.46 -11.13 
246.73 29.70 -13.10 
246.66 29.80 -11.55 
247.62 29.71 -12.91 
247.71 29.39 -11.82 
248.59 29.49 -13.06 
248.19 29.62 -12.71 
248.18 29.61 -11.71 
249.04 29.72 -12.58 
249.04 29.73 -11.67 
250.35 29.71 -11.82 
250.94 29.61 -11.09 
247.18 30.79 -13.22 
247.27 30.36 -12.28 
247.18 30.79 -12.15 
247.10 30.48 -11.34 
247.28 30.36 -13.36 
247.63 30.32 -12.41 
247.65 30.60 -11.56 
247.63 30.34 -11.45 
248.37 30.41 -12.66 
248.38 30.41 -11.67 
250.59 30.31 -11.57 
250.97 30.71 -11.73 
246.92 30.84 -13.23 
246.70 30.86 -12.87 
246.70 30.88 -11.96 
247.53 31.18 -11.42 
248.55 31.30 -12.93 
248.56 31.32 -11.93 
248.82 31.20 -12.67 
249.03 31.10 -11.67 
249.36 30.94 -11.23 
249.42 30.94 -13.07 
249.94 31.28 -12.15 
249.58 31.03 -11.30 
250.42 31.13 -11.30 
247.84 31.54 -13.12 
247.85 31.56 -12.15 
248.62 32.02 -12.40 
248.35 31.83 -11.39 
249.30 32.00 -12.66 
249.30 32.00 -11.62 
249.05 31.76 -11.39 
249.76 31.63 -11.39 
247.72 32.26 -13.24 
247.72 32.26 -12.16 
248.72 32.40 -12.51 
248.73 32.41 -11.51 
249.96 32.70 -12.69 
249.95 32.69 -11.62 
250.14 32.37 -13.07 
250.13 32.36 -11.99 
249.07 33.57 -13.14 
249.55 33.01 -12.94 
249.56 33.03 -11.90 
250.19 33.43 -12.74 
250.19 33.45 -11.72 
255.59 33.30 -11.86 
249.08 33.59 -12.13 
249.95 34.10 -12.37 
249.96 34.11 -11.32 
250.29 33.71 -12.65 
250.29 33.71 -11.58 
249.91 34.38 -12.50 
249.91 34.40 -11.45 
250.62 34.86 -12.95 
