# .PCD v0.7 - Point Cloud Data file format
VERSION 0.7
FIELDS x y z
SIZE 4 4 4
TYPE F F F
COUNT 1 1 1
WIDTH 530
HEIGHT 1
VIEWPOINT 0 0 0 1 0 0 0
POINTS 530
DATA ascii
268.03 235.85 -0.56 
268.71 235.93 -1.78 
268.98 235.84 -1.35 
268.95 235.83 -0.63 
269.16 236.14 0.17 
269.90 235.82 -2.53 
269.74 235.59 -0.33 
270.15 235.55 0.15 
270.53 235.66 -2.76 
270.57 235.85 -1.63 
270.63 236.04 -1.42 
270.97 235.94 -0.47 
270.60 235.87 0.05 
270.62 236.12 1.11 
271.27 235.86 -2.25 
271.17 235.91 -1.15 
271.57 235.67 -0.14 
271.20 236.01 1.18 
271.96 235.77 -2.22 
271.94 235.99 1.61 
272.63 235.71 -2.58 
273.20 235.97 -2.21 
273.09 235.61 -0.98 
273.02 235.74 -0.88 
272.92 236.17 0.12 
273.30 235.95 -3.11 
273.49 235.74 -2.52 
273.52 235.51 -1.87 
273.80 235.70 -1.61 
273.30 236.11 -0.64 
274.04 236.05 -1.08 
274.20 236.08 -0.66 
274.30 235.54 0.20 
274.63 236.06 -1.62 
275.10 235.74 -1.13 
274.74 235.78 -0.57 
275.81 236.09 -1.82 
275.78 235.54 -0.93 
276.40 235.60 -2.40 
276.25 236.04 -1.64 
276.07 235.49 -1.19 
276.33 235.81 -0.40 
276.32 236.08 0.54 
276.95 235.50 0.13 
276.80 236.05 1.00 
277.56 235.78 0.01 
277.76 236.18 1.45 
278.74 235.73 1.56 
279.06 236.12 -1.43 
279.06 236.06 0.26 
279.47 236.04 0.91 
279.72 235.98 -2.28 
280.13 235.89 -1.38 
280.16 236.14 -0.55 
279.73 235.90 0.24 
280.04 235.72 0.69 
280.76 235.78 -2.18 
280.38 235.76 -1.44 
280.36 235.74 -0.68 
280.77 235.52 0.01 
281.56 235.96 0.20 
281.71 236.07 -0.61 
282.19 235.71 0.25 
267.69 236.31 -0.54 
268.31 236.35 0.02 
268.50 236.19 -0.63 
269.19 236.30 -0.40 
269.91 236.53 -1.89 
270.06 236.32 -1.22 
270.19 236.56 1.11 
269.94 236.39 1.77 
270.94 236.57 -1.88 
270.66 236.23 -1.17 
271.12 236.64 -0.49 
270.87 236.57 1.21 
271.73 236.48 -2.56 
271.60 236.41 -1.84 
271.57 236.41 -0.29 
272.45 236.75 -3.10 
272.03 236.51 -2.92 
272.34 236.60 -2.11 
271.98 236.20 -0.74 
272.77 236.79 -2.92 
272.60 236.19 -2.21 
273.17 236.58 -0.01 
272.85 236.55 0.56 
273.79 236.39 -3.17 
273.56 236.86 -1.29 
274.23 236.33 -0.47 
274.47 236.88 0.07 
274.74 236.21 0.03 
275.66 236.67 -1.08 
275.67 236.20 -0.31 
275.71 236.55 0.00 
276.34 236.29 0.27 
276.21 236.67 0.50 
277.39 236.88 0.15 
277.59 236.61 -0.11 
278.60 236.58 -0.64 
278.40 236.66 -0.07 
278.78 236.45 2.31 
279.37 236.38 -2.24 
279.05 236.30 -0.56 
279.30 236.62 -0.09 
280.19 236.32 -2.15 
280.06 236.68 -1.42 
279.81 236.88 -0.45 
280.76 236.31 -0.58 
281.48 236.60 -0.51 
281.59 236.80 0.29 
268.28 237.34 -0.71 
268.61 237.01 -1.26 
269.46 237.20 -1.14 
270.01 237.18 -1.13 
271.03 237.56 -1.28 
271.28 237.20 -1.40 
272.52 237.51 -2.50 
272.23 237.37 0.12 
272.63 237.33 -3.21 
272.87 237.54 -2.72 
272.76 236.93 -1.74 
273.61 237.16 -1.74 
274.13 237.58 -2.25 
274.29 237.47 1.04 
275.14 237.29 -1.04 
275.01 237.45 -0.67 
275.16 237.15 1.83 
275.93 237.00 -1.01 
275.61 237.33 -0.42 
275.81 237.40 -0.17 
275.68 237.09 0.50 
276.29 237.58 0.49 
276.90 237.49 -2.44 
276.75 237.51 1.84 
277.56 237.29 -2.92 
277.61 237.08 -0.40 
278.42 237.32 -1.60 
278.29 236.92 -0.49 
278.38 237.45 1.52 
279.08 236.97 -1.35 
279.60 236.90 -1.30 
279.65 237.48 0.44 
280.08 237.32 1.45 
280.50 237.22 -0.42 
280.38 237.32 0.34 
281.56 237.19 -0.45 
281.02 237.07 0.27 
281.97 237.35 0.38 
267.73 237.69 -0.73 
267.63 238.10 0.25 
268.57 237.77 0.20 
269.61 237.96 -1.38 
269.35 237.72 1.13 
269.99 238.09 -1.13 
269.87 238.22 -0.69 
271.08 237.68 0.47 
271.42 237.99 -2.10 
272.33 238.07 -3.74 
272.35 238.21 -2.93 
272.04 237.98 -2.07 
272.39 237.87 -1.20 
272.05 238.02 -0.08 
272.62 237.87 -3.41 
272.63 237.91 -2.62 
273.46 237.88 -2.18 
273.35 237.61 1.13 
273.62 237.94 1.76 
274.26 238.12 -1.67 
274.61 238.12 -0.97 
273.95 237.70 -0.11 
274.18 237.61 1.25 
275.28 237.76 -1.57 
274.99 238.13 -0.73 
275.06 237.61 -0.21 
275.73 238.02 -0.74 
275.76 237.68 0.05 
276.57 237.64 -0.97 
276.76 237.82 -1.24 
277.55 237.69 1.85 
278.79 237.83 1.23 
279.01 237.65 0.57 
279.20 237.80 1.84 
279.92 238.19 -0.42 
279.74 237.62 0.55 
280.62 238.28 -0.38 
267.85 238.47 1.09 
268.23 238.50 1.95 
268.91 238.56 -0.73 
269.48 238.53 -0.70 
271.06 238.78 1.48 
271.83 238.45 -3.32 
271.25 238.40 -1.29 
272.04 238.37 -3.53 
272.16 238.62 -2.22 
272.50 238.63 0.86 
272.53 238.46 -3.32 
273.12 238.57 -0.18 
273.89 238.69 -0.96 
273.92 238.93 -0.60 
273.72 238.53 -0.06 
274.04 238.83 -1.86 
273.94 238.62 -1.16 
274.22 238.54 -0.70 
274.88 238.36 -1.19 
274.76 238.47 -0.85 
274.70 238.70 0.19 
275.45 238.92 -1.86 
275.37 238.90 1.81 
276.31 238.79 -1.88 
276.37 238.53 -1.48 
276.32 238.73 1.16 
276.91 238.49 -2.41 
277.08 238.96 -2.15 
276.76 238.81 -0.56 
277.13 238.77 1.14 
277.93 238.83 -0.89 
278.30 238.96 -1.17 
278.16 238.56 -0.25 
279.11 238.93 -1.10 
279.06 238.39 -0.30 
279.73 238.33 -0.30 
279.74 238.92 0.60 
280.65 238.46 -0.33 
280.45 238.68 0.61 
281.45 238.82 1.61 
283.49 238.66 0.86 
286.77 238.68 1.45 
287.25 238.91 1.01 
288.14 238.97 1.11 
288.24 238.83 1.21 
289.03 238.56 0.41 
289.04 238.59 1.45 
268.84 239.38 -1.88 
268.84 239.40 -1.03 
268.90 239.68 0.46 
269.20 239.52 -0.61 
269.93 239.29 -0.97 
272.30 239.11 -0.16 
273.17 239.61 -0.52 
272.91 239.08 -0.03 
272.77 239.52 1.12 
272.70 239.65 1.80 
273.90 239.23 -0.57 
273.92 239.19 0.34 
274.63 239.04 -1.44 
275.36 239.68 -3.85 
275.39 239.45 -2.94 
275.68 239.66 -2.05 
276.35 239.27 -3.65 
276.38 239.39 -2.82 
276.16 239.04 -2.05 
276.35 239.53 -1.12 
276.43 239.27 -0.62 
276.28 239.55 1.49 
277.03 239.38 -3.63 
276.94 239.06 -2.85 
277.23 239.06 -2.15 
277.25 239.62 -1.10 
277.17 239.42 -0.72 
276.91 239.68 0.77 
276.77 239.11 1.30 
277.57 239.19 -1.14 
277.57 239.22 -0.22 
278.69 239.15 -0.88 
282.28 239.63 1.00 
282.26 239.68 2.08 
282.64 239.11 -1.28 
282.65 239.41 0.46 
282.62 239.13 0.58 
282.64 239.42 1.48 
283.43 239.24 -1.24 
283.41 239.26 0.63 
283.40 239.27 1.58 
286.20 239.17 0.49 
286.18 239.16 1.45 
286.09 239.14 2.19 
286.99 239.48 0.95 
287.26 239.25 0.98 
288.40 239.10 0.39 
288.15 239.64 1.05 
288.26 239.59 1.62 
289.10 239.65 0.62 
289.44 239.66 0.86 
289.83 239.08 1.80 
291.10 239.49 0.70 
291.63 239.45 0.01 
291.77 239.56 0.91 
269.06 239.94 -0.71 
270.00 239.72 1.46 
273.34 239.89 0.41 
273.76 240.01 0.54 
274.09 240.15 0.44 
274.38 240.24 1.16 
275.21 239.86 -3.87 
275.04 239.95 -3.57 
275.06 239.89 -2.47 
275.62 239.93 -3.99 
275.66 239.72 -3.02 
275.93 240.01 -0.28 
275.62 240.32 1.45 
276.19 239.74 -1.37 
276.21 240.18 -0.49 
276.41 240.04 -0.07 
276.88 239.94 -0.78 
277.44 239.73 -3.06 
278.65 240.25 -0.84 
278.64 240.26 0.06 
279.31 239.95 -1.72 
279.73 239.69 -1.10 
280.54 240.03 -1.02 
285.63 239.79 0.82 
285.49 240.19 1.73 
286.39 239.86 0.85 
285.84 240.03 1.20 
286.64 240.11 1.21 
288.14 239.69 2.12 
288.98 239.80 2.15 
289.45 239.70 -1.08 
290.51 240.27 1.62 
291.34 239.83 -0.43 
290.86 240.05 0.08 
291.34 239.84 0.62 
291.33 239.84 1.68 
292.60 239.75 0.96 
271.61 240.63 1.00 
272.85 240.40 0.60 
274.48 240.64 0.61 
274.42 240.95 1.70 
275.09 240.94 0.25 
274.82 240.82 0.52 
274.80 240.95 1.54 
275.99 240.67 -0.31 
275.46 240.97 0.59 
276.64 240.98 -2.17 
276.19 240.70 0.57 
276.93 240.67 -3.96 
276.93 240.69 -2.92 
277.11 240.93 -2.10 
277.46 240.71 -2.30 
277.96 240.80 -1.44 
277.74 240.97 -0.42 
277.80 241.07 0.10 
277.95 240.77 0.53 
277.94 240.63 1.51 
278.54 240.95 0.91 
279.22 240.88 -0.74 
279.09 241.05 0.81 
280.24 240.88 -1.02 
280.45 240.78 0.83 
281.11 240.43 -0.95 
282.84 240.82 -0.02 
282.92 241.02 1.01 
283.45 240.50 -0.01 
285.03 240.73 1.71 
285.27 240.55 0.56 
285.28 240.61 1.54 
285.44 240.93 1.93 
285.84 240.68 1.76 
289.00 241.04 1.26 
289.76 240.93 1.28 
290.27 240.87 0.70 
290.29 240.93 1.72 
267.89 241.63 -0.02 
270.62 241.58 1.00 
275.21 241.58 -0.95 
276.72 241.52 -2.40 
276.27 241.25 -1.90 
276.72 241.58 1.02 
276.87 241.42 -4.41 
276.73 241.51 -3.31 
276.86 241.47 -2.62 
277.10 241.14 -2.22 
277.18 241.51 -1.39 
276.86 241.75 -0.35 
277.02 241.30 1.07 
277.52 241.65 -3.29 
277.52 241.71 -2.36 
277.50 241.34 -2.26 
277.75 241.17 -0.28 
277.83 241.21 1.04 
279.28 241.19 0.96 
279.97 241.51 -0.69 
279.84 241.28 0.87 
280.50 241.53 -0.94 
280.81 241.58 1.43 
281.48 241.19 -0.85 
281.26 241.46 0.02 
281.26 241.48 0.99 
282.24 241.33 -0.82 
282.24 241.36 0.11 
281.79 241.56 1.05 
281.64 241.62 1.42 
284.85 241.28 1.26 
286.78 241.58 0.79 
286.78 241.61 1.80 
288.09 241.52 1.08 
288.87 241.31 -0.96 
288.88 241.42 1.08 
289.87 241.65 0.51 
290.02 241.77 1.76 
290.70 241.65 1.54 
276.02 241.82 -1.47 
276.38 241.83 -2.37 
276.31 241.79 -2.17 
277.19 242.02 -3.36 
276.87 241.83 -2.46 
276.86 241.81 -1.40 
277.35 241.82 0.44 
277.34 241.91 1.54 
278.17 242.11 1.54 
279.86 242.30 0.45 
280.86 242.47 -3.50 
280.71 242.38 -0.63 
280.74 242.10 0.42 
281.27 242.14 -3.44 
281.26 242.16 -2.56 
281.28 242.23 -1.67 
280.95 242.37 -0.90 
281.58 242.24 0.43 
280.97 241.95 1.10 
281.84 241.79 -3.47 
281.86 241.95 -2.59 
281.88 242.01 -1.71 
282.12 241.79 -0.79 
281.77 242.19 0.10 
282.67 241.95 -1.67 
283.61 242.29 0.22 
283.64 242.28 0.82 
283.63 242.27 1.85 
286.06 242.11 0.83 
286.05 242.13 1.91 
289.15 242.27 0.24 
278.95 243.15 -1.78 
279.79 242.82 -2.75 
280.19 242.90 -1.66 
279.78 242.90 1.61 
280.85 242.50 -2.59 
280.65 242.60 -1.73 
281.71 242.74 -3.55 
281.69 242.69 -2.61 
281.97 242.69 -1.81 
282.92 243.05 -0.15 
282.92 243.13 0.90 
283.08 242.98 -0.33 
283.07 243.00 0.66 
283.33 243.17 1.30 
283.39 242.93 1.89 
283.99 242.77 2.36 
287.85 242.91 1.57 
287.95 242.61 0.56 
288.49 242.57 1.65 
278.82 243.46 -1.62 
279.23 243.47 -0.80 
282.71 243.23 -0.18 
283.32 243.53 1.75 
283.79 243.40 -1.57 
284.43 243.80 -3.22 
285.57 243.29 -0.59 
285.56 243.30 0.47 
285.23 243.73 0.90 
285.37 243.64 2.13 
286.17 243.57 0.31 
286.15 243.71 0.97 
286.63 243.56 1.32 
287.49 243.29 -0.37 
287.26 243.36 0.55 
287.27 243.37 1.50 
288.51 243.84 -0.21 
288.51 243.50 0.72 
288.73 243.82 -0.24 
289.92 243.70 -0.27 
289.64 243.81 0.82 
289.89 243.69 1.75 
290.29 243.37 0.83 
290.26 243.53 1.94 
291.14 243.36 0.99 
291.14 243.38 2.02 
280.56 244.10 0.32 
283.09 244.34 -2.16 
283.35 244.15 -1.56 
283.03 244.22 -0.84 
283.03 244.31 0.21 
283.12 244.53 1.06 
284.76 244.21 1.08 
285.59 244.22 0.03 
285.57 244.26 2.20 
287.63 244.30 -2.31 
287.62 244.30 -1.32 
287.61 244.31 -0.33 
287.80 244.55 0.77 
288.42 244.17 -1.30 
288.41 244.18 -0.30 
288.48 244.15 0.78 
288.63 244.01 0.82 
290.44 244.33 -0.08 
286.36 244.83 -1.63 
286.35 244.83 -0.59 
286.73 244.92 -1.75 
286.72 244.92 -0.68 
286.73 245.02 0.42 
287.61 244.68 0.66 
288.26 244.85 0.87 
288.00 244.66 1.53 
289.27 244.61 0.41 
288.75 244.98 0.86 
279.99 245.86 0.27 
279.96 245.78 1.33 
279.96 245.82 2.41 
280.75 245.69 1.34 
280.57 245.40 2.23 
282.43 245.54 1.38 
283.33 245.44 2.00 
285.59 245.86 1.77 
279.75 245.99 0.09 
283.17 246.64 0.62 
283.16 246.63 1.70 
284.68 246.36 0.76 
284.82 246.12 1.77 
285.45 246.04 1.79 
282.33 247.00 0.65 
283.13 246.88 2.17 
284.06 247.03 0.67 
284.07 247.13 1.78 
282.41 247.80 1.42 
275.23 248.74 -1.09 
275.31 248.78 -0.76 
274.53 249.20 -1.12 
274.44 248.91 0.17 
273.23 251.81 -1.31 
274.25 252.78 -1.21 
