# .PCD v0.7 - Point Cloud Data file format
VERSION 0.7
FIELDS x y z
SIZE 4 4 4
TYPE F F F
COUNT 1 1 1
WIDTH 203
HEIGHT 1
VIEWPOINT 0 0 0 1 0 0 0
POINTS 203
DATA ascii
287.76 -113.80 -12.53 
287.96 -113.70 -12.53 
292.01 -113.29 -13.21 
292.01 -113.29 -12.49 
288.34 -113.03 -12.53 
290.30 -111.86 -13.46 
273.68 -103.88 -13.34 
273.68 -103.87 -12.66 
273.68 -103.86 -12.39 
274.75 -102.97 -12.48 
275.48 -102.83 -13.43 
275.48 -102.82 -13.08 
275.48 -102.81 -12.60 
276.24 -103.01 -12.78 
276.23 -103.00 -12.45 
274.40 -102.69 -12.56 
274.66 -102.55 -13.75 
275.81 -102.33 -12.50 
279.29 -100.25 -13.46 
279.28 -100.25 -13.01 
269.01 -99.24 -10.79 
269.00 -99.24 -10.30 
268.99 -99.23 -9.79 
269.08 -99.28 -13.75 
269.07 -99.27 -13.26 
269.05 -99.26 -12.28 
269.28 -99.59 -11.41 
269.17 -99.54 -10.58 
268.54 -98.71 -13.78 
268.54 -98.71 -13.10 
268.54 -98.71 -12.42 
268.54 -98.70 -11.75 
268.54 -98.70 -11.07 
268.54 -98.70 -10.39 
268.54 -98.69 -9.70 
269.67 -98.74 -11.43 
267.62 -97.81 -13.93 
268.23 -97.98 -13.23 
268.24 -97.98 -12.45 
268.25 -97.98 -11.67 
268.27 -97.99 -10.89 
270.30 -97.88 -13.79 
270.30 -97.86 -12.67 
270.23 -97.82 -11.91 
269.80 -98.44 -11.43 
267.77 -97.49 -13.94 
267.78 -97.47 -13.19 
267.88 -97.24 -12.28 
267.73 -97.55 -11.67 
268.50 -97.45 -11.42 
269.97 -97.48 -13.75 
269.97 -97.47 -12.79 
269.97 -97.47 -12.31 
269.97 -97.46 -11.35 
269.97 -97.45 -10.87 
269.72 -97.23 -10.21 
269.72 -97.23 -9.64 
284.11 -97.76 -12.44 
285.03 -97.23 -13.42 
284.91 -97.27 -12.47 
268.10 -96.82 -13.50 
268.10 -96.82 -13.20 
268.10 -96.80 -12.28 
268.01 -96.55 -11.73 
268.00 -96.54 -11.20 
268.00 -96.53 -10.14 
269.51 -96.59 -13.76 
269.51 -96.59 -13.10 
269.51 -96.58 -12.45 
269.51 -96.58 -11.79 
269.51 -96.58 -11.13 
269.51 -96.57 -9.81 
271.23 -96.67 -13.52 
271.23 -96.66 -13.18 
271.23 -96.65 -12.14 
271.34 -96.69 -11.46 
284.27 -96.78 -12.39 
284.55 -96.61 -13.47 
284.52 -96.61 -13.05 
284.49 -96.66 -12.37 
285.22 -97.09 -12.48 
267.87 -95.88 -13.52 
267.81 -96.00 -13.18 
267.81 -95.99 -12.17 
267.81 -95.97 -11.49 
268.63 -95.71 -13.52 
268.63 -95.71 -12.91 
268.50 -95.97 -12.44 
268.33 -95.72 -11.29 
269.32 -96.10 -13.96 
269.32 -96.10 -13.20 
269.27 -95.74 -12.41 
269.31 -96.11 -11.70 
269.30 -96.11 -10.94 
271.19 -95.99 -13.82 
271.19 -95.97 -12.70 
271.20 -95.97 -12.32 
271.70 -95.96 -11.46 
271.20 -95.95 -10.81 
284.14 -96.24 -12.46 
285.09 -96.18 -13.88 
284.48 -96.06 -13.09 
284.71 -96.36 -12.44 
286.05 -95.80 -12.46 
286.61 -95.79 -12.40 
268.16 -95.28 -13.53 
268.16 -95.27 -12.85 
268.16 -95.27 -12.17 
268.05 -95.49 -11.66 
268.85 -95.25 -13.53 
268.85 -95.25 -12.91 
268.74 -95.47 -12.44 
268.73 -95.46 -11.66 
269.03 -95.06 -10.91 
272.00 -95.34 -11.46 
272.61 -95.34 -13.46 
272.61 -95.34 -12.92 
272.60 -95.34 -12.38 
286.30 -95.05 -13.55 
286.30 -95.61 -13.02 
286.37 -95.63 -12.56 
286.91 -95.61 -12.41 
287.39 -95.10 -12.35 
268.07 -94.76 -13.76 
268.06 -94.75 -12.97 
268.04 -94.74 -12.19 
268.04 -94.74 -11.72 
268.42 -94.82 -13.72 
268.53 -94.52 -13.20 
268.53 -94.51 -12.17 
268.38 -94.80 -11.53 
269.19 -94.54 -13.54 
269.08 -94.78 -13.22 
269.25 -94.41 -12.43 
269.19 -94.52 -11.64 
270.64 -94.43 -13.51 
270.64 -94.42 -13.20 
270.64 -94.42 -12.58 
272.20 -94.66 -13.90 
272.20 -94.66 -13.20 
272.20 -94.65 -12.15 
272.24 -94.83 -11.46 
286.67 -94.81 -12.48 
287.66 -94.73 -12.44 
288.15 -94.45 -12.40 
268.05 -94.22 -11.30 
268.79 -94.01 -13.55 
268.66 -94.26 -13.20 
268.66 -94.25 -12.17 
269.49 -93.94 -13.55 
269.43 -94.05 -13.23 
269.42 -94.04 -12.27 
269.30 -94.28 -11.63 
270.27 -93.68 -13.63 
270.27 -93.68 -13.23 
270.27 -93.67 -12.44 
270.27 -93.66 -11.64 
273.81 -94.21 -13.85 
273.81 -94.21 -13.07 
273.80 -94.21 -12.29 
287.66 -94.25 -12.40 
268.34 -93.15 -13.21 
269.68 -93.57 -13.56 
269.67 -93.56 -12.91 
269.67 -93.56 -12.58 
269.67 -93.55 -11.60 
269.80 -93.31 -13.56 
269.80 -93.31 -12.91 
269.73 -93.43 -12.42 
271.76 -93.44 -13.52 
271.76 -93.44 -13.22 
273.45 -93.44 -13.78 
273.45 -93.44 -13.19 
273.62 -93.29 -12.01 
289.98 -93.57 -12.39 
290.30 -93.38 -12.36 
267.92 -92.52 -13.71 
267.92 -92.51 -12.81 
268.48 -92.87 -13.58 
268.48 -92.87 -12.85 
271.65 -92.42 -13.54 
271.64 -92.42 -12.87 
271.64 -92.42 -12.20 
274.78 -92.24 -13.48 
274.64 -92.39 -12.76 
274.63 -92.38 -12.03 
268.92 -92.03 -13.60 
268.99 -91.87 -12.84 
269.07 -91.73 -13.60 
269.65 -91.83 -12.89 
269.79 -91.55 -12.89 
269.22 -91.43 -13.61 
269.22 -91.43 -13.22 
269.86 -91.41 -13.60 
269.85 -91.41 -13.24 
272.83 -91.34 -13.54 
272.83 -91.34 -13.21 
269.65 -90.55 -13.62 
269.65 -90.54 -13.23 
270.21 -90.68 -13.61 
270.21 -90.68 -12.87 
270.68 -89.74 -13.62 
270.51 -90.06 -12.87 
