# .PCD v0.7 - Point Cloud Data file format
VERSION 0.7
FIELDS x y z
SIZE 4 4 4
TYPE F F F
COUNT 1 1 1
WIDTH 885
HEIGHT 1
VIEWPOINT 0 0 0 1 0 0 0
POINTS 885
DATA ascii
267.81 -38.88 -13.55 
267.80 -38.92 -12.30 
267.74 -39.04 -11.99 
286.46 -39.11 -10.59 
286.92 -39.26 -10.55 
287.49 -39.45 -13.21 
287.78 -39.44 -12.51 
287.83 -39.47 -11.83 
287.86 -39.31 -11.25 
287.74 -39.06 -10.75 
288.19 -39.06 -10.74 
288.92 -39.17 -10.79 
288.92 -39.17 -10.79 
289.67 -39.02 -10.84 
289.66 -39.23 -10.85 
290.31 -38.89 -10.83 
290.41 -39.08 -10.70 
290.94 -39.22 -10.79 
267.99 -38.54 -13.23 
268.14 -38.27 -12.75 
267.98 -38.58 -11.98 
284.61 -38.29 -10.35 
285.47 -38.52 -10.56 
285.98 -38.72 -10.71 
286.69 -38.56 -10.69 
287.81 -38.58 -10.74 
288.15 -38.63 -10.75 
288.97 -38.54 -10.77 
289.54 -38.46 -10.84 
289.68 -38.62 -10.57 
290.37 -38.67 -10.81 
290.56 -38.42 -10.73 
290.97 -38.80 -10.86 
290.79 -38.21 -10.77 
267.67 -37.72 -13.23 
267.69 -38.18 -12.54 
267.66 -37.76 -11.88 
268.35 -37.87 -13.20 
268.34 -37.89 -12.28 
268.34 -37.90 -11.98 
284.07 -37.70 -10.52 
284.90 -37.80 -10.58 
285.28 -37.75 -10.65 
285.99 -37.65 -10.71 
286.89 -37.69 -10.67 
287.34 -37.58 -10.63 
288.16 -37.67 -10.72 
289.52 -37.83 -10.82 
289.77 -38.01 -10.67 
290.51 -37.54 -10.72 
290.46 -37.83 -10.73 
290.86 -37.84 -10.75 
290.79 -37.76 -10.84 
292.08 -37.64 -10.81 
292.58 -37.61 -10.86 
284.20 -37.42 -10.51 
284.88 -37.25 -10.67 
285.40 -37.12 -10.63 
285.97 -37.12 -10.71 
287.44 -37.09 -10.62 
288.17 -36.93 -10.70 
289.98 -37.03 -10.80 
290.58 -37.16 -10.84 
290.14 -37.07 -10.70 
291.25 -36.87 -10.81 
290.74 -37.23 -10.75 
291.95 -37.17 -10.80 
292.45 -37.14 -10.85 
292.58 -37.26 -10.74 
280.64 -36.04 -12.33 
280.67 -36.06 -11.82 
280.72 -36.05 -11.05 
280.71 -36.05 -10.57 
281.08 -36.20 -12.55 
281.11 -36.16 -12.12 
281.05 -36.28 -11.26 
281.29 -36.41 -10.55 
281.69 -36.68 -10.49 
287.87 -36.37 -10.70 
288.10 -36.41 -10.69 
288.64 -36.31 -10.73 
289.83 -36.32 -10.78 
290.01 -36.09 -10.69 
290.27 -36.36 -10.83 
290.46 -36.37 -10.71 
291.12 -36.40 -10.80 
291.83 -36.70 -10.80 
292.43 -36.18 -10.88 
292.48 -36.11 -10.71 
279.42 -35.78 -12.37 
279.41 -35.78 -11.65 
279.62 -35.55 -13.00 
279.94 -35.61 -12.46 
279.97 -35.62 -11.90 
280.01 -35.64 -10.98 
279.89 -35.65 -10.38 
280.60 -35.69 -13.09 
280.55 -35.80 -12.46 
280.60 -35.72 -11.82 
280.59 -35.74 -11.04 
280.64 -35.66 -10.65 
280.93 -35.68 -12.92 
281.38 -35.62 -12.39 
281.38 -35.63 -11.81 
281.32 -35.76 -10.94 
281.48 -35.45 -10.62 
282.62 -35.48 -11.47 
282.62 -35.48 -11.24 
288.49 -36.01 -10.73 
288.84 -35.39 -10.79 
289.60 -35.62 -10.77 
289.46 -35.34 -10.77 
290.40 -35.68 -10.72 
290.40 -35.68 -10.72 
291.31 -35.59 -10.80 
291.91 -35.78 -10.84 
292.13 -35.73 -10.88 
292.42 -35.83 -10.71 
278.09 -34.78 -12.48 
277.54 -34.60 -11.73 
278.06 -34.80 -10.94 
278.62 -34.70 -13.01 
278.21 -35.02 -12.50 
278.20 -35.03 -11.84 
278.19 -35.03 -11.17 
278.58 -34.75 -10.57 
278.96 -34.99 -12.61 
279.16 -35.08 -11.69 
278.95 -35.02 -11.08 
279.14 -35.10 -10.73 
279.91 -34.70 -12.96 
279.95 -35.03 -12.47 
279.94 -35.04 -11.92 
279.76 -34.98 -10.93 
279.72 -35.04 -10.50 
280.54 -34.85 -12.53 
280.48 -34.93 -11.98 
280.50 -34.91 -11.21 
280.51 -34.87 -10.46 
281.27 -35.01 -12.43 
281.26 -35.02 -11.96 
281.03 -34.87 -10.98 
281.24 -35.04 -10.53 
281.67 -35.07 -12.52 
281.66 -35.09 -11.78 
281.65 -35.11 -10.89 
281.65 -35.12 -10.60 
282.82 -35.09 -12.44 
282.91 -34.91 -11.87 
282.94 -34.88 -11.07 
288.33 -35.30 -10.71 
288.80 -35.08 -10.77 
289.61 -34.85 -10.81 
290.51 -35.05 -10.81 
290.03 -34.89 -10.72 
291.07 -35.03 -10.91 
291.02 -34.92 -8.64 
291.84 -34.80 -13.18 
291.93 -34.59 -12.47 
291.91 -34.83 -11.83 
291.77 -34.71 -10.94 
292.43 -34.92 -13.19 
292.43 -34.77 -12.55 
292.44 -34.77 -11.72 
292.35 -34.87 -11.16 
292.34 -35.18 -10.87 
277.99 -34.46 -12.75 
277.97 -34.48 -11.90 
277.95 -34.50 -11.05 
278.81 -34.35 -13.00 
278.80 -34.36 -12.51 
278.65 -34.55 -11.83 
278.77 -34.39 -11.05 
278.68 -34.10 -10.50 
278.99 -34.00 -12.99 
279.31 -34.32 -12.59 
279.31 -34.33 -11.82 
279.30 -34.35 -11.05 
279.29 -34.36 -10.58 
280.18 -34.20 -12.96 
279.75 -34.07 -12.51 
279.85 -34.29 -11.98 
279.72 -34.10 -10.93 
279.71 -34.12 -10.40 
280.38 -34.22 -13.01 
280.53 -34.30 -12.43 
280.53 -34.30 -11.96 
280.53 -34.32 -11.14 
280.33 -34.27 -10.77 
281.36 -34.24 -12.28 
281.35 -34.25 -11.88 
281.35 -34.27 -11.07 
281.35 -34.28 -10.67 
281.68 -34.25 -12.88 
282.06 -34.29 -12.50 
282.06 -34.30 -11.75 
282.05 -34.32 -10.99 
282.05 -34.33 -10.53 
283.15 -34.43 -12.43 
283.15 -34.45 -11.50 
283.15 -34.45 -10.91 
288.35 -34.15 -10.76 
289.13 -34.07 -10.80 
289.01 -34.42 -10.75 
289.36 -34.52 -10.81 
289.85 -34.55 -10.72 
289.76 -34.32 -8.73 
290.60 -33.98 -13.15 
290.62 -34.04 -12.54 
290.49 -34.03 -11.65 
290.52 -34.11 -10.92 
290.48 -34.47 -8.81 
290.99 -34.18 -13.16 
291.08 -34.05 -12.54 
291.08 -34.04 -11.70 
291.06 -34.21 -11.13 
291.67 -34.54 -13.19 
291.75 -34.41 -12.55 
291.69 -34.30 -11.83 
291.59 -34.37 -11.16 
292.27 -34.59 -12.57 
292.31 -34.56 -11.84 
292.31 -34.55 -11.25 
277.95 -33.86 -12.72 
278.06 -33.65 -11.78 
278.67 -33.69 -12.46 
278.66 -33.70 -11.68 
278.64 -33.71 -10.91 
279.17 -33.65 -12.98 
279.16 -33.66 -12.49 
279.33 -33.31 -11.79 
279.32 -33.34 -11.01 
278.93 -33.63 -10.49 
280.16 -33.30 -13.01 
279.99 -33.44 -12.59 
279.78 -33.41 -11.78 
279.96 -33.47 -10.98 
279.70 -33.70 -10.43 
280.59 -33.82 -13.00 
280.58 -33.83 -12.43 
280.50 -33.72 -11.63 
280.49 -33.59 -11.21 
280.48 -33.60 -10.51 
281.26 -33.47 -12.50 
281.15 -33.72 -11.71 
281.24 -33.48 -11.16 
281.23 -33.49 -10.39 
281.74 -33.49 -12.67 
281.74 -33.51 -11.84 
281.73 -33.52 -11.01 
282.02 -33.55 -10.53 
282.43 -33.58 -12.48 
282.42 -33.60 -11.71 
282.93 -33.38 -11.15 
282.41 -33.63 -10.47 
283.50 -33.72 -12.77 
283.50 -33.74 -11.57 
283.50 -33.75 -10.83 
287.40 -33.30 -10.86 
287.82 -33.27 -10.76 
287.84 -33.28 -8.97 
287.96 -33.29 -10.88 
288.30 -33.37 -10.75 
288.24 -33.26 -9.17 
289.11 -33.30 -13.10 
289.28 -33.30 -12.70 
289.20 -33.25 -11.91 
289.19 -33.32 -10.85 
288.61 -33.81 -10.75 
288.95 -33.66 -8.90 
288.98 -33.78 -8.57 
289.60 -33.47 -13.11 
289.71 -33.39 -12.47 
289.69 -33.45 -11.95 
289.70 -33.45 -11.11 
290.36 -33.82 -13.14 
290.39 -33.68 -12.54 
290.36 -33.59 -11.79 
290.40 -33.74 -11.17 
290.73 -33.87 -12.90 
290.77 -33.60 -12.42 
290.87 -33.70 -11.97 
291.00 -33.86 -11.14 
278.35 -33.12 -12.52 
278.34 -33.12 -11.78 
278.33 -33.13 -11.04 
279.25 -32.59 -12.43 
279.24 -32.60 -11.66 
279.43 -32.68 -11.13 
279.49 -32.99 -10.49 
279.63 -32.80 -12.95 
279.62 -32.81 -12.47 
280.03 -32.93 -11.76 
280.02 -32.95 -10.96 
280.01 -32.96 -10.47 
280.35 -32.92 -13.00 
280.34 -32.94 -12.47 
280.44 -32.77 -11.95 
280.42 -32.79 -10.92 
280.41 -32.80 -10.40 
281.31 -32.80 -12.39 
281.31 -32.81 -11.89 
281.31 -32.82 -11.13 
281.31 -32.83 -10.74 
281.93 -33.15 -12.24 
281.79 -32.82 -11.93 
282.10 -32.83 -11.38 
282.07 -32.90 -10.52 
282.83 -32.84 -12.46 
282.70 -32.75 -11.88 
282.82 -32.86 -11.35 
282.81 -32.89 -10.40 
283.15 -32.93 -12.57 
283.15 -32.94 -11.89 
283.14 -32.96 -10.98 
283.89 -32.95 -12.77 
283.90 -32.97 -11.51 
283.95 -32.86 -11.11 
283.96 -32.87 -10.72 
285.71 -32.53 -10.83 
286.34 -32.57 -10.84 
286.32 -32.81 -8.97 
286.78 -32.61 -10.87 
286.62 -32.65 -9.67 
286.68 -32.69 -8.99 
286.88 -32.55 -8.65 
287.88 -32.62 -13.15 
287.85 -32.60 -12.39 
287.72 -32.56 -11.75 
287.68 -32.60 -10.88 
287.57 -32.91 -10.76 
287.56 -33.02 -9.37 
287.37 -32.95 -9.10 
287.56 -33.21 -8.56 
288.37 -32.69 -13.18 
288.31 -32.68 -12.46 
288.20 -32.80 -11.74 
288.28 -32.75 -11.16 
288.11 -33.13 -10.75 
287.97 -33.13 -9.05 
287.99 -33.14 -8.52 
289.01 -33.10 -13.12 
288.90 -32.89 -12.52 
288.90 -32.88 -11.64 
288.85 -33.05 -11.13 
289.37 -33.14 -13.15 
289.44 -33.09 -12.54 
289.57 -33.02 -11.76 
289.48 -33.28 -11.17 
278.74 -32.44 -12.66 
278.72 -32.47 -11.65 
279.31 -32.06 -12.67 
278.90 -32.07 -11.76 
279.28 -32.11 -10.96 
279.86 -31.92 -12.91 
279.70 -32.20 -12.46 
279.69 -32.20 -11.79 
279.95 -32.14 -11.00 
279.68 -32.21 -10.45 
280.65 -32.38 -12.97 
280.50 -32.20 -12.50 
280.50 -32.20 -11.81 
280.49 -32.20 -11.11 
280.48 -32.21 -10.41 
281.40 -32.27 -12.97 
281.39 -32.28 -12.42 
281.32 -32.17 -11.62 
281.24 -32.13 -11.14 
281.24 -32.13 -10.78 
282.29 -32.44 -12.94 
282.01 -32.01 -12.48 
282.11 -32.19 -11.88 
282.14 -32.15 -11.21 
282.21 -32.24 -10.50 
282.48 -32.08 -12.94 
282.48 -32.08 -12.65 
282.76 -32.25 -11.62 
282.75 -32.16 -10.93 
282.74 -32.16 -10.45 
283.38 -32.48 -12.56 
283.30 -32.10 -11.94 
283.30 -32.12 -11.27 
283.35 -31.83 -10.45 
284.19 -32.36 -12.38 
284.20 -32.37 -11.85 
284.20 -32.38 -11.06 
284.20 -32.39 -10.66 
284.79 -32.02 -12.57 
284.43 -31.94 -11.56 
284.79 -32.05 -10.98 
284.43 -31.96 -10.74 
285.63 -31.99 -10.84 
285.48 -31.78 -9.41 
285.38 -31.79 -9.10 
286.35 -32.14 -10.86 
286.34 -32.27 -9.46 
286.16 -32.37 -9.18 
286.22 -32.40 -8.52 
286.94 -32.03 -13.16 
286.98 -31.97 -12.45 
286.93 -31.91 -11.59 
286.96 -32.02 -10.96 
287.17 -32.21 -10.77 
286.52 -32.40 -8.93 
287.52 -32.31 -13.11 
287.51 -32.16 -12.51 
287.50 -32.15 -11.71 
287.53 -32.30 -11.13 
287.46 -32.36 -10.75 
288.02 -32.50 -12.46 
288.23 -32.45 -11.85 
287.99 -32.49 -11.16 
288.80 -32.50 -11.98 
279.13 -31.73 -12.64 
279.11 -31.76 -11.62 
280.18 -31.74 -12.92 
279.84 -31.49 -12.41 
280.09 -31.46 -11.60 
279.81 -31.51 -10.85 
280.13 -31.79 -10.49 
280.62 -31.79 -12.53 
280.61 -31.81 -11.70 
280.60 -31.82 -11.04 
280.82 -31.43 -10.33 
281.55 -31.54 -12.94 
281.24 -31.25 -12.41 
281.23 -31.26 -11.89 
280.91 -31.43 -11.17 
280.91 -31.43 -10.48 
281.83 -31.46 -12.95 
281.81 -31.48 -12.39 
282.00 -31.46 -11.54 
282.00 -31.47 -11.13 
282.00 -31.48 -10.72 
282.86 -31.31 -12.94 
282.73 -31.30 -12.41 
282.46 -31.48 -11.68 
282.67 -31.74 -11.30 
282.67 -31.75 -10.55 
283.52 -31.50 -12.93 
283.14 -31.49 -12.58 
283.51 -31.52 -11.93 
283.51 -31.53 -11.26 
283.50 -31.55 -10.59 
283.49 -31.27 -10.05 
283.53 -31.28 -9.29 
283.57 -31.30 -8.52 
283.88 -31.47 -12.55 
283.88 -31.48 -11.80 
283.88 -31.49 -11.04 
283.88 -31.50 -10.65 
284.35 -31.21 -9.76 
284.42 -31.22 -9.08 
284.78 -31.24 -13.05 
284.78 -31.25 -12.49 
284.64 -31.32 -11.82 
284.64 -31.55 -11.11 
284.94 -31.26 -10.76 
284.81 -31.45 -9.69 
284.79 -31.40 -9.07 
285.07 -31.81 -8.55 
285.39 -31.21 -13.04 
285.55 -31.21 -12.44 
285.48 -31.15 -11.79 
285.64 -31.33 -11.18 
285.37 -31.32 -10.77 
285.29 -31.71 -9.62 
285.38 -31.79 -9.10 
285.42 -31.80 -8.55 
286.18 -31.52 -12.45 
286.22 -31.48 -11.69 
286.20 -31.59 -11.11 
285.88 -31.36 -10.77 
286.59 -31.69 -12.88 
286.64 -31.72 -12.49 
286.72 -31.60 -11.75 
286.68 -31.72 -11.04 
279.47 -31.01 -11.75 
279.46 -31.01 -11.00 
279.98 -30.86 -12.62 
279.96 -30.88 -11.76 
279.95 -30.90 -10.91 
280.74 -30.66 -12.90 
280.35 -30.99 -12.24 
280.71 -30.81 -11.70 
280.51 -31.06 -10.95 
280.69 -30.71 -10.43 
281.45 -30.85 -12.93 
281.43 -30.75 -12.50 
281.42 -30.76 -11.70 
281.17 -30.93 -11.16 
281.17 -30.94 -10.47 
282.04 -30.65 -12.94 
282.05 -30.83 -12.34 
282.04 -30.83 -11.62 
282.01 -30.67 -11.06 
282.01 -30.68 -10.68 
282.23 -30.44 -8.71 
282.65 -30.77 -12.25 
282.65 -30.77 -11.85 
282.63 -30.78 -11.03 
282.63 -30.79 -10.62 
282.80 -30.83 -9.62 
282.95 -30.47 -9.32 
283.21 -30.63 -12.94 
283.51 -30.70 -12.41 
283.27 -30.67 -11.84 
283.53 -30.73 -11.24 
283.35 -30.70 -10.38 
283.40 -30.68 -9.71 
283.46 -30.78 -9.03 
283.50 -30.79 -8.46 
284.00 -30.59 -12.95 
284.01 -30.60 -12.50 
284.02 -30.75 -11.76 
284.02 -30.70 -11.04 
284.04 -30.76 -10.57 
283.97 -30.97 -9.81 
284.02 -31.03 -9.19 
284.77 -30.92 -12.98 
284.81 -30.82 -12.44 
284.75 -30.69 -11.72 
284.72 -30.88 -11.15 
284.49 -30.92 -10.80 
285.24 -31.10 -13.00 
285.18 -31.02 -12.44 
285.28 -30.97 -11.78 
285.17 -30.98 -11.11 
279.17 -30.30 -11.71 
279.37 -30.14 -11.43 
279.94 -30.15 -11.74 
279.93 -30.15 -11.00 
280.63 -30.02 -12.41 
280.62 -30.03 -11.64 
280.61 -30.04 -10.87 
280.44 -29.97 -10.05 
280.28 -29.94 -9.94 
280.48 -30.05 -9.04 
281.11 -29.93 -12.38 
281.55 -29.99 -11.80 
281.10 -29.96 -10.96 
281.13 -29.98 -10.26 
281.49 -30.33 -10.03 
281.19 -30.00 -8.84 
281.85 -30.06 -12.91 
282.04 -29.92 -12.40 
282.05 -29.93 -11.94 
282.10 -29.83 -11.05 
282.08 -29.96 -10.39 
282.21 -30.00 -9.72 
281.78 -29.85 -9.17 
282.79 -30.11 -13.02 
282.65 -30.13 -12.47 
282.56 -30.03 -11.86 
282.57 -30.03 -11.11 
282.49 -30.09 -10.50 
282.71 -30.27 -9.64 
282.32 -30.23 -9.10 
282.37 -30.19 -8.65 
283.25 -30.31 -13.05 
283.29 -30.32 -12.53 
283.27 -30.32 -11.83 
283.32 -30.14 -11.14 
283.29 -30.33 -10.72 
283.93 -30.32 -12.31 
283.92 -30.34 -11.68 
284.14 -30.25 -11.13 
284.42 -30.34 -11.70 
278.65 -29.10 -10.70 
278.88 -29.08 -9.60 
280.08 -29.29 -12.88 
280.12 -29.31 -12.24 
279.90 -29.74 -11.71 
280.20 -29.34 -10.94 
280.01 -29.03 -10.32 
280.05 -29.05 -9.80 
279.99 -29.35 -9.16 
280.77 -29.26 -12.89 
280.78 -29.26 -12.54 
280.63 -29.19 -11.69 
280.70 -29.25 -11.18 
280.58 -29.17 -10.42 
280.73 -29.26 -9.69 
280.32 -29.39 -8.98 
281.10 -29.52 -12.87 
281.31 -29.31 -12.52 
281.31 -29.31 -11.84 
281.15 -29.29 -11.09 
281.22 -29.53 -10.38 
281.18 -29.61 -9.79 
281.19 -29.66 -9.12 
281.23 -29.68 -8.56 
281.79 -29.71 -12.88 
281.80 -29.53 -12.55 
281.80 -29.53 -11.86 
281.93 -29.54 -10.98 
282.03 -29.71 -10.75 
282.35 -29.48 -11.74 
277.29 -28.33 -11.07 
278.00 -28.37 -12.50 
278.04 -28.38 -11.81 
278.07 -28.39 -11.12 
277.77 -28.34 -10.41 
277.85 -28.37 -9.69 
278.44 -28.39 -12.87 
278.72 -28.61 -12.55 
278.73 -28.81 -11.71 
278.78 -28.64 -11.30 
278.81 -28.65 -10.67 
278.13 -28.42 -9.74 
278.16 -28.43 -9.04 
279.21 -28.38 -12.53 
279.15 -28.52 -11.92 
279.24 -28.43 -11.22 
279.24 -28.56 -10.50 
279.06 -28.52 -9.93 
279.13 -28.55 -8.92 
279.04 -28.55 -8.54 
279.98 -28.72 -12.95 
279.99 -28.73 -12.56 
280.04 -28.71 -11.84 
280.03 -28.69 -11.15 
279.78 -28.75 -10.55 
279.79 -28.76 -9.84 
279.55 -28.67 -9.12 
280.55 -28.90 -12.85 
280.55 -28.91 -12.41 
280.49 -28.78 -11.84 
280.51 -28.85 -11.00 
280.41 -28.99 -10.57 
280.25 -29.00 -9.77 
281.06 -28.97 -12.61 
281.06 -28.96 -11.90 
281.07 -28.96 -11.07 
280.92 -28.82 -10.75 
281.65 -28.61 -11.57 
276.61 -27.74 -10.41 
276.63 -27.64 -9.76 
276.67 -27.66 -9.08 
277.26 -27.88 -12.42 
277.29 -27.88 -11.81 
277.31 -27.89 -11.21 
277.33 -27.90 -10.60 
277.24 -27.78 -9.61 
277.38 -27.72 -8.80 
277.83 -27.68 -12.92 
277.84 -27.68 -12.62 
277.90 -27.79 -11.97 
277.94 -27.81 -11.12 
277.87 -27.69 -10.45 
277.78 -27.88 -9.82 
277.70 -27.73 -9.31 
278.38 -27.90 -12.89 
278.38 -27.90 -12.60 
278.56 -27.82 -11.84 
278.40 -27.92 -11.15 
278.40 -27.93 -10.55 
278.48 -28.10 -9.70 
278.48 -28.15 -9.18 
279.12 -28.05 -12.49 
279.12 -28.05 -11.81 
278.99 -28.15 -11.04 
279.01 -28.22 -10.59 
279.00 -28.30 -9.96 
279.72 -28.30 -13.02 
279.60 -28.25 -12.34 
279.72 -28.29 -11.84 
279.62 -28.20 -11.11 
279.72 -28.28 -10.76 
275.24 -27.01 -11.78 
274.97 -26.99 -9.27 
275.88 -27.00 -12.58 
275.74 -27.04 -11.87 
275.76 -27.04 -11.30 
275.97 -27.03 -10.34 
275.99 -27.04 -9.77 
275.84 -27.07 -9.00 
276.43 -27.10 -12.38 
276.50 -27.05 -11.70 
276.50 -27.14 -11.09 
276.57 -27.09 -10.42 
276.58 -27.18 -9.78 
276.02 -27.05 -9.20 
277.17 -27.23 -12.52 
277.17 -27.24 -11.86 
277.01 -27.15 -11.20 
277.12 -27.32 -10.64 
277.35 -27.59 -9.67 
276.99 -27.34 -9.43 
277.88 -27.61 -12.87 
277.64 -27.42 -12.46 
277.65 -27.42 -11.80 
277.65 -27.43 -11.02 
277.67 -27.28 -10.70 
277.46 -27.56 -9.86 
278.12 -27.53 -12.94 
278.29 -27.53 -12.42 
278.29 -27.53 -11.79 
278.26 -27.42 -11.12 
278.28 -27.51 -10.65 
273.66 -26.25 -10.57 
273.76 -26.30 -9.88 
273.86 -26.36 -9.17 
274.53 -26.49 -12.47 
274.56 -26.50 -11.85 
274.60 -26.52 -11.23 
274.60 -26.34 -10.29 
274.43 -26.36 -9.54 
274.45 -26.37 -8.93 
275.11 -26.17 -12.50 
274.92 -26.26 -11.65 
274.96 -26.27 -10.90 
274.97 -26.28 -10.51 
274.81 -26.33 -9.73 
274.84 -26.34 -9.21 
274.65 -26.35 -8.63 
275.45 -26.35 -12.88 
275.79 -26.55 -12.50 
275.82 -26.34 -11.86 
275.79 -26.55 -11.21 
275.77 -26.62 -10.45 
275.58 -26.61 -9.65 
275.72 -26.77 -9.11 
276.18 -26.70 -12.44 
276.38 -26.64 -11.76 
276.41 -26.52 -11.29 
276.31 -26.55 -10.58 
276.18 -26.84 -10.06 
276.91 -26.82 -12.43 
276.96 -26.84 -11.80 
276.91 -26.79 -11.06 
276.90 -26.79 -10.65 
272.40 -25.60 -9.59 
272.85 -25.56 -12.49 
272.89 -25.58 -11.91 
272.92 -25.59 -11.33 
272.88 -25.51 -10.31 
272.90 -25.52 -9.74 
272.92 -25.52 -9.17 
273.90 -25.82 -12.92 
273.69 -25.51 -12.66 
273.66 -25.71 -11.86 
273.51 -25.69 -11.10 
273.72 -25.73 -10.38 
273.56 -25.71 -9.57 
273.78 -25.76 -8.87 
274.39 -25.74 -12.89 
274.28 -25.72 -12.49 
274.39 -25.75 -11.75 
274.28 -25.73 -11.20 
274.28 -25.73 -10.61 
274.47 -26.01 -9.82 
274.00 -25.84 -8.96 
275.01 -25.96 -12.84 
275.01 -25.96 -12.40 
274.96 -25.94 -11.86 
275.00 -25.96 -10.98 
274.84 -26.07 -10.56 
274.95 -26.21 -9.86 
275.51 -26.21 -12.36 
275.49 -26.17 -11.85 
275.58 -26.16 -11.30 
275.50 -26.20 -10.62 
271.30 -24.90 -12.62 
271.33 -24.76 -11.88 
271.49 -24.85 -11.09 
271.66 -24.94 -10.29 
271.71 -25.12 -9.44 
271.76 -24.82 -8.80 
272.31 -24.91 -13.07 
272.36 -25.02 -12.50 
272.20 -25.05 -12.01 
272.23 -25.05 -11.04 
272.40 -25.02 -10.50 
272.11 -25.19 -9.73 
272.16 -25.21 -9.15 
273.10 -25.03 -12.99 
273.01 -25.09 -12.60 
272.96 -25.19 -11.75 
273.04 -25.07 -11.18 
272.79 -25.02 -10.52 
272.92 -25.23 -9.93 
272.81 -25.22 -9.05 
273.53 -25.36 -12.95 
273.54 -25.36 -12.60 
273.56 -25.20 -11.83 
273.57 -25.35 -11.25 
273.54 -25.46 -10.59 
273.43 -25.50 -9.85 
273.24 -25.43 -9.11 
273.98 -25.36 -12.41 
274.08 -25.42 -11.82 
274.13 -25.32 -11.13 
274.12 -25.31 -10.50 
270.40 -24.28 -13.14 
269.99 -24.14 -11.45 
270.17 -24.23 -10.21 
270.25 -24.27 -9.58 
270.34 -24.32 -8.94 
270.64 -24.13 -12.62 
270.66 -24.13 -11.75 
271.04 -24.27 -11.11 
270.70 -24.14 -10.44 
270.73 -24.15 -9.55 
270.73 -24.42 -8.82 
271.62 -24.40 -12.88 
271.62 -24.40 -12.40 
271.51 -24.47 -11.76 
271.53 -24.48 -11.12 
271.46 -24.35 -10.59 
271.57 -24.62 -9.87 
271.55 -24.83 -9.20 
272.05 -24.65 -13.02 
272.35 -24.63 -12.43 
272.07 -24.48 -11.73 
272.18 -24.45 -11.04 
272.22 -24.76 -10.49 
271.77 -24.68 -9.79 
271.91 -24.74 -9.21 
272.65 -24.80 -12.32 
272.69 -24.73 -11.80 
272.78 -24.67 -11.10 
272.77 -24.66 -10.48 
269.01 -23.49 -12.63 
268.93 -23.45 -11.94 
269.45 -23.56 -12.96 
269.46 -23.56 -12.54 
269.48 -23.56 -11.70 
269.45 -23.68 -11.10 
269.51 -23.56 -10.42 
269.43 -23.53 -9.71 
269.34 -23.65 -9.23 
270.37 -23.83 -13.00 
270.10 -23.62 -12.42 
270.12 -23.62 -11.87 
270.15 -23.61 -11.11 
270.08 -23.77 -10.43 
270.09 -23.77 -9.71 
269.95 -24.10 -9.07 
270.55 -23.83 -12.98 
270.65 -23.90 -12.48 
270.64 -23.87 -11.84 
270.73 -23.79 -11.16 
270.77 -23.98 -10.67 
270.61 -24.05 -9.61 
271.44 -24.07 -11.89 
271.26 -24.05 -11.07 
271.26 -24.05 -10.70 
272.01 -24.11 -11.19 
268.18 -23.00 -12.63 
268.04 -22.76 -11.79 
268.07 -22.87 -11.15 
268.31 -22.79 -10.36 
268.13 -22.89 -9.73 
267.95 -22.85 -8.90 
268.71 -23.01 -12.38 
268.71 -22.88 -11.80 
268.73 -22.89 -11.04 
268.73 -23.01 -10.45 
268.44 -22.99 -9.86 
268.42 -23.10 -9.23 
269.09 -23.25 -12.37 
269.29 -23.03 -11.87 
269.28 -23.02 -11.04 
269.16 -23.17 -10.62 
269.12 -23.25 -9.89 
269.86 -23.25 -12.33 
269.92 -23.36 -11.76 
270.04 -23.26 -11.21 
270.03 -23.25 -10.62 
268.23 -22.57 -12.91 
267.96 -22.55 -12.42 
267.98 -22.39 -11.82 
267.88 -22.34 -11.24 
267.96 -22.30 -10.60 
267.77 -22.50 -9.94 
268.32 -22.67 -13.04 
268.31 -22.49 -12.43 
268.42 -22.54 -11.59 
268.48 -22.49 -11.08 
268.53 -22.60 -10.74 
268.64 -22.66 -9.88 
269.31 -22.49 -10.70 
269.31 -22.49 -10.70 
267.85 -21.95 -10.90 
