# .PCD v0.7 - Point Cloud Data file format
VERSION 0.7
FIELDS x y z
SIZE 4 4 4
TYPE F F F
COUNT 1 1 1
WIDTH 521
HEIGHT 1
VIEWPOINT 0 0 0 1 0 0 0
POINTS 521
DATA ascii
287.00 11.38 -9.07 
287.45 10.91 -9.07 
288.56 10.90 -9.09 
288.68 11.37 -9.14 
291.88 11.67 -9.48 
292.39 11.43 -9.72 
292.43 11.38 -9.48 
286.86 11.88 -9.11 
287.60 12.00 -9.14 
288.14 11.68 -9.14 
290.40 12.24 -9.45 
291.34 12.09 -9.76 
291.06 12.18 -9.52 
291.89 11.91 -9.93 
291.71 12.00 -9.41 
292.26 11.97 -9.89 
292.45 11.90 -9.23 
286.02 12.93 -9.14 
287.06 12.31 -9.14 
287.27 12.30 -9.08 
289.05 12.90 -9.49 
290.00 12.81 -9.72 
289.77 12.85 -9.52 
290.24 12.95 -9.91 
290.24 12.67 -9.40 
290.98 12.49 -9.88 
290.92 12.42 -9.39 
291.74 12.45 -10.08 
291.81 12.51 -9.17 
292.24 12.48 -10.00 
292.47 12.60 -9.15 
279.16 13.52 -7.75 
281.26 13.30 -8.19 
281.76 13.13 -8.10 
286.60 13.44 -9.07 
287.65 13.62 -9.53 
288.32 13.51 -9.46 
289.04 13.59 -9.92 
289.03 13.28 -9.52 
289.67 13.20 -9.71 
289.40 13.12 -9.42 
290.14 13.21 -10.07 
290.14 13.21 -9.28 
290.78 13.58 -9.21 
291.43 13.57 -9.37 
284.61 14.12 -9.09 
286.27 14.00 -9.06 
287.08 14.30 -9.66 
286.94 14.31 -9.55 
287.73 14.22 -9.85 
287.54 14.06 -9.53 
288.17 13.97 -9.97 
288.09 13.79 -9.40 
288.66 13.85 -9.73 
288.92 13.88 -9.31 
289.97 13.82 -10.11 
289.97 13.82 -9.18 
290.21 14.07 -9.24 
280.52 15.05 -7.53 
281.84 14.71 -7.66 
283.95 15.00 -9.17 
284.93 15.07 -9.30 
285.79 15.09 -9.72 
285.66 15.08 -9.51 
286.37 14.95 -9.77 
286.17 14.78 -9.53 
286.99 14.65 -9.87 
286.78 14.49 -9.51 
287.68 14.58 -10.15 
287.67 14.57 -9.34 
288.32 14.76 -10.19 
288.32 14.76 -9.24 
289.21 14.66 -9.28 
280.72 15.66 -7.74 
283.29 15.44 -9.09 
283.08 15.62 -8.85 
283.10 15.64 -8.04 
283.11 15.67 -7.23 
284.04 15.59 -9.54 
284.89 15.70 -9.94 
284.83 15.53 -9.59 
285.34 15.50 -9.78 
285.43 15.37 -9.59 
286.02 15.16 -9.85 
286.05 15.38 -9.27 
286.68 15.46 -10.24 
286.67 15.45 -9.32 
287.46 15.25 -10.23 
287.46 15.25 -9.27 
288.16 15.26 -9.32 
280.39 15.86 -7.71 
281.80 16.46 -8.33 
282.25 16.39 -7.82 
281.81 16.48 -7.56 
282.24 16.38 -6.87 
283.00 16.11 -10.28 
283.00 16.11 -9.26 
282.82 15.84 -8.76 
282.71 16.03 -8.13 
282.94 16.43 -7.24 
282.82 15.83 -6.87 
283.64 16.35 -9.98 
283.46 16.26 -9.52 
283.10 16.23 -8.86 
283.19 16.35 -8.02 
283.05 16.20 -7.23 
283.06 16.22 -6.40 
284.16 16.32 -9.85 
284.01 15.97 -9.51 
283.75 16.06 -8.79 
283.74 16.06 -8.01 
283.73 16.05 -7.23 
283.72 16.05 -6.45 
284.73 15.98 -9.83 
284.82 16.05 -9.31 
285.66 16.27 -9.34 
286.09 16.39 -10.06 
285.86 15.91 -9.35 
287.08 15.89 -9.36 
281.32 17.18 -9.71 
281.40 16.93 -8.58 
281.41 16.93 -7.72 
281.34 16.54 -7.52 
281.41 16.93 -6.86 
281.92 16.98 -9.77 
282.10 16.97 -9.59 
282.08 16.96 -8.82 
282.08 16.96 -8.03 
282.03 16.98 -7.31 
282.02 16.98 -6.53 
282.55 16.93 -9.98 
282.65 16.78 -9.59 
282.60 16.69 -8.87 
282.59 16.69 -8.09 
282.58 16.69 -7.30 
282.37 16.70 -6.44 
283.30 16.54 -9.93 
283.25 17.05 -9.10 
284.16 16.87 -9.40 
283.89 16.63 -8.86 
285.00 17.00 -9.90 
284.98 16.91 -9.53 
284.66 17.08 -8.85 
285.62 16.66 -9.47 
285.12 17.01 -8.72 
285.87 16.50 -9.69 
280.18 17.79 -9.10 
279.64 17.74 -8.82 
279.93 17.91 -7.78 
280.15 17.79 -7.28 
279.92 17.90 -6.74 
280.70 17.76 -10.01 
280.71 17.93 -9.20 
280.60 17.67 -8.89 
280.59 17.67 -8.07 
280.67 17.75 -7.29 
280.57 17.66 -6.44 
281.21 17.65 -9.93 
281.26 17.60 -9.47 
281.25 17.60 -8.69 
281.23 17.60 -7.90 
281.34 17.54 -7.25 
281.33 17.54 -6.49 
281.83 17.40 -9.82 
281.95 17.26 -9.21 
281.72 17.37 -8.46 
281.84 17.28 -7.89 
281.86 17.24 -7.25 
281.81 17.39 -6.80 
283.56 17.51 -9.32 
283.78 17.52 -9.79 
284.17 17.46 -9.53 
284.20 17.62 -8.74 
284.08 17.84 -8.28 
284.71 17.51 -9.74 
284.59 17.59 -9.68 
285.20 17.24 -9.74 
278.72 18.22 -9.85 
278.59 18.50 -9.42 
278.58 18.49 -8.46 
278.70 18.20 -7.84 
278.57 18.49 -7.50 
278.57 18.48 -6.54 
279.23 18.41 -9.87 
279.30 18.34 -9.55 
279.30 18.34 -8.60 
279.28 18.47 -8.07 
279.32 18.44 -7.33 
279.26 18.47 -6.48 
279.97 18.34 -9.88 
279.90 18.40 -9.27 
279.87 18.29 -8.72 
279.86 18.29 -7.91 
279.90 18.34 -7.20 
279.86 18.14 -6.54 
280.49 18.07 -9.88 
280.49 18.06 -9.14 
280.48 18.06 -8.41 
280.38 18.05 -7.75 
280.48 17.95 -7.09 
280.43 18.24 -6.70 
281.10 17.99 -9.96 
281.09 17.98 -9.14 
281.34 18.42 -8.44 
281.40 17.99 -7.72 
281.08 17.98 -7.51 
281.07 17.97 -6.70 
281.77 18.43 -9.51 
282.22 18.57 -8.81 
281.62 18.05 -7.68 
281.62 18.04 -6.73 
282.75 18.18 -9.16 
282.84 18.49 -8.79 
283.22 18.20 -9.75 
283.40 18.16 -9.16 
283.25 18.20 -8.72 
283.73 17.99 -9.28 
283.81 17.90 -8.73 
283.90 18.04 -8.20 
276.71 19.14 -6.82 
276.74 19.17 -9.93 
276.77 18.77 -8.98 
276.72 19.15 -7.86 
277.07 19.29 -7.30 
276.71 19.14 -6.82 
278.01 18.88 -9.82 
277.80 18.97 -9.40 
277.97 19.19 -8.80 
277.96 19.19 -8.01 
277.77 19.16 -7.28 
277.78 18.96 -6.56 
278.41 19.18 -9.91 
278.61 19.00 -9.52 
278.41 19.00 -8.78 
278.41 19.00 -7.97 
278.40 18.99 -7.17 
278.59 18.99 -6.54 
279.08 18.85 -9.87 
279.17 18.73 -9.20 
279.17 18.73 -8.47 
279.17 18.68 -7.94 
279.05 18.72 -7.21 
279.21 18.90 -6.70 
279.80 18.66 -10.01 
279.88 18.90 -9.56 
279.88 18.90 -8.64 
279.88 18.89 -7.72 
279.78 18.65 -7.52 
279.88 18.88 -6.81 
280.55 19.12 -9.54 
280.55 19.12 -8.45 
280.54 19.11 -7.37 
280.53 19.10 -6.29 
280.99 19.26 -8.71 
282.21 18.65 -9.55 
282.05 18.70 -8.70 
282.52 19.21 -9.49 
282.61 19.24 -8.57 
283.20 18.96 -9.40 
283.30 18.98 -8.43 
283.73 19.03 -9.38 
274.59 19.92 -6.85 
274.62 19.93 -8.96 
274.61 19.93 -7.91 
275.72 19.68 -8.92 
275.66 19.35 -7.90 
275.64 19.35 -6.82 
276.46 19.98 -9.94 
276.21 19.81 -9.37 
276.17 19.85 -8.79 
276.39 19.99 -8.11 
276.29 19.90 -7.29 
276.37 19.99 -6.49 
277.14 19.61 -9.95 
277.11 19.82 -9.22 
277.08 19.77 -8.77 
277.07 19.77 -7.94 
277.09 19.63 -7.35 
277.08 19.63 -6.56 
277.63 19.55 -9.95 
277.63 19.55 -9.22 
277.71 19.44 -8.77 
277.57 19.51 -7.99 
277.75 19.50 -7.20 
277.74 19.53 -6.76 
278.45 19.40 -10.07 
278.45 19.39 -9.22 
278.44 19.39 -8.37 
278.43 19.38 -7.53 
278.43 19.38 -7.53 
278.43 19.38 -6.68 
279.06 19.36 -9.59 
279.06 19.35 -8.66 
279.00 19.56 -7.68 
279.37 19.49 -7.49 
279.00 19.55 -6.69 
273.60 20.48 -8.96 
273.59 20.48 -7.92 
273.57 20.47 -6.88 
275.20 20.64 -9.77 
274.82 20.50 -9.12 
275.29 20.32 -8.78 
275.18 20.64 -8.13 
275.11 20.67 -7.38 
274.80 20.49 -6.43 
275.66 20.39 -9.79 
275.77 20.51 -9.26 
275.66 20.50 -8.73 
275.70 20.42 -8.04 
275.67 20.48 -7.23 
275.68 20.41 -6.45 
276.29 20.24 -9.99 
276.41 20.21 -9.25 
276.27 20.24 -8.52 
276.22 20.19 -7.96 
276.27 20.11 -7.24 
276.46 20.10 -6.57 
276.87 20.04 -9.92 
277.04 20.16 -9.26 
277.03 20.15 -8.40 
277.17 20.24 -7.74 
276.75 20.02 -7.22 
277.17 20.24 -6.83 
278.01 20.06 -9.70 
278.01 20.05 -8.69 
278.01 20.04 -7.68 
278.01 20.03 -6.68 
278.33 20.10 -9.62 
278.33 20.09 -8.55 
278.32 20.08 -7.49 
278.32 20.07 -6.43 
272.61 21.02 -8.95 
272.60 21.01 -7.93 
273.12 21.58 -7.31 
273.86 21.36 -9.91 
273.39 21.26 -9.10 
273.60 21.21 -8.76 
273.73 21.40 -8.16 
273.72 21.40 -7.32 
273.59 21.20 -6.87 
274.29 21.18 -9.77 
274.22 21.33 -9.28 
274.41 21.13 -8.77 
274.33 21.21 -8.05 
274.26 21.17 -7.37 
274.25 21.17 -6.57 
274.87 20.93 -10.01 
275.03 20.94 -9.24 
274.92 20.94 -8.77 
274.97 20.82 -7.98 
274.93 20.89 -7.25 
274.90 20.93 -6.58 
275.34 20.99 -10.06 
275.43 20.87 -9.20 
275.56 20.95 -8.43 
275.55 21.13 -7.75 
275.42 20.86 -7.59 
275.55 20.94 -6.66 
276.02 21.17 -9.77 
276.46 20.80 -9.68 
276.46 20.79 -8.71 
276.46 20.78 -7.73 
276.46 20.77 -6.76 
277.24 20.71 -9.66 
277.24 20.70 -8.58 
270.75 21.96 -8.94 
270.73 21.95 -7.95 
270.72 21.95 -6.96 
271.68 21.45 -8.95 
271.66 21.45 -7.94 
272.36 21.89 -9.36 
272.35 21.88 -8.47 
272.00 21.95 -8.23 
272.41 21.92 -7.34 
272.25 22.03 -6.36 
272.84 21.90 -9.86 
272.98 22.06 -9.27 
272.96 21.97 -8.73 
272.89 21.98 -8.00 
272.94 21.97 -7.27 
272.93 21.96 -6.48 
273.67 21.61 -9.88 
273.54 21.76 -9.25 
273.48 21.69 -8.73 
273.47 21.69 -7.99 
273.46 21.69 -7.26 
273.45 21.69 -6.52 
274.55 21.79 -9.75 
273.97 21.50 -9.26 
274.10 21.46 -8.48 
273.96 21.49 -7.78 
273.93 21.50 -7.28 
274.14 21.54 -6.78 
274.72 21.60 -9.64 
274.72 21.59 -8.70 
274.71 21.59 -7.75 
274.71 21.58 -6.81 
269.84 22.45 -8.94 
269.83 22.45 -7.96 
269.82 22.44 -6.98 
270.95 22.59 -9.34 
270.95 22.59 -8.47 
271.05 22.73 -8.25 
270.94 22.58 -7.60 
271.02 22.73 -6.40 
271.43 22.49 -9.28 
271.61 22.72 -8.58 
271.60 22.60 -8.11 
271.58 22.60 -7.28 
271.57 22.60 -6.46 
272.14 22.44 -9.31 
272.14 22.44 -8.57 
272.21 22.29 -7.99 
272.20 22.34 -7.31 
272.24 22.32 -6.50 
272.76 22.26 -10.05 
272.66 22.16 -9.30 
272.66 22.16 -8.57 
272.65 22.16 -7.83 
272.63 22.02 -7.43 
272.78 22.24 -6.77 
273.57 22.34 -9.79 
273.28 22.25 -9.39 
273.28 22.25 -8.47 
273.57 22.31 -7.74 
273.27 22.24 -7.55 
273.26 22.24 -6.64 
268.13 23.39 -9.88 
268.12 23.39 -8.93 
268.10 23.38 -7.98 
268.09 23.38 -7.03 
268.98 22.93 -9.90 
268.97 22.93 -8.93 
268.95 22.92 -7.97 
268.94 22.92 -7.00 
269.60 23.32 -10.17 
269.60 23.31 -9.32 
269.59 23.31 -8.46 
269.59 23.30 -7.61 
269.66 23.47 -7.34 
269.64 23.47 -6.34 
270.13 23.34 -9.97 
270.17 23.50 -9.33 
270.22 23.39 -8.77 
270.21 23.39 -8.04 
270.09 23.34 -7.34 
270.25 23.36 -6.55 
270.74 23.21 -10.08 
270.73 23.21 -9.32 
270.75 23.12 -8.77 
270.74 23.12 -8.03 
270.73 23.12 -7.29 
270.72 23.12 -6.55 
271.43 22.99 -10.18 
271.43 22.99 -9.32 
271.42 22.99 -8.47 
271.28 22.91 -7.80 
271.35 22.83 -7.25 
271.41 22.98 -6.76 
272.05 23.07 -9.74 
272.05 23.06 -8.76 
272.04 23.06 -7.77 
272.04 23.05 -6.78 
272.56 22.90 -9.83 
272.56 22.89 -8.78 
272.56 22.88 -7.74 
272.56 22.87 -6.70 
268.17 24.03 -9.89 
268.16 24.03 -9.06 
268.28 24.00 -8.46 
268.32 24.05 -7.84 
268.14 24.03 -7.41 
267.85 24.19 -6.78 
268.88 24.13 -10.09 
268.75 23.97 -9.39 
268.66 24.00 -8.54 
268.86 24.08 -8.01 
268.84 24.13 -7.32 
268.85 24.05 -6.58 
269.35 23.80 -9.99 
269.49 23.85 -9.36 
269.37 23.87 -8.77 
269.36 23.86 -8.04 
269.41 23.78 -7.22 
269.34 23.86 -6.59 
270.06 23.65 -10.13 
269.99 23.76 -9.37 
270.04 23.64 -8.54 
270.01 23.56 -7.86 
269.87 23.59 -7.31 
269.97 23.75 -6.75 
270.76 23.63 -9.48 
270.76 23.63 -9.48 
270.75 23.62 -8.52 
271.04 23.54 -7.78 
270.74 23.62 -7.57 
270.73 23.62 -6.61 
267.92 24.59 -10.09 
267.88 24.69 -9.39 
267.87 24.69 -8.64 
268.08 24.50 -8.12 
267.88 24.59 -7.33 
268.10 24.49 -6.60 
268.45 24.42 -10.15 
268.44 24.42 -9.37 
268.44 24.41 -8.59 
268.58 24.38 -8.06 
268.57 24.38 -7.25 
268.56 24.37 -6.44 
269.06 24.65 -9.87 
269.34 24.28 -9.41 
269.34 24.27 -8.48 
269.05 24.63 -7.79 
269.33 24.27 -7.55 
269.32 24.27 -6.62 
268.01 25.23 -9.92 
267.75 25.02 -9.44 
267.75 25.01 -8.54 
267.74 25.01 -7.63 
267.74 25.01 -7.63 
267.73 25.00 -6.73 
