# .PCD v0.7 - Point Cloud Data file format
VERSION 0.7
FIELDS x y z
SIZE 4 4 4
TYPE F F F
COUNT 1 1 1
WIDTH 1210
HEIGHT 1
VIEWPOINT 0 0 0 1 0 0 0
POINTS 1210
DATA ascii
289.59 36.55 -5.43 
289.30 36.33 -4.98 
289.91 36.20 -4.74 
290.51 36.31 -4.80 
288.09 37.14 -2.42 
288.77 37.06 -4.75 
289.19 37.18 -5.52 
289.23 37.13 -4.99 
289.08 37.11 -3.98 
289.15 37.03 -3.68 
289.74 36.97 -5.43 
290.06 37.08 -5.33 
290.09 36.97 -4.38 
290.93 36.93 -5.26 
286.52 37.90 -4.94 
287.08 38.00 -5.22 
286.95 37.98 -4.05 
287.48 37.76 -2.05 
288.28 37.37 -4.61 
288.28 38.00 -3.42 
287.99 37.75 -2.30 
288.93 37.64 -6.00 
288.72 37.78 -4.86 
288.53 37.74 -4.58 
288.93 37.68 -3.96 
289.37 37.62 -5.54 
289.18 37.78 -4.98 
289.52 37.81 -4.28 
289.41 37.80 -3.75 
289.87 37.85 -6.27 
290.29 37.93 -5.95 
290.09 37.48 -5.34 
290.26 37.72 -4.44 
291.03 37.63 -5.66 
290.89 37.81 -5.32 
291.02 37.91 -3.81 
291.44 37.52 -3.41 
291.90 37.50 -3.60 
285.79 38.71 -6.12 
286.18 38.62 -3.67 
286.21 38.69 -6.07 
286.70 38.06 -5.97 
286.58 38.28 -4.97 
286.43 38.45 -4.47 
286.99 38.50 -5.94 
287.25 38.66 -5.30 
287.33 38.42 -4.32 
286.93 38.40 -3.75 
287.45 38.05 -2.63 
287.38 38.38 -2.01 
288.02 38.56 -5.09 
287.83 38.48 -4.65 
288.17 38.54 -3.40 
287.83 38.33 -2.84 
288.38 38.68 -6.14 
288.72 38.66 -6.01 
288.69 38.49 -4.94 
288.81 38.46 -4.14 
288.88 38.45 -3.65 
289.59 38.22 -6.10 
289.12 38.48 -5.46 
289.26 38.43 -5.23 
289.15 38.44 -4.30 
289.13 38.59 -3.73 
289.92 38.42 -6.14 
289.97 38.26 -4.84 
289.77 38.64 -4.33 
290.74 38.49 -4.94 
290.83 38.35 -4.45 
290.96 38.61 -3.47 
290.81 38.37 -3.02 
291.49 38.04 -3.54 
291.30 38.47 -2.68 
285.47 39.42 -4.66 
286.03 38.91 -6.07 
286.18 39.28 -5.00 
286.04 39.13 -3.87 
286.42 39.05 -6.09 
286.39 39.27 -5.61 
286.68 39.01 -5.03 
286.34 39.22 -3.72 
287.01 39.37 -6.18 
287.30 39.01 -5.82 
287.33 39.12 -5.35 
287.33 39.28 -4.30 
288.07 38.97 -6.09 
287.93 39.04 -5.31 
287.89 38.75 -4.94 
287.87 38.85 -4.60 
288.07 39.08 -3.10 
288.37 39.23 -6.74 
288.55 39.32 -5.88 
288.60 39.16 -4.92 
288.64 38.96 -4.34 
288.68 38.95 -3.63 
288.53 38.90 -2.91 
289.40 39.30 -7.59 
289.44 39.10 -6.10 
289.49 39.18 -5.65 
289.20 39.00 -5.24 
289.54 38.86 -4.38 
289.13 39.00 -3.73 
290.03 39.17 -6.33 
290.12 38.92 -5.65 
290.00 39.14 -5.08 
289.89 39.40 -4.50 
289.69 39.01 -3.72 
290.49 38.84 -4.57 
290.60 39.29 -3.85 
290.95 38.88 -3.13 
291.60 39.07 -3.09 
291.81 39.04 -2.90 
282.83 39.93 -5.03 
284.42 39.85 -5.27 
284.62 40.13 -4.30 
285.18 39.93 -5.30 
286.12 39.68 -6.31 
285.92 40.12 -5.50 
285.79 39.93 -5.15 
285.63 39.75 -4.40 
286.45 39.94 -6.15 
286.70 39.98 -5.48 
286.59 39.63 -5.05 
286.52 39.61 -4.65 
286.84 39.78 -3.90 
287.21 39.61 -5.45 
287.13 39.89 -5.25 
287.41 39.79 -4.54 
288.28 40.08 -7.66 
288.08 39.47 -6.16 
288.07 39.54 -5.86 
287.92 39.93 -4.96 
287.91 39.64 -4.54 
287.88 39.75 -3.50 
288.09 39.59 -2.66 
288.65 39.45 -6.77 
288.90 39.68 -6.35 
288.67 39.92 -5.92 
288.73 39.96 -4.92 
288.89 39.76 -4.32 
288.50 39.68 -3.96 
289.38 39.83 -7.74 
289.33 39.82 -6.95 
289.39 39.80 -6.31 
289.60 39.81 -5.82 
289.41 39.50 -4.91 
288.89 39.76 -4.32 
289.90 39.68 -7.68 
289.99 39.72 -7.01 
289.96 39.72 -6.68 
290.10 39.93 -5.82 
289.99 39.83 -4.86 
289.99 39.83 -4.38 
290.65 39.46 -5.73 
290.72 39.93 -4.70 
290.52 39.72 -4.56 
290.82 39.89 -3.56 
291.13 39.77 -3.69 
291.09 39.57 -3.20 
282.42 40.18 -5.25 
283.11 40.69 -4.89 
283.04 40.73 -4.17 
283.59 40.62 -4.13 
284.63 40.80 -5.69 
284.33 40.67 -5.30 
285.46 40.19 -6.12 
285.23 40.77 -5.65 
284.98 40.38 -5.23 
284.90 40.21 -4.31 
285.38 40.45 -3.65 
285.71 40.29 -6.18 
286.06 40.46 -5.71 
285.85 40.42 -5.28 
285.95 40.65 -4.54 
285.89 40.70 -3.64 
286.49 40.36 -6.14 
286.60 40.40 -5.85 
286.58 40.23 -5.16 
286.64 40.31 -4.08 
286.53 40.35 -3.28 
287.30 40.83 -7.62 
287.46 40.66 -6.19 
287.35 40.58 -5.80 
287.38 40.65 -4.90 
287.19 40.54 -4.48 
287.05 40.23 -3.68 
288.15 40.82 -7.78 
288.03 40.61 -6.85 
287.97 40.50 -6.26 
287.97 40.54 -5.89 
287.81 40.52 -4.94 
288.25 40.17 -4.28 
287.99 40.48 -3.54 
287.81 40.19 -2.62 
288.58 40.47 -7.73 
288.56 40.61 -6.99 
288.62 40.66 -6.31 
288.79 40.68 -5.95 
288.80 40.78 -4.99 
288.60 40.19 -3.98 
288.91 40.51 -3.58 
288.38 40.67 -2.83 
289.00 40.17 -6.81 
289.15 40.25 -6.43 
289.31 40.42 -5.73 
289.23 40.74 -4.92 
289.50 40.42 -4.43 
289.21 40.54 -3.90 
290.01 40.43 -5.85 
290.04 40.33 -5.05 
290.15 40.40 -4.38 
290.14 40.65 -4.04 
290.77 40.61 -3.52 
290.40 40.80 -2.91 
291.70 40.65 -5.47 
291.59 40.29 -3.52 
292.08 40.55 -5.56 
292.05 40.72 -4.65 
292.25 40.65 -4.69 
292.11 40.76 -3.45 
280.42 41.46 -5.26 
280.90 41.52 -5.54 
280.72 41.10 -5.09 
281.82 41.01 -5.41 
281.47 40.95 -5.14 
282.41 40.89 -5.08 
282.08 41.30 -4.50 
282.98 41.32 -5.52 
283.01 41.20 -5.36 
283.30 41.49 -4.08 
282.90 41.22 -3.47 
283.45 41.45 -5.65 
283.63 41.09 -5.11 
283.94 41.38 -4.34 
284.16 41.39 -5.93 
284.38 41.21 -5.18 
284.11 41.33 -4.49 
284.64 41.30 -3.31 
284.68 41.48 -3.24 
285.39 41.30 -7.53 
285.47 41.45 -7.46 
285.35 41.37 -6.12 
285.29 40.88 -5.66 
285.37 41.49 -4.99 
285.00 41.42 -4.43 
284.98 41.40 -3.57 
286.02 41.33 -6.98 
285.98 41.32 -6.22 
285.76 41.25 -5.75 
286.07 41.06 -5.04 
285.91 40.97 -4.55 
286.05 40.85 -3.93 
286.28 41.26 -8.00 
286.45 41.36 -7.19 
286.64 41.46 -6.72 
286.42 41.10 -5.76 
286.60 41.01 -4.99 
286.27 41.44 -4.45 
286.54 40.84 -3.86 
286.83 41.47 -2.17 
286.81 41.43 -1.51 
286.53 41.47 -1.10 
287.31 41.03 -7.78 
287.35 40.96 -7.21 
287.24 41.32 -6.23 
287.10 41.19 -5.99 
287.48 41.10 -5.03 
287.50 41.09 -4.43 
287.25 41.32 -3.81 
286.92 41.36 -2.54 
288.19 41.01 -7.87 
288.14 40.91 -7.00 
288.14 40.97 -6.46 
288.18 41.10 -5.65 
287.87 41.39 -5.32 
288.15 41.39 -4.59 
288.21 41.08 -3.55 
287.86 41.51 -2.86 
288.32 40.81 -6.96 
288.56 40.98 -6.35 
288.41 41.09 -5.72 
288.52 41.31 -5.02 
288.71 40.96 -4.53 
288.73 41.15 -3.42 
289.37 41.41 -6.29 
289.49 41.48 -5.65 
289.44 41.23 -5.01 
289.22 41.00 -4.27 
289.13 41.35 -3.67 
289.07 40.87 -3.05 
289.84 41.21 -5.57 
290.04 41.04 -4.49 
289.78 40.94 -3.52 
290.25 40.85 -2.94 
290.51 41.46 -5.89 
290.82 41.33 -4.96 
290.40 41.27 -4.64 
290.94 41.47 -3.94 
291.54 41.29 -5.57 
291.29 41.19 -4.74 
291.58 41.13 -4.24 
291.80 41.12 -5.82 
292.21 41.08 -4.76 
292.33 40.98 -3.96 
292.53 41.48 -6.00 
278.54 42.15 -5.31 
280.35 41.60 -5.28 
280.82 41.84 -5.43 
280.91 41.98 -5.29 
281.83 41.93 -5.97 
281.50 41.83 -5.02 
281.97 42.13 -4.59 
282.45 41.75 -5.72 
282.37 41.90 -5.13 
282.27 42.06 -4.57 
283.23 41.94 -6.19 
283.19 41.81 -5.83 
283.14 41.86 -5.12 
282.98 42.07 -4.51 
283.68 41.86 -5.86 
283.59 41.90 -4.70 
283.77 41.87 -4.27 
284.42 42.22 -7.82 
284.45 42.22 -7.39 
284.36 41.67 -6.17 
284.63 41.60 -5.86 
284.53 41.64 -5.04 
284.26 42.05 -4.48 
284.59 42.10 -3.95 
285.27 41.76 -7.92 
285.24 41.54 -7.01 
285.13 41.67 -6.51 
285.00 41.95 -5.84 
285.30 41.94 -5.09 
285.13 41.79 -4.47 
285.04 41.59 -3.76 
285.88 41.60 -7.56 
285.79 41.91 -6.96 
286.00 41.96 -6.23 
285.76 41.80 -5.69 
285.67 41.69 -5.19 
285.80 41.48 -4.49 
286.33 41.58 -7.67 
286.19 41.69 -6.99 
286.50 41.74 -6.35 
286.49 41.71 -5.91 
286.62 41.78 -5.07 
286.86 41.58 -4.46 
286.83 42.22 -1.48 
286.83 41.91 -0.86 
287.13 41.65 -6.41 
287.37 41.77 -5.59 
287.00 41.61 -4.83 
287.23 42.07 -4.12 
287.55 42.07 -3.46 
287.53 41.93 -2.96 
287.10 41.67 -2.41 
286.97 41.58 -1.83 
287.03 42.06 -1.14 
288.07 42.01 -5.80 
287.70 41.89 -5.17 
287.96 41.85 -4.21 
287.89 41.89 -3.56 
287.66 41.60 -2.04 
288.98 42.15 -6.09 
288.73 41.66 -5.58 
288.38 41.77 -4.73 
288.69 41.95 -4.65 
288.35 41.80 -3.75 
289.31 42.18 -6.14 
289.42 41.95 -5.57 
289.61 42.13 -5.08 
289.40 42.04 -4.26 
289.35 41.64 -3.24 
289.84 41.90 -6.15 
289.90 41.84 -5.85 
289.94 41.67 -4.92 
289.81 42.23 -4.34 
289.93 42.17 -3.86 
290.65 42.09 -6.23 
290.75 41.82 -5.80 
290.42 42.03 -5.17 
290.62 41.65 -4.17 
291.30 41.86 -5.75 
291.25 41.90 -4.09 
292.28 41.99 -6.13 
292.12 41.90 -5.90 
292.51 41.54 -6.17 
292.49 41.62 -6.00 
278.46 42.45 -5.30 
278.81 42.51 -5.34 
279.24 42.49 -5.28 
280.05 42.84 -4.80 
280.95 42.68 -5.73 
281.22 42.60 -5.19 
280.87 42.72 -4.47 
281.12 42.26 -1.88 
281.59 42.47 -5.66 
281.22 42.60 -5.19 
281.72 42.65 -4.48 
281.83 42.71 -3.32 
281.70 42.74 -1.86 
282.60 42.30 -6.23 
282.26 42.64 -5.93 
282.61 42.58 -5.12 
282.46 42.75 -4.16 
282.34 42.92 -3.51 
282.59 42.85 -3.22 
282.05 42.91 -1.65 
282.92 42.30 -6.93 
283.11 42.80 -6.01 
283.20 42.72 -5.21 
282.71 42.72 -4.58 
283.11 42.62 -3.74 
283.65 42.65 -7.69 
283.70 42.58 -7.11 
283.90 42.53 -6.27 
283.64 42.76 -5.74 
283.57 42.52 -5.16 
284.03 42.68 -4.61 
284.10 42.73 -7.63 
284.53 42.59 -6.96 
284.57 42.61 -6.16 
284.41 42.58 -5.92 
284.49 42.59 -4.77 
284.33 42.65 -4.21 
284.66 42.86 -3.49 
284.28 42.77 -3.22 
284.11 42.52 -1.99 
284.97 42.57 -6.35 
284.84 42.65 -5.69 
285.05 42.61 -5.03 
285.36 42.30 -4.56 
284.82 42.67 -3.30 
285.45 42.42 -2.77 
285.16 42.58 -2.33 
285.61 42.50 -6.18 
286.00 42.35 -5.70 
285.81 42.57 -4.99 
285.91 42.54 -4.54 
285.69 42.59 -3.92 
286.44 42.55 -5.76 
286.76 42.68 -4.31 
286.22 42.92 -3.95 
286.83 42.32 -1.28 
287.56 42.91 -6.22 
286.91 42.82 -5.95 
287.39 42.50 -4.57 
287.25 42.76 -4.62 
287.69 42.55 -6.12 
288.19 42.41 -5.47 
288.12 42.66 -4.77 
288.08 42.50 -3.51 
288.82 42.56 -6.36 
288.54 42.89 -5.55 
288.77 42.79 -4.77 
288.79 42.65 -4.20 
288.62 42.47 -3.55 
289.54 42.31 -6.13 
289.24 42.82 -5.84 
289.36 42.32 -4.28 
289.29 42.76 -3.52 
290.34 42.91 -6.28 
289.95 42.75 -5.87 
290.18 42.89 -5.08 
290.19 42.56 -4.62 
290.19 42.54 -3.90 
290.60 42.70 -6.09 
290.70 42.53 -5.80 
290.69 42.83 -4.77 
290.69 42.83 -4.77 
290.50 42.56 -3.50 
290.44 42.60 -3.22 
291.51 42.51 -6.02 
291.51 42.51 -6.02 
291.38 42.76 -4.71 
291.38 42.77 -4.53 
291.88 42.38 -6.05 
278.99 43.11 -5.84 
279.28 43.39 -5.82 
279.29 43.28 -5.36 
279.78 43.38 -4.29 
280.56 43.63 -6.24 
280.22 43.31 -5.86 
279.97 43.20 -5.08 
280.25 43.22 -4.53 
280.66 43.50 -6.08 
280.74 43.08 -5.94 
281.03 43.57 -4.43 
281.62 43.33 -6.21 
281.68 43.04 -5.97 
281.64 43.22 -5.10 
281.72 43.21 -4.38 
281.92 43.44 -3.76 
282.29 43.82 -7.73 
282.68 43.35 -7.04 
282.64 43.40 -6.50 
282.56 43.36 -5.77 
282.51 43.04 -5.01 
282.27 43.48 -4.57 
283.02 43.34 -7.80 
283.05 43.36 -7.10 
282.94 43.34 -6.37 
283.00 43.37 -5.67 
282.90 43.24 -5.11 
283.18 43.17 -4.16 
283.47 43.14 -6.36 
283.61 43.30 -5.72 
283.82 43.18 -5.18 
283.46 43.11 -4.62 
283.45 43.16 -3.56 
284.03 42.97 -2.36 
283.69 43.49 -1.69 
284.46 43.26 -5.99 
284.49 43.15 -5.85 
284.50 43.15 -4.77 
284.73 43.15 -4.28 
284.64 43.05 -3.09 
284.64 43.19 -2.56 
285.10 42.99 -6.11 
284.91 42.94 -5.96 
285.02 43.55 -5.25 
285.19 43.04 -4.46 
285.24 43.12 -3.19 
286.09 43.57 -5.47 
285.92 43.37 -4.97 
285.94 43.56 -3.44 
285.56 43.62 -3.20 
286.77 43.13 -6.41 
286.41 43.51 -5.48 
286.35 43.35 -5.20 
286.49 43.50 -4.47 
287.35 42.95 -5.93 
287.32 43.15 -4.84 
286.99 42.97 -4.60 
287.10 43.34 -3.88 
287.96 43.46 -6.13 
287.67 43.45 -5.96 
287.66 43.34 -5.32 
288.11 43.13 -4.67 
287.98 43.55 -3.72 
287.84 43.37 -3.21 
288.69 43.60 -6.03 
288.74 43.49 -6.08 
288.84 43.32 -4.82 
288.78 43.18 -4.24 
288.96 43.21 -3.92 
288.50 43.30 -3.27 
289.52 43.45 -6.13 
289.24 43.25 -5.92 
289.07 43.34 -4.94 
289.16 43.32 -4.34 
289.96 43.20 -6.18 
290.24 43.21 -5.74 
289.79 43.31 -4.11 
289.76 42.95 -3.72 
290.60 43.05 -6.27 
290.57 43.30 -5.91 
290.84 43.03 -4.90 
290.70 43.06 -4.63 
275.86 44.31 -6.00 
276.41 44.16 -5.85 
278.35 44.11 -5.89 
279.05 44.02 -5.81 
279.06 43.96 -4.20 
279.66 43.73 -5.75 
279.81 43.86 -4.94 
279.79 43.90 -4.57 
280.45 43.67 -6.18 
280.39 44.14 -5.41 
280.42 44.05 -4.97 
280.35 43.93 -4.42 
280.76 44.28 -7.82 
280.87 44.31 -6.99 
280.88 44.27 -6.25 
281.09 44.19 -5.68 
280.91 44.14 -4.91 
281.03 43.86 -4.26 
280.93 43.94 -3.77 
281.69 44.05 -7.86 
281.65 43.99 -7.08 
281.79 43.96 -6.26 
281.74 44.01 -5.75 
281.68 44.07 -5.24 
281.63 43.96 -4.44 
282.29 43.82 -7.73 
282.18 43.69 -6.98 
282.56 43.85 -6.34 
282.53 43.98 -5.73 
282.33 44.05 -4.89 
282.36 44.16 -4.53 
282.36 43.67 -3.64 
282.81 43.69 -7.91 
282.81 43.80 -6.94 
282.92 43.79 -6.46 
282.99 43.84 -5.57 
283.28 44.15 -5.02 
283.10 44.37 -4.18 
282.98 44.02 -3.58 
283.40 43.77 -5.54 
283.87 43.86 -4.96 
283.54 44.02 -4.13 
283.76 44.12 -3.35 
283.89 43.80 -2.11 
283.71 43.98 -1.74 
284.72 44.00 -5.70 
284.54 44.18 -4.68 
284.49 43.67 -4.40 
284.45 43.95 -2.07 
284.19 44.15 -1.52 
285.02 44.27 -4.79 
284.93 43.98 -4.55 
286.01 43.83 -5.50 
285.64 44.04 -5.08 
285.86 44.22 -3.51 
286.14 43.88 -3.15 
286.48 44.16 -5.05 
286.53 44.11 -4.53 
286.59 44.28 -3.44 
287.36 44.07 -4.86 
287.07 43.95 -4.46 
287.36 43.66 -3.90 
286.98 43.72 -2.34 
288.09 43.97 -6.08 
287.97 44.04 -5.99 
287.59 43.89 -4.69 
287.62 44.18 -4.13 
288.20 43.89 -3.81 
288.22 44.15 -3.23 
288.62 43.88 -6.09 
288.48 44.16 -5.07 
288.98 43.65 -4.58 
288.76 44.05 -3.57 
288.74 43.91 -3.25 
289.21 43.64 -6.15 
289.24 43.92 -5.96 
289.39 44.17 -4.74 
289.33 43.69 -3.85 
289.80 44.33 -6.14 
289.70 44.22 -5.99 
290.06 44.03 -4.93 
290.13 43.65 -3.48 
290.58 44.33 -6.23 
290.56 43.74 -6.00 
272.64 44.65 -5.75 
273.28 44.69 -6.49 
273.57 45.01 -5.59 
273.63 44.74 -6.24 
273.73 45.00 -5.72 
274.36 44.91 -6.24 
274.96 44.55 -5.75 
275.05 44.82 -6.21 
275.30 44.89 -5.79 
275.44 44.91 -4.55 
276.27 44.94 -6.99 
276.17 44.81 -5.57 
276.16 44.99 -5.08 
276.02 44.88 -3.89 
277.06 44.97 -6.54 
276.59 44.61 -5.55 
276.54 44.78 -5.04 
277.74 44.77 -6.07 
277.51 44.43 -5.32 
279.83 44.62 -7.59 
279.85 44.56 -7.17 
279.83 44.60 -6.35 
279.77 44.73 -5.53 
279.70 44.90 -4.72 
279.46 44.89 -4.17 
280.22 44.69 -7.91 
280.28 44.53 -7.19 
280.32 44.74 -6.39 
280.27 44.77 -5.97 
280.38 45.00 -5.10 
280.44 44.93 -4.44 
280.57 44.63 -6.93 
280.74 44.46 -6.39 
280.87 44.98 -5.75 
280.65 44.74 -4.85 
281.06 44.71 -4.27 
280.76 44.63 -3.94 
281.32 44.85 -5.54 
281.40 44.76 -4.98 
281.55 44.55 -4.37 
281.59 44.59 -3.77 
282.39 44.72 -5.82 
282.12 44.36 -4.47 
281.97 44.49 -3.77 
283.15 44.97 -5.63 
283.15 44.72 -4.98 
283.22 44.36 -4.37 
282.83 44.49 -3.47 
283.57 44.71 -5.78 
283.73 45.02 -5.06 
283.64 44.45 -4.10 
283.47 44.75 -3.63 
284.17 44.69 -5.42 
284.55 44.56 -5.17 
284.43 44.72 -3.97 
284.69 45.03 -3.95 
284.95 44.80 -4.74 
285.15 44.79 -4.57 
285.77 44.91 -5.33 
285.60 44.52 -4.36 
286.47 44.70 -6.07 
286.79 44.93 -6.07 
286.45 44.72 -5.09 
286.68 44.94 -4.31 
286.34 44.85 -3.50 
287.44 44.84 -5.96 
287.23 44.76 -4.71 
287.26 44.42 -4.50 
288.24 45.00 -6.09 
287.86 44.90 -5.00 
288.76 44.50 -6.13 
288.77 44.55 -6.06 
288.68 44.35 -4.84 
288.68 44.89 -3.61 
289.15 44.46 -6.11 
289.39 44.37 -4.92 
290.22 44.46 -6.12 
271.62 45.69 -6.20 
272.31 45.69 -6.13 
272.58 45.64 -5.81 
273.38 45.39 -5.76 
273.43 45.50 -5.11 
273.41 45.33 -4.46 
273.99 45.41 -5.59 
273.80 45.67 -5.11 
274.07 45.59 -4.37 
274.44 45.57 -5.92 
274.94 45.49 -5.02 
274.85 45.34 -4.47 
274.55 45.70 -3.31 
275.36 45.41 -5.43 
275.01 45.62 -5.01 
275.58 45.47 -4.56 
275.38 45.61 -3.94 
275.06 45.72 -3.04 
275.98 45.26 -7.08 
276.13 45.14 -6.58 
276.09 45.26 -5.61 
276.32 45.60 -5.20 
276.09 45.32 -4.26 
277.00 45.57 -6.96 
276.68 45.67 -6.40 
276.78 45.41 -5.99 
276.50 45.51 -4.62 
276.40 45.41 -3.92 
277.22 45.49 -7.01 
277.06 45.34 -6.35 
277.75 45.60 -5.42 
277.23 45.72 -4.50 
278.42 45.63 -5.08 
278.24 45.71 -4.04 
279.52 45.39 -4.87 
279.54 45.29 -4.63 
279.93 45.13 -4.01 
280.85 45.04 -5.49 
281.04 45.31 -4.95 
280.75 45.08 -4.22 
281.85 45.44 -5.60 
281.69 45.17 -4.40 
281.68 45.50 -3.88 
281.70 45.18 -3.24 
282.14 45.25 -5.52 
282.67 45.13 -4.74 
282.15 45.42 -4.38 
282.51 45.41 -3.42 
282.04 45.33 -3.09 
282.93 45.34 -5.55 
282.90 45.64 -5.20 
282.98 45.72 -3.75 
282.77 45.64 -3.05 
283.79 45.33 -5.58 
283.55 45.55 -4.63 
283.85 45.64 -3.60 
284.52 45.43 -5.46 
284.25 45.52 -4.25 
284.65 45.56 -3.49 
284.87 45.54 -5.45 
285.12 45.19 -4.77 
284.84 45.53 -3.52 
285.95 45.22 -5.29 
286.23 45.29 -5.27 
287.20 45.11 -5.94 
287.08 45.18 -5.08 
288.05 45.16 -6.08 
287.84 45.10 -6.06 
271.28 46.26 -6.55 
271.45 45.94 -5.98 
272.09 45.74 -6.07 
271.66 46.10 -5.50 
272.84 45.97 -7.03 
272.61 46.07 -6.21 
272.75 45.75 -5.74 
272.65 46.43 -4.81 
273.40 46.28 -7.21 
273.22 46.07 -6.60 
273.32 46.08 -5.97 
273.36 46.26 -4.55 
273.89 46.10 -6.30 
273.98 46.09 -5.77 
273.88 46.14 -5.12 
273.85 46.15 -4.06 
274.21 45.97 -3.81 
274.81 46.25 -6.97 
274.40 46.19 -6.49 
274.95 45.77 -5.81 
274.76 46.26 -5.19 
274.45 45.98 -4.32 
274.70 46.27 -3.45 
275.46 46.10 -7.01 
275.43 46.36 -6.55 
275.46 46.14 -5.77 
275.09 46.05 -4.88 
275.63 45.80 -4.40 
275.24 46.34 -3.95 
275.24 46.32 -3.09 
276.24 46.10 -7.69 
275.99 46.05 -6.99 
276.15 46.20 -6.33 
276.06 46.21 -5.62 
275.89 46.38 -5.03 
276.27 46.10 -4.28 
276.02 46.22 -3.67 
276.76 45.98 -6.96 
276.47 46.01 -6.34 
276.83 46.33 -5.76 
276.96 46.27 -4.78 
276.60 45.79 -4.61 
276.57 46.40 -3.63 
277.36 46.18 -6.95 
277.54 45.79 -5.73 
277.38 46.11 -5.20 
277.38 45.95 -4.28 
277.31 46.19 -3.92 
277.82 45.83 -6.74 
277.78 45.75 -5.72 
278.07 45.80 -5.12 
277.80 45.84 -4.07 
280.27 46.18 -5.44 
280.70 46.26 -5.62 
280.62 45.97 -5.21 
281.69 45.75 -5.76 
281.93 46.42 -5.09 
281.82 46.31 -4.24 
281.76 46.37 -3.92 
282.51 46.16 -5.32 
282.47 46.21 -5.29 
282.10 46.20 -4.03 
282.59 46.19 -3.80 
283.11 45.99 -5.60 
282.70 46.41 -5.30 
283.40 45.79 -4.71 
284.58 46.24 -5.31 
284.36 45.95 -4.30 
284.97 45.96 -5.45 
284.89 46.05 -4.04 
285.14 45.78 -3.45 
270.64 46.51 -6.27 
270.25 47.01 -5.62 
271.05 46.60 -6.91 
271.12 46.50 -6.19 
270.90 46.94 -5.28 
271.74 47.05 -6.68 
271.91 46.57 -5.71 
271.96 46.81 -4.94 
272.82 46.96 -6.99 
272.56 46.63 -6.38 
272.60 46.72 -5.40 
272.20 46.88 -4.99 
272.39 46.84 -4.40 
272.29 46.77 -3.44 
273.37 46.78 -6.99 
273.21 46.79 -6.79 
273.32 46.77 -5.97 
273.13 46.64 -4.84 
273.33 46.68 -4.77 
272.90 46.95 -3.96 
274.20 47.13 -7.48 
273.78 47.02 -7.36 
274.10 46.77 -6.41 
273.85 46.77 -5.89 
274.22 46.78 -5.16 
274.06 46.98 -4.56 
274.63 47.09 -7.83 
274.66 47.05 -7.18 
274.67 46.86 -6.21 
274.74 47.05 -5.72 
274.77 46.74 -4.92 
274.51 46.91 -4.20 
274.81 46.84 -3.93 
275.15 47.06 -7.97 
275.25 46.95 -7.15 
275.35 46.80 -6.49 
275.21 46.83 -5.71 
275.19 46.74 -4.93 
275.53 46.79 -4.58 
275.27 46.75 -3.76 
275.56 46.74 -3.10 
276.16 46.71 -7.02 
275.86 46.62 -6.61 
276.11 46.85 -5.71 
276.36 46.98 -5.25 
275.97 46.74 -4.66 
276.05 46.68 -3.90 
276.38 47.10 -3.20 
276.57 46.71 -6.98 
276.81 46.90 -6.54 
276.72 46.68 -5.75 
276.88 46.82 -5.16 
276.82 46.92 -4.33 
276.56 47.11 -3.88 
276.83 46.68 -3.25 
277.27 46.91 -7.30 
277.62 47.09 -6.29 
277.51 46.69 -5.63 
277.20 47.04 -5.19 
277.87 47.07 -6.99 
278.05 46.47 -6.67 
277.98 47.08 -5.74 
280.40 46.94 -5.33 
280.40 46.94 -5.33 
280.70 46.55 -5.65 
281.07 46.90 -5.22 
281.65 46.91 -5.09 
281.36 46.96 -4.55 
282.45 46.55 -5.68 
282.21 46.85 -5.21 
283.10 46.99 -5.53 
282.96 46.68 -5.29 
283.58 46.68 -5.71 
284.38 46.48 -5.41 
269.87 47.18 -5.57 
269.78 47.62 -5.01 
269.85 47.53 -4.33 
270.33 47.80 -6.32 
270.29 47.27 -5.67 
270.30 47.81 -4.32 
271.22 47.20 -5.69 
271.89 47.45 -7.02 
272.10 47.76 -6.54 
272.15 47.38 -6.02 
271.77 47.58 -5.18 
271.98 47.23 -4.02 
272.52 47.66 -7.09 
272.60 47.59 -6.48 
272.54 47.28 -5.82 
272.46 47.46 -4.96 
272.74 47.55 -4.30 
272.62 47.57 -3.40 
272.71 47.32 -3.27 
273.31 47.73 -7.10 
273.21 47.25 -6.54 
273.43 47.41 -5.80 
273.55 47.58 -4.97 
273.43 47.41 -4.37 
273.25 47.51 -3.89 
273.32 47.42 -3.21 
274.12 47.29 -7.66 
274.06 47.34 -7.05 
274.07 47.46 -6.48 
273.86 47.55 -5.85 
273.72 47.43 -4.89 
273.82 47.55 -4.34 
274.02 47.71 -3.81 
273.86 47.61 -2.82 
274.54 47.66 -7.04 
274.60 47.36 -6.13 
274.75 47.54 -5.69 
274.61 47.32 -4.96 
274.50 47.38 -4.08 
274.47 47.74 -3.79 
275.30 47.18 -7.01 
275.26 47.25 -6.42 
275.26 47.47 -5.73 
275.24 47.30 -5.24 
275.47 47.31 -4.51 
275.01 47.27 -3.77 
275.92 47.47 -6.94 
275.88 47.68 -6.51 
275.76 47.23 -5.57 
276.00 47.26 -5.06 
275.77 47.48 -4.61 
276.06 47.45 -3.50 
276.13 47.65 -2.93 
276.60 47.51 -6.84 
276.63 47.58 -6.59 
276.57 47.57 -5.63 
276.65 47.25 -5.18 
277.03 47.61 -4.49 
276.63 47.63 -3.93 
276.91 47.50 -6.94 
277.67 47.82 -6.47 
277.38 47.51 -6.06 
277.18 47.73 -4.25 
277.39 47.59 -3.93 
277.88 47.49 -6.23 
278.05 47.53 -5.74 
280.42 47.41 -5.40 
280.21 47.37 -5.44 
280.87 47.59 -5.61 
281.22 47.41 -5.34 
281.44 47.79 -5.68 
281.34 47.38 -4.59 
283.18 47.27 -5.66 
269.94 48.47 -6.47 
269.84 48.19 -5.76 
270.00 47.90 -4.87 
270.21 48.56 -7.38 
270.32 48.36 -6.29 
270.13 48.23 -5.80 
270.52 48.39 -5.02 
271.21 48.41 -6.98 
271.40 48.35 -6.63 
271.20 48.26 -5.80 
270.98 48.40 -4.89 
270.80 48.03 -4.30 
271.99 48.07 -8.17 
271.98 48.10 -7.28 
271.78 48.02 -6.32 
271.97 48.18 -5.79 
272.13 48.15 -4.89 
271.98 48.09 -4.09 
271.74 48.35 -2.72 
272.22 47.98 -8.17 
272.39 47.91 -7.03 
272.63 48.32 -6.28 
272.52 48.11 -5.82 
272.74 48.38 -5.16 
272.26 47.94 -4.02 
272.33 48.33 -3.29 
273.32 48.18 -7.05 
273.41 48.41 -6.26 
273.13 48.11 -5.47 
273.38 48.36 -5.35 
273.34 48.31 -4.60 
273.17 48.34 -3.32 
273.48 48.14 -3.23 
273.78 48.01 -6.91 
273.86 48.22 -6.38 
273.86 48.15 -5.85 
273.97 48.24 -4.93 
273.64 48.31 -4.06 
273.96 48.21 -3.59 
274.16 48.24 -3.03 
274.54 48.01 -6.84 
274.45 47.91 -6.42 
274.79 48.09 -5.73 
274.33 47.95 -5.05 
274.67 47.95 -4.47 
274.70 47.91 -3.68 
275.24 48.33 -7.12 
275.30 48.08 -6.35 
275.46 48.26 -5.63 
275.15 48.21 -5.10 
275.15 48.32 -4.34 
275.09 48.50 -3.34 
275.79 48.14 -7.01 
276.03 48.16 -6.33 
275.89 48.29 -5.67 
275.94 48.01 -5.08 
275.91 48.40 -4.51 
275.85 48.25 -3.57 
276.88 48.10 -6.80 
276.79 48.20 -6.31 
276.53 48.37 -5.78 
276.98 47.99 -4.86 
276.51 48.06 -4.64 
277.29 48.44 -6.92 
277.33 48.15 -6.55 
277.27 48.08 -5.37 
277.85 48.51 -6.82 
278.01 48.11 -6.55 
280.36 47.85 -5.81 
269.97 48.61 -7.38 
269.77 48.85 -6.21 
269.64 48.80 -5.84 
270.21 48.56 -7.38 
269.95 48.82 -6.48 
270.10 48.91 -5.73 
271.22 48.99 -7.03 
271.22 49.04 -6.47 
271.23 49.17 -5.68 
270.95 48.74 -4.54 
271.62 48.94 -6.79 
271.62 49.10 -6.21 
271.83 48.92 -5.65 
271.79 48.96 -4.06 
272.18 48.89 -3.58 
271.94 48.96 -2.76 
272.60 48.61 -7.00 
272.59 48.65 -6.16 
272.40 48.81 -5.77 
272.64 48.56 -5.05 
272.37 48.55 -4.67 
272.48 49.03 -3.34 
272.70 49.00 -2.68 
273.17 48.69 -6.82 
273.28 48.78 -6.15 
273.02 48.71 -5.61 
273.26 48.82 -4.87 
273.26 48.96 -4.56 
273.99 48.76 -7.06 
273.78 48.96 -6.41 
273.89 48.76 -5.56 
273.89 49.07 -4.90 
274.18 48.54 -4.02 
274.25 48.77 -3.60 
274.68 48.88 -7.04 
274.65 49.00 -6.42 
274.54 48.88 -5.39 
274.63 48.89 -4.97 
274.77 48.94 -4.51 
274.79 48.69 -3.74 
275.21 49.06 -6.83 
275.49 49.04 -6.38 
275.39 48.78 -5.51 
275.18 48.98 -4.89 
275.41 48.94 -4.56 
275.34 48.94 -3.36 
275.77 48.78 -6.91 
276.12 48.93 -6.55 
276.20 49.14 -5.91 
276.23 48.77 -5.10 
275.84 48.80 -4.05 
276.93 49.10 -6.79 
276.55 48.80 -6.35 
276.61 48.84 -6.00 
276.51 48.76 -5.23 
276.42 48.87 -4.35 
277.39 48.73 -6.84 
277.21 48.78 -6.38 
277.47 48.60 -6.06 
269.91 49.34 -5.63 
270.78 49.25 -7.11 
270.68 49.67 -6.25 
270.58 49.51 -5.73 
270.42 49.32 -5.09 
271.17 49.34 -7.11 
271.09 49.45 -6.29 
271.08 49.47 -5.73 
271.85 49.34 -6.65 
271.85 49.38 -5.78 
272.74 49.67 -6.85 
272.65 49.46 -6.68 
272.61 49.89 -5.59 
272.86 49.61 -4.84 
272.76 49.70 -4.15 
272.40 49.45 -3.61 
272.84 49.53 -2.69 
272.97 49.63 -6.83 
273.19 49.93 -6.55 
273.52 49.66 -5.77 
273.28 49.47 -4.79 
273.02 49.37 -4.19 
273.30 49.69 -3.44 
272.96 49.39 -2.85 
273.83 49.68 -6.53 
273.93 49.78 -5.56 
273.95 49.49 -5.37 
273.71 49.66 -4.07 
274.52 49.33 -7.09 
274.74 49.59 -6.25 
274.70 49.68 -5.55 
274.46 49.61 -5.27 
274.88 49.37 -4.42 
275.44 49.50 -6.80 
275.39 49.52 -6.45 
275.16 49.67 -5.88 
275.40 49.27 -5.00 
275.30 49.48 -4.34 
276.08 49.51 -6.77 
275.92 49.50 -6.71 
275.75 49.51 -5.69 
276.56 49.52 -7.08 
276.41 49.46 -5.92 
271.31 50.17 -5.46 
271.93 49.97 -6.34 
272.52 50.32 -6.38 
272.39 50.23 -5.67 
272.63 49.98 -4.31 
272.84 50.08 -3.38 
273.30 50.49 -6.85 
273.26 50.07 -6.37 
273.13 50.48 -5.88 
273.19 50.35 -4.95 
273.40 49.99 -4.12 
274.06 50.24 -6.87 
274.03 50.29 -6.09 
273.68 49.94 -5.48 
274.49 49.76 -6.41 
274.82 49.98 -5.57 
275.41 50.10 -6.91 
275.75 49.95 -5.61 
292.24 58.23 -5.77 
292.18 58.89 -6.22 
292.19 58.69 -5.82 
291.71 59.64 -4.68 
291.66 59.37 -4.58 
292.23 59.31 -6.23 
292.06 59.68 -4.52 
292.54 59.63 -6.21 
292.58 59.31 -5.84 
290.74 60.19 -7.73 
291.32 59.98 -7.52 
291.70 60.13 -6.25 
291.96 60.30 -6.26 
292.60 59.96 -6.63 
