# .PCD v0.7 - Point Cloud Data file format
VERSION 0.7
FIELDS x y z
SIZE 4 4 4
TYPE F F F
COUNT 1 1 1
WIDTH 1075
HEIGHT 1
VIEWPOINT 0 0 0 1 0 0 0
POINTS 1075
DATA ascii
288.48 61.21 -6.36 
287.94 61.17 -3.97 
288.46 60.89 -3.15 
288.70 60.72 -7.83 
289.12 60.68 -5.27 
289.12 60.93 -4.92 
288.82 60.97 -3.07 
289.34 61.19 -7.59 
289.40 61.13 -6.56 
289.75 61.21 -5.55 
289.93 60.98 -4.75 
290.65 60.82 -5.03 
290.89 60.73 -7.65 
291.33 60.99 -6.14 
290.74 60.91 -5.04 
291.78 60.90 -7.52 
291.69 61.08 -6.14 
292.35 60.60 -7.57 
287.07 61.36 -4.34 
287.14 61.83 -3.20 
287.36 61.86 -6.55 
287.40 61.76 -4.93 
287.65 61.69 -3.88 
288.11 61.76 -6.43 
288.56 61.85 -5.45 
288.38 61.89 -4.76 
288.47 61.79 -3.90 
288.36 61.90 -3.83 
288.50 61.66 -2.75 
289.18 61.75 -7.52 
288.94 61.77 -6.84 
288.79 61.81 -6.14 
288.95 61.71 -5.74 
289.22 61.41 -4.91 
288.98 61.93 -4.49 
289.63 61.78 -7.59 
290.20 61.63 -5.49 
290.45 61.78 -5.09 
291.40 61.79 -7.65 
291.16 61.24 -6.01 
291.03 61.86 -5.59 
292.12 61.59 -7.52 
291.92 61.40 -6.29 
291.44 61.66 -5.91 
292.12 61.59 -7.52 
292.51 61.88 -5.61 
286.37 62.49 -6.51 
286.41 62.43 -4.15 
286.39 62.47 -3.59 
287.16 62.54 -6.35 
287.13 62.62 -5.82 
286.54 62.52 -5.12 
287.60 62.05 -6.39 
287.47 62.46 -5.63 
287.90 62.49 -4.91 
287.44 62.15 -4.49 
287.57 61.95 -3.31 
287.54 62.45 -2.29 
288.36 62.46 -6.52 
288.29 62.33 -5.43 
288.02 62.34 -4.93 
288.33 62.40 -4.45 
288.43 62.57 -3.38 
288.22 62.29 -2.73 
289.29 62.33 -6.55 
288.83 62.00 -5.64 
288.77 62.36 -5.01 
288.70 62.35 -3.78 
288.85 62.42 -2.27 
289.71 62.22 -7.52 
289.43 62.26 -6.83 
289.48 62.28 -6.60 
289.51 62.24 -5.38 
290.43 62.67 -5.56 
290.28 62.34 -5.11 
290.91 62.27 -5.58 
291.13 62.43 -4.60 
290.75 62.11 -4.26 
291.88 62.29 -7.46 
291.57 62.42 -5.05 
292.18 62.14 -7.38 
292.39 62.29 -5.52 
285.37 63.24 -6.57 
285.64 63.18 -5.66 
285.78 63.20 -2.68 
286.19 62.80 -6.28 
286.41 63.07 -5.45 
285.99 63.15 -5.07 
286.48 63.28 -4.50 
286.41 62.68 -3.75 
286.73 62.66 -6.71 
286.91 62.94 -6.05 
287.20 62.81 -3.86 
286.86 63.20 -3.70 
287.67 62.79 -6.51 
287.74 63.12 -5.58 
287.47 62.84 -4.47 
287.38 63.21 -3.51 
287.83 63.00 -2.80 
287.89 63.08 -2.27 
288.34 62.75 -7.46 
288.23 63.05 -6.26 
288.26 63.05 -5.48 
288.06 62.87 -4.83 
288.45 62.92 -3.56 
288.19 63.32 -2.85 
288.29 62.73 -2.13 
288.80 62.88 -7.44 
288.72 62.88 -6.86 
289.16 62.85 -5.45 
288.73 62.86 -5.07 
288.97 63.06 -3.05 
289.67 63.11 -7.44 
289.62 63.11 -6.93 
289.84 63.03 -6.23 
289.47 63.15 -5.86 
289.63 62.76 -5.01 
289.54 62.82 -3.94 
289.99 63.19 -3.74 
289.41 62.84 -2.49 
289.57 63.11 -2.19 
290.23 63.01 -7.59 
290.50 62.65 -6.04 
290.48 63.06 -5.89 
290.32 63.24 -5.20 
290.28 62.86 -4.24 
290.84 62.99 -5.31 
291.16 63.03 -4.88 
291.45 63.18 -5.47 
291.49 62.93 -4.70 
292.41 62.66 -5.40 
284.72 63.59 -6.27 
285.37 63.60 -6.22 
285.75 63.66 -5.63 
285.76 64.00 -2.86 
286.32 63.79 -5.46 
286.19 63.60 -4.66 
285.97 63.81 -2.67 
287.08 63.98 -7.57 
287.02 63.37 -6.65 
286.98 63.95 -5.18 
286.84 63.48 -4.05 
287.80 63.97 -6.24 
287.80 63.89 -5.51 
287.54 63.89 -4.78 
287.51 63.69 -4.50 
288.55 63.93 -7.79 
288.32 64.02 -6.68 
288.14 63.75 -6.11 
288.38 63.80 -5.84 
288.08 63.99 -4.91 
287.97 63.78 -4.05 
288.51 63.71 -3.57 
288.78 64.01 -7.54 
288.87 63.62 -6.70 
288.86 63.68 -6.32 
289.00 63.78 -5.67 
288.88 63.86 -5.19 
289.23 63.75 -3.86 
289.29 63.88 -3.65 
289.06 63.48 -2.57 
289.57 63.26 -7.60 
289.45 63.54 -6.75 
289.53 63.58 -6.49 
289.78 63.68 -5.71 
289.79 63.59 -5.21 
289.80 63.75 -4.26 
290.39 63.34 -7.59 
290.43 63.89 -6.71 
290.11 63.48 -6.19 
290.19 63.49 -5.82 
290.29 63.79 -5.08 
290.09 64.00 -4.26 
290.96 63.46 -6.64 
291.17 63.62 -4.60 
292.19 63.45 -5.11 
284.61 64.70 -6.26 
285.07 64.66 -5.17 
285.37 64.33 -7.44 
285.33 64.72 -6.76 
285.45 64.07 -6.55 
285.47 64.65 -5.87 
285.80 64.42 -5.07 
286.46 64.48 -5.94 
286.19 64.54 -5.78 
286.06 64.14 -5.14 
286.25 64.04 -4.12 
286.35 64.50 -2.80 
287.00 64.42 -6.00 
286.92 64.33 -5.56 
287.02 64.38 -5.03 
286.60 64.32 -2.60 
287.62 64.43 -7.50 
287.65 64.35 -6.83 
287.82 64.21 -6.28 
287.52 64.35 -5.78 
287.68 64.56 -4.97 
287.70 64.55 -3.22 
287.56 64.59 -2.36 
288.18 64.14 -7.79 
288.16 64.38 -6.74 
288.33 64.34 -6.16 
288.26 64.46 -5.76 
287.88 64.47 -4.95 
288.07 64.47 -4.06 
288.45 64.52 -3.60 
288.52 64.50 -2.82 
288.27 64.53 -2.08 
289.02 64.27 -6.76 
288.98 64.30 -6.19 
288.92 64.43 -5.53 
289.07 64.68 -4.93 
288.69 64.41 -4.29 
288.73 64.30 -3.77 
289.05 64.24 -2.51 
288.85 64.34 -2.11 
289.55 64.12 -6.71 
289.41 64.62 -6.48 
289.74 64.36 -5.67 
289.46 64.53 -5.25 
289.86 64.50 -4.53 
289.76 64.57 -3.60 
289.75 64.18 -3.12 
290.10 64.69 -6.37 
290.20 64.07 -5.45 
290.46 64.27 -5.11 
290.04 64.49 -3.91 
284.76 65.40 -6.80 
285.01 65.35 -6.00 
285.08 64.81 -5.82 
285.70 65.23 -7.72 
285.68 65.00 -6.92 
285.21 64.85 -6.31 
285.45 65.22 -5.93 
285.89 65.22 -7.78 
286.14 65.05 -6.81 
286.30 65.15 -6.34 
286.26 65.31 -5.75 
286.07 65.09 -5.10 
286.18 64.97 -4.14 
286.19 65.40 -3.77 
286.36 65.37 -2.99 
286.08 65.09 -1.88 
286.96 64.93 -6.97 
286.87 65.02 -6.14 
286.98 64.84 -5.84 
287.13 65.23 -5.20 
286.52 65.15 -4.40 
286.86 65.09 -3.57 
286.58 65.14 -2.01 
287.51 65.14 -6.75 
287.34 64.78 -6.38 
287.50 64.95 -5.53 
287.58 65.20 -4.95 
287.90 65.22 -4.09 
287.87 64.76 -3.48 
287.27 65.35 -2.42 
288.30 65.04 -6.69 
288.18 65.01 -6.02 
288.24 65.10 -5.76 
288.18 65.31 -4.74 
288.23 65.23 -4.34 
288.39 65.14 -3.61 
288.12 64.88 -2.67 
289.26 64.85 -6.09 
288.91 65.07 -5.43 
288.99 64.94 -4.93 
288.85 65.23 -4.27 
288.61 65.00 -3.19 
288.61 65.11 -2.81 
288.61 65.10 -2.03 
289.68 65.18 -6.13 
289.73 64.89 -5.49 
289.75 64.88 -4.69 
289.70 65.15 -3.79 
289.88 65.14 -3.14 
289.34 64.87 -2.22 
290.41 64.91 -6.36 
290.14 64.93 -5.00 
290.50 64.77 -4.19 
290.73 64.76 -5.74 
284.26 65.74 -6.14 
285.09 65.60 -6.83 
284.72 65.62 -6.13 
285.01 65.97 -5.60 
285.53 66.12 -6.73 
285.76 66.09 -6.31 
285.41 65.63 -5.62 
286.42 65.69 -6.77 
286.12 65.90 -6.08 
286.10 65.84 -5.50 
286.44 65.97 -5.24 
286.15 65.88 -4.15 
286.05 65.43 -2.27 
286.94 65.45 -6.82 
286.65 65.50 -6.04 
286.66 65.55 -5.55 
286.96 65.90 -4.89 
287.15 65.58 -4.44 
287.53 65.45 -6.72 
287.83 65.47 -6.56 
287.60 65.76 -5.75 
287.80 65.94 -4.11 
287.72 65.44 -2.74 
288.03 65.48 -6.56 
287.94 65.78 -5.66 
288.04 65.98 -4.72 
288.07 65.63 -3.83 
288.20 65.73 -2.39 
288.94 65.48 -6.60 
289.13 65.43 -5.79 
288.68 65.94 -3.97 
288.75 65.72 -3.57 
289.02 65.63 -3.14 
289.74 65.56 -5.81 
289.42 65.93 -2.74 
290.09 65.47 -6.12 
290.07 65.69 -5.94 
292.21 66.13 -4.75 
284.31 66.45 -6.25 
285.04 66.37 -6.81 
284.41 66.72 -5.95 
284.67 66.34 -5.93 
285.29 66.28 -6.75 
285.81 66.48 -6.00 
285.80 66.25 -5.63 
286.21 66.12 -6.06 
286.31 66.32 -5.85 
286.33 66.60 -3.78 
287.10 66.38 -5.94 
286.76 66.21 -4.61 
286.76 66.21 -4.61 
286.75 66.64 -3.45 
286.66 66.65 -3.01 
287.73 66.51 -6.21 
287.26 66.68 -5.70 
287.92 66.71 -6.19 
288.26 66.38 -4.39 
288.18 66.23 -3.22 
288.87 66.19 -5.42 
288.63 66.14 -5.21 
288.87 66.35 -4.01 
288.57 66.54 -3.71 
289.10 66.30 -3.13 
292.38 66.83 -5.86 
292.35 66.69 -5.07 
283.97 66.86 -6.12 
285.21 67.19 -5.67 
286.61 67.03 -3.63 
287.25 67.04 -5.60 
287.92 67.19 -4.24 
288.68 66.98 -3.68 
291.30 67.38 -5.23 
291.99 67.01 -5.46 
291.84 67.38 -4.79 
292.48 67.49 -6.23 
292.28 67.20 -5.73 
292.28 67.30 -4.69 
292.22 67.00 -3.87 
290.49 68.01 -5.44 
290.74 67.73 -5.09 
291.20 67.89 -5.44 
290.91 67.87 -4.73 
290.89 67.78 -4.51 
291.71 68.02 -6.03 
291.44 67.86 -5.74 
292.03 67.70 -4.75 
292.28 67.90 -5.74 
292.21 67.82 -4.74 
292.12 67.70 -4.20 
273.03 68.88 -3.37 
273.28 68.79 -3.17 
290.30 68.75 -4.80 
290.85 68.92 -3.37 
292.03 68.89 -5.85 
291.97 68.62 -4.89 
292.50 68.64 -5.68 
292.13 68.44 -4.79 
270.36 69.61 -1.78 
273.62 69.53 -3.32 
275.06 69.51 -2.11 
289.85 69.45 -4.73 
290.49 69.38 -5.90 
290.15 69.47 -4.81 
291.23 69.42 -5.71 
290.97 69.28 -4.72 
291.24 69.43 -4.52 
290.77 69.14 -3.26 
291.29 69.62 -1.93 
291.02 69.37 -1.53 
291.68 69.33 -7.50 
292.01 69.25 -6.69 
291.68 69.18 -6.59 
291.78 69.28 -5.59 
291.52 69.00 -4.67 
292.04 69.57 -4.39 
291.67 69.36 -3.78 
291.67 69.37 -2.03 
291.79 69.52 -1.42 
292.37 69.37 -7.60 
292.11 69.28 -7.15 
292.48 69.42 -6.20 
292.36 69.30 -5.74 
292.49 69.19 -4.87 
292.55 69.29 -3.96 
270.38 69.95 -1.96 
270.75 69.75 -2.36 
270.68 70.21 -1.58 
273.13 69.98 -3.71 
273.34 69.95 -3.50 
273.93 70.31 -5.29 
273.94 69.78 -3.23 
274.85 70.32 -5.31 
274.78 69.88 -2.69 
274.83 70.25 -2.10 
289.06 69.94 -4.78 
289.35 69.71 -4.76 
290.53 69.78 -5.67 
290.39 69.96 -4.73 
291.36 70.32 -5.73 
290.74 69.99 -4.69 
291.23 70.22 -4.36 
290.94 69.92 -1.39 
292.09 69.67 -7.60 
292.07 69.66 -6.68 
291.75 69.87 -6.28 
291.75 70.04 -5.62 
292.00 69.87 -4.81 
291.75 69.98 -4.04 
291.99 70.01 -1.38 
292.36 69.92 -5.95 
292.44 70.01 -5.81 
292.46 70.13 -5.08 
292.56 69.77 -3.94 
292.39 69.93 -3.77 
270.76 70.50 -2.33 
271.17 70.42 -1.84 
272.85 70.85 -3.75 
273.70 70.45 -5.19 
273.26 70.43 -3.51 
274.36 70.78 -5.31 
274.61 70.84 -5.15 
274.80 70.35 -2.53 
276.31 71.00 -4.68 
290.55 70.51 -5.78 
290.61 70.55 -4.65 
291.16 70.73 -5.44 
290.82 70.50 -4.46 
291.55 70.69 -5.31 
291.91 70.70 -4.90 
291.95 70.58 -3.92 
291.95 70.58 -3.92 
292.28 70.84 -5.37 
292.50 70.53 -3.93 
292.15 70.74 -3.83 
271.81 71.38 -5.30 
271.90 71.56 -5.38 
272.12 71.64 -3.59 
272.78 71.59 -5.65 
272.85 71.36 -2.74 
273.88 71.48 -5.50 
273.68 71.65 -2.84 
273.97 71.40 -5.56 
274.11 71.65 -5.02 
275.96 71.29 -4.73 
275.66 71.21 -4.35 
276.66 71.21 -4.78 
276.21 71.42 -4.52 
290.27 71.27 -5.86 
290.79 71.14 -5.37 
291.18 71.55 -4.52 
291.73 71.44 -5.82 
291.74 71.40 -4.05 
292.34 71.44 -5.62 
292.49 71.12 -4.70 
292.12 71.29 -3.91 
292.25 71.41 -3.09 
270.23 72.37 -4.51 
270.63 72.26 -4.43 
271.53 72.04 -5.34 
271.81 72.36 -5.11 
271.96 72.34 -5.37 
272.08 72.00 -4.82 
272.89 72.18 -6.32 
273.09 72.30 -5.46 
273.20 72.27 -3.89 
273.03 71.89 -3.43 
272.77 71.88 -2.57 
273.90 72.38 -6.40 
273.68 72.26 -5.55 
273.35 72.42 -4.81 
273.63 71.99 -4.32 
273.44 71.97 -3.38 
273.65 72.17 -2.93 
274.07 72.25 -7.69 
274.11 72.41 -7.30 
274.17 72.27 -6.54 
274.12 72.26 -5.77 
274.04 72.38 -4.99 
274.43 72.29 -3.21 
274.63 72.26 -5.30 
274.74 71.95 -4.91 
274.84 72.00 -3.56 
275.94 72.08 -4.59 
276.35 71.92 -4.94 
276.36 71.91 -4.13 
276.79 71.79 -4.47 
289.68 72.18 -5.94 
290.25 72.17 -5.46 
290.73 72.34 -5.32 
291.20 71.98 -4.48 
291.50 71.91 -5.26 
291.70 72.01 -4.27 
292.31 71.79 -5.32 
292.32 72.10 -3.11 
269.15 72.97 -4.62 
270.02 72.87 -3.78 
269.72 72.92 -2.61 
271.09 72.68 -5.55 
270.69 72.46 -4.12 
270.51 72.63 -3.57 
270.61 72.46 -3.09 
271.42 72.56 -5.49 
271.80 72.78 -4.29 
271.53 72.84 -3.28 
271.78 73.13 -2.46 
271.60 72.80 -2.24 
272.27 73.02 -7.68 
272.32 73.02 -7.10 
272.32 73.02 -6.52 
272.07 72.51 -5.74 
272.33 73.12 -5.02 
271.97 73.04 -4.22 
272.25 72.54 -2.87 
273.07 73.08 -6.16 
273.14 73.05 -5.41 
272.86 72.79 -4.72 
272.74 72.78 -4.16 
272.87 72.44 -3.19 
272.54 72.87 -2.88 
273.54 72.71 -7.86 
273.70 72.67 -6.99 
273.70 72.53 -6.12 
273.57 72.73 -5.53 
273.27 72.83 -4.89 
273.49 72.81 -4.33 
273.58 72.95 -3.26 
273.80 73.00 -2.69 
274.25 72.87 -7.68 
274.46 72.76 -7.08 
274.43 72.64 -6.25 
274.13 72.77 -5.44 
273.98 72.55 -5.01 
273.88 72.88 -4.32 
274.49 72.96 -3.41 
274.69 72.92 -7.71 
274.89 72.97 -6.94 
274.79 72.65 -6.22 
274.71 72.75 -5.43 
274.81 72.85 -4.71 
275.28 72.80 -4.23 
291.30 72.46 -4.43 
292.08 72.71 -3.91 
268.01 73.70 -4.29 
268.42 73.28 -4.22 
269.22 73.16 -4.61 
269.30 73.73 -4.16 
270.24 73.60 -5.59 
270.17 73.45 -4.72 
270.31 73.14 -4.41 
270.35 73.40 -2.77 
270.06 73.42 -2.20 
270.84 73.32 -6.18 
270.70 73.40 -5.45 
270.83 73.78 -3.12 
271.39 73.29 -5.48 
271.48 73.16 -5.11 
271.62 73.19 -4.42 
271.71 73.16 -3.44 
271.45 73.25 -2.32 
272.09 73.24 -7.45 
272.09 73.55 -7.18 
271.91 73.55 -6.22 
272.36 73.60 -5.49 
272.02 73.44 -5.06 
271.89 73.24 -2.63 
272.86 73.78 -7.55 
272.91 73.74 -7.00 
273.01 73.63 -6.26 
272.81 73.66 -5.56 
272.55 73.38 -4.87 
272.73 73.60 -4.32 
273.29 73.21 -6.71 
273.31 73.66 -5.66 
273.89 73.78 -4.99 
273.79 73.58 -3.23 
274.22 73.18 -7.92 
274.50 73.22 -6.67 
274.49 73.14 -6.42 
274.17 73.58 -5.02 
273.99 73.75 -4.12 
275.14 73.35 -7.71 
274.92 73.41 -6.77 
268.79 74.20 -4.23 
269.04 73.96 -4.17 
269.59 74.31 -3.81 
270.35 74.03 -7.58 
270.34 73.98 -6.39 
270.18 73.99 -5.41 
270.30 73.89 -4.89 
269.98 74.01 -4.44 
270.33 74.42 -3.12 
270.30 74.18 -1.71 
270.48 73.88 -7.17 
270.60 74.24 -5.99 
270.57 74.19 -5.46 
270.51 74.06 -5.15 
270.56 73.97 -4.01 
270.73 73.94 -3.01 
271.81 73.93 -5.75 
271.43 74.02 -5.10 
271.58 73.97 -4.04 
271.41 74.52 -3.30 
271.74 74.39 -2.77 
272.44 74.14 -7.67 
272.41 74.10 -6.97 
272.40 73.95 -6.33 
272.36 74.21 -5.53 
272.43 74.07 -4.75 
271.74 74.39 -2.77 
272.57 74.05 -7.55 
272.61 73.98 -6.97 
272.68 73.99 -6.21 
272.66 74.03 -5.53 
272.98 74.28 -5.22 
272.72 74.39 -4.13 
273.44 74.34 -4.97 
273.54 74.28 -4.37 
273.76 74.22 -3.29 
274.36 74.09 -5.33 
274.28 74.25 -5.13 
274.10 74.24 -2.81 
274.98 74.61 -5.06 
269.40 75.17 -4.07 
269.64 74.84 -3.44 
270.22 74.84 -7.70 
270.26 74.85 -7.30 
270.32 74.54 -6.09 
270.36 74.89 -5.59 
270.08 74.82 -4.90 
270.10 74.64 -4.03 
270.26 74.84 -3.73 
270.40 74.66 -1.10 
270.59 74.71 -7.88 
270.77 74.67 -6.92 
270.72 74.65 -6.01 
270.84 74.63 -5.62 
270.55 74.71 -1.83 
271.25 74.89 -6.09 
271.73 74.94 -5.87 
271.15 74.61 -3.76 
271.37 74.56 -2.81 
272.48 75.10 -2.64 
271.99 74.67 -2.44 
273.61 74.82 -4.97 
273.29 74.58 -4.43 
274.57 74.76 -5.27 
274.07 74.88 -3.30 
274.98 74.61 -5.06 
274.93 74.76 -3.40 
275.99 74.93 -5.35 
275.35 74.63 -5.20 
276.88 75.05 -5.16 
268.76 75.76 -7.61 
269.31 75.49 -7.73 
270.04 75.60 -7.70 
270.71 75.26 -7.95 
271.49 75.68 -4.04 
271.92 75.90 -5.02 
271.97 75.23 -2.74 
272.94 75.83 -4.79 
273.13 75.36 -4.07 
272.89 75.67 -3.60 
273.12 75.66 -2.89 
273.40 75.71 -4.87 
273.59 75.59 -4.05 
273.81 75.55 -3.20 
274.16 75.38 -3.29 
275.05 75.32 -3.39 
275.76 75.72 -4.86 
276.64 75.26 -4.79 
277.14 75.54 -5.10 
267.92 76.26 -7.72 
268.84 76.39 -7.82 
269.30 76.10 -7.98 
271.49 76.22 -3.88 
272.32 76.34 -4.96 
272.12 76.33 -4.19 
272.88 76.15 -4.78 
273.84 76.51 -3.77 
273.95 76.36 -3.95 
274.18 75.97 -3.73 
275.03 76.29 -3.27 
275.20 76.26 -3.06 
276.16 75.95 -4.93 
267.90 76.89 -7.58 
268.41 76.68 -7.93 
274.35 77.07 -3.65 
275.48 76.80 -2.99 
270.70 79.41 -6.58 
270.66 79.38 -5.82 
273.39 79.34 -5.99 
273.23 78.80 -4.76 
274.18 79.38 -5.03 
274.85 78.95 -4.98 
274.80 78.93 -4.52 
268.54 79.99 -5.85 
269.51 79.68 -4.75 
270.33 79.73 -6.51 
270.33 79.49 -5.84 
270.18 79.97 -5.07 
271.09 79.79 -6.62 
270.70 79.55 -5.80 
270.59 80.04 -4.40 
271.43 80.04 -6.59 
271.57 80.12 -5.66 
271.11 80.02 -4.86 
272.48 80.07 -6.00 
272.48 80.07 -6.00 
272.12 79.98 -4.70 
272.05 80.06 -3.55 
272.77 79.47 -6.24 
272.79 79.71 -5.27 
272.55 79.67 -4.89 
272.96 80.04 -3.83 
273.24 79.83 -6.51 
273.60 79.89 -5.94 
273.71 79.56 -4.77 
274.34 79.48 -5.45 
274.28 79.74 -4.68 
274.69 79.67 -5.02 
268.08 80.66 -5.36 
267.90 80.38 -5.27 
268.35 80.69 -5.96 
268.80 80.48 -4.60 
269.25 80.80 -5.95 
269.23 80.58 -5.93 
269.21 80.49 -4.83 
269.61 80.33 -4.51 
270.16 80.47 -6.15 
270.23 80.76 -5.68 
270.01 80.63 -4.64 
269.89 80.26 -4.41 
270.47 80.35 -6.26 
270.91 80.50 -5.45 
270.62 80.55 -5.00 
271.20 80.43 -5.45 
271.54 80.49 -4.73 
271.64 80.70 -4.32 
272.01 80.52 -7.10 
272.07 80.35 -6.16 
271.86 80.72 -5.39 
272.28 80.90 -4.90 
272.01 80.33 -4.48 
272.44 80.70 -3.81 
272.68 80.51 -5.99 
272.93 80.57 -5.42 
272.77 80.77 -5.05 
273.08 80.31 -4.44 
272.83 80.18 -3.67 
273.62 80.77 -5.90 
273.29 80.67 -4.85 
273.30 80.79 -4.29 
274.23 80.75 -6.77 
274.43 80.45 -5.39 
274.57 80.19 -4.95 
274.73 80.59 -5.68 
274.82 80.60 -4.43 
268.62 81.07 -6.48 
268.68 81.52 -5.65 
269.42 81.16 -6.69 
269.47 81.09 -6.20 
269.40 81.07 -5.81 
269.45 80.96 -4.67 
269.56 81.06 -4.54 
270.00 81.36 -7.18 
269.88 81.35 -6.21 
270.29 80.82 -5.51 
270.16 80.91 -4.95 
269.72 81.24 -4.53 
270.15 81.34 -3.72 
270.98 81.42 -6.17 
270.46 81.33 -5.71 
270.69 81.06 -4.99 
270.84 81.25 -3.16 
271.71 80.93 -7.11 
271.36 81.12 -6.20 
271.67 81.07 -5.78 
271.54 81.05 -5.14 
271.81 81.32 -4.20 
271.24 81.15 -3.70 
271.63 81.35 -3.09 
272.49 81.22 -7.71 
272.02 81.01 -6.35 
272.19 81.45 -5.29 
272.38 81.15 -4.88 
271.83 81.37 -3.92 
272.64 80.91 -6.84 
272.59 81.29 -6.31 
272.84 81.25 -5.55 
272.88 81.03 -4.92 
273.11 81.39 -4.34 
272.61 81.49 -3.42 
273.56 81.22 -6.67 
273.25 80.94 -6.37 
273.53 81.26 -5.54 
273.31 80.99 -4.70 
273.84 81.38 -4.31 
273.42 81.46 -3.71 
274.15 81.09 -6.66 
274.04 81.03 -5.87 
274.15 81.15 -4.90 
274.08 80.91 -4.38 
268.22 82.21 -6.38 
268.04 81.84 -5.09 
268.92 82.13 -7.06 
268.69 81.95 -6.14 
269.01 82.06 -5.59 
268.83 82.08 -4.92 
268.86 81.71 -3.09 
268.64 82.09 -2.43 
269.09 81.98 -7.24 
269.05 81.89 -6.42 
269.52 81.74 -5.58 
269.15 81.99 -5.08 
269.42 81.88 -4.14 
269.32 82.04 -3.05 
270.27 81.96 -6.24 
270.16 81.91 -5.76 
270.18 81.95 -4.90 
269.81 81.70 -4.48 
270.38 82.06 -3.20 
270.33 81.72 -2.00 
270.22 81.90 -1.60 
270.43 81.70 -7.12 
271.03 81.76 -6.18 
270.59 82.06 -5.43 
270.56 81.77 -4.92 
271.01 82.06 -4.14 
270.87 82.06 -3.64 
270.56 81.74 -2.86 
270.80 82.04 -1.79 
271.61 81.64 -7.72 
271.39 81.78 -6.77 
271.26 81.75 -6.06 
271.10 81.73 -5.74 
271.51 82.20 -4.85 
271.34 81.73 -4.17 
271.65 81.89 -3.33 
271.24 81.71 -1.75 
271.31 81.53 -1.74 
271.98 81.72 -7.02 
272.45 81.91 -6.38 
272.25 82.13 -5.66 
272.16 81.90 -5.21 
272.27 82.01 -4.25 
272.92 81.58 -6.36 
272.67 81.89 -5.61 
272.69 82.18 -4.92 
272.52 81.90 -4.29 
273.13 81.77 -3.27 
273.81 82.11 -6.75 
273.79 81.81 -6.43 
273.52 81.90 -5.33 
273.38 81.62 -4.80 
273.35 81.96 -3.56 
274.27 81.70 -6.42 
274.04 82.02 -5.33 
274.06 82.11 -4.98 
274.37 82.15 -4.14 
274.79 81.66 -6.41 
268.31 82.73 -6.27 
268.20 82.75 -5.49 
267.69 82.87 -5.03 
268.27 82.56 -4.32 
268.29 82.87 -3.15 
267.96 82.86 -2.21 
268.84 82.75 -6.19 
268.85 82.45 -5.59 
268.60 82.66 -5.03 
268.64 82.70 -4.29 
268.94 82.51 -3.07 
269.03 82.92 -7.05 
269.48 82.77 -6.17 
269.58 82.76 -5.29 
269.40 82.27 -5.05 
269.42 82.72 -4.50 
269.22 82.85 -3.64 
270.04 82.70 -7.72 
270.25 82.62 -6.93 
269.94 82.67 -6.25 
270.21 82.80 -5.51 
270.27 82.45 -5.21 
270.31 82.29 -4.33 
270.04 82.27 -3.40 
269.82 82.53 -2.94 
270.09 82.91 -2.23 
270.49 82.81 -7.44 
270.72 82.45 -6.16 
270.84 82.67 -5.53 
270.88 82.43 -5.20 
270.83 82.62 -4.23 
270.79 82.83 -3.53 
270.51 82.54 -1.95 
271.45 82.49 -6.67 
271.43 82.70 -6.10 
271.45 82.72 -5.64 
271.49 82.77 -5.18 
271.73 82.64 -3.99 
271.47 82.68 -3.80 
271.66 82.35 -3.13 
271.39 82.46 -1.83 
272.11 82.55 -6.96 
272.18 82.82 -6.46 
271.85 82.58 -5.84 
272.21 82.37 -4.74 
272.19 82.68 -4.26 
272.36 82.78 -2.96 
272.78 82.49 -6.97 
272.95 82.86 -6.51 
272.59 82.52 -5.53 
272.87 82.68 -4.96 
272.65 82.27 -4.38 
272.81 82.32 -3.74 
273.76 82.90 -6.36 
273.52 82.92 -5.70 
273.57 82.70 -4.87 
273.81 82.73 -4.35 
273.24 82.75 -3.26 
274.47 82.86 -5.45 
274.44 82.43 -5.02 
274.27 82.56 -3.97 
267.61 83.27 -6.40 
268.10 83.17 -5.68 
268.30 83.02 -3.58 
268.12 83.01 -2.68 
268.01 83.12 -2.32 
268.43 83.61 -7.72 
268.56 83.27 -6.84 
268.67 83.33 -6.16 
268.82 83.43 -5.49 
268.88 83.45 -4.71 
268.89 83.29 -3.91 
269.30 83.21 -6.16 
269.24 83.05 -5.47 
269.27 83.27 -5.22 
269.34 83.01 -4.46 
269.71 83.55 -3.51 
269.11 83.06 -2.93 
269.91 83.33 -6.77 
270.15 83.10 -6.44 
270.33 83.13 -5.69 
270.11 83.51 -4.90 
270.06 83.15 -4.12 
269.75 83.36 -3.72 
270.36 83.62 -2.18 
271.04 83.15 -6.88 
270.98 83.42 -6.07 
270.72 83.07 -5.67 
270.76 83.09 -5.15 
270.73 83.62 -4.23 
270.51 82.93 -3.44 
270.51 82.93 -3.07 
271.65 82.98 -6.50 
271.20 83.14 -5.78 
271.38 83.42 -4.84 
271.56 83.39 -4.48 
271.50 83.33 -3.63 
272.02 82.90 -6.49 
272.07 83.25 -5.40 
272.24 83.05 -4.69 
271.97 83.15 -4.37 
272.07 83.59 -3.76 
272.44 83.01 -2.50 
272.91 82.92 -6.42 
272.77 83.08 -4.94 
272.79 83.30 -4.47 
273.70 82.93 -6.31 
273.68 83.07 -4.37 
273.60 83.05 -3.64 
274.27 83.59 -5.28 
274.30 83.30 -4.59 
274.01 83.39 -4.30 
274.70 83.58 -4.91 
267.83 84.11 -5.37 
268.23 84.29 -4.96 
267.83 83.64 -4.40 
268.09 83.92 -3.66 
268.67 83.81 -6.38 
268.57 83.71 -5.33 
268.70 83.78 -5.07 
268.71 84.15 -4.54 
269.12 84.14 -6.26 
269.05 84.17 -5.56 
269.31 83.93 -4.71 
269.59 83.92 -4.32 
269.30 84.16 -3.77 
270.41 83.95 -6.05 
270.25 84.17 -5.80 
270.14 83.84 -4.64 
269.98 83.95 -3.78 
270.33 84.06 -2.95 
270.75 83.86 -6.40 
270.69 84.10 -5.57 
271.00 83.90 -5.01 
270.89 84.02 -4.18 
270.91 84.11 -3.76 
271.35 84.00 -6.38 
271.12 83.72 -5.65 
271.23 84.18 -4.71 
271.37 83.84 -4.16 
271.75 83.77 -3.41 
271.83 83.97 -6.32 
272.14 83.87 -5.47 
272.08 83.86 -4.92 
272.48 83.79 -4.07 
272.21 84.26 -3.46 
272.99 83.84 -4.63 
273.10 83.67 -4.29 
273.04 83.83 -3.25 
273.63 83.93 -5.46 
274.67 83.69 -5.09 
274.72 83.64 -4.43 
268.07 84.49 -5.40 
268.05 84.53 -4.96 
268.45 84.54 -5.62 
268.90 84.82 -4.81 
268.70 84.55 -4.28 
269.05 84.68 -6.26 
269.19 84.63 -5.58 
269.30 84.60 -4.72 
269.83 84.46 -6.16 
270.27 84.69 -5.81 
270.09 84.59 -4.65 
270.23 84.55 -4.29 
270.26 84.58 -3.68 
271.06 84.67 -6.60 
270.99 84.94 -5.53 
270.63 84.48 -4.59 
270.65 84.50 -4.30 
270.86 85.00 -3.59 
271.25 84.72 -6.32 
271.60 84.45 -5.65 
271.75 85.01 -3.95 
271.73 85.01 -3.36 
272.10 84.66 -5.47 
272.36 84.64 -4.88 
272.17 84.59 -4.20 
271.85 84.63 -3.84 
272.47 84.93 -3.02 
272.76 84.57 -5.38 
273.03 84.65 -5.13 
272.58 84.45 -3.68 
273.56 84.75 -5.35 
273.77 84.35 -5.16 
274.01 84.37 -5.44 
268.09 85.21 -4.47 
268.90 85.16 -6.27 
268.80 85.38 -4.69 
269.32 85.31 -6.24 
270.10 85.46 -6.31 
270.95 85.07 -6.42 
270.63 85.45 -5.74 
270.83 85.08 -3.24 
272.87 85.11 -4.28 
