# .PCD v0.7 - Point Cloud Data file format
VERSION 0.7
FIELDS x y z
SIZE 4 4 4
TYPE F F F
COUNT 1 1 1
WIDTH 144
HEIGHT 1
VIEWPOINT 0 0 0 1 0 0 0
POINTS 144
DATA ascii
315.47 151.56 -0.86 
315.88 151.79 -0.46 
316.27 151.71 -0.86 
314.73 152.54 -0.56 
316.15 152.72 -0.76 
315.86 152.90 -0.23 
316.35 152.51 -0.93 
317.55 152.75 -1.87 
316.98 152.70 -1.01 
314.03 153.40 -2.11 
314.30 153.08 -0.57 
315.87 153.46 -1.29 
316.90 153.04 -2.39 
316.51 153.51 -2.05 
316.42 153.01 -0.93 
317.40 153.40 -2.26 
317.12 153.11 -1.69 
313.87 154.10 -2.10 
314.14 154.31 -1.38 
313.72 154.09 -1.35 
314.51 153.75 -2.12 
314.60 154.06 -1.89 
315.24 154.12 -1.80 
315.44 153.67 -1.16 
316.15 154.35 -2.13 
315.81 154.07 -1.78 
315.90 154.10 -0.10 
316.88 154.31 -2.12 
316.88 154.33 -1.66 
316.49 153.86 -0.74 
317.03 154.17 -2.27 
317.34 154.24 -1.79 
317.50 154.31 -1.30 
317.00 154.00 0.64 
313.25 154.56 -2.23 
313.21 154.72 -0.90 
313.91 154.68 -2.22 
314.07 154.61 -1.91 
314.10 154.66 -1.08 
313.51 154.60 -0.63 
314.30 154.40 -2.14 
314.69 154.53 -1.69 
314.66 154.61 -1.16 
315.12 154.64 -1.69 
315.13 154.84 -1.16 
316.10 154.80 -2.15 
315.87 154.60 -1.79 
315.82 154.71 -1.12 
315.63 155.01 -0.50 
316.87 154.41 -2.30 
316.53 154.58 -1.85 
316.69 154.74 -1.26 
316.99 154.48 -2.23 
317.39 154.45 -1.81 
317.39 154.42 -1.28 
317.42 154.75 -0.51 
317.39 154.97 0.70 
317.48 154.66 1.40 
313.94 155.07 -1.73 
313.60 155.11 -0.96 
314.86 155.58 -1.52 
314.67 155.68 -1.32 
315.29 155.12 -1.14 
316.05 155.54 -2.19 
315.70 155.60 -1.75 
316.02 155.10 -1.18 
316.23 155.31 1.14 
316.66 155.75 -1.80 
316.50 155.73 -1.22 
316.78 155.30 0.67 
316.86 155.49 1.37 
317.03 155.67 -1.83 
317.17 155.53 -1.17 
317.45 155.32 -0.23 
317.53 155.31 1.39 
313.28 156.13 -0.78 
313.78 156.35 -1.46 
314.44 155.94 -2.09 
314.54 156.19 -1.56 
314.57 156.11 -1.34 
314.90 155.90 -2.12 
315.41 155.92 -1.72 
315.55 155.89 -1.03 
315.95 156.13 -2.24 
315.98 156.35 -1.59 
315.79 156.39 -0.86 
316.73 155.83 -2.24 
316.64 156.06 -1.46 
316.38 156.05 -1.26 
316.31 156.03 1.14 
317.31 156.34 -1.50 
317.51 155.85 -0.88 
317.08 155.90 -0.34 
317.27 156.11 0.73 
317.49 156.22 1.31 
313.98 156.73 -1.68 
313.94 156.90 -1.30 
314.18 157.08 -2.07 
314.44 156.50 -1.64 
315.32 157.06 -2.25 
315.28 156.76 -1.84 
314.98 156.91 -1.17 
315.99 156.88 -2.29 
315.88 156.77 -1.75 
315.97 156.88 -1.27 
316.60 156.74 -1.61 
316.76 157.13 0.40 
317.54 157.03 -0.68 
313.33 157.49 -2.04 
314.67 157.23 -2.22 
314.72 157.25 -1.69 
314.43 157.60 -1.13 
315.32 157.06 -2.25 
315.26 157.32 -2.02 
315.05 157.53 -0.98 
315.86 157.27 -2.52 
315.74 157.51 -1.28 
316.48 157.35 -1.46 
316.46 157.54 -1.26 
317.54 157.80 -2.21 
317.60 157.44 -1.66 
317.53 157.39 0.11 
317.19 157.42 1.05 
314.70 158.07 -1.95 
316.64 158.50 -2.16 
317.59 158.12 -3.46 
317.40 158.55 -2.09 
317.21 158.54 -1.62 
317.17 158.33 -1.20 
316.88 158.74 -1.61 
317.40 159.26 -3.02 
317.33 158.98 -1.86 
317.21 158.83 -1.21 
316.49 159.79 -3.03 
317.31 159.55 -2.83 
317.19 159.88 -2.57 
317.27 159.84 -1.85 
316.61 160.47 -2.99 
316.76 160.14 -2.72 
316.94 160.18 -1.53 
317.49 160.00 -2.59 
317.39 160.07 -1.76 
317.48 160.42 -1.17 
317.55 160.00 -0.62 
