# .PCD v0.7 - Point Cloud Data file format
VERSION 0.7
FIELDS x y z
SIZE 4 4 4
TYPE F F F
COUNT 1 1 1
WIDTH 419
HEIGHT 1
VIEWPOINT 0 0 0 1 0 0 0
POINTS 419
DATA ascii
292.66 -113.83 -13.33 
292.65 -113.66 -12.24 
293.58 -113.54 -12.23 
294.13 -113.28 -12.27 
295.04 -113.16 -12.27 
295.65 -113.24 -12.18 
316.65 -113.39 -12.95 
293.52 -112.53 -12.18 
294.38 -112.51 -12.31 
294.84 -112.77 -12.36 
295.47 -113.10 -12.27 
311.29 -112.62 -13.21 
316.46 -112.56 -13.11 
293.63 -112.07 -12.99 
293.62 -112.07 -12.18 
294.18 -112.23 -12.20 
294.79 -111.95 -12.22 
296.99 -111.76 -12.31 
309.34 -112.10 -13.10 
310.26 -111.83 -13.06 
312.47 -112.17 -13.15 
293.01 -111.45 -13.23 
293.01 -111.44 -12.23 
293.75 -111.13 -12.25 
294.45 -111.45 -12.25 
295.05 -111.44 -12.22 
295.69 -111.52 -12.24 
296.23 -111.28 -13.41 
296.71 -111.41 -12.33 
297.02 -111.54 -13.38 
297.18 -111.46 -12.22 
297.79 -111.17 -12.21 
309.59 -111.39 -13.10 
294.44 -110.84 -12.26 
295.10 -110.56 -12.27 
296.31 -110.88 -12.25 
297.45 -110.73 -12.28 
297.90 -110.53 -12.29 
298.83 -110.68 -12.18 
299.21 -110.51 -13.41 
299.11 -110.55 -12.18 
295.72 -110.30 -12.28 
298.10 -110.12 -13.11 
298.10 -110.11 -12.62 
298.55 -110.23 -12.30 
299.79 -110.21 -12.16 
317.40 -110.14 -11.72 
294.08 -109.05 -13.15 
294.42 -109.27 -12.34 
300.72 -109.24 -13.41 
300.72 -109.24 -12.33 
301.19 -109.30 -12.32 
316.26 -109.03 -11.70 
316.67 -109.48 -11.67 
293.29 -108.28 -12.98 
293.29 -108.28 -12.41 
293.29 -108.28 -11.84 
293.29 -108.29 -11.27 
293.29 -108.29 -10.69 
293.59 -108.44 -13.17 
293.59 -108.44 -12.25 
293.59 -108.44 -11.79 
301.22 -108.73 -12.91 
303.19 -108.46 -13.33 
303.41 -108.27 -12.28 
315.88 -108.54 -11.72 
292.84 -107.87 -13.38 
292.83 -107.87 -12.70 
292.73 -107.78 -12.02 
292.72 -107.77 -11.11 
292.71 -107.76 -10.21 
292.80 -107.86 -9.97 
302.59 -108.12 -13.03 
303.04 -108.18 -12.56 
304.21 -108.01 -12.26 
304.48 -108.18 -11.75 
304.82 -107.65 -12.30 
305.47 -107.99 -12.18 
315.13 -107.61 -11.77 
315.76 -108.09 -12.22 
315.76 -108.09 -11.82 
301.43 -107.21 -13.12 
303.55 -106.87 -12.60 
304.53 -106.96 -12.39 
304.08 -107.40 -11.78 
304.54 -106.96 -13.29 
305.08 -107.38 -12.62 
305.87 -107.30 -12.28 
306.37 -107.13 -12.27 
306.68 -107.03 -12.52 
314.88 -107.04 -11.87 
315.30 -107.51 -11.85 
303.72 -106.39 -12.87 
303.71 -106.39 -12.28 
303.77 -106.69 -11.81 
303.87 -106.47 -13.26 
303.85 -106.42 -12.77 
307.14 -106.49 -13.09 
307.13 -106.49 -12.36 
307.52 -106.50 -12.25 
314.47 -106.53 -12.80 
314.47 -106.53 -12.26 
314.48 -106.53 -11.90 
301.25 -105.55 -13.35 
306.62 -105.70 -12.21 
308.34 -105.84 -12.24 
306.99 -105.41 -12.23 
307.95 -104.80 -13.22 
307.66 -104.94 -12.25 
308.29 -104.95 -13.16 
308.29 -104.95 -12.78 
309.09 -105.35 -12.23 
309.62 -105.05 -12.21 
300.22 -104.07 -12.64 
300.44 -104.08 -12.09 
301.10 -104.06 -12.40 
307.55 -104.68 -12.19 
308.47 -104.19 -12.21 
309.13 -104.19 -12.29 
310.65 -104.32 -12.32 
312.73 -104.47 -13.23 
312.72 -104.46 -12.36 
312.81 -104.53 -11.91 
300.70 -103.65 -12.27 
301.44 -103.73 -12.08 
302.15 -103.68 -12.00 
309.28 -103.79 -12.23 
310.13 -104.01 -12.86 
309.90 -103.80 -12.30 
310.14 -104.01 -13.10 
310.20 -103.36 -12.24 
312.09 -103.73 -12.28 
312.53 -103.57 -12.26 
299.74 -103.25 -13.34 
300.41 -103.07 -12.30 
301.63 -103.28 -12.26 
302.52 -103.06 -12.26 
310.71 -103.19 -12.25 
311.46 -102.71 -13.24 
311.34 -102.99 -12.26 
311.65 -102.89 -12.78 
311.95 -103.04 -12.34 
311.96 -103.04 -12.07 
312.33 -103.14 -12.33 
312.33 -103.14 -12.09 
312.99 -103.25 -12.25 
313.67 -102.68 -12.23 
316.06 -102.99 -12.80 
316.04 -102.95 -11.99 
299.43 -102.12 -12.14 
299.28 -102.59 -12.08 
299.79 -102.34 -12.57 
300.19 -102.24 -12.07 
300.36 -102.09 -12.12 
311.47 -102.62 -12.46 
311.72 -102.54 -12.22 
313.34 -101.93 -12.38 
313.70 -102.03 -12.31 
313.70 -102.03 -12.07 
314.90 -102.58 -11.67 
315.25 -102.08 -12.63 
316.12 -102.11 -12.16 
316.11 -102.07 -11.40 
312.87 -101.61 -12.37 
313.34 -101.92 -12.12 
314.05 -101.35 -11.76 
314.71 -101.82 -12.20 
315.17 -101.24 -12.60 
315.30 -101.30 -11.70 
316.21 -101.38 -11.94 
316.21 -101.36 -11.15 
316.56 -101.48 -12.34 
316.55 -101.45 -11.57 
313.66 -100.81 -12.58 
313.64 -100.76 -11.80 
314.88 -101.08 -12.28 
314.81 -100.63 -11.74 
315.30 -100.76 -12.39 
315.28 -100.73 -11.65 
316.15 -100.89 -12.20 
316.48 -100.60 -12.21 
307.35 -100.16 -12.23 
313.50 -100.28 -12.05 
314.32 -99.98 -11.77 
314.87 -100.01 -12.23 
315.62 -100.47 -12.25 
316.31 -100.36 -12.18 
316.61 -100.10 -12.19 
317.37 -100.07 -12.90 
307.18 -99.48 -11.99 
307.38 -99.65 -12.44 
316.92 -99.33 -13.05 
316.78 -99.30 -12.06 
317.41 -99.41 -13.28 
317.14 -99.25 -12.36 
317.14 -99.25 -12.10 
307.19 -98.77 -12.02 
308.02 -98.92 -11.98 
308.33 -98.51 -11.82 
312.44 -98.71 -12.87 
312.42 -98.67 -12.14 
315.05 -98.55 -13.33 
317.08 -99.04 -12.07 
317.41 -99.01 -12.11 
317.14 -98.92 -12.08 
308.34 -97.75 -12.13 
308.17 -98.26 -12.01 
308.63 -98.03 -11.06 
308.84 -98.38 -11.98 
312.69 -98.20 -12.94 
312.67 -98.17 -12.20 
313.54 -98.29 -13.21 
313.31 -98.08 -12.55 
313.92 -97.81 -13.03 
314.83 -97.99 -12.98 
317.52 -97.75 -13.07 
310.02 -97.09 -13.34 
311.50 -97.24 -12.25 
310.98 -97.33 -11.86 
314.94 -97.42 -13.12 
315.96 -97.45 -12.91 
316.77 -97.27 -12.87 
317.34 -97.38 -12.84 
310.80 -96.59 -11.77 
311.47 -96.49 -13.04 
311.52 -96.59 -12.26 
311.17 -96.89 -11.79 
311.83 -96.81 -11.85 
312.76 -96.72 -11.70 
313.43 -96.86 -13.11 
314.32 -96.75 -13.18 
314.92 -96.42 -12.85 
315.46 -96.91 -12.94 
316.03 -96.86 -13.06 
316.99 -96.74 -12.86 
310.28 -95.90 -12.84 
310.51 -95.67 -12.54 
311.66 -95.91 -13.25 
312.10 -96.19 -11.79 
312.64 -95.91 -12.98 
312.41 -96.30 -12.35 
312.64 -95.82 -11.61 
313.22 -95.89 -13.06 
313.21 -95.89 -12.19 
313.45 -96.26 -11.71 
314.21 -96.28 -13.08 
314.12 -95.79 -11.71 
314.98 -96.02 -13.16 
316.94 -96.33 -13.11 
317.35 -95.85 -12.95 
311.25 -95.35 -13.24 
311.92 -94.98 -13.26 
312.87 -95.42 -13.33 
312.79 -95.63 -11.81 
313.51 -95.09 -13.15 
313.06 -95.06 -11.77 
314.31 -95.45 -12.89 
313.83 -95.14 -11.61 
314.50 -95.17 -13.03 
314.80 -95.04 -11.49 
315.62 -95.45 -13.14 
316.26 -95.14 -13.01 
316.83 -95.28 -12.96 
317.30 -95.60 -12.99 
312.68 -94.40 -13.22 
312.90 -94.61 -12.56 
312.91 -94.60 -11.60 
313.54 -94.88 -13.31 
313.09 -94.74 -11.89 
314.08 -94.43 -13.13 
313.77 -94.60 -11.77 
314.70 -94.30 -13.10 
315.03 -94.55 -12.19 
314.43 -94.89 -11.76 
315.16 -94.74 -13.00 
315.19 -94.43 -12.41 
315.45 -94.35 -11.69 
316.32 -94.73 -12.97 
316.32 -94.61 -12.19 
315.99 -94.44 -11.70 
316.86 -94.61 -13.11 
317.47 -94.33 -13.10 
303.73 -93.53 -9.33 
304.26 -93.64 -9.76 
304.13 -93.73 -8.81 
305.04 -93.72 -10.16 
304.65 -93.71 -9.44 
312.79 -93.81 -13.34 
312.76 -94.21 -11.88 
313.33 -93.77 -13.25 
313.80 -93.56 -12.90 
313.76 -93.57 -12.25 
313.96 -93.78 -12.07 
314.76 -93.94 -13.11 
314.40 -94.20 -12.14 
314.88 -94.10 -11.92 
315.14 -94.10 -13.19 
315.10 -93.72 -11.77 
315.87 -94.08 -13.05 
315.82 -94.07 -12.28 
315.85 -93.97 -11.74 
316.85 -93.85 -13.12 
316.52 -93.56 -11.74 
317.39 -93.98 -13.08 
317.19 -93.61 -11.70 
302.97 -93.22 -10.12 
303.27 -93.08 -11.01 
303.56 -93.14 -9.72 
304.48 -93.46 -11.64 
304.43 -93.01 -11.21 
304.42 -93.27 -10.16 
304.04 -93.22 -9.42 
304.67 -93.15 -11.02 
305.16 -93.27 -10.16 
314.70 -93.22 -13.24 
314.88 -93.06 -12.06 
315.29 -93.01 -13.22 
315.60 -93.40 -11.78 
315.84 -92.93 -13.11 
316.21 -92.92 -11.79 
316.74 -93.13 -13.36 
316.69 -93.36 -11.71 
317.57 -93.04 -13.18 
317.17 -93.17 -11.73 
301.35 -92.21 -10.08 
302.80 -92.63 -10.64 
303.58 -92.63 -11.20 
304.69 -92.54 -11.61 
304.79 -92.72 -11.00 
314.88 -92.56 -13.23 
315.37 -92.48 -13.35 
316.05 -92.41 -13.15 
317.01 -92.54 -13.13 
316.80 -92.45 -11.79 
317.46 -92.79 -13.11 
317.51 -92.18 -11.76 
301.62 -91.68 -9.39 
305.59 -91.44 -10.25 
313.38 -91.48 -13.46 
314.44 -92.08 -13.25 
315.08 -91.51 -13.25 
316.95 -91.85 -13.31 
317.30 -91.98 -13.07 
317.25 -92.01 -12.50 
317.39 -92.00 -11.80 
302.37 -90.98 -11.00 
302.35 -90.97 -10.14 
302.97 -90.99 -11.00 
303.10 -90.79 -10.32 
303.03 -90.88 -9.74 
303.16 -90.78 -11.91 
303.62 -91.07 -11.17 
305.20 -90.78 -10.99 
305.53 -90.98 -10.77 
305.50 -91.00 -10.36 
315.75 -91.03 -13.26 
316.51 -90.84 -13.37 
302.37 -90.43 -10.47 
302.41 -90.42 -9.50 
302.66 -90.43 -11.93 
302.92 -90.18 -11.13 
302.63 -90.40 -10.53 
303.38 -90.31 -10.83 
303.17 -90.25 -10.38 
303.38 -90.13 -9.93 
303.82 -90.40 -9.02 
304.51 -90.57 -10.85 
304.10 -90.04 -10.35 
304.18 -90.48 -9.86 
304.92 -90.22 -11.20 
304.55 -90.21 -10.69 
304.93 -90.27 -9.73 
305.49 -90.51 -10.75 
305.48 -90.58 -10.33 
305.83 -90.19 -9.09 
306.44 -90.34 -9.60 
307.19 -90.72 -10.77 
306.84 -90.10 -10.66 
306.69 -90.07 -8.96 
307.94 -90.07 -9.55 
308.23 -90.29 -11.80 
308.33 -90.16 -9.08 
309.93 -90.41 -9.64 
309.98 -90.09 -9.19 
310.28 -90.39 -9.67 
310.15 -90.29 -8.93 
316.42 -90.54 -13.27 
317.09 -90.08 -13.27 
316.83 -90.65 -12.62 
301.51 -89.53 -11.13 
302.24 -89.91 -11.13 
303.00 -89.54 -11.94 
303.10 -89.77 -10.53 
303.59 -89.83 -11.92 
303.40 -89.90 -10.51 
304.09 -89.81 -10.70 
304.29 -89.95 -10.69 
304.32 -89.97 -9.00 
304.88 -90.02 -10.26 
305.29 -89.80 -11.74 
305.48 -90.14 -10.90 
305.67 -89.97 -10.27 
305.47 -89.93 -9.13 
306.32 -89.69 -11.13 
306.51 -89.81 -9.34 
306.75 -89.62 -10.66 
306.99 -89.76 -9.64 
307.63 -89.62 -11.37 
307.77 -89.58 -10.99 
307.47 -89.84 -9.58 
308.14 -89.57 -11.70 
308.17 -89.63 -11.05 
308.42 -89.59 -9.92 
308.66 -89.57 -8.91 
309.10 -90.00 -12.00 
308.80 -89.90 -10.35 
309.38 -89.89 -9.71 
308.92 -89.61 -8.87 
310.12 -89.84 -9.68 
