# .PCD v0.7 - Point Cloud Data file format
VERSION 0.7
FIELDS x y z
SIZE 4 4 4
TYPE F F F
COUNT 1 1 1
WIDTH 1204
HEIGHT 1
VIEWPOINT 0 0 0 1 0 0 0
POINTS 1204
DATA ascii
341.11 186.21 -0.76 
342.07 186.19 -3.17 
341.66 186.14 -3.01 
342.07 186.28 -2.20 
341.95 185.93 -1.10 
342.02 186.09 -1.04 
341.77 185.88 -0.20 
342.06 186.27 0.50 
342.51 186.33 -3.03 
342.38 186.32 -2.07 
342.46 186.13 -1.23 
342.41 185.95 -0.89 
342.36 185.93 0.26 
340.71 186.78 -1.82 
340.48 186.60 -1.19 
341.29 186.95 -3.11 
341.29 186.95 -2.60 
341.29 186.95 -2.10 
341.10 186.83 -1.24 
341.29 186.94 -0.55 
341.37 186.94 -0.10 
340.92 186.72 0.42 
341.64 186.72 -3.52 
341.63 186.72 -2.91 
341.65 186.73 -2.09 
341.87 186.66 -1.23 
341.86 186.66 -0.64 
341.85 186.66 -0.05 
341.44 186.94 0.48 
342.16 186.65 -3.39 
342.16 186.65 -2.80 
342.28 186.86 -2.16 
342.48 186.91 -1.42 
342.31 186.67 -0.68 
342.23 186.66 -0.16 
339.64 187.62 -1.17 
340.51 187.47 -3.57 
340.65 187.47 -2.86 
340.79 187.63 -1.98 
340.63 187.47 -1.14 
340.62 187.48 -0.56 
340.39 187.45 -0.16 
340.45 187.65 0.43 
341.02 187.45 -3.24 
341.15 187.60 -2.88 
341.17 187.50 -2.18 
340.98 187.48 -1.44 
341.18 187.43 -0.65 
341.13 187.59 0.06 
341.11 187.62 0.51 
341.96 187.12 -3.54 
341.93 187.15 -2.89 
341.72 187.27 -2.15 
341.69 187.33 -1.46 
341.78 187.56 -0.69 
341.67 187.45 0.00 
341.66 187.45 0.77 
342.45 187.56 -3.15 
342.51 187.30 -2.98 
342.45 187.56 -2.20 
342.35 187.43 -1.16 
342.38 187.27 -0.66 
342.42 187.28 0.01 
342.45 187.04 0.68 
339.28 187.91 -3.06 
339.27 187.92 -2.09 
339.26 187.92 -1.11 
339.21 188.27 -0.48 
339.25 187.91 -0.13 
339.84 188.27 -3.58 
339.71 188.18 -2.82 
339.83 188.27 -2.00 
339.65 188.26 -1.39 
339.92 188.19 -0.62 
339.67 188.19 -0.15 
339.94 188.18 0.63 
340.41 187.97 -3.54 
340.52 187.97 -2.91 
340.29 188.01 -2.15 
340.39 187.96 -1.33 
340.39 187.96 -0.78 
340.17 188.12 0.15 
340.52 187.96 0.41 
341.21 188.24 -3.54 
341.12 188.12 -2.93 
341.13 188.12 -2.13 
341.13 188.12 -1.32 
341.06 188.07 -0.84 
341.25 188.05 -0.23 
341.25 188.04 0.50 
341.65 188.13 -3.20 
341.65 188.13 -2.73 
341.65 188.13 -2.26 
341.64 188.12 -1.31 
341.84 188.04 -0.67 
341.55 188.16 0.09 
341.75 187.85 0.53 
342.31 188.19 -3.16 
342.26 188.14 -2.61 
342.26 188.14 -2.12 
342.26 188.14 -1.63 
342.37 188.00 -0.42 
342.35 188.14 0.20 
342.12 188.29 0.78 
338.17 188.77 -3.31 
338.20 188.96 -1.23 
339.07 188.84 -3.61 
339.06 188.84 -2.81 
339.05 188.84 -2.02 
339.12 188.92 -1.11 
338.68 188.81 -0.46 
339.85 188.88 -3.14 
339.96 189.01 -2.72 
339.77 188.97 -2.23 
339.70 188.86 -1.13 
339.73 188.70 -0.77 
339.87 189.11 -0.10 
340.30 188.84 -3.20 
340.30 188.84 -2.72 
340.40 188.98 -2.05 
340.29 188.83 -1.28 
340.19 188.75 -0.51 
340.41 188.86 0.14 
340.59 188.58 0.39 
341.02 188.84 -3.12 
340.96 188.56 -2.91 
341.09 188.62 -1.93 
341.01 188.84 -1.53 
341.14 188.77 -0.50 
341.00 188.84 0.07 
340.76 188.90 0.53 
341.83 188.53 -3.25 
341.73 188.59 -2.90 
341.73 188.60 -1.99 
341.81 188.53 -1.53 
341.83 188.46 -0.39 
341.79 188.54 0.20 
341.56 188.61 0.41 
337.19 189.65 -3.38 
337.16 189.66 -2.49 
336.96 189.65 -1.33 
337.11 189.68 -0.70 
337.63 189.71 -1.18 
337.79 189.32 -0.55 
338.56 189.63 -3.17 
338.56 189.74 -2.70 
338.56 189.62 -1.84 
338.29 189.49 -1.13 
338.30 189.72 -0.71 
338.23 189.38 0.29 
339.04 189.46 -3.42 
338.91 189.56 -2.71 
339.02 189.72 -1.93 
338.91 189.55 -1.25 
339.05 189.45 -0.53 
338.92 189.68 -0.02 
339.60 189.47 -3.45 
339.60 189.47 -2.88 
339.63 189.43 -2.08 
339.62 189.40 -1.49 
339.57 189.41 -0.54 
339.56 189.48 0.02 
339.54 189.73 0.52 
340.17 189.40 -3.35 
340.16 189.40 -2.72 
340.26 189.44 -2.07 
340.37 189.36 -1.55 
340.12 189.24 -0.60 
340.07 189.38 0.16 
340.14 189.40 0.45 
340.75 189.16 -3.23 
340.73 189.16 -2.35 
340.72 189.17 -1.47 
335.07 190.29 -0.90 
335.17 190.07 -1.01 
335.49 190.44 -0.85 
336.08 190.31 -3.42 
336.06 190.32 -2.55 
336.20 190.49 -1.24 
335.99 190.35 0.07 
336.62 190.35 -2.92 
336.61 190.35 -2.17 
336.97 190.15 -1.14 
336.96 190.36 -0.82 
336.58 190.36 0.08 
337.62 190.41 -3.20 
337.78 190.50 -2.67 
337.78 190.45 -2.00 
337.43 190.08 -1.26 
337.55 190.26 -0.62 
337.35 190.31 0.04 
338.27 190.21 -3.49 
338.24 190.24 -2.61 
338.24 190.24 -2.07 
338.19 190.22 -1.42 
338.29 190.03 -0.49 
338.22 190.21 -0.11 
338.57 190.39 0.77 
338.67 190.01 -3.15 
338.94 190.14 -2.68 
338.93 190.14 -2.03 
338.93 190.14 -1.37 
338.92 190.14 -0.72 
338.92 190.14 -0.06 
338.84 190.18 0.76 
339.61 189.82 -3.21 
339.35 189.85 -2.63 
339.51 189.83 -2.07 
339.51 189.83 -1.53 
339.57 189.83 -0.49 
339.54 189.73 0.52 
340.18 190.04 -3.00 
340.15 190.05 -2.00 
340.10 190.07 0.02 
333.57 190.91 -0.91 
333.90 190.89 -1.01 
334.30 191.09 -0.91 
335.03 190.94 -3.46 
335.00 190.95 -2.61 
334.98 190.96 -1.76 
335.06 190.67 -0.84 
334.93 190.97 -0.06 
335.62 190.98 -1.22 
335.55 191.15 -0.97 
335.80 190.82 -0.01 
336.25 191.01 -3.23 
336.25 191.01 -2.60 
336.25 191.00 -1.97 
336.11 190.74 -1.13 
336.25 191.00 -0.71 
336.26 190.99 -0.07 
336.81 191.03 -3.20 
336.74 191.08 -2.66 
336.97 190.92 -2.04 
336.96 190.91 -1.33 
336.91 190.81 -0.65 
336.97 190.96 -0.01 
337.16 191.09 0.67 
337.42 190.71 -3.20 
337.57 190.85 -2.87 
337.51 190.83 -2.10 
337.58 190.84 -1.45 
337.53 190.58 -0.46 
337.47 190.69 0.05 
337.63 190.84 0.62 
338.09 190.79 -3.52 
338.31 190.63 -2.90 
338.14 190.70 -2.28 
338.13 190.70 -1.53 
338.13 190.86 -0.65 
338.13 190.70 -0.02 
338.28 190.63 0.49 
338.73 190.90 -3.16 
338.73 190.90 -2.66 
338.98 190.82 -2.12 
338.98 190.82 -1.61 
338.82 191.06 -0.73 
339.45 190.53 -2.14 
339.45 190.70 -0.80 
332.71 191.45 -1.13 
333.71 191.91 -1.28 
333.51 191.49 -0.99 
334.02 191.53 -3.50 
334.38 191.68 -3.02 
334.38 191.23 -1.97 
334.05 191.71 -1.27 
334.03 191.65 -0.93 
334.34 191.68 -0.18 
334.34 191.68 0.53 
334.94 191.89 -3.29 
335.16 191.64 -2.64 
334.96 191.85 -1.96 
334.68 191.44 -1.17 
334.88 191.51 -0.96 
334.92 191.89 0.04 
335.62 191.74 -3.24 
335.62 191.74 -2.72 
335.64 191.81 -2.09 
335.60 191.69 -1.32 
335.54 191.54 -0.52 
335.59 191.70 -0.16 
336.12 191.58 -3.23 
336.12 191.44 -2.70 
336.06 191.50 -2.03 
336.04 191.48 -1.28 
335.97 191.50 -0.58 
336.02 191.49 -0.11 
336.27 191.68 0.69 
336.63 191.40 -3.11 
336.54 191.41 -2.85 
336.64 191.31 -2.06 
336.79 191.26 -1.42 
336.72 191.61 -0.62 
336.56 191.35 0.03 
336.55 191.35 0.72 
337.66 191.47 -3.17 
337.30 191.65 -2.67 
337.56 191.57 -2.11 
337.55 191.57 -1.60 
337.55 191.69 -0.75 
338.02 191.28 -3.17 
338.46 191.73 -2.99 
338.08 191.42 -2.08 
338.08 191.42 -1.56 
338.00 191.42 -0.79 
338.34 191.91 0.13 
338.53 191.77 0.95 
338.73 191.74 -3.12 
338.96 191.63 -3.07 
338.95 191.63 -2.29 
338.94 191.63 -1.52 
338.93 191.63 0.05 
338.92 191.63 0.83 
339.51 191.28 -2.40 
339.50 191.28 -1.65 
332.03 192.23 -1.14 
332.70 192.00 -3.57 
332.82 191.98 -2.99 
332.81 191.98 -1.91 
332.79 192.57 -1.04 
332.80 192.44 -0.36 
332.79 191.98 0.26 
333.64 192.53 -3.29 
333.64 192.52 -2.70 
333.65 192.52 -2.11 
333.57 192.34 -1.20 
333.57 192.41 -0.73 
333.55 192.45 -0.34 
334.19 192.54 -3.24 
334.19 192.54 -2.73 
334.21 192.44 -2.01 
334.20 192.45 -1.48 
334.01 192.28 -0.48 
334.29 192.56 -0.13 
334.28 192.56 0.54 
334.67 192.22 -3.19 
334.67 192.22 -2.66 
334.71 192.19 -1.95 
334.71 192.19 -1.38 
334.89 192.15 -0.66 
334.63 192.27 -0.15 
334.53 192.43 0.70 
335.30 192.02 -3.36 
335.27 192.02 -2.61 
335.24 192.06 -2.00 
335.34 192.01 -1.42 
335.34 192.19 -0.72 
335.17 192.06 0.16 
335.33 191.96 0.60 
336.24 192.21 -3.18 
336.24 192.21 -2.68 
336.25 192.40 -2.20 
336.25 192.40 -1.55 
336.07 192.19 -0.44 
336.26 192.27 -0.26 
336.85 192.08 -3.50 
336.85 192.08 -2.86 
336.84 192.08 -2.23 
336.91 192.05 -1.52 
336.96 192.27 -0.58 
337.12 192.50 -0.05 
337.08 192.57 0.62 
337.83 192.25 -3.27 
337.56 192.24 -2.97 
337.47 192.43 -2.22 
337.66 192.29 -1.41 
337.80 192.34 -0.80 
337.64 192.29 0.23 
337.88 192.21 0.77 
337.92 192.21 -3.11 
338.02 191.98 -2.98 
338.13 192.03 -2.27 
338.00 191.98 -1.28 
337.99 191.96 -0.14 
338.10 192.03 0.92 
329.49 193.24 -3.65 
330.65 193.23 -3.64 
330.69 192.90 -1.27 
330.84 193.14 -0.54 
331.38 193.17 -3.59 
331.36 193.18 -2.82 
331.34 193.18 -2.04 
331.37 193.11 -1.13 
331.58 193.22 -0.95 
331.73 193.21 -3.13 
331.90 193.49 -2.61 
332.05 193.53 -2.14 
332.08 192.94 -1.07 
332.17 193.15 -0.77 
332.84 193.27 -3.23 
332.84 193.27 -2.71 
332.74 193.24 -2.07 
332.81 193.11 -1.52 
332.55 192.95 -0.71 
332.83 193.29 -0.07 
332.84 193.28 0.88 
333.33 193.10 -3.24 
333.19 193.06 -2.71 
333.34 193.02 -2.05 
333.34 193.02 -1.51 
333.28 192.80 -0.45 
333.29 193.05 -0.10 
333.28 193.26 0.58 
333.86 192.75 -3.26 
333.90 192.72 -2.70 
333.90 192.76 -2.01 
333.90 192.76 -1.48 
333.89 192.72 -0.72 
334.13 192.71 -0.03 
334.12 192.71 0.90 
334.86 192.93 -3.19 
334.86 192.93 -2.68 
334.86 192.93 -2.17 
334.85 193.13 -1.43 
334.53 192.83 -0.54 
334.53 192.66 0.29 
335.22 192.74 -3.18 
335.53 192.58 -2.68 
335.36 192.72 -2.08 
335.27 192.90 -1.45 
335.75 193.08 -0.49 
335.71 193.25 -0.30 
336.19 193.04 -2.94 
336.32 193.09 -2.20 
336.31 193.09 -1.37 
336.20 193.13 -0.67 
336.19 193.13 0.14 
335.94 193.24 0.74 
336.67 192.77 -3.53 
336.67 192.77 -2.95 
336.74 192.83 -2.19 
336.73 192.83 -1.36 
337.08 192.61 0.06 
337.18 192.69 0.82 
337.23 192.67 -3.14 
337.22 192.68 -2.16 
329.22 193.80 -0.50 
329.68 193.81 -2.87 
329.66 193.82 -2.07 
329.96 193.93 -1.21 
330.02 193.74 -0.68 
330.54 193.91 -3.17 
330.54 193.91 -2.54 
330.53 193.91 -1.90 
330.46 193.60 -1.22 
330.78 193.91 -0.78 
331.33 193.84 -3.33 
331.33 193.84 -2.77 
331.34 193.84 -2.22 
331.37 193.86 -1.20 
331.26 193.63 -0.68 
331.47 193.89 -0.22 
332.07 193.78 -3.28 
331.92 193.71 -2.68 
332.02 193.65 -2.06 
331.97 193.75 -1.52 
331.76 193.40 -0.52 
331.87 193.79 0.00 
332.00 193.65 0.66 
332.57 193.40 -3.29 
332.55 193.42 -2.66 
332.55 193.43 -2.03 
332.55 193.43 -1.48 
332.35 193.41 -0.40 
332.46 193.46 0.02 
332.45 193.46 0.72 
333.42 193.69 -3.18 
333.05 193.88 -2.67 
333.47 193.73 -2.04 
333.47 193.73 -1.51 
333.41 193.69 -0.62 
333.53 193.66 -0.24 
333.79 193.50 -3.19 
333.78 193.50 -2.68 
333.98 193.56 -1.95 
333.98 193.56 -1.39 
334.15 193.89 -0.45 
334.35 193.41 -0.08 
334.87 193.95 -3.22 
334.77 193.93 -2.95 
334.77 193.93 -2.00 
334.65 193.91 -1.68 
334.57 193.63 -0.58 
334.75 193.93 -0.09 
334.84 193.95 0.57 
335.65 193.50 -3.24 
335.58 193.53 -3.00 
335.57 193.54 -2.15 
335.56 193.54 -1.30 
335.28 193.66 -0.59 
335.27 193.66 0.24 
335.62 193.49 0.49 
335.89 193.45 -3.12 
335.87 193.45 -2.11 
335.85 193.46 -0.07 
328.24 194.27 -2.88 
328.21 194.28 -2.04 
328.73 194.54 -1.29 
328.24 194.64 -0.87 
329.43 194.57 -3.22 
329.42 194.57 -2.60 
328.92 194.61 -2.22 
329.23 194.39 -1.22 
329.31 194.57 -0.71 
328.87 194.63 -0.03 
330.05 194.59 -3.35 
330.05 194.58 -2.81 
330.05 194.70 -2.19 
329.96 194.25 -1.30 
329.81 194.41 -0.75 
330.13 194.62 -0.13 
330.09 194.72 0.68 
330.54 194.44 -3.41 
330.64 194.44 -2.69 
330.54 194.52 -1.97 
330.53 194.51 -1.41 
330.41 194.24 -0.62 
330.54 194.45 -0.15 
330.57 194.58 0.59 
331.20 194.13 -3.32 
331.19 194.13 -2.70 
331.30 194.30 -1.95 
331.30 194.30 -1.40 
331.21 194.49 -0.70 
330.98 194.22 -0.18 
331.11 194.14 0.52 
331.83 194.06 -3.29 
331.94 194.45 -2.66 
331.94 194.45 -2.15 
332.14 194.52 -1.28 
332.14 194.52 -0.70 
332.27 194.58 0.13 
332.68 194.15 -3.09 
332.68 194.07 -2.67 
332.67 194.15 -2.02 
332.67 194.15 -1.48 
332.61 194.27 -0.73 
333.00 194.13 0.05 
333.04 194.13 -3.47 
333.51 194.66 -2.92 
333.58 194.48 -2.25 
333.02 194.13 -1.37 
333.53 194.30 -0.49 
333.48 194.66 0.02 
333.62 194.62 0.63 
334.05 194.42 -3.21 
334.34 194.24 -2.99 
334.33 194.24 -2.12 
334.32 194.22 -1.36 
334.10 194.21 0.23 
334.02 194.42 0.67 
334.55 194.13 -2.98 
334.54 194.13 -2.11 
334.53 194.13 -1.24 
334.52 194.13 -0.36 
334.51 194.13 0.52 
326.17 195.33 -2.86 
326.12 195.35 -1.84 
326.54 195.27 -1.03 
326.35 195.29 -0.83 
327.17 195.37 -3.01 
327.15 195.38 -2.26 
327.19 194.90 -1.29 
327.30 194.82 -0.72 
327.08 195.41 0.02 
328.00 194.88 -2.97 
327.98 194.89 -2.19 
327.77 195.09 -1.28 
327.88 195.34 -0.76 
328.41 195.22 -3.25 
328.40 195.22 -2.65 
328.39 195.22 -2.04 
328.49 194.97 -1.37 
328.53 195.16 -0.75 
328.32 195.27 -0.36 
328.12 195.07 0.60 
329.18 195.24 -3.26 
329.17 195.24 -2.74 
329.25 195.20 -1.92 
329.25 195.20 -1.35 
329.02 194.90 -0.79 
329.16 195.21 -0.05 
329.04 195.23 0.71 
329.87 195.04 -3.36 
329.76 194.95 -2.73 
329.74 194.86 -1.94 
329.68 194.96 -1.37 
329.96 195.14 -0.55 
329.92 194.81 0.00 
329.67 194.91 0.64 
330.41 194.85 -3.27 
330.41 194.85 -2.65 
330.41 194.85 -2.04 
330.56 195.23 -1.39 
330.34 194.93 -0.57 
330.55 195.11 -0.28 
331.56 194.98 -3.46 
331.19 194.85 -2.66 
331.18 194.85 -2.13 
331.16 195.03 -1.22 
331.40 195.03 -0.91 
331.52 194.98 0.20 
332.26 195.42 -3.01 
332.16 195.43 -1.89 
331.85 194.75 -1.13 
331.77 195.01 -0.78 
331.86 195.32 -0.22 
332.22 195.42 0.54 
332.35 195.33 -3.18 
332.54 195.26 -2.94 
332.53 195.26 -2.02 
332.34 195.33 -1.58 
332.43 195.12 -0.91 
332.56 195.15 -0.19 
332.32 195.33 0.85 
333.24 194.82 -3.20 
333.27 194.86 -2.96 
333.31 194.81 -2.17 
333.30 194.81 -1.30 
333.22 194.82 -0.84 
333.21 194.82 -0.05 
333.23 194.86 0.61 
324.79 196.04 -1.32 
325.36 196.01 -1.48 
325.98 196.11 -0.94 
326.31 195.44 -2.99 
326.35 195.86 -2.31 
326.28 195.87 -1.17 
326.40 195.83 -0.85 
326.29 195.88 -0.08 
327.40 195.81 -3.29 
326.91 196.10 -2.72 
326.90 196.10 -2.14 
327.02 195.76 -1.22 
327.06 195.88 -0.83 
327.08 195.41 0.02 
327.40 196.09 0.97 
327.82 196.01 -3.37 
327.74 195.92 -2.72 
327.74 195.92 -2.01 
327.73 195.92 -1.30 
327.78 195.53 -0.72 
327.72 195.97 0.07 
327.72 195.91 0.85 
328.51 195.76 -3.31 
328.44 195.64 -2.77 
328.41 195.58 -2.04 
328.35 195.64 -1.31 
328.43 195.58 -0.63 
328.41 195.62 0.13 
328.39 195.57 0.78 
329.06 195.60 -3.38 
329.12 195.52 -2.71 
329.11 195.53 -2.04 
329.01 195.62 -1.51 
329.18 195.73 -0.51 
328.90 195.54 0.06 
330.03 195.45 -3.17 
330.02 195.45 -2.64 
329.98 195.83 -1.93 
330.12 195.46 -1.36 
330.12 195.83 -0.80 
329.66 195.64 -0.20 
330.54 195.67 -1.04 
330.76 195.70 -0.70 
331.43 195.86 -3.17 
331.17 196.07 -2.91 
331.33 195.95 -1.98 
331.22 195.81 -1.49 
331.31 195.95 -0.08 
331.30 195.96 0.87 
332.14 195.50 -2.94 
332.13 195.50 -2.03 
332.12 195.50 -1.12 
332.14 195.43 0.13 
332.10 195.51 0.72 
323.81 196.64 -1.42 
323.85 196.46 -0.86 
324.44 196.80 -1.16 
324.87 196.75 -3.13 
324.65 196.52 -3.09 
324.83 196.76 -1.71 
325.06 196.52 -1.21 
324.90 196.67 -0.75 
325.49 196.60 -3.13 
325.60 196.31 -3.09 
325.46 196.61 -1.80 
325.80 196.53 -1.21 
325.83 196.54 -0.73 
325.52 196.34 -0.18 
326.34 196.64 -3.41 
326.47 196.76 -2.79 
326.47 196.72 -1.88 
326.41 196.56 -1.24 
326.35 196.36 -0.80 
326.43 196.60 0.21 
326.41 196.61 0.49 
327.03 196.45 -3.37 
327.01 196.44 -2.80 
327.08 196.35 -2.20 
326.99 196.44 -1.28 
327.10 196.22 -0.61 
326.96 196.38 -0.02 
327.02 196.54 0.66 
327.57 196.27 -3.30 
327.59 196.36 -2.76 
327.53 196.29 -1.99 
327.65 196.42 -1.24 
327.96 196.30 -0.42 
327.77 196.69 -0.04 
328.56 196.43 -3.57 
328.41 196.32 -2.61 
328.41 196.32 -2.06 
328.41 196.31 -1.52 
328.76 196.75 -0.66 
328.26 196.44 -0.08 
329.12 196.14 -2.95 
329.14 196.28 -1.89 
329.36 196.25 -1.12 
329.28 196.48 -0.94 
329.95 196.73 -2.03 
329.94 196.53 -1.41 
329.72 196.36 -0.61 
329.92 196.53 -0.02 
330.66 196.40 -2.86 
330.60 196.17 -2.13 
330.44 196.42 -1.47 
330.43 196.42 0.22 
330.57 196.17 0.60 
330.96 196.18 -2.92 
330.95 196.18 -1.98 
330.92 196.18 0.85 
322.04 197.38 -1.07 
323.03 197.50 -3.18 
323.01 197.51 -2.45 
322.98 197.52 -1.71 
322.93 196.93 -1.41 
322.92 196.93 -0.97 
323.82 197.02 -3.14 
323.80 197.03 -2.39 
323.60 197.36 -1.27 
323.76 197.20 -0.68 
323.72 197.07 -0.12 
324.16 197.17 -3.17 
324.14 197.18 -2.47 
324.25 197.34 -1.90 
324.10 197.12 -1.00 
324.29 197.22 -0.65 
324.21 197.35 0.04 
324.45 197.52 0.86 
325.16 197.44 -3.39 
325.08 197.38 -2.93 
325.07 197.38 -2.26 
325.15 197.27 -1.50 
325.01 197.09 -0.52 
324.89 197.36 -0.04 
325.06 197.38 0.45 
325.60 197.21 -3.34 
325.60 197.21 -2.83 
325.65 197.19 -1.92 
325.65 197.19 -1.39 
325.65 197.19 -0.85 
325.65 197.09 0.26 
325.76 196.94 0.70 
326.31 197.02 -3.31 
326.30 197.02 -2.78 
326.12 197.06 -2.08 
326.27 196.93 -1.28 
326.33 197.13 -0.57 
326.33 197.18 0.02 
326.09 197.07 0.74 
327.14 196.99 -3.13 
327.14 196.99 -2.58 
327.14 196.98 -2.02 
327.14 196.98 -1.46 
327.28 196.95 0.00 
326.78 197.30 0.42 
328.05 197.04 -1.03 
327.81 197.41 -0.84 
328.60 197.34 -2.03 
328.58 197.34 0.13 
329.27 196.91 -2.07 
329.42 197.00 -1.41 
329.40 197.00 0.33 
329.10 197.28 0.41 
329.62 197.03 -1.92 
329.60 197.04 0.02 
320.33 198.20 -1.01 
320.96 198.16 -3.26 
320.93 198.18 -2.44 
320.90 198.20 -1.61 
320.86 198.22 -0.78 
321.21 197.81 -1.17 
321.18 197.69 -0.91 
322.11 197.78 -3.08 
322.11 197.78 -3.08 
322.08 197.80 -2.15 
321.99 197.76 -1.60 
322.29 198.22 -0.85 
323.14 198.00 -3.25 
323.12 198.01 -2.62 
323.11 198.01 -2.00 
322.89 198.09 -1.08 
322.96 197.90 -0.78 
323.07 198.03 -0.11 
323.13 198.19 0.99 
323.80 197.92 -3.40 
323.79 197.92 -2.86 
323.80 197.98 -2.15 
323.78 197.92 -1.22 
323.65 197.88 -0.83 
323.63 197.69 -0.03 
323.83 197.97 0.57 
324.24 197.96 -3.36 
324.24 197.96 -2.86 
324.20 197.93 -2.20 
324.22 197.97 -1.34 
324.37 197.99 -0.78 
324.46 197.72 0.20 
324.04 197.86 0.51 
324.71 198.00 -3.29 
324.90 197.72 -2.80 
324.81 197.77 -2.17 
324.88 197.72 -1.28 
324.88 197.72 -0.77 
324.94 198.02 0.15 
324.78 197.78 0.57 
325.35 197.90 -3.10 
325.52 197.98 -2.86 
325.34 197.90 -1.95 
325.51 197.98 -1.50 
325.42 197.75 -0.50 
325.53 197.90 -0.14 
325.51 197.97 0.56 
326.17 197.64 -2.88 
326.26 197.42 -1.99 
326.16 197.64 -1.54 
326.43 197.67 -0.10 
326.15 197.63 0.49 
327.86 197.75 -1.26 
327.51 197.54 -0.86 
328.52 197.68 -1.85 
328.35 197.61 -1.35 
328.50 197.69 0.15 
328.34 197.61 0.44 
320.34 198.78 -3.30 
320.36 198.80 -2.49 
320.32 198.97 -1.07 
320.39 198.84 -0.85 
320.36 198.82 -0.25 
320.84 198.82 -3.31 
320.82 198.83 -2.61 
320.80 198.84 -1.91 
320.86 198.70 -1.01 
320.99 198.56 -0.76 
320.93 198.58 0.18 
320.80 198.57 0.49 
321.54 198.40 -3.27 
321.54 198.69 -2.65 
321.53 198.70 -2.00 
321.64 198.70 -1.14 
321.64 198.60 -0.80 
321.48 198.72 -0.03 
322.19 198.88 -3.44 
322.36 198.72 -2.83 
322.11 198.76 -2.23 
322.10 198.75 -1.28 
322.25 198.70 -0.80 
322.36 198.73 -0.13 
322.36 198.73 0.69 
322.99 198.65 -3.39 
323.00 198.65 -2.89 
322.99 198.73 -2.03 
323.01 198.64 -1.37 
322.87 198.48 -0.82 
322.96 198.39 0.14 
322.76 198.56 0.55 
323.54 198.34 -3.37 
323.58 198.54 -2.79 
323.65 198.40 -1.93 
323.43 198.45 -1.41 
323.44 198.40 -0.72 
323.59 198.49 -0.02 
323.36 198.29 0.49 
324.01 198.34 -3.41 
324.01 198.34 -2.88 
323.94 198.35 -2.21 
324.15 198.69 -1.41 
324.09 198.23 -0.57 
324.15 198.68 0.01 
324.14 198.69 0.72 
324.65 198.38 -2.94 
324.64 198.38 -2.30 
324.84 198.33 -1.46 
324.84 198.31 -0.06 
324.84 198.32 0.64 
327.22 198.41 -1.80 
319.43 199.42 -0.84 
320.37 199.35 -3.27 
320.37 199.40 -2.73 
320.36 199.40 -2.10 
320.13 199.49 -1.19 
320.28 199.43 -0.67 
320.28 199.40 -0.19 
320.95 199.38 -3.28 
320.81 199.58 -2.79 
320.87 199.39 -2.19 
320.86 199.39 -1.21 
320.74 199.36 -0.85 
320.84 199.56 0.03 
320.85 199.38 0.74 
321.59 199.43 -3.39 
321.58 199.38 -2.71 
321.58 199.52 -2.07 
321.42 199.34 -1.37 
321.54 199.26 -0.64 
321.49 199.23 -0.02 
321.49 199.23 0.69 
322.13 199.12 -3.38 
322.27 199.30 -2.73 
322.26 199.14 -2.05 
322.20 199.26 -1.33 
322.22 199.02 -0.50 
322.14 199.24 -0.18 
321.82 199.02 0.79 
322.82 198.98 -3.31 
322.70 199.06 -2.74 
322.91 199.05 -2.09 
322.82 199.00 -1.31 
322.96 198.98 -0.33 
322.93 199.19 0.01 
322.85 199.27 0.45 
323.33 199.37 -3.37 
323.44 199.07 -2.80 
323.47 199.00 -2.25 
323.44 199.07 -1.36 
323.43 199.06 0.08 
324.23 198.93 -1.08 
318.65 199.91 -1.16 
318.83 200.27 -0.54 
319.59 200.19 -3.31 
319.63 200.17 -2.78 
319.43 200.32 -2.03 
319.46 200.07 -1.13 
319.44 200.08 -0.87 
319.57 200.18 0.13 
319.56 200.18 1.00 
320.19 200.20 -3.38 
320.23 200.16 -2.89 
320.21 200.17 -2.04 
320.14 199.95 -1.34 
320.10 200.00 -0.71 
320.13 199.94 0.11 
320.13 199.95 0.85 
320.74 200.02 -3.38 
320.80 200.11 -2.75 
320.88 199.92 -2.09 
320.74 200.00 -1.42 
320.63 199.74 -0.61 
320.74 199.92 0.06 
320.87 200.14 0.59 
321.29 199.83 -3.45 
321.34 199.77 -2.78 
321.38 199.80 -2.14 
321.29 199.83 -1.38 
321.57 199.95 -0.80 
321.33 200.01 -0.17 
321.31 200.12 0.51 
321.88 199.81 -3.44 
321.93 199.85 -2.75 
321.93 199.85 -2.01 
321.92 199.85 -1.26 
321.86 199.74 -0.52 
321.92 199.84 0.23 
321.87 199.79 0.45 
323.74 200.10 -1.78 
324.07 200.25 -1.66 
318.24 200.91 -3.53 
318.23 200.91 -2.71 
318.23 200.91 -1.89 
317.75 200.35 -1.10 
318.06 200.71 -0.47 
318.31 200.68 -0.26 
318.21 200.91 0.59 
318.70 200.71 -3.48 
318.70 200.71 -2.74 
318.69 200.71 -1.99 
318.69 200.70 -1.24 
318.76 200.48 -0.84 
318.69 200.70 0.26 
318.42 200.88 0.85 
319.39 200.81 -3.37 
319.43 200.84 -2.76 
319.50 200.71 -2.11 
319.39 200.79 -1.40 
319.45 200.68 -0.74 
319.43 200.69 0.02 
319.10 200.45 0.50 
320.03 200.60 -3.27 
319.96 200.59 -2.74 
320.02 200.60 -2.08 
320.01 200.60 -1.49 
320.21 200.41 -0.41 
320.19 200.67 0.03 
320.15 200.81 0.64 
320.75 200.47 -3.42 
320.75 200.47 -2.76 
320.75 200.47 -2.10 
320.74 200.47 -1.44 
320.91 200.66 -0.52 
320.74 200.33 0.22 
320.90 200.66 0.42 
321.22 200.74 -3.25 
321.63 200.93 -2.44 
321.47 200.72 -2.24 
321.64 200.95 -1.59 
321.24 200.83 -0.84 
321.68 201.00 0.12 
321.31 200.85 0.66 
323.96 200.34 -1.66 
317.94 201.11 -3.47 
317.94 201.10 -2.71 
317.93 201.10 -1.95 
317.93 201.10 -1.19 
318.10 201.45 -0.55 
317.71 201.25 0.19 
317.99 201.07 0.44 
318.74 201.21 -3.47 
318.74 201.44 -2.78 
318.73 201.20 -1.96 
318.73 201.20 -1.45 
319.01 201.07 -0.58 
318.72 201.44 0.18 
318.46 201.70 0.62 
319.39 201.24 -3.45 
319.39 201.24 -2.66 
319.55 201.17 -2.04 
319.55 201.17 -1.36 
319.39 201.38 -0.65 
319.40 201.40 -0.04 
319.54 201.16 0.71 
320.12 201.10 -3.40 
319.75 201.36 -2.97 
319.76 201.37 -2.21 
320.13 201.11 -1.31 
320.12 201.55 -0.75 
319.79 201.41 0.08 
319.72 201.68 0.51 
320.91 201.22 -3.33 
320.85 201.67 -2.49 
320.93 201.25 -2.02 
320.94 201.27 -1.35 
320.83 201.34 -0.97 
320.82 201.67 0.11 
321.28 201.22 -3.31 
321.69 201.49 -2.46 
321.31 201.26 -1.87 
321.33 201.28 -1.14 
321.46 201.63 -0.76 
321.74 201.56 -0.07 
321.76 201.58 0.74 
321.95 201.50 -2.22 
321.95 201.50 -2.22 
321.96 201.52 -1.28 
321.85 201.09 0.01 
321.99 201.55 0.60 
317.88 202.09 -3.46 
317.97 201.85 -2.75 
317.96 201.84 -2.01 
317.96 201.84 -1.26 
318.30 201.98 -0.89 
317.95 201.84 0.26 
318.57 201.88 -3.33 
318.72 202.41 -3.03 
318.65 201.96 -0.89 
318.74 201.95 -0.55 
319.43 201.90 -3.52 
319.20 202.21 -2.73 
319.55 202.30 -1.99 
319.56 202.32 -1.42 
319.50 202.11 -0.83 
319.77 202.28 -3.34 
319.83 202.20 -2.42 
319.84 202.22 -1.80 
319.85 202.23 -1.17 
320.24 202.10 -0.93 
319.87 202.25 0.10 
321.02 202.18 -3.34 
320.48 202.20 -2.97 
320.53 202.32 -2.02 
320.58 201.98 -1.27 
320.55 201.98 -0.22 
321.28 201.94 -3.32 
321.74 201.98 -2.56 
321.30 201.98 -1.97 
321.32 201.99 -1.29 
321.33 202.09 -0.91 
321.81 202.07 0.41 
322.16 202.26 -1.63 
322.15 201.75 0.18 
318.24 203.00 -2.69 
318.64 202.93 -3.32 
318.64 203.04 -2.63 
319.40 202.75 -3.28 
319.49 202.93 -2.85 
319.49 202.93 -1.21 
319.69 202.86 -0.83 
320.17 202.70 -3.38 
320.15 202.61 -2.71 
320.58 202.92 -2.14 
320.12 202.44 -1.50 
320.12 202.79 -0.62 
320.13 202.46 -0.09 
320.14 202.47 0.62 
320.50 202.80 -2.96 
320.79 202.53 -1.74 
321.05 202.86 -1.24 
321.06 203.11 -0.78 
320.81 202.55 0.20 
321.44 202.77 -2.03 
321.45 202.78 -1.39 
321.51 202.78 -0.89 
321.48 202.82 -0.09 
322.63 203.04 -1.59 
318.04 203.31 -2.73 
318.74 203.38 -3.13 
318.70 203.12 -2.59 
319.34 203.38 -3.38 
320.07 203.21 -3.38 
319.99 203.24 -2.85 
320.10 203.43 -1.88 
320.11 203.45 -1.28 
320.35 203.16 0.24 
320.46 203.33 -3.35 
320.55 203.24 -2.86 
320.56 203.25 -2.15 
320.60 203.25 -1.12 
320.64 203.29 -0.79 
320.57 203.28 0.01 
321.23 203.37 -2.68 
321.41 203.23 -0.56 
321.46 203.75 -0.12 
322.30 203.62 -1.14 
323.10 203.28 -1.49 
318.35 204.31 -3.46 
319.49 204.46 -2.98 
319.94 204.20 -2.88 
320.84 204.37 -0.50 
320.86 204.11 -0.28 
321.14 203.93 -0.19 
318.24 205.14 -3.18 
318.13 205.21 -3.06 
318.48 205.13 -3.10 
319.56 204.58 -2.89 
321.06 204.89 -0.20 
321.53 205.05 0.24 
321.48 204.62 0.41 
317.83 205.36 -3.17 
318.14 205.48 -3.13 
318.51 205.23 -3.17 
321.50 205.28 -0.40 
318.08 205.97 -3.27 
320.93 206.48 -0.88 
321.35 206.33 -1.34 
321.35 206.33 -0.71 
321.94 205.95 0.34 
321.43 206.74 -0.87 
318.76 207.74 -1.04 
320.40 207.69 -1.18 
320.36 207.86 -0.35 
320.68 207.33 -1.09 
320.49 207.76 -0.95 
323.19 207.90 -0.51 
318.28 208.25 -2.05 
318.08 208.67 -1.42 
318.29 208.03 -0.66 
318.72 208.33 -0.69 
320.19 208.33 -0.98 
322.61 208.05 -0.71 
317.90 209.22 -1.45 
317.94 209.17 -0.80 
317.81 209.33 -0.21 
318.43 209.05 -1.31 
318.41 209.04 -0.61 
319.30 209.22 -1.19 
319.41 209.26 -0.68 
319.47 209.36 -0.29 
319.99 209.26 -0.65 
317.97 209.99 -1.42 
318.20 209.63 -0.67 
317.80 209.93 -0.16 
318.93 209.83 -1.21 
318.84 209.79 -0.63 
318.38 209.45 -0.18 
319.51 209.48 -1.31 
319.16 209.87 -0.69 
319.16 209.95 -0.29 
319.90 209.62 -1.10 
319.74 209.89 -0.68 
318.03 210.27 -1.41 
317.75 210.15 -0.89 
318.61 210.13 -1.58 
319.49 210.15 -1.79 
319.14 210.39 -1.46 
