# .PCD v0.7 - Point Cloud Data file format
VERSION 0.7
FIELDS x y z
SIZE 4 4 4
TYPE F F F
COUNT 1 1 1
WIDTH 1163
HEIGHT 1
VIEWPOINT 0 0 0 1 0 0 0
POINTS 1163
DATA ascii
322.19 147.99 1.71 
322.85 147.81 1.69 
323.61 148.12 1.90 
324.30 148.47 -0.24 
324.51 148.20 0.02 
321.53 149.00 1.92 
322.23 148.83 1.72 
321.90 148.85 2.46 
322.43 148.67 2.83 
322.89 148.65 1.70 
323.18 148.61 2.45 
323.61 148.64 -0.48 
323.28 149.03 1.56 
323.56 148.82 1.91 
324.54 148.92 -0.29 
324.58 148.71 0.13 
324.38 148.91 1.77 
324.23 148.99 2.53 
325.25 149.00 -0.50 
325.11 149.18 0.04 
324.69 148.99 1.49 
320.08 149.74 -1.98 
320.84 149.83 -1.61 
321.03 149.65 -0.28 
320.90 149.57 1.01 
321.12 149.90 0.89 
321.76 149.62 1.50 
321.85 149.85 -0.26 
322.37 149.55 1.15 
321.76 149.62 1.50 
322.72 149.52 0.66 
322.63 149.51 1.74 
323.10 149.51 2.16 
323.25 149.81 1.21 
323.84 149.78 2.59 
323.82 149.74 2.89 
324.11 149.66 -0.63 
324.37 149.30 0.28 
324.18 149.77 1.55 
324.04 149.38 2.33 
324.99 149.76 -0.47 
325.11 149.18 0.04 
324.79 149.39 1.27 
319.61 150.41 -2.29 
320.22 150.28 -1.76 
320.10 149.93 -0.91 
320.89 150.39 -1.62 
320.66 150.57 -1.35 
320.99 150.28 0.11 
320.86 150.29 0.72 
321.73 150.58 -1.04 
321.24 150.30 -0.80 
322.26 150.42 -0.36 
322.25 150.20 1.17 
322.45 150.38 1.33 
322.98 149.98 -0.23 
322.81 150.38 1.37 
322.56 150.38 2.36 
322.97 150.59 2.73 
323.29 150.23 0.15 
323.81 150.32 1.02 
323.86 150.15 1.39 
323.38 150.34 2.13 
324.60 150.28 -0.11 
325.23 150.28 -0.90 
325.13 150.50 -0.65 
325.80 150.50 -0.53 
326.20 150.12 -0.73 
317.83 151.19 -1.64 
317.85 151.24 -1.20 
319.38 151.20 -2.09 
320.34 150.97 -1.99 
319.88 151.20 -1.29 
320.81 150.70 -2.24 
320.59 150.94 -1.48 
320.76 150.98 0.13 
320.81 150.93 0.40 
321.01 150.92 1.33 
320.76 150.97 1.93 
321.55 151.06 -1.03 
321.55 151.12 -0.65 
321.55 151.12 0.06 
321.69 150.70 1.03 
321.63 151.16 1.52 
321.40 150.98 2.13 
322.39 150.63 -1.28 
321.84 150.94 -0.63 
321.90 151.13 0.22 
322.31 151.01 0.83 
322.06 150.99 1.62 
321.94 150.92 3.17 
323.11 150.94 -0.55 
322.95 150.93 2.00 
322.64 151.20 2.86 
323.46 150.98 -0.62 
323.44 150.85 -0.18 
324.08 150.95 -0.92 
324.60 151.00 -0.60 
324.77 151.11 -0.68 
325.45 150.67 -1.06 
325.32 150.95 -0.85 
317.73 151.36 -1.12 
318.48 151.72 -2.16 
319.16 151.33 -2.37 
319.66 151.46 -2.19 
320.03 151.63 -1.73 
320.38 151.90 -1.59 
320.27 151.69 0.19 
319.96 151.68 1.46 
319.76 151.91 1.91 
320.51 151.39 -1.60 
320.94 151.83 -1.47 
321.02 151.96 -0.37 
321.02 151.62 0.13 
320.66 151.61 0.76 
320.88 151.40 1.98 
321.38 151.55 -1.02 
321.58 151.59 -0.39 
321.73 151.94 0.05 
321.70 151.47 0.83 
321.45 151.62 2.05 
322.01 151.55 -1.14 
322.14 151.50 -0.44 
321.82 151.37 0.04 
321.95 151.54 2.10 
321.91 151.56 3.10 
325.06 151.31 -0.31 
330.61 151.32 0.97 
331.52 151.75 0.76 
331.83 151.54 0.70 
332.13 151.85 1.97 
332.40 151.40 0.82 
332.88 151.55 1.45 
336.87 151.95 2.79 
318.11 152.50 -2.15 
318.46 152.20 -1.83 
318.98 152.42 0.32 
318.71 152.49 0.63 
319.58 152.64 -2.33 
319.31 152.43 0.80 
319.76 152.10 -2.33 
319.77 152.02 -1.64 
320.05 152.46 -0.48 
320.27 152.64 0.25 
320.33 152.40 0.98 
320.08 152.45 1.51 
321.01 152.52 -1.76 
320.67 152.45 -1.47 
320.83 152.45 -0.72 
320.71 152.48 0.37 
320.74 152.39 1.04 
320.53 152.44 1.40 
321.28 152.53 -1.01 
321.13 152.13 -0.74 
321.44 152.32 -0.17 
322.50 152.28 -0.04 
322.71 152.14 -1.01 
323.10 152.67 -0.58 
323.30 152.40 -0.59 
330.02 152.12 1.98 
330.72 152.23 1.05 
330.80 152.69 1.27 
330.78 152.07 2.04 
331.28 152.66 0.92 
331.86 152.36 0.37 
331.70 152.43 0.75 
332.11 152.52 1.70 
332.36 152.36 0.79 
332.80 152.25 1.48 
333.36 152.38 1.03 
333.16 152.23 1.33 
334.37 152.25 1.66 
334.16 152.21 2.42 
334.11 152.57 2.72 
336.86 152.52 2.48 
336.77 152.45 3.15 
318.13 153.08 -2.09 
318.39 152.83 -2.08 
318.33 153.12 -1.45 
318.63 153.02 -0.82 
318.80 153.06 0.87 
319.53 153.37 -1.32 
319.47 152.82 -0.55 
319.06 153.21 0.37 
319.53 153.38 0.53 
319.40 152.95 1.98 
320.01 153.27 -1.71 
320.19 153.38 -0.65 
319.89 153.11 -0.19 
319.88 153.26 1.02 
319.81 152.99 1.46 
319.89 153.22 2.47 
320.43 153.37 -2.48 
320.73 152.98 -1.76 
320.57 152.77 -1.32 
320.77 152.99 -0.30 
320.48 152.93 0.41 
320.41 152.71 0.79 
320.42 152.77 1.69 
321.11 152.79 -2.04 
321.18 153.37 -1.33 
321.20 153.00 -0.52 
321.27 152.88 -0.11 
321.20 152.93 1.54 
322.09 153.09 -1.24 
322.15 152.99 -0.47 
322.79 152.80 -0.54 
323.43 152.97 -0.32 
330.13 152.85 2.21 
330.52 153.36 1.85 
330.75 152.81 2.07 
330.98 152.92 1.03 
331.39 152.84 1.89 
331.61 153.36 0.31 
332.06 153.24 0.85 
332.05 153.02 1.98 
332.85 153.05 0.33 
332.77 153.09 0.76 
332.93 153.07 1.61 
333.24 153.10 0.98 
333.27 153.31 1.28 
334.31 153.15 1.45 
334.20 152.77 2.57 
334.04 152.82 3.08 
336.67 152.71 3.04 
337.66 153.10 2.39 
317.74 153.90 -1.79 
317.72 154.05 -1.44 
318.30 153.43 0.47 
317.79 153.84 0.93 
318.53 153.46 -2.17 
318.71 153.79 -1.37 
318.88 154.09 -0.56 
319.39 153.78 -1.37 
319.03 153.69 -0.56 
319.12 153.80 -0.10 
319.30 153.82 1.11 
319.47 153.82 1.58 
319.68 153.69 1.95 
320.35 153.99 -3.35 
320.28 153.99 -1.60 
320.04 153.80 -1.07 
320.06 153.60 -0.28 
319.99 153.93 0.46 
320.08 153.67 0.95 
320.38 153.96 1.44 
320.47 153.98 -2.40 
320.73 153.81 -1.71 
320.72 153.80 -0.97 
320.52 153.90 -0.46 
320.59 154.04 0.37 
320.74 153.73 0.62 
320.93 153.52 1.64 
321.15 153.60 -1.66 
321.41 153.99 -1.19 
321.63 153.62 -0.72 
321.15 154.01 0.92 
321.94 153.42 -1.38 
322.39 153.45 -0.74 
322.15 153.54 -0.18 
324.55 153.84 -1.00 
324.50 153.77 -0.58 
325.16 153.72 -0.28 
329.17 153.63 0.96 
329.55 153.54 0.73 
329.96 153.64 1.30 
330.15 153.60 2.23 
330.59 153.58 1.18 
330.78 153.54 2.08 
331.27 153.60 1.02 
331.55 153.54 1.89 
332.15 153.90 1.00 
331.99 153.96 1.77 
332.09 153.65 2.12 
332.66 153.66 0.68 
332.94 153.59 1.51 
332.51 153.87 2.01 
333.37 153.93 0.48 
333.24 153.79 1.00 
333.05 153.75 1.38 
334.32 154.07 0.93 
334.18 153.76 1.52 
334.28 153.50 2.15 
334.35 153.42 3.20 
334.42 153.47 0.90 
317.91 154.28 -1.71 
317.84 154.28 -1.24 
317.79 154.48 -0.80 
318.10 154.59 0.22 
317.90 154.54 0.92 
318.99 154.30 -1.65 
318.59 154.18 -1.38 
318.70 154.49 -0.56 
318.80 154.62 -0.07 
319.40 154.75 -2.73 
319.22 154.73 -1.89 
319.24 154.17 -1.41 
319.56 154.42 -0.85 
319.39 154.39 -0.15 
320.01 154.79 -4.83 
320.37 154.39 -3.27 
320.25 154.86 -2.80 
320.33 154.54 -2.06 
320.15 154.40 -1.28 
320.20 154.42 -0.73 
320.02 154.49 -0.18 
320.17 154.30 0.86 
320.04 154.35 1.52 
320.57 154.38 -2.50 
320.72 154.49 -2.00 
320.94 154.36 -0.97 
320.46 154.47 -0.53 
321.26 154.31 -3.37 
321.54 154.27 -2.36 
321.57 154.26 -1.35 
321.34 154.28 -0.31 
321.17 154.29 0.74 
321.79 154.61 1.27 
322.03 154.74 0.85 
323.36 154.63 -0.36 
323.67 154.56 0.76 
324.05 154.73 -1.35 
324.48 154.66 -0.39 
324.07 154.53 -0.13 
325.08 154.45 -1.04 
328.75 154.27 0.71 
328.46 154.14 1.34 
329.03 154.52 1.00 
328.86 154.54 1.56 
329.22 154.47 2.04 
329.99 154.41 0.37 
329.83 154.43 1.34 
330.09 154.42 2.21 
330.66 154.32 0.26 
330.49 154.35 1.21 
330.81 154.42 2.02 
331.37 154.31 0.12 
331.18 154.35 1.05 
331.40 154.80 1.88 
331.61 154.77 0.05 
331.85 154.52 1.70 
332.00 154.76 1.96 
332.58 154.44 -4.46 
332.38 154.59 0.85 
332.73 154.73 1.77 
332.47 154.60 2.04 
333.03 154.36 -4.21 
333.29 154.32 0.19 
333.13 154.63 0.78 
333.59 154.66 3.22 
334.39 154.39 0.37 
334.17 154.31 0.90 
334.06 154.40 1.66 
334.17 154.35 2.19 
334.21 154.16 2.77 
334.44 154.65 0.18 
334.52 154.42 1.45 
318.11 155.20 -1.64 
318.28 155.07 -1.21 
317.82 155.14 -0.77 
317.72 155.25 0.06 
318.05 155.44 1.45 
318.48 155.34 -1.92 
318.73 155.01 -1.25 
318.80 155.31 -0.80 
318.47 154.86 -0.02 
318.94 154.85 0.63 
319.48 155.01 -5.05 
319.69 155.05 -4.34 
319.43 154.86 -3.13 
319.41 154.95 -1.78 
319.08 155.09 -1.51 
319.08 154.92 -0.81 
319.88 155.18 -4.83 
320.01 155.21 -3.81 
319.99 154.99 -3.10 
320.32 155.09 -2.57 
320.26 154.98 -1.91 
320.09 154.81 -1.24 
320.31 154.87 -0.76 
319.91 155.00 0.04 
320.43 154.94 -3.24 
320.61 155.00 -2.49 
320.43 154.95 -2.15 
321.04 154.87 -0.11 
320.75 155.04 0.89 
320.82 155.11 1.68 
321.72 155.41 -0.76 
321.55 155.07 0.71 
321.61 154.88 1.52 
322.33 155.12 -1.13 
322.21 155.31 -0.08 
322.07 155.06 1.21 
322.97 154.91 -0.21 
322.58 155.33 0.04 
323.23 155.13 -1.24 
323.85 155.10 -0.24 
323.46 155.18 -0.05 
323.53 155.45 0.72 
324.23 155.44 -0.86 
324.01 155.15 0.14 
324.11 155.18 0.71 
324.79 155.12 -0.99 
324.96 155.15 -0.41 
324.87 155.42 0.39 
325.54 155.40 -1.51 
325.34 155.40 -0.65 
326.09 155.05 -1.16 
326.23 155.23 -0.67 
328.76 155.45 0.50 
328.40 155.43 0.64 
328.81 155.43 1.34 
328.62 155.47 2.15 
329.40 155.49 0.34 
329.04 155.29 0.83 
330.04 154.93 0.10 
329.85 155.20 1.36 
330.87 155.48 0.25 
330.49 154.87 0.86 
330.48 155.11 1.24 
331.18 155.08 1.08 
331.94 155.45 -3.51 
331.94 155.44 -2.63 
332.14 155.37 0.02 
332.31 155.37 1.17 
332.27 155.14 1.67 
332.62 155.12 -3.59 
332.89 155.36 -2.84 
332.54 155.42 0.32 
333.00 154.98 0.90 
332.46 155.33 2.07 
333.50 155.31 -4.90 
333.19 155.33 -4.23 
333.20 155.32 -3.54 
333.33 155.33 -2.33 
333.19 155.34 -1.69 
333.06 155.36 -1.04 
333.22 155.33 -0.42 
333.47 155.49 0.85 
333.35 155.16 1.90 
333.62 154.93 2.47 
333.45 155.35 2.78 
333.63 155.39 3.39 
334.11 155.20 -4.23 
334.28 155.31 -3.52 
334.18 155.02 0.37 
334.05 155.04 0.80 
334.12 155.16 1.54 
334.26 155.21 2.21 
333.74 155.10 2.87 
334.52 154.93 1.25 
318.08 156.18 -1.71 
318.16 155.68 -1.11 
317.84 155.95 -0.83 
318.00 155.73 1.74 
318.63 155.84 -1.71 
318.54 155.98 -1.50 
318.56 156.01 -0.75 
318.70 156.01 -0.06 
318.84 156.01 0.64 
318.32 155.91 1.77 
319.20 156.17 -2.39 
319.45 155.99 -1.89 
319.38 156.02 -1.37 
319.21 155.78 -0.82 
319.25 155.78 -0.13 
319.46 155.79 0.54 
319.93 155.61 -2.23 
320.21 155.63 -1.23 
319.97 155.62 -0.74 
320.00 155.55 0.44 
320.63 155.98 -2.41 
320.71 155.77 -2.19 
320.58 155.96 -1.14 
320.93 155.76 -0.39 
321.04 155.58 0.60 
321.63 156.17 -1.00 
321.69 155.55 -0.13 
321.51 155.55 1.31 
321.86 156.20 -0.96 
322.05 156.14 -0.28 
322.33 156.15 -0.19 
322.06 155.86 1.08 
322.78 155.80 -0.56 
322.63 155.86 -0.16 
322.74 156.00 0.90 
323.89 155.54 -0.56 
323.87 155.88 0.17 
324.55 155.80 -0.78 
324.32 155.95 0.37 
324.21 156.00 0.91 
325.20 155.73 -1.04 
324.63 156.11 0.31 
325.07 156.18 0.79 
325.48 155.62 -1.06 
325.56 156.08 -0.60 
326.17 156.06 -1.01 
328.12 155.59 0.57 
328.62 155.60 1.50 
328.84 155.80 0.22 
329.33 156.13 2.38 
329.72 156.06 0.40 
330.12 156.02 0.73 
330.05 155.98 1.33 
330.50 155.90 -3.41 
330.54 155.96 0.49 
330.38 155.89 1.28 
331.11 155.86 -0.73 
331.14 155.85 0.19 
331.12 155.84 1.11 
332.24 156.18 -4.25 
332.13 156.12 -1.74 
332.31 156.06 -0.86 
331.73 155.74 0.04 
332.07 156.11 0.94 
331.91 156.14 1.87 
332.81 155.76 -4.84 
333.21 155.75 -4.14 
332.96 155.92 -3.51 
332.60 155.83 -2.71 
332.81 155.77 -1.86 
332.97 155.71 -1.01 
332.43 156.09 0.27 
332.76 156.01 1.14 
332.60 155.77 1.65 
333.37 155.97 -4.92 
333.25 155.63 -4.15 
333.47 155.98 -3.23 
333.41 155.86 -2.54 
333.46 155.96 -1.91 
333.33 155.96 -1.45 
333.29 155.85 -0.78 
333.20 155.86 -0.08 
333.22 155.85 0.62 
333.67 155.90 1.39 
333.27 156.08 1.95 
333.71 155.79 3.06 
334.09 155.83 -4.20 
334.14 155.86 -3.40 
334.19 155.84 -2.58 
333.92 155.90 -1.75 
334.32 155.89 -1.28 
334.37 155.87 -0.53 
334.22 155.90 0.24 
334.23 155.89 1.00 
333.88 155.88 1.60 
334.06 155.70 1.97 
334.50 155.86 -2.04 
334.53 155.60 0.39 
335.21 156.09 0.77 
339.25 156.18 0.96 
339.83 156.15 0.75 
318.20 156.65 -1.98 
318.07 156.60 -1.14 
318.05 156.59 -0.58 
317.63 156.88 0.03 
317.91 156.64 0.95 
318.29 156.22 2.01 
318.66 156.58 -5.06 
318.67 156.72 -3.07 
318.70 156.74 -2.66 
318.58 156.65 -1.82 
318.42 156.52 -1.37 
318.83 156.59 -0.78 
318.75 156.58 -0.06 
318.61 156.87 1.20 
319.19 156.31 -2.43 
319.69 156.47 -1.94 
319.48 156.35 -1.59 
319.29 156.71 -0.82 
319.35 156.34 -0.14 
319.14 156.32 0.58 
319.81 156.45 -1.94 
320.18 156.33 -1.41 
320.41 156.46 -2.40 
320.50 156.68 -1.61 
321.05 156.23 -0.98 
321.05 156.52 -0.56 
321.23 156.54 -1.15 
321.78 156.30 -0.55 
322.02 156.44 -0.90 
322.42 156.80 -0.60 
323.00 156.58 -1.13 
323.05 156.71 -0.25 
322.71 156.35 -0.15 
323.88 156.36 -0.34 
323.42 156.37 0.09 
324.19 156.56 -1.63 
324.30 156.68 -1.35 
324.19 156.55 0.15 
325.11 156.49 -1.21 
324.68 156.52 0.84 
325.32 156.54 -1.08 
325.87 156.44 -0.70 
326.02 156.78 -1.00 
328.76 156.31 2.17 
329.20 156.23 -0.03 
328.95 156.24 0.62 
330.10 156.70 0.43 
330.08 156.67 0.51 
329.98 156.68 1.37 
330.03 156.74 2.31 
330.84 156.56 -0.62 
330.64 156.60 0.33 
331.38 156.54 -0.73 
331.10 156.61 0.22 
331.45 156.51 1.10 
332.31 156.91 -4.25 
332.24 156.43 -3.49 
332.26 156.25 2.54 
332.30 156.63 2.87 
332.90 156.31 -4.93 
332.85 156.51 -3.52 
332.84 156.89 -2.63 
332.51 156.82 0.29 
332.99 156.45 0.67 
333.00 156.86 3.13 
333.42 156.33 -3.23 
333.53 156.36 -2.69 
333.42 156.66 -2.02 
333.62 156.65 -1.48 
333.46 156.59 -0.68 
333.34 156.39 -0.08 
333.65 156.26 1.67 
333.38 156.33 2.31 
333.99 156.48 -4.18 
333.99 156.60 -3.17 
334.21 156.39 -2.44 
334.31 156.40 -1.98 
333.97 156.43 -1.33 
334.22 156.64 -0.21 
334.36 156.34 0.09 
334.00 156.71 0.82 
334.21 156.48 1.57 
333.96 156.58 2.32 
333.97 156.70 2.85 
334.41 156.34 -1.61 
334.48 156.36 -1.24 
334.63 156.33 -0.50 
334.47 156.35 0.27 
334.47 156.35 1.04 
334.55 156.38 1.59 
335.23 156.78 0.80 
337.67 156.82 1.90 
338.84 156.83 1.16 
339.18 156.40 1.30 
339.57 156.44 0.88 
317.89 157.33 -4.82 
318.20 157.08 -3.32 
318.31 157.40 -2.63 
317.93 157.15 -1.78 
318.08 157.10 -1.38 
317.64 157.38 -0.80 
318.78 157.29 -3.15 
318.44 156.95 -2.65 
318.45 157.01 -2.00 
318.77 157.26 1.73 
319.64 157.03 -2.32 
319.08 157.18 -1.85 
319.37 157.36 -1.56 
320.09 157.36 -2.04 
320.22 156.94 -1.10 
320.00 157.02 -0.85 
320.53 157.36 -1.96 
321.07 156.92 -0.60 
321.30 157.03 -0.59 
321.26 157.37 0.98 
322.38 157.60 -1.98 
321.99 157.09 -0.07 
323.01 157.12 -1.41 
322.55 157.42 -0.23 
322.92 157.45 -0.04 
323.22 157.42 -1.32 
323.28 157.24 -0.40 
324.56 157.43 -2.67 
324.11 157.33 -2.18 
324.36 157.20 -1.35 
324.50 157.03 0.03 
324.55 156.94 0.67 
324.78 156.92 -1.44 
324.74 157.54 0.48 
325.47 157.14 -1.07 
326.27 157.20 -1.03 
329.51 157.28 -4.84 
329.02 157.32 -0.33 
329.48 156.96 0.81 
329.92 157.09 -4.61 
330.10 157.52 0.41 
329.94 157.05 0.63 
330.01 157.36 1.40 
330.74 157.46 0.28 
330.77 157.47 0.53 
330.98 157.53 -3.66 
331.38 157.56 -2.07 
330.94 157.27 -0.13 
331.48 157.25 1.12 
331.25 157.20 1.22 
332.17 157.22 -2.56 
332.28 157.33 -0.02 
332.07 156.92 1.26 
332.78 157.50 -3.01 
332.85 157.51 -2.63 
332.93 157.51 -2.25 
332.58 157.56 -1.52 
332.62 157.54 -0.61 
332.56 157.55 0.31 
332.99 157.31 0.89 
332.61 156.99 1.75 
333.41 156.98 -3.14 
333.43 157.26 -2.44 
333.50 157.27 -2.10 
333.00 157.20 -1.48 
333.24 157.01 -0.55 
333.08 157.04 0.21 
333.28 156.99 0.93 
333.46 157.29 1.92 
333.60 157.54 3.09 
334.02 156.99 -4.19 
333.76 157.06 -3.10 
334.18 157.27 -2.10 
334.27 157.23 -1.06 
334.39 156.94 -0.36 
334.14 157.27 -0.01 
334.09 157.28 1.04 
333.83 157.25 1.49 
333.89 157.33 2.12 
333.78 157.10 2.62 
334.01 157.02 3.36 
334.69 156.94 1.68 
335.26 157.39 0.97 
337.86 156.97 1.02 
337.78 157.38 2.09 
338.24 157.51 1.63 
339.84 157.55 0.90 
339.36 157.20 1.36 
317.79 157.69 -4.82 
317.88 157.74 -3.88 
317.93 157.76 -3.41 
317.80 157.91 -2.49 
317.80 157.71 -1.99 
317.89 157.78 -0.69 
318.88 157.89 -2.96 
318.88 157.89 -2.96 
318.69 157.99 -2.17 
318.85 158.05 -0.17 
318.36 158.07 0.52 
319.16 157.91 -3.31 
319.30 158.13 -2.76 
319.45 157.94 -1.97 
319.12 158.21 -1.50 
319.53 158.01 -0.73 
319.38 158.26 -0.14 
320.13 157.91 -2.37 
320.13 157.71 -2.06 
320.29 158.00 -0.93 
319.82 158.25 -0.86 
320.55 157.72 -2.25 
320.86 157.71 -1.00 
320.74 158.00 -0.31 
321.65 158.24 -1.08 
321.39 158.23 -0.41 
321.20 157.81 0.25 
322.31 157.65 -1.98 
322.08 157.90 -1.57 
322.11 158.10 -0.37 
322.15 157.75 0.12 
322.04 158.20 1.03 
322.60 158.15 -1.24 
322.95 158.25 0.00 
323.78 157.94 -1.78 
323.78 157.94 -1.78 
323.31 158.12 -0.27 
323.67 158.08 0.12 
324.42 157.69 -1.92 
324.28 157.67 -1.55 
324.16 157.82 -0.76 
323.95 158.10 -0.10 
324.69 157.84 -1.45 
324.86 157.61 0.32 
325.47 157.90 -1.08 
325.68 158.25 -0.23 
326.20 157.62 -1.01 
326.73 157.90 -0.77 
327.84 157.79 0.40 
328.74 157.97 0.39 
328.39 157.90 0.56 
328.82 158.01 -0.50 
329.04 157.83 0.60 
330.04 158.14 -4.48 
329.89 158.17 -3.64 
330.19 157.99 0.02 
329.64 158.28 0.62 
330.50 158.06 -4.59 
330.55 158.15 -3.74 
330.77 157.94 -3.52 
330.76 158.19 -2.36 
330.27 158.15 0.34 
330.40 157.96 0.53 
330.77 158.10 1.32 
330.98 157.94 -3.45 
331.16 157.93 -2.60 
330.94 157.95 -2.05 
331.43 157.78 0.17 
331.05 157.99 0.52 
331.63 157.92 -3.36 
331.84 157.91 -2.53 
331.92 157.91 -2.12 
331.92 158.07 -1.28 
332.21 158.29 0.11 
332.24 157.62 2.20 
332.37 157.63 -2.42 
332.45 157.87 -1.78 
332.52 157.87 -1.39 
332.44 158.28 0.09 
332.52 157.70 1.02 
332.94 158.19 2.04 
333.67 157.91 0.30 
333.12 158.12 0.71 
333.52 158.02 1.89 
334.17 157.84 -1.99 
334.16 157.91 -0.96 
334.25 157.79 0.20 
334.02 158.01 0.87 
334.15 157.92 1.72 
334.08 157.81 2.62 
334.42 158.23 0.35 
334.59 158.03 0.60 
334.48 157.67 1.33 
334.75 158.01 2.96 
335.65 158.08 0.35 
335.74 158.03 0.79 
335.43 158.27 1.21 
336.17 158.06 0.62 
336.17 157.86 1.72 
336.27 158.01 2.16 
337.78 158.12 2.13 
338.26 157.77 2.18 
339.22 157.74 0.89 
339.23 158.11 1.29 
338.80 158.27 2.28 
339.84 157.55 0.90 
340.30 158.05 0.78 
340.48 157.74 1.25 
317.72 158.93 -3.11 
317.88 158.61 -2.65 
318.12 158.81 -1.74 
317.71 158.85 -1.38 
317.68 158.38 -0.63 
318.41 158.62 -3.27 
318.39 158.74 -2.91 
318.86 158.65 -1.92 
318.49 158.96 -1.59 
318.96 158.71 -0.49 
318.91 158.72 0.47 
318.56 158.44 1.25 
319.21 158.41 -2.91 
319.46 158.82 -1.76 
319.18 158.49 -1.18 
319.45 158.40 -0.73 
319.38 158.79 0.56 
319.75 158.56 -3.01 
319.84 158.86 -2.49 
319.85 158.68 -2.07 
319.89 158.75 -1.56 
320.20 158.79 -0.23 
320.21 158.73 0.41 
320.47 158.65 -2.36 
321.02 158.53 -1.00 
321.03 158.36 -0.23 
321.10 158.76 0.03 
320.75 158.40 0.63 
321.60 158.73 -1.53 
321.30 158.98 0.57 
322.10 158.42 -1.69 
322.15 158.57 -0.97 
322.22 158.53 -0.26 
322.22 158.53 -0.11 
322.13 158.90 0.90 
323.14 158.94 -1.76 
322.94 158.44 -1.33 
322.74 158.85 -0.71 
323.19 158.99 0.00 
323.46 158.61 -1.79 
323.57 158.73 -1.25 
323.72 158.33 0.30 
324.14 158.57 -1.89 
324.34 158.61 -1.52 
324.77 158.81 -1.07 
325.17 158.51 -0.87 
325.31 158.62 0.48 
325.25 158.32 0.64 
325.93 158.67 -1.17 
325.42 158.95 -0.89 
325.91 158.99 0.18 
325.68 158.98 0.89 
326.33 158.94 -0.49 
326.60 158.80 0.35 
326.48 158.97 0.59 
327.03 158.84 -0.42 
327.59 158.72 -0.14 
328.37 158.59 -4.87 
328.56 158.56 0.11 
329.45 158.39 -4.63 
328.88 158.85 -0.54 
329.43 158.99 0.29 
329.66 158.75 -4.62 
330.02 158.83 -3.63 
330.19 158.77 -2.79 
330.20 158.75 -1.95 
330.04 158.78 -1.09 
329.56 158.44 0.54 
330.46 158.84 -4.62 
330.71 158.70 -3.73 
330.60 158.44 -3.24 
330.67 158.59 -2.43 
330.65 158.59 -1.82 
330.54 158.72 -1.57 
330.59 158.59 -0.59 
330.75 158.90 0.40 
330.56 158.46 1.00 
330.99 158.38 -3.11 
331.11 158.36 -2.59 
331.21 158.35 -2.07 
331.31 158.33 -1.01 
331.30 158.75 -0.46 
331.29 158.39 -0.11 
331.74 158.57 -1.24 
332.07 158.47 0.30 
332.18 158.43 1.22 
332.54 158.95 -0.79 
332.57 159.00 0.34 
332.56 158.92 1.38 
333.42 158.38 -1.01 
333.47 158.36 -0.37 
333.51 158.61 -0.03 
333.50 158.87 0.96 
333.44 158.38 2.72 
333.87 158.78 -0.41 
333.92 158.50 0.80 
334.30 158.50 1.87 
334.67 158.92 -1.01 
334.73 158.78 -0.43 
334.75 158.77 0.33 
334.69 158.93 0.77 
334.76 158.34 1.74 
334.69 158.99 2.04 
335.02 158.77 2.96 
334.84 158.54 3.33 
335.38 158.84 0.71 
335.13 158.95 1.78 
336.38 158.64 0.48 
336.28 158.52 0.90 
336.27 158.49 1.53 
336.10 158.97 2.13 
337.03 158.96 0.83 
336.79 158.97 1.74 
337.22 158.64 0.76 
337.65 158.31 2.05 
338.30 158.93 2.19 
338.33 158.95 2.89 
338.63 158.66 1.88 
338.66 158.55 2.03 
338.82 158.92 2.62 
339.46 158.46 1.13 
339.57 158.79 2.07 
340.24 159.01 0.70 
317.95 159.43 -3.03 
317.87 159.68 -2.86 
318.18 159.68 -2.29 
318.12 159.24 -0.69 
318.56 159.30 -2.99 
318.63 159.61 -2.80 
318.69 159.43 -2.16 
319.00 159.33 -0.74 
318.97 159.62 0.33 
318.99 159.15 1.22 
319.37 159.51 -2.66 
319.50 159.34 -1.97 
319.52 159.34 -1.39 
319.36 159.41 -0.51 
319.04 159.48 0.36 
319.95 159.68 -2.32 
319.87 159.29 -2.23 
319.84 159.49 -1.06 
319.95 159.43 1.11 
320.55 159.37 -2.43 
320.69 159.18 -2.14 
320.43 159.28 -1.57 
320.48 159.34 -0.26 
320.42 159.26 0.38 
320.46 159.42 0.59 
321.32 159.56 -2.59 
321.36 159.18 -2.27 
321.34 159.59 0.57 
321.91 159.38 -2.02 
322.25 159.49 -1.13 
322.76 159.27 -1.79 
323.19 159.55 -1.40 
322.81 159.25 0.07 
323.24 159.51 -1.82 
323.88 159.11 -0.17 
324.22 159.21 -1.32 
324.02 159.23 -0.88 
324.44 159.15 -0.08 
325.83 159.16 -0.96 
325.78 159.50 -0.40 
325.51 159.53 0.26 
326.45 159.28 -1.02 
326.62 159.27 -0.23 
326.36 159.33 0.81 
327.50 159.49 -4.80 
328.60 159.47 -4.69 
328.67 159.53 -0.38 
328.34 159.43 -0.11 
329.24 159.30 -4.65 
329.13 159.47 -0.72 
329.82 159.11 -4.61 
329.52 159.70 -1.01 
330.15 159.08 -0.47 
330.06 159.11 0.04 
330.48 159.35 -4.77 
330.85 159.24 -2.29 
330.26 159.42 -1.08 
330.76 159.69 -0.49 
330.89 159.41 -0.02 
330.92 159.09 -4.56 
330.93 159.32 -1.54 
330.98 159.40 -0.77 
330.89 159.41 -0.02 
330.95 159.28 0.65 
332.16 159.34 -0.70 
332.09 159.08 0.50 
332.97 159.32 0.00 
332.43 159.50 0.96 
332.60 159.66 1.95 
333.65 159.10 -0.94 
333.49 159.38 -0.50 
333.57 159.35 0.24 
333.44 159.54 1.07 
333.55 159.10 1.70 
333.92 159.29 -0.88 
333.89 159.31 -0.62 
334.16 159.23 -0.08 
334.01 159.59 0.62 
333.91 159.26 1.24 
334.86 159.38 -1.19 
334.64 159.37 -0.40 
334.46 159.49 0.40 
334.70 159.56 0.59 
334.92 159.67 1.99 
335.24 159.59 -0.64 
335.70 159.67 0.41 
335.52 159.21 1.13 
335.25 159.70 1.67 
336.19 159.21 0.82 
335.90 159.31 1.89 
336.96 159.46 1.07 
336.87 159.69 1.79 
336.70 159.13 2.47 
337.25 159.63 0.74 
337.76 159.36 1.78 
337.56 159.27 1.98 
338.73 159.66 1.87 
338.95 159.53 1.98 
339.88 159.17 1.01 
340.09 159.05 0.83 
340.20 159.26 2.15 
318.08 159.91 -2.78 
317.75 160.36 -1.88 
317.77 159.96 -1.58 
317.72 159.86 -0.65 
318.72 160.32 -3.32 
318.78 159.84 -2.51 
318.50 160.15 -2.04 
318.93 160.01 -0.67 
318.97 159.95 0.65 
319.44 160.27 -2.55 
319.30 159.69 -1.98 
319.31 159.95 -1.23 
319.26 159.91 -0.73 
320.02 160.17 -2.52 
319.91 160.07 -1.82 
319.98 160.33 -1.33 
319.75 160.36 -0.36 
320.43 160.00 -2.55 
320.76 159.78 -1.94 
320.83 160.34 -0.99 
320.72 159.86 -0.28 
320.72 159.86 -0.28 
320.52 159.76 0.69 
321.61 160.12 -1.66 
321.30 160.08 -0.37 
321.66 160.14 0.03 
322.18 160.09 -2.02 
322.11 159.75 -0.49 
322.45 160.01 0.12 
322.66 160.22 -1.63 
322.97 159.84 -1.38 
323.34 160.19 -1.83 
323.73 159.88 -0.91 
324.12 159.93 -1.31 
324.59 160.19 -0.88 
324.04 160.25 -0.09 
325.14 159.96 -1.63 
325.08 160.36 -0.90 
324.80 159.87 -0.80 
325.73 159.89 -1.14 
326.50 159.88 -0.73 
327.31 159.87 -4.66 
326.80 159.90 0.24 
327.74 159.91 -4.78 
328.11 160.22 -4.78 
328.76 160.02 -0.87 
329.17 160.01 -1.14 
328.86 159.83 -0.84 
329.82 160.37 -4.62 
330.17 159.87 0.53 
330.81 160.03 -4.74 
330.71 159.71 0.43 
330.99 159.82 -4.60 
330.96 159.99 0.76 
332.14 160.00 0.35 
331.97 159.74 0.92 
332.82 160.14 -0.23 
332.90 159.93 0.09 
332.93 159.92 0.81 
333.60 159.97 -1.24 
333.25 160.07 0.31 
333.05 160.20 1.86 
334.01 159.85 -0.54 
333.89 160.26 0.01 
334.14 160.35 0.64 
334.67 160.08 -1.24 
334.98 159.80 -0.23 
334.46 159.82 0.06 
334.61 159.72 0.81 
334.57 159.88 1.84 
335.22 159.86 -0.32 
335.76 159.74 0.61 
336.17 159.76 0.65 
336.39 159.75 1.45 
336.68 159.81 0.91 
337.09 159.74 2.59 
337.29 159.86 0.45 
337.39 160.38 0.87 
337.87 160.27 1.45 
338.57 160.17 1.09 
338.39 159.93 1.22 
339.83 160.06 2.09 
317.75 160.36 -1.88 
318.83 160.45 -2.74 
319.64 160.46 -2.80 
319.54 160.45 -2.29 
319.14 160.43 -1.22 
319.61 160.44 -0.31 
319.91 160.42 -2.21 
321.03 160.44 -2.37 
321.76 160.43 -2.47 
322.14 160.46 -1.89 
324.23 160.42 -1.05 
326.01 160.46 -0.97 
334.07 160.44 -0.11 
334.83 160.45 1.20 
