# .PCD v0.7 - Point Cloud Data file format
VERSION 0.7
FIELDS x y z
SIZE 4 4 4
TYPE F F F
COUNT 1 1 1
WIDTH 935
HEIGHT 1
VIEWPOINT 0 0 0 1 0 0 0
POINTS 935
DATA ascii
317.76 -113.41 -13.04 
318.38 -113.72 -12.90 
319.23 -113.86 -12.88 
317.81 -113.11 -13.02 
317.95 -111.10 -12.91 
317.94 -111.08 -12.25 
317.92 -111.06 -11.59 
318.37 -111.61 -11.56 
317.87 -110.89 -12.31 
318.05 -110.94 -11.68 
335.55 -109.89 -11.18 
335.55 -109.88 -10.30 
335.94 -110.19 -11.20 
335.94 -110.18 -10.31 
336.73 -109.93 -10.85 
336.72 -109.91 -10.05 
337.80 -109.81 -11.58 
337.75 -109.77 -10.82 
337.71 -109.73 -10.06 
338.37 -109.69 -11.59 
338.00 -109.68 -10.33 
338.70 -110.15 -11.81 
330.45 -109.02 -10.59 
334.32 -109.06 -11.18 
334.33 -109.05 -10.30 
334.93 -109.47 -11.18 
334.94 -109.47 -10.30 
335.36 -109.08 -11.90 
335.79 -109.28 -10.89 
335.78 -109.26 -10.09 
336.16 -109.55 -10.87 
336.14 -109.53 -10.07 
336.85 -109.16 -12.31 
336.94 -109.02 -11.92 
337.18 -109.40 -10.87 
336.71 -109.46 -9.94 
337.52 -109.39 -11.88 
337.66 -109.20 -10.13 
338.26 -109.59 -10.07 
319.44 -108.65 -12.99 
330.15 -108.58 -12.07 
330.00 -108.78 -10.53 
330.60 -108.81 -12.12 
332.73 -108.31 -12.08 
333.69 -108.33 -10.29 
333.78 -108.42 -11.82 
333.72 -108.65 -11.17 
333.73 -108.65 -10.30 
334.69 -108.58 -12.50 
334.98 -108.95 -11.77 
334.67 -108.54 -10.92 
334.66 -108.52 -10.14 
335.42 -108.78 -12.20 
335.78 -108.26 -11.26 
335.37 -108.73 -10.67 
335.65 -108.37 -10.26 
335.83 -108.30 -11.99 
336.28 -108.79 -11.70 
336.33 -108.62 -11.22 
336.29 -108.58 -10.48 
336.60 -108.53 -11.72 
337.07 -108.82 -10.19 
329.75 -108.15 -11.63 
329.71 -108.20 -10.84 
331.17 -107.75 -12.29 
331.07 -107.65 -11.79 
331.17 -107.49 -10.81 
330.96 -108.04 -10.07 
332.05 -107.82 -12.13 
331.88 -108.09 -11.56 
331.83 -108.03 -10.75 
331.92 -107.69 -10.50 
332.64 -107.56 -11.89 
332.67 -108.24 -11.25 
332.60 -108.18 -10.43 
333.21 -107.99 -11.86 
333.17 -107.60 -11.89 
333.58 -107.81 -10.95 
333.11 -107.89 -10.35 
334.09 -108.14 -11.98 
333.75 -108.04 -11.85 
334.12 -108.17 -10.94 
334.11 -108.15 -10.15 
334.74 -107.64 -12.05 
334.66 -107.75 -11.80 
334.66 -107.56 -10.62 
334.59 -107.68 -10.35 
335.28 -107.95 -12.02 
335.20 -108.09 -11.77 
335.20 -107.87 -10.58 
335.48 -107.75 -10.34 
336.07 -107.83 -11.61 
336.03 -108.11 -10.29 
324.26 -106.93 -12.73 
330.46 -107.08 -11.84 
330.41 -107.02 -11.06 
331.36 -107.06 -12.00 
331.23 -107.55 -11.61 
331.17 -107.49 -10.81 
331.16 -107.06 -10.55 
331.94 -107.45 -12.01 
332.08 -107.15 -11.93 
331.62 -107.22 -10.85 
332.00 -107.06 -10.46 
332.88 -107.25 -12.06 
332.83 -107.21 -11.31 
332.51 -107.10 -10.97 
332.50 -107.09 -10.20 
333.70 -106.96 -12.12 
333.66 -106.93 -11.41 
333.23 -107.34 -10.77 
333.03 -107.44 -10.19 
334.22 -107.30 -12.09 
334.14 -107.41 -11.84 
334.14 -107.22 -10.66 
334.40 -107.05 -10.44 
334.49 -107.13 -11.86 
334.94 -107.40 -10.39 
335.41 -107.28 -11.66 
340.52 -106.87 -12.08 
341.10 -107.11 -12.06 
341.68 -107.35 -12.03 
323.53 -106.76 -11.33 
330.09 -106.21 -12.28 
329.86 -106.58 -11.88 
329.81 -106.53 -11.11 
330.78 -106.68 -11.99 
330.56 -106.71 -11.38 
330.60 -106.60 -10.64 
330.80 -106.67 -10.28 
331.47 -106.38 -12.01 
330.95 -106.68 -11.75 
331.45 -106.42 -10.99 
331.38 -106.30 -10.55 
332.23 -106.71 -12.30 
332.23 -106.39 -11.49 
332.20 -106.66 -10.81 
331.98 -106.74 -10.22 
332.68 -106.31 -12.18 
332.41 -106.36 -11.68 
332.35 -106.31 -10.76 
332.54 -106.36 -10.51 
333.16 -106.63 -11.81 
333.12 -106.58 -10.87 
333.36 -106.38 -10.53 
333.96 -106.79 -11.90 
334.00 -106.73 -10.77 
333.88 -106.71 -10.49 
334.71 -106.74 -12.14 
334.68 -106.71 -11.49 
338.84 -106.17 -12.15 
339.30 -106.32 -9.97 
339.39 -106.40 -12.13 
339.36 -106.37 -11.41 
339.89 -106.57 -10.66 
339.85 -106.55 -9.93 
340.49 -106.84 -11.35 
340.45 -106.81 -10.62 
321.11 -105.95 -12.15 
320.67 -105.60 -11.95 
322.77 -105.50 -11.93 
322.70 -105.58 -11.11 
323.56 -105.47 -11.14 
323.59 -105.48 -10.55 
324.39 -105.79 -12.75 
324.18 -105.94 -12.43 
324.13 -106.00 -11.59 
324.31 -105.90 -11.00 
324.27 -105.99 -10.52 
325.06 -105.98 -12.66 
324.94 -105.67 -12.13 
325.60 -106.12 -11.99 
327.53 -105.97 -12.23 
328.70 -105.62 -11.96 
328.79 -105.47 -11.80 
328.66 -105.57 -11.21 
328.61 -105.53 -10.46 
329.26 -105.71 -12.30 
329.37 -106.01 -11.76 
329.36 -105.59 -10.78 
329.18 -106.00 -10.40 
330.17 -105.61 -12.13 
329.87 -106.13 -11.44 
329.97 -106.09 -10.71 
330.49 -105.92 -12.04 
330.45 -105.88 -11.32 
330.54 -105.55 -10.76 
331.22 -106.04 -12.32 
331.54 -105.70 -11.73 
331.08 -105.95 -10.71 
330.93 -106.06 -10.24 
332.26 -105.86 -11.86 
332.22 -105.82 -10.94 
332.04 -106.06 -10.55 
333.38 -105.63 -11.58 
333.05 -106.03 -10.83 
334.08 -105.60 -12.42 
334.03 -105.55 -11.42 
338.47 -106.00 -12.18 
338.44 -105.97 -11.47 
338.41 -105.94 -10.75 
338.81 -106.14 -11.44 
338.78 -106.11 -10.72 
338.74 -106.09 -10.01 
319.67 -104.98 -11.63 
320.91 -105.21 -12.58 
320.46 -104.84 -11.61 
322.84 -105.42 -12.74 
323.05 -105.07 -11.15 
323.66 -105.10 -12.80 
323.71 -105.34 -12.19 
323.65 -105.41 -11.37 
324.56 -104.85 -12.23 
324.44 -105.00 -10.72 
325.09 -104.92 -12.71 
324.92 -104.96 -12.39 
324.88 -105.01 -11.58 
324.83 -105.06 -10.76 
325.07 -105.05 -10.53 
325.41 -105.19 -12.81 
325.38 -104.86 -12.51 
325.38 -105.23 -11.87 
325.36 -105.26 -10.93 
325.35 -104.91 -10.47 
326.27 -105.24 -11.98 
326.25 -105.27 -11.08 
327.41 -105.12 -11.42 
327.39 -105.15 -10.42 
327.43 -105.10 -12.42 
328.10 -105.11 -11.26 
328.06 -105.06 -10.51 
328.39 -104.84 -12.18 
328.22 -105.00 -11.84 
328.51 -105.05 -10.76 
329.37 -104.82 -12.14 
328.94 -104.76 -11.44 
328.84 -104.99 -11.09 
329.88 -105.20 -12.11 
329.80 -105.12 -10.69 
330.65 -105.18 -12.45 
330.60 -105.13 -11.58 
330.55 -105.08 -10.72 
331.39 -105.21 -11.89 
331.35 -105.17 -10.99 
332.15 -105.29 -11.80 
332.11 -105.25 -10.89 
333.02 -104.85 -12.45 
332.46 -104.94 -11.66 
332.36 -105.21 -10.92 
332.92 -104.77 -10.50 
333.29 -105.15 -12.34 
333.22 -105.42 -11.59 
333.17 -105.38 -10.62 
334.30 -105.37 -12.24 
323.21 -104.56 -11.68 
323.17 -104.61 -10.84 
323.62 -104.51 -12.68 
323.25 -104.51 -12.52 
323.55 -104.59 -11.89 
323.49 -104.67 -11.10 
324.59 -104.19 -12.67 
324.40 -104.54 -11.36 
324.34 -104.60 -10.56 
325.09 -104.29 -12.92 
324.73 -104.70 -12.13 
325.23 -104.07 -10.72 
325.76 -104.08 -12.67 
325.62 -104.12 -12.36 
325.88 -104.10 -11.27 
325.69 -104.18 -10.99 
325.82 -104.17 -10.53 
326.05 -104.31 -12.78 
326.69 -104.71 -12.65 
326.46 -104.32 -11.79 
326.40 -104.39 -11.04 
327.16 -104.14 -12.66 
327.07 -104.26 -12.07 
327.12 -104.10 -11.93 
327.37 -104.25 -11.01 
327.50 -104.60 -12.09 
327.66 -104.55 -11.89 
327.48 -104.61 -11.04 
328.01 -104.28 -10.43 
328.81 -104.58 -12.20 
328.24 -104.68 -11.65 
328.19 -104.63 -10.90 
329.28 -104.74 -12.23 
329.24 -104.69 -11.39 
328.90 -104.72 -10.74 
329.19 -104.64 -10.55 
329.71 -104.08 -12.52 
329.82 -104.53 -11.63 
329.86 -104.40 -10.95 
330.55 -104.58 -11.93 
330.51 -104.54 -11.05 
331.44 -104.56 -11.91 
331.40 -104.52 -10.98 
332.07 -104.29 -12.36 
332.13 -104.49 -11.75 
332.17 -104.66 -10.68 
332.98 -104.44 -12.20 
332.96 -104.41 -11.13 
333.13 -104.56 -12.27 
333.81 -104.48 -11.98 
322.98 -103.52 -11.32 
323.88 -103.75 -10.85 
323.96 -103.65 -12.48 
324.30 -103.73 -11.86 
324.23 -103.80 -11.09 
325.19 -103.51 -12.90 
324.98 -103.43 -11.78 
325.04 -103.69 -10.57 
325.41 -103.86 -12.91 
325.39 -103.93 -12.11 
325.70 -103.82 -11.00 
325.98 -104.03 -10.49 
326.55 -103.82 -12.11 
326.73 -103.58 -11.70 
326.62 -103.53 -10.94 
326.50 -103.57 -10.52 
327.18 -103.77 -12.49 
327.13 -103.72 -11.75 
327.07 -103.67 -11.02 
327.03 -104.00 -10.47 
327.87 -103.61 -12.30 
327.79 -103.52 -10.67 
328.16 -104.05 -12.24 
328.35 -103.39 -11.72 
328.60 -103.45 -10.45 
328.96 -103.38 -12.00 
329.13 -103.85 -11.86 
329.08 -103.80 -11.01 
329.74 -103.97 -11.96 
329.61 -103.42 -11.90 
330.91 -103.47 -12.38 
330.53 -103.82 -11.95 
330.49 -103.78 -11.03 
331.25 -104.02 -11.68 
330.95 -103.39 -10.63 
331.76 -103.59 -12.22 
331.97 -103.75 -11.30 
332.57 -103.75 -12.01 
320.12 -102.84 -13.02 
320.77 -103.07 -13.09 
321.60 -102.73 -12.59 
322.34 -103.26 -12.71 
322.18 -102.93 -12.55 
323.17 -103.23 -11.30 
323.66 -102.70 -11.31 
324.49 -103.15 -12.66 
324.16 -102.90 -11.56 
324.56 -102.93 -10.85 
325.06 -102.85 -12.58 
325.00 -102.92 -11.83 
324.94 -102.99 -11.07 
325.82 -102.78 -12.10 
325.77 -102.84 -11.34 
325.96 -103.35 -10.72 
326.41 -102.99 -12.06 
326.16 -103.09 -11.75 
326.32 -102.92 -11.01 
326.60 -103.19 -10.50 
327.20 -103.14 -12.33 
327.23 -103.15 -11.94 
327.12 -103.06 -10.73 
327.66 -102.71 -11.95 
327.85 -103.09 -10.77 
328.20 -102.81 -12.03 
328.71 -102.88 -12.08 
328.31 -103.34 -10.89 
329.41 -102.68 -11.61 
329.80 -102.68 -12.40 
330.04 -102.68 -11.61 
329.61 -103.15 -11.08 
330.59 -102.78 -12.24 
330.61 -103.10 -11.58 
330.27 -103.24 -10.81 
330.87 -102.99 -10.38 
330.95 -103.06 -12.32 
331.11 -102.61 -11.55 
331.31 -102.89 -10.99 
331.77 -102.76 -11.98 
331.74 -102.73 -10.89 
321.16 -102.26 -12.58 
323.89 -102.17 -12.70 
323.45 -102.40 -12.23 
323.82 -102.39 -11.30 
324.25 -102.44 -12.67 
324.36 -102.10 -12.10 
325.29 -102.04 -12.42 
324.81 -102.43 -11.33 
325.21 -102.14 -10.86 
325.91 -102.11 -12.39 
325.87 -102.07 -11.61 
325.84 -102.03 -10.83 
326.55 -102.62 -12.36 
326.47 -102.53 -10.78 
327.02 -102.51 -12.60 
326.95 -102.17 -11.98 
326.99 -102.55 -11.79 
326.92 -102.05 -11.02 
327.18 -102.29 -10.51 
327.50 -102.49 -12.06 
327.81 -102.28 -10.88 
328.61 -102.08 -12.68 
328.66 -102.40 -11.96 
328.57 -102.05 -11.79 
328.66 -102.41 -10.87 
329.47 -102.01 -12.26 
329.34 -102.41 -11.63 
329.28 -102.06 -11.06 
329.15 -102.58 -10.46 
329.93 -102.36 -12.35 
329.66 -102.41 -11.48 
330.14 -102.09 -11.04 
329.86 -102.29 -10.44 
330.52 -102.04 -12.00 
330.50 -102.02 -10.94 
331.11 -102.61 -11.55 
331.44 -102.05 -10.81 
331.71 -102.13 -11.54 
335.49 -102.29 -11.38 
335.49 -102.29 -10.85 
335.84 -102.14 -12.53 
335.84 -102.13 -11.42 
336.10 -102.23 -11.02 
320.36 -101.27 -12.55 
320.91 -101.57 -12.55 
321.45 -101.86 -12.54 
322.58 -101.27 -12.61 
323.52 -101.72 -12.71 
323.88 -101.48 -12.65 
324.32 -101.91 -11.31 
325.18 -101.77 -12.08 
325.40 -101.26 -12.49 
325.38 -101.29 -11.55 
326.60 -101.38 -12.56 
326.20 -101.80 -11.76 
327.09 -101.65 -12.55 
327.18 -101.53 -11.21 
327.85 -101.86 -12.70 
327.78 -101.47 -11.48 
327.80 -101.92 -10.94 
327.77 -101.49 -10.53 
328.57 -101.79 -12.27 
328.56 -101.44 -11.52 
328.40 -101.41 -10.89 
328.68 -101.87 -10.48 
329.24 -101.52 -11.96 
329.04 -101.82 -11.68 
329.42 -101.57 -10.99 
329.88 -101.76 -11.69 
330.19 -101.35 -10.85 
330.50 -101.92 -11.46 
332.39 -101.72 -11.52 
332.40 -101.71 -12.01 
332.39 -101.72 -11.52 
335.59 -101.73 -12.31 
335.68 -101.88 -11.56 
335.68 -101.88 -10.84 
335.65 -101.93 -10.46 
336.26 -101.36 -11.98 
335.95 -101.36 -11.56 
336.27 -101.35 -10.88 
336.76 -101.43 -11.61 
336.58 -101.35 -11.03 
320.56 -100.59 -12.82 
321.65 -100.91 -13.13 
322.26 -100.76 -12.62 
323.28 -101.08 -12.72 
324.87 -100.99 -12.61 
324.95 -101.15 -11.30 
325.59 -100.90 -12.58 
326.12 -101.10 -12.57 
327.20 -100.63 -12.57 
327.34 -100.69 -11.85 
327.34 -100.70 -10.75 
328.04 -100.96 -11.54 
327.50 -101.20 -11.03 
328.66 -101.19 -10.91 
329.28 -101.21 -12.03 
329.26 -101.19 -10.99 
329.82 -100.70 -11.97 
330.05 -100.78 -10.99 
334.66 -100.95 -11.19 
336.25 -100.91 -12.24 
336.22 -100.86 -11.56 
336.18 -101.03 -10.85 
336.68 -100.59 -12.54 
336.69 -100.58 -11.44 
336.69 -100.58 -10.89 
342.21 -100.90 -11.73 
342.17 -100.88 -11.12 
342.14 -100.85 -10.50 
320.35 -100.27 -12.99 
321.95 -100.25 -12.64 
323.05 -100.45 -12.73 
325.58 -100.37 -12.06 
325.64 -100.15 -11.30 
326.52 -100.24 -12.01 
326.62 -100.28 -11.32 
327.31 -100.22 -11.63 
328.10 -100.43 -12.05 
327.53 -100.47 -11.55 
327.76 -100.04 -11.19 
328.97 -100.55 -11.94 
334.29 -100.52 -12.05 
333.93 -100.31 -11.26 
334.29 -100.52 -11.04 
334.91 -100.50 -11.17 
335.45 -100.43 -11.60 
336.55 -100.38 -12.44 
336.48 -100.38 -11.56 
336.61 -100.21 -12.38 
336.75 -100.02 -11.41 
336.90 -100.19 -10.90 
336.71 -99.95 -10.51 
337.27 -100.08 -11.03 
340.76 -99.89 -12.27 
341.25 -99.96 -11.87 
341.16 -99.90 -10.70 
342.06 -100.33 -12.41 
341.56 -99.91 -11.67 
341.76 -100.21 -10.66 
342.05 -100.20 -10.29 
342.06 -100.33 -12.41 
342.19 -100.25 -11.66 
342.18 -100.24 -10.84 
320.43 -99.80 -12.83 
321.38 -99.34 -12.67 
321.70 -99.80 -12.65 
326.54 -99.68 -12.46 
326.13 -99.71 -11.28 
327.18 -99.59 -11.32 
327.91 -99.81 -11.86 
327.91 -99.82 -10.77 
328.30 -99.36 -11.20 
334.29 -99.67 -11.27 
334.88 -99.45 -12.61 
334.99 -99.37 -11.58 
334.71 -99.22 -11.18 
335.59 -99.65 -10.88 
336.12 -99.72 -11.30 
336.08 -99.78 -10.55 
336.88 -99.58 -12.20 
336.97 -99.45 -11.55 
336.95 -99.65 -10.90 
336.95 -99.50 -10.52 
337.62 -99.58 -11.35 
337.32 -99.42 -10.90 
338.09 -99.79 -11.36 
339.63 -99.30 -12.30 
339.76 -99.39 -11.38 
339.95 -99.24 -10.79 
340.24 -99.38 -12.05 
340.42 -99.53 -11.36 
340.38 -99.51 -10.81 
340.29 -99.27 -10.40 
340.87 -99.70 -12.02 
340.94 -99.57 -11.67 
340.94 -99.57 -10.86 
340.87 -99.57 -10.36 
342.14 -99.41 -12.44 
342.28 -99.40 -11.80 
342.26 -99.39 -10.91 
318.23 -98.91 -12.79 
318.43 -99.14 -12.78 
318.44 -98.50 -11.99 
320.23 -99.04 -12.84 
320.54 -98.71 -12.72 
325.65 -98.82 -11.67 
326.66 -98.78 -12.08 
326.69 -99.11 -11.27 
327.72 -98.92 -11.31 
328.60 -98.62 -12.46 
328.82 -98.70 -11.20 
329.31 -98.46 -11.70 
334.95 -98.77 -11.19 
334.95 -98.77 -11.19 
335.69 -98.87 -12.58 
335.17 -98.62 -11.62 
335.29 -98.77 -11.05 
336.17 -99.03 -12.59 
336.02 -99.01 -11.65 
336.02 -99.03 -10.81 
337.07 -98.97 -12.14 
337.05 -99.01 -11.55 
337.43 -98.70 -10.88 
337.19 -99.05 -10.53 
337.42 -98.55 -12.16 
337.39 -98.61 -11.52 
337.43 -98.70 -10.88 
337.43 -98.54 -10.55 
338.53 -98.53 -12.13 
338.49 -98.51 -11.59 
338.51 -98.71 -10.81 
338.42 -98.47 -10.52 
339.07 -98.77 -12.10 
339.03 -98.75 -11.56 
338.99 -98.73 -11.01 
338.95 -98.70 -10.47 
339.74 -98.91 -12.47 
339.61 -99.05 -11.52 
339.57 -99.02 -10.97 
339.72 -98.97 -10.43 
340.95 -98.74 -11.81 
340.94 -98.73 -10.93 
341.51 -98.57 -12.45 
341.61 -99.07 -11.81 
341.62 -98.74 -11.21 
342.39 -99.11 -12.21 
342.37 -99.10 -11.19 
317.87 -98.07 -12.81 
318.68 -97.93 -12.75 
318.68 -97.93 -12.39 
318.83 -97.79 -11.91 
319.42 -98.21 -12.90 
319.07 -97.94 -11.99 
320.38 -97.89 -12.84 
324.40 -97.78 -11.98 
324.56 -97.94 -11.69 
324.73 -97.97 -12.42 
324.90 -98.14 -11.64 
327.23 -98.45 -11.26 
328.24 -98.28 -11.31 
329.32 -98.07 -11.20 
329.61 -98.27 -11.63 
335.43 -97.92 -11.20 
336.95 -98.20 -11.99 
336.91 -98.26 -11.28 
336.87 -98.32 -10.57 
337.68 -98.28 -12.35 
337.71 -98.13 -11.54 
337.63 -98.28 -10.89 
337.39 -98.37 -10.39 
337.92 -98.21 -12.13 
338.18 -98.17 -11.85 
338.15 -98.24 -10.96 
338.27 -98.41 -10.49 
339.02 -97.76 -11.82 
339.01 -97.76 -10.95 
339.23 -98.04 -10.25 
339.43 -97.96 -12.48 
339.66 -98.08 -11.82 
339.65 -98.08 -10.94 
340.13 -98.01 -12.25 
340.30 -98.41 -11.82 
340.29 -98.40 -10.94 
340.10 -97.98 -10.23 
340.90 -98.39 -12.24 
340.88 -98.38 -11.22 
341.98 -98.17 -12.55 
342.46 -98.15 -12.54 
318.51 -97.72 -12.48 
318.49 -97.74 -11.74 
319.29 -97.75 -12.00 
319.22 -97.46 -11.93 
321.29 -97.60 -12.79 
323.79 -97.20 -11.67 
324.09 -97.48 -11.65 
328.75 -97.65 -11.31 
329.18 -97.15 -11.63 
330.05 -97.47 -11.16 
335.66 -97.51 -11.20 
335.88 -97.11 -11.20 
336.78 -97.54 -11.67 
336.78 -97.57 -10.89 
337.40 -97.65 -11.67 
337.40 -97.65 -10.89 
340.21 -97.22 -12.49 
340.89 -97.75 -12.46 
342.10 -97.47 -12.59 
342.27 -97.58 -12.53 
317.89 -96.44 -12.94 
318.45 -97.04 -12.93 
319.60 -96.86 -11.87 
320.20 -96.59 -12.76 
320.00 -96.46 -12.14 
319.99 -96.47 -11.80 
320.51 -96.68 -11.75 
322.96 -96.58 -12.51 
322.94 -96.56 -11.81 
323.31 -96.51 -11.96 
323.26 -96.54 -11.38 
327.93 -96.61 -11.67 
328.69 -96.67 -11.67 
328.98 -96.59 -11.63 
330.09 -96.97 -11.75 
330.44 -96.81 -11.60 
335.97 -96.58 -12.17 
336.10 -96.92 -11.08 
336.85 -96.51 -11.15 
317.78 -96.04 -12.98 
318.56 -96.35 -13.10 
320.32 -96.17 -11.81 
320.90 -95.99 -11.74 
321.28 -96.00 -11.74 
326.41 -95.67 -11.66 
326.79 -95.74 -12.83 
327.07 -95.82 -12.41 
327.05 -95.78 -11.89 
327.71 -95.97 -11.65 
328.49 -96.11 -11.66 
329.45 -96.03 -11.56 
330.22 -96.22 -11.63 
336.30 -96.07 -11.10 
337.09 -96.09 -11.14 
337.32 -95.67 -11.14 
340.60 -96.13 -12.44 
340.93 -96.18 -12.32 
340.92 -96.19 -11.48 
341.44 -95.67 -12.50 
318.21 -95.18 -13.10 
319.47 -95.02 -13.08 
321.55 -95.10 -12.92 
321.55 -95.06 -12.24 
321.43 -95.26 -11.70 
322.01 -95.36 -11.72 
326.00 -95.30 -11.81 
326.13 -95.49 -11.96 
326.10 -95.00 -11.82 
326.92 -95.03 -11.76 
337.12 -95.00 -11.50 
336.94 -95.09 -11.00 
337.32 -95.20 -11.06 
338.15 -94.97 -11.51 
339.89 -95.55 -12.45 
340.70 -95.37 -12.53 
342.05 -95.56 -12.40 
342.06 -95.55 -11.88 
317.84 -94.28 -13.07 
318.77 -94.60 -13.08 
319.86 -94.56 -12.69 
320.84 -94.86 -11.65 
321.15 -94.43 -12.41 
321.67 -94.32 -11.64 
322.08 -94.70 -11.73 
324.42 -94.40 -12.75 
324.39 -94.36 -12.21 
324.97 -94.53 -12.06 
325.67 -94.39 -12.80 
325.88 -94.43 -12.00 
325.74 -94.67 -11.46 
326.32 -94.83 -12.81 
326.16 -94.35 -12.15 
326.69 -94.28 -11.34 
327.19 -94.42 -11.77 
337.03 -94.75 -12.10 
337.01 -94.79 -11.61 
337.12 -94.86 -11.21 
337.80 -94.82 -11.13 
338.08 -94.36 -11.12 
341.89 -94.59 -12.24 
341.88 -94.59 -11.45 
342.49 -94.87 -12.24 
342.48 -94.87 -11.44 
320.85 -93.89 -12.26 
322.48 -93.79 -12.15 
322.44 -93.82 -11.63 
322.53 -93.77 -12.68 
323.04 -93.75 -12.18 
323.05 -93.85 -11.76 
323.72 -93.78 -12.98 
323.74 -93.63 -12.07 
323.41 -93.77 -11.75 
324.85 -94.00 -12.28 
324.81 -94.00 -11.89 
325.98 -94.04 -12.89 
326.00 -93.76 -12.15 
326.22 -94.24 -12.79 
327.02 -94.09 -12.06 
326.72 -93.95 -11.45 
331.61 -93.93 -11.54 
331.83 -93.68 -11.64 
333.31 -93.64 -12.75 
334.10 -93.79 -12.74 
337.40 -94.25 -11.01 
338.33 -93.92 -11.11 
318.12 -92.98 -13.14 
317.80 -92.89 -12.14 
317.75 -92.92 -11.57 
318.99 -92.98 -13.26 
319.92 -93.39 -13.00 
322.16 -93.50 -11.50 
323.17 -93.35 -11.62 
323.66 -92.97 -12.70 
323.66 -93.21 -11.66 
324.03 -93.50 -12.97 
324.29 -93.04 -12.05 
324.13 -93.13 -11.74 
325.09 -93.36 -12.94 
324.66 -93.16 -11.79 
325.64 -92.97 -11.98 
328.05 -93.03 -12.06 
329.72 -93.18 -12.80 
330.22 -93.31 -12.80 
330.81 -92.90 -11.59 
331.11 -92.93 -12.60 
331.35 -93.26 -11.57 
336.25 -93.36 -12.31 
337.03 -93.54 -12.26 
337.83 -93.47 -11.01 
318.07 -92.50 -13.24 
318.12 -92.31 -12.16 
317.78 -92.79 -11.72 
318.49 -92.39 -13.16 
318.65 -92.52 -11.80 
319.25 -92.75 -13.05 
319.21 -92.17 -11.80 
320.55 -92.25 -13.18 
322.50 -92.44 -13.04 
322.75 -92.67 -12.92 
323.16 -92.83 -12.30 
322.84 -92.44 -11.81 
323.75 -92.48 -11.98 
323.29 -92.51 -11.70 
324.28 -92.83 -12.08 
324.49 -92.43 -11.82 
325.24 -92.43 -12.46 
325.01 -92.34 -11.71 
325.41 -92.72 -12.57 
325.88 -92.71 -11.87 
328.39 -92.77 -11.42 
329.20 -92.24 -12.62 
329.38 -92.51 -11.39 
330.76 -92.85 -12.00 
330.75 -92.84 -11.56 
331.15 -92.64 -11.59 
337.82 -92.41 -12.48 
338.48 -92.69 -12.45 
318.09 -91.89 -13.17 
317.98 -91.54 -11.80 
318.82 -91.86 -13.25 
318.49 -91.94 -11.73 
319.35 -91.62 -13.22 
319.44 -92.08 -11.70 
320.03 -91.63 -13.24 
319.98 -91.70 -11.70 
321.43 -91.46 -11.63 
322.45 -91.48 -11.80 
322.54 -91.71 -13.00 
322.73 -91.89 -11.97 
322.99 -92.15 -11.73 
323.24 -92.07 -11.95 
325.17 -91.84 -11.73 
325.42 -91.63 -11.73 
326.57 -91.75 -12.90 
326.68 -91.73 -12.09 
328.56 -92.14 -11.78 
330.03 -91.87 -11.66 
330.35 -91.97 -11.64 
330.94 -92.10 -12.04 
330.92 -92.06 -11.62 
317.98 -91.08 -13.31 
318.52 -90.86 -13.29 
318.61 -91.45 -11.75 
319.35 -91.45 -13.25 
319.62 -91.02 -11.75 
319.96 -91.39 -13.14 
320.23 -90.84 -11.81 
320.84 -91.07 -13.02 
320.79 -91.16 -11.78 
321.59 -90.95 -13.19 
321.71 -91.10 -12.40 
321.32 -90.86 -11.53 
322.16 -91.27 -12.50 
322.14 -91.28 -11.83 
322.63 -90.77 -12.24 
324.92 -91.26 -11.74 
325.85 -90.98 -12.97 
325.97 -91.13 -12.20 
325.66 -91.33 -11.66 
326.07 -91.38 -12.97 
326.03 -90.99 -11.67 
327.06 -90.97 -11.54 
328.70 -91.39 -12.60 
328.46 -91.23 -11.72 
340.24 -91.35 -12.50 
318.10 -90.38 -13.28 
318.62 -90.20 -13.25 
319.59 -90.43 -13.26 
319.64 -90.22 -11.81 
319.96 -90.71 -13.36 
320.19 -90.57 -12.61 
320.16 -90.44 -11.74 
320.63 -90.44 -13.25 
320.67 -90.43 -11.86 
321.69 -90.50 -13.34 
321.38 -90.37 -11.94 
322.15 -90.39 -13.29 
322.07 -90.19 -12.19 
322.04 -90.27 -11.69 
323.03 -90.21 -13.21 
323.45 -90.14 -13.18 
325.53 -90.47 -11.62 
326.33 -90.28 -13.01 
326.31 -90.12 -12.20 
326.42 -90.46 -11.63 
327.35 -90.47 -11.96 
326.93 -90.35 -11.73 
327.58 -90.59 -11.69 
334.91 -90.25 -11.98 
334.63 -90.26 -11.91 
339.67 -90.63 -12.52 
317.73 -89.58 -13.28 
319.02 -89.61 -12.67 
319.12 -90.02 -13.22 
320.06 -89.78 -13.18 
320.19 -89.79 -11.82 
320.82 -89.66 -13.36 
321.10 -89.78 -11.73 
321.44 -90.12 -13.29 
321.72 -89.92 -12.32 
321.32 -89.68 -11.80 
322.31 -89.92 -13.30 
322.15 -89.66 -11.76 
322.90 -89.71 -13.33 
323.03 -89.58 -12.38 
322.53 -89.92 -11.69 
323.59 -89.67 -13.19 
324.46 -90.05 -11.72 
324.90 -89.81 -11.70 
325.70 -89.78 -12.02 
325.62 -89.88 -11.74 
327.41 -89.73 -12.93 
327.38 -89.75 -12.43 
327.16 -89.74 -11.83 
327.87 -90.03 -12.80 
327.84 -90.01 -12.33 
327.55 -89.88 -11.81 
333.65 -89.55 -12.21 
333.54 -89.70 -11.86 
334.22 -89.95 -11.90 
334.80 -89.82 -11.90 
342.24 -89.87 -12.32 
