# .PCD v0.7 - Point Cloud Data file format
VERSION 0.7
FIELDS x y z
SIZE 4 4 4
TYPE F F F
COUNT 1 1 1
WIDTH 280
HEIGHT 1
VIEWPOINT 0 0 0 1 0 0 0
POINTS 280
DATA ascii
351.99 -114.34 -11.44 
351.94 -114.42 -10.36 
352.75 -114.22 -11.53 
352.77 -114.38 -10.55 
352.98 -114.23 -10.49 
344.81 -112.82 -11.54 
345.62 -112.57 -11.46 
346.33 -112.95 -10.48 
346.94 -112.97 -10.44 
344.79 -111.82 -10.72 
345.48 -112.22 -11.96 
345.49 -112.21 -11.07 
346.00 -111.91 -12.38 
345.99 -111.92 -11.45 
345.93 -111.98 -10.68 
346.75 -112.31 -10.46 
347.37 -112.25 -10.43 
358.08 -112.07 -12.27 
358.90 -112.31 -12.26 
343.26 -111.42 -11.43 
343.97 -111.18 -11.80 
344.76 -111.04 -11.78 
345.84 -111.61 -11.96 
345.53 -111.60 -11.62 
345.84 -111.60 -11.08 
346.20 -111.00 -11.97 
346.40 -111.23 -11.43 
346.26 -111.36 -10.69 
347.24 -111.63 -10.44 
347.81 -111.54 -10.41 
345.63 -110.52 -10.71 
346.20 -110.43 -11.57 
346.20 -110.99 -11.09 
347.53 -110.56 -11.74 
347.52 -110.36 -10.92 
347.90 -110.69 -11.61 
347.84 -110.65 -10.63 
348.25 -110.82 -10.40 
348.44 -110.98 -11.70 
348.37 -110.94 -10.80 
345.45 -109.88 -11.73 
345.42 -110.13 -10.76 
345.65 -109.63 -11.74 
346.15 -109.71 -10.73 
346.70 -109.87 -11.88 
346.65 -109.84 -10.97 
347.04 -110.21 -11.65 
346.99 -110.18 -10.68 
349.85 -109.10 -11.86 
350.07 -108.91 -10.66 
349.81 -109.04 -10.48 
349.74 -109.02 -9.79 
350.73 -109.07 -10.65 
350.54 -109.23 -10.47 
350.58 -109.26 -9.74 
351.29 -109.45 -11.36 
351.40 -109.20 -10.64 
351.38 -109.18 -9.83 
352.07 -109.36 -10.63 
352.06 -109.34 -9.81 
353.59 -109.32 -11.11 
354.93 -109.15 -12.22 
344.01 -108.26 -10.40 
344.10 -108.33 -11.92 
344.73 -108.59 -11.88 
344.64 -108.52 -10.35 
345.22 -108.36 -12.29 
345.35 -108.36 -11.75 
345.22 -108.28 -10.70 
345.27 -108.79 -10.31 
347.38 -108.39 -11.96 
346.97 -108.32 -11.39 
346.97 -108.30 -10.51 
347.29 -108.31 -9.91 
348.13 -108.47 -12.28 
347.67 -108.51 -11.39 
348.12 -108.44 -10.69 
348.10 -108.56 -9.87 
348.38 -108.70 -11.38 
348.76 -108.59 -10.68 
348.92 -108.79 -9.83 
349.02 -108.86 -11.89 
349.41 -108.75 -10.67 
349.09 -108.84 -10.49 
350.05 -108.89 -9.86 
350.77 -108.31 -10.41 
350.97 -108.29 -9.35 
351.76 -108.44 -9.30 
351.81 -108.48 -10.27 
352.61 -108.64 -10.22 
352.55 -108.59 -9.25 
353.47 -108.84 -11.16 
353.41 -108.79 -10.18 
353.35 -108.75 -9.20 
342.87 -107.82 -11.97 
343.31 -107.65 -11.11 
342.79 -107.75 -10.48 
343.48 -108.07 -11.94 
343.67 -107.87 -11.83 
343.40 -108.01 -10.44 
344.51 -108.11 -11.79 
344.20 -107.71 -10.53 
344.90 -107.79 -12.27 
344.90 -107.77 -11.40 
344.90 -107.75 -10.53 
344.89 -107.65 -10.03 
345.78 -107.94 -12.02 
345.58 -107.95 -11.39 
345.86 -107.88 -10.71 
345.69 -107.87 -9.99 
346.86 -108.17 -12.28 
346.27 -108.14 -11.39 
346.49 -108.03 -10.70 
346.49 -108.09 -9.95 
347.25 -107.63 -11.47 
348.00 -107.77 -11.43 
348.71 -107.87 -10.44 
348.66 -107.83 -9.49 
349.48 -108.02 -10.40 
349.42 -107.98 -9.44 
349.90 -107.56 -11.50 
350.25 -108.18 -10.36 
350.20 -108.13 -9.40 
353.24 -107.94 -11.30 
344.15 -107.47 -11.08 
353.47 -107.16 -11.39 
360.06 -107.23 -12.50 
344.02 -106.18 -12.60 
351.52 -106.17 -11.44 
352.58 -106.73 -11.41 
358.86 -106.33 -12.51 
360.28 -106.55 -12.31 
345.07 -106.01 -12.47 
350.68 -106.07 -11.46 
358.39 -105.44 -12.33 
359.33 -106.03 -12.32 
352.08 -105.29 -11.15 
352.55 -104.72 -11.11 
357.48 -104.88 -12.34 
358.47 -104.89 -11.81 
352.03 -104.61 -11.33 
353.01 -104.16 -11.07 
356.01 -104.18 -11.05 
348.18 -103.78 -12.49 
352.53 -103.99 -11.30 
353.77 -103.92 -11.69 
354.40 -103.90 -11.31 
356.41 -103.59 -11.01 
357.14 -103.30 -11.08 
359.45 -103.78 -10.74 
347.43 -103.14 -12.50 
352.75 -102.95 -12.54 
356.81 -103.04 -10.97 
357.55 -102.73 -11.04 
359.85 -103.18 -11.49 
359.51 -103.25 -10.92 
346.72 -102.44 -12.51 
343.89 -101.28 -12.37 
343.84 -101.25 -11.75 
343.79 -101.22 -11.13 
346.01 -101.77 -12.51 
352.58 -101.75 -12.41 
356.25 -101.61 -11.14 
360.58 -101.60 -11.54 
360.55 -101.65 -10.80 
360.90 -101.53 -11.36 
342.95 -100.79 -12.39 
342.90 -100.76 -11.79 
342.81 -100.59 -10.83 
343.48 -100.96 -12.49 
343.47 -100.95 -11.65 
343.74 -101.19 -10.51 
345.45 -100.59 -12.16 
345.03 -100.81 -11.77 
345.42 -100.57 -11.13 
345.40 -100.55 -10.09 
346.18 -100.90 -10.07 
346.21 -100.91 -11.11 
348.69 -101.13 -12.57 
355.50 -100.66 -11.25 
356.70 -101.05 -11.10 
359.16 -100.54 -10.88 
342.80 -100.27 -12.43 
343.91 -99.84 -12.19 
343.63 -100.07 -11.79 
343.89 -99.82 -11.16 
343.86 -99.81 -10.13 
344.68 -100.21 -12.18 
344.34 -100.46 -11.78 
344.65 -100.19 -11.14 
344.63 -100.18 -10.11 
347.56 -100.29 -12.58 
355.05 -100.13 -11.45 
355.99 -100.00 -11.22 
358.22 -99.80 -11.58 
358.95 -100.01 -11.55 
359.70 -100.21 -11.52 
360.47 -100.42 -11.50 
343.15 -99.47 -12.20 
342.95 -99.73 -11.79 
342.93 -99.72 -10.90 
343.10 -99.44 -10.15 
355.43 -99.11 -11.68 
356.49 -99.35 -11.19 
356.80 -99.46 -11.63 
357.50 -99.61 -11.60 
342.80 -98.49 -12.54 
352.23 -98.51 -11.80 
352.84 -98.48 -11.78 
353.47 -98.63 -11.76 
354.12 -98.79 -11.73 
354.77 -98.95 -11.71 
342.93 -98.12 -12.54 
343.40 -98.10 -12.54 
344.33 -98.09 -12.54 
351.61 -98.30 -11.83 
347.54 -97.16 -11.39 
347.52 -97.16 -10.55 
348.03 -97.10 -11.97 
348.21 -97.47 -11.38 
348.19 -97.46 -10.54 
349.19 -97.48 -11.92 
355.99 -97.58 -12.41 
356.51 -97.62 -12.40 
342.76 -96.81 -11.27 
344.70 -96.67 -12.38 
345.60 -96.30 -12.24 
346.33 -96.80 -12.05 
346.88 -96.86 -11.40 
346.21 -96.55 -10.58 
347.46 -96.94 -11.99 
344.03 -95.78 -12.40 
344.33 -95.71 -12.25 
344.32 -95.71 -11.43 
344.31 -95.71 -10.62 
344.96 -96.00 -12.25 
344.95 -96.00 -11.43 
344.93 -96.00 -10.61 
345.58 -96.29 -11.42 
345.57 -96.29 -10.60 
343.10 -95.15 -12.25 
343.09 -95.14 -11.44 
343.71 -95.43 -12.25 
343.70 -95.43 -11.44 
343.69 -95.42 -10.63 
345.31 -95.48 -12.39 
351.60 -95.42 -12.41 
352.07 -95.30 -12.40 
352.54 -95.18 -12.39 
344.68 -94.54 -12.40 
342.83 -93.80 -12.41 
344.08 -93.62 -12.40 
344.66 -93.50 -12.27 
349.68 -93.93 -12.33 
349.01 -93.08 -12.34 
344.02 -92.58 -12.29 
348.37 -92.28 -12.35 
353.22 -91.90 -12.30 
351.90 -90.74 -12.32 
352.55 -91.31 -12.31 
342.86 -90.62 -12.30 
345.79 -90.14 -12.43 
346.45 -90.65 -12.41 
349.74 -90.09 -10.57 
351.26 -90.34 -12.33 
345.20 -89.58 -12.45 
350.05 -89.64 -12.25 
350.03 -89.66 -11.41 
349.77 -89.55 -10.74 
349.75 -89.58 -10.24 
350.35 -89.66 -9.63 
350.64 -89.96 -12.35 
350.70 -89.63 -11.78 
350.41 -89.59 -10.95 
350.72 -89.58 -10.27 
350.66 -89.66 -9.13 
351.19 -89.58 -10.51 
351.56 -89.55 -8.99 
351.87 -89.56 -12.29 
351.85 -89.58 -11.85 
