# .PCD v0.7 - Point Cloud Data file format
VERSION 0.7
FIELDS x y z
SIZE 4 4 4
TYPE F F F
COUNT 1 1 1
WIDTH 1359
HEIGHT 1
VIEWPOINT 0 0 0 1 0 0 0
POINTS 1359
DATA ascii
355.81 -64.35 -10.97 
356.04 -63.99 -10.93 
358.22 -64.32 -11.03 
359.77 -63.98 -11.15 
360.73 -64.34 -11.36 
360.73 -64.19 -11.13 
361.13 -64.50 -11.25 
361.37 -63.98 -11.14 
362.21 -64.18 -10.91 
362.70 -64.34 -11.30 
362.45 -64.21 -10.71 
363.36 -64.22 -11.57 
363.28 -64.19 -10.85 
363.37 -64.17 -10.13 
363.34 -64.21 -9.60 
363.33 -64.21 -8.86 
363.30 -64.24 -8.06 
363.21 -64.48 -7.24 
363.19 -64.50 -6.57 
364.08 -64.20 -10.56 
364.02 -64.15 -10.29 
364.41 -64.17 -10.34 
365.50 -64.18 -10.30 
366.10 -63.77 -10.06 
366.57 -64.02 -9.76 
367.16 -64.05 -9.75 
356.45 -63.67 -10.94 
359.11 -63.37 -11.10 
360.06 -63.14 -11.44 
360.00 -63.71 -11.13 
360.54 -63.43 -11.35 
360.26 -63.46 -11.17 
361.17 -63.41 -11.39 
361.20 -63.49 -11.11 
362.06 -63.36 -10.94 
362.35 -63.61 -10.90 
363.61 -63.67 -11.50 
363.52 -63.79 -10.78 
363.68 -63.72 -10.13 
363.65 -63.78 -9.42 
363.60 -63.61 -8.87 
363.57 -63.66 -8.17 
363.49 -63.82 -7.36 
363.71 -63.41 -11.64 
363.72 -63.43 -10.85 
363.85 -63.33 -10.09 
363.82 -63.39 -9.38 
363.80 -63.44 -8.67 
363.72 -63.34 -8.14 
363.68 -63.40 -7.30 
363.72 -63.38 -6.64 
364.89 -63.47 -10.31 
365.51 -63.56 -10.13 
366.10 -63.77 -10.06 
366.33 -63.15 -8.73 
366.66 -63.08 -10.92 
366.85 -63.19 -10.03 
367.03 -63.27 -9.61 
366.96 -63.23 -8.74 
366.83 -63.25 -8.16 
366.84 -63.17 -7.45 
366.80 -63.15 -7.01 
367.41 -63.55 -11.65 
367.28 -63.48 -10.85 
367.32 -63.27 -10.21 
367.25 -63.17 -9.54 
367.46 -63.48 -8.71 
367.51 -63.26 -8.18 
367.33 -63.42 -7.38 
367.53 -63.37 -6.56 
358.61 -62.95 -11.46 
358.26 -62.45 -10.89 
359.24 -62.76 -11.44 
359.31 -63.08 -10.91 
359.63 -62.95 -11.44 
359.62 -62.81 -11.03 
360.42 -62.97 -11.22 
360.42 -62.97 -11.22 
361.09 -62.80 -11.26 
361.09 -62.80 -11.26 
362.08 -62.91 -11.33 
361.75 -62.73 -11.10 
362.55 -62.62 -10.71 
362.88 -62.44 -10.46 
363.02 -63.06 -10.66 
363.99 -62.82 -11.56 
364.00 -62.77 -10.85 
364.01 -62.74 -10.17 
363.94 -62.84 -9.50 
364.02 -62.72 -8.85 
363.99 -62.78 -8.00 
363.90 -62.96 -7.32 
364.04 -62.71 -6.97 
364.55 -63.07 -11.60 
365.02 -62.51 -10.80 
364.71 -62.76 -10.37 
365.29 -62.65 -11.47 
365.41 -62.55 -10.81 
365.42 -62.74 -10.27 
365.62 -62.60 -9.26 
365.59 -62.58 -8.85 
365.60 -62.64 -8.33 
365.49 -62.53 -7.63 
365.69 -62.45 -6.81 
366.10 -62.89 -11.56 
365.98 -62.84 -10.83 
366.12 -62.81 -10.07 
366.25 -62.67 -9.56 
366.01 -62.76 -8.82 
365.94 -62.72 -7.99 
366.17 -62.69 -7.25 
366.14 -62.61 -6.61 
366.44 -62.54 -11.77 
366.66 -63.08 -10.92 
366.59 -63.05 -10.06 
366.74 -62.92 -9.55 
366.72 -62.90 -8.95 
366.70 -62.95 -8.20 
366.79 -62.90 -7.32 
366.63 -62.85 -6.57 
367.27 -63.09 -9.92 
367.54 -62.85 -9.64 
367.21 -63.21 -8.67 
367.27 -63.09 -7.85 
367.15 -63.12 -7.13 
367.13 -63.10 -6.53 
345.17 -61.82 -9.31 
344.94 -61.83 -8.92 
351.51 -62.13 -11.44 
354.56 -61.89 -11.22 
358.50 -61.78 -10.70 
359.78 -62.00 -11.23 
360.15 -62.28 -11.35 
360.25 -62.08 -10.94 
362.03 -61.75 -10.49 
362.66 -62.43 -10.59 
362.45 -61.79 -10.53 
363.25 -62.25 -10.99 
363.12 -61.81 -10.51 
364.27 -62.27 -11.39 
364.02 -62.28 -10.59 
364.23 -62.32 -10.18 
364.22 -62.35 -9.57 
364.22 -62.28 -8.87 
364.25 -62.28 -7.88 
364.23 -62.32 -7.30 
364.10 -62.15 -6.68 
364.49 -61.92 -11.39 
364.69 -61.98 -10.75 
364.66 -61.97 -10.27 
364.59 -61.93 -9.32 
364.56 -61.92 -8.85 
364.69 -62.13 -8.13 
364.87 -62.04 -7.39 
364.66 -61.85 -6.74 
365.26 -62.15 -10.73 
365.24 -62.14 -10.15 
365.22 -62.13 -9.58 
365.16 -62.36 -8.88 
365.38 -62.16 -8.20 
365.30 -62.25 -7.34 
365.51 -62.23 -6.58 
366.02 -61.97 -10.22 
365.77 -62.43 -9.57 
365.74 -62.42 -8.98 
365.77 -62.34 -7.91 
365.73 -62.32 -6.92 
366.57 -61.99 -10.06 
344.63 -61.64 -11.36 
344.61 -61.63 -10.97 
344.56 -61.28 -9.24 
344.55 -61.24 -8.68 
345.22 -61.41 -11.38 
345.29 -61.04 -11.03 
345.27 -61.04 -10.52 
344.99 -61.54 -9.29 
344.98 -61.54 -9.00 
345.42 -61.09 -8.30 
345.96 -61.40 -11.42 
345.59 -61.48 -9.34 
345.70 -61.26 -9.05 
345.77 -61.36 -8.32 
346.30 -61.64 -9.07 
358.58 -61.67 -10.73 
359.93 -61.64 -11.24 
359.94 -61.69 -10.99 
361.82 -61.25 -10.77 
362.65 -61.64 -10.80 
363.20 -61.71 -10.56 
363.32 -61.23 -10.28 
363.66 -61.65 -11.06 
363.90 -61.55 -10.12 
364.45 -61.67 -10.56 
364.69 -61.46 -10.26 
364.65 -61.55 -9.18 
364.64 -61.58 -8.82 
364.78 -61.27 -8.05 
364.50 -61.72 -7.31 
364.47 -61.71 -6.65 
365.28 -61.38 -9.90 
365.24 -61.36 -8.82 
365.20 -61.34 -7.74 
344.45 -60.34 -9.08 
344.51 -60.45 -8.33 
344.85 -60.85 -11.40 
345.18 -60.89 -11.06 
345.16 -60.87 -10.12 
345.16 -60.83 -9.35 
345.14 -60.65 -8.95 
345.04 -60.97 -8.39 
345.48 -60.87 -9.04 
345.47 -60.84 -8.30 
359.90 -60.46 -10.79 
360.65 -60.63 -10.77 
361.08 -60.43 -10.51 
361.59 -60.94 -10.57 
362.32 -61.02 -10.47 
363.70 -60.42 -10.26 
364.78 -60.76 -10.54 
364.78 -60.76 -10.54 
364.90 -61.02 -9.49 
364.91 -61.00 -8.01 
365.23 -60.68 -10.49 
365.06 -60.67 -8.71 
365.03 -60.73 -7.97 
366.99 -60.41 -9.98 
367.33 -60.34 -10.14 
343.29 -59.65 -8.65 
343.28 -59.64 -8.34 
343.34 -59.68 -9.87 
343.38 -59.70 -9.42 
343.93 -59.66 -9.09 
343.93 -59.81 -8.31 
344.44 -59.94 -9.14 
344.44 -59.94 -9.14 
344.44 -59.92 -8.32 
344.79 -60.05 -9.24 
344.80 -60.04 -8.40 
359.90 -60.29 -10.74 
360.41 -59.81 -10.73 
361.19 -59.79 -10.73 
361.25 -59.89 -10.52 
362.22 -60.05 -10.62 
362.44 -59.70 -10.45 
364.59 -60.06 -10.07 
367.09 -60.15 -10.35 
367.18 -59.70 -9.93 
343.12 -59.28 -9.22 
343.10 -59.26 -8.90 
343.08 -59.21 -8.25 
343.44 -59.04 -8.46 
343.90 -59.47 -8.28 
344.34 -59.12 -9.18 
344.64 -59.01 -8.89 
344.35 -59.12 -8.22 
357.89 -59.28 -10.95 
358.50 -59.03 -10.90 
359.21 -58.96 -10.87 
359.46 -59.06 -10.85 
360.64 -59.35 -10.67 
360.78 -59.03 -10.47 
361.10 -59.18 -10.70 
361.09 -59.29 -10.50 
362.13 -59.62 -10.60 
361.59 -59.10 -10.24 
362.77 -59.25 -10.25 
363.36 -59.22 -10.35 
364.24 -59.25 -10.46 
364.62 -59.20 -10.33 
365.09 -59.34 -10.33 
365.96 -59.29 -9.95 
366.56 -59.49 -9.94 
343.12 -58.45 -9.32 
343.28 -58.74 -8.46 
343.73 -58.53 -9.18 
343.90 -58.84 -8.71 
343.73 -58.52 -8.27 
344.16 -58.78 -9.19 
344.44 -58.67 -8.90 
344.17 -58.79 -8.24 
359.17 -58.74 -10.87 
360.05 -58.57 -10.57 
360.58 -58.56 -10.58 
360.75 -58.85 -10.46 
361.11 -58.82 -10.63 
361.33 -58.80 -10.31 
361.53 -58.86 -10.74 
361.80 -58.46 -10.24 
362.83 -58.70 -9.95 
363.28 -58.65 -10.42 
363.88 -58.93 -10.54 
363.82 -58.72 -10.36 
364.89 -58.29 -10.08 
365.64 -58.43 -10.07 
366.46 -58.59 -10.05 
367.36 -58.76 -10.03 
367.18 -58.28 -9.78 
343.24 -57.75 -10.67 
343.25 -57.75 -10.17 
343.05 -57.74 -9.38 
343.06 -57.74 -8.88 
343.07 -57.74 -8.38 
343.57 -57.77 -10.63 
343.58 -57.77 -10.11 
343.38 -57.73 -9.14 
343.39 -57.73 -8.62 
343.61 -58.10 -8.08 
357.55 -57.60 -10.74 
359.35 -58.03 -10.76 
360.10 -57.99 -10.51 
360.39 -57.97 -10.58 
360.55 -57.86 -10.49 
361.25 -57.85 -10.25 
361.88 -57.96 -10.23 
362.92 -57.65 -10.68 
362.53 -57.82 -10.14 
363.11 -57.94 -10.64 
363.24 -57.83 -9.93 
364.28 -57.81 -10.15 
363.65 -57.73 -9.62 
364.41 -57.90 -10.32 
364.43 -57.85 -9.60 
365.53 -58.01 -10.11 
365.16 -57.65 -9.64 
366.01 -57.60 -9.96 
366.08 -58.03 -9.79 
366.94 -57.91 -9.86 
366.62 -58.15 -9.79 
366.64 -57.70 -9.13 
367.23 -58.02 -10.14 
342.85 -57.39 -9.39 
342.86 -57.39 -8.90 
342.87 -57.39 -8.40 
343.49 -57.37 -9.06 
343.50 -57.37 -8.00 
359.46 -57.49 -10.70 
360.40 -57.30 -10.44 
361.37 -57.11 -10.18 
361.88 -57.07 -10.31 
362.65 -57.00 -10.12 
363.07 -57.23 -9.93 
363.63 -57.09 -10.62 
364.07 -57.20 -10.36 
363.97 -57.05 -9.67 
364.57 -57.24 -9.72 
364.59 -57.18 -9.66 
365.21 -57.49 -9.87 
365.31 -57.34 -9.69 
365.80 -57.06 -10.14 
365.82 -56.85 -9.67 
366.58 -57.14 -9.13 
366.63 -56.86 -9.12 
367.55 -57.34 -10.35 
367.37 -56.95 -9.59 
367.35 -56.99 -9.04 
358.26 -56.75 -10.64 
358.79 -56.43 -10.59 
359.92 -56.52 -10.59 
360.98 -56.30 -10.24 
361.89 -56.39 -10.14 
362.54 -56.45 -10.09 
362.78 -56.55 -9.82 
363.21 -56.37 -9.92 
363.32 -56.61 -9.79 
363.95 -56.57 -10.71 
364.17 -56.35 -9.55 
364.70 -56.33 -10.33 
364.67 -56.52 -9.57 
365.26 -56.38 -9.45 
365.73 -56.38 -9.18 
366.72 -56.61 -9.91 
366.75 -56.30 -9.11 
366.66 -56.39 -9.18 
367.49 -56.75 -10.20 
367.25 -56.49 -9.16 
367.25 -56.49 -9.16 
359.45 -56.00 -10.68 
359.88 -55.78 -10.39 
360.65 -55.76 -10.27 
361.02 -55.58 -10.26 
361.97 -55.72 -10.31 
362.60 -55.72 -10.14 
362.56 -55.65 -9.81 
363.27 -55.80 -10.00 
363.03 -55.57 -9.79 
363.66 -55.46 -9.89 
364.04 -55.79 -9.50 
364.56 -55.77 -9.54 
365.27 -55.67 -9.51 
366.18 -55.59 -9.16 
365.92 -55.69 -9.06 
366.80 -55.82 -9.13 
366.83 -55.73 -9.10 
367.28 -55.71 -9.86 
367.49 -55.76 -9.01 
359.30 -55.43 -10.68 
360.07 -55.21 -10.57 
359.54 -55.17 -10.46 
360.26 -55.01 -10.53 
360.44 -54.90 -10.54 
361.19 -55.09 -10.19 
361.91 -54.97 -10.41 
361.93 -54.90 -9.82 
362.42 -55.20 -10.19 
362.69 -54.86 -9.79 
363.41 -55.01 -9.98 
363.35 -55.01 -9.78 
363.74 -54.95 -9.88 
364.25 -55.35 -9.48 
364.62 -55.15 -9.49 
365.42 -54.96 -9.48 
366.26 -55.11 -9.19 
366.15 -55.07 -9.04 
366.82 -55.09 -8.81 
367.42 -55.17 -9.00 
358.99 -54.55 -10.63 
359.48 -54.35 -10.72 
360.10 -54.51 -10.38 
360.14 -54.48 -10.54 
360.72 -54.46 -10.45 
361.05 -54.41 -10.23 
361.85 -54.24 -10.21 
362.64 -54.30 -10.18 
362.58 -54.53 -9.75 
363.14 -54.49 -10.05 
363.21 -54.20 -9.69 
363.63 -54.30 -9.89 
363.78 -54.19 -9.77 
364.80 -54.36 -9.46 
365.18 -54.19 -9.48 
365.74 -54.41 -9.40 
366.32 -54.41 -9.11 
366.51 -54.44 -9.16 
367.10 -54.30 -9.01 
367.37 -54.46 -8.99 
359.07 -53.49 -10.73 
359.76 -53.59 -10.52 
360.31 -53.69 -10.61 
360.62 -53.88 -10.30 
361.32 -53.80 -10.36 
361.97 -53.73 -10.45 
362.59 -53.67 -10.28 
362.89 -53.57 -9.76 
363.29 -53.67 -10.03 
363.45 -53.76 -9.73 
363.70 -53.70 -9.95 
363.87 -53.76 -9.72 
364.86 -53.64 -9.53 
365.17 -53.66 -9.49 
366.19 -53.31 -9.11 
366.09 -53.62 -9.12 
366.50 -53.83 -9.14 
366.90 -53.73 -9.01 
367.34 -53.70 -8.73 
351.50 -52.80 -6.50 
351.53 -52.69 -5.98 
351.91 -52.83 -5.93 
352.97 -52.67 -5.99 
361.38 -53.11 -10.34 
362.09 -52.96 -10.24 
362.80 -52.98 -10.28 
363.24 -53.15 -10.02 
363.46 -53.04 -9.63 
363.91 -52.88 -9.87 
364.13 -53.08 -9.68 
364.96 -53.13 -9.42 
365.27 -53.02 -9.46 
365.69 -52.95 -9.30 
366.05 -52.95 -9.12 
367.06 -52.82 -9.57 
366.87 -52.98 -9.05 
367.38 -52.86 -8.86 
346.10 -52.38 -11.13 
346.49 -51.95 -8.63 
346.48 -51.95 -8.13 
346.99 -52.00 -11.17 
346.98 -52.02 -9.46 
347.06 -52.06 -8.76 
347.37 -52.10 -7.33 
350.57 -52.28 -6.84 
351.22 -52.42 -6.45 
351.27 -52.25 -5.90 
352.02 -52.38 -6.62 
352.24 -52.12 -6.09 
352.21 -52.38 -5.59 
352.61 -52.46 -6.52 
352.73 -52.29 -5.85 
360.50 -52.63 -10.41 
361.13 -52.34 -10.56 
361.28 -52.22 -10.41 
362.02 -52.10 -10.10 
362.56 -52.33 -10.16 
362.61 -52.32 -9.79 
363.35 -52.32 -9.89 
363.13 -52.32 -9.89 
364.00 -52.60 -9.87 
363.98 -52.21 -9.56 
364.45 -52.04 -9.59 
364.92 -52.55 -9.13 
365.43 -52.26 -9.41 
365.43 -52.63 -8.63 
365.86 -52.56 -9.28 
366.26 -52.29 -9.11 
366.67 -52.31 -9.04 
367.36 -52.32 -8.82 
346.82 -51.68 -8.81 
346.82 -51.68 -8.44 
347.10 -51.23 -10.87 
347.10 -51.23 -10.24 
347.01 -51.51 -9.48 
347.29 -51.56 -8.72 
347.29 -51.56 -8.31 
347.32 -51.48 -7.54 
347.33 -51.49 -7.02 
347.75 -51.52 -8.05 
347.59 -51.80 -7.55 
350.32 -51.28 -6.81 
350.37 -51.93 -6.76 
350.63 -51.65 -6.34 
351.17 -51.55 -6.73 
351.37 -51.92 -5.80 
351.93 -51.76 -6.74 
352.06 -51.61 -6.07 
351.94 -51.89 -5.53 
352.60 -51.59 -5.74 
361.14 -51.58 -10.53 
361.55 -51.80 -10.57 
361.88 -51.50 -10.31 
362.58 -51.63 -10.14 
363.24 -51.32 -10.04 
363.26 -51.56 -9.70 
364.00 -51.43 -9.55 
364.67 -51.66 -9.63 
365.56 -51.60 -9.36 
365.54 -51.72 -9.12 
365.76 -51.37 -9.34 
365.84 -51.38 -9.13 
366.62 -51.45 -8.95 
367.51 -51.38 -9.52 
367.56 -51.49 -8.68 
345.60 -50.56 -7.06 
345.59 -50.88 -5.97 
346.44 -50.54 -7.89 
346.75 -50.93 -7.48 
346.25 -50.67 -6.32 
347.10 -51.22 -9.61 
346.89 -51.30 -8.86 
346.86 -51.06 -8.31 
347.05 -51.17 -7.54 
347.09 -50.89 -6.65 
347.93 -51.05 -7.92 
349.57 -50.66 -7.43 
349.56 -50.68 -6.98 
350.13 -50.60 -7.32 
350.11 -50.58 -6.77 
350.56 -50.70 -7.25 
350.55 -50.66 -6.66 
350.50 -50.76 -6.21 
351.24 -50.62 -7.20 
351.43 -50.86 -6.73 
351.69 -50.96 -6.05 
351.68 -50.60 -5.63 
351.79 -51.02 -7.13 
351.86 -50.93 -6.46 
351.69 -50.96 -6.05 
358.75 -50.96 -10.61 
359.00 -51.17 -10.50 
360.91 -51.22 -10.46 
361.80 -50.92 -10.21 
362.41 -50.87 -10.22 
362.73 -51.12 -9.83 
363.24 -50.84 -10.03 
363.37 -51.01 -9.69 
364.10 -50.95 -9.74 
364.86 -50.64 -9.44 
364.99 -50.60 -9.12 
365.13 -50.78 -9.42 
365.89 -50.87 -9.35 
366.09 -50.85 -9.10 
366.92 -50.95 -9.01 
367.14 -50.66 -9.64 
367.16 -50.76 -8.68 
345.10 -49.86 -7.05 
345.62 -50.05 -7.02 
346.05 -50.43 -6.37 
346.04 -50.34 -5.82 
346.59 -50.05 -7.92 
346.18 -50.26 -7.51 
346.39 -50.19 -6.52 
346.17 -50.37 -5.93 
347.33 -50.43 -7.22 
347.26 -50.13 -6.57 
349.82 -50.09 -7.27 
349.86 -49.87 -6.67 
350.22 -50.01 -6.03 
350.91 -50.28 -7.78 
350.98 -50.15 -7.18 
350.86 -50.41 -6.67 
350.35 -49.87 -6.30 
351.12 -50.32 -7.13 
351.70 -50.43 -6.62 
351.45 -50.10 -6.20 
351.46 -49.93 -5.54 
351.79 -49.95 -5.67 
352.13 -49.90 -5.61 
358.66 -50.04 -10.55 
362.22 -50.14 -10.17 
362.36 -50.13 -10.32 
363.02 -50.16 -10.12 
363.48 -50.42 -9.67 
364.00 -49.90 -9.91 
364.15 -50.05 -9.60 
364.45 -50.15 -9.92 
364.53 -50.31 -9.68 
365.56 -49.97 -9.36 
365.51 -50.14 -9.11 
366.09 -50.17 -9.30 
366.32 -50.04 -9.03 
366.55 -49.98 -9.31 
367.01 -50.37 -9.00 
367.04 -50.00 -8.43 
367.35 -50.18 -8.87 
367.17 -50.42 -8.44 
344.25 -49.24 -7.43 
344.68 -49.56 -6.99 
345.00 -49.42 -7.11 
345.09 -49.81 -6.54 
346.04 -49.45 -7.24 
345.56 -49.69 -6.96 
346.74 -49.57 -7.94 
346.45 -49.52 -7.54 
347.35 -49.76 -7.05 
347.35 -49.77 -6.91 
347.82 -49.27 -6.84 
350.10 -49.18 -6.48 
350.12 -49.40 -6.29 
350.38 -49.52 -7.33 
350.74 -49.52 -7.00 
350.85 -49.45 -6.28 
350.85 -49.58 -5.36 
351.08 -49.78 -6.68 
351.37 -49.50 -6.15 
351.58 -49.42 -5.64 
351.77 -49.76 -5.90 
351.89 -49.38 -5.57 
362.38 -49.47 -10.16 
363.43 -49.57 -10.14 
363.60 -49.81 -9.65 
364.23 -49.43 -10.08 
364.08 -49.14 -9.67 
364.47 -49.30 -9.84 
364.60 -49.36 -9.54 
365.59 -49.35 -9.55 
365.34 -49.27 -9.05 
366.24 -49.69 -9.34 
366.35 -49.64 -8.99 
366.71 -49.52 -9.29 
366.80 -49.33 -9.02 
367.05 -49.46 -8.41 
367.41 -49.73 -8.89 
343.86 -48.59 -11.25 
343.79 -48.88 -7.37 
343.76 -48.71 -6.82 
344.35 -48.66 -11.24 
344.23 -48.81 -7.40 
344.62 -49.12 -7.04 
344.15 -48.57 -6.27 
347.46 -48.91 -6.81 
348.37 -48.46 -10.61 
348.49 -48.52 -8.66 
348.49 -48.53 -8.43 
350.15 -49.04 -7.33 
350.19 -48.59 -7.00 
350.13 -48.85 -5.88 
350.47 -48.59 -7.37 
350.53 -48.57 -6.68 
350.57 -48.57 -6.20 
351.06 -49.04 -6.60 
351.20 -48.61 -6.23 
351.68 -48.78 -5.51 
354.28 -48.75 -7.93 
354.68 -48.47 -7.91 
355.55 -48.47 -7.79 
361.81 -48.53 -10.40 
362.53 -48.78 -10.16 
363.41 -48.74 -10.13 
364.18 -48.75 -10.02 
363.80 -48.54 -9.62 
364.48 -48.76 -10.08 
365.01 -48.72 -9.49 
365.40 -48.95 -9.55 
365.47 -48.61 -9.09 
366.11 -48.92 -9.29 
366.24 -48.62 -9.03 
366.63 -48.75 -9.29 
367.00 -48.67 -8.96 
367.44 -49.06 -8.94 
367.29 -48.71 -8.35 
343.82 -48.09 -6.77 
344.55 -47.94 -11.21 
344.04 -48.37 -7.15 
344.10 -48.07 -6.89 
344.75 -47.73 -11.20 
346.31 -47.83 -7.28 
346.78 -48.23 -6.82 
347.14 -48.12 -7.42 
348.31 -48.24 -8.48 
348.41 -47.85 -7.47 
348.38 -48.05 -6.49 
348.76 -48.18 -6.00 
348.87 -47.97 -5.20 
349.15 -47.78 -6.62 
349.21 -47.58 -6.08 
349.94 -48.11 -7.69 
350.04 -48.24 -6.33 
350.76 -48.25 -7.47 
351.03 -48.09 -5.86 
351.33 -48.25 -7.45 
351.59 -47.86 -6.87 
351.03 -48.09 -5.86 
353.09 -48.33 -7.86 
352.77 -48.06 -7.63 
352.46 -47.73 -6.28 
353.60 -48.31 -7.83 
353.56 -48.03 -7.53 
354.28 -48.21 -7.84 
354.19 -47.79 -6.20 
354.83 -47.99 -7.78 
355.50 -47.88 -7.77 
361.49 -47.96 -10.37 
361.74 -47.82 -10.21 
362.68 -48.05 -10.15 
363.25 -47.97 -10.32 
363.99 -48.09 -10.04 
363.75 -48.09 -9.64 
364.72 -47.95 -10.07 
364.72 -48.26 -9.80 
365.14 -48.15 -9.89 
365.41 -48.03 -9.81 
366.38 -48.09 -9.24 
366.18 -48.03 -9.08 
366.38 -48.09 -9.24 
366.83 -48.39 -9.10 
367.20 -48.25 -8.93 
367.56 -47.91 -8.29 
343.60 -47.60 -6.06 
344.20 -47.31 -6.41 
344.20 -47.31 -6.41 
344.89 -47.59 -11.20 
345.19 -47.34 -6.98 
345.91 -47.38 -7.23 
345.88 -47.65 -6.74 
346.83 -47.41 -7.95 
346.82 -47.60 -7.47 
346.79 -47.33 -6.87 
346.80 -47.65 -5.93 
347.28 -47.35 -10.97 
347.27 -47.23 -9.96 
347.26 -47.34 -9.46 
347.24 -47.40 -8.45 
347.22 -47.01 -8.22 
347.23 -47.31 -7.41 
347.20 -47.18 -6.47 
347.24 -47.06 -6.21 
347.69 -47.05 -10.45 
347.66 -47.41 -9.46 
348.06 -47.45 -8.95 
348.22 -47.31 -7.97 
348.20 -47.37 -7.40 
348.19 -47.29 -6.80 
348.23 -47.33 -8.56 
348.65 -47.24 -8.16 
348.80 -47.24 -7.61 
348.55 -47.49 -6.98 
348.72 -47.30 -6.34 
348.44 -47.67 -5.07 
349.37 -47.05 -8.24 
349.40 -47.26 -7.32 
349.30 -47.43 -6.70 
349.30 -47.24 -6.10 
349.58 -47.54 -5.64 
349.80 -47.10 -8.23 
349.84 -47.18 -7.55 
350.08 -47.21 -6.94 
349.93 -47.36 -6.30 
349.97 -47.59 -5.60 
350.55 -47.14 -7.67 
350.19 -47.35 -6.88 
350.68 -47.74 -5.77 
351.53 -47.68 -7.41 
351.43 -47.29 -6.62 
351.64 -47.65 -6.30 
352.02 -47.44 -7.35 
352.14 -47.34 -6.69 
352.05 -47.68 -6.29 
352.77 -47.57 -7.35 
352.53 -47.12 -6.58 
352.56 -47.37 -5.66 
353.58 -47.38 -7.24 
353.36 -47.28 -6.57 
353.46 -47.07 -6.18 
353.41 -47.48 -5.64 
354.39 -47.57 -8.03 
354.16 -47.45 -6.40 
354.28 -47.13 -5.83 
353.85 -47.50 -5.61 
354.89 -47.52 -6.30 
354.81 -47.35 -5.52 
355.64 -47.72 -7.67 
355.31 -47.05 -6.22 
355.32 -47.21 -5.45 
355.93 -47.21 -6.12 
357.66 -47.09 -10.37 
358.05 -47.31 -10.37 
362.11 -47.30 -10.20 
362.84 -47.27 -10.14 
363.49 -47.64 -9.68 
363.78 -47.46 -10.03 
364.16 -47.67 -9.71 
364.53 -47.37 -10.03 
364.76 -47.12 -9.91 
365.27 -47.39 -9.75 
365.47 -47.46 -9.60 
366.22 -47.38 -9.57 
366.13 -47.67 -9.04 
366.65 -47.20 -9.22 
366.63 -47.35 -9.04 
367.41 -47.28 -9.21 
367.54 -47.44 -8.88 
344.41 -46.99 -6.96 
345.24 -46.34 -6.75 
345.44 -46.63 -6.77 
346.64 -46.99 -7.87 
346.24 -47.02 -6.89 
347.40 -46.49 -10.62 
347.37 -46.50 -10.01 
347.32 -46.65 -9.41 
347.27 -46.81 -8.81 
347.41 -46.70 -8.31 
347.30 -47.11 -7.40 
347.34 -46.81 -6.82 
347.84 -46.77 -10.61 
348.02 -46.79 -10.17 
348.03 -46.82 -9.35 
347.94 -46.84 -8.91 
347.74 -46.82 -8.17 
347.88 -46.94 -7.43 
347.93 -46.77 -6.42 
347.92 -46.56 -5.82 
348.69 -46.37 -10.76 
348.65 -46.39 -10.12 
348.51 -46.61 -9.59 
348.44 -46.69 -8.95 
348.53 -46.60 -8.34 
348.56 -46.85 -7.34 
348.39 -46.56 -6.71 
348.26 -46.70 -6.08 
349.35 -46.45 -10.59 
349.19 -46.35 -10.19 
349.11 -46.61 -9.66 
349.33 -46.56 -8.89 
349.13 -46.88 -8.28 
349.32 -46.83 -7.24 
349.32 -46.98 -6.92 
349.47 -46.95 -6.13 
349.39 -46.37 -5.58 
349.69 -46.78 -9.25 
349.67 -46.75 -8.58 
349.69 -46.94 -8.30 
349.96 -47.03 -7.62 
350.00 -46.48 -6.72 
350.09 -46.67 -6.12 
351.75 -46.84 -7.62 
352.54 -46.87 -7.51 
352.66 -46.72 -5.83 
353.76 -46.87 -5.72 
353.96 -46.62 -5.67 
353.96 -46.62 -5.67 
355.15 -46.99 -5.68 
355.42 -46.92 -5.93 
355.42 -46.84 -5.44 
356.46 -46.34 -5.71 
356.35 -46.39 -5.52 
356.64 -46.53 -5.16 
362.71 -47.01 -10.18 
363.01 -46.45 -10.13 
364.33 -46.77 -9.95 
364.20 -46.96 -9.57 
365.00 -46.81 -9.87 
364.94 -46.46 -9.52 
365.26 -46.46 -9.89 
365.29 -46.60 -9.72 
366.01 -46.74 -9.73 
366.27 -46.94 -9.06 
366.73 -46.73 -9.49 
366.74 -46.77 -8.99 
367.27 -46.72 -9.13 
367.27 -46.72 -9.13 
343.78 -45.55 -6.79 
344.44 -45.89 -7.09 
344.38 -45.85 -6.67 
344.40 -45.71 -6.33 
345.27 -46.03 -7.88 
344.75 -46.04 -6.59 
345.44 -45.66 -8.47 
345.80 -45.74 -7.84 
345.83 -46.06 -7.65 
346.39 -45.71 -7.83 
347.18 -45.89 -8.33 
347.28 -45.95 -6.65 
347.96 -45.79 -11.09 
347.93 -46.13 -8.45 
347.56 -45.65 -8.30 
347.88 -45.82 -7.42 
347.71 -45.98 -6.65 
347.97 -45.92 -6.13 
348.59 -45.70 -11.05 
348.72 -46.30 -10.33 
348.81 -46.19 -9.30 
348.60 -45.69 -8.86 
348.50 -45.76 -8.21 
348.41 -45.83 -7.55 
348.33 -45.90 -6.89 
348.52 -45.94 -6.31 
348.97 -46.07 -10.62 
349.01 -46.17 -10.23 
349.19 -45.86 -9.49 
349.08 -45.74 -8.58 
349.47 -45.77 -8.24 
348.99 -46.27 -7.26 
349.28 -45.82 -6.50 
349.00 -46.11 -6.29 
349.81 -46.27 -10.86 
349.77 -46.29 -10.19 
352.04 -45.67 -6.03 
352.64 -45.65 -5.69 
354.02 -46.21 -5.75 
354.90 -46.33 -5.74 
354.87 -46.26 -5.61 
354.80 -45.83 -4.88 
356.56 -46.22 -5.12 
356.83 -45.74 -5.19 
362.83 -46.30 -10.16 
364.83 -45.95 -10.04 
364.45 -46.05 -9.54 
365.51 -46.16 -10.01 
365.61 -46.19 -9.67 
365.94 -45.97 -9.87 
366.13 -46.02 -9.79 
366.37 -45.94 -8.87 
366.78 -46.13 -9.53 
367.03 -45.84 -9.00 
367.18 -45.88 -9.28 
367.30 -45.95 -8.94 
342.80 -45.19 -7.07 
343.42 -45.39 -7.15 
343.65 -45.11 -6.80 
344.71 -45.46 -7.41 
344.71 -45.50 -6.83 
344.71 -45.14 -5.96 
345.36 -45.39 -8.11 
345.17 -45.39 -6.81 
345.75 -45.37 -8.33 
345.46 -45.07 -6.39 
345.61 -45.04 -6.16 
346.72 -45.36 -7.75 
347.15 -45.36 -7.77 
347.38 -45.14 -7.23 
347.31 -45.19 -6.57 
347.46 -45.37 -5.89 
347.87 -45.05 -11.37 
347.99 -45.28 -11.05 
347.99 -45.15 -8.03 
347.78 -45.33 -7.25 
348.28 -45.13 -6.80 
348.18 -45.21 -6.07 
348.44 -45.03 -11.11 
348.76 -45.56 -10.18 
348.53 -45.00 -9.50 
348.82 -45.43 -8.96 
348.81 -45.39 -8.28 
348.84 -45.29 -7.58 
348.46 -45.25 -6.78 
348.26 -45.04 -6.09 
348.84 -45.32 -7.74 
348.93 -45.24 -6.78 
349.03 -45.38 -6.16 
352.04 -45.51 -5.79 
352.68 -45.46 -5.60 
354.88 -45.37 -4.60 
362.21 -45.26 -10.24 
363.23 -45.53 -10.12 
364.29 -45.52 -10.07 
364.29 -45.23 -9.81 
364.52 -45.50 -10.09 
364.78 -45.01 -9.50 
365.44 -45.34 -9.98 
365.30 -45.62 -9.82 
365.83 -45.21 -10.02 
366.18 -45.43 -9.59 
366.67 -45.52 -9.54 
367.28 -45.37 -10.06 
367.44 -45.14 -9.46 
342.90 -44.69 -8.89 
342.88 -44.29 -6.17 
343.49 -44.57 -10.74 
343.43 -44.75 -9.50 
343.39 -44.82 -8.88 
343.37 -44.71 -8.24 
343.84 -44.66 -7.58 
343.91 -44.91 -6.40 
343.48 -44.62 -5.92 
344.54 -44.63 -7.56 
344.45 -44.68 -6.43 
344.49 -44.66 -5.89 
344.76 -44.32 -7.21 
345.19 -44.59 -6.52 
345.10 -44.90 -6.08 
345.87 -44.44 -6.72 
345.71 -44.92 -6.18 
346.72 -44.86 -6.68 
346.70 -44.72 -6.29 
347.17 -44.37 -10.92 
347.19 -44.33 -10.25 
347.11 -44.40 -9.59 
347.39 -44.37 -9.05 
347.23 -44.49 -8.40 
346.98 -44.84 -7.27 
347.52 -44.55 -6.62 
347.26 -44.56 -6.13 
348.04 -44.73 -11.34 
347.93 -44.76 -11.21 
347.77 -44.33 -10.42 
347.63 -44.63 -9.56 
347.68 -44.55 -8.87 
347.74 -44.48 -8.18 
347.77 -44.72 -7.36 
348.19 -44.93 -6.83 
347.98 -44.94 -6.12 
348.19 -44.72 -5.39 
348.49 -44.79 -10.72 
348.63 -44.91 -10.17 
348.48 -44.72 -9.36 
348.51 -44.59 -8.72 
348.63 -44.74 -8.26 
348.34 -44.52 -7.59 
348.57 -44.76 -6.38 
348.32 -44.94 -6.21 
348.59 -44.77 -5.43 
349.10 -44.41 -10.46 
348.95 -44.52 -9.77 
349.39 -44.91 -7.93 
348.90 -44.50 -7.36 
348.95 -44.81 -6.43 
348.96 -44.73 -5.70 
349.85 -44.23 -7.51 
362.11 -44.33 -10.16 
362.59 -44.80 -10.23 
363.48 -44.51 -10.11 
364.14 -44.90 -10.14 
364.92 -44.46 -9.87 
365.62 -44.54 -10.13 
365.60 -44.74 -9.51 
366.09 -44.55 -10.04 
366.15 -44.55 -9.69 
366.52 -44.31 -9.86 
366.86 -44.53 -9.58 
367.09 -44.53 -8.77 
367.48 -44.59 -9.51 
342.66 -43.84 -8.58 
342.95 -44.20 -5.85 
344.01 -44.20 -10.71 
343.94 -43.86 -6.45 
344.47 -43.52 -5.26 
345.20 -44.04 -7.52 
345.15 -43.57 -6.95 
344.86 -43.75 -5.74 
345.00 -43.73 -5.27 
345.74 -43.47 -7.42 
345.75 -43.58 -6.55 
345.57 -43.79 -6.00 
345.53 -43.77 -5.29 
346.68 -43.98 -8.11 
346.50 -43.68 -6.28 
346.40 -43.59 -5.26 
347.14 -43.62 -10.91 
347.19 -43.54 -10.22 
347.13 -43.59 -9.54 
347.14 -43.55 -8.85 
347.30 -43.67 -7.95 
347.19 -43.74 -7.26 
347.11 -43.80 -6.55 
347.02 -43.79 -6.23 
347.27 -43.59 -5.42 
347.84 -43.72 -10.83 
348.02 -43.90 -10.51 
347.61 -43.72 -9.71 
347.65 -43.68 -9.01 
347.75 -43.58 -8.29 
347.94 -43.80 -7.54 
347.62 -43.81 -7.01 
347.87 -44.06 -5.98 
348.24 -44.05 -10.86 
348.82 -43.74 -7.77 
348.56 -44.05 -7.36 
348.57 -44.01 -6.64 
348.34 -43.86 -5.94 
349.20 -43.80 -6.69 
349.50 -43.54 -5.87 
350.16 -43.79 -6.40 
349.50 -43.54 -5.87 
350.51 -44.10 -7.41 
350.65 -43.72 -6.58 
350.79 -43.55 -6.32 
352.29 -43.64 -5.43 
362.50 -43.82 -10.16 
363.08 -43.55 -10.08 
364.28 -43.88 -9.99 
365.09 -43.83 -9.97 
365.41 -44.04 -9.92 
365.33 -43.62 -9.67 
365.99 -43.98 -10.13 
366.18 -44.21 -9.80 
366.62 -43.67 -9.97 
366.67 -43.85 -9.76 
367.31 -43.96 -9.51 
342.81 -43.15 -10.73 
343.00 -43.07 -9.95 
342.98 -43.18 -9.50 
342.69 -43.30 -8.81 
344.02 -43.00 -7.45 
343.49 -43.45 -6.44 
343.92 -43.12 -5.74 
343.58 -42.98 -5.52 
344.47 -42.82 -6.71 
344.38 -43.49 -5.75 
344.59 -43.39 -5.61 
344.96 -43.38 -7.05 
345.00 -43.28 -6.35 
345.00 -43.28 -6.35 
344.77 -43.22 -5.11 
346.08 -43.20 -8.75 
346.05 -43.36 -7.90 
345.87 -43.49 -7.23 
345.93 -43.14 -6.36 
345.44 -43.18 -6.11 
346.46 -43.08 -10.67 
346.45 -43.08 -9.96 
346.36 -43.14 -9.27 
346.46 -43.24 -8.56 
346.27 -43.37 -7.88 
346.38 -43.30 -7.26 
346.26 -43.37 -6.54 
346.46 -43.44 -6.33 
346.40 -43.59 -5.26 
347.22 -43.41 -9.22 
347.26 -43.37 -8.48 
347.20 -43.47 -8.15 
347.28 -43.29 -7.28 
346.94 -43.46 -6.39 
346.84 -43.09 -6.25 
347.33 -43.33 -5.43 
347.60 -43.47 -10.38 
348.05 -43.50 -7.98 
347.76 -43.35 -7.30 
347.87 -43.10 -6.79 
347.83 -43.16 -6.25 
348.31 -43.27 -7.20 
348.73 -43.43 -6.53 
348.28 -43.38 -6.27 
349.42 -42.97 -5.69 
350.01 -43.14 -6.04 
351.23 -42.85 -5.83 
351.50 -43.19 -5.33 
351.83 -43.00 -5.83 
351.96 -43.46 -5.44 
360.59 -43.13 -10.25 
363.80 -43.38 -10.10 
364.66 -43.29 -10.07 
365.46 -43.20 -9.95 
366.19 -43.32 -10.14 
365.80 -43.33 -9.64 
366.74 -43.10 -9.89 
367.01 -43.20 -9.66 
367.23 -43.22 -9.54 
342.92 -42.75 -10.97 
343.12 -42.81 -9.16 
343.23 -42.66 -8.99 
343.14 -42.80 -8.38 
343.55 -42.14 -7.28 
343.74 -42.17 -6.58 
343.94 -42.46 -6.29 
343.39 -42.61 -5.14 
344.10 -42.33 -7.92 
344.04 -42.45 -7.54 
344.55 -42.57 -6.52 
344.39 -42.75 -6.27 
344.73 -42.31 -7.69 
345.32 -42.81 -6.59 
345.72 -42.73 -7.45 
345.60 -42.78 -6.71 
346.53 -42.51 -10.67 
346.36 -42.43 -9.94 
346.35 -42.43 -9.23 
346.40 -42.38 -8.50 
346.58 -42.23 -7.75 
346.83 -42.24 -7.72 
346.61 -42.40 -6.27 
346.37 -42.18 -4.59 
347.37 -42.71 -6.66 
347.39 -42.76 -6.10 
348.00 -42.39 -6.27 
348.33 -42.35 -6.02 
349.62 -42.68 -6.05 
350.10 -42.63 -6.00 
350.93 -42.79 -5.65 
351.05 -42.53 -5.43 
360.27 -42.78 -10.24 
363.44 -42.35 -10.07 
364.83 -42.27 -10.06 
365.52 -42.66 -9.42 
365.82 -42.63 -10.07 
366.39 -42.72 -9.78 
366.81 -42.55 -9.84 
367.03 -42.64 -9.61 
367.27 -42.28 -9.86 
367.57 -42.45 -9.77 
343.11 -41.51 -11.26 
343.01 -41.66 -10.37 
343.21 -41.82 -7.19 
343.28 -41.51 -6.69 
343.42 -41.48 -9.52 
343.67 -41.58 -8.93 
343.90 -41.67 -8.36 
343.45 -42.04 -6.39 
344.60 -41.73 -7.59 
344.34 -41.94 -6.74 
345.36 -41.53 -7.88 
344.84 -41.66 -7.58 
344.74 -42.09 -6.22 
346.00 -41.64 -7.32 
345.88 -42.05 -6.44 
345.81 -41.47 -5.87 
346.27 -41.75 -7.75 
346.49 -41.60 -7.28 
346.50 -41.76 -6.98 
346.61 -41.66 -6.21 
347.14 -42.13 -7.07 
346.92 -41.95 -6.94 
347.94 -41.98 -5.85 
351.02 -41.45 -6.16 
351.43 -41.61 -6.13 
352.15 -41.79 -6.32 
363.09 -41.53 -10.09 
365.53 -41.78 -10.29 
365.91 -42.06 -10.01 
366.69 -41.49 -9.77 
366.69 -41.49 -9.77 
367.43 -41.83 -9.86 
367.36 -41.95 -9.73 
343.08 -41.17 -10.92 
343.30 -41.29 -10.27 
343.30 -41.43 -9.82 
342.67 -41.04 -6.88 
343.58 -41.37 -11.30 
343.80 -40.89 -10.96 
343.63 -41.02 -10.24 
343.64 -41.17 -9.50 
343.85 -41.27 -8.92 
343.99 -41.10 -7.83 
343.99 -41.31 -7.52 
343.87 -41.36 -6.75 
344.15 -41.24 -10.88 
344.05 -41.36 -8.35 
344.32 -41.35 -7.45 
344.46 -41.25 -6.48 
345.17 -41.20 -8.37 
345.21 -41.42 -7.36 
345.40 -41.17 -8.29 
345.76 -41.16 -7.16 
345.80 -41.13 -6.38 
346.36 -41.23 -7.36 
346.39 -41.20 -6.55 
346.40 -41.31 -5.94 
347.30 -40.76 -5.52 
348.94 -40.93 -7.51 
348.59 -41.29 -6.94 
348.95 -41.01 -7.92 
348.94 -40.93 -7.51 
350.86 -41.14 -6.07 
350.93 -40.74 -5.59 
351.71 -41.40 -6.73 
351.07 -40.97 -6.13 
351.48 -41.29 -5.52 
351.86 -41.43 -6.26 
362.72 -40.88 -10.05 
363.27 -41.00 -10.16 
364.44 -40.99 -9.95 
365.46 -41.24 -9.82 
366.86 -40.88 -9.60 
367.46 -40.97 -9.81 
343.02 -40.53 -10.98 
343.60 -40.12 -11.06 
343.57 -40.48 -10.24 
343.85 -40.67 -9.32 
343.98 -40.71 -8.60 
344.04 -40.72 -8.03 
343.70 -40.27 -7.35 
343.93 -40.23 -6.75 
344.55 -40.05 -11.24 
344.14 -40.52 -8.59 
344.14 -40.53 -8.30 
344.48 -40.08 -7.44 
344.31 -40.47 -6.58 
344.74 -40.22 -7.36 
348.16 -40.32 -5.99 
347.64 -40.28 -5.29 
348.90 -40.61 -7.86 
348.86 -40.52 -7.23 
348.88 -40.36 -6.97 
348.49 -40.59 -6.04 
348.96 -40.37 -7.85 
348.99 -40.29 -7.72 
349.51 -40.39 -6.71 
350.94 -40.21 -6.58 
350.69 -40.25 -6.06 
351.25 -40.63 -6.64 
351.27 -40.54 -6.11 
360.09 -40.12 -10.50 
360.50 -40.52 -10.53 
362.16 -40.18 -10.32 
362.59 -40.37 -10.13 
362.99 -40.65 -10.13 
365.89 -40.20 -10.01 
366.57 -40.46 -10.02 
367.47 -40.43 -9.73 
343.77 -39.68 -11.44 
343.57 -39.68 -10.95 
344.47 -39.79 -11.15 
344.27 -39.76 -7.39 
344.64 -39.76 -6.50 
345.02 -39.90 -7.38 
345.09 -39.58 -6.74 
348.19 -39.78 -5.95 
347.60 -39.54 -5.32 
348.82 -40.00 -6.81 
348.43 -39.73 -5.93 
349.10 -39.67 -7.36 
350.54 -39.97 -6.87 
350.73 -39.73 -6.16 
359.94 -39.78 -10.47 
360.43 -39.80 -10.43 
362.05 -39.79 -10.11 
362.42 -39.58 -10.37 
365.71 -39.81 -9.98 
365.39 -39.71 -9.83 
365.96 -39.88 -9.63 
366.43 -39.80 -10.12 
366.53 -39.68 -9.70 
