# .PCD v0.7 - Point Cloud Data file format
VERSION 0.7
FIELDS x y z
SIZE 4 4 4
TYPE F F F
COUNT 1 1 1
WIDTH 786
HEIGHT 1
VIEWPOINT 0 0 0 1 0 0 0
POINTS 786
DATA ascii
352.79 35.97 -4.80 
352.81 35.99 -4.46 
353.79 36.09 -5.39 
353.63 35.82 -4.92 
353.23 35.66 -4.55 
354.28 35.88 -6.68 
354.34 35.78 -5.54 
354.20 35.53 -4.86 
354.44 35.69 -4.57 
354.60 35.91 -6.02 
354.81 35.60 -5.44 
354.87 35.65 -4.98 
354.89 35.90 -4.30 
354.79 35.66 -3.74 
355.42 36.09 -6.02 
355.95 35.52 -5.64 
355.70 36.02 -4.93 
355.67 35.69 -4.36 
355.69 35.69 -3.51 
355.87 35.48 -2.72 
356.40 35.77 -5.61 
356.12 35.62 -3.95 
356.07 35.59 -3.59 
355.96 35.61 -2.91 
357.19 35.66 -3.85 
352.43 36.23 -4.81 
352.42 36.21 -4.49 
353.61 36.29 -6.03 
353.46 36.65 -5.72 
353.79 36.58 -5.00 
353.43 36.66 -4.30 
354.18 36.76 -5.99 
354.13 36.22 -5.41 
354.00 36.39 -5.00 
354.32 36.65 -4.35 
354.32 36.74 -3.46 
355.23 36.83 -6.02 
354.64 36.21 -5.63 
354.79 36.57 -4.83 
355.04 36.56 -4.13 
355.09 36.72 -3.89 
355.81 36.23 -5.17 
355.61 36.36 -3.92 
355.54 36.56 -3.77 
356.56 36.35 -5.58 
356.27 36.52 -4.04 
356.24 36.80 -3.42 
357.13 36.79 -4.01 
358.20 36.36 -6.15 
353.76 37.04 -5.58 
354.02 37.49 -4.65 
354.25 37.03 -4.18 
355.16 37.24 -5.57 
355.05 36.95 -4.85 
354.78 37.23 -4.15 
355.01 36.98 -3.36 
355.43 37.25 -5.53 
355.76 37.34 -4.82 
355.73 37.40 -3.92 
356.20 37.22 -3.84 
357.72 37.22 -5.11 
357.80 37.32 -3.95 
357.52 37.51 -3.19 
358.76 37.51 -5.98 
359.25 37.55 -4.17 
354.36 37.87 -4.77 
354.39 37.68 -3.76 
354.67 37.62 -4.11 
355.82 37.67 -5.54 
358.20 38.05 -4.08 
359.29 37.76 -5.10 
360.03 37.98 -4.09 
351.63 41.97 -2.54 
352.64 42.42 -4.30 
350.99 42.77 -2.25 
351.34 42.68 -3.35 
351.34 42.87 -1.76 
352.31 42.87 -3.95 
352.03 43.05 -2.88 
350.97 43.71 -3.30 
351.43 43.77 -2.80 
351.69 43.25 -2.04 
351.38 43.77 -1.72 
351.84 43.38 -2.27 
351.77 43.22 -1.78 
352.47 43.35 -3.92 
351.02 44.18 -0.98 
351.44 43.99 -4.23 
351.44 44.43 -3.04 
351.49 44.37 -0.88 
351.83 44.28 -3.89 
352.21 44.38 -3.87 
351.93 44.25 -1.17 
351.84 44.21 -0.64 
352.23 44.12 -0.12 
352.85 44.53 -1.77 
352.99 44.39 -1.00 
352.93 44.08 -0.09 
353.36 44.34 -0.14 
350.53 45.20 -4.27 
350.78 45.21 -3.14 
351.23 44.97 -3.13 
351.10 44.84 -1.65 
352.00 44.90 -4.19 
352.11 44.57 -2.11 
352.14 45.07 -0.59 
352.26 44.86 0.17 
352.90 44.95 -3.88 
352.61 44.67 -2.02 
352.47 45.13 -0.66 
352.57 44.71 0.43 
349.29 45.79 -3.20 
349.34 45.94 -3.07 
350.27 45.77 -3.07 
350.31 45.76 -2.34 
351.05 45.65 -5.66 
350.77 45.94 -5.23 
350.84 45.63 -4.26 
350.88 45.63 -3.39 
351.04 45.76 -3.02 
350.75 45.49 -2.41 
351.24 45.77 -5.02 
351.54 45.67 -3.08 
351.35 45.62 -2.35 
351.40 45.66 -1.63 
351.96 45.65 -5.14 
352.37 45.68 -4.16 
351.82 45.61 -3.56 
352.11 45.63 -2.87 
352.56 45.79 -3.91 
352.71 45.80 -2.23 
352.94 45.44 -0.92 
352.86 45.48 0.16 
354.00 45.33 -4.41 
348.25 46.64 -4.18 
348.25 46.54 -2.13 
348.95 46.63 -4.76 
348.60 46.48 -3.23 
348.80 46.38 -2.99 
349.25 46.33 -4.99 
349.19 46.31 -3.33 
349.27 46.19 -2.78 
349.24 46.57 -2.18 
349.60 46.15 -1.68 
350.28 46.41 -5.05 
349.79 46.21 -3.89 
349.91 46.25 -3.43 
349.85 46.32 -2.71 
350.18 46.36 -2.32 
350.88 46.15 -5.53 
350.89 46.34 -5.12 
350.69 46.62 -4.25 
350.97 46.33 -3.42 
350.64 46.65 -2.76 
350.72 46.10 -2.40 
350.85 46.34 -1.47 
351.44 46.26 -5.41 
351.10 46.41 -5.25 
351.22 46.44 -4.07 
351.39 46.51 -3.83 
351.12 46.52 -2.95 
352.05 46.42 -5.14 
351.94 46.31 -4.41 
351.93 46.41 -2.86 
351.97 46.42 -1.42 
353.11 46.59 -3.33 
352.60 46.64 -1.39 
352.90 46.52 -0.19 
353.65 46.35 -3.32 
353.51 46.20 -2.98 
354.55 46.04 -4.92 
354.19 46.27 -4.23 
354.44 46.65 -3.86 
354.59 46.33 -4.08 
347.85 47.25 -4.83 
347.82 47.30 -3.97 
348.04 46.86 -3.35 
347.95 47.33 -2.99 
348.98 47.07 -5.10 
348.81 46.83 -3.44 
348.77 47.10 -2.78 
348.54 47.13 -2.11 
349.47 46.88 -5.09 
349.03 47.10 -3.61 
349.38 46.92 -2.67 
349.23 46.86 -2.02 
350.02 47.35 -5.29 
350.23 46.85 -5.24 
350.01 47.01 -4.16 
349.84 46.97 -3.43 
349.93 46.90 -3.01 
349.93 47.32 -2.36 
350.18 47.05 -1.03 
350.93 46.97 -5.30 
350.95 46.96 -5.10 
350.51 47.16 -4.13 
351.05 47.02 -3.84 
350.61 47.03 -2.58 
350.72 46.73 -1.60 
351.40 46.92 -4.13 
351.21 46.89 -3.82 
351.46 46.91 -2.97 
351.75 47.20 -0.58 
351.78 46.98 -5.28 
351.98 47.32 -4.07 
352.15 47.10 -3.78 
351.95 47.25 -2.89 
353.17 46.88 -3.14 
353.08 47.03 -2.00 
352.76 47.00 -1.47 
353.28 47.25 -4.31 
353.61 47.20 -3.27 
353.41 47.07 -2.84 
353.81 47.14 -2.47 
353.81 47.31 -1.70 
353.25 46.69 -0.64 
353.25 47.29 1.38 
353.90 47.05 -3.43 
353.92 47.12 -2.81 
353.92 47.06 -1.66 
355.03 46.72 -4.91 
354.81 46.90 -3.97 
354.60 46.93 -3.86 
346.58 47.97 -3.65 
347.39 47.49 -5.04 
347.51 47.51 -1.90 
347.18 47.83 -1.29 
347.87 47.58 -4.86 
347.89 47.65 -3.34 
347.81 47.40 -2.29 
348.30 47.41 -5.15 
348.60 47.86 -3.95 
348.72 47.90 -3.47 
348.87 47.79 -2.83 
348.52 47.57 -2.47 
349.26 47.53 -4.93 
349.23 47.79 -4.49 
349.14 47.74 -3.44 
349.42 47.69 -3.03 
349.34 47.38 -2.02 
349.96 47.77 -4.72 
350.11 47.59 -4.28 
349.72 47.58 -3.39 
349.84 47.54 -2.94 
350.06 47.54 -1.52 
350.39 47.63 -4.99 
350.47 47.50 -4.15 
350.88 48.01 -3.75 
350.99 47.68 -2.94 
351.17 47.67 -5.21 
351.75 47.75 -4.41 
351.30 48.03 -3.33 
351.63 47.68 -2.71 
351.41 47.80 -1.16 
352.11 48.01 -4.83 
352.08 47.84 -4.26 
352.24 47.71 -2.98 
352.12 47.74 -2.41 
351.86 47.73 -0.89 
352.64 47.95 -4.23 
352.53 47.71 -3.67 
353.05 47.55 -2.79 
352.71 47.67 -2.15 
352.52 47.56 -1.19 
352.58 47.51 -0.73 
353.72 47.38 -2.76 
353.67 47.46 -2.42 
353.32 47.52 1.59 
354.21 47.97 -4.34 
354.29 47.94 -3.80 
353.99 47.89 -2.98 
353.95 47.90 -1.90 
355.21 47.38 -4.42 
354.67 47.57 -2.75 
346.13 48.50 -3.61 
346.49 48.75 -4.20 
346.34 48.45 -3.77 
346.59 48.47 -2.86 
346.51 48.50 -2.28 
347.18 48.15 -5.01 
347.11 48.70 -4.37 
347.30 48.38 -3.59 
347.03 48.73 -2.59 
347.10 48.70 -2.21 
347.05 48.12 -1.42 
347.69 48.28 -5.21 
347.75 48.37 -4.28 
347.99 48.11 -3.20 
347.85 48.37 -2.81 
348.23 48.58 -2.07 
348.78 48.33 -4.05 
348.74 48.40 -3.63 
348.70 48.58 -2.76 
348.59 48.18 -2.06 
349.44 48.25 -4.89 
349.42 48.37 -4.25 
349.39 48.35 -3.64 
349.39 48.47 -2.85 
349.44 48.16 -1.89 
350.08 48.69 -5.48 
349.98 48.55 -5.11 
349.81 48.34 -4.41 
349.74 48.40 -3.92 
350.27 48.54 -2.86 
349.68 48.21 -1.86 
350.61 48.67 -5.62 
350.41 48.69 -4.84 
350.62 48.59 -4.00 
350.39 48.66 -3.66 
350.59 48.40 -2.91 
350.53 48.31 -1.58 
350.93 48.66 -0.84 
351.39 48.35 -5.56 
351.61 48.52 -4.91 
351.49 48.36 -4.39 
351.23 48.59 -3.78 
351.28 48.26 -3.04 
351.30 48.70 -2.07 
351.94 48.38 -5.37 
351.86 48.08 -4.92 
352.28 48.50 -4.29 
352.25 48.24 -3.66 
351.83 48.33 -2.25 
351.94 48.36 -1.05 
352.99 48.57 -5.15 
352.84 48.62 -3.45 
352.59 48.35 -1.79 
353.52 48.76 -3.50 
354.14 48.14 -5.17 
354.48 48.08 -4.19 
354.38 48.12 -2.07 
355.12 48.08 -3.02 
346.10 49.35 -3.26 
346.02 49.16 -2.92 
345.88 49.25 -2.41 
346.57 49.12 -3.99 
346.72 49.21 -3.52 
346.21 49.36 -2.92 
346.84 49.23 -1.44 
347.33 49.33 -4.87 
347.24 49.07 -4.38 
347.34 49.27 -3.45 
347.03 48.73 -2.59 
347.33 49.44 -1.73 
347.55 49.18 -0.68 
347.34 49.39 -0.28 
347.94 49.04 -4.72 
347.79 49.04 -4.35 
348.06 49.04 -3.67 
347.73 48.83 -2.51 
347.97 48.91 -1.47 
348.57 49.18 -4.79 
348.55 49.12 -4.52 
348.57 49.06 -3.64 
348.39 49.37 -3.00 
348.60 49.22 -1.78 
349.39 48.94 -4.84 
349.29 49.17 -4.52 
348.99 48.94 -3.62 
349.15 49.03 -2.77 
350.09 49.40 -5.41 
350.19 48.91 -5.03 
350.05 49.13 -4.22 
349.72 49.06 -3.54 
349.64 49.10 -2.93 
349.85 49.23 -2.26 
350.01 49.44 -1.39 
350.11 48.98 -0.77 
350.74 49.12 -5.50 
350.93 49.03 -5.05 
350.44 49.21 -4.40 
350.63 49.07 -3.63 
350.79 49.12 -3.16 
350.59 49.28 -1.51 
351.29 48.87 -5.42 
351.54 49.17 -5.01 
351.61 49.15 -4.68 
351.52 49.00 -3.57 
351.49 48.93 -2.97 
351.46 49.43 -1.35 
351.82 49.03 -4.92 
352.00 49.16 -4.39 
352.18 49.38 -2.88 
353.02 49.07 -5.07 
352.68 49.18 -3.91 
352.83 49.25 -3.23 
352.81 49.26 -3.07 
353.44 49.18 -4.88 
353.59 49.39 -4.46 
353.24 49.16 -3.54 
353.28 49.28 -2.90 
354.10 49.27 -4.89 
354.10 49.28 -4.25 
354.96 49.45 -5.28 
354.80 49.13 -4.67 
344.09 49.81 -4.42 
345.05 50.14 -4.41 
345.33 49.95 -2.47 
345.88 49.99 -4.68 
345.48 50.07 -4.44 
345.95 49.49 -3.73 
345.88 49.74 -2.93 
346.07 49.96 -2.07 
346.73 49.82 -4.63 
346.58 49.98 -4.39 
346.71 49.64 -3.48 
346.68 50.00 -1.80 
346.44 50.00 -1.30 
346.58 49.55 -0.49 
347.03 49.82 -4.72 
346.86 49.88 -4.51 
346.85 49.50 -3.23 
347.22 49.63 -0.94 
347.93 49.75 -4.72 
347.73 49.51 -4.48 
348.16 49.74 -3.71 
348.63 49.78 -4.87 
348.60 49.72 -4.27 
348.32 49.53 -3.23 
348.61 49.97 -2.66 
348.49 49.81 -2.40 
348.44 50.01 -1.58 
349.47 49.90 -5.52 
349.12 49.79 -5.06 
349.24 49.88 -4.18 
349.11 49.58 -3.20 
349.39 49.74 -2.94 
349.52 49.88 -1.99 
349.61 49.92 -1.41 
349.54 49.87 -0.68 
349.84 49.80 -5.67 
350.08 50.10 -4.83 
350.00 49.53 -4.29 
349.97 49.93 -3.47 
349.89 49.81 -2.79 
350.07 49.73 -2.55 
349.94 49.65 -0.77 
350.48 49.61 -6.10 
350.47 49.68 -5.90 
350.59 49.88 -5.17 
350.48 49.82 -4.47 
350.78 49.97 -3.52 
350.75 49.55 -2.88 
351.25 49.54 -5.35 
351.66 49.77 -4.87 
351.54 49.70 -3.66 
351.67 49.64 -2.96 
351.91 49.66 -4.98 
352.09 49.96 -4.31 
352.35 49.88 -3.81 
351.85 49.75 -2.83 
352.40 49.80 -1.82 
352.00 49.68 -1.09 
353.00 49.62 -5.04 
352.96 49.75 -4.17 
352.98 50.08 -2.75 
353.75 49.91 -4.90 
353.51 49.77 -4.15 
353.29 50.03 -3.49 
353.35 49.61 -2.78 
353.21 50.12 -1.75 
354.13 49.86 -5.32 
354.42 49.52 -4.65 
354.26 49.82 -4.41 
354.31 49.98 -3.73 
354.63 49.80 -4.81 
355.38 50.00 -4.12 
343.82 50.71 -3.61 
344.59 50.59 -4.38 
344.07 50.54 -3.52 
345.44 50.31 -4.58 
345.87 50.60 -4.65 
345.96 50.59 -4.52 
345.69 50.73 -3.13 
346.35 50.58 -4.97 
346.45 50.30 -4.36 
346.24 50.43 -3.48 
346.80 50.65 -3.13 
346.90 50.40 -4.94 
346.98 50.44 -4.52 
346.85 50.48 -2.49 
347.03 50.79 -0.84 
347.71 50.37 -4.63 
347.73 50.43 -4.50 
348.22 50.44 -3.49 
348.22 50.44 -2.93 
348.65 50.58 -5.05 
348.55 50.34 -4.00 
348.61 50.39 -3.79 
348.70 50.29 -2.94 
349.13 50.38 -5.10 
349.13 50.41 -4.47 
348.96 50.48 -3.49 
349.30 50.72 -2.73 
349.52 50.19 -1.86 
350.20 50.69 -5.53 
350.09 50.42 -5.02 
349.80 50.54 -4.53 
349.91 50.50 -3.41 
350.09 50.49 -3.14 
350.27 50.74 -2.43 
350.33 50.51 -1.65 
350.58 50.58 -5.41 
350.62 50.48 -4.79 
350.92 50.70 -4.47 
351.02 50.36 -3.57 
350.69 50.45 -2.91 
350.63 50.65 -2.01 
351.64 50.68 -4.65 
351.64 50.57 -4.15 
351.61 50.44 -3.55 
351.16 50.67 -2.92 
351.56 50.19 -2.36 
352.19 50.64 -4.65 
352.16 50.68 -4.13 
352.40 50.40 -3.62 
352.44 50.22 -2.75 
351.91 50.51 -1.34 
352.70 50.45 -5.10 
352.53 50.30 -4.36 
352.99 50.34 -3.59 
352.50 50.50 -2.93 
353.05 50.75 -1.95 
353.07 50.48 -1.41 
353.54 50.25 -4.93 
353.19 50.30 -4.03 
353.87 50.41 -4.01 
354.50 50.60 -2.98 
354.58 50.46 -4.86 
354.71 50.34 -3.37 
355.51 50.28 -4.03 
344.13 51.46 -4.47 
345.18 51.09 -4.99 
345.08 51.48 -4.18 
346.00 51.04 -4.77 
345.93 51.25 -3.93 
346.04 51.31 -3.86 
346.46 50.81 -4.78 
346.48 50.84 -3.99 
347.30 50.87 -4.59 
347.40 51.27 -2.90 
347.76 50.92 -4.80 
347.85 51.08 -4.24 
347.85 51.12 -3.59 
347.94 50.88 -1.86 
347.72 50.98 -1.20 
348.78 51.31 -6.60 
348.57 50.90 -5.00 
348.32 51.19 -3.21 
348.35 51.28 -2.98 
349.25 51.06 -6.60 
349.50 51.44 -5.53 
349.21 50.88 -4.17 
349.63 51.00 -3.38 
349.45 51.50 -2.01 
349.97 51.18 -5.52 
349.82 51.38 -5.12 
350.25 50.96 -4.38 
349.83 50.91 -3.61 
349.98 51.53 -1.93 
349.89 51.50 -1.57 
350.63 50.95 -5.32 
351.02 51.29 -4.61 
350.41 51.47 -3.73 
350.70 51.04 -2.88 
350.50 51.47 -2.45 
350.37 51.52 -1.46 
351.31 51.52 -4.88 
351.73 51.07 -3.98 
351.26 51.33 -3.80 
351.96 51.48 -4.75 
351.90 51.15 -3.62 
351.76 51.22 -2.83 
352.32 51.15 -2.03 
352.34 51.03 -1.64 
352.06 51.39 -0.75 
352.56 51.04 -4.78 
352.97 51.41 -3.00 
352.48 51.07 -2.09 
352.51 51.11 -1.19 
352.76 50.91 -0.69 
353.29 50.88 -4.28 
353.30 51.53 -2.57 
354.03 51.17 -3.64 
354.09 50.99 -2.71 
354.56 51.08 -2.51 
343.35 52.04 -4.52 
344.09 52.18 -4.25 
345.42 51.68 -3.91 
345.95 51.66 -4.19 
346.24 52.12 -4.25 
347.50 51.96 -5.29 
347.00 52.16 -4.93 
347.48 51.74 -3.92 
347.34 51.96 -3.28 
347.29 51.67 -2.98 
347.80 51.75 -5.13 
347.77 51.84 -4.25 
348.86 52.03 -5.46 
348.32 51.99 -4.83 
348.30 51.83 -2.83 
348.59 51.75 -2.41 
349.29 51.76 -5.46 
349.30 51.99 -4.86 
349.41 52.16 -2.29 
349.87 51.81 -5.33 
349.74 51.70 -4.91 
349.82 51.88 -4.07 
349.88 51.66 -2.91 
349.68 51.67 -2.04 
349.77 52.00 -1.54 
350.47 51.88 -3.69 
350.71 51.74 -2.70 
350.94 51.67 -1.72 
351.53 51.73 -4.89 
351.56 52.25 -3.39 
351.42 51.99 -1.91 
351.21 51.78 -1.23 
351.43 51.98 -1.07 
352.13 51.95 -4.86 
352.21 51.76 -4.43 
352.37 51.67 -2.74 
352.66 51.95 -2.95 
353.63 51.61 -4.98 
353.32 51.83 -2.78 
354.28 51.95 -2.99 
354.89 51.61 -2.55 
343.68 52.64 -4.44 
345.88 52.35 -5.14 
346.82 52.74 -5.06 
346.66 52.58 -4.12 
347.32 52.72 -4.46 
348.22 52.81 -5.02 
348.65 52.53 -4.83 
349.06 52.35 -4.93 
349.60 52.74 -2.23 
350.21 52.45 -4.88 
349.91 52.60 -3.25 
349.87 52.50 -2.64 
349.88 52.52 -2.21 
350.02 52.62 -1.50 
349.82 52.91 -1.03 
350.92 52.62 -4.70 
350.74 52.42 -3.72 
350.36 52.35 -2.72 
350.73 52.48 -1.80 
350.84 52.33 -0.93 
351.46 52.31 -4.64 
351.21 52.29 -3.16 
351.09 52.36 -1.94 
353.10 52.46 -3.35 
353.40 52.54 -3.54 
347.53 53.30 -3.18 
347.12 53.24 -2.24 
347.53 53.56 -1.29 
347.83 53.16 -4.88 
348.03 53.43 -1.84 
347.90 53.38 -1.15 
349.12 53.05 -3.49 
349.53 53.29 -2.66 
349.59 53.24 -2.19 
349.79 53.11 -3.25 
349.98 53.00 -1.41 
351.01 53.40 -4.97 
350.63 53.29 -4.04 
347.24 54.05 -2.21 
350.40 53.76 -1.65 
351.32 53.70 -4.80 
355.41 55.58 -2.58 
357.21 55.67 -2.94 
354.94 56.04 -3.74 
355.30 56.46 -3.57 
355.59 56.30 -2.66 
355.96 56.17 -3.85 
356.01 55.89 -2.25 
357.11 55.90 -2.71 
357.81 56.01 -1.73 
355.18 57.01 -3.70 
355.69 56.64 -2.55 
357.05 56.68 -2.97 
357.70 56.48 -2.44 
358.32 57.00 -1.85 
358.52 56.93 -1.19 
358.96 56.91 -3.80 
356.63 57.82 -3.94 
356.57 57.42 -0.81 
356.63 57.35 0.24 
357.58 57.77 -3.14 
357.38 57.63 -1.63 
358.74 57.49 -3.67 
358.10 57.72 -2.82 
358.33 57.43 -0.88 
358.85 57.78 -3.64 
358.82 57.61 -2.46 
359.11 57.17 -1.39 
353.24 58.05 -3.35 
354.44 58.55 -2.58 
355.23 58.39 -3.80 
355.78 58.36 -3.99 
355.71 58.13 -3.63 
355.69 58.52 -0.71 
356.09 58.05 -3.81 
356.03 58.06 -1.01 
356.57 58.44 0.03 
356.84 58.37 -3.34 
357.21 58.35 -2.69 
356.74 58.31 0.34 
357.59 58.32 -3.65 
357.47 58.18 -2.73 
357.69 58.04 -2.41 
358.31 58.35 -4.48 
358.09 57.88 -3.64 
358.08 58.34 -2.64 
358.21 58.09 -2.43 
358.84 57.88 -2.67 
358.98 58.12 -1.90 
353.77 59.17 -1.75 
353.95 58.90 -3.37 
354.41 58.66 -2.94 
355.06 59.21 -3.98 
354.94 59.16 -3.75 
355.19 58.95 -3.13 
355.17 58.68 -1.68 
355.62 58.80 -5.04 
355.27 58.90 -4.11 
355.64 58.78 -3.73 
355.76 59.13 -3.17 
355.88 58.86 -0.96 
355.55 58.92 -0.19 
356.41 59.08 -4.85 
356.47 59.08 -4.54 
356.51 59.15 -3.59 
356.28 58.99 -2.37 
356.17 59.12 0.04 
357.07 58.71 -4.59 
357.27 58.65 -4.51 
356.75 58.94 -3.37 
356.81 58.60 0.79 
357.94 58.93 -4.90 
357.76 59.21 -4.15 
357.60 59.19 -1.69 
358.14 59.00 -4.73 
353.10 59.43 -1.78 
354.51 59.56 -4.05 
354.27 59.49 -1.80 
354.27 59.37 -1.67 
355.13 59.83 -4.87 
355.21 59.59 -3.85 
355.07 59.54 -3.14 
355.15 59.84 -0.39 
355.62 59.46 -5.52 
355.77 59.45 -4.86 
355.82 59.58 -4.55 
355.80 59.73 -3.70 
355.49 59.41 -1.49 
355.44 59.92 0.47 
356.29 59.31 -4.62 
356.29 59.47 -3.93 
356.24 59.79 -3.32 
356.22 59.88 -2.37 
357.30 59.88 -3.52 
356.92 59.28 -2.61 
357.23 59.73 -2.38 
357.17 59.81 -1.69 
357.83 59.35 -2.63 
357.87 59.89 -2.26 
357.50 59.70 -1.46 
358.41 59.67 -2.16 
353.59 60.47 -4.83 
354.20 60.18 -4.84 
354.13 60.20 -3.98 
354.14 60.41 -3.74 
354.00 60.15 -1.05 
354.96 60.01 -4.65 
354.95 59.97 -4.57 
355.15 60.15 -1.86 
354.59 60.36 -1.53 
354.69 59.99 -0.47 
355.41 60.46 -3.90 
355.60 60.17 -3.40 
355.30 59.98 -1.27 
356.28 60.31 -3.95 
356.31 60.42 -3.10 
357.88 60.07 -0.37 
358.06 60.05 -2.40 
358.08 59.97 -0.46 
