# .PCD v0.7 - Point Cloud Data file format
VERSION 0.7
FIELDS x y z
SIZE 4 4 4
TYPE F F F
COUNT 1 1 1
WIDTH 1734
HEIGHT 1
VIEWPOINT 0 0 0 1 0 0 0
POINTS 1734
DATA ascii
367.88 160.73 -3.84 
368.09 160.74 -2.98 
368.07 160.71 -2.53 
368.10 160.97 -1.32 
367.86 160.66 -1.08 
368.69 160.53 -3.49 
368.80 161.00 -3.46 
368.39 161.11 -2.72 
368.71 160.83 -1.76 
368.45 160.85 -1.10 
368.68 160.81 -0.05 
368.73 161.02 0.45 
369.35 161.09 -3.72 
369.47 160.95 -0.07 
369.17 160.68 0.13 
369.98 160.88 -4.10 
370.74 160.88 -2.16 
370.78 161.14 -2.07 
373.60 160.77 -3.89 
374.16 160.48 -4.04 
382.29 160.78 -3.72 
388.14 160.71 -3.58 
388.33 160.99 -3.18 
388.77 160.93 -3.57 
389.51 160.84 -3.49 
389.57 160.73 -3.14 
389.69 160.80 -2.31 
389.51 160.97 -1.81 
389.95 160.82 -0.29 
390.00 160.71 0.56 
390.64 161.16 -1.60 
390.63 161.16 -0.95 
390.63 161.15 -0.30 
390.64 161.06 0.08 
390.65 161.15 1.02 
390.77 161.05 -2.28 
391.15 160.79 -1.69 
390.97 160.79 -0.88 
391.14 160.79 -0.48 
390.97 160.79 0.22 
390.77 161.03 0.92 
392.01 160.84 -2.13 
391.67 160.51 -1.67 
391.66 160.51 -1.06 
391.44 160.62 -0.25 
391.78 160.74 0.44 
392.59 160.81 -3.04 
392.47 160.93 -2.32 
392.47 161.16 -1.62 
392.47 161.15 -0.81 
392.47 161.14 -0.01 
392.47 160.92 0.14 
368.01 161.56 -3.85 
367.99 161.20 -2.92 
367.82 161.53 -2.55 
368.03 161.35 -1.72 
367.94 161.27 -0.84 
367.89 161.30 -0.57 
368.25 161.85 1.00 
368.60 161.76 -3.90 
368.75 161.54 -2.20 
368.53 161.58 -1.80 
368.78 161.28 -0.98 
368.67 161.34 -0.43 
368.95 161.34 0.58 
369.45 161.26 -3.69 
369.02 161.27 -3.45 
369.11 161.31 -1.12 
369.09 161.35 0.00 
369.18 161.52 0.22 
369.91 161.51 -3.68 
370.57 161.69 -4.05 
370.68 161.76 -1.96 
370.80 161.86 -1.20 
387.46 161.56 -3.58 
387.31 161.77 -2.54 
387.95 161.33 -3.58 
388.45 161.48 -3.01 
388.49 161.34 -2.45 
388.71 161.43 -3.03 
389.19 161.21 -2.46 
389.89 161.86 -3.26 
389.56 161.67 -2.08 
389.59 161.86 -1.72 
389.71 161.86 -1.24 
389.58 161.85 -0.30 
389.72 161.85 0.47 
390.59 161.37 -3.55 
390.66 161.28 -2.90 
390.33 161.50 -1.68 
390.33 161.50 -0.95 
390.33 161.50 -0.23 
390.32 161.50 0.50 
391.22 161.42 -3.19 
390.83 161.34 -2.56 
391.30 161.58 -1.91 
391.42 161.71 -0.99 
391.31 161.59 -0.22 
391.31 161.60 0.35 
392.09 161.84 -3.01 
391.85 161.43 -2.47 
391.78 161.85 -1.77 
391.78 161.85 -1.19 
391.87 161.78 -0.27 
391.43 161.72 0.08 
392.49 161.66 -3.01 
392.48 161.66 -2.49 
392.35 161.57 -1.94 
392.47 161.65 -0.93 
392.34 161.56 -0.23 
392.15 161.62 0.21 
392.53 161.72 0.80 
368.05 162.13 -3.80 
367.83 161.97 -3.41 
367.99 162.37 -2.21 
367.69 162.09 -1.76 
367.75 162.05 -1.07 
367.94 162.24 -0.50 
367.79 162.36 0.17 
367.92 162.08 0.78 
368.45 162.28 -3.82 
368.68 162.21 -3.33 
368.50 162.18 -2.12 
368.34 162.36 -1.81 
368.57 162.17 -0.68 
368.72 161.88 -0.55 
368.73 161.99 0.55 
368.43 162.04 0.98 
369.68 162.35 -3.71 
369.46 162.46 -3.35 
369.12 162.56 -2.34 
369.51 162.49 -2.07 
369.74 162.48 -3.42 
369.83 162.11 -1.80 
370.64 161.99 -2.14 
370.64 161.99 -2.14 
370.65 162.12 -0.98 
371.14 162.52 -4.07 
371.37 161.90 -1.96 
386.91 162.29 -3.53 
386.67 162.42 -2.91 
386.78 162.32 -2.73 
388.46 162.42 -3.56 
388.56 162.51 -3.08 
388.48 162.52 -2.37 
388.46 162.42 -1.72 
388.46 162.41 -1.11 
388.45 162.41 -0.49 
388.49 162.48 0.50 
389.00 162.13 -3.56 
389.00 162.12 -2.94 
388.99 162.12 -2.32 
388.99 162.12 -1.69 
388.90 162.24 -1.06 
388.89 162.23 -0.37 
388.89 162.23 0.34 
389.66 162.13 -3.07 
389.94 162.49 -2.50 
389.76 162.23 -1.54 
389.42 161.99 -1.18 
389.58 161.85 -0.30 
389.58 161.85 0.41 
390.55 162.55 -3.03 
390.56 162.23 -2.55 
390.42 162.48 -1.83 
390.54 162.40 -0.92 
390.54 162.40 -0.36 
390.53 162.40 0.19 
390.93 162.38 -3.03 
390.93 162.38 -2.52 
391.29 162.14 -1.88 
390.98 162.20 -0.89 
391.23 162.17 -0.31 
391.28 162.14 0.40 
392.04 162.24 -3.01 
391.69 162.02 -2.51 
391.78 161.85 -1.77 
391.68 162.00 -0.96 
391.67 161.96 -0.27 
392.10 162.52 0.47 
392.10 162.52 1.19 
392.51 162.23 -3.09 
392.45 162.47 -2.39 
392.45 162.46 -1.59 
392.39 162.44 -0.96 
392.38 162.44 -0.42 
392.38 162.43 0.12 
392.26 162.51 0.93 
368.14 162.82 -3.55 
367.93 163.16 -3.20 
368.00 162.88 -2.21 
367.67 162.68 -1.56 
367.79 162.62 -0.83 
367.65 162.79 -0.38 
368.40 163.25 -3.79 
368.32 163.10 -3.28 
368.47 162.81 -2.04 
369.15 162.99 -3.58 
369.50 163.01 -3.08 
369.21 163.05 -2.52 
369.50 162.68 -1.65 
369.37 162.79 -0.75 
369.66 163.21 -0.43 
369.48 163.14 0.62 
370.03 162.74 -3.70 
370.38 162.95 -3.23 
369.81 163.02 -2.69 
370.06 163.18 -1.81 
369.98 162.59 -1.09 
369.72 163.08 -0.63 
370.53 163.04 -3.41 
370.45 163.10 -2.70 
373.66 163.05 -2.85 
385.72 162.88 -3.48 
387.20 163.18 -1.31 
386.91 163.36 -0.25 
387.19 163.18 0.38 
387.44 163.00 -3.57 
387.43 162.99 -2.98 
387.43 162.99 -2.38 
387.43 162.99 -1.78 
387.58 162.96 -1.16 
387.57 162.96 -0.49 
387.63 162.94 0.42 
388.29 162.66 -2.96 
388.23 162.61 -2.48 
388.07 162.70 -1.83 
387.94 162.70 -1.14 
388.23 162.60 -0.43 
388.06 162.69 0.46 
389.31 163.11 -3.30 
389.05 163.22 -2.55 
389.13 163.10 -1.88 
389.04 163.21 -1.06 
389.10 163.16 -0.33 
389.09 163.15 0.22 
389.80 162.89 -3.04 
389.56 162.90 -2.41 
389.78 162.88 -1.54 
389.75 162.93 -0.91 
389.74 162.93 -0.36 
389.74 162.93 0.20 
390.52 162.90 -3.12 
390.22 162.76 -2.55 
389.99 162.69 -1.85 
390.15 162.70 -1.02 
390.17 162.72 -0.33 
390.16 162.72 0.23 
391.21 163.05 -3.13 
391.21 163.15 -2.49 
391.19 163.21 -1.53 
391.19 163.17 -0.97 
391.17 163.19 -0.35 
391.16 163.18 0.21 
391.76 162.99 -3.10 
391.76 162.99 -2.47 
391.80 162.88 -1.76 
391.77 162.89 -0.90 
391.77 162.89 -0.37 
391.76 162.89 0.17 
391.75 162.98 0.70 
392.47 163.00 -3.11 
392.55 162.91 -2.48 
392.32 162.68 -1.69 
392.37 162.66 -1.12 
392.47 162.65 -0.36 
392.30 162.68 0.48 
392.50 162.93 0.78 
368.19 163.47 -3.82 
367.97 163.74 -2.88 
367.94 163.79 -2.40 
367.81 163.72 -2.08 
367.95 163.32 -1.12 
368.45 163.59 -3.82 
368.78 163.78 -3.35 
368.55 163.31 -1.80 
368.94 163.60 -0.05 
369.33 163.23 -2.99 
369.62 163.34 -2.40 
369.56 163.93 -1.44 
369.60 163.54 -1.20 
369.38 163.90 -0.21 
369.22 163.61 0.36 
370.34 163.30 -3.10 
370.13 163.84 -2.43 
369.80 163.43 -1.61 
370.09 163.50 -1.03 
369.86 163.52 -0.52 
370.96 163.53 -3.49 
371.10 163.75 -3.46 
370.63 163.57 -2.50 
384.47 163.49 -3.43 
384.46 163.45 -2.59 
385.75 163.96 -3.21 
385.75 163.96 -2.58 
385.75 163.96 -1.94 
385.74 163.96 -1.29 
385.94 163.86 -0.27 
385.74 163.95 0.65 
386.37 163.65 -3.54 
386.17 163.78 -3.17 
386.17 163.78 -2.46 
386.18 163.77 -1.75 
386.18 163.77 -1.04 
386.35 163.64 -0.24 
386.18 163.76 0.40 
386.79 163.42 -3.53 
386.91 163.38 -3.15 
386.91 163.37 -2.43 
386.94 163.27 -1.80 
386.91 163.37 -0.98 
386.91 163.36 -0.25 
386.77 163.41 0.35 
387.51 163.90 -3.00 
387.50 163.90 -2.47 
387.68 163.90 -1.55 
387.68 163.90 -1.02 
387.67 163.90 -0.48 
387.67 163.89 0.06 
388.29 163.55 -3.07 
388.28 163.55 -2.54 
388.23 163.70 -1.56 
388.23 163.70 -1.03 
388.23 163.70 -0.49 
388.22 163.70 0.05 
388.69 163.39 -3.05 
389.26 163.76 -2.50 
388.68 163.38 -1.57 
388.90 163.32 -0.96 
388.90 163.32 -0.41 
388.89 163.32 0.14 
389.72 163.84 -3.12 
389.72 163.84 -2.54 
389.77 163.78 -1.55 
389.77 163.78 -1.03 
389.71 163.83 -0.24 
389.70 163.83 0.35 
390.42 163.58 -3.02 
390.35 163.50 -2.61 
390.43 163.57 -1.57 
390.44 163.55 -0.97 
390.36 163.56 -0.39 
390.33 163.50 0.26 
390.62 163.78 0.78 
391.18 163.68 -3.09 
391.23 163.50 -2.53 
391.00 163.30 -1.75 
391.19 163.67 -0.90 
390.87 163.40 -0.25 
390.87 163.41 0.29 
391.17 163.52 0.74 
391.66 163.76 -2.96 
391.65 163.77 -2.26 
391.85 163.64 -1.66 
391.85 163.53 -1.03 
391.66 163.63 -0.32 
391.83 163.54 0.35 
391.71 163.43 0.92 
392.21 163.58 -2.80 
392.21 163.57 -2.29 
392.26 163.41 -1.68 
392.26 163.41 -1.14 
392.56 163.47 -0.23 
392.57 163.47 0.47 
368.02 164.17 -3.57 
367.94 164.34 -2.97 
367.98 164.14 -2.51 
368.65 163.97 -3.70 
368.82 164.63 -3.09 
368.88 164.30 -2.25 
368.35 163.98 -2.06 
368.55 164.07 -0.02 
369.36 164.20 -3.54 
369.17 164.55 -3.22 
369.58 164.18 -1.18 
369.78 163.98 -3.50 
370.25 164.09 -3.38 
370.32 164.26 -2.37 
370.01 164.30 -0.89 
370.23 164.34 -0.48 
370.72 164.33 -3.32 
370.81 164.46 -2.22 
371.14 164.18 -3.65 
383.13 164.10 -3.58 
384.75 164.51 -3.20 
384.75 164.50 -2.51 
384.75 164.50 -1.83 
384.76 164.49 -1.14 
384.75 164.54 -0.34 
384.76 164.49 0.24 
385.56 164.10 -3.55 
385.44 164.13 -3.18 
385.44 164.13 -2.49 
385.44 164.12 -1.79 
385.44 164.12 -1.09 
385.44 164.12 -0.39 
385.44 164.11 0.31 
386.32 164.46 -3.54 
386.31 164.51 -3.11 
386.30 164.51 -2.59 
386.27 164.63 -1.63 
386.29 164.50 -1.02 
386.30 164.46 -0.40 
386.28 164.50 0.04 
386.71 164.28 -3.01 
387.09 164.14 -2.57 
386.91 164.40 -1.59 
386.90 164.40 -1.06 
386.69 164.27 -0.38 
387.07 164.13 0.09 
387.53 164.06 -3.29 
387.69 164.42 -2.44 
387.39 164.20 -1.58 
387.44 164.08 -1.06 
387.44 164.08 -0.53 
387.43 164.08 0.01 
388.33 164.51 -3.14 
388.30 164.58 -2.37 
388.31 164.57 -1.68 
388.39 164.54 -1.02 
388.32 164.50 -0.34 
388.31 164.50 0.22 
388.46 164.63 0.77 
388.98 164.17 -3.20 
388.98 164.25 -2.35 
388.99 164.25 -1.64 
389.00 164.24 -0.94 
389.00 164.24 -0.23 
389.11 164.26 0.19 
388.92 164.40 0.74 
389.58 164.03 -3.14 
389.60 164.38 -2.68 
389.62 164.14 -1.67 
389.61 164.14 -1.12 
389.64 164.35 -0.41 
389.65 164.35 0.35 
389.49 164.40 0.87 
390.41 164.23 -3.01 
390.18 164.41 -2.47 
390.24 164.19 -1.71 
390.58 164.34 -1.06 
390.37 164.32 -0.23 
390.29 164.11 0.25 
390.06 164.08 0.82 
391.05 164.16 -2.96 
391.03 164.17 -2.25 
390.98 164.15 -1.72 
391.01 164.10 -1.08 
391.01 164.10 -0.53 
390.96 164.21 0.61 
390.71 164.54 0.87 
391.49 164.10 -2.85 
391.76 164.10 -2.75 
391.73 164.11 -2.00 
391.92 164.16 -1.15 
391.68 164.14 -0.51 
391.65 164.16 0.25 
392.51 164.31 -2.47 
392.48 164.33 -1.67 
392.44 164.35 -0.87 
392.15 164.20 -0.34 
368.20 165.12 -3.81 
368.06 164.75 -3.19 
368.52 165.10 -3.54 
368.53 165.29 -3.38 
368.55 164.78 -2.76 
369.31 165.09 -3.22 
370.05 165.31 -3.52 
370.14 165.35 -3.19 
370.73 164.97 -2.33 
371.63 164.83 -3.46 
383.34 165.26 -3.61 
383.45 165.22 -3.22 
383.45 165.21 -2.56 
383.45 165.21 -1.90 
383.59 165.18 -0.94 
383.58 165.17 -0.41 
383.45 165.20 0.10 
384.09 164.87 -3.21 
384.09 164.86 -2.54 
384.09 164.86 -1.86 
384.11 164.89 -0.78 
383.97 164.96 -0.39 
384.09 164.85 0.17 
384.78 165.23 -3.13 
384.80 165.18 -2.54 
384.75 165.33 -1.67 
384.76 165.23 -1.07 
384.78 165.18 -0.47 
384.77 165.18 0.06 
385.37 165.01 -3.17 
385.16 165.01 -2.53 
385.36 165.00 -1.63 
385.35 165.00 -1.11 
385.53 164.83 -0.43 
385.34 165.00 -0.06 
385.92 164.69 -3.11 
386.48 165.21 -2.49 
386.14 164.76 -1.61 
386.14 164.76 -1.09 
385.94 164.84 -0.10 
386.44 165.31 0.63 
386.86 165.22 -3.23 
386.93 165.19 -2.41 
386.85 165.21 -1.63 
386.93 165.18 -1.08 
386.94 165.17 -0.40 
387.03 165.30 0.15 
387.05 165.36 0.86 
387.60 164.96 -3.17 
387.64 164.89 -2.39 
387.58 165.02 -1.70 
387.57 164.95 -1.00 
387.59 164.95 -0.31 
387.58 165.06 0.23 
387.53 165.11 0.83 
388.47 165.18 -3.15 
388.47 165.18 -2.53 
388.19 164.83 -1.85 
388.33 165.03 -1.13 
388.17 164.83 -0.19 
388.17 164.82 0.37 
388.00 164.88 0.80 
389.02 164.93 -3.13 
389.02 164.93 -2.51 
389.00 165.09 -1.84 
388.72 165.10 -0.99 
388.93 164.90 -0.15 
388.69 165.12 0.45 
389.01 164.92 0.63 
389.48 164.92 -3.08 
389.46 164.92 -2.36 
389.70 164.79 -1.66 
389.69 164.79 -1.02 
389.69 164.79 -0.45 
389.40 164.95 0.54 
389.62 165.20 0.85 
390.31 164.80 -2.92 
390.54 165.00 -2.69 
390.51 165.02 -1.90 
390.47 165.03 -1.11 
390.44 165.05 -0.32 
390.25 164.98 0.33 
390.40 164.74 0.74 
390.96 165.27 -2.48 
390.92 165.29 -1.66 
390.72 165.01 -1.08 
391.24 164.90 -0.14 
391.75 164.78 -2.48 
391.71 164.80 -1.66 
391.67 164.82 -0.85 
392.48 165.11 -2.91 
392.14 164.92 -2.45 
392.41 165.15 -1.96 
368.93 166.00 -3.50 
368.72 165.69 -3.39 
369.02 165.64 -3.17 
370.37 165.94 -3.50 
370.10 165.78 -3.14 
370.68 165.86 -3.21 
370.51 165.49 -2.09 
370.53 165.87 -2.03 
371.74 165.51 -3.41 
382.12 165.96 -3.09 
382.13 165.97 -2.55 
382.13 165.97 -1.52 
382.12 165.97 -1.00 
382.11 165.95 -0.39 
382.06 166.01 0.25 
382.53 165.73 -3.08 
382.53 165.73 -2.54 
382.83 165.55 -1.93 
382.84 165.59 -0.97 
382.83 165.59 -0.44 
382.83 165.59 0.09 
383.23 165.39 -3.57 
383.53 165.86 -3.20 
383.31 165.89 -2.56 
383.52 165.86 -1.67 
383.30 165.89 -1.03 
383.50 165.86 -0.13 
383.06 165.47 0.35 
384.06 165.65 -3.21 
384.05 165.54 -2.55 
384.04 165.65 -1.69 
384.03 165.57 -1.10 
384.03 165.53 -0.49 
384.12 165.46 0.25 
384.42 165.39 -3.14 
384.42 165.36 -2.54 
384.67 165.43 -1.65 
384.69 165.42 -1.11 
384.69 165.41 -0.61 
384.92 166.05 0.47 
385.25 165.42 -3.54 
385.54 165.86 -3.14 
385.65 165.87 -2.35 
385.53 165.85 -1.59 
385.52 165.85 -1.08 
385.49 165.96 -0.47 
385.51 165.79 0.14 
385.13 166.02 0.76 
386.19 165.57 -3.18 
386.31 165.48 -2.43 
386.20 165.72 -1.67 
386.19 165.72 -1.07 
386.21 165.61 -0.41 
386.25 165.70 0.17 
386.17 165.72 0.75 
386.67 165.40 -3.19 
386.67 165.40 -2.63 
386.75 165.66 -1.63 
386.75 165.65 -1.06 
386.74 165.65 -0.48 
386.79 165.47 0.26 
386.56 165.60 0.89 
387.43 165.68 -3.16 
387.81 165.87 -2.48 
387.53 165.89 -1.77 
387.53 165.89 -1.18 
387.81 165.83 -0.32 
387.41 165.67 0.47 
388.01 165.50 -3.17 
388.01 165.49 -2.51 
388.03 165.62 -1.80 
388.07 165.46 -0.97 
388.05 165.47 -0.23 
388.04 165.48 0.50 
388.27 165.75 0.82 
388.74 165.66 -2.87 
389.01 165.85 -2.71 
388.98 165.87 -1.89 
388.81 165.84 -1.18 
388.78 165.86 -0.38 
388.61 165.77 0.25 
389.78 165.45 -2.70 
389.75 165.47 -1.90 
389.71 165.49 -1.09 
389.68 165.51 -0.29 
389.65 165.53 0.52 
390.14 165.77 -2.49 
390.10 165.80 -1.65 
390.36 166.04 -0.71 
390.47 165.38 -0.11 
390.75 165.60 -2.48 
391.10 165.91 -1.68 
391.22 165.49 -0.73 
391.85 165.54 -2.12 
368.99 166.09 -3.17 
370.70 166.56 -3.49 
370.51 166.60 -3.10 
377.57 166.76 -2.83 
378.57 166.44 -3.37 
379.32 166.72 -3.15 
378.90 166.72 -2.68 
380.04 166.49 -3.14 
379.68 166.64 -2.66 
380.68 166.75 -3.31 
380.68 166.77 -2.58 
380.67 166.75 -1.61 
380.67 166.75 -1.04 
380.67 166.75 -0.46 
380.67 166.75 0.11 
381.33 166.40 -3.63 
381.12 166.53 -3.26 
381.33 166.40 -2.57 
381.13 166.50 -1.58 
381.32 166.40 -0.97 
381.13 166.49 -0.43 
381.13 166.49 0.16 
381.79 166.40 -3.16 
381.85 166.59 -2.58 
382.05 166.55 -1.70 
381.83 166.59 -1.06 
382.03 166.54 -0.17 
381.70 166.17 0.13 
382.57 166.27 -3.16 
382.68 166.39 -2.30 
382.56 166.27 -1.64 
382.55 166.27 -1.13 
382.56 166.24 -0.54 
382.60 166.27 0.11 
383.45 166.73 -3.17 
383.60 166.72 -2.66 
383.46 166.68 -1.97 
383.66 166.74 -1.13 
383.46 166.71 -0.38 
383.47 166.70 0.32 
384.05 166.60 -3.15 
383.98 166.58 -2.50 
384.08 166.54 -1.72 
384.04 166.59 -1.06 
384.11 166.71 -0.39 
384.22 166.72 0.25 
384.22 166.74 0.89 
384.76 166.35 -3.12 
384.81 166.29 -2.42 
384.76 166.47 -1.63 
384.75 166.35 -0.99 
384.74 166.35 -0.46 
384.73 166.48 0.23 
384.72 166.48 0.86 
385.18 166.30 -3.04 
385.18 166.30 -2.48 
385.30 166.33 -1.80 
385.45 166.35 -1.02 
385.44 166.35 -0.43 
385.43 166.35 0.15 
385.43 166.35 0.75 
386.22 166.25 -3.20 
386.18 166.43 -2.57 
385.95 166.32 -1.73 
385.97 166.31 -0.90 
385.88 166.36 -0.27 
385.88 166.36 0.32 
386.00 166.29 0.76 
386.76 166.46 -3.05 
386.82 166.48 -2.65 
386.77 166.46 -1.83 
386.78 166.45 -1.21 
386.85 166.46 -0.30 
386.81 166.37 0.37 
386.79 166.61 0.94 
387.29 166.16 -3.06 
387.30 166.16 -2.46 
387.30 166.16 -1.86 
387.34 166.22 -0.93 
387.35 166.22 -0.35 
387.31 166.09 0.32 
387.54 166.17 0.88 
388.12 166.20 -2.78 
388.20 166.33 -2.71 
388.17 166.36 -1.88 
388.05 166.23 -1.17 
388.02 166.25 -0.35 
387.98 166.26 0.46 
388.94 166.31 -2.57 
389.25 166.32 -1.64 
388.86 166.35 -0.88 
388.82 166.38 -0.03 
389.73 166.44 -3.03 
389.89 166.13 -2.49 
389.72 166.15 -1.63 
389.80 166.18 -0.75 
389.73 166.15 -0.59 
390.23 166.55 -2.57 
390.19 166.57 -1.67 
390.92 166.16 -2.11 
371.12 167.27 -3.64 
375.87 167.45 -2.77 
376.27 167.35 -3.69 
376.87 167.24 -3.40 
377.09 167.17 -2.73 
377.74 167.32 -3.28 
377.79 167.42 -2.66 
378.54 167.15 -3.13 
378.47 166.98 -2.68 
378.99 167.01 -3.22 
379.27 167.10 -2.77 
379.44 167.44 -1.58 
379.44 167.43 -1.06 
379.49 167.38 -0.27 
379.32 167.45 0.11 
380.11 167.18 -3.18 
379.97 167.16 -2.59 
379.96 167.16 -1.57 
379.95 167.16 -1.06 
380.02 167.10 -0.23 
379.80 167.22 0.01 
380.61 167.23 -3.23 
380.50 167.33 -2.59 
380.59 167.23 -1.71 
380.48 167.32 -1.07 
380.58 167.23 -0.18 
380.53 166.83 0.05 
381.22 167.08 -3.17 
381.19 167.01 -2.32 
381.12 167.01 -1.73 
381.24 166.99 -1.08 
381.31 166.89 -0.18 
382.00 167.04 -3.13 
382.01 167.17 -2.58 
382.19 167.46 -1.63 
382.14 167.32 -1.09 
382.14 167.31 -0.15 
382.14 167.34 0.19 
382.69 167.35 -3.14 
382.57 167.32 -2.40 
382.64 167.26 -1.70 
382.82 167.23 -0.95 
382.62 167.24 -0.23 
382.77 167.34 0.15 
383.32 166.97 -3.15 
383.32 167.11 -2.57 
383.26 167.05 -1.66 
383.30 166.97 -1.05 
383.30 167.11 -0.36 
383.38 167.16 0.29 
383.59 167.35 0.88 
383.91 166.96 -3.04 
383.99 167.02 -2.35 
383.98 167.02 -1.77 
383.96 167.11 -1.06 
384.08 167.07 -0.37 
384.06 167.19 0.38 
384.07 167.07 0.84 
384.59 166.97 -3.23 
384.59 166.97 -2.63 
384.56 166.83 -1.58 
384.55 166.83 -0.99 
384.58 166.96 -0.19 
384.59 167.17 0.28 
384.53 166.83 0.80 
385.47 166.89 -2.92 
385.66 167.08 -2.40 
385.26 167.08 -1.61 
385.32 167.10 -0.95 
385.44 167.07 -0.40 
385.45 167.07 0.23 
385.21 167.11 0.73 
385.99 166.77 -2.31 
386.07 167.22 -1.97 
386.09 167.21 -1.15 
386.12 167.19 -0.33 
386.28 167.07 0.39 
386.14 167.18 0.48 
386.67 166.78 -3.31 
386.67 166.78 -2.51 
387.52 166.95 -2.70 
387.32 166.86 -1.87 
387.45 166.99 -0.98 
387.41 167.01 -0.12 
387.21 166.92 0.68 
388.49 167.26 -2.97 
388.38 166.93 -2.50 
388.34 166.95 -1.62 
388.29 166.98 -0.74 
388.50 167.29 -0.64 
389.25 167.18 -1.66 
389.20 167.21 -0.73 
389.94 166.81 -2.10 
368.18 168.09 -1.08 
368.61 168.07 -0.92 
369.24 168.14 -0.69 
369.55 167.63 1.09 
369.95 167.97 0.60 
370.07 167.73 1.19 
370.63 167.99 -0.57 
372.15 168.16 0.39 
375.28 167.79 -3.32 
375.22 168.09 -2.31 
374.87 168.14 -1.78 
375.99 168.01 -3.65 
375.89 168.11 -3.22 
375.88 168.14 -2.61 
375.88 168.11 -1.78 
375.88 168.11 -1.30 
376.10 168.09 -3.67 
376.44 167.82 -3.20 
376.37 167.96 -2.68 
376.41 167.91 -1.78 
376.41 167.91 -1.29 
376.81 167.74 -3.17 
377.07 167.80 -2.79 
377.14 167.56 -1.72 
376.78 167.74 -1.22 
377.68 167.93 -2.95 
377.67 167.91 -2.66 
377.67 167.92 -1.92 
378.54 167.96 -3.21 
378.52 167.97 -2.41 
378.55 167.97 -1.69 
378.51 167.97 -0.99 
378.49 167.94 -0.36 
378.49 167.93 0.23 
379.15 167.93 -3.26 
379.22 167.73 -2.40 
379.13 167.91 -1.72 
379.12 167.91 -1.21 
379.11 167.91 -0.18 
378.99 167.66 0.28 
379.74 167.68 -3.10 
380.01 167.60 -2.37 
379.93 167.62 -1.71 
379.72 167.66 -1.05 
379.85 167.57 -0.18 
380.61 167.67 -2.86 
380.60 167.65 -2.22 
380.75 167.84 -1.68 
380.81 168.08 -0.88 
380.81 168.08 -0.25 
380.73 167.84 0.43 
381.19 167.82 -3.12 
381.16 167.97 -2.30 
381.25 167.88 -1.71 
381.22 167.99 -1.05 
381.21 167.93 -0.25 
381.21 167.85 0.39 
381.90 167.75 -3.14 
381.89 167.75 -2.60 
381.90 167.62 -1.72 
381.88 167.75 -0.98 
381.96 167.74 -0.37 
382.07 167.82 0.37 
382.13 168.13 0.99 
382.68 167.80 -3.25 
382.63 167.75 -2.33 
382.62 167.75 -1.73 
382.67 167.79 -1.06 
382.55 167.79 -0.42 
382.54 167.80 0.32 
382.63 167.87 0.95 
383.09 167.66 -3.25 
383.00 167.72 -2.40 
383.32 167.85 -1.58 
383.33 167.84 -0.92 
383.33 167.84 -0.25 
383.34 167.83 0.42 
383.55 167.86 0.77 
384.12 167.79 -2.55 
384.13 167.78 -1.93 
383.96 167.51 -0.97 
384.28 167.71 -0.30 
384.29 167.71 0.35 
384.74 167.85 -2.44 
384.75 167.85 -1.60 
384.42 167.69 -1.05 
384.50 167.73 -0.39 
384.51 167.73 0.26 
384.43 167.54 0.80 
385.56 167.71 -1.95 
385.52 167.73 -1.09 
385.48 167.75 -0.23 
385.44 167.77 0.63 
385.41 168.00 0.80 
386.51 167.56 -0.07 
387.08 167.96 -2.51 
387.11 167.50 -1.70 
387.06 167.52 -0.82 
386.98 168.03 -0.66 
387.46 167.50 -2.51 
387.27 167.77 -1.52 
387.36 167.55 -0.71 
387.27 167.76 -0.43 
388.08 168.06 -2.00 
388.00 168.12 -0.96 
388.91 167.49 -2.10 
388.87 167.51 -1.12 
367.68 168.66 -1.07 
368.17 168.85 1.74 
368.86 168.19 -0.52 
368.90 168.59 0.28 
368.53 168.64 2.39 
369.21 168.70 -0.48 
369.54 168.52 0.36 
369.67 168.75 1.40 
369.62 168.77 2.14 
369.81 168.31 -3.65 
370.22 168.54 0.43 
370.39 168.56 0.81 
369.96 168.20 1.50 
370.18 168.83 2.25 
370.65 168.25 -0.62 
370.66 168.73 0.25 
372.18 168.84 0.50 
374.59 168.88 -3.23 
374.51 168.86 -2.45 
374.58 168.83 -1.75 
374.61 168.85 -1.18 
374.98 168.59 -3.18 
374.86 168.66 -2.44 
374.95 168.64 -1.76 
374.95 168.59 -1.24 
375.74 168.28 -3.67 
375.55 168.54 -3.22 
375.57 168.31 -2.30 
375.56 168.31 -1.81 
375.55 168.31 -1.31 
376.14 168.53 -3.64 
376.51 168.51 -3.25 
376.55 168.51 -2.59 
376.50 168.94 -1.79 
376.27 168.81 -1.31 
377.04 168.58 -3.22 
377.13 168.70 -2.37 
377.13 168.71 -1.61 
377.17 168.66 -0.98 
377.15 168.63 -0.39 
377.37 168.73 0.10 
377.64 168.85 -3.54 
377.76 168.57 -3.10 
377.78 168.36 -2.37 
377.82 168.53 -1.68 
377.74 168.56 -0.99 
377.73 168.55 -0.46 
377.88 168.27 0.09 
378.31 168.60 -3.49 
378.41 168.46 -3.11 
378.40 168.46 -2.53 
378.43 168.25 -1.72 
378.50 168.38 -1.17 
378.49 168.38 -0.28 
378.19 168.33 -0.05 
379.34 168.57 -3.10 
379.05 168.37 -2.62 
379.21 168.46 -1.71 
379.18 168.55 -1.05 
379.35 168.83 -0.32 
379.27 168.81 0.24 
379.84 168.50 -3.12 
379.97 168.54 -2.40 
379.92 168.60 -1.60 
379.91 168.59 -1.07 
379.78 168.62 -0.25 
379.77 168.57 0.28 
380.58 168.32 -3.15 
380.72 168.38 -2.56 
380.57 168.33 -1.75 
380.44 168.38 -1.03 
380.43 168.32 -0.30 
380.69 168.38 0.25 
380.63 168.78 0.83 
381.21 168.10 -3.04 
381.41 168.37 -2.20 
381.17 168.52 -1.69 
381.18 168.49 -1.02 
381.17 168.48 -0.44 
381.14 168.58 0.43 
381.14 168.52 0.79 
381.65 168.29 -3.28 
381.67 168.26 -2.31 
381.91 168.18 -1.87 
381.89 168.19 -1.12 
381.88 168.19 -0.37 
381.93 168.76 0.09 
381.97 168.53 0.77 
382.91 168.39 -3.15 
382.92 168.38 -2.51 
382.81 168.28 -1.58 
382.79 168.29 -0.78 
382.62 168.73 -0.58 
382.81 168.45 0.11 
382.79 168.46 0.94 
383.51 168.22 -3.23 
383.51 168.22 -2.58 
383.50 168.23 -1.92 
383.60 168.39 -1.33 
383.57 168.41 -0.49 
383.54 168.42 0.36 
383.71 168.41 -2.41 
383.72 168.42 -1.55 
383.72 168.57 -1.18 
384.11 168.37 -0.14 
384.14 168.35 0.72 
384.65 168.25 -1.94 
384.61 168.27 -1.07 
384.50 168.55 -0.04 
384.53 168.31 0.69 
367.87 169.27 -0.68 
368.02 169.47 -0.26 
367.81 169.33 0.03 
368.01 169.16 1.00 
368.17 169.23 1.63 
368.24 168.98 2.39 
368.35 168.98 -1.48 
368.39 169.51 -0.73 
368.44 169.39 -0.29 
368.98 169.39 0.17 
368.89 169.26 1.17 
369.31 169.22 -0.17 
369.24 169.22 0.38 
369.32 169.26 1.01 
369.66 168.90 1.74 
370.24 169.17 0.62 
369.92 169.26 1.37 
370.16 169.08 1.94 
369.91 168.93 2.41 
370.64 169.02 0.64 
370.42 169.23 1.18 
371.53 169.08 -3.74 
372.28 169.33 -1.14 
372.47 169.21 0.42 
373.09 169.43 -3.67 
373.09 169.42 -3.12 
373.11 169.52 -2.28 
373.11 169.52 -1.76 
373.10 169.52 -1.24 
373.53 169.47 -3.66 
373.55 169.20 -3.12 
373.75 169.27 -2.58 
373.68 169.25 -1.77 
373.59 169.38 -1.22 
374.31 168.99 -3.66 
374.26 169.03 -3.18 
374.20 169.03 -2.46 
374.20 169.03 -1.75 
374.20 169.03 -1.24 
375.16 169.39 -3.12 
375.16 169.37 -2.32 
375.16 169.37 -1.59 
375.12 169.15 -0.89 
375.71 168.96 -3.64 
375.77 169.30 -3.16 
375.77 169.30 -2.42 
375.77 169.30 -1.68 
375.76 169.43 -1.06 
375.72 169.48 -0.26 
375.76 169.42 0.40 
376.57 169.14 -3.63 
376.33 169.20 -3.21 
376.39 169.09 -2.40 
376.34 169.22 -1.72 
376.39 169.09 -0.98 
376.53 169.11 -0.40 
376.36 168.99 0.40 
376.98 168.94 -3.10 
376.92 169.09 -2.35 
377.00 168.97 -1.69 
377.00 168.97 -1.17 
376.95 168.92 -0.42 
376.99 169.54 0.08 
377.64 169.08 -3.56 
378.00 169.27 -3.19 
377.73 169.13 -2.60 
377.62 169.09 -1.66 
377.61 169.09 -1.03 
377.95 169.51 -0.33 
377.73 169.54 0.13 
378.37 169.30 -3.31 
378.60 169.06 -2.27 
378.45 169.44 -1.62 
378.44 169.44 -1.09 
378.48 169.26 -0.32 
378.47 169.36 0.22 
379.05 169.08 -3.23 
379.02 169.09 -2.38 
379.20 169.06 -1.63 
379.20 169.06 -1.11 
379.08 169.03 -0.26 
378.95 169.28 0.37 
379.17 169.42 0.73 
379.93 169.06 -3.21 
379.80 169.11 -2.24 
379.83 169.08 -1.64 
379.83 169.08 -1.09 
380.01 169.08 -0.37 
379.99 169.08 0.38 
379.87 169.03 0.77 
380.23 168.89 -3.03 
380.51 168.87 -2.19 
380.27 168.88 -1.63 
380.27 168.88 -1.07 
380.39 168.96 -0.28 
380.38 168.97 0.50 
380.60 169.33 0.76 
380.98 169.33 -2.43 
381.11 169.32 -1.87 
381.06 169.35 -0.92 
381.02 169.31 -0.40 
381.03 169.30 0.28 
381.59 169.22 0.91 
381.65 169.00 -2.46 
382.10 168.91 -1.87 
382.08 168.87 -0.95 
381.60 169.22 -0.47 
381.69 169.26 0.33 
382.62 169.01 -2.37 
382.72 169.38 -1.92 
382.78 169.11 -1.15 
382.74 169.13 -0.26 
382.71 169.15 0.64 
383.03 168.99 -0.03 
383.06 168.97 0.85 
386.87 168.88 -2.02 
386.77 168.94 -0.94 
367.75 170.00 -0.88 
367.90 169.91 -0.58 
367.70 170.11 0.51 
367.93 169.80 0.89 
368.40 169.87 -1.50 
368.68 170.11 -1.27 
368.33 169.63 -0.44 
368.35 170.26 0.88 
369.60 169.87 -1.45 
369.28 170.04 -1.18 
369.04 169.95 -0.01 
369.17 169.59 0.55 
369.17 169.91 0.85 
369.74 170.08 -1.51 
370.01 169.69 0.92 
370.08 169.77 1.99 
369.75 170.04 2.15 
370.45 170.20 -0.85 
371.78 170.20 -3.79 
371.78 170.20 -3.27 
371.62 170.12 -2.54 
371.76 170.20 -1.68 
371.75 170.20 -1.15 
372.20 169.99 -3.79 
372.20 169.99 -3.27 
372.19 169.99 -2.22 
372.18 169.99 -1.70 
372.17 169.99 -1.17 
372.50 169.74 0.70 
372.92 169.79 -3.68 
372.92 169.79 -3.19 
372.84 169.83 -2.49 
372.90 169.79 -1.70 
372.89 169.79 -1.21 
372.70 170.26 0.01 
373.27 169.59 -3.67 
373.32 169.64 -3.24 
373.18 169.63 -2.48 
373.31 169.64 -1.81 
373.31 169.64 -1.33 
374.40 170.14 -3.19 
374.41 170.14 -2.47 
374.41 170.14 -1.75 
374.42 170.14 -1.03 
374.32 170.09 -0.28 
374.31 170.09 0.29 
375.02 169.87 -3.21 
375.06 169.98 -2.39 
375.05 169.86 -1.66 
375.06 169.97 -0.89 
375.00 169.86 -0.31 
375.01 169.85 0.42 
375.71 169.71 -3.13 
375.71 169.71 -2.54 
375.55 169.60 -1.67 
375.77 169.86 -1.22 
375.56 169.58 -0.53 
375.97 169.59 0.21 
376.13 169.77 -3.04 
376.12 169.77 -2.40 
376.12 169.77 -1.76 
376.45 169.73 -0.96 
376.53 170.08 -0.28 
376.56 170.10 0.36 
376.10 170.15 0.78 
376.87 169.71 -3.40 
376.86 169.71 -2.74 
376.87 169.54 -1.79 
376.83 169.72 -0.74 
377.13 170.01 -0.35 
377.12 170.01 0.21 
377.20 170.26 0.81 
377.75 170.25 -2.72 
377.68 169.81 -1.60 
377.67 169.81 -1.08 
377.61 169.90 -0.23 
377.60 169.90 0.36 
377.74 170.03 0.69 
378.44 169.91 -3.20 
378.44 169.91 -2.48 
378.55 169.62 -1.70 
378.55 169.62 -1.15 
378.52 169.86 -0.30 
378.51 169.87 0.35 
378.53 169.71 0.89 
379.45 169.60 -3.07 
379.20 169.48 -2.50 
379.33 169.95 -2.04 
379.29 169.97 -1.11 
379.04 170.09 -0.56 
379.26 170.17 0.27 
379.05 169.58 0.96 
379.94 170.06 -1.85 
379.88 170.10 -0.88 
379.58 170.07 -0.33 
380.15 169.87 0.30 
379.84 169.74 0.85 
380.48 169.95 -2.17 
380.30 169.66 -1.71 
380.32 169.65 -1.02 
380.77 169.78 -0.48 
380.63 169.68 0.43 
380.35 169.84 0.80 
380.91 169.59 0.29 
381.76 169.70 -0.21 
381.69 169.48 0.49 
382.59 169.99 -0.81 
383.03 170.00 -0.68 
368.07 170.82 -1.70 
368.05 170.75 -1.07 
367.94 170.81 -0.43 
367.79 170.74 0.44 
367.91 170.33 1.14 
368.77 170.29 -1.68 
368.65 170.74 -1.14 
368.85 170.84 -0.25 
368.67 170.58 0.34 
369.51 170.52 -1.50 
369.41 170.58 -1.27 
369.37 170.48 -0.24 
369.24 170.54 0.23 
370.00 170.66 -1.41 
370.47 170.54 -1.16 
370.02 170.74 -0.48 
369.76 170.62 0.63 
369.83 170.56 1.01 
371.09 170.90 -3.18 
370.96 170.95 -2.27 
371.01 170.91 -1.74 
370.89 170.37 -1.31 
370.65 170.87 -0.48 
371.13 170.37 -3.68 
371.43 170.68 -3.29 
371.43 170.68 -2.25 
371.33 170.41 -1.67 
371.53 170.74 -1.18 
371.85 170.45 -3.82 
371.85 170.45 -3.29 
371.85 170.44 -2.23 
371.93 170.45 -1.65 
372.14 170.55 -1.07 
372.39 170.96 -0.15 
372.15 170.63 0.17 
372.98 170.84 -3.26 
372.86 170.64 -2.43 
372.86 170.64 -1.74 
372.87 170.65 -1.05 
373.08 170.86 -0.47 
373.03 170.80 0.04 
373.67 170.56 -3.24 
373.63 170.53 -2.62 
373.62 170.53 -1.55 
373.67 170.55 -0.98 
373.54 170.66 -0.38 
373.67 170.55 0.17 
374.01 170.86 -3.57 
374.14 170.34 -3.23 
374.34 170.32 -2.40 
373.95 170.44 -1.62 
373.95 170.44 -1.09 
373.96 170.43 -0.29 
374.14 170.32 0.22 
374.85 170.74 -3.12 
374.85 170.74 -2.25 
374.78 170.85 -1.71 
374.91 170.96 -1.08 
375.06 170.91 -0.29 
374.99 170.56 0.44 
374.64 170.30 0.73 
375.89 170.87 -3.54 
375.72 170.59 -3.20 
375.44 170.74 -2.32 
375.45 170.73 -1.79 
375.71 170.59 -1.11 
375.81 170.69 -0.27 
375.77 170.72 0.40 
376.47 170.75 -3.49 
376.57 170.59 -2.81 
376.13 170.68 -2.40 
376.22 170.75 -1.67 
376.40 170.85 -1.21 
376.26 170.46 -0.30 
376.26 170.46 0.28 
376.50 170.61 0.87 
377.02 170.86 -2.80 
376.83 170.87 -2.43 
376.90 170.73 -1.94 
376.90 170.75 -1.18 
377.02 170.51 -0.40 
377.01 170.51 0.26 
377.06 170.69 0.78 
377.89 170.36 -2.83 
377.64 170.35 -2.45 
377.56 170.88 -1.51 
377.92 170.34 -1.33 
377.49 170.89 -0.22 
377.76 170.45 0.70 
377.52 170.87 0.79 
378.23 170.95 -2.29 
378.21 170.96 -1.38 
378.11 170.79 -0.84 
378.42 170.72 -0.57 
378.28 170.71 0.34 
379.10 170.36 -2.90 
378.87 170.41 -1.62 
378.89 170.40 -0.90 
379.20 170.41 -0.53 
379.17 170.42 0.37 
379.72 170.37 -2.13 
379.96 170.30 -1.80 
379.91 170.34 -0.81 
379.79 170.33 -0.43 
379.76 170.35 0.47 
379.76 170.34 0.82 
380.57 170.37 -1.61 
380.73 170.29 -0.15 
380.61 170.48 0.22 
380.69 170.31 0.78 
382.92 170.62 -0.79 
368.14 171.40 -1.47 
367.70 171.27 -1.07 
368.38 171.40 -0.16 
367.81 171.48 0.43 
368.48 171.14 -1.45 
368.71 171.06 -0.77 
368.57 171.30 -0.58 
368.27 171.17 0.23 
369.51 171.58 -3.28 
369.32 171.54 -2.63 
369.49 171.53 -1.61 
369.43 171.27 -1.08 
369.29 171.45 -0.22 
369.60 171.58 0.42 
369.41 171.54 0.97 
369.58 171.18 1.59 
370.10 171.43 -3.31 
370.10 171.43 -2.30 
370.10 171.43 -1.79 
369.88 171.45 -1.29 
370.00 171.05 -0.50 
369.85 171.26 0.49 
369.96 171.30 1.21 
370.22 171.32 1.69 
370.56 171.18 -3.30 
370.63 171.16 -2.25 
370.56 171.17 -1.77 
370.62 171.15 -1.00 
371.06 171.50 -0.64 
370.98 171.64 0.38 
370.57 171.44 3.41 
370.49 171.54 3.91 
371.67 171.46 -3.15 
371.60 171.56 -2.33 
371.56 171.57 -1.59 
371.44 171.51 -1.04 
371.49 171.55 -0.37 
371.48 171.55 0.19 
371.32 171.38 0.57 
372.18 171.33 -3.18 
372.18 171.33 -2.60 
372.13 171.29 -1.74 
372.20 171.34 -1.08 
372.09 171.41 -0.27 
372.12 171.20 0.09 
373.21 171.29 -3.57 
372.78 171.17 -3.21 
372.84 171.05 -2.42 
372.77 171.17 -1.70 
372.76 171.17 -1.20 
372.83 171.05 -0.40 
372.76 171.05 0.08 
373.70 171.18 -3.52 
373.77 171.41 -3.17 
373.76 171.41 -2.40 
373.76 171.40 -1.62 
373.69 171.56 -1.03 
373.66 171.51 -0.29 
373.66 171.51 0.32 
373.76 171.12 0.73 
374.54 171.17 -3.56 
374.21 171.28 -3.18 
374.20 171.28 -2.46 
374.22 171.35 -1.70 
374.21 171.35 -1.17 
374.32 171.27 -0.26 
374.17 171.26 0.36 
373.92 171.36 0.76 
375.21 171.07 -3.48 
374.90 171.15 -3.14 
374.83 171.21 -2.53 
375.04 171.24 -1.85 
374.84 171.42 -1.15 
374.90 171.30 -0.31 
374.87 171.15 0.38 
375.22 171.61 0.79 
375.69 171.17 -3.49 
375.68 171.26 -3.22 
375.65 171.28 -2.29 
375.64 171.24 -1.95 
375.62 171.25 -1.17 
375.54 171.17 -0.44 
375.59 171.26 0.39 
375.53 171.17 0.89 
376.09 171.41 -3.55 
376.12 171.45 -3.15 
376.41 171.53 -2.31 
376.45 171.61 -1.46 
376.11 171.45 -1.20 
376.51 171.32 -0.45 
376.49 171.45 0.34 
376.52 171.11 0.81 
377.45 171.23 -2.47 
377.29 171.20 -1.52 
377.31 171.10 -1.18 
377.37 171.21 -0.40 
377.26 171.27 0.41 
377.74 171.48 -2.19 
377.50 171.20 -1.49 
377.76 171.55 -1.22 
377.69 171.51 -0.31 
377.93 171.23 0.59 
378.18 170.98 -0.47 
378.02 171.11 0.33 
378.57 171.34 0.73 
379.25 171.25 -1.59 
378.92 171.13 -1.28 
378.93 171.13 -0.31 
368.10 172.04 -3.28 
367.90 172.24 -2.61 
368.08 172.05 -1.57 
367.98 172.24 -0.96 
367.90 172.09 -0.38 
368.00 171.80 0.26 
368.83 172.20 -3.18 
368.68 172.25 -2.34 
368.73 171.86 -1.58 
368.72 172.05 -0.97 
368.91 171.99 -0.41 
368.70 171.86 0.46 
368.80 172.24 0.86 
368.63 172.22 1.68 
369.30 172.02 -3.26 
369.29 172.02 -2.28 
369.29 172.02 -1.78 
369.29 172.05 -1.28 
369.53 172.08 -0.41 
369.31 172.32 0.29 
369.50 172.35 0.97 
369.47 171.70 1.91 
370.09 172.12 -3.27 
370.09 172.15 -2.31 
370.07 172.12 -1.55 
370.07 172.12 -0.98 
370.15 172.01 -0.33 
370.05 172.12 0.18 
370.67 172.18 -2.99 
370.82 171.98 -2.44 
370.76 171.96 -1.82 
370.92 172.12 -1.00 
370.64 172.19 -0.35 
370.82 171.82 0.18 
370.73 171.92 3.77 
371.35 171.90 -3.15 
371.30 171.89 -2.51 
371.36 171.96 -1.70 
371.32 171.90 -1.02 
371.31 171.90 -0.48 
371.30 171.90 0.06 
371.81 171.75 1.67 
372.13 171.89 -3.06 
372.12 171.89 -2.38 
372.11 171.89 -1.69 
372.04 172.15 -0.98 
372.28 172.29 -0.29 
372.19 172.18 0.18 
372.16 171.82 0.91 
372.95 171.86 -3.14 
372.91 171.82 -2.45 
373.02 171.94 -1.82 
373.00 172.11 -1.11 
373.01 171.94 -0.30 
372.93 172.04 0.48 
372.82 172.04 1.09 
373.50 171.84 -2.95 
373.45 171.87 -2.35 
373.60 171.86 -1.79 
373.49 171.84 -1.03 
373.44 171.87 -0.28 
373.40 171.88 0.50 
373.35 172.08 0.83 
374.38 171.77 -3.06 
374.33 172.05 -2.52 
374.31 172.06 -1.64 
374.10 171.85 -1.00 
374.35 171.78 -0.36 
374.27 171.80 0.31 
374.31 172.09 0.87 
375.04 171.89 -3.16 
375.04 171.89 -2.37 
375.07 171.78 -1.84 
374.89 172.09 -1.20 
374.81 171.66 -0.34 
374.90 171.80 0.67 
375.17 171.87 0.94 
375.92 171.76 -2.11 
375.57 172.05 -1.40 
375.87 171.80 -1.13 
375.60 171.80 -0.26 
375.52 171.98 0.58 
376.54 172.26 -2.08 
376.49 172.32 -1.97 
376.53 172.23 -1.11 
376.46 171.80 -0.31 
376.33 172.11 0.52 
376.47 172.27 0.73 
377.35 171.75 0.34 
377.48 171.96 -0.16 
368.00 172.64 -3.18 
367.96 172.75 -2.41 
368.12 172.79 -1.73 
367.77 172.47 -1.03 
367.79 172.94 -0.29 
367.99 172.99 0.21 
368.27 172.59 1.34 
368.63 172.73 -3.05 
368.63 172.73 -2.41 
368.74 172.83 -1.78 
368.61 172.72 -1.13 
368.64 172.71 -0.30 
368.60 172.80 0.29 
368.59 172.70 0.80 
368.93 172.75 1.51 
369.33 172.53 -2.83 
369.33 172.53 -2.32 
369.33 172.53 -1.82 
369.41 172.45 -0.90 
369.27 172.77 -0.43 
369.20 172.61 0.34 
369.09 172.72 0.96 
369.98 172.43 -3.18 
370.14 172.48 -2.48 
369.84 172.60 -1.88 
370.12 172.56 -0.98 
369.94 172.69 -0.42 
369.86 172.85 0.43 
369.74 172.72 0.94 
370.17 172.93 1.87 
370.75 172.63 -3.05 
370.74 172.63 -2.34 
370.73 172.63 -1.63 
370.80 172.61 -1.01 
370.77 172.87 -0.27 
370.86 172.95 0.08 
371.05 172.60 1.03 
370.61 172.47 2.70 
370.93 172.41 2.97 
371.51 172.80 -2.84 
371.64 172.78 -2.35 
371.64 172.78 -1.84 
371.47 172.68 -0.81 
371.63 172.77 -0.32 
371.53 172.63 0.21 
371.61 172.77 0.76 
371.46 172.99 3.59 
372.01 172.61 -2.85 
372.01 172.61 -2.35 
372.01 172.61 -1.84 
372.10 172.61 -0.95 
372.10 172.52 -0.20 
372.18 172.67 0.27 
372.17 172.67 0.94 
373.12 172.82 -2.24 
372.70 172.55 -1.39 
372.93 172.61 -0.90 
372.62 172.82 -0.08 
372.63 172.62 0.44 
372.81 172.52 0.85 
373.34 172.46 -2.98 
373.58 172.50 -2.12 
373.47 172.43 -1.86 
373.81 172.61 -1.17 
373.46 172.69 -0.44 
373.43 172.71 0.10 
373.54 172.50 0.79 
374.08 172.43 -2.34 
374.16 172.54 -1.88 
374.23 172.51 -1.05 
374.54 172.46 -0.15 
374.31 172.63 0.50 
374.64 172.52 -2.09 
375.02 172.45 -0.32 
375.08 172.46 0.57 
375.99 172.59 -1.79 
375.64 172.49 -0.30 
376.31 172.44 -2.91 
376.29 172.39 -1.88 
376.33 172.57 -0.10 
367.95 173.24 -2.85 
367.88 173.24 -2.34 
367.85 173.42 -1.71 
367.99 173.50 -0.35 
367.91 173.15 0.35 
368.47 173.45 -3.25 
368.47 173.45 -2.48 
368.65 173.25 -1.82 
368.39 173.26 -1.24 
368.43 173.24 -0.38 
368.65 173.56 0.05 
369.36 173.45 -2.97 
369.29 173.17 -2.38 
369.28 173.17 -1.69 
369.36 173.36 -0.71 
369.67 173.33 -0.26 
369.50 173.51 0.29 
369.56 173.75 0.85 
370.28 173.15 -2.84 
369.98 173.27 -2.50 
369.96 173.28 -1.59 
369.88 173.34 -0.84 
370.04 173.28 -0.23 
370.07 173.69 0.34 
370.13 173.41 1.02 
370.71 173.12 -0.76 
370.54 173.49 -0.21 
370.70 173.33 0.28 
370.44 173.35 0.88 
371.78 173.59 -2.22 
371.36 173.25 -0.13 
371.41 173.53 0.22 
371.17 173.57 0.78 
372.26 173.63 -2.13 
372.18 173.11 -1.28 
371.91 173.19 -0.03 
372.16 173.17 0.28 
372.09 173.27 0.94 
372.76 173.37 -0.38 
372.78 173.36 0.45 
373.38 173.14 0.90 
373.91 173.10 0.66 
367.87 173.92 -2.34 
367.83 174.23 -1.77 
368.15 173.80 0.00 
368.60 174.06 -2.82 
368.83 173.89 -2.48 
368.58 174.07 -2.03 
368.87 173.86 -0.17 
369.53 173.84 -2.64 
369.51 173.84 -1.85 
369.66 173.81 -0.24 
369.42 174.02 0.40 
369.62 174.38 0.94 
370.32 173.87 -0.05 
370.15 173.83 0.54 
370.82 173.89 -0.26 
370.55 174.09 0.30 
370.41 173.97 0.86 
371.73 173.88 0.57 
367.69 174.86 -2.62 
367.68 174.56 -2.00 
