# .PCD v0.7 - Point Cloud Data file format
VERSION 0.7
FIELDS x y z
SIZE 4 4 4
TYPE F F F
COUNT 1 1 1
WIDTH 1023
HEIGHT 1
VIEWPOINT 0 0 0 1 0 0 0
POINTS 1023
DATA ascii
374.80 86.10 -0.86 
374.51 85.86 1.19 
374.99 85.96 2.23 
375.78 85.91 -3.80 
375.58 85.80 -0.85 
375.37 85.87 3.03 
375.75 85.68 3.21 
376.50 85.81 -3.58 
375.99 85.52 -2.19 
376.31 85.53 -1.00 
376.24 85.55 3.15 
376.60 85.76 -1.84 
376.79 85.93 1.24 
376.57 85.92 2.08 
378.11 86.11 -3.70 
378.79 86.03 -3.09 
379.70 86.03 -3.09 
381.43 85.82 -1.02 
381.18 85.65 -0.14 
381.17 86.13 0.68 
381.60 85.97 -2.55 
382.09 85.98 -1.35 
382.30 85.87 -0.37 
383.00 85.90 -1.00 
382.94 85.77 -0.62 
372.89 86.51 -1.31 
372.53 86.56 1.95 
373.63 86.58 -0.73 
373.10 86.62 1.47 
373.92 86.28 -0.71 
374.57 86.51 -3.75 
374.67 86.64 -0.76 
374.48 86.32 -0.28 
375.18 86.48 -4.03 
375.19 86.54 -2.30 
375.26 86.82 -0.78 
375.74 86.77 0.26 
375.24 86.60 0.43 
375.83 86.34 1.94 
376.47 86.54 -2.81 
376.33 86.71 -2.05 
376.45 86.58 0.36 
376.21 86.67 1.03 
376.52 86.72 1.40 
377.18 86.65 -3.11 
377.08 86.44 -2.03 
377.83 86.53 1.62 
377.70 86.34 1.98 
378.26 86.83 -3.92 
378.00 86.38 -3.10 
378.84 86.68 -3.34 
379.33 86.79 -2.57 
378.77 86.55 -2.30 
379.98 86.44 -3.72 
380.47 86.51 -2.58 
380.57 86.18 0.50 
380.94 86.25 -3.61 
380.80 86.29 -2.56 
381.26 86.24 -1.51 
380.93 86.47 0.02 
380.79 86.46 0.71 
381.92 86.67 0.72 
372.51 87.40 -1.34 
372.69 86.91 0.97 
373.01 87.43 1.50 
373.43 86.99 -2.24 
373.72 87.45 -1.68 
374.04 87.07 -1.19 
373.95 87.01 -0.30 
374.41 87.02 0.37 
374.59 87.34 -3.60 
374.61 87.40 -2.93 
374.71 87.53 -0.36 
374.96 87.54 0.01 
374.98 87.03 0.70 
375.29 87.46 -1.83 
375.25 87.03 -1.23 
375.59 87.15 -0.12 
376.38 87.33 -4.42 
375.92 87.27 -2.82 
375.84 86.96 -0.85 
376.42 87.34 0.55 
376.18 87.33 1.65 
376.50 87.32 2.20 
376.62 87.44 -4.18 
377.02 87.15 -3.71 
376.94 87.36 -2.87 
377.15 87.41 0.65 
376.70 87.12 1.78 
376.86 87.48 2.78 
377.92 87.30 -3.95 
377.77 86.96 -2.82 
377.30 87.24 1.57 
377.92 87.30 -3.95 
378.03 86.92 -3.35 
378.10 87.11 -2.31 
378.91 87.16 -3.50 
370.58 87.80 0.86 
371.39 87.88 1.45 
371.97 88.00 0.33 
371.70 88.24 0.78 
371.82 87.81 1.44 
372.60 87.83 -2.48 
372.68 88.10 -0.32 
373.13 88.13 -3.46 
373.13 88.23 -1.92 
373.09 88.19 -0.80 
373.97 88.12 -4.29 
374.08 88.04 -2.94 
374.10 88.10 -1.86 
374.24 88.26 -0.39 
373.89 87.91 1.17 
373.91 88.23 2.86 
374.95 88.06 -3.65 
374.99 87.94 -2.91 
375.03 88.07 -2.08 
374.82 87.77 0.20 
374.57 88.03 1.26 
375.81 88.08 -3.38 
375.30 87.83 -2.93 
375.29 87.61 0.21 
375.75 88.10 1.60 
375.84 87.75 -2.91 
375.84 88.16 -2.34 
376.29 87.88 -1.35 
376.24 88.25 0.55 
376.32 88.04 1.29 
376.47 87.67 1.88 
376.28 88.06 2.80 
376.68 87.96 -3.38 
376.53 87.77 -2.79 
376.73 87.64 -2.27 
376.94 87.92 0.60 
377.22 87.93 1.76 
376.86 87.93 2.54 
377.26 87.72 -3.81 
377.69 88.23 -1.32 
377.58 87.95 -0.92 
370.21 88.62 1.45 
370.35 88.83 0.79 
371.59 88.82 -2.73 
371.29 88.61 1.38 
371.97 88.56 -0.18 
372.25 88.86 0.83 
372.69 88.90 -2.44 
373.43 88.78 -3.30 
373.23 88.95 -2.91 
373.51 88.33 -2.24 
373.19 88.82 -1.45 
373.53 88.68 -0.39 
373.47 88.90 -0.26 
373.46 88.61 0.65 
374.40 88.60 -3.28 
374.25 88.38 -2.91 
374.41 88.65 -1.28 
374.21 88.34 0.19 
374.23 88.54 1.77 
374.41 88.53 3.14 
374.70 88.51 -3.29 
374.79 88.31 -2.91 
374.50 88.73 -2.29 
374.95 88.37 1.62 
375.24 88.41 -3.94 
375.60 88.35 -3.32 
375.73 88.47 -2.33 
375.50 88.79 1.12 
375.50 88.79 1.12 
376.00 88.76 -1.36 
376.12 88.56 -0.03 
376.02 88.43 0.94 
376.19 88.38 1.16 
376.02 88.49 1.87 
376.00 88.50 2.81 
376.98 88.64 -1.33 
376.61 88.34 0.71 
376.76 88.44 1.11 
377.60 88.53 -1.36 
377.75 88.61 -0.49 
369.53 89.61 -2.41 
370.42 89.32 -2.41 
370.86 89.41 -0.78 
371.06 89.66 -2.98 
371.01 89.65 -0.90 
372.10 89.50 -4.00 
371.90 89.32 -2.97 
371.67 89.65 -0.82 
371.72 89.50 0.81 
373.01 88.98 -4.76 
372.93 89.18 -3.99 
372.41 89.23 -2.91 
372.88 89.29 -0.85 
372.79 89.56 1.66 
373.10 89.22 -5.27 
373.16 89.66 -3.96 
373.51 89.58 -3.25 
373.62 88.99 -2.30 
373.58 89.56 -1.25 
374.21 89.37 -3.97 
374.26 89.14 -1.28 
374.09 89.58 -0.89 
374.42 89.09 0.77 
374.71 89.26 -4.19 
374.47 89.03 -3.47 
374.68 89.31 -2.47 
374.44 89.27 0.13 
374.89 89.10 0.54 
374.54 89.04 2.10 
375.14 89.21 -3.96 
375.51 89.08 -2.47 
375.35 89.19 -1.33 
375.49 89.09 0.52 
375.47 89.03 2.06 
376.35 89.00 -3.72 
376.49 88.98 -0.99 
376.65 89.48 -3.15 
376.63 89.41 -1.11 
377.19 89.09 -0.34 
370.05 89.86 -2.98 
370.52 90.32 -2.91 
370.61 90.31 -1.42 
370.90 89.88 -0.34 
371.36 89.88 -3.49 
371.24 89.76 -2.45 
371.13 90.14 0.68 
372.27 90.17 -3.48 
372.11 89.84 -0.27 
372.22 89.73 2.16 
372.58 90.24 -4.96 
372.88 89.86 -3.94 
372.63 89.80 -3.22 
372.74 89.88 -2.21 
372.40 90.34 -1.45 
372.35 90.28 -0.43 
372.67 90.17 1.06 
372.40 89.89 1.63 
372.44 89.69 2.33 
373.06 89.84 -4.49 
373.19 90.01 -3.48 
373.39 90.26 -2.48 
373.49 90.09 -1.92 
373.21 90.05 -0.45 
373.50 89.82 0.63 
373.96 89.87 -4.44 
374.17 89.68 -2.93 
374.08 90.15 -1.93 
374.33 90.15 -1.49 
373.98 90.13 -0.49 
374.52 89.72 -2.98 
374.97 90.02 -2.39 
374.89 90.06 -1.53 
375.78 90.00 -1.54 
376.60 90.01 -3.86 
369.59 90.60 -1.95 
370.16 90.43 0.26 
369.88 90.85 1.29 
370.73 90.52 -1.97 
370.90 90.76 -0.85 
370.67 90.85 0.66 
371.26 90.46 -1.88 
371.09 91.02 1.21 
371.98 90.55 -4.51 
371.84 90.61 -3.95 
372.05 90.87 -2.93 
371.99 90.80 -1.91 
372.24 91.06 -0.35 
371.90 90.55 1.61 
371.89 90.57 2.09 
372.80 90.52 -3.94 
372.96 90.45 -3.49 
372.69 90.90 -2.78 
372.44 90.64 -1.91 
372.46 90.69 -1.20 
372.81 90.54 -0.91 
372.74 90.77 1.47 
373.48 91.03 -4.48 
373.15 90.97 -1.94 
373.65 90.58 -1.49 
373.52 90.93 -0.53 
374.36 90.52 -3.93 
374.16 90.68 -1.38 
374.07 90.60 0.46 
375.13 90.97 -3.93 
374.96 90.76 -0.01 
375.77 90.53 -3.93 
376.16 90.52 -3.40 
370.09 91.63 -1.88 
370.71 91.38 -4.17 
370.31 91.19 -2.48 
370.74 91.13 1.23 
371.54 91.29 -2.50 
371.56 91.35 1.02 
371.30 91.54 1.59 
371.72 91.24 -4.19 
372.10 91.51 -2.20 
373.24 91.58 -3.21 
373.94 91.09 -1.65 
374.42 91.28 -0.53 
373.88 91.37 -0.10 
374.74 91.31 -4.46 
374.53 91.52 -3.60 
374.87 91.62 0.38 
375.30 91.19 -1.53 
375.58 91.16 -0.44 
369.86 91.93 0.60 
370.73 92.38 0.11 
370.89 91.83 1.56 
371.29 91.79 -1.92 
371.22 92.13 -1.51 
371.20 92.37 -0.93 
372.13 91.92 -1.88 
372.29 92.01 -1.06 
372.79 92.38 -3.93 
372.56 92.09 -2.95 
372.74 92.06 1.09 
372.57 91.93 2.10 
373.11 92.29 -2.96 
373.04 92.27 -1.54 
373.38 92.12 0.51 
373.95 92.04 -3.61 
374.20 91.79 -1.44 
375.65 92.07 -1.17 
370.24 92.49 0.12 
371.11 92.50 -0.49 
372.21 92.96 -3.05 
372.26 92.58 -0.55 
371.85 93.11 0.00 
372.20 93.02 0.85 
372.03 92.88 1.86 
372.76 93.09 -3.64 
372.41 93.17 -1.12 
372.83 93.12 0.03 
372.89 92.50 0.98 
372.45 92.85 2.03 
373.37 92.56 -3.63 
373.32 92.66 -1.29 
382.93 93.11 -5.16 
371.91 93.18 -2.96 
372.27 93.71 0.36 
371.66 93.73 1.34 
372.47 93.22 -2.96 
372.89 93.73 -1.05 
373.20 93.60 -1.29 
383.31 93.89 -5.14 
373.02 95.68 -5.89 
388.18 95.96 -4.71 
372.85 96.18 -5.68 
391.57 96.15 -5.48 
388.81 97.61 -4.70 
385.61 98.46 -5.18 
388.73 98.30 -4.72 
389.48 98.73 -5.34 
385.93 99.11 -5.03 
388.68 99.11 -4.75 
389.28 99.32 -5.37 
386.79 100.79 -5.33 
386.64 100.54 -5.00 
386.80 101.09 -5.28 
386.98 101.25 -4.99 
387.07 101.25 -5.31 
387.03 101.26 -5.14 
388.69 101.19 -4.81 
381.82 102.05 -4.23 
381.94 101.92 -3.59 
381.82 101.93 -2.93 
381.96 102.12 -1.84 
382.27 101.97 -4.50 
382.25 102.01 -4.05 
382.80 101.97 -3.77 
382.74 102.08 -1.84 
383.02 101.76 -4.65 
383.17 101.85 -4.16 
383.07 101.73 -3.18 
383.13 101.74 -2.45 
383.06 101.84 -1.87 
384.18 101.88 -1.91 
387.24 101.90 -5.09 
388.87 102.02 -4.82 
379.40 102.88 -3.85 
379.63 102.97 -3.27 
380.71 102.50 -4.31 
380.53 102.47 -2.87 
380.34 102.93 -2.29 
380.87 102.61 -4.63 
381.16 102.66 -3.82 
381.21 102.79 -1.82 
381.58 102.35 -2.78 
381.56 102.40 -2.08 
381.71 102.81 -1.69 
382.15 102.83 -2.88 
382.15 102.86 -2.20 
382.27 102.61 -1.68 
385.90 102.87 -4.57 
385.89 102.84 -3.90 
385.87 102.80 -3.23 
386.71 102.46 -2.46 
386.71 102.47 -1.84 
379.27 102.99 -2.46 
379.21 103.05 -1.76 
379.67 103.54 -4.66 
379.98 103.04 -3.97 
379.82 103.22 -3.71 
379.59 103.00 -2.58 
379.57 103.04 -1.90 
380.27 103.63 -4.07 
380.57 103.26 -1.71 
380.78 103.62 -2.98 
381.13 103.02 -1.70 
381.26 103.42 -1.68 
381.47 103.31 -4.44 
381.45 103.67 -1.98 
382.68 103.04 -4.07 
384.79 103.29 -4.73 
384.81 103.39 -4.13 
384.78 103.45 -3.54 
385.22 103.25 -4.90 
385.25 103.32 -4.31 
385.25 103.37 -3.73 
385.73 103.45 -4.65 
385.75 103.51 -4.08 
386.11 103.52 -1.90 
386.40 103.32 -4.61 
386.97 103.23 -4.33 
386.97 103.24 -3.71 
386.77 103.27 -2.06 
386.53 103.31 -1.53 
387.30 103.02 -4.50 
387.33 103.09 -3.91 
387.06 103.33 -1.89 
388.04 103.48 -2.06 
379.23 104.20 -4.66 
379.23 104.18 -3.81 
379.62 104.11 -4.00 
379.50 104.33 -3.52 
379.65 104.13 -2.99 
379.91 104.08 -1.77 
380.71 103.71 -4.56 
380.57 104.29 -4.28 
380.13 103.84 -1.90 
381.43 103.72 -4.58 
380.95 103.80 -4.32 
380.93 103.85 -3.62 
381.18 104.31 -1.96 
381.66 104.16 -1.97 
381.51 104.37 -1.57 
382.40 104.25 -4.68 
383.95 104.30 -4.68 
383.85 103.91 -3.54 
385.15 104.15 -4.75 
385.58 104.19 -4.32 
385.58 103.98 -2.09 
385.64 104.27 -4.53 
386.53 104.37 -4.74 
386.72 104.13 -3.96 
386.52 104.36 -3.71 
386.65 104.24 -2.06 
387.63 103.85 -4.51 
387.66 103.92 -3.93 
387.29 104.05 -3.71 
391.57 104.17 -3.92 
377.83 105.06 -4.07 
377.81 105.07 -3.34 
378.45 104.84 -4.24 
378.37 104.78 -1.90 
378.64 104.69 -4.54 
378.78 104.99 -4.09 
378.80 104.95 -1.78 
379.56 104.75 -4.28 
379.60 104.67 -1.96 
380.44 104.99 -2.31 
380.91 104.62 -4.42 
380.91 104.94 -1.95 
383.04 105.08 -4.61 
383.16 104.64 -4.37 
382.88 104.78 -3.72 
382.91 104.87 -2.49 
382.99 104.96 -1.88 
383.59 104.74 -4.62 
383.59 104.74 -3.85 
384.19 104.72 -3.54 
383.59 104.74 -3.09 
383.73 104.76 -2.12 
384.76 104.41 -4.79 
384.30 104.59 -1.31 
384.29 104.87 -0.45 
385.27 104.81 -4.71 
385.50 105.05 -4.20 
385.15 104.99 -1.39 
386.08 104.78 -4.77 
386.08 104.77 -4.01 
385.89 105.05 -3.78 
386.25 104.70 -1.93 
385.95 104.95 -1.30 
386.43 104.42 -4.50 
386.46 104.41 -3.85 
386.73 105.07 -1.94 
387.69 104.51 -4.31 
387.66 104.86 -3.71 
387.69 104.92 -1.98 
387.55 104.62 -1.68 
387.93 104.64 -4.52 
387.96 104.71 -3.95 
388.73 104.76 -4.93 
391.18 104.88 -3.92 
391.45 104.60 -3.91 
377.09 105.70 -4.51 
376.82 105.75 -4.36 
376.62 105.73 -3.44 
376.61 105.76 -2.77 
376.58 105.78 -2.10 
377.47 105.34 -4.63 
377.43 105.37 -3.92 
377.47 105.32 -3.78 
377.78 105.09 -2.62 
377.58 105.59 -1.80 
378.58 105.49 -4.13 
378.54 105.58 -2.78 
378.35 105.32 -1.72 
378.39 105.61 -1.65 
379.01 105.17 -4.51 
378.99 105.21 -3.85 
378.71 105.41 -2.07 
378.95 105.34 -1.64 
379.78 105.75 -4.68 
379.36 105.23 -1.93 
380.25 105.41 -4.58 
380.48 105.58 -1.74 
381.18 105.61 -4.65 
380.79 105.64 -1.94 
381.02 105.35 -1.66 
382.11 105.73 -4.09 
381.71 105.68 -3.67 
382.11 105.68 -2.94 
382.11 105.68 -2.21 
382.49 105.78 -4.61 
382.11 105.73 -4.09 
382.14 105.41 -3.62 
382.72 105.14 -2.90 
382.59 105.34 -0.78 
383.46 105.26 -4.69 
383.38 105.33 -3.92 
383.34 105.63 -3.74 
383.39 105.29 -1.07 
383.86 105.44 -4.79 
383.74 105.68 -1.78 
383.79 105.26 -1.05 
384.51 105.49 -3.55 
384.49 105.50 -2.94 
384.88 105.23 -1.77 
384.61 105.63 -0.53 
385.55 105.42 -1.78 
385.61 105.64 -1.16 
386.15 105.70 -4.88 
386.14 105.74 -4.34 
386.17 105.55 -1.79 
385.64 105.09 -1.09 
386.56 105.72 -4.54 
386.50 105.32 -4.10 
386.53 105.38 -3.58 
386.57 105.68 -2.61 
386.58 105.67 -1.96 
386.52 105.71 -1.43 
387.17 105.55 -4.55 
387.17 105.55 -3.94 
387.32 105.11 -3.26 
387.32 105.10 -2.51 
387.34 105.36 -1.86 
387.88 105.68 -4.56 
388.19 105.21 -4.41 
388.22 105.21 -3.69 
387.91 105.42 -1.77 
389.08 105.45 -4.92 
389.53 105.20 -4.96 
391.48 105.65 -3.90 
376.77 105.82 -2.99 
376.76 105.86 -2.31 
377.32 106.09 -1.83 
377.32 106.01 -1.75 
378.97 106.13 -1.49 
379.83 105.97 -4.31 
379.95 105.95 -1.91 
380.49 106.14 -4.57 
380.41 106.42 -4.34 
380.64 106.27 -1.77 
381.20 106.45 -4.64 
381.21 105.96 -4.29 
381.03 106.44 -2.88 
381.41 106.28 -2.02 
381.66 106.00 -4.83 
381.92 105.81 -4.12 
381.98 105.97 -3.28 
381.97 105.96 -2.53 
381.67 106.35 -1.98 
381.90 106.37 -1.68 
382.58 105.82 -4.09 
382.52 106.19 -2.01 
382.63 106.32 -1.02 
382.30 106.08 0.25 
383.35 106.34 -4.79 
383.38 106.06 -4.09 
383.34 106.41 -3.65 
383.19 105.96 -1.79 
383.47 105.95 -1.08 
382.99 106.14 -0.92 
383.90 106.06 -4.53 
383.88 106.07 -3.94 
383.66 106.46 -2.02 
383.80 105.86 -1.05 
383.87 106.11 -0.85 
384.43 106.30 -4.58 
384.43 106.30 -3.85 
384.73 106.17 -3.55 
384.74 106.20 -2.96 
384.76 106.22 -2.37 
384.77 106.34 -1.51 
384.80 106.30 -0.59 
385.57 106.17 -4.83 
385.52 106.28 -3.75 
385.17 106.31 -1.69 
385.19 106.17 -1.44 
385.99 106.11 -4.90 
385.95 106.12 -4.37 
386.26 105.81 -3.77 
386.27 105.79 -2.37 
385.85 106.01 -1.36 
386.79 106.43 -4.55 
386.79 106.44 -3.95 
386.85 105.78 -3.81 
386.38 106.15 -1.96 
387.36 106.07 -4.93 
387.53 105.85 -4.29 
387.67 106.17 -3.50 
387.62 106.29 -1.85 
388.02 106.39 -5.09 
388.03 106.37 -3.66 
387.80 105.88 -1.81 
391.08 106.06 -3.91 
376.48 106.79 -4.42 
376.76 106.77 -4.58 
376.75 106.81 -3.89 
376.80 106.99 -1.82 
377.24 106.62 -3.01 
377.26 106.65 -2.28 
377.24 106.82 -1.54 
378.28 106.95 -4.66 
379.11 106.98 -2.07 
378.98 106.73 -1.57 
379.43 106.79 -4.65 
379.75 106.92 -4.17 
379.49 107.15 -3.59 
379.49 107.15 -2.95 
379.84 106.97 -2.06 
380.33 106.85 -4.60 
380.32 106.85 -3.87 
380.25 106.57 -2.47 
380.42 106.79 -2.08 
381.28 106.84 -4.66 
380.85 106.55 -3.86 
381.01 107.12 -3.78 
380.90 106.68 -2.06 
382.03 106.54 -2.34 
382.02 106.70 -1.38 
382.81 106.89 -4.47 
382.77 106.68 -2.32 
382.60 107.01 -1.04 
382.18 107.16 0.18 
383.01 106.63 -4.66 
383.01 106.66 -4.10 
383.51 106.54 -3.47 
383.50 106.63 -1.96 
382.97 106.68 -1.00 
383.84 106.95 -4.64 
384.06 107.08 -4.36 
384.06 107.16 -3.65 
384.06 107.16 -2.92 
384.23 106.61 -2.02 
383.83 106.94 -1.08 
384.30 106.85 -4.52 
384.80 106.63 -4.07 
384.55 106.61 -3.56 
384.54 106.63 -2.97 
384.51 106.70 -1.98 
384.78 106.81 -1.26 
384.62 106.74 -0.61 
385.40 106.57 -4.88 
385.21 107.03 -4.38 
385.07 106.57 -2.67 
385.14 106.81 -1.74 
385.23 106.91 -1.64 
385.96 106.96 -4.71 
385.95 106.99 -4.19 
385.94 107.02 -3.68 
386.25 107.05 -1.89 
385.79 106.77 -1.45 
386.99 107.10 -4.88 
386.49 106.62 -1.91 
387.40 106.87 -4.91 
387.34 106.94 -4.11 
387.50 106.57 -3.53 
387.45 106.70 -1.89 
387.80 106.89 -3.65 
390.62 106.92 -3.92 
376.16 107.84 -4.49 
376.89 107.84 -4.18 
376.88 107.86 -3.46 
376.74 107.68 -1.94 
377.81 107.79 -4.67 
377.75 107.79 -4.26 
378.49 107.61 -4.50 
378.26 107.47 -4.30 
378.14 107.50 -2.34 
378.71 107.54 -4.16 
378.66 107.61 -3.52 
379.01 107.49 -2.36 
379.03 107.34 -1.66 
379.56 107.21 -4.45 
379.54 107.20 -3.43 
379.54 107.21 -2.74 
379.56 107.41 -2.05 
380.38 107.79 -4.04 
380.47 107.23 -2.14 
381.12 107.62 -4.56 
381.13 107.64 -3.88 
381.14 107.45 -2.08 
381.32 107.40 -1.30 
381.70 107.26 -4.12 
381.58 107.85 -3.22 
381.75 107.62 -2.09 
382.05 107.25 -1.06 
382.14 107.65 -4.70 
382.32 107.42 -2.79 
382.28 107.54 -1.42 
383.44 107.44 -4.65 
383.40 107.45 -4.11 
383.32 107.83 -3.42 
383.33 107.87 -2.90 
383.19 107.66 -1.48 
384.17 107.62 -4.93 
383.89 107.74 -4.25 
384.19 107.49 -3.59 
383.57 107.67 -2.51 
383.92 107.40 -2.03 
384.04 107.28 -1.32 
384.35 107.56 -4.49 
384.88 107.83 -4.48 
384.35 107.88 -3.54 
384.62 107.47 -1.55 
384.44 107.18 -0.63 
385.31 107.77 -3.94 
385.62 107.79 -3.73 
385.06 107.78 -1.83 
386.04 107.68 -4.75 
385.75 107.61 -3.85 
385.73 107.55 -1.92 
385.81 107.57 -1.59 
387.02 107.26 -4.88 
386.99 107.74 -4.18 
386.80 107.54 -3.75 
386.96 107.82 -3.09 
386.55 107.68 -1.81 
387.57 107.44 -5.07 
387.50 107.19 -4.35 
387.58 107.41 -3.64 
387.39 107.54 -2.02 
387.86 107.18 -4.64 
389.91 107.82 -3.94 
390.57 107.35 -3.92 
375.78 108.24 -4.24 
376.00 108.35 -4.52 
375.99 108.40 -3.85 
375.97 108.49 -2.51 
376.26 108.08 -1.80 
376.79 108.56 -4.72 
376.77 108.58 -4.02 
376.62 108.14 -3.39 
376.89 107.90 -2.75 
376.63 108.24 -1.98 
377.75 108.50 -4.65 
377.37 108.39 -4.16 
377.37 108.39 -3.51 
377.37 108.39 -2.85 
377.45 108.37 -2.00 
378.48 108.48 -4.82 
378.42 108.35 -4.17 
378.09 108.00 -1.93 
379.28 108.25 -4.77 
378.90 108.21 -4.34 
379.23 107.96 -1.91 
379.38 107.89 -4.45 
380.19 108.23 -4.08 
380.28 108.58 -3.66 
380.16 108.05 -2.32 
380.79 108.56 -4.11 
381.34 108.37 -3.64 
381.34 108.37 -3.04 
381.11 108.08 -1.85 
380.92 107.93 -1.20 
381.45 108.01 -4.22 
381.69 108.09 -3.61 
381.65 108.46 -2.60 
381.67 108.05 -1.95 
381.86 108.25 -1.41 
382.32 107.92 -2.10 
382.45 108.16 -1.49 
383.30 108.43 -4.82 
383.41 108.46 -4.15 
383.40 108.49 -3.63 
383.29 107.90 -1.85 
382.88 108.20 -1.56 
383.54 108.01 -4.66 
384.03 108.08 -4.40 
383.75 108.20 -3.73 
384.04 107.98 -2.43 
383.81 108.48 -1.81 
384.35 107.89 -4.61 
384.70 108.29 -4.00 
384.68 108.35 -3.46 
384.66 108.41 -2.93 
384.59 108.52 -1.89 
384.72 108.02 -1.60 
385.31 108.45 -4.73 
385.35 108.44 -4.10 
385.16 108.39 -3.71 
385.12 108.26 -2.93 
385.03 108.29 -1.88 
385.49 108.14 -1.60 
386.09 108.21 -4.82 
385.85 108.11 -4.12 
385.97 108.25 -3.71 
386.01 108.20 -2.76 
386.00 108.20 -2.16 
386.55 108.38 -4.86 
386.55 108.37 -4.10 
386.52 108.04 -3.67 
386.60 107.97 -2.63 
386.83 108.26 -2.06 
386.77 108.02 -1.53 
387.35 107.94 -3.63 
387.15 108.08 -2.01 
388.11 108.13 -3.72 
388.08 108.11 -3.01 
388.09 108.11 -2.31 
389.87 108.24 -3.94 
376.44 109.16 -4.28 
376.49 109.16 -3.54 
376.49 109.16 -2.88 
376.49 109.15 -2.22 
376.88 108.81 -4.20 
376.86 109.04 -2.47 
377.01 108.74 -1.92 
377.45 108.66 -3.37 
377.44 108.66 -2.69 
378.09 109.23 -4.29 
378.37 108.97 -1.70 
378.93 108.61 -4.77 
378.89 108.80 -4.03 
379.40 108.71 -3.90 
379.99 109.00 -3.05 
379.98 108.99 -2.03 
380.47 109.09 -4.63 
380.49 109.11 -4.01 
380.41 109.21 -3.55 
380.48 109.12 -2.78 
380.07 108.64 -2.09 
381.00 108.65 -4.55 
381.06 109.10 -4.26 
380.91 108.60 -3.30 
381.33 108.97 -2.33 
381.06 109.05 -1.31 
381.95 108.86 -4.67 
381.68 108.78 -4.23 
381.88 108.77 -1.46 
382.74 109.19 -4.80 
382.14 108.94 -4.21 
382.15 108.96 -3.62 
382.45 108.67 -1.53 
383.30 108.96 -4.72 
383.20 108.99 -4.17 
383.18 109.05 -3.62 
383.07 108.75 -1.91 
382.87 108.71 -1.60 
383.18 109.21 -0.68 
383.85 108.87 -4.61 
383.81 108.89 -4.07 
383.72 108.83 -3.56 
383.68 108.82 -3.04 
383.71 108.88 -1.87 
383.90 108.88 -1.67 
383.74 108.93 -0.70 
384.63 108.72 -4.73 
384.60 108.68 -4.09 
384.44 108.82 -3.67 
384.55 109.22 -1.87 
385.37 108.82 -4.72 
385.19 109.12 -4.35 
384.99 109.10 -1.18 
385.92 108.84 -4.87 
385.76 108.96 -4.22 
386.06 108.74 -3.61 
385.92 108.63 -2.12 
386.16 109.25 -1.67 
386.55 108.59 -4.97 
386.40 108.88 -4.17 
386.46 109.02 -3.66 
386.45 109.03 -2.42 
386.66 109.24 -1.99 
386.74 108.67 -1.55 
387.32 109.18 -3.98 
388.07 108.89 -4.60 
388.07 108.89 -4.60 
387.95 108.68 -3.72 
389.80 109.07 -3.95 
389.84 108.66 -3.95 
375.45 109.90 -4.07 
375.68 109.82 -3.09 
375.85 109.41 -4.77 
376.36 109.65 -4.28 
376.01 109.57 -3.13 
376.02 109.56 -2.18 
376.58 109.74 -4.57 
376.94 109.30 -4.46 
376.62 109.80 -2.27 
377.66 109.35 -4.20 
377.25 109.45 -1.84 
378.23 109.34 -4.77 
378.15 109.49 -2.32 
378.90 109.39 -4.27 
378.89 109.46 -2.16 
380.67 109.50 -4.53 
380.67 109.50 -3.85 
381.05 109.96 -4.60 
381.01 109.90 -4.36 
381.01 109.91 -3.62 
381.15 109.94 -2.47 
381.11 109.97 -1.21 
381.69 109.38 -4.67 
381.91 109.69 -3.94 
381.81 109.60 -3.70 
381.91 109.62 -2.58 
381.90 109.77 -1.56 
381.85 109.74 -0.61 
382.79 109.31 -4.70 
382.75 109.33 -4.15 
382.70 109.35 -3.59 
382.47 109.38 -2.46 
382.49 109.71 -1.89 
382.46 109.66 -1.63 
382.50 109.46 -0.64 
383.18 109.30 -4.73 
382.94 109.69 -4.12 
383.14 109.31 -3.68 
383.30 109.60 -1.75 
383.86 109.52 -4.80 
383.92 109.61 -4.10 
383.88 109.52 -2.37 
383.59 109.51 -1.35 
384.60 109.45 -4.17 
384.52 109.46 -1.20 
385.34 109.64 -4.73 
385.34 109.50 -4.32 
385.35 109.51 -3.64 
385.36 109.53 -2.29 
385.26 109.38 -1.28 
386.18 109.74 -4.71 
386.18 109.74 -4.16 
385.65 109.64 -1.80 
386.71 109.42 -1.68 
387.63 109.78 -3.72 
387.25 109.59 -1.69 
387.93 109.44 -4.59 
387.78 109.75 -1.70 
388.29 109.40 -1.68 
389.75 109.46 -3.95 
375.04 110.08 -4.50 
374.64 110.30 -4.00 
375.05 110.08 -3.65 
375.47 110.22 -4.46 
375.66 110.04 -1.92 
376.24 110.35 -4.18 
376.06 110.44 -2.00 
376.61 110.09 -4.23 
376.64 110.32 -1.83 
378.67 110.06 -4.65 
380.67 110.13 -4.67 
380.48 110.38 -4.21 
380.51 110.40 -2.44 
380.61 110.33 -1.58 
381.26 110.42 -4.70 
381.26 110.41 -4.13 
381.13 110.12 -3.77 
381.21 110.08 -2.22 
381.15 110.39 -1.58 
381.18 110.03 -0.58 
381.88 110.17 -4.77 
381.74 110.06 -4.20 
381.66 110.28 -1.65 
381.61 110.12 -1.58 
382.37 110.25 -4.75 
382.59 110.25 -4.05 
382.56 110.35 -2.02 
382.19 110.03 -1.65 
382.97 110.33 -4.65 
383.01 110.43 -4.20 
383.11 110.32 -3.33 
383.10 110.35 -2.80 
383.08 110.39 -2.26 
383.14 110.36 -1.25 
383.73 110.06 -4.83 
383.81 110.38 -4.13 
383.77 110.33 -3.60 
383.80 110.03 -2.02 
384.64 110.14 -3.92 
385.23 110.36 -4.69 
385.32 110.15 -4.32 
385.17 110.03 -3.67 
385.16 110.02 -3.02 
385.16 110.01 -2.37 
386.12 110.45 -4.64 
386.12 110.26 -4.27 
385.77 110.24 -3.66 
386.13 110.00 -2.14 
386.73 110.02 -3.79 
388.23 110.06 -3.96 
389.68 110.26 -3.96 
