# .PCD v0.7 - Point Cloud Data file format
VERSION 0.7
FIELDS x y z
SIZE 4 4 4
TYPE F F F
COUNT 1 1 1
WIDTH 832
HEIGHT 1
VIEWPOINT 0 0 0 1 0 0 0
POINTS 832
DATA ascii
368.15 -63.92 -11.70 
368.00 -63.85 -10.86 
367.74 -64.40 -9.58 
368.26 -63.96 -7.97 
368.18 -63.93 -7.56 
368.80 -64.15 -11.43 
368.94 -64.11 -10.72 
368.66 -64.08 -10.01 
368.62 -64.06 -9.55 
368.77 -64.02 -8.56 
368.72 -64.00 -8.02 
368.85 -63.93 -7.22 
368.59 -63.93 -6.41 
369.39 -64.44 -11.45 
369.48 -64.38 -10.72 
369.24 -64.37 -10.00 
369.25 -64.31 -9.32 
369.35 -64.18 -8.86 
369.26 -64.26 -7.98 
369.56 -64.29 -7.18 
369.27 -64.12 -6.88 
370.22 -63.91 -11.28 
370.07 -64.03 -9.15 
369.91 -64.47 -8.84 
369.88 -64.45 -8.21 
369.76 -64.51 -7.37 
369.83 -64.42 -6.93 
370.99 -64.21 -11.29 
370.51 -64.49 -9.13 
370.67 -64.12 -8.82 
371.39 -64.45 -8.79 
372.01 -64.16 -8.91 
372.64 -64.22 -8.43 
373.09 -63.86 -8.31 
373.71 -63.91 -8.05 
374.53 -63.87 -8.06 
375.26 -63.93 -7.90 
375.36 -64.11 -10.56 
376.25 -63.99 -7.89 
377.44 -64.25 -7.60 
378.66 -64.13 -7.65 
378.51 -64.30 -7.27 
379.34 -63.93 -7.35 
367.75 -63.63 -11.85 
367.85 -63.53 -10.72 
367.81 -63.51 -10.20 
367.83 -63.58 -9.41 
368.07 -63.49 -8.83 
368.03 -63.47 -7.82 
367.85 -63.68 -7.31 
368.03 -63.61 -6.50 
368.43 -63.12 -11.67 
368.36 -63.78 -10.72 
368.32 -63.71 -10.13 
368.74 -63.24 -9.52 
368.58 -63.78 -8.91 
368.54 -63.76 -7.91 
368.50 -63.74 -6.92 
369.28 -63.43 -9.25 
369.97 -63.33 -9.14 
370.01 -63.35 -9.04 
370.51 -63.25 -9.10 
370.86 -63.20 -9.01 
371.35 -63.27 -8.73 
372.09 -63.54 -11.59 
372.60 -63.45 -8.43 
372.77 -63.53 -8.28 
373.72 -63.36 -10.55 
373.84 -63.13 -8.02 
374.53 -63.73 -10.56 
374.07 -63.26 -8.09 
374.85 -63.32 -7.92 
375.92 -63.37 -7.73 
376.71 -63.22 -7.80 
376.41 -63.29 -7.61 
376.92 -63.77 -7.61 
377.67 -63.66 -7.73 
378.06 -63.38 -7.57 
378.87 -63.35 -7.35 
367.73 -62.92 -9.56 
367.67 -62.59 -8.75 
367.63 -62.57 -7.65 
368.39 -62.65 -9.34 
368.50 -63.01 -8.72 
368.45 -62.99 -7.62 
368.41 -62.97 -6.51 
369.41 -62.64 -9.25 
370.02 -62.67 -9.12 
370.17 -62.84 -8.98 
370.93 -62.55 -10.55 
370.63 -62.48 -9.18 
371.10 -63.07 -8.89 
371.13 -62.95 -11.34 
371.81 -62.81 -10.55 
371.54 -62.58 -8.68 
372.35 -62.68 -11.58 
373.18 -62.60 -10.74 
372.66 -62.65 -8.41 
373.06 -63.00 -8.22 
373.59 -62.57 -10.89 
374.40 -62.71 -7.95 
375.26 -62.62 -7.79 
375.33 -62.68 -7.94 
376.45 -62.52 -9.68 
376.15 -62.67 -7.84 
376.36 -62.67 -7.56 
377.10 -62.96 -7.64 
378.09 -62.88 -7.40 
368.04 -62.08 -11.38 
368.10 -61.82 -9.67 
368.44 -61.97 -11.36 
368.55 -61.89 -9.31 
369.52 -62.36 -9.09 
370.07 -61.99 -9.10 
370.34 -62.30 -8.93 
370.68 -61.78 -9.16 
370.63 -62.03 -9.04 
371.13 -61.83 -10.83 
371.43 -62.09 -8.60 
372.45 -62.15 -10.99 
372.54 -62.05 -11.02 
372.73 -61.85 -8.39 
373.21 -62.37 -8.15 
373.44 -61.77 -8.07 
374.31 -62.01 -7.94 
374.74 -61.78 -9.70 
375.11 -61.97 -7.94 
375.58 -62.14 -9.69 
375.69 -62.10 -7.86 
376.32 -62.05 -7.52 
376.32 -62.05 -7.52 
377.25 -61.74 -7.41 
377.52 -62.35 -7.42 
368.09 -61.59 -9.95 
368.28 -61.20 -9.59 
368.71 -61.41 -9.49 
369.42 -61.63 -9.22 
369.95 -61.68 -9.21 
371.00 -61.65 -10.94 
370.71 -61.25 -9.02 
371.21 -61.64 -10.98 
371.73 -61.24 -8.60 
372.02 -61.42 -8.81 
372.95 -61.02 -8.36 
373.75 -61.51 -9.72 
373.68 -61.15 -8.00 
374.40 -61.25 -7.91 
375.20 -61.18 -7.90 
375.82 -61.25 -7.68 
376.27 -61.41 -7.47 
376.98 -61.12 -7.39 
381.89 -61.71 -9.21 
367.90 -60.98 -10.87 
367.94 -60.59 -9.92 
368.15 -60.64 -9.74 
368.70 -60.75 -9.91 
368.52 -60.58 -9.48 
369.34 -60.38 -9.78 
369.54 -61.00 -9.17 
370.96 -60.86 -9.11 
370.82 -60.85 -8.96 
371.67 -60.58 -10.35 
371.26 -60.46 -8.72 
371.83 -60.55 -8.56 
372.82 -60.47 -8.74 
373.58 -60.82 -8.09 
374.27 -60.99 -8.01 
374.82 -60.36 -7.84 
375.45 -60.67 -7.69 
376.55 -60.48 -8.76 
376.71 -60.51 -7.38 
367.82 -59.92 -9.93 
368.48 -59.68 -9.89 
368.86 -59.77 -9.45 
369.49 -59.82 -9.87 
369.41 -60.10 -9.57 
370.19 -60.15 -10.59 
370.01 -59.63 -9.88 
370.00 -60.18 -9.10 
370.55 -60.26 -9.14 
370.83 -60.02 -8.95 
371.27 -59.76 -9.31 
371.97 -59.83 -8.51 
372.92 -59.98 -8.22 
373.63 -59.96 -8.08 
373.98 -60.01 -8.26 
374.99 -60.00 -7.92 
375.65 -60.14 -8.79 
375.68 -60.26 -7.83 
376.06 -60.09 -8.00 
376.44 -59.89 -7.37 
377.08 -60.01 -7.66 
368.30 -59.33 -10.50 
368.10 -59.46 -10.08 
368.59 -59.27 -9.91 
368.76 -59.03 -9.38 
369.36 -59.46 -10.49 
369.52 -58.93 -9.76 
369.10 -59.53 -9.22 
369.92 -58.98 -9.75 
369.91 -59.04 -9.34 
370.53 -59.60 -10.49 
370.77 -59.09 -9.74 
370.84 -59.18 -8.94 
371.34 -59.32 -9.08 
371.58 -59.51 -8.94 
372.39 -59.38 -8.86 
373.94 -59.41 -8.64 
374.10 -59.03 -8.02 
375.31 -59.30 -7.81 
375.43 -59.51 -9.04 
375.52 -59.17 -7.62 
376.17 -59.28 -7.36 
378.08 -59.56 -8.31 
367.85 -58.30 -10.09 
368.65 -58.36 -9.88 
369.19 -58.56 -9.89 
369.43 -58.66 -9.63 
370.33 -58.85 -9.82 
369.88 -58.61 -9.14 
370.59 -58.82 -9.89 
370.56 -58.65 -9.20 
370.69 -58.84 -8.63 
371.47 -58.26 -8.88 
372.33 -58.69 -9.23 
372.33 -58.45 -8.86 
372.82 -58.70 -8.69 
373.42 -58.63 -8.90 
373.29 -58.78 -8.22 
374.01 -58.79 -8.06 
375.86 -58.81 -8.09 
377.11 -58.48 -7.69 
377.00 -58.81 -7.60 
368.05 -58.21 -9.87 
368.14 -58.00 -9.50 
368.96 -57.63 -10.15 
368.99 -58.21 -9.06 
369.53 -58.11 -9.86 
369.05 -57.78 -9.52 
369.86 -57.53 -9.96 
370.24 -57.96 -9.34 
370.50 -57.56 -9.92 
370.71 -57.93 -9.25 
370.50 -58.18 -8.85 
371.38 -57.68 -9.10 
371.27 -57.90 -8.98 
372.13 -57.84 -9.04 
372.74 -57.83 -9.01 
373.64 -57.66 -8.70 
373.81 -57.64 -8.28 
374.20 -57.61 -8.81 
377.39 -57.84 -8.19 
367.95 -56.93 -10.40 
368.21 -56.99 -10.29 
368.21 -57.03 -9.55 
368.70 -57.15 -10.79 
368.69 -57.10 -10.04 
368.87 -57.20 -9.52 
369.57 -57.20 -9.68 
369.24 -57.34 -9.03 
369.90 -57.27 -9.47 
369.75 -57.17 -8.87 
370.51 -56.88 -9.37 
371.64 -56.87 -8.86 
372.23 -57.34 -9.12 
372.21 -57.30 -8.81 
373.14 -57.42 -9.10 
372.64 -57.09 -8.80 
373.33 -57.25 -8.57 
375.57 -57.16 -7.92 
378.01 -56.90 -7.98 
368.13 -56.52 -10.62 
367.86 -56.59 -9.14 
367.83 -56.26 -8.71 
368.44 -56.73 -9.13 
368.88 -56.39 -9.04 
369.29 -56.27 -9.11 
369.23 -56.18 -8.52 
369.84 -56.48 -9.11 
369.84 -56.52 -8.98 
372.05 -56.70 -8.61 
372.83 -56.65 -8.95 
374.56 -56.27 -8.17 
374.86 -56.74 -7.99 
375.83 -56.68 -8.14 
376.02 -56.68 -7.89 
376.91 -56.73 -8.05 
379.16 -56.61 -8.28 
368.00 -56.04 -9.12 
368.21 -55.72 -8.73 
368.73 -55.61 -9.01 
369.08 -55.51 -8.95 
370.22 -55.85 -8.90 
371.02 -56.00 -8.85 
372.38 -55.98 -8.75 
372.22 -55.38 -8.25 
372.90 -55.42 -8.10 
373.46 -55.96 -9.27 
373.85 -56.06 -8.66 
373.83 -56.05 -8.20 
374.46 -55.77 -7.91 
375.23 -55.62 -8.16 
375.49 -55.55 -7.85 
377.81 -55.58 -7.75 
367.93 -54.77 -9.81 
367.68 -54.76 -8.71 
368.76 -54.84 -10.22 
368.50 -54.94 -8.69 
369.41 -55.23 -10.00 
369.63 -54.77 -8.47 
369.28 -54.78 -8.26 
369.79 -55.10 -8.39 
370.24 -54.82 -8.40 
370.70 -55.41 -8.88 
370.70 -54.97 -8.31 
371.23 -55.20 -8.30 
372.22 -55.38 -8.25 
372.66 -54.94 -8.19 
373.69 -54.74 -7.88 
374.05 -55.01 -8.07 
374.83 -55.39 -8.00 
368.02 -54.18 -8.69 
368.54 -54.38 -8.53 
369.32 -54.71 -10.07 
369.40 -54.09 -8.47 
369.45 -54.19 -8.20 
370.22 -54.21 -9.94 
369.88 -54.53 -8.42 
370.06 -54.28 -8.29 
370.52 -54.44 -9.91 
370.92 -54.19 -8.26 
371.75 -54.32 -8.19 
372.38 -54.11 -8.14 
372.95 -54.39 -8.14 
373.75 -54.49 -8.00 
374.98 -54.55 -7.89 
376.21 -54.66 -7.78 
377.82 -54.69 -7.64 
367.82 -53.60 -8.70 
368.56 -53.92 -9.76 
368.52 -53.57 -8.53 
368.85 -53.46 -8.31 
369.60 -53.67 -9.74 
369.29 -53.76 -8.47 
369.16 -53.53 -8.23 
369.98 -53.82 -9.67 
369.84 -53.58 -8.37 
370.04 -53.74 -8.24 
370.44 -53.65 -8.01 
371.27 -53.58 -8.14 
371.82 -53.84 -8.14 
373.12 -53.60 -7.83 
373.36 -53.59 -7.58 
379.47 -53.32 -6.76 
379.93 -53.52 -6.71 
381.58 -53.59 -6.08 
367.86 -52.89 -8.59 
368.76 -52.75 -8.51 
368.78 -52.64 -8.26 
369.60 -52.96 -8.38 
369.63 -52.94 -8.17 
369.72 -53.27 -8.37 
370.08 -52.92 -8.12 
370.78 -52.92 -7.97 
371.32 -53.08 -9.88 
371.22 -53.26 -9.32 
371.15 -53.20 -7.83 
372.84 -53.02 -7.81 
374.10 -52.98 -8.75 
378.10 -52.95 -7.96 
378.35 -52.75 -6.88 
379.08 -53.13 -6.80 
383.09 -52.81 -5.88 
389.09 -52.84 -4.56 
368.19 -52.54 -8.55 
368.78 -52.35 -8.41 
368.61 -52.08 -8.28 
369.22 -52.28 -8.38 
369.41 -52.34 -8.18 
369.74 -52.18 -8.70 
369.98 -52.07 -8.09 
370.63 -52.54 -7.99 
371.67 -52.34 -9.91 
377.20 -52.07 -7.06 
377.82 -52.43 -7.00 
377.78 -52.45 -6.96 
378.67 -52.10 -6.86 
379.40 -52.46 -6.30 
389.01 -52.30 -4.95 
368.10 -51.24 -8.39 
368.81 -51.43 -8.38 
368.81 -51.43 -8.38 
369.11 -51.90 -8.37 
369.55 -51.49 -8.13 
369.75 -51.68 -9.00 
370.10 -51.61 -7.91 
371.02 -51.24 -8.73 
370.63 -51.35 -7.69 
371.49 -51.31 -7.58 
371.83 -51.78 -8.69 
371.92 -51.40 -7.67 
372.56 -51.52 -9.99 
372.96 -51.27 -8.37 
372.99 -51.63 -7.54 
372.98 -51.41 -6.88 
373.79 -51.35 -6.85 
374.18 -51.89 -7.40 
374.21 -51.33 -6.83 
374.69 -51.31 -7.31 
374.63 -51.32 -6.80 
375.63 -51.50 -7.21 
376.66 -51.62 -6.95 
376.66 -51.62 -6.95 
376.83 -51.54 -7.77 
377.84 -51.71 -6.82 
379.35 -51.70 -6.73 
368.21 -50.96 -8.39 
368.10 -50.89 -7.98 
368.76 -50.92 -8.41 
368.53 -50.76 -8.14 
369.15 -50.55 -8.31 
369.34 -50.96 -8.17 
370.00 -50.83 -7.96 
369.73 -50.83 -7.81 
370.94 -51.06 -8.74 
370.54 -50.86 -7.87 
370.92 -50.52 -7.64 
371.44 -50.82 -8.65 
371.55 -50.86 -7.60 
371.38 -50.77 -7.55 
372.40 -50.92 -8.41 
372.27 -50.76 -7.56 
372.76 -51.11 -9.83 
372.57 -50.64 -8.38 
373.20 -50.74 -8.23 
373.06 -50.92 -7.48 
373.10 -50.80 -6.80 
373.42 -50.70 -9.72 
373.64 -50.55 -8.15 
373.40 -51.12 -7.40 
374.38 -50.68 -7.97 
374.82 -50.99 -7.94 
375.68 -50.87 -7.02 
376.50 -50.61 -7.02 
377.03 -50.96 -6.98 
377.03 -50.96 -6.98 
368.18 -50.23 -8.55 
368.52 -50.18 -8.37 
368.50 -50.16 -8.13 
369.70 -50.19 -9.06 
369.29 -50.18 -8.36 
369.37 -50.16 -8.16 
369.97 -50.38 -8.99 
369.78 -50.07 -7.95 
370.23 -50.34 -7.34 
370.59 -49.99 -8.86 
370.90 -50.22 -7.77 
371.60 -50.11 -8.63 
371.29 -50.09 -7.72 
371.41 -49.97 -7.57 
371.99 -50.16 -8.54 
372.02 -49.92 -7.37 
372.92 -50.07 -8.31 
372.82 -50.10 -7.30 
373.38 -50.19 -8.21 
373.38 -50.29 -7.25 
373.71 -50.29 -6.81 
374.30 -50.19 -7.98 
374.57 -50.23 -7.11 
375.21 -50.50 -7.06 
374.83 -50.37 -6.84 
375.65 -50.34 -6.79 
376.07 -50.31 -6.77 
367.68 -49.57 -8.64 
368.66 -49.50 -8.53 
368.78 -49.37 -8.13 
369.69 -49.74 -9.07 
369.08 -49.75 -8.40 
369.40 -49.44 -8.23 
370.33 -49.60 -8.94 
369.99 -49.49 -7.94 
370.36 -49.57 -7.67 
371.01 -49.62 -8.77 
370.56 -49.27 -7.70 
370.81 -49.38 -7.35 
371.49 -49.48 -8.66 
371.37 -49.65 -7.70 
371.50 -49.67 -7.42 
372.28 -49.48 -8.49 
372.09 -49.54 -7.42 
372.98 -49.58 -8.29 
372.74 -49.24 -7.11 
373.32 -49.46 -8.21 
374.14 -49.55 -7.98 
375.10 -49.15 -7.70 
375.63 -49.43 -7.59 
376.15 -49.78 -7.55 
368.01 -48.78 -8.61 
368.79 -48.76 -8.49 
368.95 -48.92 -8.09 
369.14 -48.59 -8.46 
369.17 -48.63 -8.24 
369.77 -48.50 -9.12 
370.24 -48.86 -8.15 
369.80 -48.49 -7.53 
370.68 -48.81 -8.88 
370.57 -48.64 -7.81 
370.92 -48.58 -7.67 
371.61 -48.96 -8.64 
371.27 -48.96 -7.65 
371.43 -48.62 -7.63 
372.16 -48.80 -8.48 
372.16 -48.68 -7.32 
372.95 -48.83 -8.25 
373.45 -49.10 -8.16 
373.98 -48.86 -7.97 
375.15 -49.01 -7.67 
375.29 -48.75 -7.59 
368.08 -48.02 -8.56 
368.50 -47.73 -8.63 
369.33 -48.18 -8.41 
369.59 -48.02 -8.11 
369.66 -48.00 -7.51 
369.86 -48.39 -9.13 
370.17 -47.94 -8.98 
370.16 -48.28 -8.09 
370.59 -47.72 -8.84 
370.78 -47.93 -7.95 
371.47 -48.25 -8.64 
371.46 -48.00 -7.86 
371.39 -47.91 -7.57 
372.09 -48.34 -8.46 
372.44 -48.17 -7.40 
372.88 -47.91 -8.23 
372.70 -47.92 -7.37 
373.87 -48.14 -7.96 
374.24 -48.28 -7.86 
368.18 -47.43 -8.49 
367.84 -47.07 -8.23 
368.89 -47.37 -9.39 
368.74 -47.42 -8.61 
369.35 -47.26 -9.26 
369.53 -47.38 -8.42 
370.04 -47.47 -8.39 
370.13 -47.31 -8.17 
370.10 -47.05 -7.41 
370.46 -47.06 -8.93 
370.99 -47.25 -8.00 
371.33 -47.59 -8.63 
371.47 -47.36 -7.76 
371.46 -47.70 -7.66 
372.51 -47.41 -7.50 
372.77 -47.56 -8.24 
373.00 -47.42 -7.31 
373.78 -47.58 -7.95 
373.31 -47.21 -7.17 
375.95 -47.53 -7.32 
368.20 -46.39 -8.98 
368.78 -46.67 -9.50 
368.82 -46.85 -8.72 
369.47 -47.00 -9.24 
369.22 -46.51 -8.75 
370.09 -46.68 -8.36 
370.18 -46.85 -8.31 
370.53 -46.66 -8.20 
371.48 -46.69 -7.94 
372.36 -46.74 -7.44 
373.01 -46.99 -7.06 
373.57 -46.71 -7.25 
367.62 -46.18 -9.09 
367.99 -45.91 -8.88 
368.97 -45.93 -9.53 
368.72 -45.88 -8.79 
368.69 -45.67 -8.09 
369.23 -45.93 -9.44 
369.46 -45.97 -8.74 
369.96 -45.78 -8.49 
370.88 -45.90 -8.05 
371.27 -45.80 -8.12 
371.21 -45.84 -7.62 
372.47 -46.06 -7.58 
372.47 -46.06 -7.58 
373.53 -46.01 -7.08 
374.18 -46.04 -7.14 
367.86 -45.36 -9.26 
368.07 -45.50 -9.04 
368.36 -45.28 -9.13 
368.82 -45.45 -8.77 
369.28 -45.33 -9.50 
369.20 -45.27 -8.77 
369.64 -45.20 -8.23 
369.97 -45.15 -8.62 
370.52 -45.01 -8.50 
371.10 -45.49 -8.06 
371.43 -45.40 -8.04 
372.04 -44.98 -7.58 
373.67 -44.96 -7.04 
373.88 -45.38 -6.93 
367.93 -44.51 -9.14 
368.03 -44.49 -8.78 
368.75 -44.48 -9.09 
368.71 -44.55 -8.97 
369.57 -44.52 -9.50 
369.36 -44.42 -8.89 
370.13 -44.67 -8.44 
369.96 -44.62 -8.15 
370.49 -44.73 -8.39 
371.63 -44.44 -8.03 
372.21 -44.44 -8.02 
372.76 -44.46 -7.90 
373.18 -44.29 -7.63 
373.58 -44.31 -7.69 
373.50 -44.27 -7.60 
368.00 -44.06 -9.25 
368.23 -43.79 -8.71 
368.76 -43.95 -9.13 
368.78 -44.13 -8.85 
369.17 -43.88 -9.09 
369.30 -43.96 -8.76 
369.69 -44.06 -7.93 
370.41 -43.69 -8.18 
371.76 -44.13 -7.94 
372.25 -43.92 -8.00 
372.27 -43.70 -7.64 
372.53 -43.68 -7.99 
372.73 -44.05 -7.44 
373.39 -43.95 -7.70 
373.53 -43.90 -7.48 
367.99 -43.21 -9.48 
367.74 -43.17 -8.89 
368.68 -43.06 -9.15 
368.90 -43.12 -8.85 
369.42 -43.15 -9.04 
369.34 -43.31 -8.80 
370.00 -43.30 -8.84 
370.52 -43.17 -8.61 
372.01 -43.10 -7.83 
372.41 -43.25 -7.54 
373.84 -43.05 -7.45 
374.95 -43.27 -6.87 
375.58 -43.01 -6.97 
368.18 -42.77 -9.47 
368.15 -42.71 -8.89 
368.56 -42.42 -9.27 
368.34 -42.68 -8.90 
369.31 -42.41 -9.20 
369.40 -42.48 -8.81 
370.15 -42.59 -8.68 
370.46 -42.77 -8.48 
370.52 -42.34 -8.21 
372.48 -42.30 -7.91 
372.85 -42.13 -7.73 
372.70 -42.61 -7.54 
373.53 -42.16 -7.44 
375.22 -42.14 -6.96 
375.48 -42.49 -7.06 
383.33 -42.14 -5.01 
383.32 -42.15 -4.43 
385.42 -42.55 -4.70 
386.07 -42.77 -5.54 
391.98 -42.32 -4.56 
392.24 -42.43 -4.98 
392.28 -42.36 -4.17 
367.89 -41.62 -9.49 
367.75 -41.99 -8.82 
368.51 -41.76 -9.22 
368.68 -41.89 -8.77 
369.29 -41.62 -9.17 
369.35 -41.86 -9.05 
370.01 -41.50 -9.06 
370.04 -41.62 -8.63 
370.64 -41.42 -8.68 
371.60 -41.47 -8.52 
371.56 -41.66 -8.07 
372.84 -41.46 -7.90 
373.21 -41.63 -7.61 
374.35 -41.37 -7.52 
375.22 -41.98 -6.94 
375.22 -41.98 -6.94 
375.82 -41.43 -6.88 
383.59 -41.85 -5.17 
383.57 -41.86 -4.62 
384.07 -41.48 -4.98 
384.07 -41.48 -4.30 
384.08 -41.48 -3.63 
384.44 -41.45 -5.10 
384.46 -41.60 -4.24 
385.38 -41.75 -4.99 
385.34 -41.95 -4.81 
385.37 -41.95 -4.10 
385.93 -41.50 -5.31 
385.95 -41.49 -4.56 
385.98 -41.48 -3.81 
386.68 -41.66 -5.34 
386.75 -41.68 -4.74 
387.55 -41.50 -4.80 
387.60 -41.51 -4.14 
368.29 -41.10 -9.44 
368.45 -41.10 -9.12 
368.94 -41.17 -8.93 
369.44 -41.19 -9.14 
369.30 -41.19 -8.80 
370.24 -41.06 -9.05 
370.03 -40.98 -8.98 
370.42 -40.72 -9.05 
370.78 -40.85 -8.66 
371.23 -40.98 -8.59 
371.42 -40.99 -8.13 
371.34 -40.92 -7.64 
372.16 -40.72 -8.04 
373.17 -40.85 -7.90 
373.45 -41.26 -7.65 
373.71 -41.12 -7.53 
374.24 -41.20 -7.73 
374.31 -41.08 -7.62 
374.73 -40.89 -7.15 
375.80 -41.34 -7.10 
376.25 -41.37 -7.08 
382.99 -40.89 -5.79 
382.98 -40.89 -5.13 
382.98 -40.89 -4.46 
382.97 -40.89 -3.80 
383.55 -41.28 -5.73 
383.54 -41.16 -5.20 
383.59 -41.27 -4.38 
384.24 -41.19 -5.24 
383.96 -41.02 -4.52 
384.08 -40.85 -4.11 
384.64 -40.75 -5.19 
385.03 -41.15 -4.69 
384.65 -40.74 -3.92 
385.56 -41.14 -4.94 
386.12 -40.91 -5.13 
386.16 -40.90 -4.35 
386.54 -41.06 -4.31 
387.69 -40.90 -5.18 
387.29 -41.26 -4.83 
387.30 -41.26 -4.14 
387.30 -41.25 -3.44 
367.88 -40.12 -9.36 
369.01 -40.18 -9.34 
368.73 -40.42 -8.52 
369.42 -40.23 -9.29 
369.42 -40.18 -8.87 
370.20 -40.18 -9.05 
370.03 -40.32 -8.98 
370.74 -40.56 -8.71 
371.32 -40.44 -8.63 
372.21 -40.35 -8.43 
372.36 -40.29 -8.27 
372.59 -40.05 -8.20 
373.21 -40.61 -7.58 
373.48 -40.31 -7.89 
373.72 -40.40 -7.53 
374.52 -40.70 -7.72 
374.16 -40.39 -7.49 
375.01 -40.03 -7.28 
376.02 -40.35 -7.22 
375.91 -40.43 -6.91 
376.09 -40.37 -7.13 
376.34 -39.91 -6.91 
382.17 -40.44 -5.35 
382.17 -40.43 -4.55 
382.58 -40.21 -5.05 
382.59 -40.19 -4.22 
383.19 -40.55 -5.63 
383.21 -40.54 -4.94 
383.22 -40.28 -4.39 
383.48 -40.46 -4.10 
384.28 -40.44 -5.65 
384.18 -40.42 -5.17 
384.21 -40.44 -4.52 
384.35 -40.25 -3.85 
384.42 -40.25 -5.64 
384.57 -40.38 -5.13 
384.75 -40.23 -4.61 
384.70 -40.41 -4.08 
385.19 -40.58 -5.24 
385.22 -40.57 -4.48 
385.25 -40.57 -3.71 
385.84 -40.12 -5.41 
385.86 -40.12 -4.74 
385.89 -40.12 -4.06 
386.76 -40.50 -4.61 
386.79 -40.50 -3.91 
387.69 -40.36 -4.89 
387.69 -40.35 -4.21 
387.70 -40.35 -3.53 
368.23 -39.84 -9.34 
368.72 -39.75 -9.47 
368.86 -39.96 -9.03 
369.34 -39.63 -9.56 
369.94 -39.85 -9.06 
370.09 -39.74 -8.80 
370.51 -39.87 -9.15 
370.60 -39.59 -8.93 
371.28 -39.64 -8.36 
372.43 -39.94 -8.44 
372.33 -39.68 -8.11 
372.54 -39.79 -8.41 
372.59 -39.92 -8.26 
374.23 -39.82 -7.65 
374.20 -39.75 -7.55 
374.75 -39.62 -7.43 
375.82 -39.99 -7.05 
376.22 -39.90 -7.14 
376.23 -39.72 -6.93 
382.01 -39.79 -5.09 
382.01 -39.78 -4.27 
382.45 -39.57 -5.27 
382.45 -39.56 -4.45 
382.88 -39.63 -4.13 
383.09 -40.01 -5.63 
383.46 -39.64 -5.00 
383.46 -39.64 -4.32 
383.39 -39.97 -4.00 
384.38 -39.84 -5.02 
384.38 -39.83 -4.23 
383.79 -39.89 -4.01 
384.57 -39.71 -5.63 
384.73 -39.78 -5.26 
384.87 -39.75 -4.52 
384.84 -39.75 -3.99 
387.59 -39.53 -4.71 
387.44 -39.81 -3.77 
388.57 -39.59 -5.08 
388.40 -39.55 -4.72 
388.40 -39.54 -4.10 
388.09 -39.59 -3.27 
388.97 -39.55 -5.24 
388.97 -39.54 -4.61 
388.97 -39.53 -3.98 
