# .PCD v0.7 - Point Cloud Data file format
VERSION 0.7
FIELDS x y z
SIZE 4 4 4
TYPE F F F
COUNT 1 1 1
WIDTH 843
HEIGHT 1
VIEWPOINT 0 0 0 1 0 0 0
POINTS 843
DATA ascii
372.32 -14.16 -2.48 
380.49 -14.50 -7.82 
381.12 -14.51 -7.82 
382.31 -14.13 -7.53 
382.80 -14.21 -7.80 
383.17 -14.12 -7.78 
385.05 -13.94 -7.37 
385.37 -14.20 -7.45 
386.37 -14.10 -7.38 
386.90 -14.10 -7.21 
387.25 -14.25 -7.15 
388.25 -14.26 -7.02 
389.20 -14.50 -6.95 
389.51 -14.16 -6.94 
391.29 -14.48 -6.69 
391.56 -14.17 -6.77 
392.25 -13.91 -6.62 
372.07 -13.73 -2.27 
382.35 -13.68 -7.79 
383.50 -13.63 -7.74 
384.30 -13.38 -7.62 
385.08 -13.55 -7.50 
385.52 -13.80 -7.45 
386.15 -13.66 -7.35 
387.46 -13.47 -7.23 
388.22 -13.52 -7.16 
388.72 -13.25 -7.07 
389.75 -13.22 -7.01 
390.31 -13.34 -6.91 
391.02 -13.44 -6.89 
392.51 -13.46 -6.72 
381.33 -12.63 -7.85 
382.19 -12.59 -7.99 
382.50 -12.66 -7.97 
383.19 -12.67 -7.72 
384.43 -12.49 -7.57 
384.43 -12.49 -7.57 
385.27 -12.41 -7.49 
386.23 -12.69 -7.42 
387.74 -12.97 -7.25 
388.12 -12.59 -7.24 
388.95 -12.99 -7.06 
389.16 -12.74 -6.80 
389.55 -12.66 -7.06 
389.58 -12.48 -6.53 
389.47 -12.48 -5.58 
390.25 -12.57 -6.96 
390.92 -12.71 -6.89 
390.92 -12.71 -6.89 
391.95 -12.82 -6.84 
392.47 -12.41 -6.95 
392.55 -12.65 -6.82 
369.73 -11.75 -8.09 
382.79 -12.16 -7.79 
384.64 -12.05 -7.66 
385.35 -12.29 -7.55 
385.60 -12.03 -7.53 
386.21 -12.12 -7.46 
386.96 -12.17 -7.32 
387.43 -12.18 -7.28 
388.39 -12.29 -7.23 
388.38 -12.12 -6.88 
389.18 -11.97 -7.08 
389.27 -11.80 -6.35 
389.21 -11.76 -6.00 
389.59 -11.89 -6.89 
389.65 -11.97 -6.54 
389.77 -11.98 -5.74 
389.64 -11.96 -5.17 
389.64 -11.95 -4.72 
390.59 -12.27 -6.94 
391.20 -12.17 -6.92 
391.33 -12.29 -6.88 
391.02 -12.02 -4.92 
391.88 -12.10 -6.99 
391.56 -11.91 -6.89 
392.13 -12.22 -6.98 
367.92 -11.04 -5.65 
369.54 -11.44 -8.02 
369.20 -11.34 -5.76 
369.49 -11.48 -2.08 
369.78 -11.36 -5.86 
369.72 -11.49 -2.26 
383.42 -11.63 -7.74 
384.72 -11.64 -7.65 
385.45 -11.12 -7.60 
385.60 -11.54 -7.56 
386.20 -11.56 -7.48 
386.85 -11.26 -7.19 
386.86 -11.28 -6.48 
386.87 -11.29 -6.00 
386.80 -11.22 -5.38 
387.43 -11.35 -5.02 
387.46 -11.26 -4.70 
388.52 -11.02 -7.21 
389.52 -11.28 -7.09 
389.65 -11.57 -6.30 
389.84 -11.61 -5.88 
389.67 -11.37 -5.16 
389.61 -11.54 -4.56 
390.42 -11.28 -7.00 
390.42 -11.47 -4.93 
390.61 -11.05 -4.74 
390.93 -11.37 -6.94 
390.93 -11.36 -6.54 
391.08 -11.15 -5.01 
391.22 -11.55 -4.81 
391.43 -11.44 -7.00 
391.92 -11.65 -6.86 
391.52 -11.28 -4.96 
391.57 -11.66 -4.63 
392.34 -11.24 -6.84 
367.87 -10.75 -5.70 
368.62 -10.41 -8.11 
368.56 -10.67 -5.78 
368.32 -10.61 -5.10 
368.41 -10.38 -4.79 
369.57 -10.65 -8.05 
369.45 -10.78 -5.77 
369.23 -10.68 -4.87 
369.31 -10.47 -4.44 
369.67 -11.00 -2.23 
369.78 -10.64 -5.61 
369.80 -10.85 -2.28 
370.51 -10.40 -5.67 
370.67 -10.40 -5.56 
371.60 -10.68 -7.98 
375.29 -10.39 -2.06 
375.67 -10.65 -2.16 
384.17 -10.36 -7.84 
384.57 -10.53 -7.67 
386.28 -10.93 -7.52 
386.51 -10.74 -5.08 
386.92 -10.81 -7.28 
386.93 -10.82 -6.43 
386.99 -10.92 -5.81 
387.13 -10.92 -5.32 
387.33 -10.39 -5.12 
388.06 -10.44 -7.36 
389.32 -10.62 -6.93 
389.63 -10.99 -6.52 
389.36 -10.60 -5.76 
389.54 -10.91 -4.91 
389.40 -10.56 -4.57 
390.17 -10.72 -6.97 
390.16 -10.72 -6.72 
390.37 -10.71 -5.98 
390.30 -10.65 -5.24 
391.16 -10.84 -7.00 
391.35 -10.73 -5.02 
391.54 -10.78 -6.96 
391.57 -10.98 -4.94 
367.78 -10.12 -5.93 
368.23 -10.08 -5.01 
368.07 -9.63 -4.66 
368.84 -9.89 -8.23 
368.57 -10.31 -5.91 
368.58 -10.06 -5.25 
368.63 -9.60 -4.66 
369.23 -9.62 -7.92 
369.39 -9.96 -5.94 
369.37 -9.88 -5.20 
369.56 -10.24 -4.68 
369.72 -9.99 -8.00 
369.89 -9.91 -5.78 
369.86 -10.14 -5.35 
371.51 -10.14 -7.96 
372.61 -9.94 -7.89 
382.97 -9.89 -7.68 
384.51 -10.02 -7.81 
385.25 -10.22 -7.64 
386.79 -10.03 -7.29 
386.99 -10.18 -5.13 
387.38 -10.12 -7.44 
388.09 -9.81 -7.40 
389.24 -10.27 -6.90 
389.32 -10.22 -7.17 
391.71 -9.94 -7.00 
367.64 -9.01 -8.01 
368.00 -9.07 -4.82 
367.91 -9.39 -4.63 
368.23 -9.00 -4.07 
368.95 -9.41 -8.20 
368.40 -9.28 -5.85 
368.70 -9.16 -5.17 
368.62 -9.45 -4.20 
368.62 -9.45 -4.20 
369.00 -9.16 -7.93 
369.37 -8.97 -7.11 
369.29 -9.32 -6.68 
369.47 -9.16 -5.68 
369.24 -9.35 -5.39 
369.24 -9.06 -4.70 
369.70 -9.25 -3.98 
369.95 -9.02 -7.95 
370.03 -9.45 -5.54 
369.99 -9.14 -5.24 
369.88 -9.60 -4.13 
370.13 -9.25 -3.77 
370.59 -9.11 -8.00 
370.52 -9.04 -5.83 
371.48 -9.34 -7.81 
372.49 -9.43 -7.87 
384.51 -9.46 -7.81 
385.29 -9.61 -7.69 
386.43 -9.44 -7.63 
386.59 -9.53 -7.57 
387.43 -9.27 -7.49 
388.40 -9.20 -7.38 
389.48 -9.05 -7.28 
390.45 -9.23 -7.23 
391.34 -9.22 -7.19 
391.59 -9.04 -7.16 
392.31 -9.61 -7.00 
368.03 -8.51 -7.96 
368.18 -8.68 -5.97 
368.25 -8.32 -4.99 
368.15 -8.39 -4.64 
367.75 -8.86 -4.09 
368.78 -8.75 -8.21 
368.59 -8.52 -7.51 
368.87 -8.73 -6.70 
368.84 -8.72 -5.95 
368.69 -8.52 -5.07 
368.56 -8.78 -4.70 
369.25 -8.58 -8.00 
369.18 -8.76 -6.89 
369.47 -8.72 -5.58 
369.35 -8.61 -5.20 
369.54 -8.65 -4.12 
369.25 -8.30 -3.87 
369.35 -8.30 -3.07 
370.14 -8.50 -7.91 
370.05 -8.44 -5.71 
369.97 -8.48 -5.09 
370.76 -8.40 -7.97 
370.48 -8.63 -5.69 
371.51 -8.50 -7.88 
372.45 -8.64 -7.82 
387.70 -8.45 -7.28 
387.72 -8.43 -3.72 
387.70 -8.45 -3.08 
387.69 -8.47 -2.43 
388.41 -8.41 -7.51 
389.31 -8.44 -7.33 
389.69 -8.35 -7.33 
390.15 -8.29 -7.30 
391.24 -8.56 -7.20 
391.81 -8.61 -7.09 
392.26 -8.29 -7.08 
368.27 -8.02 -8.20 
368.24 -8.01 -7.53 
368.14 -7.99 -5.52 
368.26 -7.81 -5.10 
368.15 -8.02 -4.66 
368.61 -7.83 -7.88 
368.64 -7.89 -4.92 
368.61 -7.85 -4.83 
368.80 -8.10 -3.70 
368.88 -8.09 -2.95 
368.96 -8.00 -2.56 
369.55 -7.96 -8.12 
369.47 -7.75 -5.47 
369.33 -7.79 -5.30 
369.51 -7.63 -4.71 
369.41 -8.19 -3.18 
369.14 -8.01 -3.27 
369.28 -8.02 -2.37 
369.88 -7.74 -7.94 
370.04 -7.83 -5.55 
369.98 -7.83 -5.07 
370.70 -7.74 -7.84 
370.81 -7.57 -6.22 
370.71 -7.79 -5.68 
370.63 -7.68 -5.42 
371.60 -7.78 -7.85 
371.21 -7.56 -6.20 
371.52 -7.89 -5.65 
372.44 -7.67 -7.78 
372.17 -7.59 -5.51 
372.80 -7.59 -7.91 
373.86 -7.95 -5.71 
373.35 -8.11 -5.29 
374.25 -7.47 -5.67 
383.15 -7.86 -7.58 
383.15 -7.86 -7.58 
386.43 -8.01 -7.67 
387.85 -8.14 -5.67 
387.81 -8.14 -5.14 
387.73 -8.18 -3.55 
388.00 -7.65 -7.42 
388.01 -7.71 -6.56 
388.20 -7.47 -5.69 
388.22 -7.57 -4.49 
389.81 -7.93 -7.32 
390.33 -8.01 -7.31 
392.00 -7.92 -7.18 
392.45 -8.12 -7.14 
368.01 -7.41 -5.32 
368.14 -7.43 -3.51 
368.25 -7.00 -3.25 
368.97 -7.06 -7.83 
368.79 -7.03 -4.83 
368.77 -7.40 -4.72 
368.82 -7.13 -3.62 
368.77 -7.50 -3.27 
369.48 -7.38 -5.50 
369.46 -7.31 -5.07 
369.25 -7.11 -4.83 
369.16 -7.37 -3.53 
369.23 -7.34 -3.16 
370.01 -7.29 -8.07 
370.21 -7.20 -5.74 
369.97 -7.09 -5.26 
370.91 -6.86 -7.85 
370.50 -6.86 -6.30 
370.48 -7.11 -5.91 
370.47 -7.24 -5.10 
371.52 -7.36 -7.88 
371.56 -6.99 -5.54 
372.04 -7.04 -7.78 
371.84 -6.90 -5.68 
372.87 -7.03 -7.89 
373.39 -7.41 -5.03 
374.59 -7.11 -5.95 
374.80 -6.92 -5.90 
382.92 -7.00 -7.55 
383.35 -7.29 -7.80 
385.23 -7.02 -5.18 
388.38 -7.05 -7.49 
388.32 -7.04 -6.50 
388.29 -7.05 -5.85 
388.16 -7.46 -5.26 
389.97 -7.39 -7.38 
390.36 -7.09 -7.22 
391.24 -7.36 -7.24 
367.77 -6.32 -7.88 
368.17 -6.39 -4.70 
368.50 -6.57 -7.66 
368.58 -6.28 -5.56 
368.81 -6.44 -4.92 
368.93 -6.53 -4.82 
369.30 -6.66 -7.79 
369.48 -6.81 -5.79 
369.37 -6.31 -4.96 
369.25 -6.29 -4.76 
370.23 -6.66 -7.86 
370.02 -6.38 -5.75 
370.11 -6.51 -5.18 
370.12 -6.19 -4.78 
370.23 -6.19 -4.03 
370.50 -6.66 -8.02 
370.85 -6.55 -6.18 
370.75 -6.45 -5.90 
370.50 -6.32 -5.18 
370.80 -6.48 -2.39 
371.42 -6.47 -7.76 
371.12 -6.18 -6.16 
371.22 -6.64 -5.16 
372.08 -6.51 -7.77 
372.40 -6.73 -5.53 
372.80 -6.64 -7.89 
372.70 -6.29 -5.54 
373.72 -6.74 -5.03 
374.47 -6.73 -5.68 
373.96 -6.58 -5.32 
374.94 -6.47 -5.81 
384.88 -6.21 -5.33 
385.14 -6.23 -4.98 
387.62 -6.46 -7.20 
387.83 -6.44 -6.73 
387.84 -6.45 -5.91 
387.84 -6.47 -5.21 
388.58 -6.70 -7.52 
391.20 -6.48 -7.19 
391.51 -6.76 -7.24 
367.62 -5.57 -7.74 
368.00 -5.82 -4.56 
368.77 -5.84 -7.80 
368.88 -5.83 -5.34 
369.11 -5.70 -7.77 
369.40 -5.86 -7.57 
369.33 -5.73 -5.02 
369.38 -5.77 -4.64 
370.21 -5.74 -7.69 
370.29 -6.08 -5.66 
370.16 -6.02 -5.18 
369.97 -5.83 -3.58 
370.10 -5.96 -3.32 
371.02 -5.78 -7.77 
371.00 -5.90 -6.23 
370.78 -5.89 -5.62 
370.48 -5.73 -5.31 
370.69 -5.96 -2.56 
371.56 -5.61 -7.79 
371.12 -5.94 -6.54 
371.20 -5.72 -5.89 
372.23 -5.66 -7.88 
372.63 -5.70 -7.88 
384.67 -5.66 -4.94 
385.12 -5.93 -4.98 
387.32 -5.51 -7.61 
367.95 -4.84 -7.71 
368.64 -4.73 -7.73 
368.88 -4.87 -7.58 
368.88 -5.35 -5.51 
368.73 -5.09 -5.37 
369.50 -5.07 -7.74 
369.33 -5.39 -7.56 
369.04 -5.12 -5.53 
370.06 -5.14 -7.69 
370.15 -5.41 -5.63 
370.28 -5.31 -4.84 
370.68 -5.05 -7.85 
370.73 -5.37 -6.46 
370.61 -5.35 -5.09 
371.48 -5.18 -7.80 
372.17 -5.15 -7.83 
372.61 -5.03 -7.82 
373.02 -4.93 -5.06 
373.47 -5.09 -5.07 
375.38 -5.20 -7.80 
386.95 -4.99 -7.66 
387.37 -4.84 -7.60 
368.02 -4.56 -7.74 
368.01 -4.60 -5.38 
368.52 -4.23 -7.71 
369.20 -4.45 -7.70 
369.16 -4.04 -3.72 
369.36 -4.68 -2.87 
370.22 -4.66 -7.85 
369.80 -4.36 -2.87 
369.86 -4.36 -2.39 
370.93 -4.25 -7.79 
371.40 -4.53 -7.78 
372.10 -4.56 -7.88 
372.09 -4.65 -5.05 
372.55 -4.53 -7.69 
375.24 -4.69 -7.82 
385.02 -4.50 -7.65 
385.25 -4.03 -7.62 
386.40 -4.30 -7.62 
387.18 -4.63 -7.64 
389.84 -4.22 -7.20 
390.42 -3.94 -7.19 
367.98 -3.67 -7.77 
368.18 -3.49 -3.68 
368.07 -3.52 -3.34 
368.80 -3.59 -7.76 
368.61 -3.69 -2.91 
369.11 -3.93 -7.74 
369.65 -3.51 -5.11 
369.62 -3.71 -4.30 
369.41 -3.76 -3.58 
369.40 -3.95 -3.01 
369.74 -3.50 -7.72 
370.20 -3.44 -7.59 
369.77 -3.58 -4.80 
369.73 -3.74 -4.21 
369.97 -3.79 -2.81 
370.64 -3.85 -7.82 
371.22 -3.77 -7.84 
372.07 -3.55 -7.70 
372.54 -3.74 -7.75 
374.89 -3.73 -7.88 
375.39 -3.79 -7.86 
376.42 -3.78 -7.83 
385.03 -3.94 -7.61 
384.87 -3.67 -7.59 
387.48 -3.66 -5.18 
390.42 -3.94 -7.19 
390.58 -3.75 -6.71 
390.80 -3.46 -7.47 
391.56 -3.47 -7.41 
391.43 -3.39 -6.73 
368.18 -2.88 -7.74 
367.88 -2.80 -5.95 
367.87 -2.89 -5.30 
368.31 -2.71 -3.81 
368.27 -3.03 -2.92 
368.96 -3.05 -7.73 
369.01 -2.85 -7.18 
369.10 -2.86 -6.49 
368.61 -2.95 -5.91 
368.62 -2.99 -4.97 
368.54 -3.00 -4.19 
368.54 -2.98 -3.69 
368.63 -3.16 -2.91 
369.39 -2.82 -7.81 
369.12 -2.81 -7.17 
369.34 -2.94 -6.74 
369.32 -3.11 -5.91 
369.34 -3.20 -5.39 
369.40 -3.18 -4.00 
369.74 -2.84 -7.61 
370.09 -2.65 -5.33 
370.32 -2.77 -3.08 
370.74 -2.97 -7.68 
370.42 -2.67 -3.06 
370.68 -2.63 -2.51 
371.82 -2.92 -7.79 
372.06 -2.89 -7.74 
387.81 -3.27 -5.77 
387.64 -3.19 -5.15 
388.30 -2.66 -7.17 
388.53 -3.20 -5.10 
388.75 -2.87 -5.09 
390.32 -2.71 -7.31 
391.07 -2.94 -7.46 
391.69 -3.26 -7.15 
391.72 -3.27 -6.89 
368.08 -2.30 -7.83 
367.83 -2.43 -5.84 
367.79 -2.29 -5.38 
368.51 -2.21 -7.79 
368.73 -2.56 -6.47 
368.75 -2.42 -5.62 
368.71 -2.07 -5.19 
368.82 -2.58 -3.85 
369.42 -2.16 -7.69 
369.41 -2.20 -7.15 
369.39 -2.25 -6.61 
369.20 -2.18 -5.96 
369.22 -1.95 -5.20 
369.41 -1.99 -4.61 
370.02 -2.27 -7.65 
369.87 -2.02 -7.25 
369.87 -2.25 -6.60 
370.08 -2.28 -6.06 
370.07 -2.55 -5.04 
370.31 -2.47 -4.67 
370.22 -2.58 -4.05 
370.13 -2.57 -2.90 
370.83 -2.55 -7.67 
370.73 -2.46 -3.23 
370.80 -2.56 -2.68 
371.47 -2.61 -7.73 
372.11 -2.27 -7.81 
387.61 -2.15 -7.16 
389.24 -2.57 -7.16 
390.15 -2.52 -7.16 
391.05 -2.26 -7.38 
391.46 -2.13 -7.38 
367.85 -1.88 -7.77 
368.04 -1.45 -7.22 
367.84 -1.48 -5.37 
368.80 -1.78 -7.77 
368.42 -1.63 -6.44 
368.60 -1.52 -5.89 
368.57 -1.64 -5.42 
368.90 -1.57 -3.92 
369.06 -1.63 -3.17 
368.95 -1.66 -2.06 
369.53 -1.77 -7.68 
369.51 -1.87 -7.48 
369.31 -1.58 -5.94 
369.22 -1.77 -5.19 
369.24 -1.89 -3.90 
369.06 -1.63 -3.17 
369.38 -1.37 -2.53 
370.16 -1.91 -6.56 
370.35 -1.88 -6.01 
369.78 -1.26 -5.06 
370.53 -1.80 -5.72 
370.52 -1.84 -5.32 
372.15 -1.63 -7.73 
372.59 -1.68 -7.75 
386.92 -1.65 -7.14 
390.63 -1.41 -7.41 
391.44 -1.57 -7.43 
391.73 -1.42 -7.44 
392.16 -1.34 -7.45 
368.15 -0.57 -7.57 
367.98 -0.96 -5.32 
367.74 -1.18 -4.79 
368.74 -1.14 -7.30 
368.77 -0.96 -6.67 
368.85 -0.88 -6.05 
368.67 -1.15 -5.31 
368.76 -1.07 -3.28 
369.48 -1.14 -7.46 
369.62 -1.06 -5.77 
369.54 -0.89 -5.18 
369.55 -0.63 -3.82 
369.30 -1.06 -3.23 
370.08 -0.58 -3.78 
370.26 -0.54 -3.39 
370.72 -0.66 -3.72 
392.53 -1.09 -7.36 
368.22 -0.44 -5.61 
368.14 -0.25 -5.07 
368.74 -0.25 -5.00 
369.48 0.06 -7.61 
369.65 -0.30 -3.95 
370.08 -0.58 -3.78 
370.51 -0.07 -4.04 
373.65 -0.16 -7.73 
374.40 0.00 -7.73 
374.88 -0.10 -7.77 
368.57 0.30 -5.01 
373.67 0.81 -7.62 
374.32 0.38 -7.73 
375.24 0.32 -7.76 
375.85 0.30 -7.63 
376.21 0.37 -7.61 
390.63 0.60 -7.45 
390.98 0.57 -7.44 
391.53 0.65 -7.50 
369.32 1.55 -7.60 
374.17 0.93 -7.60 
374.50 1.02 -7.58 
387.56 1.58 -7.46 
390.63 1.32 -7.48 
391.53 1.23 -7.50 
368.95 2.16 -7.62 
369.25 1.72 -7.61 
387.08 1.91 -7.32 
389.16 1.99 -7.39 
389.16 1.99 -7.39 
391.43 2.23 -7.36 
373.00 2.77 -7.55 
373.57 2.30 -7.64 
373.40 2.70 -7.52 
386.84 2.41 -7.29 
388.90 2.33 -7.38 
389.69 2.42 -7.45 
391.00 2.42 -7.35 
391.94 2.45 -7.33 
392.39 2.37 -7.33 
373.00 3.44 -7.18 
372.99 3.44 -6.83 
372.99 3.43 -5.94 
372.99 3.42 -5.41 
372.88 3.42 -4.57 
372.88 3.30 -3.98 
373.89 3.61 -7.63 
373.69 3.25 -7.43 
373.61 3.43 -6.66 
373.62 3.39 -5.80 
373.62 3.36 -5.37 
373.63 3.33 -4.64 
373.57 3.53 -4.00 
374.27 3.50 -7.52 
374.27 3.50 -7.52 
374.30 3.42 -6.57 
374.31 3.37 -5.63 
374.14 3.44 -5.25 
374.24 3.66 -4.33 
374.24 3.65 -3.96 
374.97 3.62 -5.65 
374.96 3.60 -4.93 
375.76 3.58 -5.23 
385.86 3.25 -7.28 
389.93 3.53 -7.30 
373.15 3.79 -7.48 
373.18 3.84 -6.87 
373.16 3.82 -6.07 
373.15 3.80 -4.95 
373.09 3.75 -4.47 
373.04 3.69 -3.99 
373.87 4.04 -7.61 
373.77 3.99 -7.54 
373.71 3.96 -6.54 
373.62 3.72 -5.78 
373.73 3.90 -5.29 
373.73 3.85 -4.35 
373.51 4.01 -4.07 
374.50 3.93 -7.65 
374.47 4.07 -7.09 
374.22 3.74 -6.52 
374.23 4.03 -5.59 
374.23 4.02 -5.21 
374.23 4.00 -4.42 
374.23 3.98 -4.03 
375.15 4.35 -7.63 
375.26 4.28 -7.21 
375.01 4.09 -6.71 
375.04 4.34 -5.63 
375.01 4.04 -5.28 
375.01 4.01 -4.20 
375.79 3.88 -7.63 
375.81 4.01 -5.58 
375.81 3.99 -4.86 
375.82 3.98 -4.49 
376.31 4.15 -7.69 
376.39 4.16 -7.00 
376.37 4.00 -6.61 
376.36 3.98 -5.83 
376.36 3.98 -5.44 
378.08 4.33 -5.71 
378.04 4.16 -5.34 
378.07 4.35 -4.66 
377.79 4.30 -4.03 
378.11 4.17 -7.51 
378.31 4.09 -5.78 
378.40 4.02 -5.16 
378.30 4.09 -4.91 
387.50 4.21 -7.30 
389.03 4.36 -7.39 
389.61 3.95 -7.28 
371.10 4.68 -7.55 
371.20 4.83 -7.54 
373.90 4.46 -6.98 
373.90 4.76 -4.88 
373.72 4.51 -4.37 
373.88 4.82 -3.86 
373.98 4.46 -7.70 
374.17 5.06 -7.20 
374.16 5.06 -6.75 
374.48 4.99 -5.72 
374.48 4.98 -5.09 
374.16 4.91 -4.43 
373.99 4.76 -3.96 
374.60 4.86 -7.19 
374.70 4.75 -6.62 
374.68 4.74 -5.72 
374.73 4.83 -5.14 
374.74 4.80 -4.40 
374.74 4.79 -4.03 
375.86 4.44 -5.56 
375.86 4.42 -4.84 
376.25 4.44 -7.69 
376.42 4.48 -7.00 
376.41 4.44 -5.03 
377.16 4.65 -7.14 
377.17 4.76 -6.74 
377.19 4.85 -5.90 
377.18 4.83 -5.45 
377.18 4.88 -4.68 
377.29 4.51 -4.07 
377.60 4.45 -7.56 
378.09 4.70 -6.56 
377.76 4.66 -5.61 
377.75 4.65 -5.08 
378.07 4.67 -4.10 
377.55 4.45 -4.01 
378.36 4.84 -5.77 
378.45 4.69 -5.15 
378.45 4.68 -4.37 
391.95 4.48 -7.37 
392.59 5.05 -7.35 
369.01 5.55 -7.53 
369.66 5.37 -5.96 
370.33 5.67 -7.36 
371.05 5.31 -7.56 
373.60 5.64 -7.26 
373.89 5.43 -6.70 
373.88 5.42 -6.14 
373.86 5.42 -5.00 
373.85 5.41 -4.43 
374.24 5.32 -7.02 
374.27 5.25 -6.56 
374.27 5.25 -5.76 
374.52 5.39 -5.07 
374.22 5.35 -4.44 
374.21 5.15 -3.93 
374.86 5.31 -7.47 
374.74 5.15 -6.60 
374.76 5.30 -5.60 
374.77 5.42 -5.08 
374.77 5.25 -4.56 
376.47 5.55 -7.56 
377.81 5.13 -6.67 
377.80 5.11 -5.60 
377.80 5.10 -5.07 
377.80 5.10 -4.53 
377.84 5.10 -4.00 
388.49 5.77 -7.19 
392.48 5.46 -7.41 
367.76 6.35 -7.58 
368.47 6.05 -7.56 
369.04 5.98 -7.53 
370.31 5.81 -7.02 
370.80 6.21 -7.49 
370.53 5.85 -5.93 
371.59 5.87 -7.45 
372.68 6.31 -7.08 
372.65 6.33 -6.27 
373.05 6.10 -6.15 
373.03 6.11 -5.41 
373.00 6.12 -4.66 
373.28 5.95 -7.07 
373.51 5.90 -6.83 
373.49 5.89 -6.15 
373.47 5.90 -5.46 
373.46 5.90 -4.78 
374.58 5.96 -6.41 
374.59 5.93 -5.63 
374.60 5.90 -4.97 
374.60 5.88 -4.57 
387.82 6.29 -7.17 
388.17 6.05 -7.18 
371.02 7.08 -7.02 
370.60 6.99 -6.46 
370.81 6.94 -6.09 
372.51 6.72 -7.17 
372.65 6.54 -6.12 
370.61 7.45 -7.10 
370.89 7.16 -6.59 
370.68 7.40 -5.77 
372.42 7.79 -6.86 
372.30 7.80 -4.38 
372.98 7.47 -6.88 
372.86 7.87 -5.51 
372.93 7.52 -5.00 
373.22 7.82 -6.89 
373.22 7.81 -5.79 
391.00 7.70 -7.18 
372.26 8.51 -7.20 
372.25 8.50 -6.73 
372.24 8.47 -5.80 
372.23 8.44 -4.86 
372.16 8.17 -4.40 
372.19 8.43 -3.92 
372.81 8.24 -6.69 
372.80 8.21 -5.72 
372.81 8.13 -5.15 
372.81 8.12 -4.77 
390.70 8.13 -7.15 
372.23 8.79 -7.28 
372.22 8.72 -6.49 
372.22 8.73 -5.71 
372.21 8.71 -4.97 
372.36 8.77 -4.38 
372.89 8.80 -6.66 
372.89 8.88 -5.64 
372.89 8.75 -5.15 
372.89 8.73 -4.76 
373.28 9.13 -6.83 
373.26 9.12 -5.75 
373.24 9.12 -4.66 
382.89 8.96 -7.47 
392.33 9.13 -7.13 
369.12 9.84 -6.20 
373.19 9.36 -4.79 
373.25 9.34 -6.75 
373.67 9.89 -5.38 
377.84 9.89 -7.48 
392.03 9.65 -7.11 
369.13 10.10 -6.26 
373.76 10.29 -5.58 
373.78 10.28 -5.19 
391.74 10.17 -7.08 
