# .PCD v0.7 - Point Cloud Data file format
VERSION 0.7
FIELDS x y z
SIZE 4 4 4
TYPE F F F
COUNT 1 1 1
WIDTH 2291
HEIGHT 1
VIEWPOINT 0 0 0 1 0 0 0
POINTS 2291
DATA ascii
399.11 143.59 -1.67 
399.32 143.51 -0.98 
399.13 143.71 -0.46 
399.83 143.66 -2.78 
399.85 143.68 -2.35 
399.94 143.51 -1.55 
400.07 143.39 -1.13 
400.11 143.79 -0.42 
400.85 143.89 -3.14 
400.67 143.64 -2.23 
400.52 143.49 -1.71 
400.42 143.25 -1.21 
401.17 143.87 -4.10 
401.17 143.80 -2.71 
401.51 143.80 -2.21 
401.53 143.55 -1.44 
401.43 143.82 -1.00 
401.08 143.77 -0.28 
402.17 143.66 -2.80 
402.13 143.71 -2.42 
402.14 143.69 -1.59 
401.75 143.65 -1.22 
402.72 143.66 -2.74 
402.88 143.73 -2.40 
402.86 143.70 -1.53 
402.41 143.71 -0.93 
403.01 143.83 -0.38 
403.05 143.40 0.50 
403.06 143.36 2.05 
403.74 143.74 -4.33 
403.55 143.39 -2.97 
403.32 143.78 -2.30 
403.44 143.37 -1.50 
403.34 143.52 -0.95 
403.33 143.85 -0.37 
403.24 143.82 2.12 
404.40 143.70 -4.30 
404.19 143.55 -2.02 
404.20 143.56 -1.71 
403.95 143.88 -1.20 
404.03 143.58 -0.19 
403.93 143.54 3.08 
404.34 143.33 4.08 
404.62 143.57 -2.17 
404.77 143.34 -1.82 
404.95 143.27 0.82 
404.77 143.49 2.84 
405.47 143.28 -3.37 
405.65 143.34 -3.29 
405.48 143.74 -2.48 
405.75 143.69 -1.72 
405.29 143.49 -1.02 
405.73 143.83 -0.21 
405.58 143.62 0.79 
406.56 143.81 -3.00 
406.11 143.58 -2.10 
406.16 143.36 -1.42 
406.41 143.63 -1.23 
406.34 143.90 0.27 
407.04 143.59 -2.83 
407.03 143.61 -2.32 
407.23 143.32 -1.27 
407.19 143.49 -1.03 
407.10 143.81 -0.38 
406.85 143.48 0.33 
407.61 143.44 -3.61 
407.81 143.65 -3.14 
407.50 143.69 -1.98 
407.36 143.65 -1.76 
407.91 143.30 -0.82 
407.98 143.35 -0.04 
407.98 143.35 -0.04 
408.34 143.72 -3.04 
408.34 143.65 -2.33 
408.34 143.62 -1.72 
408.53 143.45 -1.02 
408.18 143.57 -0.32 
408.72 143.67 -3.05 
409.05 143.68 -2.32 
408.82 143.47 -1.94 
408.76 143.83 -1.00 
409.94 143.35 -2.73 
409.53 143.59 -2.45 
409.41 143.85 -1.76 
410.65 143.90 -2.96 
410.62 143.85 -1.98 
410.39 143.62 -1.74 
411.47 143.32 -3.15 
410.83 143.65 -2.13 
411.95 143.71 -2.91 
411.92 143.73 -2.33 
411.87 143.79 -1.66 
412.31 143.69 -3.42 
412.23 143.63 -2.94 
412.46 143.72 -2.01 
412.28 143.45 -1.89 
414.48 143.84 -3.90 
417.49 143.41 -3.58 
392.85 144.20 -1.83 
393.18 144.51 -0.66 
393.64 144.09 -1.61 
393.36 144.50 -1.14 
393.89 144.58 -0.21 
394.66 144.31 -2.68 
394.43 144.24 -1.26 
394.43 144.34 -0.79 
394.13 143.99 -0.19 
394.37 144.53 0.20 
394.98 144.01 -3.86 
394.72 144.35 -2.17 
395.14 144.49 -1.63 
395.07 144.60 -1.06 
394.94 144.20 0.00 
395.62 144.15 -3.05 
395.73 144.51 -2.00 
395.61 144.30 -1.65 
395.81 144.23 -0.66 
395.86 144.51 -0.23 
395.62 144.50 0.18 
395.91 144.07 1.11 
395.70 144.00 2.06 
396.76 144.17 -3.86 
396.63 144.61 -2.68 
396.55 144.05 -2.39 
396.74 144.46 -1.64 
396.58 144.45 -1.10 
396.63 144.37 -0.37 
396.77 144.12 0.27 
397.23 144.25 -4.16 
397.28 144.21 -3.59 
397.36 144.12 -3.03 
397.19 144.32 -2.37 
397.22 144.28 -1.75 
397.20 144.24 -0.96 
397.06 144.29 -0.25 
397.04 144.54 0.68 
397.61 143.99 -2.93 
397.78 144.34 -2.31 
397.89 144.22 -1.60 
397.63 144.41 -1.06 
397.88 144.29 0.06 
397.92 144.38 0.64 
397.94 144.22 1.11 
398.52 144.06 -2.96 
398.44 144.19 -2.37 
398.53 144.33 -1.65 
398.59 144.19 -0.94 
398.42 144.41 -0.24 
398.61 144.49 0.35 
398.29 144.42 1.15 
399.45 143.96 -2.68 
399.27 144.24 -2.35 
399.24 144.25 -1.65 
399.22 144.36 -0.88 
399.15 144.52 -0.32 
399.96 144.56 -2.67 
399.91 144.33 -2.33 
399.92 144.51 -1.72 
399.84 144.38 -1.17 
400.11 143.79 -0.42 
400.79 144.31 -2.77 
400.54 144.36 -2.47 
400.62 144.25 -1.50 
400.85 144.18 -0.91 
400.57 144.42 -0.32 
401.44 144.25 -3.87 
401.56 144.49 -2.73 
401.57 144.28 -2.16 
401.49 144.32 -1.75 
401.43 144.48 -1.22 
401.33 144.02 -0.17 
401.49 144.33 0.18 
401.86 144.58 -3.72 
402.06 144.57 -2.97 
401.97 144.29 -2.42 
402.07 144.21 -1.67 
402.14 144.26 -1.13 
402.06 144.33 -0.30 
402.88 144.40 -4.07 
402.89 144.37 -3.69 
402.77 144.43 -3.01 
402.97 144.20 -2.39 
402.79 144.36 -1.83 
402.47 144.11 -1.00 
402.62 144.18 -0.39 
403.01 144.18 0.19 
403.09 144.14 2.32 
403.05 144.27 -4.17 
403.24 144.13 -3.51 
403.31 144.16 -3.21 
403.58 144.12 -2.25 
403.47 144.55 -1.80 
403.27 144.06 -0.55 
403.34 143.95 1.97 
404.23 144.20 -4.33 
404.33 144.13 -2.79 
403.88 144.27 -2.21 
404.38 144.34 -1.95 
404.43 144.16 3.02 
405.00 144.18 -2.26 
404.95 144.17 -1.91 
404.69 144.14 2.95 
404.92 144.06 4.04 
405.58 144.54 -2.75 
405.60 144.47 -2.38 
405.43 144.12 -1.90 
405.68 144.30 -1.16 
405.31 143.96 0.06 
405.23 143.94 0.79 
405.23 144.61 4.06 
406.35 144.46 -2.81 
406.32 143.98 -2.28 
406.23 144.47 -1.52 
405.95 144.40 -1.16 
406.10 144.44 -0.25 
406.31 144.50 0.30 
406.97 144.45 -2.75 
407.17 144.14 -2.16 
407.09 144.35 -1.51 
406.71 144.16 -0.35 
407.89 144.06 -2.91 
407.72 144.01 -2.11 
407.71 144.17 -1.70 
407.69 144.01 0.04 
408.35 144.20 -2.90 
408.08 144.37 -1.96 
408.33 144.19 -1.73 
408.52 144.49 -0.34 
408.91 143.97 -3.96 
408.89 144.15 -2.90 
408.80 144.33 -2.33 
408.69 144.19 -1.73 
408.84 144.06 -0.27 
409.80 144.52 -3.93 
409.96 144.25 -3.01 
409.44 144.15 -2.28 
409.64 144.58 -1.39 
409.74 144.45 -0.61 
410.24 144.18 -3.51 
410.35 144.29 -3.00 
410.52 144.29 -2.25 
410.47 143.99 -1.87 
411.44 144.18 -3.86 
411.09 144.24 -2.94 
411.24 144.32 -2.25 
412.17 144.44 -2.96 
411.69 144.40 -2.01 
411.56 144.01 -1.71 
412.38 144.10 -2.95 
412.78 144.37 -2.31 
412.61 144.51 -1.64 
413.38 144.41 -2.28 
413.20 144.50 -1.69 
413.90 144.59 -3.72 
413.92 144.62 -3.35 
414.30 144.24 -2.33 
414.85 144.34 -3.38 
414.88 144.47 -2.93 
414.85 144.39 -2.56 
415.50 144.46 -3.37 
415.19 144.53 -3.28 
392.74 145.10 -1.27 
392.80 145.22 -1.09 
393.24 145.26 -0.38 
393.59 145.29 -2.51 
393.59 145.10 -1.36 
393.38 145.14 -0.76 
393.70 145.01 0.02 
394.49 145.07 -2.95 
394.54 145.18 -2.28 
394.59 144.83 -1.51 
394.66 144.74 -0.92 
394.33 145.14 -0.31 
395.25 145.01 -2.81 
395.07 145.04 -2.11 
395.13 145.03 -1.57 
394.88 144.91 -0.90 
394.74 144.94 -0.16 
395.25 145.13 1.93 
395.92 145.00 -2.19 
395.84 145.08 -1.50 
395.78 145.10 -0.98 
396.05 145.03 -0.27 
395.90 145.16 0.31 
395.69 145.22 1.22 
395.46 145.01 1.83 
396.22 145.02 -3.40 
396.46 144.77 -2.84 
396.65 144.91 -2.18 
396.46 144.98 -1.77 
396.46 144.98 -1.11 
396.44 144.98 -0.22 
396.49 145.16 0.72 
396.84 144.80 -4.18 
396.98 144.78 -3.82 
397.01 144.77 -3.26 
397.20 145.14 -2.33 
397.18 144.78 -1.58 
397.29 144.99 -1.10 
397.31 145.16 -0.24 
397.23 144.93 0.49 
397.28 144.82 1.39 
397.20 145.28 1.59 
397.79 144.92 -2.18 
397.89 144.98 -1.59 
397.68 145.05 -1.00 
397.89 144.86 -0.53 
398.13 145.13 0.28 
397.93 144.70 1.10 
398.74 144.81 -2.96 
398.67 145.27 -2.22 
398.52 145.01 -1.58 
398.60 144.91 -0.85 
398.31 144.80 -0.28 
399.54 145.10 -2.69 
399.23 144.91 -2.34 
399.27 145.04 -1.78 
399.16 145.07 -1.05 
399.27 144.91 -0.48 
399.98 145.22 -2.79 
400.06 144.95 -2.37 
399.98 144.70 -1.65 
399.89 144.87 -1.21 
400.22 145.04 -0.21 
399.83 145.22 0.24 
400.63 145.23 -3.65 
400.76 145.02 -2.90 
400.72 145.05 -2.32 
400.79 144.91 -1.71 
400.87 144.89 -0.90 
401.01 145.04 -0.20 
401.15 145.02 -3.38 
401.22 144.93 -2.71 
401.23 144.96 -2.38 
401.14 144.91 -1.74 
401.23 144.80 -1.09 
401.24 144.86 -0.33 
401.79 144.93 -3.46 
401.88 144.85 -2.95 
401.93 144.93 -2.28 
401.68 144.77 -1.79 
401.81 144.68 -1.09 
402.21 145.05 -0.12 
402.65 144.95 -4.03 
402.83 145.11 -2.77 
402.88 145.08 -2.45 
402.79 145.17 -1.62 
402.79 145.30 -0.86 
402.68 145.14 -0.14 
403.49 145.02 -2.22 
403.78 145.19 -1.67 
403.29 144.80 -0.93 
404.47 144.94 -2.68 
404.05 144.99 -2.56 
404.43 144.72 -1.60 
404.70 144.98 -2.44 
404.69 144.98 -1.45 
404.64 145.12 3.05 
405.81 144.80 -2.85 
405.86 144.96 -2.14 
405.63 145.19 -1.87 
405.57 144.84 -1.08 
405.83 144.77 3.96 
405.95 145.11 -4.15 
406.23 144.94 -2.62 
406.17 145.08 -2.21 
406.24 144.81 -1.71 
406.47 144.76 -1.12 
406.45 145.19 0.14 
406.26 145.31 0.35 
406.70 144.78 -2.75 
407.20 144.80 -2.60 
406.69 144.66 -1.66 
406.75 144.90 -1.11 
407.41 145.07 -2.34 
407.95 144.64 -1.69 
407.94 145.26 1.01 
408.45 145.14 -2.45 
408.38 144.86 -1.93 
408.40 145.19 0.32 
409.15 145.25 -2.97 
408.89 145.08 -2.11 
409.02 144.70 -1.55 
409.89 144.67 -4.00 
409.73 144.87 -2.83 
409.89 145.05 -2.16 
409.82 144.72 -1.94 
409.82 145.07 -1.16 
409.88 145.23 0.57 
410.23 145.15 -3.66 
410.19 144.92 -2.98 
410.38 145.11 -2.33 
410.50 144.72 -1.88 
410.16 144.65 -0.87 
411.40 145.14 -2.23 
412.13 145.27 -3.65 
412.12 144.81 -2.96 
411.82 144.77 -2.60 
411.52 145.13 -1.65 
412.26 144.86 -3.62 
412.23 144.75 -3.11 
412.66 144.98 -2.28 
412.67 145.06 -1.68 
412.27 145.32 -1.23 
412.95 145.28 -2.66 
413.17 145.19 -2.40 
413.10 144.90 -1.67 
412.97 145.28 -1.16 
414.14 145.19 -2.77 
413.77 145.24 -2.42 
413.77 145.17 -1.50 
414.22 145.16 -1.17 
414.63 144.65 -3.68 
414.56 144.76 -3.33 
414.57 145.23 -2.08 
414.55 145.19 -1.78 
414.56 145.22 -1.10 
415.43 144.88 -3.93 
415.35 144.88 -3.29 
415.16 144.88 -2.28 
415.60 144.65 -1.57 
393.18 145.88 -2.01 
392.81 145.61 -1.66 
392.88 145.57 -1.08 
393.13 145.54 -0.14 
393.62 145.65 -2.22 
393.75 145.56 -1.53 
393.89 145.57 -0.96 
393.64 145.81 -0.23 
394.46 145.94 -3.00 
394.43 145.57 -2.19 
394.35 145.71 -1.56 
394.23 145.81 -1.18 
394.18 145.87 -0.13 
394.16 145.54 0.23 
394.78 145.79 -3.40 
394.97 145.67 -2.82 
395.07 145.88 -2.36 
394.97 145.53 -1.46 
395.10 145.65 -0.75 
394.83 145.75 -0.10 
395.54 145.76 0.36 
395.63 145.59 -2.62 
395.73 145.87 -2.29 
395.78 145.65 -1.54 
395.77 145.56 -1.00 
395.82 145.78 -0.23 
395.95 145.86 0.38 
395.89 146.06 1.39 
395.64 145.73 1.94 
396.27 145.85 -2.90 
396.53 145.64 -1.98 
396.55 145.66 -1.52 
396.30 145.65 -0.99 
396.34 145.75 -0.34 
396.16 145.74 1.64 
397.40 145.85 -3.06 
396.98 145.73 -2.26 
397.29 145.62 -1.64 
397.17 145.59 -1.00 
397.07 145.59 -0.02 
396.85 145.94 0.24 
398.02 145.97 -2.76 
398.02 145.70 -2.30 
397.87 145.47 -1.65 
398.00 145.33 -1.04 
397.77 145.89 -0.29 
398.09 145.70 0.17 
397.54 145.64 1.29 
398.34 145.69 -2.81 
398.50 145.76 -2.38 
398.62 145.55 -1.70 
398.31 145.85 -0.95 
398.50 145.80 -0.31 
398.46 145.77 0.28 
398.37 145.80 1.32 
399.31 145.60 -2.76 
399.20 145.76 -2.38 
399.41 145.61 -1.89 
399.27 145.49 -0.95 
399.23 145.81 -0.09 
400.08 145.87 -3.61 
400.07 145.79 -3.09 
399.91 145.67 -2.20 
399.87 145.67 -1.67 
400.02 145.63 -0.61 
400.01 145.71 -0.29 
400.46 145.58 -3.61 
400.61 145.63 -3.14 
400.70 145.61 -2.35 
400.55 145.75 -1.76 
400.37 145.34 -0.65 
400.68 145.71 -0.25 
401.50 145.69 -2.90 
401.54 145.64 -2.13 
401.37 145.87 -1.78 
401.33 145.92 -0.83 
401.42 145.99 -0.04 
402.05 145.59 -2.88 
402.05 145.85 -2.28 
402.23 145.76 -1.74 
402.35 145.68 -0.72 
402.27 145.64 -0.46 
402.50 145.75 -2.49 
402.69 145.75 -2.17 
402.72 145.71 -1.87 
402.82 145.81 -0.92 
402.71 145.91 -0.42 
403.27 145.70 -2.88 
403.34 145.71 -2.24 
403.79 145.74 -1.66 
403.45 145.58 -1.24 
404.32 145.82 -2.08 
404.05 145.73 -1.51 
404.19 145.76 0.03 
404.74 145.61 -2.80 
404.77 145.78 -2.32 
404.97 145.54 -1.83 
405.14 145.82 0.04 
405.87 145.61 -2.15 
405.45 145.73 -1.80 
406.44 145.81 -2.09 
406.46 145.48 -1.70 
406.56 145.59 -0.27 
406.08 145.32 0.43 
407.02 145.69 -3.68 
407.07 145.42 -2.68 
407.16 145.60 -2.40 
407.15 145.93 -1.82 
406.67 145.74 -0.37 
406.83 145.49 0.34 
407.51 145.60 -3.77 
407.63 145.76 -3.23 
407.60 145.71 -2.42 
407.97 145.51 -1.87 
407.55 145.73 -1.00 
407.96 145.70 0.56 
407.86 145.69 1.08 
407.71 145.41 1.69 
408.44 145.49 -3.66 
408.44 145.55 -2.93 
408.38 145.83 -2.35 
408.53 145.57 -1.60 
408.21 145.71 -0.31 
408.41 145.74 0.59 
408.66 145.88 1.00 
408.72 146.01 -3.49 
409.26 145.86 -2.83 
409.33 145.41 -2.25 
408.94 145.62 -1.55 
408.85 145.73 -0.94 
408.96 145.78 -0.08 
408.91 145.56 0.57 
408.80 145.75 0.85 
410.00 145.33 -3.95 
409.65 145.63 -2.70 
409.84 145.58 -2.16 
409.77 145.62 -1.95 
409.62 145.41 -0.81 
410.04 146.01 -0.40 
409.81 145.78 0.36 
409.98 145.92 0.95 
410.64 145.52 -2.67 
410.38 145.84 -2.19 
410.25 145.78 -1.41 
410.38 145.77 -0.93 
410.55 145.87 -0.41 
410.80 146.00 0.66 
410.36 145.70 0.98 
411.44 145.96 -3.42 
411.06 145.98 -2.30 
411.39 145.71 -1.78 
410.94 145.68 -0.94 
410.82 145.74 -0.39 
411.30 145.77 0.60 
410.97 145.94 1.37 
412.00 145.89 -3.45 
412.11 145.73 -3.33 
411.72 145.68 -2.23 
411.55 145.50 -1.39 
411.93 145.81 0.58 
412.30 145.68 -3.60 
412.30 145.67 -3.14 
412.85 145.69 -2.43 
412.74 145.83 -1.47 
412.83 145.69 -1.11 
413.37 145.52 -3.82 
413.17 145.76 -3.12 
413.16 145.63 -2.46 
413.32 145.80 -1.62 
413.25 146.01 -0.96 
413.80 145.77 -3.10 
413.94 145.43 -2.13 
414.08 145.75 -1.92 
413.74 145.78 -0.93 
414.61 145.65 -1.77 
393.05 146.62 -2.15 
393.01 146.40 -1.52 
392.87 146.27 -0.83 
393.30 146.54 0.08 
393.93 146.27 -2.28 
393.66 146.24 -1.57 
393.85 146.54 -1.08 
393.86 146.33 -0.39 
394.28 146.23 -2.95 
394.16 146.04 -2.28 
394.35 146.21 -1.51 
394.30 146.17 -1.17 
394.59 146.20 0.06 
394.95 146.42 -2.71 
395.02 146.41 -2.21 
395.15 146.36 -1.60 
394.86 146.54 -1.02 
394.91 146.29 0.11 
394.91 146.29 0.11 
394.83 146.47 1.13 
395.67 146.16 -4.06 
395.61 146.10 -2.98 
395.84 146.43 -2.24 
395.70 146.28 -1.67 
395.75 146.37 -0.88 
395.80 146.62 -0.39 
395.95 146.52 0.74 
395.63 146.17 1.04 
395.86 146.25 1.91 
396.30 146.18 -2.85 
396.63 146.25 -2.49 
396.47 146.50 -1.73 
396.59 146.17 -0.66 
396.35 146.38 -0.39 
396.57 146.44 0.33 
397.34 146.27 -3.01 
397.26 146.34 -2.27 
397.16 146.56 -1.71 
397.39 146.27 -1.12 
397.37 146.32 -0.12 
396.99 146.56 0.25 
397.96 146.74 -3.61 
397.89 146.35 -2.82 
397.88 146.42 -2.20 
397.76 146.53 -1.85 
397.93 146.21 -0.37 
398.04 146.07 1.16 
398.82 146.62 -3.43 
398.68 146.58 -2.93 
398.44 146.22 -2.45 
398.53 146.34 -1.95 
398.47 146.48 -0.99 
398.73 146.32 0.01 
398.58 146.05 0.59 
398.69 146.06 0.98 
399.27 146.40 -3.73 
399.33 146.31 -2.79 
399.27 146.31 -2.26 
399.27 146.38 -1.50 
399.42 146.29 -0.99 
399.19 146.35 -0.42 
399.98 146.22 -3.76 
399.94 146.44 -2.68 
399.93 146.23 -2.35 
399.77 146.44 -1.86 
399.77 146.23 -0.95 
399.87 146.25 -0.42 
400.56 146.19 -3.10 
400.81 146.28 -2.10 
400.71 146.60 -1.75 
400.66 146.42 -0.78 
400.88 146.52 -0.15 
400.59 146.41 0.25 
401.59 146.48 -2.16 
401.62 146.42 -1.69 
401.28 146.28 -0.96 
401.51 146.55 -0.19 
402.04 146.57 -2.40 
402.24 146.31 -1.68 
402.17 146.48 -1.00 
401.94 146.52 -0.22 
402.53 146.18 -2.76 
402.62 146.28 -2.44 
402.56 146.49 -1.62 
402.68 146.33 -0.86 
402.60 146.38 -0.41 
403.77 146.70 -2.87 
403.45 146.54 -2.09 
403.52 146.59 -1.68 
403.72 146.04 -0.97 
403.26 146.35 -0.43 
404.29 146.10 -2.68 
404.19 146.37 -2.54 
404.08 146.22 -1.77 
404.17 146.54 -0.05 
403.99 146.61 0.18 
404.65 146.15 -2.67 
404.85 146.47 -2.12 
405.03 146.37 -1.94 
404.83 146.67 -1.23 
404.78 146.18 -0.08 
405.49 146.42 -2.18 
405.47 146.56 -1.77 
405.67 146.49 -0.97 
405.26 146.14 0.02 
406.14 146.55 -2.71 
406.60 146.44 -2.54 
406.41 146.15 -1.67 
407.20 146.15 -3.56 
407.03 146.05 -3.12 
407.12 146.32 -2.28 
406.81 146.60 -1.68 
406.99 146.12 -0.86 
406.96 146.33 -0.25 
407.31 146.21 0.49 
407.43 146.46 -3.48 
407.65 146.38 -3.21 
407.55 146.71 -2.40 
407.64 146.37 -1.37 
407.81 146.26 -0.90 
407.88 146.44 -0.26 
408.04 146.45 0.59 
407.70 146.58 0.99 
407.98 146.03 1.55 
408.45 146.18 -3.73 
408.35 146.29 -3.10 
408.34 146.40 -2.11 
408.26 146.61 -1.48 
408.47 146.55 -0.60 
408.53 146.16 -0.20 
408.27 146.30 0.61 
408.03 146.17 1.09 
408.99 146.30 -3.22 
409.10 146.38 -2.17 
409.09 146.39 -1.54 
409.24 146.56 -0.87 
409.17 146.45 0.03 
409.00 146.53 1.25 
409.48 146.42 -3.09 
409.84 146.42 -2.18 
409.75 146.20 -1.65 
409.60 146.45 -0.89 
409.97 146.51 -0.08 
409.82 146.54 0.36 
409.54 146.44 1.06 
410.35 146.73 -3.51 
410.60 146.52 -3.19 
410.49 146.37 -2.30 
410.43 146.46 -1.81 
410.27 146.69 -1.05 
410.39 146.48 0.02 
410.35 146.24 0.70 
411.17 146.26 -3.77 
411.28 146.22 -3.14 
411.22 146.60 -2.29 
411.13 146.48 -1.77 
410.88 146.13 -0.67 
411.14 146.42 -0.29 
411.61 146.39 -2.92 
411.94 146.48 -2.23 
412.10 146.54 -1.64 
411.60 146.73 -0.68 
412.04 146.04 -0.39 
411.59 146.08 0.61 
412.54 146.09 -3.44 
412.66 146.51 -3.15 
412.47 146.20 -2.38 
412.70 146.46 -1.65 
412.60 146.46 -1.12 
412.39 146.16 -0.12 
413.34 146.63 -2.78 
412.96 146.36 -2.19 
413.14 146.30 -1.63 
413.40 146.16 -0.81 
413.37 146.32 -0.06 
414.04 146.24 -2.86 
414.05 146.06 -2.38 
414.00 146.42 -1.38 
414.03 146.19 -0.92 
393.29 147.42 -2.45 
393.20 147.16 -1.39 
393.30 147.17 -0.98 
393.23 147.41 -0.20 
393.04 147.42 0.42 
393.98 146.82 -2.95 
393.44 146.95 -2.45 
393.43 147.16 -1.35 
393.45 147.09 -0.93 
393.51 146.84 -0.27 
394.00 147.19 0.72 
393.97 147.33 0.98 
394.58 147.21 -2.67 
394.42 147.10 -2.14 
394.53 147.07 -1.56 
394.43 147.12 -1.24 
394.23 146.94 -0.42 
394.44 147.38 0.71 
394.06 146.91 0.88 
394.79 147.35 -2.75 
395.17 147.02 -2.49 
394.82 147.15 -1.69 
394.84 147.29 -0.91 
395.18 147.20 -0.02 
395.08 147.19 0.28 
395.87 147.05 -2.84 
395.88 147.04 -2.03 
396.05 147.15 -1.54 
395.90 147.16 -1.10 
395.62 147.02 -0.18 
395.96 146.93 0.33 
395.85 146.75 1.41 
396.30 147.14 -3.05 
396.39 147.08 -2.14 
396.39 147.10 -1.60 
396.35 147.02 -1.23 
396.43 146.96 0.02 
396.40 147.22 0.71 
397.18 147.08 -2.84 
397.09 146.98 -2.39 
397.06 147.09 -1.79 
396.94 147.42 -1.24 
396.97 147.11 -0.18 
397.44 147.35 0.32 
397.95 146.82 -3.62 
397.95 146.91 -2.80 
397.77 147.09 -2.24 
397.97 147.03 -1.95 
398.54 147.14 -3.81 
398.47 147.06 -3.03 
398.61 147.05 -2.35 
398.69 147.10 -1.67 
398.66 147.09 -0.76 
398.79 146.92 -0.33 
399.09 146.97 -3.77 
399.38 147.06 -2.92 
399.33 147.00 -2.34 
399.20 147.20 -1.57 
399.05 146.89 -0.69 
399.39 146.79 -0.51 
399.77 146.79 -3.72 
399.81 146.93 -2.89 
399.80 146.93 -2.12 
400.06 146.89 -1.70 
400.22 147.15 -0.89 
399.72 146.98 0.15 
400.49 147.27 -2.06 
400.76 147.16 -1.52 
400.44 146.94 -0.91 
400.85 147.25 -0.22 
400.67 146.97 0.17 
401.29 147.07 -2.36 
401.36 147.11 -1.60 
401.32 146.85 -1.00 
401.19 146.99 -0.26 
401.52 146.93 0.19 
402.24 147.45 -2.15 
401.95 147.12 -1.67 
401.97 146.76 -1.19 
402.15 147.08 -0.24 
402.99 146.89 -2.83 
402.79 146.95 -2.25 
402.64 147.16 -1.71 
402.59 147.07 -0.79 
402.69 146.85 -0.24 
403.25 146.96 -2.83 
403.37 146.93 -2.38 
403.32 146.96 -1.54 
403.33 147.15 -1.13 
403.42 147.15 -0.13 
404.05 146.83 -2.66 
404.19 146.91 -2.59 
404.28 147.22 -1.45 
404.13 147.24 -0.89 
404.28 147.27 -0.22 
404.05 146.94 0.20 
404.43 147.15 1.16 
404.65 147.15 -0.95 
404.59 147.22 0.04 
404.98 147.16 0.36 
404.53 147.35 1.16 
405.60 147.03 -2.83 
405.52 146.83 -2.18 
405.45 146.93 -0.84 
405.54 146.80 0.00 
406.60 147.41 -2.71 
406.27 147.35 -2.16 
406.86 147.31 -3.53 
406.67 147.15 -3.06 
407.17 146.99 -2.34 
407.22 147.26 0.15 
407.88 146.88 -3.07 
407.69 147.08 -2.23 
407.67 147.33 -1.56 
407.42 147.08 -0.64 
407.57 147.12 -0.38 
407.78 147.28 0.46 
407.73 147.38 1.14 
408.34 147.19 -2.92 
408.23 146.85 -2.08 
408.47 147.08 -1.53 
408.43 147.07 -0.13 
408.27 146.87 0.43 
408.17 146.92 1.13 
409.26 147.40 -3.65 
409.09 147.06 -2.85 
409.12 147.33 -2.27 
409.10 146.92 -1.61 
409.11 147.21 -0.80 
409.11 146.85 -0.17 
408.99 147.04 0.40 
408.75 147.17 1.19 
410.02 147.15 -3.41 
409.65 147.01 -2.78 
409.60 146.96 -2.05 
409.98 146.96 -1.61 
409.53 147.14 -1.23 
409.94 146.99 -0.15 
409.84 147.25 0.55 
410.02 147.05 0.88 
410.50 146.85 -3.61 
410.25 147.25 -3.13 
410.55 147.37 -1.97 
410.42 147.00 -1.62 
410.67 147.09 -1.02 
410.19 147.01 -0.17 
410.64 147.27 0.46 
411.30 146.79 -3.46 
411.12 147.20 -3.08 
411.16 146.86 -2.40 
410.91 147.05 -1.58 
411.15 147.12 -0.55 
411.15 147.12 -0.55 
411.87 147.23 -3.11 
411.92 147.05 -2.26 
411.79 147.12 -1.66 
411.81 147.38 -1.13 
411.57 147.32 -0.01 
411.60 147.25 0.74 
412.08 147.22 0.90 
412.69 147.10 -3.02 
412.69 146.97 -2.09 
412.27 146.80 -1.49 
412.53 146.83 -0.83 
412.42 147.32 -0.01 
412.41 147.25 0.47 
413.19 147.18 -2.92 
413.49 146.92 -2.07 
413.14 146.87 -1.63 
413.27 146.92 -0.07 
413.32 146.81 0.63 
413.72 147.01 -1.26 
413.88 146.75 -0.87 
413.80 146.78 -0.21 
392.98 147.89 -2.47 
393.13 147.60 -1.70 
393.14 147.49 -0.89 
392.68 147.57 -0.42 
393.86 147.84 -2.84 
393.78 147.94 -2.22 
393.65 147.95 -1.55 
393.48 147.84 -0.92 
393.66 147.59 -0.48 
393.87 147.52 0.51 
394.55 148.01 -2.66 
394.34 147.87 -2.03 
394.08 147.72 -1.69 
394.23 147.67 -0.70 
394.31 147.98 -0.05 
394.36 147.45 0.49 
395.21 147.97 -2.60 
395.08 147.80 -2.23 
395.04 147.97 -1.92 
395.18 147.68 -0.90 
394.85 147.75 -0.02 
395.18 148.03 0.58 
395.91 147.68 -2.82 
395.89 147.73 -2.13 
395.63 147.93 -1.68 
395.54 147.78 -0.86 
396.07 147.71 0.00 
395.95 147.74 0.72 
396.10 147.66 1.16 
396.38 147.59 -3.60 
396.18 147.72 -2.72 
396.14 147.85 -2.44 
396.31 147.79 -1.81 
396.53 147.46 -0.65 
396.46 147.63 -0.42 
396.49 147.90 0.29 
397.44 147.80 -2.81 
397.40 147.86 -2.17 
397.14 147.98 -1.71 
396.87 147.88 -1.25 
396.92 147.73 -0.19 
397.07 147.57 0.60 
397.31 147.73 1.07 
397.60 147.61 -2.76 
397.82 147.84 -2.14 
397.95 147.96 -1.64 
398.04 147.95 -1.13 
397.59 147.55 0.04 
397.59 147.96 0.31 
398.48 147.48 -3.37 
398.40 148.07 -2.91 
398.33 147.61 -2.45 
398.39 147.70 -1.74 
398.29 147.76 -1.09 
398.43 147.52 -0.50 
399.23 147.73 -2.55 
399.49 147.74 -1.39 
399.06 148.03 -1.06 
400.05 147.93 -2.66 
400.20 147.92 -2.18 
399.72 147.77 -1.62 
399.99 147.92 -1.01 
400.51 148.02 -3.12 
400.74 147.99 -2.17 
400.90 147.79 -1.70 
400.63 148.11 -0.56 
400.78 147.50 -0.19 
401.32 147.95 -2.89 
401.43 147.82 -2.40 
401.56 147.64 -1.85 
401.37 147.68 -0.72 
401.35 147.59 -0.31 
401.30 147.58 0.21 
402.07 147.67 -2.15 
401.95 147.64 -1.47 
402.01 147.60 -0.20 
402.90 147.91 -2.23 
402.89 147.45 -1.94 
402.41 148.01 -0.57 
402.89 147.69 -0.22 
403.51 148.08 -2.58 
403.71 147.55 -1.47 
403.69 147.64 -0.96 
403.36 147.65 0.09 
403.73 147.92 0.16 
404.00 147.71 -2.46 
404.26 147.56 -1.87 
404.10 147.84 -0.92 
404.45 147.58 0.15 
404.70 147.76 -2.77 
404.91 147.45 -2.54 
404.94 147.90 0.11 
405.48 147.81 -2.17 
405.62 147.63 -0.14 
405.27 147.67 0.16 
406.17 147.95 -2.16 
405.93 147.71 -1.76 
406.78 147.80 -2.61 
406.73 147.60 -0.75 
407.28 147.89 0.04 
407.80 147.52 -2.79 
407.74 147.64 -2.23 
407.96 147.72 -0.74 
407.55 147.73 -0.04 
407.85 147.49 0.82 
408.62 147.92 -3.36 
408.60 148.11 -2.71 
408.63 148.11 -1.44 
408.34 147.77 -0.73 
408.29 147.44 -0.04 
408.23 147.61 0.50 
408.55 147.44 0.86 
409.06 147.89 -3.89 
408.87 147.87 -2.81 
409.32 147.83 -2.09 
409.15 147.64 -0.84 
409.37 147.69 -0.35 
409.95 147.68 -3.52 
409.86 147.90 -2.74 
409.60 147.90 -2.17 
409.79 147.76 -1.67 
409.77 147.61 -0.78 
409.52 147.95 -0.04 
409.91 147.74 0.38 
410.11 147.92 -3.59 
410.21 147.84 -2.80 
410.65 147.66 -2.15 
410.53 147.58 -1.80 
410.69 147.69 -0.76 
410.85 147.74 -0.08 
411.05 147.61 -3.31 
410.99 147.75 -2.44 
411.11 147.62 -1.52 
411.26 147.76 -1.00 
411.39 147.83 -0.17 
411.78 147.50 -3.07 
412.02 147.75 -2.56 
411.85 147.52 -1.53 
411.58 147.63 -1.12 
411.73 147.75 -0.08 
411.72 147.72 0.49 
412.37 147.60 -3.01 
412.37 147.64 -2.11 
412.72 147.64 -1.66 
412.43 147.69 -1.07 
412.33 147.96 -0.22 
412.37 147.57 0.21 
412.91 147.50 -1.04 
413.45 147.59 -0.23 
414.14 147.88 -4.37 
414.41 147.97 -4.32 
393.31 148.40 -2.51 
392.79 148.22 -1.35 
392.97 148.65 -1.09 
393.11 148.48 0.35 
393.51 148.39 -2.86 
393.89 148.27 -2.35 
393.88 148.41 -1.32 
393.73 148.27 -1.16 
393.35 148.47 -0.29 
393.50 148.50 0.36 
394.04 148.36 -4.15 
394.54 148.39 -2.67 
394.40 148.38 -2.17 
394.29 148.27 -1.42 
394.09 148.60 -1.19 
395.06 148.37 -2.20 
395.14 148.20 -1.78 
394.89 148.44 0.03 
395.22 148.43 1.02 
395.89 148.51 -3.54 
395.90 148.49 -3.00 
395.97 148.46 -2.15 
395.98 148.38 -1.69 
395.51 148.60 -0.87 
395.86 148.81 -0.29 
395.89 148.67 1.09 
396.40 148.51 -3.43 
396.13 148.73 -2.77 
396.47 148.37 -2.25 
396.52 148.59 -1.80 
396.41 148.63 -1.21 
396.20 148.35 -0.32 
396.47 148.47 0.36 
397.25 148.14 -2.71 
397.03 148.30 -2.34 
397.07 148.39 -1.48 
396.89 148.58 -1.14 
397.28 148.68 -0.36 
397.11 148.06 0.60 
397.85 148.23 -3.03 
397.84 148.77 -2.10 
397.94 148.46 -1.33 
397.90 148.46 -1.02 
398.03 148.62 -0.06 
397.54 148.24 0.64 
398.68 148.44 -2.91 
398.61 148.40 -2.15 
398.46 148.51 -1.80 
398.33 148.66 -1.03 
398.29 148.63 0.05 
398.49 148.55 0.16 
399.60 148.41 -3.06 
399.29 148.42 -2.16 
399.26 148.46 -1.52 
399.34 148.38 -1.22 
399.01 148.20 -0.48 
400.12 148.43 -3.00 
399.97 148.43 -2.25 
399.75 148.39 -0.79 
399.76 148.45 -0.36 
400.76 148.14 -3.00 
400.82 148.51 -2.42 
400.53 148.17 -1.74 
400.69 148.54 -1.07 
400.71 148.48 -0.22 
401.06 148.62 -2.90 
401.18 148.75 -2.58 
401.41 148.58 -1.89 
401.12 148.73 -0.84 
401.22 148.19 -0.52 
402.00 148.25 -2.16 
401.81 148.46 -1.91 
402.31 148.14 -0.48 
402.92 148.19 -2.62 
402.79 148.26 -1.74 
402.46 148.39 -0.12 
403.12 148.54 -2.29 
405.74 148.61 0.06 
405.22 148.77 0.40 
405.39 148.59 1.21 
406.49 148.19 -2.15 
406.21 148.39 -1.49 
406.94 148.64 -0.57 
408.00 148.28 -1.52 
407.50 148.28 0.61 
408.44 148.64 -2.84 
408.02 148.41 -0.05 
408.29 148.80 0.41 
408.93 148.38 -2.81 
409.01 148.64 -2.54 
408.95 148.76 -0.28 
409.79 148.23 -2.72 
409.91 148.32 -2.73 
409.91 148.54 -1.75 
410.07 148.70 -0.71 
410.39 148.66 -2.67 
410.72 148.71 -2.55 
410.73 148.19 -1.56 
410.43 148.40 -0.68 
410.48 148.39 -0.03 
410.71 148.38 0.17 
411.02 148.31 -2.11 
411.43 148.41 -1.66 
411.12 148.18 -1.01 
411.41 148.32 0.35 
411.73 148.23 -0.56 
411.68 148.70 -0.53 
412.47 148.43 -0.88 
412.78 148.16 -0.36 
413.01 148.23 -0.42 
413.98 148.36 -4.35 
414.34 148.30 -4.41 
393.22 148.97 -4.02 
393.14 149.10 -2.47 
393.05 149.03 -1.43 
393.39 149.01 -2.85 
393.72 149.29 -2.31 
393.55 149.28 -1.83 
394.63 149.51 -2.87 
394.10 149.15 -2.19 
394.38 149.13 -1.55 
394.31 149.17 -1.16 
395.31 149.03 -2.66 
395.19 149.28 -2.53 
395.18 149.11 -1.50 
395.24 149.28 -0.90 
396.09 148.83 -3.49 
395.66 149.04 -2.67 
395.70 149.04 -2.16 
395.85 149.11 -1.52 
395.90 149.41 -1.22 
395.53 149.27 0.14 
395.60 149.26 0.23 
395.80 148.90 0.82 
396.75 149.42 -2.45 
396.49 149.22 -1.83 
396.27 149.19 -0.72 
396.80 148.93 -0.47 
396.32 149.47 0.47 
397.12 148.84 -2.82 
397.22 149.18 -2.49 
397.39 149.22 -1.43 
397.45 149.47 -0.71 
396.98 149.23 -0.32 
397.36 149.31 0.21 
397.51 149.18 0.86 
397.62 148.85 -3.04 
397.74 149.32 -2.14 
397.86 149.39 -1.72 
397.76 148.96 -1.02 
397.74 149.08 -0.10 
397.88 149.18 0.26 
398.85 149.27 -2.17 
398.67 149.09 -1.80 
398.55 149.17 -0.17 
398.65 148.95 0.20 
398.92 148.86 -2.70 
399.07 149.01 -2.25 
399.47 149.21 -1.74 
399.15 149.37 -0.76 
399.52 149.32 -0.07 
400.03 149.14 -2.81 
399.84 148.98 -2.22 
399.75 149.18 -1.39 
399.94 149.14 -0.05 
400.45 149.03 -2.81 
400.80 149.13 -2.49 
400.79 148.84 -1.92 
401.26 149.24 -2.39 
401.24 149.10 -1.59 
405.69 148.85 0.20 
406.28 149.41 -2.75 
406.31 149.33 -2.39 
406.37 149.29 0.16 
406.37 149.29 0.16 
406.75 149.38 -2.66 
407.13 148.83 -2.57 
407.03 149.28 -0.60 
407.09 148.91 -0.13 
407.46 149.23 -3.48 
407.88 149.09 -2.68 
407.82 149.33 -2.55 
408.43 149.00 -3.48 
408.67 149.06 -2.84 
408.26 149.16 -2.56 
408.69 149.13 -1.55 
408.30 149.05 0.01 
408.32 148.87 0.41 
408.85 149.19 -2.79 
409.12 149.28 -2.62 
409.24 149.29 -1.90 
408.90 149.00 -0.66 
408.94 149.20 -0.25 
410.06 149.52 -1.37 
409.78 148.95 -1.23 
410.32 149.05 -2.79 
410.69 149.15 -2.55 
410.41 149.43 -1.30 
410.37 148.85 -0.13 
393.06 149.57 -2.86 
393.29 149.81 -2.23 
393.26 149.81 -1.75 
393.71 150.15 -3.77 
393.95 149.71 -2.88 
393.47 149.98 -2.42 
393.69 149.76 -1.81 
393.37 149.98 -1.22 
394.64 150.04 -2.60 
394.67 149.63 -1.10 
394.93 149.77 -2.38 
396.00 150.06 -2.38 
395.83 150.19 -1.94 
395.66 149.72 -0.86 
395.84 149.75 -0.35 
396.05 150.14 0.66 
396.01 150.16 0.98 
396.46 149.97 -2.26 
396.65 150.16 -1.81 
396.19 149.92 -1.08 
396.59 149.53 0.02 
396.75 150.02 0.55 
396.24 149.93 0.89 
397.33 149.88 -2.29 
397.16 149.96 -1.45 
397.19 149.78 -0.86 
396.99 149.63 -0.26 
397.05 149.69 0.79 
397.57 149.82 -2.33 
397.86 149.77 -1.76 
397.70 149.86 -0.98 
397.97 149.58 -0.05 
398.72 149.86 -2.26 
398.21 149.72 -1.70 
399.36 150.12 -2.64 
399.25 149.92 -2.47 
399.27 149.75 -0.37 
399.19 150.13 0.27 
399.85 150.13 -2.39 
400.71 149.78 -2.58 
401.34 149.71 -2.68 
405.85 150.13 -2.02 
406.03 149.72 -2.05 
406.46 149.99 0.58 
407.11 149.81 -0.08 
406.73 149.93 0.18 
407.81 149.85 -2.76 
407.51 149.78 -2.54 
407.94 150.18 -0.91 
407.32 149.93 -0.54 
408.54 149.92 -3.00 
408.55 149.53 -0.64 
408.87 149.97 -3.07 
408.93 149.62 -2.06 
409.15 149.83 -1.86 
409.11 149.51 -0.98 
410.02 149.54 -1.12 
416.27 150.23 -3.61 
393.16 150.74 -1.21 
393.58 150.34 -3.77 
393.76 150.31 -3.07 
393.96 150.32 -0.68 
394.09 150.28 -3.42 
394.08 150.74 -0.64 
395.02 150.50 -2.06 
395.25 150.54 -1.50 
395.97 150.72 -2.12 
395.67 150.61 -1.95 
395.68 150.61 -0.84 
395.86 150.47 -0.50 
396.55 150.80 -2.96 
396.32 150.28 -2.40 
396.19 150.53 -1.89 
396.25 150.31 -0.36 
397.40 150.51 -2.49 
396.97 150.48 -1.73 
397.16 150.62 -0.87 
397.10 150.38 0.51 
397.69 150.75 -2.36 
397.96 150.59 -1.72 
397.96 150.49 -0.84 
398.67 150.81 -2.68 
398.70 150.46 -2.57 
398.25 150.60 -1.80 
398.29 150.80 -0.79 
398.73 150.30 0.40 
398.97 150.37 -2.66 
398.98 150.42 -2.56 
399.36 150.27 0.47 
399.99 150.31 -2.26 
399.81 150.72 0.19 
399.81 150.72 0.19 
405.16 150.37 -3.49 
405.87 150.75 -2.43 
406.92 150.71 0.75 
408.91 150.25 -2.99 
411.36 150.90 -3.82 
415.18 150.83 -3.62 
415.72 150.54 -3.62 
393.03 151.37 -2.77 
393.03 151.37 -2.77 
393.03 151.21 -1.20 
393.35 150.99 -2.67 
393.59 151.02 -2.19 
393.95 151.51 -1.65 
393.42 151.38 -0.72 
394.95 151.33 -2.60 
395.84 151.40 -3.44 
395.53 151.58 -3.14 
395.60 151.49 -2.58 
396.25 151.17 -3.44 
396.25 151.17 -3.14 
396.20 151.15 -2.52 
396.97 151.18 -3.08 
397.24 151.40 -2.55 
397.78 151.06 -2.53 
397.80 150.93 -1.73 
398.33 151.11 -0.47 
405.56 151.25 -3.26 
405.39 151.55 -2.04 
411.89 151.00 -3.81 
412.50 151.29 -3.80 
412.84 151.60 -2.84 
412.83 151.60 -2.36 
412.83 151.60 -1.88 
412.82 151.60 -0.92 
413.52 151.56 -3.37 
413.51 151.57 -2.79 
413.46 151.62 -2.19 
413.49 151.57 -1.64 
414.14 151.40 -3.63 
414.14 151.40 -3.04 
414.13 151.40 -2.44 
414.13 151.41 -1.85 
414.65 151.12 -3.63 
393.96 152.30 -3.64 
393.77 152.32 -2.66 
393.61 151.83 -2.17 
394.41 152.21 -3.45 
394.41 152.21 -3.15 
394.12 152.00 -2.31 
394.18 151.65 -1.89 
394.84 151.97 -3.45 
395.23 151.74 -3.14 
395.05 151.78 -2.59 
395.98 151.95 -2.64 
405.57 151.66 -3.26 
405.25 151.87 -1.62 
406.15 152.31 -3.29 
406.99 152.32 -2.75 
407.80 152.31 -3.49 
407.54 152.04 -2.78 
408.07 152.14 -3.49 
409.06 152.20 -0.95 
409.63 152.28 -0.87 
411.37 151.99 -3.63 
411.36 151.99 -2.96 
410.98 152.25 -2.46 
411.91 152.00 -3.63 
411.90 151.98 -2.96 
411.91 152.14 -2.36 
411.91 152.14 -1.40 
411.91 152.14 -0.92 
411.64 152.15 -0.31 
412.23 152.15 -3.51 
412.67 151.90 -2.95 
412.59 152.10 -2.26 
412.58 152.11 -1.69 
412.49 151.80 -0.92 
413.07 151.84 -3.38 
413.07 151.84 -2.81 
413.06 151.85 -2.24 
413.05 151.85 -1.67 
413.64 151.68 -3.05 
413.63 151.68 -2.46 
413.63 151.68 -1.87 
393.10 152.94 -3.45 
393.00 152.84 -2.94 
393.52 152.55 -3.64 
393.76 152.57 -3.14 
394.09 152.39 -3.45 
394.09 152.39 -3.15 
401.67 152.80 -4.18 
402.02 152.64 -4.09 
402.50 152.95 -4.06 
403.67 152.57 -4.07 
403.70 152.96 -3.03 
403.71 152.95 -2.33 
404.15 152.71 -4.17 
404.10 152.97 -3.56 
404.27 152.74 -3.05 
404.34 152.88 -2.54 
404.52 152.48 -4.30 
404.55 152.83 -3.69 
405.06 152.40 -2.96 
404.83 152.53 -2.36 
404.90 152.42 -1.63 
405.56 152.41 -3.27 
406.40 152.61 -3.43 
406.13 152.75 -2.76 
406.24 152.83 -2.38 
406.20 152.74 -0.31 
406.71 152.72 -3.49 
406.69 152.57 -2.75 
406.71 152.57 -2.03 
406.88 152.71 -0.32 
407.85 152.96 -0.97 
408.50 152.72 -0.77 
409.09 152.71 -0.79 
409.86 152.94 -3.65 
409.85 152.95 -2.96 
409.42 152.53 -0.59 
409.70 152.96 -0.48 
410.57 152.96 -3.59 
410.57 152.96 -3.03 
410.60 152.91 -2.37 
410.68 152.90 -1.59 
410.59 152.91 -0.92 
410.56 152.95 -0.22 
410.67 152.87 0.52 
411.23 152.61 -3.57 
411.23 152.61 -3.02 
411.26 152.84 -2.32 
411.07 152.67 -1.59 
411.07 152.67 -1.02 
411.23 152.60 -0.20 
411.06 152.64 0.53 
411.80 152.39 -3.52 
411.79 152.40 -2.98 
411.78 152.40 -2.43 
411.89 152.46 -1.63 
411.89 152.46 -1.10 
411.74 152.73 0.32 
412.23 152.48 -3.64 
412.23 152.48 -3.08 
412.14 152.35 -2.28 
412.29 152.24 -1.65 
392.76 153.13 -3.45 
392.65 153.05 -3.08 
395.29 153.43 -3.74 
395.72 153.33 -3.57 
396.12 153.70 -3.75 
397.07 153.27 -3.75 
400.74 153.70 -4.13 
401.45 153.59 -4.18 
401.45 153.70 -3.59 
401.90 153.31 -4.15 
402.08 153.46 -3.59 
402.04 153.72 -2.76 
402.14 153.54 -2.17 
401.98 153.62 -1.54 
402.06 153.72 -1.20 
402.43 153.12 -4.14 
402.77 153.43 -3.52 
402.75 153.47 -2.78 
402.55 153.39 -2.28 
402.60 153.53 -1.77 
403.43 153.22 -3.55 
403.32 153.09 -2.93 
403.33 153.09 -2.21 
403.81 153.60 -1.89 
404.20 153.05 -4.11 
404.10 152.97 -3.56 
403.83 153.10 -2.95 
404.30 153.51 -2.51 
404.44 153.71 -1.70 
404.36 153.27 -1.21 
404.60 153.45 -4.08 
404.56 153.46 -3.63 
404.81 153.45 -2.83 
404.71 153.62 -2.29 
405.20 153.26 -1.77 
405.61 153.11 -2.95 
405.40 153.20 -2.14 
405.26 153.06 -1.93 
406.41 153.21 -3.13 
406.44 153.26 -2.13 
406.56 153.73 -0.87 
406.45 153.32 -0.49 
407.06 153.62 -3.48 
406.92 153.61 -3.03 
406.98 153.68 -2.18 
407.04 153.57 -1.85 
407.09 153.48 -0.97 
406.66 153.12 -0.32 
407.50 153.33 -3.06 
407.47 153.70 -0.72 
408.68 153.28 -3.50 
408.51 153.57 -3.16 
408.52 153.58 -2.64 
408.54 153.60 -1.61 
408.20 153.35 -0.60 
408.53 153.47 -0.46 
409.28 153.67 -3.08 
409.26 153.68 -2.36 
409.26 153.68 -1.87 
409.37 153.66 -0.90 
409.09 153.35 -0.35 
409.51 153.57 0.67 
409.78 153.39 -3.59 
409.76 153.52 -3.04 
409.83 153.46 -2.42 
409.80 153.60 -1.56 
409.73 153.53 -0.94 
409.96 153.35 -0.24 
409.89 153.35 0.67 
410.35 153.17 -3.70 
410.34 153.17 -3.13 
410.41 153.30 -2.35 
410.49 153.29 -1.64 
410.32 153.18 -0.84 
410.35 153.12 -0.24 
410.28 153.09 0.51 
411.00 153.20 -3.69 
411.00 153.18 -2.83 
410.83 153.07 -2.33 
410.83 153.11 -1.64 
410.86 153.22 -0.89 
411.20 153.32 -0.48 
410.85 153.22 0.24 
412.12 153.15 -3.27 
412.56 153.34 -3.02 
395.78 153.99 -3.72 
396.57 153.85 -3.47 
396.55 154.19 -2.72 
397.87 154.42 -3.18 
400.10 154.29 -2.92 
400.23 154.32 -2.36 
400.26 154.31 -1.56 
400.11 154.24 -1.15 
400.90 154.09 -4.12 
400.86 154.03 -3.60 
400.73 154.05 -2.94 
400.75 154.04 -2.21 
400.77 154.04 -1.47 
400.72 154.25 -0.96 
401.36 153.93 -4.12 
401.11 154.03 -3.56 
401.34 153.85 -2.96 
401.36 153.85 -2.23 
401.26 154.01 -1.71 
401.13 153.83 -1.13 
402.07 154.28 -2.74 
401.93 153.77 -2.51 
401.94 153.77 -1.74 
403.00 153.88 -3.57 
403.02 154.33 -2.76 
402.98 154.43 -2.23 
402.83 154.33 -1.76 
403.43 154.22 -3.54 
403.55 154.15 -2.95 
403.54 154.15 -2.26 
403.47 154.02 -1.81 
404.22 153.74 -2.81 
404.10 153.88 -2.29 
404.12 153.87 -1.58 
404.12 154.28 -1.12 
405.12 154.42 -1.01 
405.64 154.36 -3.28 
405.62 154.33 -2.50 
405.33 154.41 -0.95 
406.28 153.84 -3.21 
405.93 154.24 -2.55 
405.92 154.24 -1.60 
406.28 154.22 -0.74 
407.30 153.74 -3.46 
406.80 154.13 -3.00 
406.83 154.23 -2.17 
406.95 154.22 -1.87 
406.93 153.98 -0.74 
407.00 154.21 -0.52 
407.99 154.42 -3.42 
407.71 154.52 -3.08 
407.74 154.38 -2.28 
407.71 154.35 -1.52 
407.67 153.92 -0.61 
407.61 154.11 -0.37 
407.32 154.36 0.79 
408.37 154.20 -3.42 
408.42 154.28 -3.12 
408.36 154.20 -2.31 
408.44 154.39 -1.60 
408.44 154.39 -1.10 
408.46 153.97 -0.14 
408.38 154.30 0.35 
408.93 153.88 -3.32 
409.02 154.04 -3.02 
409.01 154.04 -2.44 
409.09 154.04 -1.62 
409.09 154.03 -1.12 
408.96 154.09 0.19 
408.76 154.06 0.35 
409.53 153.92 -3.03 
409.49 153.91 -2.32 
409.47 153.92 -1.71 
409.62 153.76 -1.13 
409.58 153.92 0.13 
409.41 153.84 0.16 
410.79 153.76 -2.90 
411.41 153.96 -3.68 
411.05 154.18 -2.93 
410.93 154.42 -2.26 
416.53 154.24 -3.17 
416.73 154.30 -0.35 
417.12 154.05 -0.34 
393.61 155.01 -3.83 
395.40 154.62 -3.74 
395.80 154.49 -3.47 
396.44 154.93 -3.53 
396.30 154.88 -2.77 
396.97 154.61 -3.48 
397.02 154.50 -2.81 
396.97 154.63 -2.65 
398.11 155.03 -3.61 
398.14 155.03 -2.84 
398.05 155.03 -2.13 
397.97 155.14 -1.43 
398.40 155.06 -3.63 
398.54 154.97 -3.10 
398.49 154.99 -2.26 
398.39 155.00 -1.58 
398.87 155.00 -1.11 
399.48 154.46 -3.57 
399.36 154.67 -3.08 
399.31 154.69 -2.25 
399.14 154.73 -1.61 
399.33 155.06 -1.11 
399.81 154.48 -3.52 
400.18 154.97 -2.75 
399.61 154.47 -2.06 
399.85 154.52 -1.65 
400.01 154.72 -0.89 
400.50 154.91 -3.63 
400.55 154.86 -2.78 
400.95 154.98 -2.06 
401.63 154.97 -3.64 
401.46 154.56 -2.72 
401.48 154.99 -2.43 
401.51 154.97 -1.66 
401.17 155.10 -0.06 
401.98 154.85 -3.61 
402.12 154.73 -2.58 
402.14 154.66 -2.47 
401.81 154.93 -1.75 
401.83 154.92 -1.18 
402.91 154.82 -3.59 
402.57 154.68 -3.16 
402.41 154.67 -2.20 
402.59 154.73 -1.79 
402.59 154.72 -1.00 
403.80 155.11 -3.39 
403.33 154.46 -1.74 
403.76 154.88 -1.02 
404.39 154.90 -2.72 
404.28 154.92 -0.99 
405.10 155.10 -3.54 
404.65 154.63 -3.17 
404.86 154.76 -2.58 
404.65 154.88 -0.91 
404.87 155.09 -0.26 
405.69 154.96 -3.43 
405.48 154.44 -3.16 
405.27 154.56 -2.62 
405.52 154.51 -1.74 
405.56 154.56 -0.78 
405.63 154.83 -0.15 
406.17 155.05 -3.42 
406.57 154.69 -3.04 
406.38 154.83 -2.53 
406.38 154.82 -1.73 
406.10 154.74 -0.64 
406.39 155.01 -0.21 
406.16 155.03 0.56 
406.85 155.12 -3.36 
407.15 155.01 -2.98 
407.07 155.03 -2.15 
407.10 155.02 -1.59 
407.10 155.02 -1.09 
407.02 154.72 -0.16 
407.12 154.94 0.69 
407.68 154.71 -3.45 
407.67 154.79 -2.97 
407.59 154.64 -2.31 
407.71 154.78 -1.58 
407.65 154.80 -0.91 
407.47 154.72 -0.05 
407.58 154.78 0.37 
408.28 154.44 -3.46 
408.08 154.67 -2.95 
408.19 154.73 -2.33 
408.18 154.74 -1.71 
408.17 154.74 -1.09 
408.30 154.45 0.03 
408.04 154.59 0.27 
409.03 154.58 -2.86 
408.71 154.56 -1.89 
408.71 154.55 -1.05 
409.59 154.99 -3.40 
409.62 154.75 -2.97 
409.59 154.98 -2.31 
410.75 154.99 -2.99 
410.80 154.71 -2.25 
410.89 154.48 -2.86 
411.31 155.10 -2.31 
411.32 155.10 -1.55 
411.45 154.94 -0.20 
412.15 154.58 -3.37 
411.85 154.67 -2.80 
412.09 154.48 -2.04 
412.05 154.81 -1.38 
411.84 154.65 -1.05 
411.83 154.63 -0.17 
412.35 154.65 -3.05 
412.28 154.47 -2.12 
412.27 154.45 -1.28 
412.31 154.57 -0.94 
412.29 154.54 -0.41 
413.64 154.63 -3.31 
415.57 155.02 -0.37 
416.27 154.67 -0.90 
416.10 154.74 -0.23 
416.78 154.76 -0.29 
392.66 155.40 -3.82 
395.20 155.71 -3.53 
395.99 155.24 -3.52 
395.81 155.58 -2.97 
395.85 155.64 -2.14 
396.69 155.38 -3.53 
396.48 155.69 -3.01 
397.43 155.29 -3.58 
397.27 155.38 -3.06 
397.32 155.40 -2.24 
397.42 155.35 -1.80 
397.81 155.18 -3.48 
397.74 155.24 -3.17 
397.64 155.29 -2.27 
397.59 155.24 -1.17 
397.82 155.49 -1.19 
398.44 155.54 -2.74 
398.36 155.68 -2.16 
398.51 155.58 -1.69 
399.17 155.61 -3.36 
399.43 155.30 -2.73 
399.60 155.22 -2.18 
399.40 155.31 -1.81 
399.24 155.32 -0.96 
400.21 155.72 -3.37 
399.71 155.78 -3.21 
399.63 155.78 -2.11 
400.13 155.64 -1.55 
400.68 155.64 -3.50 
400.60 155.56 -2.84 
400.41 155.66 -2.44 
400.45 155.65 -1.65 
400.98 155.67 -1.10 
401.62 155.40 -3.54 
401.21 155.26 -2.87 
401.10 155.32 -2.48 
401.14 155.31 -1.70 
401.19 155.23 -1.13 
401.28 155.74 -0.28 
402.24 155.64 -3.37 
401.81 155.23 -2.61 
401.81 155.22 -1.83 
401.82 155.21 -1.05 
401.78 155.16 0.02 
401.77 155.30 0.25 
402.83 155.40 -3.37 
402.94 155.61 -3.04 
402.93 155.59 -2.09 
402.92 155.57 -1.13 
402.95 155.81 -0.43 
403.42 155.79 -3.41 
403.13 155.61 -3.10 
403.12 155.58 -2.57 
403.55 155.42 -0.96 
403.55 155.80 -0.55 
404.15 155.17 -3.31 
404.20 155.66 -2.64 
404.20 155.65 -1.91 
404.04 155.36 -0.88 
404.15 155.53 -0.48 
404.70 155.70 -3.34 
404.70 155.69 -2.58 
404.70 155.69 -1.81 
404.90 155.38 -0.65 
404.73 155.47 -0.44 
404.70 155.67 0.52 
405.46 155.80 -3.60 
405.69 155.65 -3.01 
405.60 155.78 -2.21 
405.53 155.66 -1.67 
405.61 155.55 -0.99 
405.46 155.60 -0.41 
405.75 155.73 0.47 
406.38 155.43 -3.50 
406.30 155.52 -2.82 
406.21 155.48 -2.30 
406.23 155.57 -1.52 
406.18 155.60 -0.94 
406.31 155.46 -0.13 
406.29 155.61 0.40 
406.92 155.34 -2.86 
406.92 155.34 -2.24 
406.92 155.34 -1.61 
407.07 155.38 -1.11 
406.98 155.34 -0.11 
406.91 155.31 0.54 
407.64 155.36 -3.01 
407.64 155.27 -2.43 
407.63 155.27 -1.80 
407.61 155.28 -1.16 
407.72 155.34 -0.20 
407.71 155.32 0.76 
408.09 155.59 -2.59 
408.04 155.47 0.78 
408.92 155.78 -3.39 
409.26 155.63 -3.18 
409.23 155.63 -2.37 
409.21 155.64 -1.57 
409.56 155.52 -3.41 
409.99 155.43 -2.89 
410.00 155.46 -2.10 
409.56 155.30 -1.44 
410.05 155.55 -1.06 
410.01 155.51 -0.51 
410.19 155.31 -3.43 
410.69 155.78 -2.96 
410.73 155.67 -2.62 
410.80 155.30 -1.50 
410.67 155.74 -1.22 
410.67 155.69 -0.35 
410.82 155.50 -3.45 
411.37 155.43 -2.22 
411.22 155.69 -1.71 
411.36 155.41 -0.99 
411.51 155.35 -0.38 
411.75 155.77 -0.25 
412.75 155.36 -0.29 
413.88 155.58 -3.21 
414.69 155.57 -0.27 
415.15 155.29 -0.26 
415.91 155.23 -0.25 
416.89 155.53 -0.43 
417.37 155.21 -0.26 
392.91 156.46 -3.59 
393.82 156.46 -3.46 
393.52 156.51 -3.06 
393.82 156.47 -2.58 
394.58 156.18 -3.44 
394.42 156.29 -2.79 
394.43 156.19 -2.22 
394.37 156.31 -1.84 
395.06 155.96 -3.49 
395.25 155.90 -3.11 
394.87 156.08 -2.56 
396.09 156.24 -2.79 
396.28 156.15 -2.81 
396.86 156.03 -3.44 
398.07 155.97 -3.44 
398.10 156.21 -2.74 
398.74 156.43 -3.60 
398.58 156.20 -3.06 
398.46 155.89 -2.10 
398.36 156.25 -0.58 
398.75 156.26 -0.30 
399.32 156.18 -3.54 
399.22 156.28 -2.75 
399.36 156.50 -1.99 
399.32 156.36 -1.86 
399.32 156.35 -1.05 
399.48 156.52 -0.31 
399.40 156.52 0.28 
399.84 155.97 -3.55 
399.87 155.96 -2.79 
400.09 155.66 -2.34 
399.81 155.94 -1.81 
400.17 156.11 -1.15 
399.68 156.46 -0.20 
400.97 156.50 -3.37 
400.53 155.85 -1.94 
400.84 156.52 -0.80 
400.80 155.98 -0.29 
400.67 156.49 0.17 
401.10 156.24 -3.50 
401.41 156.55 -2.76 
401.30 156.63 -0.95 
401.53 156.13 0.21 
401.77 156.11 -3.44 
402.11 155.97 -2.98 
402.00 156.52 -2.27 
401.92 156.51 -1.49 
401.97 156.31 -0.75 
402.11 156.20 0.14 
401.71 156.50 0.39 
402.78 156.23 -3.54 
402.97 155.98 -3.06 
402.89 156.41 -2.51 
402.74 156.38 -2.05 
402.68 156.16 -0.59 
402.71 156.43 -0.48 
403.06 156.45 0.35 
403.29 155.98 -3.54 
403.31 156.40 -3.03 
403.20 156.08 -2.55 
403.70 156.27 -1.95 
403.40 156.05 -0.75 
403.32 156.23 -0.43 
403.69 156.26 0.31 
404.20 156.34 -3.24 
404.20 156.26 -2.93 
404.21 156.39 -2.20 
404.20 156.33 -1.48 
404.24 156.22 -0.93 
404.23 156.26 -0.19 
404.20 156.32 0.30 
404.89 156.25 -3.54 
404.80 156.28 -2.93 
404.88 156.24 -2.21 
404.85 156.27 -1.58 
404.90 156.13 -1.01 
404.71 156.18 -0.08 
404.76 156.26 0.44 
404.89 156.03 0.85 
405.39 156.08 -3.62 
405.44 155.97 -3.06 
405.54 156.05 -2.14 
405.54 156.05 -1.65 
405.45 155.97 -0.98 
405.58 155.85 -0.17 
405.37 155.95 0.50 
406.22 155.92 -2.98 
406.21 155.92 -2.36 
406.21 156.12 -1.70 
406.24 156.01 -1.13 
406.11 155.92 0.40 
406.68 155.97 -3.21 
406.71 155.87 -2.44 
406.70 155.88 -1.80 
406.68 155.88 -1.15 
407.22 156.19 0.03 
407.54 156.13 -3.00 
407.52 156.11 -2.10 
407.71 156.14 -1.78 
407.51 156.09 -1.20 
407.50 156.06 -0.30 
407.49 155.85 0.76 
408.12 156.29 -3.07 
408.11 156.28 -2.10 
408.19 156.50 -1.70 
408.18 156.47 -0.83 
408.09 156.24 -0.15 
409.56 155.92 -3.06 
410.71 155.91 -2.93 
410.53 156.06 -2.10 
410.15 156.21 -1.95 
410.68 155.92 -1.13 
410.68 155.89 -0.23 
411.27 156.12 -0.48 
412.17 156.17 -1.48 
412.72 156.31 -2.77 
412.38 156.16 -2.15 
412.72 156.35 -1.59 
412.71 156.28 -0.96 
412.70 156.27 -0.05 
413.12 156.04 -0.32 
413.71 156.15 -0.34 
414.90 155.93 -3.43 
414.55 156.25 -2.94 
414.60 155.94 -0.35 
415.45 156.19 -3.43 
415.06 156.00 -3.17 
416.11 156.33 -0.42 
392.97 156.79 -3.38 
393.29 156.71 -2.80 
393.01 156.78 -2.54 
393.24 156.72 -1.83 
393.87 156.65 -3.50 
393.76 157.01 -2.81 
393.71 157.03 -1.81 
394.07 157.23 -3.66 
394.98 156.56 -2.80 
395.59 157.03 0.11 
396.44 156.93 -3.46 
396.42 156.89 -2.78 
396.74 157.23 -2.22 
396.79 156.96 0.41 
396.87 156.58 -3.46 
397.03 156.96 -2.97 
397.06 156.99 -2.11 
397.06 156.99 -1.26 
397.48 156.60 -0.65 
397.06 156.99 -0.41 
397.07 156.98 1.31 
397.87 156.93 -3.60 
397.88 156.74 -2.69 
397.52 156.84 -2.27 
397.66 157.23 -0.71 
397.62 156.86 -0.28 
397.68 157.21 1.35 
398.47 156.80 -3.64 
398.66 156.94 -2.70 
398.66 156.93 -1.25 
398.50 157.00 -0.26 
398.66 156.92 0.21 
398.99 156.83 -3.58 
399.27 157.10 -3.01 
399.30 157.13 -2.45 
399.40 156.53 -1.94 
399.30 157.10 -0.92 
399.16 156.83 -0.25 
400.20 157.14 -2.98 
400.28 157.20 -2.40 
400.10 156.84 -0.91 
399.84 156.79 -0.02 
400.13 157.15 0.31 
400.60 156.94 -3.48 
400.84 156.82 -2.98 
400.48 157.20 -2.34 
400.44 157.20 -1.74 
400.89 156.90 -0.95 
400.33 156.98 -0.23 
400.48 157.17 0.42 
401.32 157.05 -2.66 
401.58 156.77 -2.47 
401.41 156.55 -1.72 
401.31 156.77 -0.67 
401.32 156.86 -0.53 
401.32 156.67 0.37 
402.15 157.01 -3.46 
402.15 157.01 -2.74 
402.30 157.13 -2.14 
402.30 156.83 -1.92 
401.95 156.78 -1.11 
402.12 157.03 -0.38 
402.29 156.82 0.28 
402.92 157.13 -3.52 
402.84 156.90 -2.97 
402.91 157.13 -2.30 
402.91 157.12 -1.69 
402.87 157.04 -0.95 
402.86 157.14 -0.07 
402.85 157.19 0.47 
403.03 156.77 1.22 
403.40 156.91 -3.50 
403.39 156.91 -2.90 
403.46 156.87 -2.27 
403.50 156.92 -1.46 
403.48 156.85 -1.01 
403.38 156.90 0.12 
403.48 156.90 0.53 
403.74 156.56 0.86 
403.98 156.56 -3.39 
403.93 156.73 -3.03 
404.16 156.78 -2.17 
404.16 156.78 -1.69 
404.11 156.63 -1.03 
404.15 156.63 -0.24 
403.95 156.72 0.48 
404.84 156.79 -3.00 
404.80 156.80 -2.41 
404.99 156.79 -1.71 
404.97 156.80 -1.05 
404.82 156.66 0.65 
405.31 156.49 -2.99 
405.48 156.48 -2.35 
405.46 156.49 -1.71 
405.55 156.63 -1.20 
405.18 156.40 0.58 
406.77 156.89 -2.75 
407.90 156.85 -2.95 
407.66 156.98 -2.37 
407.55 156.93 -1.71 
407.89 156.81 -1.06 
407.88 156.80 -0.11 
407.71 156.55 0.19 
408.52 156.68 -3.41 
408.08 156.70 -3.05 
408.07 156.68 -2.29 
408.19 156.50 -1.70 
408.11 157.13 -0.84 
408.48 157.18 -0.09 
412.38 156.58 -2.88 
412.37 156.56 -1.95 
413.29 156.64 -0.28 
415.56 156.62 -0.24 
415.92 156.57 -0.25 
393.77 157.34 -3.78 
393.68 157.81 -0.07 
394.16 157.28 -3.49 
394.40 157.53 0.03 
395.30 157.53 -3.60 
395.38 157.77 -2.88 
395.02 157.27 0.07 
395.39 157.47 0.26 
395.72 157.29 -3.54 
395.90 157.58 -3.02 
395.71 157.80 -2.56 
396.54 157.71 -3.60 
396.22 157.36 -2.92 
396.19 157.46 -2.39 
396.83 157.57 -1.38 
396.45 157.71 -1.25 
396.45 157.70 -0.50 
396.59 157.79 1.21 
396.46 157.69 1.78 
396.85 157.64 -3.45 
397.17 157.50 -2.76 
397.08 157.54 -2.02 
397.18 157.49 -1.74 
397.08 157.53 -1.09 
397.38 157.66 -0.29 
397.09 157.52 0.77 
397.20 157.47 1.32 
397.09 157.51 1.71 
398.11 157.32 -3.69 
397.65 157.24 -2.75 
397.65 157.24 -1.73 
397.91 157.63 -1.08 
397.98 157.50 -0.23 
398.03 157.75 0.37 
398.26 157.67 -3.59 
398.28 157.86 -2.86 
398.83 157.41 -1.00 
398.70 157.44 0.02 
398.59 157.77 0.19 
399.46 157.91 -3.54 
398.95 157.50 -2.77 
399.22 157.60 -2.44 
399.12 157.45 -1.41 
399.50 157.45 -1.05 
399.03 157.50 -0.11 
399.36 157.64 0.39 
400.17 157.86 -2.74 
399.78 157.77 -2.21 
399.90 157.77 -1.90 
400.12 157.29 -1.19 
399.93 157.41 -0.10 
399.94 157.46 0.42 
399.90 157.73 1.15 
400.45 157.88 -3.40 
400.71 157.57 -2.97 
400.80 157.67 -2.24 
400.72 157.56 -1.64 
400.72 157.56 -0.96 
400.72 157.56 -0.29 
400.57 157.34 0.64 
400.72 157.56 1.07 
401.42 157.35 -3.47 
401.50 157.73 -3.08 
401.38 157.78 -2.24 
401.53 157.71 -1.59 
401.45 157.67 -0.92 
401.48 157.74 -0.28 
401.58 157.70 0.71 
402.07 157.63 -2.92 
402.07 157.58 -2.31 
402.06 157.63 -1.66 
402.02 157.50 -0.98 
401.99 157.43 -0.16 
402.05 157.57 0.61 
402.62 157.27 -3.40 
402.62 157.35 -2.90 
402.62 157.35 -2.27 
402.62 157.35 -1.63 
402.61 157.35 -0.99 
402.80 157.37 -0.29 
402.51 157.34 0.64 
403.46 157.25 -3.49 
403.49 157.43 -3.09 
403.48 157.43 -2.47 
403.36 157.47 -1.81 
403.61 157.46 -1.31 
403.19 157.51 -0.23 
403.71 157.65 0.67 
404.04 157.37 -3.02 
404.27 157.42 -2.46 
404.25 157.43 -1.79 
404.23 157.44 -1.11 
403.85 157.38 0.12 
404.54 157.35 -3.32 
407.58 157.90 -2.82 
407.50 157.71 -2.05 
408.30 157.81 -2.93 
408.45 157.46 -2.27 
408.24 157.66 -1.70 
408.28 157.77 -1.01 
408.62 157.40 0.12 
408.94 157.75 -2.51 
408.92 157.72 -1.63 
408.91 157.69 -0.75 
411.51 157.26 -3.48 
