# .PCD v0.7 - Point Cloud Data file format
VERSION 0.7
FIELDS x y z
SIZE 4 4 4
TYPE F F F
COUNT 1 1 1
WIDTH 684
HEIGHT 1
VIEWPOINT 0 0 0 1 0 0 0
POINTS 684
DATA ascii
393.26 160.65 -3.47 
392.73 160.49 -2.35 
393.25 160.87 -1.57 
393.27 160.90 -1.05 
393.20 160.66 -0.28 
393.09 160.60 0.04 
392.85 160.49 1.78 
393.56 161.11 -3.02 
393.81 160.90 -2.46 
393.55 161.11 -1.87 
393.60 161.13 -1.19 
393.69 161.09 -0.33 
393.47 161.03 0.28 
393.69 160.66 1.07 
393.76 160.71 1.79 
394.26 161.11 -3.18 
394.53 160.75 -2.43 
394.49 161.15 -1.92 
394.62 161.07 -1.19 
394.51 160.74 -0.27 
394.69 160.93 0.69 
394.64 161.05 1.54 
394.98 160.92 -3.05 
395.02 160.97 -2.47 
395.22 160.88 -1.70 
394.99 161.03 -0.95 
395.00 160.97 -0.35 
394.76 161.14 0.06 
395.00 161.02 1.01 
395.78 160.58 -2.99 
395.77 160.58 -2.46 
395.62 160.70 -1.78 
395.74 160.70 -1.04 
395.76 160.58 -0.33 
395.95 161.00 0.54 
395.86 160.72 1.17 
395.55 160.78 1.64 
396.61 160.90 -3.08 
396.61 160.90 -2.58 
396.54 160.94 -1.70 
396.61 160.89 -1.08 
396.60 160.89 -0.58 
396.61 160.81 1.09 
396.66 160.78 1.81 
397.25 160.70 -3.14 
397.27 160.70 -2.47 
397.11 160.75 -1.78 
397.17 160.52 -0.89 
397.10 160.75 -0.27 
397.16 160.87 1.50 
397.70 160.61 -2.83 
397.86 160.77 -2.44 
397.66 160.78 -1.42 
397.54 161.01 -1.34 
397.54 161.01 -0.52 
397.65 160.77 0.89 
397.65 160.77 1.66 
398.42 160.75 -2.85 
398.52 160.65 -2.41 
398.26 160.98 -1.39 
398.63 160.60 -1.27 
398.44 160.55 -0.28 
398.98 160.56 -2.95 
398.96 160.58 -2.18 
407.97 160.49 -2.24 
407.50 160.81 -1.95 
407.71 160.94 -0.20 
408.59 160.93 -2.54 
408.56 160.86 -1.63 
408.54 160.80 -0.72 
408.10 160.75 -0.18 
409.08 160.61 -2.04 
409.08 160.60 -1.33 
410.03 160.97 -2.42 
409.50 160.93 -1.86 
409.92 161.13 -1.33 
409.62 160.94 -0.58 
409.99 160.88 0.44 
409.68 160.89 2.22 
410.42 160.49 -2.63 
410.30 160.76 -1.31 
410.49 160.60 -0.53 
410.28 160.73 0.35 
410.46 160.92 1.58 
410.92 160.99 -2.07 
411.32 161.15 -1.14 
411.07 161.14 0.90 
411.78 160.90 -1.87 
411.79 160.94 -0.97 
412.65 160.98 -2.67 
412.48 160.78 -0.57 
412.93 160.87 -1.84 
412.92 160.86 -0.81 
413.60 160.53 -0.58 
414.82 161.16 -1.78 
414.81 161.14 -0.78 
415.52 160.65 -2.78 
415.03 160.87 -2.67 
415.54 160.69 -1.88 
415.53 160.66 -0.93 
415.67 160.84 -0.46 
416.61 161.15 -2.97 
416.87 160.62 -2.46 
416.86 160.61 -1.66 
416.50 160.99 -1.29 
416.45 160.90 -0.46 
392.89 161.48 -3.00 
393.07 161.43 -2.45 
392.88 161.47 -1.96 
392.87 161.46 -0.91 
392.81 161.35 -0.19 
392.85 161.51 0.44 
392.85 161.50 1.32 
392.87 161.57 1.72 
393.92 161.54 -3.01 
393.66 161.55 -2.33 
393.87 161.69 -1.74 
393.86 161.69 -1.08 
393.75 161.74 -0.37 
393.75 161.74 0.18 
393.85 161.68 0.92 
394.27 161.36 -3.01 
394.14 161.52 -2.45 
394.51 161.38 -1.71 
394.25 161.36 -0.90 
394.25 161.36 -0.37 
394.36 161.56 0.48 
394.34 161.70 0.81 
394.15 161.49 1.81 
394.77 161.42 -2.80 
395.08 161.45 -2.31 
395.06 161.52 -1.88 
395.05 161.53 -1.26 
395.12 161.71 -0.50 
395.03 161.54 0.60 
395.60 161.51 -2.94 
395.59 161.52 -2.29 
395.67 161.53 -1.76 
395.64 161.42 -1.16 
395.63 161.42 -0.53 
395.54 161.54 0.30 
395.70 161.82 0.91 
395.70 161.82 1.71 
396.25 161.54 -2.78 
396.65 161.52 -2.45 
396.17 161.33 -1.86 
396.18 161.32 -1.23 
396.19 161.31 -0.60 
396.20 161.31 0.03 
396.64 161.37 1.03 
396.45 161.37 1.80 
397.32 161.69 -2.52 
396.90 161.18 -1.47 
396.89 161.18 -0.71 
397.43 161.80 -0.27 
396.89 161.17 0.80 
396.89 161.17 1.56 
397.54 161.77 -2.73 
398.26 161.28 -2.72 
398.23 161.29 -1.91 
408.42 161.86 -1.39 
408.38 161.78 0.52 
409.09 161.60 -1.88 
409.03 161.41 -0.94 
409.63 161.71 -2.73 
409.62 161.36 -1.88 
409.61 161.34 -0.89 
409.95 161.57 -0.55 
409.94 161.54 0.43 
410.06 161.77 1.19 
409.47 161.24 1.74 
409.73 161.76 2.29 
410.38 161.40 -2.39 
410.16 161.23 -1.94 
410.37 161.37 -1.43 
410.79 161.64 0.44 
410.55 161.20 2.01 
410.82 161.70 -2.10 
411.60 161.64 -0.41 
411.52 161.78 0.56 
413.53 161.39 -2.00 
413.45 161.84 -0.76 
413.88 161.24 -0.20 
415.11 161.65 -1.83 
416.09 161.72 -2.80 
416.08 161.70 -1.84 
416.07 161.68 -0.87 
417.53 161.83 -1.60 
392.91 162.31 -3.01 
392.90 162.31 -2.48 
392.99 162.28 -1.76 
392.94 162.20 -0.95 
392.89 162.31 -0.36 
392.88 162.31 0.18 
393.00 162.40 0.88 
393.28 162.37 1.79 
393.60 162.33 -3.12 
393.53 162.20 -2.52 
393.57 162.03 -1.70 
393.57 162.03 -1.14 
393.46 162.16 -0.34 
393.50 162.02 0.28 
393.45 162.16 0.86 
394.00 162.56 1.48 
394.49 162.00 -3.07 
394.17 162.09 -2.51 
394.39 162.17 -1.63 
394.39 162.17 -1.11 
394.40 162.11 -0.49 
394.47 162.15 0.37 
394.40 161.97 0.72 
395.08 161.97 -2.82 
395.00 162.01 -2.43 
395.01 162.00 -1.79 
395.02 161.99 -1.14 
395.03 161.99 -0.49 
394.80 162.25 0.07 
394.83 162.20 0.81 
394.83 162.19 1.59 
395.89 162.05 -2.79 
395.96 162.14 -2.45 
395.45 161.88 -2.03 
395.43 161.89 -1.35 
396.60 161.87 -2.43 
408.43 161.90 -2.35 
408.20 162.49 -1.94 
409.12 162.30 0.36 
410.09 162.55 -1.84 
409.95 162.02 -0.78 
409.69 162.04 -0.31 
409.98 161.96 0.61 
409.92 162.03 1.78 
409.97 162.23 2.12 
410.54 162.25 -2.38 
410.56 162.37 -1.90 
410.42 162.03 -1.28 
410.77 162.28 -0.44 
410.50 162.16 0.55 
410.80 162.08 0.98 
411.15 162.00 -1.11 
411.31 162.09 -0.41 
411.35 162.11 0.08 
411.45 162.42 1.64 
411.83 161.94 -1.40 
411.68 161.88 -0.19 
411.78 162.21 0.11 
413.19 161.94 -2.70 
413.18 161.94 -1.95 
413.18 161.95 -1.21 
413.94 162.54 -2.00 
415.08 161.98 -2.66 
415.33 162.26 -1.74 
415.33 162.24 -0.72 
415.64 161.89 -0.65 
416.20 162.36 -1.05 
416.47 162.32 -1.65 
417.34 162.01 -0.86 
393.03 162.87 -3.07 
392.88 162.83 -2.47 
393.01 162.88 -1.74 
393.00 162.89 -1.07 
392.98 162.89 -0.40 
392.97 162.89 0.27 
393.02 162.64 0.74 
393.25 162.62 1.79 
393.43 162.76 -2.95 
393.76 162.81 -2.33 
393.76 162.80 -1.82 
393.61 162.60 -1.07 
393.54 162.57 -0.43 
393.53 162.58 0.24 
393.70 163.18 1.87 
394.14 162.62 -2.83 
394.26 162.71 -2.55 
394.25 162.93 -1.92 
394.22 162.94 -1.18 
394.23 162.59 -0.61 
394.21 162.60 0.10 
394.98 162.64 -2.78 
395.28 163.22 -2.15 
394.80 162.77 -1.04 
396.13 162.59 -2.81 
409.89 162.87 -0.39 
409.43 162.85 0.71 
409.81 162.93 1.85 
410.61 162.78 -2.35 
410.39 162.80 -1.97 
410.41 163.17 -0.72 
410.46 162.84 -0.46 
410.45 162.81 0.54 
410.50 163.03 1.24 
410.49 162.66 1.73 
410.96 162.99 -2.15 
411.05 162.81 -1.19 
410.89 162.68 -0.38 
410.87 162.64 0.60 
412.04 163.23 -2.93 
411.76 162.81 -2.24 
411.67 163.21 -1.90 
412.85 162.95 -2.73 
412.86 162.98 -1.78 
412.29 162.86 -1.12 
412.84 163.25 -0.35 
413.56 162.97 -2.42 
413.60 163.16 -1.40 
413.03 162.63 -0.18 
413.66 162.92 -2.64 
413.98 162.99 -1.77 
413.98 162.97 -0.70 
415.14 162.91 -2.74 
416.24 163.03 -2.73 
416.20 162.95 -1.61 
416.20 162.93 -0.59 
416.19 162.92 0.43 
416.66 162.78 -2.78 
416.65 162.76 -1.80 
416.84 162.91 -0.91 
417.40 162.94 -2.58 
417.59 163.16 -1.74 
392.74 163.32 -2.84 
392.67 163.72 -2.67 
392.91 163.74 -1.90 
392.88 163.76 -1.14 
392.99 163.36 -0.56 
392.97 163.38 0.17 
393.17 163.68 1.84 
393.52 163.50 -2.54 
393.49 163.52 -1.78 
393.56 163.34 -1.16 
393.58 163.39 1.03 
393.59 163.39 1.88 
394.39 163.75 -2.86 
394.48 163.75 -2.14 
394.33 163.79 -1.95 
395.10 163.66 -1.89 
408.95 163.40 -2.29 
408.93 163.36 -1.31 
409.05 163.67 -0.02 
408.89 163.28 0.66 
410.02 163.87 -2.73 
410.02 163.87 -1.78 
410.02 163.87 -0.82 
409.84 163.53 -0.43 
409.66 163.49 0.69 
409.87 163.58 0.84 
410.10 163.75 1.90 
410.64 163.69 -2.82 
410.38 163.86 -2.46 
410.62 163.66 -1.79 
410.61 163.64 -0.75 
410.62 163.62 -0.45 
410.48 163.52 1.11 
410.36 163.57 1.80 
410.88 163.96 -2.67 
411.03 163.50 -1.86 
410.87 163.93 -1.10 
410.99 163.48 0.68 
411.10 163.78 1.08 
411.06 163.81 1.44 
411.91 163.68 -2.91 
411.90 163.66 -2.02 
411.90 163.64 -1.14 
411.89 163.87 -0.38 
411.88 163.60 0.64 
412.27 163.67 -3.45 
412.27 163.54 -2.73 
412.23 163.33 1.69 
413.58 163.45 -2.56 
413.60 163.49 -1.59 
413.02 163.72 -1.05 
413.05 163.41 -0.28 
413.76 163.37 -0.80 
415.01 163.60 -1.00 
415.28 163.28 -2.26 
415.89 163.41 -2.62 
415.94 163.43 -1.60 
415.87 163.38 -1.03 
415.89 163.29 -0.66 
415.88 163.27 0.39 
416.84 163.92 -2.56 
416.90 163.63 -1.74 
417.52 163.40 -1.59 
393.00 164.01 -2.74 
392.90 164.43 -1.61 
392.76 163.97 -0.99 
392.96 163.99 1.14 
393.44 164.46 -2.89 
393.64 164.29 -2.14 
393.38 164.51 -1.95 
393.64 164.50 1.93 
394.30 164.20 -2.77 
394.26 164.22 -1.88 
394.13 164.02 1.95 
408.95 164.32 -1.92 
409.88 164.19 -3.48 
409.87 164.23 -2.41 
409.84 164.15 -1.43 
410.02 164.25 -0.77 
409.82 164.08 -0.45 
410.09 164.05 0.27 
410.19 164.02 -2.42 
410.33 164.56 -1.85 
410.12 164.60 -0.16 
410.21 164.53 0.81 
410.51 164.41 1.87 
411.46 164.33 -3.29 
411.44 164.29 -2.28 
411.01 164.21 -1.39 
411.32 164.51 -1.34 
411.41 164.22 -0.26 
410.99 164.15 0.66 
411.32 164.11 1.31 
411.12 164.38 1.90 
411.52 163.99 -3.06 
411.96 164.48 -1.02 
411.71 164.10 0.24 
411.66 164.51 1.10 
412.02 164.45 1.75 
412.51 164.61 -2.89 
412.50 164.59 -1.99 
412.49 164.57 -1.08 
412.48 164.53 0.73 
413.42 164.65 -2.37 
413.81 164.27 -2.13 
413.98 164.47 -1.77 
413.83 164.59 -1.22 
413.79 164.41 0.00 
413.72 164.33 0.69 
413.86 164.60 1.65 
414.54 164.03 -0.65 
414.38 164.40 0.16 
415.36 164.35 -2.29 
415.51 164.50 -1.65 
415.35 164.38 -1.30 
416.69 164.47 -2.59 
416.48 164.40 -1.66 
416.47 164.38 -0.60 
416.46 164.36 0.47 
417.31 164.39 -2.64 
417.22 164.03 -0.93 
417.27 164.05 -0.14 
392.78 164.86 -2.13 
392.80 164.82 -1.70 
392.64 165.32 1.78 
393.39 164.80 -1.88 
393.40 164.79 1.25 
394.05 164.79 1.99 
410.09 165.01 -0.73 
410.03 164.94 0.35 
410.69 164.78 -2.36 
410.77 164.69 -1.29 
410.49 164.96 0.35 
410.26 164.80 1.41 
410.61 164.86 1.42 
411.15 164.99 -2.79 
411.47 164.97 -2.29 
411.14 164.96 -1.73 
411.22 164.92 -0.76 
411.12 164.93 -0.67 
411.21 165.01 1.39 
411.42 165.26 1.57 
412.05 164.82 -3.05 
411.57 165.20 -2.63 
412.07 164.99 -2.08 
412.06 164.97 -1.12 
411.55 165.16 0.62 
411.79 165.15 0.86 
412.85 164.89 -3.08 
412.23 165.29 -2.30 
412.23 165.29 -1.99 
412.25 164.88 -1.29 
412.51 164.94 0.73 
413.37 164.86 -1.34 
412.95 164.98 -0.19 
413.56 165.24 1.47 
413.79 165.16 -2.22 
413.84 165.01 -1.96 
413.76 165.09 -1.12 
414.66 164.86 -2.34 
414.57 165.00 -1.69 
414.59 164.76 -1.25 
414.34 164.70 0.42 
415.37 165.21 -2.85 
415.17 165.02 -1.69 
415.02 164.91 -1.32 
415.07 164.91 -0.61 
415.09 164.85 0.39 
416.25 164.79 -2.92 
415.76 164.70 -2.23 
416.25 165.07 -1.25 
415.86 165.03 -0.57 
417.09 165.10 -2.88 
417.10 164.79 -1.67 
416.72 164.72 -0.93 
416.71 164.70 -0.10 
417.49 164.92 -2.88 
417.45 165.02 -2.57 
393.80 165.61 1.37 
393.51 165.60 1.59 
394.89 165.55 1.73 
409.99 165.44 0.02 
410.21 165.48 -0.20 
410.27 165.79 1.51 
411.41 166.02 -2.31 
411.08 165.49 -1.23 
410.92 165.46 -0.16 
411.12 165.91 0.91 
411.32 165.77 2.11 
411.05 165.40 2.49 
411.83 165.57 -2.50 
411.76 165.63 -1.69 
411.91 165.77 -0.46 
412.16 165.66 1.08 
412.10 165.66 1.78 
412.13 166.00 2.15 
412.32 165.85 -2.26 
412.54 165.57 -1.72 
412.65 166.03 -1.06 
412.25 165.50 -0.03 
412.30 165.91 0.49 
412.85 165.42 1.27 
412.64 165.74 1.98 
412.80 165.51 2.54 
413.34 165.64 -1.85 
413.41 165.89 -1.05 
413.25 165.88 -0.13 
412.92 166.06 1.86 
412.95 165.81 2.15 
413.87 166.00 -2.95 
413.67 165.87 -1.15 
414.18 165.72 0.11 
413.83 165.61 0.84 
413.91 165.89 1.96 
413.68 165.62 2.31 
414.45 165.97 -2.78 
414.46 165.80 -2.14 
414.82 165.80 -1.18 
414.80 165.42 1.92 
415.57 165.62 -2.51 
415.57 165.61 -1.49 
415.44 165.55 -1.18 
416.04 165.64 -0.85 
415.90 165.58 -0.60 
416.64 165.53 -1.05 
416.60 165.62 -0.64 
417.21 165.48 -0.47 
393.15 166.18 1.91 
393.91 166.46 1.71 
394.22 166.47 1.50 
410.02 166.75 2.07 
410.02 166.27 2.13 
410.23 166.27 0.94 
410.71 166.11 1.99 
411.07 166.33 -1.43 
411.01 166.09 -1.13 
411.09 166.43 0.45 
411.37 166.43 1.51 
411.86 166.52 -3.19 
412.01 166.69 -2.74 
412.03 166.75 -1.70 
411.63 166.34 0.50 
411.54 166.29 1.08 
411.99 166.15 1.62 
411.71 166.63 3.14 
412.35 166.27 -3.27 
412.83 166.26 -2.75 
412.59 166.21 -1.67 
412.30 166.52 -0.92 
412.32 166.17 -0.21 
413.29 166.64 -2.35 
413.52 166.15 -1.51 
413.48 166.36 -0.62 
413.41 166.13 0.93 
413.36 166.32 2.68 
413.09 166.24 2.99 
413.91 166.51 -2.21 
413.66 166.33 -1.74 
414.26 166.42 -0.78 
413.97 166.40 -0.17 
415.00 166.34 -2.57 
414.32 166.22 -0.95 
414.42 166.61 -0.48 
414.44 166.10 2.01 
415.25 166.47 1.89 
415.76 166.36 -2.73 
416.04 166.32 -0.96 
416.93 166.22 -2.53 
416.43 166.76 -1.70 
416.57 166.14 -0.04 
417.34 166.30 -0.03 
410.65 167.18 -0.90 
410.72 167.07 0.15 
410.43 166.97 2.24 
411.03 167.17 -1.08 
410.86 167.33 0.00 
411.29 167.25 0.88 
411.26 166.79 1.89 
410.82 167.29 2.14 
412.19 167.27 -1.20 
411.73 167.13 0.50 
411.88 167.18 1.55 
412.73 167.31 -2.49 
412.28 167.27 -2.00 
412.26 167.25 -0.56 
412.87 167.45 1.05 
413.29 167.19 -3.00 
412.96 167.21 -2.21 
413.08 166.90 -2.04 
413.27 167.15 -0.99 
413.00 167.37 -0.11 
413.41 167.15 1.09 
413.75 166.84 -1.90 
413.74 166.82 -0.95 
414.14 167.19 -0.52 
413.75 167.33 1.04 
414.52 166.94 -2.84 
414.65 167.24 -0.04 
414.75 166.91 0.92 
414.51 166.93 1.63 
415.02 167.20 -0.51 
416.02 167.46 -2.81 
416.03 166.89 -1.87 
415.93 167.38 -0.35 
416.66 167.17 -1.69 
417.20 167.16 -0.81 
410.79 167.97 0.14 
410.41 167.71 1.26 
411.25 167.89 -0.04 
411.06 168.12 1.68 
411.99 167.85 -0.88 
411.58 167.79 0.16 
411.86 167.68 0.99 
411.66 168.10 1.64 
412.63 167.90 -2.35 
412.58 168.15 -1.06 
412.62 167.94 0.54 
413.38 168.07 0.09 
413.66 167.65 -0.72 
414.86 167.62 -0.74 
414.70 167.65 -0.04 
414.32 168.03 0.05 
414.64 167.74 2.09 
415.64 167.78 -1.95 
415.28 167.49 -0.75 
415.17 167.76 0.96 
415.55 168.05 2.15 
416.13 168.10 -2.49 
415.91 167.90 -1.66 
415.96 167.68 2.04 
417.39 167.55 -1.61 
411.09 168.29 -0.46 
411.04 168.80 0.17 
412.14 168.55 -0.80 
412.50 168.31 0.10 
412.76 168.67 1.15 
412.96 168.40 -0.50 
413.70 168.24 -0.36 
415.00 168.83 -2.09 
414.72 168.65 -1.93 
414.93 168.78 -1.27 
415.18 168.29 -0.85 
415.16 168.36 1.13 
415.92 168.64 -2.58 
416.55 168.77 -2.43 
417.01 168.57 -1.91 
412.15 168.97 -0.03 
412.46 168.99 -0.87 
414.37 169.04 -1.29 
416.36 169.36 -2.53 
416.63 169.03 -2.89 
416.85 169.52 -2.37 
416.74 169.38 -1.89 
416.92 169.76 -2.83 
416.69 170.09 -2.48 
416.39 170.43 -2.59 
416.70 170.83 -2.80 
416.70 170.83 -2.80 
416.68 170.79 -2.05 
416.88 171.15 -2.54 
417.16 171.52 -2.97 
417.22 171.61 -2.70 
417.54 172.29 -2.93 
417.45 172.21 -2.69 
417.17 172.66 -2.63 
