# .PCD v0.7 - Point Cloud Data file format
VERSION 0.7
FIELDS x y z
SIZE 4 4 4
TYPE F F F
COUNT 1 1 1
WIDTH 1713
HEIGHT 1
VIEWPOINT 0 0 0 1 0 0 0
POINTS 1713
DATA ascii
411.35 -39.23 -3.45 
411.51 -39.04 -2.45 
411.94 -39.24 -4.95 
411.85 -39.19 -4.06 
411.59 -39.12 -3.76 
411.93 -39.29 -2.78 
411.66 -39.07 -2.28 
412.42 -38.90 -4.25 
412.37 -38.98 -3.23 
412.94 -39.46 -3.21 
413.17 -38.98 -2.56 
414.31 -39.21 -4.04 
414.14 -39.36 -3.45 
414.29 -39.25 -3.25 
414.49 -39.32 -4.97 
414.37 -39.30 -4.21 
414.57 -38.84 -3.50 
414.49 -39.25 -2.91 
393.85 -38.26 -5.44 
393.68 -38.27 -5.22 
393.66 -38.26 -4.53 
393.63 -38.25 -3.84 
394.23 -38.52 -5.06 
394.14 -38.51 -4.51 
394.12 -38.51 -3.83 
409.32 -38.15 -3.64 
409.23 -38.10 -2.77 
410.67 -38.15 -4.87 
410.45 -38.14 -4.33 
410.36 -38.08 -3.49 
410.65 -38.15 -2.79 
411.26 -38.25 -5.29 
411.06 -38.13 -4.25 
411.20 -38.24 -3.36 
411.24 -38.09 -1.00 
412.16 -38.60 -2.99 
411.93 -38.14 -1.54 
411.52 -38.14 -0.85 
412.35 -38.72 -4.80 
412.51 -38.33 -4.35 
412.43 -38.28 -3.43 
412.22 -38.10 -0.99 
392.94 -37.81 -5.40 
392.98 -37.95 -5.33 
392.95 -37.94 -4.64 
392.92 -37.92 -3.95 
393.33 -38.05 -5.26 
409.17 -37.80 -4.42 
409.08 -37.75 -3.60 
408.98 -37.69 -2.78 
409.69 -38.04 -4.24 
409.77 -37.57 -3.52 
409.49 -37.53 -2.88 
409.97 -37.66 -2.57 
410.75 -37.78 -4.90 
410.48 -37.62 -4.07 
410.81 -37.41 -3.40 
410.15 -37.51 -3.22 
410.60 -37.87 -2.57 
410.98 -37.52 -5.12 
411.21 -37.53 -4.31 
411.19 -37.86 -3.68 
411.12 -37.81 -2.81 
411.06 -37.88 -1.43 
411.06 -37.88 -0.66 
411.98 -37.72 -4.31 
412.05 -37.42 -3.41 
411.82 -37.88 -1.23 
411.61 -37.37 -1.06 
411.61 -37.37 -0.36 
412.62 -37.82 -4.59 
412.54 -37.77 -3.69 
412.38 -37.66 -1.72 
416.33 -37.51 -3.27 
416.43 -37.56 -4.30 
417.50 -37.36 -5.11 
417.48 -37.37 -4.22 
417.41 -37.41 -3.62 
417.40 -37.39 -3.07 
417.44 -37.37 -2.44 
407.31 -37.01 -3.00 
407.70 -36.94 -4.41 
407.62 -36.88 -3.62 
407.90 -36.72 -2.95 
408.22 -36.72 -4.96 
408.09 -36.85 -4.52 
408.21 -36.71 -3.97 
408.20 -36.71 -2.98 
409.80 -36.73 -4.27 
409.47 -36.96 -3.84 
409.41 -36.92 -3.00 
409.91 -37.31 -2.43 
410.62 -36.67 -4.73 
410.30 -36.73 -4.36 
410.53 -36.66 -3.12 
410.71 -37.35 -2.55 
410.53 -36.89 -1.00 
411.27 -36.92 -4.52 
411.21 -36.88 -3.65 
411.14 -36.84 -2.77 
410.93 -37.36 -2.60 
411.09 -37.13 -1.79 
411.09 -37.14 -0.95 
411.69 -37.24 -4.77 
411.61 -37.20 -3.90 
411.53 -37.14 -3.02 
411.97 -37.27 -1.94 
412.02 -36.91 -1.55 
412.02 -36.91 -0.91 
411.97 -36.67 -0.44 
412.64 -37.28 -2.01 
412.44 -37.17 -1.68 
412.64 -37.28 -1.02 
413.51 -36.72 -1.40 
412.98 -37.05 -0.66 
415.62 -36.68 -4.39 
416.10 -36.70 -4.95 
416.16 -36.72 -4.33 
416.07 -36.70 -3.64 
416.12 -36.72 -3.00 
416.16 -36.72 -2.30 
416.77 -37.00 -5.08 
416.77 -37.05 -4.20 
416.76 -37.05 -3.71 
416.76 -37.04 -2.99 
416.87 -37.08 -2.35 
417.40 -37.21 -5.01 
417.16 -37.24 -4.18 
417.21 -37.19 -3.68 
417.20 -37.20 -2.98 
417.35 -37.32 -2.38 
405.74 -36.16 -4.77 
405.67 -36.11 -3.98 
405.59 -36.05 -3.20 
407.15 -36.12 -4.99 
407.14 -36.12 -4.03 
407.15 -36.26 -3.82 
407.14 -36.12 -3.06 
407.13 -36.12 -2.09 
407.40 -36.38 -4.96 
407.84 -36.34 -4.55 
407.62 -36.21 -3.78 
407.41 -36.08 -3.02 
407.90 -36.51 -2.32 
408.59 -36.35 -4.86 
408.34 -36.51 -4.24 
408.41 -36.08 -3.66 
408.48 -36.09 -2.93 
408.52 -36.17 -2.26 
409.00 -36.02 -4.42 
408.97 -35.99 -3.39 
409.79 -36.24 -4.90 
409.72 -36.20 -4.06 
409.57 -36.02 -3.80 
409.66 -36.16 -3.23 
409.59 -36.11 -2.40 
410.49 -36.60 -4.43 
410.44 -36.57 -3.56 
410.38 -36.53 -2.69 
410.78 -36.30 -1.96 
410.78 -36.30 -0.98 
410.97 -36.05 -2.07 
411.01 -36.43 -1.58 
410.78 -36.30 -0.98 
411.82 -36.44 -1.53 
411.81 -36.45 -0.78 
412.42 -36.43 -1.97 
412.39 -36.22 -1.62 
412.38 -36.22 -1.00 
412.32 -36.00 -0.51 
413.11 -36.26 -1.95 
412.93 -36.52 -1.62 
413.32 -36.40 -0.69 
413.85 -36.04 -1.41 
413.92 -36.42 -1.01 
414.78 -36.04 -5.44 
414.82 -36.06 -4.99 
414.79 -36.08 -4.32 
414.78 -36.06 -3.68 
414.82 -36.07 -3.01 
414.74 -36.05 -2.35 
415.10 -36.20 -5.43 
415.41 -36.36 -4.98 
415.29 -36.33 -4.28 
415.40 -36.37 -3.66 
415.32 -36.31 -2.99 
415.36 -36.36 -2.33 
415.75 -36.53 -4.96 
415.96 -36.55 -4.35 
415.72 -36.52 -3.65 
415.80 -36.56 -3.01 
415.74 -36.57 -2.40 
398.49 -35.56 -5.16 
398.62 -35.49 -4.47 
398.61 -35.51 -3.78 
404.16 -35.27 -4.88 
404.39 -35.42 -4.52 
404.71 -35.31 -4.79 
404.61 -35.52 -3.73 
405.64 -35.40 -5.15 
405.80 -35.50 -4.30 
405.74 -35.46 -3.55 
405.62 -35.39 -3.01 
405.62 -35.39 -1.94 
405.33 -35.31 -1.56 
406.39 -35.27 -4.90 
406.51 -35.39 -4.40 
406.44 -35.34 -3.64 
406.37 -35.29 -2.87 
406.10 -35.55 -2.18 
406.79 -35.57 -5.19 
406.82 -35.91 -4.46 
406.81 -35.91 -3.43 
407.29 -35.59 -2.64 
406.80 -35.90 -2.40 
407.78 -35.61 -5.23 
407.75 -35.31 -4.48 
407.62 -35.51 -3.66 
407.55 -35.45 -2.88 
407.70 -35.96 -2.39 
408.60 -35.38 -4.92 
408.63 -35.89 -4.70 
408.61 -35.87 -3.63 
408.53 -35.32 -3.03 
408.70 -35.61 -2.39 
408.91 -35.75 -4.84 
408.96 -35.77 -4.54 
408.84 -35.71 -4.02 
408.77 -35.66 -3.21 
408.78 -35.64 -2.04 
409.56 -35.57 -4.75 
409.48 -35.95 -2.96 
409.41 -35.90 -2.12 
411.20 -35.50 -1.99 
411.30 -35.76 -1.82 
411.30 -35.77 -0.73 
411.85 -35.68 -1.85 
412.11 -35.78 -0.83 
412.85 -35.60 -1.99 
412.73 -35.56 -1.69 
412.85 -35.61 -0.94 
413.57 -35.43 -5.03 
413.54 -35.42 -4.36 
413.53 -35.42 -3.71 
413.45 -35.38 -3.01 
413.43 -35.37 -2.08 
413.31 -35.36 -1.79 
413.46 -35.70 -1.09 
413.93 -35.61 -5.10 
413.98 -35.66 -4.37 
414.09 -35.72 -3.70 
413.91 -35.58 -2.97 
413.92 -35.64 -2.39 
413.88 -35.65 -1.70 
414.17 -35.41 -0.61 
414.44 -35.89 -5.01 
414.38 -35.87 -4.34 
414.40 -35.88 -3.68 
414.44 -35.85 -3.00 
414.44 -35.85 -2.43 
414.59 -35.74 -1.17 
415.07 -35.94 -4.92 
398.81 -35.04 -5.00 
398.81 -35.06 -4.35 
398.80 -35.07 -3.71 
399.02 -34.61 -5.16 
399.01 -34.63 -4.54 
399.01 -34.64 -3.91 
399.01 -34.66 -3.25 
404.14 -34.65 -4.84 
404.39 -34.73 -4.43 
404.34 -34.69 -3.70 
404.29 -34.65 -2.98 
405.02 -34.51 -4.99 
404.87 -35.12 -4.07 
404.54 -35.20 -3.37 
405.12 -35.00 -3.20 
405.12 -35.00 -2.27 
404.73 -34.76 -1.56 
406.28 -34.86 -4.73 
406.36 -34.92 -4.64 
406.28 -34.87 -3.89 
406.20 -34.81 -3.15 
406.22 -35.15 -2.60 
406.49 -34.58 -1.57 
406.55 -34.61 -0.49 
407.24 -34.64 -4.97 
407.27 -34.84 -4.17 
407.20 -34.80 -3.39 
407.25 -34.84 -2.80 
407.14 -34.75 -2.60 
407.40 -35.13 -4.74 
407.53 -34.98 -4.64 
407.47 -34.94 -3.84 
407.67 -34.96 -2.66 
407.88 -35.06 -2.34 
407.35 -35.06 -1.62 
407.33 -35.04 -0.57 
408.06 -35.18 -4.75 
408.22 -34.84 -3.84 
408.18 -34.81 -2.88 
410.62 -34.71 -4.66 
410.55 -34.67 -3.76 
410.48 -34.64 -2.86 
411.47 -34.67 -4.38 
411.41 -34.64 -3.44 
411.50 -34.89 -2.86 
411.37 -34.80 -1.98 
411.28 -34.75 -1.10 
411.95 -34.59 -5.10 
411.97 -34.62 -4.34 
411.95 -34.59 -3.75 
412.04 -34.68 -3.05 
411.90 -34.60 -2.29 
411.89 -34.59 -1.77 
411.85 -34.92 -0.77 
412.61 -34.91 -5.05 
412.55 -34.91 -4.41 
412.56 -34.88 -3.71 
412.55 -34.92 -2.98 
412.55 -34.91 -2.40 
412.47 -35.11 -1.61 
412.51 -34.93 -1.01 
413.21 -35.22 -5.14 
413.15 -35.21 -4.39 
413.15 -35.22 -3.74 
413.12 -35.20 -3.01 
413.18 -35.24 -2.39 
412.97 -35.15 -1.56 
414.00 -35.14 -1.48 
413.98 -35.19 -0.75 
414.53 -34.72 -1.44 
414.63 -34.96 -1.02 
417.02 -34.64 -5.44 
417.02 -34.64 -5.00 
416.97 -34.61 -4.44 
417.01 -34.66 -3.66 
416.97 -34.63 -3.06 
417.01 -34.67 -2.32 
416.92 -34.62 -1.77 
416.92 -34.63 -1.02 
417.50 -34.85 -5.45 
417.40 -34.84 -5.00 
417.37 -34.83 -4.45 
417.39 -34.86 -3.68 
417.34 -34.83 -3.05 
417.38 -34.87 -2.35 
417.27 -34.74 -1.33 
398.84 -34.29 -5.04 
398.83 -34.31 -4.43 
398.81 -34.34 -3.82 
399.27 -34.01 -5.06 
399.09 -34.06 -4.37 
399.09 -34.07 -3.72 
399.31 -34.11 -3.28 
401.71 -34.04 -4.80 
401.90 -34.12 -4.08 
402.09 -34.21 -3.34 
402.14 -33.91 -2.67 
402.28 -34.30 -2.59 
402.90 -34.30 -4.93 
402.83 -34.25 -4.27 
402.75 -34.20 -3.60 
402.55 -34.34 -2.83 
403.58 -34.19 -5.21 
403.58 -34.18 -4.17 
403.59 -33.87 -3.29 
403.56 -33.92 -2.71 
403.56 -34.18 -2.10 
403.51 -34.01 -1.54 
403.56 -34.18 -1.06 
403.92 -34.26 -5.10 
403.89 -34.31 -4.56 
404.17 -34.47 -3.27 
404.17 -34.47 -2.36 
405.01 -34.27 -4.87 
404.96 -34.48 -4.25 
404.91 -34.44 -3.52 
404.79 -34.34 -2.79 
404.90 -34.38 -1.93 
405.00 -34.42 -1.05 
405.45 -34.06 -4.82 
405.82 -34.04 -4.30 
405.73 -33.96 -3.74 
405.65 -34.08 -3.01 
405.71 -34.10 -2.09 
405.37 -33.95 -1.69 
405.34 -33.93 -0.72 
406.29 -34.23 -5.13 
406.23 -34.19 -4.37 
406.24 -34.48 -3.76 
406.10 -34.10 -2.87 
406.46 -34.28 -2.54 
406.21 -34.44 -1.72 
406.47 -34.55 -0.59 
406.62 -34.39 -4.85 
406.98 -34.17 -3.92 
406.95 -34.14 -2.98 
407.15 -34.55 -2.23 
407.11 -34.53 -1.32 
409.85 -34.14 -4.74 
409.90 -33.88 -4.48 
409.76 -34.09 -3.90 
409.68 -34.05 -3.05 
409.60 -34.00 -2.21 
409.52 -33.95 -1.37 
410.69 -33.96 -5.00 
410.72 -33.98 -4.42 
410.64 -33.95 -3.62 
410.68 -33.97 -2.93 
410.60 -33.93 -2.23 
410.71 -34.04 -1.58 
410.66 -33.95 -0.96 
411.15 -34.20 -4.89 
411.13 -34.19 -4.39 
411.23 -34.23 -3.58 
411.11 -34.16 -2.94 
411.17 -34.13 -2.25 
410.99 -34.11 -1.78 
410.99 -34.11 -0.92 
410.97 -34.12 -0.38 
411.74 -34.51 -4.96 
411.57 -34.40 -4.45 
411.59 -34.37 -3.68 
411.57 -34.40 -2.92 
411.61 -34.43 -2.23 
411.60 -34.43 -1.61 
411.65 -34.41 -1.01 
411.71 -34.50 -0.47 
413.98 -33.96 -2.17 
414.31 -34.54 -1.50 
414.63 -33.90 -2.23 
414.85 -34.08 -1.45 
414.83 -34.13 -0.65 
415.51 -33.90 -5.11 
415.38 -33.84 -4.23 
415.43 -33.79 -3.59 
415.68 -34.00 -3.02 
415.68 -33.91 -2.24 
415.36 -34.52 -1.55 
415.35 -34.22 -1.20 
416.10 -34.04 -5.62 
416.11 -34.22 -5.08 
416.15 -34.15 -4.42 
415.93 -34.13 -3.62 
415.94 -34.10 -2.99 
415.86 -34.04 -2.42 
415.85 -34.05 -1.66 
415.88 -33.94 -0.64 
416.66 -34.42 -5.44 
416.66 -34.42 -5.00 
416.66 -34.49 -4.37 
416.65 -34.44 -3.65 
416.56 -34.40 -3.04 
416.56 -34.47 -2.41 
416.48 -34.37 -1.78 
416.74 -34.17 -0.78 
417.32 -34.40 -5.29 
417.20 -34.35 -4.38 
417.12 -34.55 -2.65 
399.38 -33.38 -5.43 
399.37 -33.55 -5.02 
399.37 -33.56 -4.38 
399.36 -33.58 -3.74 
399.35 -33.61 -3.01 
399.48 -33.19 -1.97 
399.80 -33.38 -5.16 
399.79 -33.40 -4.50 
399.79 -33.42 -3.83 
399.78 -33.44 -3.16 
399.62 -33.54 -2.48 
401.01 -33.82 -3.79 
401.30 -33.41 -5.06 
401.37 -33.36 -4.28 
401.32 -33.33 -3.63 
401.11 -33.42 -3.04 
402.39 -33.46 -5.15 
401.93 -33.28 -4.63 
402.33 -33.54 -3.87 
401.93 -33.28 -2.75 
402.37 -33.46 -2.51 
401.92 -33.28 -1.80 
402.61 -33.65 -5.23 
402.61 -33.65 -4.21 
402.64 -33.44 -3.68 
402.99 -33.54 -3.05 
402.60 -33.65 -2.17 
402.50 -33.35 -1.49 
402.59 -33.65 -1.15 
403.66 -33.74 -5.01 
403.63 -33.78 -4.44 
403.65 -33.74 -3.66 
403.60 -33.71 -2.95 
403.17 -33.61 -1.40 
404.15 -33.65 -4.90 
404.39 -33.35 -4.07 
404.37 -33.38 -3.55 
404.34 -33.43 -3.02 
404.21 -33.39 -2.31 
404.27 -33.26 -1.81 
404.25 -33.24 -0.86 
404.36 -33.43 -0.51 
404.78 -33.28 -5.08 
404.75 -33.26 -4.22 
404.72 -33.23 -3.36 
405.15 -33.55 -2.72 
404.69 -33.21 -2.50 
404.67 -33.18 -1.63 
405.10 -33.82 -0.82 
405.83 -33.56 -4.91 
405.25 -33.63 -4.20 
405.80 -33.54 -4.00 
405.77 -33.51 -3.08 
405.74 -33.49 -2.17 
405.85 -33.83 -1.48 
405.82 -33.81 -0.59 
407.08 -33.42 -3.01 
407.05 -33.41 -2.39 
407.02 -33.40 -1.76 
407.98 -33.26 -2.42 
407.91 -33.22 -1.61 
408.20 -33.39 -4.84 
408.43 -33.13 -4.57 
408.61 -33.20 -3.73 
408.06 -33.30 -3.23 
408.67 -33.33 -2.19 
409.19 -33.18 -4.98 
409.23 -33.14 -4.38 
409.26 -33.21 -3.71 
409.13 -33.16 -3.07 
409.31 -33.24 -2.34 
409.26 -33.23 -1.78 
409.25 -33.24 -0.72 
409.28 -33.16 -0.52 
409.70 -33.43 -4.96 
409.75 -33.44 -4.30 
409.66 -33.42 -3.65 
409.71 -33.43 -2.97 
409.80 -33.56 -2.25 
409.78 -33.55 -1.72 
409.71 -33.44 -0.77 
410.34 -33.78 -4.93 
410.32 -33.78 -4.44 
410.30 -33.77 -3.65 
410.34 -33.76 -2.96 
410.26 -33.76 -2.26 
410.42 -33.83 -1.74 
410.36 -33.79 -0.85 
410.29 -33.70 -0.30 
414.13 -33.17 -5.46 
414.10 -33.17 -5.01 
414.29 -33.23 -4.33 
414.26 -33.22 -3.81 
414.29 -33.24 -3.06 
414.36 -33.23 -2.36 
414.73 -33.38 -5.45 
414.70 -33.47 -5.15 
414.66 -33.46 -4.23 
414.56 -33.32 -3.54 
414.72 -33.42 -3.11 
414.72 -33.43 -2.33 
414.84 -33.48 -1.76 
414.90 -33.43 -0.83 
415.44 -33.77 -5.46 
415.34 -33.71 -5.33 
415.28 -33.67 -4.39 
415.35 -33.82 -3.69 
415.28 -33.69 -2.94 
415.33 -33.74 -2.32 
415.33 -33.75 -1.81 
415.15 -33.50 -0.66 
416.09 -33.86 -4.76 
415.99 -33.65 -4.13 
415.99 -33.82 -3.69 
415.94 -33.63 -3.15 
415.89 -33.78 -2.62 
415.80 -33.74 -1.55 
415.83 -33.59 -1.20 
415.75 -33.75 -0.47 
399.57 -33.02 -5.00 
399.56 -33.04 -4.39 
399.54 -33.07 -3.79 
399.56 -33.07 -2.94 
399.55 -33.09 -2.04 
399.88 -32.83 -5.09 
399.87 -32.85 -4.41 
399.87 -32.87 -3.73 
399.88 -32.65 -3.06 
400.05 -32.73 -2.53 
400.05 -32.75 -1.67 
399.87 -32.50 -1.21 
400.47 -32.48 -5.02 
400.76 -32.63 -4.28 
400.73 -32.69 -3.45 
400.75 -32.63 -3.29 
401.53 -32.98 -5.17 
401.40 -32.78 -4.48 
401.39 -32.80 -3.77 
401.39 -32.83 -3.06 
401.61 -32.85 -2.47 
401.69 -32.88 -1.68 
401.74 -32.65 -4.92 
401.74 -32.66 -4.27 
401.74 -32.67 -3.61 
402.81 -32.91 -4.93 
402.75 -32.87 -4.27 
402.70 -32.83 -3.61 
402.67 -33.02 -2.93 
402.91 -32.62 -2.18 
402.89 -32.66 -1.57 
403.03 -32.67 -1.04 
403.65 -32.66 -5.13 
403.45 -32.66 -4.62 
403.29 -32.74 -3.75 
403.27 -32.72 -2.83 
403.52 -33.09 -2.32 
403.34 -32.84 -1.82 
403.23 -32.67 -0.99 
404.08 -32.98 -5.02 
404.03 -32.95 -4.31 
403.99 -32.92 -3.60 
403.98 -33.11 -2.79 
403.95 -33.15 -2.22 
404.55 -32.81 -5.12 
404.49 -32.93 -4.15 
404.83 -32.49 -3.11 
404.63 -32.89 -2.28 
404.61 -32.87 -1.38 
405.90 -32.71 -3.77 
405.87 -32.70 -3.17 
405.93 -32.72 -4.37 
406.50 -33.09 -3.70 
406.47 -33.08 -3.09 
406.44 -33.07 -2.47 
406.43 -32.54 -1.83 
406.69 -32.70 -4.93 
407.18 -32.67 -3.95 
407.18 -32.67 -3.95 
407.11 -32.63 -3.18 
407.03 -32.58 -2.42 
407.12 -32.86 -1.57 
407.73 -32.44 -5.05 
407.93 -32.48 -4.44 
407.96 -32.54 -3.79 
407.81 -32.44 -3.00 
408.00 -32.60 -2.21 
407.85 -32.47 -1.86 
408.36 -32.70 -4.94 
408.34 -32.70 -4.43 
408.38 -32.75 -3.70 
408.30 -32.69 -2.91 
408.34 -32.74 -2.38 
408.22 -32.67 -1.73 
408.32 -32.73 -0.61 
408.28 -32.63 -0.41 
409.00 -33.14 -4.95 
408.99 -33.04 -4.25 
408.93 -33.04 -3.73 
408.92 -33.11 -2.89 
409.00 -33.08 -2.35 
408.88 -33.09 -1.84 
409.08 -33.13 -0.82 
412.87 -32.53 -5.23 
412.80 -32.49 -4.46 
412.74 -32.47 -3.47 
412.87 -32.58 -2.91 
413.11 -32.63 -5.51 
413.33 -32.78 -5.06 
413.28 -32.73 -4.42 
413.28 -32.77 -3.74 
413.19 -32.70 -2.91 
413.31 -32.72 -2.38 
413.38 -32.69 -1.73 
414.10 -32.99 -5.51 
413.71 -32.97 -5.04 
413.89 -32.93 -4.35 
413.83 -32.89 -3.76 
413.88 -32.95 -2.82 
413.88 -32.96 -2.31 
413.88 -32.96 -1.79 
414.33 -32.99 -5.43 
414.32 -33.10 -5.05 
399.53 -31.96 -4.03 
400.06 -32.18 -5.09 
400.16 -32.14 -4.42 
400.04 -32.19 -3.58 
400.04 -32.21 -2.99 
400.04 -32.23 -2.10 
400.25 -31.81 -1.27 
400.03 -32.25 -1.20 
400.72 -32.12 -5.03 
400.55 -32.01 -4.44 
400.47 -31.78 -3.78 
400.47 -31.80 -3.11 
400.42 -31.82 -2.18 
400.33 -32.21 -1.93 
401.33 -32.08 -5.06 
401.41 -32.09 -4.36 
401.46 -32.11 -3.54 
401.66 -32.24 -3.08 
401.54 -32.05 -2.45 
401.52 -32.03 -1.40 
401.41 -31.82 -0.97 
401.51 -32.02 -0.35 
401.97 -32.13 -4.93 
401.92 -31.85 -4.50 
401.97 -32.15 -3.63 
402.09 -32.17 -3.03 
402.26 -32.15 -2.01 
402.35 -32.28 -1.90 
402.24 -32.13 -1.10 
402.05 -32.12 -0.19 
402.59 -32.08 -5.17 
402.56 -32.06 -4.36 
402.54 -32.03 -3.54 
402.72 -32.38 -2.87 
402.57 -31.79 -2.49 
402.49 -31.99 -1.91 
402.47 -31.97 -1.09 
402.47 -31.85 -0.26 
403.65 -32.39 -5.00 
403.62 -32.37 -4.13 
403.60 -32.35 -3.26 
403.58 -32.33 -2.39 
403.55 -32.31 -1.51 
404.30 -31.82 -5.08 
404.44 -32.24 -4.49 
404.25 -31.79 -3.94 
404.37 -32.36 -2.86 
404.35 -32.39 -2.31 
404.33 -32.43 -1.75 
404.84 -32.11 -5.04 
404.81 -32.10 -4.46 
404.78 -32.09 -3.88 
404.75 -32.08 -3.30 
405.06 -31.92 -2.04 
404.95 -31.83 -1.59 
405.30 -32.07 -5.01 
405.66 -31.98 -4.09 
405.60 -31.94 -3.35 
405.30 -32.39 -3.23 
405.53 -31.90 -2.62 
405.71 -32.14 -1.78 
405.95 -32.28 -4.94 
406.50 -31.75 -4.38 
406.45 -31.79 -3.63 
406.50 -31.78 -2.88 
406.47 -31.84 -2.26 
406.45 -31.83 -1.72 
406.89 -32.01 -5.06 
407.07 -32.04 -4.44 
407.02 -32.12 -3.82 
407.00 -32.02 -2.89 
407.01 -32.02 -2.34 
406.99 -32.02 -1.61 
406.98 -32.03 -0.97 
406.90 -31.93 -0.44 
407.69 -32.43 -5.02 
407.58 -32.30 -4.27 
407.61 -32.35 -3.73 
407.63 -32.34 -2.92 
407.62 -32.35 -2.30 
407.61 -32.35 -1.67 
407.61 -32.35 -1.04 
407.58 -32.34 -0.52 
411.47 -31.83 -4.75 
411.45 -31.82 -4.39 
411.43 -31.82 -3.66 
411.40 -31.81 -2.93 
411.76 -31.74 -5.37 
411.84 -32.01 -5.03 
411.84 -32.02 -4.37 
411.81 -32.01 -3.65 
411.78 -32.00 -2.92 
412.14 -31.98 -2.56 
411.76 -31.79 -1.53 
412.83 -32.24 -5.63 
412.61 -32.27 -5.16 
412.56 -32.25 -4.52 
412.51 -32.23 -3.88 
412.64 -32.33 -2.91 
412.64 -32.34 -2.39 
412.72 -32.31 -1.50 
413.23 -32.46 -5.49 
413.16 -32.44 -4.75 
413.10 -32.41 -4.02 
413.04 -32.39 -3.29 
412.97 -32.37 -2.55 
400.17 -31.47 -4.93 
400.26 -31.74 -4.45 
400.14 -31.52 -3.63 
400.13 -31.55 -2.97 
399.69 -31.61 -2.04 
400.48 -31.35 -4.93 
400.57 -31.50 -4.21 
400.56 -31.52 -3.57 
400.51 -31.38 -3.04 
400.50 -31.39 -2.16 
400.57 -31.50 -1.48 
400.87 -31.23 -0.95 
401.15 -31.39 -5.45 
401.17 -31.68 -4.95 
401.07 -31.33 -4.18 
401.35 -31.66 -3.87 
401.33 -31.64 -2.99 
401.32 -31.62 -2.10 
401.23 -31.30 -1.38 
401.46 -31.42 -1.23 
401.28 -31.58 -0.32 
401.94 -31.59 -5.19 
402.05 -31.30 -4.37 
402.04 -31.32 -3.69 
402.04 -31.34 -3.01 
402.17 -31.12 -2.41 
402.41 -31.08 -5.58 
402.41 -31.10 -4.95 
402.52 -31.75 -0.77 
403.49 -31.09 -5.09 
403.76 -31.51 -4.55 
403.73 -31.50 -3.99 
403.88 -31.11 -4.86 
403.83 -31.09 -4.20 
404.22 -31.31 -3.51 
404.16 -31.27 -2.81 
404.51 -31.59 -1.95 
404.48 -31.16 -1.63 
404.71 -31.31 -5.59 
404.82 -31.50 -5.03 
404.80 -31.54 -4.51 
404.78 -31.57 -3.98 
405.15 -31.15 -2.96 
405.12 -31.14 -2.44 
405.10 -31.13 -1.92 
405.29 -31.38 -5.60 
405.64 -31.31 -5.10 
405.48 -31.25 -4.34 
405.51 -31.24 -3.75 
405.57 -31.29 -2.90 
405.56 -31.27 -2.30 
405.46 -31.20 -1.75 
405.45 -31.20 -0.86 
405.46 -31.25 -0.37 
406.37 -31.67 -4.78 
406.16 -31.58 -4.39 
406.22 -31.62 -3.77 
406.12 -31.56 -3.01 
406.11 -31.55 -2.29 
406.09 -31.55 -1.75 
406.33 -31.69 -0.90 
405.91 -31.41 -0.51 
407.45 -31.70 -1.83 
407.44 -31.72 -0.89 
409.84 -31.26 -5.08 
410.02 -31.10 -4.08 
410.05 -31.11 -3.59 
409.98 -31.09 -2.97 
409.98 -31.08 -2.55 
410.67 -31.28 -5.47 
410.38 -31.22 -5.30 
410.42 -31.31 -4.43 
410.39 -31.30 -3.70 
410.55 -31.35 -3.00 
410.51 -31.34 -2.47 
410.57 -31.14 -1.38 
411.18 -31.42 -5.38 
411.15 -31.46 -4.90 
411.09 -31.44 -4.21 
411.04 -31.62 -3.68 
411.01 -31.61 -2.94 
411.16 -31.33 -2.52 
411.18 -31.47 -1.46 
411.83 -31.79 -4.99 
411.53 -31.62 -4.22 
411.53 -31.63 -3.65 
411.69 -31.74 -3.04 
411.52 -31.65 -1.93 
411.52 -31.66 -1.35 
400.04 -30.95 -4.90 
399.97 -30.76 -4.12 
400.01 -31.00 -3.44 
400.25 -30.96 -3.15 
400.06 -30.77 -2.42 
400.11 -30.78 -1.56 
400.64 -30.93 -5.25 
400.65 -30.54 -4.19 
400.63 -30.56 -3.54 
400.51 -30.43 -3.09 
400.50 -30.46 -2.39 
401.15 -30.76 -5.21 
401.14 -30.78 -4.50 
401.13 -30.81 -3.79 
401.12 -30.83 -3.08 
402.30 -30.74 -5.04 
402.29 -30.77 -4.38 
402.24 -30.43 -3.73 
402.28 -30.81 -3.03 
402.63 -30.59 -5.58 
402.63 -30.60 -4.95 
402.86 -31.01 -4.46 
402.81 -30.98 -3.76 
402.76 -30.95 -3.07 
402.71 -30.91 -2.38 
403.54 -30.70 -4.87 
403.49 -30.67 -4.10 
403.39 -31.02 -3.61 
403.34 -30.99 -2.87 
403.29 -30.96 -2.13 
404.46 -30.60 -5.38 
404.45 -30.61 -4.63 
404.44 -30.61 -3.89 
404.01 -30.46 -3.14 
404.01 -30.47 -2.17 
404.41 -30.62 -1.64 
404.18 -30.54 -0.74 
405.00 -30.95 -5.44 
404.94 -30.93 -4.94 
404.93 -30.93 -4.34 
404.93 -30.93 -3.73 
404.93 -30.86 -2.83 
404.96 -30.96 -2.10 
404.96 -30.97 -1.42 
404.92 -30.88 -1.21 
404.91 -30.88 -0.40 
405.23 -31.05 -3.35 
405.21 -31.05 -2.80 
408.66 -30.39 -5.74 
408.59 -30.33 -5.02 
408.58 -30.37 -4.26 
408.68 -30.43 -3.74 
408.57 -30.43 -3.06 
408.99 -30.57 -4.84 
409.01 -30.63 -4.33 
409.03 -30.61 -3.71 
409.19 -30.53 -3.06 
409.14 -30.52 -2.41 
409.34 -30.41 -1.82 
409.34 -30.42 -1.22 
409.84 -31.02 -5.60 
409.62 -30.87 -5.18 
409.61 -30.86 -4.17 
409.57 -30.85 -3.59 
409.71 -30.96 -2.98 
409.61 -30.54 -2.33 
410.00 -30.77 -1.89 
409.61 -30.56 -1.10 
410.13 -31.04 -5.50 
410.25 -30.86 -4.94 
410.17 -30.99 -4.29 
410.30 -30.90 -3.58 
410.30 -30.91 -2.99 
410.30 -30.92 -2.39 
410.30 -30.93 -1.79 
410.30 -30.93 -1.19 
394.01 -29.71 -5.66 
393.99 -29.71 -4.93 
393.98 -29.71 -4.21 
393.97 -29.71 -3.48 
394.33 -29.69 -5.83 
394.41 -29.75 -5.30 
394.26 -29.65 -4.50 
395.21 -29.90 -5.44 
395.15 -30.09 -5.10 
395.11 -30.07 -4.42 
395.07 -30.05 -3.74 
400.07 -30.29 -4.47 
400.05 -30.31 -3.69 
399.86 -30.10 -2.99 
399.90 -30.10 -2.08 
399.94 -30.11 -1.15 
399.94 -30.11 -1.15 
400.62 -29.78 -4.80 
400.90 -30.05 -4.15 
400.89 -30.08 -3.49 
400.78 -29.90 -3.03 
400.77 -29.92 -2.32 
400.55 -29.87 -1.82 
401.43 -30.22 -4.50 
401.43 -30.24 -3.80 
402.83 -30.26 -4.94 
402.70 -30.19 -3.85 
404.92 -29.81 -5.55 
404.96 -29.70 -1.57 
405.34 -30.03 -1.53 
407.27 -29.68 -5.45 
407.26 -29.68 -5.03 
407.21 -29.66 -4.40 
407.23 -29.71 -3.65 
407.16 -29.68 -2.99 
407.79 -29.93 -5.46 
407.74 -29.83 -5.14 
407.65 -29.89 -4.35 
407.61 -29.90 -3.75 
407.58 -29.90 -2.99 
407.56 -29.85 -2.16 
407.44 -29.72 -1.40 
408.40 -30.24 -5.42 
408.27 -30.17 -5.03 
408.32 -30.22 -4.30 
408.29 -30.21 -3.74 
408.26 -30.23 -2.99 
408.31 -30.11 -2.53 
408.25 -30.06 -1.90 
408.12 -29.74 -0.90 
409.12 -30.35 -5.54 
409.15 -30.33 -5.02 
409.07 -30.30 -4.30 
408.89 -30.13 -3.51 
408.89 -30.13 -2.88 
408.89 -30.14 -2.26 
408.89 -30.15 -1.63 
408.88 -30.16 -1.00 
410.91 -29.91 -5.33 
392.75 -29.14 -5.87 
392.75 -29.14 -5.18 
392.74 -29.14 -4.48 
393.17 -29.32 -3.55 
393.52 -29.29 -5.87 
393.48 -29.27 -5.22 
393.45 -29.26 -4.57 
393.52 -29.53 -3.72 
393.38 -29.22 -3.27 
394.26 -29.65 -4.50 
394.22 -29.63 -3.84 
397.51 -29.39 -5.21 
397.61 -29.28 -5.26 
397.58 -29.34 -4.25 
398.12 -29.00 -4.01 
398.10 -29.04 -3.08 
398.08 -29.07 -2.15 
398.07 -29.12 -1.21 
398.43 -28.97 -3.92 
398.42 -29.00 -3.07 
398.41 -29.03 -2.22 
398.39 -29.05 -1.37 
400.24 -29.35 -4.04 
399.98 -29.33 -3.84 
400.22 -29.37 -3.19 
400.21 -29.39 -2.34 
400.19 -29.40 -1.48 
400.17 -29.42 -0.62 
400.88 -29.18 -4.75 
400.38 -29.63 -4.41 
400.68 -28.98 -3.55 
400.67 -28.99 -2.75 
400.82 -29.25 -2.50 
400.80 -29.27 -1.74 
400.63 -29.02 -1.13 
401.04 -29.38 -2.26 
405.82 -28.94 -5.32 
405.79 -28.93 -4.54 
405.90 -29.02 -3.61 
405.88 -29.02 -3.15 
405.79 -29.31 -2.43 
405.63 -29.49 -1.58 
406.26 -29.18 -5.69 
406.30 -29.23 -5.03 
406.27 -29.22 -4.29 
406.25 -29.20 -3.75 
406.17 -29.15 -2.98 
406.44 -29.23 -2.37 
406.51 -29.26 -1.81 
407.09 -29.36 -5.51 
406.91 -29.50 -5.03 
406.94 -29.55 -4.51 
406.90 -29.54 -3.69 
406.97 -29.41 -3.05 
406.80 -29.17 -2.45 
407.08 -29.43 -1.75 
407.18 -29.23 -0.92 
407.56 -29.60 -5.49 
407.74 -29.83 -5.14 
407.55 -29.62 -4.55 
407.54 -29.64 -3.61 
407.34 -29.28 -2.77 
407.78 -29.67 -2.29 
407.70 -29.64 -1.58 
407.62 -29.61 -0.88 
410.46 -29.49 -5.19 
411.00 -29.27 -5.40 
411.00 -29.27 -5.40 
412.74 -29.38 -5.80 
392.78 -28.99 -5.67 
392.71 -28.90 -5.28 
392.74 -29.14 -4.48 
392.71 -29.11 -3.59 
397.98 -28.59 -5.18 
398.01 -28.58 -4.22 
397.97 -28.28 -3.70 
397.94 -28.68 -2.98 
397.96 -28.69 -2.20 
397.93 -28.73 -1.87 
397.94 -28.74 -1.19 
398.45 -28.91 -5.60 
398.49 -28.44 -5.20 
398.48 -28.46 -4.54 
398.50 -28.29 -4.00 
398.48 -28.32 -3.08 
398.75 -28.35 -2.24 
398.74 -28.38 -1.40 
398.45 -28.40 -1.22 
399.92 -28.86 -3.44 
400.26 -28.81 -3.00 
399.91 -28.85 -2.47 
399.90 -28.85 -1.49 
400.02 -28.70 -0.94 
400.38 -28.86 -4.04 
400.64 -28.58 -3.96 
400.63 -28.60 -3.10 
400.61 -28.61 -2.23 
400.32 -28.50 -1.92 
400.96 -28.34 -1.03 
401.02 -28.27 -4.29 
404.51 -28.29 -5.47 
404.45 -28.25 -5.08 
404.41 -28.20 -4.56 
404.39 -28.20 -3.75 
404.02 -28.39 -2.64 
404.84 -28.45 -5.49 
404.82 -28.44 -5.05 
404.96 -28.54 -4.36 
404.95 -28.46 -3.63 
404.92 -28.45 -3.13 
404.97 -28.48 -2.18 
404.97 -28.48 -1.19 
405.59 -28.77 -5.59 
405.56 -28.75 -5.09 
405.52 -28.74 -4.58 
405.45 -28.72 -3.56 
405.42 -28.71 -3.06 
405.48 -28.75 -2.24 
405.39 -28.59 -1.62 
406.38 -28.72 -5.40 
406.39 -28.74 -4.09 
406.39 -28.75 -3.44 
406.39 -28.76 -2.79 
406.39 -28.77 -2.13 
405.97 -28.96 -1.68 
409.82 -28.84 -5.80 
411.34 -28.53 -5.57 
411.30 -28.74 -5.38 
411.45 -28.38 -5.73 
413.06 -28.81 -5.77 
398.07 -28.10 -5.79 
398.04 -28.14 -5.28 
397.96 -27.73 -4.18 
397.94 -27.78 -3.71 
397.91 -27.83 -3.23 
398.81 -28.10 -5.67 
398.80 -28.13 -4.93 
398.43 -27.84 -4.20 
398.77 -27.87 -3.90 
398.40 -28.04 -2.95 
398.38 -27.95 -2.19 
398.34 -28.14 -1.75 
398.36 -28.00 -1.18 
399.10 -27.58 -4.76 
399.09 -27.61 -3.93 
399.07 -27.64 -3.10 
399.07 -27.63 -1.95 
399.05 -27.70 -1.43 
400.94 -27.78 -3.83 
400.87 -27.75 -2.90 
400.79 -27.72 -1.96 
400.72 -27.62 -1.80 
400.71 -27.69 -1.02 
402.55 -27.61 -5.43 
402.50 -27.59 -4.57 
402.45 -27.57 -3.70 
403.49 -27.75 -5.50 
403.46 -27.72 -4.98 
403.57 -27.74 -4.29 
403.54 -27.73 -3.81 
403.48 -27.71 -2.85 
403.61 -27.69 -2.11 
403.61 -27.70 -1.41 
404.15 -28.07 -5.53 
404.13 -28.07 -5.11 
404.16 -28.01 -4.28 
404.17 -28.14 -3.66 
404.05 -28.02 -2.92 
404.00 -27.95 -2.05 
404.00 -27.88 -1.40 
403.96 -27.74 -0.99 
404.59 -28.25 -5.65 
404.43 -27.92 -5.40 
404.55 -27.98 -4.22 
404.52 -27.97 -3.49 
404.55 -28.12 -2.88 
404.55 -28.13 -2.20 
404.55 -28.14 -1.52 
405.55 -28.31 -5.39 
410.33 -27.91 -5.78 
411.50 -28.01 -5.49 
411.37 -27.78 -5.20 
411.74 -27.85 -5.70 
411.79 -27.77 -5.32 
413.37 -28.25 -5.74 
413.68 -27.70 -5.71 
414.83 -27.75 -5.22 
415.54 -27.79 -5.46 
415.46 -27.65 -5.31 
415.95 -27.82 -5.34 
397.87 -27.28 -5.82 
397.84 -27.34 -5.40 
397.74 -27.53 -4.12 
398.67 -26.92 -5.77 
398.81 -27.27 -5.28 
398.60 -27.04 -4.27 
398.58 -27.08 -3.77 
398.56 -27.12 -3.26 
398.67 -27.51 -2.38 
398.63 -27.56 -1.79 
399.34 -26.90 -5.78 
399.27 -26.87 -4.88 
399.07 -27.27 -4.58 
399.42 -26.96 -3.94 
399.23 -26.93 -3.08 
399.22 -26.97 -2.16 
399.39 -27.05 -1.46 
400.69 -26.93 -4.27 
400.69 -26.93 -3.27 
402.08 -27.02 -5.54 
402.06 -26.98 -5.00 
402.08 -27.02 -4.44 
402.16 -27.09 -3.72 
402.21 -27.09 -3.05 
402.30 -27.05 -2.39 
402.33 -27.14 -1.62 
402.59 -27.27 -5.56 
402.78 -27.36 -4.99 
402.71 -27.33 -4.38 
402.67 -27.36 -3.71 
402.63 -27.30 -2.98 
402.86 -27.32 -2.29 
402.33 -27.14 -1.62 
402.50 -27.09 -1.22 
403.12 -27.54 -5.59 
403.54 -27.46 -5.01 
403.38 -27.40 -4.51 
403.49 -27.45 -3.61 
403.62 -27.27 -3.21 
403.35 -27.47 -2.38 
403.27 -27.50 -1.32 
403.23 -27.42 -1.15 
410.82 -27.01 -5.76 
411.98 -27.29 -5.63 
412.14 -27.07 -5.41 
412.40 -27.15 -5.83 
412.85 -26.88 -5.22 
413.86 -26.97 -5.53 
414.66 -26.93 -5.09 
415.65 -27.27 -5.67 
415.29 -27.35 -5.25 
415.92 -27.34 -5.69 
415.94 -27.29 -5.16 
398.74 -26.21 -5.56 
398.72 -26.25 -5.13 
398.67 -26.34 -4.27 
398.65 -26.39 -3.83 
398.85 -26.56 -3.30 
398.95 -26.36 -5.76 
398.93 -26.40 -5.27 
399.36 -26.71 -4.59 
399.35 -26.73 -3.95 
399.25 -26.37 -3.02 
399.23 -26.42 -2.45 
399.20 -26.46 -1.87 
399.77 -26.27 -5.56 
399.73 -26.30 -4.92 
399.71 -26.34 -4.20 
399.70 -26.37 -3.47 
399.74 -26.35 -3.13 
399.68 -26.42 -2.00 
400.66 -26.27 -5.57 
400.75 -26.32 -5.01 
400.63 -26.28 -4.47 
400.68 -26.29 -3.71 
400.80 -26.27 -3.16 
400.52 -26.18 -2.37 
400.81 -26.74 -1.33 
401.38 -26.63 -5.55 
401.43 -26.58 -5.09 
401.41 -26.68 -4.46 
401.28 -26.58 -3.68 
401.29 -26.53 -3.08 
401.26 -26.52 -2.57 
401.15 -26.54 -1.81 
401.68 -26.67 -1.18 
401.99 -26.85 -5.56 
401.95 -26.84 -5.05 
401.76 -26.85 -4.27 
401.73 -26.84 -3.67 
401.81 -26.79 -3.00 
401.71 -26.66 -2.44 
401.71 -26.66 -1.78 
401.71 -26.67 -1.12 
402.52 -26.66 -5.41 
402.60 -26.73 -4.68 
402.51 -26.68 -3.90 
402.51 -26.69 -3.14 
402.60 -26.76 -2.48 
412.13 -26.72 -5.66 
412.57 -26.51 -5.52 
412.45 -26.60 -5.33 
413.39 -26.32 -5.90 
413.02 -26.55 -5.42 
415.51 -26.46 -5.70 
415.51 -26.46 -5.20 
416.01 -26.56 -5.64 
416.16 -26.58 -5.01 
416.60 -26.18 -5.17 
398.48 -26.10 -5.81 
398.46 -26.15 -5.42 
399.34 -25.59 -5.60 
399.36 -25.58 -5.13 
399.32 -25.60 -4.47 
399.16 -25.53 -3.72 
399.38 -25.59 -2.89 
399.48 -25.85 -2.48 
399.45 -25.90 -1.92 
400.01 -25.85 -5.70 
400.00 -25.94 -5.21 
400.00 -25.87 -4.46 
399.96 -25.94 -3.73 
399.99 -25.89 -2.86 
399.98 -25.89 -2.32 
399.83 -25.68 -1.89 
400.48 -26.09 -5.66 
400.56 -26.16 -5.03 
400.55 -26.16 -4.48 
400.52 -26.15 -3.66 
400.74 -26.01 -2.89 
400.75 -25.62 -2.45 
400.74 -26.00 -1.80 
401.33 -26.03 -5.42 
401.33 -26.04 -4.63 
401.33 -26.06 -3.85 
401.48 -25.48 -2.96 
401.22 -25.52 -1.69 
411.30 -25.76 -5.61 
412.73 -25.73 -5.73 
412.72 -25.81 -5.28 
413.10 -25.67 -5.69 
412.95 -25.81 -5.38 
413.75 -25.67 -5.89 
415.00 -25.74 -5.59 
415.31 -25.88 -5.81 
415.31 -25.88 -5.14 
416.05 -25.87 -5.64 
416.05 -25.87 -5.23 
416.69 -25.68 -5.81 
416.81 -25.81 -5.17 
417.15 -25.48 -5.04 
398.51 -25.16 -5.61 
398.71 -25.26 -5.00 
398.69 -25.26 -4.28 
398.68 -25.26 -3.91 
398.84 -25.28 -2.76 
398.93 -25.38 -5.60 
398.92 -25.38 -5.06 
398.96 -25.40 -4.63 
398.85 -25.27 -3.88 
399.03 -24.87 -3.00 
400.07 -25.36 -5.42 
400.06 -25.38 -4.61 
400.05 -25.39 -3.80 
400.05 -25.40 -2.99 
401.27 -25.36 -5.50 
401.37 -24.78 -5.01 
401.26 -25.40 -4.56 
401.50 -25.45 -3.83 
401.33 -24.88 -2.97 
401.31 -24.93 -1.94 
401.57 -24.78 -1.70 
402.04 -25.20 -5.84 
405.14 -25.15 -5.24 
405.12 -25.18 -4.50 
405.14 -25.31 -3.57 
405.12 -25.35 -2.84 
405.09 -25.39 -2.10 
405.40 -24.79 -3.54 
405.39 -25.19 -2.88 
405.37 -25.22 -2.15 
411.76 -25.28 -5.72 
411.52 -25.40 -5.23 
412.93 -25.01 -5.58 
412.74 -24.99 -5.21 
413.14 -25.18 -5.74 
413.23 -25.29 -5.36 
413.79 -25.03 -5.79 
413.79 -24.79 -5.37 
414.97 -25.10 -5.88 
415.33 -25.19 -5.69 
415.57 -25.37 -5.13 
416.14 -24.79 -5.65 
416.13 -24.79 -5.09 
415.91 -25.07 -4.56 
416.80 -25.27 -5.56 
416.80 -25.26 -5.30 
417.30 -25.19 -5.04 
398.70 -24.65 -5.43 
398.69 -24.66 -4.59 
398.68 -24.67 -3.75 
401.62 -24.62 -5.48 
401.17 -24.71 -4.65 
401.16 -24.74 -3.56 
401.70 -24.09 -2.95 
401.68 -24.14 -1.93 
402.35 -24.57 -5.84 
401.83 -24.64 -4.72 
401.81 -24.68 -3.85 
401.80 -24.72 -2.98 
402.11 -24.07 -2.11 
402.09 -24.11 -1.23 
405.53 -24.20 -6.29 
405.69 -24.18 -4.97 
405.39 -24.64 -4.48 
405.54 -24.33 -3.67 
405.63 -24.30 -2.79 
405.61 -24.19 -2.24 
407.29 -24.23 -6.26 
407.37 -24.43 -6.28 
413.36 -24.45 -6.19 
413.36 -24.57 -5.66 
413.35 -24.48 -5.39 
413.76 -24.38 -5.74 
414.05 -24.21 -5.35 
414.91 -24.52 -5.75 
415.28 -24.49 -5.87 
416.36 -24.36 -5.64 
416.08 -24.38 -5.11 
416.00 -24.39 -4.51 
416.97 -24.45 -5.60 
416.96 -24.45 -5.18 
416.95 -24.47 -4.34 
417.30 -24.29 -5.78 
417.24 -24.40 -5.05 
401.57 -23.87 -4.64 
401.56 -23.90 -3.55 
401.55 -23.93 -2.46 
402.16 -23.93 -5.57 
401.74 -23.99 -4.98 
402.15 -23.96 -4.71 
402.13 -24.00 -3.84 
401.93 -24.01 -2.65 
401.91 -24.04 -1.71 
402.65 -23.94 -5.84 
402.94 -23.37 -3.47 
402.94 -23.39 -2.67 
402.42 -23.39 -2.12 
402.94 -23.40 -1.87 
404.80 -23.84 -6.31 
405.90 -23.80 -4.47 
405.82 -23.77 -3.56 
405.88 -23.78 -2.76 
405.87 -23.65 -2.23 
405.93 -23.53 -5.18 
405.92 -23.56 -4.45 
406.97 -23.85 -6.28 
413.59 -23.73 -5.49 
414.12 -23.98 -5.90 
413.64 -23.91 -5.38 
414.38 -23.41 -5.88 
415.59 -23.88 -5.86 
416.08 -23.76 -5.64 
416.11 -24.06 -5.33 
416.37 -24.01 -4.37 
416.78 -23.53 -5.62 
416.78 -23.53 -5.07 
416.56 -23.76 -4.72 
417.53 -23.55 -5.54 
417.49 -23.51 -5.16 
402.31 -23.16 -5.44 
402.10 -23.21 -4.95 
401.96 -23.04 -4.63 
402.28 -23.24 -3.58 
402.06 -23.31 -2.94 
401.94 -23.10 -2.47 
402.25 -23.32 -1.71 
402.94 -23.33 -5.83 
402.94 -23.34 -5.05 
402.94 -23.36 -4.26 
402.45 -23.33 -3.84 
403.06 -23.17 -2.85 
402.72 -22.73 -2.12 
402.95 -23.13 -1.84 
403.24 -22.72 -5.83 
403.24 -22.74 -5.05 
403.23 -22.75 -4.27 
403.23 -22.77 -3.48 
403.23 -22.78 -2.69 
403.23 -22.79 -1.90 
404.55 -23.00 -5.55 
404.55 -23.02 -4.82 
404.54 -23.04 -4.08 
406.23 -22.97 -6.32 
406.13 -23.26 -2.73 
407.70 -22.91 -6.17 
409.88 -23.25 -6.15 
410.32 -23.19 -6.00 
414.22 -22.81 -6.00 
414.22 -22.81 -6.00 
414.21 -22.77 -5.34 
414.63 -22.84 -5.86 
414.56 -23.06 -5.32 
415.59 -23.19 -5.73 
415.90 -23.27 -5.85 
416.99 -23.05 -5.63 
416.98 -23.06 -5.16 
417.03 -22.92 -4.71 
417.43 -23.36 -5.56 
417.43 -23.36 -5.25 
402.78 -22.59 -5.53 
402.77 -22.63 -4.68 
402.75 -22.66 -3.83 
403.52 -22.12 -5.83 
409.38 -22.34 -5.81 
409.37 -22.37 -5.30 
409.72 -22.25 -5.76 
409.71 -22.27 -5.34 
410.42 -22.48 -6.16 
410.41 -22.50 -5.44 
410.90 -22.00 -6.14 
414.51 -22.23 -5.99 
416.16 -22.66 -5.84 
417.32 -22.43 -6.03 
417.31 -22.44 -5.14 
417.30 -22.45 -4.70 
408.61 -21.68 -5.84 
408.56 -21.76 -5.35 
408.99 -21.45 -5.70 
408.99 -21.45 -5.34 
410.05 -21.56 -6.15 
409.79 -21.57 -5.77 
409.81 -21.53 -5.28 
410.68 -21.94 -6.14 
410.27 -21.70 -5.53 
410.19 -21.28 -5.30 
410.94 -21.42 -6.13 
411.10 -21.42 -5.82 
410.93 -21.44 -5.41 
411.73 -21.38 -6.35 
398.71 -20.67 -6.05 
399.85 -20.90 -5.98 
400.70 -20.90 -5.92 
401.59 -20.90 -5.86 
406.27 -21.12 -6.22 
408.64 -20.87 -5.97 
409.09 -21.11 -6.18 
409.15 -20.66 -5.80 
409.19 -21.06 -5.34 
409.96 -21.23 -5.76 
409.95 -21.26 -5.28 
410.21 -21.24 -6.13 
410.36 -20.94 -5.70 
410.51 -20.64 -5.28 
411.45 -20.88 -6.36 
411.39 -20.83 -5.80 
411.18 -20.92 -5.40 
411.89 -20.98 -6.48 
411.67 -20.57 -6.08 
412.29 -20.97 -6.48 
397.01 -19.99 -6.14 
399.82 -20.54 -6.14 
400.44 -20.44 -6.11 
401.07 -20.34 -6.08 
402.40 -20.13 -6.01 
403.12 -20.03 -5.97 
407.28 -20.23 -6.41 
408.70 -19.92 -5.47 
408.96 -20.23 -5.95 
409.93 -20.37 -6.50 
409.74 -20.02 -5.66 
409.66 -20.18 -5.33 
410.29 -19.96 -6.48 
410.67 -20.31 -5.67 
410.67 -20.33 -5.27 
411.17 -20.37 -6.38 
411.05 -20.16 -5.97 
411.36 -20.13 -5.42 
412.07 -20.52 -6.47 
411.68 -20.24 -5.78 
413.49 -20.37 -6.37 
416.85 -20.22 -5.99 
394.35 -19.37 -6.37 
395.60 -19.44 -6.22 
404.05 -19.46 -6.36 
405.02 -19.29 -6.63 
405.36 -19.28 -6.60 
406.45 -19.17 -6.66 
406.83 -19.52 -6.44 
407.36 -19.46 -6.51 
408.02 -19.40 -6.39 
409.28 -19.60 -5.92 
409.95 -19.31 -6.39 
409.93 -19.66 -5.76 
410.67 -19.79 -6.15 
410.66 -19.82 -5.69 
410.65 -19.84 -5.24 
410.99 -19.71 -5.65 
410.83 -19.49 -5.23 
411.97 -19.65 -5.76 
411.58 -19.69 -5.40 
412.32 -19.22 -5.86 
413.21 -19.59 -6.39 
415.20 -19.31 -6.08 
416.14 -19.82 -6.09 
392.92 -18.99 -6.43 
393.63 -18.90 -6.51 
394.46 -18.56 -6.46 
400.67 -18.60 -6.35 
404.91 -18.93 -6.56 
405.57 -18.93 -6.53 
406.43 -18.92 -6.46 
407.05 -18.82 -6.77 
407.59 -18.84 -6.43 
408.55 -19.06 -6.49 
409.29 -18.81 -5.95 
408.77 -18.85 -5.32 
409.74 -19.00 -6.42 
409.75 -18.71 -5.49 
410.50 -19.05 -6.42 
410.21 -18.58 -5.86 
410.20 -18.59 -5.41 
411.19 -18.77 -5.64 
411.18 -18.79 -5.20 
411.77 -18.69 -5.90 
411.76 -18.71 -5.41 
412.26 -19.07 -5.74 
414.16 -18.73 -6.20 
415.52 -18.75 -5.88 
392.72 -18.15 -6.36 
393.72 -18.44 -6.47 
399.50 -18.29 -6.37 
403.28 -17.97 -6.59 
404.11 -18.18 -6.71 
404.97 -18.19 -6.59 
405.70 -17.95 -6.50 
405.99 -18.28 -6.48 
407.13 -18.27 -6.47 
407.63 -18.01 -6.55 
408.59 -18.28 -6.52 
409.90 -18.42 -5.48 
410.55 -17.92 -5.54 
410.40 -18.20 -5.40 
411.37 -18.42 -6.06 
411.41 -18.36 -5.19 
411.81 -18.26 -6.36 
411.64 -17.89 -5.74 
411.92 -18.36 -5.38 
412.78 -17.77 -6.27 
412.42 -18.36 -6.03 
412.21 -18.40 -5.37 
413.23 -18.22 -6.19 
414.27 -18.14 -5.88 
414.18 -17.92 -4.96 
414.13 -17.92 -4.30 
414.53 -18.17 -5.76 
414.40 -17.91 -4.13 
402.18 -17.27 -6.27 
402.79 -17.13 -6.57 
403.32 -17.20 -6.76 
404.36 -17.72 -6.71 
405.15 -17.25 -6.54 
405.39 -17.60 -6.52 
406.79 -17.62 -6.51 
407.55 -17.47 -6.58 
408.34 -17.74 -6.61 
410.64 -17.68 -6.39 
410.63 -17.68 -6.10 
413.00 -17.63 -6.15 
414.28 -17.71 -4.29 
394.46 -16.45 -6.54 
395.23 -16.44 -6.54 
402.05 -16.52 -6.66 
402.91 -16.80 -6.80 
403.17 -17.05 -6.78 
404.27 -16.45 -6.69 
404.77 -16.48 -6.69 
405.58 -16.54 -6.68 
406.37 -16.60 -6.56 
406.88 -16.92 -6.60 
410.57 -16.80 -6.33 
412.04 -16.98 -6.31 
396.53 -16.05 -6.54 
401.60 -16.35 -6.70 
402.10 -16.20 -6.63 
402.84 -16.26 -6.71 
403.46 -16.26 -6.56 
403.96 -16.05 -6.62 
406.29 -15.81 -6.64 
408.45 -16.04 -6.58 
409.02 -15.69 -6.41 
399.17 -15.01 -6.59 
399.90 -15.54 -6.57 
400.51 -15.41 -6.57 
401.16 -15.30 -6.56 
401.81 -15.17 -6.55 
402.65 -15.32 -6.68 
403.44 -15.60 -6.66 
403.82 -15.13 -6.63 
404.87 -15.18 -6.60 
405.51 -15.26 -6.58 
406.19 -15.36 -6.57 
407.95 -15.01 -6.65 
408.19 -15.37 -6.63 
408.81 -15.06 -6.42 
399.49 -14.87 -6.63 
400.06 -14.73 -6.62 
400.62 -14.83 -6.79 
401.39 -14.65 -6.69 
402.67 -14.53 -6.53 
409.04 -14.71 -6.48 
