# .PCD v0.7 - Point Cloud Data file format
VERSION 0.7
FIELDS x y z
SIZE 4 4 4
TYPE F F F
COUNT 1 1 1
WIDTH 542
HEIGHT 1
VIEWPOINT 0 0 0 1 0 0 0
POINTS 542
DATA ascii
420.56 135.70 -3.68 
420.89 136.03 -3.36 
421.52 135.82 -3.24 
421.75 135.84 -2.76 
421.91 135.64 -3.91 
421.93 136.02 -3.61 
422.34 135.58 -2.93 
422.93 135.87 -3.34 
422.96 135.60 -2.94 
423.53 135.78 -3.46 
423.75 135.73 -2.70 
424.26 135.73 -3.35 
424.15 135.62 -2.90 
425.13 135.53 -3.35 
425.12 135.97 -2.91 
425.79 136.11 -3.09 
425.41 135.96 -2.79 
426.19 136.06 -3.32 
426.71 135.77 -2.81 
427.02 135.75 -3.26 
428.01 135.79 -3.37 
428.50 135.68 -3.27 
429.30 135.50 -3.34 
430.17 135.95 -3.26 
439.32 136.08 -3.16 
439.02 135.96 -2.33 
438.95 135.74 -2.08 
439.51 135.80 -3.17 
439.53 135.77 -2.58 
439.75 135.87 -2.22 
440.71 135.87 -3.08 
440.71 135.81 -2.54 
440.43 135.82 -2.08 
441.24 135.74 -3.05 
441.16 135.74 -2.50 
441.31 135.89 -2.02 
441.28 135.94 -1.38 
441.27 135.57 -0.62 
441.77 135.75 -3.30 
441.73 135.85 -2.57 
441.87 135.84 -1.97 
441.80 135.82 -1.25 
441.88 135.85 -0.37 
441.96 135.96 0.47 
442.11 135.70 1.08 
442.18 135.94 -3.34 
442.38 135.97 -2.63 
442.19 135.74 -2.20 
442.59 135.52 -1.08 
442.12 135.72 -0.35 
442.58 135.50 0.28 
418.63 136.72 -3.14 
419.36 136.70 -3.99 
419.44 136.72 -3.48 
419.98 136.24 -3.72 
419.88 136.70 -3.27 
420.88 136.71 -4.13 
420.73 136.60 -3.22 
420.90 136.81 -2.78 
421.37 136.69 -4.09 
421.52 136.49 -3.29 
421.44 136.59 -2.95 
422.28 136.32 -3.76 
422.11 136.66 -3.43 
422.19 136.66 -2.70 
422.66 136.75 -3.87 
422.77 136.60 -3.21 
423.75 136.82 -3.66 
423.42 136.58 -3.32 
424.06 136.62 -3.74 
424.15 136.69 -3.39 
424.42 136.72 -2.95 
424.99 136.63 -3.30 
425.13 136.55 -2.82 
425.66 136.60 -3.08 
425.66 136.60 -3.08 
426.41 136.62 -3.47 
426.04 136.27 -2.95 
427.42 136.70 -3.71 
427.12 136.70 -3.28 
427.10 136.24 -2.93 
427.42 136.70 -3.71 
427.65 136.39 -3.06 
428.35 136.55 -3.71 
428.27 136.65 -3.64 
439.66 136.47 -2.57 
439.60 136.62 -1.83 
440.44 136.51 -3.28 
440.21 136.69 -2.34 
440.17 136.33 -2.00 
441.27 136.79 -3.01 
441.39 136.34 -2.55 
440.87 136.31 -2.05 
441.76 136.36 -3.30 
441.79 136.47 -2.59 
441.70 136.36 -1.94 
441.80 136.54 -1.01 
441.78 136.50 -0.25 
441.47 136.44 0.14 
442.52 136.34 -3.17 
442.50 136.51 -2.61 
442.31 136.71 -2.15 
442.38 136.77 -1.35 
419.01 137.33 -3.73 
418.77 137.49 -3.09 
419.41 137.51 -4.06 
419.52 137.20 -3.28 
420.23 137.14 -3.68 
420.10 137.13 -3.17 
420.75 137.21 -4.18 
421.01 137.45 -3.46 
420.42 137.28 -2.76 
421.42 137.25 -4.11 
421.51 137.29 -3.34 
421.66 137.23 -2.74 
422.20 137.57 -3.74 
422.12 137.40 -3.07 
422.05 137.06 -2.72 
422.88 137.34 -3.76 
422.92 137.23 -3.23 
422.88 137.42 -2.90 
423.61 137.39 -3.61 
423.63 137.26 -3.44 
423.52 137.00 -2.99 
424.29 137.38 -3.21 
424.16 137.30 -2.97 
424.98 137.25 -3.51 
424.91 137.39 -2.80 
425.74 137.22 -3.29 
425.61 137.08 -2.77 
426.40 137.35 -3.45 
426.42 137.20 -3.07 
426.90 137.15 -3.68 
426.80 137.20 -3.18 
427.58 137.16 -3.43 
428.23 137.06 -3.65 
439.93 137.12 -3.04 
439.93 137.08 -2.28 
439.96 137.01 -2.04 
440.31 137.01 -3.03 
440.26 137.40 -2.61 
440.23 137.39 -2.03 
441.16 137.11 -2.95 
441.14 137.19 -2.29 
441.21 137.12 -2.03 
441.85 136.97 -3.16 
441.80 137.24 -2.38 
441.82 137.36 -2.04 
442.35 137.31 -2.96 
442.57 137.03 -2.59 
442.60 137.38 -2.07 
442.54 137.13 -1.34 
417.87 138.19 -4.11 
417.98 138.27 -3.64 
418.86 137.95 -3.92 
418.89 138.08 -3.39 
419.35 137.83 -3.68 
419.24 137.98 -3.49 
420.00 137.95 -3.83 
420.20 138.02 -3.15 
420.19 138.25 -2.77 
420.46 137.79 -3.70 
420.68 137.97 -3.25 
421.02 137.88 -2.85 
421.70 137.75 -3.74 
421.30 137.93 -3.22 
421.54 138.02 -2.99 
422.50 137.95 -3.71 
422.36 137.82 -3.34 
422.27 138.00 -2.93 
423.08 137.94 -3.73 
422.98 137.99 -3.22 
422.84 137.98 -2.84 
423.40 138.03 -3.74 
423.68 138.04 -3.30 
423.49 137.95 -2.88 
424.29 137.82 -3.61 
424.38 137.89 -3.30 
424.46 137.74 -2.95 
425.00 137.93 -3.43 
424.94 138.00 -2.82 
425.64 137.70 -3.69 
425.58 137.87 -3.50 
425.75 137.74 -2.65 
426.50 138.06 -3.69 
426.49 137.92 -3.55 
426.97 137.79 -3.72 
426.86 137.71 -3.55 
427.58 138.12 -3.37 
440.65 138.23 -3.37 
440.39 137.59 -2.53 
440.24 138.01 -1.93 
441.11 137.86 -2.31 
441.05 138.10 -2.22 
441.94 137.84 -2.66 
441.75 137.71 -1.93 
442.38 137.69 -2.58 
442.27 137.83 -2.19 
418.18 138.49 -4.13 
418.04 138.96 -3.55 
418.80 138.71 -3.71 
418.80 138.52 -3.37 
418.42 138.85 -2.87 
419.43 138.46 -4.08 
419.32 138.56 -3.19 
419.13 138.64 -2.83 
420.41 138.35 -3.97 
419.81 138.69 -3.21 
419.89 138.50 -2.92 
420.60 138.63 -3.57 
420.67 138.60 -3.28 
421.07 138.45 -2.75 
421.49 138.55 -3.55 
421.67 138.65 -3.33 
421.24 138.38 -2.75 
422.06 138.43 -3.77 
422.17 138.64 -3.31 
421.99 138.49 -2.81 
422.65 138.35 -3.77 
422.93 138.59 -3.45 
422.63 138.87 -2.92 
423.57 138.42 -3.85 
423.59 138.71 -3.29 
423.60 138.77 -2.89 
424.29 138.67 -3.01 
424.17 138.47 -2.82 
424.91 138.64 -3.71 
424.92 138.54 -3.54 
424.64 138.49 -2.86 
425.33 138.94 -3.72 
425.57 138.54 -3.51 
425.73 138.79 -2.82 
426.20 138.52 -3.61 
426.79 138.35 -3.77 
440.71 138.35 -3.00 
440.36 138.37 -2.70 
440.37 138.33 -2.03 
441.38 138.79 -3.03 
441.14 138.82 -2.74 
441.17 138.53 -2.06 
441.70 138.51 -3.08 
441.61 138.81 -2.73 
441.69 138.68 -2.30 
442.43 138.69 -3.18 
442.36 138.47 -2.62 
442.34 138.54 -1.99 
417.90 139.42 -4.16 
417.80 139.29 -3.57 
418.70 139.11 -3.94 
418.73 139.25 -3.44 
418.85 139.15 -2.73 
419.54 139.17 -3.68 
419.43 139.27 -3.30 
419.13 139.40 -2.92 
420.02 139.33 -3.16 
420.05 139.22 -3.06 
420.68 139.23 -3.76 
420.53 139.39 -3.31 
420.75 139.41 -2.77 
421.26 139.44 -3.75 
421.48 139.35 -3.27 
421.42 139.34 -2.88 
422.28 139.40 -3.15 
422.22 139.46 -2.74 
422.78 139.15 -3.14 
422.97 139.38 -3.03 
423.56 139.04 -3.18 
423.65 139.23 -2.93 
424.61 139.19 -3.69 
424.22 139.18 -3.40 
424.42 139.49 -2.70 
424.79 139.59 -3.05 
425.28 139.11 -2.77 
425.34 139.53 -3.30 
426.45 139.16 -3.26 
426.80 139.34 -3.38 
427.52 139.18 -3.40 
440.41 139.01 -2.60 
441.39 139.55 -3.30 
441.34 139.26 -1.90 
442.01 139.42 -3.06 
441.77 139.31 -2.56 
441.95 139.41 -1.98 
442.35 139.48 -3.07 
442.31 139.08 -2.93 
442.25 139.41 -2.09 
417.95 140.02 -3.28 
418.30 139.96 -2.95 
418.53 139.76 -3.35 
418.67 139.92 -2.71 
419.23 139.86 -3.16 
419.34 140.13 -2.75 
419.84 140.01 -3.75 
419.98 139.85 -3.27 
419.87 139.89 -2.68 
420.46 139.78 -3.73 
420.71 139.95 -3.25 
420.90 139.80 -2.82 
421.37 140.07 -3.36 
421.42 140.09 -2.96 
422.17 139.89 -3.07 
422.81 140.09 -2.98 
422.63 139.78 -2.83 
423.43 139.86 -3.12 
424.10 139.80 -3.13 
424.16 140.13 -2.84 
424.97 140.07 -3.34 
425.23 139.80 -2.70 
441.31 139.80 -3.29 
441.28 140.34 -1.84 
441.81 139.80 -3.24 
441.88 140.02 -2.51 
441.69 140.03 -1.84 
442.34 139.99 -3.35 
442.38 139.97 -2.49 
442.15 139.96 -2.19 
417.85 140.75 -3.48 
418.30 140.99 -2.82 
418.66 140.94 -3.33 
418.89 140.57 -2.81 
419.27 140.93 -3.25 
419.65 140.57 -2.91 
420.00 140.83 -3.19 
419.78 140.45 -2.82 
420.67 140.94 -3.68 
420.61 140.55 -3.25 
421.15 140.65 -3.10 
421.81 140.79 -2.80 
422.02 140.86 -3.36 
422.86 140.62 -3.14 
423.06 140.65 -2.86 
423.60 140.92 -3.32 
426.62 141.05 -3.37 
441.91 140.84 -3.14 
442.10 140.84 -2.79 
441.80 140.67 -2.07 
442.21 140.60 -3.09 
442.42 140.70 -2.78 
442.51 140.53 -2.19 
417.90 141.15 -3.07 
418.09 141.58 -2.90 
418.43 141.69 -3.78 
418.43 141.19 -3.43 
418.75 141.16 -2.74 
419.17 141.39 -3.21 
419.39 141.09 -2.81 
420.08 141.45 -3.06 
420.91 141.25 -3.85 
420.93 141.13 -3.19 
425.44 141.66 -3.39 
442.04 141.48 -2.74 
442.44 141.44 -3.07 
442.49 141.28 -2.80 
442.59 141.11 -2.10 
418.19 142.01 -3.26 
417.81 141.96 -2.95 
418.24 142.24 -3.15 
419.11 142.38 -3.55 
442.30 141.94 -2.45 
418.20 143.06 -3.11 
418.25 143.02 -2.95 
418.57 143.02 -3.41 
419.38 143.84 -3.69 
428.98 144.09 -3.32 
420.40 144.96 -3.42 
430.78 144.96 -2.88 
431.01 145.07 -3.10 
431.78 145.27 -3.04 
431.86 145.20 -2.95 
422.82 145.91 -3.57 
428.67 145.80 -3.08 
430.80 145.74 -3.06 
430.25 145.34 -2.90 
431.00 145.79 -3.11 
427.11 146.32 -3.46 
427.60 146.32 -3.06 
427.82 146.59 -2.75 
427.83 146.58 -2.03 
427.83 146.58 -1.31 
427.63 146.64 -0.58 
427.85 146.56 0.15 
427.65 146.62 0.88 
427.65 146.61 1.61 
427.66 146.61 2.35 
427.67 146.60 3.09 
428.24 146.26 -3.25 
428.74 146.48 -2.47 
428.81 146.54 -1.87 
428.81 146.53 -1.08 
428.47 146.40 -0.74 
428.48 146.40 0.01 
428.49 146.39 0.77 
428.50 146.38 1.53 
428.15 146.55 2.17 
428.16 146.55 2.93 
429.01 146.48 -2.87 
429.03 146.65 -2.08 
429.04 146.64 -1.28 
421.22 146.89 -3.22 
421.94 147.15 -3.74 
421.96 147.30 -3.20 
427.00 146.69 -2.84 
427.21 146.84 -2.12 
427.22 146.84 -1.41 
427.22 146.83 -0.70 
427.23 146.83 0.02 
427.38 146.73 0.85 
427.39 146.73 1.58 
427.40 146.72 2.31 
427.40 146.71 3.05 
427.83 146.77 -2.99 
427.75 146.99 -2.90 
428.52 147.20 -3.39 
429.11 146.93 -3.14 
428.87 146.71 -2.85 
418.02 147.56 -4.37 
418.49 147.92 -4.30 
426.19 148.00 -3.08 
427.83 148.00 -3.08 
428.47 147.70 -3.39 
428.59 147.83 -2.81 
428.17 148.07 -2.18 
429.12 147.86 -2.81 
429.00 147.50 -2.06 
429.11 147.82 -0.94 
428.98 147.51 -0.73 
418.87 148.13 -4.03 
422.42 148.59 -4.16 
422.30 148.57 -0.23 
424.56 148.77 -3.04 
426.19 148.58 -3.11 
426.28 148.76 -2.97 
427.34 148.53 -4.01 
427.02 148.62 -3.39 
426.89 148.60 -2.97 
426.79 148.63 -2.23 
426.80 148.61 1.76 
427.59 148.68 -3.98 
427.51 148.52 -3.01 
427.46 148.53 -2.96 
427.59 148.48 -2.21 
428.29 148.25 -2.19 
428.29 148.26 -1.52 
428.84 148.26 -2.87 
421.74 149.46 -4.28 
422.18 149.25 -4.15 
422.69 149.22 -3.07 
422.82 149.27 -2.97 
423.61 149.35 -3.11 
423.54 149.39 -2.63 
423.98 149.04 -3.11 
424.54 149.46 -2.89 
424.66 149.30 -3.15 
425.21 149.33 -2.97 
424.78 149.32 -1.56 
424.76 149.33 -0.83 
425.80 149.38 -3.13 
425.94 149.34 -2.77 
426.66 149.12 -3.44 
426.70 149.15 -2.34 
426.69 149.14 -0.79 
426.69 149.10 2.32 
427.28 149.11 -3.91 
426.93 148.89 -3.43 
427.11 149.04 -2.51 
427.11 149.04 -1.69 
426.83 149.08 -1.48 
427.29 148.87 -0.78 
427.09 149.05 -0.06 
427.09 149.05 0.77 
427.08 149.05 1.59 
426.83 149.13 2.45 
427.46 149.32 -3.97 
423.12 149.59 -3.11 
423.73 150.01 -3.28 
423.77 149.93 -2.39 
423.80 149.95 -1.46 
423.83 149.99 -0.53 
423.85 150.02 0.40 
424.60 149.66 -3.24 
424.56 149.95 -2.96 
424.50 149.98 -2.18 
424.50 149.98 -1.38 
424.50 149.99 -0.75 
424.49 150.00 0.52 
425.30 149.80 -3.24 
425.08 149.65 -2.88 
425.13 149.89 -2.24 
425.26 149.60 -1.06 
425.25 149.61 -0.36 
425.24 149.61 0.34 
425.24 149.61 1.05 
424.66 149.80 1.36 
425.85 150.08 -3.24 
425.70 149.78 -2.98 
426.43 149.77 -3.33 
423.57 150.52 -3.20 
424.27 150.47 -1.89 
424.15 150.56 -1.06 
424.27 150.45 -0.83 
424.14 150.57 0.12 
424.15 150.57 0.72 
424.27 150.42 1.30 
425.24 150.73 -2.51 
425.18 150.21 -1.75 
425.17 150.21 -1.14 
425.17 150.21 -0.53 
425.03 150.62 0.17 
425.17 150.22 0.70 
425.01 150.58 1.46 
425.48 150.24 -3.50 
425.83 150.40 -2.74 
426.39 150.49 -3.22 
426.61 150.31 -2.77 
423.68 151.11 -3.18 
423.97 151.54 -3.18 
425.85 151.15 -3.37 
425.68 151.04 -2.51 
426.88 150.97 -3.23 
424.33 152.11 -3.12 
425.12 151.90 -3.20 
426.46 152.93 -3.34 
426.93 153.85 -3.33 
418.97 155.70 -0.46 
418.56 156.11 -0.45 
419.05 156.27 -0.44 
418.16 156.52 -0.45 
419.09 157.18 -0.66 
418.70 158.46 -2.85 
418.70 158.46 -2.08 
432.99 159.01 -2.94 
433.39 158.98 -2.64 
433.59 159.35 -2.90 
434.25 159.87 -2.65 
436.89 159.71 -2.64 
439.03 159.42 -2.62 
432.84 160.43 -3.11 
433.03 160.08 -2.98 
433.66 160.31 -2.55 
433.66 160.31 -2.55 
436.44 160.40 -2.66 
436.83 160.23 -2.74 
