# .PCD v0.7 - Point Cloud Data file format
VERSION 0.7
FIELDS x y z
SIZE 4 4 4
TYPE F F F
COUNT 1 1 1
WIDTH 1946
HEIGHT 1
VIEWPOINT 0 0 0 1 0 0 0
POINTS 1946
DATA ascii
417.98 110.68 -3.16 
418.02 110.73 -2.63 
417.97 110.98 -1.81 
418.17 110.97 -1.28 
418.03 110.84 -0.69 
417.62 111.06 -0.14 
418.56 110.97 -3.29 
418.56 110.56 -2.35 
418.49 110.72 -1.91 
418.67 110.84 -1.42 
418.51 110.61 -0.87 
419.13 110.89 -3.30 
419.39 111.04 -2.73 
419.28 110.96 -2.00 
419.22 110.64 -1.25 
419.34 111.07 -0.68 
419.41 111.08 -0.15 
420.20 110.60 -3.17 
420.35 110.85 -2.55 
420.06 110.73 -1.96 
420.10 111.06 -1.20 
419.77 111.03 -0.14 
420.64 110.69 -4.08 
420.76 110.74 -3.28 
420.90 110.79 -2.76 
420.52 110.91 -2.01 
421.10 111.06 -1.25 
421.12 111.13 -3.28 
421.31 110.71 -2.78 
421.22 110.86 -1.77 
421.53 110.63 -1.32 
421.74 111.08 -0.85 
422.23 110.95 -3.28 
422.23 110.76 -2.78 
422.19 110.66 -2.04 
421.98 111.12 -1.08 
422.59 110.91 -3.11 
422.96 110.63 -2.79 
418.07 111.49 -3.16 
418.00 111.73 -2.54 
418.08 111.56 -1.94 
417.87 111.60 -1.06 
418.05 111.62 -0.98 
418.68 111.53 -3.14 
418.83 111.57 -2.59 
418.64 111.54 -1.94 
418.74 111.68 -1.02 
418.61 111.47 -0.69 
419.51 111.62 -3.28 
419.33 111.33 -2.68 
419.12 111.84 -2.09 
419.25 111.54 -1.45 
419.62 111.25 -0.30 
419.64 111.41 -0.12 
420.41 111.30 -3.29 
419.99 111.40 -2.72 
420.29 111.30 -1.91 
420.19 111.56 -1.20 
420.13 111.82 -0.74 
419.99 111.74 0.30 
420.90 111.17 -3.77 
420.96 111.58 -3.15 
420.78 111.76 -2.61 
420.65 111.74 -2.21 
420.67 111.68 -1.09 
420.74 111.35 -0.81 
421.19 111.64 -3.30 
421.23 111.47 -2.60 
421.59 111.41 -1.83 
421.40 111.29 -1.10 
422.30 111.25 -3.12 
421.83 111.77 -1.85 
421.97 111.50 -1.05 
422.65 111.28 -3.13 
417.98 112.23 -3.15 
418.05 112.08 -2.69 
418.24 112.14 -1.78 
418.10 112.25 -1.12 
417.85 112.35 -0.58 
418.71 112.13 -3.15 
418.69 112.09 -2.50 
418.30 112.13 -1.94 
418.70 112.32 -1.40 
418.56 112.34 -0.48 
418.65 111.93 -0.04 
418.52 112.07 0.54 
419.46 112.23 -3.42 
419.29 112.19 -2.77 
419.44 111.99 -2.02 
419.43 112.19 -1.27 
419.16 112.22 -0.71 
419.51 112.55 0.19 
420.23 112.35 -2.30 
420.06 112.06 -1.97 
419.80 112.21 -1.08 
420.10 112.27 -0.67 
419.82 112.19 0.41 
420.58 112.16 -3.14 
420.84 112.35 -2.64 
420.98 112.39 -1.66 
420.75 112.23 -1.34 
420.49 112.33 -0.65 
421.20 112.19 -3.30 
421.64 112.08 -1.42 
417.92 112.81 -3.10 
418.05 112.70 -2.66 
417.76 113.04 -2.15 
417.87 112.80 -1.10 
418.01 112.87 -0.42 
418.53 112.72 -3.13 
418.68 112.69 -2.34 
418.55 112.65 -2.30 
418.71 112.82 -1.46 
418.50 113.05 -0.56 
419.11 112.69 -2.44 
419.65 112.77 -1.65 
419.24 112.99 -1.18 
419.09 112.88 -0.62 
419.32 112.69 0.03 
420.40 112.64 -2.29 
420.08 112.71 -1.80 
420.27 113.02 -1.26 
419.97 112.69 -0.65 
419.83 112.82 0.03 
420.87 113.15 -3.10 
420.77 112.74 -2.53 
421.08 112.66 -1.75 
421.08 112.70 -1.35 
420.54 112.77 -0.78 
421.12 112.98 -3.30 
421.21 113.23 -2.66 
436.02 112.97 -4.22 
417.62 113.33 -2.50 
418.25 113.50 -1.14 
417.97 113.75 -0.67 
418.01 113.81 -0.17 
418.68 113.64 -1.33 
418.36 113.40 -0.54 
418.58 113.69 0.23 
418.78 113.73 0.52 
419.23 113.31 -1.18 
419.14 113.70 -0.72 
420.41 113.47 -2.30 
420.29 113.46 -2.12 
419.88 113.29 -1.10 
420.36 113.83 -0.51 
419.79 113.48 0.09 
421.08 113.60 -3.33 
420.77 113.55 -2.55 
421.06 113.62 -1.39 
420.45 113.64 -0.35 
421.36 113.28 -3.34 
421.22 113.59 -2.67 
421.40 113.65 -1.36 
430.82 113.92 -2.42 
418.18 114.12 -1.13 
418.19 114.20 -0.68 
417.72 113.99 -0.14 
418.42 114.14 -1.21 
420.81 114.19 -0.93 
420.53 114.05 -0.38 
420.74 114.12 0.06 
421.40 114.00 -1.37 
430.91 114.37 -2.35 
431.23 114.51 -4.03 
431.23 114.49 -3.14 
431.21 114.48 -2.76 
431.41 114.17 -2.08 
431.43 114.92 -4.04 
431.24 114.80 -3.28 
431.27 115.05 -2.87 
431.26 114.81 -2.12 
431.64 115.26 -4.06 
431.73 115.24 -3.29 
431.76 115.00 -2.68 
431.66 115.21 -2.13 
431.87 115.84 -2.86 
431.86 115.83 -2.22 
432.40 116.06 -4.13 
432.39 116.05 -3.48 
432.39 116.02 -2.84 
432.38 116.02 -2.20 
423.17 116.39 -1.63 
423.44 116.65 -1.80 
423.46 116.74 -1.32 
431.38 116.48 -4.06 
431.39 116.45 -2.44 
432.15 116.33 -3.98 
431.96 116.23 -3.17 
432.08 116.28 -2.77 
432.20 116.33 -1.97 
432.49 116.75 -4.07 
432.40 116.41 -3.19 
432.33 116.51 -2.80 
432.62 116.51 -1.87 
438.17 116.18 -4.08 
440.70 116.43 -3.95 
423.10 116.78 -1.60 
422.98 117.22 -0.84 
423.60 116.88 -1.76 
423.45 116.96 -1.31 
423.25 117.15 -0.82 
431.98 117.00 -2.60 
431.97 117.00 -1.94 
432.36 117.18 -3.90 
432.44 117.18 -3.28 
432.82 117.06 -2.67 
432.56 117.04 -1.97 
433.27 117.29 -3.34 
433.46 117.21 -2.77 
433.26 117.31 -2.12 
433.85 117.34 -2.25 
438.27 117.14 -3.95 
438.25 117.14 -2.73 
438.37 117.08 -1.87 
438.36 117.43 -1.28 
439.22 117.03 -3.71 
439.22 117.02 -3.22 
439.21 117.01 -2.73 
439.17 117.22 -1.68 
439.17 117.21 -1.17 
439.95 117.45 -3.00 
439.92 117.01 -2.60 
439.58 117.16 -1.68 
440.38 117.24 -4.15 
440.58 117.34 -2.75 
440.34 117.20 -1.78 
441.01 117.51 -2.75 
440.88 117.41 -1.89 
440.87 117.41 -1.56 
422.12 117.86 -3.47 
422.57 118.16 -2.59 
422.60 118.16 -2.13 
423.19 117.85 -1.26 
423.12 117.50 -0.66 
423.55 117.75 -1.78 
423.40 117.87 -1.52 
423.31 117.82 -0.83 
425.61 117.94 -2.47 
425.91 118.11 -2.20 
426.19 118.05 -2.62 
431.44 118.06 -2.98 
431.66 117.81 -4.08 
432.33 118.07 -2.57 
432.34 118.07 -3.00 
432.64 117.45 -2.52 
432.87 117.50 -2.01 
433.70 117.97 -3.06 
433.63 117.92 -2.77 
433.62 117.92 -2.14 
434.03 118.09 -3.04 
434.01 118.08 -2.61 
433.99 118.06 -1.76 
437.84 117.86 -4.12 
438.60 117.58 -3.97 
438.34 117.88 -1.84 
438.41 117.51 -1.35 
439.12 117.57 -3.94 
439.11 117.57 -3.35 
438.81 117.48 -2.74 
438.90 117.48 -1.91 
438.90 117.47 -1.50 
439.42 118.08 -3.96 
439.96 117.77 -3.00 
439.37 117.56 -2.66 
439.81 117.74 -1.87 
439.58 117.55 -1.57 
440.47 117.65 -2.69 
440.44 117.64 -1.84 
440.34 118.11 -1.22 
441.01 117.51 -2.75 
440.88 117.41 -1.89 
422.44 118.73 -4.34 
422.46 118.29 -3.43 
422.43 118.65 -2.82 
422.52 118.60 -2.02 
422.17 118.69 -1.04 
422.41 118.45 -0.46 
422.86 118.75 -3.05 
422.87 118.40 -1.67 
422.59 118.76 -0.94 
422.79 118.44 -0.66 
423.60 118.83 -2.79 
423.61 118.73 -2.05 
423.80 118.28 -1.32 
423.86 118.47 -0.65 
424.40 118.67 -2.56 
423.91 118.79 -1.98 
424.26 118.49 -1.33 
424.91 118.71 -3.32 
424.82 118.59 -2.58 
424.80 118.63 -1.67 
425.58 118.65 -2.58 
425.82 118.48 -1.66 
426.10 118.43 -2.63 
426.20 118.58 -1.61 
426.07 118.81 -1.32 
428.01 118.64 -3.78 
428.00 118.66 -3.31 
427.61 118.72 -1.60 
428.43 118.81 -3.51 
430.76 118.31 -4.11 
431.40 118.34 -3.00 
431.55 118.27 -2.98 
431.82 118.42 -3.10 
432.22 118.68 -2.98 
433.00 118.73 -4.09 
432.87 118.48 -3.16 
432.74 118.30 -2.66 
432.86 118.48 -2.26 
433.19 118.75 -3.98 
433.21 118.62 -3.16 
433.21 118.62 -2.71 
433.18 118.78 -2.18 
434.28 118.63 -4.22 
434.40 118.38 -3.16 
434.34 118.19 -2.60 
434.37 118.36 -1.84 
434.74 118.50 -3.15 
434.73 118.49 -2.71 
434.71 118.48 -1.82 
438.50 118.57 -3.80 
438.49 118.57 -2.94 
438.39 118.52 -1.96 
438.50 118.57 -3.80 
438.84 118.75 -3.13 
438.83 118.74 -2.56 
438.83 118.58 -1.89 
438.98 118.84 -1.31 
440.04 118.69 -4.12 
439.99 118.36 -3.05 
440.02 118.67 -2.68 
439.96 118.35 -1.76 
439.69 118.35 -1.21 
440.04 118.69 -4.12 
440.04 118.68 -3.64 
440.05 118.18 -2.46 
440.31 118.34 -1.75 
440.39 118.63 -1.23 
441.81 118.47 -3.92 
421.44 119.17 -4.28 
421.78 119.46 -2.31 
422.45 119.09 -4.21 
422.19 119.56 -2.55 
422.13 119.02 -1.84 
422.34 119.06 -1.38 
422.55 119.36 -0.55 
422.75 119.06 -3.30 
422.74 119.00 -2.83 
422.59 119.36 -2.11 
422.70 119.34 -1.17 
422.83 119.06 -0.50 
423.76 119.32 -2.55 
423.56 119.37 -1.90 
423.69 119.20 -1.31 
423.53 119.30 -0.56 
424.29 119.31 -2.68 
424.18 119.38 -1.79 
424.34 119.03 -1.15 
423.96 119.08 -0.49 
425.05 119.27 -3.14 
424.93 119.47 -2.63 
424.89 119.15 -2.19 
424.87 119.32 -1.55 
425.26 119.45 -0.37 
425.72 119.19 -2.67 
425.65 118.98 -1.68 
426.29 119.54 -2.95 
426.23 119.27 -1.64 
426.28 119.30 -1.57 
427.07 119.40 -1.69 
427.12 119.40 -1.45 
427.78 119.40 -3.96 
427.88 119.05 -3.33 
427.97 119.38 -2.53 
427.80 119.24 -1.87 
427.73 119.45 -1.64 
428.20 119.24 -3.04 
429.37 119.50 -1.75 
432.86 118.91 -2.90 
433.07 119.02 -3.95 
433.37 119.02 -3.31 
433.37 118.99 -2.47 
433.36 118.99 -2.05 
434.03 119.54 -4.33 
434.05 119.13 -2.72 
434.00 119.24 -2.03 
434.58 119.42 -4.15 
434.95 119.39 -3.26 
434.94 119.36 -2.69 
434.74 119.53 -1.92 
435.73 119.40 -2.46 
435.19 119.44 -1.71 
436.22 119.44 -4.15 
436.19 119.33 -2.43 
436.18 119.33 -2.04 
436.91 119.38 -3.99 
436.82 119.32 -2.83 
436.82 119.32 -2.01 
437.26 119.49 -2.71 
437.42 119.56 -2.01 
438.63 118.95 -1.76 
438.52 118.90 -1.40 
438.94 119.07 -3.87 
438.94 119.07 -3.47 
439.07 119.35 -2.34 
439.07 119.35 -1.79 
438.76 119.23 -1.45 
439.47 119.27 -3.90 
439.44 119.26 -2.43 
439.40 119.39 -1.96 
439.57 119.28 -1.32 
440.37 119.23 -4.07 
440.72 119.39 -3.78 
440.80 119.38 -1.63 
440.79 119.38 -1.27 
420.79 119.70 -4.31 
421.63 120.14 -2.32 
421.36 120.17 -1.40 
421.59 120.23 -0.67 
421.69 120.25 0.46 
421.78 120.10 1.25 
422.10 119.82 -2.76 
422.25 119.86 -1.34 
421.95 120.19 -0.66 
422.03 119.91 0.35 
421.83 119.94 1.22 
423.06 119.87 -4.02 
422.91 120.07 -3.34 
422.84 120.16 -2.75 
423.09 119.67 -2.14 
423.02 119.88 -1.50 
422.91 120.01 -0.41 
422.79 120.18 0.31 
423.44 119.95 -3.32 
423.59 119.93 -2.85 
423.57 119.79 -2.13 
423.41 120.23 -1.09 
423.71 119.79 -0.80 
423.75 119.98 1.19 
424.40 119.99 -2.64 
424.19 119.80 -1.94 
424.10 119.87 -1.25 
424.47 119.82 -0.36 
424.61 119.60 0.28 
424.36 120.17 0.55 
425.07 120.13 -2.91 
424.94 120.10 -2.69 
424.71 119.87 -1.86 
424.78 119.87 -1.37 
425.09 119.70 -0.43 
424.91 119.64 -0.03 
424.67 119.70 0.56 
425.81 120.07 -3.04 
425.57 119.94 -2.58 
425.85 119.85 -1.85 
425.65 120.05 -1.52 
425.37 120.07 -0.20 
425.94 119.85 -0.10 
426.33 119.98 -3.05 
426.18 119.89 -2.97 
426.27 120.21 -1.63 
426.61 120.10 -1.50 
426.26 120.12 -0.83 
427.41 120.00 -4.22 
427.29 120.05 -3.07 
426.84 120.23 -2.52 
426.96 120.24 -1.97 
427.05 119.68 -1.07 
427.27 119.76 -0.75 
428.07 119.99 -4.25 
428.04 119.64 -3.05 
427.79 119.89 -2.85 
427.89 119.85 -1.97 
427.72 119.83 -1.48 
427.92 120.08 -0.67 
427.59 120.25 -0.01 
428.59 119.61 -4.22 
428.15 120.07 -3.02 
428.62 120.21 -1.70 
428.22 119.71 -0.81 
429.18 119.74 -2.00 
430.05 120.20 -2.70 
429.76 120.26 -1.69 
430.44 120.22 -2.55 
431.24 120.12 -1.62 
430.98 120.26 -1.45 
431.86 120.25 -4.37 
432.58 120.18 -4.39 
433.62 120.09 -4.32 
433.34 119.75 -2.59 
434.07 119.74 -4.32 
433.87 120.25 -1.75 
434.76 119.98 -4.31 
435.11 119.76 -3.03 
434.89 119.88 -2.73 
434.99 120.00 -2.01 
434.99 119.99 -1.59 
435.37 119.93 -4.14 
435.36 120.14 -3.19 
435.37 119.86 -2.72 
435.38 119.86 -1.94 
435.40 120.14 -1.53 
436.20 119.88 -4.28 
435.87 120.05 -3.03 
436.13 119.82 -2.61 
436.13 119.81 -1.96 
436.21 119.92 -1.57 
436.61 120.15 -4.05 
436.89 119.90 -2.53 
436.90 119.89 -1.98 
438.54 120.08 -3.87 
438.91 119.83 -4.23 
439.43 119.90 -4.21 
440.61 119.78 -4.02 
440.63 119.82 -1.74 
440.62 119.82 -1.35 
441.27 120.06 -4.08 
441.26 120.06 -3.62 
441.25 120.05 -2.71 
441.19 120.04 -1.79 
440.93 119.71 -1.35 
441.95 120.14 -3.89 
441.95 120.14 -3.48 
441.95 120.13 -2.68 
441.94 120.12 -1.87 
442.05 120.13 -1.46 
442.26 120.05 -3.88 
442.25 120.04 -3.17 
442.24 120.03 -2.70 
442.49 119.87 -1.90 
442.38 120.13 -1.34 
421.58 120.65 -2.75 
421.65 120.47 -2.09 
421.55 120.42 -1.41 
421.65 120.64 -0.37 
421.47 120.35 0.04 
421.58 120.48 0.87 
422.30 120.46 -2.49 
422.12 120.67 -2.22 
422.01 120.51 -1.40 
422.20 120.48 -0.29 
422.06 120.62 0.29 
422.08 120.59 0.34 
423.17 120.84 -3.44 
422.82 120.54 -2.66 
422.75 120.45 -1.97 
423.17 120.54 -1.42 
423.03 120.71 -0.61 
422.84 120.60 0.26 
422.99 120.58 0.57 
423.35 120.92 -4.28 
423.56 120.83 -3.03 
423.57 120.79 -2.85 
423.67 120.61 -1.92 
423.39 120.41 -1.23 
423.39 120.56 -0.50 
423.78 120.67 0.04 
423.90 120.44 0.66 
423.69 120.94 1.30 
423.84 120.56 -3.10 
424.38 120.79 -2.77 
424.28 120.79 -1.91 
424.26 120.65 -1.43 
424.29 120.59 -0.70 
424.47 120.40 0.21 
424.14 120.70 0.70 
425.05 120.84 -3.03 
424.82 120.65 -2.68 
424.76 120.62 -1.83 
425.00 120.64 -1.38 
424.76 120.58 -0.73 
424.78 120.65 0.22 
425.15 120.69 1.12 
424.86 120.85 1.23 
425.60 120.62 -2.93 
425.77 120.66 -2.73 
425.49 120.59 -2.00 
425.56 120.70 -1.34 
425.65 120.80 -0.74 
425.64 120.33 -0.16 
425.38 120.86 0.80 
425.37 120.94 1.22 
426.70 120.70 -3.07 
426.54 120.68 -2.60 
426.56 120.68 -1.65 
426.36 120.57 -1.43 
426.47 120.77 -0.70 
426.61 120.74 -0.18 
427.19 120.68 -3.05 
427.17 120.77 -2.69 
427.02 120.85 -1.79 
426.99 120.53 -1.34 
426.86 120.93 -0.36 
427.57 120.35 -4.28 
427.79 120.63 -3.03 
427.45 120.84 -2.55 
427.86 120.90 -1.75 
427.65 120.58 -1.15 
427.91 120.47 -0.68 
428.71 120.44 -3.02 
428.51 120.73 -2.72 
428.50 120.79 -2.09 
428.56 120.73 -1.29 
429.27 120.74 -3.04 
429.18 120.68 -2.86 
429.15 120.55 -1.67 
428.97 120.81 -1.42 
429.87 120.74 -2.63 
429.78 120.88 -1.82 
429.58 120.76 -1.49 
430.22 120.54 -4.34 
430.45 120.76 -2.52 
430.57 120.57 -1.54 
430.57 120.57 -1.54 
431.23 120.30 -4.27 
430.99 120.48 -2.73 
432.04 120.44 -4.38 
432.58 120.35 -4.35 
433.51 120.65 -4.25 
433.48 120.41 -2.38 
433.51 120.73 -1.84 
433.92 120.31 -4.34 
434.07 120.96 -2.57 
434.02 120.93 -1.89 
434.83 120.56 -4.27 
434.94 120.35 -3.27 
434.96 120.33 -2.80 
434.72 120.59 -1.76 
435.45 120.70 -4.31 
435.65 120.47 -2.69 
435.51 120.70 -1.85 
436.08 120.55 -4.32 
435.92 120.56 -2.68 
435.90 120.55 -1.97 
435.88 120.37 -1.57 
437.09 120.86 -4.26 
437.14 120.36 -2.69 
437.01 120.30 -2.05 
437.54 120.86 -4.26 
438.31 120.73 -4.22 
438.95 120.77 -4.03 
438.91 120.75 -3.32 
438.99 120.51 -2.63 
439.03 120.74 -2.05 
439.35 120.81 -4.27 
439.36 120.51 -1.75 
440.34 120.91 -1.21 
441.18 120.49 -3.90 
441.18 120.48 -3.38 
441.17 120.47 -2.52 
441.17 120.46 -1.83 
441.04 120.55 -1.23 
441.33 120.53 -3.84 
441.43 120.83 -3.49 
441.30 120.53 -2.73 
441.48 120.33 -1.75 
441.78 120.44 -1.30 
442.36 120.90 -4.00 
420.89 121.25 -2.87 
420.57 121.57 -0.37 
421.12 120.97 -2.72 
421.64 121.48 -1.66 
421.41 121.49 -1.40 
421.28 120.98 -0.35 
421.24 121.64 0.25 
421.70 121.04 1.07 
422.35 121.28 -2.86 
422.44 121.18 -1.84 
422.33 121.27 -1.11 
422.10 121.61 -0.48 
422.26 121.10 0.07 
422.05 121.74 0.77 
423.06 121.00 -2.68 
422.72 121.22 -1.85 
422.95 121.23 -1.34 
422.58 121.43 -0.88 
422.99 121.27 0.04 
422.67 121.24 0.73 
422.55 121.56 1.38 
423.56 121.35 -4.31 
423.72 121.58 -3.31 
423.63 121.44 -2.74 
423.71 121.23 -1.95 
423.42 121.23 -1.16 
423.60 121.48 -0.63 
423.75 121.14 0.08 
423.79 120.91 0.59 
423.78 121.37 1.38 
423.98 121.44 -4.06 
424.19 121.43 -3.03 
424.43 121.27 -2.59 
424.23 121.28 -1.93 
424.36 121.40 -1.18 
424.31 121.25 -0.52 
424.24 121.06 -0.03 
424.17 121.39 0.81 
424.43 121.19 1.32 
424.79 121.23 -3.27 
424.93 121.43 -2.53 
425.03 121.40 -2.01 
425.00 121.22 -1.33 
425.00 121.41 -0.66 
424.87 121.47 0.16 
425.10 121.31 0.68 
424.84 121.02 1.33 
425.91 121.66 -3.05 
425.66 121.23 -2.59 
425.58 121.12 -2.03 
425.58 121.36 -1.16 
425.89 121.29 -0.77 
425.61 121.36 -0.06 
425.61 121.51 0.76 
425.46 121.49 1.21 
426.58 121.03 -3.10 
426.65 121.35 -2.56 
426.32 121.27 -2.04 
426.51 121.27 -1.28 
426.53 121.38 -0.32 
426.30 121.55 0.07 
426.21 121.36 0.78 
426.94 121.12 -3.04 
427.11 121.53 -2.43 
426.90 121.36 -2.03 
427.01 121.45 -1.48 
427.31 121.32 -0.77 
427.09 121.20 0.05 
427.02 121.27 0.68 
428.03 121.27 -3.33 
427.73 121.41 -2.60 
427.78 121.21 -1.94 
427.74 121.41 -1.26 
427.66 121.15 -0.71 
427.67 121.45 0.16 
427.45 121.33 0.92 
428.53 121.38 -3.07 
428.49 121.48 -2.51 
428.55 121.34 -1.71 
428.54 121.40 -1.16 
428.32 121.34 -0.46 
428.45 121.57 0.05 
429.39 121.49 -4.30 
429.17 121.17 -3.37 
429.14 121.18 -2.50 
429.14 121.35 -1.88 
428.99 121.33 -1.38 
429.96 121.29 -4.26 
429.67 121.42 -3.14 
429.78 121.48 -2.59 
429.83 121.43 -1.90 
430.13 121.45 -1.31 
429.74 121.31 -0.85 
430.23 121.61 -4.31 
430.59 121.33 -2.75 
430.48 121.48 -2.12 
430.66 121.32 -1.58 
431.13 120.99 -4.31 
431.18 121.50 -2.66 
431.44 121.39 -1.90 
431.13 121.51 -1.32 
431.81 121.46 -4.29 
431.87 121.34 -2.72 
432.17 121.30 -1.83 
431.72 121.14 -1.58 
432.75 121.31 -4.27 
432.42 121.39 -1.92 
433.05 121.44 -4.16 
433.90 121.17 -4.24 
433.96 121.37 -2.49 
433.93 121.35 -2.08 
434.73 121.17 -4.28 
435.46 121.22 -4.33 
435.66 121.28 -2.57 
435.64 121.27 -1.89 
435.64 121.26 -1.55 
436.03 121.29 -4.31 
436.19 121.47 -2.90 
436.19 121.57 -1.97 
436.04 121.41 -1.56 
436.88 121.16 -4.27 
437.63 121.38 -4.24 
438.46 121.42 -4.21 
439.10 121.40 -4.26 
439.70 121.52 -4.17 
439.53 121.28 -3.64 
440.44 121.64 -4.14 
441.17 121.68 -4.14 
441.21 120.99 -1.43 
441.47 121.63 -4.13 
441.89 121.56 -3.67 
442.05 121.64 -1.70 
441.95 121.54 -1.28 
442.31 121.50 -1.29 
420.78 121.92 -2.94 
420.69 121.76 -0.40 
421.43 121.97 -3.12 
421.72 122.05 -2.84 
421.62 121.98 -1.95 
421.54 121.99 -0.20 
421.65 121.85 0.09 
422.34 122.27 -3.12 
422.03 121.86 -2.79 
422.51 121.96 -2.01 
422.30 121.92 -0.58 
422.36 122.06 0.16 
422.10 121.96 0.93 
422.74 122.15 -2.99 
422.79 121.84 -2.68 
423.01 121.89 -1.91 
422.92 121.84 -1.37 
423.02 121.73 -0.44 
422.98 122.25 0.20 
422.66 122.19 0.76 
422.88 121.71 1.42 
423.82 121.98 -3.76 
423.63 122.05 -3.10 
423.58 122.03 -2.64 
423.72 122.06 -2.11 
423.64 122.07 -1.43 
423.80 122.02 -0.75 
423.50 122.11 0.12 
423.43 122.13 0.61 
423.90 121.75 1.43 
424.16 122.07 -3.36 
424.05 121.99 -2.57 
424.31 122.01 -2.00 
424.21 122.09 -1.44 
424.26 122.13 -0.71 
424.23 122.02 0.25 
424.32 121.85 0.84 
425.00 122.12 -3.24 
425.02 121.91 -2.58 
424.87 121.94 -2.05 
424.96 122.19 -1.29 
425.03 121.74 -0.74 
424.95 121.87 0.25 
425.20 122.18 0.74 
425.64 122.27 -3.01 
425.69 121.92 -2.61 
425.53 122.12 -1.92 
425.78 122.01 -1.31 
425.72 122.05 -0.51 
425.83 122.20 0.18 
425.52 122.01 0.72 
425.86 121.90 1.38 
426.28 122.09 -3.19 
426.34 122.00 -2.71 
426.59 122.13 -1.98 
426.37 122.09 -1.42 
426.50 122.00 -0.36 
426.07 122.07 0.05 
426.45 122.32 0.98 
426.12 121.87 1.35 
426.90 122.04 -3.13 
426.98 122.02 -2.61 
427.05 122.10 -1.95 
426.99 121.99 -1.43 
426.98 122.09 -0.62 
427.08 121.91 -0.07 
426.93 122.21 0.66 
427.75 122.03 -3.17 
427.88 122.15 -2.64 
427.83 122.07 -2.05 
427.78 121.96 -1.25 
427.72 122.13 -0.55 
427.99 121.76 0.32 
428.37 122.24 -3.14 
428.54 122.04 -2.67 
428.33 121.99 -1.96 
428.56 122.04 -1.15 
428.37 122.17 -0.62 
429.17 121.91 -3.18 
429.20 121.82 -2.48 
429.44 122.05 -1.78 
429.07 122.21 -1.13 
429.04 122.29 -0.34 
429.27 122.23 -0.16 
430.08 121.86 -4.25 
429.96 121.96 -3.13 
429.60 121.94 -2.52 
429.94 122.00 -1.97 
429.81 121.94 -1.51 
429.67 122.09 -0.79 
430.44 122.25 -4.32 
430.95 122.12 -3.16 
430.58 122.06 -2.43 
430.52 122.21 -1.78 
430.71 122.13 -1.44 
430.38 122.06 0.08 
431.53 122.29 -4.28 
431.44 122.20 -3.27 
431.04 122.24 -2.41 
431.07 121.91 -1.93 
431.36 121.77 -1.57 
431.87 122.12 -4.26 
431.83 122.12 -2.70 
432.09 122.25 -1.69 
431.71 122.14 -1.51 
432.53 122.11 -4.28 
433.06 122.25 -4.16 
434.41 122.20 -4.24 
433.97 121.95 -2.71 
434.95 121.93 -4.25 
435.65 121.91 -4.21 
436.27 121.89 -4.22 
436.51 121.83 -2.76 
436.19 121.57 -1.97 
436.58 122.12 -4.21 
437.88 121.85 -3.68 
438.33 121.85 -3.67 
438.08 121.93 -3.68 
439.18 122.17 -3.75 
439.12 121.96 -3.40 
439.78 121.99 -4.17 
439.43 122.32 -3.38 
440.30 122.08 -4.18 
440.26 122.05 -3.74 
440.96 121.99 -4.16 
442.05 121.84 -3.56 
442.05 121.64 -1.70 
441.69 122.00 -1.12 
421.06 122.41 -2.81 
421.77 122.65 -0.57 
422.11 122.61 -2.67 
422.48 122.48 -1.87 
422.15 122.48 -0.41 
422.26 122.64 -0.13 
422.13 122.58 0.93 
422.86 122.61 -3.09 
422.88 122.80 -2.64 
422.70 122.73 -2.06 
422.82 122.53 -1.44 
422.82 122.72 -0.31 
422.79 122.48 0.25 
422.81 122.61 0.99 
422.58 122.38 1.27 
423.36 122.38 -3.40 
423.54 122.62 -2.43 
423.55 122.90 -2.03 
423.61 122.51 -1.27 
423.58 122.62 -0.62 
423.58 122.64 0.11 
423.76 122.60 0.70 
424.32 123.04 -4.14 
424.17 122.82 -3.39 
424.38 122.65 -2.49 
424.23 122.61 -2.04 
424.35 123.00 -1.52 
424.18 122.70 -0.45 
424.28 122.87 0.14 
424.03 122.98 0.61 
424.30 122.74 1.21 
424.93 122.83 -3.02 
424.98 122.67 -2.84 
425.14 122.63 -1.82 
424.93 122.65 -1.37 
425.06 122.99 -0.57 
424.96 122.62 0.44 
424.82 122.61 0.64 
425.81 122.65 -3.03 
425.91 122.67 -2.53 
425.67 122.65 -1.93 
425.78 122.57 -1.31 
425.72 122.78 -0.61 
425.68 122.50 0.11 
425.54 122.43 0.76 
426.31 122.60 -2.89 
426.29 122.89 -2.72 
426.28 122.81 -1.88 
426.28 122.59 -1.31 
426.54 122.66 -0.64 
426.05 122.90 0.08 
426.18 122.37 0.95 
427.09 122.56 -3.15 
427.16 122.59 -2.64 
426.99 122.82 -2.07 
427.05 122.68 -1.18 
426.95 122.58 -0.61 
427.33 122.79 0.21 
427.10 122.54 0.77 
426.72 123.06 1.22 
427.81 122.72 -3.09 
427.85 122.54 -2.40 
427.72 122.65 -1.81 
427.83 122.71 -1.18 
427.94 122.64 -0.67 
428.06 122.55 0.15 
427.50 122.80 0.65 
428.79 122.37 -4.32 
428.56 122.79 -3.13 
428.53 122.55 -2.58 
428.51 122.65 -1.82 
428.47 122.55 -1.10 
428.53 122.77 -0.56 
428.27 122.97 -0.04 
429.34 122.62 -3.17 
429.32 122.82 -2.60 
429.32 122.72 -1.82 
429.23 122.62 -1.39 
429.09 122.53 -0.54 
430.16 122.91 -4.01 
429.80 122.90 -3.11 
429.91 122.63 -2.75 
430.11 122.68 -1.88 
429.96 122.65 -1.52 
429.93 122.67 -0.76 
430.30 122.94 -3.89 
430.28 122.70 -3.32 
430.57 122.66 -2.62 
430.58 122.65 -1.71 
430.76 122.59 -1.12 
431.10 122.40 -4.29 
431.45 122.61 -3.09 
431.09 123.01 -2.41 
431.01 122.87 -1.79 
431.41 122.68 -1.61 
432.04 122.68 -2.70 
432.07 122.88 -1.92 
432.03 122.78 -1.49 
432.37 122.73 -2.61 
435.61 123.04 -4.20 
436.34 122.55 -2.59 
436.34 122.55 -2.26 
437.08 122.61 -3.97 
436.92 122.90 -3.13 
436.86 122.75 -2.92 
436.85 122.74 -1.94 
437.88 122.99 -3.40 
438.29 122.69 -3.71 
438.51 122.88 -3.67 
439.25 122.69 -3.72 
439.24 123.00 -3.68 
439.93 122.40 -4.19 
439.78 122.82 -3.38 
440.43 122.45 -3.85 
440.87 122.29 -4.10 
422.90 123.27 -2.60 
423.07 123.16 -1.50 
422.92 122.95 -0.01 
423.88 123.43 -2.43 
423.47 123.32 -1.84 
423.54 123.27 -1.19 
423.84 123.67 -0.23 
423.35 123.27 0.39 
423.90 123.73 0.89 
424.57 123.34 -3.74 
424.39 123.37 -3.20 
424.05 123.45 -2.52 
424.30 123.24 -2.12 
424.25 123.40 -1.13 
424.35 123.40 -0.61 
424.41 123.51 0.00 
424.38 123.64 0.53 
425.05 123.68 -4.02 
425.05 123.68 -3.43 
424.85 123.44 -2.61 
424.95 123.63 -2.01 
424.79 123.26 -1.20 
424.91 123.38 -0.53 
424.75 123.45 -0.11 
425.10 123.19 0.71 
425.20 123.50 1.43 
425.75 123.52 -3.27 
425.67 123.31 -2.69 
425.71 123.46 -1.98 
425.70 123.33 -1.23 
425.76 123.14 -0.68 
425.67 123.45 0.22 
425.53 123.50 0.62 
425.62 123.52 1.24 
426.40 123.28 -2.98 
426.44 123.47 -2.71 
426.27 123.45 -2.01 
426.44 123.33 -1.36 
426.31 123.42 -0.72 
426.32 123.73 0.30 
426.24 123.07 0.83 
426.65 123.64 1.21 
427.33 123.78 -3.31 
427.01 123.45 -2.77 
426.93 123.42 -2.00 
427.02 123.40 -1.37 
426.81 123.34 -0.76 
427.06 123.13 -0.03 
426.90 123.53 0.95 
426.76 123.68 1.27 
427.99 123.21 -3.16 
427.91 123.37 -2.55 
427.87 123.42 -1.96 
427.78 123.35 -1.42 
427.59 123.55 -0.45 
428.69 123.73 -3.75 
428.69 123.35 -3.15 
428.39 123.40 -2.60 
428.50 123.50 -1.89 
428.42 123.27 -1.43 
428.61 123.31 -0.62 
429.16 123.49 -3.17 
429.01 123.47 -2.79 
429.09 123.34 -1.71 
429.04 123.48 -1.39 
428.90 123.73 -0.67 
429.73 123.26 -3.96 
429.80 123.15 -3.15 
429.87 123.53 -2.54 
429.85 123.59 -2.03 
430.02 123.54 -1.37 
430.29 123.34 -3.16 
430.63 123.38 -2.60 
430.52 123.60 -1.80 
430.64 123.41 -1.27 
431.53 123.52 -3.06 
431.31 123.33 -2.60 
431.28 123.40 -1.88 
431.27 123.52 -1.59 
432.01 123.43 -2.77 
431.80 123.37 -1.90 
431.62 123.45 -1.35 
432.52 123.14 -2.72 
432.66 123.69 -1.89 
436.19 123.25 -4.23 
437.11 123.66 -3.98 
437.14 123.33 -3.48 
437.57 123.45 -4.01 
437.52 123.62 -3.38 
438.41 123.18 -3.71 
438.33 123.47 -3.40 
438.86 123.38 -3.71 
439.27 123.66 -3.35 
439.86 123.23 -3.71 
439.95 123.48 -3.37 
440.48 123.09 -3.70 
440.21 123.44 -3.37 
441.12 123.34 -3.25 
441.68 123.68 -3.87 
423.21 124.26 -1.40 
423.68 124.10 -1.89 
423.80 123.97 -1.52 
423.79 124.27 -0.70 
424.43 123.85 -4.02 
424.60 124.28 -3.01 
424.33 123.98 -2.74 
424.35 124.14 -1.94 
424.30 124.30 -1.35 
424.27 124.14 -0.35 
424.36 124.12 0.17 
425.31 124.42 -3.25 
424.98 124.17 -2.64 
425.10 124.04 -2.03 
425.01 124.08 -1.30 
425.04 123.97 -0.57 
424.95 124.14 0.19 
425.27 124.10 0.84 
425.79 124.29 -3.03 
425.61 123.97 -2.65 
425.62 124.24 -2.08 
425.92 124.07 -1.33 
425.63 124.27 -0.63 
425.40 124.25 -0.13 
425.82 124.00 0.92 
425.89 123.94 1.30 
426.48 124.16 -3.89 
426.53 124.13 -3.38 
426.44 124.09 -2.45 
426.55 124.24 -1.82 
426.32 124.09 -1.31 
426.55 124.05 -0.53 
426.17 124.09 -0.04 
426.33 124.23 0.61 
426.69 123.85 1.24 
427.13 124.45 -3.83 
427.21 124.19 -3.09 
427.15 124.25 -2.58 
426.96 124.04 -1.95 
427.01 124.25 -1.37 
427.14 124.40 -0.64 
426.91 124.44 0.31 
426.96 124.05 0.68 
427.32 124.30 1.30 
427.79 124.35 -3.83 
428.10 124.08 -3.15 
427.56 124.21 -2.50 
427.72 124.06 -1.96 
427.74 124.05 -1.25 
427.69 124.17 -0.35 
427.75 124.14 -0.07 
427.77 124.08 0.64 
428.45 123.97 -3.11 
428.61 124.19 -2.62 
428.61 124.22 -1.95 
428.43 123.96 -1.37 
428.64 124.22 -0.81 
428.68 124.36 0.09 
429.19 124.14 -3.19 
429.17 124.02 -2.77 
429.05 124.00 -2.03 
429.18 123.97 -1.42 
429.10 124.15 -0.73 
428.86 123.87 -0.01 
430.17 124.10 -3.83 
429.88 124.19 -3.13 
429.80 124.17 -2.81 
429.93 124.17 -1.88 
429.97 124.21 -1.39 
429.85 124.40 -0.62 
430.66 124.30 -3.35 
430.51 124.15 -2.71 
430.62 124.14 -1.91 
430.58 124.22 -1.34 
431.20 123.90 -3.06 
431.31 123.94 -2.58 
431.53 124.00 -1.97 
431.26 124.01 -1.36 
432.09 124.18 -2.32 
431.83 124.16 -2.01 
431.66 124.17 -1.52 
432.49 124.07 -2.36 
432.70 123.95 -2.04 
433.76 124.23 -3.78 
434.78 123.95 -4.14 
435.21 123.85 -4.11 
436.99 124.20 -4.08 
436.86 123.95 -3.36 
437.33 124.21 -3.69 
437.87 124.23 -3.37 
438.27 124.02 -3.32 
438.81 124.03 -3.33 
440.50 124.30 -3.51 
441.13 124.38 -3.65 
441.68 124.36 -3.44 
423.71 124.68 -2.14 
423.65 124.67 -1.59 
423.79 124.70 -0.12 
424.38 124.62 -2.39 
424.25 124.64 -1.61 
424.34 124.79 -1.29 
424.37 124.89 -0.63 
424.46 124.57 0.08 
424.87 125.10 -4.01 
425.16 124.83 -3.10 
425.06 124.93 -2.61 
424.85 124.94 -1.97 
424.82 124.90 -1.19 
424.95 124.64 -0.43 
425.14 124.74 0.49 
425.17 124.48 0.76 
425.33 124.86 -3.11 
425.62 125.01 -2.49 
425.72 125.03 -1.70 
425.69 124.83 -1.19 
425.71 124.75 -0.69 
425.82 124.90 -0.08 
425.80 124.48 0.71 
426.26 124.67 -3.78 
426.29 124.58 -3.14 
426.43 124.70 -2.51 
426.25 124.90 -2.11 
426.19 124.82 -1.29 
426.34 124.77 -0.77 
426.38 124.77 0.12 
426.43 124.83 0.99 
426.73 124.90 -3.90 
427.02 124.77 -3.30 
427.00 124.93 -2.46 
427.20 124.75 -1.84 
427.00 124.82 -1.35 
427.07 124.81 -0.65 
427.21 124.81 0.23 
426.86 124.95 0.71 
427.49 124.69 -3.84 
427.85 125.11 -3.11 
427.82 124.81 -2.65 
427.75 125.04 -1.81 
427.84 124.85 -1.35 
427.73 124.70 -0.55 
427.70 124.86 0.11 
427.54 125.06 0.80 
428.69 124.60 -3.73 
428.51 124.82 -3.01 
428.67 124.70 -2.73 
428.45 124.55 -2.13 
428.36 124.75 -1.19 
428.51 124.86 -0.60 
428.34 124.65 -0.03 
429.04 124.98 -3.11 
429.28 124.87 -2.72 
429.07 124.60 -1.81 
429.15 124.80 -1.26 
429.16 124.98 -0.64 
430.11 124.52 -3.76 
429.89 124.84 -3.12 
430.02 124.97 -2.63 
429.78 124.76 -1.88 
429.76 124.88 -1.15 
430.12 124.86 -0.82 
430.25 124.74 -3.05 
430.51 124.83 -2.41 
430.40 124.72 -1.94 
430.68 124.63 -1.39 
431.26 124.93 -2.71 
431.22 124.55 -2.01 
431.27 125.00 -1.24 
432.02 125.12 -2.39 
432.15 125.11 -2.14 
431.98 125.11 -1.34 
432.49 124.99 -2.48 
434.40 125.03 -3.75 
433.87 124.79 -3.42 
434.69 125.08 -3.74 
434.80 124.84 -3.40 
435.21 125.11 -3.32 
436.30 124.74 -3.77 
437.12 124.76 -3.77 
437.82 124.74 -3.29 
438.21 125.00 -3.15 
439.21 125.10 -3.92 
439.90 124.71 -3.47 
440.49 124.60 -3.90 
440.33 124.99 -3.17 
440.15 125.02 -2.96 
441.35 124.67 -3.45 
441.10 124.95 -2.76 
441.74 124.87 -3.51 
424.51 125.45 -2.41 
424.53 125.77 -1.60 
424.32 125.60 -1.31 
424.50 125.32 -0.65 
425.07 125.38 -4.03 
425.04 125.53 -3.00 
424.95 125.32 -2.61 
425.03 125.43 -1.96 
425.16 125.38 -1.30 
425.01 125.54 -0.66 
425.07 125.34 0.12 
425.33 125.25 -3.09 
425.82 125.48 -2.64 
425.61 125.44 -1.67 
425.70 125.66 -1.02 
425.79 125.48 -0.43 
425.79 125.18 0.23 
425.93 125.58 0.60 
426.07 125.17 -3.09 
426.45 125.56 -2.55 
426.35 125.41 -1.71 
426.23 125.41 -1.24 
426.45 125.58 -0.66 
426.67 125.57 0.10 
426.54 125.69 0.72 
427.26 125.69 -3.04 
427.12 125.55 -2.48 
426.97 125.43 -1.91 
427.29 125.75 -1.22 
427.15 125.42 -0.63 
427.16 125.67 0.10 
427.41 125.32 0.71 
427.97 125.22 -3.01 
427.82 125.59 -2.58 
427.89 125.26 -1.96 
427.87 125.41 -1.24 
427.85 125.50 -0.67 
427.77 125.56 -0.05 
427.67 125.62 0.88 
428.72 125.20 -3.09 
428.44 125.30 -2.38 
428.43 125.55 -2.28 
428.53 125.56 -1.40 
428.27 125.62 -0.72 
427.94 125.37 0.30 
429.27 125.17 -3.11 
429.15 125.39 -2.51 
429.12 125.39 -2.04 
429.29 125.43 -1.34 
429.01 125.60 -0.77 
429.65 125.41 -2.82 
429.88 125.35 -2.06 
429.87 125.55 -1.28 
430.64 125.49 -4.05 
430.47 125.22 -3.18 
430.69 125.30 -2.84 
430.59 125.40 -2.15 
430.62 125.45 -1.50 
430.93 125.57 -3.76 
430.97 125.55 -3.32 
431.35 125.54 -2.47 
431.17 125.58 -1.73 
430.99 125.53 -1.58 
431.84 125.59 -4.21 
432.20 125.37 -2.39 
432.19 125.58 -2.25 
431.75 125.52 -1.51 
432.40 125.76 -4.14 
432.65 125.49 -2.33 
432.49 125.49 -2.04 
432.70 125.80 -1.40 
433.10 125.65 -2.44 
433.92 125.25 -3.40 
434.92 125.23 -3.73 
434.64 125.66 -3.29 
434.65 125.84 -2.77 
435.58 125.27 -3.88 
435.36 125.56 -3.30 
435.23 125.77 -2.65 
436.21 125.46 -3.99 
437.10 125.75 -3.66 
437.86 125.24 -3.14 
438.15 125.67 -3.95 
438.20 125.50 -3.24 
438.40 125.79 -2.94 
439.11 125.19 -3.91 
438.98 125.68 -3.22 
439.71 125.57 -3.21 
439.51 125.33 -2.72 
440.30 125.29 -3.93 
440.06 125.80 -3.21 
440.06 125.67 -2.76 
440.88 125.39 -3.17 
440.98 125.74 -2.93 
441.85 125.39 -3.63 
442.26 125.74 -2.78 
420.96 126.29 -3.75 
421.15 126.47 -3.76 
424.47 126.35 -0.93 
424.59 126.10 -0.65 
425.30 126.07 -3.04 
425.27 125.96 -1.63 
425.18 126.07 -1.50 
425.04 126.04 -0.61 
425.30 125.96 -0.16 
425.66 126.38 -3.03 
425.90 126.07 -2.40 
425.51 126.09 -2.03 
425.35 126.16 -1.19 
425.63 126.53 -0.37 
425.65 126.53 -0.17 
426.25 125.97 -2.53 
426.36 126.15 -1.66 
426.58 125.92 -1.25 
426.60 125.89 -0.80 
426.29 125.96 -0.07 
427.39 125.93 -3.16 
427.07 125.98 -2.64 
426.97 126.13 -1.99 
427.01 126.00 -1.25 
427.26 126.29 -0.66 
427.02 126.23 -0.10 
426.87 125.89 0.56 
427.95 126.29 -2.99 
427.71 126.44 -2.72 
427.94 126.26 -1.77 
427.99 126.54 -1.19 
427.97 125.96 -0.67 
427.86 126.27 0.39 
428.32 126.29 -2.60 
428.24 126.24 -1.87 
428.71 126.06 -1.28 
428.56 126.07 -0.91 
429.49 126.47 -2.31 
429.27 126.08 -1.85 
429.09 126.09 -1.16 
429.02 126.32 -0.76 
430.01 126.23 -2.72 
429.79 126.17 -1.76 
429.70 126.09 -1.56 
430.62 126.23 -3.05 
430.60 126.33 -2.90 
430.26 125.88 -1.61 
431.05 126.38 -2.87 
431.06 125.98 -1.99 
432.00 126.24 -4.18 
431.86 125.93 -2.58 
432.19 126.02 -1.66 
432.43 126.18 -4.24 
432.38 126.35 -2.30 
432.93 126.14 -1.87 
432.39 126.13 -1.53 
433.59 125.88 -3.99 
433.03 125.88 -2.03 
434.15 126.09 -3.96 
434.88 125.90 -3.36 
434.99 126.12 -2.67 
435.09 126.09 -3.44 
436.89 125.96 -3.62 
438.37 126.16 -2.94 
437.97 126.10 -2.95 
439.11 126.16 -3.11 
439.31 126.40 -2.75 
439.44 126.28 -3.53 
440.21 126.06 -3.22 
440.57 126.08 -2.57 
441.21 126.39 -3.38 
440.88 126.37 -2.79 
441.76 126.53 -3.81 
441.57 126.18 -3.14 
442.03 126.39 -2.67 
442.53 126.15 -3.35 
442.29 126.22 -2.74 
418.30 127.19 -3.92 
418.32 127.16 -2.89 
418.07 127.27 -1.32 
418.07 127.25 -0.82 
418.33 127.15 -2.37 
418.56 127.14 -1.75 
418.56 127.13 -1.21 
418.38 127.10 -0.80 
425.19 126.81 -1.07 
425.76 126.59 -1.70 
425.49 126.99 -1.34 
425.81 127.12 -0.45 
425.66 126.92 -0.14 
426.46 126.79 -2.54 
426.85 126.97 -2.43 
426.78 126.65 -2.11 
427.22 126.67 -1.45 
427.01 126.85 -0.76 
427.18 127.12 -0.04 
427.88 126.75 -2.41 
427.58 126.68 -1.86 
427.72 126.79 -1.37 
427.63 127.06 -0.47 
427.76 127.00 -0.07 
428.00 126.59 0.56 
428.19 126.72 -2.87 
428.49 126.99 -1.82 
428.78 126.59 -1.25 
428.99 126.88 -1.62 
429.26 126.68 -1.26 
429.77 126.62 -2.17 
429.72 126.78 -1.27 
430.24 126.90 -4.17 
434.72 126.89 -3.94 
434.81 126.64 -3.51 
435.25 126.99 -3.17 
435.34 127.27 -2.63 
436.42 126.96 -2.99 
436.54 127.17 -3.73 
436.83 126.87 -2.50 
437.37 126.67 -3.64 
438.33 127.24 -3.29 
438.58 127.01 -2.62 
439.02 126.91 -3.46 
438.58 127.01 -2.62 
439.56 126.84 -3.50 
440.15 126.97 -3.14 
440.65 127.03 -2.36 
441.11 126.82 -3.03 
440.83 126.95 -2.52 
441.74 126.58 -3.53 
441.99 126.71 -2.51 
442.31 126.96 -3.53 
442.27 126.78 -2.55 
417.98 127.41 -2.77 
417.95 127.39 -1.83 
417.94 127.37 -1.35 
417.93 127.36 -0.88 
418.90 127.72 -3.97 
418.90 127.74 -3.23 
418.89 127.75 -2.85 
418.88 127.78 -1.73 
418.99 127.84 -1.02 
419.31 127.95 -1.77 
419.30 127.95 -1.48 
419.83 127.84 -3.90 
419.83 127.83 -3.53 
425.30 127.55 -1.02 
425.81 127.36 -1.54 
426.00 127.57 -0.27 
425.87 127.65 -0.08 
426.57 127.79 -1.64 
426.18 127.60 -1.57 
426.05 127.67 -0.47 
427.65 127.44 -1.57 
428.28 127.80 -3.92 
434.90 127.49 -3.06 
435.61 127.30 -3.78 
435.14 127.82 -3.17 
435.66 127.38 -2.84 
436.24 127.69 -3.54 
435.95 127.83 -2.62 
437.13 127.88 -3.62 
436.78 127.50 -2.64 
437.71 127.96 -3.52 
437.99 127.70 -3.43 
438.27 127.40 -2.64 
438.84 127.59 -3.30 
438.93 127.75 -2.60 
439.73 127.39 -3.63 
441.07 127.73 -3.00 
441.10 127.56 -2.91 
441.63 127.50 -3.27 
441.48 127.67 -2.91 
442.40 127.85 -3.40 
442.30 127.87 -2.69 
418.00 128.61 -3.72 
418.00 128.61 -3.28 
417.77 128.30 -2.89 
417.96 128.77 -1.78 
418.99 128.01 -3.98 
419.01 128.22 -3.43 
419.00 128.21 -2.64 
418.99 128.21 -1.84 
418.97 128.20 -1.04 
419.09 128.33 -3.90 
419.41 128.04 -3.07 
419.06 128.01 -2.86 
419.48 128.10 -1.77 
419.48 128.09 -1.18 
419.75 128.12 -3.63 
426.63 128.29 -1.68 
426.41 128.38 -1.10 
426.74 128.45 -1.69 
429.24 128.36 -4.04 
435.58 128.32 -3.12 
435.47 128.51 -2.65 
436.04 128.15 -3.16 
436.04 128.06 -2.57 
437.78 128.28 -3.55 
437.87 128.49 -2.44 
438.39 128.47 -3.20 
438.54 128.29 -2.59 
438.77 128.41 -3.26 
438.81 128.37 -2.70 
439.77 128.16 -2.98 
439.65 128.50 -3.07 
441.35 128.46 -2.42 
441.90 128.52 -3.52 
441.79 128.34 -2.66 
441.91 128.56 -2.28 
442.23 128.46 -3.15 
442.37 128.58 -2.76 
417.99 128.80 -3.74 
417.98 128.79 -3.28 
417.97 128.78 -2.59 
417.78 128.72 -2.02 
417.73 128.88 -1.42 
418.00 129.00 -0.73 
436.42 129.34 -3.56 
435.90 129.21 -2.48 
437.04 129.31 -3.22 
436.82 129.32 -2.57 
437.78 128.99 -3.13 
437.66 129.27 -2.91 
438.25 128.99 -3.28 
438.41 129.12 -2.75 
438.54 129.04 -1.98 
439.01 129.01 -3.01 
438.94 128.92 -2.80 
439.83 129.27 -3.38 
439.54 128.97 -2.59 
440.42 129.21 -3.00 
440.35 129.04 -2.85 
441.14 129.15 -3.36 
441.23 129.18 -2.71 
441.36 129.28 -2.20 
441.68 128.99 -3.34 
441.68 129.08 -2.71 
442.28 128.92 -3.50 
442.41 129.08 -2.63 
417.78 129.65 -3.74 
417.78 129.66 -3.26 
417.75 129.50 -2.38 
417.75 129.49 -1.95 
417.78 129.66 -1.33 
417.75 129.47 -0.65 
426.63 129.40 -4.08 
435.54 129.60 -3.50 
436.09 129.82 -3.30 
436.25 129.49 -2.51 
436.81 129.71 -3.19 
436.73 129.82 -2.76 
436.57 129.84 -2.19 
437.35 129.56 -3.02 
437.62 129.73 -2.90 
438.41 129.70 -3.41 
438.49 129.52 -2.52 
438.21 129.42 -2.14 
439.06 129.45 -3.27 
438.87 129.74 -2.62 
438.67 129.59 -2.02 
439.75 130.05 -3.69 
439.51 129.79 -3.21 
439.81 129.66 -2.58 
439.89 130.02 -2.14 
440.29 129.84 -3.43 
440.41 129.84 -2.86 
440.62 129.93 -2.22 
441.01 129.56 -3.20 
441.07 129.74 -2.67 
441.03 129.52 -2.13 
442.07 129.57 -3.70 
441.75 129.68 -3.24 
441.68 129.90 -3.01 
441.50 129.97 -2.23 
442.44 129.83 -3.74 
442.20 129.64 -3.46 
442.28 129.85 -2.52 
442.60 129.90 -2.09 
436.12 130.26 -3.21 
436.18 130.46 -2.46 
437.10 130.45 -3.09 
436.83 130.35 -2.57 
436.90 130.40 -2.18 
437.73 130.54 -3.46 
437.80 130.26 -2.65 
437.77 130.67 -2.20 
438.21 130.58 -3.25 
438.23 130.60 -2.64 
438.31 130.50 -1.97 
438.98 130.38 -3.12 
438.97 130.30 -2.65 
439.09 130.52 -2.24 
439.74 130.12 -3.69 
439.69 130.38 -3.42 
439.79 130.46 -2.74 
439.49 130.49 -2.27 
440.71 130.30 -3.71 
440.32 130.24 -3.11 
440.31 130.51 -2.63 
441.04 130.28 -3.62 
440.74 130.41 -3.33 
440.95 130.16 -2.58 
440.99 130.64 -2.25 
442.11 130.44 -3.70 
441.94 130.63 -3.06 
441.75 130.47 -2.52 
441.98 130.50 -2.13 
442.36 130.64 -3.76 
442.57 130.76 -3.36 
442.36 130.28 -2.93 
442.51 130.22 -2.14 
425.83 131.01 -4.13 
426.10 130.95 -4.12 
435.77 130.80 -3.35 
436.22 131.34 -3.72 
436.47 130.89 -3.34 
436.34 130.81 -2.48 
437.03 131.18 -3.25 
437.07 131.05 -2.46 
437.06 130.79 -2.15 
437.64 131.20 -3.17 
437.66 131.05 -2.57 
437.28 131.32 -2.12 
438.16 131.11 -3.21 
438.26 131.26 -2.68 
438.47 130.91 -1.94 
439.00 131.03 -3.17 
439.08 130.99 -2.68 
438.79 131.00 -2.20 
439.61 131.04 -3.38 
439.68 131.02 -2.72 
439.69 131.19 -2.22 
440.27 131.24 -3.42 
440.28 131.08 -2.74 
440.38 131.02 -2.26 
440.94 131.13 -3.73 
440.96 130.90 -3.36 
440.94 130.94 -2.75 
441.00 131.31 -2.44 
441.86 131.18 -3.77 
441.77 131.01 -3.40 
441.68 131.32 -2.82 
441.87 131.05 -2.06 
442.26 131.08 -3.77 
442.24 131.16 -3.30 
442.43 131.05 -2.49 
442.48 131.23 -2.03 
436.95 131.89 -3.24 
437.05 131.66 -2.58 
437.65 131.89 -3.19 
437.59 131.82 -2.70 
437.24 131.98 -2.06 
438.04 131.83 -3.22 
438.10 131.96 -2.55 
438.56 131.77 -2.10 
438.93 131.65 -3.41 
438.91 131.74 -2.69 
438.96 131.88 -2.11 
439.75 131.71 -3.39 
439.60 131.90 -2.66 
439.82 131.69 -2.18 
440.26 131.74 -3.34 
440.33 131.91 -2.61 
440.58 132.06 -1.97 
441.19 131.84 -3.13 
441.18 131.78 -2.55 
441.03 131.98 -1.92 
441.74 131.74 -3.40 
441.66 131.81 -2.62 
441.84 131.76 -2.02 
442.12 131.93 -3.33 
442.53 131.73 -2.47 
442.49 131.50 -2.24 
424.83 132.85 -4.10 
425.40 132.52 -4.13 
427.49 132.40 -3.58 
437.04 132.32 -3.39 
437.01 132.34 -2.70 
437.70 132.39 -3.23 
437.70 132.35 -2.36 
437.77 132.65 -2.03 
438.01 132.83 -3.30 
437.98 132.56 -2.68 
438.94 132.50 -3.18 
439.24 132.53 -2.67 
439.19 132.81 -2.03 
439.74 132.54 -3.15 
439.69 132.52 -2.62 
439.71 132.25 -2.07 
440.68 132.69 -3.69 
440.44 132.52 -3.31 
440.46 132.55 -2.61 
440.10 132.38 -2.22 
441.30 132.65 -3.69 
441.02 132.44 -3.47 
440.96 132.56 -2.65 
441.38 132.83 -1.99 
441.81 132.60 -3.28 
441.70 132.50 -2.62 
441.64 132.78 -2.18 
442.48 132.39 -3.31 
442.24 132.54 -2.64 
442.25 132.70 -1.96 
420.38 133.00 -3.81 
424.93 133.05 -4.21 
425.53 133.08 -3.82 
425.84 132.90 -3.34 
435.53 132.92 -3.44 
437.84 133.40 -3.16 
437.78 132.97 -2.82 
438.66 133.29 -3.26 
438.13 133.05 -2.67 
438.37 133.45 -2.24 
439.00 133.02 -3.17 
439.12 133.34 -2.53 
439.23 133.37 -2.03 
439.81 133.12 -3.11 
439.76 133.15 -2.59 
439.67 133.16 -2.06 
440.43 133.07 -3.15 
440.54 133.14 -2.58 
440.41 133.24 -2.16 
440.15 133.39 -1.32 
440.98 133.35 -3.65 
440.98 133.31 -3.38 
440.92 133.18 -2.73 
441.06 133.38 -2.10 
441.70 133.28 -3.09 
441.62 133.34 -2.70 
442.04 133.31 -2.19 
442.45 133.46 -3.07 
442.19 133.32 -2.52 
442.52 133.30 -2.21 
424.59 133.91 -3.73 
424.30 134.22 -3.40 
424.87 134.04 -3.36 
425.78 133.87 -3.37 
426.51 134.01 -3.74 
426.59 133.80 -3.20 
427.24 134.11 -3.38 
427.46 134.21 -3.66 
437.73 133.70 -3.46 
438.48 134.03 -3.45 
438.32 133.98 -2.26 
439.19 133.74 -3.50 
438.87 133.89 -2.72 
438.94 133.77 -2.25 
439.83 133.77 -3.18 
439.74 133.86 -2.54 
439.75 133.85 -2.22 
440.36 133.85 -3.18 
440.50 133.98 -2.63 
440.47 133.82 -2.10 
440.53 133.64 -1.07 
441.13 133.83 -3.08 
441.05 134.04 -2.65 
440.89 134.13 -2.13 
440.89 134.14 -1.38 
441.58 134.05 -3.26 
441.70 133.86 -2.53 
441.75 134.14 -2.14 
442.33 134.08 -3.31 
442.19 133.92 -2.59 
442.40 133.78 -2.21 
422.79 134.88 -3.78 
423.44 134.92 -4.15 
423.47 134.32 -3.64 
424.40 134.71 -3.13 
424.59 134.45 -2.90 
425.11 134.68 -3.36 
424.89 134.54 -2.87 
425.82 134.50 -3.36 
426.40 134.29 -3.70 
426.65 134.69 -3.56 
427.22 134.34 -3.38 
427.47 134.45 -3.31 
428.13 134.95 -3.63 
438.93 134.36 -3.47 
439.28 134.58 -2.67 
438.89 134.77 -1.99 
439.96 134.69 -3.33 
439.61 134.27 -2.31 
439.90 134.86 -2.15 
440.36 134.67 -3.23 
440.37 134.62 -2.77 
440.33 134.68 -1.95 
440.70 134.45 -1.33 
441.03 134.66 -3.34 
441.14 134.56 -2.61 
441.03 134.69 -2.08 
440.79 134.76 -1.27 
440.75 134.78 -0.65 
441.55 134.56 -3.28 
441.83 134.52 -2.65 
441.69 134.83 -2.13 
441.57 134.84 -1.47 
442.13 134.57 -3.32 
442.43 134.63 -2.58 
442.54 134.47 -2.26 
422.21 135.25 -3.67 
422.99 135.03 -3.84 
422.62 135.10 -3.66 
423.48 135.13 -3.84 
423.49 135.43 -3.40 
424.22 135.10 -3.12 
424.36 135.13 -2.89 
424.99 135.04 -3.33 
425.48 135.33 -3.24 
426.61 135.37 -3.57 
428.66 135.04 -3.27 
429.42 135.19 -3.41 
438.83 135.07 -1.91 
439.91 135.28 -3.03 
439.80 135.24 -2.60 
439.76 135.08 -2.25 
440.66 135.26 -3.27 
440.52 135.02 -2.63 
440.30 135.05 -2.25 
441.08 135.43 -3.23 
441.10 135.29 -2.60 
441.19 135.14 -2.14 
441.18 135.11 -1.36 
441.17 135.08 -0.88 
441.76 135.26 -3.38 
441.79 135.29 -2.51 
441.86 135.01 -2.19 
442.33 135.14 -3.19 
442.37 135.27 -2.70 
