# .PCD v0.7 - Point Cloud Data file format
VERSION 0.7
FIELDS x y z
SIZE 4 4 4
TYPE F F F
COUNT 1 1 1
WIDTH 990
HEIGHT 1
VIEWPOINT 0 0 0 1 0 0 0
POINTS 990
DATA ascii
434.40 61.37 -5.28 
435.10 61.01 -5.28 
422.12 61.79 -5.75 
433.71 61.77 -5.27 
424.73 63.61 -5.57 
425.79 63.46 -5.57 
426.25 63.25 -5.59 
427.80 63.35 -5.57 
425.30 64.22 -5.64 
425.54 64.23 -5.63 
426.94 64.35 -5.28 
425.55 64.66 -5.30 
426.29 64.65 -5.28 
438.98 64.93 -5.49 
439.50 65.20 -5.51 
440.17 64.87 -5.53 
441.66 64.57 -5.38 
425.35 65.86 -5.48 
436.01 65.53 -5.47 
438.96 65.32 -5.50 
439.55 65.23 -5.49 
435.04 66.51 -5.41 
436.38 66.27 -5.45 
436.88 66.43 -5.45 
437.57 66.18 -5.47 
427.15 67.19 -4.68 
429.15 67.27 -1.54 
429.80 66.98 -1.57 
430.08 67.16 -1.17 
434.85 66.81 -5.41 
435.55 67.08 -5.43 
427.27 67.80 -5.08 
427.27 67.81 -4.76 
427.54 67.49 -4.90 
429.50 67.38 -1.98 
429.25 67.44 -1.05 
430.16 67.86 -1.83 
430.03 67.46 -1.20 
429.97 67.73 -0.42 
430.53 67.44 -1.74 
430.31 67.73 -1.39 
430.95 67.81 -1.74 
432.83 67.95 0.93 
432.84 67.95 1.94 
427.10 68.43 -5.21 
427.39 68.04 -5.05 
427.16 68.62 -1.53 
427.90 68.55 -4.66 
427.96 68.75 -4.11 
427.92 68.68 -3.21 
427.84 68.70 -2.79 
429.34 68.44 -2.18 
429.61 68.09 -2.14 
429.71 68.33 -1.05 
429.70 68.58 -0.52 
430.15 68.38 -0.07 
430.53 68.44 -1.79 
430.28 68.21 -1.04 
430.64 68.57 -0.55 
431.21 68.38 -1.81 
431.10 68.36 -0.59 
431.15 68.72 0.29 
431.60 68.20 1.77 
431.63 68.28 -1.69 
431.75 68.13 -1.09 
431.90 68.46 1.26 
431.99 68.53 2.25 
432.44 68.58 -5.35 
432.41 68.14 0.74 
432.95 68.22 1.39 
432.64 68.12 2.26 
434.24 68.31 -5.31 
435.21 68.68 2.06 
438.60 68.26 -0.95 
426.61 69.22 -1.73 
426.89 69.04 -1.72 
427.15 69.03 -1.36 
427.40 69.20 -0.77 
428.11 68.94 -4.72 
427.84 68.73 -3.91 
427.97 68.74 -3.26 
427.97 68.74 -2.83 
428.02 68.86 -1.89 
428.03 68.85 -1.36 
428.02 68.85 -0.67 
428.25 69.30 -4.93 
428.37 69.26 -4.30 
428.20 69.25 -3.43 
428.21 69.24 -2.42 
428.40 69.23 -2.09 
428.42 69.22 -0.98 
428.25 69.22 -0.39 
429.16 69.36 -2.28 
429.47 69.20 -1.84 
429.45 69.20 -0.64 
429.82 68.80 -1.81 
429.92 69.15 -1.42 
430.62 69.16 -2.30 
430.52 69.27 -2.13 
430.45 69.06 -1.50 
430.56 69.19 -0.48 
430.40 68.88 0.28 
431.01 69.01 -1.76 
431.40 68.82 -1.02 
431.15 68.72 0.29 
430.93 69.40 1.02 
431.00 69.20 1.39 
431.46 69.20 2.12 
432.08 69.12 -5.39 
431.72 69.04 -2.18 
432.16 68.92 -1.37 
432.03 69.40 0.51 
432.32 69.25 0.70 
431.67 69.16 1.28 
431.85 69.31 2.12 
432.40 69.39 -5.38 
432.41 69.12 0.42 
432.59 68.88 1.01 
432.70 68.99 1.71 
432.47 68.99 2.06 
433.52 69.16 0.97 
433.93 69.07 -0.23 
434.16 69.26 0.09 
434.04 69.31 1.03 
434.30 68.87 2.19 
434.82 69.26 0.06 
434.71 69.10 0.59 
434.92 68.85 2.07 
435.28 68.71 1.73 
436.08 69.32 -1.49 
437.32 69.04 -0.67 
438.33 69.05 -1.58 
438.14 68.79 -0.97 
438.67 68.85 -1.01 
426.01 69.78 -1.90 
426.07 69.75 -1.97 
426.69 69.80 -1.41 
426.68 69.49 -0.75 
427.73 69.45 -1.80 
428.69 69.83 -5.13 
428.58 69.54 -4.64 
428.45 69.48 -4.04 
428.39 69.63 -3.24 
428.40 69.63 -2.74 
428.35 69.76 -1.98 
428.43 69.63 -1.20 
428.47 69.76 -0.59 
428.73 69.66 -0.10 
428.96 69.74 -5.13 
429.18 69.89 -4.80 
429.14 69.60 -4.21 
429.08 69.81 -2.57 
429.17 69.60 -2.06 
429.34 69.97 -1.10 
429.47 70.02 -0.77 
428.90 69.79 0.43 
429.55 69.84 -4.81 
429.55 69.83 -4.33 
429.91 69.45 -1.43 
429.62 70.00 -0.69 
430.65 69.87 -2.32 
430.59 69.51 -2.05 
430.81 69.53 -1.24 
430.63 69.72 -0.45 
431.54 70.04 -2.35 
431.03 69.78 -2.23 
431.60 69.88 -1.04 
431.20 69.99 -0.25 
431.07 69.94 0.16 
431.60 69.46 1.00 
431.59 70.04 2.15 
432.05 69.49 -2.26 
432.03 69.91 -1.67 
432.04 70.00 -1.47 
432.28 69.91 -0.73 
431.92 69.88 -0.14 
431.85 70.04 1.16 
431.82 70.10 1.26 
431.78 69.73 2.13 
432.57 70.02 -1.39 
432.60 69.42 -0.24 
432.98 69.85 0.15 
432.33 69.68 0.94 
432.34 69.73 1.52 
432.65 69.63 2.09 
433.39 70.01 -2.55 
433.38 69.99 -1.63 
433.53 70.02 -1.03 
433.54 70.07 -0.71 
433.30 69.72 0.13 
433.04 69.54 1.08 
433.30 69.80 2.06 
434.12 69.71 -2.62 
434.06 69.58 -1.74 
433.83 69.68 -0.91 
434.16 69.97 -0.67 
434.05 69.53 0.17 
433.82 69.67 1.07 
433.74 69.47 1.56 
434.09 69.72 2.10 
434.54 69.63 -2.24 
434.66 69.86 0.22 
434.50 69.60 0.99 
434.48 69.59 2.08 
435.56 69.95 -0.72 
435.22 69.94 3.06 
436.33 70.07 -1.62 
435.90 69.48 -0.93 
437.12 70.02 -1.68 
436.86 69.80 -1.51 
437.80 69.48 -1.00 
427.33 70.66 -1.30 
428.81 70.74 -5.08 
429.23 70.67 -5.07 
428.92 70.21 -4.64 
429.22 70.17 -4.24 
429.21 70.20 -3.32 
429.20 70.38 -2.56 
429.47 70.55 -1.76 
429.52 70.17 -1.34 
429.74 70.53 -5.08 
429.78 70.55 -4.62 
429.62 70.71 -3.86 
429.68 70.78 -3.30 
430.01 70.67 -2.60 
429.84 70.47 -1.72 
429.84 70.49 -1.27 
429.69 70.62 -0.55 
430.75 70.78 -4.93 
430.79 70.17 -2.60 
430.24 70.17 -2.08 
430.32 70.70 -1.50 
430.73 70.72 -0.65 
430.59 70.49 0.30 
430.48 70.34 1.02 
431.50 70.39 -2.68 
431.61 70.19 -1.76 
431.29 70.55 -1.42 
431.46 70.19 -0.76 
431.34 70.47 0.16 
431.51 70.46 0.79 
431.20 70.68 1.55 
431.38 70.76 2.01 
432.11 70.79 -2.45 
431.87 70.41 -1.69 
432.07 70.41 -1.39 
432.01 70.64 -0.79 
432.31 70.71 0.17 
432.29 70.69 1.06 
432.02 70.70 2.23 
432.74 70.38 -3.36 
432.35 70.72 -2.48 
432.55 70.76 -1.82 
432.48 70.60 -0.92 
432.81 70.44 -0.66 
432.57 70.54 0.08 
432.49 70.12 1.17 
432.63 70.43 2.05 
433.16 70.16 -2.44 
433.29 70.57 -1.85 
433.27 70.18 -1.55 
433.27 70.21 -0.65 
433.53 70.11 0.21 
433.32 70.60 1.12 
433.24 70.26 2.06 
433.94 70.48 -1.87 
434.12 70.49 -1.35 
435.05 70.80 -1.72 
434.66 70.62 -0.66 
435.04 70.80 -0.15 
434.99 70.73 1.88 
435.01 70.78 1.98 
435.62 70.40 -1.56 
435.63 70.16 -0.76 
435.73 70.71 1.88 
435.32 70.70 2.08 
435.60 70.27 2.98 
436.05 70.25 -1.08 
436.32 70.51 2.92 
437.11 70.78 -1.60 
436.75 70.44 -1.19 
437.06 70.64 2.90 
437.80 70.49 -1.62 
440.89 70.74 -0.35 
440.89 70.77 -0.07 
425.75 71.44 -1.58 
426.38 71.06 -1.59 
426.39 71.47 -1.15 
426.77 71.35 -1.89 
426.93 71.09 -1.16 
428.04 71.44 -2.27 
427.93 71.25 -1.82 
428.00 70.86 -1.55 
428.51 71.05 -1.75 
429.40 70.87 -5.07 
429.26 71.02 -4.89 
429.52 71.07 -4.09 
429.53 71.07 -3.29 
429.37 71.09 -2.61 
429.23 71.20 -1.70 
429.35 71.11 -1.43 
429.94 71.44 -4.84 
429.52 71.35 -4.03 
429.53 71.07 -3.29 
429.97 71.38 -2.54 
429.78 71.38 -2.20 
429.57 71.19 -1.01 
430.26 71.03 -2.42 
430.47 71.32 -2.10 
430.54 71.08 -1.30 
430.73 71.00 -0.71 
430.92 71.36 0.37 
430.47 71.05 0.70 
430.77 71.25 1.58 
430.77 71.37 2.15 
431.18 71.37 -5.05 
431.17 71.38 -3.25 
431.09 71.38 -2.00 
431.58 70.81 -1.37 
431.44 71.13 -0.53 
431.03 71.16 -0.15 
431.41 70.95 0.65 
431.31 71.48 1.54 
432.15 71.03 -1.83 
431.80 71.29 -1.25 
431.65 70.97 -0.78 
432.06 71.17 0.04 
431.71 71.23 1.09 
432.01 71.08 1.82 
432.71 70.84 -1.85 
432.56 71.28 -1.39 
432.68 70.93 -0.58 
432.61 71.46 0.07 
432.35 71.38 0.86 
432.38 71.02 1.90 
433.15 70.85 -1.88 
433.00 71.17 -1.14 
433.03 71.03 -0.29 
433.34 71.06 0.05 
433.64 71.17 2.08 
433.78 70.87 -1.78 
434.17 70.88 -1.30 
434.30 71.11 -0.73 
434.08 70.85 0.02 
434.24 71.50 1.00 
434.17 71.21 1.92 
434.20 70.85 2.83 
434.93 71.37 -0.81 
434.86 71.27 0.08 
434.57 70.96 0.94 
434.89 71.12 1.93 
434.85 71.19 2.81 
435.68 71.45 -1.74 
435.32 71.19 -0.99 
435.64 71.23 0.39 
435.73 70.82 0.93 
435.78 71.04 1.72 
435.61 71.01 1.96 
435.62 71.27 2.82 
436.38 71.35 -1.64 
436.21 71.07 -1.18 
436.35 71.30 0.10 
436.35 71.31 1.02 
436.38 71.10 1.89 
436.35 71.11 2.85 
436.38 70.89 3.42 
437.05 71.23 -1.96 
437.20 71.30 -0.04 
437.05 71.17 2.84 
437.58 71.20 -2.48 
437.82 70.89 -1.77 
437.43 71.25 -1.08 
437.43 71.26 -0.27 
437.78 71.05 0.13 
437.88 71.47 2.18 
438.12 71.05 -4.31 
438.09 71.02 -3.50 
438.15 71.12 -2.70 
438.54 70.88 0.08 
438.00 71.31 2.37 
439.32 71.03 -0.06 
438.71 71.33 1.20 
439.19 71.34 1.35 
438.83 71.45 2.53 
440.02 71.33 -0.39 
439.94 71.11 0.14 
439.77 71.43 1.50 
426.01 71.85 -1.24 
426.87 71.59 -1.61 
429.35 71.53 -5.15 
429.37 71.54 -4.87 
429.40 71.55 -4.31 
429.40 71.52 -3.18 
429.28 71.70 -2.61 
429.47 71.71 -1.42 
429.12 71.95 -0.08 
429.91 72.17 -5.10 
429.91 71.55 -4.39 
429.93 71.91 -3.89 
429.91 71.87 -3.43 
429.96 72.04 -2.45 
429.64 72.09 -2.02 
430.08 71.61 -1.41 
430.23 71.59 -5.11 
430.30 71.68 -4.89 
430.23 71.56 -4.28 
430.30 71.85 -3.15 
430.76 71.70 -2.80 
430.30 71.86 -2.20 
430.32 71.90 -1.36 
430.63 71.57 -0.55 
431.00 71.71 -2.15 
431.11 71.60 -1.40 
431.14 71.62 -0.54 
431.20 71.67 0.34 
431.77 72.05 -2.36 
431.81 71.93 -1.33 
432.09 71.88 -0.63 
431.86 72.08 1.17 
432.71 71.89 -1.32 
432.63 71.90 -0.63 
432.53 72.16 0.09 
432.52 72.18 0.94 
432.34 71.63 1.52 
433.58 71.89 -1.81 
433.19 71.69 -0.18 
433.50 71.84 0.21 
433.27 71.61 0.94 
433.53 71.52 1.90 
433.55 71.77 2.90 
433.80 72.18 -1.97 
433.92 72.08 -0.77 
434.27 71.69 0.12 
434.25 71.67 0.99 
433.80 71.76 1.84 
433.81 71.88 2.20 
433.88 71.84 3.02 
435.02 71.84 -1.70 
434.87 72.07 -1.07 
434.58 72.14 -0.50 
434.94 71.60 0.05 
434.64 72.11 1.82 
434.70 71.84 2.61 
434.90 72.20 2.66 
435.67 71.93 -3.17 
435.64 72.01 -2.72 
435.64 72.03 -1.83 
435.74 71.97 -1.00 
435.68 71.63 0.10 
435.19 71.68 0.97 
435.72 71.56 1.35 
435.75 71.57 2.70 
436.35 71.61 -1.81 
436.37 71.60 -0.82 
436.20 71.81 0.12 
435.87 71.58 0.98 
436.75 71.60 -2.28 
437.02 71.53 0.14 
436.62 72.18 0.94 
436.90 72.04 1.84 
437.16 71.80 2.39 
437.06 72.17 2.65 
437.89 71.97 -0.16 
437.39 72.19 0.39 
437.76 71.86 0.65 
437.53 71.80 1.89 
437.40 71.87 2.09 
437.77 71.51 2.78 
438.32 72.12 -0.03 
438.41 71.70 1.13 
438.49 72.06 1.64 
438.47 71.66 2.06 
438.14 71.67 3.25 
438.68 72.01 -4.57 
438.81 71.69 -0.37 
439.09 71.64 0.14 
438.76 71.99 1.33 
438.79 71.58 2.37 
439.18 72.16 2.70 
439.51 71.60 -1.83 
439.72 71.85 -1.45 
439.70 71.60 -0.76 
439.60 71.96 0.36 
439.73 71.87 1.22 
439.73 71.83 1.53 
439.66 71.58 2.41 
439.73 71.82 3.54 
440.17 72.17 -5.07 
440.37 71.91 3.29 
440.62 72.09 3.49 
427.53 72.36 -1.58 
427.89 72.31 -1.08 
429.42 72.68 -2.25 
429.51 72.68 -0.33 
429.48 72.80 0.35 
430.04 72.43 -2.33 
429.93 72.56 -2.02 
429.72 72.49 -1.20 
429.62 72.30 -0.73 
430.60 72.38 -4.97 
430.89 72.43 -4.31 
430.29 72.23 -2.44 
430.51 72.65 -1.78 
430.82 72.43 -1.35 
430.60 72.83 -0.66 
431.12 72.45 -4.96 
431.29 72.62 -1.97 
431.14 72.48 -1.40 
431.31 72.30 -0.49 
431.48 72.89 -0.06 
431.11 72.30 1.00 
431.68 72.28 -1.61 
431.65 72.73 -0.75 
432.24 72.51 0.23 
432.08 72.63 0.74 
431.74 72.55 1.39 
433.00 72.47 -1.61 
432.67 72.49 -1.27 
432.88 72.57 -0.20 
432.60 72.57 -0.15 
432.77 72.41 1.01 
432.57 72.74 2.28 
433.21 72.30 -2.24 
433.22 72.32 -0.45 
433.38 72.29 -0.10 
433.52 72.81 2.57 
433.49 72.85 3.36 
434.14 72.84 -3.31 
434.35 72.88 -2.51 
434.25 72.83 -1.80 
434.22 72.81 -1.14 
434.30 72.80 -0.81 
434.40 72.78 -0.02 
434.19 72.60 0.96 
434.02 72.78 1.64 
434.12 72.61 2.52 
434.14 72.57 2.67 
434.67 72.77 -3.34 
434.97 72.60 -2.49 
435.01 72.36 -1.75 
435.00 72.22 -0.89 
434.91 72.50 -0.84 
434.85 72.34 -0.14 
435.03 72.55 0.75 
434.98 72.35 1.76 
434.62 72.31 2.97 
435.71 72.37 -2.62 
435.72 72.66 -1.76 
435.23 72.28 -0.81 
435.33 72.49 0.21 
435.40 72.53 0.60 
435.55 72.70 1.47 
435.21 72.40 2.58 
436.35 72.53 -0.96 
436.25 72.80 -0.19 
436.34 72.53 -0.07 
436.35 72.56 0.81 
436.40 72.73 1.72 
436.63 72.43 -1.28 
437.06 72.37 -0.25 
436.94 72.55 -0.02 
437.13 72.64 0.70 
436.72 72.71 1.71 
436.86 72.53 2.51 
437.65 72.46 -0.77 
437.59 72.44 -0.01 
437.36 72.51 0.70 
437.80 72.49 1.57 
437.46 72.25 2.21 
438.13 72.39 -0.18 
438.09 72.68 0.45 
438.26 72.74 0.78 
438.03 72.54 1.29 
437.93 72.61 2.52 
438.88 72.47 1.46 
439.18 72.35 2.05 
439.16 72.57 2.65 
439.39 72.54 2.36 
439.87 72.78 3.03 
440.24 72.64 0.26 
440.77 72.84 0.25 
441.95 72.86 2.58 
441.82 72.37 3.20 
441.97 72.87 3.42 
441.98 72.55 4.15 
442.22 72.53 3.42 
429.49 72.98 -2.03 
429.70 72.92 -2.59 
430.00 73.31 -2.13 
429.69 73.44 -0.25 
430.32 73.17 -2.26 
430.83 72.99 -0.51 
431.50 73.18 0.48 
431.81 73.31 -1.90 
431.84 73.36 -0.61 
431.82 73.35 0.16 
431.85 72.94 0.79 
431.88 73.58 2.64 
433.01 73.47 -2.80 
432.87 73.19 -1.73 
432.94 73.41 -1.05 
432.57 73.10 -0.67 
433.05 73.48 2.50 
432.66 73.34 2.69 
433.68 73.15 -3.43 
433.69 73.17 -2.62 
433.02 73.07 -0.18 
433.51 73.31 -0.14 
433.42 73.54 0.76 
433.47 73.21 1.66 
432.94 73.16 2.58 
434.14 72.91 -2.48 
434.01 73.04 -0.86 
433.88 73.24 0.09 
434.34 73.19 0.85 
433.80 73.60 1.62 
434.48 73.39 -1.79 
434.49 73.55 -1.12 
434.87 73.45 -0.19 
435.00 73.42 0.31 
434.90 73.52 0.77 
434.89 73.55 1.59 
435.46 73.37 -1.18 
435.69 73.17 -0.77 
435.64 73.14 0.09 
435.71 73.42 0.82 
435.55 73.57 1.58 
436.49 73.20 -0.04 
436.43 73.35 1.07 
437.02 73.11 0.02 
437.14 73.28 0.68 
437.10 73.47 1.63 
436.96 73.56 2.06 
437.75 73.10 0.49 
437.35 73.29 1.95 
438.23 73.56 -1.70 
438.02 73.23 0.77 
438.56 73.05 1.75 
438.08 73.53 2.45 
439.17 73.17 2.55 
439.86 73.01 2.60 
440.08 73.33 2.35 
440.90 72.98 -0.43 
441.18 73.49 0.17 
441.49 73.34 2.33 
441.47 72.97 3.34 
441.68 73.28 3.40 
442.20 73.49 2.91 
442.23 73.05 3.95 
429.46 73.67 -2.09 
429.74 73.83 -2.32 
429.98 73.94 -2.09 
429.93 73.88 -1.16 
429.89 74.10 -0.45 
430.57 73.81 -2.48 
430.40 73.85 -2.04 
430.63 74.16 -0.88 
430.41 74.18 -0.67 
431.29 74.25 -2.10 
431.59 73.78 -1.34 
431.42 73.78 -0.24 
431.40 74.01 0.30 
431.20 73.93 0.62 
431.18 74.15 2.00 
431.47 74.09 2.66 
432.08 74.11 -4.93 
431.99 74.05 -4.04 
432.02 74.07 -3.15 
432.10 74.14 -2.26 
432.12 73.79 -1.89 
431.63 74.00 -0.24 
431.65 74.06 0.31 
431.97 74.18 0.99 
431.89 74.11 1.86 
431.74 74.17 2.42 
432.41 73.69 -4.41 
432.52 73.91 -4.27 
432.49 73.69 -3.24 
432.56 73.99 -2.67 
432.68 74.19 -1.88 
432.49 73.65 -1.15 
432.74 73.76 -0.49 
432.59 73.94 0.44 
432.72 74.27 1.21 
432.64 73.69 1.30 
432.91 73.80 2.43 
433.20 73.63 -2.82 
433.60 73.70 -0.98 
433.42 73.54 0.76 
433.29 73.88 1.59 
433.04 73.72 2.47 
433.28 73.61 2.75 
433.88 74.09 -0.97 
433.97 74.00 1.18 
434.11 74.28 1.87 
434.60 74.17 -5.04 
434.96 74.37 -0.21 
434.62 74.08 0.53 
435.25 73.66 -0.34 
435.58 73.95 0.05 
435.47 73.71 0.73 
436.10 73.94 0.74 
435.97 73.99 1.55 
437.14 74.18 -1.70 
437.03 73.76 0.69 
436.82 74.10 2.46 
437.71 73.97 -1.70 
437.33 74.23 1.04 
437.67 73.89 1.63 
438.17 74.04 -1.70 
438.61 73.67 -1.45 
438.46 73.71 0.96 
438.33 73.97 1.46 
438.01 74.23 2.32 
438.40 73.66 2.85 
439.11 74.19 -5.04 
439.23 73.70 -1.99 
438.65 74.05 -1.43 
438.65 73.99 -0.53 
438.94 74.19 2.22 
439.80 73.93 -4.96 
439.71 74.10 -0.30 
439.82 73.94 2.44 
440.26 73.75 -4.97 
440.67 74.06 -1.86 
440.48 74.38 0.25 
440.55 74.15 1.32 
440.16 74.17 2.10 
441.53 73.93 -1.87 
442.34 73.69 3.04 
430.07 74.81 -2.16 
430.87 74.66 -2.35 
430.88 74.66 -1.16 
430.89 74.99 1.34 
431.42 74.54 -1.36 
431.58 74.44 -0.21 
431.24 74.50 1.06 
431.43 74.59 2.36 
431.64 74.71 -0.44 
432.09 74.39 1.22 
431.77 74.34 1.70 
432.06 74.55 2.28 
432.78 74.37 -1.10 
432.89 74.65 -0.31 
432.43 74.95 1.43 
432.94 74.40 2.31 
433.32 74.49 -0.97 
433.17 74.39 -0.77 
433.27 74.33 0.24 
434.23 74.81 -0.33 
434.09 74.93 0.01 
434.37 74.34 0.92 
434.03 74.36 1.65 
434.96 74.37 -0.21 
434.47 74.97 1.75 
435.62 74.94 -4.98 
435.49 74.80 0.43 
435.15 74.74 1.14 
435.30 74.33 1.42 
435.59 74.54 1.99 
435.86 74.93 -5.05 
435.98 74.68 -1.79 
435.95 74.63 0.66 
436.32 74.98 1.37 
436.49 74.89 3.05 
437.10 74.79 -2.01 
436.76 74.51 1.12 
437.21 74.67 1.47 
436.65 74.91 2.17 
436.85 74.99 2.95 
437.70 74.83 -5.03 
437.58 74.53 -2.07 
437.75 75.09 -0.34 
437.82 74.88 -0.14 
437.24 74.45 1.24 
437.44 74.59 1.53 
437.90 74.61 2.14 
437.71 74.71 3.13 
438.62 74.59 -5.19 
438.16 74.62 -5.03 
438.45 74.61 -0.17 
438.45 74.85 -0.13 
438.43 74.36 2.38 
438.95 74.94 -5.17 
438.63 74.41 -5.04 
439.12 74.39 -0.16 
439.20 74.31 2.31 
439.74 74.69 -0.82 
439.77 74.44 1.58 
440.61 74.71 -1.92 
440.57 74.31 -0.87 
440.21 74.54 -0.62 
440.48 74.38 0.25 
440.20 74.70 1.23 
441.37 74.49 -1.85 
442.02 74.72 0.07 
441.65 74.66 1.14 
442.07 74.78 1.34 
442.39 74.47 1.34 
430.40 75.07 -1.97 
430.59 75.66 1.83 
430.88 75.06 2.25 
431.54 75.32 -1.07 
431.36 75.43 -0.75 
431.32 75.66 1.37 
431.04 75.18 1.99 
431.99 75.35 -5.02 
431.67 75.25 -1.03 
432.22 75.65 -0.58 
432.03 75.24 1.42 
431.74 75.11 2.08 
432.56 75.68 -0.35 
433.43 75.24 -0.21 
433.93 75.69 0.25 
434.04 75.60 2.17 
434.93 75.03 -1.79 
434.50 75.40 2.20 
435.68 75.34 -5.08 
435.75 75.26 -4.99 
435.35 75.43 -1.76 
435.73 75.50 -0.17 
435.39 75.57 0.12 
435.71 75.58 1.11 
435.31 75.32 1.41 
435.24 75.38 2.53 
436.34 75.27 -5.03 
435.83 75.61 -0.26 
435.84 75.13 1.41 
436.11 75.05 2.96 
437.01 75.34 -4.93 
436.71 75.23 -2.13 
436.60 75.20 -0.22 
436.67 75.02 0.67 
436.77 75.16 1.39 
436.63 75.32 2.15 
436.80 75.32 2.79 
436.95 75.55 3.79 
437.45 75.13 -4.93 
437.34 75.28 -2.30 
437.59 75.14 -2.23 
437.63 75.24 -0.22 
437.46 75.43 1.98 
437.57 75.25 2.83 
438.25 75.23 -0.22 
438.12 75.63 2.63 
438.49 75.21 2.95 
439.23 75.02 -5.20 
438.66 75.38 2.99 
439.33 75.23 -5.19 
439.40 75.46 -4.91 
439.92 75.33 -0.89 
441.31 75.24 -0.11 
441.66 75.54 0.23 
432.06 75.83 -1.09 
432.72 75.92 -0.42 
432.69 75.94 0.35 
432.63 75.82 1.12 
433.44 75.92 0.24 
433.17 75.95 0.87 
433.29 75.91 1.94 
433.69 75.77 2.13 
433.88 75.79 1.91 
434.88 76.14 -1.80 
434.79 76.10 2.09 
435.44 75.71 -1.83 
435.69 76.09 -1.04 
435.23 75.81 2.14 
436.23 75.72 -2.13 
436.12 76.33 -1.08 
436.26 75.87 -0.26 
436.07 75.75 0.01 
436.67 76.05 -0.25 
437.87 75.77 2.14 
438.43 75.83 1.85 
438.25 76.20 2.00 
429.86 77.02 -5.17 
432.87 77.00 1.60 
433.44 77.01 0.80 
433.29 76.72 1.58 
434.32 76.53 -2.07 
433.82 77.02 1.15 
434.00 76.64 1.91 
434.27 76.42 1.99 
434.81 76.75 -1.85 
435.60 76.64 -1.07 
435.49 76.88 -0.51 
435.36 76.82 -0.02 
436.18 76.63 -0.33 
436.59 76.59 -5.02 
429.56 77.64 -5.14 
433.34 77.73 0.93 
435.79 77.19 -5.01 
441.84 77.64 -0.98 
441.88 77.33 -0.85 
442.35 77.72 -1.08 
442.24 77.44 -0.18 
433.10 78.06 0.76 
437.43 78.50 -5.11 
441.85 78.21 -4.93 
442.17 78.12 -4.86 
442.43 78.00 -0.85 
436.91 78.75 -5.14 
437.45 78.84 -5.15 
436.94 79.19 -5.14 
436.74 79.30 -4.98 
439.59 81.25 -4.81 
431.83 82.25 -5.07 
436.81 82.31 -4.97 
439.22 82.61 -4.88 
437.09 83.22 -2.09 
437.47 82.87 -2.06 
438.47 83.26 -0.49 
438.95 82.95 -1.08 
439.50 82.82 -4.86 
435.20 83.99 -1.77 
436.25 83.97 -1.92 
436.93 83.67 -2.09 
437.62 83.79 -1.76 
437.65 83.83 0.02 
438.14 83.97 -1.77 
438.43 83.87 -1.39 
437.93 83.75 -0.19 
438.26 83.83 0.12 
439.08 83.94 -1.77 
438.90 84.00 -1.39 
438.98 83.68 -0.76 
439.30 84.02 0.00 
439.54 83.76 -1.75 
439.61 83.66 -1.02 
440.27 83.72 -1.36 
440.73 83.65 -1.36 
434.99 84.11 -1.07 
434.70 84.54 -0.47 
435.58 84.23 -1.57 
435.15 84.13 -1.37 
435.26 84.57 -0.82 
436.27 84.42 -1.54 
436.83 84.65 -2.41 
436.84 84.75 -1.83 
437.58 84.11 -1.75 
437.79 84.78 -1.24 
438.30 84.67 -2.08 
439.16 84.50 -2.39 
438.98 84.68 -2.01 
438.77 84.68 -1.07 
439.08 84.10 -0.59 
439.24 84.73 0.02 
439.63 84.55 -4.87 
439.87 84.56 -2.01 
439.89 84.51 -1.22 
439.62 84.18 -0.51 
439.57 84.59 0.12 
439.80 84.55 0.74 
440.32 84.57 -2.01 
440.13 84.72 -0.59 
440.77 84.46 -2.00 
435.10 85.23 -1.31 
435.71 84.83 -1.66 
435.47 85.28 -1.29 
435.71 85.31 -0.71 
435.96 85.11 -1.97 
436.42 85.07 -0.68 
437.22 84.96 -2.60 
436.81 85.20 -2.05 
436.86 85.46 -0.96 
437.70 85.10 -2.61 
437.88 85.11 -2.07 
437.82 85.03 -0.69 
438.06 85.08 -2.21 
438.25 85.01 -2.29 
438.18 85.33 -0.96 
437.95 85.11 -0.61 
438.71 85.45 -2.33 
439.01 84.90 -0.91 
439.25 84.82 -0.59 
439.29 85.12 0.26 
438.89 85.13 0.73 
439.73 85.26 -4.88 
439.74 85.30 -2.27 
439.65 85.06 -1.62 
439.90 84.96 -0.92 
439.42 85.38 -0.22 
439.37 85.11 0.17 
439.48 85.15 1.04 
440.18 85.43 -4.86 
440.16 85.26 -2.27 
440.34 85.09 -1.80 
440.06 84.96 -0.62 
440.41 85.14 0.17 
441.17 85.08 -1.81 
