# .PCD v0.7 - Point Cloud Data file format
VERSION 0.7
FIELDS x y z
SIZE 4 4 4
TYPE F F F
COUNT 1 1 1
WIDTH 1658
HEIGHT 1
VIEWPOINT 0 0 0 1 0 0 0
POINTS 1658
DATA ascii
452.13 185.73 -1.86 
451.65 185.88 -1.21 
452.12 185.71 -0.81 
452.34 185.81 -0.98 
454.79 185.74 -1.41 
454.97 185.74 -0.55 
454.79 185.72 -0.34 
455.53 185.99 -1.57 
455.52 185.97 -0.57 
459.74 185.63 -0.88 
459.71 185.54 -0.12 
459.79 186.00 0.34 
460.62 185.90 -0.78 
460.59 185.83 -0.13 
460.56 185.76 0.53 
460.53 185.69 1.19 
460.50 185.62 1.84 
460.65 185.56 2.98 
461.06 186.17 -0.77 
461.04 186.13 -0.15 
461.02 186.10 0.47 
461.13 186.03 1.24 
460.97 185.99 2.34 
460.96 185.95 2.96 
461.85 185.89 -1.28 
461.94 185.73 -0.80 
461.87 185.90 -0.09 
461.70 185.87 0.70 
461.71 185.87 1.48 
461.60 186.05 2.10 
461.37 186.11 2.53 
462.01 186.06 -1.30 
462.08 186.11 -0.75 
462.18 186.15 -0.01 
462.08 186.11 0.59 
462.09 186.11 1.04 
463.20 185.70 -2.31 
463.50 185.90 -2.33 
465.22 185.98 -1.53 
465.41 186.13 -0.90 
465.36 186.03 0.12 
465.35 186.00 1.00 
465.14 185.80 1.25 
465.27 185.85 2.15 
452.39 186.72 -1.91 
452.38 186.69 -0.85 
452.96 186.82 -1.80 
453.75 186.65 -2.17 
454.04 186.70 -1.22 
453.89 186.77 -0.76 
453.75 186.58 -0.18 
454.83 186.47 -1.83 
454.82 186.43 -0.85 
454.43 186.25 -0.05 
455.48 186.69 -1.38 
455.66 186.71 -0.53 
455.47 186.68 -0.32 
459.95 186.74 1.87 
459.93 186.69 2.70 
460.00 186.85 0.20 
460.48 186.71 1.05 
460.44 186.60 1.81 
460.55 186.60 2.55 
461.06 186.17 -0.77 
460.66 186.86 0.35 
461.65 186.18 -1.13 
461.65 186.16 -0.67 
461.42 186.22 -0.07 
461.99 186.46 0.75 
462.01 186.47 1.56 
462.01 186.47 1.97 
461.37 186.25 2.59 
462.61 186.65 -2.26 
462.08 186.51 -1.15 
462.25 186.44 -0.75 
462.38 186.50 0.00 
462.28 186.59 0.72 
462.28 186.59 1.14 
462.12 186.54 1.82 
462.97 186.46 -2.26 
465.55 186.43 0.84 
465.50 186.33 1.90 
465.65 186.64 -1.30 
465.60 186.53 -0.23 
452.44 186.93 -1.17 
453.22 186.99 -1.94 
453.27 186.97 -0.97 
453.19 186.92 0.06 
454.09 187.16 -2.12 
454.26 186.95 -1.72 
454.27 186.95 -0.75 
454.09 187.12 -0.17 
455.57 187.47 -0.81 
455.55 187.43 0.14 
456.25 186.96 -1.53 
456.24 186.95 -0.55 
459.72 187.43 -0.24 
459.68 187.33 0.49 
459.63 187.23 1.22 
459.59 187.12 1.95 
460.57 186.93 -0.46 
460.43 187.38 0.01 
460.39 187.28 0.81 
460.35 187.18 1.60 
460.31 187.08 2.40 
461.27 187.37 -0.73 
461.23 187.30 -0.03 
461.20 187.22 0.66 
461.17 187.15 1.34 
461.32 187.08 1.88 
461.29 187.03 2.55 
461.94 187.37 -1.10 
461.93 187.35 -0.56 
461.92 187.33 -0.01 
461.91 187.31 0.53 
461.91 187.25 1.50 
461.90 187.21 2.07 
461.87 187.21 2.72 
462.62 187.29 -2.14 
462.64 187.11 -1.38 
462.37 187.14 -0.59 
462.50 187.05 -0.07 
462.51 187.06 0.77 
462.51 187.06 1.20 
462.33 187.11 2.06 
462.34 187.11 2.49 
463.08 187.14 -2.20 
462.84 187.49 -1.39 
462.85 187.49 -0.75 
462.73 187.49 -0.05 
462.83 187.39 0.59 
462.86 187.50 1.38 
462.87 187.50 1.88 
453.17 187.75 -1.85 
453.20 187.94 -1.13 
453.16 187.73 -0.81 
454.04 188.08 -1.87 
453.75 187.87 -1.75 
454.03 188.04 -0.89 
454.26 188.22 0.03 
454.67 187.80 -2.09 
454.94 188.20 -1.69 
454.95 188.20 -0.72 
454.66 187.73 -0.15 
455.13 188.21 -2.12 
455.62 187.90 -0.95 
455.62 187.90 -0.95 
455.65 187.93 -0.06 
456.14 187.61 -1.35 
456.33 187.64 -0.51 
455.93 187.64 -0.19 
456.33 187.63 0.50 
456.94 187.89 -0.53 
462.00 187.65 -0.83 
461.99 187.63 -0.23 
461.97 187.58 0.98 
462.63 187.68 -1.96 
462.63 187.68 -1.57 
462.65 187.70 -0.58 
462.64 187.77 0.01 
462.61 187.79 0.43 
462.66 187.78 1.30 
462.63 187.80 2.11 
462.68 187.80 2.61 
463.01 187.99 -2.00 
463.05 187.89 -1.41 
463.06 187.89 -0.74 
463.08 188.02 -0.01 
463.07 187.90 0.59 
463.08 187.90 1.26 
463.08 187.90 1.77 
463.67 187.68 -2.23 
466.39 188.16 -1.48 
466.36 188.10 -0.50 
466.33 188.03 0.48 
466.30 187.97 1.46 
466.64 188.16 2.35 
466.27 187.91 2.43 
453.92 188.74 -1.80 
454.03 188.93 -1.09 
453.91 188.72 -0.78 
454.03 188.90 -0.06 
454.94 188.33 -2.04 
454.39 188.84 -1.69 
454.38 188.81 -0.71 
454.93 188.29 -0.14 
455.53 188.89 -2.01 
455.21 188.28 -1.66 
455.21 188.27 -0.72 
455.53 188.82 -0.12 
456.26 188.52 -1.14 
456.29 188.46 -0.77 
456.27 188.42 0.16 
456.79 188.51 -1.32 
456.98 188.54 -0.49 
456.79 188.49 -0.29 
456.98 188.53 0.50 
457.60 188.79 -0.51 
460.81 188.92 -0.54 
460.78 188.87 0.34 
460.76 188.81 1.22 
461.26 188.83 2.07 
461.48 188.88 -1.07 
461.95 188.92 0.07 
461.40 188.69 0.48 
461.88 188.76 1.52 
461.85 188.68 2.24 
461.81 188.60 2.96 
462.64 188.34 -2.06 
462.63 188.32 -1.54 
462.48 188.57 -0.52 
462.46 188.55 0.05 
462.45 188.53 0.62 
462.44 188.50 1.19 
462.34 188.74 2.18 
462.32 188.70 2.84 
463.21 188.34 -2.01 
463.21 188.44 -1.52 
463.22 188.42 -0.55 
463.22 188.45 0.00 
463.32 188.42 0.63 
463.23 188.46 1.23 
462.98 188.33 2.09 
462.97 188.48 2.65 
463.78 188.82 -2.10 
463.51 188.75 -1.44 
463.57 188.68 -0.67 
463.45 188.83 -0.05 
463.54 188.76 0.66 
463.54 188.77 1.37 
463.55 188.77 1.73 
466.75 188.38 -1.50 
466.67 188.46 -0.84 
466.63 188.38 0.18 
466.69 188.27 0.43 
466.60 188.30 1.20 
466.62 188.32 2.44 
454.83 189.12 -1.80 
454.82 189.08 -0.85 
454.80 189.05 0.10 
455.32 189.50 -1.82 
455.33 189.50 -0.89 
455.73 189.40 -0.12 
456.15 189.62 -2.04 
456.10 189.52 -1.60 
455.93 189.53 -0.69 
456.16 189.62 -0.21 
456.90 189.39 -1.12 
456.73 189.44 -0.92 
456.90 189.38 -0.06 
457.42 189.38 -1.29 
457.61 189.41 -0.47 
457.41 189.36 -0.27 
457.61 189.40 0.50 
458.24 189.66 -0.49 
458.23 189.64 0.44 
458.88 188.99 -0.78 
458.88 188.99 0.28 
458.94 189.40 0.39 
459.61 189.58 -0.83 
459.61 189.58 0.20 
460.48 189.29 -0.90 
461.28 189.53 -0.70 
461.24 189.43 0.15 
461.19 189.32 0.99 
461.15 189.21 1.84 
461.98 189.00 -0.66 
461.41 189.19 -0.34 
461.36 189.07 0.47 
462.65 189.07 -1.44 
462.64 189.05 -0.80 
462.34 189.06 0.01 
462.62 189.00 0.47 
462.61 188.98 1.10 
463.36 189.16 -1.31 
463.28 189.18 -0.81 
463.29 189.18 0.07 
463.30 189.19 0.52 
463.31 189.19 1.42 
463.32 189.20 1.87 
463.33 189.21 2.78 
463.69 189.32 -2.04 
463.76 189.21 -1.46 
463.77 189.22 -0.74 
463.76 189.34 0.01 
463.72 189.26 0.58 
463.91 189.27 1.23 
463.80 189.24 1.80 
454.64 189.69 -1.74 
454.63 189.67 -0.75 
454.72 189.84 -0.05 
455.59 190.11 -1.74 
455.57 190.07 -0.81 
455.56 190.04 0.12 
456.45 189.93 -1.93 
456.45 189.90 -1.01 
456.44 189.87 -0.09 
456.70 189.90 -0.36 
457.52 190.24 -1.09 
457.54 190.29 -0.70 
457.51 190.23 -0.05 
458.22 190.27 -1.41 
458.22 190.26 -0.45 
457.94 190.20 -0.26 
458.22 190.24 0.50 
459.57 190.21 -0.68 
459.47 189.83 0.28 
459.57 190.21 0.39 
462.74 190.30 3.02 
463.08 189.93 -0.48 
463.17 189.87 -0.08 
463.06 189.88 0.72 
463.14 189.78 1.17 
463.04 189.83 1.93 
463.03 189.80 2.54 
463.97 189.87 -1.92 
463.98 189.88 -1.25 
464.01 189.87 -0.54 
464.03 189.91 0.00 
463.99 189.90 0.74 
464.00 189.91 1.08 
463.85 190.06 2.03 
463.71 189.99 2.45 
464.32 190.32 -1.88 
464.19 190.30 -1.27 
464.18 190.18 -0.53 
464.26 190.18 0.08 
464.29 190.23 0.66 
464.26 190.17 1.20 
464.37 190.36 1.97 
455.40 190.58 -1.68 
455.39 190.55 -0.71 
455.39 190.74 -0.03 
456.18 190.61 -0.86 
456.28 190.99 0.14 
456.93 190.70 -2.43 
456.94 190.69 -1.54 
456.70 190.71 -0.66 
457.11 190.93 -0.20 
457.23 190.92 -1.86 
457.22 190.88 -0.96 
457.22 190.85 -0.07 
458.12 191.07 -1.07 
458.34 191.08 -0.14 
460.03 190.64 -0.76 
460.17 190.39 0.20 
460.13 191.03 0.39 
460.14 191.02 1.45 
461.16 190.99 0.81 
461.10 190.86 1.62 
461.64 191.06 1.43 
461.62 191.00 2.36 
462.74 190.72 0.18 
462.70 190.63 0.95 
462.67 190.55 1.71 
462.12 190.96 2.34 
462.63 190.46 2.47 
463.12 190.80 -0.63 
463.10 190.76 0.10 
463.08 190.71 0.82 
463.06 190.67 1.55 
463.30 190.50 1.92 
463.02 190.59 3.00 
463.74 190.69 -1.58 
464.07 190.80 -0.81 
463.98 190.38 0.13 
463.99 190.39 0.58 
464.00 190.40 1.50 
464.01 190.41 1.96 
464.12 190.84 2.58 
464.54 190.81 -1.88 
464.41 190.73 -1.28 
464.54 190.73 -0.78 
464.54 190.73 -0.02 
464.53 190.69 0.64 
464.56 190.79 1.18 
464.44 190.77 1.89 
464.68 190.92 2.46 
465.26 191.00 -1.98 
464.89 191.05 -1.40 
464.81 191.03 -0.75 
464.80 191.02 -0.11 
464.91 191.06 0.69 
464.91 191.06 1.30 
456.05 191.66 -1.95 
456.06 191.46 -1.64 
456.05 191.63 -0.98 
456.04 191.61 -0.01 
456.99 191.65 -0.83 
456.99 191.65 0.04 
457.65 191.23 -1.18 
457.29 191.47 -0.96 
457.65 191.22 -0.34 
458.34 191.09 -1.15 
458.18 191.17 -0.66 
458.12 191.06 -0.04 
458.81 191.08 -0.44 
460.02 191.21 -0.62 
460.64 191.42 0.28 
460.02 191.21 0.46 
460.64 191.41 1.30 
461.26 191.23 -0.82 
461.21 191.11 0.00 
460.72 191.18 1.21 
461.69 191.18 -0.43 
461.66 191.12 0.50 
462.05 191.50 2.10 
462.33 191.50 -1.08 
462.28 191.36 -0.22 
462.22 191.23 0.64 
462.09 191.62 1.20 
463.93 191.52 -1.33 
463.91 191.47 -0.67 
463.72 191.20 0.19 
463.71 191.18 0.82 
463.70 191.15 1.46 
463.69 191.13 2.09 
463.81 191.24 2.64 
464.76 191.17 -1.94 
464.65 191.19 -1.29 
464.77 191.15 -0.71 
464.80 191.31 0.02 
464.77 191.22 0.75 
464.67 191.23 1.23 
464.41 191.22 2.07 
464.42 191.23 2.55 
465.01 191.63 -1.97 
464.90 191.68 -1.30 
464.99 191.65 -0.51 
464.97 191.48 0.08 
464.99 191.56 0.72 
464.98 191.50 1.32 
464.93 191.73 2.05 
465.00 191.52 2.57 
456.99 191.93 -0.73 
456.68 192.26 0.30 
457.57 191.89 -1.51 
457.57 191.88 -0.63 
458.00 192.16 -1.89 
458.40 192.39 -1.14 
458.00 192.15 -1.04 
458.00 192.15 -0.19 
458.39 192.37 0.49 
458.93 191.90 -1.12 
458.69 192.15 -0.86 
458.93 191.88 -0.13 
458.73 192.18 0.70 
458.75 192.20 1.48 
459.39 191.87 -0.42 
459.39 191.86 0.51 
460.48 192.26 -0.56 
460.48 192.25 0.52 
460.48 192.25 1.61 
461.18 192.20 -0.73 
461.31 191.93 0.20 
460.69 191.82 0.39 
461.18 192.19 1.29 
462.19 191.85 -0.59 
464.15 192.36 -1.44 
464.13 192.33 -0.73 
463.95 192.29 -0.31 
463.93 192.25 0.43 
463.90 192.20 1.16 
463.88 192.15 1.89 
464.08 192.20 2.83 
464.73 191.89 -1.89 
464.74 191.90 -1.37 
464.79 192.03 -0.77 
464.77 191.93 0.19 
464.78 191.95 0.71 
464.79 191.96 1.23 
464.84 192.10 2.19 
464.83 191.99 2.83 
465.28 192.08 -1.99 
465.35 192.02 -1.34 
465.29 192.10 -0.73 
465.19 192.03 0.05 
465.28 192.16 0.68 
465.30 192.18 1.33 
465.33 192.14 1.82 
465.34 192.16 2.69 
465.59 192.46 -0.13 
465.68 192.49 0.82 
456.68 192.48 -0.95 
457.68 192.83 -1.57 
457.66 192.80 -0.70 
457.64 192.77 0.18 
458.39 193.00 -1.45 
458.39 192.99 -0.60 
458.67 192.71 -0.87 
458.66 192.68 -0.01 
459.26 192.64 1.98 
459.68 192.62 -1.17 
459.38 192.82 -0.59 
459.49 192.67 -0.11 
459.68 192.59 0.75 
459.87 192.61 1.43 
459.49 192.64 1.85 
460.60 192.81 -0.41 
460.59 192.79 0.45 
460.58 192.77 1.32 
460.57 192.75 2.19 
461.13 192.80 -0.60 
461.13 192.80 0.45 
461.13 192.80 1.51 
461.71 192.96 -0.72 
461.83 192.69 0.21 
462.03 193.15 1.00 
461.83 192.69 1.19 
461.83 192.69 2.17 
461.91 192.88 2.72 
462.39 192.67 -1.02 
463.13 193.15 2.59 
463.82 192.90 -1.42 
463.79 192.83 -0.62 
463.76 192.76 0.17 
463.93 192.61 0.97 
463.62 192.91 1.14 
463.70 192.62 1.76 
463.67 192.55 2.55 
464.50 192.92 -1.06 
464.48 192.87 0.28 
464.67 193.12 0.78 
464.45 192.81 1.62 
464.44 192.79 2.29 
464.60 192.97 2.89 
464.97 192.57 -1.85 
465.50 192.60 -1.45 
465.52 192.70 -0.78 
465.45 192.65 0.08 
465.45 192.64 0.72 
465.53 192.68 1.30 
465.29 192.91 1.78 
465.32 192.93 2.82 
465.79 192.84 -1.79 
465.70 192.88 -1.31 
465.66 192.78 -0.73 
465.70 192.86 -0.08 
465.71 192.85 0.66 
465.72 192.86 1.22 
465.70 192.82 1.91 
465.71 192.84 2.81 
457.30 193.29 -0.91 
457.29 193.27 0.03 
458.49 193.60 -0.77 
458.49 193.58 0.06 
459.23 193.56 -1.88 
459.23 193.55 -1.09 
458.62 193.33 -0.88 
458.70 193.23 -0.18 
459.23 193.52 0.48 
459.22 193.51 1.26 
459.19 193.78 1.86 
459.36 193.60 -1.66 
459.83 193.62 -0.83 
459.82 193.43 -0.01 
459.82 193.42 0.98 
459.89 193.66 1.40 
459.82 193.41 1.97 
460.42 193.40 -1.29 
459.95 193.60 -0.56 
460.05 193.43 -0.10 
460.23 193.35 0.75 
460.42 193.36 1.43 
460.04 193.40 1.84 
461.14 193.55 -0.39 
461.13 193.53 0.46 
461.12 193.51 1.31 
461.10 193.49 2.17 
461.67 193.58 -0.59 
461.67 193.58 0.45 
461.68 193.58 1.50 
462.34 193.44 -0.77 
462.34 193.44 0.21 
462.65 193.66 0.67 
462.23 193.70 1.28 
462.34 193.43 2.16 
462.60 193.53 2.65 
463.31 193.59 -0.93 
463.27 193.48 -0.05 
463.21 193.68 0.83 
463.18 193.26 1.72 
463.15 193.53 1.73 
463.09 193.38 2.64 
463.74 193.19 -1.32 
464.73 193.27 -1.33 
464.71 193.22 -0.62 
464.69 193.17 0.08 
465.51 193.66 -1.36 
465.47 193.45 -0.78 
465.49 193.47 -0.21 
465.51 193.50 0.93 
465.06 193.51 1.60 
465.05 193.48 2.25 
465.04 193.46 2.89 
465.88 193.28 -1.78 
465.99 193.43 -1.51 
466.00 193.42 -0.78 
466.04 193.56 -0.15 
466.07 193.54 0.63 
465.99 193.46 1.34 
465.80 193.48 1.91 
465.81 193.49 2.33 
466.34 193.86 -1.29 
466.30 193.65 -0.82 
466.16 193.71 0.08 
466.34 193.83 0.67 
466.33 193.67 1.28 
466.34 193.67 2.00 
457.92 193.91 -0.59 
457.89 194.06 0.04 
457.90 193.89 0.33 
458.31 193.98 1.24 
458.30 193.95 2.13 
459.16 194.05 -2.22 
459.25 194.22 -1.66 
459.25 194.19 -0.84 
459.19 194.48 0.07 
459.23 194.14 0.80 
459.23 194.12 1.62 
458.78 194.32 1.90 
459.48 194.32 -1.77 
459.48 194.31 -0.97 
459.48 194.31 -0.17 
459.48 194.30 0.63 
459.48 194.29 1.43 
460.42 194.18 -0.97 
460.41 194.17 0.01 
460.41 194.15 0.98 
460.46 194.29 1.11 
460.45 194.25 1.93 
460.77 194.12 -1.12 
460.95 194.12 -0.37 
460.95 194.11 0.53 
460.95 194.09 1.42 
460.95 194.08 2.31 
461.67 194.28 -1.21 
461.46 193.97 -0.51 
461.66 194.26 -0.37 
461.65 194.24 0.47 
461.64 194.22 1.31 
461.63 194.20 2.15 
462.21 194.34 -0.59 
462.75 194.44 0.29 
462.21 194.34 0.45 
462.29 194.13 1.40 
462.74 194.43 2.25 
462.85 194.17 -0.75 
462.85 194.16 0.21 
463.16 194.35 0.49 
463.11 194.22 1.44 
463.06 194.09 2.39 
464.85 194.30 -0.23 
464.83 194.25 0.55 
464.81 194.20 1.33 
464.78 194.15 2.10 
464.76 194.10 2.88 
465.02 194.27 -0.68 
465.01 194.24 0.07 
465.00 194.22 0.82 
464.98 194.19 1.58 
464.97 194.16 2.34 
466.08 194.04 -1.37 
466.24 193.94 -0.64 
466.12 194.12 0.10 
466.11 194.08 0.72 
466.12 194.10 1.57 
466.12 194.10 2.00 
466.13 194.11 2.43 
466.49 194.34 -1.40 
466.47 194.30 -0.72 
466.46 194.28 -0.10 
466.46 194.27 0.73 
466.39 194.22 1.37 
466.52 194.36 2.12 
466.53 194.37 2.61 
458.48 194.88 -1.76 
458.50 194.69 -0.56 
458.47 194.83 0.06 
458.46 194.80 0.97 
458.48 194.63 1.24 
458.47 194.61 2.14 
458.97 194.78 -0.49 
458.95 194.75 0.37 
458.94 194.72 1.24 
458.93 194.69 2.11 
459.89 195.02 -1.35 
459.89 195.01 -0.54 
459.89 195.00 0.26 
459.84 194.97 0.80 
459.89 194.99 1.06 
459.89 194.98 1.87 
460.01 194.65 -1.81 
460.61 194.71 -0.81 
460.63 194.72 -0.09 
460.64 194.73 0.63 
460.66 194.74 1.34 
460.94 194.92 -0.95 
461.15 194.88 -0.07 
461.15 194.87 0.88 
460.99 195.02 1.11 
460.93 194.88 1.96 
461.95 194.76 -0.51 
461.95 194.76 0.57 
461.95 194.75 1.64 
461.46 194.79 2.30 
462.18 194.98 -1.18 
462.17 194.96 -0.35 
462.17 194.96 -0.35 
462.16 194.94 0.48 
462.15 194.92 1.31 
462.14 194.90 2.14 
463.25 195.17 -0.69 
463.35 194.88 0.21 
462.81 194.87 0.39 
463.25 195.16 1.26 
463.33 195.12 2.07 
464.80 195.13 -1.40 
464.77 195.05 -0.55 
464.74 194.98 0.29 
464.63 195.19 1.33 
464.67 194.83 1.98 
464.64 194.75 2.82 
465.35 194.80 -1.05 
464.99 195.17 0.32 
465.32 194.74 0.38 
465.31 194.71 1.09 
465.30 194.69 1.81 
464.93 195.03 2.80 
466.09 194.84 -1.39 
466.10 194.85 -0.82 
465.85 195.06 -0.29 
465.85 195.04 0.39 
466.15 194.90 1.48 
466.16 194.91 2.06 
466.17 194.92 2.64 
466.81 195.02 -1.35 
466.72 194.89 -0.78 
466.67 194.89 0.01 
466.71 194.78 0.74 
466.72 194.78 1.35 
466.47 194.77 2.10 
466.37 195.07 2.60 
466.96 195.00 -1.26 
467.06 194.96 -0.83 
466.87 195.09 0.14 
466.96 194.97 0.77 
466.96 195.21 1.25 
467.09 194.98 1.82 
466.99 195.24 2.75 
458.96 195.59 -0.82 
458.96 195.57 0.08 
458.95 195.54 0.98 
458.94 195.52 1.88 
459.86 195.36 -1.51 
459.52 195.53 -0.46 
459.86 195.34 0.07 
459.51 195.50 0.39 
459.86 195.31 1.66 
459.94 195.85 1.88 
460.43 195.85 -1.55 
460.43 195.82 -0.76 
460.42 195.79 0.02 
460.40 195.58 1.02 
460.40 195.58 1.02 
460.58 195.91 1.83 
461.24 195.96 -1.48 
461.23 195.92 -0.70 
460.73 195.63 -0.28 
461.21 195.85 0.88 
461.20 195.82 1.66 
460.72 195.58 1.94 
461.34 195.72 -0.79 
461.66 195.60 -0.06 
461.66 195.58 0.88 
461.54 195.69 1.12 
461.52 195.66 1.91 
462.68 195.66 -1.15 
462.61 195.36 -0.53 
462.66 195.63 -0.33 
462.49 195.52 0.57 
462.61 195.36 1.57 
462.63 195.57 2.12 
463.20 195.83 -0.57 
463.32 195.60 0.39 
463.20 195.83 0.45 
463.32 195.60 1.39 
462.95 195.44 2.13 
463.84 195.58 -0.73 
463.75 195.87 0.29 
463.75 195.87 1.26 
463.75 195.86 2.22 
464.71 195.40 -0.41 
464.67 195.30 0.46 
464.25 195.92 1.98 
465.03 195.27 -1.33 
466.79 195.41 -1.41 
466.80 195.43 -0.52 
466.81 195.44 -0.07 
467.00 195.34 0.67 
466.83 195.48 1.29 
466.84 195.49 2.21 
466.84 195.50 2.67 
467.16 195.65 -1.34 
467.13 195.52 -0.75 
467.12 195.70 0.12 
467.17 195.63 0.66 
467.06 195.41 1.11 
467.37 195.49 1.89 
459.51 196.30 0.10 
459.50 196.27 0.99 
459.49 196.25 1.87 
460.07 196.28 -1.27 
460.06 196.25 -0.43 
460.49 196.16 0.08 
460.05 196.22 0.41 
460.03 196.19 1.25 
460.49 196.57 1.87 
460.99 196.61 -1.50 
460.98 196.59 -0.73 
460.97 196.56 0.04 
460.96 196.53 0.81 
460.96 196.50 1.59 
461.01 196.42 1.77 
462.01 196.66 -1.44 
461.73 196.64 -0.66 
461.72 196.60 0.12 
461.71 196.56 0.89 
461.70 196.53 1.66 
461.96 196.31 1.94 
462.07 196.48 -1.21 
462.06 196.44 -0.43 
462.33 196.21 -0.13 
462.16 196.29 0.89 
462.32 196.18 1.68 
462.15 196.27 1.82 
463.16 196.31 -1.12 
463.01 196.28 -0.49 
463.15 196.29 -0.31 
463.02 196.27 0.57 
463.01 196.27 1.63 
463.11 196.23 2.11 
463.77 196.33 -0.61 
463.80 196.62 -0.18 
463.71 196.56 0.45 
463.77 196.32 1.38 
463.77 196.32 2.38 
464.32 196.27 -0.72 
464.32 196.27 0.22 
464.31 196.26 1.16 
464.26 196.30 2.02 
466.74 196.15 -1.42 
466.75 196.16 -0.82 
466.88 196.24 -0.14 
466.90 196.26 0.49 
466.80 196.21 1.60 
466.81 196.23 2.21 
466.82 196.24 2.83 
467.45 196.12 -1.24 
467.45 196.12 -0.89 
467.40 196.21 -0.03 
467.48 196.34 0.64 
467.33 196.32 1.04 
467.24 196.27 2.32 
467.24 196.28 2.80 
460.60 196.97 -1.23 
460.59 196.94 -0.40 
460.04 197.00 0.12 
460.57 196.91 0.42 
460.56 196.88 1.25 
460.03 196.95 1.87 
461.23 196.84 -1.25 
461.01 196.93 -0.67 
461.01 196.91 0.09 
461.01 196.90 0.85 
461.22 196.80 1.03 
461.22 196.79 1.80 
461.60 197.28 -1.22 
461.58 197.19 -0.86 
461.58 197.18 -0.13 
461.57 197.17 0.60 
461.57 197.16 1.34 
461.59 197.22 1.74 
462.55 197.14 -1.16 
462.29 197.34 -0.62 
462.47 197.03 0.05 
462.46 197.02 0.99 
462.50 197.03 1.13 
462.48 197.00 1.90 
462.81 196.89 -0.12 
462.81 196.87 0.78 
462.80 196.85 1.68 
462.93 196.82 2.25 
463.57 196.95 -1.09 
463.53 197.02 -0.48 
463.56 196.93 -0.29 
463.55 196.91 0.50 
463.64 196.84 1.55 
463.53 196.87 2.10 
464.27 197.04 -0.60 
464.68 197.26 0.30 
464.22 197.27 0.45 
464.27 197.03 1.38 
464.67 197.25 2.20 
464.21 197.05 2.73 
466.13 196.87 -1.44 
466.11 196.84 -0.63 
465.94 196.90 -0.15 
465.91 196.84 0.69 
465.89 196.78 1.53 
465.86 196.73 2.36 
466.06 196.71 2.62 
466.77 197.01 -0.96 
466.76 196.99 -0.24 
466.75 196.97 0.49 
466.60 197.31 1.08 
466.57 197.24 1.88 
466.55 197.18 2.68 
467.25 196.94 0.21 
467.56 196.88 0.35 
467.56 196.88 1.03 
460.62 197.56 -0.44 
460.61 197.53 0.41 
460.60 197.51 1.26 
460.58 197.48 2.11 
461.09 197.40 -1.27 
461.10 197.62 -0.38 
461.08 197.59 0.44 
461.07 197.56 1.25 
461.05 197.53 2.07 
461.96 198.04 -1.40 
461.95 198.02 -0.66 
461.94 197.99 0.09 
461.93 197.96 0.83 
461.92 197.93 1.57 
461.99 197.74 1.76 
462.00 197.79 -1.20 
462.20 198.04 -0.83 
462.20 198.03 -0.12 
462.19 198.02 0.60 
462.19 198.01 1.31 
462.72 197.59 1.86 
463.01 197.78 -1.12 
462.96 197.73 -0.87 
463.14 197.66 -0.02 
463.14 197.65 0.90 
463.28 197.52 1.68 
462.95 197.69 1.93 
464.05 197.75 -0.47 
464.02 197.56 -0.27 
464.01 197.54 0.51 
464.15 197.56 1.55 
463.99 197.49 2.09 
464.76 197.73 -0.59 
464.39 197.48 -0.33 
464.71 197.98 0.45 
464.71 197.97 1.45 
464.76 197.72 2.35 
465.22 197.63 -0.70 
465.21 197.62 0.22 
465.21 197.62 1.15 
465.21 197.61 2.07 
465.93 197.67 -1.38 
466.12 197.70 -0.43 
465.87 198.03 -0.31 
466.10 197.65 0.45 
466.07 197.60 1.33 
466.05 197.54 2.21 
465.72 197.69 2.48 
466.68 197.49 -1.32 
466.65 197.43 -0.51 
466.62 197.37 0.29 
461.13 198.23 -0.41 
461.12 198.21 0.42 
461.11 198.18 1.26 
461.09 198.15 2.10 
461.61 198.31 -1.15 
461.59 198.28 -0.35 
461.58 198.25 0.45 
461.57 198.22 1.26 
461.55 198.19 2.07 
462.58 198.60 -1.88 
462.58 198.58 -1.16 
462.45 198.70 -0.62 
462.44 198.67 0.11 
462.43 198.64 0.84 
462.42 198.62 1.57 
462.41 198.59 2.30 
463.37 198.73 -2.01 
463.36 198.70 -1.27 
463.28 198.40 -0.72 
463.29 198.41 -0.09 
463.30 198.41 0.54 
463.31 198.42 1.17 
463.44 198.36 1.92 
463.46 198.40 -1.08 
464.03 198.14 -0.49 
463.76 198.21 -0.09 
463.76 198.19 0.79 
464.03 198.13 1.64 
463.61 198.29 1.81 
463.74 198.16 2.56 
464.55 198.48 -0.47 
464.47 198.17 -0.25 
464.55 198.47 0.57 
464.59 198.35 1.32 
464.54 198.24 2.39 
465.20 198.68 -1.54 
465.24 198.42 -0.58 
464.91 198.76 -0.23 
465.20 198.67 0.45 
465.20 198.67 1.44 
464.87 198.70 2.08 
465.20 198.67 2.43 
465.68 198.29 -1.61 
465.68 198.28 -0.69 
465.62 198.60 0.30 
465.62 198.60 1.24 
465.62 198.59 2.18 
461.63 198.89 -0.39 
461.56 199.02 0.17 
461.62 198.86 0.44 
462.05 198.86 1.27 
461.59 198.80 2.10 
462.70 199.12 -2.02 
462.70 199.11 -1.30 
462.70 199.09 -0.59 
462.69 199.07 0.12 
462.57 199.25 0.35 
462.69 199.04 1.55 
462.51 199.46 2.06 
462.94 199.42 -2.03 
462.93 199.39 -1.31 
462.93 199.36 -0.59 
462.92 199.33 0.13 
462.91 199.30 0.84 
462.90 199.28 1.56 
462.89 199.25 2.28 
463.84 199.19 -1.32 
463.93 199.06 -0.83 
463.92 199.05 0.08 
463.83 199.22 0.93 
463.88 199.20 1.13 
463.91 199.02 1.92 
464.57 199.25 -1.35 
464.35 198.77 -1.07 
464.78 199.36 -0.23 
464.56 199.23 0.80 
464.77 199.33 1.40 
464.56 199.23 1.88 
465.05 199.20 -1.49 
465.15 198.99 -0.49 
465.34 199.35 -0.21 
465.05 199.19 0.57 
465.05 199.18 1.61 
465.30 199.28 2.07 
465.71 199.10 -1.54 
465.71 199.10 -0.57 
466.13 198.93 0.23 
465.68 199.36 0.45 
465.71 199.09 1.36 
465.71 199.08 2.33 
462.05 199.69 -0.64 
462.04 199.66 0.19 
462.03 199.63 1.03 
462.02 199.61 1.86 
462.57 199.58 -1.07 
462.55 199.55 -0.29 
462.54 199.52 0.49 
462.52 199.49 1.27 
462.54 200.06 2.09 
463.21 199.77 -1.27 
463.21 199.75 -0.57 
463.21 199.74 0.13 
463.20 199.72 0.83 
463.20 199.70 1.53 
463.20 199.69 2.23 
463.92 200.02 -1.47 
463.91 200.00 -0.83 
463.47 199.71 -0.09 
463.47 199.70 0.58 
463.65 200.01 1.68 
463.35 199.88 2.27 
464.38 199.94 -1.88 
464.39 199.94 -1.28 
464.36 199.72 -0.81 
464.40 199.94 -0.09 
464.41 199.94 0.50 
464.41 199.94 1.10 
464.34 199.68 1.92 
464.67 200.01 2.62 
465.08 199.99 -1.34 
465.07 199.57 -0.47 
465.21 199.96 -0.22 
465.07 199.97 0.81 
465.20 199.93 1.40 
465.07 199.96 1.88 
465.11 200.04 2.54 
465.64 199.69 -1.49 
465.63 199.68 -0.48 
465.75 199.92 -0.19 
465.74 199.90 0.56 
465.73 199.87 1.31 
466.17 199.75 2.32 
466.54 199.91 -0.62 
466.54 199.91 0.31 
466.53 199.90 1.23 
466.53 199.90 2.16 
462.60 200.18 -1.14 
462.55 200.28 -0.61 
462.54 200.26 0.22 
462.53 200.23 1.04 
462.52 200.20 1.87 
463.06 200.79 -1.10 
463.53 200.53 -1.07 
463.05 200.76 -0.30 
463.03 200.73 0.49 
463.02 200.70 1.29 
463.00 200.67 2.10 
463.71 200.43 -1.92 
463.71 200.41 -1.23 
463.71 200.39 -0.54 
463.70 200.38 0.14 
463.70 200.36 0.83 
463.69 200.34 1.51 
463.69 200.32 2.20 
464.82 200.56 -1.83 
464.81 200.61 -1.25 
464.42 200.71 -0.80 
464.41 200.69 -0.18 
464.40 200.65 1.06 
464.39 200.64 1.68 
464.85 200.61 2.24 
465.12 200.77 -1.64 
465.53 200.73 -0.89 
465.53 200.71 -0.03 
465.52 200.70 0.82 
465.06 200.64 1.19 
465.41 200.84 1.81 
465.03 200.57 2.62 
466.05 200.59 -1.47 
466.05 200.59 -0.44 
465.64 200.55 -0.20 
466.05 200.58 0.58 
466.05 200.58 1.60 
465.62 200.50 2.21 
466.64 200.43 -0.56 
466.64 200.69 0.45 
466.64 200.69 1.43 
466.64 200.69 2.40 
467.45 200.82 0.24 
467.44 200.81 1.14 
467.44 200.81 2.03 
463.45 201.50 -0.55 
463.44 201.47 0.25 
463.43 201.44 1.06 
463.42 201.42 1.87 
463.46 201.52 -1.36 
463.87 201.37 -0.97 
463.85 201.34 -0.21 
463.84 201.31 0.54 
463.82 201.28 1.30 
463.81 201.24 2.06 
463.89 200.94 2.57 
464.27 201.24 -1.18 
464.26 201.21 -0.50 
464.25 201.18 0.19 
464.24 201.16 0.87 
464.65 201.36 1.64 
464.64 201.35 2.31 
464.32 201.51 2.56 
465.30 201.29 -1.79 
465.31 201.29 -1.22 
465.31 201.29 -0.66 
465.32 201.28 -0.09 
465.32 201.28 0.48 
465.33 201.28 1.61 
465.34 201.28 2.18 
465.43 201.12 2.61 
466.09 201.43 -1.31 
465.97 201.33 -0.86 
465.96 201.31 -0.02 
465.95 201.30 0.83 
465.95 201.28 1.68 
465.85 201.45 1.81 
465.94 201.26 2.53 
466.53 201.29 -1.45 
466.61 201.04 -0.47 
466.57 200.97 -0.16 
466.53 201.28 0.58 
466.61 201.03 1.52 
466.92 201.45 2.06 
466.61 201.02 2.52 
467.11 201.36 -0.52 
467.43 201.18 0.32 
467.10 201.36 0.45 
467.11 201.05 1.35 
467.11 201.05 2.30 
463.97 201.94 -1.03 
463.88 202.06 0.27 
463.94 201.88 0.54 
463.87 202.03 1.07 
463.86 202.01 1.88 
464.73 201.81 -1.14 
464.72 201.78 -0.47 
464.71 201.75 0.21 
464.70 201.72 0.88 
464.25 201.84 1.31 
464.68 201.66 2.23 
464.74 202.06 2.55 
465.16 202.23 -1.78 
465.13 202.13 -1.61 
465.36 202.03 -0.75 
465.14 202.17 0.17 
465.14 202.16 0.82 
465.13 202.14 1.47 
465.09 202.03 2.23 
465.77 201.93 -1.19 
465.90 201.82 -0.86 
465.88 201.79 -0.17 
465.87 201.75 0.53 
466.23 202.25 1.23 
465.80 201.91 2.12 
466.11 201.99 2.34 
466.55 201.71 -1.48 
466.39 201.92 -0.84 
466.39 201.90 0.00 
466.57 202.13 0.82 
466.80 202.23 1.36 
466.57 202.12 1.88 
466.37 201.85 2.53 
467.01 201.97 -1.44 
467.01 201.97 -0.43 
467.34 202.04 -0.12 
467.00 201.96 0.58 
467.00 201.96 1.59 
467.30 201.97 2.06 
467.00 201.95 2.61 
464.34 202.69 -1.29 
464.40 202.51 -0.99 
464.39 202.48 -0.22 
464.37 202.45 0.56 
464.36 202.42 1.33 
464.66 202.37 2.06 
464.29 202.56 2.68 
465.25 202.80 -1.60 
465.23 202.76 -0.91 
465.57 202.73 0.18 
465.52 202.64 0.94 
465.48 202.80 1.56 
465.47 202.77 2.21 
465.15 202.60 2.55 
465.82 202.67 -1.30 
465.81 202.65 -0.72 
465.80 202.63 -0.14 
465.79 202.62 0.44 
465.78 202.58 1.60 
465.77 202.56 2.18 
466.61 202.35 -1.47 
466.74 202.69 -0.76 
466.73 202.68 0.09 
466.85 202.75 0.67 
466.60 202.76 1.24 
466.59 202.73 1.92 
466.79 202.43 2.52 
467.04 202.41 -1.47 
467.48 202.65 -0.42 
467.07 202.85 -0.22 
467.23 202.79 0.64 
467.08 202.62 1.43 
467.06 202.83 1.88 
467.47 202.63 2.60 
464.76 203.26 -1.26 
464.74 203.38 -0.84 
464.79 203.34 -0.11 
464.85 203.31 0.61 
464.73 203.18 1.10 
464.73 203.15 1.88 
464.72 203.12 2.67 
465.61 203.32 -1.56 
465.24 203.62 -0.92 
465.23 203.59 -0.16 
465.21 203.56 0.60 
465.20 203.53 1.36 
465.47 203.45 2.07 
465.51 203.13 2.55 
466.25 203.28 -1.82 
465.97 203.28 -1.54 
465.94 203.26 -0.91 
465.99 203.26 0.19 
465.98 203.25 0.82 
465.95 203.19 1.60 
465.94 203.18 2.23 
465.90 203.64 2.54 
466.24 203.26 -1.26 
466.23 203.25 -0.69 
466.23 203.23 -0.13 
466.64 203.10 0.44 
466.65 203.09 1.50 
466.65 203.09 2.03 
466.93 203.20 2.61 
467.03 203.39 -1.42 
467.16 203.28 -0.75 
467.00 203.33 -0.08 
466.98 203.30 0.59 
467.29 203.47 1.10 
467.28 203.46 2.18 
467.14 203.21 2.67 
465.18 203.81 -1.23 
465.17 203.79 -0.45 
465.16 203.76 0.33 
465.15 203.73 1.11 
465.15 203.71 1.89 
465.55 204.23 2.67 
465.96 204.10 -1.52 
465.95 204.07 -0.80 
465.93 204.04 -0.08 
465.92 204.00 0.63 
465.90 203.97 1.35 
465.89 203.94 2.07 
466.40 203.85 -1.50 
466.64 203.81 -0.67 
466.63 203.79 -0.11 
466.71 204.18 0.58 
466.69 204.26 1.54 
466.68 204.24 2.14 
466.29 204.14 2.54 
467.39 203.89 -1.38 
467.37 203.85 -0.72 
467.36 203.82 -0.05 
466.99 203.95 0.77 
466.99 203.95 1.13 
467.56 203.81 1.82 
467.56 203.79 2.67 
465.32 204.91 -1.17 
465.32 204.91 -0.59 
465.31 204.90 -0.20 
465.31 204.89 0.96 
465.31 204.89 1.35 
465.31 204.88 1.74 
466.07 204.72 -1.60 
466.06 204.69 -0.86 
466.32 204.55 -0.06 
466.02 204.63 0.64 
466.01 204.60 1.38 
465.99 204.57 2.13 
465.92 204.77 2.68 
466.77 204.83 -1.43 
466.75 204.80 -0.77 
466.73 204.77 -0.11 
466.71 204.73 0.55 
466.66 204.99 1.38 
466.68 204.67 1.88 
466.66 204.64 2.54 
467.18 204.84 -1.58 
467.20 204.92 -0.82 
467.19 204.90 -0.23 
467.05 204.71 0.58 
467.15 204.74 1.44 
467.14 204.72 2.04 
467.14 204.70 2.65 
464.33 205.47 -1.39 
464.33 205.47 -0.98 
464.32 205.45 0.25 
464.32 205.45 0.66 
464.32 205.44 1.49 
465.17 205.55 -1.31 
465.17 205.54 -0.73 
465.18 205.53 0.24 
465.18 205.52 0.63 
465.18 205.51 1.41 
465.18 205.50 1.80 
466.47 205.24 -1.56 
466.45 205.21 -0.82 
466.51 205.53 -0.25 
466.50 205.51 0.65 
466.50 205.51 1.10 
466.33 205.33 1.91 
466.32 205.30 2.68 
467.36 205.47 -1.49 
467.39 205.34 -0.80 
467.39 205.32 -0.22 
467.43 205.24 0.58 
467.36 205.26 1.53 
467.36 205.24 2.12 
467.51 205.18 2.63 
463.21 206.10 -1.43 
463.21 206.10 -0.99 
463.20 206.08 0.32 
463.20 206.08 0.76 
463.20 206.07 1.20 
463.19 206.06 2.08 
463.56 206.41 -1.37 
463.57 206.39 -0.52 
463.57 206.39 -0.09 
463.58 206.37 0.77 
463.58 206.36 1.63 
463.59 206.35 2.06 
464.77 206.46 0.76 
464.77 206.44 1.74 
465.18 205.96 -1.27 
465.39 206.16 -0.70 
465.23 205.91 -0.11 
465.26 205.88 0.66 
465.28 205.87 1.04 
465.31 205.84 1.82 
465.87 206.22 -1.39 
465.85 206.20 -0.58 
465.85 206.19 -0.17 
465.96 205.82 0.68 
465.83 206.17 1.05 
465.82 206.16 1.88 
466.60 206.35 -1.15 
466.56 205.81 -0.59 
466.55 205.80 -0.20 
466.54 205.79 0.59 
466.73 205.88 1.17 
466.73 205.85 1.92 
466.71 205.83 2.68 
467.47 206.10 -1.36 
467.45 206.07 -0.67 
467.18 206.21 -0.03 
467.16 206.18 0.70 
467.15 206.14 1.43 
467.39 205.95 2.11 
467.10 206.34 2.69 
461.93 206.82 -1.47 
461.93 206.81 -0.54 
461.93 206.80 -0.07 
461.93 206.80 0.40 
461.92 206.79 1.34 
461.92 206.78 1.81 
463.15 207.08 -1.34 
463.17 207.06 -0.90 
463.21 207.03 -0.03 
463.25 206.99 0.84 
463.27 206.97 1.27 
463.44 207.16 1.88 
464.14 206.85 -0.69 
464.14 206.84 -0.20 
464.12 206.79 1.81 
464.26 207.11 -1.44 
464.14 206.85 -0.69 
464.78 206.49 -0.21 
464.23 207.08 0.78 
464.22 207.07 1.22 
464.21 207.05 2.12 
465.10 206.65 -1.42 
465.09 206.63 -0.57 
465.08 206.62 -0.14 
465.07 206.61 0.71 
465.06 206.59 1.56 
465.05 206.59 2.00 
465.72 206.85 -1.37 
465.72 206.84 -0.97 
465.70 206.82 0.24 
465.69 206.81 0.64 
465.68 206.80 1.05 
465.67 206.79 1.86 
466.76 207.11 -0.95 
466.75 207.08 0.32 
466.75 207.07 0.75 
466.74 207.05 1.61 
466.74 207.04 2.04 
467.59 206.77 -1.45 
467.43 207.10 -0.87 
467.41 207.08 -0.08 
467.33 206.74 0.71 
467.51 206.91 1.20 
467.50 206.88 1.94 
467.48 206.85 2.69 
460.46 207.63 -0.51 
460.46 207.63 -0.01 
460.46 207.62 0.49 
460.46 207.61 1.51 
460.46 207.60 2.02 
461.97 207.30 -1.42 
461.97 207.29 -0.49 
461.98 207.28 -0.03 
461.99 207.26 0.91 
461.99 207.25 1.38 
462.00 207.23 2.32 
462.73 207.60 -0.16 
462.73 207.59 0.37 
462.72 207.57 1.43 
462.72 207.55 1.96 
462.72 207.54 2.50 
463.33 207.63 -1.47 
463.32 207.61 -0.54 
463.32 207.61 -0.08 
463.31 207.59 0.85 
463.30 207.58 1.32 
463.29 207.56 2.27 
464.75 207.39 -1.41 
464.73 207.37 -0.56 
464.73 207.37 -0.13 
464.71 207.35 0.72 
464.71 207.34 1.15 
464.69 207.33 2.01 
465.49 207.81 -0.06 
465.48 207.80 0.39 
465.47 207.78 1.31 
465.46 207.75 2.22 
466.10 207.84 -0.46 
466.09 207.83 -0.03 
466.08 207.81 0.40 
466.07 207.79 1.27 
466.12 207.38 2.13 
466.79 207.46 -0.88 
466.78 207.44 -0.05 
466.76 207.42 0.78 
466.76 207.40 1.19 
466.74 207.38 2.03 
460.49 208.54 -1.43 
460.52 208.52 -0.93 
460.58 208.47 0.07 
460.61 208.45 0.57 
460.06 208.33 1.08 
460.07 208.31 2.11 
460.08 208.30 2.63 
461.24 208.44 1.00 
461.24 208.43 1.56 
461.23 208.41 2.13 
460.72 208.36 2.57 
461.95 207.98 1.50 
461.95 207.97 2.05 
461.95 207.96 2.60 
462.46 208.17 -1.50 
462.44 208.16 -0.53 
462.44 208.15 -0.05 
462.43 208.13 0.93 
462.42 208.12 1.42 
462.42 208.11 1.91 
463.65 208.00 -1.45 
463.64 207.98 -0.55 
463.63 207.98 -0.09 
463.62 207.97 0.36 
463.60 207.94 1.72 
463.60 207.94 2.18 
464.80 208.24 -0.98 
464.79 208.21 -0.04 
464.78 208.19 0.90 
464.78 208.17 1.37 
464.77 208.16 1.85 
465.35 208.26 -0.44 
465.35 208.24 0.00 
465.34 208.23 0.45 
465.32 208.20 1.35 
465.32 208.19 1.80 
454.31 209.23 -0.82 
454.31 209.22 -0.20 
454.31 209.21 0.43 
454.31 209.19 1.68 
454.31 209.18 2.30 
460.37 208.91 1.06 
460.37 208.88 2.23 
461.34 208.80 -1.54 
461.34 208.79 -1.03 
461.32 208.77 0.00 
461.31 208.75 1.02 
461.31 208.74 1.54 
461.30 208.73 2.06 
461.30 208.72 2.58 
462.42 208.69 -1.49 
462.40 208.67 -0.53 
462.40 208.66 -0.05 
462.38 208.65 0.91 
462.37 208.64 1.40 
462.37 208.63 1.89 
463.09 209.17 -1.01 
463.08 209.14 0.01 
463.08 209.13 0.52 
463.07 209.11 1.03 
463.07 209.08 2.05 
463.06 209.07 2.57 
463.68 209.23 -1.39 
463.67 209.21 -0.90 
463.66 209.18 0.07 
463.89 208.67 0.47 
463.64 209.14 1.53 
463.87 208.62 1.95 
463.62 209.11 2.51 
464.56 208.73 -1.36 
464.55 208.72 -0.90 
464.54 208.69 0.03 
464.52 208.67 0.97 
464.52 208.65 1.43 
464.50 208.62 2.38 
466.69 209.24 0.83 
466.69 209.22 1.29 
466.68 209.20 1.76 
467.29 208.86 1.24 
454.56 209.59 -0.68 
454.56 209.58 -0.06 
454.55 209.65 0.43 
454.55 209.56 1.18 
454.55 209.62 2.31 
454.55 209.54 2.43 
458.44 209.96 1.20 
458.44 209.95 1.82 
459.44 209.42 1.13 
459.44 209.40 1.73 
460.10 209.49 -1.58 
460.08 209.45 0.59 
460.07 209.44 1.13 
460.06 209.42 2.23 
461.01 209.48 -1.55 
461.00 209.46 -0.52 
460.99 209.45 0.00 
460.98 209.44 0.51 
460.96 209.42 1.55 
460.96 209.41 2.07 
462.72 209.77 -1.42 
462.71 209.75 -0.91 
462.70 209.72 0.10 
462.69 209.71 0.61 
462.67 209.67 1.63 
462.19 209.58 2.16 
462.66 209.64 2.66 
465.50 209.76 0.06 
466.05 209.37 0.05 
466.06 209.63 0.40 
466.04 209.59 1.35 
466.04 209.57 1.83 
454.80 210.02 -0.67 
454.80 210.01 -0.05 
454.79 210.00 0.57 
454.79 210.00 1.19 
454.79 209.99 1.81 
454.79 209.98 2.43 
458.44 210.00 -0.05 
458.44 209.98 0.57 
458.70 210.26 -0.48 
458.69 210.24 0.10 
458.69 210.23 0.67 
458.68 210.22 1.25 
458.68 210.21 1.83 
459.38 210.35 0.05 
459.37 210.34 0.61 
459.36 210.33 1.17 
459.35 210.32 1.73 
461.26 210.21 -1.03 
461.25 210.18 0.07 
461.25 210.16 0.62 
461.25 210.15 1.17 
461.24 210.13 1.73 
461.66 210.36 -1.45 
461.65 210.32 -0.39 
461.64 210.31 0.15 
461.63 210.29 0.68 
461.63 210.28 1.21 
461.61 210.24 2.29 
464.65 210.44 0.98 
464.64 210.41 1.48 
464.63 210.39 1.99 
465.37 210.01 0.93 
465.36 209.99 1.42 
465.36 209.97 1.91 
