# .PCD v0.7 - Point Cloud Data file format
VERSION 0.7
FIELDS x y z
SIZE 4 4 4
TYPE F F F
COUNT 1 1 1
WIDTH 1269
HEIGHT 1
VIEWPOINT 0 0 0 1 0 0 0
POINTS 1269
DATA ascii
455.08 -64.06 -0.53 
454.90 -64.15 -0.31 
455.88 -64.00 -1.30 
455.26 -64.44 -0.51 
455.87 -63.97 -0.38 
455.94 -63.89 -1.93 
456.27 -64.11 -1.36 
456.12 -64.30 -1.04 
455.92 -63.85 -0.33 
456.80 -63.84 -1.03 
461.30 -63.83 -5.36 
461.39 -63.89 -4.88 
461.39 -63.89 -4.32 
461.32 -63.87 -3.61 
461.31 -63.87 -3.02 
461.91 -64.25 -5.53 
461.88 -64.14 -5.04 
461.81 -64.10 -4.32 
461.79 -64.11 -3.62 
461.86 -64.12 -3.01 
462.23 -64.30 -5.43 
462.28 -64.34 -5.03 
462.40 -64.32 -4.28 
462.35 -64.36 -3.69 
462.35 -64.36 -3.16 
464.92 -63.84 -5.66 
464.91 -64.09 -4.77 
464.85 -64.20 -3.41 
464.85 -64.06 -3.00 
464.82 -64.19 -2.47 
464.78 -64.18 -1.52 
464.75 -64.16 -0.57 
464.75 -64.02 -0.32 
464.71 -64.15 0.38 
465.41 -63.95 -5.53 
465.38 -63.94 -4.79 
465.34 -63.94 -4.05 
465.30 -63.93 -3.31 
465.33 -64.25 -2.99 
465.61 -64.33 -2.10 
465.71 -63.90 -1.51 
465.69 -63.89 -0.87 
465.67 -63.88 -0.23 
465.23 -64.19 0.50 
466.20 -64.06 -5.55 
466.20 -63.99 -4.99 
466.08 -63.96 -4.27 
466.18 -64.02 -3.60 
466.13 -64.04 -2.92 
466.12 -64.06 -2.17 
466.11 -64.06 -1.60 
466.14 -64.03 -0.89 
466.16 -64.16 -0.13 
465.91 -64.28 0.36 
466.66 -64.29 -5.54 
466.78 -64.29 -4.90 
466.72 -64.23 -4.28 
466.76 -64.25 -3.53 
466.77 -64.30 -2.96 
466.79 -64.29 -2.22 
466.74 -64.34 -1.59 
466.75 -64.40 -0.90 
466.68 -64.42 -0.18 
466.50 -64.38 0.50 
467.23 -64.52 -5.46 
467.23 -64.53 -4.98 
467.14 -64.49 -4.28 
467.15 -64.45 -3.67 
467.11 -64.48 -2.97 
467.15 -64.48 -2.32 
467.13 -64.47 -1.73 
455.76 -63.34 -2.08 
455.75 -63.35 -1.39 
455.49 -63.26 -0.62 
455.49 -63.26 -0.62 
455.94 -63.40 -2.45 
456.10 -63.73 -1.46 
456.07 -63.75 -0.78 
456.06 -63.60 0.02 
456.89 -63.59 -2.32 
456.69 -63.24 -1.45 
456.67 -63.25 -0.77 
460.02 -63.28 -5.59 
460.01 -63.16 -4.94 
460.01 -63.14 -4.25 
459.92 -63.14 -3.63 
459.91 -63.14 -3.05 
460.42 -63.38 -5.50 
460.42 -63.39 -4.94 
460.47 -63.39 -4.22 
460.47 -63.41 -3.68 
460.47 -63.42 -3.15 
460.98 -63.67 -5.44 
461.09 -63.67 -5.07 
461.14 -63.72 -4.25 
461.09 -63.70 -3.67 
461.09 -63.70 -3.04 
461.34 -63.51 -2.11 
461.16 -63.53 -1.31 
461.33 -63.52 -0.93 
461.84 -63.18 -2.90 
461.84 -63.19 -2.34 
462.86 -63.34 -4.86 
462.82 -63.36 -4.30 
462.83 -63.33 -3.86 
462.82 -63.37 -3.11 
462.96 -63.33 -2.05 
462.76 -63.29 -1.85 
462.73 -63.27 -0.84 
463.52 -63.28 -5.55 
463.57 -63.57 -5.34 
463.54 -63.56 -4.37 
463.46 -63.26 -3.78 
463.44 -63.25 -2.89 
463.48 -63.47 -2.05 
463.43 -63.52 -1.45 
463.45 -63.46 -1.13 
463.41 -63.44 -0.20 
463.32 -63.20 0.69 
464.29 -63.74 -5.63 
464.10 -63.41 -4.94 
464.06 -63.39 -4.12 
464.01 -63.37 -3.30 
464.13 -63.38 -3.21 
464.09 -63.36 -2.40 
464.05 -63.35 -1.59 
464.00 -63.33 -0.78 
463.96 -63.32 0.05 
464.31 -63.44 0.47 
464.75 -63.31 -5.59 
464.81 -63.26 -5.00 
464.75 -63.24 -4.26 
464.71 -63.27 -3.54 
464.71 -63.27 -2.99 
464.73 -63.25 -2.19 
464.66 -63.31 -1.51 
464.65 -63.31 -0.92 
464.51 -63.40 0.03 
464.45 -63.77 0.57 
465.38 -63.65 -5.52 
465.39 -63.56 -4.91 
465.35 -63.52 -4.29 
465.30 -63.59 -3.58 
465.37 -63.58 -2.95 
465.29 -63.56 -2.25 
465.29 -63.56 -1.66 
465.26 -63.60 -0.82 
465.25 -63.64 -0.18 
465.10 -63.81 0.35 
465.73 -63.81 -5.56 
465.86 -63.81 -4.99 
465.82 -63.76 -4.25 
465.75 -63.80 -3.59 
465.72 -63.76 -2.95 
465.77 -63.75 -2.21 
465.82 -63.83 -1.58 
465.71 -63.81 -0.86 
455.77 -62.72 -2.45 
455.66 -62.61 -1.46 
455.89 -62.58 -0.70 
456.44 -62.81 -2.04 
456.41 -62.83 -1.35 
456.28 -62.57 -0.90 
456.35 -62.97 -0.24 
457.02 -62.47 -2.69 
456.96 -62.54 -2.25 
456.93 -62.65 -1.20 
456.91 -62.66 -0.50 
456.94 -62.45 -0.41 
457.53 -62.84 -2.25 
457.48 -62.82 -1.41 
457.44 -62.80 -0.57 
457.32 -62.77 -0.39 
458.65 -62.45 -5.60 
458.69 -62.48 -4.94 
458.61 -62.43 -4.21 
458.63 -62.51 -3.60 
458.58 -62.44 -3.16 
458.82 -62.53 -5.68 
459.09 -62.63 -4.90 
459.10 -62.68 -4.24 
459.04 -62.71 -3.59 
459.03 -62.72 -3.04 
459.84 -63.12 -5.40 
459.69 -62.99 -4.88 
459.68 -63.00 -4.31 
459.70 -63.02 -3.61 
459.61 -62.96 -3.09 
461.51 -62.72 -3.68 
461.51 -62.73 -3.08 
461.78 -62.63 -2.20 
461.50 -62.75 -1.26 
461.51 -62.44 -1.02 
462.14 -62.88 -5.38 
461.84 -62.73 -4.27 
461.83 -62.74 -3.57 
461.83 -62.75 -2.87 
461.78 -62.63 -2.20 
461.77 -62.63 -1.63 
461.77 -62.65 -1.05 
461.95 -62.80 -0.37 
462.46 -62.74 -5.61 
462.80 -62.78 -4.89 
462.85 -62.62 -4.06 
462.45 -62.77 -3.39 
462.73 -62.75 -3.16 
462.69 -62.73 -2.30 
462.72 -62.59 -1.68 
462.76 -62.62 -0.92 
462.73 -62.61 -0.15 
462.58 -62.69 0.33 
463.55 -62.57 -5.66 
463.41 -62.57 -5.19 
463.31 -62.52 -4.26 
463.40 -62.59 -3.59 
463.40 -62.59 -3.05 
463.29 -62.53 -2.21 
463.38 -62.61 -1.43 
463.58 -63.03 -0.95 
463.52 -63.03 -0.21 
463.53 -63.02 0.53 
464.08 -62.89 -5.50 
464.08 -62.89 -5.01 
464.02 -62.83 -4.28 
464.07 -62.86 -3.65 
463.93 -62.84 -2.92 
464.03 -62.87 -2.26 
464.04 -62.91 -1.54 
463.88 -62.94 -0.92 
463.86 -62.96 -0.07 
464.32 -63.01 -5.40 
464.46 -63.08 -5.00 
464.45 -63.05 -4.26 
464.44 -63.09 -3.53 
464.48 -63.03 -2.95 
464.39 -63.06 -2.25 
464.44 -63.08 -1.56 
464.59 -63.20 -0.92 
467.04 -62.45 -5.61 
467.07 -62.47 -4.96 
467.14 -62.40 -4.23 
467.13 -62.40 -3.73 
466.89 -62.39 -2.92 
466.94 -62.45 -1.75 
466.90 -62.44 -0.68 
467.42 -62.52 -5.70 
467.50 -62.52 -5.08 
467.34 -62.61 -4.30 
467.43 -62.52 -3.62 
467.42 -62.55 -2.99 
467.40 -62.50 -2.35 
467.37 -62.54 -1.60 
467.33 -62.48 -0.69 
467.39 -62.66 -0.44 
454.88 -61.84 -0.20 
455.54 -61.78 -2.05 
455.68 -61.84 -1.33 
455.73 -61.93 -0.96 
455.64 -61.82 -0.45 
456.28 -61.92 -1.45 
456.19 -61.98 -0.87 
456.18 -62.06 -0.34 
457.27 -61.79 -4.10 
457.25 -61.81 -3.55 
456.91 -61.89 -3.18 
456.72 -62.13 -2.26 
456.85 -62.30 -1.50 
456.65 -62.17 -0.95 
457.78 -62.01 -4.95 
457.74 -62.00 -4.18 
457.64 -61.95 -3.63 
457.67 -62.04 -3.13 
458.37 -62.38 -5.38 
458.24 -62.25 -4.95 
458.33 -62.30 -4.30 
458.25 -62.25 -3.65 
458.32 -62.31 -3.13 
461.48 -62.42 -0.07 
462.21 -61.88 -5.01 
461.92 -62.15 -4.05 
462.16 -61.96 -3.63 
462.15 -61.96 -3.11 
461.96 -62.16 -2.45 
461.92 -62.15 -1.65 
461.88 -62.14 -0.86 
461.84 -62.13 -0.05 
461.94 -62.31 0.24 
462.75 -62.15 -5.63 
462.66 -62.11 -5.01 
462.66 -62.12 -4.46 
462.56 -62.15 -3.62 
462.73 -62.18 -2.97 
462.65 -62.14 -2.24 
462.72 -62.19 -1.35 
462.68 -62.15 -0.56 
462.56 -62.07 -0.46 
463.18 -62.38 -5.64 
463.13 -62.35 -5.01 
463.18 -62.34 -4.31 
462.98 -62.37 -3.60 
463.16 -62.40 -2.95 
463.11 -62.38 -2.21 
463.11 -62.39 -1.64 
463.10 -62.39 -1.07 
465.62 -61.63 -2.83 
465.58 -61.73 -2.05 
465.57 -61.74 -1.47 
466.19 -61.86 -5.72 
466.17 -61.86 -5.17 
466.15 -61.93 -4.24 
466.12 -61.87 -3.56 
466.09 -61.83 -2.96 
466.07 -61.87 -2.17 
466.14 -61.91 -1.59 
466.00 -61.81 -0.72 
466.78 -62.14 -5.72 
466.84 -62.18 -5.15 
466.83 -62.18 -4.38 
466.71 -62.17 -3.57 
466.79 -62.30 -2.98 
466.84 -62.21 -2.32 
466.76 -62.31 -1.52 
466.74 -62.31 -0.78 
467.13 -62.31 -5.71 
467.36 -62.20 -4.88 
467.14 -62.40 -4.23 
467.20 -62.40 -3.54 
467.18 -62.40 -3.00 
467.11 -62.40 -2.39 
467.26 -62.14 -1.76 
467.23 -62.12 -0.98 
453.69 -61.08 -0.98 
454.04 -61.04 -1.34 
454.09 -61.25 -1.01 
454.31 -61.28 -0.38 
454.88 -61.21 -1.45 
454.88 -61.25 -0.91 
454.88 -61.37 -0.40 
455.90 -61.12 -3.11 
455.57 -61.54 -1.98 
455.50 -61.51 -1.46 
455.55 -61.61 -0.87 
455.25 -61.44 -0.46 
456.29 -61.30 -3.64 
456.29 -61.31 -3.11 
456.24 -61.49 -2.43 
456.23 -61.51 -1.85 
456.79 -61.47 -5.48 
456.84 -61.39 -5.08 
456.98 -61.59 -4.17 
456.97 -61.59 -3.64 
456.95 -61.55 -3.15 
457.42 -61.14 -5.40 
457.55 -61.47 -5.14 
457.57 -61.57 -4.16 
457.57 -61.57 -3.53 
457.57 -61.43 -3.02 
458.21 -61.39 -5.52 
458.02 -61.33 -5.22 
458.03 -61.32 -4.54 
458.03 -61.31 -3.85 
458.04 -61.30 -3.17 
464.62 -61.05 -5.56 
464.70 -61.17 -4.86 
464.78 -61.18 -4.13 
464.76 -61.18 -3.57 
464.73 -61.17 -3.01 
464.80 -61.20 -2.27 
464.88 -61.27 -1.63 
464.64 -61.15 -0.72 
464.91 -61.35 -0.32 
465.31 -61.52 -5.63 
465.42 -61.49 -5.16 
465.32 -61.42 -4.38 
465.33 -61.47 -3.58 
465.39 -61.48 -2.92 
465.36 -61.52 -2.32 
465.35 -61.52 -1.61 
465.33 -61.53 -0.89 
465.80 -61.64 -5.70 
465.78 -61.64 -5.13 
465.72 -61.62 -4.39 
465.75 -61.69 -3.57 
465.78 -61.71 -2.98 
465.74 -61.63 -2.27 
465.73 -61.70 -1.56 
466.07 -61.51 -0.88 
466.61 -61.72 -0.82 
452.09 -60.56 -0.71 
453.07 -60.47 -1.36 
453.04 -60.41 -0.75 
452.94 -60.48 -0.36 
453.52 -60.49 -1.91 
453.46 -60.46 -1.48 
453.62 -60.54 -0.86 
453.57 -60.77 -0.31 
454.11 -60.81 -1.43 
454.08 -60.75 -0.83 
454.19 -60.89 -0.37 
454.50 -61.01 -1.44 
454.57 -61.01 -1.05 
457.03 -60.84 -5.40 
457.03 -60.84 -4.77 
457.03 -60.84 -4.15 
457.03 -60.84 -3.53 
457.03 -60.84 -2.90 
457.56 -60.52 -5.38 
457.54 -60.72 -5.27 
457.91 -60.74 -4.45 
457.56 -60.51 -3.49 
457.57 -60.51 -2.85 
458.57 -60.66 -5.53 
458.44 -60.58 -5.22 
458.47 -60.62 -4.18 
458.47 -60.62 -3.64 
458.47 -60.62 -3.10 
463.38 -60.49 -5.66 
463.41 -60.49 -4.97 
463.36 -60.43 -4.35 
463.31 -60.46 -3.64 
463.32 -60.51 -3.00 
463.32 -60.45 -2.28 
463.27 -60.47 -1.38 
463.25 -60.46 -0.80 
463.20 -60.43 -0.31 
463.88 -60.68 -5.58 
463.94 -60.76 -4.96 
463.98 -60.81 -4.26 
463.97 -60.76 -3.54 
464.02 -60.78 -2.87 
463.87 -60.78 -2.24 
463.86 -60.78 -1.69 
463.85 -60.77 -0.86 
464.07 -60.90 -0.44 
464.54 -61.00 -5.77 
464.51 -60.99 -5.17 
464.54 -61.03 -4.39 
464.53 -60.94 -3.42 
464.49 -61.02 -2.89 
464.48 -60.93 -2.19 
464.45 -60.92 -1.57 
464.43 -60.91 -0.95 
464.40 -60.90 -0.32 
451.98 -59.73 -0.55 
452.11 -59.92 -0.37 
452.82 -60.12 -1.87 
452.84 -60.14 -1.45 
452.71 -60.10 -0.87 
452.96 -60.35 -0.44 
453.13 -60.28 -1.89 
453.17 -60.30 -1.48 
453.12 -60.26 -1.01 
454.10 -60.28 -1.01 
456.93 -60.31 -5.53 
457.10 -60.08 -4.77 
457.10 -60.08 -4.25 
457.09 -60.09 -3.74 
457.09 -60.09 -3.22 
457.46 -59.72 -5.38 
457.73 -60.21 -5.03 
457.92 -59.80 -4.13 
457.92 -59.80 -3.51 
457.47 -59.70 -2.82 
458.25 -60.12 -5.40 
458.25 -60.06 -5.14 
458.36 -59.77 -4.12 
458.36 -59.77 -3.58 
458.36 -59.77 -3.05 
458.93 -59.95 -5.55 
458.94 -59.92 -4.74 
458.78 -59.89 -4.56 
458.79 -59.88 -3.90 
458.97 -59.85 -3.14 
461.92 -59.68 -5.62 
461.93 -59.70 -5.00 
461.89 -59.69 -4.34 
461.99 -59.73 -3.64 
461.95 -59.74 -2.94 
461.96 -59.72 -2.18 
461.87 -59.68 -1.58 
461.97 -59.81 -0.66 
462.15 -59.83 -0.45 
462.74 -60.09 -5.60 
462.53 -60.04 -4.95 
462.57 -60.05 -4.40 
462.47 -59.98 -3.55 
462.53 -60.09 -2.89 
462.49 -60.03 -2.26 
462.51 -60.10 -1.72 
462.62 -60.14 -0.73 
462.22 -59.83 -0.29 
463.06 -60.26 -5.59 
463.10 -60.32 -4.92 
463.04 -60.27 -4.35 
463.10 -60.30 -3.56 
463.03 -60.22 -2.85 
463.01 -60.21 -2.24 
463.04 -60.22 -1.47 
463.02 -60.21 -0.83 
462.99 -60.20 -0.19 
463.66 -60.28 -5.84 
463.71 -60.31 -5.23 
463.67 -60.28 -4.46 
463.62 -60.25 -3.68 
450.18 -59.07 -0.29 
450.86 -59.12 -1.38 
450.79 -59.08 -0.87 
450.63 -59.03 -0.43 
451.62 -59.51 -1.93 
451.34 -59.35 -1.39 
451.40 -59.40 -0.92 
451.21 -59.33 -0.40 
451.72 -59.53 -1.94 
455.79 -58.94 -5.21 
455.83 -58.90 -4.16 
456.01 -58.98 -5.41 
456.32 -59.16 -4.97 
456.02 -59.01 -4.25 
456.30 -59.17 -3.67 
456.30 -59.18 -3.23 
456.80 -59.40 -5.40 
456.79 -59.40 -4.97 
456.93 -59.48 -4.22 
456.77 -59.42 -3.67 
456.92 -59.49 -3.14 
457.67 -59.40 -5.44 
457.67 -59.41 -4.88 
457.67 -59.41 -4.32 
457.64 -59.13 -3.45 
457.70 -59.42 -2.98 
458.60 -59.42 -5.38 
458.29 -59.32 -5.26 
458.45 -59.18 -4.27 
458.27 -59.12 -3.54 
458.27 -59.12 -2.93 
459.27 -59.25 -5.56 
459.01 -58.93 -4.99 
458.92 -58.96 -4.31 
458.85 -59.02 -3.46 
458.86 -59.01 -2.83 
460.69 -59.05 -5.66 
460.57 -58.98 -5.02 
460.52 -58.99 -4.35 
460.63 -59.03 -3.60 
460.60 -59.06 -2.77 
460.58 -59.05 -2.22 
460.64 -59.08 -1.48 
460.63 -59.09 -0.86 
460.71 -59.09 -0.28 
461.13 -59.27 -5.76 
461.11 -59.28 -4.98 
461.10 -59.28 -4.20 
461.10 -59.27 -3.62 
461.12 -59.33 -2.94 
461.13 -59.34 -2.25 
461.25 -59.38 -1.55 
461.33 -59.47 -0.76 
461.35 -59.50 -0.29 
461.47 -59.45 -5.50 
461.64 -59.57 -4.97 
461.61 -59.51 -4.14 
461.58 -59.51 -3.52 
461.55 -59.50 -2.89 
461.53 -59.49 -2.27 
461.54 -59.47 -1.51 
462.32 -59.44 -5.27 
462.43 -59.61 -2.88 
462.38 -59.58 -2.08 
448.90 -58.61 -1.19 
448.82 -58.66 -0.71 
448.88 -58.60 -0.39 
449.39 -58.33 -0.70 
449.30 -58.32 -0.47 
449.75 -58.47 -1.43 
449.72 -58.46 -0.66 
449.74 -58.74 -0.33 
454.52 -58.20 -5.13 
454.47 -58.24 -4.21 
454.54 -58.19 -3.46 
454.17 -58.32 -3.05 
454.98 -58.42 -5.44 
454.97 -58.43 -5.02 
454.86 -58.38 -4.19 
454.85 -58.38 -3.73 
454.91 -58.34 -3.20 
455.61 -58.74 -5.60 
455.46 -58.68 -5.03 
455.58 -58.78 -4.26 
455.61 -58.75 -3.54 
455.57 -58.77 -3.22 
456.12 -58.71 -4.94 
456.32 -58.65 -4.18 
456.29 -58.70 -3.34 
457.98 -58.48 -5.80 
457.68 -58.68 -5.26 
457.67 -58.71 -4.22 
457.66 -58.72 -3.70 
457.65 -58.74 -2.64 
458.34 -58.43 -5.71 
458.36 -58.41 -4.99 
458.45 -58.62 -4.24 
458.45 -58.63 -3.74 
458.59 -58.47 -2.97 
459.21 -58.26 -5.56 
459.13 -58.48 -5.08 
459.11 -58.47 -4.40 
459.08 -58.46 -3.73 
459.06 -58.46 -3.05 
459.22 -58.31 -2.13 
459.21 -58.34 -1.68 
459.37 -58.44 -0.98 
459.74 -58.56 -5.51 
459.73 -58.56 -5.04 
459.80 -58.63 -4.34 
459.78 -58.58 -3.64 
459.74 -58.62 -2.85 
459.81 -58.66 -2.25 
459.74 -58.60 -1.50 
459.93 -58.65 -0.69 
459.63 -58.44 -0.45 
460.16 -58.78 -5.51 
460.27 -58.83 -4.99 
460.16 -58.81 -4.34 
460.30 -58.86 -3.61 
460.24 -58.86 -2.99 
460.23 -58.88 -2.12 
460.26 -58.88 -1.44 
460.52 -58.90 -0.55 
447.33 -57.69 -0.72 
448.09 -57.68 -1.87 
448.02 -57.65 -1.48 
448.02 -57.66 -0.82 
448.15 -57.84 -0.50 
448.45 -57.87 -1.84 
448.33 -57.80 -1.59 
448.57 -57.94 -0.87 
448.52 -57.97 -0.36 
448.93 -58.21 -0.78 
453.65 -57.72 -5.46 
453.73 -57.81 -4.97 
453.60 -57.74 -4.21 
453.60 -57.75 -3.67 
453.59 -57.75 -3.13 
454.08 -57.98 -5.42 
454.07 -57.96 -5.02 
454.15 -58.02 -4.22 
454.09 -57.99 -3.62 
454.08 -57.99 -3.06 
454.53 -58.19 -5.60 
454.59 -58.19 -5.13 
454.94 -58.16 -4.16 
454.54 -58.19 -3.46 
454.90 -58.16 -3.07 
455.76 -57.83 -4.08 
455.35 -57.86 -3.86 
455.74 -57.86 -3.07 
456.06 -57.76 -3.74 
456.06 -57.74 -2.69 
457.26 -57.60 -4.10 
457.33 -57.54 -3.60 
457.30 -57.53 -2.88 
457.82 -57.62 -5.64 
457.76 -57.64 -5.05 
457.81 -57.64 -4.29 
457.78 -57.64 -3.61 
457.83 -57.69 -3.01 
457.92 -57.65 -2.30 
457.99 -57.67 -1.76 
458.31 -57.87 -5.63 
458.36 -57.87 -4.91 
458.32 -57.90 -4.32 
458.39 -57.98 -3.62 
458.31 -57.91 -2.95 
458.30 -57.82 -2.19 
458.38 -57.91 -1.54 
458.70 -58.07 -1.12 
458.93 -58.13 -5.51 
458.90 -58.11 -5.01 
458.85 -58.10 -4.31 
458.90 -58.15 -3.66 
458.79 -58.15 -2.95 
458.87 -58.16 -2.26 
458.76 -58.07 -1.62 
458.91 -58.22 -0.82 
446.05 -56.84 -1.62 
445.90 -56.96 -0.96 
446.61 -56.88 -1.36 
446.54 -56.95 -0.73 
446.69 -57.00 -0.49 
447.12 -57.18 -1.27 
447.18 -57.27 -0.97 
447.25 -57.30 -0.39 
447.59 -57.39 -1.23 
447.64 -57.45 -0.80 
449.88 -56.89 -2.19 
449.85 -56.90 -1.54 
450.63 -56.85 -2.98 
450.83 -57.04 -2.46 
450.58 -57.06 -1.68 
451.67 -56.84 -4.76 
451.66 -56.85 -4.16 
451.65 -56.85 -3.56 
452.24 -57.00 -5.02 
452.16 -56.97 -4.27 
451.98 -57.01 -3.56 
452.08 -56.94 -3.28 
452.81 -57.29 -5.61 
452.72 -57.24 -5.03 
452.79 -57.29 -4.35 
452.67 -57.26 -3.58 
452.68 -57.28 -3.19 
453.20 -57.48 -5.80 
453.16 -57.48 -5.02 
453.18 -57.49 -4.34 
453.13 -57.50 -3.70 
453.13 -57.51 -3.16 
454.48 -56.85 -3.73 
454.41 -56.85 -3.04 
454.58 -57.29 -4.18 
454.56 -56.98 -3.87 
454.81 -57.16 -3.06 
455.33 -56.87 -5.09 
455.28 -57.04 -4.08 
455.30 -56.90 -3.45 
455.21 -57.01 -3.10 
456.42 -56.90 -5.60 
456.41 -56.91 -5.06 
456.38 -56.90 -4.28 
456.43 -56.95 -3.57 
456.37 -56.92 -2.93 
456.12 -57.38 -1.99 
456.60 -56.92 -1.68 
456.11 -57.13 -1.04 
456.97 -57.18 -5.69 
456.97 -57.20 -4.94 
456.96 -57.20 -4.30 
456.89 -57.18 -3.59 
456.92 -57.18 -2.95 
456.97 -57.17 -2.23 
456.99 -57.16 -1.69 
457.48 -57.45 -5.64 
457.55 -57.40 -5.01 
457.48 -57.40 -4.29 
457.43 -57.47 -3.60 
457.49 -57.39 -3.03 
457.45 -57.41 -2.27 
457.44 -57.42 -1.76 
445.06 -56.10 -1.89 
445.11 -56.22 -1.51 
445.29 -56.21 -0.71 
445.26 -56.28 -0.36 
445.30 -56.27 0.26 
445.67 -56.50 -1.48 
445.78 -56.52 -0.83 
445.61 -56.58 -0.37 
446.29 -56.74 -1.27 
446.36 -56.82 -0.98 
446.25 -56.79 -0.45 
448.77 -56.22 -1.03 
449.12 -56.55 -1.99 
449.20 -56.74 -1.41 
449.12 -56.16 -0.97 
449.61 -56.32 -2.72 
449.93 -56.61 -2.26 
449.96 -56.61 -1.67 
449.96 -56.59 -1.05 
450.71 -56.33 -5.42 
450.83 -56.27 -5.02 
450.66 -56.19 -4.13 
450.80 -56.37 -3.64 
450.66 -56.20 -3.25 
450.49 -56.79 -1.99 
450.54 -56.80 -1.67 
451.16 -56.43 -5.46 
451.16 -56.44 -5.02 
451.20 -56.46 -4.29 
451.34 -56.69 -3.53 
451.41 -56.59 -3.27 
451.93 -56.83 -5.02 
451.84 -56.80 -4.28 
451.94 -56.88 -3.55 
451.83 -56.80 -3.24 
453.63 -56.33 -4.10 
453.59 -56.21 -3.06 
454.05 -56.13 -5.88 
454.03 -56.14 -5.13 
454.13 -56.20 -4.28 
454.00 -56.14 -3.63 
454.03 -56.16 -3.04 
455.08 -56.19 -5.66 
455.00 -56.17 -5.00 
454.96 -56.22 -4.29 
454.99 -56.18 -3.60 
454.95 -56.23 -2.97 
455.57 -56.45 -5.61 
455.58 -56.47 -4.90 
455.56 -56.46 -4.30 
455.63 -56.54 -3.61 
455.55 -56.47 -2.98 
456.16 -56.75 -5.59 
456.11 -56.73 -5.04 
456.07 -56.72 -4.27 
456.10 -56.76 -3.69 
456.05 -56.73 -3.01 
443.91 -55.50 -1.28 
443.85 -55.48 -0.76 
444.35 -55.77 -1.44 
444.39 -55.78 -1.00 
444.70 -55.66 -0.31 
444.86 -55.82 -2.02 
444.87 -56.04 -1.48 
444.87 -56.05 -0.85 
444.91 -55.88 -0.18 
444.99 -56.11 0.41 
445.52 -55.79 -1.90 
445.57 -55.89 -1.44 
445.57 -55.89 -0.60 
445.80 -55.47 -0.31 
446.15 -56.02 -0.70 
447.84 -55.51 -1.92 
447.83 -55.53 -1.19 
448.85 -56.05 -1.27 
448.65 -55.73 -0.81 
449.92 -55.47 -4.78 
450.03 -55.87 -4.12 
450.03 -55.88 -3.68 
450.03 -55.88 -3.23 
450.49 -56.11 -4.12 
450.49 -56.12 -3.67 
450.49 -56.12 -3.22 
451.70 -55.68 -4.95 
451.69 -55.70 -4.03 
451.70 -55.67 -3.50 
451.67 -55.72 -3.10 
451.92 -55.73 -3.93 
451.92 -55.73 -3.24 
453.02 -55.64 -5.96 
453.00 -55.65 -5.21 
453.04 -55.60 -4.41 
452.97 -55.65 -3.72 
452.95 -55.65 -2.97 
453.68 -55.48 -5.59 
453.73 -55.52 -5.00 
453.63 -55.48 -4.25 
453.62 -55.45 -3.55 
453.76 -55.60 -3.07 
454.19 -55.76 -5.62 
454.23 -55.76 -5.04 
454.19 -55.78 -4.25 
454.15 -55.88 -3.65 
454.27 -55.78 -3.02 
454.72 -56.00 -5.66 
454.68 -56.01 -5.00 
454.71 -56.02 -4.24 
454.70 -56.02 -3.58 
454.62 -56.00 -2.95 
455.36 -55.95 -3.69 
443.07 -55.12 -1.16 
443.12 -55.12 -1.13 
443.53 -55.30 -1.29 
443.60 -55.35 -1.18 
444.52 -55.11 -1.67 
444.51 -55.12 -1.06 
445.09 -55.14 -1.32 
445.09 -55.16 -0.66 
445.09 -55.08 -0.31 
445.44 -55.34 -1.64 
445.68 -55.13 -0.83 
445.89 -55.25 -0.13 
445.48 -55.27 0.32 
446.60 -55.14 -0.77 
446.67 -54.82 -0.35 
446.98 -55.10 -1.29 
447.14 -55.22 -0.97 
447.87 -55.42 -1.93 
447.64 -55.43 -1.28 
450.25 -55.15 -3.99 
449.87 -54.78 -3.69 
450.45 -54.95 -5.00 
450.43 -54.98 -4.16 
450.62 -55.28 -3.71 
451.52 -55.00 -5.09 
451.45 -54.98 -4.08 
451.42 -55.25 -3.82 
451.37 -54.95 -3.05 
452.28 -54.77 -5.79 
452.36 -54.77 -4.98 
452.24 -55.06 -4.13 
452.15 -54.84 -3.62 
452.16 -54.78 -2.96 
452.68 -55.00 -5.69 
452.76 -54.97 -4.98 
452.74 -55.02 -4.20 
452.74 -55.03 -3.67 
452.74 -54.99 -3.00 
453.32 -55.29 -5.68 
453.27 -55.26 -5.04 
453.29 -55.30 -4.28 
453.29 -55.28 -3.56 
453.35 -55.32 -3.04 
445.36 -54.55 -1.49 
445.36 -54.55 -0.66 
445.25 -54.71 -0.23 
445.58 -54.57 -1.31 
445.87 -54.50 -0.73 
445.76 -54.22 -0.33 
446.81 -54.26 -1.93 
446.64 -54.20 -1.49 
446.36 -54.39 -0.71 
446.27 -54.53 -0.21 
447.03 -54.33 -1.91 
446.82 -54.25 -1.04 
450.21 -54.04 -5.00 
450.20 -54.07 -4.15 
450.19 -54.08 -3.73 
449.78 -54.01 -2.90 
450.15 -54.12 -2.47 
450.90 -54.10 -5.52 
450.84 -54.05 -5.11 
450.93 -54.08 -4.26 
450.90 -54.06 -3.62 
450.75 -54.38 -3.10 
450.35 -54.16 -2.46 
451.36 -54.28 -5.61 
451.41 -54.30 -5.04 
451.35 -54.30 -4.24 
451.35 -54.28 -3.59 
451.37 -54.35 -3.06 
451.97 -54.60 -5.64 
451.97 -54.57 -4.98 
451.96 -54.61 -4.27 
451.93 -54.59 -3.60 
451.95 -54.58 -3.04 
452.52 -54.58 -5.96 
452.52 -54.57 -5.29 
452.51 -54.57 -4.62 
452.34 -54.49 -3.64 
443.66 -53.49 -1.35 
443.99 -53.55 -0.93 
444.24 -53.41 -1.35 
444.28 -53.78 -0.90 
445.33 -53.28 -1.66 
445.89 -53.39 -2.21 
445.89 -53.39 -1.35 
445.75 -53.82 -0.71 
445.63 -53.99 -0.30 
446.36 -53.46 -2.28 
446.36 -53.45 -1.45 
446.28 -53.70 -0.80 
446.29 -53.75 -0.24 
447.26 -53.50 -1.98 
447.04 -53.43 -1.55 
447.42 -53.44 -0.90 
448.88 -53.37 -5.16 
448.74 -53.54 -3.99 
448.86 -53.38 -3.87 
448.66 -53.51 -2.93 
449.54 -53.36 -5.51 
449.50 -53.36 -5.12 
449.38 -53.67 -4.30 
449.48 -53.31 -3.61 
449.48 -53.46 -3.04 
449.59 -53.80 -2.52 
449.84 -53.48 -5.48 
449.99 -53.58 -5.01 
449.90 -53.59 -4.26 
449.98 -53.59 -3.69 
450.02 -53.65 -2.99 
450.68 -53.93 -5.61 
450.61 -53.90 -5.01 
450.59 -53.89 -4.25 
450.56 -53.88 -3.60 
450.58 -53.96 -2.93 
452.38 -53.63 -5.84 
452.38 -53.63 -5.29 
452.37 -53.64 -4.19 
452.36 -53.64 -3.64 
452.32 -53.49 -3.19 
452.67 -53.88 -5.79 
452.93 -53.36 -4.94 
452.91 -53.38 -4.12 
452.66 -53.73 -3.56 
452.62 -53.94 -3.25 
453.62 -53.41 -5.92 
443.72 -53.22 -0.72 
445.33 -53.28 -1.66 
445.86 -52.90 -2.02 
445.95 -52.91 -1.43 
445.95 -52.92 -0.77 
445.94 -53.30 -0.35 
446.38 -52.64 -2.75 
446.39 -52.92 -2.23 
446.55 -52.82 -1.55 
446.64 -52.92 -0.86 
446.72 -53.01 -0.30 
447.23 -53.12 -2.60 
447.11 -52.97 -2.41 
447.11 -52.97 -1.61 
447.11 -52.97 -0.81 
446.99 -53.16 -0.34 
448.08 -52.78 -5.48 
448.15 -52.97 -5.16 
448.04 -52.61 -4.45 
447.99 -52.59 -3.57 
447.99 -52.76 -2.90 
448.70 -52.93 -5.53 
448.59 -52.89 -4.98 
448.58 -52.89 -4.29 
448.57 -52.90 -3.61 
448.68 -52.88 -3.11 
449.24 -53.19 -5.52 
449.23 -53.17 -4.99 
449.24 -53.25 -4.25 
449.24 -53.18 -3.59 
449.24 -53.19 -3.03 
449.63 -52.88 -3.97 
450.59 -53.31 -5.40 
450.58 -53.33 -4.99 
451.01 -53.21 -4.16 
451.00 -53.21 -3.54 
451.28 -52.67 -5.38 
451.28 -52.67 -4.77 
451.28 -53.09 -4.04 
451.12 -52.72 -3.72 
452.21 -52.76 -5.83 
452.22 -52.61 -4.93 
452.19 -52.78 -4.18 
452.18 -52.78 -3.63 
452.18 -52.79 -3.08 
452.58 -52.79 -5.76 
452.58 -52.80 -4.94 
452.86 -52.93 -4.33 
452.65 -52.82 -3.70 
452.64 -52.83 -2.92 
445.28 -51.99 -4.77 
445.11 -52.04 -4.36 
445.09 -51.96 -3.53 
445.23 -51.86 -2.84 
445.20 -51.98 -2.10 
445.27 -51.92 -1.51 
445.41 -52.17 -0.96 
445.06 -51.81 -0.38 
445.82 -52.15 -5.32 
445.70 -52.08 -4.96 
445.66 -52.05 -4.46 
445.66 -52.09 -3.62 
445.65 -52.07 -2.91 
445.78 -52.18 -2.26 
445.67 -52.13 -1.56 
445.70 -52.16 -0.82 
445.69 -52.13 -0.35 
446.18 -52.36 -5.32 
446.56 -52.36 -4.91 
446.79 -52.28 -4.15 
446.30 -52.40 -3.56 
446.30 -52.40 -3.11 
446.32 -52.42 -2.24 
446.33 -52.47 -1.55 
446.30 -52.43 -0.81 
446.32 -52.59 -0.42 
447.18 -52.12 -5.50 
447.18 -52.12 -5.05 
447.17 -52.16 -4.22 
447.19 -52.12 -3.65 
447.10 -52.10 -2.99 
447.81 -52.47 -5.55 
447.86 -52.47 -5.05 
447.89 -52.48 -4.28 
447.79 -52.44 -3.62 
447.79 -52.52 -3.15 
448.22 -52.63 -5.25 
450.87 -52.09 -5.88 
450.87 -52.09 -5.30 
450.85 -52.10 -4.15 
450.94 -52.12 -3.72 
450.84 -51.88 -3.11 
451.23 -52.05 -5.74 
451.25 -52.09 -4.99 
451.39 -52.15 -4.38 
451.38 -52.16 -3.54 
451.37 -52.17 -3.12 
451.85 -52.40 -5.77 
451.84 -52.41 -4.93 
451.92 -52.44 -4.11 
451.84 -52.43 -3.65 
451.92 -52.45 -3.00 
443.67 -51.28 -5.37 
443.81 -51.47 -5.19 
443.60 -51.26 -4.37 
443.86 -51.20 -3.62 
443.99 -51.33 -2.94 
443.85 -51.22 -2.07 
443.85 -51.22 -1.55 
443.69 -51.40 -0.65 
444.65 -51.50 -5.53 
444.33 -51.36 -5.02 
444.36 -51.37 -4.46 
444.38 -51.40 -3.60 
444.31 -51.38 -2.90 
444.37 -51.42 -2.24 
444.39 -51.42 -1.57 
444.46 -51.50 -0.79 
444.36 -51.57 -0.30 
444.96 -51.48 -5.46 
444.84 -51.74 -4.77 
444.99 -51.69 -4.13 
445.01 -51.72 -3.55 
444.93 -51.65 -2.96 
445.00 -51.73 -2.17 
444.98 -51.75 -1.65 
445.08 -51.82 -0.87 
445.06 -51.81 -0.38 
445.79 -51.37 -5.51 
445.84 -51.42 -4.96 
445.70 -51.40 -4.19 
445.82 -51.43 -3.63 
445.82 -51.43 -3.18 
446.63 -51.82 -5.39 
446.49 -51.76 -5.05 
446.45 -51.79 -4.20 
446.47 -51.77 -3.61 
446.47 -51.79 -3.10 
446.84 -51.92 -5.52 
446.84 -51.92 -5.06 
446.86 -51.91 -4.30 
446.85 -51.91 -3.69 
446.84 -51.91 -3.09 
449.49 -51.13 -5.09 
449.47 -51.30 -4.15 
449.48 -51.32 -3.49 
449.58 -51.42 -3.19 
449.93 -51.37 -5.62 
450.15 -51.48 -5.08 
450.11 -51.48 -4.21 
449.90 -51.39 -3.66 
450.05 -51.47 -3.04 
450.69 -51.76 -5.79 
450.62 -51.74 -4.97 
450.75 -51.79 -4.40 
450.69 -51.80 -3.58 
450.63 -51.78 -3.04 
443.02 -50.74 -4.64 
443.03 -50.65 -4.32 
443.02 -50.75 -3.59 
442.96 -50.64 -2.98 
443.09 -50.74 -2.22 
443.00 -50.72 -1.53 
443.15 -50.78 -0.99 
442.86 -50.87 -0.40 
443.81 -51.06 -5.34 
443.78 -51.08 -5.02 
443.65 -50.97 -4.30 
443.65 -51.03 -3.58 
443.69 -51.07 -2.98 
443.69 -51.09 -2.30 
443.61 -51.06 -1.50 
443.61 -51.05 -0.73 
443.57 -51.12 -0.32 
444.04 -51.22 -5.03 
443.96 -51.16 -4.15 
445.36 -51.16 -5.40 
445.19 -51.07 -4.94 
445.31 -51.19 -4.18 
445.34 -51.16 -3.64 
445.33 -51.17 -3.20 
445.42 -51.20 -5.55 
445.43 -51.20 -5.01 
445.35 -51.17 -4.51 
445.41 -51.22 -3.64 
445.41 -51.22 -3.15 
448.14 -50.69 -5.38 
447.73 -50.44 -4.76 
447.98 -50.38 -4.37 
447.94 -50.37 -3.65 
448.85 -50.78 -5.63 
448.66 -50.72 -4.94 
448.53 -50.62 -4.35 
448.66 -50.75 -3.70 
448.69 -50.77 -2.95 
449.32 -51.04 -5.62 
449.31 -51.05 -5.04 
449.30 -51.06 -4.46 
449.29 -51.06 -3.69 
449.19 -51.01 -2.99 
449.62 -51.20 -5.62 
449.62 -51.21 -5.04 
449.61 -51.22 -4.46 
442.63 -50.46 -5.48 
442.63 -50.46 -5.03 
442.63 -50.47 -4.45 
442.63 -50.50 -3.52 
442.62 -50.50 -3.02 
442.66 -50.51 -2.17 
442.66 -50.51 -1.61 
442.65 -50.51 -1.05 
446.75 -49.92 -5.45 
446.74 -49.92 -4.75 
446.72 -49.93 -4.05 
446.79 -49.98 -3.36 
447.19 -49.93 -5.62 
447.19 -49.93 -5.06 
447.31 -49.98 -4.39 
447.20 -49.97 -3.65 
447.26 -49.99 -3.03 
447.87 -50.29 -5.62 
447.86 -50.30 -5.06 
447.85 -50.31 -4.12 
447.90 -50.34 -3.70 
447.83 -50.32 -3.00 
448.27 -50.48 -5.42 
448.25 -50.48 -5.12 
448.26 -50.49 -4.47 
448.25 -50.50 -3.71 
448.23 -50.51 -2.94 
444.87 -49.14 -3.26 
445.89 -49.21 -5.64 
445.88 -49.22 -5.12 
445.87 -49.23 -4.24 
445.86 -49.24 -3.53 
445.85 -49.24 -2.98 
446.54 -49.58 -5.62 
446.53 -49.58 -5.07 
446.39 -49.54 -4.31 
446.45 -49.58 -3.60 
446.50 -49.61 -3.07 
447.08 -49.83 -5.54 
446.80 -49.72 -5.07 
446.94 -49.83 -4.33 
446.82 -49.75 -3.58 
446.88 -49.79 -3.02 
443.83 -48.58 -5.38 
443.83 -48.59 -4.65 
443.88 -48.39 -3.85 
443.81 -48.60 -3.20 
444.51 -48.48 -5.66 
444.65 -48.57 -5.08 
444.50 -48.49 -4.30 
444.55 -48.54 -3.67 
444.49 -48.51 -3.17 
445.11 -48.83 -5.62 
445.10 -48.83 -5.08 
445.11 -48.83 -4.38 
445.09 -48.83 -3.69 
445.08 -48.85 -3.12 
445.64 -49.08 -5.65 
445.63 -49.09 -5.12 
445.56 -49.07 -4.40 
445.49 -49.05 -3.70 
445.57 -49.10 -3.02 
443.11 -47.74 -5.67 
443.26 -47.84 -5.09 
443.06 -47.78 -4.35 
443.13 -47.78 -3.61 
443.02 -47.77 -3.17 
443.72 -48.10 -5.62 
443.71 -48.08 -4.95 
443.69 -48.12 -4.31 
443.70 -48.10 -3.63 
443.69 -48.13 -3.15 
444.22 -48.39 -5.70 
444.27 -48.37 -5.08 
444.18 -48.38 -4.34 
444.13 -48.32 -3.65 
444.11 -48.31 -3.17 
442.75 -47.55 -5.68 
442.74 -47.56 -5.13 
442.68 -47.53 -4.36 
442.68 -47.55 -3.59 
442.72 -47.58 -3.14 
