# .PCD v0.7 - Point Cloud Data file format
VERSION 0.7
FIELDS x y z
SIZE 4 4 4
TYPE F F F
COUNT 1 1 1
WIDTH 625
HEIGHT 1
VIEWPOINT 0 0 0 1 0 0 0
POINTS 625
DATA ascii
444.49 10.49 -5.29 
444.68 10.87 -4.12 
444.55 10.49 -3.11 
444.67 10.82 -2.06 
444.66 10.80 -1.03 
444.65 10.77 0.01 
444.64 10.75 1.06 
444.86 11.15 -4.13 
444.85 11.16 -3.23 
445.06 11.10 -2.83 
444.85 11.13 -2.21 
445.06 11.08 -1.75 
445.07 11.06 -0.67 
444.83 11.06 0.07 
445.07 11.04 0.42 
445.16 11.17 1.40 
442.96 11.72 -4.05 
443.24 11.47 -1.88 
443.33 11.56 -1.60 
443.28 11.60 -0.51 
443.01 11.62 0.18 
443.24 11.64 0.57 
443.58 11.24 -5.00 
443.46 11.32 -3.96 
443.43 11.48 -3.76 
443.35 11.39 -2.92 
443.71 11.39 -1.72 
443.65 11.44 -0.66 
443.58 11.49 0.41 
445.08 11.62 -5.13 
445.08 11.60 -4.10 
445.09 11.53 -3.32 
445.07 11.57 -3.08 
445.06 11.55 -2.05 
445.07 11.47 -1.28 
445.05 11.53 -1.02 
445.04 11.50 0.02 
445.05 11.41 0.78 
445.03 11.48 1.06 
445.47 11.87 -2.83 
445.47 11.85 -1.75 
445.48 11.83 -0.67 
445.48 11.81 0.41 
445.48 11.79 1.50 
445.25 11.93 -5.24 
445.40 12.11 -4.17 
445.40 12.09 -3.10 
445.39 12.07 -2.03 
445.38 12.04 -0.95 
445.37 12.02 0.12 
445.36 11.99 1.21 
445.53 12.03 -5.04 
445.61 12.13 -3.97 
445.47 12.25 -3.30 
445.61 12.12 -2.91 
445.45 12.28 -2.04 
445.46 12.19 -1.25 
445.62 12.08 -0.76 
445.60 12.50 -0.12 
445.63 12.06 0.32 
445.63 12.04 1.41 
445.93 12.78 -5.03 
445.82 12.90 -4.15 
445.98 12.76 -3.81 
445.94 12.75 -2.90 
445.85 12.99 -2.02 
445.99 12.72 -1.64 
446.02 12.83 -0.75 
445.83 12.94 0.04 
446.03 12.79 0.46 
446.03 12.79 1.42 
446.02 13.36 -5.20 
446.01 13.33 -4.18 
446.01 13.30 -3.17 
446.02 13.32 -2.02 
446.01 13.29 -0.98 
446.33 13.53 -5.02 
446.23 13.67 -4.14 
446.39 13.54 -3.81 
446.34 13.50 -2.89 
446.22 13.62 -2.02 
446.41 13.50 -1.65 
446.35 13.46 -0.75 
446.22 13.66 0.05 
446.41 13.47 0.53 
446.36 13.43 1.41 
446.73 14.28 -5.01 
446.64 14.44 -4.13 
446.80 14.31 -3.81 
446.74 14.25 -2.88 
446.63 14.39 -2.02 
446.81 14.28 -1.66 
446.75 14.21 -0.75 
446.60 14.38 0.06 
446.82 14.25 0.51 
446.76 14.18 1.41 
446.85 14.43 -4.92 
446.85 14.41 -3.84 
446.85 14.38 -2.75 
446.85 14.36 -1.66 
446.85 14.34 -0.57 
446.85 14.32 0.53 
446.78 14.76 -5.15 
446.77 14.73 -4.14 
446.76 14.70 -3.12 
446.80 14.79 -2.01 
446.80 14.76 -0.97 
446.79 14.74 0.07 
446.78 14.72 1.11 
447.22 15.16 -4.99 
447.02 15.20 -4.02 
447.21 15.08 -3.80 
447.12 14.96 -2.87 
447.01 15.15 -1.98 
447.22 15.05 -1.66 
447.13 14.93 -0.74 
447.02 15.10 0.10 
447.23 15.02 0.50 
447.04 15.10 1.21 
447.33 15.77 -5.02 
447.33 15.75 -3.95 
447.49 15.66 -3.85 
447.32 15.72 -2.88 
447.39 15.86 -1.96 
447.50 15.62 -1.73 
447.38 15.84 -0.93 
447.37 15.82 0.09 
447.29 15.65 0.35 
447.37 15.79 1.13 
447.63 15.92 -4.98 
447.63 15.90 -3.90 
447.62 15.85 -3.80 
447.62 15.83 -2.73 
447.63 15.82 -1.66 
447.63 15.80 -0.59 
447.64 15.83 0.41 
447.65 15.81 1.50 
447.91 16.50 -4.97 
447.74 16.53 -3.94 
448.03 16.60 -3.80 
447.92 16.46 -2.85 
447.78 16.58 -1.94 
448.04 16.57 -1.66 
447.90 16.66 -0.81 
447.76 16.53 0.11 
447.93 16.41 0.36 
447.87 16.59 1.33 
448.06 16.48 1.73 
448.17 17.34 -4.99 
448.16 17.31 -3.93 
448.19 17.25 -3.71 
448.15 17.29 -2.87 
448.16 17.29 -1.92 
448.15 17.18 -1.53 
448.15 17.27 -0.89 
448.14 17.24 0.13 
448.13 17.21 0.33 
448.13 17.22 1.17 
448.43 17.38 -4.85 
448.32 17.23 -3.90 
448.43 17.36 -3.79 
448.44 17.34 -2.73 
448.33 17.47 -1.82 
448.44 17.33 -1.66 
448.45 17.31 -0.59 
448.45 17.29 0.48 
448.30 17.36 1.40 
448.46 17.27 1.71 
448.68 17.93 -4.88 
448.56 18.06 -3.93 
448.69 17.91 -3.82 
448.55 18.03 -2.92 
448.54 18.01 -1.90 
448.84 18.08 -1.66 
448.55 18.00 -0.74 
448.53 17.96 0.16 
448.85 18.05 0.48 
448.53 17.95 1.39 
448.95 18.18 -3.57 
448.72 18.36 -5.03 
448.71 18.33 -4.01 
449.07 18.62 -3.81 
448.77 18.42 -2.96 
448.75 18.40 -1.94 
449.07 18.58 -1.69 
448.75 18.37 -0.92 
448.74 18.35 0.11 
448.88 18.67 0.79 
448.73 18.33 1.15 
449.12 18.75 -4.94 
448.98 18.84 -3.90 
449.12 18.73 -3.87 
449.13 18.71 -2.80 
448.99 18.83 -1.96 
449.13 18.69 -1.74 
449.13 18.67 -0.66 
448.98 18.79 0.11 
449.14 18.66 0.42 
449.14 18.64 1.50 
449.23 19.15 -4.94 
449.11 19.06 -3.98 
449.46 19.36 -3.79 
449.31 19.43 -2.87 
449.14 19.11 -1.93 
449.47 19.32 -1.67 
449.29 19.38 -0.82 
449.28 19.35 0.21 
449.48 19.28 0.46 
449.28 19.33 1.24 
449.29 19.44 1.86 
449.63 19.58 -1.65 
449.64 19.56 -0.59 
449.64 19.55 0.48 
449.68 19.57 1.67 
449.49 19.82 -4.98 
449.49 19.79 -3.95 
449.53 19.48 -3.86 
449.48 19.76 -2.92 
449.46 19.73 -1.88 
449.62 19.85 -1.66 
449.52 19.80 -0.88 
449.51 19.78 0.14 
449.59 19.77 0.52 
449.43 19.64 1.24 
449.67 19.95 -4.91 
449.65 19.92 -3.83 
449.64 19.88 -2.75 
449.53 19.83 -1.91 
449.87 20.07 -1.66 
449.87 20.05 -0.59 
449.76 20.25 0.12 
449.87 20.03 0.48 
449.72 20.20 1.37 
449.71 20.23 1.84 
449.93 20.62 -4.94 
449.82 20.42 -3.99 
450.09 20.52 -3.80 
449.92 20.57 -2.91 
449.91 20.54 -1.89 
450.10 20.49 -1.62 
450.10 20.47 -0.52 
449.90 20.50 0.16 
450.04 20.58 0.59 
450.04 20.77 1.30 
450.18 20.43 1.85 
450.34 20.95 -0.60 
450.34 20.93 0.49 
450.35 20.91 1.58 
450.24 21.23 -5.01 
450.23 21.20 -3.95 
450.16 21.08 -3.86 
450.22 21.16 -2.89 
450.21 21.13 -1.83 
450.14 21.02 -1.78 
450.20 21.10 -0.76 
450.24 21.15 0.28 
450.19 21.07 0.31 
450.23 21.12 1.33 
450.50 21.33 -4.87 
450.51 21.31 -3.78 
450.51 21.29 -2.68 
450.57 21.28 -2.49 
450.48 21.13 -1.55 
450.48 21.11 -0.49 
450.28 21.21 0.18 
450.49 21.09 0.58 
450.67 21.50 1.60 
450.58 21.21 1.83 
450.70 22.05 -4.90 
450.66 21.94 -3.92 
450.80 21.85 -3.74 
450.67 21.99 -2.81 
450.58 21.87 -2.45 
450.81 21.82 -1.63 
450.63 21.84 -0.71 
450.56 21.82 -0.33 
450.82 21.78 0.50 
450.63 21.86 1.38 
450.88 21.82 1.66 
451.06 22.37 -4.80 
451.06 22.35 -3.73 
451.06 22.33 -2.67 
451.06 22.31 -1.61 
451.07 22.29 -0.54 
451.07 22.27 0.54 
451.07 22.25 1.62 
450.97 22.54 -4.96 
450.96 22.52 -3.94 
450.94 22.52 -2.79 
450.94 22.46 -1.89 
450.93 22.50 -1.76 
450.93 22.44 -0.87 
450.92 22.41 0.17 
450.91 22.45 0.32 
451.02 22.58 1.26 
451.07 22.73 -4.88 
451.49 22.95 -3.92 
451.09 22.77 -3.82 
451.08 22.74 -2.78 
451.38 22.82 -2.49 
451.27 22.63 -1.54 
451.06 22.68 -0.68 
451.38 22.78 -0.35 
451.27 22.59 0.58 
451.28 22.57 1.66 
451.39 22.74 1.80 
451.55 23.33 -4.85 
451.34 23.24 -3.92 
451.56 23.31 -3.77 
451.50 23.50 -2.76 
451.32 23.23 -1.75 
451.49 23.47 -1.68 
451.46 23.43 -0.63 
451.41 23.32 0.25 
451.46 23.40 0.49 
451.44 23.37 1.50 
451.77 23.60 -3.54 
451.78 23.58 -2.49 
451.78 23.56 -1.42 
451.78 23.54 -0.36 
451.86 23.78 0.59 
451.87 23.76 1.67 
451.79 23.50 1.79 
451.66 23.84 -4.77 
451.65 23.81 -3.74 
451.72 23.93 -2.88 
451.71 23.90 -1.85 
451.70 23.88 -0.83 
451.69 23.85 0.20 
451.68 23.82 1.24 
451.97 24.11 -4.84 
451.73 23.95 -3.90 
451.97 24.09 -3.75 
451.97 24.07 -2.67 
451.98 24.05 -1.58 
451.87 24.20 -0.58 
451.80 24.04 0.28 
451.90 24.21 0.56 
451.85 24.14 1.55 
452.23 24.88 -4.82 
452.22 24.86 -3.80 
452.21 24.83 -2.77 
452.09 24.62 -1.83 
452.37 24.76 -1.59 
452.38 24.74 -0.53 
452.07 24.57 0.22 
452.27 24.94 0.54 
452.38 24.71 1.62 
452.43 24.92 -4.68 
452.44 24.90 -3.63 
452.44 24.88 -2.58 
452.45 24.86 -1.52 
452.45 24.84 -0.47 
452.45 24.82 0.60 
452.46 24.80 1.67 
452.40 25.20 -4.85 
452.40 25.87 -3.70 
452.42 25.23 -1.61 
452.41 25.21 -0.56 
452.62 25.60 -4.79 
452.61 25.58 -3.77 
452.60 25.55 -2.75 
452.48 25.34 -1.81 
452.77 25.50 -1.57 
452.77 25.49 -0.51 
452.46 25.28 0.25 
452.78 25.47 0.56 
452.78 25.45 1.63 
452.67 25.28 1.73 
451.20 26.53 -4.72 
452.31 25.93 -4.76 
453.15 26.30 -4.73 
453.07 26.15 -3.64 
453.07 26.12 -2.57 
453.08 26.10 -1.49 
453.08 26.08 -0.41 
453.08 26.06 0.67 
452.79 25.90 1.59 
453.18 26.20 1.65 
453.15 26.30 -4.73 
453.16 26.28 -3.68 
453.21 26.33 -2.56 
453.21 26.31 -1.50 
453.21 26.29 -0.45 
453.22 26.27 0.62 
453.22 26.26 1.68 
450.07 27.14 -3.77 
450.16 27.09 -2.76 
450.25 27.04 -1.74 
450.87 26.83 -4.65 
450.60 27.06 -3.78 
450.67 27.02 -2.73 
450.74 26.98 -1.67 
450.82 26.94 -0.60 
453.50 26.81 1.81 
448.55 27.95 -0.98 
448.64 27.90 -0.01 
448.75 27.84 0.96 
449.29 27.69 -4.66 
449.36 27.66 -3.59 
449.10 27.96 -2.80 
449.50 27.58 -1.45 
449.24 27.89 -0.74 
449.31 27.85 0.30 
450.82 27.75 -3.72 
450.97 27.68 -2.69 
450.55 27.87 -1.71 
447.36 28.47 -4.84 
447.52 28.38 -3.94 
447.88 28.32 -4.78 
447.74 28.53 -4.43 
447.88 28.46 -3.63 
448.04 28.23 -2.87 
447.85 28.21 -2.12 
447.91 28.44 -1.17 
448.07 28.36 -0.50 
448.19 28.03 -0.24 
448.13 28.33 0.56 
448.02 28.37 1.03 
448.25 28.11 -3.82 
448.35 28.06 -2.88 
448.45 28.00 -1.93 
448.27 28.10 0.05 
448.37 28.06 1.04 
449.03 28.00 -3.82 
449.59 28.39 -2.71 
449.67 28.37 -1.65 
449.75 28.34 -0.59 
445.97 29.35 -4.80 
446.04 29.31 -3.89 
446.12 29.27 -2.97 
445.97 29.34 -0.36 
446.05 29.29 0.54 
446.32 29.22 -4.67 
446.42 29.25 -4.44 
446.38 29.18 -3.67 
446.44 29.15 -2.66 
446.19 29.23 -2.05 
446.58 29.15 -1.26 
446.56 29.09 -0.64 
446.63 29.12 -0.19 
446.40 29.11 0.75 
447.29 28.93 -4.84 
447.35 28.89 -3.86 
447.42 28.86 -2.88 
447.48 28.82 -1.89 
447.74 29.33 -4.84 
447.84 29.29 -3.87 
447.93 29.26 -2.90 
447.70 29.39 -2.02 
447.60 29.29 -1.33 
447.93 29.29 -1.07 
448.19 29.16 0.07 
447.68 28.71 1.11 
448.81 28.83 -3.59 
448.39 29.07 0.88 
449.10 28.73 0.73 
444.62 30.07 0.49 
445.01 29.93 -4.67 
445.17 29.92 -4.44 
445.06 29.90 -3.70 
445.12 29.87 -2.72 
445.27 29.87 -2.38 
445.31 29.84 -1.35 
445.24 29.81 -0.75 
445.36 29.81 -0.30 
445.41 29.78 0.75 
445.35 29.75 1.25 
445.74 29.75 -4.84 
445.80 29.72 -3.90 
445.86 29.77 -3.62 
445.86 29.68 -2.95 
445.92 29.65 -2.00 
445.88 29.39 -1.26 
445.98 29.62 -1.04 
445.99 29.69 -0.31 
446.10 29.55 0.89 
446.16 30.08 -1.44 
446.21 30.07 -0.37 
446.26 30.05 0.71 
447.14 29.69 -4.77 
447.27 29.63 -3.84 
447.40 29.58 -2.91 
447.29 29.68 -1.58 
447.36 29.65 -0.53 
447.43 29.63 0.53 
447.69 29.48 -4.81 
447.77 29.45 -3.81 
447.85 29.43 -2.80 
447.70 29.39 -2.02 
447.92 29.40 -1.79 
447.67 29.46 -1.00 
447.80 29.41 -0.04 
443.11 30.76 -4.88 
443.24 30.69 -4.09 
443.76 30.61 -4.68 
443.97 30.57 -4.45 
443.82 30.58 -3.73 
443.42 30.57 -2.66 
443.48 30.68 -2.34 
443.46 30.55 -1.56 
443.76 30.41 -0.83 
443.89 30.34 0.01 
444.29 30.52 -4.85 
444.35 30.49 -3.94 
444.66 30.41 -3.64 
444.41 30.45 -3.02 
444.47 30.42 -2.10 
444.52 30.39 -1.18 
444.15 30.46 -0.41 
444.58 30.36 -0.25 
444.20 30.43 0.62 
444.09 30.43 1.09 
444.74 30.51 -4.16 
444.78 30.50 -3.09 
444.82 30.49 -2.01 
444.74 30.36 -1.49 
444.86 30.48 -0.92 
444.90 30.48 0.17 
444.83 30.31 0.68 
445.86 30.45 -4.83 
445.59 30.49 -3.95 
445.93 30.43 -3.87 
446.00 30.41 -2.90 
445.76 30.43 -2.09 
445.73 30.51 -1.70 
445.80 30.49 -0.68 
445.91 30.37 -0.22 
445.86 30.47 0.34 
446.14 30.36 -0.96 
446.21 30.34 0.03 
442.95 31.23 -4.85 
443.00 31.20 -3.97 
442.63 31.22 -3.76 
442.75 31.08 -3.15 
442.81 31.05 -2.31 
443.08 31.13 -1.49 
442.93 30.98 -0.61 
442.83 31.11 -0.02 
443.17 31.07 0.52 
443.47 31.05 -4.71 
443.52 31.19 -4.19 
443.51 31.02 -3.66 
443.55 31.18 -3.14 
443.59 31.17 -2.08 
443.60 30.98 -1.56 
443.63 30.95 -0.49 
443.66 31.16 0.04 
443.94 31.43 0.43 
444.17 31.27 -4.80 
444.24 31.33 -3.92 
444.28 31.22 -3.95 
444.31 31.30 -3.00 
444.37 31.28 -2.07 
444.43 31.26 -1.13 
444.34 31.28 -0.83 
444.50 31.24 -0.18 
444.57 31.22 0.77 
444.73 30.84 -2.58 
444.79 30.83 -1.54 
444.74 31.03 -0.44 
444.85 30.98 0.46 
442.68 32.15 -3.97 
442.70 32.03 -3.79 
442.76 32.02 -2.85 
442.81 32.12 -2.19 
442.86 32.10 -1.29 
443.07 31.96 -0.79 
442.93 31.96 -0.01 
442.99 32.06 0.54 
443.58 31.57 -4.01 
443.38 31.56 -3.65 
443.43 31.54 -2.65 
443.72 31.51 -2.26 
443.48 31.53 -1.64 
443.53 31.52 -0.63 
443.58 31.50 0.39 
455.82 34.14 -1.36 
455.76 34.18 -0.31 
456.60 34.10 -2.47 
456.43 34.19 -1.46 
456.26 34.28 -0.45 
456.40 33.99 0.56 
456.84 33.76 -4.64 
457.06 34.17 -4.49 
456.77 34.00 -3.49 
456.71 33.81 -2.56 
457.04 34.12 -2.35 
457.04 34.10 -1.28 
457.03 34.07 -0.21 
457.02 34.05 0.87 
456.79 33.60 1.68 
456.89 33.74 1.71 
457.37 34.15 2.15 
456.09 34.38 0.55 
457.25 34.51 -4.62 
457.29 34.51 -4.08 
457.24 34.49 -3.58 
457.23 34.46 -2.54 
457.27 34.46 -2.03 
457.23 34.43 -1.49 
457.27 34.44 -1.00 
457.26 34.42 0.03 
457.21 34.38 0.62 
457.25 34.40 1.06 
457.24 34.37 2.11 
457.34 34.64 -4.49 
457.47 34.93 -3.41 
457.47 34.90 -2.34 
457.46 34.88 -1.28 
457.45 34.85 -0.21 
457.45 34.82 0.86 
457.74 34.90 2.14 
457.25 35.31 -0.10 
457.10 35.40 0.95 
457.72 35.03 -4.34 
457.73 35.33 -3.45 
457.64 35.20 -2.52 
457.53 35.14 -2.21 
457.71 35.28 -1.39 
457.63 35.15 -0.43 
457.71 35.25 -0.35 
457.61 35.13 0.62 
457.61 35.09 1.67 
457.69 35.19 1.73 
