# .PCD v0.7 - Point Cloud Data file format
VERSION 0.7
FIELDS x y z
SIZE 4 4 4
TYPE F F F
COUNT 1 1 1
WIDTH 2229
HEIGHT 1
VIEWPOINT 0 0 0 1 0 0 0
POINTS 2229
DATA ascii
491.58 -81.79 -3.13 
491.78 -82.02 -2.43 
491.78 -82.02 -1.76 
491.78 -82.02 -1.08 
492.33 -82.12 -3.31 
492.23 -82.03 -3.22 
492.41 -82.36 -2.21 
492.41 -82.36 -1.49 
491.39 -81.01 -3.78 
491.25 -81.46 -3.19 
491.24 -81.47 -2.37 
491.24 -81.48 -1.55 
491.73 -81.58 -3.74 
492.00 -81.51 -3.22 
491.65 -81.22 -2.42 
491.94 -81.38 -1.60 
492.00 -81.51 -0.98 
492.33 -81.57 -3.58 
492.24 -81.05 -3.15 
492.52 -81.21 -2.40 
492.51 -81.23 -1.55 
492.35 -81.55 -0.82 
491.35 -80.58 -3.19 
491.35 -80.58 -2.41 
491.35 -80.58 -1.63 
491.65 -80.65 -3.21 
491.64 -80.66 -2.40 
491.64 -80.66 -1.60 
491.95 -80.59 -1.08 
492.40 -80.68 -3.25 
492.35 -80.55 -2.50 
492.44 -80.56 -1.46 
492.44 -80.55 -0.88 
491.74 -79.79 -3.22 
492.02 -79.78 -2.45 
492.01 -79.79 -1.65 
491.93 -79.89 -0.81 
492.34 -79.78 -3.26 
492.34 -79.78 -2.56 
492.40 -79.58 -1.72 
492.34 -79.79 -1.16 
492.34 -79.79 -0.46 
492.56 -79.51 -3.31 
492.11 -79.02 -3.24 
492.39 -79.02 -2.48 
492.39 -79.03 -1.70 
492.39 -79.04 -0.92 
473.52 -77.71 -5.11 
473.86 -78.00 -1.96 
473.77 -77.95 -1.88 
473.77 -77.93 -0.88 
474.48 -77.92 -3.79 
474.49 -77.88 -1.86 
474.50 -77.86 -0.89 
474.50 -77.84 0.08 
474.91 -78.03 -4.89 
474.64 -78.13 -4.08 
474.94 -77.96 -3.53 
474.64 -78.09 -2.02 
475.21 -77.70 -1.71 
475.00 -77.83 -0.81 
475.01 -77.80 -0.13 
474.30 -77.09 -5.14 
474.30 -77.07 -4.10 
474.90 -77.01 -4.76 
474.99 -76.82 -4.17 
475.00 -76.79 -3.51 
474.91 -76.97 -2.86 
475.00 -77.15 -2.07 
475.00 -77.13 -1.05 
475.01 -77.11 -0.03 
486.30 -76.79 -4.49 
486.08 -76.65 -3.66 
486.26 -76.82 -2.19 
486.25 -76.83 -1.61 
486.24 -76.83 -1.02 
470.29 -76.29 -5.15 
469.96 -76.38 -4.49 
469.97 -76.36 -3.63 
469.97 -76.34 -2.77 
469.98 -76.31 -1.92 
470.37 -76.13 -1.45 
469.98 -76.29 -1.06 
469.99 -76.27 -0.20 
470.96 -76.31 -4.74 
470.96 -76.30 -3.86 
470.96 -76.29 -2.98 
470.96 -76.27 -2.10 
470.97 -76.26 -1.22 
470.97 -76.25 -0.34 
470.97 -76.23 0.55 
471.43 -76.29 -5.20 
471.80 -76.36 -4.45 
471.45 -76.25 -3.59 
471.45 -76.23 -2.79 
471.46 -76.21 -1.98 
471.47 -76.19 -1.18 
471.48 -76.17 -0.37 
471.48 -76.15 0.45 
471.82 -76.33 -3.76 
471.83 -76.30 -3.07 
471.85 -76.27 -2.37 
471.87 -76.25 -1.68 
471.88 -76.22 -0.98 
471.90 -76.18 -0.28 
473.80 -76.07 -5.01 
474.12 -76.27 -5.21 
474.26 -76.19 -4.42 
474.21 -76.09 -3.93 
474.29 -76.12 -3.08 
474.31 -76.08 -2.41 
474.61 -76.14 -4.87 
474.61 -76.12 -3.91 
474.62 -76.10 -2.94 
474.74 -76.09 -2.05 
475.04 -76.71 -1.52 
474.74 -76.07 -1.02 
475.06 -76.65 -0.18 
475.43 -76.29 -5.12 
475.43 -76.27 -4.12 
475.41 -76.51 -3.97 
475.43 -76.25 -3.12 
475.43 -76.23 -2.11 
475.43 -76.21 -1.11 
475.44 -76.18 -0.10 
484.40 -76.20 -3.06 
484.39 -76.21 -2.44 
484.38 -76.22 -1.83 
484.93 -76.32 -5.07 
484.42 -76.18 -4.29 
484.41 -76.19 -3.67 
484.93 -76.54 -3.21 
485.09 -76.33 -2.37 
485.08 -76.34 -1.73 
485.07 -76.35 -1.09 
485.13 -76.29 -4.91 
485.40 -76.39 -4.21 
485.39 -76.40 -3.72 
485.37 -76.42 -2.72 
485.36 -76.42 -2.22 
485.35 -76.43 -1.72 
485.76 -76.39 -0.98 
485.82 -76.36 -4.86 
486.09 -76.64 -4.16 
486.08 -76.65 -3.66 
486.17 -76.50 -3.06 
486.15 -76.53 -2.26 
486.12 -76.56 -1.46 
486.00 -76.21 -1.02 
486.65 -76.06 -4.48 
486.63 -76.08 -3.37 
486.62 -76.08 -2.81 
486.61 -76.09 -2.24 
486.60 -76.10 -1.68 
486.59 -76.10 -1.11 
487.27 -76.43 -3.89 
488.43 -76.28 -3.23 
488.76 -76.23 -3.39 
470.17 -75.63 -5.32 
470.18 -75.60 -4.52 
470.19 -75.57 -3.72 
470.20 -75.54 -2.93 
470.20 -75.51 -2.13 
470.21 -75.49 -1.33 
470.22 -75.46 -0.53 
469.77 -76.05 0.08 
470.23 -75.43 0.27 
470.42 -75.43 -5.34 
470.62 -75.56 -4.58 
470.62 -75.54 -3.69 
470.62 -75.53 -2.79 
470.76 -75.74 -2.18 
470.78 -75.71 -1.41 
470.62 -75.50 -1.01 
470.62 -75.48 -0.11 
470.93 -75.77 0.51 
471.26 -75.99 -5.18 
471.27 -75.95 -4.42 
471.29 -75.91 -3.66 
471.30 -75.88 -2.90 
471.32 -75.84 -2.14 
471.81 -75.85 -1.76 
471.35 -75.77 -0.62 
471.37 -75.73 0.15 
471.82 -75.83 -0.91 
471.82 -75.82 -0.06 
473.80 -76.04 -4.01 
473.80 -76.02 -3.02 
473.80 -76.00 -2.02 
473.80 -75.97 -1.03 
473.81 -75.95 -0.03 
474.09 -75.88 -5.11 
474.09 -75.86 -4.05 
474.25 -76.00 -3.30 
474.30 -75.91 -2.67 
474.10 -75.82 -1.93 
474.39 -75.74 -1.41 
474.10 -75.80 -0.87 
474.48 -75.56 -0.16 
474.37 -75.95 0.29 
474.63 -76.04 -0.04 
475.84 -75.38 -5.13 
475.86 -75.56 -3.99 
475.33 -76.05 -1.96 
475.86 -75.52 -1.86 
475.34 -76.03 -1.02 
475.35 -76.01 -0.08 
475.87 -75.48 0.28 
476.12 -75.70 -5.50 
476.14 -75.67 -4.88 
476.15 -75.64 -4.26 
476.16 -75.61 -3.63 
476.03 -75.91 -2.73 
476.19 -75.55 -2.39 
476.20 -75.52 -1.77 
476.04 -75.87 -0.91 
476.05 -75.85 0.00 
484.30 -75.61 -3.23 
484.28 -75.65 -2.38 
484.26 -75.68 -1.53 
484.54 -75.73 -4.86 
484.54 -75.73 -4.34 
484.53 -75.74 -3.83 
484.76 -75.57 -3.08 
484.74 -75.57 -2.48 
484.72 -75.60 -1.27 
485.31 -76.01 -5.06 
485.46 -75.61 -4.28 
485.55 -75.67 -3.41 
485.44 -75.63 -3.04 
485.43 -75.64 -2.41 
485.32 -75.71 -1.66 
485.31 -75.71 -1.13 
486.15 -75.57 -4.85 
486.15 -75.58 -4.32 
486.14 -75.58 -3.78 
486.35 -75.50 -3.02 
486.34 -75.52 -2.38 
486.33 -75.53 -1.73 
486.32 -75.54 -1.08 
486.59 -75.61 -4.65 
486.98 -75.38 -3.94 
486.56 -75.63 -2.73 
486.55 -75.64 -2.24 
486.54 -75.64 -1.75 
486.92 -75.42 -0.63 
487.60 -75.84 -3.33 
487.59 -75.84 -2.76 
489.14 -75.70 -3.71 
488.90 -75.53 -3.27 
489.36 -75.37 -4.03 
470.23 -75.08 -4.49 
470.25 -75.05 -3.76 
470.27 -75.02 -3.02 
470.28 -74.99 -2.29 
470.30 -74.96 -1.56 
470.31 -74.93 -0.82 
470.33 -74.90 -0.09 
470.88 -75.07 -5.14 
470.90 -75.04 -4.43 
470.91 -75.01 -3.72 
470.93 -74.98 -3.00 
470.43 -75.35 -1.98 
470.96 -74.92 -1.58 
470.98 -74.89 -0.86 
471.00 -74.86 -0.15 
471.34 -74.98 -5.26 
471.35 -74.96 -4.46 
471.36 -74.93 -3.65 
471.36 -74.91 -2.85 
471.37 -74.89 -2.04 
471.37 -74.87 -1.24 
471.28 -74.67 -0.75 
471.40 -75.31 -0.42 
471.39 -74.82 0.38 
472.23 -75.01 -5.14 
472.23 -75.00 -4.31 
472.24 -74.98 -3.48 
471.82 -75.31 -2.83 
471.83 -75.29 -2.04 
471.83 -74.78 -1.49 
472.24 -74.92 -0.99 
472.25 -74.90 -0.16 
471.85 -75.23 0.34 
472.54 -74.86 -5.13 
472.55 -74.83 -4.48 
472.57 -74.81 -3.82 
472.58 -74.78 -3.16 
472.60 -74.75 -2.50 
472.61 -74.72 -1.84 
472.63 -74.69 -1.18 
474.38 -75.25 -5.06 
474.22 -75.13 -4.04 
474.43 -75.15 -3.81 
474.45 -75.11 -3.19 
474.50 -75.01 -1.95 
474.52 -74.97 -1.33 
474.52 -74.87 -0.93 
474.57 -74.87 -0.09 
474.89 -74.90 -5.73 
475.16 -75.23 -5.15 
475.16 -75.21 -4.13 
474.95 -75.25 -3.93 
475.16 -75.19 -3.11 
475.16 -75.17 -2.10 
474.98 -74.71 -1.88 
475.16 -75.15 -1.07 
475.17 -75.13 -0.05 
475.77 -75.25 -5.46 
475.78 -75.22 -4.84 
475.79 -75.19 -4.21 
475.80 -75.17 -3.58 
475.81 -75.14 -2.96 
475.82 -75.11 -2.33 
475.83 -75.09 -1.71 
475.74 -75.15 -1.08 
475.75 -75.13 -0.16 
476.42 -75.10 -4.55 
476.42 -75.07 -3.66 
476.43 -75.05 -2.76 
476.43 -75.03 -1.87 
476.44 -75.01 -0.98 
476.44 -74.99 -0.08 
481.81 -74.67 -5.21 
482.96 -74.87 -4.88 
484.97 -74.83 -4.85 
484.97 -74.84 -4.35 
484.95 -74.85 -3.36 
484.94 -74.86 -2.86 
484.93 -74.86 -2.36 
484.92 -74.87 -1.34 
485.04 -74.92 -0.73 
485.78 -74.94 -4.89 
485.77 -74.95 -4.28 
485.76 -74.96 -3.67 
485.71 -74.91 -2.78 
485.71 -74.92 -2.27 
485.69 -74.93 -1.24 
485.68 -74.94 -0.72 
486.50 -74.87 -4.84 
485.99 -74.81 -4.44 
485.96 -75.11 -3.76 
486.46 -74.88 -2.76 
485.95 -74.87 -2.36 
485.93 -75.14 -1.41 
486.44 -74.90 -1.18 
486.54 -75.28 -5.03 
487.03 -74.68 -4.18 
486.67 -74.85 -3.68 
486.66 -74.86 -3.04 
486.65 -74.87 -2.41 
486.64 -74.88 -1.78 
486.63 -74.90 -1.14 
486.62 -74.91 -0.49 
487.30 -74.72 -4.48 
487.66 -74.92 -3.36 
487.28 -74.74 -2.88 
487.27 -74.74 -2.34 
487.14 -74.53 -1.51 
487.24 -74.76 -0.72 
487.91 -75.19 -3.35 
489.09 -75.28 -3.58 
489.36 -75.35 -3.25 
470.22 -73.99 -4.53 
470.23 -73.96 -3.80 
470.15 -74.25 -3.06 
470.17 -74.22 -2.36 
470.18 -74.19 -1.66 
470.20 -74.16 -0.96 
470.22 -74.13 -0.25 
471.03 -74.66 -5.46 
470.86 -74.50 -5.33 
470.86 -74.48 -4.51 
470.86 -74.46 -3.69 
470.87 -74.44 -2.87 
470.87 -74.42 -2.05 
470.68 -74.51 -1.43 
470.69 -74.48 -0.65 
470.88 -74.38 -0.40 
470.89 -74.36 0.43 
471.78 -74.07 -5.26 
471.78 -74.05 -4.47 
471.79 -74.03 -3.69 
471.79 -74.00 -2.90 
471.80 -73.98 -2.11 
471.80 -73.96 -1.32 
471.29 -74.63 0.01 
472.21 -74.00 -5.90 
472.25 -74.43 -5.19 
472.25 -74.41 -4.42 
472.26 -74.40 -3.65 
471.89 -74.42 -3.05 
472.27 -74.36 -2.11 
472.28 -74.34 -1.34 
472.29 -74.32 -0.56 
471.90 -74.37 0.34 
472.64 -74.13 -5.14 
472.64 -74.11 -4.32 
472.65 -74.09 -3.51 
472.65 -74.08 -2.70 
472.65 -74.06 -1.88 
472.65 -74.04 -1.07 
472.66 -74.02 -0.25 
474.62 -74.27 -5.03 
474.62 -74.25 -4.06 
474.62 -74.20 -2.12 
474.94 -73.96 -0.98 
474.63 -74.15 -0.18 
475.57 -74.34 -5.16 
475.57 -74.32 -4.15 
475.74 -74.55 -3.88 
475.35 -74.36 -3.01 
475.57 -74.27 -2.14 
475.57 -74.25 -1.13 
475.58 -74.23 -0.12 
476.25 -74.50 -5.13 
476.25 -74.48 -4.15 
476.05 -74.37 -3.87 
476.05 -74.35 -2.96 
476.25 -74.44 -2.20 
476.25 -74.42 -1.22 
476.06 -74.31 -1.14 
476.07 -74.29 -0.22 
476.31 -74.56 0.21 
476.80 -74.28 -5.44 
476.80 -74.26 -4.56 
476.81 -74.24 -3.68 
476.81 -74.22 -2.80 
476.82 -74.20 -1.92 
476.82 -74.18 -1.04 
476.83 -74.16 -0.15 
477.59 -74.22 -5.27 
477.49 -74.04 -4.14 
481.42 -74.04 -5.22 
481.81 -74.67 -5.21 
482.81 -74.33 -5.18 
483.33 -74.24 -5.18 
483.90 -74.19 -5.13 
485.56 -74.28 -4.69 
485.56 -74.28 -4.25 
485.55 -74.29 -3.80 
485.54 -74.29 -2.91 
485.53 -74.29 -2.46 
485.37 -74.26 -1.39 
485.36 -74.27 -0.81 
486.09 -74.31 -4.88 
486.40 -73.98 -4.42 
486.09 -74.17 -3.82 
486.07 -74.18 -2.83 
486.36 -74.04 -2.35 
486.05 -74.19 -1.34 
486.04 -74.20 -0.83 
486.32 -74.10 -0.27 
486.95 -74.19 -4.92 
486.82 -74.20 -4.32 
486.93 -74.21 -3.69 
486.92 -74.22 -3.06 
486.91 -74.23 -2.44 
486.90 -74.25 -1.82 
486.76 -74.23 -0.75 
487.60 -74.09 -4.48 
487.60 -74.10 -3.96 
487.58 -74.11 -2.91 
487.57 -74.11 -2.39 
487.55 -74.12 -1.34 
487.54 -74.13 -0.80 
488.50 -73.98 -3.39 
488.49 -73.99 -2.86 
488.48 -73.99 -2.32 
488.46 -73.99 -1.23 
488.94 -74.36 -3.42 
490.45 -74.38 -4.44 
490.44 -74.41 -3.53 
490.43 -74.43 -3.07 
490.42 -74.47 -2.14 
490.41 -74.48 -1.68 
490.96 -74.36 -4.29 
490.97 -74.35 -3.72 
490.85 -74.49 -2.60 
490.83 -74.54 -2.14 
490.80 -74.59 -1.68 
470.25 -73.93 -3.08 
470.26 -73.90 -2.35 
470.28 -73.87 -1.62 
470.29 -73.84 -0.89 
470.30 -73.81 -0.15 
471.00 -73.75 -5.31 
470.83 -73.50 -4.50 
470.83 -73.48 -3.75 
470.83 -73.45 -3.01 
470.83 -73.43 -2.26 
471.04 -73.62 -1.51 
470.83 -73.37 -0.77 
470.83 -73.35 -0.01 
470.69 -73.94 0.39 
471.44 -73.78 -5.45 
471.43 -73.94 -5.14 
471.44 -73.76 -4.59 
471.44 -73.75 -3.73 
471.44 -73.73 -2.87 
471.44 -73.72 -2.01 
471.51 -73.80 -1.70 
471.73 -73.72 -0.86 
471.44 -73.69 -0.28 
471.30 -73.47 0.32 
472.28 -73.59 -5.57 
472.28 -73.58 -4.74 
472.24 -73.94 -4.46 
472.25 -73.90 -3.74 
472.27 -73.87 -3.02 
472.29 -73.54 -2.25 
472.29 -73.53 -1.42 
472.31 -73.77 -0.87 
472.33 -73.74 -0.14 
472.29 -73.51 0.25 
473.20 -73.50 -5.75 
472.67 -73.54 -5.19 
472.68 -73.52 -4.43 
472.68 -73.51 -3.68 
472.69 -73.49 -2.93 
472.70 -73.47 -2.17 
472.71 -73.45 -1.42 
472.71 -73.43 -0.66 
472.72 -73.42 0.10 
473.22 -73.47 -5.12 
473.23 -73.45 -4.50 
473.25 -73.42 -3.87 
473.12 -73.20 -2.74 
473.29 -73.34 -1.99 
473.31 -73.32 -1.36 
473.32 -73.29 -0.73 
473.34 -73.26 -0.10 
475.01 -73.41 -5.03 
475.01 -73.38 -4.08 
474.94 -73.94 0.06 
475.74 -73.55 -4.90 
475.97 -73.44 -4.17 
475.74 -73.53 -3.97 
475.74 -73.51 -3.04 
475.74 -73.49 -2.11 
475.48 -73.56 -1.38 
475.75 -73.47 -1.18 
475.75 -73.45 -0.24 
476.48 -73.79 -5.43 
476.49 -73.76 -4.83 
476.50 -73.74 -4.24 
476.51 -73.71 -3.65 
476.52 -73.69 -3.06 
476.65 -73.58 -2.24 
476.55 -73.62 -1.28 
476.73 -73.68 -0.90 
476.65 -73.54 -0.30 
476.46 -73.44 0.62 
477.11 -73.48 -5.44 
476.71 -73.76 -5.07 
476.98 -73.93 -4.29 
476.99 -73.90 -3.71 
477.01 -73.87 -3.13 
477.03 -73.82 -1.96 
477.04 -73.79 -1.38 
477.05 -73.76 -0.79 
477.06 -73.73 -0.20 
477.08 -73.70 0.39 
477.48 -73.60 -5.70 
477.96 -73.42 -5.27 
478.56 -73.42 -5.55 
479.35 -73.48 -5.22 
481.18 -73.77 -5.22 
483.01 -73.56 -5.18 
484.09 -73.67 -5.16 
484.86 -73.51 -5.14 
484.83 -73.57 -4.48 
485.43 -73.36 -5.12 
485.71 -73.59 -4.29 
485.71 -73.60 -3.73 
485.70 -73.61 -3.16 
485.70 -73.26 -2.04 
485.67 -73.64 -1.45 
485.66 -73.64 -0.88 
486.22 -73.30 -5.02 
486.43 -73.48 -4.32 
486.42 -73.48 -3.36 
486.41 -73.49 -2.88 
486.40 -73.49 -2.40 
486.39 -73.50 -1.43 
486.38 -73.50 -0.94 
487.13 -73.56 -4.82 
487.12 -73.56 -4.33 
487.22 -73.61 -3.69 
487.10 -73.57 -2.84 
487.09 -73.58 -2.35 
487.08 -73.58 -1.35 
487.07 -73.58 -0.84 
487.24 -73.59 -4.91 
487.45 -73.82 -4.19 
487.44 -73.82 -3.75 
487.50 -73.83 -3.05 
487.48 -73.86 -2.28 
487.46 -73.89 -1.52 
487.85 -73.59 -0.87 
487.91 -73.55 -4.48 
488.79 -73.41 -4.46 
488.77 -73.41 -3.41 
488.76 -73.42 -2.89 
488.76 -73.42 -2.36 
488.74 -73.42 -1.29 
490.32 -73.66 -4.30 
490.33 -73.66 -3.80 
490.63 -73.56 -3.22 
470.68 -73.03 -5.26 
470.69 -73.00 -4.55 
470.71 -72.97 -3.84 
470.72 -72.95 -3.14 
470.74 -72.92 -2.43 
470.74 -73.05 -1.78 
470.76 -72.86 -1.01 
470.78 -72.83 -0.29 
471.44 -72.85 -5.31 
471.44 -72.83 -4.57 
471.45 -72.80 -3.82 
471.46 -72.78 -3.08 
471.47 -72.76 -2.33 
471.48 -72.73 -1.59 
471.48 -72.71 -0.84 
471.43 -72.75 -0.41 
471.12 -73.10 0.25 
471.93 -72.91 -5.80 
472.08 -73.01 -5.30 
472.10 -72.98 -4.57 
472.11 -72.95 -3.85 
472.13 -72.91 -3.13 
472.14 -72.88 -2.41 
472.15 -72.85 -1.69 
472.17 -72.81 -0.97 
472.18 -72.78 -0.24 
472.67 -72.76 -5.56 
472.67 -73.04 -5.18 
472.68 -73.01 -4.48 
472.70 -72.98 -3.78 
472.71 -72.95 -3.08 
472.73 -72.92 -2.38 
472.68 -72.69 -1.48 
472.76 -72.85 -0.98 
472.77 -72.82 -0.28 
475.94 -72.62 -5.67 
475.55 -72.86 -5.04 
475.58 -72.82 -4.47 
475.92 -72.62 -3.49 
475.64 -72.70 -2.78 
475.34 -73.09 -2.06 
475.68 -72.62 -1.65 
475.34 -73.07 -1.04 
475.34 -73.05 -0.01 
476.36 -72.61 -5.17 
476.12 -72.70 -3.99 
476.36 -72.57 -3.20 
476.12 -72.66 -2.15 
476.46 -73.10 -1.69 
476.46 -73.08 -0.60 
476.13 -72.62 -0.31 
476.46 -73.06 0.48 
477.03 -72.80 -5.14 
477.03 -72.78 -4.19 
477.13 -72.69 -3.70 
477.21 -72.81 -3.02 
477.03 -72.74 -2.28 
476.82 -72.67 -1.25 
477.22 -72.77 -0.96 
477.03 -72.71 -0.36 
477.03 -72.69 0.60 
477.84 -73.10 -5.68 
477.48 -72.67 -4.58 
477.48 -72.65 -3.72 
477.49 -72.63 -2.87 
477.49 -72.61 -2.01 
477.50 -72.59 -1.15 
477.51 -72.57 -0.29 
478.46 -72.83 -5.64 
478.53 -72.72 -5.28 
478.26 -72.65 -4.44 
479.10 -72.75 -5.44 
479.21 -72.68 -5.04 
479.86 -72.75 -5.25 
480.36 -72.96 -5.03 
482.12 -72.90 -5.19 
482.38 -73.20 -5.19 
484.37 -72.99 -5.42 
485.47 -72.78 -5.07 
485.46 -72.78 -4.25 
485.45 -72.78 -3.84 
485.45 -72.78 -3.02 
485.65 -72.82 -2.39 
485.63 -72.86 -1.57 
485.61 -72.89 -0.75 
486.22 -72.94 -5.10 
486.21 -72.94 -4.27 
486.20 -72.94 -3.44 
486.19 -72.94 -3.03 
486.18 -72.95 -2.19 
485.96 -73.03 -1.51 
485.95 -73.05 -0.94 
486.67 -72.90 -5.09 
486.83 -73.21 -4.40 
486.65 -73.13 -3.70 
486.70 -72.81 -2.93 
486.69 -72.81 -2.46 
486.68 -72.82 -1.52 
486.67 -72.82 -1.04 
487.43 -72.95 -4.81 
487.51 -73.01 -4.30 
487.50 -73.02 -3.70 
487.49 -73.04 -3.10 
487.77 -73.21 -2.29 
487.75 -73.24 -1.53 
487.37 -72.97 -0.93 
488.49 -72.72 -5.02 
488.18 -72.98 -4.47 
488.17 -72.99 -3.47 
488.16 -72.99 -2.97 
488.15 -72.99 -2.47 
488.14 -73.00 -1.46 
488.13 -73.01 -0.95 
489.05 -72.86 -4.46 
489.04 -73.02 -3.62 
489.03 -72.87 -2.91 
489.02 -72.87 -2.39 
489.01 -72.88 -1.35 
491.12 -72.97 -4.47 
491.11 -73.00 -3.62 
491.11 -73.02 -3.20 
492.50 -72.61 -4.33 
492.53 -72.58 -3.66 
492.50 -72.62 -3.13 
492.43 -72.64 -2.23 
492.48 -72.60 -1.63 
492.42 -72.63 -0.89 
471.78 -72.01 -5.88 
471.60 -71.98 -5.25 
471.60 -71.96 -4.53 
471.22 -72.06 -3.85 
471.23 -72.03 -3.20 
471.24 -72.01 -2.55 
471.27 -71.96 -1.24 
471.29 -71.94 -0.58 
471.30 -71.91 0.08 
472.22 -72.09 -5.44 
472.22 -72.09 -5.44 
472.22 -72.08 -4.61 
472.22 -72.06 -3.78 
472.22 -72.05 -2.94 
471.88 -71.90 -2.40 
472.18 -71.75 -1.46 
472.50 -72.00 -1.06 
472.22 -72.01 -0.44 
472.23 -71.99 0.41 
473.04 -71.95 -5.55 
473.10 -72.16 -5.18 
473.11 -72.13 -4.50 
473.12 -72.10 -3.82 
473.14 -72.07 -3.13 
473.05 -71.90 -2.34 
473.05 -71.89 -1.54 
473.05 -71.87 -0.73 
473.05 -71.86 0.08 
472.53 -71.93 0.36 
473.84 -72.21 -5.11 
473.49 -72.42 -4.35 
473.49 -72.40 -3.57 
473.89 -72.12 -2.72 
473.50 -72.37 -2.00 
473.50 -72.35 -1.21 
473.50 -72.33 -0.43 
473.21 -71.92 0.29 
473.91 -72.09 -2.12 
473.92 -72.07 -1.52 
473.94 -72.04 -0.92 
473.95 -72.02 -0.32 
475.42 -71.98 -5.54 
475.79 -72.28 -5.14 
475.79 -72.26 -4.13 
475.75 -72.47 -3.85 
475.96 -72.55 -2.94 
475.79 -72.22 -2.10 
475.40 -72.48 -1.26 
476.05 -72.39 -0.94 
475.80 -72.17 -0.08 
476.48 -71.91 -4.91 
476.48 -71.89 -4.00 
476.49 -71.87 -3.10 
476.12 -72.66 -2.15 
476.04 -72.42 -1.53 
476.10 -72.28 -0.75 
476.36 -72.51 -0.24 
476.08 -72.34 0.26 
477.12 -72.48 -5.40 
477.16 -71.96 -4.81 
477.14 -72.43 -4.27 
476.87 -72.25 -3.86 
477.17 -71.92 -3.05 
477.18 -71.90 -2.18 
477.19 -72.31 -1.46 
477.20 -72.29 -0.89 
477.25 -72.45 -0.46 
476.88 -72.16 0.42 
477.83 -71.92 -5.44 
477.60 -72.00 -5.09 
477.61 -71.98 -4.07 
477.84 -71.88 -3.74 
477.74 -72.36 -3.23 
477.62 -71.93 -2.03 
477.77 -72.29 -1.58 
477.78 -72.26 -1.03 
477.62 -71.89 0.01 
477.51 -72.55 0.58 
478.75 -72.19 -5.62 
478.32 -72.36 -5.28 
478.41 -72.43 -4.11 
479.02 -72.41 -5.40 
479.81 -72.03 -5.56 
480.19 -72.12 -5.21 
480.57 -72.50 -5.22 
481.19 -71.92 -5.19 
481.74 -72.44 -5.19 
484.01 -71.87 -5.10 
484.91 -72.04 -5.10 
485.24 -72.45 -5.09 
486.29 -72.41 -4.84 
486.28 -72.42 -4.29 
486.27 -72.42 -3.75 
486.00 -72.13 -3.19 
485.99 -72.16 -2.38 
485.97 -72.20 -1.57 
486.23 -72.47 -1.01 
487.02 -72.18 -4.78 
487.02 -72.18 -4.33 
486.76 -71.78 -3.52 
487.00 -72.19 -2.97 
486.98 -72.20 -2.06 
486.98 -72.20 -1.60 
487.12 -72.05 -0.90 
487.42 -72.14 -5.06 
487.70 -72.37 -4.33 
487.40 -72.15 -3.47 
487.68 -72.38 -2.92 
487.67 -72.38 -2.45 
487.66 -72.39 -1.49 
487.73 -72.51 -0.72 
488.17 -72.17 -5.07 
488.18 -72.39 -4.21 
488.17 -72.39 -3.80 
488.16 -72.40 -2.98 
488.14 -72.40 -2.15 
488.13 -72.41 -1.32 
488.34 -72.04 -0.81 
488.89 -72.33 -4.97 
488.70 -71.89 -4.47 
489.29 -72.34 -3.45 
488.68 -71.91 -3.03 
488.67 -71.91 -2.06 
489.26 -72.35 -1.40 
489.25 -72.35 -0.89 
491.27 -72.26 -4.12 
491.22 -71.96 -3.65 
490.72 -71.87 -3.19 
491.27 -72.32 -2.04 
491.21 -72.46 -1.61 
491.95 -72.31 -4.22 
491.80 -72.24 -3.64 
491.93 -72.31 -3.24 
491.92 -72.29 -2.45 
491.91 -72.30 -1.63 
492.22 -72.47 -4.33 
492.25 -72.46 -3.63 
492.20 -72.46 -3.16 
492.29 -72.55 -2.27 
492.22 -72.47 -1.66 
470.45 -71.38 -0.91 
471.55 -71.23 -5.93 
471.57 -71.20 -5.26 
471.58 -71.18 -4.59 
471.87 -71.95 -3.85 
471.27 -71.86 -2.76 
471.26 -71.86 -1.97 
471.60 -71.86 -1.66 
471.60 -71.84 -0.94 
471.25 -71.86 -0.38 
471.97 -71.25 -5.25 
472.17 -71.82 -4.55 
472.17 -71.80 -3.78 
472.17 -71.79 -3.01 
472.18 -71.77 -2.24 
471.83 -71.62 -1.32 
471.89 -71.80 -0.54 
471.90 -71.78 0.13 
472.59 -71.29 -5.44 
472.96 -71.55 -5.25 
472.83 -71.32 -4.61 
472.85 -71.29 -3.92 
472.86 -71.26 -3.23 
472.98 -71.48 -2.28 
472.99 -71.46 -1.54 
472.99 -71.44 -0.79 
473.00 -71.42 -0.04 
472.60 -71.19 0.32 
473.85 -71.65 -5.13 
473.85 -71.63 -4.36 
473.86 -71.61 -3.59 
473.86 -71.60 -2.82 
473.49 -71.81 -2.29 
473.50 -71.79 -1.56 
473.50 -71.77 -0.83 
473.51 -71.76 -0.10 
473.87 -71.53 0.27 
475.77 -71.74 -5.05 
475.77 -71.72 -4.12 
475.77 -71.70 -3.18 
475.77 -71.68 -2.25 
475.51 -71.81 -1.65 
475.52 -71.78 -1.09 
475.55 -71.73 0.03 
476.46 -71.57 -5.64 
476.18 -71.59 -4.97 
476.48 -71.52 -4.50 
476.50 -71.49 -3.94 
476.52 -71.44 -2.80 
476.53 -71.41 -2.23 
476.18 -71.52 -1.68 
476.56 -71.35 -1.10 
476.18 -71.33 -0.13 
476.80 -71.41 -5.80 
477.28 -71.39 -4.94 
476.80 -71.72 -4.20 
477.28 -71.37 -3.88 
476.81 -71.70 -3.23 
476.81 -71.68 -2.26 
476.81 -71.66 -1.29 
477.29 -71.31 -0.71 
477.19 -71.86 -0.42 
477.29 -71.29 0.36 
477.70 -71.31 -5.91 
477.72 -71.27 -4.83 
477.72 -71.25 -4.30 
477.73 -71.23 -3.76 
477.75 -71.18 -2.69 
477.85 -71.84 -2.05 
477.86 -71.82 -1.20 
477.86 -71.80 -0.35 
477.87 -71.78 0.50 
479.19 -71.77 -5.60 
479.21 -71.25 -5.37 
479.82 -71.43 -5.56 
480.08 -71.59 -5.38 
480.54 -71.22 -5.52 
480.71 -71.85 -5.21 
481.37 -71.21 -4.99 
483.44 -71.50 -5.11 
483.73 -71.68 -5.11 
486.41 -71.85 -4.81 
486.40 -71.86 -4.37 
486.54 -71.87 -3.76 
486.33 -71.48 -3.18 
486.31 -71.51 -2.38 
486.29 -71.54 -1.58 
486.27 -71.57 -0.77 
486.78 -71.77 -5.06 
486.78 -71.77 -4.48 
486.80 -71.34 -3.77 
486.79 -71.35 -2.72 
486.78 -71.36 -2.19 
486.77 -71.37 -1.66 
486.76 -71.38 -1.12 
487.46 -71.45 -5.05 
487.43 -71.47 -4.28 
487.42 -71.48 -3.73 
487.41 -71.49 -3.18 
487.58 -71.68 -2.33 
487.39 -71.51 -1.52 
487.38 -71.52 -0.95 
488.20 -71.75 -5.01 
488.30 -71.36 -4.30 
488.29 -71.37 -3.72 
488.39 -71.50 -2.80 
488.20 -71.35 -2.07 
488.38 -71.52 -1.70 
488.25 -71.42 -0.82 
488.96 -71.38 -4.94 
488.94 -71.39 -4.00 
488.94 -71.39 -3.53 
488.70 -71.37 -3.03 
488.68 -71.40 -2.29 
488.91 -71.41 -1.63 
488.64 -71.45 -0.82 
489.57 -71.83 -4.96 
489.76 -71.34 -4.46 
489.75 -71.35 -3.52 
489.53 -71.84 -2.96 
489.53 -71.84 -2.46 
489.72 -71.35 -1.51 
489.71 -71.35 -1.00 
490.20 -71.45 -4.77 
490.19 -71.44 -4.37 
490.37 -71.55 -3.66 
490.81 -71.73 -3.58 
491.60 -71.65 -3.84 
492.13 -71.77 -3.22 
468.93 -70.61 -5.39 
468.95 -70.54 -4.34 
468.96 -70.51 -3.81 
468.97 -70.47 -3.29 
470.81 -70.70 -2.45 
470.79 -71.00 -1.51 
470.81 -70.66 -0.98 
470.81 -70.64 -0.24 
471.66 -71.13 -5.79 
471.67 -71.12 -5.10 
471.69 -71.09 -4.52 
471.70 -71.06 -3.89 
471.64 -71.12 -2.78 
471.63 -71.12 -2.01 
471.65 -71.05 -1.23 
471.77 -70.95 -0.73 
471.78 -70.92 -0.09 
472.22 -71.10 -5.86 
472.23 -71.07 -5.21 
472.24 -71.05 -4.56 
472.26 -71.03 -3.91 
472.27 -71.11 -3.17 
472.20 -70.91 -2.06 
472.21 -70.88 -1.41 
472.21 -70.85 -0.76 
472.22 -70.82 -0.11 
472.22 -70.79 0.54 
472.95 -70.51 -5.43 
472.53 -71.05 -5.32 
473.03 -70.76 -4.50 
473.04 -70.74 -3.88 
472.96 -70.47 -3.01 
472.96 -70.46 -2.20 
473.09 -70.65 -1.40 
473.11 -70.62 -0.78 
472.91 -71.14 -0.46 
472.93 -71.11 0.23 
473.40 -71.16 -5.54 
473.40 -70.75 -5.25 
473.40 -70.74 -4.52 
473.40 -70.72 -3.79 
473.41 -70.70 -3.07 
473.41 -71.12 -2.38 
473.41 -71.10 -1.59 
473.42 -71.09 -0.80 
473.42 -71.08 0.00 
473.88 -70.96 0.52 
474.21 -70.88 -5.13 
474.21 -70.87 -4.37 
474.21 -70.85 -3.62 
474.22 -70.83 -2.86 
474.36 -71.04 -2.23 
474.22 -70.80 -1.34 
474.39 -71.00 -1.08 
474.42 -70.95 0.09 
476.51 -70.92 -5.54 
476.53 -70.88 -5.02 
476.55 -70.57 -4.16 
476.60 -70.68 -3.89 
476.60 -70.74 -2.94 
476.55 -70.53 -2.18 
476.66 -70.64 -1.39 
476.68 -70.60 -0.87 
476.55 -70.49 -0.19 
476.61 -70.59 0.46 
477.09 -70.82 -5.79 
476.95 -70.57 -5.07 
477.17 -70.90 -4.22 
476.97 -70.52 -3.97 
477.17 -70.88 -3.26 
477.18 -70.86 -2.30 
476.85 -71.05 -1.33 
476.85 -71.03 -0.43 
476.86 -71.01 0.47 
477.55 -70.68 -5.65 
477.83 -71.15 -5.15 
478.03 -70.67 -4.48 
477.66 -70.53 -3.77 
477.64 -70.52 -2.93 
477.76 -71.16 -2.16 
477.84 -71.07 -1.42 
478.01 -71.07 -1.06 
477.84 -71.06 -0.48 
477.84 -71.04 0.46 
478.30 -70.84 -5.71 
478.36 -71.12 -5.38 
478.18 -71.14 -4.60 
478.19 -71.12 -3.76 
478.19 -71.10 -2.93 
478.42 -70.98 -2.28 
478.44 -70.93 -1.25 
478.45 -70.90 -0.73 
478.21 -71.05 -0.42 
478.22 -71.03 0.43 
478.85 -70.58 -5.67 
480.26 -70.87 -5.48 
479.67 -70.94 -5.35 
480.45 -70.98 -5.45 
480.88 -70.94 -5.35 
481.16 -70.63 -5.49 
481.28 -70.52 -5.32 
482.19 -70.47 -5.27 
482.60 -70.95 -5.12 
483.10 -70.70 -5.26 
483.74 -70.85 -5.25 
484.73 -70.69 -5.23 
485.38 -70.58 -5.22 
486.32 -71.02 -5.02 
486.31 -71.02 -4.47 
486.31 -71.02 -3.92 
486.30 -71.02 -3.18 
486.29 -71.02 -2.06 
486.28 -71.01 -1.68 
486.76 -70.81 -5.23 
486.99 -70.65 -4.38 
487.03 -70.80 -3.78 
486.97 -70.65 -3.16 
487.00 -70.83 -2.23 
486.99 -70.84 -1.70 
486.59 -70.94 -0.78 
487.40 -70.95 -5.11 
487.27 -70.76 -4.30 
487.67 -70.96 -3.74 
487.45 -70.56 -3.06 
487.43 -70.59 -2.23 
487.64 -70.99 -1.56 
487.63 -71.00 -1.00 
488.43 -70.56 -4.94 
488.48 -70.83 -4.34 
488.33 -70.56 -3.59 
488.14 -70.61 -3.19 
488.45 -70.84 -2.13 
488.51 -70.89 -1.44 
488.50 -70.89 -0.87 
489.05 -70.96 -4.80 
489.04 -70.95 -4.37 
488.96 -70.86 -3.59 
488.99 -70.78 -3.02 
488.97 -70.81 -2.29 
488.95 -70.84 -1.56 
488.78 -70.71 -0.60 
489.47 -71.09 -4.76 
489.61 -71.20 -4.35 
489.62 -71.15 -3.67 
489.97 -70.87 -3.01 
489.96 -70.88 -2.04 
489.95 -70.88 -1.55 
489.94 -70.88 -1.06 
491.86 -70.49 -4.34 
491.81 -70.48 -3.58 
491.75 -70.46 -2.83 
467.95 -70.26 -5.09 
467.95 -70.25 -4.51 
467.96 -70.21 -3.33 
467.96 -70.19 -2.75 
467.96 -70.18 -2.16 
467.97 -70.16 -1.57 
467.97 -70.14 -0.98 
468.38 -70.21 -5.25 
468.40 -70.15 -4.19 
468.77 -70.31 -3.43 
468.77 -70.29 -2.86 
468.77 -70.27 -2.30 
468.78 -70.25 -1.73 
468.78 -70.23 -1.16 
471.23 -70.24 -5.74 
471.21 -70.24 -4.91 
471.20 -70.25 -4.07 
471.16 -70.03 -3.93 
471.16 -70.01 -3.21 
471.18 -70.25 -2.39 
471.16 -69.97 -1.77 
471.16 -70.26 -0.70 
471.16 -69.93 -0.32 
472.04 -70.41 -5.85 
471.98 -70.35 -5.26 
471.99 -70.33 -4.60 
472.02 -70.41 -3.57 
472.03 -70.26 -2.64 
472.04 -70.23 -1.98 
472.05 -70.21 -1.33 
472.07 -70.18 -0.67 
472.08 -70.16 -0.01 
472.37 -70.37 0.30 
472.64 -70.24 -5.84 
472.65 -70.22 -5.21 
472.66 -70.20 -4.58 
472.67 -70.17 -3.95 
472.90 -70.23 -3.08 
472.90 -70.22 -2.34 
472.90 -70.20 -1.59 
472.90 -70.18 -0.84 
472.75 -70.03 -0.15 
472.68 -70.21 0.30 
473.42 -69.95 -5.72 
473.74 -70.01 -5.25 
473.59 -69.76 -4.64 
473.75 -69.97 -3.82 
473.75 -69.96 -3.10 
473.77 -70.36 -2.42 
473.77 -70.34 -1.64 
473.77 -70.33 -0.86 
473.77 -70.32 -0.08 
473.78 -69.87 0.49 
474.55 -70.14 -5.13 
474.56 -70.13 -4.38 
474.56 -70.11 -3.64 
474.21 -70.29 -3.08 
474.21 -70.27 -2.39 
474.22 -70.26 -1.69 
474.23 -70.24 -0.99 
474.23 -70.23 -0.29 
474.24 -70.21 0.42 
474.81 -70.12 -5.66 
474.82 -70.10 -5.10 
474.84 -70.07 -4.55 
474.86 -70.03 -3.45 
474.87 -70.01 -2.90 
474.89 -69.99 -2.34 
474.90 -69.96 -1.79 
474.92 -69.92 -0.68 
474.94 -69.90 -0.12 
475.88 -69.84 -5.18 
475.86 -69.83 -4.17 
475.83 -69.81 -3.17 
475.80 -69.76 -2.30 
475.77 -69.77 -1.15 
476.29 -69.97 -5.75 
476.33 -70.17 -5.07 
476.56 -70.18 -4.23 
476.20 -70.38 -3.93 
476.29 -70.13 -3.24 
476.27 -70.11 -2.32 
476.25 -70.10 -1.39 
476.51 -69.96 -1.17 
476.46 -70.11 -0.33 
476.21 -70.06 0.46 
477.10 -70.23 -5.84 
477.20 -69.82 -5.07 
477.19 -70.07 -4.13 
477.20 -69.75 -3.69 
477.27 -69.79 -2.93 
477.23 -69.83 -2.31 
477.28 -69.81 -1.56 
477.25 -69.80 -0.97 
476.90 -70.11 -0.26 
477.08 -70.36 0.52 
477.97 -69.96 -5.83 
478.03 -70.09 -5.08 
477.75 -70.08 -4.33 
477.72 -69.98 -3.78 
477.73 -70.02 -2.84 
477.70 -70.07 -2.25 
477.69 -70.06 -1.72 
477.71 -70.03 -0.87 
477.96 -70.21 -0.24 
477.69 -70.43 0.30 
478.53 -69.91 -5.72 
478.18 -70.34 -5.11 
478.13 -70.29 -4.32 
478.42 -70.42 -3.85 
478.12 -70.30 -3.10 
478.39 -70.41 -2.33 
478.38 -70.41 -1.82 
478.36 -70.41 -0.78 
478.35 -70.40 -0.26 
479.38 -70.33 -5.63 
479.87 -70.11 -5.60 
480.19 -70.39 -5.32 
480.54 -70.22 -5.40 
481.58 -70.16 -5.48 
481.12 -70.10 -5.41 
481.97 -69.86 -5.37 
481.67 -70.04 -5.30 
482.78 -70.12 -5.36 
483.58 -69.98 -5.22 
484.03 -70.43 -5.35 
484.87 -70.29 -5.21 
485.18 -70.21 -5.33 
486.16 -70.21 -5.18 
487.07 -69.87 -5.17 
486.72 -69.77 -4.45 
486.69 -69.76 -3.60 
486.96 -70.22 -3.16 
487.20 -70.08 -2.00 
486.92 -70.28 -1.58 
486.90 -70.31 -0.79 
487.25 -70.07 -5.18 
487.23 -70.01 -4.44 
487.51 -70.17 -3.60 
487.21 -70.08 -2.80 
487.48 -69.84 -2.29 
487.20 -70.09 -1.60 
488.15 -70.06 -5.22 
488.07 -70.01 -4.34 
488.15 -69.97 -3.75 
488.05 -70.02 -3.12 
488.35 -70.14 -2.31 
488.12 -69.99 -1.63 
488.11 -70.00 -1.10 
489.05 -69.86 -4.84 
488.94 -69.88 -4.35 
488.93 -69.88 -3.92 
488.92 -69.88 -3.07 
488.91 -69.88 -2.22 
489.00 -69.91 -1.51 
489.22 -70.29 -0.84 
489.64 -69.97 -4.91 
489.36 -69.94 -4.42 
489.35 -69.94 -3.53 
489.28 -70.21 -3.01 
489.60 -69.99 -2.23 
489.24 -70.26 -1.57 
490.44 -69.96 -4.93 
490.22 -70.41 -4.46 
490.42 -69.96 -3.52 
490.41 -69.97 -3.05 
490.40 -69.97 -2.11 
490.17 -70.41 -1.60 
490.17 -70.42 -1.11 
490.93 -69.93 -2.89 
491.12 -69.73 -2.09 
491.40 -69.77 -1.44 
491.45 -69.81 -4.74 
491.85 -69.95 -4.32 
491.73 -69.84 -3.63 
491.73 -69.92 -2.92 
491.73 -69.92 -2.23 
491.67 -70.01 -1.53 
491.66 -70.01 -1.04 
492.58 -70.32 -4.70 
492.30 -70.21 -4.37 
492.30 -70.13 -3.71 
492.34 -70.24 -2.94 
492.28 -70.21 -2.32 
492.33 -70.25 -1.60 
492.42 -70.33 -1.03 
467.93 -69.62 -5.22 
467.95 -69.58 -4.16 
467.95 -69.55 -3.62 
467.96 -69.53 -3.09 
467.96 -69.50 -2.56 
467.98 -69.45 -1.49 
467.98 -69.43 -0.95 
468.39 -69.36 -5.08 
468.40 -69.34 -4.52 
468.40 -69.31 -3.38 
468.40 -69.30 -2.82 
468.41 -69.28 -2.25 
468.41 -69.26 -1.68 
468.41 -69.25 -1.11 
471.59 -69.52 -5.72 
471.50 -69.38 -5.37 
471.50 -69.36 -4.66 
471.50 -69.35 -3.95 
471.50 -69.33 -3.24 
471.50 -69.31 -2.53 
471.50 -69.29 -1.82 
471.53 -69.53 -0.75 
471.51 -69.25 -0.40 
471.51 -69.23 0.33 
472.39 -69.71 -5.83 
472.37 -69.55 -5.26 
472.38 -69.71 -4.33 
472.37 -69.71 -3.58 
472.36 -69.72 -2.83 
472.35 -69.72 -2.07 
472.34 -69.72 -1.32 
472.33 -69.72 -0.56 
472.47 -69.36 -0.13 
472.32 -69.72 0.21 
472.66 -69.18 -5.73 
473.04 -69.40 -5.20 
473.05 -69.38 -4.59 
473.03 -69.18 -3.93 
473.09 -69.32 -2.75 
473.10 -69.30 -2.14 
473.11 -69.27 -1.52 
472.92 -69.46 -0.95 
472.92 -69.43 -0.33 
472.70 -69.70 0.21 
473.82 -69.13 -5.71 
473.59 -69.04 -5.43 
473.24 -69.53 -4.58 
473.60 -69.74 -3.98 
473.31 -69.72 -3.04 
473.31 -69.70 -2.25 
473.31 -69.69 -1.45 
473.32 -69.67 -0.65 
473.67 -69.57 0.00 
474.61 -69.56 -5.84 
474.08 -69.29 -5.25 
474.31 -69.09 -4.19 
474.11 -69.64 -3.99 
474.09 -69.24 -3.14 
474.29 -69.14 -2.16 
474.26 -69.63 -1.36 
474.12 -69.59 -0.92 
474.12 -69.58 -0.15 
474.22 -69.09 0.70 
474.91 -69.39 -5.80 
474.89 -69.43 -5.13 
474.89 -69.41 -4.39 
474.89 -69.40 -3.66 
474.84 -69.34 -3.05 
474.90 -69.37 -2.19 
474.90 -69.35 -1.46 
474.65 -69.46 -1.08 
474.78 -69.29 -0.29 
474.92 -69.44 0.58 
475.87 -69.17 -5.65 
475.85 -69.16 -5.11 
475.70 -69.03 -4.36 
475.93 -69.11 -3.67 
475.78 -69.14 -2.91 
475.89 -69.10 -2.18 
475.91 -69.10 -1.56 
475.87 -69.09 -0.96 
475.81 -69.58 -0.17 
475.51 -69.70 0.57 
476.33 -69.30 -5.63 
476.34 -69.24 -5.09 
476.30 -69.26 -4.35 
476.41 -69.32 -3.66 
476.31 -69.25 -2.99 
476.29 -69.28 -2.30 
476.40 -69.36 -1.62 
476.32 -69.31 -0.85 
476.40 -69.40 -0.17 
476.30 -69.61 0.41 
476.91 -69.52 -5.76 
477.00 -69.64 -5.01 
476.95 -69.67 -4.34 
476.99 -69.65 -3.66 
476.92 -69.61 -2.93 
476.92 -69.61 -2.29 
476.95 -69.65 -1.69 
476.91 -69.62 -0.97 
476.84 -69.64 -0.08 
476.92 -69.72 0.41 
477.59 -69.62 -5.90 
478.44 -69.53 -5.75 
479.17 -69.36 -5.75 
479.54 -69.20 -5.73 
480.42 -69.61 -5.56 
480.70 -69.75 -5.29 
481.14 -69.67 -5.53 
481.19 -69.63 -5.37 
481.74 -69.26 -5.38 
482.05 -69.41 -5.24 
482.39 -69.42 -5.42 
482.66 -69.64 -5.23 
484.03 -69.11 -5.35 
484.44 -69.16 -5.34 
485.59 -69.06 -5.33 
486.50 -69.61 -3.57 
486.88 -69.47 -5.15 
487.00 -69.59 -4.48 
486.99 -69.59 -3.64 
486.99 -69.58 -2.63 
486.98 -69.58 -2.12 
487.68 -69.66 -5.15 
487.74 -69.34 -4.30 
487.71 -69.75 -3.64 
487.47 -69.56 -2.85 
487.71 -69.37 -2.32 
487.45 -69.56 -1.68 
488.32 -69.32 -5.23 
488.39 -69.48 -4.28 
488.38 -69.49 -3.76 
488.28 -69.54 -3.15 
488.36 -69.51 -2.19 
488.35 -69.52 -1.67 
488.34 -69.52 -1.14 
488.78 -69.37 -4.97 
489.15 -69.43 -4.35 
488.77 -69.38 -3.63 
488.76 -69.38 -2.95 
489.13 -69.44 -2.26 
489.11 -69.44 -1.41 
489.22 -69.44 -0.98 
489.62 -69.42 -4.93 
489.82 -69.52 -4.46 
489.60 -69.43 -3.55 
489.59 -69.43 -2.86 
489.79 -69.53 -2.26 
489.78 -69.54 -1.37 
490.38 -69.22 -4.95 
490.40 -69.25 -4.22 
490.40 -69.17 -3.67 
490.36 -69.23 -2.95 
490.37 -69.29 -2.16 
490.35 -69.27 -1.63 
490.34 -69.27 -1.10 
491.00 -69.53 -4.72 
491.02 -69.55 -4.34 
491.08 -69.59 -3.67 
491.07 -69.57 -2.97 
491.00 -69.56 -2.32 
491.04 -69.61 -1.53 
491.10 -69.73 -1.13 
491.49 -69.50 -4.71 
491.42 -69.75 -4.33 
491.48 -69.69 -3.62 
491.52 -69.64 -3.07 
491.41 -69.76 -2.28 
491.49 -69.64 -1.32 
491.67 -69.46 -1.01 
492.47 -69.69 -4.67 
467.71 -69.05 -2.71 
467.71 -69.03 -2.12 
467.71 -69.02 -1.53 
468.86 -68.53 -5.62 
468.86 -68.51 -5.07 
468.86 -68.50 -4.52 
468.87 -68.47 -3.43 
468.87 -68.45 -2.88 
468.87 -68.43 -2.33 
468.88 -68.40 -1.23 
469.68 -68.53 -5.63 
469.25 -68.56 -5.22 
469.69 -68.47 -4.06 
469.69 -68.45 -3.53 
469.69 -68.43 -3.01 
469.29 -68.40 -2.27 
469.70 -68.38 -1.43 
470.03 -68.39 -5.80 
470.04 -68.37 -5.33 
471.95 -68.81 -5.71 
471.83 -68.72 -5.37 
471.83 -68.70 -4.67 
471.83 -68.68 -3.97 
471.84 -68.66 -3.28 
471.84 -68.64 -2.58 
471.84 -68.63 -1.88 
471.84 -68.61 -1.17 
471.88 -68.83 0.04 
471.84 -68.57 0.24 
472.66 -68.84 -5.89 
473.00 -68.55 -5.03 
472.86 -68.37 -4.27 
472.70 -68.75 -3.38 
472.71 -68.73 -2.76 
472.73 -68.71 -2.13 
472.74 -68.69 -1.50 
472.75 -68.66 -0.87 
472.76 -68.64 -0.24 
472.86 -68.44 0.83 
473.41 -68.65 -5.80 
473.42 -68.63 -5.20 
473.57 -68.76 -4.26 
473.58 -68.80 -3.87 
473.57 -68.73 -3.03 
473.52 -68.72 -2.19 
473.49 -68.51 -1.61 
473.59 -68.73 -0.98 
473.46 -68.68 -0.10 
473.47 -68.66 0.77 
473.44 -68.66 0.95 
474.48 -68.55 -5.82 
474.19 -68.66 -5.25 
474.17 -68.65 -4.55 
474.43 -68.45 -3.46 
474.41 -68.45 -2.89 
474.39 -68.44 -2.32 
474.30 -68.50 -1.45 
474.27 -68.49 -0.81 
474.35 -68.89 -0.20 
474.33 -68.89 0.57 
475.15 -68.61 -5.62 
475.02 -68.66 -5.00 
474.97 -68.54 -4.35 
475.04 -68.62 -3.67 
474.98 -68.65 -2.95 
475.00 -68.63 -2.28 
475.02 -68.65 -1.62 
474.94 -68.65 -0.87 
475.00 -68.72 -0.28 
474.64 -69.01 0.83 
475.61 -68.82 -5.67 
475.71 -68.87 -5.03 
475.71 -68.92 -4.34 
475.56 -68.93 -3.67 
475.54 -68.90 -2.93 
475.60 -68.87 -2.25 
475.56 -68.92 -1.56 
475.52 -68.91 -0.96 
475.58 -68.98 -0.12 
476.02 -69.04 -5.14 
478.68 -69.00 -5.84 
479.20 -68.73 -5.82 
479.81 -68.57 -5.83 
480.59 -68.77 -5.68 
480.92 -68.51 -5.66 
482.20 -68.67 -5.44 
482.11 -68.58 -5.38 
482.72 -69.03 -5.40 
482.73 -68.73 -5.24 
483.18 -68.87 -5.35 
483.18 -68.87 -5.35 
484.09 -68.47 -5.21 
484.86 -68.70 -5.20 
485.44 -68.68 -5.19 
486.34 -68.77 -5.18 
486.81 -68.51 -5.17 
487.46 -68.46 -5.30 
487.73 -69.05 -4.58 
487.57 -68.40 -3.42 
487.88 -68.42 -3.12 
487.56 -68.39 -2.49 
487.85 -68.48 -1.58 
488.19 -68.82 -5.05 
488.18 -68.44 -4.30 
488.16 -68.45 -3.34 
488.16 -68.46 -2.86 
488.15 -68.47 -2.38 
488.13 -68.48 -1.40 
489.01 -68.52 -4.93 
489.06 -68.51 -4.31 
489.02 -68.57 -3.59 
489.00 -68.53 -2.96 
489.00 -68.52 -2.26 
488.99 -68.57 -1.65 
489.58 -68.82 -4.94 
489.66 -68.83 -4.35 
489.64 -68.79 -3.70 
489.63 -68.86 -2.90 
489.64 -68.84 -2.21 
489.71 -68.94 -1.71 
489.37 -68.81 -1.14 
490.15 -69.03 -4.95 
490.15 -69.03 -4.32 
490.07 -68.99 -3.69 
468.09 -67.96 -5.63 
468.12 -67.91 -5.15 
467.91 -67.92 -4.21 
467.91 -67.90 -3.69 
467.92 -67.88 -3.18 
467.92 -67.84 -2.15 
467.93 -67.82 -1.63 
467.93 -67.80 -1.10 
468.56 -68.35 -4.70 
468.56 -68.33 -4.20 
468.57 -68.31 -3.69 
468.57 -68.28 -3.19 
468.58 -68.24 -2.18 
468.59 -68.22 -1.67 
468.59 -68.19 -1.16 
469.24 -67.74 -5.60 
469.25 -67.72 -5.07 
469.25 -67.71 -4.53 
469.25 -67.68 -3.47 
469.25 -67.67 -2.94 
469.30 -68.35 -1.29 
470.09 -67.69 -5.60 
470.09 -67.67 -5.09 
470.05 -68.31 -4.38 
470.06 -68.28 -3.91 
470.08 -68.23 -2.97 
470.09 -68.18 -2.03 
470.10 -68.15 -1.55 
471.54 -67.68 -5.73 
471.56 -67.86 -5.07 
471.53 -67.84 -4.07 
471.56 -67.97 -3.81 
471.51 -67.82 -3.07 
471.48 -67.81 -2.06 
471.53 -67.97 -1.87 
471.46 -67.79 -1.05 
471.50 -67.98 0.08 
471.40 -67.75 0.98 
472.16 -67.93 -5.53 
472.26 -68.24 -5.20 
472.23 -68.22 -4.20 
472.11 -67.89 -3.64 
472.21 -68.08 -3.01 
472.18 -68.17 -2.19 
472.44 -67.91 -1.44 
472.23 -68.13 -0.83 
472.14 -68.03 -0.08 
472.11 -68.01 0.91 
471.98 -67.81 1.11 
472.96 -68.08 -5.90 
472.94 -68.08 -5.20 
472.92 -68.07 -4.43 
472.89 -68.06 -3.66 
472.87 -68.05 -2.89 
472.84 -68.04 -2.12 
472.92 -67.72 -1.62 
473.11 -67.93 -0.97 
472.67 -68.02 -0.05 
472.55 -67.85 0.53 
472.73 -68.28 0.93 
473.62 -67.83 -5.74 
473.60 -67.80 -5.12 
473.61 -67.84 -4.29 
473.57 -67.89 -3.54 
473.56 -67.89 -3.02 
473.56 -67.91 -2.17 
473.56 -67.83 -1.57 
473.51 -67.88 -0.92 
473.65 -68.19 -0.12 
473.26 -68.17 0.41 
474.24 -68.16 -5.73 
474.26 -68.25 -5.01 
474.25 -68.16 -4.35 
474.34 -68.18 -3.59 
474.21 -68.24 -2.94 
474.22 -68.19 -2.31 
474.17 -68.20 -1.54 
474.17 -68.24 -0.84 
474.15 -68.29 -0.22 
474.61 -68.33 -5.83 
474.56 -68.28 -5.04 
474.61 -68.35 -4.35 
480.14 -68.36 -5.82 
480.46 -68.07 -5.80 
481.21 -68.07 -5.80 
481.61 -67.92 -5.61 
482.73 -68.11 -5.40 
482.56 -68.02 -5.36 
483.07 -68.23 -5.40 
483.35 -68.19 -5.21 
483.95 -67.96 -5.37 
486.17 -67.69 -5.29 
487.19 -68.03 -5.60 
486.80 -67.67 -5.24 
487.43 -67.91 -5.60 
487.64 -67.74 -5.13 
487.61 -67.73 -4.41 
487.64 -67.84 -3.66 
487.82 -67.92 -2.91 
487.81 -67.92 -2.32 
488.39 -68.12 -5.52 
488.19 -68.16 -5.11 
488.25 -68.14 -4.49 
488.30 -68.15 -3.63 
488.24 -68.13 -2.90 
488.24 -68.14 -2.30 
488.47 -68.34 -1.84 
489.00 -68.06 -5.23 
488.58 -68.38 -4.29 
488.64 -68.32 -3.61 
488.63 -68.34 -3.28 
489.47 -68.04 -5.22 
489.88 -68.34 -4.66 
467.83 -67.19 -5.58 
467.83 -67.18 -5.01 
467.83 -67.17 -4.44 
467.83 -67.15 -3.86 
467.83 -67.13 -2.71 
467.83 -67.11 -2.14 
467.83 -67.10 -1.56 
468.47 -67.57 -5.61 
468.38 -66.99 -5.23 
468.39 -66.96 -4.24 
468.48 -67.53 -3.94 
468.48 -67.50 -2.83 
468.48 -67.49 -2.28 
468.48 -67.47 -1.72 
468.48 -67.46 -1.16 
469.61 -67.00 -5.58 
469.11 -67.25 -5.19 
469.12 -67.21 -4.23 
469.12 -67.19 -3.75 
469.13 -67.15 -2.79 
469.26 -67.65 -2.41 
469.14 -67.11 -1.83 
470.16 -66.98 -5.80 
470.02 -67.13 -5.11 
469.93 -67.14 -4.27 
469.93 -67.12 -3.82 
469.96 -67.09 -3.04 
469.94 -67.07 -2.01 
470.11 -67.55 -1.55 
469.91 -67.05 -0.96 
469.88 -67.03 0.08 
469.86 -67.01 1.13 
470.87 -67.14 -5.66 
470.82 -67.43 -4.99 
471.08 -67.17 -4.46 
470.93 -67.04 -3.88 
470.81 -67.12 -3.19 
470.79 -67.11 -2.36 
470.85 -67.01 -1.57 
470.75 -67.09 -0.70 
470.94 -67.06 -0.06 
470.93 -67.11 0.40 
470.66 -67.32 1.05 
471.69 -67.03 -5.77 
471.58 -67.21 -5.38 
471.44 -67.12 -4.06 
471.59 -67.06 -3.42 
471.59 -67.03 -2.84 
471.53 -67.05 -2.14 
471.50 -67.04 -1.50 
471.60 -67.44 -0.85 
471.58 -67.43 -0.08 
471.77 -67.43 0.57 
471.33 -67.53 1.10 
472.24 -67.11 -5.73 
472.29 -67.17 -5.13 
472.27 -67.16 -4.39 
472.25 -67.19 -3.56 
472.16 -67.19 -2.91 
472.12 -67.16 -2.13 
472.23 -67.20 -1.57 
472.27 -67.24 -0.86 
472.09 -67.18 -0.17 
472.09 -67.48 0.16 
472.80 -67.43 -5.70 
472.87 -67.42 -5.12 
472.87 -67.46 -4.29 
472.85 -67.42 -3.64 
472.81 -67.44 -2.91 
472.82 -67.47 -2.33 
472.80 -67.52 -1.63 
472.70 -67.47 -0.88 
472.77 -67.60 -0.11 
472.79 -67.59 0.23 
473.23 -67.61 -5.66 
473.23 -67.61 -5.12 
473.27 -67.66 -4.29 
473.21 -67.61 -3.63 
473.40 -67.69 -3.06 
473.86 -67.63 -2.38 
473.96 -67.24 -1.43 
473.87 -67.55 -0.62 
473.59 -67.13 -0.02 
474.17 -67.17 -5.30 
474.18 -67.12 -4.16 
474.19 -67.09 -3.59 
474.19 -67.07 -3.01 
474.20 -67.04 -2.44 
473.96 -67.24 -1.43 
474.21 -66.96 -0.71 
473.96 -67.20 -0.13 
479.64 -67.50 -5.88 
480.61 -67.52 -5.74 
481.35 -67.18 -5.75 
482.00 -67.49 -5.72 
482.44 -67.13 -5.69 
482.60 -67.55 -5.17 
483.61 -67.51 -5.37 
484.16 -67.30 -5.31 
484.72 -67.46 -5.29 
485.48 -67.52 -5.30 
486.26 -67.18 -5.25 
486.43 -67.22 -4.61 
486.04 -66.99 -3.80 
486.85 -67.25 -5.24 
487.02 -67.45 -4.10 
487.00 -67.53 -3.70 
487.18 -67.61 -2.64 
487.18 -67.61 -2.34 
487.30 -67.31 -5.23 
487.21 -67.61 -4.53 
487.25 -67.65 -3.74 
488.25 -67.10 -5.19 
488.26 -67.66 -2.58 
489.04 -67.27 -5.20 
489.60 -67.24 -5.19 
490.16 -67.21 -5.19 
468.10 -66.54 -5.57 
468.10 -66.53 -5.01 
468.10 -66.51 -4.45 
468.10 -66.50 -3.89 
468.31 -66.31 -3.02 
468.28 -66.29 -1.95 
468.11 -66.45 -1.63 
468.25 -66.27 -0.87 
468.11 -66.42 -0.49 
468.83 -66.85 -5.59 
468.83 -66.84 -5.05 
468.83 -66.82 -4.51 
468.83 -66.81 -3.97 
468.83 -66.78 -2.89 
468.83 -66.77 -2.35 
468.40 -66.87 -1.76 
468.84 -66.73 -0.71 
468.92 -66.61 0.07 
468.89 -66.59 1.16 
469.44 -66.47 -5.59 
469.28 -66.70 -5.03 
469.25 -66.68 -4.00 
469.32 -66.55 -3.64 
469.22 -66.66 -2.96 
469.62 -66.90 -1.96 
469.26 -66.51 -1.63 
469.16 -66.62 -0.88 
469.31 -66.39 -0.38 
469.28 -66.38 0.50 
469.11 -66.58 1.21 
470.07 -66.43 -5.49 
470.13 -66.71 -5.30 
470.10 -66.70 -4.48 
470.07 -66.69 -3.65 
470.00 -66.59 -3.10 
470.26 -66.32 -2.19 
470.24 -66.31 -1.56 
470.22 -66.30 -0.92 
470.23 -66.41 -0.09 
469.94 -66.63 0.50 
469.88 -66.84 1.25 
470.85 -66.43 -5.64 
470.81 -66.44 -5.05 
470.79 -66.42 -4.32 
470.83 -66.44 -3.66 
470.79 -66.45 -2.87 
470.75 -66.42 -2.22 
470.76 -66.45 -1.53 
470.78 -66.59 -0.96 
470.81 -66.55 -0.21 
470.73 -66.57 0.31 
471.43 -66.72 -5.70 
471.43 -66.72 -5.22 
471.45 -66.73 -4.28 
471.47 -66.71 -3.69 
471.44 -66.73 -2.92 
471.41 -66.74 -2.31 
471.44 -66.71 -1.62 
471.32 -66.84 -0.86 
471.30 -66.84 -0.25 
471.27 -66.83 0.36 
471.88 -66.90 -5.74 
471.99 -66.94 -5.06 
471.89 -66.95 -4.29 
471.83 -66.93 -3.53 
471.89 -66.96 -2.85 
471.96 -66.96 -2.12 
471.83 -66.92 -1.59 
472.29 -66.46 -0.95 
472.98 -66.78 -5.66 
472.96 -66.78 -4.87 
472.95 -66.78 -4.08 
472.78 -66.78 -3.36 
472.94 -66.79 -3.28 
472.93 -66.79 -2.49 
472.79 -66.73 -1.35 
472.79 -66.71 -0.67 
472.79 -66.70 0.01 
473.90 -66.52 -0.07 
474.45 -66.63 -5.87 
474.26 -66.78 -5.28 
474.46 -66.56 -4.18 
474.26 -66.72 -3.39 
474.26 -66.70 -2.75 
474.26 -66.68 -2.12 
474.25 -66.66 -1.49 
474.25 -66.64 -0.85 
474.25 -66.61 -0.21 
480.35 -66.64 -5.80 
481.50 -66.71 -5.73 
481.90 -66.58 -5.71 
482.63 -66.48 -5.64 
482.92 -66.31 -5.37 
483.27 -66.44 -5.63 
483.35 -66.56 -5.36 
484.08 -66.67 -5.28 
484.63 -66.66 -5.28 
484.63 -66.35 -4.64 
484.85 -66.50 -3.54 
485.40 -66.60 -5.24 
485.67 -66.85 -4.52 
485.66 -66.85 -3.79 
486.20 -66.34 -5.20 
486.62 -66.42 -5.19 
487.54 -66.57 -5.21 
488.36 -66.42 -5.24 
488.86 -66.57 -5.16 
489.74 -66.49 -5.14 
490.11 -66.94 -5.17 
491.58 -66.35 -5.14 
467.84 -65.85 -5.71 
468.14 -65.68 -4.71 
467.81 -65.83 -4.67 
467.97 -65.66 -3.65 
467.94 -65.64 -2.78 
468.05 -65.64 -2.24 
468.02 -65.63 -1.41 
467.88 -65.62 -1.04 
468.28 -65.59 -0.21 
468.14 -65.82 0.62 
468.30 -65.71 1.01 
468.52 -65.66 -5.56 
468.43 -65.87 -5.01 
468.85 -65.67 -4.03 
468.60 -65.80 -3.80 
468.58 -65.79 -3.02 
468.55 -65.78 -2.23 
468.53 -65.77 -1.44 
468.71 -65.65 -0.69 
468.82 -65.75 0.05 
468.95 -65.87 0.33 
468.46 -65.74 0.95 
469.44 -65.70 -5.71 
469.39 -65.69 -5.03 
469.42 -65.71 -4.22 
469.51 -65.70 -3.61 
469.39 -65.80 -2.85 
469.37 -65.79 -2.28 
469.42 -65.84 -1.65 
469.46 -65.84 -0.87 
469.43 -65.83 -0.25 
469.41 -65.82 0.38 
470.03 -65.99 -5.72 
470.06 -66.06 -5.06 
470.02 -66.00 -4.25 
470.11 -66.01 -3.65 
470.06 -66.01 -2.93 
470.09 -66.01 -2.21 
470.02 -66.09 -1.53 
470.00 -66.11 -0.91 
469.97 -66.10 -0.29 
469.95 -66.09 0.33 
470.55 -66.18 -5.74 
470.60 -66.22 -5.08 
470.53 -66.24 -4.29 
470.53 -66.20 -3.63 
470.54 -66.27 -2.96 
470.52 -66.26 -2.35 
470.56 -66.26 -1.57 
471.21 -65.84 -6.01 
473.03 -66.23 -4.71 
473.03 -66.21 -4.05 
473.03 -66.20 -3.38 
473.04 -66.18 -2.72 
473.04 -66.16 -2.06 
473.04 -66.15 -1.39 
473.04 -66.13 -0.72 
473.04 -66.11 -0.05 
473.33 -65.68 -6.02 
473.33 -65.65 -4.72 
473.31 -66.15 -4.07 
473.33 -65.62 -3.41 
473.30 -66.15 -3.29 
473.29 -66.16 -2.50 
473.28 -66.16 -1.72 
473.27 -66.16 -0.93 
473.26 -66.16 -0.13 
474.27 -65.91 -5.73 
474.26 -65.91 -5.03 
474.25 -65.91 -4.33 
474.25 -65.91 -3.64 
474.24 -65.92 -2.94 
474.23 -65.92 -2.24 
474.22 -65.92 -1.53 
474.21 -65.92 -0.83 
474.20 -65.92 -0.11 
474.72 -66.09 -5.87 
474.73 -66.06 -5.31 
474.69 -66.02 -4.21 
474.67 -66.00 -3.65 
474.64 -65.99 -3.09 
474.62 -65.97 -2.54 
480.09 -66.08 -5.87 
480.40 -65.98 -5.85 
481.02 -66.01 -5.82 
481.97 -65.87 -5.64 
482.29 -65.77 -5.38 
482.50 -66.00 -5.63 
482.63 -66.14 -5.38 
483.38 -65.89 -5.57 
483.23 -66.05 -5.31 
483.98 -65.89 -5.64 
484.20 -66.20 -5.27 
484.23 -66.10 -3.82 
484.77 -66.05 -5.23 
485.43 -66.17 -5.29 
485.93 -65.83 -5.27 
487.65 -65.94 -5.49 
487.65 -65.94 -5.49 
488.34 -66.03 -5.33 
488.91 -65.88 -5.29 
489.51 -65.71 -5.25 
491.26 -66.16 -5.12 
468.05 -64.95 -5.73 
468.13 -65.04 -5.08 
468.04 -64.96 -4.29 
468.10 -65.05 -3.52 
468.09 -65.05 -2.99 
468.08 -64.99 -2.31 
468.12 -65.03 -1.51 
468.06 -65.05 -0.87 
467.95 -65.10 0.04 
467.92 -65.09 0.70 
468.70 -65.32 -5.72 
468.59 -65.28 -5.04 
468.68 -65.30 -4.29 
468.66 -65.25 -3.64 
468.69 -65.30 -2.93 
468.63 -65.26 -2.27 
468.60 -65.35 -1.58 
468.64 -65.39 -0.88 
468.63 -65.39 -0.31 
468.52 -65.40 0.64 
469.21 -65.50 -5.73 
469.23 -65.51 -5.09 
469.19 -65.51 -4.24 
469.08 -65.47 -3.63 
469.16 -65.55 -2.97 
469.17 -65.52 -2.25 
469.14 -65.56 -1.51 
469.06 -65.56 -1.06 
469.73 -64.94 -5.55 
470.06 -65.31 -5.16 
469.73 -64.91 -4.54 
470.08 -65.24 -3.42 
470.08 -65.22 -2.98 
470.09 -65.19 -2.11 
470.29 -65.53 -1.62 
470.30 -65.51 -1.13 
471.03 -64.94 -5.56 
471.03 -64.92 -5.15 
470.59 -64.97 -4.57 
470.60 -64.95 -3.62 
470.60 -64.94 -3.14 
470.60 -64.91 -2.19 
470.60 -64.90 -1.71 
471.68 -65.05 -5.63 
471.69 -65.03 -5.24 
471.69 -64.99 -4.45 
471.70 -64.96 -3.67 
471.71 -64.92 -2.88 
471.72 -64.90 -2.49 
471.21 -65.40 -1.86 
472.38 -65.09 -5.41 
472.10 -64.94 -4.84 
472.09 -64.94 -4.46 
472.34 -65.08 -3.69 
472.06 -64.93 -2.93 
472.05 -64.93 -2.54 
472.74 -64.90 -5.66 
472.83 -64.88 -5.06 
472.87 -65.08 -4.25 
472.81 -64.89 -3.61 
472.79 -64.97 -2.87 
472.79 -64.89 -2.15 
472.78 -64.89 -1.41 
472.76 -64.91 -0.88 
472.84 -64.98 -0.03 
473.57 -65.46 -5.96 
473.64 -65.51 -4.85 
473.50 -65.41 -4.23 
473.48 -65.39 -3.66 
473.46 -65.37 -3.08 
473.37 -65.28 -2.12 
473.34 -65.27 -1.47 
473.36 -65.29 -0.74 
473.34 -65.27 -0.14 
479.10 -65.49 -5.90 
481.09 -65.51 -5.79 
481.92 -65.42 -5.74 
481.95 -65.40 -5.39 
482.69 -65.15 -5.74 
483.13 -65.08 -5.63 
483.35 -64.98 -5.38 
484.14 -65.25 -5.42 
483.85 -65.11 -5.37 
484.69 -65.24 -5.59 
484.83 -64.98 -5.35 
485.62 -65.11 -5.34 
486.08 -65.19 -5.34 
486.91 -65.27 -5.24 
487.61 -64.90 -5.23 
488.20 -64.88 -5.23 
489.02 -65.55 -5.29 
467.84 -64.76 -5.72 
467.76 -64.85 -5.05 
467.76 -64.77 -4.26 
467.83 -64.81 -3.66 
467.81 -64.79 -2.97 
467.77 -64.80 -2.20 
467.78 -64.85 -1.51 
467.83 -64.87 -0.73 
469.60 -64.55 -5.63 
469.60 -64.54 -5.19 
469.05 -64.62 -4.48 
469.05 -64.61 -3.96 
469.05 -64.58 -2.91 
469.05 -64.57 -2.38 
469.05 -64.56 -1.85 
470.40 -64.55 -5.56 
470.40 -64.54 -5.15 
469.74 -64.85 -2.02 
469.74 -64.84 -1.51 
471.17 -64.58 -5.90 
471.01 -64.57 -5.10 
471.14 -64.58 -4.40 
471.12 -64.59 -3.66 
471.11 -64.59 -2.91 
471.09 -64.60 -2.15 
471.07 -64.60 -1.40 
471.60 -64.65 -5.82 
471.39 -64.77 -5.09 
471.54 -64.66 -4.47 
471.55 -64.65 -3.68 
471.51 -64.65 -2.93 
471.49 -64.64 -2.15 
471.52 -64.75 -1.49 
472.27 -64.78 -5.46 
472.24 -64.76 -4.86 
472.26 -64.71 -4.08 
472.24 -64.69 -3.40 
472.22 -64.68 -2.73 
472.14 -64.68 -2.45 
472.18 -64.65 -1.37 
472.16 -64.64 -0.68 
472.14 -64.62 0.01 
472.54 -64.85 -1.41 
481.79 -64.78 -5.62 
482.92 -64.73 -5.57 
483.42 -64.61 -5.69 
483.60 -64.86 -5.37 
484.01 -64.62 -5.47 
484.08 -64.62 -5.35 
484.88 -64.67 -5.51 
484.84 -64.84 -5.38 
485.33 -64.55 -5.55 
485.44 -64.57 -5.39 
486.48 -64.54 -5.36 
486.91 -64.58 -5.31 
487.56 -64.76 -5.33 
488.42 -64.81 -5.31 
