# .PCD v0.7 - Point Cloud Data file format
VERSION 0.7
FIELDS x y z
SIZE 4 4 4
TYPE F F F
COUNT 1 1 1
WIDTH 1394
HEIGHT 1
VIEWPOINT 0 0 0 1 0 0 0
POINTS 1394
DATA ascii
468.40 -64.17 -5.65 
469.33 -64.07 -5.53 
469.60 -64.53 -4.75 
469.60 -64.51 -4.31 
469.60 -64.50 -3.87 
469.61 -64.47 -2.99 
469.61 -64.46 -2.55 
469.62 -63.84 -1.57 
469.34 -63.96 -0.87 
470.09 -64.01 -5.70 
470.18 -63.97 -5.12 
470.14 -63.94 -4.37 
470.13 -63.93 -3.69 
470.12 -64.07 -2.98 
470.08 -63.95 -2.34 
470.07 -63.89 -1.73 
470.07 -64.08 -0.78 
470.77 -64.23 -5.65 
470.68 -64.26 -5.12 
470.67 -64.27 -4.30 
470.72 -64.23 -3.69 
470.67 -64.22 -2.93 
470.69 -64.24 -2.34 
470.61 -64.29 -1.84 
470.76 -63.88 -1.14 
470.76 -63.92 0.13 
471.51 -64.25 -5.70 
471.51 -64.26 -4.88 
471.53 -64.38 -4.28 
471.51 -64.36 -3.66 
471.48 -64.34 -3.05 
471.45 -64.32 -2.43 
471.53 -64.27 -1.59 
471.53 -64.27 -0.76 
471.34 -64.23 0.08 
471.65 -64.38 0.21 
471.73 -64.37 -5.08 
471.83 -64.49 -4.07 
482.83 -63.98 -5.52 
483.40 -64.33 -5.55 
487.61 -64.38 -5.31 
488.07 -64.15 -5.29 
468.82 -63.22 -5.63 
468.75 -63.16 -5.09 
468.78 -63.21 -4.35 
468.84 -63.24 -3.63 
468.74 -63.21 -3.06 
468.79 -63.26 -2.30 
468.77 -63.23 -1.64 
468.85 -63.44 -1.02 
468.77 -63.39 -0.51 
469.41 -63.55 -5.62 
469.33 -63.48 -5.09 
469.45 -63.56 -4.34 
469.35 -63.53 -3.74 
469.45 -63.52 -2.98 
469.30 -63.52 -2.31 
469.37 -63.55 -1.79 
469.38 -63.50 -0.91 
469.43 -63.20 -0.31 
469.37 -63.17 0.33 
469.88 -63.78 -5.60 
469.76 -63.70 -5.08 
469.85 -63.78 -4.38 
469.85 -63.80 -3.72 
469.83 -63.79 -2.92 
469.79 -63.76 -2.32 
470.01 -63.83 -1.62 
470.00 -63.49 -1.08 
469.97 -63.47 -0.43 
469.94 -63.44 0.23 
470.66 -63.80 -5.88 
470.65 -63.80 -5.11 
470.48 -63.77 -4.09 
470.45 -63.76 -3.38 
470.43 -63.74 -2.67 
470.41 -63.73 -1.95 
470.59 -63.81 -1.22 
470.58 -63.81 -0.44 
482.01 -63.43 -5.62 
482.50 -63.31 -5.58 
482.84 -63.52 -5.27 
483.54 -63.80 -5.47 
488.54 -63.82 -5.32 
468.14 -62.89 -5.66 
468.03 -62.80 -5.06 
467.90 -62.78 -4.41 
467.98 -62.81 -3.68 
468.05 -62.87 -3.04 
467.93 -62.77 -2.38 
468.01 -62.87 -1.71 
468.13 -62.87 -0.95 
468.23 -63.11 -0.31 
468.45 -63.02 -5.62 
468.55 -63.07 -5.04 
468.46 -63.01 -4.37 
468.49 -63.10 -3.73 
468.47 -63.05 -2.94 
468.45 -63.04 -2.41 
468.50 -63.12 -1.67 
468.61 -63.12 -0.99 
468.81 -62.85 -0.49 
469.29 -63.05 -5.81 
469.31 -63.05 -4.79 
469.08 -63.04 -4.10 
469.05 -63.02 -3.37 
469.25 -63.11 -1.69 
469.22 -63.08 -1.02 
469.19 -63.06 -0.35 
469.15 -63.03 0.33 
480.95 -62.81 -5.80 
481.84 -62.50 -5.67 
482.03 -62.63 -5.22 
482.03 -62.61 -4.38 
482.40 -62.73 -5.46 
482.85 -62.59 -4.83 
482.40 -62.71 -4.73 
483.34 -63.11 -5.52 
483.08 -62.97 -5.27 
483.08 -62.95 -4.57 
467.76 -62.38 -5.74 
467.73 -62.36 -5.06 
467.70 -62.33 -4.37 
467.66 -62.30 -3.68 
467.63 -62.28 -2.99 
467.77 -62.42 -0.30 
480.73 -61.78 -5.70 
480.64 -61.79 -5.17 
480.64 -61.77 -4.36 
481.25 -62.05 -5.70 
481.26 -62.03 -5.23 
481.46 -62.17 -4.39 
482.12 -61.91 -5.68 
482.05 -61.93 -5.07 
482.07 -62.14 -4.26 
482.68 -62.16 -5.46 
482.61 -62.11 -5.20 
482.61 -62.09 -4.28 
483.10 -62.10 -5.14 
483.12 -62.07 -4.53 
468.28 -61.29 -6.03 
468.63 -61.11 -6.14 
478.42 -61.07 -5.45 
478.43 -61.06 -4.81 
478.69 -61.13 -4.25 
478.93 -61.48 -5.63 
478.93 -61.46 -5.00 
478.93 -61.45 -4.37 
479.62 -61.10 -5.76 
479.63 -61.07 -5.05 
479.64 -61.06 -4.70 
480.84 -61.12 -5.12 
481.02 -61.21 -5.67 
481.20 -61.16 -5.23 
481.20 -61.14 -4.32 
481.78 -61.53 -5.26 
481.78 -61.51 -4.40 
482.95 -61.60 -5.47 
482.91 -61.40 -5.16 
482.64 -61.34 -4.40 
483.43 -61.52 -4.83 
483.66 -61.07 -4.55 
483.87 -61.35 -5.28 
483.87 -61.33 -4.60 
468.94 -60.79 -6.02 
477.76 -60.39 -5.83 
477.77 -60.60 -5.29 
477.77 -60.59 -4.69 
478.51 -60.65 -5.74 
478.51 -60.65 -5.11 
478.51 -60.60 -4.67 
479.04 -60.85 -5.66 
479.04 -60.86 -5.05 
479.04 -60.86 -4.60 
479.80 -60.69 -5.74 
479.81 -60.67 -5.05 
479.82 -60.94 -4.59 
481.23 -60.55 -5.19 
481.23 -60.53 -4.38 
482.15 -60.81 -5.51 
482.17 -60.77 -5.11 
482.20 -60.72 -4.45 
482.77 -60.79 -5.08 
482.79 -60.76 -4.45 
483.48 -60.50 -5.48 
483.32 -60.61 -4.85 
483.23 -60.91 -4.26 
483.85 -60.69 -5.25 
483.87 -60.66 -4.56 
469.47 -60.16 -6.00 
477.19 -60.21 -5.73 
477.19 -60.20 -5.26 
477.21 -60.17 -4.33 
477.61 -59.71 -5.54 
477.87 -60.16 -5.19 
477.87 -60.15 -4.76 
478.57 -60.05 -5.53 
478.58 -60.04 -5.12 
478.68 -59.90 -4.64 
479.10 -59.98 -5.76 
479.32 -59.90 -5.22 
479.09 -60.00 -4.67 
479.68 -59.97 -5.63 
479.77 -60.17 -5.03 
479.77 -60.18 -4.62 
480.22 -59.88 -5.38 
480.24 -59.85 -4.72 
481.46 -60.13 -5.24 
481.46 -60.11 -4.42 
481.85 -59.80 -5.25 
481.85 -59.78 -4.35 
482.54 -60.06 -5.46 
482.56 -60.03 -5.09 
482.58 -59.98 -4.47 
483.34 -59.71 -5.51 
483.35 -59.69 -5.05 
483.36 -59.66 -4.48 
484.03 -59.91 -5.10 
484.25 -59.92 -4.57 
477.81 -59.32 -5.53 
477.82 -59.30 -4.94 
478.47 -59.04 -5.82 
478.49 -59.16 -5.29 
478.49 -59.31 -4.78 
479.33 -59.15 -5.77 
479.19 -59.24 -5.24 
479.19 -59.23 -4.69 
479.89 -59.49 -5.63 
479.78 -59.39 -5.02 
479.78 -59.39 -4.61 
480.25 -59.26 -5.01 
480.24 -59.26 -4.63 
482.08 -59.23 -5.02 
482.17 -59.11 -4.37 
482.68 -59.17 -5.49 
482.69 -59.23 -5.03 
482.90 -59.28 -4.58 
483.45 -58.94 -5.46 
483.44 -59.03 -4.88 
483.45 -58.95 -4.51 
483.95 -59.30 -5.13 
484.03 -59.33 -4.59 
484.30 -59.49 -4.97 
484.43 -59.57 -4.33 
478.03 -58.58 -5.71 
478.04 -58.55 -4.83 
478.20 -58.56 -5.52 
478.64 -58.60 -5.20 
478.72 -58.69 -4.72 
479.31 -58.56 -5.51 
479.02 -58.50 -5.01 
479.02 -58.50 -4.62 
479.95 -58.71 -5.67 
479.78 -58.39 -5.00 
479.78 -58.40 -4.64 
480.36 -58.54 -5.62 
480.72 -58.43 -5.15 
480.65 -58.49 -4.63 
481.14 -58.53 -5.36 
481.10 -58.50 -4.47 
482.17 -58.31 -5.51 
482.04 -58.36 -5.09 
482.14 -58.28 -4.52 
482.81 -58.66 -5.49 
482.70 -58.70 -5.06 
482.60 -58.56 -4.44 
483.15 -58.85 -5.17 
483.13 -58.85 -4.51 
477.94 -57.66 -5.45 
477.93 -57.66 -4.75 
478.57 -57.86 -5.51 
478.43 -57.80 -4.84 
479.23 -57.81 -5.45 
479.11 -57.99 -5.00 
479.14 -57.78 -4.73 
479.67 -57.87 -5.50 
479.82 -57.94 -5.25 
479.82 -57.93 -4.71 
480.53 -57.88 -5.66 
480.53 -57.88 -5.14 
480.49 -57.75 -4.61 
481.12 -57.77 -5.47 
481.12 -57.78 -5.14 
481.20 -57.82 -4.54 
481.79 -58.10 -5.52 
481.82 -58.15 -5.06 
481.84 -58.11 -4.54 
475.79 -56.87 -5.72 
475.79 -56.86 -5.29 
477.46 -56.97 -5.56 
477.79 -57.47 -4.83 
477.45 -56.97 -4.68 
478.81 -57.10 -5.70 
478.69 -56.91 -5.21 
478.72 -56.99 -4.74 
479.21 -56.89 -5.51 
478.89 -57.18 -4.97 
479.45 -57.30 -4.59 
479.68 -57.29 -5.72 
479.81 -57.23 -5.13 
479.86 -57.21 -4.63 
480.55 -57.39 -5.63 
480.55 -57.39 -5.19 
480.55 -57.40 -4.54 
474.42 -56.17 -5.72 
474.42 -56.15 -4.85 
475.14 -56.40 -5.62 
474.99 -56.68 -5.31 
474.65 -56.61 -4.53 
475.53 -56.50 -5.74 
475.53 -56.47 -4.89 
475.53 -56.46 -4.57 
476.77 -56.72 -5.73 
476.81 -56.22 -5.28 
477.00 -56.28 -4.49 
477.80 -56.34 -5.55 
477.79 -56.16 -5.00 
478.14 -56.56 -4.43 
478.55 -56.62 -5.65 
478.39 -56.52 -5.23 
478.47 -56.64 -4.74 
478.71 -56.21 -3.69 
478.70 -56.19 -3.34 
478.69 -56.16 -2.29 
478.89 -56.66 -5.48 
478.87 -56.74 -4.97 
478.84 -56.65 -4.64 
479.79 -56.68 -5.47 
479.80 -56.67 -5.05 
479.80 -56.65 -4.62 
473.04 -55.55 -5.54 
473.14 -55.51 -4.97 
473.04 -55.53 -4.72 
473.79 -55.80 -5.79 
473.79 -55.78 -5.03 
473.24 -55.82 -4.68 
474.23 -55.92 -5.46 
474.39 -55.58 -4.94 
473.95 -55.47 -4.66 
475.21 -55.57 -5.79 
475.08 -55.80 -4.90 
475.08 -55.79 -4.56 
475.50 -55.73 -5.60 
475.43 -55.84 -4.83 
476.18 -56.09 -5.69 
476.18 -56.07 -4.86 
477.22 -55.78 -5.75 
477.31 -55.91 -5.01 
477.21 -55.53 -4.34 
477.22 -55.51 -3.87 
477.39 -55.52 -3.15 
477.33 -55.66 -2.41 
477.77 -55.59 -5.62 
477.85 -55.61 -5.08 
477.82 -55.61 -4.40 
477.82 -55.56 -3.72 
477.73 -55.61 -3.14 
478.38 -55.85 -5.60 
478.25 -55.99 -5.11 
478.25 -55.97 -4.36 
478.24 -55.97 -3.61 
478.16 -55.86 -2.98 
478.21 -55.92 -2.06 
480.05 -56.01 -5.38 
480.14 -56.03 -5.07 
480.14 -56.01 -4.65 
480.30 -55.74 -5.50 
480.30 -55.72 -5.08 
480.30 -55.70 -4.66 
471.41 -54.86 -5.64 
471.39 -54.89 -5.01 
471.38 -54.90 -4.70 
471.98 -55.04 -5.66 
471.97 -55.07 -4.97 
472.11 -54.80 -4.61 
472.54 -55.27 -5.71 
472.53 -55.29 -5.18 
472.73 -54.91 -4.65 
473.39 -55.05 -5.57 
473.46 -54.73 -5.14 
473.38 -55.06 -4.96 
474.11 -54.81 -5.61 
474.26 -54.87 -5.04 
474.26 -54.87 -4.67 
474.16 -54.74 -1.03 
475.01 -55.06 -5.70 
475.01 -55.05 -5.36 
474.65 -55.09 -4.57 
475.56 -54.92 -5.64 
475.56 -54.91 -5.21 
475.56 -54.90 -4.58 
476.55 -55.37 -5.66 
476.70 -55.07 -5.11 
476.61 -55.23 -4.46 
476.65 -55.03 -3.43 
476.68 -55.28 -3.08 
476.69 -55.25 -2.23 
476.71 -55.08 -5.45 
477.19 -55.30 -5.14 
477.16 -55.28 -4.35 
477.08 -55.23 -3.76 
477.09 -55.26 -3.24 
477.67 -55.43 -4.32 
477.67 -55.43 -3.88 
477.42 -55.43 -3.03 
480.46 -55.41 -5.09 
480.47 -55.39 -4.68 
471.69 -54.33 -5.46 
471.68 -54.35 -4.99 
471.53 -54.63 -4.69 
472.42 -54.21 -5.61 
472.40 -54.23 -5.10 
472.39 -54.24 -4.60 
473.16 -54.12 -5.14 
472.94 -54.52 -4.63 
473.69 -54.26 -5.54 
473.69 -54.25 -5.14 
473.51 -54.33 -4.74 
473.51 -54.32 -4.03 
473.51 -54.30 -3.31 
473.52 -54.29 -2.60 
473.52 -54.28 -1.88 
473.52 -54.27 -1.16 
473.96 -54.22 -5.60 
474.07 -54.31 -4.90 
474.16 -54.09 -4.46 
474.15 -54.08 -3.87 
474.20 -53.96 -2.89 
474.16 -54.47 -2.15 
474.16 -54.46 -1.48 
474.16 -54.44 -0.80 
474.67 -54.26 -5.51 
474.94 -54.52 -4.94 
474.99 -54.41 -4.59 
475.36 -54.39 -5.68 
475.33 -54.44 -4.97 
476.06 -54.67 -5.72 
476.21 -54.36 -4.84 
476.09 -54.59 -4.40 
477.12 -54.29 -5.37 
476.90 -54.69 -4.48 
470.82 -53.50 -5.73 
471.86 -53.62 -5.59 
471.95 -53.84 -4.97 
471.88 -53.97 -4.68 
472.63 -53.81 -5.59 
472.66 -53.76 -5.08 
472.68 -53.71 -4.58 
473.18 -53.53 -3.88 
473.33 -53.63 -2.97 
473.16 -53.50 -2.23 
473.15 -53.48 -1.67 
473.68 -53.66 -5.44 
473.63 -53.87 -4.96 
473.65 -53.64 -4.40 
473.60 -53.84 -3.72 
473.59 -53.83 -3.10 
473.33 -53.62 -2.49 
473.56 -53.80 -1.84 
473.54 -53.78 -1.21 
474.22 -53.70 -5.58 
474.21 -53.71 -4.89 
474.29 -53.90 -4.64 
474.21 -53.97 -3.39 
474.20 -53.96 -2.89 
474.19 -53.95 -2.38 
474.18 -53.94 -1.87 
474.84 -53.73 -5.05 
474.84 -53.73 -4.69 
475.56 -54.00 -5.68 
475.68 -53.75 -5.35 
475.47 -53.49 -4.61 
476.59 -53.64 -5.69 
476.65 -53.51 -4.84 
476.57 -53.67 -4.70 
477.33 -53.83 -5.58 
477.29 -53.82 -5.03 
477.25 -53.80 -4.48 
471.20 -52.79 -5.71 
472.35 -53.07 -5.53 
472.34 -53.10 -4.95 
472.45 -52.87 -4.65 
473.11 -52.91 -5.53 
473.10 -52.93 -5.04 
473.09 -52.94 -4.56 
473.25 -52.66 -5.51 
473.24 -52.68 -5.03 
473.22 -52.70 -4.55 
474.32 -53.06 -5.54 
474.32 -53.04 -4.77 
475.27 -52.93 -5.06 
475.06 -53.32 -4.70 
475.64 -52.89 -5.50 
475.79 -52.87 -5.05 
475.77 -52.86 -4.62 
476.59 -53.24 -5.56 
476.31 -53.12 -4.91 
476.29 -53.12 -4.50 
471.58 -52.08 -5.68 
472.59 -52.22 -5.55 
472.58 -52.24 -4.91 
472.82 -52.20 -4.63 
473.51 -52.18 -5.49 
473.50 -52.20 -5.01 
473.55 -52.10 -4.53 
474.16 -52.24 -5.57 
474.15 -52.25 -5.07 
474.14 -52.27 -4.56 
474.80 -52.43 -5.49 
475.03 -52.45 -5.05 
474.83 -52.36 -4.62 
475.34 -52.61 -5.09 
473.06 -51.37 -5.55 
473.00 -51.86 -4.90 
473.17 -51.57 -4.61 
473.74 -51.77 -5.53 
473.71 -51.76 -5.01 
473.69 -51.76 -4.62 
473.97 -51.86 -5.50 
485.78 -50.55 -1.91 
486.70 -50.61 -1.55 
486.94 -50.70 -0.90 
487.39 -50.54 -2.01 
487.67 -50.85 -1.79 
470.59 -50.03 -5.57 
470.72 -50.12 -5.07 
471.34 -50.25 -5.50 
471.33 -50.25 -5.22 
471.63 -50.28 -4.26 
471.61 -50.29 -3.65 
471.44 -50.27 -2.85 
471.58 -50.30 -2.43 
471.57 -50.31 -1.82 
471.91 -50.40 -5.06 
471.89 -50.40 -4.70 
471.90 -50.45 -3.85 
482.58 -49.84 -1.10 
484.66 -49.98 -2.21 
484.75 -50.14 -1.39 
484.63 -50.01 -0.93 
485.51 -50.04 -2.21 
485.80 -49.99 -1.43 
485.90 -50.05 -2.02 
485.96 -49.97 -1.41 
485.97 -49.89 -1.17 
487.17 -49.91 -2.15 
486.76 -50.30 -1.47 
486.70 -50.16 -0.77 
487.42 -49.88 -1.50 
487.72 -49.99 0.56 
487.96 -50.13 -2.22 
488.90 -49.80 -2.10 
488.74 -49.95 -1.62 
489.35 -50.29 -2.33 
469.99 -49.57 -5.67 
470.73 -49.80 -5.57 
481.75 -49.17 -1.33 
482.09 -49.55 -1.09 
482.64 -49.27 -1.82 
482.90 -49.53 -1.13 
483.33 -49.34 -1.72 
483.02 -49.35 -1.02 
483.97 -49.34 -2.49 
484.25 -49.41 -1.74 
484.55 -49.42 -2.32 
485.10 -49.43 -0.96 
485.46 -49.53 -2.04 
485.67 -49.15 -1.45 
485.62 -49.23 -0.49 
486.03 -49.63 -2.41 
486.21 -49.40 -1.42 
486.34 -49.31 -1.19 
486.78 -49.65 -2.35 
486.94 -49.73 -1.48 
486.80 -49.61 -0.80 
487.41 -49.35 -2.27 
487.43 -49.31 -1.51 
487.25 -49.15 -0.80 
487.66 -49.42 -0.03 
487.96 -49.41 -2.98 
488.09 -49.68 -2.29 
488.25 -49.55 -1.82 
488.21 -49.49 0.21 
488.63 -49.33 -3.03 
488.90 -49.80 -2.10 
489.03 -49.50 -1.64 
489.35 -49.34 -2.76 
489.67 -49.27 -2.34 
490.22 -49.18 -1.75 
468.62 -49.03 -5.60 
469.94 -48.73 -5.67 
482.15 -48.99 -1.46 
482.96 -48.86 -1.84 
482.72 -48.58 -1.08 
483.44 -48.76 -2.56 
483.54 -48.98 -1.73 
483.53 -48.92 -1.19 
483.22 -48.57 0.00 
483.15 -48.49 0.17 
484.39 -48.64 -2.75 
484.02 -48.99 -2.41 
483.72 -48.60 -1.73 
483.74 -48.58 -1.20 
484.81 -49.12 -2.34 
484.45 -49.01 -1.75 
484.71 -48.61 -0.17 
485.02 -48.73 0.29 
485.39 -48.49 -2.38 
485.73 -49.10 -0.59 
485.34 -48.80 -0.31 
485.33 -48.81 0.18 
486.35 -49.08 -2.42 
485.92 -48.55 -1.46 
486.24 -48.49 -1.17 
486.30 -48.70 -0.54 
486.94 -48.90 -2.26 
486.77 -48.73 -1.49 
487.20 -48.98 -0.82 
487.36 -49.02 -2.86 
487.51 -48.72 -2.27 
487.74 -48.82 -1.52 
487.58 -48.68 -0.82 
487.43 -49.00 -0.27 
488.02 -49.01 -3.05 
488.38 -48.90 -2.23 
487.94 -48.89 -0.83 
489.13 -48.93 -2.17 
488.62 -48.63 -1.63 
489.54 -48.45 -2.20 
489.39 -48.48 -1.64 
490.03 -48.46 -2.14 
490.12 -48.82 -1.38 
490.12 -48.45 -0.93 
469.09 -48.38 -5.74 
470.55 -48.29 -5.66 
482.00 -48.39 -1.08 
482.59 -48.34 -1.50 
482.98 -48.23 -1.09 
483.35 -48.15 -2.80 
483.08 -48.35 -2.39 
483.16 -48.39 -1.85 
483.34 -47.93 -1.12 
484.22 -47.92 -2.65 
484.21 -47.92 -2.60 
484.07 -47.85 -1.74 
483.95 -48.23 -1.09 
484.83 -48.27 -2.85 
484.86 -47.82 -2.33 
484.42 -48.04 -1.26 
484.51 -48.38 -0.12 
485.66 -48.00 -2.71 
485.60 -48.10 -2.39 
485.74 -48.14 -0.99 
485.93 -47.82 -3.50 
485.84 -47.97 -2.86 
486.14 -47.94 -1.47 
485.74 -48.14 -0.99 
486.09 -48.40 -0.37 
487.20 -48.10 -2.27 
486.94 -48.39 -1.46 
486.89 -48.34 -0.68 
486.58 -47.89 -0.40 
487.66 -48.40 -2.87 
487.58 -47.76 -2.08 
488.28 -48.05 -2.12 
488.97 -48.12 -2.44 
488.78 -48.07 -1.63 
489.56 -48.24 -2.17 
489.97 -48.05 -1.82 
489.93 -47.93 -0.98 
489.49 -47.78 0.52 
490.06 -47.92 -2.14 
490.50 -48.43 -1.63 
490.29 -47.85 -0.96 
490.72 -48.03 -0.43 
482.89 -47.71 -1.42 
482.39 -47.42 -1.10 
483.40 -47.07 -2.28 
483.59 -47.14 -1.56 
483.56 -47.57 -1.13 
483.02 -47.20 -0.49 
484.13 -47.21 -2.84 
483.84 -47.39 -2.44 
483.94 -47.70 -1.25 
484.38 -47.40 -1.10 
484.70 -47.37 -3.08 
484.44 -47.38 -2.57 
484.55 -47.17 -1.76 
484.66 -47.27 -1.24 
485.50 -47.27 -2.87 
485.56 -47.57 -2.28 
485.38 -47.24 -1.83 
486.23 -47.33 -2.86 
485.82 -47.07 -2.35 
485.97 -47.10 -1.44 
485.91 -47.38 -1.13 
486.70 -47.55 -1.42 
487.68 -47.42 -2.26 
487.26 -47.47 -1.22 
488.29 -47.67 -2.79 
488.06 -47.70 -2.52 
488.08 -47.66 -1.53 
488.33 -47.14 -0.30 
488.54 -47.15 0.73 
489.04 -47.51 -2.27 
489.22 -47.24 -1.55 
488.72 -47.10 -0.84 
489.21 -47.62 -0.17 
489.00 -47.65 0.31 
489.32 -47.30 -2.23 
489.87 -47.35 -1.46 
489.55 -47.18 -0.91 
489.90 -47.26 0.11 
489.41 -47.13 0.29 
490.45 -47.69 -1.66 
490.15 -47.45 -0.87 
490.32 -47.41 -0.14 
490.14 -47.28 0.78 
490.16 -47.66 0.87 
491.92 -47.14 -2.49 
482.86 -46.47 -1.12 
483.35 -46.42 -1.41 
483.59 -46.60 -1.08 
483.31 -46.78 -0.51 
484.39 -46.85 -2.85 
484.31 -46.70 -2.09 
484.20 -46.47 -1.69 
484.30 -46.82 -1.06 
484.64 -46.95 -3.57 
484.71 -46.71 -2.98 
484.73 -46.96 -2.61 
484.82 -46.36 -1.75 
484.83 -46.59 -1.11 
485.71 -46.85 -2.92 
485.35 -46.60 -2.45 
485.58 -46.91 -1.83 
487.77 -46.51 -2.44 
488.28 -46.57 -2.19 
488.26 -46.54 -1.35 
488.08 -46.84 -0.81 
488.48 -46.87 -0.26 
489.22 -46.34 -3.78 
488.72 -46.63 -2.31 
488.92 -46.73 -1.57 
488.80 -46.51 -0.89 
489.15 -46.99 -0.52 
489.35 -46.49 -3.88 
489.66 -46.67 -3.08 
489.59 -46.61 -2.27 
489.63 -46.43 -1.81 
490.28 -46.55 -2.72 
490.35 -46.67 -2.64 
490.49 -46.72 -1.92 
490.93 -46.53 -2.29 
491.04 -46.38 -1.73 
491.83 -46.61 -2.42 
483.02 -46.22 -0.78 
484.10 -46.08 -2.15 
484.28 -46.12 -1.90 
484.69 -46.16 -2.84 
484.86 -45.80 -2.63 
484.96 -45.95 -1.74 
484.79 -45.79 -1.46 
485.71 -46.13 -2.21 
485.17 -46.18 -1.24 
486.23 -45.71 -0.21 
486.85 -45.73 -1.28 
487.85 -46.09 -3.04 
487.74 -45.72 -2.50 
487.81 -45.70 -1.29 
488.44 -45.79 -5.37 
488.49 -45.80 -4.60 
488.53 -45.69 -2.77 
488.24 -45.87 -2.16 
488.42 -45.90 -1.70 
488.87 -46.15 -5.26 
489.15 -45.73 -4.32 
488.92 -45.77 -3.90 
489.02 -45.94 -2.96 
488.87 -45.84 -2.33 
489.11 -46.24 -1.59 
488.97 -46.21 -1.09 
489.61 -45.94 -5.26 
489.62 -45.93 -4.53 
489.54 -45.85 -3.80 
489.60 -45.88 -3.07 
489.78 -46.16 -2.49 
490.01 -45.77 -1.25 
489.70 -45.75 -1.08 
490.05 -46.18 -4.32 
490.34 -45.82 -3.69 
490.28 -45.74 -3.10 
490.52 -45.90 -2.41 
490.61 -45.94 -1.72 
490.68 -45.78 -0.81 
490.37 -45.64 -0.20 
490.49 -45.71 0.52 
491.42 -45.87 -2.35 
491.35 -45.95 -1.74 
491.17 -46.02 -1.08 
491.55 -46.31 -2.29 
491.50 -46.04 -1.09 
492.29 -45.75 -3.86 
483.38 -45.01 -2.05 
483.68 -45.39 -1.46 
484.23 -45.37 -1.45 
484.20 -45.58 -1.19 
484.89 -45.29 -2.55 
484.48 -45.16 -1.50 
484.98 -45.33 -0.79 
485.71 -44.95 -2.31 
485.70 -45.56 -1.62 
485.49 -45.15 -1.01 
485.20 -45.14 -0.47 
486.37 -44.93 -2.34 
486.40 -45.28 -1.40 
485.97 -45.55 -0.77 
485.92 -45.33 -0.16 
486.66 -45.07 -3.52 
486.92 -45.03 -2.82 
486.90 -45.01 -2.33 
486.90 -45.12 -1.86 
487.68 -44.98 -3.52 
487.59 -45.17 -3.28 
487.54 -45.20 -2.20 
487.44 -45.32 -1.45 
487.42 -45.59 -1.06 
488.31 -45.10 -5.29 
488.48 -45.23 -4.31 
488.40 -45.22 -4.00 
488.39 -45.47 -2.86 
488.14 -45.50 -2.32 
488.04 -45.12 -1.61 
488.22 -45.46 -1.15 
488.87 -45.30 -5.19 
488.83 -45.31 -4.42 
489.12 -45.56 -3.66 
489.03 -45.13 -3.05 
489.26 -45.09 -2.43 
488.86 -45.44 -1.63 
489.07 -45.17 -1.17 
489.22 -45.25 -0.31 
489.43 -45.26 -5.21 
489.72 -45.43 -4.47 
489.71 -45.39 -3.54 
489.82 -45.33 -3.13 
489.70 -45.10 -2.31 
489.63 -45.11 -1.54 
489.88 -45.53 -0.91 
489.84 -45.14 -0.07 
489.82 -45.13 0.28 
490.10 -45.11 -3.77 
490.04 -45.37 -2.78 
490.31 -45.05 -2.17 
490.10 -45.48 -1.62 
490.16 -45.09 -0.85 
490.12 -45.23 0.31 
491.18 -45.31 -4.02 
491.00 -45.35 -2.26 
491.00 -45.36 -1.92 
491.34 -45.63 -0.91 
490.75 -45.21 0.11 
491.18 -45.62 0.33 
491.96 -44.96 -5.13 
491.94 -45.07 -4.34 
491.95 -45.08 -3.91 
491.98 -45.09 -3.03 
492.07 -44.95 -2.59 
491.72 -45.55 0.12 
492.42 -45.00 -5.10 
492.35 -45.08 -4.38 
492.34 -45.15 -3.71 
492.37 -45.10 -3.10 
492.26 -45.09 -2.44 
482.23 -44.44 -2.30 
482.60 -44.69 -1.96 
483.10 -44.64 -2.14 
483.22 -44.24 -1.90 
484.35 -44.37 -1.98 
484.25 -44.34 -1.45 
484.71 -44.64 -2.76 
484.43 -44.41 -2.53 
484.93 -44.55 -1.84 
484.73 -44.76 -1.10 
485.64 -44.40 -4.40 
485.59 -44.18 -3.74 
485.45 -44.29 -2.95 
485.33 -44.36 -2.41 
485.48 -44.79 -1.62 
485.47 -44.91 -1.18 
485.62 -44.53 0.15 
486.37 -44.38 -5.12 
486.36 -44.58 -4.28 
486.16 -44.58 -3.76 
486.26 -44.65 -3.17 
485.86 -44.71 -2.24 
486.08 -44.61 -1.46 
486.00 -44.80 -1.12 
485.87 -44.56 -0.14 
487.06 -44.59 -5.23 
486.79 -44.47 -4.28 
486.88 -44.53 -3.79 
486.89 -44.58 -3.06 
486.79 -44.46 -2.23 
487.19 -44.74 -1.84 
487.65 -44.53 -5.12 
487.45 -44.72 -4.36 
487.66 -44.65 -3.99 
487.83 -44.51 -3.25 
487.26 -44.37 -2.39 
487.29 -44.34 -1.35 
488.39 -44.53 -5.11 
488.13 -44.52 -4.11 
488.13 -44.52 -4.11 
488.48 -44.61 -3.03 
488.43 -44.50 -2.40 
488.08 -44.26 -1.63 
488.27 -44.32 -0.99 
488.45 -44.35 -0.44 
489.05 -44.66 -5.04 
488.97 -44.53 -4.37 
488.93 -44.78 -3.63 
489.03 -44.69 -2.82 
488.81 -44.56 -2.10 
488.95 -44.60 -1.64 
488.68 -44.33 -1.10 
489.79 -44.74 -5.25 
489.39 -44.85 -4.71 
489.47 -44.27 -3.85 
489.37 -44.74 -3.08 
489.37 -44.84 -2.24 
489.76 -44.72 -1.53 
489.45 -44.82 -1.14 
490.55 -44.41 -5.18 
490.57 -44.42 -4.67 
490.24 -44.28 -3.84 
490.36 -44.20 -3.43 
491.14 -44.55 -5.16 
491.12 -44.41 -4.47 
491.03 -44.63 -3.87 
491.16 -44.42 -3.03 
491.01 -44.61 -2.50 
491.07 -44.45 -1.93 
491.68 -44.62 -5.12 
491.85 -44.75 -4.47 
491.62 -44.60 -3.66 
491.71 -44.66 -3.19 
491.71 -44.81 -2.56 
492.47 -44.74 -5.02 
492.32 -44.64 -4.29 
492.34 -44.82 -3.61 
492.24 -44.46 -2.74 
492.43 -44.70 -2.44 
481.59 -43.82 -2.43 
481.99 -43.83 -2.00 
482.45 -43.82 -2.32 
482.97 -43.60 -1.93 
483.54 -43.93 -2.08 
483.49 -43.79 -1.68 
484.38 -43.88 -2.73 
484.25 -43.86 -2.26 
484.05 -44.01 -1.56 
484.86 -43.56 -5.15 
484.91 -43.69 -4.42 
484.66 -43.80 -3.52 
484.72 -43.85 -3.09 
484.60 -44.06 -2.19 
484.93 -43.68 -1.01 
485.30 -43.84 -5.25 
485.56 -43.87 -4.32 
485.56 -43.97 -3.87 
485.46 -44.05 -3.18 
485.65 -43.84 -1.84 
485.59 -43.88 -0.19 
485.97 -44.07 -5.10 
486.17 -44.06 -4.36 
486.39 -43.94 -3.77 
485.91 -43.71 -3.05 
486.14 -43.58 -2.49 
486.35 -43.59 -1.64 
486.88 -44.03 -5.27 
486.89 -44.03 -4.28 
486.91 -44.17 -3.88 
486.73 -43.76 -2.89 
486.77 -43.79 -2.45 
486.92 -43.80 -1.81 
487.07 -44.00 -0.80 
487.44 -43.91 -5.20 
487.43 -43.77 -4.61 
487.73 -43.94 -4.02 
487.28 -44.05 -2.65 
487.57 -43.89 -2.39 
487.53 -43.89 -1.82 
488.25 -43.95 -5.02 
488.48 -43.87 -4.42 
488.57 -43.76 -3.91 
488.26 -44.16 -2.76 
488.16 -44.15 -2.30 
488.13 -44.04 -1.37 
488.09 -44.11 -1.03 
489.19 -43.84 -5.07 
488.85 -43.87 -4.45 
489.14 -43.80 -3.86 
489.64 -43.67 -4.99 
489.73 -43.67 -4.43 
489.58 -43.87 -3.79 
489.77 -43.68 -3.20 
489.35 -43.68 -1.98 
490.31 -43.94 -5.16 
490.31 -43.97 -4.43 
490.21 -44.02 -3.69 
490.24 -43.98 -3.17 
490.80 -44.15 -5.17 
490.74 -44.23 -4.71 
490.88 -43.79 -3.79 
490.72 -44.17 -3.21 
491.51 -44.21 -4.69 
492.07 -44.01 -3.50 
492.01 -44.08 -2.54 
492.56 -43.62 -4.80 
492.56 -43.62 -4.36 
492.29 -43.60 -3.49 
492.17 -43.93 -3.17 
492.37 -43.73 -2.60 
480.47 -42.87 -2.69 
480.69 -43.16 -2.33 
481.00 -42.90 -2.83 
481.42 -43.01 -2.05 
481.68 -43.08 -1.72 
481.68 -43.08 -1.72 
482.58 -43.10 -2.81 
482.68 -43.32 -2.52 
483.26 -43.26 -2.12 
483.77 -43.41 -2.21 
484.31 -42.92 -1.80 
484.19 -42.84 -1.01 
485.07 -43.15 -2.73 
484.72 -42.91 -1.50 
484.76 -43.05 -1.04 
484.86 -43.50 -0.29 
485.38 -43.39 -5.15 
485.69 -43.37 -4.44 
485.69 -43.36 -3.63 
485.59 -43.34 -3.16 
485.64 -43.38 -2.36 
485.28 -43.26 -1.83 
485.49 -43.42 -1.22 
485.23 -43.41 -0.47 
486.22 -43.28 -5.23 
485.96 -43.02 -4.41 
486.50 -43.20 -3.95 
485.84 -43.33 -2.83 
486.14 -43.58 -2.49 
485.82 -43.52 -1.66 
486.58 -43.15 -5.22 
486.78 -43.15 -4.21 
487.08 -43.23 -4.04 
486.95 -43.46 -2.36 
486.67 -43.19 -0.78 
486.70 -43.20 -0.12 
487.73 -43.02 -5.04 
487.50 -43.04 -4.29 
488.45 -43.00 -5.15 
488.26 -43.23 -4.37 
488.22 -42.98 -3.77 
488.91 -43.21 -5.22 
488.93 -43.24 -4.39 
488.96 -43.26 -3.72 
488.88 -43.21 -3.37 
489.12 -43.33 -2.13 
489.50 -43.52 -5.18 
489.70 -43.30 -4.45 
489.80 -43.18 -3.87 
489.43 -43.50 -3.29 
489.62 -43.42 -1.98 
489.90 -43.18 -1.98 
489.73 -42.86 0.34 
490.35 -43.13 -5.02 
490.13 -43.06 -4.23 
490.16 -43.27 -3.78 
490.68 -42.92 -2.00 
490.62 -42.95 0.44 
491.07 -43.26 -5.14 
490.89 -43.34 -4.67 
490.90 -43.16 -3.44 
491.07 -43.15 -3.15 
490.76 -43.19 -1.94 
491.77 -42.73 -5.14 
492.03 -42.89 -4.08 
491.92 -43.09 -3.53 
491.65 -43.29 -3.33 
491.74 -42.88 -2.16 
491.74 -42.96 -1.93 
492.40 -43.07 -5.16 
492.56 -42.91 -4.44 
492.38 -43.08 -3.64 
492.43 -43.12 -3.19 
492.46 -43.31 -2.57 
480.20 -42.56 -1.98 
480.73 -42.36 -2.63 
480.71 -42.48 -1.78 
481.29 -42.34 -2.78 
481.52 -42.67 -1.49 
482.64 -42.41 -2.20 
482.68 -42.18 -1.63 
483.34 -42.50 -1.65 
484.23 -42.78 -2.09 
484.08 -42.35 -1.49 
484.96 -42.28 -4.33 
484.46 -42.69 -2.18 
484.94 -42.68 -1.81 
484.58 -42.32 -1.16 
485.45 -42.35 -4.88 
485.45 -42.56 -4.20 
485.82 -42.62 -5.18 
486.35 -42.18 -4.74 
487.04 -42.44 -5.19 
486.84 -42.41 -4.67 
487.09 -42.72 -4.04 
487.50 -42.30 -5.09 
487.57 -42.46 -4.66 
487.69 -42.46 -3.91 
488.46 -42.51 -5.08 
488.43 -42.37 -4.29 
488.14 -42.36 -3.97 
488.97 -42.50 -5.00 
488.95 -42.43 -4.46 
489.00 -42.40 -4.09 
488.63 -42.59 -2.16 
489.62 -42.20 -5.00 
489.52 -42.38 -4.29 
489.46 -42.19 -3.91 
489.60 -42.82 -2.18 
490.60 -42.16 -4.93 
490.46 -42.80 -4.19 
490.66 -42.19 -3.78 
490.61 -42.14 -3.30 
490.32 -42.61 -1.89 
490.54 -42.55 -2.03 
490.30 -42.20 0.35 
491.16 -42.41 -5.13 
491.17 -42.43 -4.20 
491.06 -42.40 -3.70 
491.18 -42.45 -3.26 
490.96 -42.62 -1.94 
490.96 -42.62 -1.94 
491.68 -42.38 -5.01 
491.75 -42.29 -4.40 
491.63 -42.69 -3.68 
491.74 -42.42 -3.19 
491.98 -42.64 -1.69 
492.31 -42.69 -5.16 
492.39 -42.45 -4.21 
492.31 -42.69 -3.65 
492.21 -42.68 -3.24 
492.15 -42.33 -2.17 
492.39 -42.62 -1.84 
480.72 -41.95 -2.95 
480.93 -42.10 -2.59 
482.65 -41.93 -1.73 
483.21 -41.81 -1.63 
483.58 -41.54 -1.06 
483.68 -41.67 -0.50 
484.30 -41.55 -4.16 
484.24 -41.63 -2.14 
484.12 -41.60 -1.43 
484.08 -41.90 -1.08 
485.10 -41.88 -4.76 
485.01 -42.01 -4.09 
484.49 -41.44 -2.31 
484.50 -41.98 -1.89 
484.85 -42.05 -1.15 
485.23 -42.05 -5.46 
485.54 -41.98 -5.11 
485.59 -41.62 -4.41 
485.40 -41.69 -3.88 
485.24 -42.13 -1.35 
486.45 -41.60 -5.46 
486.07 -41.76 -4.98 
485.97 -41.80 -4.26 
486.50 -41.63 -3.96 
486.80 -41.98 -5.06 
486.78 -41.92 -4.45 
486.68 -41.96 -4.12 
487.42 -41.76 -5.29 
487.64 -42.02 -4.66 
487.42 -41.97 -3.82 
488.41 -41.95 -5.32 
488.18 -41.73 -4.26 
488.41 -42.13 -4.04 
488.94 -42.09 -5.10 
488.90 -42.10 -4.42 
489.23 -41.45 -3.80 
489.87 -41.43 -5.07 
489.85 -41.52 -4.53 
489.74 -41.70 -3.77 
489.84 -41.43 -3.02 
489.54 -41.59 -2.48 
489.98 -41.94 -1.89 
489.70 -41.97 0.62 
489.59 -41.87 0.87 
490.36 -41.65 -5.05 
490.34 -41.67 -4.53 
490.26 -41.63 -3.61 
490.34 -41.66 -3.12 
490.07 -41.87 -2.43 
490.99 -41.98 -5.03 
490.98 -41.89 -4.41 
490.96 -41.90 -3.59 
490.97 -41.99 -3.14 
491.97 -41.63 -5.04 
491.84 -41.69 -4.58 
491.91 -41.64 -3.70 
491.80 -41.84 -3.14 
492.45 -41.80 -4.62 
492.19 -41.54 -4.00 
492.52 -41.86 -3.34 
481.96 -40.81 -0.99 
482.08 -40.81 -0.09 
482.74 -40.80 -2.30 
482.56 -40.77 -1.57 
482.39 -40.75 -0.85 
483.43 -40.75 -4.10 
483.52 -41.00 -3.48 
483.36 -40.79 -3.23 
483.09 -41.21 -1.74 
483.14 -40.83 -1.12 
484.22 -40.84 -5.13 
483.82 -40.81 -4.11 
483.96 -41.04 -3.46 
483.83 -41.18 -2.99 
483.82 -41.20 -2.51 
484.21 -40.77 -1.85 
484.22 -41.09 -0.58 
484.67 -40.82 -5.01 
484.66 -40.98 -4.47 
484.50 -41.19 -3.88 
484.44 -41.07 -0.80 
485.28 -41.13 -4.56 
485.70 -41.07 -3.90 
486.17 -41.13 -5.37 
486.27 -41.01 -4.26 
486.16 -40.99 -4.02 
485.99 -40.88 0.15 
487.16 -41.32 -5.21 
486.84 -41.17 -4.28 
487.15 -41.03 -1.96 
487.45 -40.88 -4.78 
487.45 -41.31 -4.61 
487.52 -41.32 -4.03 
488.33 -40.93 -4.88 
488.22 -40.91 -4.46 
488.20 -40.91 -3.79 
488.16 -40.80 -3.02 
488.16 -40.81 -2.39 
489.02 -40.99 -5.02 
489.09 -41.03 -4.44 
488.87 -41.10 -3.70 
488.97 -40.98 -2.99 
489.05 -41.04 -2.53 
489.59 -41.27 -5.02 
489.56 -41.27 -4.26 
489.64 -41.26 -3.70 
489.58 -41.30 -3.01 
489.60 -41.42 0.58 
489.66 -41.23 0.96 
490.62 -41.05 -4.75 
490.62 -41.04 -4.29 
490.62 -41.04 -3.99 
490.30 -41.36 -3.11 
491.22 -40.82 -4.64 
491.13 -40.98 -3.96 
491.50 -41.02 -5.15 
491.77 -41.15 -4.77 
491.77 -41.16 -3.96 
491.88 -41.34 -3.37 
492.33 -40.93 -5.06 
492.33 -40.94 -4.62 
492.31 -40.95 -3.73 
492.28 -40.97 -3.10 
481.51 -40.27 -2.28 
481.41 -40.29 -1.92 
482.14 -40.15 -4.11 
481.94 -40.04 -3.42 
481.95 -40.05 -3.06 
481.99 -40.36 -2.34 
481.95 -40.60 -1.88 
482.20 -40.72 -0.13 
482.71 -40.14 -5.12 
482.82 -40.20 -4.40 
482.52 -40.19 -3.86 
482.77 -40.47 -3.11 
482.42 -40.60 -2.28 
482.56 -40.41 -1.83 
482.92 -40.20 -1.16 
483.57 -40.30 -5.01 
483.43 -40.49 -4.40 
483.27 -40.55 -3.79 
483.46 -40.23 -2.98 
483.55 -40.21 -2.49 
483.20 -40.14 -1.41 
483.03 -40.46 -1.03 
484.24 -40.43 -5.00 
484.04 -40.46 -4.66 
484.07 -40.34 -3.83 
484.06 -40.33 -3.07 
483.95 -40.32 -2.58 
484.18 -40.37 -1.90 
484.39 -40.42 -1.20 
484.43 -40.41 -5.00 
484.66 -40.39 -4.37 
484.41 -40.32 -3.59 
484.43 -40.51 -3.21 
484.54 -40.37 -0.85 
485.61 -40.73 -5.00 
485.46 -40.44 -4.39 
485.30 -40.56 -3.85 
485.76 -40.28 -0.38 
486.02 -40.12 -0.20 
487.05 -40.18 -5.23 
486.96 -40.14 -4.37 
486.99 -40.28 -3.79 
487.03 -39.97 -2.97 
487.61 -40.24 -5.11 
487.66 -40.27 -4.47 
487.64 -40.28 -3.67 
487.56 -40.25 -3.00 
487.53 -40.47 -2.44 
488.20 -40.57 -5.13 
488.26 -40.59 -4.46 
488.24 -40.59 -3.65 
488.27 -40.57 -3.02 
489.52 -40.60 -3.33 
489.50 -40.53 -2.44 
490.26 -40.12 -4.31 
490.04 -40.53 -3.99 
491.09 -40.14 -4.76 
490.85 -40.60 -4.28 
491.09 -40.13 -3.95 
491.74 -40.49 -4.77 
491.78 -40.46 -4.24 
491.77 -40.46 -3.93 
492.40 -40.36 -5.22 
492.39 -40.37 -4.59 
492.27 -40.36 -3.85 
492.49 -40.33 -3.26 
481.54 -39.65 -4.14 
481.41 -39.54 -3.79 
481.24 -39.87 -3.13 
480.99 -39.93 -2.30 
481.66 -39.59 -5.19 
482.03 -39.86 -4.10 
481.91 -39.88 -3.73 
481.93 -39.89 -3.35 
481.79 -39.94 -2.60 
482.26 -39.78 -1.76 
482.59 -39.53 -4.92 
482.56 -39.57 -4.48 
482.84 -39.61 -3.79 
483.00 -39.86 -3.11 
482.71 -39.85 -1.63 
482.98 -39.94 -1.05 
483.29 -39.73 -5.00 
483.26 -39.80 -4.44 
483.30 -39.71 -3.65 
483.47 -39.72 -2.99 
483.33 -39.76 -2.17 
483.13 -39.76 -1.42 
482.98 -39.94 -1.05 
483.90 -39.79 -5.29 
483.83 -40.04 -4.13 
483.83 -40.01 -3.88 
483.71 -39.90 -1.64 
483.84 -39.93 -1.03 
484.51 -39.93 -0.86 
485.73 -39.63 -3.85 
486.43 -39.63 -5.26 
486.34 -39.54 -4.48 
486.28 -39.83 -3.83 
486.41 -39.63 -3.22 
486.86 -39.86 -5.08 
486.77 -39.82 -4.32 
486.83 -39.86 -3.78 
486.86 -39.88 -3.04 
487.63 -39.72 -3.02 
488.14 -39.94 -2.58 
490.48 -39.70 -4.30 
491.36 -39.65 -5.26 
492.10 -39.87 -5.20 
492.09 -39.86 -4.71 
492.09 -39.86 -3.90 
492.42 -39.96 -4.76 
492.56 -39.80 -4.59 
492.56 -39.80 -3.84 
