# .PCD v0.7 - Point Cloud Data file format
VERSION 0.7
FIELDS x y z
SIZE 4 4 4
TYPE F F F
COUNT 1 1 1
WIDTH 607
HEIGHT 1
VIEWPOINT 0 0 0 1 0 0 0
POINTS 607
DATA ascii
480.43 -38.85 -1.86 
481.72 -39.38 -4.93 
481.55 -39.19 -4.56 
481.63 -39.21 -3.76 
481.42 -39.19 -3.20 
481.60 -38.96 -2.68 
481.55 -38.85 -1.96 
482.05 -38.93 -5.13 
482.17 -39.00 -4.30 
482.25 -39.11 -4.10 
482.09 -39.24 -3.14 
482.20 -39.35 -2.46 
482.34 -39.28 -1.70 
482.86 -39.07 -5.18 
482.85 -39.32 -4.35 
482.71 -39.16 -3.99 
482.75 -39.27 -2.88 
482.58 -39.33 -2.33 
482.55 -39.34 -1.78 
482.73 -39.29 -1.34 
483.12 -39.36 -0.11 
483.25 -39.21 -4.99 
483.33 -39.16 -4.80 
483.30 -39.49 -1.54 
483.31 -39.09 -0.77 
484.33 -39.21 -4.81 
484.09 -39.03 -4.31 
484.04 -39.01 -1.49 
483.87 -39.00 -0.75 
484.86 -39.15 -4.90 
484.85 -39.15 -4.53 
484.84 -39.16 -4.03 
485.58 -39.20 -5.18 
485.78 -39.30 -4.51 
485.56 -39.20 -3.89 
485.71 -39.28 -3.35 
486.35 -39.52 -5.11 
486.19 -39.51 -4.50 
486.17 -39.52 -3.59 
486.16 -39.52 -3.20 
486.32 -39.19 -0.02 
486.10 -39.26 0.32 
486.70 -38.83 -5.19 
487.35 -39.07 -4.48 
486.59 -39.07 -3.82 
487.35 -39.07 -4.48 
489.63 -38.86 -2.82 
490.75 -39.12 -4.28 
490.75 -39.12 -3.93 
491.63 -39.10 -4.76 
491.63 -39.09 -3.90 
492.44 -39.21 -5.22 
492.43 -39.20 -4.21 
492.43 -39.20 -3.87 
476.13 -38.21 -1.74 
479.63 -38.33 -2.13 
479.62 -38.35 -1.63 
480.29 -38.81 -1.71 
480.93 -38.25 -5.39 
480.89 -38.22 -4.45 
480.65 -38.51 -3.90 
481.26 -38.41 -4.92 
481.39 -38.60 -4.23 
481.54 -38.54 -4.01 
481.51 -38.85 -2.33 
481.28 -38.65 -1.85 
482.01 -38.54 -4.91 
482.29 -38.32 -4.43 
482.22 -38.21 -3.99 
482.67 -38.44 -5.14 
482.97 -38.39 -4.51 
482.74 -38.40 -3.96 
482.90 -38.16 -1.40 
483.10 -38.56 -1.28 
483.57 -38.17 -4.91 
483.32 -38.55 -4.66 
483.21 -38.27 -4.02 
483.66 -38.68 -1.34 
483.36 -38.65 -0.77 
483.99 -38.38 -4.83 
483.95 -38.56 -4.29 
484.01 -38.14 -4.00 
485.70 -38.14 -5.18 
485.26 -38.62 -4.49 
485.65 -38.76 1.11 
486.15 -38.64 -5.28 
486.12 -38.79 -4.33 
486.12 -38.70 -3.86 
486.33 -38.30 -3.36 
485.99 -38.61 0.31 
487.05 -38.16 -5.21 
487.05 -38.15 -4.45 
487.04 -38.15 -3.69 
486.90 -38.59 -3.15 
487.66 -38.50 -5.20 
487.93 -38.13 -4.40 
487.53 -38.58 -3.80 
487.71 -38.60 -2.77 
488.55 -38.47 -2.76 
489.45 -38.35 -2.66 
491.01 -38.65 -4.82 
491.00 -38.64 -4.27 
491.00 -38.63 -3.91 
491.93 -38.52 -4.23 
491.93 -38.51 -3.87 
474.38 -37.57 -2.25 
474.41 -37.63 -1.98 
474.81 -37.49 -2.18 
476.06 -37.88 -1.74 
479.16 -38.12 -2.18 
479.28 -37.95 -1.67 
479.62 -37.67 -1.28 
480.02 -37.49 -5.31 
479.73 -37.85 -1.20 
480.66 -37.94 -5.21 
480.43 -38.05 -4.25 
481.56 -38.10 -5.16 
481.36 -37.54 -4.19 
481.65 -37.84 -3.95 
482.27 -37.62 -5.21 
482.00 -37.39 -4.41 
482.32 -37.96 -4.04 
482.67 -37.69 -5.40 
482.89 -37.86 -4.53 
482.80 -37.47 -4.01 
483.38 -37.54 -5.19 
483.35 -37.61 -4.23 
483.38 -37.68 -3.86 
483.86 -38.11 -4.91 
484.30 -37.96 -3.87 
485.70 -38.14 -5.18 
485.73 -38.08 -4.49 
485.77 -38.00 -3.79 
485.89 -38.03 0.76 
485.54 -37.93 1.03 
486.00 -37.60 -5.21 
485.99 -37.61 -4.75 
485.97 -37.64 -3.85 
485.96 -37.66 -3.39 
486.53 -37.79 -2.67 
485.97 -37.49 1.14 
487.16 -38.03 -5.07 
486.67 -37.74 -4.73 
486.67 -37.73 -3.98 
486.96 -37.62 -2.86 
487.95 -37.95 -4.45 
487.68 -37.87 -3.81 
487.63 -37.57 -3.07 
488.28 -37.48 -5.21 
488.24 -37.96 -4.59 
488.22 -37.98 -3.74 
488.21 -37.99 -3.32 
488.70 -37.64 -2.67 
488.77 -38.04 -2.93 
488.85 -37.50 -2.61 
489.97 -37.77 -2.71 
489.87 -37.70 -2.63 
490.25 -37.44 -3.07 
491.27 -38.12 -3.89 
491.56 -37.59 -4.83 
491.56 -37.58 -4.25 
492.24 -37.98 -3.84 
492.25 -37.99 -4.77 
473.08 -36.92 -2.21 
473.90 -37.09 -2.30 
473.70 -37.34 -1.74 
474.59 -36.73 -3.25 
474.25 -36.82 -2.19 
474.61 -36.85 -1.88 
474.97 -36.73 -4.93 
475.05 -37.13 -2.20 
474.94 -36.96 -1.81 
475.62 -37.31 -1.92 
478.54 -36.82 -1.75 
478.74 -36.83 -1.25 
479.22 -37.35 -1.83 
478.96 -37.20 -1.22 
480.53 -37.17 -4.08 
480.52 -37.31 -3.96 
481.66 -37.12 -5.19 
481.46 -37.09 -4.58 
481.70 -36.90 -3.89 
482.18 -37.30 -5.18 
482.05 -37.07 -4.48 
482.01 -37.08 -3.95 
483.01 -37.27 -5.19 
482.80 -36.78 -4.78 
482.93 -37.10 -3.99 
483.38 -37.18 -5.42 
483.92 -37.19 -4.21 
485.82 -36.86 -3.69 
485.46 -37.30 1.02 
486.45 -36.76 -4.26 
486.43 -36.77 -3.79 
486.19 -37.23 -3.36 
487.00 -36.99 -3.25 
487.43 -37.40 -4.91 
487.43 -37.40 -4.43 
487.43 -37.40 -3.62 
487.89 -37.24 -2.74 
488.26 -36.82 -5.20 
488.25 -36.83 -4.37 
488.24 -36.84 -3.54 
488.72 -37.06 -3.24 
489.35 -36.97 -2.54 
489.51 -36.86 -2.87 
490.56 -37.16 -2.62 
491.86 -37.01 -5.04 
491.86 -37.00 -4.24 
491.86 -37.00 -3.83 
492.59 -37.31 -4.20 
492.59 -37.31 -3.81 
473.25 -36.67 -2.21 
473.79 -36.28 -5.22 
473.96 -36.32 -4.24 
473.96 -36.14 -3.68 
473.94 -36.27 -3.26 
473.55 -36.41 -2.42 
473.70 -36.60 -1.74 
474.46 -36.53 -5.03 
474.26 -36.53 -4.46 
474.47 -36.53 -3.78 
474.47 -36.54 -2.97 
474.48 -36.22 -2.29 
474.43 -36.54 -1.97 
475.18 -36.37 -2.24 
475.57 -36.36 -2.22 
478.32 -36.44 -1.77 
478.91 -36.04 -1.30 
479.03 -36.56 -1.35 
479.00 -36.48 -1.30 
480.76 -36.39 -4.52 
480.96 -36.42 -4.03 
481.28 -36.42 -5.18 
481.65 -36.38 -4.11 
481.33 -36.53 -3.88 
482.23 -36.64 -4.97 
482.29 -36.39 -4.69 
482.15 -36.65 -3.93 
482.74 -36.49 -4.75 
486.52 -36.27 -5.21 
486.51 -36.28 -4.43 
486.14 -36.27 -3.66 
487.33 -36.48 -5.22 
487.33 -36.46 -4.23 
487.34 -36.45 -3.90 
487.25 -36.52 -3.21 
487.62 -36.46 -5.02 
487.60 -36.48 -4.36 
487.87 -36.55 -3.89 
487.76 -36.40 -2.80 
488.48 -36.20 -3.67 
488.39 -36.49 -2.99 
488.38 -36.72 -2.67 
488.87 -36.18 -5.16 
488.86 -36.20 -4.41 
489.00 -36.55 -4.10 
488.98 -36.57 -3.20 
488.89 -36.16 -2.60 
489.92 -36.25 -2.83 
489.87 -36.42 -2.46 
490.51 -36.25 -2.96 
490.74 -36.38 -2.56 
492.19 -36.39 -5.05 
492.18 -36.38 -4.63 
492.18 -36.37 -3.81 
470.12 -35.54 -2.39 
470.68 -35.86 -2.34 
471.95 -35.45 -5.11 
471.52 -35.57 -2.28 
472.68 -35.43 -5.18 
472.57 -35.50 -4.58 
472.42 -35.78 -3.77 
472.29 -35.40 -3.21 
472.15 -35.81 -2.12 
472.55 -35.80 -2.00 
473.15 -35.77 -5.00 
473.16 -35.88 -4.45 
473.13 -35.78 -3.72 
473.13 -35.78 -2.86 
472.75 -35.48 -2.12 
473.49 -36.02 -4.98 
473.49 -36.02 -4.59 
473.49 -36.02 -4.08 
473.94 -35.65 -2.16 
473.42 -35.96 -1.95 
474.43 -35.74 -2.31 
474.89 -35.87 -2.19 
477.54 -35.69 -1.03 
478.85 -35.54 -1.37 
478.43 -35.89 -1.26 
486.51 -35.93 -5.17 
486.48 -35.98 -3.75 
486.81 -35.66 -5.20 
486.91 -35.86 -3.24 
487.53 -36.01 -4.20 
487.93 -35.93 -3.67 
488.04 -35.48 -3.11 
488.36 -35.60 -4.92 
488.36 -35.59 -4.38 
488.22 -35.38 -3.64 
488.12 -35.78 -2.77 
489.19 -35.58 -5.15 
489.27 -35.56 -4.33 
488.80 -35.61 -3.64 
489.32 -35.33 -2.90 
489.44 -35.57 -2.52 
489.53 -35.50 -4.52 
489.52 -35.51 -4.05 
489.75 -35.42 -3.09 
490.03 -35.99 -2.51 
490.34 -35.63 -2.80 
490.42 -35.84 -2.39 
491.13 -35.69 -2.53 
492.53 -35.72 -5.06 
492.53 -35.72 -4.63 
469.67 -35.04 -5.14 
469.72 -35.04 -3.23 
469.51 -34.68 -2.45 
469.97 -34.70 -5.26 
469.95 -34.68 -4.39 
469.93 -34.65 -3.51 
470.11 -34.64 -3.07 
470.44 -35.06 -2.39 
471.19 -34.93 -2.33 
471.84 -35.06 -5.31 
471.83 -35.06 -4.14 
471.74 -35.13 -3.79 
471.74 -35.14 -3.01 
471.83 -35.07 -2.65 
472.09 -35.25 -5.12 
472.01 -35.18 -4.58 
472.08 -35.26 -3.81 
471.99 -35.24 -3.02 
472.07 -35.27 -2.48 
472.66 -35.12 -5.42 
472.68 -35.15 -4.59 
473.04 -35.04 -2.09 
473.52 -35.04 -2.08 
474.24 -35.31 -2.46 
477.05 -34.90 -0.89 
477.57 -34.76 -1.01 
478.40 -34.83 -3.52 
478.57 -34.95 -1.19 
479.07 -35.06 -1.34 
479.07 -35.06 -1.34 
487.14 -35.05 -5.19 
487.54 -34.77 -4.66 
487.61 -35.15 -3.64 
487.72 -34.75 -3.13 
488.64 -35.31 -4.99 
488.16 -34.88 -4.17 
488.16 -34.86 -3.42 
488.51 -34.91 -3.05 
488.95 -34.74 -4.98 
488.93 -34.76 -4.29 
489.12 -35.00 -3.62 
489.64 -34.88 -5.17 
489.63 -34.89 -4.32 
489.62 -34.91 -3.46 
489.78 -34.73 -2.85 
490.76 -34.99 -2.76 
490.99 -35.22 -2.30 
469.83 -34.21 -2.45 
470.04 -34.62 -5.35 
470.40 -34.08 -2.30 
470.77 -34.57 -2.40 
471.88 -34.54 -2.21 
472.18 -34.55 -5.36 
472.20 -34.57 -4.57 
472.10 -34.57 -3.78 
471.97 -34.55 -2.99 
472.16 -34.59 -2.18 
475.82 -34.24 -4.50 
475.47 -34.19 -3.66 
476.40 -34.60 -3.62 
476.80 -34.00 -3.35 
477.20 -34.14 -4.95 
477.24 -34.14 -4.41 
477.13 -34.05 -3.72 
477.17 -34.15 -3.26 
477.12 -34.06 -0.89 
477.74 -34.53 -4.99 
477.75 -34.52 -4.54 
477.73 -34.43 -3.71 
477.83 -34.39 -3.18 
477.62 -34.29 -1.00 
487.34 -34.44 -3.65 
487.48 -34.42 -5.18 
487.47 -34.43 -4.39 
488.37 -34.44 -5.20 
488.35 -34.46 -4.66 
489.26 -34.15 -4.96 
489.25 -34.17 -4.26 
488.84 -34.23 -3.58 
489.00 -34.32 -2.99 
488.97 -34.49 -2.70 
490.00 -34.20 -5.16 
489.85 -34.35 -4.36 
489.98 -34.23 -3.44 
490.16 -34.33 -4.99 
490.25 -34.11 -2.80 
491.20 -34.34 -2.72 
470.15 -33.73 -2.46 
475.45 -33.23 -4.04 
475.42 -33.25 -3.28 
475.98 -33.41 -5.03 
475.96 -33.55 -4.43 
475.99 -33.41 -3.63 
476.06 -33.45 -3.12 
476.51 -33.66 -5.16 
476.46 -33.80 -4.54 
476.55 -33.71 -3.63 
476.51 -33.69 -3.17 
476.92 -33.92 -5.21 
477.04 -33.50 -4.52 
476.99 -33.91 -3.64 
476.99 -33.92 -3.25 
477.78 -33.92 -2.68 
487.82 -33.78 -5.18 
487.81 -33.80 -4.37 
488.72 -33.85 -5.19 
488.71 -33.87 -4.64 
488.69 -33.89 -4.09 
489.01 -33.30 -4.62 
488.98 -33.35 -3.50 
488.83 -33.47 -2.99 
489.59 -33.55 -4.95 
489.55 -33.25 -4.52 
489.79 -33.75 -3.57 
489.66 -33.62 -2.91 
490.20 -33.70 -5.13 
490.19 -33.72 -4.34 
490.48 -33.73 -3.97 
490.74 -33.48 -2.75 
491.06 -33.75 -2.75 
491.64 -33.67 -2.68 
474.67 -32.64 -5.19 
474.74 -32.92 -4.49 
474.73 -32.93 -3.69 
474.58 -32.77 -3.02 
474.92 -32.86 -5.14 
475.10 -33.02 -4.50 
475.13 -32.96 -3.71 
475.03 -32.92 -3.22 
475.49 -33.21 -4.95 
475.47 -33.22 -4.49 
475.68 -33.22 -3.50 
475.63 -33.20 -3.30 
476.52 -32.97 -4.47 
476.16 -32.93 -3.62 
488.16 -33.15 -4.35 
488.85 -32.90 -4.05 
489.19 -32.91 -4.92 
488.86 -32.88 -4.61 
489.07 -32.77 -3.67 
489.44 -32.76 -2.91 
489.92 -32.93 -4.93 
489.91 -32.96 -4.21 
489.49 -33.03 -3.52 
489.84 -33.15 -2.63 
490.75 -32.81 -5.14 
490.74 -32.82 -4.26 
490.83 -33.08 -3.94 
490.25 -32.94 -2.83 
491.72 -33.10 -2.83 
467.88 -31.96 -2.29 
468.30 -32.01 -1.79 
488.13 -32.50 -4.34 
489.10 -31.88 -5.12 
489.09 -31.90 -4.57 
489.06 -31.93 -3.45 
489.66 -32.10 -4.58 
489.63 -32.15 -3.41 
490.10 -32.00 -2.83 
490.26 -32.30 -4.91 
490.25 -32.32 -4.19 
490.23 -32.35 -3.46 
491.13 -32.09 -5.13 
491.12 -32.10 -4.25 
491.20 -32.39 -3.91 
491.11 -32.12 -3.36 
491.39 -32.24 -2.62 
468.30 -31.18 -5.28 
468.29 -31.19 -4.32 
468.38 -31.26 -3.80 
468.37 -31.27 -3.00 
468.27 -31.23 -2.37 
468.65 -31.34 -4.33 
468.63 -31.36 -3.61 
468.61 -31.38 -2.88 
468.60 -31.38 -2.59 
468.48 -31.28 -1.77 
488.88 -31.79 -5.15 
489.37 -31.27 -4.55 
489.35 -31.31 -3.41 
490.00 -31.46 -4.56 
489.99 -31.49 -3.96 
489.97 -31.51 -3.37 
490.56 -31.66 -4.90 
490.54 -31.69 -4.16 
490.53 -31.71 -3.43 
490.76 -31.74 -2.55 
491.32 -31.67 -5.10 
491.31 -31.69 -4.29 
491.30 -31.70 -3.47 
491.50 -31.39 -3.33 
491.55 -31.44 -2.66 
467.75 -30.90 -5.10 
467.75 -30.91 -4.30 
467.75 -30.92 -3.90 
467.76 -30.94 -2.82 
468.09 -31.01 -1.83 
468.75 -30.52 -2.25 
489.24 -31.12 -4.30 
489.75 -30.57 -5.11 
489.74 -30.59 -4.53 
489.72 -30.61 -3.95 
489.71 -30.63 -3.36 
490.36 -30.80 -4.54 
490.34 -30.82 -3.93 
490.33 -30.84 -3.32 
490.92 -31.00 -4.88 
490.90 -31.02 -4.14 
490.89 -31.04 -3.39 
491.23 -31.01 -2.50 
492.01 -30.87 -4.97 
492.00 -30.88 -4.40 
491.99 -30.89 -3.84 
491.98 -30.90 -3.27 
491.78 -31.00 -2.51 
490.14 -29.86 -5.10 
489.67 -30.39 -4.28 
489.66 -30.41 -3.43 
490.09 -29.92 -3.31 
490.55 -30.32 -4.94 
490.55 -30.30 -4.46 
490.56 -30.28 -3.98 
490.71 -30.15 -3.27 
491.28 -30.31 -4.86 
491.27 -30.34 -4.11 
491.25 -30.36 -3.35 
492.09 -30.25 -5.08 
492.07 -30.27 -4.25 
492.06 -30.28 -3.42 
492.57 -29.92 -4.97 
492.56 -29.93 -4.38 
492.55 -29.95 -3.79 
492.54 -29.96 -3.21 
471.48 -29.07 -5.13 
471.47 -29.07 -4.80 
471.54 -28.98 -3.55 
471.69 -29.14 -3.10 
490.06 -29.67 -4.27 
490.05 -29.68 -3.41 
490.54 -29.11 -5.09 
490.52 -29.13 -4.48 
490.51 -29.15 -3.87 
490.50 -29.17 -3.26 
491.05 -29.41 -4.49 
491.04 -29.43 -3.86 
491.02 -29.46 -3.23 
491.65 -29.63 -4.08 
492.47 -29.53 -4.23 
492.46 -29.55 -3.39 
470.27 -28.36 -3.41 
470.28 -28.36 -3.06 
471.21 -28.95 -4.75 
471.04 -28.71 -3.58 
471.02 -28.72 -3.11 
471.54 -28.98 -3.55 
471.53 -28.99 -3.08 
490.46 -28.92 -5.12 
490.45 -28.93 -4.25 
490.44 -28.94 -3.38 
491.46 -28.65 -4.47 
491.45 -28.67 -3.82 
490.92 -28.38 -3.20 
468.85 -27.67 -4.93 
468.81 -27.68 -3.31 
469.58 -27.99 -3.73 
469.56 -28.00 -3.08 
469.99 -28.20 -3.71 
469.98 -28.20 -3.40 
490.86 -28.17 -4.23 
490.85 -28.19 -3.35 
491.89 -27.85 -4.44 
491.87 -27.88 -3.78 
468.77 -27.55 -2.92 
491.40 -27.48 -5.08 
491.39 -27.50 -4.43 
491.38 -27.53 -3.79 
491.27 -27.41 -3.32 
492.34 -27.01 -4.42 
492.32 -27.04 -3.74 
491.86 -26.63 -4.41 
491.84 -26.65 -3.74 
491.83 -26.67 -3.08 
492.40 -26.76 -4.40 
492.41 -26.74 -3.83 
492.42 -26.71 -3.26 
492.35 -25.70 -4.38 
492.37 -25.15 -4.96 
491.33 -24.36 -5.02 
491.34 -24.48 -4.73 
491.93 -24.67 -5.03 
492.30 -24.58 -4.74 
