# .PCD v0.7 - Point Cloud Data file format
VERSION 0.7
FIELDS x y z
SIZE 4 4 4
TYPE F F F
COUNT 1 1 1
WIDTH 2366
HEIGHT 1
VIEWPOINT 0 0 0 1 0 0 0
POINTS 2366
DATA ascii
517.51 168.75 1.56 
517.16 168.65 2.74 
492.83 168.96 -0.41 
492.79 169.06 -0.09 
493.26 169.20 1.11 
493.15 169.39 1.36 
493.18 169.51 2.66 
492.88 169.05 3.55 
493.86 169.29 -0.97 
493.97 168.92 0.36 
493.82 169.30 0.86 
493.78 169.09 1.23 
493.68 169.23 2.21 
493.64 169.01 3.27 
494.64 169.21 -1.17 
494.38 169.28 -0.33 
494.15 169.04 0.42 
494.32 169.12 0.75 
494.51 169.19 1.35 
494.20 169.28 1.91 
495.40 169.27 -1.78 
495.26 169.37 -1.13 
494.81 169.30 -0.87 
494.92 169.49 -0.03 
494.95 169.17 0.83 
494.87 169.35 1.60 
494.99 169.49 2.30 
495.37 168.87 2.81 
495.84 169.57 -1.80 
496.00 169.34 -1.01 
495.61 168.93 -0.38 
495.86 169.53 -0.01 
495.43 168.88 2.07 
496.57 169.18 -0.98 
496.72 168.94 -0.35 
496.29 169.34 0.01 
496.72 168.96 1.67 
496.63 168.89 3.22 
496.26 168.94 3.68 
496.97 169.44 -0.28 
497.24 169.41 1.55 
497.30 169.01 2.02 
497.09 169.43 3.10 
497.43 169.34 3.85 
497.62 169.30 1.12 
497.66 169.40 1.53 
497.95 169.49 2.48 
498.01 169.28 2.66 
497.98 168.96 3.25 
498.88 169.45 -1.56 
498.74 169.41 -0.49 
498.61 168.87 0.05 
498.77 169.22 0.59 
498.73 169.24 1.31 
498.49 169.16 2.34 
498.48 169.24 2.90 
498.61 169.16 3.48 
498.64 169.52 3.93 
499.59 169.34 -1.51 
499.27 169.33 -0.86 
499.20 169.51 -0.09 
499.33 169.39 0.62 
499.53 169.44 1.59 
499.11 169.25 2.22 
499.27 169.12 2.83 
499.18 169.14 3.52 
499.98 169.42 -1.56 
500.02 169.14 -0.56 
499.93 169.38 0.11 
500.14 169.52 0.83 
499.98 169.43 1.57 
499.86 169.20 1.94 
499.83 169.27 2.92 
499.83 169.50 3.46 
500.40 169.28 -1.78 
500.76 169.19 -1.24 
500.58 169.25 -0.63 
500.58 169.44 0.04 
500.66 169.39 0.86 
500.75 169.23 1.70 
500.69 169.17 2.18 
500.88 169.37 2.90 
500.59 168.94 3.41 
501.19 168.99 -1.32 
501.17 169.23 -0.71 
501.36 169.41 0.00 
501.05 169.35 0.46 
501.36 169.10 1.63 
501.17 169.38 2.38 
501.49 169.20 2.70 
501.41 169.46 3.25 
501.93 168.92 -1.31 
502.39 169.24 -0.86 
502.21 169.23 0.06 
502.09 169.34 0.86 
502.10 169.22 1.41 
502.13 169.41 2.25 
502.03 169.04 2.80 
502.35 169.21 3.58 
502.76 168.96 -1.48 
502.60 169.02 -0.37 
502.64 169.12 0.02 
502.71 169.27 0.84 
502.70 169.24 1.28 
502.65 169.07 2.49 
502.66 169.20 3.06 
502.90 169.40 3.57 
502.81 169.18 4.51 
503.39 169.07 -1.12 
503.41 169.44 -0.67 
503.39 169.03 -0.03 
503.41 169.37 0.87 
503.38 169.24 1.33 
503.29 169.25 2.39 
503.27 169.22 2.79 
503.36 169.35 3.57 
504.14 169.08 -1.33 
504.12 169.05 -0.45 
504.11 169.07 -0.02 
504.47 169.13 0.45 
504.14 169.42 1.71 
504.05 169.36 2.10 
504.03 169.32 2.94 
504.18 169.26 3.44 
504.71 169.35 -1.05 
504.48 169.15 0.00 
505.16 169.13 0.97 
504.67 169.24 1.67 
504.55 168.96 1.95 
504.58 169.25 2.72 
505.14 168.97 3.55 
505.35 169.47 0.91 
505.74 169.02 2.94 
505.39 169.18 3.63 
505.32 169.31 4.46 
505.71 168.93 4.85 
505.96 169.26 3.80 
507.31 168.90 -0.57 
507.21 169.20 0.06 
507.11 169.27 1.02 
507.18 169.13 1.95 
507.28 168.92 2.87 
507.26 168.87 4.73 
507.90 169.03 -0.55 
507.72 169.24 0.20 
507.72 169.22 1.08 
507.93 169.10 1.33 
507.92 169.09 2.19 
507.92 169.08 3.04 
507.70 169.17 3.73 
507.86 168.89 4.13 
507.92 169.06 4.77 
507.63 169.26 5.78 
508.02 169.31 -0.46 
508.02 169.31 0.38 
508.02 169.30 1.22 
508.16 169.29 2.04 
508.16 169.28 2.88 
508.03 169.28 3.75 
508.16 169.27 4.58 
510.00 169.06 2.31 
510.73 169.54 2.45 
510.23 169.52 2.82 
511.26 169.18 2.00 
510.84 169.06 2.91 
510.87 169.55 3.71 
511.29 169.21 3.98 
511.19 169.27 4.88 
511.68 169.53 -0.44 
511.73 168.96 0.39 
512.19 169.39 1.12 
512.09 169.11 1.56 
511.87 169.44 3.58 
511.63 169.29 4.15 
512.73 169.37 -0.51 
512.29 169.36 -0.19 
512.61 169.40 0.92 
512.81 169.06 1.76 
512.60 168.93 2.96 
512.85 169.53 3.72 
512.87 169.35 4.26 
512.64 169.14 5.53 
513.48 169.30 -1.14 
513.47 169.29 -0.61 
513.22 169.30 0.04 
513.27 169.47 0.95 
513.26 169.46 1.46 
513.49 169.41 2.04 
513.55 169.55 2.60 
513.04 169.12 3.80 
513.29 169.46 4.10 
513.01 169.13 5.06 
513.96 169.53 -1.13 
514.17 169.31 -0.48 
514.06 169.46 0.21 
513.97 169.31 0.64 
513.97 169.29 1.44 
513.96 169.27 2.25 
513.86 169.31 2.73 
513.82 169.31 5.17 
514.76 169.07 -0.63 
514.53 169.05 -0.12 
514.44 169.22 0.84 
514.63 169.26 1.29 
514.48 169.12 1.94 
514.31 168.97 3.24 
515.12 168.87 -0.50 
515.50 169.22 -0.01 
515.59 169.53 0.71 
515.15 169.39 1.41 
515.33 169.33 2.20 
516.11 169.28 -1.04 
516.16 169.36 -0.58 
516.14 169.37 0.01 
516.14 169.36 0.70 
516.23 169.26 1.47 
516.03 169.28 1.94 
516.04 169.29 2.87 
516.56 169.10 -1.01 
516.77 169.39 -0.54 
516.65 169.22 0.08 
516.79 169.01 0.51 
516.83 169.16 1.54 
516.76 169.50 2.21 
517.28 169.36 -0.99 
517.30 169.13 -0.53 
517.35 168.95 0.02 
517.55 169.18 0.51 
517.34 169.25 1.48 
517.29 169.43 2.36 
517.34 169.16 2.63 
492.98 170.03 -2.06 
493.11 169.72 -0.91 
493.19 169.97 -0.08 
493.11 169.88 0.47 
492.69 170.00 1.32 
493.13 169.83 1.95 
493.43 169.94 -2.02 
493.37 169.79 -0.45 
493.92 169.87 0.85 
493.83 169.96 1.40 
494.23 169.79 0.90 
494.40 169.84 1.38 
494.18 169.59 1.88 
495.31 169.89 -1.76 
494.93 169.96 -1.10 
494.84 169.60 0.83 
494.87 169.76 1.31 
495.76 170.18 -1.77 
495.58 170.06 -1.06 
495.92 169.85 -0.74 
496.03 169.67 -0.02 
495.55 170.22 3.11 
496.47 170.25 -1.03 
496.66 169.72 -0.55 
496.51 170.18 1.94 
496.54 169.94 3.18 
496.97 169.83 2.96 
497.46 169.72 3.68 
497.55 170.25 -0.68 
497.68 170.12 0.66 
497.57 170.04 1.20 
497.97 169.90 2.06 
498.10 169.88 2.83 
497.55 169.90 3.23 
498.38 170.01 -1.71 
498.90 170.04 -1.44 
498.33 170.02 -0.94 
498.86 170.04 0.02 
498.73 169.98 1.35 
498.72 169.87 2.18 
498.64 169.71 2.83 
498.60 170.22 3.38 
498.78 170.18 4.20 
499.30 169.66 -1.36 
499.48 169.92 -0.50 
499.34 170.12 0.01 
499.19 169.80 1.56 
499.20 169.95 2.02 
499.41 170.05 2.91 
499.02 169.65 3.32 
499.29 169.63 4.61 
500.16 169.93 -1.24 
499.99 169.96 -0.47 
499.99 169.85 0.02 
500.00 169.97 1.10 
499.98 169.74 1.50 
499.97 169.85 2.24 
500.00 169.87 2.64 
500.07 169.77 3.28 
499.98 170.09 4.00 
500.16 169.98 5.23 
500.47 170.16 -1.39 
500.60 169.98 -0.81 
500.47 169.71 0.12 
500.68 169.85 0.78 
500.74 170.12 1.44 
500.80 169.71 2.10 
500.81 169.89 2.83 
500.70 169.66 3.46 
500.79 169.74 4.10 
500.70 169.86 4.99 
501.50 170.06 -1.54 
501.48 169.96 -0.49 
501.42 169.94 0.02 
501.52 169.94 0.80 
501.36 169.75 1.53 
501.44 169.88 2.28 
501.19 169.89 3.03 
501.35 169.82 3.44 
501.23 169.63 3.97 
501.12 169.96 4.72 
502.31 169.74 -1.35 
502.11 169.99 -0.48 
501.88 169.95 0.02 
502.13 169.98 0.79 
501.87 169.81 1.22 
501.90 170.21 1.83 
501.87 170.02 2.89 
502.09 170.22 3.38 
502.13 170.05 5.11 
502.42 169.60 -1.74 
502.44 169.67 -1.26 
502.83 169.98 -0.34 
502.73 169.97 0.03 
502.67 169.87 0.83 
502.64 170.08 1.54 
502.73 170.02 2.10 
502.67 169.65 2.89 
502.68 169.92 3.45 
502.67 170.17 4.25 
503.43 170.11 -0.32 
503.42 170.08 0.22 
503.40 170.05 0.76 
503.46 169.93 1.25 
503.27 170.06 2.15 
503.33 169.93 2.96 
503.49 169.79 3.53 
503.49 169.78 4.26 
504.05 170.02 -1.04 
503.88 169.97 -0.58 
503.85 169.93 0.01 
504.24 169.92 0.83 
504.06 169.82 1.25 
503.96 169.87 1.97 
504.23 169.89 2.70 
504.20 169.83 3.64 
504.59 169.72 -1.27 
504.91 169.77 -0.86 
504.89 169.74 0.01 
504.87 169.71 0.88 
504.57 169.99 1.66 
504.53 170.04 2.42 
505.05 169.91 2.72 
505.02 169.82 3.71 
505.68 170.26 -0.80 
505.88 170.21 -0.01 
505.55 170.02 1.10 
505.25 170.25 1.29 
505.23 170.22 2.14 
505.21 170.19 3.00 
505.61 170.15 3.57 
505.92 169.99 0.81 
505.97 169.71 3.56 
506.43 169.79 4.69 
506.43 169.79 4.69 
506.97 169.70 -0.06 
507.74 169.72 -0.77 
507.76 169.81 -0.03 
507.71 169.67 1.04 
507.51 169.65 1.20 
507.61 169.89 1.95 
507.60 169.85 2.89 
507.57 169.82 3.83 
507.97 169.80 4.61 
507.66 169.58 4.70 
507.67 169.58 5.59 
508.34 169.91 -0.46 
508.34 169.90 0.38 
508.28 169.96 0.57 
508.34 169.89 1.22 
508.35 169.88 2.06 
508.34 169.88 2.90 
508.35 169.87 3.75 
508.35 169.87 4.60 
508.27 169.90 4.85 
508.02 169.96 5.75 
508.31 170.19 6.05 
508.81 169.72 -0.53 
509.96 170.18 1.38 
510.57 169.86 0.09 
510.49 169.87 1.08 
510.67 169.61 1.97 
510.44 169.94 2.87 
511.46 169.97 -0.21 
510.96 170.02 0.62 
511.20 169.79 1.34 
510.99 170.06 1.97 
510.96 170.05 2.90 
511.42 170.20 3.63 
511.75 170.11 -0.53 
511.69 170.13 0.16 
511.64 170.14 0.86 
512.19 169.82 1.43 
512.18 170.14 1.92 
511.68 169.82 3.08 
512.00 169.88 3.63 
512.12 169.90 4.12 
512.73 169.92 -1.05 
512.55 170.13 -0.72 
512.54 170.12 0.16 
512.53 170.12 0.61 
512.51 170.11 1.49 
512.79 170.09 2.11 
512.78 169.85 2.58 
512.44 169.72 3.61 
512.54 170.05 4.01 
512.85 170.21 5.12 
512.63 169.93 5.37 
513.34 169.96 -1.09 
513.19 169.90 -0.53 
513.26 170.05 0.16 
513.14 170.01 0.91 
513.13 169.99 1.60 
513.17 169.83 2.16 
513.31 169.77 2.81 
513.43 169.94 3.52 
513.30 169.82 5.08 
513.55 169.89 5.65 
513.85 169.68 -1.26 
513.73 169.76 -0.59 
513.84 169.66 -0.15 
513.96 169.92 0.88 
514.15 169.70 1.53 
513.64 169.70 2.15 
513.82 170.18 3.79 
513.76 169.96 5.24 
513.76 169.96 5.24 
514.77 170.05 -1.02 
514.69 170.08 -0.67 
514.69 170.09 0.02 
514.68 170.07 0.69 
514.71 169.95 1.40 
514.89 169.80 2.04 
515.35 169.84 -0.93 
515.19 169.96 -0.59 
515.41 169.73 0.02 
515.33 169.76 0.70 
515.31 169.85 1.42 
515.49 169.81 2.07 
515.45 170.22 2.66 
515.93 169.78 -0.99 
515.98 169.80 -0.55 
515.89 169.69 0.03 
515.71 169.74 0.66 
516.07 169.83 1.35 
516.06 169.80 2.04 
516.31 169.97 2.46 
516.88 169.58 -1.00 
516.88 169.57 -0.71 
516.52 170.00 0.25 
516.45 170.23 0.73 
516.56 169.72 1.52 
516.62 169.72 1.98 
516.95 170.23 2.58 
516.98 169.70 3.95 
517.40 170.07 -0.71 
517.48 169.89 0.26 
517.46 170.15 0.55 
517.44 169.93 1.20 
517.43 170.16 2.35 
517.25 170.16 3.36 
493.93 170.38 -0.26 
493.93 170.38 -0.26 
493.62 170.65 1.31 
494.34 170.28 -1.07 
494.46 170.39 -0.81 
494.51 170.27 0.91 
494.29 170.59 1.38 
495.10 171.00 -0.76 
494.72 170.46 1.30 
495.01 170.28 1.84 
495.62 170.59 2.44 
495.61 170.63 3.07 
496.25 170.41 -1.39 
496.21 170.54 -0.65 
496.46 170.80 2.45 
496.71 170.68 3.13 
496.85 170.45 -0.98 
497.47 170.39 0.72 
497.50 170.67 1.75 
497.09 170.87 2.45 
497.06 170.49 3.15 
497.37 170.36 4.07 
498.19 171.06 -1.44 
497.94 171.08 -0.59 
498.00 170.82 0.14 
498.16 170.75 0.59 
497.94 170.74 1.33 
498.13 170.70 2.38 
498.03 170.75 2.85 
497.75 170.52 3.78 
497.65 170.68 4.02 
498.26 170.39 -1.54 
498.77 170.63 -0.39 
498.57 170.57 0.01 
498.43 170.57 0.76 
498.66 170.40 1.50 
498.71 170.44 2.16 
498.27 170.50 2.93 
498.21 170.61 3.28 
499.42 170.74 -0.50 
499.22 170.52 -0.01 
499.43 170.37 0.67 
499.22 170.54 1.57 
499.08 170.50 2.10 
499.19 170.52 2.78 
499.47 170.60 3.35 
499.14 170.66 4.00 
500.23 170.48 -1.55 
499.97 170.73 -0.51 
499.63 170.52 -0.01 
499.94 170.69 0.65 
499.74 170.87 1.37 
499.79 170.72 2.02 
500.06 170.87 2.63 
499.67 170.82 3.32 
500.01 170.99 4.02 
499.73 170.72 4.86 
500.55 170.81 -1.52 
500.86 170.60 -0.40 
500.80 170.64 -0.06 
500.64 170.55 0.75 
500.80 170.56 1.53 
500.78 170.52 2.11 
500.74 170.35 2.82 
500.52 170.85 3.28 
500.44 170.29 4.62 
501.00 170.90 4.94 
501.55 170.54 -1.22 
501.32 170.67 -0.33 
501.51 170.67 0.30 
501.33 170.62 0.61 
501.40 170.52 1.48 
501.20 170.78 2.10 
501.17 170.73 2.70 
501.14 170.69 3.30 
501.21 170.89 4.13 
501.29 170.44 4.99 
501.71 170.32 -1.83 
502.00 170.71 -1.48 
501.98 170.58 -0.66 
501.92 170.59 0.06 
502.03 170.38 0.73 
502.03 170.32 1.37 
502.00 170.65 1.96 
501.96 170.58 2.71 
501.93 170.51 3.47 
502.32 170.75 4.37 
502.35 170.78 5.07 
502.18 170.52 5.36 
502.53 170.38 -1.53 
502.55 170.81 -0.76 
502.81 170.45 0.21 
502.72 170.53 0.76 
502.93 170.58 1.42 
503.07 170.60 2.26 
502.39 170.88 2.68 
503.10 170.51 3.42 
502.70 170.87 4.18 
502.66 170.80 5.09 
503.27 170.78 -1.17 
503.27 170.81 -0.52 
503.24 170.76 0.13 
503.28 170.65 0.76 
503.19 170.66 1.44 
503.61 170.65 2.07 
503.59 170.61 3.05 
503.71 170.45 3.46 
503.19 170.90 4.24 
503.15 170.83 5.17 
504.22 170.61 -1.30 
504.19 170.57 -0.60 
504.25 170.46 0.03 
504.14 170.49 0.80 
504.11 170.44 1.51 
504.09 170.40 2.23 
504.18 170.23 2.83 
504.48 170.75 3.53 
504.58 170.44 -1.02 
504.57 170.42 -0.65 
504.86 170.68 -0.05 
504.59 170.78 0.80 
504.57 170.74 1.51 
504.55 170.71 2.23 
504.97 170.67 2.72 
504.65 170.88 3.75 
505.39 170.88 -1.17 
505.38 170.86 -0.78 
505.36 170.84 0.01 
505.57 170.62 0.91 
505.33 170.78 1.60 
505.31 170.75 2.40 
505.58 170.72 2.93 
506.20 170.73 -0.78 
505.96 170.64 1.10 
506.15 170.68 1.82 
506.56 170.93 1.99 
506.34 170.60 2.84 
506.19 170.79 3.76 
506.41 170.31 4.63 
507.28 170.54 0.87 
507.75 170.42 -1.05 
507.50 170.31 0.08 
507.86 170.92 2.96 
508.00 170.56 3.82 
507.79 170.83 4.86 
507.96 170.49 5.70 
508.37 170.55 -0.68 
508.36 170.53 0.19 
508.36 170.52 1.06 
508.61 170.56 1.42 
508.44 170.51 1.95 
508.35 170.48 2.82 
508.35 170.47 3.70 
508.42 170.46 4.58 
508.61 170.51 4.84 
508.34 170.43 5.47 
508.81 170.50 -0.47 
509.19 170.86 0.04 
508.93 170.92 0.49 
508.93 170.91 1.33 
508.93 170.90 2.18 
508.92 170.89 3.03 
508.92 170.88 3.88 
508.79 170.45 4.58 
508.92 170.86 4.74 
508.80 170.95 5.38 
509.68 170.37 -0.68 
509.91 170.88 -0.26 
509.75 170.77 0.68 
509.71 170.78 1.54 
510.05 170.53 1.92 
509.56 170.85 5.01 
510.78 170.82 0.12 
510.73 170.83 0.79 
510.68 170.85 1.47 
510.53 170.64 2.24 
510.72 170.34 2.89 
510.38 170.95 3.89 
510.40 170.68 4.09 
510.38 170.94 4.76 
511.20 170.88 -1.14 
510.94 170.84 -0.63 
510.98 170.91 0.26 
511.12 170.89 0.85 
511.12 170.86 1.38 
511.11 170.86 1.88 
511.25 170.93 3.14 
511.35 170.65 3.83 
511.78 170.46 -1.16 
511.89 170.81 -0.58 
511.88 170.80 -0.01 
511.87 170.78 0.93 
511.99 170.76 1.56 
511.86 170.75 2.07 
511.60 170.35 3.48 
512.13 170.87 4.07 
512.45 170.60 -1.06 
512.47 170.55 -0.72 
512.44 170.60 0.05 
512.62 170.46 0.78 
512.52 170.57 1.43 
512.44 170.50 2.09 
512.75 170.82 3.13 
512.86 170.51 4.31 
512.79 170.55 5.23 
513.24 170.84 -1.25 
513.32 170.75 -0.54 
513.22 170.82 0.01 
513.21 170.80 0.70 
513.30 170.70 1.51 
513.00 170.44 2.47 
513.44 170.42 3.13 
513.16 170.79 3.50 
513.49 170.96 4.21 
513.11 170.59 5.03 
513.59 170.29 5.56 
514.04 170.54 -1.06 
514.04 170.53 -0.60 
514.03 170.52 0.10 
513.95 170.44 0.70 
513.94 170.48 1.47 
514.02 170.67 1.72 
513.68 170.36 3.57 
514.26 170.59 4.34 
513.92 170.87 5.13 
513.80 170.51 5.43 
514.59 170.40 -1.08 
514.59 170.53 -0.56 
514.59 170.51 0.02 
514.61 170.70 0.78 
514.68 170.40 1.57 
514.74 170.75 2.12 
514.31 170.92 2.53 
514.72 170.91 4.62 
514.50 170.60 4.90 
515.08 170.55 -1.06 
515.41 170.36 -0.73 
515.08 170.51 0.24 
515.47 170.50 0.68 
515.32 170.44 1.31 
515.30 170.83 2.06 
515.91 170.31 -1.15 
516.01 170.81 -0.52 
516.25 170.80 0.08 
516.08 170.68 0.66 
516.06 170.45 1.54 
515.89 170.46 2.14 
515.95 170.71 2.74 
515.82 170.80 3.61 
515.96 170.78 4.41 
517.09 170.42 -1.01 
516.89 170.74 -0.65 
516.92 170.87 0.28 
516.87 170.63 0.67 
516.72 170.92 1.25 
516.82 170.61 2.27 
516.88 170.51 2.60 
516.71 170.60 3.67 
516.82 170.61 4.18 
517.13 170.67 -0.48 
517.28 170.77 0.11 
517.24 170.70 0.68 
517.34 170.56 1.56 
517.56 170.69 2.18 
517.43 170.83 2.66 
517.15 170.78 3.91 
494.31 171.34 -0.63 
494.75 171.12 -0.61 
494.91 170.99 1.47 
495.62 171.02 -0.67 
495.79 171.29 3.03 
496.65 171.47 0.07 
496.70 171.62 1.78 
496.53 171.12 1.84 
496.81 171.44 2.86 
497.38 171.33 -1.28 
497.42 171.17 -0.93 
497.15 171.04 -0.10 
497.21 171.22 1.36 
497.45 171.32 2.44 
496.96 171.27 2.86 
498.19 171.06 -1.44 
497.94 171.08 -0.59 
497.87 171.02 0.00 
498.19 171.50 0.65 
497.83 171.07 1.13 
497.93 171.23 2.35 
497.99 171.27 2.87 
497.93 171.39 4.02 
498.74 171.37 -0.53 
498.49 171.27 -0.05 
498.58 171.49 0.83 
498.57 171.12 1.52 
498.52 171.19 2.31 
498.45 170.86 2.93 
498.22 171.42 3.84 
499.15 171.08 -1.19 
499.22 171.37 -0.50 
499.23 171.18 -0.10 
499.16 171.37 0.71 
499.35 171.25 1.37 
499.14 171.30 2.34 
499.12 170.99 2.66 
499.59 171.00 4.13 
499.96 171.52 -1.48 
499.82 171.12 -0.62 
500.16 171.36 0.15 
500.13 171.54 0.74 
499.72 171.09 1.66 
499.75 171.45 2.38 
499.82 171.15 3.16 
500.18 171.11 3.19 
500.01 170.99 4.02 
500.98 170.99 -1.36 
500.82 171.27 -0.77 
500.82 171.29 0.09 
500.79 171.38 0.66 
500.46 171.30 1.48 
500.64 171.32 3.20 
500.89 171.45 3.36 
500.57 171.18 4.04 
501.35 171.26 -1.30 
501.33 171.22 -0.74 
501.47 171.01 0.30 
501.42 171.34 1.00 
501.21 171.11 1.49 
501.63 171.35 2.09 
501.60 171.30 2.67 
501.57 171.26 3.27 
501.21 171.00 4.03 
501.48 171.28 5.08 
502.00 171.12 -1.18 
501.86 171.52 -0.68 
502.08 171.54 0.26 
502.06 171.49 0.86 
502.03 171.45 1.47 
502.28 171.45 2.17 
502.25 171.40 2.84 
502.10 171.38 3.52 
501.76 171.10 4.16 
502.66 171.56 -1.70 
502.58 171.19 -1.48 
502.67 171.27 -0.62 
502.49 171.19 -0.04 
502.88 171.15 0.61 
502.83 171.08 1.50 
502.89 171.52 1.86 
502.85 171.45 2.72 
502.87 171.52 3.51 
502.83 171.46 4.34 
502.83 171.53 5.03 
502.71 171.25 5.33 
503.66 171.32 -1.13 
503.65 171.30 -0.70 
503.63 171.26 0.17 
503.63 171.27 0.80 
503.31 171.10 1.51 
503.52 171.17 2.26 
503.56 171.14 2.80 
503.51 171.08 3.40 
503.70 171.61 4.24 
503.18 171.53 5.07 
504.08 171.33 -1.25 
504.05 171.29 -0.32 
504.04 171.27 0.15 
504.03 171.24 0.61 
504.00 171.20 1.55 
503.91 171.37 2.40 
503.90 171.35 2.86 
503.91 171.64 3.37 
504.89 171.57 -1.19 
504.87 171.53 -0.54 
504.99 171.48 0.08 
504.82 171.46 0.76 
504.80 171.43 1.42 
504.90 171.34 2.35 
504.87 171.30 2.92 
504.85 171.26 3.50 
505.75 171.40 -1.13 
505.75 171.38 -0.74 
505.73 171.36 0.02 
505.41 171.26 0.79 
505.40 171.24 1.52 
505.38 171.21 2.26 
505.37 171.19 2.64 
505.99 171.38 -1.16 
505.98 171.37 -0.76 
505.97 171.34 0.03 
505.96 171.33 0.43 
505.94 171.30 1.23 
505.92 171.26 2.44 
505.91 171.25 2.85 
506.73 171.38 1.72 
507.99 171.13 -0.82 
507.96 171.08 0.12 
507.85 171.16 1.06 
507.89 170.98 2.01 
507.77 171.32 4.92 
508.50 171.47 -0.79 
508.48 171.44 0.12 
508.47 171.40 1.04 
508.12 171.66 1.22 
508.57 171.16 1.84 
508.55 171.14 2.75 
508.42 171.30 3.80 
508.70 171.10 4.56 
508.52 171.49 4.98 
508.38 171.23 5.67 
508.87 171.47 -0.53 
508.86 171.45 0.35 
508.95 171.18 0.58 
509.25 171.51 1.33 
508.83 171.40 2.11 
508.82 171.38 3.00 
508.80 171.36 3.89 
508.77 171.10 4.56 
508.78 171.34 4.79 
508.83 171.60 5.53 
509.34 171.48 6.03 
509.97 171.46 -0.57 
509.92 171.47 0.08 
509.87 171.48 0.73 
509.97 171.51 1.50 
510.03 171.57 2.26 
509.86 171.41 4.31 
509.42 171.40 4.85 
509.45 170.99 5.46 
510.66 171.29 -1.06 
510.31 171.45 -0.53 
510.61 171.57 0.11 
510.65 171.33 0.80 
510.59 171.55 1.26 
510.58 171.54 2.04 
510.58 171.26 2.93 
510.58 171.25 3.80 
510.22 171.12 4.56 
510.58 171.24 4.67 
511.28 171.39 -0.99 
511.15 171.42 -0.72 
511.19 171.28 -0.02 
511.13 171.39 0.81 
511.11 171.38 1.49 
511.16 171.23 1.99 
511.08 171.46 3.05 
511.23 171.48 4.27 
511.86 171.40 -1.02 
511.71 171.38 -0.61 
511.70 171.37 0.17 
511.76 171.32 0.95 
511.83 171.35 1.47 
511.73 171.04 2.15 
511.74 170.97 3.04 
511.56 171.09 3.89 
511.72 170.97 3.96 
512.66 171.24 -1.10 
512.60 171.26 -0.61 
512.64 171.22 0.12 
512.57 171.28 0.76 
512.53 171.11 1.54 
512.25 171.54 1.93 
512.50 171.11 2.63 
512.42 171.25 3.50 
512.34 171.08 4.33 
512.88 170.97 5.01 
513.12 171.14 -1.14 
513.09 171.28 -0.58 
513.10 171.10 0.07 
513.09 171.08 0.87 
513.03 171.17 1.52 
513.38 171.20 2.48 
513.26 171.26 3.12 
513.44 171.38 3.58 
513.19 171.55 4.47 
513.29 171.46 5.42 
514.01 171.14 -1.09 
514.01 171.13 -0.74 
514.16 171.28 0.12 
514.18 171.39 0.75 
513.84 171.30 1.34 
513.91 171.15 2.22 
513.81 171.06 3.21 
513.88 171.40 3.23 
513.86 171.39 4.20 
513.76 171.19 5.05 
513.71 171.20 5.99 
513.71 171.20 5.99 
514.84 171.44 -0.33 
514.80 171.41 0.38 
514.73 171.29 0.57 
514.90 171.34 1.40 
514.87 171.43 2.08 
514.97 171.23 3.34 
514.48 171.41 4.18 
514.37 170.97 5.26 
515.54 171.27 0.20 
515.48 171.27 0.66 
515.47 171.67 1.53 
515.48 171.06 2.29 
515.66 171.28 3.41 
516.15 171.21 -0.60 
516.20 171.51 -0.10 
516.11 171.47 0.79 
516.17 171.66 1.50 
516.06 171.50 2.01 
515.78 171.28 3.16 
516.09 171.13 3.25 
516.06 171.11 4.09 
516.15 171.11 4.74 
516.50 171.18 -0.70 
516.50 171.22 0.24 
516.74 171.17 0.81 
516.75 171.13 1.54 
516.52 171.18 2.07 
516.98 171.12 2.61 
516.80 171.25 3.60 
516.52 171.13 4.54 
517.47 171.20 0.34 
517.39 171.57 0.93 
517.31 171.33 1.49 
517.41 171.16 2.41 
517.29 171.25 3.35 
517.24 171.45 3.94 
496.35 171.85 -0.26 
496.56 171.97 2.91 
497.19 171.97 -0.48 
497.23 171.79 2.44 
497.94 172.12 -0.43 
497.91 172.08 -0.02 
498.02 171.67 0.71 
498.05 171.70 1.49 
497.71 171.68 2.32 
497.64 171.69 3.02 
498.68 172.04 -0.48 
498.59 171.77 -0.11 
498.58 171.88 2.45 
498.83 172.21 3.16 
499.07 171.97 -0.51 
499.53 171.94 0.30 
499.39 172.08 0.77 
498.98 171.95 2.48 
499.26 171.69 3.07 
500.13 172.37 -1.07 
500.17 172.10 -0.87 
499.99 171.84 0.50 
500.04 171.94 0.67 
500.07 171.76 1.34 
500.22 171.84 2.47 
499.95 172.06 3.11 
500.05 171.84 3.30 
500.64 171.86 -1.26 
500.44 172.18 -0.73 
500.63 172.11 0.27 
500.71 171.86 0.66 
500.89 172.26 1.48 
500.49 172.26 2.49 
500.99 172.08 3.06 
501.27 172.16 -1.21 
501.14 171.87 -0.71 
501.54 171.82 0.05 
501.20 171.76 0.88 
501.59 171.81 1.40 
501.56 171.67 2.58 
502.16 172.35 -1.21 
502.18 172.11 -0.77 
502.19 171.98 0.10 
502.09 171.98 0.93 
502.06 171.93 1.50 
502.04 171.89 2.07 
502.02 172.09 2.60 
502.23 171.73 3.34 
502.89 172.24 -1.73 
502.95 171.94 -1.36 
502.92 171.89 -0.62 
502.84 172.16 0.15 
502.78 172.04 0.86 
502.75 172.00 1.51 
502.72 171.95 2.17 
502.90 171.81 2.71 
502.66 171.85 3.49 
502.83 171.68 4.19 
503.34 172.28 -1.78 
503.11 172.00 -1.40 
503.43 171.94 -0.22 
503.33 172.32 0.91 
503.35 171.80 1.52 
503.40 172.22 1.88 
503.36 172.15 2.73 
503.37 172.21 3.50 
503.35 172.26 4.19 
503.31 172.20 4.99 
504.11 172.02 -1.14 
504.35 172.01 -0.71 
504.33 171.97 0.16 
504.02 171.82 0.82 
504.30 171.91 1.47 
504.29 171.89 1.91 
504.26 171.85 2.80 
504.31 172.12 3.64 
504.20 172.30 4.23 
504.17 172.23 5.14 
504.93 172.20 -1.24 
504.91 172.17 -0.74 
504.90 172.15 -0.24 
504.87 172.09 0.76 
504.70 172.18 1.51 
504.62 172.35 2.31 
504.67 172.11 2.87 
504.80 171.96 3.31 
505.51 171.76 -1.25 
505.83 171.87 -0.62 
505.35 171.96 0.10 
505.57 172.22 0.74 
505.55 172.20 1.38 
505.52 172.16 2.35 
505.85 172.05 2.85 
505.21 171.75 3.47 
506.19 172.39 -0.93 
506.06 171.99 -0.75 
506.01 172.00 0.15 
506.38 172.28 0.76 
506.37 172.26 1.49 
506.35 172.24 2.22 
506.24 171.72 2.79 
506.63 172.29 -1.08 
506.62 172.27 -0.52 
506.61 172.26 0.05 
507.28 172.34 1.15 
507.22 172.34 1.84 
507.12 172.35 3.22 
507.43 172.33 -0.93 
507.89 171.80 -0.02 
507.82 171.82 0.91 
507.75 171.83 1.83 
507.95 171.68 3.35 
507.90 171.69 4.07 
508.43 171.88 -0.77 
508.57 172.12 0.28 
508.37 171.78 1.09 
508.49 172.14 1.42 
508.34 171.73 2.03 
508.38 172.18 3.13 
508.34 172.19 3.70 
508.44 171.73 4.01 
508.68 172.32 4.84 
508.64 172.27 5.79 
509.16 172.07 -0.59 
509.11 172.08 0.05 
508.99 171.91 0.94 
509.02 172.10 1.31 
509.20 172.06 2.12 
509.18 172.04 3.00 
508.93 171.81 3.67 
509.10 171.73 4.54 
509.15 172.00 4.77 
509.14 171.97 5.67 
510.00 172.32 -1.05 
509.87 172.27 -0.62 
509.68 172.14 0.11 
509.84 172.20 0.82 
509.84 172.19 1.47 
509.64 172.12 2.05 
509.62 172.12 2.83 
509.58 172.17 3.68 
509.50 172.22 4.48 
509.57 172.06 4.72 
509.54 172.17 5.43 
510.44 172.06 -1.08 
510.48 172.02 -0.60 
510.39 171.94 0.16 
510.39 171.91 0.78 
510.46 171.98 1.42 
510.37 171.89 1.97 
510.47 172.35 2.88 
510.42 171.69 3.61 
510.80 172.10 3.97 
510.40 172.35 5.52 
511.21 171.95 -1.03 
511.21 171.94 -0.64 
511.03 171.90 0.13 
511.02 171.89 0.86 
511.08 171.89 1.49 
511.21 172.01 2.03 
511.13 172.06 2.59 
510.90 172.17 4.86 
511.67 171.89 -1.07 
511.79 171.81 -0.63 
511.65 171.85 0.09 
511.68 171.96 0.78 
511.68 171.94 1.47 
511.62 171.80 1.99 
511.93 171.79 3.11 
512.06 171.68 3.41 
512.17 172.06 3.96 
511.98 172.05 4.80 
512.60 172.03 -1.18 
512.62 172.00 -0.58 
512.57 171.92 -0.05 
512.40 171.99 1.12 
512.55 172.07 1.72 
512.40 171.96 1.87 
512.89 171.89 3.07 
512.47 172.11 3.77 
512.61 172.23 4.21 
512.33 172.36 4.92 
513.29 171.83 0.29 
513.12 171.89 0.47 
513.56 172.24 1.82 
513.39 172.24 2.59 
513.96 171.85 -0.49 
514.01 172.04 0.22 
514.11 171.90 0.49 
514.00 171.87 1.71 
513.88 171.77 2.18 
513.96 172.08 2.69 
514.12 171.79 3.63 
513.91 171.74 4.45 
514.04 172.35 5.26 
513.73 172.04 5.43 
514.32 172.01 6.28 
514.44 171.80 -0.40 
514.61 172.20 0.26 
514.80 171.97 0.85 
514.68 172.16 1.51 
514.48 172.04 2.32 
514.77 172.13 3.07 
514.78 171.91 3.83 
514.81 171.87 4.44 
514.39 171.89 5.19 
514.90 172.11 5.58 
514.32 172.01 6.28 
515.63 171.95 -0.88 
515.67 172.14 0.23 
515.28 172.12 0.75 
515.42 172.04 1.65 
515.43 171.96 2.16 
515.64 172.09 3.02 
515.22 172.16 3.86 
515.20 172.32 4.21 
515.36 171.92 5.23 
515.79 172.15 -0.16 
515.85 171.96 0.56 
515.98 172.12 1.49 
516.36 172.18 1.96 
516.11 172.23 2.91 
516.22 172.11 3.35 
516.79 171.96 0.62 
516.60 172.08 1.65 
516.94 172.03 2.26 
516.65 171.86 2.68 
516.77 171.76 3.44 
517.34 171.96 0.67 
517.51 172.17 1.38 
517.45 172.10 2.07 
517.26 172.26 3.43 
495.97 172.93 -0.64 
496.59 172.77 -0.35 
497.03 172.70 -0.87 
498.07 172.74 -0.48 
497.77 172.53 -0.10 
498.69 172.55 -1.44 
498.34 172.67 -0.37 
499.04 172.80 -1.43 
499.55 172.40 -0.78 
500.23 172.47 -1.20 
499.92 172.50 -0.88 
500.07 172.81 0.72 
500.23 172.78 1.34 
500.60 172.64 -0.99 
500.36 172.50 -0.85 
500.59 172.50 0.37 
500.54 172.39 0.96 
500.82 172.67 1.31 
500.99 172.37 3.24 
501.46 172.78 -1.37 
501.26 172.77 0.87 
501.32 172.58 3.31 
502.15 172.61 1.57 
502.38 172.57 3.11 
502.54 172.86 -1.17 
502.57 172.63 -0.73 
502.88 172.60 0.30 
502.46 172.72 0.95 
502.44 172.68 1.48 
502.42 172.65 2.02 
502.78 172.87 2.60 
502.75 172.38 3.26 
503.51 172.45 -1.82 
503.43 172.48 -1.31 
503.55 172.60 -0.56 
503.51 172.54 0.23 
503.48 172.49 1.01 
503.16 172.54 1.52 
503.38 172.49 1.99 
503.50 172.98 2.81 
503.47 172.93 3.45 
503.83 172.81 4.30 
503.79 172.75 5.12 
504.42 172.68 -1.08 
504.50 172.49 -0.42 
504.39 172.62 -0.20 
503.89 172.57 0.69 
504.32 172.49 1.56 
503.90 172.91 1.90 
503.90 172.93 2.69 
503.86 172.87 3.49 
503.81 172.91 4.17 
504.17 172.91 5.04 
504.71 172.82 -1.02 
505.09 172.68 -0.71 
505.07 172.64 0.17 
504.80 172.83 0.85 
505.04 172.58 1.49 
504.74 172.74 2.09 
504.72 172.69 2.71 
504.69 172.65 3.34 
504.69 172.98 4.23 
504.66 172.91 5.13 
505.26 172.65 -1.20 
505.25 172.63 -0.71 
505.45 172.76 0.25 
505.43 172.73 0.68 
505.39 172.67 1.54 
505.49 172.93 2.23 
505.32 172.96 2.78 
505.89 172.69 3.41 
506.28 172.86 -1.29 
506.27 172.85 -0.82 
506.24 172.81 0.28 
506.23 172.79 0.75 
506.21 172.77 1.54 
506.19 172.74 2.34 
506.33 172.98 3.10 
506.40 172.74 3.52 
506.92 172.71 -1.05 
506.72 172.82 -0.66 
506.90 172.68 0.06 
506.89 172.66 0.79 
506.87 172.63 1.54 
507.14 173.02 2.24 
507.14 173.01 2.61 
508.02 172.91 -0.62 
508.00 172.91 -0.13 
507.96 172.92 0.87 
507.94 172.93 1.37 
507.90 172.94 2.37 
507.88 172.94 2.87 
507.86 172.95 3.37 
508.68 172.86 -1.01 
508.64 172.96 -0.60 
508.45 172.87 0.13 
508.64 172.93 0.78 
508.42 172.91 1.36 
508.62 172.91 2.18 
508.30 172.88 2.82 
508.39 172.56 3.46 
509.08 172.96 -1.01 
509.07 172.84 -0.71 
509.09 172.72 -0.04 
509.07 172.71 0.78 
509.06 172.69 1.44 
509.05 172.68 1.94 
508.94 172.60 2.73 
509.25 172.68 3.78 
508.75 172.59 4.08 
509.10 173.05 4.84 
509.22 172.61 5.62 
509.85 172.63 -0.96 
509.65 172.54 -0.55 
509.65 172.53 0.16 
509.70 172.66 0.86 
509.69 172.65 1.42 
509.69 172.64 1.99 
509.55 172.69 2.99 
509.60 172.97 3.70 
509.84 172.84 4.48 
509.77 172.69 4.80 
509.56 172.98 5.67 
510.48 172.64 -0.98 
510.48 172.62 -0.61 
510.47 172.61 -0.06 
510.46 172.58 0.86 
510.46 172.56 1.59 
510.45 172.55 1.97 
510.56 172.76 3.56 
510.58 172.57 3.94 
511.31 172.65 -1.37 
511.18 172.71 -0.62 
511.33 172.60 -0.02 
510.92 172.80 0.84 
511.34 172.95 1.35 
511.05 172.74 1.99 
511.00 172.75 2.86 
510.96 172.77 3.73 
510.91 172.78 4.60 
511.42 172.53 5.19 
511.07 172.49 5.33 
511.96 172.57 -0.64 
511.94 172.56 0.27 
512.16 173.05 0.47 
511.94 172.77 1.38 
511.98 172.87 2.08 
511.77 173.05 2.94 
511.90 172.50 3.41 
511.85 172.52 3.94 
512.04 172.99 5.01 
512.02 172.98 5.93 
512.68 172.52 -0.57 
512.89 172.54 0.38 
512.80 172.90 1.62 
512.77 172.77 2.24 
512.22 172.78 2.66 
512.84 172.99 3.91 
512.62 173.04 4.07 
512.43 172.94 4.89 
513.38 172.77 0.32 
513.42 172.42 0.50 
513.14 172.75 1.73 
513.39 172.78 1.92 
513.47 172.48 3.11 
513.09 172.76 3.25 
513.10 173.03 4.37 
513.09 172.77 5.00 
514.29 172.64 -0.08 
513.94 172.78 1.02 
513.98 172.45 1.67 
514.18 172.71 2.10 
513.75 173.05 2.64 
514.10 172.78 3.44 
514.17 172.82 4.08 
513.86 173.07 4.96 
514.22 172.55 5.49 
514.65 172.73 0.39 
514.39 172.76 0.57 
514.94 172.87 1.70 
514.87 172.87 2.26 
514.92 173.05 3.18 
514.59 172.71 3.50 
514.49 172.31 4.24 
514.79 172.57 5.18 
515.31 172.41 0.27 
515.65 172.70 1.09 
515.27 172.63 1.40 
515.47 172.87 2.40 
515.11 172.97 2.60 
515.08 172.74 3.58 
515.42 172.74 4.21 
515.64 172.62 5.23 
515.12 173.04 5.37 
516.15 172.96 0.35 
516.16 172.49 0.89 
515.93 172.47 1.58 
516.02 172.76 2.09 
516.23 173.01 2.53 
516.82 172.53 0.32 
516.74 172.46 0.60 
516.77 172.54 1.62 
516.75 172.66 2.10 
516.61 172.87 2.65 
516.93 172.59 3.37 
517.36 172.66 0.56 
517.29 172.57 1.59 
517.30 172.79 1.93 
496.44 173.29 -0.50 
497.43 173.13 -0.39 
497.38 173.39 -0.09 
497.95 173.30 -1.45 
497.80 173.12 -0.80 
498.28 173.14 -1.42 
499.87 173.40 -1.40 
500.31 173.27 1.35 
501.09 173.41 -1.35 
501.51 173.38 1.12 
502.97 173.17 -1.23 
502.89 173.31 -0.61 
502.87 173.28 -0.09 
502.85 173.24 0.43 
502.81 173.17 1.48 
502.79 173.14 2.00 
502.77 173.11 2.53 
503.70 173.71 -1.36 
503.31 173.60 -0.65 
503.28 173.56 -0.12 
503.23 173.48 0.96 
503.20 173.44 1.50 
503.18 173.40 2.04 
503.11 173.55 3.03 
504.04 173.30 -1.28 
504.28 173.58 -0.48 
504.25 173.52 0.24 
504.22 173.47 0.96 
504.18 173.41 1.68 
504.23 173.66 2.01 
504.20 173.60 2.71 
504.16 173.55 3.42 
504.30 173.45 4.29 
504.27 173.40 5.10 
504.91 173.35 -1.03 
505.02 173.24 -0.60 
505.00 173.21 0.18 
504.84 173.23 0.71 
504.80 173.16 1.59 
504.95 173.13 2.15 
505.08 173.20 2.70 
505.06 173.16 3.32 
504.69 173.65 4.16 
504.65 173.59 5.02 
505.60 173.51 -0.98 
505.71 173.54 -0.66 
505.53 173.52 -0.11 
505.46 173.53 0.76 
505.40 173.54 1.63 
505.56 173.61 2.19 
505.62 173.39 2.73 
505.41 173.65 3.30 
505.98 173.14 -1.30 
506.42 173.45 -0.89 
506.36 173.30 0.16 
506.38 173.39 0.69 
506.36 173.36 1.56 
506.35 173.34 2.15 
506.60 173.39 2.61 
506.55 173.40 3.35 
506.49 173.42 4.09 
507.02 173.24 -0.97 
507.02 173.63 -0.62 
507.27 173.60 0.06 
506.96 173.65 0.81 
507.09 173.56 1.61 
507.05 173.57 2.23 
507.00 173.58 2.84 
506.99 173.27 3.77 
507.60 173.53 -0.98 
507.59 173.53 -0.58 
507.74 173.47 -0.10 
507.72 173.46 0.78 
507.71 173.46 1.49 
507.69 173.45 2.20 
507.74 173.39 2.61 
507.28 173.13 3.44 
508.29 173.36 -0.88 
508.31 173.28 -0.51 
508.30 173.27 -0.04 
508.26 173.33 0.74 
508.32 173.32 1.56 
508.27 173.23 2.02 
508.10 173.13 2.67 
508.52 173.30 3.70 
508.66 173.53 4.02 
508.59 173.53 4.88 
508.76 173.18 -1.00 
508.78 173.18 -0.49 
508.83 173.15 0.22 
508.90 173.04 0.63 
509.12 173.29 1.34 
509.11 173.26 2.13 
509.17 173.14 2.98 
509.04 173.70 3.91 
509.06 173.71 3.95 
509.24 173.22 4.90 
508.93 173.69 5.56 
509.83 173.41 -0.95 
509.79 173.48 -0.80 
509.71 173.51 0.18 
509.80 173.42 0.92 
509.80 173.40 1.35 
509.92 173.36 2.12 
509.91 173.34 2.99 
509.73 173.17 3.65 
509.88 173.30 4.74 
509.88 173.30 4.74 
509.61 173.31 5.60 
510.43 173.57 -0.57 
510.11 173.58 0.21 
510.37 173.12 0.46 
510.38 173.09 1.30 
510.53 173.67 2.29 
510.41 173.21 2.80 
510.03 173.54 3.70 
510.30 173.71 4.75 
510.71 173.57 5.97 
511.17 173.61 -0.61 
511.11 173.35 0.33 
511.21 173.74 1.06 
510.96 173.57 1.43 
511.20 173.66 2.13 
510.93 173.41 2.84 
511.32 173.20 3.91 
510.94 173.35 4.03 
512.15 173.56 -1.09 
512.03 173.77 -0.55 
511.63 173.63 0.12 
511.67 173.13 0.56 
511.99 173.38 1.60 
511.81 173.46 2.19 
511.60 173.14 3.15 
511.94 173.56 3.71 
511.60 173.13 4.02 
511.59 173.11 4.89 
512.35 173.66 -1.06 
512.34 173.65 -0.80 
512.76 173.08 0.30 
512.44 173.31 1.67 
512.76 173.25 2.15 
512.24 173.52 2.93 
512.72 173.68 3.40 
512.52 173.19 4.38 
512.50 173.57 5.08 
512.65 173.23 5.62 
513.32 173.49 1.15 
513.38 173.41 2.34 
513.27 173.45 3.02 
513.17 173.47 3.58 
513.24 173.43 3.96 
513.12 173.72 5.25 
513.18 173.39 5.86 
513.06 173.70 6.21 
513.62 173.15 1.02 
514.05 173.53 2.44 
514.12 173.13 2.82 
513.86 173.51 3.60 
514.24 173.18 4.12 
513.98 173.23 4.68 
514.22 173.69 5.89 
514.97 173.32 0.64 
514.40 173.66 1.67 
514.66 173.36 2.18 
514.71 173.33 4.08 
514.35 173.58 4.96 
514.33 173.57 5.88 
515.00 173.62 6.22 
515.48 173.10 0.81 
515.32 173.31 1.62 
515.20 173.29 2.28 
515.08 173.37 2.96 
515.50 173.15 4.45 
515.18 173.47 5.27 
515.56 173.11 5.40 
516.05 173.24 1.53 
516.10 173.10 2.10 
516.21 173.45 2.80 
516.26 173.71 5.56 
516.90 173.18 0.61 
517.05 173.70 1.18 
516.76 173.25 2.28 
517.31 173.20 0.63 
517.18 173.17 1.21 
497.44 174.27 -1.38 
498.05 174.02 -1.39 
497.72 174.13 -0.81 
503.61 174.27 -1.06 
503.65 174.11 -0.62 
503.63 174.07 -0.09 
503.53 174.14 0.95 
503.52 174.11 1.46 
503.53 173.91 2.03 
503.46 174.01 3.00 
504.06 174.18 -1.31 
504.35 173.90 -0.76 
504.37 174.16 0.31 
504.35 174.12 0.93 
504.32 174.07 1.55 
504.27 174.37 2.04 
504.27 173.99 2.79 
504.24 173.94 3.42 
504.54 173.86 -1.23 
504.97 174.40 -0.48 
504.93 174.34 0.32 
504.64 174.02 0.98 
504.66 174.28 1.34 
504.63 174.22 2.02 
504.81 174.16 2.76 
504.80 174.14 3.48 
504.77 174.08 4.27 
504.73 174.03 5.07 
505.63 174.10 -1.30 
505.62 174.08 -0.74 
505.89 174.09 0.19 
505.86 174.30 0.90 
505.83 174.26 1.49 
505.74 174.33 2.27 
505.78 174.18 2.69 
505.76 174.13 3.29 
505.63 174.08 3.95 
505.58 174.09 4.67 
506.14 174.19 -1.00 
506.27 174.33 -0.61 
506.30 174.26 -0.07 
506.23 174.26 1.01 
506.39 174.27 1.62 
506.36 174.07 2.14 
506.32 174.08 2.74 
506.27 174.09 3.34 
506.87 174.06 -0.97 
507.06 174.26 -0.67 
507.11 174.08 0.15 
507.05 174.23 0.77 
507.02 174.22 1.46 
507.06 173.89 2.13 
506.89 173.86 2.74 
506.94 174.04 3.40 
507.20 174.21 4.41 
507.36 174.07 -1.22 
507.54 174.06 -0.59 
507.52 174.01 0.15 
507.55 173.93 0.75 
507.53 173.92 1.49 
507.39 173.97 1.96 
507.66 174.31 3.02 
507.59 174.31 3.85 
507.97 174.45 4.56 
507.52 174.32 4.69 
508.49 174.02 -0.50 
508.43 174.02 0.22 
508.38 174.03 0.93 
508.32 174.03 1.65 
508.50 174.40 2.13 
508.34 174.16 3.17 
508.23 174.39 3.62 
508.09 174.05 4.53 
509.03 174.35 -0.57 
509.32 174.27 -0.06 
509.31 174.25 0.74 
509.30 174.23 1.38 
509.15 174.16 2.34 
509.15 174.23 2.85 
509.19 174.26 3.62 
509.40 174.36 4.82 
509.70 174.37 -1.25 
509.81 174.03 -0.61 
509.85 174.25 0.23 
509.84 174.24 0.73 
509.83 174.24 1.48 
509.60 174.05 2.15 
509.74 173.88 2.98 
509.72 173.84 3.89 
509.94 173.97 4.10 
510.01 174.03 4.67 
510.00 174.00 5.57 
510.59 174.39 -1.06 
510.15 174.18 -0.62 
510.18 173.97 0.10 
510.32 174.15 0.70 
510.29 174.02 1.26 
510.48 174.26 2.14 
510.13 173.88 2.75 
510.25 173.95 3.86 
510.49 174.45 4.16 
510.23 173.93 4.73 
510.21 174.04 5.68 
511.01 174.14 -0.73 
511.29 174.37 0.08 
511.50 173.81 0.96 
511.42 173.90 1.47 
511.22 174.28 1.99 
511.01 173.99 2.95 
511.33 173.90 3.55 
510.87 173.84 3.94 
510.94 173.98 4.77 
510.90 173.97 5.68 
511.94 174.41 -1.07 
511.98 174.01 -0.84 
511.52 173.83 0.12 
512.04 174.19 0.49 
511.72 174.06 1.62 
511.88 174.19 2.01 
512.12 174.16 2.74 
512.18 174.43 4.96 
512.27 174.07 -1.05 
512.26 174.06 -0.79 
512.55 174.19 0.52 
512.54 174.34 1.63 
512.66 174.11 2.33 
512.60 174.14 2.94 
512.47 173.74 3.48 
512.92 173.90 5.01 
513.07 174.36 -0.54 
513.04 174.42 0.00 
513.39 173.80 0.47 
513.39 174.02 1.79 
513.18 173.97 2.04 
513.25 174.29 3.15 
513.13 174.19 3.24 
513.12 174.15 4.19 
513.54 174.17 4.89 
513.51 173.85 5.87 
513.06 174.09 6.20 
513.65 174.42 0.92 
513.77 173.78 1.70 
514.01 173.94 2.16 
513.78 174.04 3.17 
513.99 174.02 3.68 
513.78 174.35 4.19 
513.70 173.98 6.02 
513.89 174.24 6.29 
514.38 174.44 -0.71 
514.95 174.12 2.23 
514.62 174.47 3.28 
514.84 174.16 3.50 
514.49 174.32 4.17 
514.51 173.80 4.72 
514.79 174.13 5.91 
514.55 174.26 6.37 
515.04 174.12 -0.52 
515.35 173.93 1.57 
515.33 174.12 2.42 
515.40 174.22 2.58 
515.52 174.34 3.25 
515.74 174.02 4.31 
515.11 173.83 5.03 
516.10 174.04 1.50 
515.81 174.15 2.15 
515.92 174.29 3.22 
515.83 174.19 4.61 
516.12 174.09 5.16 
516.32 173.86 5.65 
516.95 173.81 1.08 
516.89 174.00 1.13 
516.59 174.39 5.56 
496.66 174.81 -1.36 
497.37 175.13 -1.35 
497.63 174.59 -1.37 
500.33 174.62 -1.30 
503.94 174.71 -1.02 
504.32 174.99 -0.55 
504.30 174.95 -0.04 
504.28 174.91 0.47 
504.23 174.84 1.50 
504.20 174.80 2.01 
504.11 174.93 2.93 
504.82 174.77 -1.47 
505.15 175.00 -0.66 
505.12 174.94 0.01 
505.15 174.83 0.97 
505.11 174.84 1.58 
505.03 174.77 2.04 
505.00 174.71 2.72 
504.98 174.87 3.39 
504.94 174.60 4.10 
505.19 174.64 5.05 
505.45 175.08 -1.12 
505.63 174.83 -0.48 
505.43 175.05 0.03 
505.61 174.73 1.01 
505.49 174.86 1.59 
505.46 174.86 2.11 
505.51 174.75 2.68 
505.25 174.75 3.48 
505.22 174.70 4.26 
506.40 174.83 -0.95 
506.18 174.63 -0.89 
506.23 174.46 0.02 
506.37 174.79 0.92 
506.36 174.78 1.48 
506.00 174.44 2.18 
506.03 174.48 2.54 
505.96 174.49 3.38 
506.51 175.06 4.51 
506.63 174.71 -1.27 
506.61 174.69 -0.58 
506.65 174.62 0.15 
506.70 174.59 0.67 
506.73 174.56 1.48 
506.71 175.04 2.08 
506.82 174.98 2.78 
507.21 175.01 3.30 
507.15 175.02 4.02 
506.86 175.17 5.02 
507.54 174.63 -1.03 
507.80 174.80 -0.56 
507.55 174.67 0.17 
507.49 174.67 0.87 
507.73 175.09 1.79 
507.39 174.68 2.26 
507.93 174.68 2.74 
507.88 174.59 3.50 
507.86 174.48 4.42 
507.80 174.48 5.21 
508.55 174.67 -0.87 
508.54 174.86 -0.74 
508.27 174.68 -0.09 
508.40 174.93 0.66 
508.37 174.92 1.46 
508.36 174.92 1.87 
508.55 174.68 2.90 
508.66 175.16 3.92 
508.53 174.69 4.52 
509.03 174.76 -0.40 
509.19 174.85 0.16 
509.17 174.76 0.83 
509.16 174.74 1.49 
509.04 174.69 2.13 
509.13 174.91 2.94 
508.90 174.59 3.68 
509.05 174.68 4.59 
509.73 174.85 -0.63 
509.63 174.51 0.17 
509.44 174.57 0.71 
509.61 174.49 1.37 
509.76 174.96 1.97 
509.79 174.91 3.08 
509.77 174.87 3.68 
510.15 174.69 -0.86 
510.55 174.63 0.12 
510.54 174.60 1.00 
510.42 174.78 1.82 
510.55 174.83 2.20 
510.47 174.71 2.96 
510.36 174.72 3.35 
510.73 174.71 4.01 
511.08 174.99 -0.87 
511.38 175.07 0.06 
510.98 174.89 1.41 
511.31 174.78 2.09 
511.14 174.96 3.02 
511.16 174.76 4.50 
510.96 175.01 4.78 
511.76 174.87 -0.61 
511.87 174.89 0.03 
511.87 175.01 0.81 
511.90 174.74 1.53 
511.61 174.59 2.00 
511.64 174.70 3.15 
511.77 174.78 4.11 
511.69 174.75 4.93 
512.56 175.00 -0.48 
512.67 175.05 -0.04 
512.35 175.11 0.68 
512.42 174.63 1.68 
512.65 174.59 2.05 
512.77 174.91 2.63 
512.57 174.60 3.37 
512.61 174.85 4.19 
512.30 175.09 5.39 
513.32 174.61 -0.50 
512.93 174.61 0.00 
513.07 174.90 0.79 
513.23 174.69 1.51 
513.30 174.89 2.05 
513.19 174.65 2.70 
513.29 174.95 3.67 
513.53 174.69 4.03 
512.96 174.93 5.04 
514.02 174.53 1.70 
514.02 174.89 2.40 
514.24 174.66 3.18 
514.01 174.88 3.30 
513.98 174.83 3.96 
514.76 174.58 -0.84 
514.88 175.05 1.61 
514.43 174.77 2.24 
514.82 175.03 3.09 
514.81 174.84 3.55 
514.72 175.04 4.96 
514.98 174.47 6.01 
515.16 174.54 -0.55 
515.49 174.80 1.50 
515.30 174.78 2.23 
515.27 174.90 2.83 
515.61 174.71 3.41 
515.24 174.79 4.07 
515.60 174.95 5.09 
515.72 174.76 1.57 
515.78 174.75 1.87 
516.11 174.55 2.57 
515.85 174.78 3.23 
515.88 174.64 4.34 
516.07 174.65 5.31 
516.07 174.86 5.54 
516.97 174.85 2.17 
516.49 174.75 5.15 
517.33 174.72 2.59 
517.17 175.04 6.15 
497.14 175.66 -1.34 
499.58 175.80 -1.25 
499.93 175.21 -1.27 
504.25 175.18 -0.99 
504.51 175.49 0.48 
504.48 175.43 1.44 
504.53 175.23 2.01 
504.43 175.34 2.90 
504.99 175.42 -0.95 
504.64 175.41 -0.52 
504.94 175.42 0.02 
504.90 175.42 0.98 
504.97 175.26 1.53 
504.93 175.26 2.04 
504.80 175.43 2.92 
505.77 175.71 -1.07 
505.74 175.66 -0.34 
505.71 175.61 0.40 
505.81 175.61 0.44 
505.78 175.56 1.19 
505.74 175.50 1.95 
505.71 175.45 2.71 
505.68 175.39 3.48 
505.65 175.34 4.25 
505.62 175.29 5.02 
506.35 175.83 -1.04 
505.97 175.84 -0.57 
505.92 175.84 0.09 
506.35 175.86 0.47 
506.21 175.83 1.17 
506.26 175.85 1.98 
506.21 175.85 2.73 
506.16 175.85 3.49 
506.11 175.84 4.25 
505.97 175.82 4.85 
506.82 175.27 -1.23 
506.77 175.27 -0.55 
506.94 175.47 -0.12 
506.92 175.43 0.49 
506.87 175.35 1.71 
506.84 175.30 2.32 
507.01 175.17 2.74 
506.96 175.17 3.50 
507.01 175.17 4.40 
506.86 175.17 5.02 
507.62 175.14 -0.75 
507.69 175.56 -0.86 
507.32 175.19 -0.25 
507.81 175.63 2.26 
508.00 175.59 2.84 
507.91 175.17 3.38 
508.46 175.31 -1.05 
508.29 175.49 -0.72 
508.08 175.27 0.24 
508.07 175.26 0.59 
508.18 175.11 1.37 
508.21 175.73 2.29 
508.48 175.46 3.23 
508.33 175.24 3.42 
508.81 175.55 -0.90 
508.91 175.67 1.72 
508.97 175.71 2.20 
509.30 175.47 3.13 
508.85 175.39 3.67 
509.27 175.41 3.97 
509.60 175.40 -0.78 
510.06 175.75 1.73 
509.97 175.59 2.02 
509.65 175.26 2.97 
509.55 175.67 3.83 
510.65 175.17 -0.82 
510.51 175.34 0.35 
510.68 175.59 0.75 
510.53 175.73 1.45 
510.30 175.55 2.04 
510.42 175.20 3.03 
510.23 175.49 3.42 
510.78 175.17 4.03 
510.81 175.30 5.17 
511.01 175.69 -0.49 
511.15 175.17 1.45 
511.34 175.53 2.22 
511.49 175.63 2.69 
511.15 175.79 3.31 
510.87 175.67 4.07 
511.38 175.67 4.79 
511.90 175.39 -0.60 
511.74 175.23 0.36 
511.99 175.42 0.76 
511.92 175.49 1.48 
511.95 175.41 2.36 
511.94 175.39 2.76 
512.14 175.84 4.87 
512.84 175.37 -0.58 
512.34 175.21 -0.24 
512.82 175.19 0.83 
512.65 175.30 1.60 
512.45 175.12 2.02 
512.45 175.76 3.77 
512.55 175.46 4.97 
513.15 175.13 1.61 
513.05 175.47 2.08 
513.01 175.62 3.26 
513.01 175.56 4.18 
513.28 175.39 4.73 
514.13 175.84 -1.09 
514.17 175.28 1.69 
514.18 175.86 1.95 
513.76 175.42 2.84 
513.83 175.81 3.87 
514.15 175.43 4.11 
513.90 175.52 5.16 
514.14 175.53 5.70 
514.33 175.75 1.61 
514.79 175.83 2.06 
514.42 175.35 2.71 
514.72 175.41 4.83 
514.42 175.31 5.85 
515.50 175.67 -0.51 
515.41 175.32 1.76 
515.41 175.64 2.26 
515.18 175.74 2.91 
515.57 175.69 3.50 
515.50 175.69 4.45 
516.14 175.26 1.82 
516.09 175.53 2.20 
516.30 175.66 3.20 
516.16 175.44 3.40 
516.28 175.72 5.03 
515.85 175.61 5.33 
516.52 175.73 2.16 
516.64 175.26 2.69 
516.69 175.21 5.31 
516.96 175.46 5.42 
516.98 175.29 6.14 
517.17 175.82 2.71 
496.92 176.19 -1.32 
499.24 176.38 -1.23 
506.25 176.02 -1.11 
506.33 176.31 -0.86 
507.15 176.23 -1.07 
507.11 176.35 -0.83 
506.94 176.02 0.13 
506.68 176.22 0.58 
506.65 176.17 1.53 
506.80 176.05 2.14 
506.77 176.03 2.65 
507.46 176.38 -1.04 
508.00 176.50 -0.42 
507.95 176.48 -0.19 
507.92 176.43 0.54 
507.84 176.51 1.57 
507.80 176.48 2.24 
507.79 176.23 2.59 
508.40 176.10 -0.77 
508.08 176.54 -0.16 
508.05 176.49 0.59 
508.45 176.53 1.80 
508.67 176.00 2.09 
509.04 175.95 1.82 
509.14 176.00 2.09 
510.08 175.97 -0.73 
510.07 176.24 -0.23 
509.84 176.40 2.21 
509.98 176.42 2.61 
509.99 176.12 3.86 
509.76 176.20 4.48 
510.54 175.95 -0.37 
510.38 176.17 0.36 
510.39 176.38 0.79 
510.67 176.18 1.48 
510.53 176.57 1.95 
510.65 176.29 2.73 
510.72 176.30 3.49 
511.39 176.38 -0.84 
511.34 176.36 -0.02 
510.86 176.10 0.93 
510.88 176.17 1.56 
511.27 176.22 2.10 
511.08 176.39 2.93 
510.99 176.40 3.63 
511.88 176.51 1.69 
511.89 176.04 2.24 
511.61 175.91 3.22 
511.93 176.01 3.51 
512.01 176.41 4.04 
511.67 176.38 5.03 
512.80 176.37 -0.66 
512.69 176.07 1.57 
512.59 176.18 2.27 
512.43 176.09 3.18 
512.71 176.15 3.76 
512.40 176.04 4.09 
512.63 176.43 4.90 
513.41 176.32 2.19 
513.32 176.34 2.72 
513.42 176.33 4.26 
513.33 176.09 4.75 
514.10 176.40 -1.04 
513.89 176.18 2.18 
513.85 176.06 3.06 
513.67 176.19 3.54 
514.02 176.35 5.01 
513.79 176.13 5.49 
514.42 176.21 -1.07 
514.52 176.17 1.66 
514.63 176.12 2.12 
514.64 176.48 2.87 
514.66 176.32 4.07 
514.48 176.18 4.78 
514.47 176.32 5.77 
515.35 176.02 1.82 
515.37 176.14 1.91 
515.47 176.06 2.90 
515.23 175.99 3.85 
515.31 176.24 4.34 
516.20 175.92 1.41 
516.07 176.10 2.11 
516.15 176.25 2.84 
516.29 175.99 3.57 
515.74 176.22 4.05 
516.86 176.30 2.36 
516.63 176.49 2.81 
516.45 176.53 4.07 
516.61 176.05 5.13 
517.17 176.44 2.49 
517.34 176.42 2.62 
496.51 176.64 -1.19 
498.90 176.94 -1.20 
503.15 176.82 -0.96 
506.61 176.66 -0.83 
507.31 177.04 1.63 
507.02 176.62 2.12 
507.85 176.85 -0.74 
507.58 176.78 1.64 
507.91 177.05 2.05 
508.02 176.82 1.67 
508.30 177.15 2.21 
508.90 176.89 2.09 
509.13 176.93 4.42 
509.30 176.68 4.71 
509.89 177.13 2.15 
509.49 177.11 4.50 
510.00 176.94 5.21 
510.35 177.03 2.28 
510.52 177.15 2.96 
510.60 176.59 3.34 
510.58 177.12 4.01 
510.36 176.73 4.63 
510.16 177.01 5.37 
511.40 176.64 -0.77 
511.37 176.60 -0.01 
511.51 176.72 0.49 
511.49 177.05 1.46 
511.16 177.02 2.55 
511.16 177.02 2.55 
511.16 177.16 3.45 
511.52 176.62 -0.76 
511.86 176.88 0.80 
511.87 176.78 1.57 
511.86 176.88 2.42 
511.69 177.02 2.58 
512.20 177.02 3.78 
512.10 176.60 5.21 
511.54 176.85 5.43 
512.66 176.83 1.99 
512.65 176.93 2.89 
512.91 176.81 3.89 
512.75 176.73 4.54 
512.55 176.97 5.24 
512.37 176.85 5.67 
513.34 176.89 2.17 
513.34 176.74 3.65 
513.08 177.09 4.00 
512.92 176.89 5.15 
513.90 177.02 2.30 
514.14 176.97 2.96 
513.66 177.06 3.26 
513.94 176.70 4.11 
515.01 176.78 2.16 
514.50 177.05 3.05 
514.47 177.20 3.45 
514.51 176.80 5.22 
514.71 176.70 5.77 
515.31 177.06 2.27 
515.52 176.69 2.78 
515.62 176.71 3.63 
515.41 176.59 4.14 
516.09 176.80 3.10 
516.07 176.84 4.06 
516.62 176.77 2.71 
516.92 176.81 3.24 
516.50 176.58 4.11 
517.21 176.67 2.76 
495.07 177.56 -1.33 
506.44 177.77 -0.76 
507.44 177.32 1.53 
507.73 177.44 2.47 
508.55 177.47 1.62 
508.46 177.66 2.05 
508.31 177.49 2.68 
509.14 177.46 1.67 
509.10 177.55 2.27 
509.33 177.90 2.77 
509.31 177.87 3.27 
509.69 177.53 1.72 
509.65 177.75 2.29 
509.57 177.30 3.08 
510.04 177.91 3.42 
510.27 177.68 2.11 
510.24 177.60 3.67 
511.33 177.42 2.10 
511.00 177.68 3.22 
510.97 177.73 3.74 
511.51 177.64 3.99 
511.58 177.55 1.75 
511.82 177.68 2.12 
511.69 177.68 3.60 
512.14 177.61 3.99 
512.60 177.86 -0.96 
512.78 177.54 2.41 
512.85 177.82 3.01 
512.40 177.38 3.71 
513.13 177.34 1.61 
513.24 177.64 1.94 
513.38 177.53 2.75 
513.42 177.75 3.89 
514.03 177.48 2.23 
514.29 177.53 2.75 
513.76 177.43 3.41 
513.91 177.88 3.95 
514.98 177.70 1.81 
514.74 177.66 2.13 
514.48 177.60 3.09 
515.42 177.72 2.26 
515.29 177.73 5.96 
515.97 177.40 2.00 
515.92 177.47 2.54 
516.50 177.47 2.26 
516.89 177.79 3.20 
516.91 177.74 4.13 
517.33 177.72 4.16 
495.16 177.97 -1.19 
509.30 178.36 2.54 
509.38 178.53 3.28 
509.63 178.02 2.12 
509.64 178.12 2.82 
509.47 177.97 3.34 
509.80 178.03 4.37 
510.11 178.50 1.68 
510.28 178.24 2.18 
510.16 178.64 3.05 
510.43 178.54 3.68 
510.27 177.97 4.40 
511.47 178.51 2.27 
511.17 178.70 3.74 
510.98 178.52 4.17 
511.75 178.03 1.95 
511.94 178.26 2.83 
511.85 178.48 3.60 
512.54 178.05 2.92 
512.67 178.61 3.35 
512.92 178.18 4.05 
512.97 178.49 1.79 
513.24 178.33 2.05 
513.09 178.29 3.20 
513.08 178.08 3.43 
513.06 178.24 3.98 
513.09 178.17 4.84 
513.69 178.24 1.95 
513.81 177.99 3.13 
513.98 178.64 3.51 
514.71 178.29 1.98 
514.91 178.03 3.00 
514.38 178.64 3.39 
516.89 178.40 3.39 
516.97 178.15 4.22 
517.14 178.18 4.34 
493.04 178.67 -1.08 
493.83 178.75 -1.23 
494.07 179.13 -1.22 
509.39 178.97 2.50 
509.17 178.57 2.97 
510.29 178.92 1.68 
510.59 178.95 1.86 
510.46 178.99 2.89 
511.40 178.90 2.33 
511.17 178.70 3.74 
511.54 178.76 1.60 
511.95 178.98 2.00 
512.11 178.78 3.15 
511.81 179.11 3.23 
512.57 179.12 2.01 
512.79 178.69 3.16 
512.67 178.80 3.69 
513.26 178.78 1.68 
513.60 178.73 2.05 
513.04 179.11 2.69 
513.16 178.99 3.92 
513.22 178.94 4.23 
513.77 178.82 1.84 
514.21 178.98 2.58 
514.37 178.80 2.72 
493.65 179.42 -1.12 
494.12 179.51 -1.06 
510.32 179.37 3.03 
511.37 179.54 3.80 
511.46 179.37 3.99 
511.81 179.46 1.61 
511.60 179.43 1.87 
511.66 180.03 3.81 
511.82 179.94 4.00 
512.65 179.57 3.31 
512.94 179.39 3.13 
512.95 179.45 3.37 
513.62 179.38 3.95 
493.95 180.09 -1.10 
494.15 180.17 -1.11 
496.67 180.76 -1.08 
511.21 180.09 4.46 
511.67 180.10 4.40 
494.44 180.94 -1.08 
