# .PCD v0.7 - Point Cloud Data file format
VERSION 0.7
FIELDS x y z
SIZE 4 4 4
TYPE F F F
COUNT 1 1 1
WIDTH 209
HEIGHT 1
VIEWPOINT 0 0 0 1 0 0 0
POINTS 209
DATA ascii
506.59 -13.84 -3.74 
506.58 -13.85 -2.80 
507.59 -14.15 -4.29 
507.26 -13.97 -3.74 
507.48 -14.06 -2.95 
507.39 -14.04 -2.65 
507.25 -13.98 -1.90 
507.45 -14.12 -1.05 
508.28 -14.51 -4.28 
507.85 -14.26 -3.84 
507.89 -14.28 -2.98 
508.06 -14.39 -2.64 
508.06 -14.42 -1.89 
507.81 -14.32 -1.31 
508.46 -14.53 -4.05 
508.39 -14.51 -2.94 
508.39 -14.52 -1.89 
511.08 -14.16 -3.66 
505.22 -13.14 -1.85 
506.22 -13.44 -4.45 
506.18 -13.25 -4.00 
505.97 -13.26 -3.10 
506.20 -13.45 -2.61 
506.08 -13.39 -1.92 
505.86 -13.20 -0.92 
506.88 -13.76 -4.45 
506.70 -13.60 -4.00 
506.69 -13.61 -2.97 
506.86 -13.78 -2.60 
506.63 -13.72 -1.88 
506.76 -13.71 -1.07 
506.96 -13.73 -4.00 
506.96 -13.74 -2.95 
507.06 -13.82 -2.19 
506.95 -13.81 -1.89 
507.05 -13.82 -1.25 
507.80 -13.27 -3.91 
507.81 -13.26 -2.95 
507.81 -13.26 -1.99 
507.82 -13.25 -1.03 
493.25 -12.44 -3.54 
493.51 -12.46 -3.07 
493.49 -12.45 -2.19 
493.25 -12.47 -1.63 
493.47 -12.45 -1.32 
493.45 -12.45 -0.44 
493.43 -12.45 0.44 
493.42 -12.44 1.33 
493.34 -12.48 2.25 
493.97 -12.83 -4.12 
493.96 -12.84 -3.25 
493.94 -12.84 -2.38 
493.93 -12.84 -1.51 
493.92 -12.85 -0.63 
493.90 -12.86 0.24 
493.89 -12.86 1.13 
493.88 -12.87 2.01 
504.51 -12.78 -1.84 
505.07 -12.78 -4.18 
505.07 -12.79 -3.11 
505.06 -12.81 -2.04 
505.06 -12.82 -0.97 
505.62 -12.87 -4.02 
505.61 -12.89 -3.02 
505.60 -12.91 -2.02 
505.60 -12.93 -1.01 
506.89 -12.82 -3.84 
506.89 -12.83 -2.85 
506.88 -12.84 -1.85 
506.94 -12.60 -4.29 
507.20 -12.82 -3.72 
506.96 -12.58 -3.34 
507.20 -12.81 -2.78 
507.21 -12.80 -1.84 
506.98 -12.53 -1.43 
493.24 -12.43 -4.49 
493.02 -12.04 -3.42 
492.98 -12.07 -0.84 
492.96 -12.08 0.03 
492.95 -12.09 0.90 
492.94 -12.10 1.77 
506.60 -11.79 -3.88 
506.65 -12.18 -2.83 
506.58 -11.80 -2.81 
506.57 -11.82 -1.73 
506.97 -12.22 -3.54 
506.97 -12.22 -2.59 
506.98 -12.22 -1.64 
507.86 -12.35 -4.67 
507.86 -12.34 -3.72 
507.69 -11.80 -3.46 
507.87 -12.33 -2.78 
507.88 -12.31 -1.82 
507.88 -12.30 -0.87 
508.46 -12.22 -4.50 
508.46 -12.21 -3.46 
505.12 -11.60 -4.03 
505.11 -11.61 -2.95 
505.10 -11.62 -1.87 
505.80 -11.36 -3.89 
506.21 -11.30 -3.16 
505.78 -11.38 -2.82 
505.77 -11.39 -1.75 
506.67 -11.55 -3.99 
506.34 -11.35 -3.33 
506.55 -11.12 -1.90 
507.63 -11.69 -4.85 
507.00 -11.67 -3.97 
506.99 -11.68 -2.90 
507.64 -11.67 -1.88 
507.64 -11.66 -0.89 
508.14 -11.46 -4.02 
508.15 -11.44 -3.03 
508.16 -11.42 -2.04 
508.17 -11.40 -1.04 
503.94 -10.34 -2.83 
503.93 -10.36 -1.74 
504.22 -10.52 -3.90 
504.21 -10.53 -2.85 
504.39 -10.34 -2.51 
504.19 -10.54 -1.79 
505.01 -10.94 -3.90 
505.01 -10.66 -3.47 
505.00 -10.66 -2.45 
504.98 -10.96 -1.77 
505.74 -11.02 -3.46 
505.61 -10.98 -2.33 
507.15 -10.70 -3.69 
507.16 -10.69 -2.71 
507.16 -10.68 -1.73 
507.96 -10.79 -3.79 
507.73 -10.34 -3.44 
507.96 -10.80 -2.75 
507.95 -10.81 -1.71 
509.22 -10.57 -3.86 
509.22 -10.56 -2.83 
509.23 -10.55 -1.81 
502.69 -9.69 -3.92 
502.67 -9.70 -2.87 
502.65 -9.71 -1.83 
503.12 -9.88 -3.91 
503.11 -9.90 -2.83 
503.11 -9.90 -2.83 
503.11 -9.92 -1.75 
503.67 -10.22 -3.90 
503.44 -10.11 -2.86 
503.65 -9.95 -2.51 
504.40 -10.33 -3.53 
504.27 -10.28 -3.47 
504.26 -10.28 -2.46 
508.33 -9.67 -3.70 
507.88 -9.85 -2.72 
507.87 -9.86 -1.68 
508.87 -9.93 -3.85 
508.87 -9.94 -2.78 
508.34 -9.65 -1.69 
501.89 -9.29 -3.93 
501.87 -9.30 -2.89 
501.80 -9.04 -2.73 
501.78 -9.03 -1.73 
501.84 -9.32 -0.81 
502.30 -9.45 -3.91 
502.24 -9.17 -3.11 
502.05 -9.33 -2.81 
502.30 -9.49 -1.77 
502.87 -9.75 -3.89 
502.90 -9.56 -2.51 
502.94 -9.55 -2.09 
508.95 -8.99 -3.21 
508.97 -8.96 -2.17 
500.44 -8.46 -3.88 
500.44 -8.47 -2.82 
500.43 -8.49 -1.75 
500.71 -8.60 -3.91 
500.71 -8.62 -2.85 
500.75 -8.50 -2.17 
501.23 -8.92 -1.74 
500.73 -8.51 -1.17 
501.52 -8.80 -3.12 
508.91 -8.77 -3.74 
508.91 -8.78 -2.66 
508.90 -8.79 -1.57 
508.98 -8.93 -1.12 
509.09 -8.89 -3.80 
509.10 -8.88 -2.75 
509.10 -8.87 -1.69 
509.80 -8.27 -3.97 
509.81 -8.24 -2.90 
499.37 -7.75 -4.20 
499.35 -7.75 -3.20 
499.33 -7.76 -2.19 
499.92 -8.22 -1.80 
499.31 -7.77 -1.19 
500.08 -8.12 -4.19 
500.06 -8.12 -3.19 
500.04 -8.13 -2.18 
500.16 -7.90 -1.10 
502.08 -7.82 -3.91 
502.07 -7.82 -2.84 
502.06 -7.81 -1.77 
509.10 -8.18 -3.42 
509.10 -8.17 -2.37 
509.10 -8.17 -1.32 
509.84 -7.78 -3.58 
509.85 -7.77 -2.52 
509.86 -7.76 -1.46 
500.00 -6.90 -3.88 
499.98 -6.94 -2.81 
499.96 -6.97 -1.73 
