# .PCD v0.7 - Point Cloud Data file format
VERSION 0.7
FIELDS x y z
SIZE 4 4 4
TYPE F F F
COUNT 1 1 1
WIDTH 97
HEIGHT 1
VIEWPOINT 0 0 0 1 0 0 0
POINTS 97
DATA ascii
514.15 17.97 -2.61 
516.84 17.41 -2.50 
515.31 18.77 -1.95 
515.66 18.27 -2.71 
516.55 25.60 -2.12 
516.48 26.90 -0.89 
517.14 26.86 -2.10 
516.30 27.45 -3.54 
517.50 27.35 -2.36 
516.10 28.39 -1.30 
516.87 28.44 -3.27 
513.95 28.67 -3.38 
514.56 28.93 -3.65 
515.25 29.29 -3.72 
516.67 28.67 -3.53 
517.20 28.76 -3.66 
515.08 29.39 -3.33 
516.73 29.62 -3.53 
516.50 29.82 -2.55 
517.23 29.59 -3.45 
514.57 30.47 -4.56 
515.06 30.24 -3.69 
516.10 30.25 -3.33 
515.61 30.13 -2.58 
516.88 30.38 -3.30 
517.08 30.43 -3.25 
510.45 30.79 -2.72 
512.05 31.13 -3.85 
514.60 31.11 -2.26 
516.80 31.33 3.49 
517.59 31.02 -3.44 
517.35 30.82 1.96 
517.49 31.01 3.35 
510.92 31.94 -2.71 
511.52 31.59 -3.89 
513.39 31.71 -3.77 
514.60 31.68 -4.52 
514.61 32.00 -3.46 
514.51 32.06 -2.89 
514.35 31.99 -1.80 
515.78 31.41 -3.68 
516.32 31.45 3.35 
517.55 32.06 -3.68 
517.20 31.78 4.03 
511.63 32.13 -3.84 
514.67 32.13 -3.98 
514.65 32.25 -3.70 
515.36 32.14 -3.66 
515.30 32.36 0.42 
515.77 32.56 -2.80 
516.08 32.63 -1.05 
516.32 32.65 -3.38 
517.31 32.31 -0.52 
503.22 33.20 -2.94 
511.27 33.00 -2.71 
512.60 33.47 -3.53 
513.13 33.04 -3.77 
513.92 33.29 -3.48 
514.25 33.50 -3.51 
515.96 32.84 -3.65 
517.13 33.10 -3.75 
510.76 33.64 -3.63 
511.92 33.57 -3.56 
513.58 33.52 -3.53 
514.41 33.76 -3.71 
514.84 34.12 -4.43 
515.24 33.91 -3.67 
516.00 33.99 -3.64 
516.43 34.16 -3.38 
517.46 33.59 -3.51 
501.13 34.38 -2.55 
501.12 34.43 -1.48 
502.31 34.58 -3.12 
512.96 34.89 -3.55 
516.02 34.67 -3.39 
516.51 34.33 -3.61 
517.13 34.39 -3.35 
516.94 34.54 -0.29 
500.84 35.11 -3.21 
501.02 35.28 -2.67 
500.88 35.12 -1.43 
500.87 35.15 -0.54 
500.86 35.19 0.35 
500.94 35.46 1.63 
502.15 35.07 -3.00 
501.86 35.05 -2.09 
501.84 35.09 -1.15 
501.82 35.13 -0.21 
501.81 35.17 0.74 
501.79 35.21 1.68 
502.26 35.07 -3.39 
512.10 35.09 -2.69 
513.57 35.28 -3.95 
515.62 35.18 -3.40 
516.63 35.20 -1.74 
517.09 35.10 -3.73 
517.51 35.06 -2.46 
