# .PCD v0.7 - Point Cloud Data file format
VERSION 0.7
FIELDS x y z
SIZE 4 4 4
TYPE F F F
COUNT 1 1 1
WIDTH 1964
HEIGHT 1
VIEWPOINT 0 0 0 1 0 0 0
POINTS 1964
DATA ascii
538.20 110.56 -0.64 
538.58 110.93 0.71 
538.43 110.66 1.47 
538.15 110.90 2.21 
539.14 110.48 -0.73 
538.62 110.70 0.72 
541.40 111.09 -1.18 
541.31 110.69 -0.78 
541.34 111.04 0.02 
541.31 111.01 0.62 
541.93 110.85 -1.78 
541.91 110.83 -1.19 
541.89 110.81 -0.59 
541.62 111.02 0.47 
541.59 110.99 1.13 
542.45 110.60 -1.77 
542.43 110.58 -1.19 
542.41 110.56 -0.60 
542.18 110.77 0.45 
542.36 110.51 0.57 
538.34 111.59 -1.30 
538.72 111.30 -1.42 
539.05 111.70 -0.79 
538.80 111.45 0.65 
538.80 111.80 1.48 
541.18 111.73 -1.57 
541.16 111.71 -1.14 
541.12 111.67 -0.29 
540.90 111.30 0.13 
541.38 111.74 0.59 
541.71 111.69 -1.84 
541.74 111.80 -1.16 
541.71 111.77 -0.58 
541.68 111.75 0.01 
541.60 111.59 0.61 
542.39 111.85 -2.10 
542.21 111.42 -1.23 
542.19 111.39 -0.63 
542.29 111.75 -0.06 
542.31 111.20 0.54 
538.29 112.50 -0.71 
539.26 112.24 -1.04 
539.01 112.13 -0.72 
539.16 112.13 2.10 
539.38 112.28 -0.88 
539.38 112.11 1.33 
541.37 112.07 -1.55 
541.33 112.02 -0.71 
541.28 111.98 0.14 
542.14 112.13 -1.70 
541.75 112.39 -1.03 
541.73 112.37 -0.49 
541.73 112.39 0.00 
541.64 112.29 1.12 
542.14 112.13 -1.70 
542.16 112.57 -1.31 
542.36 112.68 -0.64 
542.53 112.52 0.32 
542.57 112.39 0.86 
519.30 112.72 -0.80 
520.12 113.28 1.46 
539.25 112.96 -1.37 
539.23 112.68 -0.83 
539.50 112.67 -1.83 
539.64 112.85 -1.06 
539.41 112.91 -0.76 
541.31 113.27 -0.56 
541.26 113.23 0.31 
542.11 113.03 -3.13 
542.07 113.18 -2.76 
542.01 113.14 -1.96 
541.95 113.11 -1.16 
542.00 112.92 -0.48 
541.95 113.00 0.18 
541.87 113.00 0.92 
542.11 113.03 -3.13 
542.39 113.11 -2.79 
542.33 113.08 -2.02 
542.16 112.94 -1.20 
542.21 113.02 -0.47 
542.15 112.99 0.30 
542.12 113.13 1.14 
519.26 113.47 -0.80 
519.28 113.47 1.13 
519.50 113.83 1.39 
535.78 113.86 -1.45 
538.84 113.53 -1.61 
538.87 113.50 -0.84 
539.85 113.53 -1.83 
539.87 113.92 -1.00 
539.81 113.48 -0.25 
539.78 113.43 1.34 
539.76 113.41 2.14 
541.20 113.76 -2.85 
541.14 113.73 -2.07 
541.08 113.70 -1.28 
541.02 113.66 -0.50 
540.96 113.64 0.29 
540.90 113.60 1.08 
541.86 113.64 -3.40 
541.80 113.43 -2.82 
541.76 113.57 -1.89 
541.70 113.54 -1.14 
541.62 113.34 -0.49 
541.56 113.31 0.30 
541.54 113.44 1.15 
542.35 113.53 -2.53 
542.35 113.75 -1.92 
542.44 113.69 -1.09 
542.41 113.66 -0.55 
542.38 113.63 -0.01 
542.19 113.64 0.62 
519.18 114.60 1.40 
519.78 114.05 1.46 
535.41 114.47 -1.56 
536.59 114.23 -1.64 
536.71 114.66 -1.03 
536.73 114.64 -0.18 
536.70 114.15 0.82 
536.74 114.12 1.64 
538.56 114.13 -1.85 
538.58 114.10 -1.03 
538.60 114.08 -0.22 
538.61 114.05 0.60 
538.96 114.16 -1.49 
538.99 114.13 -0.73 
538.63 114.03 1.42 
538.65 114.01 2.24 
539.48 114.47 0.59 
539.51 114.45 1.37 
539.53 114.42 2.16 
542.56 114.09 -2.30 
542.54 114.07 -1.89 
542.49 114.08 -1.08 
542.47 114.05 -0.59 
542.41 114.00 0.39 
542.60 114.14 1.07 
518.28 115.04 1.35 
518.88 114.74 1.40 
519.87 115.05 1.51 
534.04 115.02 -1.67 
534.09 114.99 -0.80 
534.13 114.96 0.08 
534.17 114.93 0.96 
534.22 114.90 1.83 
534.64 115.28 -1.03 
534.67 115.25 -0.13 
534.70 115.22 0.77 
534.72 115.19 1.67 
536.68 114.69 -1.89 
536.61 115.37 -0.73 
536.55 114.88 0.93 
537.47 115.14 -1.80 
537.50 115.11 -0.98 
537.54 115.08 -0.15 
537.57 115.05 0.68 
537.60 115.02 1.50 
540.07 114.78 -1.71 
540.04 114.75 -0.95 
517.96 115.80 1.36 
518.55 115.50 1.41 
519.37 115.90 -0.84 
519.85 115.73 1.30 
520.74 115.46 -0.67 
531.12 115.93 -1.71 
531.18 115.89 -0.77 
532.34 115.96 -1.03 
532.37 115.93 -0.08 
532.41 115.90 0.87 
532.44 115.87 1.82 
533.46 115.93 -2.43 
533.51 115.90 -1.54 
533.56 115.87 -0.66 
533.65 115.80 1.10 
533.70 115.77 1.98 
535.33 115.79 -1.84 
535.37 115.75 -0.97 
535.40 115.72 -0.10 
535.44 115.69 0.77 
535.48 115.66 1.65 
536.55 115.40 -1.54 
537.23 116.05 -1.74 
537.27 116.02 -0.91 
537.30 115.99 -0.09 
537.34 115.96 0.73 
518.15 116.65 1.29 
519.36 116.36 1.31 
519.85 116.59 1.33 
520.95 116.53 -0.63 
520.96 116.54 0.40 
522.50 116.59 1.41 
529.71 116.76 -2.04 
530.16 116.16 -1.40 
529.80 116.69 -0.02 
529.84 116.66 0.98 
532.37 116.68 -2.48 
532.44 116.64 -1.58 
532.52 116.60 -0.68 
532.67 116.52 1.11 
533.24 116.51 -1.88 
533.29 116.48 -0.96 
533.33 116.44 -0.04 
533.37 116.41 0.88 
533.42 116.37 1.79 
537.20 116.09 -2.56 
517.90 117.01 1.44 
519.25 117.03 1.33 
519.97 117.03 1.35 
520.65 117.46 -0.64 
521.51 116.95 -0.59 
521.27 117.16 0.40 
523.07 117.21 1.43 
527.81 116.94 -0.73 
527.88 116.90 0.28 
527.95 116.86 1.29 
530.03 117.03 -2.54 
530.09 116.99 -1.58 
530.15 116.96 -0.62 
530.21 116.92 0.34 
530.57 117.33 -1.93 
530.63 117.29 -0.95 
530.68 117.25 0.03 
530.73 117.21 1.00 
530.27 116.88 1.29 
518.75 117.86 1.32 
518.66 117.48 1.33 
519.49 117.67 1.36 
521.68 118.06 1.46 
521.92 117.95 1.45 
522.54 117.49 1.45 
526.79 117.63 -2.10 
526.84 117.59 -1.03 
526.90 117.55 0.04 
526.95 117.51 1.11 
528.10 118.06 -2.61 
527.68 118.16 0.11 
527.74 118.12 1.15 
528.20 118.01 -1.62 
528.29 117.96 -0.62 
528.39 117.91 0.37 
528.48 117.86 1.36 
517.86 118.77 1.14 
517.84 118.69 1.50 
518.59 118.84 1.34 
519.07 118.19 1.33 
520.69 118.88 1.46 
521.42 118.21 -0.56 
521.44 118.22 0.48 
521.25 118.65 1.42 
521.83 118.23 -0.54 
521.84 118.23 0.52 
527.54 118.25 -1.98 
527.61 118.21 -0.94 
517.62 118.92 1.01 
518.52 118.96 1.38 
520.64 119.14 1.43 
521.71 119.43 0.53 
542.51 120.28 -0.83 
542.49 120.24 0.01 
542.56 120.13 0.92 
542.45 120.18 1.71 
541.34 120.94 -2.52 
541.32 120.91 -1.68 
541.30 120.88 -0.84 
541.39 120.90 0.01 
541.37 120.71 0.90 
541.24 120.79 1.70 
541.94 120.64 -2.52 
541.92 120.61 -1.68 
541.68 120.72 -1.30 
541.90 120.58 -0.83 
541.99 120.45 0.07 
541.96 120.42 0.91 
541.84 120.49 1.70 
542.23 120.77 -2.58 
542.19 120.73 -1.72 
542.29 120.44 -1.28 
542.15 120.70 -0.86 
542.45 120.78 0.12 
542.42 120.75 0.73 
539.89 121.62 -3.02 
540.01 121.52 -1.77 
539.82 121.56 -1.34 
539.79 121.54 -0.49 
539.62 121.61 0.03 
539.59 121.58 0.87 
540.51 121.33 -3.00 
540.29 121.41 -2.46 
540.48 121.31 -2.16 
540.57 121.65 -1.11 
540.23 121.36 -0.79 
540.50 121.60 0.17 
540.17 121.30 0.88 
540.86 121.44 -2.54 
540.74 121.24 -1.75 
541.06 121.00 -1.31 
540.83 121.06 -0.78 
540.80 121.03 0.05 
540.77 121.01 0.89 
541.53 121.18 -2.52 
541.93 121.12 -1.73 
541.89 121.09 -1.11 
541.86 121.07 -0.49 
541.82 121.04 0.14 
541.79 121.01 0.76 
542.54 121.66 -2.15 
542.50 121.62 -1.29 
542.46 121.59 -0.42 
542.42 121.55 0.45 
542.38 121.52 1.32 
537.73 122.37 -1.81 
537.69 122.33 -0.90 
537.66 122.29 0.01 
538.54 122.12 -2.70 
538.50 122.08 -1.79 
538.47 122.04 -0.89 
538.54 122.13 -0.51 
538.51 122.10 0.34 
538.63 122.21 -3.05 
539.31 122.22 -2.45 
539.26 121.80 -1.78 
539.24 122.16 -1.12 
539.20 122.14 -0.45 
539.17 122.11 0.21 
539.13 122.08 0.88 
539.32 122.31 -3.09 
539.70 121.69 -2.48 
540.00 121.89 -1.77 
539.96 121.86 -1.12 
539.92 121.83 -0.46 
539.89 121.80 0.19 
539.85 121.78 0.85 
540.07 121.94 -3.07 
540.03 121.92 -2.42 
540.61 121.68 -1.75 
541.10 122.29 -3.08 
541.06 122.25 -2.19 
541.02 122.21 -1.31 
540.98 122.18 -0.43 
540.95 122.14 0.46 
540.91 122.10 1.34 
541.84 121.99 -3.05 
541.80 121.95 -2.17 
541.77 121.92 -1.30 
541.73 121.88 -0.42 
541.69 121.84 0.45 
541.65 121.80 1.33 
542.55 121.98 -3.01 
542.57 122.28 -2.48 
542.59 121.91 -2.10 
542.51 122.23 -1.34 
542.46 122.18 -0.20 
542.43 122.15 0.38 
542.40 122.12 0.96 
535.85 122.97 5.03 
536.93 123.06 -2.90 
536.78 123.06 1.01 
537.76 122.40 -2.72 
537.74 122.84 -1.81 
537.71 122.81 -1.12 
537.67 122.78 -0.43 
537.64 122.75 0.27 
537.60 122.72 0.97 
538.60 122.57 -3.15 
538.56 122.54 -2.47 
538.53 122.51 -1.80 
538.49 122.48 -1.12 
538.45 122.45 -0.44 
538.42 122.42 0.24 
538.38 122.39 0.92 
539.29 122.97 -3.07 
539.51 122.88 -3.13 
539.47 122.84 -2.23 
539.44 122.80 -1.33 
539.40 122.76 -0.43 
539.36 122.73 0.48 
540.29 122.57 -3.10 
540.25 122.53 -2.21 
540.21 122.49 -1.32 
540.17 122.45 -0.43 
540.47 123.06 0.48 
540.44 123.03 1.09 
541.34 122.91 -3.13 
541.31 122.88 -2.53 
540.85 122.83 -1.68 
541.10 123.08 -1.28 
540.90 122.75 -0.69 
540.95 122.66 0.29 
541.15 122.72 1.04 
541.07 122.94 1.40 
541.95 122.59 -3.09 
541.94 122.78 -2.84 
541.93 122.73 -1.80 
541.92 122.70 -1.28 
541.90 122.65 -0.25 
541.90 122.62 0.27 
541.89 122.59 0.79 
541.88 122.57 1.31 
542.46 122.72 -3.30 
542.44 122.70 -2.76 
542.42 122.67 -2.22 
542.38 122.62 -1.14 
542.59 123.07 -0.81 
542.33 122.57 -0.05 
542.29 122.51 1.04 
542.54 122.96 1.25 
535.03 123.78 1.12 
535.50 123.47 -2.04 
535.45 123.51 -1.13 
535.39 123.54 -0.21 
535.34 123.58 0.71 
535.29 123.61 1.64 
535.24 123.65 2.57 
535.18 123.68 3.51 
535.27 123.60 4.04 
536.14 123.61 -3.28 
536.31 123.60 -2.87 
536.07 123.54 -1.84 
536.03 123.51 -1.11 
536.00 123.48 -0.39 
535.96 123.44 0.34 
535.92 123.41 1.06 
536.03 123.76 1.61 
536.47 123.29 3.94 
536.96 123.21 -2.53 
536.92 123.18 -1.82 
536.89 123.15 -1.12 
536.85 123.12 -0.41 
536.82 123.09 0.30 
537.19 123.41 0.69 
537.14 123.44 1.58 
537.08 123.47 2.47 
537.03 123.50 3.37 
536.97 123.53 4.27 
537.90 123.52 -3.20 
537.41 123.28 -2.82 
537.48 123.50 -2.00 
537.46 123.50 -1.11 
537.45 123.50 -0.23 
537.76 123.36 0.49 
537.43 123.50 0.66 
537.42 123.49 1.55 
537.51 123.33 2.40 
537.91 123.61 3.32 
537.39 123.49 3.34 
537.37 123.49 4.24 
538.37 123.58 -2.79 
538.35 123.57 -1.93 
537.99 123.64 -1.06 
537.97 123.63 -0.19 
537.96 123.63 0.68 
537.94 123.62 1.56 
538.28 123.55 2.37 
538.26 123.54 3.24 
538.24 123.54 4.11 
538.72 123.20 -3.17 
538.68 123.16 -2.25 
538.64 123.12 -1.34 
539.03 123.77 -0.72 
539.00 123.74 -0.08 
538.90 123.74 0.99 
538.93 123.69 1.53 
539.91 123.55 -3.21 
539.88 123.52 -2.59 
539.85 123.49 -1.97 
539.82 123.46 -1.35 
539.80 123.44 -0.73 
539.77 123.41 -0.11 
539.71 123.35 1.14 
540.25 123.42 -2.98 
540.35 123.56 -2.38 
540.34 123.53 -1.83 
540.34 123.50 -1.28 
540.33 123.47 -0.73 
540.10 123.52 0.05 
540.38 123.65 0.77 
540.37 123.62 1.35 
541.28 123.48 -3.16 
540.98 123.31 -2.83 
541.11 123.11 -1.82 
540.92 123.23 -1.13 
541.21 123.34 -0.40 
541.19 123.32 0.16 
541.18 123.29 0.71 
540.98 123.68 1.42 
542.03 123.13 -3.11 
542.06 123.56 -2.49 
541.85 123.48 -1.85 
541.84 123.45 -1.32 
542.08 123.43 -0.52 
541.81 123.37 0.27 
542.09 123.34 0.96 
541.78 123.31 1.33 
542.49 123.71 -3.32 
542.45 123.67 -2.47 
542.41 123.63 -1.61 
542.60 123.09 -1.32 
542.37 123.59 -0.75 
542.33 123.54 0.10 
542.29 123.50 0.96 
532.27 124.42 0.82 
532.22 124.45 1.81 
532.46 124.30 -2.12 
532.39 124.34 -1.14 
532.33 124.38 -0.16 
533.69 124.09 3.65 
533.63 124.13 4.62 
534.03 123.87 -2.08 
534.19 124.27 -1.11 
533.91 123.95 -0.19 
534.36 124.12 -0.15 
534.30 124.16 0.79 
534.24 124.19 1.73 
534.18 124.23 2.68 
534.12 124.26 3.64 
534.19 124.36 4.55 
534.68 124.08 -2.95 
534.62 124.12 -2.03 
534.56 124.15 -1.10 
535.10 123.85 -0.37 
534.50 124.19 -0.17 
534.43 124.22 0.76 
535.20 123.95 -2.59 
535.17 123.91 -1.85 
535.13 123.88 -1.11 
535.79 123.80 -0.17 
535.73 123.83 0.74 
535.67 123.86 1.66 
535.61 123.90 2.58 
535.55 123.93 3.51 
535.49 123.96 4.44 
535.92 123.81 -3.22 
536.18 124.15 -2.32 
536.15 124.11 -1.37 
536.11 124.07 -0.43 
536.08 124.03 0.52 
535.97 123.79 2.52 
535.91 123.83 3.43 
535.85 123.86 4.36 
536.10 124.07 5.15 
537.07 123.85 -3.23 
537.04 123.81 -2.29 
537.00 123.85 4.95 
537.71 124.32 -2.89 
537.70 124.32 -2.00 
537.68 124.31 -1.10 
537.67 124.31 -0.21 
537.36 124.47 -0.02 
537.65 124.31 0.69 
537.64 124.30 1.59 
537.62 124.30 2.49 
537.61 124.30 3.40 
537.59 124.30 4.31 
538.34 124.25 -3.31 
538.59 124.33 -2.79 
538.41 124.45 -1.86 
538.46 124.33 -1.10 
538.44 124.30 -0.48 
538.42 124.27 0.14 
538.40 124.24 0.76 
538.38 124.21 1.39 
538.50 124.30 2.42 
538.48 124.29 3.29 
538.13 124.39 3.38 
538.11 124.38 4.27 
539.14 123.89 -3.26 
539.11 123.86 -2.62 
539.09 123.83 -1.99 
539.06 123.80 -1.35 
538.99 124.21 -0.37 
538.83 123.84 -0.09 
538.64 124.44 0.91 
538.63 124.41 1.52 
539.64 124.24 -3.27 
539.41 124.00 -2.42 
539.41 123.97 -1.85 
539.41 123.94 -1.27 
539.31 123.91 -0.51 
539.55 124.06 0.25 
539.54 124.03 0.84 
539.53 124.00 1.43 
540.49 123.85 -3.22 
540.18 124.30 -2.45 
540.17 124.26 -1.88 
540.16 124.23 -1.32 
540.15 124.20 -0.76 
540.59 124.28 0.13 
540.55 124.23 1.01 
540.11 124.08 1.51 
540.95 124.11 -3.09 
541.06 123.88 -2.91 
541.04 123.86 -1.87 
541.03 123.83 -1.32 
541.02 123.80 -0.77 
541.36 123.93 0.12 
540.99 123.71 0.87 
540.99 123.80 1.59 
541.65 124.37 -2.85 
542.03 124.18 -1.60 
542.08 124.41 -1.19 
542.05 124.36 -0.41 
542.01 124.31 0.36 
541.97 124.27 1.14 
542.04 123.99 1.46 
542.34 124.47 -2.68 
542.12 124.46 -1.96 
542.28 124.36 -1.11 
542.26 124.31 -0.32 
542.23 124.25 0.47 
529.07 125.15 -1.15 
530.86 124.66 -1.15 
530.92 125.11 -0.10 
530.73 124.74 0.87 
530.67 124.78 1.89 
530.60 124.82 2.91 
530.54 124.86 3.95 
530.47 124.90 4.98 
531.06 125.04 -2.11 
530.99 125.08 -1.11 
532.31 125.17 -1.89 
532.27 125.14 -1.09 
532.24 125.10 -0.30 
532.21 125.06 0.50 
532.17 125.02 1.30 
532.15 124.49 2.80 
532.09 124.53 3.80 
532.03 124.57 4.81 
532.86 124.64 -2.07 
532.77 124.57 -1.10 
532.70 124.60 -0.13 
532.64 124.64 0.84 
532.57 124.67 1.82 
532.53 124.82 2.79 
532.46 124.86 3.77 
532.40 124.90 4.77 
533.38 124.78 -2.65 
533.34 124.74 -1.87 
533.31 124.71 -1.10 
533.27 124.67 -0.32 
533.24 124.63 0.45 
533.20 124.60 1.23 
535.47 125.16 1.47 
536.51 124.90 -0.67 
536.48 124.86 0.01 
536.45 124.83 0.70 
536.47 125.04 1.57 
536.59 125.00 -2.73 
536.56 124.96 -2.04 
536.53 124.93 -1.36 
536.53 125.15 -0.42 
537.60 124.84 -3.01 
537.58 124.81 -2.37 
537.55 124.78 -1.73 
537.53 124.74 -1.09 
537.51 124.71 -0.45 
537.49 124.68 0.19 
537.68 124.87 0.99 
537.67 124.84 1.62 
537.31 124.87 2.06 
537.83 125.13 3.46 
537.82 125.12 4.38 
537.26 124.86 5.06 
538.42 124.51 -3.06 
538.25 124.43 -2.81 
538.38 125.16 -1.92 
538.37 125.13 -1.31 
538.36 125.10 -0.71 
538.53 125.14 0.17 
538.54 125.10 0.74 
538.33 124.96 1.71 
538.91 124.79 -3.05 
538.82 125.09 -2.80 
538.80 125.09 -1.92 
538.68 124.53 -0.91 
539.15 124.91 -0.35 
539.00 124.99 0.15 
538.96 124.94 1.05 
539.31 124.51 1.60 
538.72 125.06 2.46 
539.30 125.15 3.88 
538.69 125.05 4.24 
539.96 124.80 -3.42 
539.78 124.67 -2.64 
539.79 124.63 -2.09 
539.35 124.67 -1.32 
539.81 124.52 -0.45 
539.80 124.63 0.14 
539.76 124.58 1.03 
539.53 125.07 1.38 
539.45 125.10 2.21 
539.38 125.12 3.04 
540.49 125.10 -2.79 
540.46 125.05 -1.99 
540.42 125.00 -1.19 
540.04 125.10 -0.52 
540.35 124.89 0.41 
540.05 124.99 1.14 
540.06 124.95 1.70 
541.41 124.86 -3.54 
541.37 124.81 -2.76 
541.07 124.69 -2.15 
541.07 124.62 -1.08 
541.08 124.59 -0.55 
541.23 124.61 0.39 
541.08 124.49 1.04 
541.63 124.87 -3.49 
541.60 124.82 -2.69 
541.57 124.76 -1.89 
541.54 125.14 -1.38 
541.75 125.02 -0.49 
541.79 124.94 0.51 
541.80 124.90 1.02 
541.82 124.86 1.52 
542.33 124.90 -3.05 
542.36 125.08 -2.48 
542.31 124.84 -2.22 
542.28 125.00 -1.06 
542.28 124.72 -0.56 
542.26 124.66 0.27 
542.24 124.60 1.10 
519.68 125.76 1.91 
519.68 125.76 1.95 
519.75 125.71 1.98 
528.81 125.86 -1.13 
528.77 125.78 3.10 
528.69 125.83 4.17 
528.89 125.82 -2.17 
529.07 125.62 -1.12 
528.99 125.67 -0.07 
528.93 125.23 0.94 
528.86 125.27 1.99 
530.88 125.25 -1.12 
530.81 125.29 -0.11 
530.74 125.33 0.90 
530.67 125.37 1.92 
530.71 125.23 2.94 
530.64 125.27 3.97 
530.56 125.31 5.01 
531.22 125.63 -1.90 
531.18 125.59 -1.08 
531.15 125.55 -0.27 
531.12 125.51 0.55 
531.08 125.47 1.37 
532.34 125.21 -2.68 
534.65 125.81 -2.80 
534.62 125.77 -2.08 
534.59 125.74 -1.36 
534.57 125.70 -0.63 
534.54 125.67 0.09 
534.51 125.63 0.82 
534.48 125.59 1.55 
535.63 125.37 -2.77 
535.52 125.69 -1.75 
535.50 125.65 -1.07 
535.48 125.61 -0.39 
535.46 125.58 0.30 
535.44 125.54 0.98 
535.42 125.51 1.67 
536.00 125.54 -3.00 
536.16 125.56 -2.55 
536.10 125.42 -1.77 
536.16 125.48 -1.26 
536.20 125.30 -0.55 
536.16 125.41 0.03 
536.29 125.18 0.65 
536.16 125.34 1.31 
536.15 125.30 1.96 
536.85 125.54 -2.81 
536.84 125.51 -2.16 
536.83 125.47 -1.52 
536.82 125.44 -0.87 
537.08 125.86 0.25 
537.10 125.82 0.85 
537.11 125.77 1.46 
537.13 125.73 2.07 
537.06 125.86 3.29 
537.44 125.87 -2.61 
537.32 125.66 -1.94 
537.31 125.63 -1.31 
537.30 125.59 -0.69 
537.31 125.74 0.17 
537.28 125.69 1.10 
537.28 125.45 1.83 
537.62 125.84 2.12 
537.60 125.83 3.13 
537.57 125.83 5.17 
538.40 125.23 -3.13 
538.48 125.33 -2.72 
538.46 125.22 -1.92 
538.44 125.22 -1.03 
538.36 125.10 -0.71 
538.42 125.21 -0.14 
538.41 125.20 0.75 
538.39 125.20 1.64 
538.37 125.19 2.54 
538.36 125.18 3.44 
538.33 125.18 4.35 
538.82 125.81 -3.67 
538.89 125.82 -2.81 
538.75 125.71 -2.02 
538.91 125.70 -1.07 
539.31 125.61 -0.33 
538.92 125.62 0.09 
539.18 125.50 0.65 
539.12 125.52 1.49 
539.06 125.54 2.33 
539.00 125.56 3.17 
538.94 125.84 3.41 
538.94 125.58 4.03 
539.65 125.42 -2.82 
539.43 125.42 -1.92 
539.58 125.32 -1.19 
539.80 125.72 -0.23 
539.78 125.71 0.59 
539.78 125.71 0.59 
539.76 125.70 1.41 
539.74 125.69 2.23 
539.72 125.68 3.06 
539.69 125.67 3.89 
540.09 125.60 -3.53 
540.06 125.55 -2.71 
540.04 125.49 -1.89 
540.19 125.87 -0.98 
540.21 125.82 -0.44 
540.23 125.78 0.10 
540.27 125.69 1.17 
540.30 125.64 1.71 
540.80 125.63 -3.07 
540.84 125.18 -2.70 
540.78 125.57 -2.22 
540.98 125.69 -1.06 
540.94 125.65 -0.33 
540.90 125.61 0.41 
540.86 125.57 1.15 
541.75 125.47 -3.22 
541.71 125.42 -2.50 
541.67 125.38 -1.78 
541.58 125.62 -1.07 
541.60 125.30 -0.34 
541.49 125.56 0.24 
541.45 125.53 0.90 
542.43 125.61 -3.36 
542.28 125.35 -2.34 
542.23 125.32 -1.70 
542.19 125.30 -1.06 
542.25 125.46 -0.26 
542.22 125.43 0.37 
542.18 125.40 0.99 
518.19 126.54 1.90 
518.14 126.56 1.94 
518.91 126.16 1.90 
518.91 126.16 1.94 
527.08 126.17 -2.22 
527.00 126.22 -1.13 
526.92 126.26 -0.04 
528.79 126.54 -0.20 
528.74 125.90 -0.08 
528.76 126.50 0.67 
528.58 125.99 2.04 
528.50 126.03 3.11 
528.82 126.58 -1.06 
530.10 126.15 -2.75 
530.07 126.11 -1.91 
530.03 126.07 -1.07 
530.00 126.03 -0.23 
529.97 125.99 0.61 
532.36 126.58 0.96 
532.33 126.54 1.73 
533.58 126.24 -2.10 
533.55 126.20 -1.36 
533.52 126.17 -0.61 
533.50 126.13 0.14 
533.26 126.57 1.15 
533.52 126.58 1.56 
534.89 126.17 -2.60 
534.89 126.13 -1.93 
534.89 126.09 -1.26 
534.89 126.05 -0.58 
534.54 126.44 -0.13 
534.89 125.97 0.76 
534.52 126.36 1.26 
534.51 126.33 1.96 
535.76 126.05 -2.86 
535.75 126.01 -2.19 
535.74 125.98 -1.52 
535.72 125.94 -0.85 
535.53 126.52 0.19 
535.49 126.48 1.15 
535.49 126.58 1.63 
535.51 126.53 2.28 
535.85 126.25 -3.04 
536.18 126.24 -2.61 
536.52 126.22 -1.70 
536.17 126.17 -1.31 
536.16 126.13 -0.66 
536.16 126.09 -0.01 
536.15 126.05 0.65 
536.15 126.01 1.30 
536.14 125.97 1.96 
536.79 126.47 -3.07 
536.93 126.47 -2.90 
537.02 126.03 -2.19 
537.05 125.95 -0.97 
537.07 125.90 -0.36 
537.18 126.14 0.63 
537.21 126.52 1.55 
537.04 126.20 2.39 
536.97 126.22 3.28 
536.97 126.22 3.28 
537.06 126.15 4.26 
537.58 126.00 -2.75 
537.51 126.02 -1.89 
537.58 126.30 -1.06 
537.60 126.25 -0.45 
537.61 126.21 0.16 
537.56 126.50 0.70 
537.26 126.09 1.59 
537.64 126.08 1.99 
538.14 126.07 -2.91 
538.12 126.07 -1.99 
538.11 126.06 -1.08 
538.43 126.17 -0.19 
538.09 126.06 -0.16 
538.41 126.10 0.66 
538.06 126.06 1.68 
538.60 126.00 2.60 
538.58 126.00 3.51 
538.57 125.99 4.42 
539.07 125.98 -3.44 
539.04 125.89 -2.84 
538.99 125.92 -1.99 
538.94 125.95 -1.13 
539.13 126.20 -0.46 
538.66 126.02 -0.11 
538.84 126.00 0.59 
538.62 126.01 1.69 
538.74 126.06 2.33 
538.68 126.09 3.20 
538.63 126.11 4.09 
539.35 126.01 -3.55 
539.63 126.11 -2.65 
539.76 126.03 -1.91 
539.74 126.02 -1.09 
539.56 126.38 -0.30 
539.53 126.34 0.46 
539.54 126.06 0.67 
539.67 126.00 1.39 
539.65 125.99 2.22 
539.63 125.99 3.05 
539.90 126.32 3.94 
539.45 126.02 4.03 
540.25 126.33 -3.07 
540.21 126.29 -2.38 
540.34 126.10 -1.80 
540.35 126.33 -1.07 
540.31 126.30 -0.39 
540.26 126.27 0.28 
540.22 126.24 0.96 
540.10 126.55 1.40 
540.91 125.97 -3.04 
541.03 126.02 -2.39 
540.98 125.99 -1.73 
540.94 125.96 -1.07 
540.90 125.93 -0.40 
540.98 126.09 0.42 
540.95 126.06 1.07 
541.79 125.91 -2.77 
541.75 125.88 -2.14 
542.27 126.09 -2.75 
527.57 127.16 -1.94 
527.54 127.12 -1.05 
527.50 127.08 -0.16 
528.89 126.67 -2.79 
528.85 126.62 -1.93 
531.29 127.26 -2.14 
531.26 127.22 -1.35 
531.23 127.18 -0.56 
531.21 127.14 0.24 
531.18 127.10 1.03 
532.03 127.27 -1.02 
532.01 127.22 -0.26 
531.99 127.18 0.49 
531.91 127.27 1.71 
532.50 126.77 -2.89 
532.78 127.22 -1.84 
532.44 126.70 -1.35 
532.92 127.07 -0.46 
532.99 127.00 0.23 
533.35 126.77 -2.49 
533.51 126.79 -1.95 
533.51 126.75 -1.25 
533.52 126.71 -0.55 
533.52 126.66 0.16 
533.26 126.98 0.64 
533.25 126.94 1.37 
533.19 126.77 2.26 
534.34 126.75 4.52 
534.94 126.83 -2.66 
534.94 126.79 -1.98 
535.03 126.82 -1.12 
534.84 127.05 -0.28 
534.93 126.67 0.05 
534.87 126.88 0.72 
534.79 126.91 1.65 
534.72 126.93 2.58 
534.79 126.94 2.67 
534.65 126.96 3.52 
534.56 126.99 4.47 
535.66 126.66 -2.66 
535.15 126.83 -1.96 
535.41 126.77 -0.96 
535.43 126.72 -0.31 
535.45 126.68 0.34 
535.47 126.63 0.98 
535.51 127.05 1.64 
535.45 127.08 2.58 
535.39 127.11 3.53 
535.33 127.14 4.48 
536.19 127.07 -2.33 
535.92 126.78 -2.05 
535.89 126.72 -1.18 
536.23 126.93 -0.41 
536.24 126.88 0.23 
535.83 126.61 0.58 
536.27 126.79 1.51 
536.28 126.75 2.16 
537.08 127.11 -3.03 
536.76 127.18 -2.75 
536.74 127.11 -1.87 
536.72 127.05 -1.00 
536.70 126.98 -0.12 
536.68 126.92 0.75 
537.05 126.61 4.28 
537.67 126.82 -3.60 
537.85 127.00 -2.90 
537.62 126.69 -1.88 
537.41 127.07 -1.31 
537.40 127.01 -0.41 
537.39 126.94 0.50 
537.87 127.24 1.22 
538.20 126.93 -3.47 
538.30 126.96 -2.73 
538.33 126.90 -2.14 
538.29 126.66 -1.32 
538.42 126.75 -0.39 
538.07 127.11 0.52 
538.48 126.65 0.77 
538.42 127.11 1.47 
538.29 127.14 2.33 
538.16 127.18 3.20 
538.04 127.21 4.08 
538.87 127.07 -3.14 
538.96 126.90 -2.57 
538.90 126.99 -1.89 
538.78 127.02 -1.06 
538.93 127.03 -0.37 
538.89 127.00 0.33 
538.92 127.15 1.20 
538.77 126.67 1.26 
539.57 126.69 -3.10 
539.85 126.79 -2.64 
539.82 126.78 -1.80 
539.67 126.69 -1.07 
539.69 126.84 -0.19 
539.59 126.63 0.31 
539.75 126.75 0.70 
539.73 126.74 1.54 
539.71 126.73 2.39 
539.69 126.71 3.23 
539.82 126.65 3.94 
539.68 127.02 4.09 
540.50 126.88 -2.64 
540.48 127.14 -1.78 
540.45 126.84 -1.03 
540.42 126.82 -0.23 
540.43 127.10 -0.17 
540.40 127.08 0.64 
540.38 127.06 1.45 
540.35 127.04 2.26 
540.32 127.02 3.07 
540.29 127.00 3.89 
530.05 127.86 -2.99 
530.02 127.82 -2.17 
529.99 127.78 -1.35 
529.97 127.74 -0.53 
529.94 127.69 0.29 
529.92 127.65 1.12 
530.66 127.93 -1.79 
530.64 127.89 -1.00 
530.62 127.84 -0.21 
530.61 127.80 0.57 
530.59 127.76 1.36 
531.31 127.30 -2.94 
531.52 127.65 2.88 
531.42 127.68 3.89 
531.31 127.72 4.92 
532.15 127.43 -3.04 
531.87 127.54 -2.73 
531.88 127.50 -1.98 
531.89 127.45 -1.24 
531.91 127.69 -0.78 
531.90 127.65 -0.02 
531.89 127.60 0.73 
532.19 127.74 1.81 
532.11 127.76 2.80 
532.02 127.80 3.80 
531.94 127.83 4.81 
532.94 127.52 -2.98 
532.71 127.30 -2.53 
532.87 127.54 -2.02 
532.79 127.57 -1.05 
532.71 127.59 -0.09 
532.63 127.61 0.89 
532.55 127.64 1.87 
532.47 127.66 2.85 
532.39 127.69 3.85 
533.47 127.87 -3.02 
533.50 127.82 -2.33 
533.52 127.76 -1.63 
533.81 127.51 -1.16 
533.57 127.65 -0.25 
533.72 127.39 0.23 
533.68 127.35 1.21 
533.65 127.50 1.82 
533.67 127.44 2.51 
533.61 127.65 2.73 
533.55 127.68 3.72 
533.48 127.72 4.71 
533.84 127.57 -2.08 
533.86 127.52 -1.15 
533.78 127.45 -0.25 
533.72 127.39 0.23 
533.74 127.58 0.78 
534.64 127.88 -3.07 
534.65 127.83 -2.39 
534.67 127.78 -1.71 
534.69 127.73 -1.03 
534.70 127.68 -0.36 
534.85 127.86 -0.05 
534.74 127.58 0.99 
534.75 127.53 1.67 
534.77 127.48 2.34 
535.81 127.48 -0.98 
535.64 127.89 -0.34 
535.79 127.41 -0.09 
535.77 127.35 0.80 
535.87 127.68 -3.65 
535.85 127.61 -2.76 
536.52 127.57 -2.21 
536.51 127.50 -1.29 
536.62 127.75 -0.32 
536.48 127.36 0.54 
536.53 127.64 -3.13 
536.54 127.87 -1.58 
536.58 127.81 -0.95 
537.20 127.72 -0.24 
537.15 127.68 0.51 
536.69 127.63 0.92 
537.11 127.64 1.26 
536.76 127.52 2.17 
537.37 127.86 -3.21 
537.33 127.83 -2.47 
537.28 127.79 -1.73 
537.24 127.75 -0.98 
537.20 127.72 -0.24 
537.41 127.79 0.39 
537.24 127.50 0.56 
537.37 127.94 1.30 
537.92 127.72 2.45 
537.80 127.75 3.33 
537.68 127.78 4.22 
538.25 127.34 -3.37 
538.33 127.53 -2.48 
538.29 127.49 -1.77 
538.24 127.46 -1.06 
538.20 127.42 -0.35 
538.20 127.60 -0.15 
538.15 127.66 0.71 
538.03 127.69 1.58 
538.54 127.93 3.10 
539.14 127.36 -2.88 
539.11 127.33 -2.21 
539.07 127.29 -1.53 
539.20 127.77 0.53 
538.98 127.82 1.38 
538.76 127.87 2.23 
540.02 127.80 -1.96 
540.01 127.80 -1.09 
539.99 127.79 -0.22 
539.99 127.46 -0.11 
539.97 127.45 0.74 
539.95 127.44 1.58 
539.93 127.42 2.43 
539.93 127.77 3.27 
539.91 127.76 4.16 
540.21 127.39 -2.72 
540.57 127.49 -1.75 
540.55 127.48 -0.94 
540.36 127.34 -0.30 
540.63 127.74 -0.14 
540.50 127.44 0.68 
540.39 127.73 1.51 
540.36 127.72 2.35 
540.37 127.42 3.14 
540.49 127.64 3.94 
540.32 127.70 4.04 
540.71 127.79 -2.56 
540.87 127.87 -1.89 
540.84 127.84 -1.09 
540.82 127.81 -0.29 
540.79 127.79 0.51 
540.77 127.76 1.31 
540.74 127.73 2.11 
540.72 127.70 2.92 
528.69 128.47 -3.04 
528.66 128.55 -2.16 
528.64 128.38 -1.34 
528.62 128.33 -0.49 
528.59 128.29 0.36 
528.57 128.24 1.21 
529.17 128.66 -2.62 
529.16 128.61 -1.80 
529.14 128.56 -0.98 
529.42 128.61 -0.11 
529.33 128.65 0.94 
529.10 128.42 1.48 
530.19 128.35 -2.79 
529.61 128.54 -2.18 
530.21 128.25 -1.23 
530.14 128.39 -0.05 
530.05 128.42 0.98 
529.96 128.45 2.02 
529.87 128.47 3.06 
529.80 128.49 4.11 
529.70 128.53 5.18 
530.39 128.32 -3.11 
530.43 128.47 -2.31 
530.31 128.34 -2.09 
530.21 128.25 -1.23 
530.22 128.20 -0.46 
530.23 128.15 0.32 
530.41 128.28 0.83 
530.40 128.24 1.62 
531.47 128.66 0.56 
531.50 128.60 1.30 
531.53 128.54 2.04 
531.61 128.27 2.89 
531.54 128.30 3.92 
531.47 128.34 4.96 
532.14 128.12 -2.04 
532.14 128.07 -1.30 
532.14 128.03 -0.55 
532.14 127.98 0.19 
531.75 128.20 0.85 
531.68 128.23 1.87 
532.95 128.63 -1.73 
532.97 128.58 -1.02 
532.99 128.52 -0.30 
533.02 128.47 0.41 
533.04 128.41 1.13 
533.06 128.36 1.84 
534.23 128.53 -3.01 
533.92 128.54 -2.78 
533.91 128.47 -1.85 
533.89 128.40 -0.93 
533.87 128.33 0.00 
534.29 128.41 3.61 
534.14 128.45 4.58 
534.90 128.06 -2.77 
534.70 128.49 -2.20 
535.03 128.22 -1.09 
534.68 128.34 -0.30 
534.88 128.26 -0.17 
534.66 128.27 0.65 
534.59 128.33 1.70 
534.44 128.37 2.65 
534.89 128.59 3.63 
534.76 128.63 4.59 
535.72 128.23 -3.42 
535.82 128.35 -2.83 
535.69 128.38 -1.93 
535.70 128.45 -1.01 
535.66 128.40 -0.19 
535.81 128.65 0.46 
535.62 128.35 0.63 
535.58 128.51 1.36 
535.82 128.35 -2.83 
536.49 128.21 -1.74 
536.45 128.17 -0.98 
536.41 128.13 -0.22 
536.36 128.09 0.54 
536.32 128.06 1.31 
536.80 128.60 -2.99 
536.54 128.25 -2.49 
536.75 128.32 -1.79 
536.71 128.28 -1.06 
536.69 128.48 -0.82 
536.62 128.21 0.42 
536.62 128.40 0.63 
536.58 128.36 1.36 
537.59 128.16 -2.95 
537.55 128.13 -2.25 
537.51 128.09 -1.54 
537.48 128.05 -0.83 
537.44 128.01 -0.12 
537.41 127.98 0.59 
537.90 128.22 3.40 
537.81 128.24 4.29 
538.57 128.04 -2.65 
538.48 128.07 -1.80 
538.38 128.09 -0.95 
538.29 128.12 -0.09 
538.19 128.14 0.77 
538.10 128.16 1.64 
538.00 128.19 2.52 
538.31 127.98 3.99 
539.29 128.44 0.63 
539.14 128.48 1.48 
538.99 128.51 2.33 
538.85 128.54 3.19 
538.69 128.57 4.07 
539.56 128.41 -2.82 
539.73 128.35 -1.85 
539.58 128.38 -1.03 
539.44 128.41 -0.20 
540.28 128.20 -2.62 
540.41 128.07 -1.88 
540.38 128.06 -1.04 
540.36 128.05 -0.20 
540.21 128.17 -0.08 
540.34 128.05 0.64 
540.32 128.04 1.49 
540.30 128.03 2.33 
540.28 128.02 3.18 
540.76 128.01 3.60 
540.10 128.11 4.20 
540.92 128.43 -2.55 
540.89 128.42 -1.74 
540.86 128.40 -0.92 
540.97 128.39 -0.20 
540.73 128.10 -0.10 
540.81 128.36 0.70 
540.92 128.34 1.40 
540.90 128.32 2.21 
540.88 128.29 3.01 
540.88 128.29 3.77 
540.81 128.66 4.06 
527.18 129.02 -1.34 
527.16 128.97 -0.46 
527.24 129.30 0.00 
527.11 128.87 1.31 
527.53 129.34 -1.81 
527.51 129.29 -0.95 
527.50 129.24 -0.10 
527.48 129.19 0.76 
527.47 129.14 1.62 
528.81 129.27 -3.18 
528.81 129.22 -2.35 
528.33 129.20 -2.05 
528.34 129.14 -1.22 
528.66 129.38 -0.33 
528.76 129.29 0.46 
528.79 129.02 0.94 
528.79 128.97 1.76 
528.17 128.72 2.10 
528.86 129.19 1.24 
529.24 128.68 1.99 
529.43 128.94 3.07 
529.36 128.98 4.14 
528.95 128.78 5.19 
529.81 128.75 -2.22 
529.73 128.78 -1.17 
529.66 128.82 -0.12 
529.58 128.86 0.94 
530.33 128.90 -2.08 
530.33 128.85 -1.29 
530.33 128.80 -0.51 
530.33 128.75 0.27 
530.33 128.70 1.05 
531.34 128.90 -2.41 
531.37 128.84 -1.66 
531.41 128.78 -0.92 
531.44 128.72 -0.18 
531.12 129.35 1.28 
531.15 129.29 2.04 
533.71 129.03 -3.16 
533.70 128.96 -2.20 
533.69 128.88 -1.23 
533.68 128.81 -0.26 
533.67 128.73 0.70 
533.99 129.29 -3.01 
534.03 129.22 -2.31 
534.08 129.15 -1.62 
533.95 129.38 -0.99 
534.18 129.02 -0.25 
533.92 129.33 -0.13 
534.27 128.88 1.12 
534.32 128.82 1.79 
534.37 128.75 2.47 
534.91 129.01 -2.67 
534.90 129.12 -1.75 
534.86 129.08 -0.96 
534.92 129.13 -0.27 
534.82 129.04 -0.17 
534.77 128.99 0.62 
534.83 129.05 1.28 
535.08 129.13 3.70 
534.97 129.16 4.66 
535.80 128.70 -2.51 
535.73 128.96 -1.88 
535.62 128.99 -0.96 
535.51 129.02 -0.04 
535.79 128.85 0.68 
535.30 129.07 1.82 
535.19 129.10 2.76 
535.97 129.05 -3.02 
535.98 128.80 -2.56 
535.94 128.76 -1.80 
535.90 128.72 -1.05 
535.85 128.68 -0.30 
535.83 128.89 -0.07 
536.13 129.13 2.70 
537.06 129.19 -3.24 
539.19 128.95 0.67 
539.07 128.97 1.52 
538.94 128.99 2.38 
538.80 129.02 3.24 
538.67 129.05 4.12 
539.71 128.85 -2.66 
539.58 128.87 -1.83 
539.45 128.89 -1.00 
539.32 128.92 -0.17 
540.48 128.71 4.10 
541.11 128.83 -2.58 
541.08 128.81 -1.77 
541.07 129.04 -0.90 
541.10 128.98 -0.34 
541.04 129.02 -0.08 
541.01 129.00 0.74 
541.12 128.96 1.43 
541.10 128.93 2.24 
541.07 128.91 3.05 
541.08 128.90 3.81 
541.02 129.31 4.11 
525.77 129.61 0.49 
525.71 129.99 0.86 
525.75 129.56 1.41 
526.28 130.02 0.52 
526.30 129.96 1.39 
526.79 130.02 -1.54 
526.79 129.96 -0.67 
526.79 129.91 0.20 
526.79 129.86 1.06 
528.54 129.75 -2.11 
528.56 129.48 -1.12 
528.55 129.64 -0.46 
528.56 129.59 0.36 
528.56 129.53 1.18 
528.92 130.03 -0.90 
528.96 129.96 -0.10 
529.00 129.89 0.70 
529.04 129.82 1.50 
529.08 129.76 2.30 
530.07 129.78 0.93 
529.88 129.83 1.98 
529.71 129.87 3.04 
529.53 129.92 4.11 
530.61 129.64 -2.15 
530.43 129.68 -1.13 
530.25 129.73 -0.10 
530.90 129.86 5.08 
530.98 129.65 -2.52 
531.01 129.59 -1.76 
531.04 129.53 -1.00 
531.07 129.47 -0.24 
531.09 129.41 0.52 
531.53 129.69 0.96 
531.38 129.73 1.97 
531.22 129.77 3.00 
531.06 129.82 4.03 
531.99 129.56 -2.04 
532.21 129.96 -1.22 
531.90 130.03 -0.22 
531.90 130.03 -0.22 
532.55 129.99 -1.96 
533.02 129.87 -0.97 
533.00 129.99 -0.12 
532.96 129.76 0.77 
533.01 130.02 1.40 
533.09 129.98 -2.71 
533.06 129.92 -1.84 
533.05 130.04 -0.95 
533.05 130.06 0.59 
534.02 129.59 -1.76 
534.07 129.64 -1.04 
534.03 129.60 -0.25 
534.03 129.60 -0.25 
533.99 129.56 0.54 
533.94 129.52 1.34 
535.07 129.48 -2.30 
534.46 130.02 -2.02 
535.03 129.44 -1.55 
535.00 129.40 -0.79 
535.64 129.53 -2.91 
536.30 130.04 -2.99 
536.33 129.77 -2.82 
536.28 130.04 -1.99 
536.26 130.03 -1.00 
536.24 130.03 -0.01 
536.22 130.02 0.98 
536.15 129.98 1.48 
536.21 130.01 1.98 
536.30 129.89 2.72 
536.17 130.00 3.98 
536.15 130.00 4.99 
536.83 130.07 -2.77 
536.73 129.82 0.55 
537.54 129.65 -3.17 
537.30 129.67 -0.35 
539.05 129.78 2.27 
538.76 129.84 3.15 
539.90 129.58 -0.28 
539.62 129.64 0.56 
539.34 129.71 1.41 
540.71 129.39 -2.71 
540.45 129.45 -1.91 
540.18 129.51 -1.10 
541.31 129.46 -2.55 
541.28 129.43 -1.75 
541.32 129.63 -1.11 
541.29 129.60 -0.31 
541.25 129.67 -0.05 
541.34 129.61 0.66 
541.34 129.61 1.41 
541.32 129.58 2.22 
541.29 129.55 3.03 
541.31 129.86 3.71 
541.31 129.90 4.05 
541.44 129.71 -2.55 
541.44 129.73 -1.81 
541.47 130.02 -0.92 
541.44 130.00 -0.11 
524.07 130.29 1.52 
526.59 130.45 1.33 
528.77 130.75 -2.61 
528.80 130.68 -1.79 
528.84 130.16 -2.50 
528.88 130.10 -1.70 
528.84 130.61 -0.97 
528.87 130.55 -0.16 
528.91 130.48 0.65 
528.94 130.41 1.46 
528.98 130.35 2.26 
530.65 130.34 3.91 
531.11 130.71 -1.67 
531.17 130.63 -0.91 
531.24 130.55 -0.15 
531.60 130.11 0.79 
531.36 130.39 1.35 
531.42 130.31 2.10 
530.97 130.26 2.85 
532.17 130.64 -2.62 
532.12 130.59 -1.78 
532.08 130.55 -0.93 
532.12 130.63 -0.19 
532.03 130.51 -0.09 
531.99 130.27 0.82 
532.03 130.54 1.47 
532.06 130.12 2.02 
531.94 130.15 3.03 
531.81 130.19 4.06 
533.14 130.12 -2.59 
533.19 130.19 -1.84 
533.17 130.45 -1.55 
533.10 130.10 -0.22 
533.10 130.36 0.04 
533.06 130.31 0.83 
533.03 130.27 1.63 
533.52 130.24 2.78 
534.09 130.11 -0.13 
533.90 130.15 0.83 
534.30 130.47 4.45 
534.98 130.30 0.83 
534.82 130.33 1.77 
534.67 130.36 2.73 
534.98 130.29 3.42 
535.45 130.20 -1.96 
535.29 130.23 -1.04 
535.34 130.60 -0.01 
535.32 130.59 1.02 
535.55 130.14 2.44 
535.28 130.58 3.10 
535.27 130.58 4.14 
535.25 130.58 5.19 
535.97 130.39 -3.00 
535.95 130.38 -1.99 
535.93 130.37 -0.98 
535.91 130.37 0.03 
535.89 130.36 1.05 
535.87 130.35 2.06 
535.85 130.34 3.08 
536.45 130.62 3.73 
535.83 130.34 4.10 
536.56 130.73 -0.19 
537.32 130.38 -2.72 
541.41 130.16 -1.66 
541.38 130.14 -0.83 
541.35 130.12 -0.01 
541.33 130.11 0.82 
541.30 130.09 1.66 
541.49 130.18 2.32 
541.46 130.15 3.13 
541.40 130.12 3.80 
541.32 130.23 4.15 
541.66 130.38 -2.59 
541.59 130.36 -1.82 
541.56 130.33 -1.02 
541.54 130.29 -0.22 
541.64 130.63 -0.08 
541.56 130.27 0.64 
541.54 130.23 1.45 
541.54 130.55 2.11 
541.53 130.52 3.18 
541.50 130.49 4.01 
523.52 130.88 0.99 
523.94 131.07 1.57 
526.52 131.22 0.85 
526.57 131.15 1.71 
528.73 131.09 2.22 
529.29 130.94 -2.05 
529.15 130.98 -0.99 
529.01 131.02 0.07 
528.86 131.06 1.14 
531.16 131.18 -2.64 
531.11 131.13 -1.78 
531.07 131.09 -0.92 
531.02 131.04 -0.06 
530.98 131.00 0.81 
531.01 131.08 1.54 
532.19 131.04 -2.37 
532.16 130.99 -1.55 
532.12 130.94 -0.74 
532.09 130.90 0.08 
532.05 130.85 0.89 
532.02 130.80 1.71 
536.21 131.41 -3.00 
536.19 131.41 -1.98 
536.17 131.40 -0.96 
536.15 131.39 0.07 
536.13 131.38 1.09 
536.11 131.37 2.12 
536.46 130.91 3.04 
536.44 130.90 4.05 
536.05 131.35 5.23 
536.57 130.95 -2.99 
536.55 130.94 -1.99 
536.53 130.93 -0.99 
536.68 131.43 1.79 
536.66 131.41 2.77 
536.63 131.38 3.76 
537.44 131.11 -2.05 
537.41 131.07 -1.10 
537.46 131.06 -0.02 
537.43 131.05 0.91 
537.41 131.04 1.84 
537.38 131.03 2.78 
537.36 131.02 3.72 
537.33 131.01 4.66 
538.26 130.98 -2.61 
538.72 131.27 -2.56 
539.33 131.38 -2.92 
541.93 131.35 -2.48 
541.78 130.98 -1.79 
541.75 130.94 -0.99 
541.67 130.88 -0.24 
541.85 131.26 -0.04 
541.70 130.87 0.61 
541.74 131.21 1.34 
541.72 131.18 2.15 
541.76 131.35 3.03 
541.73 131.31 3.85 
541.71 131.13 4.06 
520.30 132.01 0.76 
521.35 131.84 1.13 
522.61 131.76 1.35 
524.37 131.49 1.49 
526.40 131.70 0.79 
526.44 131.63 1.66 
529.04 132.17 -1.81 
528.99 132.12 -0.91 
528.95 132.07 0.00 
528.91 132.02 0.91 
529.49 132.03 2.09 
530.10 131.75 -2.67 
530.06 131.70 -1.79 
530.09 131.90 -1.09 
530.08 132.12 -0.69 
529.89 131.94 -0.04 
529.96 131.71 0.75 
530.28 131.86 -2.13 
531.26 131.62 -2.38 
531.23 131.57 -1.55 
531.19 131.52 -0.72 
535.62 131.59 -1.03 
535.60 131.59 0.02 
535.59 131.59 1.07 
535.57 131.58 2.11 
535.55 131.58 3.17 
535.53 131.57 4.23 
535.52 131.57 5.29 
536.81 131.86 -0.97 
536.79 131.85 0.05 
536.77 131.84 1.06 
536.75 131.84 2.08 
536.73 131.83 3.10 
536.80 132.14 3.79 
536.71 131.82 4.13 
537.19 131.73 4.85 
537.64 131.84 -2.01 
537.61 131.80 -1.07 
537.58 131.77 -0.13 
537.55 131.73 0.82 
537.52 131.70 1.76 
537.27 131.77 1.97 
537.49 131.66 2.71 
537.46 131.62 3.67 
537.57 131.77 4.73 
538.03 132.17 3.66 
539.16 131.57 -2.51 
539.96 132.07 -2.66 
541.97 131.60 -1.76 
541.95 131.56 -0.96 
541.86 131.50 -0.20 
541.92 131.53 -0.15 
542.09 132.11 0.69 
542.06 132.08 1.50 
542.03 132.04 2.31 
542.01 132.00 3.12 
541.98 131.96 3.94 
521.23 132.39 0.79 
521.26 132.32 1.77 
521.87 132.65 1.67 
523.16 132.27 1.69 
523.21 132.82 1.98 
527.88 132.79 -1.82 
527.83 132.74 -0.89 
527.79 132.69 0.04 
527.74 132.64 0.97 
527.78 132.24 1.64 
528.99 132.51 -2.77 
528.94 132.46 -1.87 
528.94 132.81 -1.55 
528.91 132.76 -0.66 
528.87 132.71 0.22 
528.84 132.65 1.10 
530.15 132.22 -2.40 
535.81 132.59 4.31 
535.79 132.59 5.39 
536.47 132.37 -1.97 
536.45 132.37 -0.94 
535.88 132.61 0.05 
535.86 132.61 1.11 
535.84 132.60 2.17 
535.82 132.60 3.24 
536.35 132.33 4.27 
536.33 132.32 5.32 
536.92 132.25 -0.14 
537.03 132.88 1.10 
536.86 132.19 1.82 
537.01 132.88 2.14 
536.99 132.87 3.17 
536.97 132.86 4.21 
536.95 132.85 5.26 
537.73 132.33 -1.93 
537.81 132.53 -1.04 
537.60 132.62 -0.86 
537.77 132.49 -0.09 
537.75 132.46 0.85 
537.72 132.42 1.80 
537.90 132.58 1.93 
537.68 132.39 2.75 
537.65 132.35 3.70 
537.44 132.54 4.93 
538.24 132.33 -2.71 
538.21 132.31 -1.81 
538.24 132.76 -0.82 
538.24 132.76 -0.82 
538.21 132.74 0.09 
538.17 132.72 1.01 
538.14 132.70 1.93 
538.14 132.70 1.93 
538.06 132.20 2.74 
538.24 132.69 3.54 
538.21 132.65 4.45 
539.87 132.27 -2.43 
542.20 132.26 -2.53 
542.17 132.22 -1.73 
542.14 132.19 -0.92 
523.15 132.91 1.05 
523.49 133.13 0.96 
523.54 133.04 1.89 
527.73 133.11 -1.88 
527.69 133.06 -0.96 
527.66 133.43 -0.64 
527.65 133.00 -0.04 
527.60 133.32 1.18 
528.49 133.24 -0.18 
529.40 133.01 -2.32 
528.95 133.13 -1.26 
537.08 132.90 -1.98 
537.12 133.04 -1.09 
537.09 133.01 -0.11 
537.07 132.98 0.87 
537.04 132.95 1.85 
536.67 133.33 2.24 
536.99 132.87 3.17 
536.98 132.90 3.83 
536.63 133.32 4.36 
536.61 133.31 5.43 
537.79 133.55 -2.02 
537.77 133.54 -1.03 
537.89 133.42 -0.83 
537.86 133.40 0.13 
537.83 133.39 1.10 
537.89 133.09 1.90 
537.71 133.52 1.96 
537.78 133.36 3.04 
537.75 133.35 4.02 
537.73 133.33 5.00 
538.49 133.57 -1.71 
538.23 133.41 -0.88 
538.39 133.38 -0.77 
538.36 133.35 0.15 
538.33 133.33 1.07 
538.53 133.44 1.78 
538.30 133.31 2.00 
538.27 133.29 2.93 
538.24 133.27 3.87 
538.44 133.34 4.50 
538.22 133.25 4.81 
539.20 133.30 -2.69 
540.56 132.96 -2.35 
540.92 133.24 -2.31 
518.15 133.84 0.95 
519.00 134.05 0.84 
535.98 133.96 -2.51 
536.19 133.67 -2.07 
536.18 133.67 -0.99 
536.16 133.66 0.08 
536.14 133.66 1.16 
536.12 133.65 2.23 
536.11 133.64 3.32 
536.09 133.64 4.40 
536.07 133.63 5.49 
537.21 133.72 1.88 
537.19 133.69 2.87 
537.16 133.66 3.86 
537.37 133.87 -1.98 
537.30 133.80 -1.06 
537.34 133.86 0.11 
537.24 133.75 0.90 
537.30 133.84 2.19 
537.28 133.84 3.24 
537.26 133.83 4.29 
537.24 133.82 5.35 
538.60 134.21 -2.36 
538.24 133.95 -1.90 
538.21 133.94 -0.94 
538.48 134.21 -0.86 
538.19 133.93 0.02 
538.17 133.92 0.98 
538.50 133.72 1.67 
538.55 134.07 2.05 
538.38 134.16 2.99 
538.49 134.03 3.93 
538.53 133.97 4.34 
538.33 134.14 4.93 
538.68 133.77 -1.76 
538.83 134.25 -0.89 
538.63 134.13 -0.74 
538.73 134.11 0.09 
538.77 134.18 0.92 
538.75 134.15 1.82 
538.72 134.12 2.73 
538.69 134.08 3.64 
538.66 134.05 4.56 
541.71 133.83 -2.22 
542.16 134.06 -2.18 
536.39 134.37 -2.46 
536.48 134.75 -2.07 
536.46 134.75 -0.98 
536.44 134.74 0.11 
536.43 134.74 1.20 
537.05 134.39 -1.96 
537.03 134.38 -0.90 
537.01 134.37 0.17 
536.98 134.36 1.23 
536.96 134.36 2.30 
536.94 134.35 3.37 
536.92 134.33 4.45 
536.90 134.33 5.53 
537.67 134.87 -1.97 
537.49 134.67 -1.02 
537.63 134.85 0.14 
537.61 134.84 1.19 
537.41 134.58 1.93 
537.38 134.55 2.92 
537.35 134.52 3.91 
537.55 134.82 4.38 
537.53 134.82 5.45 
538.43 134.76 -1.88 
538.40 134.72 -0.93 
538.37 134.69 0.02 
538.34 134.65 0.96 
538.31 134.61 1.92 
538.31 134.61 1.92 
538.28 134.57 2.87 
538.39 134.68 3.95 
537.95 134.41 4.04 
538.36 134.67 4.94 
538.90 134.55 -1.74 
538.79 134.54 -0.97 
538.89 134.65 -0.90 
538.86 134.61 -0.01 
538.93 134.80 1.04 
538.80 134.53 1.78 
538.79 134.84 2.10 
538.86 134.74 2.87 
538.84 134.70 3.79 
538.88 134.76 4.62 
538.70 134.77 4.95 
537.12 135.22 -2.36 
537.20 135.37 5.64 
537.70 135.47 -1.97 
537.67 135.44 -0.99 
537.32 135.43 -0.87 
537.64 135.41 0.00 
537.61 135.38 0.98 
537.28 135.41 1.29 
537.58 135.35 1.97 
537.55 135.32 2.96 
537.53 135.28 3.95 
537.22 135.38 4.55 
538.35 135.37 -2.01 
538.60 135.46 -0.89 
538.41 135.11 -0.78 
538.31 135.35 0.02 
538.30 135.35 1.04 
538.28 135.34 2.06 
538.26 135.33 3.09 
538.45 135.26 3.87 
538.24 135.33 4.11 
538.22 135.32 5.15 
538.97 135.08 -1.66 
539.00 135.23 -0.93 
538.94 135.06 -0.73 
538.98 135.19 -0.03 
538.95 135.15 0.87 
539.02 135.23 1.83 
538.85 134.99 2.08 
538.99 135.18 2.73 
538.96 135.14 3.64 
539.03 135.40 4.78 
538.92 135.14 4.84 
