# .PCD v0.7 - Point Cloud Data file format
VERSION 0.7
FIELDS x y z
SIZE 4 4 4
TYPE F F F
COUNT 1 1 1
WIDTH 1724
HEIGHT 1
VIEWPOINT 0 0 0 1 0 0 0
POINTS 1724
DATA ascii
524.39 161.14 0.21 
525.25 160.79 0.09 
525.91 161.13 -0.86 
526.11 160.68 -0.37 
525.32 160.83 0.22 
526.11 160.68 -0.37 
526.63 160.85 0.42 
526.23 160.95 0.89 
527.01 160.87 -0.29 
526.96 160.98 0.01 
527.60 161.08 -0.65 
527.77 161.16 0.43 
528.38 160.58 -0.33 
528.32 160.90 0.53 
528.90 160.91 0.54 
530.07 160.74 0.47 
529.89 161.06 2.31 
530.05 161.02 2.86 
530.47 160.64 0.46 
530.82 160.88 0.76 
530.23 160.83 2.95 
531.35 160.88 0.51 
531.31 160.73 1.13 
531.42 160.90 2.78 
531.25 160.85 3.11 
531.12 160.87 3.94 
531.21 161.11 4.26 
531.68 160.68 0.50 
532.23 161.09 1.17 
532.26 161.04 1.53 
531.97 161.11 2.10 
531.61 161.16 3.11 
532.86 160.79 -0.83 
532.85 161.11 -0.36 
532.83 161.07 1.02 
532.82 161.04 1.71 
533.14 160.62 -0.83 
533.49 161.12 -0.45 
533.66 160.92 0.38 
533.39 160.83 1.03 
533.32 160.85 1.67 
533.43 160.75 2.25 
534.34 160.62 -0.74 
534.40 161.03 -0.59 
534.12 160.56 0.42 
533.90 160.57 1.09 
533.88 160.53 1.92 
534.95 160.78 -0.75 
534.70 160.76 -0.08 
534.72 160.96 0.21 
535.08 161.09 1.03 
535.07 160.98 1.50 
535.57 160.81 -0.97 
535.51 160.56 -0.29 
535.67 160.86 1.45 
535.92 160.75 -1.08 
536.10 160.69 -0.49 
536.06 161.16 1.58 
536.58 160.95 -1.13 
537.17 160.61 -0.10 
537.80 160.82 -0.69 
523.70 161.77 0.06 
524.10 161.63 0.09 
525.02 161.77 -0.79 
524.99 161.81 -0.20 
524.86 161.83 0.39 
525.23 161.65 0.86 
525.72 161.77 -0.87 
526.04 161.29 -0.29 
525.54 161.46 0.40 
526.44 161.23 -0.22 
526.44 161.51 0.60 
526.73 161.59 -0.76 
527.24 161.39 -0.70 
527.69 161.85 0.10 
528.76 161.62 -0.29 
528.54 161.51 0.10 
528.96 161.31 -0.22 
528.90 161.46 0.20 
529.44 161.84 1.89 
529.37 161.82 3.74 
529.13 161.83 4.57 
529.89 161.85 -0.44 
529.66 161.84 0.81 
529.75 161.45 2.00 
529.89 161.27 2.77 
529.99 161.65 4.19 
530.41 161.80 -0.54 
530.37 161.79 0.41 
530.89 161.81 0.84 
530.62 161.80 2.53 
530.26 161.76 3.28 
530.77 161.22 3.79 
530.53 161.83 4.52 
531.31 161.67 -1.05 
531.46 161.83 -0.67 
531.25 161.64 0.45 
531.40 161.76 0.94 
531.40 161.73 1.70 
530.86 161.28 2.56 
530.84 161.43 3.18 
531.33 161.82 3.64 
531.44 161.55 4.59 
531.91 161.79 -0.80 
531.93 161.71 -0.50 
531.84 161.59 0.57 
532.03 161.52 1.09 
532.09 161.50 1.64 
531.61 161.72 2.32 
531.93 161.52 3.11 
531.62 161.49 4.02 
531.88 161.20 4.75 
532.29 161.71 5.43 
532.92 161.35 -1.06 
532.33 161.42 -0.60 
532.64 161.53 0.54 
532.46 161.26 0.99 
532.46 161.24 1.67 
532.66 161.47 2.48 
532.53 161.82 3.74 
533.15 161.43 -0.79 
533.39 161.42 -0.49 
533.41 161.37 0.51 
533.58 161.47 1.15 
533.46 161.44 1.47 
533.15 161.87 4.77 
533.25 161.60 5.47 
533.56 161.42 5.71 
533.93 161.42 -0.44 
534.09 161.32 0.53 
533.72 161.56 0.74 
534.18 161.78 1.73 
533.89 161.78 5.24 
534.11 161.84 5.73 
534.75 161.29 -0.90 
535.03 161.59 -0.37 
534.97 161.74 1.09 
534.77 161.87 1.67 
535.69 161.81 -0.97 
535.41 161.65 -0.27 
535.43 161.52 1.20 
535.18 161.37 1.48 
536.29 161.45 -1.00 
536.02 161.40 -0.64 
535.92 161.48 1.41 
537.06 161.41 -0.29 
537.10 161.73 0.04 
522.28 162.46 -0.14 
522.97 162.08 -0.68 
522.92 162.10 0.18 
522.60 162.49 1.86 
523.65 162.41 -0.35 
523.65 162.39 0.33 
523.42 162.49 1.75 
524.30 162.35 -0.83 
524.15 162.55 -0.06 
524.07 162.40 0.38 
525.01 161.89 0.46 
525.11 162.14 1.05 
525.43 162.03 -0.80 
525.56 162.36 -0.23 
525.64 162.24 0.40 
526.70 162.51 -0.86 
526.36 162.15 -0.05 
526.16 162.07 0.41 
526.95 162.09 -0.33 
527.03 162.16 0.05 
527.68 162.56 -0.03 
528.09 162.48 0.32 
528.46 162.04 -0.34 
528.33 162.41 0.11 
528.57 162.56 2.08 
528.76 162.41 2.10 
528.62 162.48 3.13 
528.56 162.45 4.18 
528.76 162.52 4.24 
529.36 162.32 -0.32 
528.93 162.32 0.12 
528.82 162.42 0.88 
529.03 162.46 1.86 
529.48 162.27 4.01 
528.98 162.23 4.44 
529.32 162.46 5.07 
529.69 161.91 -0.28 
530.06 162.53 0.48 
529.89 162.35 0.91 
530.09 162.48 1.75 
530.05 162.44 2.32 
529.90 162.33 2.88 
529.93 162.23 3.58 
529.75 162.41 4.39 
530.14 162.15 5.25 
529.88 162.13 6.28 
529.79 162.08 6.47 
530.69 162.18 -0.79 
530.53 162.31 -0.52 
530.55 162.01 0.29 
530.51 162.30 1.07 
530.53 162.19 1.63 
530.75 162.16 2.40 
530.70 162.40 2.85 
530.81 162.25 3.74 
530.84 162.17 4.63 
530.40 162.01 5.25 
530.46 162.54 6.16 
530.60 162.36 6.35 
531.17 162.33 -1.01 
531.47 162.33 -0.57 
531.13 162.09 0.48 
531.12 161.97 1.05 
531.14 161.96 1.58 
531.13 162.21 2.58 
530.95 162.32 3.41 
531.06 162.04 3.88 
531.21 161.93 4.42 
530.94 162.16 5.53 
531.43 162.47 6.29 
532.04 161.95 -0.78 
531.77 162.46 -0.22 
532.01 162.06 0.54 
531.76 162.34 1.27 
531.79 162.28 2.00 
531.98 162.44 2.45 
531.78 162.37 3.38 
531.69 162.32 3.81 
531.96 162.04 4.48 
531.84 162.25 5.08 
531.83 162.25 5.85 
531.97 162.01 6.37 
532.48 162.33 -0.49 
532.86 162.31 0.61 
532.93 162.56 1.94 
532.87 162.46 2.58 
532.73 162.18 3.73 
532.86 162.31 4.46 
532.66 162.17 5.07 
532.73 162.17 5.73 
533.48 161.92 -0.76 
533.48 162.32 -0.64 
533.47 162.42 0.51 
533.64 162.45 0.89 
533.27 162.38 1.54 
533.09 162.51 2.73 
533.61 162.37 3.97 
533.19 162.28 4.82 
533.35 162.59 5.14 
533.36 162.20 5.73 
534.29 162.00 -0.75 
533.98 162.15 -0.55 
534.13 162.25 0.29 
533.79 162.20 0.88 
534.26 162.23 1.49 
533.79 162.23 2.83 
533.87 162.11 3.96 
533.78 162.04 4.50 
534.27 162.42 5.32 
534.16 162.37 6.00 
535.10 162.16 -0.80 
534.46 162.52 -0.17 
534.88 162.68 0.56 
534.73 162.28 0.80 
534.98 162.24 1.66 
534.50 162.43 4.86 
534.52 162.19 5.56 
535.21 162.35 -0.78 
535.24 162.14 -0.57 
535.46 162.09 0.25 
535.58 162.15 1.04 
535.41 162.08 1.45 
536.07 161.99 -0.75 
536.29 162.34 -0.17 
536.98 162.29 -0.15 
537.33 162.23 -0.44 
521.67 163.10 -0.62 
522.35 162.77 -0.73 
522.32 163.21 0.67 
522.49 163.03 1.37 
522.27 162.76 1.58 
523.20 163.04 -0.73 
523.11 162.94 -0.27 
523.12 162.92 0.36 
522.99 163.10 1.49 
523.89 162.71 -0.96 
523.45 162.93 -0.27 
523.45 162.91 0.27 
523.91 162.93 0.94 
523.42 163.26 1.50 
524.27 162.80 -0.78 
524.19 162.98 -0.39 
524.19 162.96 0.54 
524.07 163.15 1.11 
524.06 163.27 1.64 
525.21 162.91 -0.31 
525.08 162.75 0.29 
525.13 162.83 1.05 
525.55 163.20 -0.43 
525.58 162.87 0.09 
526.08 162.89 -0.83 
526.39 162.88 -0.56 
526.03 162.82 0.09 
527.17 162.81 -0.19 
527.69 163.05 -0.59 
528.46 163.20 -0.74 
528.46 162.98 -0.22 
528.54 163.19 0.46 
528.68 163.21 1.03 
528.68 163.19 1.45 
528.63 162.68 2.38 
528.36 162.66 3.05 
528.53 162.81 3.52 
528.84 163.00 -0.74 
529.08 163.09 -0.50 
529.29 162.91 0.45 
529.11 163.03 0.94 
529.16 162.95 1.63 
529.24 163.19 2.43 
529.44 162.74 2.95 
529.12 162.97 4.09 
529.80 162.89 -0.29 
529.87 162.75 0.13 
529.78 162.63 0.95 
529.81 162.62 1.70 
529.66 162.65 2.17 
530.02 163.14 3.44 
529.90 162.60 4.45 
530.81 163.06 -0.33 
530.65 162.85 0.48 
530.69 163.15 1.16 
530.59 162.74 1.93 
530.88 163.01 2.58 
530.82 163.06 3.18 
530.81 163.06 3.80 
530.52 162.75 4.60 
530.43 162.59 5.25 
530.67 162.76 6.40 
531.34 163.02 -0.12 
531.15 162.74 0.49 
531.36 162.69 1.18 
531.12 163.00 2.00 
531.14 162.71 2.46 
531.21 162.97 2.95 
531.30 162.66 3.90 
531.42 163.01 4.47 
531.08 162.73 5.11 
531.86 163.06 -0.95 
531.87 163.02 -0.41 
531.93 162.64 0.59 
531.92 163.24 0.99 
531.89 162.95 1.87 
532.10 162.90 2.76 
531.90 162.82 3.24 
531.66 162.90 3.82 
531.91 163.07 4.25 
532.27 162.92 4.97 
531.66 162.65 5.60 
532.56 163.07 -1.00 
532.48 162.89 -0.31 
532.69 162.95 0.50 
532.19 162.82 2.02 
532.36 162.93 2.44 
532.40 163.20 3.34 
532.56 162.75 3.91 
532.85 163.09 4.35 
532.62 162.67 5.31 
533.28 162.80 -0.18 
533.27 162.86 0.33 
533.49 163.01 1.29 
533.22 163.09 1.92 
533.48 162.71 2.56 
533.44 163.19 3.24 
533.31 162.97 4.06 
533.54 163.23 4.35 
533.22 162.84 5.36 
533.14 162.71 5.60 
534.00 162.63 -0.51 
534.19 162.96 0.36 
533.95 163.00 0.92 
533.92 163.07 1.41 
534.07 163.22 2.53 
534.08 162.86 3.94 
533.80 162.74 4.37 
533.98 162.74 5.20 
534.88 162.75 -0.28 
534.75 162.89 0.53 
535.07 162.64 1.05 
534.44 163.17 1.46 
534.55 163.10 2.19 
534.71 163.20 3.12 
535.12 162.66 -0.77 
535.31 162.92 -0.55 
535.39 162.99 0.59 
535.48 163.00 1.14 
535.18 162.90 1.72 
536.35 162.97 -0.11 
536.20 162.91 0.03 
535.89 162.76 1.26 
536.70 163.01 -0.42 
521.59 163.47 -0.65 
521.57 163.46 0.06 
522.46 163.60 -0.90 
522.39 163.61 -0.70 
522.39 163.58 0.35 
522.05 163.96 1.32 
522.47 163.53 1.54 
522.89 163.63 -0.79 
522.92 163.81 -0.36 
522.71 163.53 0.42 
522.70 163.50 1.36 
522.86 163.63 1.56 
523.73 163.44 -0.83 
523.68 163.84 -0.41 
523.36 163.58 0.08 
523.38 163.53 1.45 
524.50 163.76 -0.19 
524.10 163.80 0.24 
524.17 163.68 1.90 
524.55 163.80 2.74 
524.19 163.34 2.94 
524.26 163.70 3.68 
525.22 163.87 -0.53 
525.10 163.95 2.47 
524.64 163.66 3.36 
525.54 163.42 2.68 
525.74 163.70 3.52 
526.69 163.94 -0.37 
526.45 163.74 1.56 
527.32 163.82 -0.72 
527.36 163.93 -0.08 
527.30 163.95 0.32 
527.24 163.92 0.94 
527.12 163.95 1.58 
527.26 163.87 2.36 
528.05 163.76 -0.71 
527.88 163.86 -0.60 
527.69 163.69 0.44 
527.68 163.73 1.01 
527.62 163.67 1.93 
527.93 163.47 2.51 
528.53 163.92 -0.79 
528.39 163.49 -0.48 
528.61 163.40 0.13 
528.33 163.39 1.01 
528.71 163.32 1.48 
528.40 163.28 2.15 
529.14 163.52 -0.71 
529.18 163.71 -0.35 
529.13 163.61 0.44 
528.99 163.52 1.10 
528.97 163.60 1.41 
529.33 163.33 2.45 
529.36 163.28 3.04 
529.82 163.59 -0.20 
529.89 163.62 0.16 
530.17 163.63 0.83 
530.07 163.48 2.85 
530.75 163.89 -0.89 
530.52 163.78 -0.23 
530.58 163.59 0.24 
530.60 163.89 1.24 
530.58 163.84 2.22 
530.79 163.74 3.45 
530.84 163.71 3.59 
530.81 163.36 4.22 
531.49 163.70 -0.95 
531.16 163.60 -0.45 
531.17 163.34 0.26 
531.22 163.64 1.17 
531.16 163.43 1.97 
531.60 163.51 2.27 
531.24 163.75 3.14 
532.23 163.34 -1.02 
531.66 163.83 -0.29 
532.10 163.65 0.62 
531.80 163.36 1.33 
531.86 163.76 1.92 
532.11 163.50 2.52 
532.05 163.45 3.22 
531.82 163.75 3.64 
532.41 163.43 -0.88 
532.54 163.67 -0.28 
532.84 163.73 0.30 
532.72 163.59 1.19 
532.45 163.52 1.68 
532.42 163.69 2.44 
532.53 163.63 3.06 
532.99 163.73 3.66 
532.74 163.61 4.30 
533.50 163.93 -0.91 
533.34 163.40 -0.51 
533.36 163.69 0.32 
533.22 163.51 1.00 
533.29 163.59 1.87 
533.51 163.72 2.67 
533.35 163.67 3.00 
533.02 163.70 3.62 
533.14 163.52 4.65 
534.14 163.66 0.59 
533.99 163.67 0.96 
533.82 163.44 1.97 
534.18 163.57 2.51 
533.87 163.80 3.22 
534.01 163.43 3.52 
533.90 163.53 4.37 
534.70 163.94 0.68 
534.64 163.63 0.85 
534.68 163.96 2.08 
534.87 163.69 2.56 
534.65 163.52 3.30 
535.38 163.71 0.35 
535.26 163.80 0.86 
535.43 163.50 1.80 
536.13 163.68 -0.16 
535.91 163.68 0.08 
536.54 163.34 -0.53 
521.78 164.61 2.34 
522.24 164.26 -0.73 
522.19 164.33 -0.23 
522.06 163.98 0.40 
522.22 164.07 1.30 
521.83 164.02 1.48 
522.01 164.22 3.46 
521.88 164.39 3.93 
523.05 164.37 -0.95 
523.04 164.16 -0.40 
522.67 164.63 3.44 
522.73 164.08 3.75 
523.59 164.51 -0.76 
523.49 164.46 -0.29 
523.73 164.47 0.24 
523.85 164.06 1.12 
523.45 164.39 2.30 
523.88 164.42 3.27 
523.27 164.67 3.88 
524.14 164.31 -0.78 
524.01 164.19 -0.16 
523.97 164.09 0.09 
524.22 164.52 0.93 
524.00 164.38 1.64 
524.03 164.59 2.33 
524.04 164.29 2.86 
524.25 164.29 3.62 
524.31 164.13 4.47 
524.84 164.48 -0.30 
524.92 164.35 0.36 
524.93 164.48 1.00 
525.15 164.61 1.56 
524.66 164.32 2.22 
524.78 164.53 3.13 
525.05 164.04 4.06 
524.67 164.57 4.96 
525.89 164.63 -0.73 
525.92 164.55 -0.39 
525.90 164.59 0.40 
525.89 164.65 1.03 
525.73 164.58 1.54 
525.33 164.19 2.67 
525.48 164.71 3.09 
525.40 164.10 3.51 
525.44 164.30 4.29 
526.39 164.48 -0.63 
526.36 164.35 -0.48 
526.36 164.34 0.41 
526.37 164.31 1.11 
526.28 164.35 1.57 
526.39 164.28 2.17 
526.26 164.26 3.10 
526.27 164.52 3.63 
526.04 164.05 4.20 
527.26 164.02 -0.86 
526.87 164.42 -0.46 
526.90 164.18 0.42 
526.95 164.11 1.05 
527.14 164.30 1.41 
526.94 164.00 2.47 
526.87 164.60 3.67 
527.94 164.36 -0.81 
527.61 164.46 -0.44 
527.94 164.10 0.52 
527.49 164.47 1.21 
527.71 164.29 1.49 
528.35 164.25 -0.81 
528.57 164.25 -0.25 
528.40 164.57 0.44 
528.42 164.48 1.35 
528.12 164.27 1.44 
529.34 164.43 -0.80 
529.11 164.21 -0.24 
528.98 164.06 0.33 
529.23 164.24 1.17 
529.44 164.54 1.70 
529.86 164.27 -0.17 
529.87 164.44 0.26 
529.89 164.18 0.89 
529.77 164.44 1.73 
530.87 164.04 -0.83 
530.57 164.26 -0.17 
530.37 164.27 0.16 
530.71 164.65 1.10 
530.23 164.08 1.79 
530.86 164.12 4.39 
531.19 164.43 -0.90 
531.18 164.02 -0.29 
531.25 164.25 0.16 
531.26 164.63 1.22 
531.26 164.01 1.96 
531.16 164.09 2.54 
531.48 164.26 2.80 
531.95 164.11 -0.51 
532.03 164.34 0.30 
531.61 164.34 1.29 
531.92 164.17 1.95 
532.08 164.16 2.38 
532.06 164.19 3.17 
531.88 164.74 3.48 
532.66 164.21 -0.80 
532.63 164.48 -0.55 
532.51 164.47 0.29 
532.78 164.20 1.18 
532.80 164.23 1.72 
532.58 164.21 2.61 
532.66 164.08 3.41 
533.12 164.18 3.59 
532.66 164.01 4.25 
533.56 164.34 -0.86 
533.35 164.29 -0.16 
533.32 164.27 0.20 
533.27 164.34 1.18 
533.17 164.26 1.69 
533.17 164.57 2.63 
533.58 164.31 2.87 
533.12 164.18 3.59 
534.11 164.59 -0.86 
534.26 164.49 -0.15 
534.08 164.23 0.21 
534.10 164.15 1.31 
534.17 164.50 1.92 
534.04 164.14 3.20 
534.99 164.66 -0.85 
535.04 164.13 -0.38 
534.48 164.44 0.39 
534.53 164.41 0.97 
534.90 164.15 1.37 
534.91 164.58 2.10 
535.20 164.33 -0.91 
535.67 164.28 -0.37 
535.36 164.34 0.39 
535.37 164.55 1.00 
535.40 164.50 1.77 
535.39 164.50 2.15 
536.10 164.28 -0.37 
535.98 164.11 0.69 
535.99 164.45 0.93 
537.08 164.50 -0.04 
536.80 164.52 0.13 
537.50 164.59 -0.08 
537.57 164.36 0.22 
538.50 164.53 -0.03 
538.33 164.55 0.56 
539.14 164.54 -0.01 
539.02 164.53 0.25 
539.35 164.45 0.39 
519.00 165.35 0.03 
519.47 165.30 -0.31 
519.46 165.29 0.29 
520.33 165.24 -0.65 
520.31 165.23 0.03 
520.42 164.88 -0.63 
521.04 165.35 1.37 
521.38 164.92 -0.93 
521.38 164.91 -0.30 
521.37 164.90 0.33 
521.31 165.20 1.86 
521.78 165.11 2.49 
522.04 165.04 -0.22 
522.45 164.95 0.52 
522.00 165.23 1.62 
522.29 164.93 2.49 
522.15 165.18 4.31 
522.85 165.21 -0.83 
522.80 164.92 -0.19 
522.70 164.94 0.09 
522.55 165.20 1.70 
523.04 164.81 2.39 
522.94 165.09 2.95 
522.84 165.15 3.91 
523.52 164.96 -0.66 
523.52 164.96 -0.66 
523.77 165.11 1.05 
523.81 165.27 1.79 
523.54 164.85 2.45 
523.79 165.10 3.07 
523.48 165.14 3.74 
523.42 165.20 4.58 
524.57 165.19 -0.77 
524.36 165.10 -0.16 
524.36 165.17 0.39 
524.41 165.08 0.91 
524.43 165.13 1.68 
524.26 165.06 2.63 
524.06 164.79 2.90 
524.25 165.19 3.54 
524.55 165.12 4.67 
524.97 165.18 -0.83 
524.92 165.22 -0.41 
524.94 165.09 0.40 
524.97 165.03 1.03 
524.90 165.08 1.76 
525.05 164.90 2.33 
525.01 164.95 2.77 
525.11 165.15 3.57 
524.83 165.15 5.10 
525.55 164.89 -0.80 
525.52 164.88 -0.35 
525.52 164.78 0.39 
525.53 164.83 0.98 
525.45 164.79 1.56 
525.77 165.22 2.49 
525.58 165.16 2.82 
525.73 164.75 4.02 
526.23 165.20 -0.31 
526.47 165.07 0.07 
526.48 164.94 1.20 
526.45 165.04 1.53 
526.43 165.26 2.12 
526.16 165.17 3.31 
526.02 165.00 3.70 
527.10 165.05 -0.24 
527.09 164.74 0.17 
526.82 164.98 1.09 
527.04 164.84 1.45 
527.03 165.24 2.34 
527.11 165.14 2.82 
527.86 164.93 -0.86 
527.81 165.26 -0.42 
527.75 164.78 0.07 
527.57 165.08 1.37 
527.59 165.19 2.02 
527.79 165.14 2.39 
528.60 164.93 -0.65 
528.63 164.98 -0.29 
528.45 164.93 0.20 
528.57 165.11 0.90 
528.59 164.95 1.86 
529.42 164.97 -0.76 
528.89 165.03 -0.43 
529.29 164.87 0.22 
529.01 164.74 1.44 
529.83 164.84 -0.40 
530.05 165.02 0.16 
530.54 165.02 -0.16 
530.70 165.14 0.25 
530.45 164.81 0.96 
530.91 164.78 1.71 
531.16 165.20 -0.01 
531.26 164.84 0.17 
531.10 164.65 1.21 
531.37 164.69 1.75 
531.54 165.07 2.20 
531.58 164.99 3.12 
532.02 165.20 -0.22 
531.95 165.06 0.15 
532.15 164.99 1.34 
532.03 164.71 1.84 
532.04 164.72 2.43 
532.14 164.85 3.14 
531.85 165.37 3.72 
532.49 164.95 -0.24 
532.68 165.19 0.29 
532.88 164.85 1.23 
532.93 164.84 1.75 
532.37 164.94 2.44 
532.49 164.82 3.37 
532.81 164.77 3.58 
533.68 165.02 -1.22 
533.20 164.87 -0.24 
533.13 165.11 0.48 
533.52 165.21 1.10 
533.40 165.06 1.44 
533.03 164.78 2.63 
533.16 164.70 3.03 
534.26 164.97 -0.71 
534.29 164.63 -0.31 
534.15 165.27 0.60 
534.32 164.85 1.01 
534.34 165.09 1.72 
534.20 165.22 2.40 
534.15 165.26 2.84 
534.58 164.92 -0.86 
534.57 165.01 -0.52 
534.90 165.10 0.35 
534.71 165.02 0.81 
534.80 164.97 1.82 
534.67 165.01 2.27 
535.18 164.83 -0.84 
535.48 164.80 -0.35 
535.53 164.85 0.30 
535.46 165.12 0.98 
535.38 164.85 1.71 
535.61 165.14 2.12 
536.15 164.94 -0.19 
535.83 165.18 0.44 
536.16 165.23 1.15 
536.08 165.00 1.41 
535.91 165.16 3.03 
536.65 165.00 -0.07 
536.60 164.94 0.16 
536.69 164.97 1.05 
537.05 165.06 1.47 
537.31 164.89 -0.06 
537.80 164.82 0.48 
537.51 164.90 1.03 
538.03 165.26 -0.16 
538.20 164.81 0.49 
538.59 165.18 1.12 
538.12 165.01 1.50 
538.68 164.98 -0.13 
539.09 165.08 0.22 
539.08 165.35 1.16 
538.61 165.31 1.40 
539.52 165.10 0.24 
518.16 165.91 -0.66 
517.74 165.86 0.07 
518.62 165.96 -0.88 
518.61 165.95 -0.30 
518.95 165.75 0.25 
518.58 165.93 1.43 
518.99 165.87 2.33 
519.40 165.98 -1.16 
519.54 165.90 -0.60 
519.53 165.89 0.04 
519.98 165.76 -0.88 
520.29 165.92 -0.18 
520.29 165.90 0.32 
520.74 165.56 -0.71 
520.76 165.84 -0.44 
520.58 165.75 0.33 
520.58 165.72 1.31 
520.84 165.56 1.76 
520.84 165.54 2.23 
521.77 165.78 -0.89 
521.14 165.49 -0.67 
521.14 165.47 0.25 
521.78 165.62 0.77 
521.15 165.82 1.99 
521.49 165.93 2.64 
522.48 165.48 -0.89 
521.81 165.65 -0.06 
522.03 165.44 0.10 
522.45 165.73 1.53 
522.00 165.71 2.45 
523.06 165.58 -0.36 
522.96 165.77 1.35 
522.63 165.68 2.09 
522.93 165.77 2.51 
523.20 165.93 3.30 
523.63 165.62 -0.90 
523.77 165.68 -0.37 
523.70 165.58 0.34 
523.70 165.56 1.07 
523.78 165.62 1.66 
523.60 165.58 2.66 
523.51 165.81 3.17 
523.64 166.02 3.67 
523.27 165.54 4.39 
524.25 165.67 -0.96 
524.26 165.64 -0.37 
524.17 165.39 0.36 
524.03 165.50 0.99 
524.05 165.51 1.68 
524.02 165.73 2.68 
524.42 165.80 3.06 
524.24 165.58 3.97 
524.49 166.02 4.55 
524.68 165.65 -1.16 
524.85 165.94 -0.35 
525.16 165.83 0.37 
525.02 165.85 0.89 
525.07 165.81 1.72 
525.22 165.63 2.29 
524.95 165.49 3.25 
524.83 166.06 3.66 
525.61 165.73 -1.09 
525.71 165.52 -0.25 
525.74 165.66 0.14 
525.84 165.54 1.35 
525.89 165.87 1.62 
525.55 165.63 2.60 
525.63 165.83 2.81 
525.72 165.45 3.93 
525.77 165.72 4.28 
526.48 165.83 -0.98 
526.20 165.56 -0.09 
526.39 165.84 0.00 
526.40 165.84 1.04 
526.47 165.41 1.94 
526.03 165.93 2.36 
526.70 165.57 2.96 
526.97 165.79 -0.80 
527.19 165.76 -0.52 
527.18 165.45 1.18 
527.41 165.88 1.72 
526.81 165.51 2.18 
526.98 165.97 3.17 
527.37 165.80 -0.74 
527.91 165.86 -0.40 
527.75 165.72 0.01 
527.69 165.76 1.10 
527.71 165.43 1.86 
527.47 165.74 2.82 
528.35 165.46 -0.29 
528.44 165.73 0.41 
528.35 165.89 1.23 
528.34 165.70 1.57 
528.91 165.40 -0.23 
529.35 165.54 0.44 
528.98 165.83 1.56 
529.58 165.84 -0.11 
529.72 165.69 0.25 
529.76 165.70 1.27 
529.90 165.48 1.46 
530.51 165.67 0.05 
530.51 165.67 0.05 
530.30 165.60 1.29 
530.63 165.45 1.93 
531.38 165.63 -0.32 
531.19 165.50 0.05 
531.07 165.49 1.89 
531.28 165.64 2.26 
531.60 165.92 3.39 
531.34 165.51 3.53 
531.98 165.39 -0.43 
532.03 165.62 0.05 
532.16 165.77 2.52 
532.00 165.81 3.30 
532.00 165.81 3.30 
532.71 165.67 -0.45 
532.57 165.43 0.19 
532.71 165.66 1.39 
532.99 165.90 1.40 
532.97 165.91 2.33 
532.69 165.78 3.46 
532.31 165.40 3.78 
533.44 165.58 -0.43 
533.64 165.69 0.52 
533.52 165.66 1.08 
533.43 165.54 1.60 
533.25 165.46 2.55 
533.32 165.59 3.12 
533.26 165.62 3.63 
533.77 165.42 -0.78 
534.13 165.74 -0.38 
534.12 165.77 0.33 
534.27 165.71 1.23 
534.10 165.56 1.76 
533.73 165.45 2.17 
534.04 165.96 2.90 
534.06 165.71 3.73 
534.54 165.39 -0.84 
534.97 165.97 -0.03 
534.69 165.76 0.40 
534.80 165.59 0.94 
535.00 165.78 1.60 
534.52 165.89 2.37 
534.63 165.56 3.12 
535.48 166.05 -0.02 
535.60 165.60 0.67 
535.39 165.65 1.01 
535.30 165.64 1.67 
535.70 165.60 3.09 
536.01 165.64 -0.12 
536.17 165.58 0.17 
536.03 165.62 0.97 
536.25 165.60 1.75 
536.20 165.58 2.36 
536.16 165.41 3.29 
536.69 165.58 -0.31 
536.90 165.76 0.34 
536.84 165.94 0.95 
536.89 165.73 1.44 
537.02 165.72 2.16 
537.60 165.41 -0.18 
537.49 165.51 0.54 
537.51 165.79 1.10 
538.04 165.58 0.55 
538.13 165.86 0.90 
537.99 165.60 1.59 
538.90 165.64 1.15 
539.66 165.94 1.19 
518.15 166.58 -1.04 
517.84 166.48 -0.30 
517.83 166.48 0.26 
518.19 166.37 1.30 
518.71 166.53 -0.98 
518.51 166.38 -0.33 
518.71 166.15 0.31 
518.82 166.55 1.81 
518.50 166.31 2.45 
519.22 166.47 -1.01 
519.41 166.69 -0.32 
519.21 166.45 0.31 
519.03 166.58 1.89 
519.19 166.41 2.52 
519.73 166.56 -0.80 
519.93 166.33 -0.34 
519.89 166.38 0.23 
519.93 166.29 1.30 
520.11 166.54 1.81 
520.71 166.13 -0.29 
520.71 166.12 0.27 
520.71 166.11 0.82 
520.71 166.75 1.51 
521.44 166.77 -0.84 
521.56 166.89 -0.12 
521.45 166.74 0.41 
521.71 166.31 1.29 
521.45 166.70 1.81 
521.74 166.67 2.42 
522.28 166.56 -1.02 
522.17 166.65 -0.34 
522.04 166.65 0.36 
522.16 166.60 1.14 
522.33 166.36 1.56 
522.13 166.55 2.37 
522.24 166.11 3.02 
522.70 166.26 -0.75 
523.01 166.55 -0.37 
523.01 166.57 0.45 
522.91 166.47 1.04 
522.93 166.42 1.66 
522.80 166.83 2.30 
522.77 166.44 3.46 
523.61 166.58 -0.75 
523.56 166.77 -0.28 
523.45 166.66 0.35 
523.53 166.65 0.92 
523.46 166.44 1.71 
523.45 166.33 2.33 
523.57 166.23 3.35 
523.84 166.26 3.76 
523.89 166.53 4.51 
524.55 166.34 -0.91 
524.24 166.48 -0.34 
524.24 166.46 0.52 
524.23 166.44 1.09 
524.15 166.39 1.56 
524.18 166.46 2.40 
524.23 166.57 3.61 
524.44 166.35 4.07 
524.44 166.35 4.07 
525.02 166.78 -0.72 
525.05 166.18 -0.49 
524.97 166.38 0.07 
525.01 166.26 0.89 
524.91 166.43 1.48 
524.76 166.27 2.53 
524.85 166.35 3.04 
524.84 166.41 3.84 
525.61 166.32 -1.05 
525.82 166.66 -0.36 
526.01 166.26 0.00 
525.75 166.74 1.30 
525.90 166.55 1.45 
525.75 166.61 2.56 
525.61 166.22 3.01 
525.41 166.17 3.70 
526.14 166.22 -0.77 
526.29 166.52 -0.50 
526.05 166.77 0.02 
526.20 166.34 1.11 
526.22 166.63 1.40 
526.18 166.34 2.34 
526.18 166.52 2.72 
527.15 166.26 -0.89 
527.14 166.27 -0.38 
527.10 166.64 0.46 
526.99 166.31 1.13 
527.09 166.41 1.46 
527.00 166.30 2.47 
526.82 166.25 2.90 
528.04 166.12 -0.39 
527.64 166.37 1.39 
527.87 166.29 1.60 
528.28 166.09 0.01 
528.37 166.33 1.49 
529.41 166.13 0.99 
529.37 166.65 1.84 
529.34 166.73 2.26 
530.16 166.36 0.18 
529.71 166.62 1.87 
529.71 166.73 2.30 
530.35 166.76 1.27 
530.45 166.46 1.69 
531.06 166.15 0.18 
531.92 166.40 0.07 
532.09 166.24 2.23 
532.25 166.09 3.16 
532.44 166.36 -0.09 
532.79 166.42 0.28 
532.89 166.74 1.01 
532.80 166.41 1.91 
532.64 166.46 2.40 
533.57 166.36 -0.34 
533.15 166.42 0.29 
533.48 166.36 0.99 
533.33 166.57 1.57 
533.56 166.46 2.45 
533.19 166.21 3.26 
534.05 166.39 -0.11 
534.12 166.46 0.33 
534.12 166.40 0.96 
534.05 166.45 1.91 
533.79 166.27 2.25 
533.76 166.69 3.11 
534.40 166.18 3.74 
534.92 166.43 -0.28 
534.71 166.44 0.40 
534.59 166.51 0.98 
534.84 166.51 1.69 
534.64 166.54 2.70 
534.52 166.35 3.23 
535.39 166.31 -0.27 
535.33 166.67 0.10 
535.38 166.13 1.15 
535.45 166.51 1.51 
535.73 166.42 2.26 
535.76 166.74 2.89 
536.06 166.25 -0.46 
536.23 166.24 0.02 
536.16 166.41 1.27 
536.16 166.24 1.57 
535.94 166.44 2.43 
537.00 166.55 -0.45 
536.83 166.32 0.02 
536.90 166.31 1.30 
536.97 166.49 1.77 
537.41 166.54 -0.45 
537.54 166.15 0.47 
537.55 166.36 1.14 
537.39 166.59 1.44 
537.74 166.11 2.28 
538.27 166.19 0.82 
538.96 166.29 1.20 
539.43 166.27 0.98 
517.65 167.25 -0.92 
517.64 166.95 -0.32 
517.61 166.92 0.29 
517.64 167.21 0.71 
518.76 166.95 -0.77 
518.99 166.85 -0.32 
518.75 166.93 0.34 
518.99 167.20 0.87 
518.89 167.24 1.93 
518.83 167.04 2.56 
519.26 166.89 -0.78 
519.26 166.88 -0.22 
519.25 166.87 0.35 
519.24 166.81 2.61 
520.16 167.35 -0.91 
520.29 167.28 -0.31 
520.19 167.36 0.30 
520.30 167.30 1.18 
520.17 167.42 1.66 
520.04 167.32 2.11 
520.86 167.31 -0.86 
520.86 167.30 -0.52 
520.85 167.27 0.26 
520.75 167.45 1.08 
520.75 167.07 1.48 
521.57 166.91 -0.90 
521.42 167.05 -0.33 
521.36 167.06 0.51 
521.50 166.97 0.95 
521.36 167.42 1.87 
521.79 167.35 2.17 
522.31 167.22 -0.90 
522.25 167.22 -0.41 
522.25 167.20 0.40 
522.33 167.16 1.08 
522.17 167.25 1.78 
522.34 167.12 2.16 
522.85 167.18 -0.72 
522.85 167.00 -0.32 
522.90 166.89 0.42 
522.76 166.97 1.02 
522.87 166.94 1.75 
522.80 166.83 2.30 
523.18 166.78 3.47 
523.21 166.87 -0.81 
523.21 166.86 -0.36 
523.21 166.83 0.33 
523.48 166.78 0.94 
523.23 166.96 1.50 
523.80 167.02 2.43 
523.76 166.91 3.51 
524.26 166.95 0.00 
524.23 167.11 1.71 
524.37 167.05 2.20 
524.11 166.99 2.87 
524.42 167.05 3.84 
525.28 166.93 -0.72 
524.69 167.38 -0.31 
524.92 167.37 1.43 
524.93 167.37 1.71 
524.88 167.14 2.37 
525.69 167.03 -0.70 
525.45 167.11 -0.32 
525.68 167.25 0.35 
525.79 166.92 1.36 
525.39 167.13 1.55 
525.53 167.12 2.69 
525.60 167.01 2.94 
526.15 167.03 -0.76 
526.27 167.00 -0.35 
526.39 167.04 0.49 
526.17 167.05 1.09 
526.41 167.12 1.75 
526.28 166.87 2.58 
526.18 166.83 3.01 
527.12 166.89 -0.81 
526.91 166.96 1.09 
527.35 167.30 1.55 
527.73 167.26 1.43 
528.02 167.22 2.44 
528.65 167.25 2.04 
528.65 167.25 2.04 
529.16 167.31 1.67 
529.00 167.17 2.54 
529.70 167.09 1.58 
530.32 167.20 1.23 
530.71 167.01 1.55 
531.36 167.42 0.02 
530.94 167.06 1.56 
532.11 167.23 0.04 
532.93 167.18 -0.30 
532.64 167.18 0.46 
532.71 167.08 1.05 
532.98 167.34 1.53 
533.42 166.90 -0.18 
533.17 167.09 0.15 
533.06 166.97 1.38 
533.41 167.05 1.77 
533.61 166.90 2.43 
533.29 167.08 3.19 
534.12 167.07 -0.10 
533.95 167.28 0.32 
534.05 166.82 1.32 
534.27 167.01 1.85 
534.38 166.92 2.29 
533.85 167.19 3.40 
534.26 166.80 3.67 
534.66 167.12 -0.39 
534.61 166.89 0.39 
534.80 167.23 1.20 
534.57 167.13 1.53 
534.72 166.99 2.68 
534.50 167.05 2.86 
534.52 167.14 3.50 
535.43 167.10 -0.36 
535.54 167.20 0.12 
535.17 167.21 1.68 
535.74 167.31 2.24 
535.71 166.88 3.11 
535.95 167.14 -0.37 
536.02 167.08 0.16 
536.40 166.82 1.11 
536.39 167.41 1.98 
536.01 167.09 2.24 
535.85 167.12 2.87 
536.87 167.02 1.13 
536.83 167.04 1.60 
537.37 167.20 1.15 
537.45 167.23 1.79 
538.04 167.44 1.85 
538.17 167.34 2.25 
518.10 167.90 1.05 
518.00 167.97 1.73 
518.72 168.05 -0.98 
518.77 168.18 -0.28 
518.64 168.12 0.28 
518.65 167.98 1.67 
519.47 167.98 -0.91 
519.36 167.81 -0.50 
519.25 167.97 0.34 
519.36 167.96 1.06 
519.40 167.85 1.48 
520.05 167.83 -1.06 
519.89 167.62 -0.29 
519.91 167.76 0.28 
520.05 167.76 1.29 
519.89 167.56 1.65 
520.89 167.77 -1.04 
520.87 167.91 -0.27 
520.88 167.78 0.29 
520.43 167.56 1.26 
520.88 167.85 1.70 
521.41 167.65 -0.85 
521.42 167.73 -0.29 
521.42 167.62 0.30 
521.23 167.78 1.13 
521.47 167.51 1.82 
521.47 167.50 2.13 
522.00 167.36 -0.58 
522.16 167.73 1.33 
523.04 167.87 2.08 
522.99 167.63 2.21 
523.64 168.06 1.37 
523.47 168.06 1.88 
523.93 168.15 1.15 
524.27 167.84 1.70 
524.19 168.07 2.25 
524.84 167.51 1.22 
524.70 167.68 1.74 
525.15 167.94 2.63 
525.76 167.69 1.20 
525.49 167.53 1.66 
525.44 167.58 2.18 
526.36 167.84 1.62 
526.39 168.17 2.20 
527.02 168.16 1.66 
527.10 168.01 2.26 
527.76 167.93 1.39 
527.80 167.68 1.53 
527.91 167.91 2.50 
528.34 167.71 1.37 
528.52 167.87 1.45 
528.11 167.97 2.58 
528.22 167.92 2.80 
529.25 167.75 1.38 
529.14 167.89 1.64 
528.89 167.70 2.49 
529.66 167.65 1.41 
531.71 167.53 -0.08 
532.05 167.74 0.05 
532.28 167.98 1.37 
532.32 167.70 -0.08 
532.67 167.74 0.27 
532.80 167.63 1.19 
532.93 167.91 1.56 
533.05 167.62 0.15 
533.30 167.55 1.73 
533.44 167.51 2.38 
534.06 168.01 0.13 
534.37 167.51 0.85 
534.21 167.64 1.49 
534.14 167.55 2.23 
534.80 167.47 -0.43 
534.74 167.89 0.30 
534.76 167.63 1.20 
534.73 167.72 1.55 
535.50 167.75 -0.45 
535.63 167.68 0.37 
535.15 167.60 0.93 
535.64 167.88 1.70 
536.21 167.62 0.15 
535.89 167.60 1.77 
536.25 167.77 2.22 
535.84 167.71 3.29 
536.70 167.72 0.49 
536.66 167.89 1.98 
537.77 167.77 1.80 
517.93 168.51 -1.07 
517.93 168.50 -0.35 
517.97 168.63 0.35 
517.67 168.68 1.10 
517.92 168.45 1.57 
517.70 168.39 2.25 
518.47 168.54 -0.89 
518.54 168.25 -0.51 
518.55 168.44 0.43 
518.74 168.51 1.26 
518.74 168.50 1.66 
518.69 168.49 2.41 
519.30 168.25 -0.80 
519.30 168.23 -0.37 
519.30 168.22 0.07 
519.29 168.22 1.21 
519.29 168.21 1.60 
519.85 168.75 0.77 
523.51 168.51 2.05 
523.90 168.28 2.11 
524.25 168.18 1.25 
523.95 168.18 1.45 
524.92 168.86 1.33 
525.05 168.65 1.59 
525.44 168.54 1.37 
525.68 168.59 1.76 
526.07 168.55 2.37 
526.08 168.54 1.32 
526.47 168.52 1.82 
526.29 168.70 2.38 
526.98 168.73 1.41 
527.10 168.63 1.58 
527.38 168.45 2.23 
527.79 168.48 1.39 
527.63 168.56 1.55 
527.57 168.59 2.23 
528.44 168.35 1.33 
528.44 168.28 1.40 
528.20 168.72 2.63 
532.17 168.21 -0.07 
532.11 168.51 0.44 
532.51 168.26 0.27 
532.85 168.33 2.16 
533.42 168.39 2.49 
534.00 168.65 0.60 
534.63 168.35 0.30 
534.75 168.24 1.62 
535.47 168.68 0.58 
535.47 168.67 1.91 
536.47 168.19 0.48 
535.99 168.31 1.92 
536.20 168.50 2.25 
536.98 168.19 0.64 
537.01 168.35 0.80 
536.82 168.21 1.98 
517.89 169.01 -0.98 
517.78 169.04 -0.35 
518.12 169.28 0.49 
518.15 169.25 1.12 
518.16 169.37 1.68 
518.60 169.41 0.58 
518.52 169.23 1.13 
518.62 169.27 1.54 
519.14 169.27 1.35 
519.02 169.23 1.58 
520.22 169.41 0.07 
520.05 169.53 1.94 
520.75 169.27 0.27 
521.07 169.20 0.79 
520.55 169.41 1.52 
521.19 169.02 1.02 
521.31 169.39 1.80 
522.20 169.46 0.47 
522.13 169.42 0.71 
524.81 169.05 1.78 
525.82 169.46 1.52 
525.90 169.55 2.12 
526.40 168.99 2.02 
526.89 168.93 1.55 
526.74 169.04 2.52 
528.72 168.95 2.60 
531.88 169.10 0.43 
532.46 169.05 0.42 
534.32 168.99 0.48 
534.49 169.05 0.54 
535.24 169.02 0.69 
517.95 169.88 0.73 
517.94 169.96 0.92 
518.03 169.72 1.55 
518.21 170.11 2.40 
518.64 169.87 0.72 
518.61 170.10 0.74 
518.46 169.92 1.61 
518.75 169.83 2.26 
519.04 169.90 0.49 
519.41 169.76 0.81 
519.33 170.19 1.70 
519.69 170.24 2.23 
519.94 169.77 0.09 
520.22 170.01 1.23 
519.92 170.02 1.70 
519.92 169.69 2.41 
520.43 170.04 0.46 
520.60 169.77 1.09 
520.87 169.96 1.87 
521.51 169.90 0.76 
521.47 169.84 1.54 
522.05 170.22 0.49 
521.96 169.68 0.73 
521.88 169.93 1.41 
541.12 169.97 -0.17 
541.51 170.22 -0.17 
542.14 170.16 -0.31 
518.03 170.45 0.48 
517.77 170.88 0.70 
517.85 170.34 1.68 
517.77 170.62 2.61 
517.79 170.91 3.20 
518.43 170.64 -0.08 
518.70 170.55 0.58 
518.66 170.51 1.04 
518.92 170.52 1.79 
518.58 170.41 2.41 
519.57 170.57 0.69 
519.20 170.61 0.94 
519.15 170.53 1.79 
519.49 170.57 2.46 
520.18 170.92 -0.22 
520.19 170.55 0.24 
520.06 170.83 0.91 
520.09 170.82 1.84 
520.00 170.47 2.24 
520.57 170.49 0.49 
521.01 170.92 1.02 
520.50 170.57 1.58 
520.57 170.55 2.39 
521.74 170.86 0.98 
521.32 170.49 1.84 
521.89 170.47 0.36 
521.93 170.50 0.80 
522.13 170.96 1.44 
540.58 170.41 -0.49 
541.17 170.44 -0.28 
541.75 170.43 -0.11 
518.16 171.23 0.63 
518.02 171.45 1.03 
517.97 171.49 1.78 
518.04 171.67 2.39 
518.52 171.16 0.51 
518.43 171.67 1.10 
518.79 171.37 1.88 
518.66 171.27 2.33 
518.43 171.30 2.97 
519.46 171.37 -0.62 
519.36 171.47 0.51 
519.28 171.34 0.73 
519.28 171.37 1.76 
519.40 171.12 2.19 
519.96 171.05 -0.76 
520.08 171.07 -0.32 
519.91 171.35 0.55 
520.01 171.44 1.19 
520.16 171.23 1.43 
520.44 171.49 0.64 
520.49 171.61 1.54 
521.12 171.23 0.82 
521.80 171.39 1.60 
522.06 171.52 0.60 
522.01 171.36 1.19 
539.81 171.64 -0.24 
540.44 171.26 -0.12 
540.72 171.33 -0.08 
518.04 172.01 0.65 
517.78 172.29 1.12 
517.88 171.96 1.83 
517.79 171.83 2.53 
517.81 171.78 2.84 
518.47 172.00 0.58 
518.79 171.98 1.10 
518.43 172.11 1.68 
518.58 172.02 2.25 
519.68 172.18 -0.07 
519.61 172.30 0.19 
519.55 171.90 0.92 
519.41 171.88 1.74 
519.12 172.14 2.14 
520.29 171.87 0.46 
520.01 172.03 1.20 
520.05 171.84 1.88 
520.53 172.09 0.65 
520.70 172.07 1.38 
520.87 172.09 1.73 
521.61 171.95 0.34 
521.30 172.01 1.06 
521.26 172.35 1.65 
521.93 171.98 0.11 
538.40 172.39 -0.25 
539.61 172.12 -0.13 
540.15 171.81 -0.09 
517.78 172.69 0.62 
518.03 172.72 1.20 
517.82 172.74 1.78 
518.54 172.70 0.82 
518.57 172.73 2.22 
519.56 172.49 0.60 
519.02 172.55 0.86 
519.04 173.01 1.54 
519.99 172.41 0.56 
520.30 172.87 0.99 
520.23 173.02 1.36 
520.29 173.06 2.11 
520.66 172.73 0.58 
520.76 172.86 0.91 
520.50 172.71 1.80 
520.43 172.71 2.24 
521.52 172.41 0.25 
521.45 172.38 1.06 
521.95 172.49 0.35 
538.40 172.39 -0.25 
538.92 172.78 -0.10 
539.43 172.51 -0.06 
519.16 173.44 0.67 
519.45 173.55 1.34 
519.27 173.56 1.46 
519.87 173.20 1.24 
519.71 173.54 1.49 
521.07 173.31 1.69 
521.23 173.17 1.88 
537.68 173.26 -0.33 
537.61 173.18 0.19 
538.31 173.55 -0.05 
519.51 173.81 0.81 
519.04 173.89 1.53 
534.77 174.27 -0.38 
536.41 174.29 -0.21 
536.88 174.42 -0.18 
537.81 173.98 -0.05 
535.63 174.96 -0.22 
536.02 174.79 -0.10 
536.72 174.79 -0.07 
537.29 174.51 -0.03 
541.14 174.96 1.16 
541.60 174.55 1.05 
518.19 175.79 2.42 
535.02 175.54 -0.22 
535.45 175.47 -0.25 
536.18 175.52 -0.15 
539.89 175.61 1.08 
540.19 175.35 0.24 
540.23 175.62 1.03 
518.30 176.17 2.36 
518.90 176.22 2.46 
534.10 176.43 -0.19 
534.81 176.11 -0.23 
535.48 175.88 -0.09 
539.11 176.16 1.05 
539.76 176.18 1.14 
532.11 177.05 -0.30 
532.84 177.11 -0.50 
533.59 177.27 -0.19 
534.15 176.71 -0.21 
533.82 176.84 0.40 
534.79 176.67 -0.07 
534.72 176.92 0.00 
537.76 177.26 1.08 
538.48 177.13 1.03 
538.71 176.85 1.18 
532.75 177.89 -0.17 
533.31 177.82 -0.09 
533.99 177.43 -0.03 
536.88 177.80 0.64 
536.86 177.80 1.08 
537.29 177.95 0.64 
537.57 177.72 1.11 
538.07 177.35 1.14 
532.12 178.49 -0.19 
532.12 178.48 0.24 
532.15 178.50 1.01 
532.58 178.29 -0.16 
532.54 178.05 0.52 
532.52 178.06 1.02 
533.16 178.23 -0.03 
533.32 178.12 -0.03 
536.45 178.27 1.13 
536.92 178.21 1.08 
530.28 179.12 -0.24 
531.37 179.20 0.97 
531.79 178.90 -0.15 
531.86 178.79 1.04 
532.50 178.91 -0.02 
532.50 178.91 -0.02 
535.05 179.14 1.08 
535.59 178.76 0.68 
535.56 179.29 1.19 
536.27 178.76 1.24 
530.59 179.97 -0.04 
530.57 179.97 0.49 
530.55 179.97 1.02 
531.26 179.65 -0.15 
531.43 179.98 0.00 
531.05 179.53 0.96 
531.99 179.41 -0.01 
532.20 179.38 0.03 
534.06 179.83 1.04 
534.73 179.92 1.14 
535.24 179.53 1.17 
529.86 180.67 0.91 
530.68 180.39 -0.10 
530.47 180.15 0.98 
531.16 180.29 -0.02 
531.31 180.24 0.03 
532.96 180.75 1.10 
533.31 180.50 1.12 
534.13 180.42 0.98 
534.43 180.18 0.96 
529.22 181.32 -0.02 
529.20 181.32 0.47 
529.18 181.32 0.96 
529.66 180.83 1.04 
530.21 180.82 1.06 
532.01 181.24 1.12 
532.65 180.99 1.08 
533.57 180.85 1.01 
527.76 182.06 0.95 
528.69 181.81 1.03 
528.81 181.74 0.45 
528.96 181.52 1.01 
531.43 181.95 1.21 
531.79 181.63 1.13 
527.34 182.72 -0.35 
527.07 182.76 0.92 
527.60 182.65 -0.31 
528.07 182.49 1.09 
528.56 182.22 -0.20 
530.20 182.84 0.77 
530.79 182.41 1.17 
530.99 182.26 1.18 
527.05 183.14 -0.31 
527.26 183.29 0.26 
527.23 183.29 1.18 
527.58 182.94 -0.25 
527.58 182.93 0.43 
527.56 182.94 0.84 
528.99 183.42 1.14 
526.00 184.01 -0.10 
525.94 183.81 0.98 
526.19 184.06 -0.27 
526.21 184.24 1.11 
528.06 184.09 1.09 
528.44 183.79 1.09 
525.26 184.50 0.95 
525.85 184.43 -0.26 
525.72 184.77 1.12 
526.27 184.38 -0.15 
526.17 184.34 1.12 
527.30 184.60 1.13 
527.49 184.47 1.14 
525.07 185.24 -0.24 
525.14 185.28 1.18 
525.40 185.20 -0.17 
525.39 185.05 0.62 
525.40 185.09 1.10 
526.24 185.31 0.71 
527.43 185.12 0.83 
