# .PCD v0.7 - Point Cloud Data file format
VERSION 0.7
FIELDS x y z
SIZE 4 4 4
TYPE F F F
COUNT 1 1 1
WIDTH 1761
HEIGHT 1
VIEWPOINT 0 0 0 1 0 0 0
POINTS 1761
DATA ascii
540.30 -105.26 -0.45 
541.42 -105.61 -4.91 
541.24 -105.27 -4.59 
542.03 -105.18 -4.60 
541.94 -105.18 -3.93 
539.04 -104.44 0.17 
539.17 -104.74 0.35 
539.37 -104.32 -2.38 
539.52 -104.29 -0.73 
540.31 -104.22 -2.59 
540.31 -104.58 -2.53 
540.41 -104.40 -0.69 
540.30 -104.75 0.12 
540.78 -104.58 -4.11 
541.26 -104.22 -3.79 
540.86 -104.70 -2.49 
541.23 -104.25 -1.47 
541.32 -104.86 -0.38 
541.06 -104.52 0.77 
541.60 -104.39 -4.59 
541.93 -104.46 -3.80 
541.81 -104.69 -1.33 
541.80 -104.91 -0.71 
542.12 -104.54 -5.16 
542.35 -104.42 -3.95 
542.28 -104.61 -1.35 
538.57 -103.91 -0.98 
538.34 -103.87 0.01 
538.29 -104.09 0.43 
539.28 -103.87 -2.46 
538.76 -103.54 -0.92 
538.84 -103.56 -0.05 
539.83 -103.80 -2.41 
539.70 -103.60 -0.76 
539.53 -103.99 0.10 
540.48 -103.71 -2.43 
540.06 -103.84 -0.80 
540.07 -103.51 -0.31 
540.96 -103.59 -3.69 
541.38 -104.11 -2.54 
540.75 -103.80 -1.27 
540.81 -103.81 -0.46 
541.40 -104.09 -0.39 
542.07 -103.57 -4.84 
542.09 -103.76 -4.11 
542.11 -104.08 -3.17 
541.51 -104.12 -1.16 
542.07 -104.05 -1.13 
542.04 -103.61 0.41 
542.28 -104.06 -4.92 
542.52 -103.69 -0.23 
537.28 -103.03 -0.79 
537.50 -102.95 0.19 
537.98 -102.97 -2.34 
538.38 -103.02 -0.72 
538.22 -103.11 -0.21 
538.69 -102.84 -2.06 
539.28 -103.24 -0.98 
539.95 -103.32 -3.74 
539.77 -103.34 -2.50 
539.97 -103.02 -1.30 
539.51 -103.23 -0.63 
539.32 -103.38 -0.08 
540.55 -103.49 -1.43 
540.64 -103.14 -1.12 
540.34 -103.03 0.32 
541.21 -102.98 -3.54 
540.85 -102.88 -3.18 
540.80 -102.91 -2.04 
541.02 -103.38 -0.89 
541.12 -103.43 0.44 
541.47 -103.45 -4.03 
541.92 -102.86 -3.32 
542.05 -103.02 -2.32 
541.70 -103.23 -0.51 
542.38 -103.34 -4.92 
542.13 -103.06 -2.55 
542.17 -103.46 -2.43 
542.22 -103.14 -0.25 
531.06 -102.17 -1.01 
536.98 -102.37 -0.53 
537.79 -102.66 -0.85 
538.04 -102.64 -2.24 
538.56 -102.64 -1.14 
538.26 -102.55 -0.41 
539.29 -102.75 -3.70 
538.69 -102.66 -2.60 
538.73 -102.43 -0.66 
539.91 -102.31 -3.23 
539.32 -102.42 -1.98 
539.48 -102.52 -1.19 
539.41 -102.34 -0.57 
540.62 -102.39 -2.30 
540.37 -102.70 -0.40 
540.17 -102.38 -0.40 
540.85 -102.29 -3.31 
541.19 -102.55 -2.30 
541.19 -102.36 -1.80 
541.19 -102.43 -1.07 
541.28 -102.34 0.25 
541.92 -102.50 -4.06 
541.43 -102.58 -3.25 
541.94 -102.18 -2.69 
541.75 -102.49 -2.05 
541.76 -102.66 -1.13 
541.90 -102.50 -0.14 
542.37 -102.17 -5.13 
542.17 -102.74 -4.34 
542.50 -102.45 -3.46 
542.47 -102.47 -2.36 
530.01 -101.47 -0.93 
530.50 -101.84 -0.96 
531.20 -101.68 -3.60 
531.21 -101.68 -3.01 
531.21 -101.69 -2.41 
531.19 -101.72 -1.20 
531.42 -101.46 -0.64 
531.67 -101.85 -3.62 
531.67 -101.93 -2.75 
531.67 -101.86 -2.44 
531.68 -101.88 -1.25 
532.87 -101.67 -0.66 
533.05 -101.90 -0.72 
537.14 -101.50 -1.09 
537.31 -101.56 -1.53 
537.75 -101.59 -1.10 
537.37 -101.93 -0.20 
538.49 -102.11 -2.27 
538.38 -101.99 -1.34 
538.54 -101.97 -0.99 
538.86 -101.86 -1.75 
538.91 -101.62 -0.63 
539.09 -101.52 0.54 
539.59 -101.83 -3.24 
539.92 -101.73 -3.13 
539.76 -101.79 -1.80 
540.02 -101.70 -0.70 
539.51 -101.91 0.81 
540.52 -101.50 -2.70 
540.10 -102.04 -2.29 
540.36 -101.70 -1.63 
540.23 -101.73 -0.82 
540.24 -101.95 -0.02 
541.37 -101.54 -2.71 
540.96 -101.52 -2.16 
540.73 -101.48 -1.39 
540.78 -101.76 -1.10 
541.64 -101.46 -5.07 
541.73 -101.57 -4.29 
542.01 -101.64 -3.75 
541.82 -101.80 -2.71 
541.72 -101.86 -2.28 
541.50 -101.83 -1.40 
541.92 -102.07 -0.55 
542.53 -101.55 -5.12 
542.43 -101.45 -4.28 
542.34 -101.98 -3.30 
542.35 -101.97 -2.78 
542.30 -101.94 -2.14 
542.36 -102.03 -1.74 
529.43 -100.87 -2.95 
529.41 -100.90 -2.36 
529.39 -100.96 -1.17 
529.51 -101.10 -0.90 
529.59 -101.41 -1.05 
530.77 -101.09 -4.13 
530.77 -101.09 -3.55 
530.78 -101.09 -2.97 
530.78 -101.09 -2.39 
530.79 -101.10 -1.81 
531.30 -100.86 -0.72 
531.56 -101.26 -0.43 
531.75 -101.09 -0.69 
533.85 -100.72 -0.05 
536.35 -101.13 -1.42 
536.19 -100.88 -1.03 
536.83 -100.86 -1.46 
536.82 -101.05 0.23 
537.72 -100.73 -1.49 
537.86 -101.34 -0.62 
538.19 -100.92 -1.73 
538.26 -100.76 -0.81 
538.60 -100.84 -0.38 
539.18 -100.74 -4.68 
538.74 -100.97 -2.15 
539.14 -101.11 -1.65 
539.06 -100.92 -0.85 
538.86 -101.04 -0.11 
540.01 -100.84 -5.01 
539.72 -100.78 -2.59 
539.49 -101.48 -1.81 
539.82 -101.14 -1.38 
539.60 -101.16 -0.86 
539.36 -101.29 -0.07 
540.51 -101.26 -3.26 
540.23 -101.11 -2.56 
540.36 -101.23 -2.04 
540.36 -101.06 -1.49 
540.35 -100.80 -0.96 
540.96 -101.15 -4.28 
541.20 -101.30 -3.30 
541.02 -100.97 -2.71 
540.81 -100.86 -2.43 
540.81 -101.22 -1.48 
540.82 -101.29 -0.90 
540.83 -101.34 -0.32 
541.75 -101.38 -4.79 
541.50 -101.09 -4.31 
541.52 -101.27 -3.76 
541.79 -101.12 -3.17 
542.42 -101.07 -4.35 
542.48 -101.03 -2.58 
542.46 -100.94 -1.90 
542.42 -100.79 -1.61 
542.28 -100.78 -0.95 
527.90 -100.15 -0.96 
528.51 -100.31 -0.83 
528.99 -100.24 -3.58 
529.00 -100.25 -3.01 
529.00 -100.25 -2.43 
529.01 -100.26 -1.26 
529.39 -100.46 -0.66 
529.77 -100.14 -0.67 
530.64 -100.29 -0.61 
531.18 -100.56 -0.58 
531.12 -100.28 -0.43 
531.84 -100.07 -0.44 
533.02 -100.13 -0.19 
533.44 -100.47 -0.22 
534.20 -100.13 -1.36 
534.07 -100.09 -1.00 
534.95 -100.48 -1.58 
534.65 -100.32 0.22 
535.63 -100.69 -1.35 
536.38 -100.31 -1.57 
535.82 -100.05 -0.82 
537.05 -100.21 -2.02 
536.81 -100.27 -1.59 
537.08 -100.19 -0.78 
536.88 -100.19 -0.10 
537.40 -100.67 -2.12 
537.28 -100.67 -1.49 
537.60 -100.24 -0.78 
537.47 -100.55 -0.04 
538.27 -100.47 -2.52 
538.35 -100.44 -1.30 
538.22 -100.55 -0.81 
538.73 -100.12 -3.67 
539.27 -100.56 -2.75 
539.22 -100.17 -2.34 
539.27 -100.63 -1.29 
538.85 -100.54 -0.68 
540.01 -100.08 -4.32 
539.68 -100.45 -3.28 
539.75 -100.23 -2.35 
539.82 -100.65 -1.65 
539.97 -100.70 -0.34 
540.51 -100.13 -5.02 
540.61 -100.66 -4.30 
540.67 -100.16 -2.99 
540.28 -100.38 -2.48 
540.69 -100.53 -1.27 
541.08 -100.17 -4.32 
541.34 -100.09 -3.47 
541.04 -100.30 -3.01 
541.31 -100.13 -2.12 
541.37 -100.30 -1.75 
541.01 -100.02 -0.69 
541.13 -100.50 -0.17 
541.47 -100.43 -4.76 
541.71 -100.56 -4.33 
541.88 -100.34 -3.79 
541.63 -100.23 -3.20 
541.77 -100.11 -2.29 
541.79 -100.42 -1.74 
541.81 -100.54 -0.65 
542.48 -100.53 -5.11 
542.16 -100.63 -4.35 
542.40 -100.51 -3.44 
542.35 -100.24 -2.73 
542.37 -100.38 -2.19 
542.52 -100.42 -1.33 
542.53 -100.42 -0.83 
526.60 -99.63 -1.58 
526.55 -99.39 -0.96 
526.99 -99.68 -0.98 
527.51 -99.61 -0.72 
528.59 -99.56 -0.74 
529.01 -99.73 -2.24 
529.31 -99.68 -1.19 
528.98 -99.67 -0.65 
529.83 -99.75 -0.57 
530.21 -99.53 -0.36 
530.27 -99.82 -0.51 
530.77 -99.43 -0.35 
531.39 -99.44 -0.26 
532.11 -99.71 -0.21 
532.78 -99.41 -1.27 
532.47 -99.60 0.01 
533.24 -99.98 -0.15 
534.00 -99.58 -2.13 
533.81 -99.48 -0.60 
534.27 -99.43 0.20 
534.67 -99.95 -1.39 
535.00 -99.52 -1.13 
534.66 -99.76 0.17 
535.06 -99.41 0.28 
535.56 -99.89 -1.41 
535.81 -99.59 -1.06 
535.52 -99.57 -0.26 
535.79 -99.88 0.33 
536.44 -99.63 -2.00 
535.86 -99.94 -1.59 
536.45 -99.47 -0.70 
536.02 -99.70 -0.24 
536.39 -99.68 0.33 
536.91 -99.55 -1.23 
536.87 -99.78 -0.67 
536.53 -99.93 -0.20 
537.87 -99.44 -2.35 
537.70 -99.95 -1.39 
537.38 -100.04 -0.77 
538.41 -99.51 -4.17 
538.55 -99.56 -2.22 
538.31 -99.63 -1.75 
538.27 -99.71 -0.98 
538.85 -99.58 -4.18 
539.08 -99.74 -2.37 
538.84 -99.52 -1.75 
538.87 -99.59 -1.06 
539.75 -99.56 -4.27 
539.43 -99.92 -2.36 
539.80 -99.79 -1.40 
540.44 -99.55 -5.02 
540.51 -99.82 -4.34 
540.42 -99.55 -2.66 
540.45 -99.62 -2.04 
540.47 -99.66 -1.41 
540.25 -99.72 -1.06 
541.00 -99.86 -4.31 
541.24 -99.78 -3.46 
541.09 -99.84 -3.17 
541.24 -99.78 -2.45 
541.42 -99.37 -1.76 
541.62 -99.81 -5.06 
541.55 -99.62 -3.59 
541.56 -100.08 -2.90 
541.61 -99.85 -1.99 
542.01 -99.67 -1.65 
542.49 -99.56 -3.48 
542.26 -99.44 -2.54 
542.18 -99.95 -1.96 
542.57 -99.79 -1.81 
542.58 -99.85 -1.03 
525.72 -98.75 -0.92 
526.55 -99.00 -0.84 
527.14 -98.91 -0.68 
527.74 -99.16 -1.16 
527.75 -98.87 -0.56 
528.49 -99.08 -0.60 
528.49 -98.78 -0.31 
528.93 -99.28 -0.59 
529.23 -98.76 -0.27 
529.77 -98.93 -0.26 
530.56 -98.97 -0.26 
531.17 -99.14 -0.19 
531.91 -98.86 -0.14 
532.16 -98.72 0.31 
532.46 -99.00 -2.35 
532.52 -98.99 -1.37 
532.51 -99.01 -0.29 
533.26 -99.04 -2.59 
533.04 -98.66 -0.77 
534.01 -98.74 -1.89 
534.31 -99.28 -1.25 
533.87 -98.98 -1.11 
533.74 -99.11 -0.27 
534.85 -99.22 -4.13 
534.66 -98.83 -0.61 
534.73 -98.96 -0.41 
534.67 -99.26 0.51 
535.31 -98.62 -4.03 
535.61 -99.27 -1.69 
535.58 -99.03 -0.96 
535.16 -99.10 -0.39 
536.18 -99.28 -2.30 
536.11 -99.16 -1.61 
536.08 -98.99 -1.04 
536.24 -98.87 -0.12 
536.53 -98.97 -2.29 
536.85 -99.19 -1.24 
536.72 -99.15 -0.18 
537.67 -98.77 -3.18 
537.76 -99.18 -2.31 
537.43 -99.28 -0.71 
537.34 -98.91 0.26 
538.58 -98.67 -4.31 
538.84 -99.09 -4.28 
539.57 -99.24 -4.29 
539.51 -99.19 -3.70 
539.99 -99.10 -2.83 
539.48 -98.86 -2.09 
539.34 -99.21 -0.92 
540.22 -99.07 -3.25 
540.14 -99.22 -2.85 
540.54 -99.23 -2.35 
540.99 -99.06 -3.57 
541.00 -99.30 -2.27 
541.08 -99.19 -1.75 
541.97 -98.92 -3.49 
542.07 -99.21 -2.92 
541.54 -99.20 -2.19 
541.97 -98.96 -1.36 
542.12 -98.80 -2.63 
542.52 -99.08 -2.18 
523.66 -98.13 -0.99 
523.97 -98.03 -2.78 
524.34 -97.83 -0.84 
525.26 -98.60 -3.49 
525.26 -98.61 -2.85 
525.27 -98.61 -2.21 
524.89 -98.27 -0.91 
525.83 -98.21 -0.70 
526.30 -98.31 -0.61 
526.71 -98.01 -0.36 
526.96 -98.35 -0.63 
527.20 -98.13 -0.38 
527.69 -98.45 -0.52 
527.81 -98.31 -0.46 
528.45 -98.27 -0.29 
528.98 -98.21 -0.23 
529.88 -98.29 -0.11 
530.50 -98.05 0.17 
531.38 -98.35 0.07 
532.15 -98.15 0.28 
532.85 -98.39 -2.67 
532.68 -98.11 -2.40 
532.85 -98.44 -1.40 
533.20 -97.93 -2.68 
533.21 -98.30 -2.36 
533.22 -98.13 0.42 
534.16 -98.03 -3.74 
533.78 -98.02 -2.65 
533.92 -98.40 -1.89 
533.75 -98.11 -1.77 
533.97 -98.58 -0.84 
534.35 -98.49 -0.22 
534.80 -97.98 -2.57 
534.65 -98.40 -0.53 
534.76 -98.31 0.01 
534.83 -98.04 0.44 
535.25 -98.27 -0.62 
535.31 -98.50 0.05 
536.18 -98.60 -2.28 
536.31 -98.06 0.69 
537.16 -98.49 -2.62 
536.72 -98.46 -2.64 
536.61 -98.31 -0.04 
537.68 -97.94 -2.01 
537.22 -98.01 -0.66 
539.13 -98.36 -3.97 
539.13 -98.35 -3.62 
538.82 -98.39 -2.54 
539.84 -98.13 -4.99 
539.76 -98.23 -4.26 
539.77 -98.01 -3.34 
539.97 -98.42 -3.04 
539.41 -98.30 -1.61 
539.54 -98.27 -0.52 
540.42 -98.00 -4.83 
540.40 -98.50 -3.40 
540.75 -98.28 -3.47 
541.26 -98.33 -2.84 
542.35 -98.05 -5.00 
542.53 -98.15 -2.38 
522.84 -97.59 -0.98 
523.26 -97.25 -3.49 
523.27 -97.26 -2.91 
523.30 -97.66 -2.43 
523.27 -97.28 -1.14 
523.75 -97.33 -0.72 
524.34 -97.37 -0.64 
524.92 -97.56 -0.51 
525.02 -97.30 -0.39 
525.64 -97.64 -0.45 
525.73 -97.56 -0.44 
526.13 -97.56 -0.53 
526.47 -97.40 -0.37 
526.91 -97.84 -0.48 
527.17 -97.40 -0.24 
527.77 -97.66 -0.20 
528.28 -97.56 -0.13 
529.18 -97.57 0.12 
529.78 -97.51 0.21 
530.42 -97.60 0.14 
530.48 -97.59 0.29 
531.29 -97.52 -2.54 
530.99 -97.65 0.23 
531.05 -97.76 0.35 
531.65 -97.27 -2.56 
531.76 -97.47 0.30 
532.82 -97.76 -2.54 
533.25 -97.31 -2.83 
533.60 -97.43 0.31 
534.26 -97.32 -2.58 
533.81 -97.26 -2.52 
534.10 -97.63 -1.40 
534.34 -97.36 0.28 
534.64 -97.75 -2.46 
535.58 -97.31 -2.75 
535.61 -97.47 -2.25 
535.25 -97.67 -1.76 
535.81 -97.30 -1.01 
535.41 -97.85 0.59 
536.39 -97.54 -2.84 
536.34 -97.36 -1.89 
536.34 -97.31 -1.86 
536.44 -97.68 -1.12 
536.23 -97.34 -0.28 
537.18 -97.91 -2.73 
536.84 -97.50 -2.20 
537.16 -97.91 -1.70 
537.54 -97.57 -3.64 
537.84 -97.21 -2.93 
537.70 -97.55 -2.15 
538.43 -97.22 -4.22 
538.30 -97.31 -3.80 
538.34 -97.74 -2.70 
538.52 -97.22 -2.20 
538.11 -97.38 -1.42 
538.89 -97.82 -4.24 
539.05 -97.74 -3.39 
539.29 -97.70 -2.86 
539.11 -97.47 -2.28 
539.72 -97.60 -4.83 
539.81 -97.40 -4.02 
539.54 -97.75 -3.42 
539.79 -97.26 -3.21 
540.19 -97.42 -4.96 
540.35 -97.29 -4.28 
540.53 -97.42 -3.33 
540.57 -97.49 -3.10 
541.36 -97.72 -1.00 
541.57 -97.65 -1.86 
541.66 -97.37 -1.50 
542.44 -97.57 -4.99 
542.31 -97.65 -1.60 
520.99 -96.52 -0.83 
521.76 -96.79 -0.81 
522.23 -96.86 -0.90 
522.73 -97.17 -3.18 
522.73 -97.17 -2.02 
522.74 -97.17 -1.43 
522.90 -96.87 -0.75 
523.54 -96.91 -0.62 
523.78 -96.72 -0.41 
524.19 -96.92 -0.41 
524.31 -96.78 -0.39 
524.96 -97.05 -0.55 
525.05 -96.69 -0.30 
525.65 -97.08 -0.45 
525.62 -96.86 -0.27 
526.42 -96.91 -0.20 
527.18 -96.86 0.00 
527.68 -96.96 0.02 
528.27 -96.89 0.14 
528.82 -97.12 0.18 
529.22 -96.55 0.30 
529.55 -96.57 -3.61 
529.79 -97.14 0.20 
529.73 -96.52 0.38 
530.57 -96.97 -2.65 
530.92 -96.95 -1.68 
531.24 -96.55 -1.07 
532.12 -96.72 -3.15 
533.00 -97.17 0.39 
533.21 -96.61 -1.21 
533.45 -96.98 -0.97 
533.34 -96.65 0.02 
533.79 -96.63 -2.57 
534.23 -96.57 -1.92 
533.86 -96.60 -1.46 
534.36 -96.54 -0.80 
533.76 -96.54 0.07 
533.95 -96.75 0.32 
534.65 -96.62 -3.30 
534.86 -96.84 -2.98 
534.81 -96.96 -1.95 
534.77 -96.80 -1.26 
534.62 -96.63 -1.12 
535.29 -96.53 -3.87 
535.41 -96.81 -2.63 
535.37 -96.82 -0.77 
535.32 -96.75 -0.15 
536.23 -97.16 -2.50 
536.51 -96.72 -0.37 
537.18 -96.91 -2.55 
537.80 -96.78 -4.09 
537.65 -96.79 -2.21 
538.34 -96.92 -4.33 
538.40 -96.93 -3.42 
538.86 -97.03 -4.60 
539.11 -96.56 -3.54 
539.77 -96.81 -5.02 
539.48 -96.95 -4.60 
539.88 -96.79 -3.89 
539.77 -97.14 -2.74 
539.98 -97.02 -2.23 
540.33 -96.92 -2.80 
540.48 -96.51 -2.45 
541.33 -96.61 -3.34 
541.28 -96.94 -2.91 
540.89 -97.18 -2.23 
541.62 -96.62 -4.63 
541.61 -96.96 -3.01 
541.83 -97.14 -1.77 
542.56 -97.08 -4.98 
542.49 -97.11 -2.84 
542.21 -96.88 -2.35 
519.68 -95.95 -0.89 
520.37 -96.48 -0.94 
520.85 -95.98 -0.75 
521.77 -95.88 -1.76 
521.56 -96.03 -0.71 
522.20 -96.29 -0.59 
522.28 -95.81 -0.42 
522.77 -96.46 -1.54 
522.68 -96.30 -0.60 
522.83 -95.97 -0.43 
523.48 -95.90 -3.62 
523.50 -95.85 -2.99 
523.46 -95.89 -2.36 
523.45 -95.89 -1.72 
523.39 -96.08 -0.46 
523.58 -96.27 -0.42 
524.24 -96.30 -3.38 
524.22 -96.29 -2.61 
524.20 -96.28 -1.84 
524.19 -96.27 -1.06 
524.29 -96.03 -0.30 
524.90 -96.23 -0.13 
525.55 -96.20 -0.07 
526.26 -96.32 0.01 
527.24 -96.30 0.06 
527.86 -96.10 0.23 
527.86 -96.10 0.23 
528.56 -95.98 -3.23 
528.31 -96.24 0.25 
528.40 -96.16 0.33 
529.18 -96.20 -3.64 
529.25 -95.91 -2.84 
529.52 -95.91 -1.14 
529.16 -96.40 0.35 
530.11 -96.27 -2.78 
530.01 -96.08 -1.20 
529.58 -96.43 0.41 
530.45 -96.04 -1.17 
530.45 -96.04 -1.17 
531.15 -95.82 -3.99 
531.44 -95.87 -1.36 
531.20 -96.06 -1.04 
532.02 -95.96 -1.53 
532.00 -96.33 -1.05 
532.64 -96.46 -3.04 
532.92 -96.10 -1.99 
532.33 -96.10 -1.59 
533.02 -96.36 -0.98 
532.50 -96.37 -0.42 
533.40 -96.14 -3.02 
533.30 -96.04 -2.20 
533.65 -96.16 -1.74 
533.33 -96.05 -0.92 
533.30 -95.87 -0.42 
534.12 -96.38 -3.31 
534.08 -96.21 -2.59 
533.96 -96.10 -2.13 
534.15 -96.21 -1.50 
534.09 -96.33 -1.01 
534.04 -96.34 -0.31 
534.97 -96.33 -3.76 
535.02 -95.85 -2.61 
534.59 -96.49 -1.91 
534.99 -96.49 -0.14 
535.60 -96.07 -2.37 
535.55 -96.22 -0.27 
536.42 -96.01 -3.34 
536.14 -96.42 -2.58 
536.41 -96.02 -0.57 
536.12 -96.44 -0.33 
536.72 -96.27 -4.32 
536.76 -96.13 -3.75 
536.77 -96.45 -2.59 
537.15 -96.03 -1.84 
536.80 -96.20 -1.36 
536.56 -96.24 -0.26 
537.53 -96.48 -4.33 
537.41 -96.48 -2.06 
537.50 -96.50 -1.27 
538.13 -96.04 -3.24 
538.39 -96.16 -1.26 
538.71 -95.96 -4.55 
538.98 -96.24 -3.83 
538.96 -96.28 -3.05 
539.10 -96.33 -1.78 
540.02 -96.15 -5.26 
539.52 -96.44 -4.16 
539.62 -96.42 -3.74 
539.79 -95.86 -2.67 
539.79 -96.29 -2.53 
539.80 -95.91 -1.80 
540.17 -96.18 -2.29 
540.72 -96.31 -5.01 
541.24 -96.17 -3.69 
541.31 -96.16 -1.95 
541.03 -95.86 -0.88 
541.85 -95.92 -4.62 
541.94 -96.45 -3.05 
542.59 -95.88 -3.50 
542.26 -96.14 -3.07 
542.52 -96.45 -2.37 
518.30 -95.24 -3.31 
518.29 -95.25 -2.58 
518.29 -95.25 -1.86 
518.01 -95.18 -0.96 
518.96 -95.40 -0.84 
519.42 -95.19 -0.68 
519.91 -95.76 -2.83 
519.91 -95.76 -1.97 
520.01 -95.45 -0.69 
520.78 -95.35 -0.55 
521.10 -95.18 -0.43 
521.50 -95.64 -0.51 
521.61 -95.33 -0.44 
522.30 -95.79 -0.46 
522.15 -95.34 -0.31 
522.95 -95.64 -0.44 
522.91 -95.32 -0.31 
523.39 -95.71 -0.48 
523.55 -95.43 -0.22 
524.01 -95.26 -1.44 
524.26 -95.46 -0.03 
524.98 -95.40 -1.17 
524.74 -95.49 -0.08 
525.39 -95.75 -1.22 
525.82 -95.45 0.12 
526.36 -95.29 -1.05 
526.35 -95.59 0.15 
526.52 -95.01 0.40 
526.97 -95.79 0.19 
527.12 -95.39 0.37 
527.93 -95.35 0.55 
528.48 -95.75 -3.70 
528.58 -95.45 -2.92 
529.39 -95.28 -1.38 
530.11 -95.12 -3.28 
529.87 -95.55 -2.94 
529.79 -95.40 -1.35 
530.72 -95.33 -3.98 
530.53 -95.18 -3.21 
530.62 -95.76 -1.68 
530.41 -95.17 -0.11 
530.22 -95.79 0.46 
531.34 -95.67 -4.03 
531.45 -95.34 -2.98 
531.25 -95.28 -1.90 
531.37 -95.45 -1.77 
531.58 -95.29 -0.62 
531.16 -95.41 -0.02 
531.97 -95.35 -2.95 
531.98 -95.11 -2.10 
532.02 -95.96 -1.53 
531.80 -95.40 -0.68 
532.78 -95.28 -3.99 
532.78 -95.35 -3.58 
532.46 -95.72 -2.75 
532.62 -95.60 -2.19 
532.55 -95.40 -1.72 
533.26 -95.54 -3.94 
533.27 -95.66 -3.52 
533.03 -95.55 -2.67 
533.23 -95.40 -2.45 
533.81 -95.22 -3.83 
534.08 -95.80 -2.29 
534.59 -95.21 -3.63 
534.95 -94.95 -2.73 
535.01 -95.25 -2.10 
535.06 -95.41 -1.57 
534.64 -95.51 -0.57 
535.04 -95.31 -0.42 
535.38 -95.39 -3.51 
535.38 -95.42 -2.98 
535.37 -95.17 -2.02 
535.43 -95.24 -1.56 
535.18 -95.38 0.31 
535.89 -95.61 -3.86 
536.27 -95.33 -2.94 
535.96 -95.72 -1.97 
536.33 -95.52 -1.30 
536.42 -95.24 -0.93 
536.89 -95.46 -2.62 
537.03 -95.55 -2.08 
537.03 -95.55 -1.57 
536.75 -95.42 -0.63 
537.66 -95.64 -2.08 
537.34 -95.58 -1.22 
537.27 -95.57 -0.86 
538.14 -95.24 -3.45 
538.27 -95.19 -2.99 
538.47 -95.54 -2.08 
538.27 -95.45 -0.59 
539.17 -95.75 -4.19 
538.84 -95.15 -3.19 
538.73 -95.33 -2.34 
538.93 -95.48 -1.30 
538.76 -95.69 -0.59 
539.99 -95.68 -5.24 
539.96 -95.45 -3.52 
539.58 -95.43 -1.84 
539.73 -95.77 -1.38 
539.80 -95.52 -0.96 
540.55 -95.80 -5.16 
540.30 -95.52 -3.52 
540.47 -95.40 -1.76 
541.29 -95.43 -3.33 
541.30 -95.39 -1.43 
541.04 -95.78 -0.63 
541.44 -95.71 -4.99 
541.81 -95.64 -4.62 
541.94 -95.35 -3.68 
542.44 -95.65 -3.40 
542.36 -95.17 -1.37 
517.75 -94.94 -3.46 
517.76 -94.93 -2.56 
517.77 -94.93 -1.65 
518.31 -94.75 -0.78 
518.69 -94.42 -2.62 
518.69 -94.42 -1.91 
518.69 -94.42 -1.19 
518.75 -94.55 -0.71 
519.08 -94.58 -3.29 
519.09 -94.58 -2.23 
519.10 -94.57 -1.17 
519.33 -94.75 -0.62 
519.36 -94.46 -0.43 
520.19 -95.02 -3.50 
520.30 -94.96 -2.86 
520.21 -95.01 -2.51 
520.22 -95.00 -1.52 
520.14 -94.90 -0.43 
520.27 -94.74 -0.43 
520.73 -94.94 -0.58 
520.81 -94.56 -0.35 
521.63 -94.51 -1.06 
521.57 -94.73 -0.24 
522.00 -94.84 -1.10 
522.17 -94.85 -0.17 
522.93 -94.75 -0.10 
523.45 -94.70 0.01 
524.61 -95.00 -1.12 
524.27 -94.90 0.09 
524.36 -94.47 0.30 
525.00 -95.05 0.11 
524.93 -94.62 0.34 
525.59 -94.76 0.35 
526.52 -95.01 0.40 
527.20 -95.02 0.48 
527.92 -94.53 -2.97 
528.16 -95.03 -2.89 
529.57 -94.56 -3.34 
529.65 -94.46 -2.75 
530.17 -94.66 -2.15 
530.50 -94.49 -2.56 
530.86 -94.91 -2.03 
530.81 -94.76 -1.39 
530.92 -94.74 0.19 
531.37 -94.51 -4.09 
531.50 -94.82 -3.62 
531.50 -94.71 -2.84 
531.33 -94.78 -2.20 
531.34 -95.04 -1.17 
531.01 -95.04 -0.70 
532.22 -94.83 -3.85 
532.00 -94.95 -3.67 
531.90 -95.01 -2.75 
532.05 -94.66 -2.16 
531.81 -94.46 -0.20 
532.56 -94.91 -3.84 
532.90 -95.10 -2.13 
533.48 -94.70 -3.96 
533.57 -94.72 -3.67 
533.11 -94.92 -2.57 
533.30 -94.48 -2.06 
533.50 -94.43 -0.60 
533.15 -94.82 -0.15 
534.24 -94.85 -3.55 
533.78 -94.64 -2.74 
534.11 -94.69 -1.91 
534.02 -94.42 -1.58 
534.13 -94.72 -1.03 
534.95 -94.95 -2.73 
534.54 -94.60 -2.03 
534.68 -94.60 -1.40 
534.86 -94.45 -0.67 
535.67 -94.67 -2.88 
535.71 -95.10 -2.01 
535.42 -94.70 -1.21 
535.46 -94.42 -0.89 
536.16 -95.05 -2.93 
536.41 -94.46 -2.08 
536.22 -95.02 -1.53 
535.95 -94.68 -0.95 
536.82 -94.42 -3.26 
536.81 -94.54 -2.95 
537.15 -94.97 -1.94 
536.91 -94.58 -1.52 
537.14 -95.09 -0.86 
537.63 -94.61 -3.33 
537.74 -95.01 -2.59 
537.71 -94.61 -2.11 
537.73 -95.03 -1.36 
537.52 -95.03 -0.71 
538.24 -94.59 -3.73 
538.26 -94.79 -2.59 
538.58 -94.87 -1.99 
538.43 -94.84 -1.21 
539.04 -94.43 -4.03 
539.03 -94.90 -2.97 
538.68 -94.92 -1.85 
538.80 -94.85 -1.30 
539.90 -94.80 -3.29 
539.86 -94.88 -3.15 
539.62 -94.63 -2.12 
540.26 -95.04 -3.56 
540.63 -94.53 -3.09 
540.20 -94.75 -2.47 
540.61 -94.82 -1.43 
540.43 -94.87 -1.05 
540.03 -95.07 -0.40 
541.12 -94.60 -3.36 
541.11 -94.59 -1.07 
541.87 -94.64 -4.94 
541.75 -94.97 -3.35 
541.57 -94.72 -1.58 
541.97 -94.53 -0.49 
542.36 -94.75 -4.96 
542.29 -94.87 -3.52 
542.33 -94.93 -2.88 
542.51 -95.07 -1.91 
517.98 -94.36 -4.04 
517.98 -94.36 -3.30 
518.11 -94.13 -2.58 
517.98 -94.37 -1.82 
518.06 -93.99 -0.53 
518.19 -93.80 -0.43 
518.69 -94.41 -4.04 
518.69 -94.41 -3.33 
518.57 -94.25 -0.55 
518.70 -93.92 -0.43 
519.42 -94.05 -0.46 
519.44 -93.85 -0.30 
520.23 -94.14 -3.97 
520.10 -94.07 -3.44 
520.23 -94.15 -3.06 
520.12 -94.06 -2.42 
520.13 -94.06 -1.41 
519.83 -94.34 -0.48 
520.16 -94.04 -0.26 
520.62 -94.18 -3.52 
520.89 -93.72 -2.72 
520.65 -94.17 -1.56 
520.88 -93.84 -0.98 
520.64 -94.07 -0.16 
521.26 -94.18 -1.02 
521.30 -94.06 -0.12 
522.01 -94.17 -0.10 
522.66 -93.82 -1.25 
522.88 -94.08 0.02 
523.51 -94.22 0.20 
523.75 -94.08 0.27 
523.94 -94.37 0.22 
524.20 -94.27 0.27 
524.73 -93.96 0.25 
524.73 -93.96 0.25 
525.39 -93.75 0.65 
526.33 -94.31 0.65 
528.51 -94.07 -2.12 
528.59 -94.04 0.30 
529.30 -94.41 -3.34 
529.38 -94.00 -3.06 
529.29 -93.78 -2.35 
529.74 -93.79 -4.15 
529.72 -93.86 -3.07 
529.98 -94.07 -2.27 
530.56 -94.01 -4.10 
530.77 -94.38 -3.41 
530.28 -94.07 -3.01 
530.30 -93.98 -2.30 
530.58 -94.30 -0.02 
531.12 -93.97 -3.98 
531.04 -93.92 -2.27 
531.41 -93.81 -0.32 
532.12 -93.82 -4.03 
532.11 -93.73 -3.66 
532.01 -93.86 -2.32 
532.30 -94.21 -0.21 
532.72 -94.18 -4.09 
532.76 -94.02 -3.59 
532.62 -93.98 -2.98 
532.90 -94.08 -2.23 
532.55 -93.96 -0.49 
533.03 -94.28 -4.01 
533.04 -94.41 -3.62 
533.30 -94.31 -2.85 
533.59 -94.28 -2.47 
533.67 -93.99 -1.80 
533.87 -94.16 -3.83 
533.77 -94.22 -2.25 
534.12 -94.13 -1.28 
534.04 -93.96 -0.71 
534.98 -94.40 -3.96 
535.05 -94.08 -3.42 
535.05 -94.09 -3.00 
534.99 -94.19 -1.94 
535.04 -94.12 -1.29 
534.67 -94.23 -0.93 
535.79 -94.06 -2.64 
535.29 -94.09 -1.94 
535.67 -94.08 -0.76 
536.52 -93.97 -3.50 
535.90 -94.27 -3.11 
536.11 -94.13 -1.97 
536.41 -93.89 -0.94 
536.78 -93.94 -2.92 
536.71 -94.17 -2.08 
537.26 -94.32 -2.55 
537.63 -94.32 -1.86 
537.53 -94.03 -1.53 
538.47 -94.40 -3.26 
538.31 -93.71 -3.03 
538.30 -94.41 -2.07 
538.57 -94.21 -1.78 
538.76 -94.24 -4.09 
539.02 -94.11 -2.86 
539.12 -94.09 -1.82 
539.64 -94.02 -3.63 
540.41 -94.03 -4.87 
540.48 -93.79 -3.58 
540.25 -93.82 -3.19 
540.40 -93.73 -1.51 
541.41 -94.39 -3.13 
540.84 -93.77 -1.49 
541.76 -93.93 -3.97 
541.61 -93.84 -3.45 
541.74 -94.04 -3.19 
542.08 -93.74 -1.95 
541.73 -94.02 -1.55 
542.42 -94.37 -3.97 
542.36 -94.22 -3.93 
542.51 -93.77 -2.95 
542.48 -93.77 -1.96 
542.38 -94.30 -1.87 
517.93 -93.19 -3.98 
517.93 -93.20 -3.33 
517.84 -93.26 -2.57 
517.93 -93.21 -2.02 
517.85 -93.25 -1.60 
517.86 -93.23 -0.63 
518.01 -93.20 -0.39 
518.36 -93.56 -4.04 
518.36 -93.57 -3.32 
518.52 -93.33 -2.62 
518.36 -93.57 -1.87 
518.53 -93.32 -1.73 
518.54 -93.32 -0.84 
518.61 -93.48 -0.32 
519.07 -93.61 -4.05 
519.61 -93.68 -3.32 
519.07 -93.62 -2.66 
519.07 -93.62 -1.96 
519.64 -93.66 -1.23 
519.07 -93.63 -0.55 
519.39 -93.32 -0.16 
520.19 -93.12 -0.91 
520.05 -93.30 -0.07 
520.93 -93.66 -4.11 
521.04 -93.36 -3.54 
521.00 -93.44 -2.90 
521.01 -93.44 -2.08 
520.64 -93.18 -1.46 
520.65 -93.17 -0.46 
520.77 -93.44 -0.08 
521.36 -93.34 0.11 
522.17 -93.32 -1.18 
522.05 -93.51 0.18 
522.39 -93.07 0.34 
522.96 -93.34 -0.89 
523.08 -93.14 0.41 
523.64 -93.38 0.38 
524.11 -93.53 0.41 
524.86 -93.69 0.26 
527.36 -93.20 -2.32 
528.01 -93.57 -2.26 
528.60 -93.20 -4.03 
528.30 -93.13 -2.55 
528.29 -93.65 -2.27 
529.47 -93.70 -2.72 
529.25 -93.09 -2.25 
529.79 -93.04 -4.03 
529.65 -93.35 -2.23 
530.37 -93.19 -4.02 
530.95 -93.55 -4.01 
531.30 -93.24 -3.83 
531.51 -93.24 -3.05 
531.18 -93.32 -0.32 
531.77 -93.63 -4.09 
532.11 -93.63 -3.30 
532.10 -93.54 -2.94 
531.65 -93.12 -2.36 
532.23 -93.28 -0.49 
532.39 -93.47 -2.21 
533.25 -93.01 -3.49 
533.29 -93.19 -2.99 
533.30 -93.20 -2.18 
533.31 -93.20 -1.36 
533.20 -93.24 -0.64 
534.06 -93.21 -4.03 
534.07 -93.21 -3.44 
534.07 -93.21 -3.04 
534.40 -93.65 -2.06 
534.03 -93.30 -1.42 
533.73 -93.41 -0.83 
534.69 -93.45 -4.00 
534.70 -93.45 -3.41 
534.76 -93.41 -2.98 
534.71 -93.46 -2.23 
534.72 -93.46 -1.44 
534.63 -93.65 -0.82 
535.71 -93.22 -2.98 
535.51 -93.68 -2.38 
535.47 -93.27 -1.39 
535.71 -93.05 -0.86 
535.53 -93.01 0.09 
536.04 -93.64 -3.62 
536.11 -93.07 -2.88 
535.91 -93.51 -2.48 
535.95 -93.55 -1.70 
536.49 -93.28 -0.51 
536.29 -93.25 0.11 
537.01 -93.03 -2.85 
537.16 -93.13 -2.54 
536.94 -93.17 -1.49 
536.95 -93.15 0.06 
538.39 -93.24 -2.11 
538.27 -93.14 -1.22 
538.93 -93.06 -4.03 
539.30 -93.47 -3.12 
538.76 -93.09 -1.08 
539.91 -93.18 -3.70 
539.50 -93.08 -3.11 
539.55 -93.32 -1.85 
540.37 -93.06 -3.88 
540.28 -93.33 -1.90 
540.14 -93.23 -1.76 
540.75 -93.05 -2.32 
540.97 -93.55 -1.65 
542.05 -93.11 -3.98 
541.70 -93.59 -3.71 
541.73 -93.45 -1.94 
541.74 -93.17 -1.79 
542.16 -93.32 -3.49 
542.38 -93.49 -2.34 
518.18 -92.53 -4.00 
518.18 -92.53 -3.27 
518.25 -92.44 -2.60 
518.18 -92.54 -2.53 
518.18 -92.54 -1.80 
518.10 -92.75 -0.49 
518.03 -92.53 -0.14 
518.71 -92.80 -4.05 
518.71 -92.80 -3.34 
518.71 -92.81 -2.63 
518.71 -92.81 -1.92 
518.71 -92.81 -1.20 
518.71 -92.82 -0.48 
518.63 -92.69 -0.06 
519.43 -92.85 -4.05 
519.43 -92.85 -3.37 
519.43 -92.86 -2.69 
519.43 -92.86 -2.01 
519.62 -92.31 -1.16 
519.40 -92.44 -0.82 
519.34 -92.66 -0.03 
520.05 -92.82 -3.34 
520.06 -92.82 -2.31 
520.08 -92.81 -1.27 
519.79 -92.77 -0.87 
519.98 -92.68 0.10 
521.03 -92.38 -3.49 
521.04 -92.37 -2.50 
521.06 -92.37 -1.51 
521.07 -92.36 -0.51 
520.85 -92.58 0.15 
521.52 -92.53 -3.56 
521.37 -92.71 -2.93 
521.37 -92.70 -2.11 
521.38 -92.70 -1.30 
521.67 -92.80 -1.11 
521.23 -92.90 0.13 
521.46 -92.77 0.28 
522.12 -92.45 -0.77 
522.12 -92.84 0.35 
522.54 -92.90 -0.83 
522.59 -92.99 0.38 
527.48 -92.38 -4.11 
528.03 -92.49 -2.37 
528.53 -92.61 -4.07 
528.46 -92.87 -2.27 
529.05 -92.65 -4.07 
528.99 -92.94 -2.27 
529.86 -92.88 -4.06 
530.15 -92.40 -2.55 
530.30 -92.83 -4.17 
530.35 -92.65 -3.52 
530.78 -92.79 -2.62 
531.01 -92.39 -3.79 
531.03 -92.89 -2.61 
531.27 -92.39 -0.54 
531.77 -92.38 -3.98 
532.01 -92.38 -3.61 
532.02 -92.38 -2.75 
532.02 -92.38 -1.89 
532.02 -92.38 -1.46 
531.93 -92.29 -0.96 
532.55 -92.58 -3.90 
532.59 -92.67 -3.06 
533.02 -92.93 -2.26 
532.60 -92.67 -1.29 
532.60 -92.67 -0.84 
533.67 -92.99 -4.00 
533.67 -92.99 -3.41 
533.43 -92.97 -2.78 
533.68 -93.00 -2.22 
533.69 -93.00 -1.41 
533.42 -92.91 -0.79 
534.00 -92.36 -3.50 
534.06 -92.64 -2.91 
534.13 -92.95 -2.09 
534.70 -92.54 -2.80 
534.72 -92.84 -1.38 
534.54 -92.52 -0.73 
535.29 -92.73 -3.30 
535.75 -92.84 -2.67 
535.69 -92.91 -1.93 
535.68 -92.56 2.04 
536.06 -92.32 -3.39 
535.84 -92.60 -3.04 
535.89 -92.87 -2.09 
535.86 -92.70 -0.53 
536.52 -92.77 1.90 
536.56 -92.85 -3.56 
536.91 -92.49 -3.00 
536.75 -92.75 -1.61 
536.93 -92.82 -0.44 
537.58 -92.47 -2.57 
537.24 -92.66 -2.15 
537.56 -92.76 -1.19 
537.87 -92.76 -0.37 
538.90 -92.81 -2.74 
538.83 -92.67 -2.11 
539.29 -92.58 -1.83 
538.88 -92.68 -0.62 
539.56 -92.70 -3.10 
539.87 -92.99 -2.04 
539.61 -92.58 -1.83 
540.04 -92.44 -4.00 
540.46 -92.69 -3.70 
540.30 -92.47 -2.74 
540.37 -92.98 -1.76 
541.05 -92.32 -3.70 
541.17 -92.99 -2.81 
540.86 -92.63 -2.22 
541.30 -92.33 -1.56 
541.95 -92.67 -3.57 
541.70 -92.65 -2.23 
541.84 -92.36 -1.59 
541.78 -92.89 -0.77 
542.18 -92.37 -4.93 
542.59 -92.34 -3.04 
517.72 -91.76 -4.01 
517.69 -91.89 -3.81 
517.69 -91.89 -3.01 
517.70 -91.89 -2.21 
517.70 -91.89 -1.42 
517.71 -91.89 -0.61 
517.97 -91.89 0.05 
518.52 -91.80 -4.01 
518.65 -91.65 -3.58 
518.52 -91.80 -2.56 
518.52 -91.81 -1.84 
518.67 -91.63 -1.69 
518.66 -91.66 -0.73 
518.59 -91.92 0.04 
519.15 -91.99 -4.05 
519.29 -91.80 -3.54 
519.15 -91.99 -2.67 
519.15 -92.00 -1.97 
519.15 -92.00 -1.27 
519.03 -92.05 -0.77 
519.58 -92.11 0.16 
519.77 -92.12 -4.06 
519.77 -92.12 -3.39 
519.77 -92.12 -2.72 
519.77 -92.13 -2.05 
519.77 -92.13 -1.38 
519.77 -92.13 -0.70 
519.91 -92.25 0.09 
520.48 -91.99 -3.37 
520.51 -91.97 -1.31 
520.47 -92.26 0.18 
521.72 -91.99 -3.75 
521.73 -91.99 -2.95 
521.73 -91.99 -2.15 
521.74 -91.98 -1.34 
521.75 -91.98 -0.53 
521.92 -91.75 -3.58 
521.93 -91.74 -2.63 
521.95 -91.73 -1.69 
521.96 -91.73 -0.74 
523.77 -91.70 0.64 
527.15 -91.93 -4.13 
527.99 -92.01 -4.13 
528.71 -92.18 -4.18 
530.62 -92.00 -3.97 
530.61 -92.00 -3.36 
530.60 -92.01 -2.74 
530.60 -92.01 -2.13 
530.60 -92.01 -1.51 
530.71 -91.69 -0.89 
531.29 -91.92 -0.87 
532.01 -91.97 -3.97 
531.65 -92.23 -3.69 
531.93 -92.29 -0.96 
532.48 -92.06 -3.46 
532.88 -92.09 -2.82 
532.54 -91.90 -2.09 
532.83 -92.07 -1.62 
532.75 -91.81 -0.56 
533.43 -92.15 -3.43 
533.31 -91.73 -3.21 
533.24 -91.65 -1.91 
533.24 -91.65 -1.91 
534.19 -92.00 -3.50 
534.23 -92.09 -2.60 
534.20 -92.04 -2.41 
534.24 -92.00 -1.34 
534.44 -91.74 -3.29 
534.83 -92.09 -2.77 
534.99 -91.68 -2.26 
534.69 -91.92 -1.44 
535.78 -92.30 -3.40 
535.79 -91.88 -3.10 
535.45 -92.26 -1.43 
535.19 -91.98 -0.73 
535.60 -91.84 0.79 
535.67 -91.95 1.87 
536.32 -92.07 -3.32 
536.33 -92.08 -2.59 
536.02 -92.05 -2.29 
535.91 -91.91 -1.41 
535.97 -91.80 -0.68 
535.97 -92.25 -0.10 
536.01 -91.93 2.01 
537.07 -92.05 -3.41 
536.77 -91.97 -2.76 
537.13 -92.25 0.10 
536.64 -91.82 0.89 
536.61 -91.76 1.05 
536.96 -92.07 2.14 
537.46 -91.82 -3.02 
537.89 -91.92 -0.89 
537.32 -91.66 0.13 
538.51 -91.88 -3.95 
538.11 -91.77 -2.59 
538.15 -92.24 3.03 
538.65 -92.12 -4.06 
539.09 -91.93 -3.71 
539.19 -92.17 -2.92 
538.79 -91.70 -0.95 
538.79 -91.81 3.08 
539.43 -91.73 -3.20 
539.33 -91.84 -0.49 
540.33 -91.73 -3.03 
541.42 -92.13 -3.69 
541.71 -92.11 -4.91 
541.74 -91.74 -4.22 
541.80 -91.96 -3.68 
542.24 -91.99 -3.94 
542.21 -92.14 -3.66 
518.10 -91.01 -3.38 
518.05 -91.15 -3.03 
518.05 -91.15 -2.25 
518.05 -91.15 -1.46 
518.06 -91.15 -0.67 
517.72 -91.34 0.10 
518.73 -91.57 -3.99 
518.73 -91.57 -3.37 
518.73 -91.58 -2.75 
518.85 -91.10 -1.88 
518.73 -91.58 -1.51 
518.69 -91.62 -0.74 
518.72 -91.59 -0.25 
519.47 -91.28 -4.06 
519.66 -91.06 -3.55 
519.47 -91.29 -2.70 
519.69 -91.05 -1.85 
519.47 -91.30 -1.32 
519.70 -91.05 -0.99 
519.08 -91.58 0.17 
520.10 -91.41 -4.06 
520.10 -91.42 -3.41 
520.10 -91.42 -2.75 
520.10 -91.42 -2.09 
520.10 -91.43 -1.43 
520.10 -91.43 -0.77 
519.96 -91.01 0.23 
519.83 -91.18 0.69 
520.90 -91.58 0.69 
521.44 -91.58 -3.51 
521.45 -91.57 -2.53 
521.47 -91.56 -1.54 
521.30 -91.51 -0.64 
521.79 -91.02 0.38 
522.06 -91.29 -3.76 
522.07 -91.29 -2.97 
522.08 -91.29 -2.18 
522.34 -90.97 -1.72 
522.35 -90.96 -0.78 
522.86 -91.13 0.46 
523.48 -90.94 0.11 
524.48 -91.31 0.11 
524.90 -91.55 -0.38 
525.80 -91.28 -0.10 
527.01 -91.25 -0.29 
528.02 -90.94 -0.58 
528.63 -91.05 -3.81 
528.64 -91.04 -3.15 
528.66 -91.03 -1.84 
528.67 -91.03 -1.17 
528.47 -91.05 -0.53 
529.12 -91.12 -3.71 
529.12 -91.12 -3.23 
529.12 -91.13 -2.28 
529.12 -91.13 -1.80 
529.46 -91.22 -0.76 
529.67 -91.26 -4.06 
529.94 -91.15 -3.68 
529.95 -91.15 -2.86 
529.96 -91.14 -2.04 
529.97 -91.13 -1.22 
529.87 -91.26 -0.84 
530.34 -91.46 -0.78 
530.96 -91.35 -3.40 
531.29 -91.19 -0.64 
531.93 -90.93 -3.25 
531.81 -91.45 -0.58 
532.56 -90.93 -3.38 
532.72 -91.05 -3.08 
533.36 -91.18 -2.60 
533.34 -91.01 -1.97 
533.70 -91.02 -1.51 
534.27 -90.92 -3.37 
533.77 -90.98 -2.82 
534.10 -91.56 -2.42 
534.28 -91.28 -1.40 
534.44 -91.58 -3.60 
534.64 -91.42 -2.65 
534.83 -91.26 -1.48 
535.53 -91.52 -4.16 
535.31 -91.44 -3.25 
535.38 -91.09 -2.31 
535.64 -91.49 -1.46 
535.68 -91.23 -0.76 
535.56 -91.33 -0.07 
535.62 -91.51 1.06 
536.27 -91.24 -3.10 
536.04 -91.03 -0.74 
536.02 -91.22 -0.16 
536.82 -91.30 -3.32 
536.80 -91.42 -2.60 
536.53 -91.52 -2.30 
536.82 -91.12 -0.66 
537.04 -91.17 -0.05 
536.78 -91.21 0.92 
536.90 -90.95 1.00 
537.47 -91.47 -3.41 
537.41 -91.38 -2.75 
538.47 -91.20 -2.65 
538.05 -91.55 -1.04 
538.17 -90.98 -0.03 
539.13 -91.36 -3.79 
538.95 -91.19 -2.96 
539.81 -91.44 -3.77 
539.57 -91.08 -3.07 
539.73 -90.92 -2.43 
539.83 -91.30 -0.87 
539.47 -91.35 -0.31 
540.33 -91.73 -3.03 
540.56 -90.94 -2.01 
541.15 -91.38 -4.18 
541.33 -91.52 -1.76 
541.59 -91.57 -4.04 
541.52 -90.96 -2.75 
541.44 -91.32 -2.35 
541.89 -90.92 -1.53 
542.28 -91.10 1.55 
517.80 -90.89 -0.62 
518.21 -90.59 0.05 
518.46 -90.28 -4.03 
518.33 -90.45 -3.83 
518.33 -90.45 -3.05 
518.46 -90.29 -2.15 
518.46 -90.30 -1.52 
518.35 -90.45 -0.72 
518.46 -90.30 -0.26 
518.69 -90.38 0.66 
519.10 -90.82 -4.00 
519.10 -90.82 -3.40 
519.13 -90.82 -2.67 
519.09 -90.83 -2.18 
519.10 -90.83 -1.57 
519.16 -90.80 -0.80 
519.09 -90.83 -0.35 
519.43 -90.83 0.71 
519.79 -90.60 -4.06 
520.03 -90.34 -3.57 
520.04 -90.34 -2.73 
520.05 -90.33 -1.89 
519.79 -90.61 -1.37 
519.79 -90.62 -0.70 
520.07 -90.32 -0.19 
520.50 -90.67 -4.07 
520.84 -90.23 -3.40 
520.50 -90.67 -2.79 
520.50 -90.68 -2.14 
520.50 -90.68 -1.50 
520.50 -90.68 -0.85 
520.80 -90.90 0.57 
521.33 -90.36 -3.41 
521.34 -90.35 -2.40 
521.36 -90.35 -1.39 
521.37 -90.34 -0.38 
521.84 -90.80 -3.53 
522.33 -90.98 -2.66 
522.42 -90.60 -2.21 
522.43 -90.60 -1.42 
522.43 -90.60 -0.63 
522.29 -90.61 0.18 
521.94 -90.82 0.34 
522.70 -90.23 -3.62 
522.71 -90.22 -2.69 
522.73 -90.22 -1.76 
522.74 -90.21 -0.83 
523.92 -90.42 -0.08 
524.11 -90.82 0.02 
525.06 -90.74 0.00 
526.01 -90.81 -0.26 
526.03 -90.87 -0.29 
527.93 -90.37 -4.14 
527.93 -90.37 -3.62 
527.93 -90.38 -2.59 
527.93 -90.38 -2.07 
527.93 -90.38 -1.54 
527.87 -90.25 -0.87 
528.48 -90.65 -4.17 
528.48 -90.65 -3.68 
528.48 -90.66 -3.18 
528.48 -90.66 -2.19 
528.48 -90.66 -1.68 
528.50 -90.66 -0.68 
529.18 -90.53 -3.76 
529.21 -90.52 -1.76 
529.00 -90.77 -0.84 
529.82 -90.45 -0.76 
530.56 -90.82 -0.70 
531.46 -90.77 -3.44 
531.88 -90.33 -4.21 
531.86 -90.35 -3.55 
531.63 -90.50 -2.83 
532.55 -90.64 -2.75 
532.73 -90.57 -2.21 
533.02 -90.47 -1.81 
533.10 -90.34 -3.29 
533.57 -90.75 -2.65 
533.72 -90.60 -3.32 
533.98 -90.75 -2.84 
533.83 -90.51 -1.56 
534.46 -90.61 -3.39 
535.02 -90.30 -3.07 
534.49 -90.80 -2.50 
534.89 -90.56 0.45 
535.76 -90.83 -3.26 
535.32 -90.43 -2.72 
535.49 -90.44 -0.16 
535.54 -90.50 0.96 
536.00 -90.58 -3.25 
536.47 -90.71 -2.80 
536.50 -90.37 -1.78 
536.46 -90.90 -0.71 
535.92 -90.86 0.20 
536.82 -90.37 -3.98 
536.65 -90.52 -3.56 
536.70 -90.44 -2.80 
536.78 -90.61 -1.77 
536.86 -90.83 -0.56 
536.60 -90.68 0.85 
537.92 -90.40 -3.80 
537.59 -90.64 -2.59 
537.38 -90.69 -1.99 
537.54 -90.23 -1.20 
538.28 -90.90 -3.96 
538.13 -90.85 -3.37 
538.00 -90.74 -2.74 
538.36 -90.32 -1.29 
537.96 -90.71 -0.59 
538.32 -90.48 0.13 
538.79 -90.66 -3.71 
539.23 -90.81 -3.23 
538.89 -90.83 -1.26 
538.88 -90.84 -0.50 
539.74 -90.70 -2.90 
539.86 -90.60 -1.76 
540.20 -90.86 -2.71 
540.45 -90.67 -2.06 
540.53 -90.77 -0.86 
540.22 -90.53 -0.40 
541.37 -90.73 -4.75 
540.92 -90.44 -3.83 
541.15 -90.80 -2.80 
541.35 -90.75 -2.02 
540.90 -90.47 -1.35 
541.48 -90.34 -4.16 
541.96 -90.32 -2.30 
541.82 -90.37 -1.77 
541.65 -90.23 -1.03 
541.79 -90.49 1.70 
542.49 -90.67 -3.39 
542.43 -90.70 -3.10 
542.36 -90.36 1.61 
518.16 -90.14 -4.02 
518.16 -90.14 -3.47 
517.86 -90.19 -2.69 
518.16 -90.15 -2.36 
517.86 -90.19 -1.40 
517.86 -90.19 -0.75 
517.86 -90.20 -0.10 
518.67 -89.75 -3.84 
518.67 -89.75 -3.07 
518.67 -89.75 -2.31 
518.68 -89.75 -1.54 
518.68 -89.75 -0.77 
518.80 -89.61 -0.34 
519.48 -89.73 -4.02 
519.38 -90.14 -3.41 
519.52 -90.06 -2.70 
519.38 -90.14 -2.23 
519.38 -90.14 -1.63 
519.54 -90.03 -0.85 
519.38 -90.15 -0.43 
520.10 -89.94 -4.07 
520.10 -89.95 -3.41 
520.40 -89.63 -2.75 
520.41 -89.63 -1.92 
520.10 -89.95 -1.42 
520.05 -90.02 -0.44 
520.80 -90.02 -4.07 
520.80 -90.02 -3.44 
520.81 -90.02 -2.81 
520.81 -90.03 -2.18 
520.80 -90.03 -1.55 
520.80 -90.03 -0.91 
521.75 -89.57 -3.43 
521.76 -89.56 -2.43 
521.77 -89.55 -1.43 
521.78 -89.54 -0.43 
522.24 -90.02 -3.55 
522.26 -90.02 -2.58 
522.27 -90.01 -1.62 
522.29 -90.00 -0.65 
522.73 -89.94 -3.79 
522.74 -89.94 -3.01 
522.75 -89.94 -2.24 
522.76 -89.93 -1.46 
522.76 -89.93 -0.68 
524.46 -90.19 -0.09 
526.52 -89.57 -0.86 
526.77 -89.59 -3.53 
526.77 -89.59 -2.74 
527.19 -89.62 -2.13 
527.19 -89.63 -1.72 
527.04 -89.84 -0.92 
527.92 -89.53 -0.64 
528.31 -89.75 -0.60 
529.27 -89.81 -0.62 
529.80 -90.07 -0.57 
530.87 -90.07 -3.08 
531.45 -89.53 -3.78 
531.42 -89.60 -2.42 
531.80 -89.74 -3.33 
531.99 -89.86 -2.92 
532.62 -89.73 -3.40 
532.60 -89.94 -3.11 
533.51 -89.73 -3.34 
534.29 -89.71 -3.51 
534.15 -89.82 -2.76 
535.04 -89.89 -3.41 
534.80 -89.92 -2.90 
535.35 -89.65 -3.42 
535.60 -90.07 -2.75 
536.40 -89.93 -3.67 
535.98 -89.69 -2.76 
535.89 -89.80 -2.06 
535.83 -90.05 0.50 
537.00 -89.85 -3.84 
536.94 -90.20 -2.79 
537.03 -89.90 -1.33 
537.79 -89.57 -4.16 
537.36 -89.94 -3.82 
537.33 -90.01 -2.76 
537.37 -89.74 -2.21 
537.78 -89.85 -1.74 
538.34 -89.96 -4.15 
538.05 -90.04 -3.90 
538.28 -89.75 -2.76 
538.38 -90.12 -1.97 
538.58 -89.76 -1.30 
539.09 -89.54 -4.30 
538.91 -89.82 -3.41 
538.85 -89.76 -2.69 
538.73 -89.86 -2.33 
539.19 -90.17 -1.27 
539.57 -90.06 -4.11 
539.84 -89.71 -3.36 
539.90 -89.81 -2.98 
539.62 -89.70 -2.19 
539.60 -89.95 -1.57 
539.64 -90.01 -1.01 
540.10 -90.20 -4.12 
540.16 -89.64 -3.35 
540.18 -89.69 -2.97 
540.26 -89.82 -2.20 
540.38 -90.03 -1.63 
541.23 -89.83 -4.77 
541.13 -89.59 -3.66 
541.08 -89.55 -2.83 
541.03 -90.11 -2.01 
541.98 -89.99 -3.82 
541.68 -89.53 -1.95 
541.76 -89.73 -1.76 
542.15 -90.14 -2.63 
542.35 -89.99 1.27 
542.33 -89.57 1.70 
