# .PCD v0.7 - Point Cloud Data file format
VERSION 0.7
FIELDS x y z
SIZE 4 4 4
TYPE F F F
COUNT 1 1 1
WIDTH 1628
HEIGHT 1
VIEWPOINT 0 0 0 1 0 0 0
POINTS 1628
DATA ascii
518.18 -89.51 -3.98 
517.84 -89.06 -3.48 
517.84 -89.07 -2.92 
517.84 -89.07 -2.36 
517.84 -89.08 -1.24 
517.84 -89.08 -0.68 
517.84 -89.09 -0.11 
518.54 -89.35 -4.03 
518.54 -89.36 -3.49 
519.00 -89.07 -3.09 
518.53 -89.37 -2.41 
519.00 -89.07 -1.58 
519.01 -89.07 -0.82 
518.53 -89.39 -0.23 
519.13 -88.93 -3.44 
519.13 -88.93 -2.84 
519.13 -88.94 -2.24 
519.13 -88.94 -1.63 
519.01 -89.07 -0.82 
519.57 -89.50 -0.36 
519.72 -89.44 -4.01 
519.72 -89.45 -3.43 
519.90 -89.31 -2.73 
519.79 -89.09 -1.99 
519.80 -89.09 -1.31 
519.80 -89.09 -0.63 
521.10 -89.39 -4.08 
521.10 -89.39 -3.46 
521.10 -89.39 -2.84 
520.58 -89.38 -1.90 
521.10 -89.40 -1.59 
521.10 -89.40 -0.97 
521.28 -89.38 -3.42 
521.32 -89.36 -1.25 
523.05 -89.29 -3.80 
523.06 -89.29 -3.03 
523.07 -89.28 -2.27 
523.08 -89.28 -1.50 
523.09 -89.28 -0.73 
523.21 -89.09 -2.21 
523.22 -89.09 -1.43 
524.59 -89.15 -0.51 
525.08 -88.84 -0.82 
525.48 -88.92 -4.04 
525.48 -88.91 -3.26 
525.48 -88.91 -2.88 
525.48 -88.91 -2.09 
525.48 -88.91 -1.70 
525.68 -89.17 -0.86 
526.47 -89.25 -3.32 
526.10 -89.24 -2.77 
526.11 -89.24 -2.38 
526.11 -89.24 -1.59 
526.14 -89.38 -0.94 
526.83 -89.13 -2.46 
526.83 -89.13 -1.53 
527.16 -89.16 -0.71 
527.62 -89.39 -0.53 
532.09 -89.37 -3.24 
532.54 -88.82 -3.30 
532.69 -89.13 -3.03 
533.27 -88.94 -3.46 
534.06 -88.97 -3.65 
534.40 -89.21 -3.10 
534.87 -89.20 -3.53 
534.70 -89.11 -2.84 
534.94 -88.84 -1.57 
535.67 -88.82 -4.03 
535.27 -88.98 -3.53 
535.35 -89.29 -2.94 
535.47 -88.90 -1.58 
536.12 -89.10 -4.02 
536.47 -89.48 -3.87 
537.12 -89.28 -2.83 
537.09 -88.98 -2.44 
536.82 -88.90 -1.65 
537.31 -88.94 -4.06 
537.26 -88.89 -3.66 
537.82 -89.13 -3.09 
537.40 -89.21 -1.80 
537.35 -89.16 -1.37 
538.51 -89.34 -4.33 
538.45 -89.31 -3.29 
538.37 -89.09 -3.14 
538.16 -89.07 -2.36 
537.97 -89.44 -1.75 
539.07 -88.95 -4.01 
539.65 -89.23 -4.05 
540.01 -88.82 -2.64 
540.38 -89.29 -3.86 
540.38 -89.29 -3.86 
540.58 -88.98 -1.98 
541.09 -89.49 -3.73 
541.08 -88.83 -2.70 
541.19 -89.01 -2.05 
540.98 -88.91 -1.20 
541.62 -89.49 -4.06 
541.43 -89.41 -3.82 
541.49 -88.89 -2.91 
541.71 -89.17 -2.50 
541.65 -88.96 -1.38 
542.24 -89.33 -2.84 
542.27 -88.97 -2.02 
542.27 -89.19 -1.79 
518.19 -88.35 -4.04 
517.76 -88.36 -3.42 
518.19 -88.36 -2.95 
517.77 -88.33 -2.00 
517.78 -88.33 -1.53 
518.19 -88.37 -0.77 
518.86 -88.14 -4.00 
518.57 -88.77 -3.38 
518.89 -88.62 -2.99 
518.58 -88.77 -2.14 
518.89 -88.64 -1.41 
518.58 -88.78 -0.90 
518.55 -88.43 -0.18 
519.45 -88.29 -3.45 
519.32 -88.41 -3.11 
519.32 -88.41 -2.36 
519.32 -88.41 -1.61 
519.33 -88.40 -0.86 
520.35 -88.15 -4.02 
520.09 -88.46 -3.37 
520.27 -88.58 -2.76 
520.09 -88.46 -2.03 
520.09 -88.46 -1.35 
520.30 -88.55 -0.94 
520.20 -88.30 -0.16 
520.69 -88.69 -4.08 
520.90 -88.71 -3.60 
520.69 -88.69 -2.80 
520.92 -88.69 -1.93 
520.70 -88.69 -1.51 
520.70 -88.69 -0.87 
520.70 -88.53 -0.08 
521.38 -88.78 -4.08 
521.68 -88.55 -3.44 
521.66 -88.19 -2.89 
521.38 -88.79 -2.25 
521.71 -88.52 -1.29 
521.71 -88.52 -1.29 
523.02 -88.52 -3.58 
523.04 -88.51 -2.64 
523.05 -88.50 -1.69 
523.07 -88.49 -0.74 
523.45 -88.77 -3.65 
523.46 -88.76 -2.74 
523.52 -88.45 -2.24 
523.53 -88.44 -1.46 
523.49 -88.74 -0.91 
524.23 -88.35 -0.81 
524.85 -88.58 -3.32 
524.85 -88.58 -2.93 
524.86 -88.58 -2.13 
524.86 -88.58 -1.32 
524.90 -88.21 -0.74 
525.97 -88.39 -2.19 
526.00 -88.26 -0.47 
526.12 -88.51 -1.87 
526.13 -88.50 -1.38 
526.39 -88.74 -0.66 
526.11 -88.41 -0.39 
527.41 -88.22 -2.82 
526.73 -88.78 -2.30 
526.73 -88.77 -0.75 
527.42 -88.22 -4.07 
527.42 -88.22 -3.65 
532.18 -88.36 -3.71 
532.61 -88.44 -4.03 
532.83 -88.31 -3.75 
533.19 -88.42 -3.74 
533.35 -88.32 -3.14 
534.35 -88.33 -4.07 
534.19 -88.59 -3.79 
534.04 -88.74 -2.99 
534.40 -88.26 -1.77 
534.54 -88.09 -4.17 
534.55 -88.76 -3.83 
535.06 -88.19 -1.71 
535.33 -88.80 -4.11 
535.56 -88.68 -3.20 
535.52 -88.35 -2.76 
535.45 -88.27 -2.04 
535.65 -88.52 -1.62 
536.08 -88.31 -4.17 
536.25 -88.44 -3.74 
536.20 -88.36 -2.88 
535.93 -88.27 -2.00 
537.15 -88.16 -4.00 
536.79 -88.17 -2.70 
537.10 -88.43 -2.28 
537.49 -88.65 -4.06 
537.60 -88.30 -3.56 
537.50 -88.37 -2.80 
537.32 -88.55 -2.49 
538.12 -88.37 -4.39 
538.31 -88.54 -3.82 
538.10 -88.35 -2.82 
539.02 -88.67 -4.32 
538.80 -88.71 -3.45 
538.68 -88.57 -2.79 
538.84 -88.72 -2.34 
539.81 -88.67 -4.10 
539.91 -88.72 -3.35 
539.99 -88.50 -2.69 
539.96 -88.48 -2.23 
540.65 -88.50 -4.59 
540.29 -88.32 -2.21 
541.28 -88.71 -3.62 
540.84 -88.19 -2.73 
541.11 -88.42 -2.44 
540.73 -88.53 -1.70 
541.37 -88.62 -0.91 
542.10 -88.52 -4.30 
541.44 -88.19 -3.55 
541.78 -88.58 -2.57 
541.60 -88.80 -2.02 
541.82 -88.58 -1.39 
542.34 -88.25 -3.99 
542.33 -88.26 -3.69 
542.32 -88.28 -2.78 
542.40 -88.19 -2.48 
517.75 -87.42 -4.05 
517.75 -87.42 -3.50 
517.74 -87.42 -2.95 
517.74 -87.43 -2.40 
517.74 -87.43 -1.28 
517.74 -87.44 -0.72 
518.11 -87.86 -0.10 
518.52 -87.67 -4.04 
518.52 -87.68 -3.51 
518.52 -87.68 -2.98 
518.52 -87.69 -1.92 
518.52 -87.69 -1.39 
518.51 -87.70 -0.85 
519.15 -87.54 -4.00 
519.23 -87.92 -3.53 
519.23 -87.92 -3.02 
519.15 -87.55 -2.22 
519.22 -87.93 -1.49 
519.23 -87.94 -0.97 
519.03 -87.84 -0.08 
520.32 -87.86 -3.38 
519.75 -87.68 -2.89 
519.75 -87.68 -2.31 
519.63 -87.76 -1.65 
519.75 -87.69 -0.56 
520.98 -88.08 -4.08 
520.63 -87.87 -3.69 
520.64 -87.85 -2.79 
520.66 -87.84 -1.89 
520.64 -87.56 -1.30 
520.67 -87.83 -0.99 
520.46 -87.91 -0.07 
521.25 -87.50 -4.08 
521.25 -87.50 -3.46 
521.25 -87.50 -2.84 
521.25 -87.50 -2.22 
521.26 -87.51 -1.59 
521.18 -87.84 -0.41 
521.15 -88.00 -0.28 
521.93 -87.62 -3.50 
521.93 -87.62 -2.91 
521.93 -87.62 -2.31 
522.15 -87.70 -1.33 
522.27 -87.93 -0.49 
523.04 -87.86 -3.77 
523.02 -87.86 -2.99 
523.00 -87.85 -2.21 
522.99 -87.85 -1.42 
523.09 -87.75 -0.49 
523.05 -87.78 -0.34 
523.82 -88.06 -3.67 
523.42 -87.78 -2.66 
523.85 -88.04 -1.86 
523.43 -87.77 -1.72 
523.90 -87.79 -0.82 
523.75 -87.59 -0.25 
524.40 -87.53 -0.59 
525.17 -87.87 -0.56 
525.68 -87.51 -4.01 
525.68 -87.51 -3.56 
525.67 -87.52 -2.82 
525.58 -88.07 -0.52 
526.26 -87.72 -3.93 
526.26 -87.72 -3.61 
526.25 -87.73 -3.14 
526.24 -87.74 -2.35 
526.85 -87.97 -3.74 
526.84 -87.97 -3.00 
526.83 -87.98 -2.26 
532.94 -87.88 -3.97 
533.12 -87.65 -4.20 
533.94 -87.94 -4.24 
534.74 -88.11 -4.33 
534.68 -87.83 -1.98 
535.75 -87.45 -4.63 
535.77 -87.53 -4.40 
535.65 -88.06 -3.31 
535.60 -87.68 -2.28 
536.10 -87.55 -4.04 
536.04 -87.43 -3.52 
536.32 -87.78 -2.43 
537.04 -87.47 -4.29 
536.72 -87.96 -3.53 
537.16 -87.76 -2.91 
537.04 -87.63 -2.15 
536.90 -87.46 -1.79 
537.45 -88.07 -4.26 
537.33 -87.93 -3.67 
537.83 -88.07 -3.13 
537.67 -87.92 -2.30 
537.77 -87.55 -1.48 
538.12 -87.89 -4.04 
538.14 -87.93 -3.64 
538.00 -87.93 -3.06 
538.36 -87.73 -2.42 
538.07 -87.79 -1.35 
538.77 -88.07 -3.94 
538.76 -88.07 -3.51 
538.65 -87.50 -2.63 
539.04 -87.91 -2.18 
539.09 -87.97 -1.73 
539.45 -87.66 -2.39 
539.37 -87.76 -1.72 
540.32 -87.64 -2.66 
541.30 -87.85 -2.25 
541.90 -87.69 -4.35 
541.88 -87.70 -3.28 
541.88 -87.72 -2.87 
541.88 -87.75 -1.96 
542.58 -87.99 -3.98 
542.58 -87.99 -3.53 
542.57 -88.01 -2.78 
542.56 -88.01 -2.47 
518.05 -86.79 -4.06 
518.05 -86.79 -3.52 
517.64 -87.07 -3.11 
518.05 -86.80 -2.44 
517.65 -87.04 -1.27 
518.05 -86.81 -0.80 
518.83 -87.03 -4.04 
518.32 -87.22 -3.47 
518.32 -87.22 -3.02 
518.83 -87.04 -1.98 
518.34 -87.19 -1.23 
518.34 -87.18 -0.78 
519.42 -86.96 -4.01 
519.10 -87.20 -3.46 
519.43 -86.96 -2.84 
519.43 -86.96 -2.25 
519.43 -86.96 -1.66 
519.55 -87.27 -1.06 
520.09 -87.07 -4.05 
520.09 -87.07 -3.48 
519.93 -87.13 -3.15 
519.93 -87.13 -2.42 
519.94 -87.13 -1.68 
519.94 -87.12 -0.95 
520.93 -86.97 -4.03 
520.93 -86.97 -3.50 
521.01 -87.15 -2.82 
521.02 -87.13 -1.92 
520.61 -87.26 -1.43 
521.03 -87.12 -1.03 
521.46 -86.95 -4.09 
521.45 -86.95 -3.47 
521.45 -86.95 -2.86 
521.45 -86.95 -2.24 
521.45 -86.95 -1.62 
521.44 -86.96 -1.00 
521.12 -87.36 -0.27 
521.86 -87.15 -4.09 
521.87 -87.27 -3.74 
521.85 -87.26 -2.94 
521.83 -87.26 -2.13 
521.81 -87.25 -1.32 
522.20 -86.93 -0.86 
522.56 -86.96 -3.59 
522.80 -87.26 -2.72 
522.56 -86.91 -2.43 
522.94 -87.25 -1.53 
522.52 -87.21 -0.50 
523.18 -86.91 -0.39 
523.56 -87.10 -0.68 
524.24 -86.73 -3.03 
524.00 -87.34 -0.64 
524.80 -86.88 -3.59 
524.80 -86.88 -3.19 
525.00 -86.91 -0.46 
535.76 -87.20 -4.34 
535.51 -87.10 -3.52 
535.54 -86.93 -2.93 
536.21 -87.26 -4.34 
536.23 -87.35 -3.51 
536.03 -87.31 -3.13 
535.82 -87.28 -2.39 
536.38 -86.90 -1.66 
536.56 -87.08 -4.33 
536.83 -86.89 -3.61 
536.84 -86.83 -2.86 
537.03 -87.37 -2.00 
537.38 -87.13 -2.78 
538.17 -87.25 -2.56 
538.95 -86.82 -3.10 
539.39 -86.90 -3.48 
539.84 -87.23 -2.74 
539.50 -87.05 -2.36 
540.32 -87.18 -3.08 
540.40 -87.27 -2.10 
541.37 -87.16 -3.83 
541.12 -87.11 -3.09 
540.79 -87.00 -1.86 
541.16 -86.75 -1.07 
541.71 -86.92 -3.83 
541.46 -86.95 -2.64 
542.18 -87.38 -3.94 
542.17 -87.38 -3.54 
542.17 -87.41 -2.73 
517.98 -86.28 -4.04 
517.99 -86.28 -3.60 
517.99 -86.27 -3.16 
518.00 -86.25 -1.83 
518.00 -86.25 -1.38 
518.00 -86.24 -0.93 
518.11 -86.36 -0.32 
518.82 -86.22 -3.93 
518.35 -86.19 -3.53 
518.82 -86.20 -3.09 
518.83 -86.19 -2.25 
518.84 -86.18 -1.40 
518.84 -86.17 -0.97 
519.69 -86.39 -4.01 
519.69 -86.40 -3.44 
519.07 -86.46 -3.04 
519.07 -86.46 -2.02 
519.70 -86.40 -1.71 
519.07 -86.47 -1.00 
520.09 -86.29 -4.04 
520.08 -86.30 -3.38 
520.08 -86.30 -2.72 
520.08 -86.30 -2.06 
520.07 -86.30 -1.39 
519.94 -86.24 -0.84 
520.72 -86.60 -4.08 
520.72 -86.60 -3.45 
520.90 -86.43 -2.82 
520.87 -86.41 -1.92 
520.71 -86.60 -1.56 
520.73 -86.13 -0.82 
521.20 -86.41 -4.04 
521.39 -86.41 -3.61 
521.35 -86.40 -2.65 
521.20 -86.42 -1.94 
521.31 -86.39 -1.68 
521.27 -86.37 -0.71 
521.89 -86.38 -3.46 
521.86 -86.37 -2.46 
521.82 -86.35 -1.45 
522.31 -86.49 -0.49 
522.74 -86.70 -0.44 
523.62 -86.17 -3.81 
524.25 -86.71 -3.31 
525.04 -86.11 -4.50 
525.35 -86.69 -2.61 
535.78 -86.11 -1.81 
535.66 -86.35 -1.72 
536.28 -86.47 -2.02 
536.68 -86.52 -4.61 
536.70 -86.52 -4.13 
536.69 -86.52 -3.65 
536.67 -86.51 -3.16 
536.75 -86.61 -2.18 
536.76 -86.60 -1.55 
538.18 -86.04 -3.96 
538.22 -86.08 -3.56 
538.73 -86.23 -3.80 
538.93 -86.56 -3.14 
539.33 -86.45 -3.80 
539.98 -86.44 -3.14 
539.99 -86.30 -1.14 
539.98 -86.47 -0.52 
540.38 -86.53 -2.72 
540.45 -86.16 -2.22 
540.33 -86.71 -1.32 
540.31 -86.26 -0.93 
540.73 -86.15 -3.01 
540.86 -86.62 -2.05 
540.78 -86.23 -1.22 
541.91 -86.22 -2.63 
541.75 -86.64 -1.21 
541.44 -86.43 -1.06 
542.37 -86.10 -2.71 
542.24 -86.30 -1.19 
518.25 -85.36 -4.04 
518.25 -85.36 -3.38 
518.25 -85.37 -2.72 
518.11 -85.35 -2.18 
518.24 -85.37 -1.40 
518.11 -85.36 -0.96 
518.10 -85.86 -0.31 
518.63 -85.61 -4.06 
518.63 -85.62 -3.55 
518.39 -85.46 -2.78 
518.63 -85.63 -1.99 
518.63 -85.63 -1.46 
518.63 -85.63 -0.94 
518.49 -85.75 -0.31 
519.38 -85.55 -4.11 
519.38 -85.64 -3.68 
519.35 -85.62 -2.75 
519.54 -85.50 -2.14 
519.38 -85.55 -1.52 
519.27 -85.59 -0.88 
519.91 -85.72 -4.05 
520.04 -85.67 -3.49 
520.04 -85.67 -2.94 
519.93 -85.72 -2.16 
520.04 -85.68 -1.25 
520.04 -85.68 -0.69 
520.61 -85.96 -4.06 
520.77 -86.02 -3.54 
520.73 -86.00 -2.54 
520.61 -85.97 -1.87 
520.61 -85.97 -1.31 
520.77 -85.77 -0.61 
520.44 -85.77 -0.36 
521.25 -85.88 -3.46 
522.33 -85.63 -4.05 
522.32 -85.64 -3.43 
522.31 -85.64 -2.81 
522.30 -85.65 -2.20 
523.07 -85.93 -4.13 
523.09 -85.93 -3.25 
523.09 -85.93 -2.96 
522.99 -85.36 -2.22 
534.15 -85.51 -2.55 
534.00 -85.51 -2.25 
534.01 -85.50 -1.64 
534.77 -85.47 -4.03 
534.84 -85.62 -2.07 
534.74 -85.44 -1.35 
535.61 -85.42 -2.14 
535.70 -85.60 -1.54 
536.13 -85.63 -3.93 
536.42 -85.59 -1.83 
536.90 -85.55 -3.42 
536.74 -85.92 -2.09 
536.57 -85.97 -1.38 
537.67 -85.60 -4.04 
537.67 -85.61 -3.69 
537.55 -85.98 -3.00 
537.26 -85.85 -2.23 
538.30 -85.73 -3.56 
538.42 -85.44 -2.97 
538.26 -85.40 -1.03 
538.22 -86.01 -0.27 
538.99 -85.96 -3.31 
538.79 -85.76 -3.14 
539.05 -85.70 -1.27 
538.86 -85.85 -0.84 
539.50 -85.91 -3.80 
539.90 -85.92 -2.21 
539.51 -85.33 -1.43 
539.96 -85.38 -0.76 
540.45 -85.47 -3.03 
540.15 -85.51 -1.57 
540.04 -85.70 -0.55 
540.89 -85.66 -2.71 
541.30 -85.79 -1.64 
541.28 -86.02 -0.86 
541.71 -85.37 -3.64 
541.94 -85.32 -2.97 
541.76 -85.99 -1.99 
541.70 -85.60 -1.14 
541.83 -85.51 0.10 
541.44 -85.85 0.44 
542.59 -85.93 -2.95 
542.33 -85.76 -1.93 
542.23 -85.43 -1.56 
542.19 -85.92 -1.00 
517.99 -84.71 -4.04 
518.03 -84.87 -3.51 
518.06 -84.86 -2.80 
518.00 -84.67 -2.26 
518.00 -84.72 -1.47 
517.90 -84.77 -1.02 
518.65 -85.06 -4.03 
518.61 -84.97 -3.44 
518.61 -84.97 -2.87 
518.66 -85.07 -2.07 
518.74 -84.95 -1.39 
518.79 -85.12 -0.98 
519.09 -85.28 -4.04 
519.10 -85.28 -3.56 
519.21 -85.27 -2.90 
519.10 -85.29 -2.11 
519.17 -85.03 -1.44 
519.22 -85.27 -0.65 
519.87 -85.31 -1.31 
521.04 -84.91 -4.06 
520.97 -84.80 -3.24 
520.97 -84.80 -2.81 
521.02 -84.91 -2.32 
521.01 -84.90 -1.54 
521.46 -85.22 -3.49 
521.46 -85.21 -2.82 
521.45 -85.20 -2.15 
521.45 -85.20 -1.48 
521.83 -85.31 -4.16 
521.82 -85.30 -3.63 
524.34 -84.86 -4.39 
532.47 -84.72 -2.07 
533.30 -84.78 -2.24 
533.12 -84.77 -1.50 
534.36 -85.09 -4.10 
534.33 -85.08 -3.50 
533.88 -84.82 -3.16 
533.99 -84.94 -2.37 
533.83 -84.84 -1.71 
534.36 -85.09 -4.10 
534.49 -85.13 -3.60 
534.69 -85.25 -2.68 
535.05 -85.24 -2.13 
535.22 -84.78 -2.18 
536.05 -85.09 -3.44 
536.36 -85.10 -1.88 
536.89 -85.06 -3.43 
536.71 -84.94 -2.15 
537.21 -84.97 -3.66 
537.43 -84.82 -3.11 
538.15 -84.91 -3.32 
537.92 -84.84 -2.82 
538.37 -84.84 -1.58 
538.38 -85.02 -1.04 
539.05 -84.80 -3.22 
539.08 -84.98 -2.88 
539.52 -84.91 -3.30 
539.80 -85.18 -3.20 
540.27 -84.93 -3.38 
540.53 -84.99 -1.96 
541.04 -84.69 -3.43 
541.13 -85.09 -3.10 
541.31 -84.77 -1.88 
540.81 -85.22 -1.50 
542.03 -84.83 -3.18 
541.73 -84.66 -1.84 
541.76 -85.19 -1.61 
542.11 -84.94 -1.34 
542.52 -85.30 -1.05 
517.99 -84.66 -4.00 
517.73 -84.43 -3.62 
517.79 -84.51 -2.76 
517.81 -84.36 -2.19 
517.81 -84.35 -1.35 
517.95 -84.48 -1.08 
518.35 -84.59 -2.71 
518.35 -84.58 -2.31 
519.44 -84.04 -3.95 
519.43 -84.06 -3.28 
519.42 -84.08 -2.88 
519.88 -84.26 -3.92 
519.87 -84.26 -3.52 
519.87 -84.26 -2.72 
520.10 -84.06 -2.03 
520.45 -84.57 -3.95 
520.45 -84.56 -3.52 
520.44 -84.56 -2.81 
520.68 -84.08 -2.22 
521.44 -84.36 -2.32 
531.92 -84.10 -2.29 
532.82 -84.30 -4.06 
532.82 -84.30 -3.62 
532.82 -84.09 -3.03 
532.76 -84.33 -2.14 
533.68 -84.30 -4.76 
533.70 -84.29 -4.50 
533.67 -84.32 -3.29 
533.66 -84.32 -2.88 
533.63 -84.34 -2.33 
533.30 -84.41 -1.53 
533.89 -84.53 -2.45 
533.89 -84.53 -1.73 
535.62 -84.28 -2.25 
535.94 -84.58 -3.46 
536.46 -84.42 -1.93 
536.91 -84.29 -3.41 
536.73 -84.29 -1.91 
537.81 -84.41 -3.46 
537.67 -83.97 -2.10 
538.27 -84.32 -3.61 
539.08 -84.37 -3.54 
539.43 -84.11 -3.25 
539.87 -84.60 -3.09 
540.37 -84.58 -3.26 
540.22 -84.58 -2.85 
540.78 -84.39 -3.24 
541.13 -84.60 -3.13 
541.42 -84.35 -3.73 
518.22 -83.45 -4.20 
518.21 -83.47 -3.61 
518.20 -83.48 -3.02 
518.18 -83.50 -2.42 
518.17 -83.53 -1.22 
518.44 -83.49 -4.00 
518.52 -83.72 -3.55 
518.41 -83.53 -2.72 
518.40 -83.54 -2.39 
519.19 -83.79 -2.55 
519.30 -83.26 -2.13 
520.04 -83.25 -2.88 
520.31 -83.48 -1.91 
521.08 -83.52 -2.87 
520.51 -83.58 -1.95 
521.22 -83.91 -2.31 
522.41 -83.42 -2.45 
522.53 -83.24 -2.51 
531.64 -83.37 -4.71 
531.92 -83.41 -4.10 
531.88 -83.44 -3.25 
531.87 -83.46 -2.76 
532.13 -83.69 -2.36 
531.93 -83.63 -1.78 
532.58 -83.68 -4.10 
532.56 -83.70 -3.75 
532.53 -83.74 -2.82 
536.09 -83.24 -5.28 
536.49 -83.42 -2.22 
536.82 -83.65 -2.29 
537.42 -83.82 -1.85 
538.01 -83.77 -3.89 
538.69 -83.89 -3.66 
539.34 -83.67 -3.63 
517.87 -83.17 -3.98 
517.86 -83.18 -3.64 
517.85 -83.20 -2.96 
517.62 -82.99 -2.07 
517.89 -82.45 -1.31 
518.22 -83.07 0.78 
518.45 -82.98 -4.20 
518.44 -83.00 -3.61 
518.43 -83.01 -3.02 
518.64 -82.96 -2.09 
518.92 -83.01 -1.75 
519.27 -83.00 -3.58 
519.20 -82.97 -2.15 
519.45 -82.63 -1.74 
519.98 -83.09 -2.60 
519.86 -83.13 -2.16 
520.89 -83.07 -2.51 
520.80 -82.63 -2.08 
520.94 -82.55 -1.63 
521.13 -82.70 -2.83 
522.50 -82.81 -2.99 
522.01 -82.67 -2.43 
522.88 -83.12 -2.67 
531.00 -83.03 -4.41 
530.99 -83.07 -3.64 
531.42 -82.86 -3.02 
531.45 -82.89 -2.35 
535.69 -83.21 -5.27 
536.52 -82.90 -5.19 
517.67 -82.48 -4.17 
517.70 -82.50 -3.57 
517.93 -82.39 -2.81 
517.85 -82.18 -2.13 
517.93 -82.29 -1.69 
518.27 -82.29 0.78 
518.11 -82.51 1.00 
518.97 -82.47 -3.52 
518.47 -81.84 -2.57 
518.67 -82.38 -2.12 
518.58 -82.50 0.97 
518.39 -81.83 1.48 
519.13 -82.48 -3.71 
519.37 -81.92 -2.69 
519.30 -82.34 -2.23 
519.02 -82.16 0.42 
519.78 -81.86 -3.73 
520.05 -82.46 -2.70 
520.27 -81.93 -2.48 
520.22 -81.94 0.78 
520.78 -82.05 -2.89 
520.53 -82.30 -2.50 
520.43 -81.92 0.60 
521.75 -82.28 -2.47 
521.17 -82.47 -1.69 
537.39 -82.01 -5.08 
518.07 -81.69 -4.04 
518.06 -81.35 -2.59 
517.92 -81.40 -2.16 
517.64 -81.49 -0.46 
518.31 -81.63 -3.38 
518.73 -81.18 -2.63 
518.51 -81.38 -2.35 
518.34 -81.36 -1.21 
518.76 -81.38 -0.53 
518.80 -81.70 -0.04 
518.37 -81.65 0.77 
519.30 -81.68 -3.54 
519.46 -81.53 -2.71 
519.05 -81.70 -2.38 
519.70 -81.26 -1.28 
519.85 -81.18 -3.73 
519.71 -81.15 -2.87 
520.35 -81.41 -2.40 
520.33 -81.81 0.54 
521.00 -81.41 -2.47 
521.19 -81.69 -2.67 
531.51 -81.39 -2.79 
531.51 -81.39 -2.47 
517.89 -80.74 -2.54 
517.96 -80.57 -2.41 
518.09 -80.64 -1.51 
517.70 -81.01 -1.07 
518.20 -80.87 0.16 
518.57 -80.58 -4.06 
518.79 -81.10 -3.42 
518.50 -80.85 -2.72 
518.51 -80.96 -1.81 
518.88 -80.96 -1.72 
518.62 -80.44 -0.62 
518.53 -80.58 0.62 
519.14 -80.64 -4.06 
519.28 -81.07 -3.44 
519.11 -80.52 -3.15 
519.48 -81.11 -1.99 
519.98 -80.72 -2.99 
519.85 -80.86 -1.55 
521.88 -80.49 -2.68 
522.20 -80.54 -1.72 
522.63 -80.61 -2.39 
528.49 -80.80 -1.95 
528.49 -80.56 -1.29 
530.76 -81.09 -1.88 
531.03 -80.73 -2.84 
531.06 -80.78 -1.89 
517.97 -80.25 -4.01 
517.86 -80.24 -3.29 
517.78 -80.04 -2.86 
517.81 -80.42 -2.43 
517.98 -79.89 -1.39 
518.32 -80.13 -4.05 
518.44 -79.97 -3.44 
518.55 -80.26 -2.83 
518.55 -80.02 -2.34 
518.58 -80.07 -1.62 
518.50 -80.16 -0.85 
518.54 -80.15 0.12 
519.25 -80.39 -2.94 
519.29 -80.10 -2.42 
519.36 -80.35 -1.69 
519.68 -80.08 -0.87 
519.91 -79.76 -1.92 
520.14 -80.14 -1.63 
520.95 -79.85 -2.11 
521.69 -79.76 -2.57 
521.58 -79.81 -2.07 
521.99 -80.41 -2.19 
522.46 -80.21 -1.39 
522.57 -80.16 -2.43 
523.40 -79.75 -3.76 
523.39 -79.72 -2.17 
524.68 -79.94 -0.07 
524.84 -79.91 0.31 
526.83 -79.83 -2.04 
526.82 -79.83 -1.68 
527.45 -79.79 -2.16 
527.45 -79.78 -1.47 
528.76 -80.06 -2.03 
528.76 -80.04 -1.31 
530.65 -80.32 -1.93 
531.07 -80.30 -4.95 
531.13 -80.41 -1.87 
518.13 -79.53 -4.00 
517.61 -79.50 -3.73 
517.76 -79.57 -2.86 
517.84 -79.60 -1.99 
517.85 -79.14 -1.63 
517.72 -79.58 -1.09 
518.66 -79.10 -3.41 
518.81 -79.22 -2.67 
518.46 -79.19 -2.06 
518.56 -79.10 -1.47 
518.49 -79.09 -0.81 
519.30 -79.03 -2.81 
519.06 -79.56 -2.14 
519.58 -79.46 -0.76 
520.10 -79.24 -1.96 
520.24 -79.20 -0.96 
520.85 -79.43 -2.04 
521.70 -79.21 -3.95 
521.72 -79.21 -3.26 
521.77 -79.39 -2.54 
521.15 -79.39 -2.01 
521.77 -79.20 -1.19 
521.77 -79.20 -0.49 
521.79 -79.19 0.21 
522.35 -79.44 -4.07 
522.35 -79.44 -3.45 
522.42 -79.33 -2.62 
522.35 -79.44 -2.22 
522.36 -79.44 -1.60 
522.36 -79.43 -0.97 
522.38 -79.26 -0.14 
522.96 -79.71 -4.11 
522.96 -79.71 -3.55 
522.96 -79.71 -2.98 
522.96 -79.71 -1.84 
522.95 -79.71 -1.27 
522.95 -79.71 -0.69 
522.95 -79.71 -0.11 
523.91 -79.22 -4.63 
523.37 -79.71 -1.37 
523.33 -79.69 -0.56 
527.17 -79.35 -4.52 
527.10 -79.31 -2.06 
526.96 -79.57 -1.69 
528.83 -79.47 -4.90 
517.83 -78.77 -4.30 
517.78 -78.55 -3.56 
517.68 -78.60 -2.83 
517.88 -78.56 -2.02 
517.97 -78.51 -1.70 
518.85 -78.40 -4.34 
518.46 -78.58 -3.40 
518.88 -78.47 -2.15 
518.39 -78.40 -1.64 
518.49 -78.82 -0.85 
519.42 -78.64 -2.20 
519.32 -78.62 -0.27 
520.18 -78.59 -2.60 
520.11 -78.77 -2.25 
519.83 -78.59 -1.34 
520.16 -78.58 -0.92 
520.80 -78.68 -2.54 
520.65 -78.64 -2.33 
520.98 -78.73 -1.11 
520.77 -78.63 -0.37 
521.39 -78.41 -4.18 
521.38 -78.41 -3.40 
521.45 -78.48 -2.61 
521.45 -78.48 -2.21 
521.77 -78.62 -1.40 
521.42 -78.57 -1.03 
522.22 -78.61 -4.08 
522.22 -78.61 -3.60 
522.22 -78.61 -3.11 
522.21 -78.61 -2.14 
522.21 -78.61 -1.65 
522.21 -78.61 -0.66 
522.28 -78.74 0.01 
521.96 -78.76 0.31 
522.84 -78.93 -4.53 
522.84 -78.93 -3.60 
522.84 -78.93 -3.13 
522.84 -78.93 -2.18 
522.83 -78.93 -1.71 
522.83 -78.93 -0.75 
523.78 -78.83 -1.58 
523.58 -78.47 -0.84 
523.92 -78.85 -4.59 
525.40 -78.47 -4.63 
518.28 -77.90 -4.31 
517.93 -78.16 -3.43 
518.04 -78.16 -2.86 
517.84 -77.94 -2.10 
517.87 -78.15 -1.68 
518.24 -78.20 -1.08 
518.53 -77.86 -4.25 
518.40 -77.91 -3.39 
518.78 -77.95 -2.74 
518.83 -77.86 -2.02 
518.63 -77.75 -1.12 
518.70 -78.22 -0.55 
518.92 -77.95 -0.10 
519.13 -78.15 -4.29 
519.10 -78.11 -3.42 
519.32 -78.05 -2.58 
519.17 -78.06 -2.41 
519.18 -78.19 -1.28 
519.31 -78.10 -0.58 
520.13 -77.71 -4.31 
520.12 -77.70 -3.55 
520.16 -77.94 -2.78 
520.16 -77.93 -2.32 
520.40 -77.78 -1.79 
520.23 -77.74 -0.86 
520.07 -78.18 0.00 
520.73 -77.81 -4.24 
520.73 -77.81 -3.45 
520.74 -78.07 -2.67 
520.73 -78.07 -2.24 
520.61 -78.22 -1.67 
520.76 -77.64 -0.98 
520.53 -77.73 0.18 
521.08 -77.97 0.33 
521.12 -78.24 -4.08 
521.13 -78.05 -3.53 
521.12 -78.24 -2.85 
521.12 -78.25 -2.44 
521.12 -78.25 -1.19 
521.37 -77.81 -0.56 
522.08 -78.15 -4.57 
523.52 -77.96 -4.62 
523.89 -78.15 -1.65 
523.30 -77.78 -0.60 
523.24 -77.72 0.16 
524.15 -78.30 -2.06 
525.10 -78.22 -4.68 
517.72 -77.37 -4.31 
517.91 -77.37 -3.29 
518.17 -77.37 -2.82 
518.10 -77.53 -2.09 
517.97 -77.23 -1.11 
518.07 -77.08 -0.48 
518.54 -77.24 -4.06 
518.46 -77.26 -3.45 
518.85 -77.43 -2.64 
518.80 -77.15 -2.44 
518.65 -77.03 -1.74 
518.52 -77.28 -0.52 
518.63 -77.46 0.22 
519.42 -77.22 -4.30 
519.42 -77.21 -3.41 
519.45 -77.20 -2.65 
519.41 -77.20 -2.26 
519.50 -77.41 -1.50 
519.46 -77.35 -0.83 
519.60 -76.98 -0.18 
519.59 -77.50 0.47 
519.92 -77.42 -4.49 
519.91 -77.42 -3.58 
520.15 -77.47 -2.98 
520.15 -77.47 -2.38 
520.22 -77.12 -0.68 
519.89 -77.31 -0.26 
520.26 -77.53 0.52 
520.65 -77.00 -4.65 
520.82 -76.97 -4.58 
520.80 -77.10 -2.41 
520.70 -76.93 -0.92 
520.54 -77.61 -0.32 
520.74 -77.04 0.64 
521.54 -76.99 -4.55 
521.66 -77.32 -2.52 
521.29 -77.28 -2.12 
522.77 -77.00 -4.64 
522.75 -77.01 -3.92 
522.74 -77.02 -3.55 
522.73 -77.03 -3.19 
522.67 -77.57 0.49 
517.84 -76.49 -4.16 
517.82 -76.28 -3.34 
517.98 -76.45 -2.70 
517.93 -76.37 -2.50 
518.04 -76.27 -1.51 
517.84 -76.68 -0.96 
518.25 -76.43 0.05 
518.37 -76.54 -4.08 
518.34 -76.54 -3.40 
518.65 -76.81 -2.70 
518.44 -76.80 -2.16 
518.76 -76.66 -1.30 
518.85 -76.31 -0.72 
518.33 -76.81 0.00 
519.66 -76.68 -4.51 
519.17 -76.54 -2.89 
519.48 -76.57 -2.45 
519.04 -76.56 -1.77 
519.04 -76.86 -0.59 
519.42 -76.72 -0.05 
519.85 -76.32 -4.74 
520.36 -76.61 -4.48 
520.32 -76.48 -3.28 
520.24 -76.29 -3.00 
519.79 -76.48 -2.45 
520.12 -76.27 -1.49 
520.13 -76.49 -0.84 
519.87 -76.47 -0.26 
519.83 -76.50 0.75 
521.01 -76.57 -4.58 
520.86 -76.48 -3.32 
520.57 -76.39 -2.84 
520.54 -76.36 -2.45 
521.07 -76.45 -1.14 
520.51 -76.91 -0.36 
520.67 -76.48 0.37 
521.33 -76.50 -3.08 
521.29 -76.56 -1.52 
521.14 -76.30 -0.08 
522.16 -76.60 -4.69 
522.14 -76.61 -4.28 
522.12 -76.63 -3.59 
522.11 -76.63 -3.18 
518.06 -76.17 -4.28 
518.15 -75.59 -3.40 
517.98 -76.09 -2.99 
517.83 -75.85 -2.28 
518.20 -75.87 -0.50 
518.70 -76.03 -4.49 
518.53 -76.04 -3.31 
518.83 -75.93 -2.85 
518.82 -75.78 -2.44 
518.62 -75.89 -1.57 
518.68 -75.99 -0.80 
518.88 -75.94 -0.08 
519.68 -76.17 -4.67 
519.46 -75.98 -4.39 
519.32 -75.87 -3.25 
519.26 -75.99 -2.71 
519.28 -75.72 -2.45 
519.50 -76.12 -0.83 
519.40 -75.53 -0.05 
519.40 -75.58 0.66 
519.93 -76.14 -4.34 
519.94 -75.86 -3.31 
520.03 -75.88 -2.84 
520.34 -75.93 -1.53 
519.99 -75.62 -0.81 
520.32 -75.96 0.36 
520.72 -76.15 -3.14 
520.85 -75.72 -1.47 
520.97 -76.12 -0.43 
520.43 -76.06 -0.02 
518.22 -75.45 -4.46 
518.01 -75.24 -3.43 
518.09 -75.39 -3.08 
517.70 -75.16 -2.11 
518.70 -75.20 -3.43 
518.67 -75.35 -3.08 
518.52 -75.00 -2.32 
518.38 -75.48 -0.53 
518.81 -75.32 0.05 
519.67 -75.12 -1.23 
519.30 -75.09 -0.14 
519.60 -75.08 0.64 
519.82 -74.89 -1.01 
520.17 -75.44 0.74 
519.50 -74.65 -0.33 
535.41 -73.09 0.47 
536.39 -73.33 0.60 
536.63 -72.76 0.60 
541.82 -72.95 0.26 
534.76 -72.17 -0.04 
535.48 -72.33 0.13 
535.65 -72.67 0.92 
536.25 -72.03 -0.14 
535.81 -72.49 0.45 
537.77 -72.38 -0.37 
541.05 -72.46 0.15 
542.45 -72.63 -4.77 
535.05 -71.68 -0.06 
535.49 -71.85 0.13 
535.99 -71.62 0.11 
536.19 -71.87 0.43 
538.15 -71.57 -0.37 
541.29 -71.95 -0.22 
542.34 -71.66 -4.66 
535.75 -70.84 0.16 
536.34 -70.83 0.11 
536.28 -71.07 0.45 
534.89 -69.96 -2.75 
535.44 -70.23 -2.78 
535.43 -70.29 -2.35 
536.25 -69.96 -2.43 
541.10 -70.12 -2.80 
542.04 -70.15 -2.86 
532.19 -69.51 -2.31 
532.64 -69.36 -2.34 
533.53 -69.89 -2.21 
533.85 -69.72 -2.24 
534.77 -69.24 -2.68 
534.68 -69.56 -2.22 
535.67 -69.39 -2.51 
536.04 -69.42 -2.45 
537.52 -69.36 -0.08 
538.10 -69.23 -0.15 
539.94 -69.10 -2.99 
540.08 -69.28 -3.34 
540.49 -69.34 -2.68 
541.35 -69.34 -3.73 
541.16 -69.44 -3.18 
541.82 -69.69 -3.91 
541.87 -69.62 -3.39 
542.04 -69.63 -2.79 
542.07 -69.70 -3.34 
530.75 -68.99 -2.22 
531.25 -68.97 -2.27 
531.96 -68.86 -2.00 
532.16 -68.59 -1.61 
532.81 -68.96 -2.51 
532.89 -68.58 -2.07 
533.33 -68.54 -2.86 
533.41 -69.06 -2.36 
534.30 -68.56 -4.72 
534.40 -68.83 -2.73 
533.90 -68.83 -2.40 
534.57 -68.55 -4.71 
534.80 -69.07 -2.80 
534.74 -69.21 -2.29 
535.48 -69.08 -2.55 
535.45 -68.79 -2.50 
536.30 -69.09 -3.00 
536.30 -69.04 -0.51 
536.16 -68.92 -0.16 
536.63 -68.66 -0.52 
537.85 -68.60 -2.66 
537.87 -69.05 -0.71 
538.31 -68.86 -1.94 
538.33 -68.86 -1.36 
538.27 -68.79 -0.75 
538.58 -68.82 -0.22 
539.19 -68.87 -3.46 
539.12 -68.53 -2.53 
538.93 -68.73 -2.00 
538.97 -68.74 -1.24 
539.51 -68.61 -3.32 
539.57 -68.66 -3.16 
539.60 -68.77 -1.49 
539.73 -68.87 -0.93 
540.41 -68.62 -3.52 
540.51 -68.97 -3.01 
540.63 -68.58 -1.40 
541.02 -68.90 -3.66 
541.30 -68.76 -2.83 
541.47 -69.05 -3.40 
541.80 -68.66 -2.85 
542.21 -68.59 -2.67 
530.35 -68.26 -2.39 
531.35 -68.41 -2.07 
532.07 -68.26 -2.14 
531.65 -67.98 -1.80 
533.01 -68.21 -3.04 
532.46 -68.05 -1.99 
532.57 -68.07 -1.58 
533.48 -68.01 -2.86 
533.11 -67.87 -2.49 
533.29 -68.11 -1.43 
533.91 -68.10 -3.41 
534.13 -68.13 -2.78 
534.19 -68.35 -2.53 
534.03 -67.98 -1.49 
534.53 -68.05 -2.75 
534.81 -68.02 -2.42 
534.96 -68.11 -1.66 
535.37 -67.87 -4.48 
535.32 -68.39 -2.53 
535.12 -68.16 -2.33 
535.30 -68.07 -0.93 
535.81 -68.45 -2.41 
535.86 -68.08 -1.67 
536.07 -68.22 -0.95 
536.31 -68.14 -0.36 
536.97 -67.93 -2.73 
537.01 -68.01 -1.82 
537.69 -68.15 -2.82 
538.41 -68.38 -3.71 
538.28 -68.17 -2.86 
538.16 -68.08 -1.66 
538.35 -67.94 -0.62 
539.30 -68.30 -3.53 
539.02 -68.13 -2.72 
538.65 -68.42 -2.48 
538.68 -68.15 -1.80 
539.50 -68.35 -3.38 
539.64 -68.51 -2.85 
539.86 -68.30 -1.90 
539.93 -68.45 -1.50 
540.05 -68.16 -3.56 
540.62 -68.09 -2.89 
540.45 -68.44 -2.11 
540.08 -68.46 -1.15 
540.72 -68.39 -3.36 
541.03 -68.08 -3.10 
541.48 -67.94 -2.95 
527.30 -67.34 -0.50 
527.55 -67.48 -0.40 
528.20 -67.30 -1.22 
529.18 -67.32 -0.63 
531.03 -67.24 -2.63 
531.18 -67.52 -2.07 
532.15 -67.25 -2.85 
531.95 -67.48 -2.14 
532.06 -67.49 -1.77 
532.10 -67.50 -1.05 
532.02 -67.12 1.25 
532.70 -67.49 -3.24 
532.77 -67.25 -2.85 
532.82 -67.51 -2.36 
532.82 -67.81 -1.56 
533.37 -67.27 -3.23 
533.34 -67.45 -2.52 
533.28 -67.28 -2.38 
533.27 -67.58 -1.51 
533.75 -67.28 -3.25 
534.08 -67.57 -2.79 
534.05 -67.29 -2.09 
534.97 -67.25 -2.60 
534.57 -67.31 -2.14 
534.67 -67.58 -1.56 
534.80 -67.26 -1.00 
534.68 -67.50 -0.10 
535.63 -67.48 -1.28 
535.36 -67.34 -0.97 
536.09 -67.00 -3.01 
536.34 -67.69 -1.93 
536.10 -67.54 -1.44 
536.19 -67.47 -0.99 
536.75 -67.23 -3.51 
536.59 -67.45 -2.99 
537.10 -67.11 -2.24 
536.67 -67.81 -1.68 
536.53 -67.68 -1.01 
536.52 -67.64 -0.35 
537.50 -67.16 -3.54 
537.70 -67.30 -3.14 
537.69 -67.27 -2.12 
537.71 -67.37 -1.58 
537.89 -67.76 -0.51 
538.32 -67.26 -3.31 
538.20 -67.61 -3.11 
537.99 -67.26 -2.05 
537.87 -67.78 -1.44 
538.03 -67.59 -0.20 
538.61 -67.65 -3.35 
539.14 -67.81 -2.89 
539.57 -67.29 -3.43 
539.81 -67.61 -2.92 
539.53 -67.44 -1.98 
539.80 -67.73 -1.79 
540.54 -67.45 -2.58 
540.12 -67.40 -2.06 
526.78 -66.62 -1.61 
527.67 -66.42 -2.15 
527.72 -66.42 -1.69 
527.42 -66.85 -0.60 
527.83 -67.07 -0.39 
528.29 -66.59 -1.15 
528.63 -66.72 -0.78 
528.95 -66.76 -1.28 
529.02 -66.46 -0.76 
529.60 -66.45 -1.94 
529.59 -66.96 -0.60 
530.60 -66.47 -2.87 
530.74 -66.89 -2.26 
530.88 -66.52 -1.22 
531.16 -66.46 -3.32 
531.23 -66.59 -2.75 
531.39 -66.61 -2.21 
531.33 -66.61 -1.64 
531.85 -66.45 -3.22 
532.10 -66.74 -2.92 
531.90 -66.92 -2.43 
532.19 -66.85 -1.77 
531.72 -66.43 -0.98 
531.61 -66.72 1.16 
532.52 -66.79 -3.21 
532.64 -66.62 -2.72 
532.61 -66.72 -2.10 
532.88 -66.86 -1.27 
532.49 -66.49 -0.46 
533.50 -66.98 -2.66 
533.43 -66.91 -1.90 
533.65 -66.92 -1.57 
533.78 -66.87 -2.79 
534.11 -66.63 -2.00 
534.03 -66.79 -1.60 
533.93 -66.57 -1.02 
535.01 -66.89 -2.94 
534.73 -66.86 -2.08 
534.75 -66.86 -1.53 
534.69 -66.80 -0.96 
534.65 -66.75 -0.39 
535.46 -66.64 -3.35 
535.35 -66.78 -2.89 
535.38 -66.52 -2.04 
535.47 -66.89 -1.40 
535.71 -66.98 -0.84 
536.26 -66.68 -3.43 
536.23 -66.66 -2.75 
535.98 -66.73 -2.09 
536.44 -66.66 -1.16 
536.15 -66.95 -0.61 
536.90 -66.89 -3.47 
536.97 -66.54 -2.79 
536.72 -66.63 -2.07 
536.53 -66.94 -1.63 
537.00 -67.05 -1.09 
537.34 -66.47 -3.91 
537.58 -66.65 -3.65 
537.60 -66.65 -3.01 
537.63 -66.85 -1.02 
538.07 -66.42 -2.53 
539.87 -67.10 -1.40 
540.02 -66.78 -1.86 
526.70 -65.92 -0.77 
527.10 -66.00 -2.06 
527.25 -66.03 -1.61 
526.83 -66.11 -0.59 
528.06 -65.80 -2.59 
527.96 -65.94 -2.14 
527.96 -66.12 -1.68 
527.78 -66.21 -0.93 
528.79 -65.89 -2.20 
528.33 -65.83 -1.50 
528.23 -65.80 -0.96 
528.34 -66.24 -0.36 
528.67 -66.12 2.16 
528.98 -65.93 -1.69 
528.81 -66.03 1.57 
529.33 -66.00 1.70 
529.03 -66.11 2.50 
529.85 -65.81 -3.25 
530.11 -66.01 -2.79 
530.06 -66.11 -2.13 
529.62 -66.00 -1.24 
529.88 -65.74 -1.08 
530.61 -66.15 -3.22 
530.77 -65.93 -2.56 
530.75 -65.95 -2.48 
530.83 -66.03 -1.41 
530.47 -65.96 -1.00 
530.96 -66.13 -2.91 
531.27 -66.24 -2.20 
531.28 -66.01 -1.47 
531.92 -66.26 -2.78 
532.18 -65.99 -2.16 
531.77 -66.06 -1.53 
532.08 -66.03 -0.99 
532.75 -66.03 -2.64 
532.55 -65.89 -2.19 
532.76 -66.20 -1.40 
532.96 -65.88 -0.87 
532.80 -66.08 0.17 
533.16 -66.16 -2.70 
533.47 -65.78 -2.18 
533.54 -66.21 -1.44 
533.38 -66.16 -1.01 
533.45 -65.99 -0.13 
534.06 -66.27 -2.79 
534.11 -66.03 -2.40 
534.24 -66.31 -1.60 
533.96 -66.22 -1.08 
533.73 -66.19 0.05 
534.75 -65.79 -4.00 
534.84 -65.98 -3.65 
534.77 -66.26 -2.83 
534.48 -66.05 -2.20 
534.94 -66.03 -1.61 
535.33 -66.04 -3.92 
535.50 -66.25 -3.58 
535.54 -66.30 -2.90 
535.39 -66.08 -2.17 
535.48 -66.42 -1.75 
535.45 -65.77 -1.07 
535.94 -66.34 -3.96 
536.06 -66.09 -3.60 
536.15 -66.19 -3.01 
536.00 -66.39 -2.38 
536.27 -66.15 -1.78 
536.36 -66.25 -0.68 
536.73 -66.18 -3.87 
536.88 -66.41 -3.68 
536.91 -65.85 -3.00 
536.76 -66.24 -2.48 
536.65 -65.87 -1.28 
537.22 -66.28 -3.71 
537.51 -66.16 -3.11 
537.80 -65.99 -1.90 
537.75 -65.89 -1.53 
538.04 -66.31 -1.74 
539.14 -65.79 -1.62 
539.50 -65.80 -1.65 
526.49 -65.43 -1.47 
527.37 -65.58 -2.59 
527.36 -65.57 -2.10 
527.21 -65.69 -1.59 
527.33 -65.18 -0.71 
527.52 -65.33 -4.67 
527.69 -65.14 -2.88 
527.63 -65.23 -2.09 
527.68 -65.65 -1.55 
527.94 -65.53 -1.00 
528.60 -65.68 -4.67 
528.51 -65.16 -2.58 
528.28 -65.47 -2.13 
528.43 -65.21 -1.52 
528.53 -65.45 -0.94 
528.61 -65.14 0.77 
528.38 -65.15 1.47 
528.20 -65.25 2.03 
529.40 -65.10 -2.92 
529.05 -65.56 -2.19 
529.17 -65.46 -1.44 
528.95 -65.13 -0.90 
529.23 -65.27 -0.26 
529.03 -65.20 1.89 
529.91 -65.39 -2.70 
529.99 -65.50 -2.50 
529.92 -65.59 -1.36 
529.96 -65.32 -0.97 
530.52 -65.26 -2.76 
530.64 -65.44 -2.48 
530.50 -65.25 -1.78 
530.21 -65.05 -0.97 
531.58 -65.24 -2.63 
531.05 -65.45 -2.21 
531.09 -65.43 -1.24 
531.14 -65.69 -0.92 
531.78 -65.51 -2.61 
532.12 -65.37 -2.11 
531.97 -65.28 -1.22 
531.91 -65.47 -1.15 
532.20 -65.49 0.73 
532.48 -65.16 -2.63 
532.80 -65.20 -2.17 
532.62 -65.58 -1.44 
532.44 -65.67 -1.07 
532.44 -65.42 0.08 
533.70 -65.29 -3.94 
533.57 -65.52 -3.20 
533.36 -65.09 -2.94 
533.53 -65.31 -2.29 
533.40 -65.06 -1.27 
533.02 -65.29 -1.08 
533.40 -65.64 -0.03 
533.70 -65.09 0.48 
534.22 -65.25 -3.95 
534.06 -65.22 -3.47 
533.99 -65.33 -2.93 
533.82 -65.20 -2.01 
533.80 -65.50 -1.57 
534.06 -65.39 -0.86 
534.20 -65.50 0.49 
534.73 -65.31 -4.11 
534.94 -65.34 -3.64 
534.83 -65.36 -2.83 
534.48 -65.47 -2.28 
534.68 -65.56 -1.31 
535.08 -65.72 -0.73 
534.67 -65.31 1.26 
535.16 -65.58 -3.91 
535.24 -65.52 -3.48 
535.20 -65.37 -2.81 
535.45 -65.22 -2.45 
535.47 -65.11 -1.38 
536.23 -65.47 -3.94 
536.24 -65.58 -3.35 
536.22 -65.44 -2.89 
535.97 -65.43 -2.28 
536.19 -65.21 -1.56 
536.21 -65.22 -1.01 
536.83 -65.61 -3.65 
536.95 -65.54 -2.85 
536.54 -65.33 -1.95 
536.62 -65.42 -1.49 
536.63 -65.42 -1.02 
537.57 -65.55 -2.40 
537.23 -65.67 -1.70 
538.30 -65.19 -1.63 
539.14 -65.51 -1.86 
538.64 -65.05 -1.65 
539.85 -65.53 -1.70 
540.13 -65.68 -2.08 
540.58 -65.23 -1.67 
526.64 -64.67 -1.88 
527.35 -64.55 -2.60 
526.98 -64.54 -2.16 
526.94 -64.84 -1.39 
527.53 -64.55 -4.58 
527.97 -64.90 -2.07 
527.94 -64.64 -1.50 
528.41 -64.82 -2.68 
528.15 -64.69 -2.14 
528.43 -64.80 -1.55 
528.66 -64.70 -0.91 
528.28 -64.98 0.55 
528.84 -64.91 -2.68 
529.25 -64.97 -2.10 
528.89 -64.65 -1.47 
528.93 -64.77 -0.91 
528.86 -64.81 0.39 
529.03 -65.01 1.62 
529.67 -64.77 -2.58 
529.67 -64.62 -2.03 
530.10 -64.54 -0.59 
530.23 -64.62 -2.68 
530.91 -64.64 -2.22 
530.83 -64.83 -1.51 
531.38 -64.80 -2.54 
531.43 -64.66 -1.89 
531.25 -64.60 -1.45 
532.06 -64.91 -3.08 
531.67 -64.77 -1.07 
532.93 -64.56 -3.28 
532.88 -64.77 -2.90 
532.59 -64.80 -2.04 
532.52 -65.02 -1.33 
533.15 -64.53 -4.05 
533.36 -64.82 -3.66 
533.64 -64.75 -2.86 
533.24 -64.93 -2.23 
533.70 -64.75 -1.66 
533.62 -64.87 0.38 
534.07 -64.80 -3.96 
534.15 -64.79 -3.56 
534.19 -64.85 -2.82 
533.97 -64.66 -2.21 
534.57 -64.85 -3.96 
534.55 -64.67 -3.55 
534.74 -64.79 -3.13 
534.95 -64.87 -2.14 
535.11 -64.75 -3.98 
535.11 -64.74 -3.70 
535.14 -64.77 -2.87 
535.36 -64.56 -2.37 
535.30 -65.00 -1.67 
535.60 -64.79 -1.01 
535.88 -64.85 -2.99 
535.93 -64.97 -2.49 
537.07 -64.87 -1.62 
537.70 -64.62 -1.76 
538.21 -64.89 -1.73 
538.94 -64.73 -1.97 
538.95 -64.88 -1.66 
539.61 -65.02 -1.43 
