# .PCD v0.7 - Point Cloud Data file format
VERSION 0.7
FIELDS x y z
SIZE 4 4 4
TYPE F F F
COUNT 1 1 1
WIDTH 2354
HEIGHT 1
VIEWPOINT 0 0 0 1 0 0 0
POINTS 2354
DATA ascii
552.10 142.00 2.25 
552.15 142.08 3.03 
551.98 141.82 4.03 
552.26 142.27 4.21 
552.95 142.30 -1.55 
552.64 142.20 -1.05 
552.72 141.85 -0.15 
552.74 142.07 0.43 
552.71 142.04 0.91 
552.84 142.34 1.81 
552.62 141.95 2.38 
552.79 142.32 2.95 
552.65 142.40 3.87 
553.65 142.15 -1.66 
553.38 142.22 -0.75 
553.35 142.18 -0.23 
553.32 142.15 0.29 
553.32 142.20 1.09 
553.29 142.16 1.53 
553.19 142.01 2.39 
553.54 142.03 3.04 
553.51 142.00 3.59 
554.44 142.24 -1.82 
554.30 142.29 -0.99 
554.26 142.25 -0.38 
554.22 142.21 0.22 
554.18 142.18 0.83 
554.15 142.14 1.43 
554.07 142.06 2.65 
554.03 142.02 3.26 
553.99 141.98 3.87 
554.92 142.38 -0.86 
554.87 142.32 -0.18 
554.82 142.26 0.50 
554.69 142.38 0.77 
554.58 141.97 3.89 
554.53 141.92 4.57 
555.45 141.98 -1.67 
555.40 142.25 -1.43 
556.27 142.35 -1.70 
556.12 142.27 -1.20 
557.92 141.81 -1.46 
557.41 142.07 -0.95 
558.53 142.18 -1.56 
558.02 142.32 -1.43 
560.04 141.83 -1.40 
560.39 142.22 -1.36 
561.94 142.09 1.37 
562.68 142.20 0.62 
562.45 142.32 1.02 
563.34 141.91 -1.07 
563.83 142.11 -1.03 
564.70 142.02 -0.97 
565.44 142.22 -1.07 
565.81 142.38 -1.49 
566.01 142.23 -1.01 
566.76 142.09 -0.92 
566.66 141.88 -0.66 
567.19 142.07 -0.88 
567.33 142.25 -0.78 
547.37 142.57 -1.47 
547.25 142.88 -1.19 
547.31 142.49 -0.26 
547.18 142.79 0.31 
547.14 142.75 1.07 
547.59 143.06 -1.03 
547.55 143.01 -0.24 
547.53 142.99 0.15 
548.50 142.80 0.59 
548.23 143.14 0.67 
548.59 142.68 1.48 
548.91 142.73 2.37 
549.25 142.94 -1.48 
549.22 142.91 -1.06 
549.20 142.88 -0.63 
549.20 142.53 0.35 
549.18 142.50 0.82 
549.46 143.08 1.81 
549.56 142.64 2.53 
548.99 142.80 3.19 
549.48 142.64 4.38 
549.51 143.10 4.95 
549.88 142.72 -1.52 
550.06 143.15 -0.94 
549.82 142.66 -0.42 
550.00 143.09 0.16 
549.69 142.51 1.60 
549.90 142.97 2.36 
549.66 142.48 2.92 
550.11 142.76 3.94 
550.46 143.02 1.47 
550.56 142.87 2.27 
550.72 142.71 3.26 
550.57 143.16 3.90 
550.81 142.72 4.54 
551.61 142.48 -1.41 
551.69 142.75 0.21 
551.65 142.70 0.73 
551.57 142.60 1.78 
551.53 142.55 2.32 
551.69 142.92 2.87 
551.59 142.89 3.72 
551.66 142.58 4.76 
551.37 142.73 5.06 
552.28 142.65 -1.61 
552.20 142.67 -0.96 
552.28 142.64 -0.35 
552.11 142.57 0.29 
552.27 142.75 1.05 
552.16 142.79 1.59 
551.99 142.68 2.28 
551.72 142.68 3.97 
552.35 142.73 4.75 
552.52 143.02 -1.55 
552.73 142.80 -1.20 
552.67 142.74 -0.27 
552.64 142.71 0.20 
552.76 142.87 0.74 
552.73 142.99 1.65 
552.81 142.75 2.38 
552.77 142.72 2.87 
553.08 143.08 3.70 
552.72 142.75 4.30 
553.64 142.79 -1.52 
553.26 142.97 -0.98 
553.36 142.73 -0.24 
553.33 142.70 0.26 
553.52 142.58 0.87 
553.54 142.84 1.59 
553.43 142.96 2.35 
553.40 142.60 3.09 
553.76 142.48 3.69 
553.14 142.74 4.71 
554.35 143.02 -1.59 
554.09 143.06 -0.89 
553.71 143.04 -0.60 
553.97 142.71 0.38 
554.33 142.96 0.78 
553.90 142.63 1.48 
554.03 143.14 2.31 
554.36 142.60 2.95 
554.13 142.59 3.88 
554.22 142.59 4.35 
554.63 142.90 -0.95 
554.59 142.86 -0.33 
554.55 142.82 0.28 
555.19 142.96 1.28 
554.99 142.72 4.05 
554.94 142.66 4.74 
555.55 142.83 -1.62 
555.50 143.00 -1.38 
555.76 142.84 -0.71 
555.24 143.02 0.59 
555.21 142.71 0.77 
555.81 143.14 4.09 
556.32 142.68 -1.69 
556.15 142.97 -1.34 
556.61 142.57 -0.98 
557.52 143.01 -0.93 
558.49 142.61 -1.55 
558.06 142.89 -1.40 
558.70 142.79 0.04 
558.85 142.52 0.31 
559.83 142.66 -1.13 
559.72 142.66 0.10 
560.67 142.79 -1.33 
561.10 142.99 -1.28 
562.17 142.70 0.59 
562.62 142.70 0.96 
563.39 142.57 -1.50 
563.15 143.13 -1.05 
563.07 143.06 0.20 
563.18 143.16 1.10 
563.18 142.87 1.37 
564.27 142.92 -1.62 
563.84 142.66 -1.12 
564.12 142.90 1.98 
564.90 142.93 -1.52 
564.54 142.65 1.49 
565.21 142.56 -0.91 
565.66 143.16 1.66 
566.23 142.59 -1.46 
566.14 142.80 -0.84 
566.14 142.80 -0.84 
566.78 142.52 -0.82 
566.90 142.58 -0.62 
567.51 143.15 -1.36 
567.42 142.76 -0.62 
547.51 143.47 -0.07 
547.50 143.44 0.29 
547.46 143.40 1.02 
547.64 143.61 -1.81 
547.81 143.55 -1.00 
547.56 143.49 -0.43 
547.52 143.43 0.27 
549.53 143.77 -0.99 
549.50 143.74 -0.58 
549.22 143.66 2.51 
549.57 143.75 3.52 
549.51 143.27 4.79 
549.84 143.76 -1.72 
549.82 143.73 -1.22 
549.79 143.70 -0.72 
550.21 143.55 0.18 
550.12 143.46 1.81 
549.72 143.49 3.18 
549.79 143.71 3.55 
550.31 143.67 -1.98 
550.78 143.60 1.52 
550.90 143.36 2.58 
550.39 143.42 3.25 
550.39 143.41 4.02 
551.31 143.41 0.69 
551.07 143.65 1.55 
551.18 143.19 2.29 
551.24 143.50 3.18 
551.12 143.51 3.93 
551.11 143.26 4.18 
551.45 143.52 5.37 
552.25 143.76 -1.76 
552.14 143.65 -0.86 
552.14 143.62 -0.22 
552.10 143.57 0.29 
552.06 143.53 0.81 
552.03 143.66 1.52 
551.95 143.38 2.36 
551.98 143.57 3.11 
551.95 143.52 3.90 
551.88 143.53 4.71 
551.90 143.23 5.01 
552.71 143.44 -1.51 
552.85 143.55 -1.06 
552.75 143.52 -0.26 
552.65 143.48 0.31 
552.81 143.53 1.08 
552.78 143.50 1.54 
552.72 143.43 2.48 
552.65 143.83 3.19 
552.65 143.67 3.90 
552.82 143.32 4.86 
553.46 143.48 -1.62 
553.42 143.42 -0.94 
553.39 143.39 -0.44 
553.46 143.54 0.50 
553.41 143.50 0.97 
553.49 143.67 1.63 
553.18 143.56 2.51 
553.40 143.57 3.17 
553.59 143.33 3.46 
554.16 143.62 -1.76 
553.96 143.62 -1.41 
554.07 143.62 -0.10 
554.04 143.58 0.44 
554.01 143.55 0.98 
554.40 143.66 1.62 
554.18 143.62 2.48 
553.88 143.40 3.18 
554.09 143.86 3.83 
554.86 143.33 -1.55 
554.54 143.56 -0.86 
554.54 143.82 -0.64 
554.89 143.46 0.35 
554.93 143.74 0.85 
554.81 143.38 1.60 
554.77 143.34 2.23 
554.73 143.30 2.86 
554.69 143.26 3.49 
554.83 143.86 4.63 
555.63 143.17 -1.59 
555.54 143.48 -1.35 
555.69 143.81 0.68 
555.38 143.30 2.87 
555.48 143.56 3.50 
555.43 143.50 4.22 
555.38 143.44 4.93 
556.32 143.35 -1.38 
556.19 143.59 -1.32 
556.18 143.57 -0.65 
556.13 143.51 0.03 
556.41 143.39 0.69 
556.19 143.81 4.95 
556.61 143.45 -0.96 
557.29 143.81 0.64 
558.01 143.46 -1.61 
558.42 143.20 -1.53 
558.08 143.50 -1.38 
558.97 143.59 -0.21 
558.94 143.19 0.04 
560.04 143.30 -0.07 
559.54 143.60 0.06 
560.72 143.35 -1.32 
561.48 143.39 -1.23 
561.86 143.40 -1.19 
561.80 143.54 0.68 
562.59 143.25 -1.11 
562.91 143.53 0.34 
562.54 143.40 0.69 
563.19 143.18 -1.49 
563.35 143.77 -1.09 
562.91 143.53 0.34 
563.27 143.67 1.17 
563.25 143.54 1.61 
563.95 143.46 -1.62 
564.04 143.55 -0.96 
564.13 143.31 1.14 
563.88 143.60 1.51 
564.04 143.83 2.76 
564.61 143.59 -1.55 
564.86 143.44 -0.99 
564.82 143.51 -0.75 
564.45 143.64 0.58 
564.37 143.83 0.85 
564.75 143.88 1.66 
564.55 143.31 2.13 
565.16 143.63 -0.95 
565.36 143.34 -0.71 
565.13 143.85 0.88 
565.37 143.46 1.72 
565.08 143.49 2.10 
566.35 143.77 -1.52 
565.85 143.65 -0.79 
566.53 143.80 -1.55 
566.58 143.58 -0.72 
567.41 143.45 -0.65 
548.10 144.07 -1.90 
548.05 144.01 -0.97 
548.01 143.97 -0.22 
547.79 144.05 0.28 
548.04 144.57 0.95 
548.54 144.03 -2.06 
548.25 144.46 -0.94 
548.23 144.43 -0.58 
549.08 144.05 2.44 
549.74 144.24 -1.76 
549.99 144.16 -1.18 
549.83 144.56 -0.53 
549.84 143.99 1.32 
549.82 143.96 1.82 
549.92 144.20 2.78 
550.51 144.11 -1.94 
550.46 144.05 -0.86 
550.68 144.53 -0.28 
550.58 144.42 1.84 
550.89 143.92 2.35 
550.65 144.55 4.10 
550.41 144.40 4.15 
551.60 144.29 0.75 
552.40 144.12 -1.20 
552.38 144.27 -0.11 
552.31 144.37 -0.06 
552.25 143.93 0.84 
552.39 144.21 1.58 
552.22 144.44 2.47 
552.28 144.14 2.93 
552.38 143.91 4.75 
552.44 144.16 -1.71 
553.07 144.08 -1.03 
553.02 144.21 -0.49 
553.00 144.08 0.30 
553.09 144.21 1.05 
552.88 144.04 1.72 
552.99 144.29 2.28 
552.47 144.53 2.96 
553.43 143.92 -1.61 
553.34 144.29 -1.15 
553.29 144.23 -0.33 
553.36 144.26 0.37 
553.33 144.23 0.85 
553.31 144.35 1.76 
553.24 144.13 2.31 
553.54 144.36 3.16 
554.03 144.34 -1.73 
553.94 144.41 -1.25 
554.08 144.04 -0.49 
554.14 144.28 0.41 
554.11 144.24 0.84 
554.05 144.16 1.71 
554.10 144.32 2.57 
554.07 144.28 3.10 
554.03 144.24 3.64 
555.15 143.93 -1.52 
554.94 144.28 -0.68 
554.79 144.31 -0.02 
554.75 144.39 0.89 
554.68 144.19 1.69 
555.12 143.99 2.33 
554.60 144.11 2.85 
554.53 144.03 4.01 
555.00 143.87 4.27 
555.65 144.27 -1.54 
555.58 144.34 -1.30 
555.28 144.15 -0.23 
555.62 144.03 0.43 
555.71 144.10 1.47 
555.30 144.48 2.25 
555.26 144.43 3.01 
555.42 144.51 3.74 
555.88 144.31 4.39 
555.83 144.25 5.12 
556.07 144.28 -1.46 
556.23 144.34 -1.15 
556.26 144.16 0.46 
556.23 144.49 0.77 
556.10 144.57 1.50 
555.94 144.38 3.67 
556.24 143.88 4.26 
556.88 144.45 -1.39 
556.62 144.32 -0.59 
556.75 144.50 0.46 
557.66 143.97 -0.91 
557.48 144.16 -0.27 
557.48 144.34 0.45 
557.77 144.04 0.66 
558.41 144.24 -1.50 
558.14 144.12 -1.35 
558.53 144.44 0.54 
558.07 144.20 0.72 
559.28 144.56 -0.15 
559.15 143.99 0.15 
559.54 144.23 -0.79 
560.36 144.55 -1.07 
560.53 144.23 -0.26 
560.53 144.23 -0.26 
561.94 144.18 0.98 
562.66 144.34 0.48 
562.53 144.20 1.25 
562.89 144.26 1.70 
563.33 143.94 0.24 
563.36 144.25 0.95 
562.97 143.99 1.97 
564.20 144.31 -1.50 
564.08 143.89 -1.01 
564.26 144.44 0.63 
564.09 144.22 1.20 
564.13 144.43 1.64 
564.18 144.06 2.90 
564.63 144.21 -1.47 
564.52 143.93 -0.95 
564.60 144.18 0.65 
564.47 144.43 0.93 
564.81 144.12 1.54 
564.59 144.29 2.34 
564.69 144.22 2.96 
565.34 144.06 -1.03 
565.45 144.37 1.12 
565.49 144.02 1.35 
565.21 144.36 3.02 
566.01 144.43 -0.86 
566.01 144.56 -0.32 
566.41 144.44 0.55 
565.83 144.17 1.12 
565.83 144.53 1.83 
566.29 144.45 2.47 
565.88 144.54 3.00 
566.35 144.50 4.53 
566.29 144.43 5.27 
566.49 144.22 -1.49 
567.10 143.87 -0.93 
566.75 144.47 -0.26 
566.96 144.51 -0.05 
566.98 144.00 1.25 
566.59 144.53 1.42 
566.58 144.41 2.33 
566.90 144.25 4.55 
566.85 144.25 5.29 
567.27 144.16 -0.24 
567.19 144.24 0.15 
567.13 144.32 5.14 
548.13 144.62 -0.89 
548.10 144.65 -0.40 
548.07 144.61 0.27 
548.10 145.15 0.74 
548.44 144.88 -0.91 
548.36 145.18 -0.39 
548.32 145.13 0.42 
548.30 145.10 0.92 
549.85 144.59 -0.93 
549.96 144.92 -0.11 
549.94 144.89 0.28 
550.92 145.02 -1.31 
550.87 144.96 -0.25 
550.56 144.72 0.99 
550.34 145.22 1.85 
550.43 145.26 2.38 
550.38 144.83 2.82 
551.69 145.22 1.71 
551.42 145.13 2.37 
552.09 144.70 1.64 
552.80 144.95 -1.60 
552.77 144.90 -1.10 
552.73 144.86 -0.59 
552.84 145.15 0.45 
553.02 144.80 1.00 
552.83 144.68 1.62 
552.67 144.80 2.44 
552.65 144.92 2.98 
553.48 144.75 -1.57 
553.47 144.86 -1.15 
553.60 144.96 -0.49 
553.53 145.00 0.31 
553.47 144.93 1.13 
553.45 144.90 1.54 
553.61 144.95 2.44 
553.76 144.77 3.23 
554.15 144.80 -1.66 
554.26 145.09 -1.15 
554.19 145.00 -0.25 
554.15 144.95 0.21 
554.35 144.89 0.91 
554.37 144.88 1.67 
554.10 144.99 2.35 
553.88 145.10 3.15 
554.50 145.20 3.83 
554.55 145.14 -1.65 
554.53 145.02 -0.57 
555.08 144.86 0.03 
555.00 144.78 1.19 
554.96 144.74 1.77 
554.92 144.70 2.36 
554.66 144.99 2.89 
554.62 144.96 3.46 
555.10 145.14 4.24 
555.53 144.67 -1.51 
555.59 144.70 -1.28 
555.67 144.77 -0.17 
555.80 144.79 0.16 
555.59 144.68 1.13 
555.86 144.84 1.54 
555.50 144.60 2.43 
555.84 145.26 3.21 
555.79 145.22 3.88 
555.68 144.68 4.57 
556.27 144.93 -1.17 
556.24 145.16 -0.06 
556.20 144.92 0.18 
556.15 144.63 0.77 
556.41 145.23 3.84 
556.36 145.17 4.58 
556.89 145.05 -1.29 
556.89 145.28 -0.08 
557.02 145.05 0.18 
556.96 144.98 0.89 
556.69 144.65 4.43 
557.63 144.90 -1.33 
557.73 144.84 -0.12 
557.53 144.95 0.46 
557.91 145.06 1.38 
558.29 144.98 -1.28 
558.29 144.98 -1.28 
558.20 144.98 -0.10 
558.28 145.10 0.58 
558.52 144.96 0.83 
559.35 145.14 -1.67 
558.86 145.17 -1.23 
559.10 144.84 -0.20 
558.96 145.11 0.08 
559.44 144.70 -1.68 
559.87 144.85 -0.76 
559.48 144.99 -0.20 
559.53 145.21 0.76 
559.75 144.76 1.49 
560.58 144.61 -1.50 
560.46 145.25 -0.76 
560.63 144.88 -0.01 
560.43 144.73 1.17 
560.22 145.00 1.55 
560.94 144.82 -1.03 
561.12 144.62 0.87 
561.25 144.94 3.04 
561.52 145.04 -0.98 
561.61 144.93 0.39 
561.99 145.00 0.76 
562.19 145.05 1.95 
561.58 145.20 3.10 
562.67 144.84 -0.89 
562.72 144.65 0.38 
562.49 145.12 1.21 
562.86 144.91 1.74 
563.23 144.58 -0.85 
563.21 145.09 0.27 
562.94 144.98 1.21 
562.99 144.93 1.46 
564.17 144.96 -1.52 
563.65 144.93 -1.43 
564.10 144.87 0.54 
564.06 144.85 1.05 
564.06 144.79 1.42 
564.36 144.75 -1.48 
564.61 145.02 -1.41 
564.97 144.85 0.51 
564.63 144.91 1.01 
564.56 144.90 1.80 
564.83 145.16 2.61 
564.70 144.87 3.69 
564.64 145.16 5.08 
565.30 144.99 -1.40 
565.53 145.00 -0.33 
565.25 145.05 0.32 
565.22 144.91 1.32 
565.17 144.91 1.65 
565.29 145.00 2.36 
565.37 145.28 3.17 
565.23 144.89 3.75 
565.67 144.58 4.39 
565.17 145.25 5.15 
566.33 144.72 -0.91 
566.01 144.56 -0.32 
566.17 145.02 1.23 
565.89 144.91 1.90 
566.27 145.01 2.72 
565.93 145.15 3.84 
565.84 144.92 4.55 
566.19 144.95 5.18 
567.04 144.64 1.12 
566.71 144.68 1.73 
566.75 144.90 2.90 
566.45 144.79 3.83 
566.93 145.13 5.42 
567.34 144.86 2.13 
548.63 145.71 -1.16 
548.60 145.67 -0.37 
548.56 145.62 0.41 
548.54 145.59 0.89 
550.16 145.36 -0.86 
550.13 145.33 -0.48 
550.69 145.85 -1.50 
550.66 145.82 -1.02 
550.63 145.79 -0.54 
550.95 145.27 1.87 
550.84 145.46 2.86 
551.29 145.86 -1.23 
551.24 145.80 -0.20 
551.42 145.48 2.58 
552.27 145.54 1.75 
552.18 145.92 2.39 
552.98 145.33 -1.55 
552.95 145.29 -1.05 
553.09 145.62 -0.50 
553.05 145.58 0.00 
552.98 145.49 0.99 
552.91 145.39 1.99 
552.97 145.62 2.59 
553.01 145.68 3.03 
553.48 145.69 -1.53 
553.45 145.65 -1.09 
553.65 145.63 -0.35 
553.62 145.60 0.11 
553.56 145.52 1.02 
553.65 145.45 1.83 
553.63 145.78 2.45 
553.59 145.38 2.81 
553.96 145.78 -1.64 
554.02 145.62 -0.99 
553.99 145.58 -0.49 
554.04 145.64 0.25 
553.99 145.57 1.08 
553.99 145.78 1.69 
554.24 145.73 2.35 
553.99 145.74 3.09 
554.26 145.40 3.51 
554.73 145.62 -1.59 
554.52 145.68 -0.77 
554.78 145.51 -0.53 
554.72 145.78 0.15 
554.66 145.69 1.00 
554.59 145.61 1.86 
554.97 145.58 2.40 
554.82 145.78 2.82 
554.90 145.50 3.57 
554.86 145.46 4.15 
555.60 145.67 -1.47 
555.56 145.89 -1.23 
555.41 145.47 -0.51 
555.37 145.43 0.08 
555.30 145.35 1.26 
555.56 145.89 1.94 
555.83 145.72 2.40 
555.78 145.69 3.17 
555.90 145.44 3.91 
555.40 145.72 4.36 
556.55 145.43 -1.11 
556.05 145.47 -0.11 
556.01 145.43 0.55 
555.97 145.39 1.21 
556.09 145.50 1.61 
556.19 145.95 4.02 
556.14 145.90 4.71 
556.81 145.74 -1.11 
556.89 145.28 -0.08 
557.01 145.36 -0.04 
556.63 145.49 0.87 
557.21 145.53 3.89 
557.15 145.46 4.61 
557.68 145.72 -0.31 
557.53 145.38 0.20 
558.10 145.37 -1.52 
558.61 145.38 -0.81 
558.22 145.75 -0.22 
558.47 145.46 0.19 
558.71 145.59 0.48 
559.37 145.38 0.98 
559.74 145.57 -1.64 
559.73 145.45 -1.22 
560.03 145.54 -0.53 
559.94 145.59 0.13 
560.54 145.74 -1.08 
560.18 145.73 -0.72 
560.43 145.66 1.68 
561.49 145.94 -1.18 
561.15 145.55 0.07 
560.83 145.87 1.73 
561.42 145.56 2.69 
561.07 145.64 2.93 
561.77 145.77 -1.30 
561.96 145.86 0.45 
562.14 145.52 1.00 
561.89 145.60 1.44 
561.89 145.80 2.52 
561.68 145.80 3.06 
561.77 145.86 3.61 
562.52 145.51 0.54 
562.27 145.80 1.01 
562.78 145.48 1.75 
562.43 145.92 2.65 
562.71 145.50 3.31 
562.93 145.27 0.08 
563.29 145.61 0.94 
563.12 145.61 1.36 
563.52 145.48 2.28 
563.08 145.68 2.77 
564.26 145.36 -1.48 
564.19 145.46 -1.38 
564.26 145.58 -0.41 
564.02 145.69 0.40 
564.06 145.56 1.18 
563.91 145.38 1.45 
563.84 145.90 2.85 
564.60 145.32 -1.39 
564.73 145.50 -0.40 
564.69 145.47 0.93 
564.49 145.43 1.60 
564.89 145.71 2.34 
564.92 145.94 2.96 
564.75 145.46 3.77 
564.65 145.37 5.28 
565.42 145.39 -1.33 
565.30 145.40 0.64 
565.52 145.62 1.15 
565.50 145.89 1.64 
565.45 145.80 2.35 
565.05 145.96 3.20 
565.33 145.96 3.96 
566.39 145.86 -0.41 
565.88 145.55 0.91 
566.23 145.80 2.01 
565.99 145.60 3.16 
566.06 145.78 3.78 
566.28 145.30 4.57 
567.00 145.46 1.01 
566.82 145.53 1.50 
566.75 145.96 2.42 
566.62 145.82 3.25 
566.76 145.84 3.82 
567.47 145.79 0.26 
567.24 145.34 1.78 
567.35 145.89 2.10 
567.24 145.96 3.32 
567.57 145.96 3.92 
543.28 146.56 0.86 
548.81 146.14 -1.12 
548.78 146.09 -0.36 
548.87 146.18 0.49 
548.72 146.02 0.86 
548.98 146.34 -1.50 
548.95 146.30 -0.93 
548.92 146.25 -0.37 
549.08 146.35 0.34 
548.94 146.46 0.84 
550.64 146.49 -1.51 
550.80 146.62 -1.13 
550.58 146.40 -0.41 
550.89 146.50 0.46 
551.48 146.27 -1.19 
551.45 146.24 -0.68 
552.78 146.05 0.09 
552.64 146.16 1.81 
553.62 146.03 -1.50 
553.59 146.00 -1.06 
553.44 146.37 -0.41 
553.64 146.23 0.30 
553.58 146.16 1.19 
553.55 146.12 1.63 
553.80 146.15 2.51 
554.28 146.38 -1.56 
554.24 146.34 -1.14 
554.27 146.35 -0.36 
554.22 146.29 0.46 
554.08 146.37 0.96 
554.21 146.33 1.71 
553.99 146.26 2.46 
554.19 146.18 3.17 
554.39 146.12 3.49 
554.88 146.33 -1.44 
554.84 146.29 -0.99 
554.80 146.24 -0.54 
554.90 146.25 0.21 
554.90 146.57 0.94 
554.68 146.18 1.73 
554.79 146.46 2.22 
554.76 146.42 3.14 
554.73 146.39 3.70 
555.14 146.03 4.27 
555.57 146.23 -1.45 
555.43 146.35 -0.46 
555.40 146.31 0.13 
555.36 146.27 0.72 
555.88 146.50 2.03 
555.84 146.46 2.64 
555.22 146.11 3.08 
555.76 146.37 3.87 
555.44 146.61 4.39 
555.79 146.45 4.86 
555.98 146.09 -1.39 
556.49 146.25 -0.73 
556.45 146.21 -0.05 
556.36 146.12 1.30 
556.01 146.58 1.71 
556.27 146.03 2.66 
556.23 145.99 3.34 
556.55 146.66 4.87 
557.03 146.29 -1.05 
557.26 146.53 -0.54 
557.00 146.51 0.19 
557.14 146.39 0.98 
557.09 146.33 1.74 
556.70 146.39 4.04 
556.86 146.06 4.78 
557.38 146.58 -1.06 
557.62 146.66 1.02 
557.64 146.30 4.80 
558.50 146.01 -0.27 
558.41 146.20 -0.05 
558.47 146.58 0.96 
558.52 146.04 1.51 
558.90 146.13 -0.78 
559.27 146.56 -0.75 
558.84 146.60 0.60 
558.75 146.61 1.11 
558.89 146.58 1.35 
559.73 146.11 -1.61 
559.52 146.51 -1.13 
559.49 146.29 -0.54 
559.54 146.60 0.20 
559.61 146.51 1.05 
559.58 146.58 1.41 
560.19 146.59 -1.78 
560.35 146.54 -1.11 
560.32 146.00 -0.51 
560.66 146.03 0.60 
560.34 146.48 1.23 
560.95 146.61 -1.55 
561.02 146.47 -1.03 
561.11 146.16 0.24 
561.08 146.53 1.30 
561.34 146.17 1.88 
561.26 146.31 2.17 
561.69 146.30 -1.15 
562.16 146.24 0.27 
561.72 146.26 1.76 
562.02 146.03 3.12 
562.14 146.26 3.85 
562.49 146.57 -0.86 
562.51 146.20 -0.41 
562.72 146.09 0.34 
562.53 146.05 0.93 
562.46 146.20 1.74 
562.71 146.15 2.63 
562.66 146.45 2.91 
562.50 146.57 3.93 
563.50 146.39 -1.05 
563.35 146.51 -0.48 
563.04 146.50 0.30 
563.39 146.39 1.01 
563.19 146.38 1.81 
563.45 146.29 2.46 
563.39 146.55 3.29 
563.05 146.41 4.06 
563.92 146.32 -1.00 
563.82 146.23 -0.45 
564.05 146.17 0.49 
563.83 146.47 0.75 
564.16 146.48 1.66 
564.07 146.33 2.35 
563.86 146.49 2.82 
564.16 146.40 3.47 
564.50 146.30 -0.92 
564.76 146.48 -0.55 
564.89 146.66 0.30 
564.60 146.43 1.28 
564.84 146.47 1.68 
564.72 146.27 2.28 
564.68 146.58 2.85 
564.57 146.33 3.48 
564.80 146.10 4.65 
565.30 146.55 -0.52 
565.56 145.98 0.51 
565.22 146.32 1.06 
565.29 146.30 1.61 
565.52 146.09 2.43 
565.17 146.58 3.08 
565.14 146.58 3.54 
565.27 146.54 4.81 
566.15 146.38 -0.45 
566.25 146.46 0.56 
565.91 146.45 0.81 
566.18 146.36 2.00 
566.21 146.19 2.55 
565.79 146.18 3.02 
565.85 146.43 3.97 
566.14 145.93 4.75 
566.71 146.60 -0.55 
566.43 146.14 0.29 
566.55 146.37 0.83 
566.49 145.98 1.38 
566.61 146.34 2.60 
566.43 146.06 3.87 
567.26 146.60 -0.49 
567.40 146.10 1.26 
567.51 146.50 1.44 
567.20 146.30 2.61 
567.31 146.23 3.33 
567.50 146.56 4.66 
542.66 146.73 -0.18 
542.84 146.90 0.87 
542.73 146.79 3.95 
543.71 147.13 0.89 
549.23 146.98 -1.06 
549.28 146.98 -0.35 
549.24 146.91 0.45 
549.33 147.26 0.79 
550.93 147.00 -1.51 
550.87 147.11 -0.90 
550.71 146.74 -0.39 
550.81 147.05 -0.01 
551.06 147.34 -1.47 
551.04 147.31 -1.06 
551.83 147.06 -1.12 
551.81 147.04 -0.62 
553.67 146.83 -1.34 
553.78 147.11 -0.32 
553.57 146.70 0.12 
553.60 146.88 2.12 
554.43 146.67 -1.52 
554.03 147.06 -0.95 
554.39 146.89 -0.49 
554.26 147.08 0.28 
554.20 147.00 1.22 
554.17 146.96 1.69 
554.13 146.93 2.17 
554.36 147.06 3.12 
554.59 146.97 -1.48 
554.72 147.02 -1.08 
554.91 147.19 -0.39 
554.85 147.12 0.44 
554.73 147.14 1.03 
554.76 147.01 1.70 
554.95 146.79 2.26 
554.87 147.13 3.13 
554.94 146.91 3.81 
555.53 147.19 -1.17 
555.52 147.07 -0.41 
555.26 147.19 0.32 
555.22 147.25 0.95 
555.38 146.91 1.86 
555.34 146.87 2.43 
555.51 146.70 3.18 
555.54 147.34 3.68 
555.50 147.30 4.27 
556.06 147.23 -1.33 
556.04 146.68 -0.42 
556.32 147.27 0.25 
556.32 147.11 1.09 
556.24 147.18 1.49 
556.20 147.14 2.12 
556.12 147.05 3.37 
556.08 147.00 4.00 
556.59 146.71 4.17 
557.30 146.69 -1.02 
556.91 147.02 -0.68 
556.87 146.98 0.01 
556.91 146.93 1.15 
557.30 146.92 1.78 
556.73 146.84 2.09 
556.69 146.80 2.78 
556.64 146.75 3.47 
557.75 147.04 -1.13 
558.00 146.73 0.36 
557.62 147.22 1.29 
557.74 146.92 1.63 
557.55 147.31 2.66 
557.49 147.24 3.44 
557.43 147.17 4.22 
557.37 147.10 5.01 
558.31 147.05 -1.12 
558.06 146.79 -0.38 
558.48 147.19 0.21 
558.31 146.93 1.06 
558.04 146.87 1.35 
558.99 147.35 -1.05 
559.03 147.21 0.48 
558.80 146.85 1.05 
559.16 147.09 1.64 
559.75 146.96 -1.55 
559.66 146.74 -1.26 
559.74 146.62 -0.62 
559.58 146.68 0.60 
559.85 147.07 0.87 
559.76 146.69 1.42 
560.35 146.84 -1.73 
560.67 146.99 -0.76 
560.36 146.96 -0.66 
560.64 147.10 0.19 
560.53 146.95 1.21 
561.46 147.02 -1.42 
561.47 146.97 -1.34 
561.01 147.20 -0.62 
561.26 147.20 0.09 
561.81 147.08 -0.82 
561.88 147.29 -0.58 
561.99 147.27 0.25 
562.00 147.35 1.85 
562.63 146.88 -1.03 
562.79 147.06 -0.73 
562.64 146.72 0.24 
562.77 146.93 2.48 
562.87 146.84 3.26 
562.54 146.90 3.46 
562.42 146.99 4.41 
563.24 146.89 -1.09 
563.43 147.07 -0.67 
563.18 147.03 1.06 
563.33 146.67 1.54 
563.13 146.71 2.48 
563.31 146.96 3.04 
563.30 147.14 3.94 
563.46 147.12 4.40 
564.07 146.77 -0.98 
564.05 147.08 -0.61 
564.10 146.74 0.53 
563.80 146.86 0.78 
563.98 146.97 1.86 
563.94 147.22 2.22 
563.78 146.98 3.39 
563.99 147.13 3.59 
563.94 146.96 4.22 
564.59 146.90 -0.91 
564.69 147.01 -0.56 
564.99 146.95 0.37 
565.00 146.97 0.99 
564.85 147.15 1.86 
564.40 147.36 2.27 
564.56 147.26 3.12 
564.89 147.11 3.99 
564.36 146.79 4.80 
565.21 146.92 -0.40 
565.36 146.67 0.38 
565.50 146.71 1.04 
565.59 147.00 1.66 
565.40 146.76 2.48 
565.52 146.80 3.14 
565.29 146.85 3.96 
565.31 146.83 4.29 
565.58 147.24 4.90 
565.86 147.10 -0.44 
565.71 146.89 0.41 
566.04 147.11 0.85 
566.08 147.06 1.41 
566.07 146.98 2.59 
566.13 147.24 3.09 
566.28 146.77 4.06 
566.25 146.70 4.59 
566.76 147.10 -0.36 
566.53 146.91 0.36 
566.81 146.88 1.16 
566.76 147.02 1.49 
566.81 146.94 2.66 
566.92 146.96 3.40 
566.42 147.33 4.03 
566.66 146.81 4.92 
566.66 147.14 5.76 
567.38 146.84 -0.26 
567.12 147.09 0.39 
567.56 147.06 1.02 
567.20 147.06 1.62 
567.31 146.98 2.64 
567.44 146.99 2.83 
567.36 146.97 4.05 
567.31 146.85 4.65 
567.26 146.73 5.24 
542.96 147.65 0.83 
543.49 147.60 4.02 
543.36 147.63 4.15 
549.65 147.68 -1.09 
549.56 147.40 -0.44 
549.54 147.65 0.22 
549.67 147.71 -1.46 
549.81 147.91 -1.02 
549.74 148.05 -0.57 
549.71 148.00 0.22 
549.71 147.79 0.82 
550.99 147.43 -0.87 
550.96 147.39 -0.34 
551.11 147.75 -0.85 
551.20 148.02 -0.30 
551.16 147.96 0.40 
552.01 147.46 -1.09 
551.98 147.43 -0.58 
554.02 147.56 -1.25 
554.32 147.75 -0.43 
554.26 147.67 0.48 
554.23 147.63 0.94 
554.16 147.55 1.85 
554.29 147.88 2.38 
554.45 147.68 2.78 
554.94 147.58 -1.04 
555.05 147.84 -0.29 
554.92 147.69 0.30 
554.96 147.71 1.05 
554.92 147.69 1.83 
554.88 147.65 2.36 
554.85 147.61 2.90 
555.07 147.59 3.78 
555.57 147.79 -1.22 
555.49 147.70 -0.34 
555.50 147.82 0.40 
555.25 147.78 1.02 
555.40 147.70 1.68 
555.61 147.42 2.52 
555.57 147.38 3.10 
555.45 147.99 4.02 
555.78 147.87 4.39 
556.13 147.59 -1.30 
556.04 147.56 -0.37 
556.00 147.51 0.24 
555.96 147.47 0.85 
556.24 148.07 1.53 
556.20 148.02 2.15 
556.17 147.98 2.78 
556.42 147.65 4.13 
556.05 147.85 4.66 
556.71 147.98 -0.33 
556.81 147.80 0.27 
556.62 147.88 0.94 
557.21 147.69 1.49 
556.80 147.50 2.61 
557.12 147.60 2.91 
557.07 147.55 3.62 
557.02 147.50 4.33 
556.97 147.45 5.05 
557.78 147.59 -0.46 
557.73 147.53 0.32 
557.67 147.45 1.10 
557.46 147.64 2.64 
558.30 147.51 -0.92 
558.59 147.69 -0.31 
558.52 147.71 0.25 
558.46 147.55 1.21 
558.40 147.48 1.97 
559.16 147.75 -0.99 
559.05 148.06 -0.68 
559.21 147.67 0.26 
559.09 147.72 1.02 
559.62 147.40 -1.67 
559.69 147.74 -0.86 
559.73 147.41 -0.34 
559.66 147.90 0.57 
559.81 147.80 0.84 
560.46 147.67 -0.91 
560.69 147.71 0.40 
560.30 147.37 0.91 
560.14 147.68 1.82 
561.50 147.46 -1.01 
561.42 147.89 -0.36 
561.14 147.75 0.29 
561.13 148.00 1.81 
562.18 147.70 -0.45 
561.65 147.61 0.10 
561.91 147.97 0.94 
562.00 147.35 1.85 
561.57 147.50 2.21 
562.42 147.39 -0.73 
562.59 147.46 0.28 
562.42 147.41 1.10 
563.11 147.92 -0.38 
563.46 147.84 0.12 
563.43 147.93 1.78 
563.28 147.58 4.00 
564.13 147.98 -0.48 
563.84 147.76 0.84 
563.83 147.71 1.58 
564.03 147.96 2.27 
564.04 147.83 4.27 
563.94 147.53 4.51 
564.53 147.45 -0.91 
564.80 147.85 -0.44 
564.79 147.45 0.87 
564.88 147.47 2.32 
564.74 147.59 3.24 
564.49 147.42 4.03 
564.87 147.67 4.41 
565.46 147.69 -0.39 
565.63 147.39 1.86 
565.41 147.46 2.14 
565.50 147.50 3.07 
565.63 147.46 3.56 
565.38 147.69 5.29 
566.26 147.80 -0.43 
566.19 147.74 0.35 
566.14 147.70 0.87 
566.28 147.65 1.68 
565.97 147.62 2.12 
566.27 147.39 2.83 
565.83 147.66 3.81 
566.37 147.65 5.36 
566.53 147.91 -0.39 
566.58 147.67 0.35 
566.53 147.85 0.95 
566.67 147.68 1.92 
566.81 147.64 2.16 
566.65 147.53 2.88 
566.51 147.93 3.50 
567.25 147.49 -0.67 
567.59 147.63 0.72 
567.35 147.84 1.71 
567.50 147.85 2.26 
567.40 147.63 2.95 
549.94 148.42 -1.33 
549.90 148.37 -0.56 
549.86 148.32 0.35 
550.05 148.52 0.81 
551.28 148.16 -1.15 
551.40 148.49 -0.61 
551.30 148.29 0.07 
552.34 148.23 -1.02 
552.31 148.20 -0.52 
552.29 148.17 -0.03 
552.51 148.61 -0.99 
552.48 148.58 -0.49 
554.51 148.17 -0.84 
554.48 148.13 -0.39 
554.42 148.49 0.33 
554.48 148.30 1.98 
554.27 148.32 2.26 
554.89 148.41 -1.04 
555.00 148.26 -0.37 
554.79 148.29 0.42 
554.76 148.25 0.91 
554.87 148.10 1.72 
554.85 148.54 2.44 
554.82 148.50 2.93 
555.71 148.41 -1.09 
555.50 148.48 -0.48 
555.54 148.38 0.18 
555.47 148.34 1.09 
555.51 148.60 1.67 
555.40 148.26 2.20 
555.30 148.60 3.07 
555.55 148.67 3.99 
556.36 148.70 -1.22 
556.07 148.20 -0.32 
556.32 148.15 0.29 
556.28 148.11 0.91 
556.57 148.72 1.61 
556.53 148.68 2.25 
556.49 148.64 2.88 
556.45 148.59 3.52 
556.06 148.45 4.51 
556.76 148.67 -1.51 
557.08 148.59 -0.28 
557.00 148.63 0.33 
557.00 148.50 1.01 
556.95 148.45 1.66 
556.91 148.40 2.31 
556.87 148.36 2.95 
556.83 148.31 3.60 
556.78 148.26 4.26 
556.74 148.21 4.91 
557.44 148.47 -1.48 
557.54 148.61 -1.42 
557.97 148.25 -0.16 
557.76 148.62 0.15 
557.71 148.57 0.87 
557.66 148.52 1.59 
557.61 148.47 2.32 
557.57 148.43 3.04 
557.61 148.41 3.53 
557.47 148.33 4.50 
557.42 148.28 5.23 
558.35 148.60 -0.39 
558.29 148.53 0.42 
558.23 148.46 1.22 
558.11 148.31 2.82 
558.05 148.24 3.62 
559.17 148.21 -1.26 
559.11 148.72 -0.24 
558.95 148.34 0.29 
559.21 148.32 1.22 
559.88 148.10 -0.93 
559.47 148.26 -0.64 
559.82 148.49 0.46 
559.96 148.45 0.83 
559.83 148.20 1.78 
560.22 148.30 -0.76 
560.26 148.10 -0.13 
560.44 148.64 0.85 
560.20 148.09 2.09 
561.42 148.28 -0.33 
561.14 148.21 0.75 
560.90 148.14 1.58 
561.84 148.62 -0.30 
561.94 148.34 0.31 
562.06 148.31 1.08 
562.58 148.29 -0.29 
562.59 148.50 0.05 
562.78 148.62 0.95 
563.44 148.59 -0.41 
563.18 148.39 0.36 
563.16 148.36 0.75 
563.30 148.48 1.69 
563.74 148.64 -0.89 
564.28 148.31 0.39 
563.75 148.38 1.39 
564.21 148.45 2.37 
564.29 148.29 3.34 
564.90 148.35 0.18 
564.85 148.31 0.87 
564.54 148.33 1.83 
565.57 148.62 -0.54 
565.50 148.56 0.23 
565.27 148.39 0.72 
565.40 148.46 1.63 
565.47 148.56 2.32 
565.11 148.16 3.18 
565.40 148.18 3.93 
565.94 148.31 -0.77 
566.34 148.52 -0.46 
566.13 148.20 0.48 
566.03 148.21 0.73 
566.25 148.44 1.91 
566.48 148.63 -0.32 
566.56 148.69 0.29 
566.95 148.45 0.83 
566.78 148.39 1.90 
566.54 148.22 2.68 
567.26 148.42 0.36 
567.27 148.47 0.78 
567.33 148.40 1.70 
567.38 148.55 1.95 
567.35 148.14 3.33 
550.20 148.78 -1.21 
550.29 148.99 -0.20 
550.27 148.97 0.23 
550.28 149.00 0.66 
550.38 149.29 -1.23 
550.34 149.24 -0.39 
550.31 149.20 0.33 
550.43 149.32 0.66 
551.58 148.97 -1.07 
551.64 149.18 -0.21 
551.57 148.86 0.28 
551.58 149.11 0.79 
552.68 148.98 -0.96 
552.82 149.33 -0.43 
552.79 149.30 0.06 
554.84 148.94 -0.77 
554.80 148.90 -0.30 
554.94 149.26 0.21 
554.87 149.17 1.16 
554.84 149.13 1.63 
554.77 149.05 2.58 
555.00 148.93 3.01 
555.20 148.94 3.48 
555.70 149.01 -0.89 
555.67 148.98 -0.47 
555.77 149.02 0.44 
555.68 149.13 0.92 
555.68 149.10 1.67 
555.65 149.07 2.09 
555.51 149.13 3.17 
555.48 149.09 3.74 
556.29 149.27 -1.46 
556.25 149.23 -1.02 
556.21 149.19 -0.58 
556.13 149.10 0.31 
556.07 149.36 1.03 
556.14 149.31 1.86 
556.11 149.27 2.46 
556.07 149.22 3.06 
556.03 149.18 3.66 
556.36 149.05 4.64 
557.20 148.96 -1.48 
556.83 149.25 -1.02 
556.69 148.86 -0.28 
556.63 149.36 0.37 
556.59 149.32 0.98 
556.93 149.34 1.69 
557.28 149.11 2.41 
556.85 149.25 2.98 
556.81 149.20 3.63 
556.77 149.16 4.28 
556.73 149.11 4.93 
557.46 149.00 -1.39 
557.45 149.30 -0.23 
557.81 148.82 0.26 
557.88 149.14 1.04 
557.32 149.16 1.75 
557.99 149.24 3.93 
557.94 149.19 4.68 
558.36 148.90 -0.53 
558.48 149.38 0.52 
558.19 149.44 0.96 
558.14 149.39 1.70 
558.09 149.34 2.44 
558.04 149.29 3.18 
558.93 148.81 -0.50 
559.34 148.78 0.22 
558.73 149.29 0.91 
559.51 148.91 -0.46 
559.54 149.09 0.30 
559.82 149.16 0.66 
560.67 149.01 -0.37 
560.62 149.38 0.28 
560.62 149.45 1.05 
561.25 148.85 -0.33 
560.99 149.16 0.39 
561.89 149.08 1.04 
562.37 149.13 -0.86 
563.05 149.14 -0.22 
562.57 148.95 0.33 
562.34 149.21 0.80 
563.15 149.23 -0.77 
563.41 149.04 -0.39 
563.05 148.97 0.04 
563.18 149.21 0.87 
563.29 148.94 1.47 
563.91 148.89 -0.67 
563.91 148.89 -0.67 
563.70 149.31 0.69 
564.10 149.29 2.35 
564.47 148.78 -0.79 
564.72 148.92 -0.58 
564.52 149.04 0.44 
564.35 148.66 0.90 
564.71 149.19 1.66 
565.23 149.15 -0.38 
565.37 148.86 0.24 
565.43 149.14 1.08 
565.02 149.37 1.66 
565.49 149.30 2.57 
565.92 149.28 -0.59 
565.93 149.24 0.84 
566.31 149.00 1.66 
566.06 149.22 2.14 
565.71 148.84 2.91 
566.50 149.17 0.36 
566.72 148.94 1.04 
566.69 149.07 1.83 
566.65 149.03 2.32 
566.68 149.39 3.06 
567.60 149.21 -0.49 
567.59 148.95 0.69 
567.48 149.00 1.79 
567.17 149.40 2.11 
550.64 149.82 -1.17 
550.66 149.90 -0.36 
550.57 149.61 0.25 
550.61 149.84 0.67 
552.00 149.87 -0.80 
551.97 150.00 -0.15 
551.95 149.98 0.18 
551.89 149.91 1.00 
553.09 149.90 -0.88 
553.06 149.88 -0.39 
553.01 149.82 0.59 
555.07 149.79 -0.96 
555.04 149.75 -0.48 
555.11 149.66 0.26 
555.04 149.58 1.22 
555.01 149.53 1.70 
555.09 149.84 2.24 
555.68 150.13 -0.89 
555.65 150.09 -0.39 
555.63 149.69 0.31 
555.60 149.65 0.85 
555.51 149.91 1.64 
555.49 149.53 2.48 
555.41 149.78 3.17 
555.72 149.62 3.84 
556.29 149.72 -0.97 
556.17 149.72 -0.33 
556.26 149.77 0.23 
556.25 149.93 1.00 
556.28 149.81 1.70 
556.18 149.91 2.46 
556.14 149.87 3.04 
556.32 149.79 3.77 
556.07 149.79 4.22 
556.63 150.03 -0.91 
557.05 149.47 -0.23 
556.94 150.00 0.43 
556.90 149.95 1.05 
557.29 150.05 1.78 
556.82 149.86 2.29 
556.78 149.82 2.91 
556.75 149.77 3.53 
557.12 149.86 4.42 
557.08 149.82 5.09 
557.32 149.49 -0.95 
557.83 150.04 -0.17 
557.37 150.14 0.47 
557.74 149.88 0.85 
557.70 149.89 1.85 
557.66 149.85 2.52 
557.61 149.79 3.20 
557.57 149.74 3.87 
557.52 149.70 4.55 
557.48 149.64 5.24 
558.62 149.59 0.30 
558.99 149.75 -0.77 
559.38 149.75 -0.72 
558.89 149.59 0.52 
558.83 149.52 1.34 
559.29 149.54 1.79 
559.75 149.77 -0.68 
559.62 149.83 0.31 
559.95 149.80 0.66 
559.57 149.56 1.45 
560.38 150.05 -0.61 
560.64 149.65 0.52 
560.43 149.73 0.95 
560.29 150.16 4.21 
561.22 149.91 0.32 
561.47 150.15 0.91 
561.58 149.61 -0.78 
562.10 149.55 -0.72 
561.65 149.73 1.00 
561.98 149.89 1.35 
562.30 150.00 -0.29 
562.76 149.87 0.63 
562.29 149.67 1.07 
563.49 150.02 1.28 
563.17 149.89 1.56 
564.23 149.66 -0.72 
564.15 149.49 0.46 
564.02 149.61 0.98 
564.59 149.77 -0.66 
564.43 149.92 0.50 
564.87 149.93 2.90 
565.53 149.98 -0.75 
565.02 149.55 0.69 
565.38 149.56 1.77 
565.52 149.61 2.89 
565.80 150.10 0.93 
566.08 149.29 1.43 
566.27 149.81 2.40 
566.87 149.88 -0.47 
566.64 149.89 0.68 
566.64 149.89 0.68 
566.44 150.11 2.67 
567.40 150.12 -0.25 
567.47 150.07 1.00 
567.18 149.47 2.37 
550.98 150.52 -0.77 
550.96 150.50 -0.34 
550.95 150.44 0.41 
550.93 150.41 0.81 
551.07 150.75 -0.86 
551.05 150.72 -0.43 
551.13 150.81 0.02 
551.08 150.76 0.82 
552.17 150.46 -0.91 
552.20 150.44 -0.36 
552.26 150.76 0.23 
552.07 150.34 0.69 
552.08 150.29 1.55 
552.55 150.57 -1.01 
552.53 150.54 -0.57 
553.05 150.71 0.92 
553.36 150.50 -0.82 
553.34 150.48 -0.33 
553.32 150.45 0.15 
553.27 150.39 1.12 
555.27 150.18 -1.39 
555.85 150.55 -0.34 
555.82 150.51 0.17 
555.80 150.19 0.92 
555.35 150.57 2.01 
555.68 150.33 2.23 
555.90 150.55 3.23 
555.86 150.50 3.79 
556.51 150.31 -0.81 
556.49 150.52 -0.28 
556.50 150.41 0.31 
556.39 150.41 1.00 
556.46 150.35 1.51 
556.30 150.30 2.29 
556.05 150.38 2.84 
556.38 150.41 3.74 
556.34 150.37 4.34 
556.84 150.73 -0.86 
556.80 150.69 -0.42 
556.84 150.68 0.19 
556.81 150.64 0.81 
556.64 150.48 1.81 
556.64 150.75 2.47 
557.11 150.47 3.01 
556.62 150.42 3.89 
557.02 150.38 4.28 
556.98 150.34 4.92 
557.85 150.76 -0.67 
557.70 150.83 1.21 
557.66 150.79 1.88 
557.62 150.83 2.74 
557.57 150.69 3.22 
557.96 150.51 4.02 
557.49 150.60 4.57 
557.44 150.55 5.25 
558.24 150.81 -0.12 
558.19 150.76 0.57 
558.15 150.71 1.26 
558.10 150.66 1.95 
558.05 150.61 2.64 
558.46 150.62 3.39 
559.25 150.22 0.39 
559.84 150.77 0.51 
560.01 150.55 0.79 
559.98 150.37 4.05 
559.63 150.75 4.26 
559.91 150.29 4.87 
560.36 150.79 -0.90 
560.69 150.18 -0.57 
560.25 150.70 0.75 
561.30 150.69 -0.83 
561.14 150.36 -0.52 
561.46 150.33 0.35 
561.34 150.56 1.21 
562.21 150.51 1.40 
562.72 150.41 -0.75 
562.55 150.63 0.67 
562.21 150.51 1.40 
563.46 150.29 -0.70 
563.41 150.53 1.33 
563.31 150.55 1.62 
563.36 150.31 2.25 
564.19 150.17 -0.65 
563.98 150.30 1.03 
564.15 150.58 1.49 
564.58 150.62 0.55 
565.05 150.26 -0.72 
565.45 150.55 0.34 
565.14 150.27 1.20 
565.44 150.41 1.65 
566.18 150.32 1.23 
566.18 150.73 2.39 
566.71 150.32 -0.34 
566.87 150.22 0.73 
566.84 150.57 2.73 
567.29 150.45 -0.39 
567.33 150.25 0.51 
550.06 150.90 1.25 
550.77 151.56 -0.81 
550.82 151.51 -0.42 
550.85 151.46 0.24 
550.55 151.37 0.92 
550.52 151.36 1.67 
550.52 151.52 2.34 
550.49 151.46 3.39 
551.32 151.22 -1.12 
551.34 151.28 -0.47 
551.40 151.17 0.41 
551.08 151.07 0.96 
552.37 151.37 -0.99 
552.41 151.31 -0.36 
552.41 151.14 0.26 
552.34 151.10 1.18 
552.30 150.88 1.59 
552.46 151.09 -1.05 
552.40 151.06 -0.38 
552.98 151.44 0.47 
552.85 150.97 0.93 
552.79 151.37 1.71 
553.27 151.16 0.40 
553.54 151.19 0.84 
553.31 151.35 1.56 
554.10 151.35 0.47 
555.72 151.16 -0.79 
555.84 151.46 -0.27 
555.65 151.08 0.16 
555.78 151.38 0.67 
555.51 150.91 2.05 
555.68 151.26 2.09 
556.52 151.08 -0.59 
556.33 151.32 0.48 
556.41 150.95 1.15 
556.26 151.23 1.62 
556.22 151.19 2.19 
556.39 151.51 2.97 
556.53 151.36 3.59 
556.50 151.32 4.19 
556.97 151.44 -0.92 
556.93 151.33 -0.37 
556.89 151.29 0.23 
556.85 151.24 0.84 
556.88 151.16 1.64 
557.01 151.33 2.43 
556.95 151.11 3.00 
556.66 151.02 3.86 
556.63 150.98 4.47 
557.69 151.20 -0.96 
557.66 151.32 -0.09 
557.74 150.88 0.54 
557.58 151.23 1.19 
557.54 151.18 1.83 
557.69 151.22 2.41 
557.96 151.42 3.34 
557.84 151.52 4.13 
557.37 150.99 4.41 
557.33 150.95 5.06 
558.40 151.39 -0.87 
558.40 150.92 -0.61 
558.61 151.57 0.65 
558.49 151.47 1.91 
558.18 151.52 2.15 
558.47 151.41 2.76 
558.42 151.36 3.46 
558.37 151.31 4.17 
558.33 151.25 4.88 
558.78 151.45 -0.83 
558.79 151.02 -0.57 
559.16 151.53 2.03 
559.09 151.16 2.70 
559.00 151.23 3.48 
558.87 151.53 4.17 
559.43 151.44 -0.96 
560.10 150.87 -0.45 
560.49 150.93 -0.41 
560.18 151.37 1.14 
560.33 151.39 2.81 
560.55 151.39 5.11 
560.48 151.30 5.96 
561.24 151.09 -0.34 
561.17 151.44 1.58 
561.01 151.44 2.07 
561.81 151.20 -0.28 
562.20 151.17 1.73 
561.63 151.56 2.12 
562.73 151.10 -0.63 
562.64 151.15 0.78 
562.87 151.02 1.39 
563.19 151.38 -0.57 
563.42 150.86 1.64 
563.55 151.05 2.32 
564.27 151.46 1.53 
564.12 151.04 2.73 
564.30 151.28 3.15 
564.36 151.30 1.54 
564.69 151.37 2.26 
565.46 151.06 2.19 
565.79 150.95 -0.44 
566.05 150.96 0.39 
565.71 150.93 1.58 
566.51 151.48 -0.33 
566.70 150.97 2.63 
567.59 151.03 -0.23 
549.49 151.72 -0.68 
549.59 151.91 0.48 
549.36 152.24 0.86 
550.16 151.76 -0.94 
549.98 151.96 -0.31 
550.08 151.88 0.19 
550.05 151.86 0.81 
550.05 151.73 1.59 
550.66 152.05 -1.02 
550.66 152.01 -0.37 
550.66 151.98 0.27 
550.55 151.58 1.30 
550.68 151.73 1.37 
551.66 151.64 -0.86 
551.20 151.68 -0.31 
551.23 151.64 0.33 
551.02 151.75 1.37 
551.05 151.73 2.37 
551.02 151.69 3.36 
551.90 152.18 0.30 
552.25 152.25 0.87 
553.08 151.90 -0.88 
552.88 151.83 0.28 
552.69 152.06 0.64 
553.45 151.58 0.41 
553.45 151.86 1.20 
553.43 151.91 1.61 
554.21 151.84 0.73 
554.04 152.14 1.72 
553.83 152.15 2.16 
554.67 151.77 0.45 
554.63 152.20 1.21 
554.60 152.01 1.69 
555.71 152.07 1.05 
555.84 151.60 2.13 
556.16 152.15 -0.19 
555.97 151.76 0.24 
556.19 152.07 1.08 
556.00 151.94 2.18 
556.48 151.60 2.84 
557.29 152.05 -0.85 
557.07 151.81 -0.38 
557.15 151.77 0.31 
557.15 151.89 0.87 
557.06 151.65 1.63 
557.29 151.69 2.50 
557.02 152.16 3.10 
556.97 152.13 3.65 
557.42 152.06 -0.50 
557.48 151.91 0.26 
557.32 151.94 0.85 
557.44 152.20 1.81 
557.34 152.08 2.36 
557.80 151.79 3.24 
557.73 152.24 3.78 
557.72 151.70 4.55 
557.68 151.65 5.22 
558.52 152.07 -0.62 
558.14 151.80 1.18 
558.02 151.89 2.81 
558.33 151.69 3.50 
558.22 151.86 4.86 
559.15 151.77 -0.41 
558.94 151.91 1.25 
558.97 151.84 1.98 
558.85 152.19 2.60 
558.77 152.25 3.35 
558.81 152.14 4.33 
558.76 152.08 5.06 
560.02 151.99 -0.66 
560.06 151.59 2.47 
559.67 151.77 2.81 
560.72 152.11 -0.58 
560.76 151.80 2.55 
560.18 151.60 2.79 
560.77 151.61 5.28 
561.10 152.10 -0.54 
561.47 151.95 2.62 
560.94 151.67 2.88 
561.33 152.02 4.41 
562.01 152.13 -0.58 
562.17 151.89 2.67 
561.57 151.77 2.94 
562.85 152.03 -0.34 
562.22 151.67 1.31 
562.26 152.19 2.22 
562.68 152.25 4.54 
563.15 152.12 -0.31 
563.42 151.60 2.31 
563.56 151.89 3.32 
563.85 151.85 2.38 
564.51 151.73 -0.40 
564.68 151.92 1.59 
564.92 151.64 2.37 
566.76 152.16 -0.27 
548.03 152.92 1.29 
548.80 152.63 -0.79 
548.73 152.79 -0.42 
548.77 152.73 0.36 
548.72 152.58 1.02 
549.01 152.52 -0.79 
549.29 152.53 -0.42 
549.24 152.67 0.38 
549.15 152.36 0.84 
550.13 152.31 -1.04 
549.98 152.27 -0.55 
550.00 152.31 0.21 
551.20 152.67 0.98 
551.56 152.40 1.42 
551.53 152.36 2.41 
552.20 152.44 0.58 
551.97 152.47 0.99 
551.72 152.93 1.46 
552.82 152.96 0.36 
552.96 152.66 0.91 
552.93 152.62 1.35 
553.37 152.60 0.60 
553.35 152.60 0.98 
553.11 152.88 1.37 
554.18 152.31 -1.15 
553.86 152.90 0.08 
554.05 152.52 1.34 
554.00 152.88 1.38 
554.17 152.47 2.23 
554.79 152.58 0.59 
555.56 152.67 0.59 
555.86 152.43 3.69 
556.52 152.87 -0.58 
556.29 152.45 0.32 
556.42 152.75 0.84 
556.36 152.91 1.52 
556.12 152.24 2.69 
556.42 152.83 3.65 
556.60 152.70 4.17 
557.27 152.43 0.14 
556.70 152.83 1.20 
557.14 152.76 1.84 
556.85 152.66 2.63 
556.69 152.37 3.24 
556.96 152.70 4.32 
557.58 152.53 -0.49 
557.56 152.61 0.10 
557.70 152.65 0.96 
557.59 152.67 1.79 
557.71 152.56 2.32 
557.74 152.52 3.12 
557.73 152.24 3.78 
557.68 152.47 4.20 
557.51 152.49 4.97 
558.45 152.34 2.07 
558.39 152.58 3.32 
558.21 152.31 3.62 
558.22 152.69 4.26 
558.15 152.37 5.25 
559.40 152.33 -0.52 
558.76 152.66 2.05 
559.41 152.37 2.94 
558.90 152.39 3.52 
558.80 152.34 4.17 
559.23 152.86 5.80 
559.86 152.52 -0.46 
559.84 152.60 0.75 
559.59 152.91 1.56 
560.08 152.45 2.25 
559.79 152.51 3.07 
559.87 152.74 4.49 
559.62 152.86 4.85 
560.21 152.62 -0.42 
560.35 152.85 1.84 
560.20 152.61 3.76 
561.31 152.73 -0.30 
560.97 152.54 0.04 
560.84 152.37 1.71 
561.44 152.44 4.64 
562.10 152.65 -0.22 
561.66 152.88 0.11 
561.99 152.40 4.51 
562.10 152.83 4.98 
562.56 152.44 -0.38 
562.37 152.92 0.17 
563.08 152.94 -0.11 
563.10 152.81 0.30 
564.04 152.41 -0.20 
563.68 152.74 0.34 
564.25 152.35 3.22 
564.34 152.51 -0.16 
564.45 152.64 0.33 
564.38 152.32 1.59 
564.90 152.67 2.45 
565.42 153.05 1.69 
566.94 152.32 -0.24 
546.76 153.18 -1.21 
546.75 153.65 0.32 
547.43 153.25 -1.11 
547.44 153.38 -0.40 
547.40 153.61 -0.03 
547.98 153.50 -1.01 
547.98 153.47 -0.36 
547.82 153.40 -0.05 
547.55 153.04 0.66 
548.20 153.28 -1.12 
548.21 153.23 -0.33 
548.21 153.33 0.28 
548.21 153.31 0.71 
551.50 153.06 0.17 
551.70 153.23 2.03 
552.24 153.00 0.57 
552.35 153.51 0.90 
552.04 153.03 1.46 
552.01 152.99 2.46 
552.91 153.24 0.30 
552.76 153.39 1.40 
552.49 153.62 2.50 
553.76 153.66 -0.53 
553.46 153.39 0.15 
553.24 153.22 1.05 
553.73 153.31 1.43 
553.92 153.45 0.48 
555.13 153.48 1.68 
555.88 153.39 0.58 
555.42 153.16 1.30 
555.74 153.65 1.87 
555.43 153.63 2.13 
556.20 153.25 -0.54 
556.17 153.59 0.64 
556.27 153.35 0.88 
556.35 153.41 2.36 
556.49 153.38 2.95 
556.33 153.12 3.69 
556.71 153.32 -0.50 
556.70 153.08 0.17 
557.21 153.11 1.59 
557.04 153.35 2.17 
557.07 153.40 3.45 
557.07 153.40 3.45 
557.10 153.61 4.44 
556.62 153.65 5.18 
557.78 153.25 -0.42 
557.93 153.06 0.55 
557.83 153.11 0.95 
557.80 153.07 1.40 
557.40 153.65 2.23 
557.97 153.57 2.80 
557.92 153.22 4.44 
558.20 153.23 -0.13 
558.16 153.18 0.35 
558.13 153.13 0.82 
558.14 153.65 1.76 
558.53 153.59 2.48 
558.22 153.25 2.88 
558.42 153.59 4.23 
558.41 153.62 5.06 
558.52 153.57 5.92 
559.35 153.11 -0.30 
558.87 153.08 0.73 
559.23 153.15 1.85 
558.94 153.35 3.31 
559.08 153.35 3.53 
559.23 153.52 4.44 
558.96 153.20 5.16 
558.90 153.43 5.64 
559.86 153.04 -0.27 
559.56 153.53 0.08 
559.70 153.08 1.54 
559.71 153.51 2.20 
559.54 153.51 3.88 
559.79 153.58 4.48 
559.78 153.29 5.17 
559.74 153.18 5.89 
560.36 152.97 -0.23 
560.72 153.48 0.15 
560.12 153.38 1.60 
560.61 153.00 2.27 
560.17 153.50 2.97 
560.42 153.63 3.78 
560.39 153.34 4.62 
560.36 153.31 5.20 
560.33 153.12 5.90 
561.33 153.25 0.19 
560.81 153.19 1.83 
561.35 153.48 2.30 
561.07 153.56 3.08 
561.15 153.57 6.44 
561.93 153.02 0.22 
561.52 153.65 1.92 
561.94 153.28 5.54 
562.35 153.26 5.14 
562.65 153.27 5.60 
563.44 153.06 -0.34 
563.74 153.06 -0.24 
563.73 153.14 -0.03 
564.34 153.61 -0.12 
565.51 153.00 0.89 
565.42 153.05 1.69 
565.21 153.27 2.50 
566.71 153.57 0.17 
567.27 153.40 0.20 
544.65 154.32 -0.61 
545.34 154.36 -0.52 
544.91 153.94 0.21 
545.87 154.08 -0.39 
545.95 153.91 0.54 
545.97 154.27 0.66 
546.45 154.11 -0.75 
546.46 154.08 -0.29 
546.65 154.08 0.39 
546.35 154.22 0.79 
547.22 153.86 -0.81 
547.08 153.91 -0.46 
547.13 154.06 0.00 
547.73 154.35 -1.09 
547.85 154.19 -0.82 
548.03 154.30 0.36 
548.51 153.79 -1.11 
548.45 153.85 0.20 
551.63 153.77 1.98 
552.16 154.12 0.53 
552.28 153.93 0.98 
552.93 154.07 -1.02 
553.10 154.10 -0.54 
552.92 154.04 0.23 
552.73 153.93 0.91 
552.89 153.81 1.87 
553.38 153.73 -0.79 
553.23 153.82 -0.41 
553.23 153.90 0.28 
553.59 153.93 0.52 
553.75 153.93 1.39 
553.97 154.05 -0.35 
553.86 153.99 0.38 
553.99 154.16 1.08 
554.26 154.15 1.52 
554.56 153.75 -0.32 
555.19 154.09 0.56 
554.83 154.18 0.80 
554.58 154.24 1.42 
555.45 154.30 0.77 
555.43 153.96 1.39 
556.47 154.30 -0.30 
555.99 153.85 0.60 
556.16 153.88 1.05 
556.44 154.23 1.35 
556.32 154.05 2.37 
556.21 153.68 3.07 
556.57 153.99 4.01 
556.03 153.88 4.50 
556.57 154.29 5.15 
556.95 154.08 -0.30 
556.68 154.01 1.06 
557.05 154.14 1.45 
556.75 154.00 2.44 
557.27 154.25 3.16 
556.98 154.09 3.89 
556.68 154.12 4.43 
557.26 153.84 5.07 
557.60 154.22 -0.21 
557.43 154.18 -0.01 
557.76 154.22 0.80 
557.83 153.93 1.72 
557.76 154.29 2.19 
557.77 154.03 3.04 
557.72 153.87 4.08 
557.89 154.03 5.22 
558.06 154.13 -0.22 
558.33 153.80 0.00 
558.45 153.82 1.00 
558.46 153.94 2.01 
558.07 153.71 2.41 
558.23 153.91 3.08 
558.51 154.31 3.89 
558.03 153.90 4.53 
558.41 153.62 5.06 
558.92 153.82 0.04 
558.90 153.72 0.03 
559.41 154.14 0.83 
558.74 154.07 1.79 
559.08 153.89 2.20 
558.96 153.72 3.03 
559.19 153.86 3.86 
559.14 153.86 4.63 
558.84 154.02 5.16 
559.50 153.75 0.08 
559.69 154.03 1.85 
559.93 153.77 2.30 
559.64 153.96 3.13 
559.83 153.96 3.53 
559.92 154.30 5.14 
560.63 153.82 3.21 
560.28 154.33 4.63 
560.23 153.72 6.22 
561.26 154.29 1.31 
561.05 154.24 1.64 
561.28 154.08 2.55 
561.15 154.15 3.07 
560.99 153.78 3.84 
560.82 154.33 5.42 
561.22 153.87 5.57 
561.43 153.84 6.31 
561.53 154.05 -0.14 
561.66 153.93 2.42 
562.24 153.82 1.99 
562.31 153.95 2.54 
563.47 153.71 -0.30 
564.22 154.33 0.07 
564.27 153.92 4.00 
564.25 154.34 4.34 
563.81 153.88 5.07 
564.60 153.99 3.42 
565.55 154.17 0.13 
565.68 153.89 1.72 
565.54 153.99 2.57 
565.38 154.08 3.40 
566.31 154.17 0.01 
567.21 153.96 0.21 
544.00 155.06 -0.38 
543.98 155.05 0.36 
543.96 155.04 0.95 
543.89 154.66 1.72 
544.31 154.93 -0.68 
544.24 154.92 0.73 
544.18 154.91 1.79 
544.17 154.91 2.14 
545.26 154.78 -1.02 
545.16 154.83 -0.25 
545.11 154.92 0.49 
545.04 154.94 0.83 
544.86 154.95 1.47 
545.77 154.81 -0.99 
546.08 154.59 -0.58 
545.68 154.56 0.46 
545.69 154.55 0.73 
546.38 154.70 -0.81 
546.79 154.86 -0.31 
546.25 154.79 0.16 
546.96 154.60 -1.04 
547.30 154.83 -0.41 
547.16 154.83 0.05 
547.72 154.65 -0.17 
547.92 154.65 0.13 
548.37 154.74 -0.78 
548.42 154.81 -0.43 
548.32 154.73 0.08 
549.22 154.82 0.10 
552.23 154.95 0.32 
552.25 154.60 0.91 
553.10 154.43 -0.41 
552.91 154.60 0.42 
553.15 154.39 -0.08 
553.52 154.97 0.60 
553.59 154.91 0.73 
553.56 154.52 1.37 
553.38 154.81 4.60 
553.35 154.77 5.60 
553.88 154.37 -0.93 
554.28 154.57 0.51 
554.21 154.73 1.00 
554.31 154.54 1.55 
554.33 154.45 2.40 
554.57 154.99 -0.11 
554.62 154.86 0.45 
554.71 154.86 1.05 
554.80 154.73 1.56 
555.70 154.58 0.82 
555.72 154.94 2.03 
555.81 154.68 2.65 
555.94 154.56 1.92 
556.81 154.62 2.35 
556.66 154.38 3.79 
557.78 154.45 -0.13 
557.82 154.59 1.00 
557.36 154.82 2.06 
557.94 154.44 3.55 
557.58 154.44 5.07 
558.58 154.98 -0.28 
558.56 154.53 0.53 
558.28 154.83 1.30 
558.56 154.80 1.53 
558.59 154.57 2.36 
558.60 154.71 3.60 
558.86 154.78 1.68 
559.11 154.95 2.61 
558.91 154.48 2.96 
558.81 154.61 3.91 
558.71 154.87 4.46 
559.59 154.76 0.90 
559.83 154.77 1.83 
559.91 154.82 2.13 
559.76 154.49 3.20 
559.91 155.02 3.81 
559.55 154.92 4.34 
559.77 154.69 5.33 
560.50 154.99 0.96 
560.44 154.82 1.68 
560.12 154.37 2.31 
560.61 154.45 3.06 
560.31 154.61 4.04 
561.11 154.57 1.68 
561.04 154.61 2.53 
560.85 154.75 3.33 
561.11 154.47 3.80 
560.83 154.76 4.73 
560.82 154.50 5.62 
561.53 154.53 1.71 
561.77 154.59 2.44 
561.60 154.60 3.34 
562.83 154.48 -0.05 
563.25 154.98 -0.26 
563.41 154.59 0.04 
564.63 154.97 -0.04 
565.10 154.84 -0.13 
565.48 154.56 -0.02 
565.13 154.43 3.46 
565.96 154.40 -0.11 
567.19 154.42 0.20 
543.11 155.51 -0.35 
542.99 155.59 0.11 
542.81 155.66 0.84 
543.06 155.51 1.43 
543.32 155.41 -0.82 
543.70 155.61 -0.29 
543.39 155.52 0.51 
543.71 155.56 0.78 
543.36 155.35 1.67 
543.75 155.13 2.08 
544.33 155.66 -0.96 
544.49 155.75 -0.63 
544.39 155.30 0.43 
544.39 155.28 1.02 
545.12 155.12 -0.96 
544.94 155.20 -0.73 
544.76 155.53 -0.03 
545.74 155.33 -0.78 
545.88 155.27 -0.47 
545.79 155.10 -0.03 
546.49 155.38 -1.02 
546.61 155.32 -0.51 
546.76 155.27 0.15 
547.14 155.49 -0.77 
547.06 155.39 -0.26 
547.25 155.31 -0.05 
547.83 155.19 -0.76 
547.84 155.64 -0.47 
547.87 155.57 0.09 
548.32 155.41 -0.24 
549.05 155.23 -0.36 
551.65 155.47 0.57 
552.22 155.35 -0.66 
552.05 155.19 0.35 
552.40 155.35 1.32 
552.25 155.67 1.37 
552.56 155.72 -0.60 
553.79 155.09 0.10 
553.67 155.27 0.75 
553.43 155.44 4.76 
554.07 155.71 -0.33 
554.13 155.30 0.75 
553.96 155.42 0.77 
554.00 155.63 1.66 
553.84 155.54 3.55 
553.89 155.50 4.67 
554.84 155.73 -0.38 
554.81 155.19 0.07 
554.60 155.31 1.03 
555.01 155.36 1.63 
555.70 155.75 -0.34 
555.59 155.28 1.01 
555.39 155.55 1.65 
556.47 155.57 -0.37 
555.99 155.49 1.98 
557.01 155.59 2.31 
557.52 155.31 -0.32 
557.64 155.16 1.62 
558.27 155.66 -0.20 
558.63 155.26 1.24 
558.62 155.23 1.69 
558.22 155.42 2.36 
559.15 155.51 -0.16 
558.90 155.74 0.62 
559.12 155.19 1.27 
559.01 155.09 1.37 
