# .PCD v0.7 - Point Cloud Data file format
VERSION 0.7
FIELDS x y z
SIZE 4 4 4
TYPE F F F
COUNT 1 1 1
WIDTH 59
HEIGHT 1
VIEWPOINT 0 0 0 1 0 0 0
POINTS 59
DATA ascii
564.877320 -36.224266 -3.766742
543.567020 -21.977875 -3.028150
543.612000 -22.031563 -2.991342
544.666440 -31.537712 -3.332997
544.680110 -31.545025 -2.245510
544.694760 -31.547482 -1.155961
544.653930 -31.194489 -0.280727
545.183170 -31.150291 -1.402078
545.196590 -31.131966 -0.368640
542.913020 -30.073116 -3.323637
542.925660 -30.076378 -2.303898
542.938600 -30.071037 -1.281799
542.951480 -30.068008 -0.256723
543.599730 -30.036236 -1.331477
543.612430 -30.019615 -0.312803
565.399480 -36.909286 -3.765479
567.418700 -38.455242 -3.752623
566.539670 -38.154045 -3.760384
565.917050 -37.589851 -3.763905
543.318790 -22.427692 -4.216378
543.931090 -25.513115 -4.215937
544.116150 -22.444187 -4.158202
544.156620 -22.333794 -3.066829
545.884460 -23.208683 -4.148093
544.379940 -22.450851 -4.158122
543.597470 -22.058521 -4.162295
545.880000 -23.201157 -3.059231
544.375980 -22.443611 -3.067605
545.876950 -23.193790 -1.968975
543.572450 -21.986156 -4.117019
542.787050 -21.609447 -4.123799
555.449220 -35.306641 -3.935289
562.531620 -39.152111 -3.795296
560.987060 -39.207394 -3.820977
554.847600 -36.952850 -3.934862
559.524960 -39.257149 -3.844998
558.428340 -39.078083 -3.864386
557.448670 -38.839195 -3.882016
556.493230 -38.607712 -3.898900
555.561040 -38.383095 -3.915046
554.659610 -38.157555 -3.930459
542.781740 -21.601330 -3.034655
543.560550 -21.968479 -1.937818
542.776610 -21.592796 -1.944105
543.619140 -22.042061 -4.080902
542.834170 -21.665070 -4.088916
542.827150 -21.654755 -2.999405
542.891600 -21.687492 -4.039603
542.884520 -21.677071 -2.949482
543.771480 -25.844765 -4.289755
544.279420 -26.546383 -4.282481
543.850280 -25.944103 -4.283462
543.105160 -25.562546 -4.287618
544.945800 -27.225773 -4.273283
545.293460 -28.095943 -4.267390
543.947140 -27.176109 -4.277409
542.970830 -29.670959 -1.387632
542.965940 -29.667694 -0.423035
549.764160 -33.482586 -4.002414
