# .PCD v0.7 - Point Cloud Data file format
VERSION 0.7
FIELDS x y z
SIZE 4 4 4
TYPE F F F
COUNT 1 1 1
WIDTH 2180
HEIGHT 1
VIEWPOINT 0 0 0 1 0 0 0
POINTS 2180
DATA ascii
543.13 60.97 -2.84 
542.64 60.69 -2.18 
543.06 60.87 -1.39 
542.89 60.73 -0.81 
542.95 60.82 -0.13 
543.11 60.69 0.31 
542.99 60.88 1.26 
543.05 60.59 2.02 
543.70 60.73 -2.83 
543.88 60.49 -2.53 
543.69 60.56 -1.08 
543.53 61.16 -0.15 
543.42 61.01 0.38 
543.40 60.77 1.32 
543.80 60.73 1.84 
543.63 60.87 3.75 
544.22 60.79 -2.81 
544.60 60.61 -2.16 
544.48 61.01 -1.31 
544.60 60.88 -0.92 
544.30 60.99 -0.09 
544.34 60.71 0.66 
544.31 60.68 1.35 
544.05 60.71 3.47 
545.20 60.76 -2.86 
545.17 60.90 -2.38 
545.17 60.91 -1.59 
544.98 61.04 -0.69 
544.72 60.74 -0.40 
545.13 60.61 0.38 
545.82 60.84 -2.72 
546.16 60.57 -2.33 
545.58 60.71 -1.64 
545.71 60.93 -0.85 
545.69 60.70 -0.22 
546.50 60.56 -2.78 
546.20 60.72 -2.17 
546.45 60.86 -1.40 
546.45 60.69 -1.04 
546.51 60.77 -0.13 
546.21 60.78 0.43 
546.58 61.01 2.22 
547.18 60.53 -2.11 
547.09 60.73 -1.55 
547.15 60.76 -0.79 
547.24 61.04 -0.43 
547.40 61.12 0.40 
547.12 60.87 2.30 
547.33 61.07 3.05 
546.84 60.86 3.80 
547.72 60.76 -2.22 
547.93 60.48 -0.93 
547.88 60.90 -0.51 
547.58 60.95 2.28 
548.68 60.54 -2.43 
548.33 60.80 2.97 
548.41 60.99 3.00 
549.77 60.74 -2.35 
552.34 60.66 -2.31 
552.56 60.66 -1.79 
553.24 60.62 -2.05 
554.87 60.90 -0.03 
555.87 61.14 -1.14 
556.29 60.99 -1.97 
556.13 60.64 -1.26 
556.57 60.56 -0.71 
556.81 60.94 -1.31 
557.20 60.90 0.61 
557.99 60.89 -2.01 
557.77 60.93 -1.82 
557.70 60.63 -1.17 
557.63 60.88 1.09 
557.63 60.88 1.09 
558.47 60.70 -2.08 
558.38 60.67 -1.59 
558.32 60.74 -0.88 
558.13 61.13 0.49 
559.09 60.53 -1.99 
559.07 61.03 -1.74 
558.71 61.13 -1.02 
558.78 61.00 0.78 
558.97 60.65 1.47 
559.77 60.54 -1.61 
559.65 60.70 -0.83 
559.70 60.52 -0.39 
559.86 60.83 0.81 
559.83 60.82 1.43 
560.05 60.61 1.84 
560.58 60.79 -1.45 
560.55 60.78 -0.84 
560.55 61.00 -0.24 
560.48 60.76 0.40 
560.43 60.94 1.36 
560.41 60.73 1.64 
561.29 61.02 -1.65 
560.97 61.06 -0.81 
561.19 60.70 -0.03 
561.15 60.69 0.48 
561.31 60.80 1.49 
560.83 61.01 1.68 
561.62 60.69 -1.58 
561.74 60.80 -1.17 
561.85 61.10 -0.36 
562.09 61.11 0.59 
561.80 61.02 1.18 
562.50 60.80 -1.60 
562.64 60.84 -0.76 
562.41 60.77 -0.08 
562.76 60.74 0.64 
562.33 60.74 1.46 
562.72 60.95 2.09 
563.29 60.68 -1.44 
563.23 60.48 -1.13 
563.40 61.13 0.14 
563.36 61.02 0.34 
562.96 60.61 1.22 
563.54 60.98 1.61 
563.79 60.99 -1.40 
563.71 60.67 -1.05 
564.07 60.93 0.01 
564.06 60.69 0.40 
563.93 61.07 1.25 
563.99 60.91 1.56 
564.77 60.91 -1.36 
564.95 60.85 -0.74 
564.91 60.82 -0.24 
564.64 60.90 0.67 
564.45 60.59 1.27 
564.37 61.12 1.63 
565.44 60.70 -1.62 
565.40 60.67 -0.80 
565.50 60.67 -0.10 
565.46 60.66 0.57 
565.18 60.80 1.27 
565.23 61.02 1.81 
566.07 60.98 -1.63 
566.04 60.97 -1.10 
566.01 60.61 -0.06 
566.25 60.85 0.21 
565.95 60.94 1.00 
566.85 60.53 -1.49 
566.65 60.78 -1.08 
566.94 60.71 -0.21 
566.59 60.54 0.48 
566.91 60.59 1.43 
567.11 60.72 -1.47 
567.47 60.96 -1.00 
567.27 60.98 -0.32 
567.38 60.96 0.36 
567.50 60.93 1.24 
542.91 61.76 -2.67 
543.13 61.82 -1.53 
542.94 61.56 -0.88 
542.98 61.58 -0.22 
542.94 61.49 0.47 
543.06 61.36 1.13 
543.53 61.50 -3.00 
543.57 61.82 -2.19 
543.88 61.66 -1.51 
543.55 61.44 -0.81 
543.72 61.40 -0.12 
543.48 61.25 0.22 
544.34 61.54 -2.85 
544.42 61.44 -2.42 
544.18 61.54 -1.39 
544.19 61.52 -0.76 
544.33 61.36 -0.47 
544.90 61.47 -2.69 
545.08 61.51 -2.50 
544.84 61.68 -1.53 
544.92 61.74 -0.98 
545.07 61.82 -0.23 
544.99 61.84 0.59 
545.38 61.85 2.29 
545.38 61.89 3.13 
545.48 61.76 -2.92 
545.58 61.43 -2.14 
545.62 61.53 -1.64 
545.63 61.49 -0.89 
545.63 61.46 -0.13 
545.79 61.61 0.53 
545.64 61.78 1.42 
545.74 61.76 2.01 
545.50 61.40 2.52 
545.65 61.57 3.06 
546.24 61.64 -2.68 
546.18 61.60 -2.20 
546.26 61.31 -1.29 
546.67 61.31 -1.11 
546.68 61.36 -0.43 
546.64 61.60 2.01 
546.72 61.54 2.73 
546.15 61.19 3.42 
546.47 61.86 3.84 
546.82 61.82 -0.51 
547.40 61.45 2.21 
546.89 61.36 2.63 
546.89 61.44 3.63 
547.42 61.47 3.86 
547.02 61.26 4.45 
547.80 61.28 -0.62 
548.08 61.67 -0.46 
548.15 61.59 2.87 
547.59 61.23 3.05 
548.02 61.83 4.09 
548.45 61.66 3.20 
550.27 61.52 -2.28 
549.68 61.64 3.98 
551.84 61.84 -2.16 
555.90 61.58 -0.88 
556.54 61.35 -1.41 
556.54 61.27 -0.83 
555.99 61.27 -0.29 
557.21 61.73 -1.63 
557.20 61.66 -1.03 
556.93 61.64 -0.55 
557.90 61.61 -1.96 
557.61 61.60 -1.24 
557.47 61.81 -1.16 
557.52 61.49 -0.26 
558.01 61.52 0.66 
558.35 61.80 -1.93 
558.40 61.45 -1.54 
558.16 61.23 -1.15 
558.27 61.41 0.28 
558.25 61.35 0.90 
558.97 61.79 -2.07 
559.26 61.69 -1.82 
559.27 61.52 -1.10 
558.97 61.79 0.76 
559.35 61.79 1.22 
559.74 61.76 -1.88 
559.65 61.20 -0.92 
559.49 61.72 0.02 
559.44 61.65 1.20 
560.42 61.65 -1.75 
560.52 61.42 -0.62 
560.26 61.40 -0.41 
560.66 61.44 0.25 
560.76 61.25 1.42 
560.72 61.23 1.96 
561.13 61.42 -1.32 
561.35 61.69 -0.89 
561.18 61.33 -0.11 
561.18 61.60 0.39 
561.12 61.32 1.10 
561.48 61.63 1.75 
561.84 61.63 -1.37 
561.81 61.62 -0.74 
561.77 61.61 -0.12 
561.86 61.28 0.58 
561.82 61.40 1.24 
561.88 61.62 1.64 
562.65 61.58 -1.69 
562.32 61.62 -0.95 
562.70 61.47 -0.22 
562.46 61.75 0.31 
562.25 61.34 0.94 
562.68 61.61 1.62 
563.28 61.37 -1.55 
563.25 61.36 -1.03 
563.32 61.24 -0.46 
563.16 61.33 0.53 
563.13 61.32 1.05 
563.41 61.47 2.10 
564.24 61.48 -1.32 
563.65 61.66 -1.00 
563.83 61.51 -0.43 
563.80 61.50 0.22 
564.08 61.49 0.96 
564.27 61.75 1.58 
564.79 61.35 -1.34 
564.82 61.52 -0.69 
564.73 61.30 -0.25 
564.66 61.48 0.52 
564.84 61.42 1.17 
564.81 61.41 1.70 
565.47 61.53 -1.35 
565.42 61.76 -0.91 
565.48 61.68 -0.31 
565.53 61.54 0.68 
565.41 61.62 1.10 
565.27 61.71 1.77 
566.17 61.62 -1.61 
565.97 61.51 -0.75 
565.95 61.41 -0.23 
566.10 61.35 0.34 
566.11 61.40 1.27 
566.64 61.37 -1.25 
566.78 61.38 -0.73 
566.76 61.30 -0.22 
566.55 61.56 0.54 
566.57 61.50 1.20 
566.45 61.39 1.68 
567.38 61.33 -1.25 
567.33 61.79 -0.85 
567.13 61.50 -0.19 
567.37 61.75 0.59 
567.43 61.34 1.18 
567.48 61.80 1.77 
543.02 62.27 -2.94 
542.94 62.10 -2.40 
542.75 62.21 -1.64 
542.84 61.85 -1.00 
543.16 61.96 -0.32 
542.71 62.56 0.21 
543.58 62.20 -2.79 
543.52 62.22 -2.47 
543.43 62.26 -1.53 
543.64 62.45 -1.02 
543.88 62.40 -0.39 
543.88 62.36 0.31 
543.79 62.50 1.17 
544.32 62.18 -2.64 
544.12 62.00 -2.17 
544.28 62.19 -1.68 
544.27 62.15 -0.72 
544.24 62.08 -0.23 
544.41 62.15 0.25 
544.16 62.13 1.54 
544.54 62.21 1.81 
544.39 62.05 2.56 
544.26 62.32 3.07 
545.21 62.24 -2.80 
544.73 62.01 -1.99 
545.01 62.05 -1.30 
545.02 62.05 -0.68 
544.74 62.14 -0.10 
544.69 62.16 0.50 
545.24 62.12 1.51 
544.88 62.40 2.18 
545.27 62.26 2.97 
545.38 61.89 3.13 
545.56 62.54 -2.92 
545.73 62.14 -0.83 
545.42 62.06 -0.34 
545.47 61.99 2.60 
545.51 61.97 3.51 
546.58 62.39 -0.55 
546.42 62.49 -0.24 
546.55 62.26 2.44 
546.77 62.09 3.20 
546.90 62.48 -2.89 
546.90 62.40 -2.21 
547.16 62.36 -0.63 
547.54 62.39 2.15 
547.07 62.52 2.50 
547.78 62.53 -2.44 
547.54 62.39 2.15 
547.93 62.13 2.92 
547.68 62.17 3.26 
548.23 62.32 -1.80 
548.40 62.39 3.90 
549.17 62.45 -2.21 
548.94 62.01 -1.44 
549.69 62.18 -2.19 
550.93 62.48 -2.76 
550.41 62.52 -2.52 
551.05 62.42 5.33 
556.58 61.90 -1.08 
557.29 62.26 -0.66 
557.98 62.09 -1.82 
557.84 62.18 -0.61 
557.89 62.23 -0.26 
558.02 61.95 -1.78 
558.43 62.15 -1.17 
558.16 62.10 -0.12 
558.45 62.46 0.48 
558.37 62.52 1.06 
559.05 62.17 -1.70 
558.96 62.49 -0.86 
559.00 62.21 -0.28 
558.88 62.50 0.48 
559.94 62.15 -1.76 
559.54 62.44 -0.82 
559.46 62.45 0.52 
559.58 61.91 1.26 
560.40 62.32 -1.73 
560.77 61.99 -0.86 
560.22 61.98 -0.08 
560.63 62.24 0.68 
561.50 62.07 -0.93 
561.46 62.34 -0.42 
561.42 62.32 0.19 
561.48 61.90 0.98 
561.34 62.52 1.89 
562.00 62.04 -1.51 
561.88 62.38 -0.90 
561.91 62.26 -0.06 
561.87 62.24 0.49 
561.83 62.22 1.04 
561.79 62.20 1.59 
562.70 62.19 -1.31 
562.63 62.19 -1.05 
562.63 62.17 -0.05 
562.37 62.22 0.60 
562.56 62.14 1.21 
562.53 62.13 1.84 
563.08 62.26 -1.41 
563.04 62.25 -0.88 
563.01 62.23 -0.34 
563.03 62.44 0.62 
563.41 62.35 1.16 
563.25 62.50 1.88 
563.77 62.21 -1.52 
564.13 62.10 -0.88 
563.96 61.97 -0.16 
563.68 62.18 0.41 
563.65 62.17 1.06 
563.92 61.92 1.71 
564.52 62.28 -1.47 
564.89 62.06 -1.03 
564.46 62.18 -0.35 
564.65 62.40 0.58 
564.74 62.37 0.91 
564.79 62.03 1.63 
565.27 62.32 -1.55 
565.28 62.18 -0.88 
565.35 62.17 -0.43 
565.31 62.37 0.61 
565.19 62.20 1.35 
565.32 62.31 1.69 
565.92 62.08 -1.42 
565.93 62.34 -0.94 
565.89 62.31 -0.23 
566.06 62.40 0.55 
565.81 62.24 1.21 
566.10 61.98 1.88 
566.54 62.23 -1.51 
566.68 62.45 -0.80 
566.67 62.12 -0.10 
566.58 62.29 0.34 
566.59 61.89 1.17 
566.71 61.97 1.60 
567.40 62.56 -1.40 
567.38 62.12 -0.84 
567.55 61.97 -0.09 
567.41 62.15 0.51 
567.32 62.21 1.20 
543.04 62.97 -2.89 
542.96 62.69 -2.29 
542.89 62.72 -1.68 
542.91 62.91 -0.98 
543.08 62.79 -0.33 
542.86 62.99 0.44 
543.14 62.90 1.29 
542.85 62.87 1.67 
543.09 63.10 2.94 
543.89 62.94 -2.81 
543.47 62.58 -2.43 
543.63 62.72 -1.42 
543.61 62.58 -0.77 
543.66 62.79 -0.32 
543.52 62.85 0.48 
543.72 62.88 1.19 
543.72 62.94 1.98 
543.81 62.92 2.65 
543.56 62.77 3.32 
544.26 62.70 -2.77 
544.25 63.20 0.67 
544.16 62.76 1.01 
544.17 62.66 1.68 
544.52 62.79 2.55 
544.42 62.87 3.29 
545.16 62.70 -2.71 
544.91 62.67 -0.58 
544.74 63.03 1.01 
544.73 62.66 2.31 
544.72 62.61 3.01 
545.69 63.12 -0.14 
546.00 62.64 1.44 
545.88 62.77 1.75 
546.53 63.03 -2.97 
546.77 62.99 -1.28 
546.42 62.87 -0.31 
546.48 62.65 1.70 
546.14 63.01 2.59 
547.39 63.02 -3.03 
547.28 62.85 -1.86 
547.02 63.15 -0.97 
546.91 62.79 1.97 
547.18 63.06 2.51 
547.36 63.01 3.28 
547.01 63.04 3.85 
547.59 62.93 -2.86 
548.04 63.02 -2.05 
547.75 62.62 -1.83 
547.95 63.15 -0.88 
548.03 62.84 -0.25 
547.67 62.91 3.76 
548.30 62.90 -2.67 
548.65 63.05 -2.23 
548.60 63.08 -0.91 
548.41 63.05 -0.22 
548.48 62.93 3.20 
548.99 62.84 -2.38 
548.95 63.19 -1.05 
549.73 62.62 -2.50 
550.06 62.76 4.98 
550.76 63.01 -2.81 
550.82 62.95 -2.70 
551.00 62.65 4.78 
550.94 62.89 5.79 
551.06 62.70 -2.68 
551.32 63.02 -2.61 
551.08 62.69 5.51 
555.58 63.19 -2.09 
557.98 63.08 0.18 
558.49 62.61 -1.99 
558.13 62.94 -1.78 
558.23 62.76 -0.95 
558.63 63.11 -0.44 
558.22 62.73 1.08 
558.75 63.10 -2.00 
559.17 62.63 -1.92 
559.05 63.10 -0.30 
559.08 62.97 0.30 
558.81 62.93 0.92 
559.45 63.17 -1.93 
559.85 63.34 -1.47 
559.92 63.02 -0.92 
559.50 63.17 -0.47 
559.92 62.77 0.54 
559.55 62.99 0.95 
560.38 62.74 -1.61 
560.71 63.05 -0.96 
560.31 62.64 -0.20 
560.50 63.12 0.87 
560.29 62.67 1.05 
561.01 62.89 -1.79 
560.96 63.05 -0.59 
561.23 62.76 -0.08 
561.08 63.19 0.66 
561.25 62.92 1.24 
562.19 62.78 -1.52 
561.87 62.68 -1.01 
561.83 62.66 -0.39 
561.79 62.64 0.22 
562.09 62.93 1.49 
562.16 62.66 1.60 
562.45 63.00 -1.41 
562.68 63.01 -0.84 
562.64 63.00 -0.23 
562.61 62.99 0.39 
562.49 62.81 1.15 
562.54 62.96 1.63 
563.25 63.07 -1.41 
563.14 62.88 -0.67 
563.05 63.02 -0.32 
563.18 62.98 0.68 
563.15 62.97 1.31 
563.11 62.97 1.94 
564.14 62.84 -1.30 
563.82 62.89 -0.80 
563.78 62.88 -0.26 
563.83 63.03 0.60 
563.88 63.01 1.34 
563.85 62.99 1.98 
564.73 62.78 -1.47 
564.89 62.60 -0.90 
564.67 62.76 -0.16 
564.79 62.66 0.30 
564.61 62.74 1.15 
564.58 62.73 1.81 
565.36 62.94 -1.42 
565.33 62.93 -0.87 
565.30 62.92 -0.31 
565.55 62.80 0.66 
565.54 62.79 1.04 
565.18 62.89 1.91 
565.84 62.98 -1.56 
565.97 63.08 -0.87 
565.93 63.01 -0.40 
566.10 63.24 0.55 
566.16 62.78 1.29 
565.82 63.06 1.65 
566.84 62.86 -1.31 
566.99 62.83 -0.94 
566.49 62.91 -0.26 
566.83 62.90 0.66 
566.86 62.94 1.24 
566.70 62.65 1.90 
567.25 63.05 -1.47 
567.42 63.06 -0.76 
567.39 63.05 -0.19 
567.44 62.84 0.42 
567.24 63.13 1.27 
567.15 62.61 1.85 
543.08 63.51 -2.90 
542.66 63.44 -0.31 
542.85 63.66 0.79 
543.10 63.36 1.81 
543.68 63.47 -2.83 
543.68 63.95 1.13 
543.68 63.37 2.53 
543.45 63.44 3.27 
544.54 63.49 0.19 
544.26 63.51 1.25 
544.34 63.63 1.74 
544.42 63.39 2.93 
544.51 63.46 3.27 
545.15 63.89 -0.63 
545.12 63.71 -0.41 
545.06 63.78 0.48 
544.94 63.72 1.75 
546.00 63.75 -2.89 
545.83 63.95 -0.49 
545.68 63.39 2.02 
546.47 63.43 -3.06 
546.41 63.54 -2.51 
546.52 63.94 -0.99 
546.45 63.42 -0.28 
546.70 63.36 1.56 
546.42 63.53 2.01 
546.41 63.47 2.38 
546.67 63.44 5.23 
547.21 63.64 -2.78 
547.50 63.69 -2.33 
546.84 63.56 -1.63 
547.02 63.15 -0.97 
547.20 63.70 1.84 
547.03 63.29 2.88 
547.46 63.32 3.47 
547.81 63.56 -2.74 
547.50 63.69 -2.33 
548.03 63.53 -1.56 
547.86 63.66 3.36 
548.23 63.38 -1.21 
548.34 63.41 3.10 
548.34 63.86 4.67 
549.40 63.88 -2.62 
549.85 63.61 -2.20 
550.61 63.44 -2.63 
551.25 63.35 -2.83 
551.17 63.41 -2.62 
552.39 63.87 -2.41 
552.56 63.63 -2.47 
558.53 63.29 0.45 
559.00 63.60 -2.01 
559.03 63.77 -1.67 
559.16 63.27 -0.63 
559.08 63.37 -0.40 
558.96 63.35 1.05 
559.57 63.68 -2.01 
559.52 63.90 -1.63 
560.01 63.88 -0.96 
559.83 63.55 -0.44 
559.83 63.34 0.78 
560.71 63.71 -1.24 
560.44 63.43 -0.75 
560.45 63.79 -0.46 
560.67 63.70 1.22 
561.11 63.64 -1.81 
561.50 63.70 -0.98 
560.88 63.75 1.15 
562.05 63.33 -1.60 
561.91 63.33 -0.37 
562.13 63.83 0.20 
561.67 63.28 1.48 
562.48 63.56 -1.56 
562.61 63.32 -0.95 
562.64 63.54 -0.35 
562.53 63.61 0.44 
562.69 63.52 1.30 
562.65 63.50 1.93 
563.49 63.63 -1.41 
563.13 63.85 -0.74 
563.08 63.82 -0.11 
563.27 63.51 0.70 
563.23 63.49 1.26 
563.28 63.49 1.73 
564.24 63.78 -1.32 
563.79 63.47 -0.72 
563.76 63.46 -0.09 
564.02 63.62 0.76 
564.11 63.74 1.20 
564.08 63.73 1.84 
564.64 63.33 -1.42 
564.62 63.56 -0.73 
564.59 63.55 -0.17 
564.77 63.79 0.64 
564.70 63.81 1.27 
564.84 63.86 1.73 
565.62 63.75 -1.28 
565.40 63.94 -1.13 
565.24 63.79 -0.44 
565.59 63.80 0.45 
565.35 63.89 1.31 
565.57 63.54 1.64 
566.00 63.47 -1.58 
565.96 63.45 -0.81 
566.18 63.50 -0.19 
566.14 63.60 0.61 
566.11 63.59 1.28 
566.08 63.69 1.67 
566.84 63.46 -1.62 
566.95 63.54 -0.91 
566.72 63.53 -0.37 
566.82 63.80 0.69 
566.65 63.60 1.35 
566.60 63.89 2.02 
567.46 63.30 -1.37 
567.43 63.43 -0.86 
567.21 63.40 -0.28 
567.47 63.56 0.61 
567.52 63.71 1.02 
567.40 63.40 1.65 
542.92 64.36 -2.99 
542.77 64.43 0.58 
543.08 64.22 1.18 
542.99 64.53 2.24 
543.16 64.17 2.42 
543.07 64.30 3.15 
543.59 64.39 -3.00 
543.44 64.49 0.38 
543.76 64.07 1.45 
543.32 64.41 1.94 
543.48 64.33 2.77 
544.58 64.44 -0.62 
544.41 64.54 -0.38 
545.20 64.05 -2.87 
545.04 64.16 -1.99 
545.16 64.57 -1.67 
544.87 64.65 -0.60 
545.25 64.24 -0.42 
545.21 64.47 1.12 
544.78 64.36 1.71 
545.76 64.23 -2.90 
545.88 64.52 -2.41 
545.47 64.11 -1.38 
545.62 64.51 -1.04 
545.96 63.99 -0.38 
545.45 64.09 1.51 
545.66 64.60 2.21 
546.05 64.33 3.62 
545.57 64.18 4.33 
546.67 64.49 -2.99 
546.39 64.11 -2.39 
546.35 64.12 -1.66 
546.41 64.58 -0.94 
546.58 64.08 -0.29 
546.71 64.06 1.55 
546.41 64.25 1.89 
546.37 64.14 2.58 
546.61 64.24 3.63 
546.26 64.18 4.03 
546.97 64.33 -2.85 
546.92 64.16 -2.11 
547.15 64.03 -1.63 
546.92 64.17 -0.90 
547.44 64.18 3.54 
547.81 64.31 -2.89 
547.74 64.01 -2.47 
548.45 64.40 -2.92 
548.44 64.50 -2.54 
548.76 64.17 4.11 
548.64 64.43 4.73 
549.23 64.30 -2.65 
549.29 64.28 -2.55 
550.03 64.53 -2.57 
550.03 64.53 -2.57 
550.48 64.65 -2.74 
550.46 64.44 -2.53 
559.99 64.53 -2.18 
559.78 64.13 -1.64 
559.93 64.41 -0.86 
559.81 64.12 0.27 
559.91 64.22 0.92 
560.24 64.57 -2.34 
560.76 64.30 -1.76 
560.64 64.24 -1.04 
560.67 64.43 -0.40 
560.62 63.99 0.24 
560.80 64.36 1.29 
561.23 64.31 -1.88 
561.30 64.32 -1.04 
561.38 64.18 0.10 
561.39 64.21 1.06 
561.65 64.53 -1.84 
561.73 64.26 0.70 
561.86 64.41 1.10 
562.57 64.25 -1.54 
562.34 64.25 -0.94 
562.57 64.48 0.31 
562.47 64.01 0.94 
563.51 64.23 -1.58 
563.57 64.28 -1.11 
563.46 64.22 -0.08 
563.35 64.28 0.73 
563.41 64.20 1.36 
563.32 64.14 1.81 
563.86 64.39 -1.51 
563.73 64.38 -0.84 
564.06 64.58 -0.21 
564.17 64.22 0.51 
563.72 64.52 1.21 
563.80 64.18 1.81 
564.67 64.57 -1.33 
564.61 64.25 -0.96 
564.60 64.06 -0.03 
564.57 64.54 0.54 
564.62 64.23 1.06 
564.50 64.52 1.80 
565.03 64.57 -1.61 
565.47 64.30 -0.66 
565.43 64.26 -0.07 
565.40 64.24 0.50 
565.70 64.21 1.45 
565.35 64.65 1.97 
566.03 64.27 -1.59 
565.96 64.46 -1.08 
565.93 64.44 -0.29 
566.01 64.40 0.63 
565.98 64.23 1.12 
565.84 64.40 1.71 
565.91 64.46 2.32 
566.52 64.08 -1.64 
566.74 64.19 -0.74 
566.62 64.17 -0.25 
567.06 64.51 0.69 
566.91 64.37 1.28 
566.79 64.60 1.69 
567.42 64.59 -1.55 
567.24 64.33 -0.72 
567.22 64.44 -0.16 
567.18 64.32 0.45 
567.28 64.54 1.18 
567.12 64.30 1.63 
542.92 65.01 1.87 
543.15 64.78 2.69 
543.58 64.70 -0.73 
543.47 65.12 -0.22 
543.54 64.68 0.73 
543.50 64.70 1.69 
543.91 64.87 2.79 
543.74 64.90 3.07 
544.16 64.93 -0.76 
544.47 64.99 -0.37 
544.14 64.74 0.69 
544.62 64.98 3.31 
544.76 64.85 -2.29 
544.72 64.90 -1.72 
545.12 65.08 -0.86 
544.72 65.10 -0.32 
545.08 65.05 0.28 
544.89 64.77 2.05 
545.10 65.14 3.30 
545.77 64.89 -2.32 
546.00 65.10 -0.25 
545.59 65.16 2.18 
545.72 65.01 2.78 
546.61 65.18 -2.99 
546.23 64.91 -1.04 
546.65 64.72 2.55 
547.24 64.76 -2.96 
548.01 64.92 -2.81 
548.18 65.07 -2.55 
548.47 65.12 -2.82 
548.78 65.35 -2.57 
549.35 65.20 -2.81 
549.20 65.16 -2.65 
550.02 64.97 -2.80 
549.94 64.80 -2.54 
550.36 64.88 -2.79 
550.54 65.06 -2.45 
560.36 64.81 -2.14 
560.45 64.91 -1.95 
560.61 64.69 -1.07 
560.29 64.71 0.05 
560.57 64.97 0.31 
561.22 65.05 -1.49 
561.32 64.99 -0.86 
561.09 64.68 0.95 
562.07 64.75 -1.81 
561.67 65.14 -0.83 
562.10 65.16 -0.34 
561.69 64.89 0.43 
562.50 64.97 -1.77 
562.58 64.75 -0.95 
562.84 64.93 -0.10 
562.67 64.87 1.20 
563.27 64.81 -0.71 
563.23 65.26 -0.24 
563.13 64.90 0.27 
563.04 64.88 1.37 
563.46 65.36 1.73 
563.81 65.25 -1.49 
564.29 64.95 -1.04 
564.16 64.94 -0.01 
564.12 64.91 0.62 
564.13 64.87 1.42 
564.03 64.86 1.87 
564.50 64.94 -1.40 
564.83 65.24 -0.75 
564.89 65.00 -0.25 
564.76 65.21 0.47 
564.72 65.19 1.09 
564.73 64.93 2.11 
565.17 64.97 -1.43 
565.48 64.69 -0.60 
565.17 65.02 -0.17 
565.38 65.00 0.28 
565.32 65.17 1.24 
565.29 65.16 1.87 
566.19 65.06 -1.35 
566.02 65.12 -0.71 
566.28 64.92 0.03 
566.21 65.07 0.56 
566.21 64.90 1.21 
566.15 65.04 1.79 
567.01 65.03 -1.54 
566.60 65.01 -1.15 
566.78 64.86 -0.37 
566.82 65.19 0.62 
566.67 65.28 1.27 
566.68 64.82 1.63 
567.39 64.77 -1.59 
567.51 65.09 -0.89 
567.32 64.82 -0.22 
567.52 64.88 0.45 
567.48 64.85 1.24 
567.26 64.95 1.60 
542.81 65.73 0.77 
542.91 65.89 1.82 
542.76 65.57 2.60 
542.88 65.47 3.08 
543.85 65.54 -0.56 
543.81 65.70 0.10 
543.54 65.54 0.56 
543.68 65.89 1.02 
543.65 65.91 1.84 
544.68 65.90 -2.95 
544.70 65.71 -1.00 
544.60 65.62 0.01 
544.62 65.85 0.81 
544.51 65.54 1.02 
544.45 65.55 2.03 
544.70 65.86 2.80 
544.39 65.58 3.05 
544.99 65.82 -3.04 
545.29 65.54 -2.54 
544.72 65.88 0.78 
544.85 65.90 1.05 
544.92 65.47 1.86 
545.07 65.47 2.44 
544.94 65.62 3.79 
545.79 65.47 -2.78 
545.60 65.48 -0.30 
545.55 65.46 2.59 
546.47 65.99 -2.85 
547.20 66.11 -2.79 
547.76 65.76 -2.70 
547.92 65.62 -2.56 
548.42 65.66 -2.60 
548.54 65.87 -2.58 
549.11 65.41 -2.82 
549.10 65.87 -2.59 
550.03 65.37 -2.77 
549.76 65.59 -2.46 
550.63 65.82 -2.65 
555.57 65.54 -2.24 
558.70 65.82 -1.93 
559.44 66.00 -2.01 
560.47 65.44 -1.90 
560.64 65.51 -0.78 
560.78 65.69 0.07 
561.51 65.58 -2.03 
561.08 65.55 -1.79 
560.92 65.65 -1.08 
561.01 65.71 0.48 
561.57 65.70 -1.88 
561.67 65.88 -0.85 
562.19 65.95 -0.17 
561.88 65.62 0.29 
561.69 66.03 0.90 
562.55 65.99 -1.72 
562.51 65.83 -0.70 
562.48 65.61 -0.33 
562.33 65.95 0.85 
562.40 65.50 1.50 
563.26 65.67 -1.46 
563.34 65.88 -0.52 
563.32 65.85 -0.35 
563.25 65.76 0.54 
563.55 65.66 1.06 
563.37 65.39 1.76 
563.99 65.94 -1.50 
564.26 65.83 -1.14 
563.82 65.44 -0.30 
564.01 65.43 0.66 
563.77 65.97 1.76 
565.01 65.63 -0.98 
564.86 65.65 0.06 
564.81 65.62 0.68 
564.77 65.60 1.31 
564.73 65.57 1.93 
565.44 65.80 -1.43 
565.50 65.83 -0.69 
565.41 65.60 -0.29 
565.28 65.93 0.29 
565.48 65.85 1.16 
565.45 65.83 1.78 
565.80 65.80 -1.36 
566.15 65.59 -1.19 
565.80 65.51 0.01 
566.27 65.65 0.33 
566.30 65.46 0.97 
566.31 65.38 1.83 
566.24 65.46 2.31 
566.62 65.78 -1.43 
566.60 65.77 -1.02 
566.81 65.87 -0.32 
566.53 65.74 0.63 
566.51 65.90 1.39 
566.47 65.71 1.88 
566.68 65.87 2.36 
567.28 65.68 -1.27 
567.28 65.73 -1.08 
567.25 65.72 -0.47 
567.31 65.65 0.73 
567.15 65.68 1.34 
567.11 65.67 1.96 
543.17 66.76 -2.95 
542.89 66.28 0.76 
543.11 66.65 1.09 
542.81 66.30 2.15 
543.78 66.41 0.64 
543.63 66.37 1.24 
543.84 66.13 2.26 
543.61 66.23 2.70 
543.61 66.54 3.11 
544.66 66.22 -2.95 
544.10 66.34 -2.59 
544.03 66.63 0.64 
544.06 66.13 1.20 
544.07 66.07 1.72 
544.44 66.65 3.18 
545.31 66.64 -3.04 
544.79 66.53 2.65 
545.17 66.54 3.86 
545.55 66.53 -3.03 
546.65 66.20 -2.94 
547.36 66.35 -2.71 
547.49 66.68 -2.57 
547.97 66.24 -2.87 
547.95 66.10 -2.61 
548.40 66.16 -2.67 
548.63 66.49 -2.59 
549.39 66.11 -2.69 
549.32 66.43 -2.57 
549.69 66.09 -2.50 
550.62 66.46 -2.67 
550.47 66.34 -2.41 
551.32 66.08 -2.64 
555.53 66.27 -2.23 
559.39 66.56 -2.02 
559.04 66.10 -1.91 
559.75 66.68 -1.88 
560.77 66.21 -2.01 
561.46 66.75 -1.96 
561.41 66.19 -1.79 
561.95 66.28 -0.69 
562.12 66.35 -0.41 
562.07 66.40 0.81 
562.48 66.57 -1.62 
562.45 66.27 -0.73 
562.54 66.53 -0.15 
562.23 66.67 0.55 
562.44 66.53 1.05 
563.46 66.62 -1.25 
563.27 66.31 -1.07 
563.34 66.08 -0.07 
563.01 66.20 0.65 
563.14 66.25 1.09 
562.92 66.24 1.65 
564.16 66.64 -1.51 
564.11 66.43 -0.54 
563.68 66.30 1.21 
564.65 66.09 -1.60 
564.42 66.55 -0.90 
564.74 66.61 -0.13 
564.96 66.16 0.36 
564.70 66.79 1.37 
565.54 66.55 -1.53 
565.64 66.41 -1.09 
565.41 66.53 -0.01 
565.64 66.26 0.32 
565.46 66.31 1.38 
565.42 66.28 2.00 
566.23 66.59 -1.33 
566.19 66.19 -0.71 
566.15 66.17 -0.11 
565.99 66.60 0.36 
565.88 66.36 1.45 
565.91 66.56 1.59 
566.93 66.47 -1.40 
566.91 66.46 -0.99 
566.88 66.45 -0.15 
566.84 66.43 0.69 
566.55 66.14 1.36 
566.47 66.53 1.80 
567.60 66.38 -1.58 
567.48 66.60 -0.69 
567.30 66.27 -0.29 
567.59 66.30 0.40 
567.51 66.62 1.08 
567.60 66.08 2.04 
567.18 66.26 2.42 
543.05 67.10 -2.96 
542.79 66.87 0.74 
543.19 67.36 2.16 
543.99 66.78 2.26 
543.86 67.43 2.70 
543.85 66.82 3.02 
544.80 67.19 -3.15 
545.03 67.22 -3.07 
545.51 67.21 -3.03 
546.42 67.16 -2.77 
547.42 67.18 -2.58 
547.58 67.33 -2.64 
548.43 66.98 -2.61 
549.26 67.09 -2.57 
550.40 66.99 -2.41 
553.24 66.88 -2.49 
559.34 67.12 -2.04 
560.48 67.28 -1.85 
561.50 67.16 -1.69 
561.75 66.83 -1.80 
562.50 67.05 -1.64 
562.73 67.07 0.46 
563.23 67.18 -1.83 
563.55 67.07 -0.95 
563.20 66.99 0.01 
563.25 66.82 0.64 
563.17 66.90 1.25 
564.11 67.04 -1.42 
564.20 67.37 -1.16 
563.73 67.27 -0.07 
563.89 66.99 0.28 
563.97 67.26 0.99 
563.82 67.15 1.73 
564.82 67.45 -1.53 
564.45 66.86 -0.52 
564.81 66.81 0.43 
564.76 67.04 1.31 
564.45 67.09 1.89 
565.40 66.99 -1.51 
565.43 67.07 -0.66 
565.46 66.91 0.06 
565.38 66.80 0.45 
565.11 67.29 1.08 
565.20 67.08 1.77 
565.89 66.82 -1.61 
566.33 67.11 -1.02 
566.29 67.08 -0.40 
566.18 67.18 0.20 
566.10 67.13 1.47 
566.29 67.16 2.06 
566.83 67.34 -1.42 
566.79 67.32 -0.80 
566.75 67.29 -0.19 
566.71 67.27 0.43 
566.64 67.10 1.27 
566.59 67.13 1.94 
567.03 66.88 2.50 
567.13 67.03 -1.25 
567.26 67.18 -0.96 
567.23 67.17 -0.10 
567.19 67.16 0.76 
567.46 66.85 1.16 
567.44 66.87 2.10 
567.39 66.88 2.40 
543.04 68.00 -1.86 
543.14 68.12 -0.56 
542.75 68.02 -0.12 
542.92 68.02 1.67 
542.90 68.11 2.48 
543.25 67.71 3.02 
543.81 67.71 -3.00 
543.47 67.91 0.22 
543.62 67.85 1.80 
543.60 67.83 2.94 
544.45 67.66 -3.01 
544.41 67.83 -1.79 
545.40 67.74 -2.93 
545.51 67.55 -2.93 
546.04 67.64 -2.56 
546.42 67.80 -2.76 
547.48 67.76 -2.66 
547.30 67.68 -2.59 
547.56 68.03 -2.65 
549.56 67.91 -2.51 
550.32 67.63 -2.41 
553.04 68.06 -2.41 
553.51 67.93 -2.39 
559.25 67.68 -2.05 
560.64 67.68 -1.93 
560.77 67.62 -1.84 
560.97 67.99 -1.83 
562.10 67.62 -1.94 
561.55 67.66 -1.71 
562.53 68.16 -1.93 
562.47 67.90 -1.90 
563.38 67.83 -1.79 
563.47 67.48 -0.70 
563.25 67.58 -0.35 
563.20 67.50 0.43 
563.44 67.77 1.08 
563.72 67.86 -1.51 
563.87 67.57 -0.30 
563.99 67.47 1.79 
564.91 67.99 -1.54 
564.52 67.57 1.37 
565.55 68.06 -1.65 
565.69 67.48 -0.83 
565.64 67.51 -0.14 
565.60 67.53 0.55 
565.69 67.66 1.45 
565.50 67.58 1.93 
566.20 68.02 -1.60 
566.08 67.88 -1.20 
566.26 67.88 -0.47 
566.26 67.98 0.84 
566.40 67.49 2.13 
567.21 67.69 -1.38 
566.87 67.84 -0.99 
566.83 67.83 -0.35 
566.80 67.81 0.29 
566.76 67.80 0.93 
566.76 67.91 2.15 
567.21 67.69 -1.38 
567.44 67.56 -0.94 
567.41 67.55 -0.07 
567.45 67.97 0.50 
567.41 67.95 1.12 
567.41 67.57 1.64 
567.40 67.60 2.53 
542.67 68.38 -1.82 
542.97 68.17 -1.10 
543.19 68.37 -0.16 
543.03 68.26 0.49 
542.75 68.17 2.53 
543.99 68.23 -3.05 
543.36 68.73 -1.60 
543.85 68.51 1.59 
544.03 68.23 -3.07 
544.07 68.30 -1.77 
544.56 68.84 0.85 
544.07 68.66 1.02 
544.51 68.69 1.58 
545.08 68.78 0.79 
544.83 68.49 1.25 
546.52 68.33 -2.80 
547.48 68.39 -2.66 
547.19 68.18 -2.60 
547.85 68.75 -2.64 
549.62 68.50 -2.51 
550.38 68.25 -2.42 
554.07 68.51 -2.43 
559.07 68.76 -2.08 
561.19 68.37 -1.82 
561.55 68.85 -1.99 
562.57 68.53 -1.70 
563.47 68.84 -1.76 
563.81 68.42 -1.53 
564.93 68.52 -1.56 
565.02 68.38 -1.51 
565.65 68.60 -0.87 
565.92 68.41 -1.63 
566.21 68.78 -1.15 
566.21 68.84 -0.51 
567.10 68.48 -1.52 
566.59 68.46 -1.14 
566.89 68.19 -0.11 
566.89 68.22 0.58 
566.88 68.26 1.27 
566.88 68.30 1.96 
567.54 68.50 -1.40 
567.31 68.40 -0.95 
567.51 68.64 -0.30 
567.47 68.62 0.33 
567.43 68.48 1.21 
567.40 68.48 1.86 
544.26 69.33 0.79 
544.62 69.04 0.98 
545.24 69.24 0.12 
545.08 69.28 0.81 
545.84 69.53 0.12 
545.94 69.54 0.80 
546.70 69.03 0.82 
546.95 69.15 -2.62 
547.30 69.32 0.98 
547.30 69.32 0.98 
547.77 69.54 0.44 
548.51 69.53 -2.33 
548.71 68.93 0.03 
549.68 69.09 -2.51 
550.45 68.87 -2.42 
554.17 69.15 -2.42 
558.98 69.31 -2.10 
562.67 69.56 -1.74 
563.22 69.50 -1.88 
564.02 69.02 -1.54 
564.74 69.43 -1.70 
565.33 69.29 -1.66 
566.19 69.06 -1.38 
566.00 69.25 -0.87 
566.22 68.90 0.14 
566.69 69.11 -1.58 
566.80 69.25 -1.21 
566.56 69.50 -0.51 
566.94 69.22 0.20 
566.95 69.33 1.57 
566.96 69.38 2.26 
567.12 69.03 -1.55 
567.60 69.48 -0.80 
567.60 69.51 -0.09 
567.59 69.55 0.62 
567.23 68.91 1.30 
567.22 68.95 2.00 
543.71 70.15 -0.31 
543.96 69.65 0.24 
544.14 70.24 -0.30 
544.44 70.30 0.25 
545.29 70.11 0.23 
545.79 70.12 -0.18 
545.89 70.20 0.32 
546.36 69.59 0.14 
546.59 70.02 0.36 
547.03 70.05 -0.14 
547.20 69.86 0.31 
551.41 70.23 -2.44 
559.12 70.10 -2.19 
560.30 69.86 -2.00 
563.55 69.77 -1.85 
564.30 69.64 -1.54 
564.56 70.34 -1.61 
565.38 70.05 -1.59 
566.95 70.10 -1.17 
566.96 70.16 -0.50 
566.58 69.62 0.81 
567.29 69.79 -1.17 
567.30 69.85 -0.48 
567.30 69.90 0.21 
567.58 69.59 1.33 
567.31 70.01 1.60 
543.08 70.69 -3.10 
543.77 70.48 -0.24 
544.44 70.30 0.25 
545.26 70.54 -0.20 
544.82 70.32 0.26 
545.96 70.43 -0.16 
546.13 70.30 -0.25 
558.27 70.89 -2.16 
558.85 70.42 -2.13 
559.64 70.29 -2.03 
564.56 70.34 -1.61 
565.32 70.74 -1.48 
566.08 70.63 -1.73 
566.69 70.64 -1.97 
566.71 70.91 -1.66 
567.58 70.61 -2.15 
567.11 70.83 -1.87 
567.55 70.70 -1.21 
542.92 71.38 -3.13 
543.45 70.97 -3.10 
544.44 71.63 -2.96 
545.22 71.64 -2.89 
556.32 71.42 -2.21 
557.84 71.37 -2.18 
558.75 71.55 -2.22 
559.57 71.49 -2.24 
560.82 71.63 -2.28 
564.53 71.43 -1.59 
566.17 71.56 -2.08 
565.86 71.01 -1.61 
566.84 71.26 -2.12 
566.76 71.31 -1.69 
567.33 71.41 -1.94 
567.25 71.25 -1.92 
542.83 71.89 -3.13 
543.74 72.11 -3.07 
544.29 71.83 -2.97 
545.13 71.97 -2.86 
545.53 71.96 -2.89 
553.86 72.35 -2.18 
554.91 72.08 -2.09 
555.88 72.10 -2.01 
556.40 72.13 -2.09 
557.07 72.29 -2.04 
558.69 72.33 -2.21 
559.31 71.95 -2.33 
559.62 72.20 -2.36 
560.42 71.91 -2.32 
561.39 72.18 -2.28 
561.81 72.05 -1.92 
564.29 71.79 -1.79 
564.83 71.90 -1.73 
565.62 72.07 -2.10 
565.72 71.73 -1.58 
565.92 72.02 -2.06 
566.04 72.12 -1.89 
566.52 72.15 -1.97 
543.24 73.01 -3.10 
543.60 72.73 -3.01 
544.47 72.75 -2.93 
545.03 72.60 -2.92 
545.77 72.86 -2.76 
546.28 72.52 -2.78 
550.44 72.45 -2.27 
551.68 72.93 -2.43 
552.91 72.57 -2.25 
554.77 72.71 -2.21 
555.54 72.90 -1.98 
556.27 72.90 -1.96 
559.85 72.46 -2.35 
562.08 72.53 -2.22 
562.41 72.73 -2.19 
562.87 72.79 -1.77 
564.76 72.69 -1.61 
565.24 72.69 -1.75 
565.98 72.45 -2.08 
543.05 73.44 -3.05 
543.37 73.27 -3.01 
544.48 73.24 -2.95 
545.21 73.27 -2.84 
545.89 73.32 -2.80 
546.55 73.41 -2.64 
547.04 73.59 -2.87 
551.24 73.56 -2.19 
551.86 73.08 -2.29 
553.40 73.44 -2.32 
554.04 73.38 -2.14 
554.75 73.40 -2.07 
559.95 73.77 -2.25 
560.24 73.47 -2.30 
560.83 73.55 -2.24 
561.75 73.38 -1.95 
563.01 73.65 -1.77 
563.74 73.60 -2.08 
564.36 73.68 -2.08 
564.88 73.28 -1.74 
565.29 73.30 -1.78 
543.18 74.19 -3.09 
543.63 74.17 -2.93 
544.58 74.08 -2.73 
545.81 74.29 -2.60 
546.46 73.94 -2.67 
546.83 73.94 -2.86 
547.55 74.21 -2.64 
551.46 74.11 -2.20 
554.16 73.96 -2.01 
555.14 74.17 -2.02 
560.06 74.09 -2.24 
560.36 73.80 -2.29 
561.30 74.06 -2.20 
561.72 74.04 -1.96 
563.08 74.09 -1.78 
564.07 73.81 -2.05 
564.24 74.03 -1.83 
564.35 73.97 -1.99 
564.51 74.29 -1.68 
565.46 73.78 -1.71 
543.02 74.93 -2.96 
543.90 74.83 -2.91 
544.29 74.92 -2.85 
544.78 74.65 -2.78 
546.04 75.08 -2.72 
546.28 74.72 -2.71 
547.94 74.79 -2.84 
548.12 74.64 -2.59 
548.46 74.73 -2.88 
548.57 74.65 -2.60 
549.30 74.60 -2.73 
549.28 75.10 -2.49 
551.67 74.67 -2.21 
552.36 74.58 -2.36 
554.10 74.87 -2.18 
560.64 74.61 -2.25 
560.82 75.09 -2.24 
561.68 74.71 -1.98 
562.24 75.07 -2.13 
563.08 74.96 -1.78 
564.17 74.77 -1.85 
564.77 74.81 -1.77 
565.37 74.71 -1.93 
565.17 74.86 -1.75 
565.79 74.91 -1.64 
542.64 75.44 -2.98 
543.81 75.52 -2.87 
544.32 75.41 -2.81 
545.07 75.27 -2.76 
545.96 75.70 -2.68 
546.66 75.60 -2.67 
547.33 75.76 -2.74 
548.00 75.43 -2.68 
548.04 75.41 -2.58 
548.43 75.26 -2.61 
549.50 75.39 -2.74 
549.45 75.61 -2.48 
549.85 75.71 -2.77 
550.24 75.66 -2.44 
550.36 75.84 -2.87 
550.71 75.81 -2.50 
551.21 75.68 -2.50 
551.90 75.25 -2.22 
553.61 75.64 -1.98 
554.40 75.65 -2.19 
561.05 75.74 -2.21 
561.58 75.37 -2.00 
562.48 75.33 -2.11 
562.90 75.40 -1.79 
564.06 75.51 -1.87 
564.98 75.59 -1.76 
565.41 75.42 -1.67 
566.51 75.67 -1.74 
543.11 76.40 -2.90 
543.76 76.33 -2.83 
544.27 75.92 -2.87 
544.92 76.39 -2.77 
546.09 76.20 -2.87 
546.17 76.20 -2.73 
547.09 76.24 -2.76 
547.56 76.43 -2.72 
548.52 76.48 -2.61 
549.56 76.23 -2.48 
550.04 76.21 -2.78 
549.74 76.05 -2.56 
550.46 76.16 -2.70 
550.32 76.09 -2.58 
551.56 76.26 -2.41 
553.16 75.96 -2.14 
553.87 76.30 -1.98 
554.87 75.89 -2.03 
561.16 76.06 -2.20 
562.56 76.27 -1.82 
564.28 76.44 -1.79 
564.63 76.02 -1.77 
565.29 76.15 -1.69 
566.73 76.32 -1.58 
542.89 76.83 -2.80 
543.39 76.83 -2.85 
544.50 77.00 -2.77 
546.07 77.00 -2.70 
547.42 76.78 -2.73 
547.38 77.09 -2.57 
548.40 77.19 -2.59 
549.74 76.87 -2.49 
550.89 76.94 -2.46 
551.11 77.26 -2.65 
551.46 76.91 -2.58 
552.64 77.11 -2.24 
553.41 76.60 -2.15 
554.09 76.97 -1.99 
561.02 76.92 -2.13 
562.89 76.99 -1.95 
562.36 76.69 -1.83 
563.22 76.91 -2.01 
563.36 76.99 -1.89 
564.18 76.84 -1.85 
565.17 76.88 -1.71 
566.58 76.95 -1.60 
542.91 77.56 -2.92 
543.90 77.67 -2.81 
544.11 77.75 -3.14 
544.77 77.75 -2.96 
546.01 77.50 -2.71 
547.32 77.69 -2.76 
548.46 77.79 -2.60 
548.92 77.78 -2.62 
549.86 77.74 -2.64 
549.86 77.74 -2.64 
550.70 77.89 -2.43 
552.58 77.83 -2.41 
553.94 77.94 -2.16 
554.99 77.87 -2.22 
555.42 77.90 -2.06 
557.20 77.91 -0.75 
559.78 77.64 -1.47 
559.73 77.65 -0.57 
559.71 77.66 -0.11 
559.69 77.66 0.34 
561.02 77.29 -2.14 
562.49 77.30 -2.01 
562.99 77.72 -2.13 
563.72 77.73 -1.92 
565.06 77.62 -1.73 
566.44 77.59 -1.62 
567.49 77.84 -1.70 
543.27 78.10 -3.09 
543.52 78.36 -2.84 
544.37 78.08 -2.98 
545.34 78.33 -2.73 
546.53 78.52 -2.85 
547.22 78.66 -2.80 
548.49 78.38 -2.60 
549.13 78.45 -2.63 
549.66 78.42 -2.63 
550.12 78.18 -2.50 
551.90 78.06 -2.44 
552.73 78.64 -2.63 
552.79 78.61 -2.54 
553.44 78.59 -2.83 
554.65 78.38 -2.01 
555.67 78.62 -2.07 
556.96 78.20 -0.73 
557.55 78.12 -0.72 
559.04 78.16 -0.75 
559.54 78.26 -1.94 
559.64 77.99 -1.48 
559.50 78.51 -0.72 
559.46 78.29 -0.15 
559.43 78.29 0.30 
561.17 78.28 -1.59 
561.18 78.25 -0.71 
561.11 78.34 -0.12 
561.18 78.23 0.17 
561.95 78.56 -1.60 
561.98 78.58 -0.99 
562.00 78.60 -0.52 
563.33 78.33 -2.08 
563.75 78.18 -1.94 
564.22 78.17 -1.77 
564.96 78.53 -1.76 
566.29 78.23 -1.64 
542.70 79.04 -3.06 
543.54 79.03 -3.08 
544.95 79.23 -2.75 
545.90 79.29 -2.98 
546.25 79.06 -2.87 
547.07 79.05 -2.82 
548.47 78.98 -2.61 
550.22 78.84 -2.50 
551.11 78.89 -2.43 
552.90 78.91 -2.72 
553.07 79.04 -2.55 
553.12 78.99 -2.79 
553.31 78.89 -2.56 
554.63 79.03 -2.02 
555.61 79.19 -1.95 
555.61 79.19 -1.62 
555.60 79.19 -0.98 
556.58 79.12 -0.73 
557.18 78.98 -2.27 
557.23 78.73 -1.40 
556.92 78.68 -0.75 
558.97 79.33 -1.59 
559.01 79.36 -0.94 
559.17 78.97 0.27 
559.61 79.05 -2.05 
559.59 79.06 -1.61 
559.72 78.79 -0.72 
559.61 78.96 -0.29 
560.20 79.32 -1.94 
560.58 79.13 -1.57 
560.53 78.86 -1.00 
560.38 79.05 -0.03 
560.59 79.09 0.25 
560.86 78.94 -1.96 
560.90 78.97 -1.31 
560.81 78.78 -0.98 
560.97 79.03 -0.01 
560.82 78.75 0.22 
562.56 78.98 -1.61 
562.60 79.00 -0.97 
562.63 79.02 -0.48 
564.29 79.05 -2.01 
564.22 79.11 -1.89 
564.85 79.17 -1.78 
566.15 78.88 -1.67 
567.52 78.89 -1.71 
544.48 80.02 -2.80 
544.88 79.61 -2.79 
546.06 79.42 -2.89 
546.92 79.42 -2.83 
547.60 79.95 -2.63 
547.76 79.87 -2.44 
548.11 79.91 -1.18 
548.91 79.79 -2.06 
548.90 79.81 -1.68 
548.58 79.83 -1.18 
549.31 79.87 -1.95 
549.36 79.90 -1.24 
549.36 79.90 -1.24 
549.92 79.98 -1.14 
551.07 79.70 -2.53 
552.04 79.73 -2.48 
553.00 79.42 -2.88 
552.50 80.00 -2.46 
553.55 79.43 -2.74 
553.64 80.00 -1.04 
554.32 79.79 -2.17 
554.10 79.97 -0.99 
554.72 79.84 -0.97 
555.83 79.56 -1.24 
555.84 79.55 -0.63 
556.32 79.46 -0.71 
556.75 79.43 -0.70 
558.14 79.88 -1.33 
558.16 79.90 -0.98 
559.24 79.68 -1.65 
559.13 79.55 -0.84 
559.14 79.76 -0.12 
559.03 79.92 0.29 
559.54 79.82 -1.93 
559.73 79.59 -1.60 
559.97 79.62 -0.96 
559.81 79.82 0.03 
559.90 79.70 0.35 
560.11 79.81 -1.56 
560.05 79.54 -0.92 
560.10 79.58 -0.23 
560.28 79.54 0.29 
561.50 79.43 -1.98 
561.52 79.44 -1.64 
561.57 79.48 -0.96 
562.26 80.00 -1.29 
563.22 79.42 -1.96 
563.24 79.43 -1.63 
564.02 79.96 -1.28 
564.73 79.81 -1.80 
565.98 79.52 -1.69 
567.53 79.95 -1.71 
544.30 80.50 -2.81 
545.18 80.09 -2.92 
547.17 80.43 -2.64 
549.20 80.49 -2.74 
549.86 80.68 -2.53 
551.92 80.19 -2.50 
552.34 80.65 -1.28 
552.61 80.52 -1.25 
552.83 80.79 -1.02 
553.35 80.45 -1.01 
554.25 80.48 -0.67 
555.03 80.62 -2.11 
555.13 80.23 -1.59 
554.69 80.42 -0.99 
555.55 80.08 -0.60 
556.31 80.08 -0.66 
558.49 80.58 -1.67 
558.55 80.44 -0.89 
558.51 80.47 0.00 
558.61 80.73 0.22 
558.97 80.48 -1.57 
558.97 80.46 -0.87 
558.96 80.09 -0.14 
558.78 80.41 0.25 
559.44 80.34 -1.93 
559.54 80.20 -1.27 
559.64 80.52 -0.91 
559.64 80.51 -0.43 
559.65 80.50 0.38 
560.70 80.09 -1.61 
560.75 80.14 -0.89 
560.78 80.16 -0.52 
561.48 80.75 -1.61 
560.81 80.18 -0.15 
562.69 80.68 -2.19 
563.60 80.63 -2.07 
563.04 80.59 -1.66 
563.92 80.75 -2.07 
564.86 80.53 -1.27 
565.83 80.17 -1.71 
567.26 80.41 -1.73 
544.16 80.94 -2.82 
548.90 81.41 -2.77 
549.05 80.94 -2.76 
549.33 81.20 -2.54 
550.76 81.41 -2.17 
550.71 81.43 -1.61 
551.66 80.98 -1.33 
551.41 81.05 -1.18 
551.75 80.85 -2.44 
551.87 81.03 -1.52 
552.30 81.13 -1.03 
552.83 80.79 -1.02 
553.23 80.90 -0.95 
554.40 81.02 -2.01 
554.30 80.89 -1.02 
554.58 81.30 -2.19 
555.45 81.29 -2.04 
557.85 81.42 -1.96 
557.86 81.45 -1.38 
557.87 81.47 -0.79 
557.74 81.35 -0.13 
558.26 81.31 -1.54 
558.37 81.17 -0.83 
558.38 81.15 -0.11 
558.38 81.14 0.25 
558.98 80.94 -1.59 
558.99 80.93 -0.91 
558.99 80.92 -0.40 
559.30 81.01 0.43 
560.08 81.06 -1.68 
559.47 80.78 -1.22 
560.12 81.10 -1.29 
560.15 81.13 -0.89 
562.89 80.89 -2.17 
562.62 81.39 -1.91 
563.09 81.11 -2.15 
563.43 81.19 -1.88 
563.93 80.96 -2.04 
563.92 81.27 -1.87 
564.35 81.01 -2.11 
565.76 81.18 -1.67 
547.39 81.95 -3.05 
548.07 81.79 -2.80 
548.49 81.61 -2.79 
549.92 82.14 -2.05 
550.15 82.00 -1.26 
550.97 82.02 -2.20 
550.93 82.04 -1.44 
550.74 81.68 -1.22 
551.21 81.85 -1.06 
551.78 81.48 -1.04 
553.72 81.60 -1.08 
553.95 82.05 -2.08 
553.93 82.07 -1.69 
553.90 82.09 -1.11 
554.88 82.07 -0.83 
555.73 82.09 -2.05 
556.55 81.95 -2.06 
556.33 82.11 -1.58 
556.32 82.11 -1.17 
556.55 81.95 0.04 
557.15 81.98 -2.00 
557.15 81.98 -1.62 
557.30 82.09 -0.97 
557.17 81.94 -0.08 
557.02 81.76 0.51 
557.51 81.74 -2.03 
557.49 81.75 -1.59 
557.51 81.80 -0.95 
557.73 81.66 -0.06 
557.78 81.87 0.33 
558.39 81.70 -1.93 
558.39 81.70 -1.58 
558.04 81.73 -0.89 
558.26 81.67 -0.03 
558.25 81.67 0.35 
558.74 81.87 -1.88 
558.93 81.58 -1.20 
558.93 81.56 0.14 
560.98 81.91 -1.68 
561.81 81.52 -1.94 
562.35 81.48 -1.61 
564.82 81.84 -1.96 
564.90 81.96 -1.25 
565.54 81.91 -2.12 
565.30 81.54 -1.88 
565.80 81.76 -1.88 
545.18 82.64 -2.99 
545.71 82.89 -2.88 
546.46 82.50 -2.85 
546.60 82.50 -2.05 
546.60 82.52 -1.72 
546.59 82.56 -0.71 
546.59 82.57 -0.38 
546.84 82.30 -2.84 
547.15 82.67 -2.28 
547.14 82.69 -1.65 
547.13 82.72 -0.70 
547.12 82.73 -0.38 
547.74 82.63 -2.85 
547.89 82.69 -2.05 
547.94 82.77 -1.65 
547.88 82.74 -0.78 
547.87 82.79 -0.39 
548.49 82.72 -2.82 
548.48 82.74 -2.36 
548.57 82.91 -1.43 
548.62 82.83 -0.82 
548.62 82.84 -0.51 
549.40 82.80 -2.75 
549.31 82.89 -2.41 
549.13 82.87 -1.66 
550.07 82.93 -2.77 
550.07 82.45 -2.43 
549.86 82.17 -1.28 
550.54 82.46 -2.62 
550.83 82.37 -1.76 
551.57 82.77 -2.86 
551.23 82.86 -2.40 
551.30 82.35 -1.16 
552.41 82.75 -2.66 
551.75 82.22 -1.87 
551.72 82.59 -1.19 
552.65 82.72 -2.65 
553.07 82.79 -1.16 
554.21 82.62 -2.33 
554.37 82.72 -0.88 
554.52 82.70 -2.46 
555.20 82.85 -1.62 
554.83 82.76 -0.84 
554.81 82.77 -0.42 
555.50 82.65 -2.02 
555.77 82.47 -1.60 
555.75 82.48 -1.19 
555.72 82.49 -0.37 
556.22 82.44 -1.97 
556.56 82.60 -1.60 
556.21 82.44 -1.18 
556.36 82.58 -0.03 
556.57 82.31 0.43 
556.82 82.49 -2.15 
557.14 82.41 -1.54 
557.09 82.38 -0.99 
557.04 82.41 -0.09 
557.81 82.17 -1.81 
557.55 82.18 -1.51 
557.60 82.52 -0.93 
557.77 82.50 -0.11 
557.98 82.21 0.23 
558.62 82.49 -1.55 
558.63 82.53 -0.72 
558.07 82.81 -0.10 
558.06 82.80 0.23 
558.98 82.46 -1.79 
562.53 82.67 -1.89 
563.34 82.31 -1.62 
564.12 82.58 -2.05 
564.29 82.43 -1.86 
564.70 82.85 -2.22 
564.81 82.21 -1.83 
565.42 82.40 -2.21 
565.28 82.30 -1.91 
565.86 82.59 -2.17 
566.01 82.80 -1.69 
566.45 82.65 -1.81 
545.26 83.04 -3.08 
545.48 82.95 -3.02 
547.30 83.06 -2.63 
547.75 83.14 -2.82 
547.75 83.15 -2.53 
548.20 82.93 -0.44 
548.45 82.86 -2.82 
548.45 82.91 -2.20 
548.57 82.91 -1.43 
548.80 82.85 -0.86 
548.84 82.89 -0.34 
549.32 82.88 -2.67 
549.30 82.90 -2.15 
549.40 82.87 -1.42 
549.27 82.92 -0.80 
549.26 82.94 -0.37 
550.07 82.93 -2.77 
549.94 82.93 -2.36 
549.94 82.97 -1.39 
549.93 82.92 -0.76 
549.80 82.99 -0.26 
550.62 83.04 -2.92 
550.72 82.97 -2.29 
550.69 82.99 -1.62 
550.59 82.98 -0.93 
550.64 83.03 -0.38 
551.17 83.05 -2.74 
551.22 82.95 -2.16 
551.23 82.97 -1.54 
551.23 83.13 -0.75 
551.36 82.92 -0.38 
552.03 83.19 -2.65 
552.08 82.94 -2.43 
551.99 83.01 -1.66 
551.98 83.04 -0.83 
552.14 83.01 -0.41 
552.86 83.15 -2.63 
552.69 83.31 -2.43 
552.49 82.98 -1.64 
552.47 83.00 -0.98 
552.66 83.03 -0.32 
553.52 83.05 -2.68 
553.58 83.37 -2.40 
553.51 83.41 -1.53 
553.62 83.45 -0.91 
553.57 83.48 -0.05 
554.17 83.08 -2.33 
554.11 83.12 -1.48 
554.23 83.10 -0.87 
554.21 83.12 -0.45 
554.85 83.45 -2.00 
554.85 83.45 -1.59 
555.13 83.24 -1.18 
554.84 83.04 0.03 
555.55 83.08 -2.14 
555.43 83.03 -1.58 
555.42 83.03 -1.18 
555.41 83.03 -0.37 
555.89 83.15 0.33 
556.19 83.00 -1.98 
556.35 83.13 -1.68 
556.25 83.06 -0.84 
556.28 83.17 -0.35 
556.12 82.87 0.36 
556.85 83.10 -1.93 
556.63 83.42 -1.50 
556.81 83.13 -1.03 
556.87 82.96 0.05 
557.47 83.43 -2.21 
557.66 83.33 -0.15 
557.86 83.07 0.20 
558.40 82.96 -2.09 
559.40 83.49 -1.97 
558.96 83.23 -1.80 
561.81 82.89 -1.92 
562.43 83.14 -1.94 
563.74 83.48 -2.37 
564.27 83.15 -1.62 
564.64 83.40 -2.21 
565.85 83.19 -2.20 
566.00 82.99 -1.85 
566.55 83.41 -2.17 
566.55 83.45 -1.81 
567.29 83.48 -2.05 
542.93 84.07 -3.23 
543.55 84.26 -3.26 
544.46 84.06 -2.94 
548.67 83.97 -3.00 
549.36 83.83 -2.84 
549.97 83.74 -2.65 
549.80 84.12 -2.35 
551.68 83.68 -2.37 
551.66 83.74 -1.70 
551.08 84.19 -0.91 
551.64 83.83 -0.46 
552.16 84.06 -2.19 
552.15 84.08 -1.68 
552.17 84.06 -0.78 
552.13 84.08 -0.34 
552.69 84.03 -2.01 
552.68 84.04 -1.54 
552.65 83.72 -0.84 
552.65 84.08 -0.35 
553.41 83.99 -2.12 
553.39 84.00 -1.69 
553.11 84.15 -0.95 
553.26 83.66 -0.07 
554.25 83.89 -2.01 
554.01 83.60 -1.67 
554.24 83.89 -1.17 
554.22 83.90 0.09 
554.56 83.67 -2.00 
554.55 83.67 -1.59 
555.19 84.22 -0.94 
555.16 84.23 -0.50 
555.70 83.94 -2.19 
555.67 83.95 -1.74 
555.63 83.98 -0.85 
555.60 83.99 -0.41 
555.46 83.70 0.27 
556.08 83.61 -2.07 
556.05 83.80 -1.53 
556.00 83.83 -0.63 
555.98 83.85 -0.18 
557.10 83.64 -0.16 
557.75 84.19 -2.14 
557.66 83.33 -0.15 
558.09 83.93 -1.96 
558.07 83.92 -1.50 
558.02 83.88 -0.60 
562.83 83.84 -1.94 
563.18 83.99 -1.66 
564.75 83.91 -1.98 
565.54 84.22 -1.63 
566.01 83.57 -2.05 
566.79 83.76 -1.79 
567.00 84.03 -1.77 
567.16 83.87 -2.05 
567.53 84.03 -1.71 
542.62 84.42 -3.07 
542.99 84.91 -0.55 
543.00 84.39 1.79 
543.57 84.48 0.96 
544.15 84.81 0.99 
544.62 84.66 2.09 
544.19 84.57 2.30 
545.21 84.75 2.08 
545.66 84.79 2.59 
546.62 84.89 -2.76 
546.41 84.93 1.64 
546.44 84.77 2.48 
547.07 84.75 -2.75 
548.17 84.83 -2.72 
548.68 84.62 -2.70 
549.40 84.59 -2.86 
550.03 84.37 -2.71 
550.03 84.37 -2.71 
550.08 84.39 -1.64 
550.02 84.42 -0.82 
549.99 84.44 -0.35 
550.51 84.40 -2.70 
550.60 84.30 -2.29 
550.93 84.65 -1.77 
550.85 84.69 -0.88 
550.47 84.37 -0.39 
551.52 84.96 -2.02 
551.60 84.34 -1.29 
551.52 84.37 -0.83 
551.48 84.39 -0.39 
552.18 84.31 -2.32 
552.12 84.56 -1.69 
552.05 84.37 -0.57 
552.09 84.63 -0.36 
552.68 84.43 -2.03 
552.67 84.45 -1.54 
552.66 84.89 -1.17 
552.64 84.50 -0.19 
553.15 84.42 -1.96 
553.14 84.45 -1.28 
553.14 84.83 -0.81 
553.13 84.48 -0.37 
554.38 84.75 -2.37 
555.02 84.75 -2.25 
555.20 84.51 -1.34 
555.17 84.52 -0.89 
554.89 84.83 -0.02 
554.83 84.49 0.18 
555.79 84.64 -2.21 
555.53 84.95 -1.35 
555.40 84.71 -0.88 
555.35 84.28 0.02 
556.11 84.77 -2.23 
556.60 84.80 -0.61 
557.22 84.85 -2.00 
557.14 84.73 -1.52 
556.98 84.50 -0.59 
556.90 84.39 -0.13 
557.76 84.95 -2.15 
557.72 84.31 -1.60 
557.70 84.32 -0.91 
558.43 84.75 -2.16 
562.08 84.77 -2.06 
565.03 84.78 -2.32 
565.40 84.75 -2.34 
565.29 84.93 -1.92 
566.30 84.72 -2.23 
567.00 84.32 -2.14 
567.21 84.30 -1.75 
542.99 84.91 -0.55 
543.77 85.43 1.97 
546.01 84.99 1.66 
546.20 85.12 -2.78 
547.19 85.25 -2.75 
547.68 85.05 -2.73 
551.23 85.21 -2.42 
551.50 85.02 -1.28 
551.49 85.06 -0.83 
551.48 85.11 -0.23 
552.10 85.07 -1.97 
552.09 85.08 -1.70 
552.07 85.12 -0.87 
552.06 85.14 -0.46 
552.67 85.32 -2.08 
552.66 85.34 -1.55 
552.64 85.37 -0.76 
552.63 85.39 -0.37 
553.68 85.25 -2.06 
553.67 85.27 -1.39 
553.65 85.29 -0.73 
553.65 85.30 -0.28 
553.97 85.21 -2.39 
554.74 85.06 -1.38 
554.72 85.07 -0.94 
554.69 85.09 -0.49 
555.44 85.44 -2.17 
555.78 85.32 -1.70 
555.74 85.19 -0.84 
555.73 85.34 -0.34 
556.50 85.46 -2.15 
556.20 85.10 -0.61 
556.02 85.12 -0.37 
557.75 85.41 -2.11 
558.55 85.18 -2.14 
558.97 85.39 -2.14 
564.77 85.38 -2.38 
564.55 85.30 -1.65 
565.11 85.24 -2.64 
565.17 85.37 -2.36 
565.44 85.18 -1.91 
566.30 85.08 -2.25 
566.75 85.11 -1.63 
