# .PCD v0.7 - Point Cloud Data file format
VERSION 0.7
FIELDS x y z
SIZE 4 4 4
TYPE F F F
COUNT 1 1 1
WIDTH 230
HEIGHT 1
VIEWPOINT 0 0 0 1 0 0 0
POINTS 230
DATA ascii
575.65 -134.35 -6.74 
576.44 -134.06 -6.71 
577.22 -133.75 -6.68 
587.39 -127.88 -5.40 
587.37 -127.90 -4.80 
587.28 -127.71 -4.12 
587.28 -127.73 -3.60 
587.30 -127.94 -2.99 
587.28 -127.95 -2.38 
587.16 -127.03 -3.76 
588.01 -126.90 -5.75 
587.92 -126.88 -4.99 
587.88 -127.16 -4.16 
587.84 -126.92 -3.45 
587.80 -127.19 -3.03 
587.98 -126.43 -5.67 
587.97 -126.41 -4.73 
587.93 -126.47 -4.32 
587.92 -126.48 -3.92 
580.31 -123.19 -3.63 
580.30 -123.20 -1.40 
580.53 -123.67 -1.13 
581.56 -123.43 -1.01 
570.70 -122.73 -6.53 
571.53 -123.01 -6.65 
579.79 -122.94 -3.07 
580.13 -122.61 -1.43 
580.59 -122.58 -3.67 
580.81 -122.84 -2.27 
580.70 -122.69 -1.47 
580.58 -123.11 -1.05 
581.25 -122.64 -1.33 
580.37 -122.20 -3.15 
581.13 -121.93 -2.62 
580.72 -122.19 -2.48 
583.20 -122.07 -1.22 
583.49 -121.90 -1.57 
571.37 -121.58 -6.49 
579.54 -121.58 -1.48 
580.32 -121.35 -1.37 
579.80 -121.16 -0.99 
580.76 -121.64 -2.54 
580.62 -121.33 -1.64 
581.73 -121.12 -1.79 
581.91 -121.08 -2.81 
582.41 -121.40 -2.09 
582.15 -121.11 -1.62 
582.48 -121.28 -1.09 
582.99 -121.07 -2.79 
582.94 -121.21 -2.34 
582.56 -121.28 -1.65 
583.45 -121.66 -3.72 
583.25 -121.16 -3.18 
583.27 -121.31 -2.34 
583.24 -121.52 -1.74 
580.36 -120.68 -1.72 
580.31 -120.72 -1.06 
581.07 -120.47 -2.04 
580.68 -120.92 -1.70 
581.81 -120.70 -1.75 
582.24 -120.51 -4.09 
582.34 -120.62 -3.54 
582.27 -120.45 -3.21 
582.06 -120.85 -1.96 
582.56 -120.68 -3.71 
583.05 -120.92 -3.24 
583.39 -120.63 -3.72 
584.20 -120.62 -1.99 
584.20 -120.62 -1.99 
585.58 -120.45 -3.30 
572.19 -119.82 -6.43 
580.38 -119.94 -1.91 
580.71 -120.26 -2.76 
580.96 -120.10 -2.07 
580.44 -120.33 -1.69 
581.69 -120.16 -3.53 
581.45 -120.28 -3.05 
582.10 -119.80 -4.34 
582.21 -120.31 -3.70 
581.83 -120.33 -2.41 
582.65 -120.14 -5.77 
582.81 -119.87 -4.93 
583.03 -119.91 -4.15 
582.99 -119.81 -3.62 
582.61 -119.91 -2.17 
583.37 -120.03 -4.15 
583.70 -120.15 -3.72 
583.71 -120.02 -2.95 
583.40 -119.90 -1.91 
584.04 -119.82 -3.95 
584.04 -120.00 -2.55 
584.08 -120.09 -2.44 
585.64 -120.02 -3.65 
572.26 -119.03 -6.47 
578.23 -119.36 -2.81 
578.68 -119.46 -2.18 
579.50 -119.58 -2.96 
579.23 -119.49 -2.43 
580.15 -119.34 -2.70 
579.87 -119.20 -2.28 
580.94 -119.45 -1.30 
581.65 -119.55 -4.34 
582.19 -119.46 -3.60 
582.18 -119.46 -3.16 
582.27 -118.93 -2.09 
582.84 -119.62 -4.17 
582.79 -119.45 -3.60 
582.79 -119.43 -2.91 
582.84 -119.19 -2.10 
585.50 -119.55 -3.06 
576.31 -118.67 -2.91 
580.10 -118.40 -2.76 
580.76 -118.39 -2.98 
581.37 -118.78 -2.41 
582.27 -118.93 -2.09 
569.93 -117.65 -6.41 
576.16 -117.96 -2.99 
575.55 -117.66 -0.79 
576.81 -117.68 -3.36 
576.44 -117.58 -3.00 
577.05 -117.59 -3.62 
577.57 -117.55 -2.93 
578.07 -117.98 -3.73 
577.83 -117.91 -2.76 
578.56 -117.72 -2.81 
578.98 -118.09 -2.49 
579.70 -117.57 -2.80 
579.99 -117.73 -2.81 
579.92 -118.19 -2.30 
581.00 -117.70 -3.28 
582.73 -117.59 -2.06 
575.93 -117.00 -3.52 
576.01 -117.31 -0.77 
576.51 -116.85 -3.52 
577.41 -117.07 -3.60 
577.36 -116.91 -2.94 
578.00 -116.88 -3.57 
578.12 -117.19 -2.70 
578.28 -117.41 -2.42 
578.87 -117.40 -3.48 
578.70 -117.10 -2.95 
579.51 -117.23 -3.06 
579.10 -117.06 -1.70 
580.41 -116.98 -1.98 
580.79 -116.92 -1.86 
582.40 -117.11 -2.27 
582.69 -116.89 -2.66 
583.09 -117.07 -2.16 
583.59 -117.48 -2.42 
576.09 -116.20 -3.99 
576.21 -116.45 -3.52 
575.85 -116.16 -2.73 
576.39 -116.49 -4.04 
577.14 -116.19 -3.50 
577.66 -116.70 -3.09 
578.91 -116.44 -3.15 
579.61 -116.16 -4.11 
579.21 -116.19 -3.15 
579.65 -116.65 -1.85 
579.22 -116.39 -1.56 
579.22 -116.46 -0.73 
579.92 -116.41 -5.15 
580.10 -116.46 -2.02 
580.73 -116.56 -1.89 
582.48 -116.71 -2.29 
583.13 -116.71 -2.20 
567.83 -116.04 -6.20 
576.09 -115.85 -2.73 
576.53 -115.82 -3.58 
576.30 -115.54 -2.72 
577.46 -115.84 -4.29 
577.66 -115.61 -0.94 
578.94 -115.78 -3.66 
578.85 -115.74 -2.80 
578.67 -116.02 -1.51 
578.87 -116.13 -0.85 
579.19 -115.99 -4.53 
579.43 -115.53 -3.11 
579.45 -115.61 -1.97 
580.18 -115.56 -4.09 
579.83 -115.50 -2.66 
580.33 -115.95 -2.36 
580.59 -115.85 -3.61 
582.39 -115.77 -3.00 
582.45 -115.83 -2.22 
592.05 -115.81 -5.26 
568.32 -115.09 -6.16 
575.41 -115.40 -2.32 
575.98 -114.86 -2.53 
576.46 -115.21 -2.71 
576.85 -115.09 -1.51 
577.38 -115.16 -3.22 
577.38 -115.16 -3.22 
577.43 -115.28 -2.19 
577.30 -115.18 -1.50 
577.39 -114.83 -0.60 
578.02 -115.00 -4.11 
578.00 -115.00 -3.57 
577.69 -114.85 -2.72 
577.91 -115.30 -2.49 
579.01 -114.93 -5.58 
578.95 -114.91 -4.79 
578.89 -114.90 -4.01 
578.40 -115.35 -3.25 
578.42 -115.43 -2.62 
579.52 -115.28 -5.37 
579.43 -115.24 -4.50 
579.34 -115.20 -3.64 
579.57 -114.89 -3.24 
579.80 -115.01 -3.16 
580.98 -114.90 -3.39 
580.46 -115.39 -2.70 
580.56 -114.98 -1.48 
581.41 -115.14 -3.61 
581.39 -114.76 -3.20 
581.81 -114.99 -2.18 
576.49 -114.54 -2.33 
577.35 -114.53 -3.15 
577.17 -114.68 -1.49 
577.68 -114.54 -5.40 
577.94 -114.54 -5.20 
577.90 -114.54 -4.57 
578.09 -114.68 -3.66 
577.64 -114.65 -3.15 
578.53 -114.59 -5.66 
578.47 -114.58 -4.95 
578.42 -114.56 -4.25 
579.69 -114.71 -3.33 
580.76 -114.57 -3.26 
581.45 -114.57 -3.59 
