# .PCD v0.7 - Point Cloud Data file format
VERSION 0.7
FIELDS x y z
SIZE 4 4 4
TYPE F F F
COUNT 1 1 1
WIDTH 734
HEIGHT 1
VIEWPOINT 0 0 0 1 0 0 0
POINTS 734
DATA ascii
569.66 110.82 -1.96 
569.81 111.06 -1.92 
571.40 110.73 -1.72 
571.40 110.91 -1.81 
571.94 110.99 -1.92 
572.08 110.85 -1.51 
572.98 110.92 -1.26 
573.49 110.77 -1.12 
579.84 110.86 -1.20 
580.49 111.00 -1.28 
581.26 110.77 -0.97 
582.57 110.74 -0.83 
587.58 110.78 -1.09 
588.14 110.81 -0.27 
588.14 110.81 -0.27 
592.14 110.75 -0.76 
570.11 111.26 -1.89 
570.72 111.83 -1.81 
571.56 111.21 -1.77 
571.48 111.58 -1.66 
572.09 111.24 -1.88 
572.20 111.34 -1.73 
572.79 111.54 -1.44 
573.68 111.66 -1.19 
574.04 111.83 -1.05 
580.48 111.41 -1.13 
581.30 111.67 -1.20 
581.89 111.59 -0.89 
582.48 111.40 -0.72 
583.05 111.75 -0.74 
587.56 111.50 -1.35 
588.27 111.45 -1.00 
588.37 111.60 -0.38 
588.63 111.78 -0.95 
591.96 111.51 -0.90 
569.65 112.49 -2.12 
571.09 112.20 -1.76 
571.63 111.98 -1.64 
572.04 112.24 -1.53 
572.68 112.59 -1.83 
572.77 112.27 -1.41 
573.51 112.43 -1.25 
574.21 112.16 -1.02 
581.57 111.90 -1.17 
581.24 112.32 -1.03 
582.22 112.00 -0.85 
582.62 112.29 -0.67 
583.16 112.08 -0.72 
587.18 111.92 -1.35 
588.45 112.22 -0.18 
588.99 112.11 -0.91 
588.73 112.59 -0.32 
589.34 112.44 -0.86 
592.40 112.02 -0.80 
570.17 113.12 -2.36 
570.54 113.06 -2.14 
572.15 112.83 -1.82 
571.87 112.73 -1.59 
572.89 112.95 -1.78 
572.96 112.91 -1.37 
573.60 112.96 -1.29 
573.99 112.98 -1.12 
582.25 112.93 -1.07 
581.67 112.83 -0.98 
582.53 112.90 -1.11 
582.60 112.83 -0.65 
583.41 112.94 -0.65 
589.69 112.78 -0.82 
592.59 112.60 -0.74 
570.11 113.46 -2.35 
572.73 113.46 -1.49 
573.69 113.62 -1.43 
574.33 113.67 -1.08 
582.09 113.36 -0.92 
582.62 113.71 -1.00 
583.63 113.80 -0.59 
585.99 113.68 -0.99 
587.54 113.32 -1.34 
567.70 114.47 -2.12 
568.34 114.53 -2.10 
570.18 114.65 -2.05 
570.54 114.63 -2.23 
571.55 114.55 -2.18 
572.05 114.01 -1.51 
572.98 114.55 -1.87 
573.35 114.45 -1.39 
573.85 114.32 -1.72 
573.66 114.33 -1.31 
574.13 114.39 -1.34 
574.56 114.18 -1.05 
574.65 114.58 -1.04 
582.56 114.24 -0.84 
583.31 114.54 -0.95 
583.80 114.49 -0.54 
584.57 114.51 -0.99 
586.16 114.09 -0.94 
568.88 114.76 -2.10 
569.35 115.15 -2.12 
569.75 114.77 -2.07 
571.31 114.90 -2.17 
572.17 115.21 -1.45 
573.17 115.01 -1.96 
573.36 115.30 -1.77 
573.42 115.07 -1.53 
574.15 115.26 -1.81 
574.21 114.92 -1.52 
574.76 115.18 -1.07 
574.95 115.17 -0.99 
582.43 114.98 -0.55 
583.28 115.11 -0.87 
583.88 114.83 -0.51 
584.71 114.86 -0.96 
586.41 114.89 -0.87 
586.54 115.29 -0.83 
568.11 115.64 -2.26 
568.65 115.89 -2.40 
569.39 115.86 -2.20 
569.98 115.90 -2.25 
570.86 115.96 -1.96 
571.16 115.62 -2.17 
572.14 115.84 -2.14 
572.18 115.56 -1.43 
572.56 115.68 -2.12 
573.41 115.58 -1.98 
573.75 115.79 -1.60 
574.22 115.85 -1.91 
574.15 115.69 -1.25 
574.88 115.86 -1.32 
575.17 115.59 -0.99 
575.31 115.91 -0.93 
583.50 115.57 -0.83 
583.87 115.83 -0.84 
586.68 115.67 -0.80 
591.20 116.02 -1.16 
591.04 115.94 -0.50 
567.79 116.32 -2.43 
568.50 116.43 -2.32 
569.22 116.13 -2.33 
570.14 116.21 -2.12 
570.63 116.46 -2.06 
571.51 116.42 -1.88 
572.07 116.25 -2.13 
572.58 116.40 -2.22 
573.72 116.14 -1.80 
573.86 116.34 -1.63 
574.32 116.36 -1.85 
574.10 116.52 -1.51 
574.98 116.37 -1.35 
575.27 116.17 -0.98 
575.42 116.48 -0.96 
583.46 116.44 -0.65 
584.08 116.31 -0.79 
586.96 116.43 -0.73 
591.00 116.16 -1.19 
591.33 116.33 -0.46 
591.56 116.45 -1.10 
574.09 116.99 -1.77 
574.23 117.09 -1.54 
574.77 117.19 -1.09 
575.39 117.15 -1.26 
575.76 117.22 -0.90 
576.04 117.44 -0.82 
583.63 117.09 -0.59 
584.08 117.21 -0.70 
584.30 117.30 -0.35 
584.43 117.11 -0.72 
585.68 117.29 -0.75 
587.11 116.80 -0.69 
587.24 117.18 -0.66 
567.94 118.04 -2.12 
568.51 118.18 -2.02 
574.55 117.87 -1.58 
574.85 117.91 -1.23 
575.08 117.81 -1.05 
575.74 117.89 -1.30 
575.82 117.63 -1.01 
576.12 117.99 -0.84 
580.13 117.84 -1.32 
580.55 117.85 -1.30 
583.86 117.78 -0.42 
584.24 118.19 -0.30 
584.70 117.75 -0.67 
585.95 117.98 -0.69 
587.52 117.93 -0.60 
589.75 118.03 -1.26 
590.19 117.84 -1.21 
590.27 117.71 -1.06 
568.60 118.36 -2.09 
569.32 118.33 -2.10 
570.15 118.45 -2.06 
570.42 118.53 -2.05 
573.01 118.64 -1.82 
573.18 118.50 -1.74 
573.53 118.78 -1.71 
574.43 118.70 -1.78 
574.96 118.58 -1.50 
575.17 118.32 -1.06 
575.96 118.35 -1.29 
575.52 118.68 -1.00 
576.09 118.57 -1.23 
576.29 118.58 -0.93 
579.47 118.24 -1.24 
580.38 118.79 -1.15 
584.33 118.56 -0.60 
583.95 118.83 -0.35 
584.82 118.48 -0.61 
586.22 118.67 -0.64 
590.18 118.44 -1.18 
590.14 118.36 -1.03 
567.73 119.55 -2.05 
570.04 118.96 -2.11 
570.50 119.07 -2.07 
571.57 119.49 -1.95 
571.85 119.57 -1.93 
573.25 118.92 -1.78 
573.80 119.14 -1.66 
573.97 119.32 -1.15 
575.02 119.25 -1.60 
575.48 119.38 -1.24 
575.76 119.53 -0.99 
576.43 119.28 -1.15 
576.46 119.06 -1.02 
576.84 119.24 -0.71 
580.79 119.03 -1.12 
581.19 119.28 -1.08 
584.14 119.37 -0.42 
584.14 119.37 -0.42 
584.49 119.22 -0.55 
586.40 119.42 -0.58 
567.81 119.73 -2.06 
568.36 119.83 -2.12 
569.61 120.01 -2.07 
569.84 120.10 -2.06 
570.75 120.14 -2.03 
572.47 119.86 -1.86 
572.92 120.05 -1.82 
574.32 120.06 -1.62 
575.59 119.94 -1.23 
575.94 120.10 -0.93 
576.67 119.76 -1.13 
576.08 119.90 -0.94 
576.74 120.02 -1.16 
576.99 120.10 -0.81 
583.67 120.13 -0.92 
584.24 119.69 -0.40 
583.97 119.86 -0.29 
584.64 119.88 -0.51 
585.14 120.18 -0.48 
588.24 120.23 -0.40 
590.01 119.97 -0.67 
590.58 120.03 -0.62 
591.79 120.17 -0.53 
567.87 120.71 -2.05 
567.69 120.64 -1.49 
568.55 120.84 -2.06 
569.37 120.87 -2.02 
570.03 120.82 -1.93 
570.51 120.96 -2.12 
571.55 120.36 -2.01 
573.31 120.32 -1.76 
575.83 120.54 -1.41 
575.94 120.30 -0.92 
576.14 120.82 -1.30 
576.18 120.61 -0.94 
577.02 120.43 -1.21 
577.17 120.49 -0.78 
582.05 120.88 -0.90 
584.23 120.48 -0.17 
584.45 120.52 -0.34 
585.21 120.52 -0.46 
588.29 120.63 -0.37 
592.60 120.74 -0.42 
567.99 121.24 -1.89 
567.79 121.17 -1.53 
568.79 121.13 -2.02 
569.23 121.23 -1.99 
570.04 121.07 -2.00 
570.07 121.27 -1.60 
570.68 121.14 -1.91 
571.36 121.35 -1.88 
572.17 121.49 -1.84 
573.05 121.59 -1.81 
573.33 121.63 -1.83 
574.25 121.15 -1.62 
575.21 121.57 -1.45 
576.00 121.21 -1.47 
576.30 121.28 -1.32 
576.32 121.51 -1.10 
577.41 121.19 -0.86 
577.54 121.49 -0.84 
577.54 121.47 -0.06 
582.18 121.14 -0.88 
582.31 121.41 -0.85 
583.13 121.14 -0.98 
583.99 121.22 -0.22 
584.64 121.31 -0.77 
584.51 121.38 -0.28 
588.40 121.41 -0.32 
590.54 121.49 -0.58 
568.28 122.03 -1.90 
568.36 122.26 -1.81 
568.62 122.25 -1.18 
569.21 122.13 -1.93 
570.88 122.06 -1.21 
572.10 121.83 -1.89 
573.20 121.73 -1.79 
573.89 122.08 -1.70 
574.07 122.17 -1.68 
575.21 122.08 -1.49 
575.51 122.01 -1.40 
576.62 121.98 -1.23 
576.71 122.04 -0.93 
576.77 122.26 -1.20 
577.10 121.97 -0.68 
577.31 121.91 -0.05 
577.14 122.29 1.01 
577.10 122.24 1.58 
577.08 122.21 1.88 
577.72 122.13 -0.81 
577.82 122.23 0.17 
577.75 121.93 0.56 
577.46 122.03 1.05 
582.70 122.21 -0.77 
584.96 121.71 -0.72 
584.53 121.71 -0.26 
585.51 122.38 -0.64 
587.00 122.30 -0.37 
591.39 121.83 -0.47 
591.81 122.14 -0.41 
568.05 122.66 -1.85 
568.57 122.78 -1.86 
568.99 122.71 -1.07 
569.04 122.72 -1.39 
571.15 122.51 -1.54 
571.97 123.06 -1.57 
574.75 122.72 -1.58 
575.55 123.28 -1.48 
576.65 123.04 -0.65 
577.13 122.86 -0.67 
577.30 122.71 -0.26 
577.34 122.83 0.60 
577.30 122.79 1.26 
577.58 122.72 -0.63 
577.55 122.73 0.04 
577.66 122.79 0.68 
578.04 122.61 1.19 
577.52 122.81 1.74 
578.19 123.08 -0.74 
584.74 122.61 -0.75 
585.03 122.93 -0.32 
585.25 123.07 -0.68 
585.68 122.89 -0.29 
585.96 122.93 -0.57 
586.69 122.89 -0.66 
587.10 123.02 -0.32 
587.24 123.07 -0.67 
588.62 122.57 -0.23 
568.27 123.44 -1.82 
568.55 123.49 -1.88 
568.48 123.58 -1.68 
569.60 123.34 -1.81 
569.11 123.20 -0.60 
569.28 123.25 0.18 
570.10 123.48 -1.79 
570.58 123.55 -1.83 
571.44 123.66 -1.78 
572.39 123.51 -1.51 
573.03 123.27 -1.49 
575.98 123.44 -1.26 
576.17 123.48 -1.31 
576.72 123.55 -0.76 
576.91 123.48 -0.57 
577.07 123.31 -0.22 
577.19 123.32 0.71 
576.89 123.21 1.52 
577.03 123.30 1.93 
578.02 123.52 -0.71 
577.66 123.12 -0.06 
578.37 123.66 -0.78 
578.29 123.69 -0.25 
578.19 123.57 0.86 
578.16 123.52 1.23 
583.36 123.54 -0.65 
584.55 123.73 -0.14 
585.51 123.31 -0.65 
585.68 123.43 -0.26 
586.42 123.48 -0.51 
587.00 123.13 -0.62 
587.15 123.38 -0.30 
587.39 123.40 -0.64 
587.21 123.74 -0.28 
588.84 123.72 -0.15 
568.51 124.33 -1.79 
568.77 124.11 -1.62 
569.26 123.97 -1.81 
570.02 124.36 -1.77 
570.22 124.43 -1.76 
570.60 124.14 -1.82 
571.59 123.97 -1.72 
574.56 123.84 -1.48 
575.04 124.35 -1.59 
574.99 123.97 -0.82 
575.45 124.35 -1.38 
575.49 124.21 -0.76 
576.34 124.13 -1.35 
577.03 123.88 -0.78 
577.69 124.13 -0.99 
578.50 123.99 -0.68 
578.95 123.82 -0.92 
583.44 124.00 -0.61 
584.93 124.29 -0.24 
585.61 124.30 -0.21 
586.17 124.10 -0.55 
586.63 124.15 -0.45 
587.78 124.03 -0.56 
587.26 124.11 -0.25 
587.98 124.34 -0.52 
588.91 124.10 -0.12 
589.82 124.06 -0.55 
590.15 124.30 -0.50 
568.54 124.85 -1.86 
568.97 124.68 -1.63 
569.11 125.09 -1.63 
571.06 124.93 -1.77 
570.67 124.77 -1.74 
571.18 124.94 -1.72 
575.01 124.49 -1.11 
575.76 125.00 -1.02 
576.91 124.79 -1.17 
577.00 124.74 -0.90 
577.66 124.93 -1.11 
577.57 124.89 -0.88 
577.42 124.67 -0.21 
578.52 124.99 -0.64 
578.92 124.94 -0.67 
583.50 124.75 -0.55 
584.91 124.62 -0.23 
585.51 125.15 -0.16 
586.47 124.71 -0.48 
586.62 125.02 -0.44 
586.94 125.15 -0.36 
587.25 124.69 -0.22 
588.18 124.66 -0.48 
589.06 124.87 -0.07 
590.81 124.78 -0.40 
591.15 125.02 -0.35 
568.85 125.61 -1.75 
569.31 125.61 -1.62 
571.27 125.22 -1.75 
575.99 125.44 -0.93 
576.55 125.66 -1.09 
576.36 125.25 -0.93 
577.20 125.67 -1.08 
577.85 125.21 -1.07 
577.86 125.35 -0.90 
578.62 125.31 -0.60 
579.04 125.25 -0.65 
580.18 125.66 0.01 
583.51 125.66 -0.48 
584.83 125.64 -0.18 
585.45 125.66 -0.13 
586.76 125.33 -0.41 
587.04 125.48 -0.33 
588.58 125.29 -0.40 
588.58 125.29 -0.40 
589.13 125.66 -0.02 
591.50 125.26 -0.30 
592.21 125.74 -0.19 
568.97 126.03 -1.74 
569.33 126.16 -1.61 
569.57 126.12 -1.70 
569.89 126.41 -1.65 
571.04 125.91 -1.47 
571.16 126.18 -1.46 
573.65 126.26 -1.50 
574.01 126.34 -1.48 
576.58 126.36 -1.04 
577.34 126.02 -1.05 
577.42 126.39 -0.80 
579.34 125.99 -0.60 
580.01 126.17 -0.49 
580.72 126.04 -0.44 
580.29 126.24 -0.29 
583.52 126.10 -0.45 
584.81 125.97 -0.16 
585.38 126.34 -0.10 
587.18 126.26 -0.31 
587.32 126.48 -0.24 
588.94 126.24 -0.24 
569.66 126.69 -1.62 
569.99 126.97 -1.60 
570.50 126.72 -1.54 
571.32 126.60 -1.45 
578.44 126.71 -0.82 
579.34 127.27 -0.57 
579.63 126.76 -0.55 
583.53 127.11 -0.38 
585.34 126.67 -0.08 
586.94 126.69 -0.11 
587.46 126.88 -0.24 
589.11 126.83 0.04 
589.48 127.21 -0.14 
569.35 127.37 -1.72 
569.96 127.44 -1.61 
571.70 127.50 -1.42 
571.94 127.82 -1.40 
579.45 127.63 -0.55 
579.91 127.56 -0.50 
583.55 127.82 -0.33 
586.81 127.40 -0.08 
587.74 127.50 -0.18 
587.95 127.97 -0.14 
588.97 127.62 0.08 
589.66 127.54 -0.10 
590.21 127.82 -0.11 
569.87 128.27 -1.38 
570.67 128.68 -1.38 
571.12 128.06 -1.36 
572.49 128.22 -1.35 
573.13 128.44 -1.41 
578.52 128.47 -0.73 
579.20 128.57 -0.63 
579.97 128.26 -0.62 
580.27 128.60 -0.67 
583.48 128.69 -0.28 
584.86 128.09 -0.55 
585.55 128.66 -0.46 
586.62 128.46 -0.03 
587.85 128.50 -0.08 
588.16 128.45 -0.09 
588.77 128.38 0.12 
590.22 128.53 0.00 
568.62 129.08 -1.60 
570.26 129.05 -1.37 
578.49 128.88 -0.71 
579.36 128.98 -0.60 
579.92 128.84 -0.43 
580.43 128.90 -0.59 
580.80 129.22 -0.30 
585.76 128.86 -0.42 
586.23 128.78 -0.47 
587.06 129.20 -0.37 
586.55 128.81 -0.02 
587.75 129.22 -0.04 
588.15 129.16 -0.03 
588.67 128.76 0.14 
590.30 128.90 0.03 
568.88 129.71 -1.58 
570.37 129.55 -1.36 
570.54 129.82 -1.36 
572.40 129.88 -1.14 
577.87 129.91 -0.77 
579.29 129.46 -0.80 
579.54 129.39 -0.58 
580.79 129.56 -0.52 
580.88 129.45 -0.28 
581.08 130.01 -0.51 
580.97 129.68 -0.27 
586.43 129.49 -0.33 
587.73 129.56 -0.02 
588.20 129.67 0.01 
590.41 129.65 0.10 
590.79 129.60 0.06 
591.92 129.61 -0.36 
592.20 129.90 -0.33 
569.07 130.25 -1.56 
570.67 130.22 -1.36 
572.56 130.15 -1.13 
577.84 130.45 -0.74 
579.01 130.35 -0.72 
579.68 130.74 -0.67 
580.40 130.70 -0.44 
581.24 130.41 -0.47 
581.35 130.77 -0.20 
582.49 130.78 -0.55 
587.56 130.60 -0.17 
588.33 130.27 0.20 
589.13 130.25 -0.11 
590.51 130.39 0.16 
591.00 130.63 -0.78 
591.09 130.68 0.15 
592.46 130.66 -1.09 
592.40 130.51 -0.90 
592.50 130.18 -0.30 
567.93 131.26 -1.61 
568.09 131.29 -0.95 
568.63 131.23 -0.92 
573.13 131.13 -1.09 
573.26 131.45 -1.08 
580.05 131.02 -0.49 
580.55 131.13 -0.41 
581.42 130.80 -0.49 
581.58 131.41 -0.17 
581.78 131.47 -0.42 
582.81 131.43 -0.45 
587.64 130.95 0.07 
588.34 131.02 0.11 
589.65 131.43 -0.49 
590.26 131.39 -0.57 
590.46 130.98 0.05 
591.34 131.46 -0.79 
591.08 131.38 0.13 
591.43 131.35 -1.11 
591.83 131.32 -0.78 
591.56 131.02 -0.32 
592.46 131.17 -0.77 
568.04 132.00 -1.04 
568.32 131.87 -1.02 
573.54 132.12 -1.07 
579.14 131.69 -0.63 
580.03 131.75 -0.58 
580.46 131.72 -0.61 
581.27 131.87 -0.74 
581.34 131.65 -0.33 
581.80 131.80 -0.62 
581.94 131.80 -0.33 
582.91 131.64 -0.42 
583.02 131.84 -0.39 
583.17 132.15 -0.34 
585.68 131.55 -0.29 
585.95 131.69 -0.26 
587.57 131.97 0.12 
588.42 131.86 0.18 
590.70 131.86 0.27 
590.90 131.99 -0.37 
591.35 131.78 0.24 
591.91 131.59 -0.73 
591.72 131.79 0.21 
592.28 132.02 -0.66 
592.42 131.66 0.00 
567.95 132.44 -1.14 
568.27 132.81 -0.93 
568.70 132.24 -1.09 
568.64 132.43 -0.90 
572.38 132.73 -0.85 
580.15 132.69 -0.50 
580.70 132.37 -0.56 
580.76 132.56 -0.33 
581.46 132.29 -0.49 
582.20 132.43 -0.51 
582.17 132.26 -0.34 
582.36 132.62 -0.26 
583.37 132.55 -0.28 
586.87 132.55 -0.12 
587.52 132.65 0.16 
588.52 132.86 0.25 
588.66 132.31 0.04 
591.08 132.44 -0.70 
590.75 132.23 0.30 
591.77 132.38 -0.30 
592.33 132.56 -0.18 
567.93 132.94 -0.94 
568.79 133.49 -1.00 
571.76 133.06 -0.89 
580.20 133.07 -0.47 
580.82 133.14 -0.49 
581.12 133.35 -0.51 
581.88 133.07 -0.39 
582.02 133.35 -0.36 
582.60 133.15 -0.22 
583.19 133.22 -0.35 
585.47 133.47 -0.39 
587.50 133.13 -0.03 
589.09 132.98 0.12 
568.08 134.20 -0.98 
568.83 134.26 -1.12 
568.67 134.01 -0.88 
569.06 134.14 -0.92 
569.97 133.89 -0.86 
570.51 133.71 -0.96 
575.54 133.90 -0.94 
576.46 134.25 -0.87 
582.29 133.88 -0.29 
582.67 134.01 -0.37 
582.67 134.01 -0.37 
583.55 133.80 -0.26 
583.80 134.21 -0.19 
585.82 133.78 -0.34 
585.89 134.06 2.53 
587.11 134.25 1.25 
586.56 134.01 1.81 
587.24 134.24 1.08 
588.39 133.94 0.10 
588.73 134.25 0.15 
590.25 133.83 -0.62 
591.33 134.04 -0.45 
591.31 134.03 0.25 
591.49 134.25 -0.25 
592.38 133.88 -0.45 
592.24 133.98 -0.23 
568.20 134.49 -1.15 
567.76 134.38 -0.93 
568.56 134.36 -1.13 
582.69 134.58 -0.21 
583.13 134.78 -0.26 
584.00 134.59 -0.14 
584.99 134.89 3.22 
585.42 134.85 1.01 
585.73 134.68 2.99 
585.46 134.50 3.10 
586.46 134.33 -0.25 
586.48 134.32 2.28 
585.87 134.44 2.59 
586.99 134.72 0.33 
586.70 134.69 1.32 
586.56 134.34 1.84 
587.04 134.93 2.69 
587.59 134.63 2.70 
587.37 134.97 3.14 
588.88 134.82 -0.61 
588.97 134.47 0.19 
589.66 134.66 -0.58 
589.75 134.97 -0.29 
590.28 134.50 -0.55 
590.09 134.82 -0.28 
591.14 134.40 -0.26 
591.47 134.75 0.07 
582.49 135.07 0.15 
583.52 135.45 -0.17 
584.16 135.14 0.20 
584.10 135.22 4.03 
585.06 135.01 3.09 
586.09 135.17 1.12 
586.19 135.01 1.86 
586.93 135.43 0.07 
587.74 135.25 3.62 
588.34 135.32 3.24 
588.93 135.15 -0.53 
588.74 135.38 -0.33 
589.47 135.02 -0.68 
589.45 135.09 0.27 
590.27 135.02 -0.56 
592.07 135.29 -0.38 
592.47 135.06 -0.44 
