# .PCD v0.7 - Point Cloud Data file format
VERSION 0.7
FIELDS x y z
SIZE 4 4 4
TYPE F F F
COUNT 1 1 1
WIDTH 65
HEIGHT 1
VIEWPOINT 0 0 0 1 0 0 0
POINTS 65
DATA ascii
591.746950 -16.911192 -2.805306
570.555660 -36.210331 -3.726286
568.579220 -39.165291 -3.650471
573.447810 -39.404831 -3.643921
569.225460 -39.072918 -3.735677
568.314390 -38.762169 -3.744389
591.069640 -14.595104 -2.423948
591.995790 -14.855625 -2.428643
587.205200 -18.520411 -2.548891
588.330140 -18.609762 -2.549104
589.424320 -18.695303 -2.549265
590.489140 -18.777384 -2.549324
591.525630 -18.856424 -2.549320
592.535950 -18.933348 -2.549345
589.420780 -18.489368 -2.551355
590.547490 -18.552734 -2.550791
591.643370 -18.612999 -2.550198
592.530940 -17.136881 -2.808404
590.671810 -16.676283 -2.804914
589.741640 -16.579500 -2.809980
588.798710 -16.471430 -2.813985
587.830140 -16.361071 -2.817458
586.836300 -16.249701 -2.820562
585.814090 -16.135759 -2.823131
584.763060 -16.019751 -2.825232
583.681580 -15.901426 -2.826817
582.635560 -15.715960 -2.823247
581.490660 -15.587835 -2.823387
592.010500 -20.888283 -2.776887
591.235230 -20.588070 -2.771611
590.455260 -20.285767 -2.765691
589.650630 -20.008263 -2.760665
588.780820 -19.804710 -2.759341
587.793030 -19.747383 -2.766277
586.806150 -19.656242 -2.770796
585.797730 -19.564037 -2.774807
584.769470 -19.465240 -2.777973
582.611690 -14.674877 -2.848053
583.639590 -16.040295 -2.860274
583.121030 -15.351261 -2.854503
584.165710 -16.741257 -2.865219
584.700560 -17.455200 -2.869402
585.244510 -18.182594 -2.872712
586.388920 -19.625473 -2.874224
585.823240 -18.871872 -2.872726
586.967290 -20.394844 -2.874802
587.558590 -21.180420 -2.874435
588.168090 -21.969662 -2.872488
588.762940 -22.860226 -2.873120
578.547180 -15.675428 -2.997205
577.938350 -15.002001 -2.987203
577.211550 -14.606802 -2.993270
579.094540 -16.400137 -3.006207
579.648440 -17.136412 -3.014379
580.218510 -17.875391 -3.021271
580.806340 -18.606901 -3.026302
581.403440 -19.351061 -3.030453
589.997620 -14.910799 -3.104096
590.661250 -15.771093 -3.104304
581.486760 -15.168182 -2.973109
582.127080 -15.942028 -2.973541
582.782290 -16.732178 -2.973188
582.557370 -14.973162 -3.017496
583.209530 -15.763327 -3.017496
581.921630 -15.247808 -3.063315
