# .PCD v0.7 - Point Cloud Data file format
VERSION 0.7
FIELDS x y z
SIZE 4 4 4
TYPE F F F
COUNT 1 1 1
WIDTH 1658
HEIGHT 1
VIEWPOINT 0 0 0 1 0 0 0
POINTS 1658
DATA ascii
567.92 11.37 -3.16 
567.93 11.36 -2.50 
567.93 11.35 -1.83 
568.15 10.90 -1.04 
567.94 11.33 -0.51 
567.95 11.31 0.83 
568.15 10.83 1.05 
568.53 11.30 -3.15 
568.84 10.96 -2.46 
568.55 11.29 -1.85 
568.56 11.29 -1.19 
568.58 11.28 0.11 
568.58 11.28 0.76 
568.84 10.87 0.92 
572.04 11.44 -0.24 
578.70 10.95 -2.65 
580.96 10.86 -2.56 
582.05 11.14 -2.50 
584.88 11.34 2.94 
591.52 11.44 3.53 
591.43 11.21 5.22 
592.43 11.39 4.91 
592.15 11.04 5.16 
567.84 12.08 -3.15 
567.85 12.09 -2.51 
567.65 12.05 -1.73 
567.90 12.11 -0.61 
567.99 12.10 -0.29 
567.98 12.05 0.47 
567.96 11.99 1.23 
568.84 12.13 -0.37 
568.84 12.11 0.30 
568.84 12.09 0.97 
569.44 12.13 -1.10 
569.44 12.11 -0.45 
569.44 12.10 0.20 
572.12 11.83 -2.26 
572.10 11.74 -1.24 
572.07 11.65 -0.21 
577.44 11.49 -2.65 
584.34 11.93 3.91 
585.03 12.07 2.95 
584.74 12.07 3.37 
586.43 11.67 2.33 
586.56 11.80 1.65 
587.67 12.01 1.65 
591.40 12.05 5.24 
591.46 11.62 6.10 
592.55 12.02 4.90 
592.29 11.53 5.36 
568.06 12.30 -3.31 
568.04 12.25 -2.56 
568.02 12.20 -1.80 
568.01 12.15 -1.05 
568.69 12.58 -3.10 
568.85 12.20 -2.36 
568.74 12.62 -1.87 
568.78 12.66 -0.65 
568.81 12.68 -0.04 
568.83 12.70 0.56 
569.44 12.19 -3.05 
569.44 12.17 -2.40 
569.44 12.15 -1.75 
571.57 12.59 -2.21 
571.77 12.53 -1.17 
571.98 12.36 -1.21 
571.97 12.46 -0.14 
574.56 12.73 -3.32 
584.20 12.63 3.95 
584.88 12.76 2.99 
584.52 12.38 4.07 
585.35 12.56 2.98 
586.21 12.47 1.68 
586.08 12.32 2.37 
587.05 12.68 1.68 
587.42 12.56 1.44 
591.41 12.52 3.58 
590.87 12.56 5.70 
590.96 12.76 6.26 
591.89 12.71 3.77 
591.43 12.44 5.04 
592.22 12.80 2.95 
592.11 12.73 4.53 
592.59 12.34 5.30 
568.27 13.22 -3.03 
568.19 13.04 -2.41 
568.19 13.02 -1.77 
567.94 13.11 -1.04 
567.92 13.05 -0.27 
567.90 13.00 0.49 
567.93 12.91 0.90 
568.57 13.21 -3.22 
568.75 12.87 -2.42 
568.53 13.10 -1.75 
568.52 13.05 -1.02 
568.50 13.00 -0.28 
568.48 12.95 0.46 
569.42 12.96 -3.03 
569.49 13.36 -2.30 
569.48 13.34 -1.66 
569.48 13.31 -1.02 
569.46 12.93 0.03 
569.46 12.92 0.65 
569.48 13.24 0.90 
570.11 13.41 -2.95 
570.11 13.39 -2.33 
570.11 13.37 -1.71 
570.11 13.35 -1.09 
570.11 13.33 -0.47 
570.10 13.29 0.77 
573.25 13.31 -2.77 
584.31 13.24 3.00 
585.63 13.11 1.73 
586.30 13.40 0.24 
585.81 12.98 2.41 
587.06 13.19 1.47 
586.55 13.01 2.01 
587.53 13.17 1.13 
590.13 13.35 4.10 
591.32 13.25 3.84 
590.98 13.17 4.69 
591.94 13.31 0.81 
591.84 13.14 3.41 
591.45 13.07 4.30 
592.01 13.32 5.34 
591.47 13.49 6.54 
592.45 13.25 2.80 
592.29 13.23 3.45 
592.19 13.04 3.82 
592.13 13.17 5.12 
567.98 13.78 -2.47 
567.95 13.72 -1.68 
567.93 13.65 -0.89 
568.13 13.97 0.02 
568.14 13.96 0.62 
568.74 14.19 -2.35 
568.75 14.18 -1.73 
568.75 14.16 -1.12 
568.82 14.12 -0.36 
568.81 14.09 0.29 
568.45 13.80 0.96 
569.07 14.26 -2.41 
569.08 14.26 -1.83 
569.49 14.20 -1.16 
569.49 14.17 0.03 
569.49 14.16 0.63 
573.78 14.20 -2.70 
584.05 13.58 3.71 
584.68 13.58 3.19 
585.80 13.90 0.83 
585.62 13.85 1.83 
586.26 14.17 0.49 
586.17 14.09 1.20 
586.07 14.02 1.93 
586.01 13.74 2.68 
586.59 13.98 0.96 
586.71 13.99 2.03 
591.10 14.19 4.54 
591.28 13.62 5.89 
590.83 14.11 6.61 
591.82 13.86 -0.08 
591.80 13.94 0.31 
591.84 13.97 3.79 
591.58 13.90 5.16 
591.88 13.96 6.18 
592.27 14.11 -1.45 
592.59 13.65 -0.92 
592.51 14.18 -0.20 
592.60 13.80 2.81 
592.26 13.95 3.57 
568.14 14.88 -2.81 
568.14 14.85 -2.14 
568.13 14.82 -1.47 
568.12 14.78 -0.81 
567.81 14.88 -0.09 
567.78 14.79 0.76 
568.10 14.68 1.21 
568.26 14.89 1.72 
568.55 14.67 -2.88 
568.54 14.63 -2.23 
568.54 14.60 -1.57 
568.53 14.57 -0.92 
568.79 14.69 -0.23 
568.52 14.50 0.39 
568.75 14.57 1.25 
569.50 14.84 -2.36 
569.08 14.26 -1.83 
569.47 14.74 -0.95 
569.45 14.69 -0.25 
569.13 14.27 0.50 
570.08 14.43 -2.24 
570.07 14.40 -1.63 
570.07 14.38 -1.01 
570.24 14.39 -0.04 
570.24 14.38 0.54 
570.73 14.51 -2.27 
570.73 14.49 -1.68 
570.72 14.47 -1.09 
570.72 14.45 -0.49 
570.72 14.41 0.70 
577.02 14.61 -2.84 
584.67 14.50 0.87 
584.45 14.45 1.81 
585.02 14.94 4.02 
585.25 14.46 -2.67 
585.55 14.51 1.87 
585.27 14.45 3.62 
586.43 14.43 -2.35 
586.47 14.75 -1.63 
586.13 14.46 1.57 
585.96 14.85 2.07 
586.33 14.61 3.52 
586.49 14.91 4.63 
586.58 14.70 -0.91 
586.85 14.67 -0.20 
587.07 14.63 0.50 
586.74 14.50 3.44 
587.24 14.59 1.20 
587.33 14.54 1.89 
587.53 14.30 2.97 
587.29 14.41 3.31 
587.22 14.91 4.27 
588.52 14.58 1.32 
590.66 14.84 5.65 
590.63 14.53 6.33 
591.82 14.94 -0.70 
592.10 14.75 -0.11 
591.42 14.39 0.19 
591.96 14.61 3.79 
591.66 14.29 5.54 
591.54 14.34 5.84 
592.18 14.34 -1.23 
592.57 14.66 -0.77 
592.38 14.64 -0.13 
592.46 14.46 0.39 
592.20 14.41 3.49 
567.92 15.14 -2.63 
567.87 15.44 -2.40 
567.86 15.40 -1.71 
567.84 15.35 -1.01 
567.83 15.31 -0.32 
568.89 15.38 -2.33 
568.86 15.32 -1.57 
568.84 15.25 -0.81 
568.60 15.62 -0.14 
568.94 15.48 0.51 
568.59 15.56 1.16 
569.38 15.35 -2.28 
569.38 15.33 -1.70 
569.38 15.31 -1.11 
569.24 15.47 -0.20 
569.38 15.25 0.66 
569.20 15.36 1.24 
570.15 15.47 -2.86 
569.95 15.62 -2.29 
569.93 15.57 -1.61 
569.92 15.53 -0.92 
569.90 15.48 -0.23 
570.15 15.38 0.55 
570.62 15.41 -2.19 
570.62 15.39 -1.59 
570.61 15.37 -1.00 
570.61 15.34 -0.41 
570.60 15.29 0.78 
571.30 15.56 -2.79 
571.29 15.54 -2.22 
571.29 15.51 -1.65 
571.29 15.49 -1.08 
571.28 15.45 0.07 
571.28 15.43 0.64 
576.60 15.33 -2.79 
582.15 15.13 -2.75 
583.02 15.23 3.56 
583.38 15.54 4.18 
584.38 15.34 -1.30 
584.19 15.20 0.91 
583.84 15.36 3.22 
584.02 15.57 4.03 
584.47 15.39 -2.14 
584.98 15.36 -1.88 
584.94 15.33 -0.96 
584.61 15.31 -0.46 
584.94 15.27 0.37 
585.60 15.00 1.33 
585.22 15.19 2.01 
585.23 15.43 2.89 
585.25 15.10 3.66 
585.87 15.40 -1.43 
585.99 15.36 -0.60 
586.51 15.14 0.56 
586.05 15.51 1.77 
586.12 15.30 3.56 
586.52 15.21 -0.15 
586.60 15.29 1.03 
586.70 15.25 1.84 
586.67 15.15 3.48 
586.68 15.10 4.30 
586.56 15.32 4.41 
587.71 15.62 0.11 
587.53 15.48 0.93 
588.20 15.33 0.02 
588.42 15.40 1.31 
591.47 15.31 -0.72 
591.70 15.03 5.81 
592.59 15.12 -0.70 
592.49 15.56 0.09 
592.50 15.20 0.24 
592.54 15.17 4.82 
592.12 15.09 6.19 
567.91 15.89 -2.54 
567.87 15.79 -1.65 
567.96 15.74 -1.01 
567.79 15.86 -0.36 
567.76 15.77 0.70 
568.63 15.76 -2.74 
568.82 15.98 -2.24 
568.79 15.92 -1.45 
568.61 15.66 -0.79 
568.74 15.78 0.14 
568.65 16.31 0.85 
569.31 16.13 -2.26 
569.51 16.36 -1.51 
569.50 16.33 -0.89 
569.49 16.29 -0.27 
569.22 15.88 0.74 
569.19 15.82 1.49 
569.95 15.93 -2.33 
569.94 16.09 -1.58 
569.94 16.06 -0.98 
569.99 15.93 -0.16 
570.00 15.93 0.38 
570.21 16.10 1.15 
570.92 15.74 -2.83 
570.93 15.73 -2.28 
570.93 15.72 -1.73 
570.93 15.71 -1.19 
570.94 15.69 -0.09 
570.94 15.68 0.45 
571.13 16.33 -2.14 
571.12 16.31 -1.56 
571.12 16.28 -0.99 
571.11 16.26 -0.42 
571.11 16.21 0.73 
574.76 15.93 -2.56 
575.79 16.03 -2.77 
575.92 16.20 -2.51 
577.83 15.86 -2.62 
582.77 16.07 4.37 
582.61 16.27 5.31 
583.45 15.82 2.15 
583.62 15.85 2.84 
583.13 15.99 3.18 
583.49 15.81 3.81 
583.42 15.78 4.78 
584.41 16.28 2.28 
584.51 15.93 0.41 
584.80 16.34 1.38 
584.93 15.83 1.98 
584.59 16.19 2.32 
585.52 15.84 -2.10 
585.23 15.94 -1.88 
585.19 15.90 -1.00 
585.74 15.77 -0.39 
585.37 15.71 0.47 
585.17 16.25 1.00 
585.85 16.15 0.34 
586.05 15.71 1.30 
586.42 15.69 2.13 
586.29 15.83 2.47 
585.82 15.80 3.54 
587.13 16.16 -0.08 
586.80 16.16 0.86 
586.62 15.66 1.32 
586.72 15.81 1.64 
586.77 16.11 2.78 
587.15 16.07 3.45 
586.84 15.86 4.71 
587.64 16.07 -0.07 
587.36 16.28 4.57 
588.03 15.82 -0.02 
588.41 15.85 0.55 
588.27 16.21 1.00 
588.94 16.13 0.89 
592.04 16.10 0.07 
592.06 15.73 5.75 
592.34 16.27 -0.04 
592.39 15.90 0.88 
592.50 15.85 4.27 
592.47 15.96 4.81 
592.37 15.83 6.13 
567.90 16.44 -2.09 
568.26 16.46 -0.68 
568.22 16.36 0.20 
568.39 16.91 -2.37 
568.47 16.69 -1.59 
568.46 16.67 -0.99 
568.46 16.64 -0.39 
568.28 16.64 0.75 
568.61 17.02 1.14 
569.52 16.42 -2.74 
569.23 16.71 -2.17 
569.21 16.65 -1.39 
569.68 16.74 -0.72 
569.65 16.68 0.01 
569.63 16.61 0.75 
569.05 16.39 1.12 
569.95 16.42 -2.22 
570.05 16.63 -1.85 
570.01 16.54 -0.86 
570.08 16.95 -0.16 
570.64 16.88 0.47 
569.92 17.03 0.93 
570.42 16.99 -2.72 
570.65 16.48 -2.24 
570.92 16.72 -1.78 
570.95 16.74 -0.76 
570.96 16.74 -0.25 
570.64 16.88 0.47 
571.13 16.36 -2.71 
571.56 16.91 -2.22 
571.56 16.90 -1.70 
571.57 16.88 -0.67 
571.80 16.40 0.03 
571.79 16.38 0.59 
571.81 16.48 -2.17 
571.81 16.46 -1.62 
571.81 16.44 -1.07 
574.17 16.74 -2.78 
574.52 16.77 -2.52 
579.14 16.68 -2.51 
582.16 16.86 5.51 
582.54 16.41 4.02 
582.36 16.97 5.88 
584.30 16.45 1.73 
584.31 16.94 3.21 
584.70 16.54 -1.84 
584.71 16.50 0.09 
584.81 16.52 0.81 
584.80 16.34 1.38 
584.65 16.50 2.11 
584.67 17.03 4.66 
585.69 16.72 -1.95 
585.34 16.58 -0.08 
585.75 16.50 0.37 
585.32 16.39 1.08 
585.64 16.87 1.60 
585.37 16.69 3.66 
585.60 16.68 4.55 
585.95 16.73 -0.96 
586.10 16.59 -0.10 
585.85 16.82 0.36 
586.24 16.82 1.43 
586.06 16.76 1.77 
586.26 16.80 2.88 
586.09 16.44 3.61 
586.91 16.73 -0.08 
586.97 16.85 1.75 
586.80 16.51 3.01 
586.85 16.48 4.17 
587.06 16.88 4.48 
587.46 16.38 -0.09 
587.52 16.91 0.86 
587.94 16.74 1.07 
588.77 16.41 0.59 
589.06 16.89 1.28 
590.59 16.80 -0.08 
591.08 16.83 -0.11 
591.71 16.87 -0.52 
591.75 16.76 -0.29 
591.67 16.79 0.25 
591.89 16.37 5.78 
592.44 16.46 -0.58 
592.25 16.63 -0.33 
592.18 16.54 4.42 
592.28 16.52 6.13 
567.97 17.64 -2.74 
568.29 17.08 -0.03 
568.38 17.27 -2.00 
568.79 17.67 -1.25 
568.69 17.21 -0.61 
568.76 17.58 -0.22 
568.65 17.11 0.26 
569.07 17.73 -2.71 
569.52 17.43 -2.32 
569.52 17.31 -1.38 
569.51 17.28 -0.77 
569.59 17.48 -0.28 
569.12 17.60 0.37 
569.49 17.18 1.09 
569.51 17.09 1.74 
569.97 17.23 -2.67 
569.96 17.20 -2.07 
569.95 17.17 -1.47 
570.16 17.49 -0.68 
570.13 17.43 0.04 
569.93 17.07 0.32 
570.48 17.41 -2.71 
570.72 17.39 -2.26 
570.84 17.72 -1.52 
570.83 17.69 -0.95 
570.77 17.75 -0.21 
570.91 17.72 0.44 
570.73 17.77 0.96 
571.54 17.38 -2.67 
571.45 17.37 -2.21 
571.46 17.36 -1.69 
571.32 17.51 -0.97 
571.50 17.36 -0.15 
571.51 17.36 0.36 
571.23 17.52 1.01 
571.99 17.14 -2.13 
572.01 17.14 -1.60 
571.81 17.21 -0.74 
572.04 17.13 -0.52 
572.08 17.12 0.55 
576.34 17.06 -2.45 
582.52 17.09 6.39 
583.34 17.65 0.14 
583.17 17.10 4.86 
583.18 17.06 5.74 
583.21 17.27 5.81 
584.18 17.22 1.09 
583.78 17.17 2.09 
584.10 17.10 3.59 
583.90 17.36 3.81 
584.28 17.57 5.03 
585.02 17.36 -1.91 
584.84 17.29 0.11 
584.94 17.60 0.47 
585.01 17.17 1.09 
584.46 17.11 2.14 
584.67 17.11 3.85 
585.36 17.22 -0.94 
585.61 17.16 -0.05 
585.56 17.08 0.39 
585.56 17.47 1.35 
585.52 17.40 1.65 
585.59 17.19 2.57 
586.21 17.24 -0.09 
585.90 17.45 0.20 
585.99 17.30 1.21 
586.02 17.48 1.99 
585.98 17.48 2.72 
586.37 17.09 3.62 
585.90 17.56 4.57 
586.54 17.12 0.07 
587.18 17.46 0.50 
586.52 17.73 2.66 
586.83 17.50 4.25 
587.53 17.32 0.77 
587.62 17.60 0.88 
587.81 17.58 1.73 
587.64 17.50 4.34 
587.29 17.41 4.99 
588.23 17.33 2.05 
588.82 17.47 0.68 
589.75 17.49 -0.06 
590.49 17.73 -0.73 
590.64 17.40 -0.29 
591.07 17.30 -0.60 
591.01 17.40 -0.32 
591.04 17.24 0.25 
591.76 17.32 -0.76 
591.73 17.05 -0.20 
591.50 17.05 0.21 
591.83 17.44 5.83 
592.49 17.40 0.27 
568.05 17.78 -2.22 
568.13 17.92 -1.70 
568.21 18.05 -1.20 
568.83 17.76 -2.28 
568.78 18.07 -1.92 
568.74 17.98 -0.94 
568.36 18.30 -0.20 
568.44 18.43 0.28 
569.56 18.35 -2.71 
569.56 18.35 -2.22 
569.65 18.35 -1.48 
569.54 18.35 -0.81 
569.50 18.40 -0.14 
569.52 18.40 0.37 
569.43 18.24 1.02 
569.40 18.37 2.10 
570.06 18.17 -2.68 
570.08 18.16 -2.14 
570.10 18.16 -1.60 
570.10 18.12 -0.90 
570.04 18.10 -0.21 
570.11 18.15 0.49 
570.02 18.12 0.83 
570.47 17.94 -2.68 
570.67 17.84 -2.12 
570.51 17.93 -1.61 
570.56 17.88 -0.88 
570.64 17.84 -0.23 
570.59 17.91 0.52 
570.84 18.01 1.16 
578.85 17.92 0.32 
579.93 18.33 0.23 
580.79 18.39 0.42 
582.02 17.81 5.28 
582.56 17.76 5.46 
582.64 17.76 5.86 
583.61 18.36 1.82 
583.12 17.84 2.77 
583.09 18.43 3.06 
583.37 18.43 5.79 
584.37 18.36 -2.16 
584.21 18.19 -0.36 
583.79 18.02 0.63 
584.16 17.88 1.73 
584.05 18.15 2.76 
584.22 17.85 3.16 
584.34 17.87 4.22 
584.05 17.77 4.78 
584.30 17.77 5.62 
585.02 18.44 -1.82 
584.87 18.28 -0.09 
585.10 17.99 0.31 
584.45 18.21 0.99 
585.08 17.92 1.73 
585.06 18.00 3.97 
585.71 18.25 -2.10 
585.58 18.31 -1.49 
585.44 18.31 -0.83 
585.38 18.05 -0.39 
585.50 18.08 0.40 
585.75 17.88 1.28 
585.75 18.05 2.07 
585.23 18.02 2.99 
585.28 18.31 3.88 
585.67 18.41 5.45 
586.01 18.28 -2.09 
586.03 18.34 -1.46 
586.19 18.04 -0.98 
586.13 18.19 -0.16 
586.18 18.41 0.62 
586.09 18.08 3.06 
585.89 18.06 4.07 
586.49 18.25 4.77 
586.35 17.79 5.15 
586.64 17.84 -0.97 
586.63 18.20 -0.20 
587.07 17.85 0.67 
586.77 18.14 1.03 
586.72 17.82 2.05 
586.85 17.88 2.78 
587.69 18.25 0.94 
587.43 18.41 2.04 
587.85 18.35 2.87 
587.79 18.26 4.33 
587.43 18.15 5.26 
588.26 18.00 0.78 
588.16 18.42 1.89 
588.82 17.78 0.49 
588.92 17.88 2.04 
588.75 17.80 3.39 
588.69 17.76 4.18 
589.85 18.12 -0.71 
589.81 17.86 -0.39 
589.35 18.40 2.06 
589.48 18.35 4.11 
590.43 17.94 -0.59 
590.41 17.76 -0.36 
590.81 18.02 0.19 
591.74 18.25 0.19 
568.20 19.07 -2.77 
568.14 19.11 -2.22 
568.16 19.13 -1.63 
568.07 19.14 -0.86 
568.17 19.12 -0.17 
568.12 19.14 0.41 
568.50 18.90 -2.65 
568.63 18.90 -2.18 
568.65 18.90 -1.64 
568.60 18.98 -0.93 
568.68 18.87 -0.28 
568.66 18.85 0.39 
568.72 19.10 1.05 
569.43 18.50 -2.65 
569.33 18.59 -2.19 
569.20 18.58 -1.49 
569.19 18.59 -0.94 
569.24 18.54 -0.26 
569.33 18.74 0.51 
569.37 18.73 1.11 
569.09 18.50 2.05 
569.93 18.48 -2.09 
569.87 18.66 -1.32 
569.82 18.63 -0.73 
570.03 18.50 -0.03 
569.75 18.49 0.28 
569.59 18.71 1.30 
571.37 19.01 -1.59 
574.13 18.85 1.47 
574.76 18.58 1.92 
575.65 18.72 1.29 
575.37 18.64 2.26 
576.48 19.04 -2.46 
579.47 18.57 0.60 
579.82 18.72 0.60 
580.22 18.84 0.30 
583.67 19.03 -0.05 
583.67 18.60 1.01 
583.39 18.57 2.77 
583.36 18.53 4.04 
583.51 18.69 5.12 
584.05 19.00 -2.19 
584.29 19.01 -1.43 
584.21 19.03 -0.78 
584.13 19.05 -0.12 
584.41 18.98 2.99 
584.30 19.02 4.20 
584.22 18.74 5.27 
584.01 18.94 6.04 
584.73 18.79 -2.18 
584.80 18.66 -1.43 
584.69 18.89 -0.82 
584.74 18.75 -0.18 
584.80 18.65 0.53 
584.68 19.13 0.98 
585.08 18.70 1.64 
584.87 18.54 3.85 
584.52 19.05 5.66 
584.43 18.75 6.29 
585.33 18.71 -2.09 
585.36 18.76 -1.46 
585.28 18.65 -0.84 
585.29 18.70 -0.32 
585.72 18.53 0.61 
585.36 18.84 1.36 
585.21 18.78 2.03 
585.74 18.45 2.96 
585.19 18.90 3.95 
585.31 18.96 5.02 
585.87 18.51 -0.83 
586.18 18.64 -0.22 
586.05 19.08 2.97 
585.82 18.83 3.58 
586.01 18.90 4.06 
587.04 18.61 0.14 
586.52 18.68 0.40 
586.89 18.75 2.51 
586.80 18.91 4.76 
587.11 19.05 5.78 
587.70 19.01 2.05 
587.22 18.51 2.79 
588.46 18.63 0.79 
588.11 19.02 1.96 
588.52 18.83 4.27 
588.03 18.85 5.20 
589.11 18.49 1.87 
589.12 19.14 4.00 
589.07 18.92 4.98 
590.42 18.66 0.26 
567.81 19.27 -2.65 
567.80 19.35 -2.15 
567.86 19.38 -1.49 
567.89 19.36 -0.90 
567.78 19.33 -0.15 
567.80 19.32 0.37 
567.73 19.47 0.86 
568.46 19.18 -2.77 
568.44 19.26 -2.19 
568.67 19.20 -1.37 
568.60 19.14 -0.76 
568.56 19.10 -0.25 
568.68 19.11 0.44 
568.32 19.46 1.15 
568.66 19.38 1.74 
569.03 19.51 -2.11 
569.70 19.64 -1.74 
569.34 19.33 -0.39 
569.81 19.40 -2.11 
569.78 19.31 -1.10 
569.74 19.23 -0.09 
570.59 19.52 -2.06 
570.56 19.42 -1.01 
570.52 19.32 0.05 
574.78 19.36 -2.38 
575.13 19.51 1.45 
575.83 19.84 1.38 
576.34 19.83 1.69 
579.15 19.49 -2.22 
579.74 19.36 0.20 
580.38 19.53 0.21 
581.29 19.71 -2.06 
582.77 19.58 -0.13 
583.59 19.58 -1.47 
583.44 19.59 -0.75 
583.49 19.41 -0.09 
583.69 19.47 1.25 
583.53 19.40 1.92 
584.29 19.37 -2.19 
584.04 19.36 -1.66 
584.09 19.37 -0.77 
583.99 19.27 -0.19 
584.37 19.34 0.59 
584.32 19.61 1.23 
584.29 19.55 1.93 
584.12 19.49 2.64 
583.96 19.28 3.39 
583.89 19.51 4.10 
584.65 19.12 -2.16 
584.64 19.20 -1.50 
584.60 19.08 -0.76 
584.78 19.42 -0.16 
584.51 19.03 0.52 
584.83 19.75 4.08 
584.48 19.50 5.02 
584.79 19.62 5.22 
585.69 19.15 -1.89 
585.20 19.15 -0.54 
585.25 19.37 -0.16 
585.52 19.83 0.66 
585.78 19.33 0.89 
585.21 19.37 2.41 
585.65 19.24 3.47 
585.23 19.15 4.71 
585.89 19.60 -1.19 
586.13 19.48 0.09 
585.82 19.37 0.46 
586.44 19.36 1.34 
585.90 19.54 2.17 
585.81 19.40 3.64 
586.06 19.60 3.68 
585.94 19.29 4.52 
586.15 19.54 5.47 
586.07 19.51 5.79 
586.99 19.52 -0.07 
586.62 19.30 1.95 
586.89 19.24 2.55 
586.82 19.71 3.00 
586.65 19.69 4.99 
587.11 19.65 5.32 
586.96 19.70 5.94 
587.52 19.84 -1.83 
587.78 19.81 -0.04 
587.63 19.23 2.50 
587.71 19.82 4.20 
587.31 19.56 4.43 
587.87 19.75 5.86 
587.95 19.64 1.03 
588.11 19.64 4.37 
588.10 19.47 5.44 
588.60 19.50 5.99 
588.32 19.84 6.57 
588.76 19.21 0.96 
588.89 19.82 1.93 
588.94 19.40 4.25 
588.65 19.38 5.06 
589.39 19.45 4.45 
567.88 20.16 -2.07 
568.05 20.07 -1.18 
568.21 19.97 -0.30 
567.65 19.93 0.33 
568.64 20.03 1.03 
569.20 20.46 -2.03 
569.42 20.35 -0.94 
569.63 20.23 0.14 
569.12 20.14 1.22 
570.29 20.20 -2.02 
570.26 20.11 -1.02 
570.22 20.02 -0.02 
574.88 19.96 1.86 
575.48 20.54 -2.07 
575.63 20.38 -0.18 
575.33 20.07 1.49 
582.26 20.16 -0.14 
581.93 20.14 0.24 
582.63 20.13 -1.28 
582.54 19.89 -1.04 
582.83 20.47 -0.12 
583.49 19.93 -1.22 
583.29 19.88 1.17 
584.22 20.23 -1.29 
584.29 20.16 -0.65 
584.06 20.00 -0.08 
584.20 20.42 0.61 
584.39 20.36 1.13 
584.19 20.35 1.60 
584.04 20.29 2.38 
584.67 20.39 -1.49 
584.85 20.17 -0.62 
584.76 20.11 0.18 
584.76 20.11 0.18 
584.76 19.98 1.24 
584.94 19.92 1.85 
584.68 20.30 2.90 
584.51 20.41 4.20 
585.11 19.95 -1.48 
585.23 20.32 0.80 
585.41 20.12 1.22 
585.61 20.06 1.88 
585.21 19.86 2.46 
585.46 19.94 3.24 
585.67 20.34 4.11 
585.59 20.24 6.50 
585.93 19.99 0.14 
585.93 19.93 0.78 
585.84 20.52 0.96 
586.16 20.31 2.09 
586.25 20.34 3.26 
586.14 20.26 5.50 
586.96 20.23 -0.30 
587.06 19.92 0.40 
587.08 20.22 2.31 
587.15 20.29 5.36 
587.87 20.52 0.12 
587.22 20.26 0.41 
587.43 20.18 4.15 
587.43 20.27 5.62 
587.43 20.25 6.54 
588.49 20.42 -1.76 
587.99 19.96 0.11 
588.23 19.87 2.49 
588.52 20.37 4.27 
588.31 19.86 5.63 
588.35 20.53 6.71 
588.64 20.49 0.08 
588.84 19.94 0.90 
588.88 20.29 4.53 
588.83 20.36 5.74 
589.39 20.40 -1.59 
589.58 19.92 4.55 
568.63 20.71 -2.52 
568.82 20.61 -1.50 
573.11 21.02 1.77 
573.27 21.20 1.33 
574.00 20.74 0.67 
574.51 20.70 1.55 
575.29 21.01 0.39 
574.76 20.79 1.01 
575.14 21.17 2.03 
575.27 20.68 2.85 
575.52 20.59 0.05 
575.91 21.19 0.43 
575.36 20.86 0.88 
575.73 20.62 3.94 
576.03 21.21 2.32 
576.29 21.16 3.39 
582.60 21.19 1.37 
583.00 20.92 2.79 
583.68 20.95 2.37 
583.55 21.13 3.58 
584.26 20.61 0.04 
584.17 20.79 0.64 
583.83 20.74 1.36 
583.92 20.84 3.23 
585.02 20.79 -0.57 
584.82 20.81 -0.07 
584.58 20.77 0.23 
585.01 21.23 1.34 
584.48 20.93 1.99 
585.07 20.93 4.57 
585.72 21.11 -0.69 
585.50 21.05 -0.12 
585.24 20.84 1.60 
585.53 20.74 2.32 
585.71 21.05 3.96 
585.69 20.96 6.51 
585.81 20.76 0.08 
586.36 20.83 1.03 
586.31 20.74 2.77 
585.83 21.15 3.83 
585.92 21.01 5.84 
586.84 21.21 -1.80 
586.84 21.16 0.59 
586.92 20.56 3.46 
587.66 20.97 0.02 
587.57 20.93 0.42 
587.40 21.16 1.53 
587.86 21.06 1.97 
587.68 21.14 6.41 
588.19 21.11 -1.62 
588.24 21.19 0.16 
587.98 20.78 1.38 
588.32 21.14 2.24 
588.18 21.13 4.40 
588.25 21.17 5.30 
588.12 20.70 5.84 
588.03 20.69 6.86 
588.94 20.86 0.07 
588.72 21.14 4.03 
589.30 20.77 4.72 
589.30 20.77 4.72 
590.37 21.24 -1.73 
590.35 20.66 4.47 
591.74 20.59 -1.67 
571.63 21.81 -2.81 
573.56 21.75 0.47 
573.54 21.81 1.38 
573.34 21.60 1.81 
573.97 21.75 0.13 
574.30 21.74 0.58 
574.13 21.72 1.30 
574.30 21.62 2.97 
575.26 21.41 0.45 
574.94 21.75 1.05 
575.54 21.38 0.89 
576.42 21.73 1.21 
577.20 21.87 5.49 
582.75 21.51 1.91 
582.99 21.66 2.60 
583.61 21.38 2.55 
583.03 21.89 4.23 
583.88 21.31 2.75 
583.84 21.34 4.19 
584.63 21.37 2.67 
585.50 21.78 0.03 
585.56 21.60 0.23 
585.21 21.27 1.06 
585.37 21.75 2.68 
585.53 21.61 3.45 
585.35 21.63 4.27 
585.39 21.76 6.90 
586.51 21.88 -1.67 
586.24 21.27 0.08 
585.84 21.51 0.36 
586.30 21.40 1.28 
586.50 21.78 2.36 
586.46 21.84 3.11 
586.30 21.38 4.01 
586.25 21.75 5.81 
586.21 21.31 6.92 
586.63 21.75 -0.27 
587.01 21.65 1.30 
587.51 21.44 -1.79 
587.62 21.51 -0.44 
587.42 21.67 0.64 
587.41 21.59 1.03 
588.12 21.54 0.27 
588.06 21.62 1.54 
588.91 21.94 -1.79 
589.04 21.51 1.50 
589.24 21.29 6.57 
571.30 22.61 -2.76 
572.60 21.95 2.56 
573.59 22.19 1.25 
573.56 22.17 1.85 
573.77 22.31 2.33 
574.07 22.26 0.76 
574.08 22.25 1.11 
574.10 22.22 1.71 
575.20 22.45 -2.59 
574.75 22.13 1.27 
575.89 22.17 0.67 
575.47 22.35 1.34 
575.70 22.64 3.38 
576.21 22.15 1.26 
578.06 22.60 6.49 
579.51 22.05 0.73 
579.13 22.55 0.92 
580.04 22.15 0.58 
581.34 22.21 -1.81 
583.61 22.21 3.85 
584.77 22.09 -1.85 
584.81 22.04 0.49 
584.75 22.57 3.34 
585.67 22.22 -1.86 
585.48 22.49 0.17 
585.13 22.54 0.29 
585.49 22.24 3.15 
585.77 22.50 6.86 
586.16 22.40 -0.37 
586.01 22.33 2.00 
586.94 22.07 -1.86 
586.86 22.54 -0.58 
586.63 22.29 -0.33 
586.99 22.64 2.06 
587.19 22.25 2.37 
586.88 22.04 5.95 
587.47 22.14 -0.59 
587.66 22.10 1.31 
587.37 21.96 3.27 
587.23 22.10 3.78 
588.09 22.03 2.22 
588.25 22.39 4.01 
588.81 22.42 2.21 
589.20 22.06 4.32 
588.97 22.02 6.21 
572.24 22.71 -2.74 
572.51 22.97 2.38 
573.14 22.73 2.60 
573.77 22.89 1.30 
573.28 22.73 1.94 
574.08 22.69 0.78 
574.42 22.81 1.08 
574.11 22.74 1.76 
575.04 22.87 1.34 
575.24 22.85 1.64 
576.69 22.68 -0.64 
576.60 23.05 -0.16 
576.67 23.07 0.23 
576.22 23.21 0.92 
576.57 23.14 3.56 
577.05 23.27 -1.77 
577.18 23.30 -0.65 
577.04 22.86 -0.28 
576.99 22.82 6.03 
577.58 23.09 5.67 
577.83 23.28 6.19 
577.67 22.68 6.95 
578.77 22.75 1.22 
578.29 22.69 5.84 
578.89 23.21 -1.88 
579.18 23.35 0.96 
579.53 22.84 0.78 
580.73 22.72 -1.94 
580.55 22.71 -1.79 
582.03 23.34 -1.71 
583.49 22.82 4.25 
584.33 23.00 0.37 
585.09 23.32 -0.60 
584.95 23.17 -0.13 
585.67 23.31 -0.58 
585.40 22.95 -0.24 
585.36 22.82 2.74 
586.07 23.11 -0.66 
585.98 22.99 -0.41 
585.94 22.97 0.53 
585.96 22.71 6.61 
586.79 22.72 -0.73 
586.68 22.66 -0.47 
586.90 22.72 1.97 
587.62 22.68 0.73 
587.81 23.05 2.04 
588.56 23.10 1.85 
587.97 22.67 2.36 
588.59 22.97 3.30 
588.10 23.07 3.80 
588.93 22.85 3.98 
573.55 23.62 1.60 
573.39 23.55 2.66 
574.52 24.04 -1.19 
574.50 24.03 -0.42 
574.47 23.98 0.36 
574.41 23.86 1.56 
575.15 23.79 -1.59 
574.72 24.02 -0.78 
574.88 23.98 -0.21 
575.18 23.90 0.49 
574.82 23.62 1.19 
574.96 23.81 2.55 
575.74 23.93 -2.24 
575.74 23.92 -1.58 
575.82 23.97 -0.93 
575.72 23.72 0.03 
575.78 23.69 0.57 
575.75 23.48 1.40 
575.33 23.55 1.71 
575.84 23.80 3.54 
575.57 24.00 4.13 
575.70 23.91 4.84 
576.42 23.75 -2.09 
576.46 23.64 -1.52 
576.50 23.73 -0.92 
576.26 23.80 -0.14 
576.28 23.91 0.27 
576.48 23.91 3.65 
576.80 23.50 -2.14 
576.80 23.48 -1.76 
576.71 23.47 -0.85 
576.98 23.51 -0.27 
576.84 23.83 0.22 
577.19 23.40 5.21 
577.23 23.60 6.06 
577.68 23.52 7.02 
578.33 23.87 -1.99 
578.67 23.59 1.26 
578.48 23.47 5.88 
579.18 23.35 0.96 
582.68 23.64 -1.78 
583.40 23.90 -1.92 
584.34 23.77 -0.07 
584.81 23.82 -0.64 
584.90 23.59 -0.32 
584.46 23.68 0.33 
585.31 23.57 -0.62 
585.37 23.42 -0.33 
585.50 23.95 0.41 
585.82 23.29 -0.70 
586.49 24.00 -0.03 
586.02 23.73 0.47 
586.94 23.41 -0.09 
586.72 23.67 2.86 
588.24 23.49 2.06 
573.15 24.67 0.14 
573.90 24.21 -0.52 
573.80 24.28 1.44 
573.69 24.42 2.25 
573.70 24.34 2.72 
574.45 24.66 -2.18 
574.44 24.66 -1.55 
574.36 24.14 -0.79 
574.38 24.42 -0.08 
574.56 24.50 0.32 
574.56 24.29 1.64 
574.06 24.50 2.54 
574.20 24.19 4.31 
574.86 24.46 -2.25 
574.96 24.41 -1.54 
574.90 24.50 -1.00 
575.14 24.51 -0.21 
575.06 24.49 0.62 
575.01 24.74 2.30 
575.15 24.57 4.40 
575.54 24.27 -2.08 
575.59 24.13 -1.58 
575.65 24.24 -0.84 
575.51 24.39 -0.32 
575.75 24.41 0.52 
575.79 24.37 1.04 
575.90 24.68 3.58 
575.45 24.71 4.71 
576.09 24.12 -0.54 
576.27 24.11 -0.04 
576.05 24.14 0.36 
576.25 24.54 1.13 
576.49 24.11 1.72 
576.39 24.48 6.82 
577.30 24.21 -1.91 
576.76 24.44 7.23 
578.28 24.05 6.18 
580.18 24.16 -1.97 
579.53 24.43 -1.77 
584.26 24.54 -1.96 
584.83 24.72 -0.21 
585.30 24.14 -0.26 
585.28 24.53 0.54 
585.99 24.53 -0.27 
585.85 24.07 0.23 
568.09 24.87 1.91 
568.53 25.38 1.25 
569.32 25.40 0.54 
573.02 25.25 -2.44 
573.00 25.42 -1.58 
572.89 25.01 -0.67 
573.02 25.42 -0.21 
573.53 25.15 -2.20 
573.64 25.09 -1.57 
573.54 25.19 -0.95 
573.65 25.16 -0.33 
573.77 24.89 1.74 
573.58 24.82 2.52 
574.29 24.84 -2.09 
574.10 24.84 -1.56 
574.23 24.88 -0.64 
574.20 24.81 -0.29 
574.29 25.25 0.39 
574.05 24.96 0.97 
574.43 25.02 4.35 
574.21 25.08 4.61 
574.64 24.77 -1.97 
574.66 24.75 -1.42 
574.64 24.99 -0.64 
574.63 24.78 -0.17 
574.98 24.98 0.32 
574.81 24.86 1.24 
574.91 25.25 1.59 
574.66 25.20 2.58 
575.12 24.83 3.67 
575.22 24.78 4.06 
574.96 24.77 4.59 
575.34 25.21 -2.06 
575.84 25.36 -1.32 
575.57 25.32 -0.37 
575.41 24.82 0.67 
575.33 24.88 1.24 
575.51 24.95 1.85 
575.71 24.83 4.18 
576.47 25.15 -1.67 
576.54 25.05 -0.80 
576.18 24.87 1.48 
577.15 25.30 1.28 
577.13 25.40 1.82 
577.05 25.22 7.25 
577.88 24.97 0.80 
578.10 25.12 6.63 
577.70 24.91 7.37 
578.62 25.20 -2.00 
578.39 25.04 7.05 
581.16 25.42 -1.81 
582.91 24.76 -1.93 
583.98 25.39 -1.97 
567.73 26.12 1.50 
568.65 25.89 0.69 
568.41 25.81 1.28 
569.27 25.78 0.55 
569.82 25.53 0.42 
570.12 26.08 1.00 
571.54 25.92 0.78 
571.57 26.01 1.71 
572.23 25.84 0.58 
573.02 25.47 -1.11 
573.05 25.53 -0.34 
574.43 25.61 0.28 
574.37 26.03 1.85 
574.39 25.83 2.36 
574.73 25.90 -1.88 
574.77 25.80 -1.02 
575.23 25.94 -0.44 
574.64 25.87 1.41 
574.71 25.93 1.78 
575.56 26.06 -2.26 
575.51 25.98 -1.35 
575.42 25.96 -0.28 
575.43 26.12 1.58 
575.64 26.00 2.41 
575.80 25.89 3.23 
575.90 26.14 3.74 
576.11 25.65 1.01 
576.32 25.76 1.60 
576.50 25.62 2.54 
576.86 25.87 -2.12 
577.06 25.61 -1.83 
577.26 25.79 1.34 
577.99 26.12 1.15 
578.07 25.69 7.37 
578.17 25.65 1.09 
579.24 25.58 0.48 
578.85 25.89 1.00 
579.63 25.90 0.79 
581.95 26.09 -2.13 
582.47 25.63 -1.94 
568.18 26.69 0.90 
568.00 26.65 1.25 
568.78 26.80 0.63 
568.57 26.22 1.16 
568.42 26.83 1.76 
569.53 26.73 0.01 
569.32 26.63 0.48 
569.35 26.69 0.89 
570.08 26.51 -0.18 
569.78 26.81 0.35 
569.89 26.28 0.96 
571.32 26.64 0.83 
572.14 26.18 0.60 
573.86 26.36 -2.08 
574.32 26.83 3.46 
575.29 26.66 2.71 
575.25 26.57 3.70 
575.98 26.38 1.42 
575.40 26.78 2.03 
576.27 26.43 1.78 
576.08 26.19 2.84 
577.42 26.24 -2.01 
577.95 26.17 0.60 
577.71 26.60 1.22 
577.84 26.19 1.61 
578.23 26.54 0.60 
578.56 26.62 1.09 
579.04 26.52 0.57 
580.02 26.58 0.05 
579.59 26.32 0.51 
580.69 26.32 -1.81 
580.52 26.68 -0.06 
580.21 26.64 0.37 
580.92 26.19 -0.13 
581.95 26.53 -1.95 
567.75 27.45 -0.11 
568.01 27.14 0.43 
568.06 27.15 1.41 
567.67 27.10 1.71 
567.73 27.40 2.95 
568.63 27.23 -0.20 
568.67 27.15 0.64 
568.50 27.35 1.15 
569.40 27.06 0.03 
569.26 27.08 0.53 
569.71 27.15 0.80 
569.86 26.88 1.02 
571.04 26.97 0.87 
570.53 27.27 0.94 
574.29 26.92 2.59 
575.25 27.04 -2.13 
575.01 27.22 2.47 
574.92 27.15 3.40 
575.90 27.14 1.73 
575.37 27.37 2.92 
576.15 27.35 -2.02 
578.09 27.05 0.79 
577.48 27.35 1.16 
578.59 27.02 -0.02 
578.15 27.18 0.65 
579.32 27.03 0.02 
578.97 26.94 0.39 
578.88 27.42 0.97 
580.13 27.26 -1.82 
579.81 26.86 -0.13 
579.53 26.90 0.22 
579.91 26.97 1.06 
581.42 27.45 -1.96 
567.88 27.89 0.01 
568.05 27.86 0.36 
567.97 27.70 1.07 
567.89 27.76 2.47 
568.74 27.63 0.12 
568.46 27.78 0.64 
568.64 28.07 1.71 
569.61 28.16 0.71 
569.19 27.75 0.93 
569.69 27.58 1.83 
569.94 27.78 0.82 
570.04 28.19 0.94 
575.01 27.73 2.05 
574.85 28.01 2.56 
575.60 28.19 2.87 
578.80 27.72 0.50 
578.52 27.68 0.89 
578.91 27.98 -2.14 
579.49 28.11 0.89 
579.55 28.22 -1.83 
579.71 28.05 0.87 
579.80 27.65 1.14 
567.83 28.78 -1.99 
567.81 28.74 -1.45 
567.99 28.72 -0.90 
568.24 28.65 -0.28 
567.68 28.39 0.51 
568.10 28.40 2.49 
568.42 28.81 -2.04 
568.38 28.77 -1.53 
568.42 28.74 -1.01 
568.54 28.50 -0.08 
568.51 28.65 0.62 
568.73 28.65 1.19 
569.54 28.50 0.41 
569.80 28.31 1.83 
574.56 28.79 2.60 
575.26 28.31 2.22 
575.97 28.84 -1.79 
577.65 28.74 -2.15 
578.26 28.30 0.92 
579.53 28.51 0.70 
580.87 28.40 -1.97 
567.97 29.09 -2.12 
567.94 29.05 -1.65 
567.73 29.25 -0.90 
567.99 29.14 -0.15 
568.01 29.30 0.70 
567.65 29.59 1.20 
567.99 29.38 1.63 
568.08 29.30 2.33 
568.47 29.12 -0.47 
568.56 29.59 0.87 
568.63 29.44 1.10 
574.86 28.96 2.24 
575.55 29.01 2.97 
576.17 29.61 -2.16 
576.42 29.50 -1.65 
576.06 29.15 3.55 
567.65 29.67 -1.91 
567.73 29.96 0.88 
568.04 29.76 0.83 
568.36 30.15 -1.96 
568.94 29.93 0.39 
568.41 29.78 1.50 
570.36 30.05 0.49 
570.31 30.22 1.18 
569.73 29.96 1.73 
571.64 30.08 0.38 
575.23 29.92 3.09 
575.18 30.17 3.81 
576.30 29.84 3.61 
576.38 30.29 4.07 
567.72 30.45 1.62 
567.95 30.36 2.29 
568.59 30.48 0.46 
569.70 30.41 -1.80 
569.26 30.93 0.41 
569.17 30.56 1.36 
569.75 30.78 0.39 
569.87 30.75 1.50 
570.97 30.47 0.45 
571.92 30.45 0.38 
573.84 31.01 -2.21 
574.47 30.58 -2.18 
575.36 30.83 3.88 
576.38 30.57 3.69 
590.68 30.49 -1.46 
568.09 31.42 0.70 
568.90 31.22 0.17 
568.37 31.74 0.49 
568.60 31.52 1.74 
568.60 31.52 1.74 
568.38 31.20 3.22 
568.80 31.51 3.97 
569.31 31.61 0.17 
569.42 31.31 0.73 
569.22 31.14 1.54 
569.13 31.65 1.73 
569.24 31.58 3.47 
570.00 31.10 0.53 
569.77 31.54 1.52 
569.81 31.36 1.72 
570.84 31.50 0.34 
570.49 31.19 1.50 
571.47 31.47 0.48 
572.21 31.15 0.41 
572.57 31.68 -2.20 
567.81 32.12 0.63 
567.98 32.43 1.53 
568.15 31.87 2.19 
567.75 32.31 2.76 
568.04 32.42 3.03 
568.65 32.38 0.40 
568.70 31.92 1.23 
568.35 32.01 2.92 
568.66 31.82 3.97 
569.10 31.93 0.37 
569.69 32.17 2.12 
569.62 32.40 2.53 
570.07 32.10 0.58 
570.21 31.93 1.51 
570.18 32.31 1.60 
570.81 31.84 0.36 
570.84 32.24 1.75 
571.28 32.26 0.79 
573.91 31.78 -2.14 
567.67 32.67 0.14 
567.78 32.63 0.66 
568.03 32.85 2.24 
568.67 33.14 0.00 
568.99 32.74 0.77 
568.96 32.52 2.48 
568.70 32.90 3.04 
569.15 32.80 -0.09 
569.26 32.93 2.01 
569.68 32.98 2.49 
569.93 32.45 0.85 
569.87 32.93 2.26 
570.18 32.69 2.88 
569.96 32.79 3.96 
570.88 32.58 -2.23 
570.98 32.56 2.24 
570.65 32.58 3.73 
571.38 32.97 1.89 
572.91 32.90 -2.11 
586.32 32.81 6.14 
592.56 32.96 -1.36 
568.04 33.38 -0.16 
567.74 33.62 0.21 
567.66 33.42 3.51 
568.47 33.37 -0.27 
568.56 33.19 0.48 
568.48 33.71 3.55 
568.40 33.43 4.12 
568.75 33.45 5.25 
569.46 33.15 -0.22 
569.24 33.23 0.84 
569.62 33.36 2.02 
569.63 33.40 3.03 
569.52 33.76 5.51 
570.10 33.60 0.63 
569.84 33.80 2.05 
569.71 33.40 4.49 
570.61 33.31 4.00 
571.22 33.28 3.97 
586.48 33.35 5.82 
586.54 33.46 4.96 
587.15 33.51 5.82 
587.34 33.34 -1.19 
587.76 33.56 4.82 
587.45 33.30 5.72 
587.25 33.73 6.20 
587.53 33.58 6.60 
588.49 33.26 -1.23 
588.21 33.67 -1.15 
588.48 33.60 5.64 
588.37 33.71 6.58 
589.17 33.69 -1.18 
588.86 33.47 4.72 
588.85 33.18 5.35 
589.76 33.40 -1.32 
591.20 33.73 -1.59 
591.81 33.50 -1.53 
592.06 33.35 -0.48 
591.96 33.57 5.25 
592.16 33.47 -1.49 
592.52 33.49 1.58 
592.51 33.83 4.42 
592.28 33.20 5.16 
567.81 34.25 0.11 
567.64 33.93 0.58 
568.15 34.13 3.96 
568.37 34.02 -2.26 
568.59 34.01 -1.22 
568.87 33.87 2.39 
568.60 34.32 5.39 
569.60 33.87 2.35 
569.44 34.42 4.27 
569.35 34.23 4.80 
569.22 34.23 5.73 
570.16 34.36 2.41 
569.75 34.29 4.66 
570.71 33.97 4.49 
571.86 34.05 3.92 
572.22 34.11 4.80 
572.64 34.29 3.92 
572.54 33.95 5.00 
572.70 33.91 5.64 
575.77 34.34 -2.20 
587.19 34.00 6.09 
587.20 34.51 6.76 
587.35 34.41 4.49 
587.47 34.01 5.14 
587.55 34.11 5.83 
588.41 34.31 5.07 
588.27 34.45 5.76 
588.27 34.34 5.99 
588.91 34.21 4.98 
589.89 34.44 -1.70 
590.39 34.19 -1.62 
590.85 34.20 -1.57 
590.99 34.17 -1.06 
591.13 34.24 -0.35 
591.78 34.04 -1.50 
592.16 34.07 -1.72 
592.25 34.06 5.46 
567.67 34.72 0.20 
568.39 34.77 3.72 
568.41 34.63 4.74 
570.01 34.72 -2.14 
569.71 35.08 4.36 
570.72 34.56 4.26 
570.87 34.56 4.71 
571.27 34.58 3.72 
571.62 34.62 4.51 
572.35 34.63 4.88 
585.61 34.82 -1.49 
587.79 35.12 -1.33 
587.46 34.98 5.01 
588.29 35.14 5.15 
588.19 35.15 6.07 
589.21 34.81 -1.73 
588.74 35.08 5.03 
588.76 34.92 5.09 
589.65 34.84 -1.80 
590.49 34.89 -1.58 
591.25 35.16 -1.80 
591.29 35.16 0.67 
591.59 34.61 -0.24 
591.82 35.21 0.55 
591.61 35.23 1.17 
592.35 34.91 -0.21 
592.44 34.77 0.69 
592.22 34.86 1.04 
587.27 35.43 5.52 
588.10 35.47 5.00 
588.76 35.37 -1.87 
591.13 35.47 -1.29 
591.32 35.35 0.68 
592.06 35.41 -1.53 
591.96 35.38 0.71 
592.26 35.45 -1.80 
592.44 35.45 -0.73 
592.43 35.27 1.08 
