# .PCD v0.7 - Point Cloud Data file format
VERSION 0.7
FIELDS x y z
SIZE 4 4 4
TYPE F F F
COUNT 1 1 1
WIDTH 2071
HEIGHT 1
VIEWPOINT 0 0 0 1 0 0 0
POINTS 2071
DATA ascii
572.03 36.06 -1.76 
572.85 36.04 -1.71 
573.81 35.98 -2.21 
585.81 36.02 -1.93 
586.41 35.82 5.19 
586.94 35.54 -1.21 
587.20 36.23 5.20 
587.76 35.92 -1.59 
587.30 35.77 5.12 
588.26 35.96 -1.62 
589.63 35.88 2.90 
589.47 35.98 3.30 
591.25 36.07 -0.65 
591.38 35.63 0.70 
591.27 35.83 2.24 
591.57 35.81 -1.24 
591.89 36.01 -0.73 
591.74 35.86 0.89 
591.95 35.91 1.26 
592.24 35.91 -0.71 
592.53 35.83 -0.16 
592.17 35.66 0.90 
592.59 35.98 1.46 
592.49 35.97 1.88 
568.91 36.55 -2.00 
571.18 36.34 -1.91 
578.08 36.26 4.40 
578.60 36.89 4.08 
586.41 36.30 -1.95 
586.90 36.44 4.40 
586.52 36.94 5.14 
587.09 36.48 5.39 
587.75 36.33 -1.56 
587.41 36.61 5.17 
589.90 36.65 -1.59 
589.50 36.89 -0.65 
589.78 36.83 -0.36 
589.74 36.27 2.98 
589.55 36.72 3.12 
590.18 36.65 -1.30 
590.41 36.71 -0.71 
590.64 36.30 -0.11 
590.40 36.76 1.28 
590.14 36.82 1.74 
591.19 36.38 -1.46 
590.99 36.55 -0.75 
591.34 36.52 -0.06 
590.86 36.42 0.86 
590.77 36.79 1.49 
591.23 36.30 2.33 
590.87 36.37 2.48 
591.30 36.26 3.28 
591.44 36.26 -1.32 
591.57 36.24 -0.74 
592.05 36.52 -0.17 
591.80 36.36 1.31 
591.84 36.66 1.97 
592.38 36.39 -0.45 
592.56 36.35 -0.21 
592.16 36.27 0.85 
592.31 36.48 1.34 
592.45 36.81 2.99 
568.32 37.27 -1.97 
568.88 37.57 -1.66 
570.03 37.62 3.76 
570.37 37.59 3.92 
578.56 37.26 4.57 
579.02 37.63 4.02 
585.03 37.45 -1.68 
585.45 37.11 -1.74 
588.33 37.51 -0.11 
588.24 37.05 1.91 
589.17 37.48 -1.28 
588.77 37.41 -1.02 
589.02 37.40 -0.30 
588.94 37.28 0.89 
589.24 37.39 1.39 
588.83 37.38 2.20 
588.85 37.43 5.98 
589.79 37.24 -1.90 
589.65 37.37 -1.66 
589.46 37.25 -0.63 
589.70 37.53 -0.25 
590.00 37.10 0.91 
589.42 37.06 1.04 
589.73 37.22 3.19 
589.76 37.37 3.59 
589.77 37.00 5.15 
589.34 37.34 5.88 
590.20 37.14 -1.87 
590.50 37.28 -1.41 
590.27 37.10 -0.77 
590.62 37.27 -0.05 
590.33 37.20 1.27 
590.60 37.25 1.99 
590.54 37.39 3.01 
590.63 37.24 3.69 
590.43 37.43 5.00 
590.24 37.47 5.82 
590.90 37.46 -0.55 
591.16 37.31 -0.32 
591.34 37.16 0.30 
590.78 37.22 1.49 
590.86 37.49 2.11 
590.88 37.15 2.42 
590.74 37.21 3.32 
591.55 36.98 -0.45 
591.62 37.21 0.03 
591.79 37.62 0.84 
592.04 37.53 1.37 
591.87 37.06 2.12 
592.04 37.27 2.61 
592.56 37.55 -0.72 
592.15 37.18 0.16 
592.42 37.33 1.08 
592.52 37.06 2.04 
569.51 38.07 3.27 
570.37 38.21 3.49 
570.89 38.02 3.87 
579.71 37.91 4.04 
581.64 38.20 -1.35 
583.57 38.07 -1.78 
584.26 37.71 -1.74 
587.11 38.22 -0.95 
586.91 38.21 -0.23 
586.75 37.88 2.36 
586.82 38.31 2.40 
587.68 37.97 -0.87 
587.54 38.21 -0.25 
587.82 37.91 1.63 
587.82 38.14 1.81 
588.16 37.94 -0.90 
588.21 38.02 -0.16 
587.99 38.23 1.24 
588.40 37.94 2.79 
588.73 38.00 -1.86 
588.87 37.77 -1.21 
588.85 37.93 -0.92 
588.98 38.11 -0.24 
588.93 38.09 0.33 
589.23 37.98 1.40 
588.88 37.98 2.02 
588.79 38.32 2.46 
589.48 37.87 -1.67 
589.60 38.13 -0.56 
589.59 38.19 -0.34 
589.31 38.24 2.09 
589.97 38.25 2.40 
589.34 37.81 5.16 
589.31 37.93 6.02 
590.19 38.28 -0.43 
590.41 37.82 -0.20 
590.33 37.98 1.78 
590.52 38.18 5.09 
590.09 38.16 5.33 
590.32 38.24 5.96 
590.92 37.99 0.19 
590.81 37.65 1.50 
590.85 38.04 2.03 
590.85 37.74 2.59 
591.77 37.85 -0.46 
591.82 37.64 -0.10 
591.95 37.68 0.89 
591.64 37.82 1.26 
591.98 37.70 2.24 
591.95 37.72 3.05 
592.37 37.68 0.12 
592.51 37.67 1.09 
570.46 38.40 3.10 
572.26 38.80 3.79 
572.55 38.73 4.08 
574.15 38.46 -1.71 
580.87 38.95 -1.35 
583.29 38.41 -1.88 
584.23 38.39 -1.81 
585.77 38.89 -1.21 
585.80 38.82 -0.67 
586.00 38.99 -1.38 
586.16 38.75 -0.83 
585.94 38.80 -0.35 
586.47 38.70 1.90 
586.27 38.66 3.06 
587.14 38.35 -1.42 
586.98 38.66 -0.83 
586.81 38.81 -0.35 
587.04 38.62 1.69 
586.83 38.78 3.04 
586.59 38.98 3.11 
587.51 38.54 -1.22 
587.61 38.70 -0.64 
587.70 38.67 -0.37 
587.50 38.63 2.13 
587.44 38.67 3.10 
588.18 38.68 -0.98 
588.02 38.72 -0.65 
588.33 38.98 -0.02 
587.97 38.90 1.25 
588.32 38.81 2.16 
588.65 38.81 2.46 
588.94 38.51 -0.46 
589.03 38.71 -0.22 
589.06 38.61 1.39 
588.98 38.92 2.23 
588.65 38.81 2.46 
589.32 38.38 -1.54 
589.65 38.37 -0.75 
589.48 38.56 -0.32 
589.32 38.94 0.46 
589.35 38.60 3.39 
589.92 39.00 5.50 
590.14 38.39 -0.67 
590.63 38.42 -0.07 
590.68 39.01 0.33 
590.34 38.83 1.71 
590.47 38.71 5.14 
590.80 38.57 0.01 
590.94 38.37 0.44 
590.94 38.79 1.18 
591.26 38.50 1.88 
592.00 38.70 0.80 
591.74 38.55 1.04 
591.94 38.72 1.88 
591.87 38.61 2.75 
592.59 39.03 0.94 
592.33 38.62 1.30 
592.19 38.56 1.97 
568.47 39.40 -1.99 
572.32 39.45 3.70 
573.09 39.09 4.05 
573.50 39.73 3.66 
577.43 39.32 -1.51 
584.20 39.71 -0.98 
584.84 39.73 -1.95 
584.85 39.71 -1.41 
584.68 39.40 -0.58 
585.08 39.52 -0.21 
585.30 39.65 -1.91 
585.25 39.67 -1.46 
585.40 39.33 -0.93 
585.58 39.26 -0.31 
586.16 39.31 -1.37 
585.89 39.35 -0.75 
586.21 39.50 -0.04 
586.13 39.22 1.30 
585.81 39.73 2.72 
586.16 39.68 3.20 
586.63 39.24 -1.29 
586.91 39.19 -0.67 
586.75 39.46 -0.02 
586.99 39.44 1.67 
586.64 39.66 2.22 
586.83 39.43 2.89 
587.43 39.38 -1.23 
587.63 39.38 -0.98 
587.67 39.38 -0.26 
587.61 39.71 0.38 
587.69 39.25 2.05 
587.42 39.56 2.63 
587.89 39.45 3.39 
588.25 39.25 -1.19 
588.45 39.30 -0.57 
588.34 39.54 -0.16 
587.99 39.20 1.67 
588.16 39.21 1.92 
588.34 39.31 2.58 
588.55 39.44 3.62 
587.97 39.51 4.13 
588.70 39.04 -0.91 
589.28 39.31 -0.24 
589.27 39.20 1.41 
589.23 39.40 2.08 
588.73 39.27 2.54 
589.42 39.10 -0.64 
589.48 39.72 2.13 
589.31 39.20 3.24 
590.49 39.65 0.80 
590.25 39.55 1.49 
590.57 39.42 2.34 
590.21 39.42 2.45 
591.23 39.34 0.70 
591.30 39.25 1.28 
590.98 39.35 2.11 
591.19 39.25 3.32 
590.98 39.10 4.88 
591.48 39.31 -0.42 
591.65 39.41 0.95 
591.67 39.02 1.34 
591.77 39.50 2.74 
591.97 39.64 3.90 
592.12 39.68 1.94 
592.53 39.21 2.91 
567.84 40.36 -2.11 
569.66 40.15 -1.97 
572.79 39.91 3.65 
573.27 40.17 3.62 
578.78 39.80 -1.92 
583.00 40.43 -0.96 
583.56 40.11 -1.15 
583.56 40.11 -1.15 
583.26 40.22 -0.22 
583.34 40.38 3.55 
584.09 40.19 -1.18 
584.15 40.09 -0.83 
584.32 40.34 -0.20 
584.26 40.33 2.27 
584.37 39.97 3.70 
584.27 40.30 4.08 
584.75 40.19 -1.94 
584.64 40.07 -1.45 
584.64 40.01 -0.81 
584.77 39.88 -0.16 
584.69 40.16 3.27 
585.54 40.20 -1.87 
585.27 39.76 -1.38 
585.19 40.13 -0.77 
585.32 40.23 -0.23 
585.75 40.26 0.35 
585.31 39.99 2.11 
585.43 39.89 2.70 
585.44 39.86 3.21 
586.39 40.06 -0.84 
586.18 40.15 -0.03 
586.14 39.99 0.20 
586.05 39.77 1.29 
586.01 40.28 1.90 
586.23 40.18 2.96 
587.03 40.41 -1.28 
587.04 40.16 -0.76 
586.87 39.89 0.14 
586.74 40.10 0.36 
587.12 40.02 2.27 
586.96 39.93 4.43 
587.43 40.02 -0.95 
587.38 39.74 0.38 
587.30 39.78 2.32 
587.44 40.30 2.41 
587.46 40.35 3.75 
587.71 40.08 4.01 
588.26 39.81 -1.38 
588.01 39.75 -0.91 
587.96 40.10 -0.18 
588.10 39.97 2.17 
588.33 40.15 2.39 
588.41 40.44 3.54 
588.16 39.98 4.22 
589.07 39.75 -1.09 
589.26 39.86 1.63 
589.20 39.97 1.88 
589.17 40.08 2.48 
588.77 39.98 3.67 
589.16 40.42 4.05 
589.94 40.28 1.26 
589.91 39.99 2.10 
589.47 40.26 2.42 
590.32 39.89 0.78 
590.27 40.24 1.47 
590.37 40.20 1.98 
590.07 40.02 2.98 
591.38 40.32 1.58 
591.22 39.79 1.94 
591.11 39.94 2.39 
591.14 40.06 3.69 
591.45 39.91 -0.89 
591.54 39.86 -0.06 
592.04 40.30 0.75 
591.77 39.76 1.16 
591.56 39.96 2.70 
591.57 39.80 3.52 
591.87 40.23 3.79 
592.31 40.06 0.54 
592.45 40.19 1.01 
592.13 40.37 1.86 
592.60 40.12 2.76 
568.34 40.83 -2.10 
571.52 41.04 -2.13 
583.00 40.64 -0.67 
582.71 40.68 -0.41 
582.90 40.79 3.69 
582.98 40.76 4.08 
583.57 40.67 -0.85 
583.38 41.01 -0.03 
583.62 40.53 2.24 
584.36 40.99 -1.13 
584.15 40.80 -0.92 
584.02 41.02 0.01 
584.19 40.89 2.31 
584.38 40.88 2.63 
584.52 40.80 -1.14 
584.93 40.73 -0.43 
584.91 40.67 0.15 
584.77 41.03 0.28 
584.64 40.70 2.32 
584.93 40.67 2.62 
584.45 40.85 3.36 
584.78 41.10 3.83 
585.25 40.46 -1.38 
585.48 40.65 -0.86 
585.26 40.68 -0.12 
585.44 40.73 0.53 
585.19 40.57 1.74 
585.18 40.95 2.84 
585.16 40.53 3.34 
586.23 40.55 -1.31 
586.12 40.69 -0.86 
586.07 40.51 -0.06 
586.01 40.99 0.44 
586.13 40.76 1.92 
585.83 40.64 3.19 
586.89 40.58 -0.79 
586.72 40.92 0.16 
586.82 40.52 0.55 
586.71 40.66 3.60 
587.06 40.50 4.18 
587.87 40.53 2.22 
587.76 40.84 3.10 
587.25 40.98 4.17 
588.38 41.04 1.26 
588.31 40.39 1.97 
588.48 40.67 2.49 
588.51 40.55 3.32 
588.23 40.81 3.83 
588.95 40.64 1.57 
588.93 40.84 1.88 
589.20 40.67 2.74 
589.36 40.87 1.67 
589.75 40.74 1.89 
590.28 41.03 1.49 
590.37 40.87 1.91 
590.71 41.04 0.75 
591.08 41.14 1.07 
591.31 40.45 2.14 
590.93 40.50 3.07 
591.62 40.65 0.89 
591.85 40.52 1.15 
592.36 40.65 0.85 
592.54 40.79 2.30 
568.77 41.69 -2.03 
571.83 41.40 -1.73 
573.84 41.23 -1.98 
577.66 41.40 -1.89 
580.94 41.76 -0.86 
581.97 41.63 -1.26 
582.63 41.53 -1.21 
582.60 41.36 -0.11 
582.93 41.31 2.79 
583.30 41.79 -1.17 
583.57 41.45 0.01 
583.49 41.68 2.20 
583.30 41.72 2.83 
583.24 41.19 3.50 
584.17 41.70 -1.46 
583.88 41.29 -0.78 
584.03 41.47 0.00 
584.36 41.25 0.47 
584.11 41.56 2.31 
584.08 41.54 2.48 
583.85 41.33 3.65 
584.63 41.56 -1.33 
584.86 41.54 -0.84 
584.76 41.44 0.07 
584.44 41.49 1.85 
584.66 41.38 2.65 
584.43 41.45 3.33 
585.18 41.30 -0.05 
585.51 41.21 0.60 
585.77 41.63 2.79 
585.73 41.83 4.03 
586.00 41.26 0.48 
586.28 41.23 2.97 
586.86 41.32 0.26 
587.06 41.83 1.57 
587.48 41.23 -0.99 
587.33 41.29 0.10 
587.57 41.50 1.26 
587.29 41.70 2.29 
587.22 41.81 2.99 
588.09 41.33 2.46 
588.39 41.15 2.67 
587.97 41.36 3.18 
589.24 41.71 -0.59 
588.82 41.69 1.46 
588.69 41.57 2.01 
589.57 41.63 -0.96 
589.43 41.67 -0.13 
589.66 41.61 0.81 
589.77 41.57 1.28 
589.68 41.58 2.17 
589.83 41.83 2.42 
590.36 41.57 -0.73 
590.58 41.28 -0.03 
590.43 41.57 0.53 
590.14 41.72 1.08 
590.17 41.42 1.98 
590.37 41.37 2.51 
590.06 41.66 3.38 
590.88 41.30 0.81 
590.77 41.51 1.05 
591.53 41.41 0.95 
592.01 41.41 1.33 
591.46 41.77 1.85 
592.33 41.25 0.94 
567.75 42.18 -2.09 
569.30 42.09 -2.03 
569.82 42.49 -2.02 
572.63 42.48 -1.79 
575.27 42.37 -1.83 
577.41 42.34 -1.35 
578.30 42.51 1.90 
580.90 42.11 -0.42 
580.40 42.46 1.59 
581.10 41.89 -0.77 
580.92 42.39 1.18 
581.84 42.53 -1.24 
581.64 41.93 -0.82 
581.64 42.26 0.07 
581.93 42.27 3.57 
582.52 42.15 -0.96 
582.36 41.96 2.76 
582.36 41.95 3.50 
582.61 42.36 4.13 
583.42 42.02 -1.45 
583.37 41.87 -0.74 
583.55 42.18 -0.26 
583.43 42.22 2.84 
583.56 41.89 4.32 
584.15 42.17 -0.82 
584.06 42.05 2.27 
583.98 42.52 3.62 
585.02 42.47 1.96 
585.34 42.47 1.81 
585.40 41.95 2.42 
585.21 42.28 3.14 
585.27 42.49 4.22 
586.49 42.29 1.60 
586.34 42.41 2.26 
586.13 42.00 3.26 
586.10 42.43 3.86 
587.05 42.12 1.58 
586.65 42.23 2.26 
586.86 41.86 2.85 
587.91 42.45 0.52 
587.90 42.09 1.34 
587.74 42.09 3.13 
587.93 42.40 -1.24 
588.47 42.20 -0.45 
588.29 42.31 -0.29 
588.57 42.39 0.76 
588.27 42.30 1.26 
588.31 42.36 1.82 
589.16 42.12 -1.00 
588.91 42.51 0.78 
588.70 42.19 1.43 
588.92 42.28 1.81 
589.58 42.19 -1.24 
589.64 42.00 -0.95 
589.39 42.04 -0.11 
589.61 41.98 0.82 
589.45 42.05 1.37 
589.51 42.31 1.73 
589.87 42.20 2.44 
590.02 41.91 0.02 
590.36 41.86 0.53 
590.43 41.94 1.32 
590.34 42.22 1.68 
590.38 42.46 2.63 
590.96 41.94 0.90 
591.07 42.00 1.19 
592.50 41.84 1.80 
568.25 42.60 -2.09 
568.74 43.01 -2.08 
570.33 42.89 -2.02 
577.93 43.04 -1.31 
577.90 43.12 1.73 
578.69 42.83 1.93 
579.16 43.12 1.53 
579.46 43.22 1.94 
578.86 43.17 3.55 
580.00 43.16 0.97 
579.81 42.95 1.27 
579.75 42.56 1.81 
580.34 43.08 1.12 
581.49 43.09 -1.67 
581.57 42.59 -0.74 
581.60 42.64 0.08 
581.49 42.80 3.15 
581.56 42.67 4.33 
581.53 42.59 4.72 
581.76 42.65 -1.24 
582.05 42.89 -0.71 
581.60 42.64 0.08 
581.85 42.94 2.71 
581.72 42.87 3.51 
582.50 43.17 -1.56 
583.24 42.66 -0.47 
583.27 42.79 4.58 
584.09 42.59 2.27 
584.63 43.00 1.66 
585.07 42.96 1.89 
584.89 43.14 2.63 
585.03 42.97 3.10 
585.30 43.00 1.47 
585.60 42.93 2.04 
585.64 42.65 3.09 
586.32 43.11 -0.72 
586.05 42.81 1.29 
586.03 42.59 2.13 
585.94 43.21 2.50 
587.04 43.16 -1.14 
586.95 43.02 -0.66 
587.16 43.09 0.13 
587.01 42.90 0.65 
586.99 42.70 1.66 
586.57 43.18 2.19 
586.82 42.61 2.63 
587.53 42.85 -1.22 
587.49 42.67 -0.75 
587.27 42.97 -0.26 
587.30 42.77 0.51 
587.47 42.72 1.30 
587.47 43.01 1.70 
587.57 42.55 2.39 
588.02 42.58 -1.27 
588.14 42.56 -0.78 
588.27 42.60 0.04 
587.97 42.70 0.33 
588.91 42.86 0.74 
589.27 43.04 1.72 
589.58 42.92 -0.66 
589.37 42.81 1.61 
589.52 42.67 1.75 
589.78 42.59 2.43 
590.68 43.15 2.77 
592.23 43.18 1.56 
592.59 43.06 1.89 
575.66 43.69 -0.76 
576.01 43.89 2.71 
576.40 43.93 3.04 
577.18 43.47 2.20 
577.34 43.44 2.80 
577.00 43.85 3.13 
577.89 43.49 1.65 
577.91 43.67 2.03 
577.85 43.93 2.46 
578.59 43.41 1.43 
578.59 43.67 1.92 
578.52 43.77 3.78 
579.36 43.47 -1.54 
579.32 43.63 1.42 
579.17 43.88 1.79 
579.24 43.59 3.60 
579.36 43.86 4.25 
580.02 43.51 1.03 
579.72 43.68 1.37 
580.04 43.63 1.82 
579.69 43.92 4.65 
580.53 43.63 -1.53 
580.81 43.81 0.77 
580.56 43.76 1.23 
580.24 43.49 2.68 
580.90 43.55 3.24 
580.36 43.61 4.46 
581.39 43.46 -1.66 
581.39 43.40 -0.49 
581.25 43.24 0.94 
581.08 43.87 0.98 
581.49 43.87 3.61 
581.05 43.79 4.14 
582.09 43.52 0.84 
582.07 43.81 1.06 
581.94 43.77 3.42 
583.07 43.56 2.07 
583.54 43.89 2.99 
583.52 43.87 3.24 
583.75 43.38 3.04 
583.75 43.38 3.04 
584.98 43.58 -0.89 
584.73 43.54 2.31 
584.63 43.48 2.40 
584.80 43.32 3.73 
585.76 43.92 -0.92 
585.39 43.93 0.63 
585.28 43.83 1.47 
585.46 43.43 1.93 
585.74 43.44 2.75 
585.94 43.49 -0.32 
586.20 43.42 0.31 
586.48 43.33 1.60 
585.92 43.92 2.79 
586.94 43.42 -0.61 
587.07 43.26 -0.24 
586.54 43.85 0.97 
587.17 43.46 1.67 
587.14 43.90 1.69 
588.47 43.24 1.33 
588.79 43.36 0.74 
589.13 43.38 2.34 
588.91 43.83 2.58 
590.57 43.84 1.66 
590.21 43.31 2.81 
591.35 43.94 1.46 
591.07 43.62 1.85 
592.00 43.58 1.58 
591.55 43.69 2.27 
591.70 43.32 2.39 
592.59 43.82 1.27 
592.45 43.53 1.74 
571.39 44.36 -2.07 
571.78 44.11 1.89 
571.33 43.96 3.15 
571.47 44.16 3.96 
571.81 44.28 2.55 
573.53 44.24 -1.01 
574.19 44.52 -0.99 
575.26 44.63 3.99 
575.60 44.54 -0.95 
575.92 44.00 2.14 
575.80 44.22 2.58 
576.42 44.45 -0.73 
576.11 44.30 2.17 
576.42 44.09 2.71 
577.39 44.42 1.22 
577.06 44.31 2.16 
576.87 44.26 2.71 
577.25 44.09 3.28 
577.65 44.37 1.65 
577.80 44.44 1.97 
578.10 44.36 2.53 
578.53 44.63 1.19 
578.39 44.40 2.04 
578.45 44.38 2.91 
578.41 44.39 3.41 
578.57 44.53 3.85 
578.82 44.53 0.77 
579.13 44.36 1.37 
579.08 43.95 2.22 
579.19 44.33 2.57 
579.05 44.18 3.85 
579.85 44.56 0.87 
579.71 44.26 1.17 
579.86 44.26 1.94 
579.72 44.16 2.76 
579.81 44.49 3.66 
579.76 44.28 4.54 
580.61 44.52 0.79 
580.81 44.25 1.11 
580.26 44.45 2.49 
580.23 44.12 4.05 
581.35 44.19 0.33 
581.03 44.40 1.05 
580.94 44.44 2.08 
581.58 44.26 3.13 
580.93 44.04 4.47 
582.33 44.38 1.30 
582.90 44.04 3.58 
583.62 44.62 1.38 
583.61 44.62 2.11 
583.02 44.43 2.74 
583.32 44.04 3.76 
584.27 44.36 0.36 
584.14 43.95 2.32 
583.71 43.98 2.88 
584.24 44.27 3.34 
583.88 44.36 4.00 
584.63 44.24 -0.86 
585.02 44.33 -0.09 
585.05 44.12 0.51 
584.57 44.11 1.65 
584.64 44.24 1.98 
584.95 44.14 3.64 
585.21 44.21 -0.87 
585.13 44.46 0.04 
585.33 44.42 0.63 
585.27 44.24 1.48 
585.21 44.06 1.90 
585.36 44.12 2.68 
585.84 44.02 -0.93 
585.98 43.98 -0.31 
585.98 43.99 1.32 
585.95 44.40 2.79 
586.93 44.19 1.66 
589.65 44.21 2.21 
590.67 44.61 1.54 
590.47 44.12 1.92 
591.25 44.21 1.75 
590.90 44.31 1.82 
591.22 44.11 2.58 
591.85 44.47 1.63 
591.87 44.17 2.13 
591.45 44.58 2.76 
592.57 44.44 1.11 
592.40 43.96 1.91 
571.63 44.92 2.12 
572.32 45.29 1.93 
572.01 45.22 2.86 
572.87 44.76 -1.09 
573.25 45.17 -1.08 
574.59 44.97 -0.90 
574.13 45.19 3.81 
575.28 44.81 1.02 
574.91 45.06 3.79 
574.87 44.87 4.51 
575.44 44.81 -0.84 
575.80 44.88 1.00 
575.76 44.75 3.27 
575.74 44.84 4.03 
575.66 45.02 4.49 
576.61 45.06 -0.82 
576.45 45.01 1.22 
576.63 45.08 2.61 
576.09 45.08 3.31 
576.28 45.28 4.50 
577.19 44.73 -0.70 
576.91 45.30 0.94 
577.12 44.90 0.99 
577.36 44.90 2.79 
577.17 44.85 3.17 
577.51 44.78 -0.95 
578.06 44.85 0.94 
577.82 45.18 1.35 
577.65 45.13 2.09 
577.83 44.81 2.73 
578.02 44.82 3.20 
577.44 44.97 5.27 
578.51 44.84 -0.65 
578.63 44.96 0.80 
578.52 45.03 1.27 
578.48 45.01 1.90 
578.37 45.25 2.47 
578.34 45.11 6.05 
578.81 45.31 -0.64 
579.48 44.72 0.22 
579.08 44.75 0.80 
579.31 45.15 1.18 
579.17 44.84 1.96 
579.75 44.77 0.66 
579.71 44.75 1.00 
579.87 45.00 2.07 
579.64 44.66 2.49 
580.56 44.92 0.46 
580.51 45.06 1.24 
580.37 45.23 1.73 
581.00 45.10 0.77 
581.27 44.89 1.09 
581.38 45.28 1.69 
581.63 44.69 0.85 
581.88 44.80 1.53 
582.93 44.82 -1.55 
582.88 44.89 1.93 
582.54 45.04 2.66 
582.51 45.03 3.28 
583.38 44.67 2.65 
583.98 44.82 -0.99 
584.14 44.77 -0.35 
584.32 45.21 2.27 
584.08 45.24 2.89 
584.49 44.67 0.98 
585.02 45.07 1.98 
584.88 44.66 2.46 
584.64 45.26 3.18 
585.11 45.08 1.47 
585.18 44.88 1.79 
585.79 44.92 2.76 
589.02 44.64 2.08 
589.91 44.71 1.84 
590.50 44.90 2.74 
591.21 45.05 1.65 
591.23 45.20 2.05 
591.82 45.15 2.22 
592.07 44.95 2.41 
592.50 44.79 1.91 
569.51 45.36 -2.00 
571.92 45.37 2.16 
573.78 45.77 -1.27 
574.47 45.56 -1.13 
574.07 45.70 3.77 
574.77 45.48 1.19 
574.89 45.64 3.75 
575.06 45.45 4.13 
575.09 45.68 4.57 
575.73 45.75 -1.11 
575.74 45.85 1.12 
575.77 46.00 2.49 
575.88 45.40 4.01 
575.53 45.57 4.73 
576.38 45.85 0.79 
576.67 45.57 1.25 
576.11 45.44 2.84 
576.29 45.89 4.78 
577.15 45.72 0.81 
576.82 45.92 1.32 
577.35 45.97 2.23 
577.13 45.49 2.74 
576.89 45.99 3.31 
576.94 45.44 4.33 
576.82 45.84 4.63 
577.01 45.37 5.99 
577.48 45.54 1.15 
577.49 45.68 3.19 
578.44 45.74 -0.95 
578.78 45.56 0.40 
578.34 46.17 1.16 
578.18 45.58 2.20 
578.51 45.97 2.66 
578.64 45.36 3.26 
579.47 45.98 0.25 
579.43 45.77 0.66 
579.13 45.45 1.59 
579.43 45.66 1.94 
579.32 45.50 2.66 
578.86 45.92 3.16 
579.80 46.00 0.20 
579.88 45.71 0.71 
579.73 45.96 1.08 
579.99 45.55 2.18 
579.90 45.99 3.39 
580.48 45.99 -1.55 
580.44 45.92 -0.72 
580.42 45.89 -0.31 
580.32 45.41 0.96 
580.77 45.97 1.38 
580.70 45.78 1.91 
580.30 45.97 2.52 
580.38 45.72 3.67 
581.14 45.39 1.54 
580.94 45.43 2.11 
581.91 45.43 -1.52 
582.02 45.75 1.49 
581.88 45.68 2.09 
582.48 45.59 1.38 
583.21 45.89 2.77 
583.95 45.79 2.87 
584.89 45.50 1.45 
584.79 45.49 1.95 
584.63 45.83 2.88 
584.79 45.63 3.67 
589.11 45.66 2.03 
590.24 46.00 2.15 
590.60 45.68 2.72 
590.75 45.76 2.11 
590.78 46.02 2.64 
591.51 45.60 2.12 
572.61 46.68 -1.62 
573.07 46.43 -0.43 
572.71 46.63 0.12 
573.56 46.63 -1.99 
573.52 46.61 -1.52 
573.46 46.61 -1.04 
573.56 46.70 0.13 
573.67 46.71 0.88 
573.54 46.58 1.30 
573.63 46.63 1.83 
574.01 46.39 -1.53 
574.30 46.62 -0.91 
574.31 46.55 -0.38 
574.04 46.59 0.75 
574.07 46.51 1.19 
574.06 46.41 2.10 
574.05 46.18 3.74 
574.52 46.52 3.82 
574.94 46.04 -1.27 
574.74 46.34 0.55 
574.74 46.28 1.06 
574.70 46.19 2.09 
574.66 46.17 2.61 
575.89 46.37 0.84 
575.67 46.38 1.40 
575.32 46.30 2.18 
575.77 46.00 2.49 
575.85 46.68 3.50 
575.36 46.05 3.80 
576.62 46.09 0.82 
576.48 46.27 1.10 
576.67 46.40 2.99 
576.86 46.41 0.78 
577.15 46.30 1.08 
577.04 46.70 3.55 
577.13 46.66 4.08 
577.64 46.66 1.14 
578.02 46.10 2.14 
577.87 46.43 2.74 
577.53 46.73 3.70 
578.56 46.66 -1.77 
578.52 46.64 0.13 
578.26 46.49 0.80 
578.35 46.32 1.49 
578.50 46.46 1.87 
578.84 46.39 2.84 
578.50 46.22 3.23 
579.48 46.53 -1.52 
579.27 46.45 -0.77 
579.45 46.41 -0.06 
579.24 46.56 0.68 
579.34 46.48 1.33 
579.38 46.27 1.97 
579.15 46.66 2.86 
579.15 46.32 3.22 
579.92 46.34 -1.51 
579.96 46.43 -0.78 
579.77 46.10 -0.09 
579.96 46.33 0.76 
579.80 46.13 1.29 
579.67 46.45 2.12 
580.19 46.34 2.65 
580.45 46.45 -0.91 
580.28 46.58 -0.17 
580.57 46.11 0.66 
580.21 46.57 2.22 
580.70 46.23 2.56 
580.66 46.61 3.47 
580.92 46.70 1.06 
581.54 46.58 2.33 
581.75 46.64 -0.87 
581.98 46.49 0.72 
584.10 46.30 2.36 
583.71 46.13 3.01 
589.12 46.61 2.06 
589.31 46.37 2.25 
590.18 46.59 2.03 
590.02 46.16 2.60 
590.79 46.06 2.18 
569.09 47.38 -1.26 
570.34 47.43 3.22 
570.93 47.31 -1.55 
570.61 47.31 -0.19 
570.73 46.96 1.00 
570.58 47.27 2.29 
570.57 47.35 4.36 
571.41 47.27 -1.52 
571.69 47.41 -0.63 
571.53 47.21 0.07 
571.73 47.40 0.59 
571.95 47.12 -1.13 
572.24 47.10 -0.64 
572.10 47.34 0.09 
572.06 47.30 0.85 
572.04 47.28 1.23 
572.44 47.10 2.02 
573.00 46.88 -2.27 
572.99 47.16 -1.46 
572.88 46.79 -0.63 
572.67 47.01 0.07 
572.71 47.16 0.64 
573.05 46.91 1.06 
573.19 47.20 2.15 
573.58 47.09 -2.03 
573.58 47.02 -1.46 
573.71 47.04 -0.58 
573.63 46.85 -0.06 
573.53 47.10 0.35 
573.73 47.29 1.60 
573.63 47.16 2.00 
573.77 46.80 3.31 
573.58 47.10 3.84 
574.54 47.28 -1.46 
574.60 47.16 -0.94 
574.06 47.00 -0.02 
573.95 47.21 0.37 
574.01 46.84 1.38 
573.94 46.81 2.08 
574.14 47.25 3.51 
574.16 47.06 4.27 
575.02 47.15 0.16 
575.26 46.90 0.48 
574.99 47.21 1.04 
575.85 46.88 0.80 
575.96 47.26 2.19 
575.96 46.86 2.64 
575.47 46.84 4.55 
576.46 46.81 -1.13 
576.27 46.96 -0.93 
576.45 47.02 0.99 
576.45 47.02 0.99 
577.40 47.37 -0.19 
577.11 47.11 1.12 
577.06 46.88 2.10 
577.02 46.86 2.58 
577.33 47.08 3.61 
576.81 46.98 4.10 
577.95 47.07 -1.53 
577.86 47.13 -0.51 
577.93 46.91 -0.13 
577.68 47.04 0.66 
577.51 47.29 1.18 
577.66 47.02 1.79 
577.67 47.15 3.51 
578.64 47.07 -1.89 
578.53 46.99 -1.51 
578.66 47.10 -0.70 
578.39 47.04 -0.07 
578.44 47.09 0.67 
578.32 47.31 1.33 
578.33 47.13 2.04 
578.67 47.20 2.55 
578.94 46.85 -1.47 
578.91 46.84 -1.07 
578.97 46.79 -0.08 
579.04 46.85 0.65 
579.24 47.18 1.47 
579.30 47.00 1.93 
579.38 46.73 2.85 
579.63 47.00 -1.53 
579.53 46.71 -0.77 
579.67 46.84 0.06 
579.83 47.04 0.87 
579.73 47.02 1.47 
579.97 47.15 2.07 
579.63 46.79 2.69 
579.90 46.82 3.20 
580.75 47.11 0.52 
580.59 47.38 1.45 
580.41 46.95 1.88 
580.88 47.16 2.61 
580.79 47.41 3.37 
581.06 46.81 -0.90 
581.13 47.28 0.56 
581.21 47.02 1.24 
581.17 46.75 2.36 
581.34 47.24 2.77 
581.68 47.16 -0.89 
582.20 46.88 0.52 
581.86 47.20 1.52 
581.98 47.36 1.52 
582.33 47.03 -0.86 
582.58 47.21 1.52 
583.46 46.95 1.51 
568.23 47.84 -1.34 
568.11 48.12 1.38 
568.28 47.89 4.10 
568.69 47.94 -0.47 
568.69 47.93 0.07 
568.90 48.04 1.12 
568.33 47.93 3.05 
568.94 48.10 3.48 
569.34 48.08 -1.84 
569.55 48.03 -1.59 
569.44 48.00 -0.52 
569.15 48.13 -0.06 
569.63 47.68 0.79 
569.66 47.66 3.47 
570.34 47.91 -1.90 
569.95 48.03 -1.54 
569.96 48.11 -0.77 
570.00 48.02 -0.24 
569.80 47.85 0.82 
569.95 48.13 1.06 
569.76 48.03 2.18 
569.73 48.04 2.75 
570.05 47.78 3.68 
570.33 47.47 4.36 
570.39 47.82 -1.49 
570.87 47.93 -0.72 
570.90 47.90 -0.17 
570.73 47.94 0.45 
570.60 48.01 1.29 
570.96 47.68 2.19 
570.46 47.75 3.96 
571.62 47.84 -1.92 
571.66 47.66 -1.58 
571.26 47.72 -0.55 
571.33 47.85 -0.13 
571.30 47.90 0.65 
571.77 47.48 4.50 
572.20 47.98 -1.96 
571.88 47.65 -1.47 
572.07 48.03 -1.04 
572.14 47.79 -0.22 
572.22 47.71 0.37 
571.99 47.81 1.36 
571.99 47.74 1.91 
571.98 47.69 2.47 
572.15 47.77 3.83 
572.84 47.46 -2.09 
572.59 47.93 -1.50 
572.75 47.93 -0.88 
572.67 47.94 -0.36 
573.18 47.71 0.51 
572.92 47.67 1.05 
572.55 47.83 2.21 
572.98 47.63 4.27 
572.61 47.82 4.70 
573.84 48.11 -1.92 
573.49 47.49 -1.41 
573.46 47.64 -0.97 
573.38 47.57 0.14 
573.73 47.93 0.92 
573.44 47.87 2.05 
573.53 48.00 2.38 
573.68 48.13 3.57 
573.56 47.44 4.25 
574.51 47.94 -1.96 
574.45 47.93 -1.43 
573.93 47.50 -0.86 
574.48 47.65 0.70 
574.48 47.58 1.13 
574.57 47.95 3.54 
574.20 47.52 4.17 
574.95 48.10 0.71 
574.84 48.11 1.63 
574.69 47.76 2.09 
574.83 47.49 3.69 
575.81 47.74 0.58 
575.98 48.12 1.10 
575.33 47.73 1.89 
575.99 47.86 3.41 
575.32 47.57 3.81 
576.64 48.06 -1.84 
576.25 47.90 -1.38 
576.52 47.92 -0.76 
576.33 47.77 -0.17 
576.23 47.59 0.78 
576.29 47.87 1.00 
577.30 47.86 -1.89 
577.28 47.85 -1.43 
577.26 47.85 -1.10 
576.79 47.90 -0.14 
577.00 47.75 0.56 
577.09 47.64 1.56 
577.03 48.08 1.82 
577.11 47.46 2.94 
577.83 47.62 -1.54 
577.57 47.57 -1.10 
577.74 47.50 0.13 
578.05 47.45 0.68 
577.65 47.59 1.43 
577.81 47.77 1.84 
578.16 47.51 -1.80 
578.21 47.54 -1.06 
578.55 47.44 -0.06 
578.31 47.88 0.80 
578.31 47.78 1.40 
578.20 47.92 2.36 
579.51 47.97 0.58 
579.43 47.89 1.56 
579.31 47.53 1.92 
579.48 47.98 2.69 
579.36 48.05 3.25 
580.05 48.03 0.39 
579.93 48.02 1.36 
579.61 47.75 2.07 
579.92 47.90 2.64 
579.85 47.80 3.08 
580.48 47.55 0.57 
580.51 47.60 1.06 
580.70 47.80 1.80 
580.38 47.71 3.04 
580.29 47.99 3.39 
581.48 47.59 0.62 
581.55 47.62 1.48 
581.36 48.02 1.86 
581.17 47.50 2.53 
580.96 47.94 3.46 
581.75 47.89 -1.08 
581.77 47.94 0.75 
582.05 47.90 1.40 
581.97 47.64 1.76 
582.07 47.86 2.55 
582.92 47.80 0.68 
582.41 47.58 1.57 
582.56 47.88 2.02 
583.41 47.64 2.05 
583.76 47.88 1.79 
567.64 48.63 -1.86 
568.04 48.57 -1.30 
568.07 48.78 -0.46 
568.03 48.49 -0.10 
567.81 48.63 0.37 
567.69 48.57 1.26 
568.79 48.47 -1.88 
568.81 48.65 -1.41 
568.62 48.68 -0.85 
568.79 48.53 -0.10 
568.54 48.88 0.61 
568.42 48.77 1.35 
569.00 48.73 2.86 
568.51 48.27 3.80 
569.34 48.45 -1.83 
569.42 48.41 -1.44 
569.35 48.51 -0.83 
569.30 48.49 0.05 
569.42 48.59 0.43 
569.32 48.47 1.10 
569.28 48.50 2.02 
569.27 48.51 2.56 
569.50 48.51 3.73 
570.31 48.38 -1.88 
569.88 48.24 -1.53 
569.98 48.47 -0.55 
570.11 48.18 0.01 
570.08 48.43 0.28 
570.03 48.43 1.06 
570.99 48.62 -2.23 
570.74 48.44 -0.84 
570.55 48.58 0.12 
570.55 48.28 0.44 
571.06 48.21 1.37 
571.51 48.53 -2.25 
571.54 48.61 -1.67 
571.36 48.73 -0.64 
571.67 48.71 -0.16 
571.16 48.59 0.94 
571.64 48.32 1.11 
572.18 48.28 -1.92 
572.13 48.27 -1.46 
572.11 48.41 -1.01 
572.34 48.52 -0.23 
571.93 48.79 0.67 
572.34 48.26 4.27 
572.86 48.39 -1.36 
572.65 48.47 -0.93 
573.00 48.70 -0.06 
572.75 48.40 0.46 
572.98 48.25 1.01 
572.74 48.37 4.67 
573.37 48.45 -1.34 
573.30 48.48 -0.92 
573.68 48.57 0.04 
573.86 48.62 0.36 
573.91 48.22 2.12 
574.03 48.14 -1.94 
574.52 48.74 -1.50 
574.58 48.73 -1.08 
574.36 48.42 0.24 
574.45 48.50 0.56 
574.14 48.49 1.39 
574.72 48.54 -1.78 
574.52 48.57 0.15 
574.72 48.77 1.87 
576.16 48.30 0.67 
576.80 48.20 -1.83 
576.78 48.19 -1.46 
576.74 48.17 -0.73 
576.81 48.39 0.17 
576.92 48.54 0.97 
576.91 48.58 2.04 
577.97 48.50 1.80 
578.78 48.49 0.73 
578.30 48.35 1.83 
578.61 48.42 2.80 
579.39 48.32 0.47 
579.15 48.33 2.20 
578.97 48.47 2.45 
579.18 48.60 3.21 
579.62 48.75 -0.26 
579.71 48.46 0.75 
579.84 48.76 1.88 
579.91 48.18 2.90 
579.68 48.31 3.29 
580.16 48.73 4.29 
580.84 48.52 0.72 
580.70 48.16 1.46 
580.83 48.14 1.99 
580.57 48.50 2.49 
581.41 48.39 0.62 
581.33 48.52 1.55 
581.39 48.53 2.15 
581.07 48.61 2.67 
580.96 48.52 3.72 
582.23 48.17 0.79 
581.91 48.31 1.67 
582.10 48.50 2.04 
582.56 48.25 1.61 
582.75 48.50 2.02 
582.69 48.15 2.60 
583.10 48.28 2.31 
567.69 49.09 -1.85 
568.05 49.11 -1.48 
567.95 49.22 -0.93 
568.09 49.24 -0.14 
568.01 49.17 0.44 
567.89 49.08 1.30 
568.57 49.04 -1.84 
568.58 49.02 -1.47 
568.69 49.18 -0.91 
568.70 48.85 -0.16 
568.68 49.22 0.63 
568.71 49.25 1.03 
568.46 48.84 1.98 
568.43 49.03 2.42 
568.47 48.90 3.28 
568.49 48.93 3.95 
569.32 48.90 -1.92 
569.04 49.23 -1.30 
569.35 49.06 -0.72 
569.17 49.21 0.16 
569.48 48.96 0.52 
569.92 49.23 -1.19 
569.83 49.29 -0.72 
569.96 49.16 -0.16 
570.07 49.23 0.34 
570.26 49.49 1.07 
570.75 49.02 -2.24 
570.69 49.15 -1.34 
570.81 49.22 -0.96 
570.86 49.29 -0.10 
570.84 49.50 0.66 
570.73 49.05 1.01 
571.37 49.07 -1.97 
571.49 49.23 -1.35 
571.34 49.17 -0.79 
571.44 48.96 -0.12 
571.44 49.23 0.50 
571.49 49.13 1.02 
572.15 49.10 -1.36 
572.28 49.11 -0.93 
572.25 49.06 -0.20 
572.42 49.27 0.44 
572.72 48.82 -1.40 
572.83 49.12 -0.72 
572.49 49.03 0.02 
572.52 48.94 0.44 
572.99 48.87 1.30 
573.86 49.24 -1.18 
573.26 48.92 -0.03 
573.23 48.90 0.39 
574.53 48.96 -1.49 
574.55 48.95 -1.08 
574.35 49.10 0.15 
574.33 49.20 0.57 
574.37 49.26 1.22 
573.92 49.13 2.42 
573.97 48.90 3.42 
574.89 49.36 -0.05 
574.88 49.36 0.77 
577.85 49.53 1.94 
578.39 49.39 2.18 
578.44 49.06 2.60 
578.40 49.35 3.76 
579.34 49.32 0.72 
579.32 48.85 1.90 
579.24 49.28 2.42 
579.50 48.85 3.85 
580.04 48.99 0.81 
579.96 49.14 2.11 
580.18 49.43 2.85 
579.79 49.10 3.29 
579.99 49.19 3.92 
580.22 49.39 0.30 
580.84 48.95 2.08 
580.39 48.86 2.77 
581.17 49.27 0.18 
581.00 48.88 0.47 
581.27 49.13 2.11 
581.28 49.31 2.80 
581.43 49.40 3.20 
582.22 48.94 -1.97 
581.64 49.12 0.53 
581.66 49.35 2.14 
581.87 49.13 2.63 
582.42 49.33 3.06 
583.68 49.52 -1.50 
567.87 49.89 -1.59 
567.82 49.78 -0.81 
567.95 49.84 -0.29 
568.05 49.95 0.44 
567.82 49.87 1.41 
568.56 49.80 -1.86 
568.73 49.95 -1.49 
568.86 49.69 -0.55 
568.55 49.85 -0.01 
568.72 49.75 0.41 
569.20 49.79 -1.66 
569.58 49.78 -0.59 
569.23 49.57 0.06 
569.32 49.84 0.96 
569.14 49.84 1.16 
569.99 49.72 -1.51 
570.22 49.74 -0.51 
570.22 49.88 -0.06 
570.30 49.90 0.68 
569.79 49.67 1.01 
570.52 49.63 -1.40 
570.78 49.99 -0.78 
570.62 49.76 -0.21 
570.73 49.83 0.32 
570.98 49.68 1.51 
571.32 50.16 -1.21 
571.50 49.73 -0.74 
571.40 49.74 -0.07 
571.69 50.01 0.45 
571.23 49.92 1.42 
572.46 49.68 -1.36 
572.29 49.74 -1.03 
571.98 49.72 -0.22 
572.22 49.48 0.28 
573.04 49.69 -1.63 
572.71 49.76 -0.91 
572.50 49.61 0.51 
573.57 49.55 0.84 
574.24 49.60 -1.00 
577.89 49.94 0.71 
577.79 49.76 2.95 
578.06 49.77 3.09 
578.58 49.80 0.65 
578.62 49.59 2.30 
578.34 49.78 2.40 
578.47 50.12 3.51 
579.51 50.04 0.70 
579.37 50.17 2.19 
579.38 49.90 2.83 
579.34 49.77 3.49 
579.05 50.09 4.12 
580.23 49.61 2.77 
579.78 49.56 3.53 
580.10 50.16 3.82 
579.95 49.79 4.85 
580.61 49.87 2.81 
580.68 49.91 3.23 
581.31 49.72 1.33 
581.18 49.91 2.99 
581.24 49.87 3.14 
581.85 49.68 2.95 
581.87 49.91 3.41 
568.06 50.44 -1.83 
567.92 50.58 -1.19 
567.93 50.59 -0.83 
568.09 50.72 -0.11 
568.17 50.31 0.63 
568.06 50.35 1.18 
568.36 50.30 -1.83 
568.68 50.38 -1.11 
568.87 50.66 -0.65 
568.74 50.68 0.14 
568.67 50.75 0.52 
568.91 50.52 1.11 
569.09 50.54 -1.85 
569.03 50.41 -1.65 
569.18 50.54 -0.79 
569.02 50.37 0.44 
570.12 50.18 -1.51 
570.34 50.26 -0.57 
570.18 50.45 -0.27 
570.27 50.25 0.43 
569.75 50.85 1.14 
570.21 50.60 1.83 
570.78 50.84 -1.10 
570.63 50.89 -0.39 
570.53 50.26 0.62 
570.79 50.52 1.16 
571.34 50.43 -1.32 
571.80 50.51 1.50 
577.08 50.89 1.89 
577.99 50.79 1.00 
577.98 50.80 1.71 
577.58 50.50 2.67 
578.64 50.68 3.61 
578.69 50.65 3.80 
579.34 50.79 3.85 
580.01 50.32 2.22 
579.96 50.47 3.17 
580.15 50.42 3.95 
580.53 50.37 3.21 
586.41 50.52 -1.08 
587.06 50.83 -1.07 
587.27 50.66 -1.06 
568.22 51.57 -1.27 
567.87 50.97 -0.47 
567.81 51.48 -0.13 
567.68 50.96 0.71 
569.01 50.94 -0.07 
569.40 51.55 -0.54 
569.24 51.39 0.87 
569.36 51.36 1.09 
569.07 51.10 1.80 
570.61 51.29 -0.40 
570.97 51.08 0.55 
572.66 51.56 1.68 
575.56 51.51 -1.17 
577.71 51.56 2.07 
577.78 51.42 2.79 
579.05 51.26 3.90 
582.94 51.28 -1.25 
583.64 51.44 -1.25 
587.56 51.31 -1.06 
567.82 51.70 -0.46 
568.15 51.84 -0.25 
568.43 51.82 -0.20 
569.34 51.93 -0.48 
569.77 52.01 0.93 
569.78 51.75 1.41 
570.45 51.68 1.67 
572.57 51.86 2.01 
573.80 51.94 1.34 
575.40 51.70 -1.14 
576.63 51.74 -1.13 
577.18 51.80 -1.26 
579.09 52.04 -1.26 
581.02 52.28 -1.36 
587.79 51.99 -1.06 
589.03 51.84 -1.14 
567.82 52.84 -1.11 
568.18 52.87 0.24 
567.90 52.45 0.80 
569.06 52.43 -1.71 
571.88 52.57 1.66 
573.73 52.38 1.64 
573.25 52.44 2.03 
579.69 52.85 -1.36 
582.29 52.64 -1.36 
583.45 52.51 1.18 
583.76 52.99 0.65 
568.01 53.26 -1.36 
568.01 53.22 -0.20 
568.04 53.19 0.74 
567.97 53.41 5.25 
568.77 53.40 -1.36 
568.60 53.72 -0.85 
568.64 53.64 0.17 
568.38 53.26 0.70 
568.65 53.55 5.18 
569.02 53.11 -1.83 
574.36 53.50 1.41 
581.97 53.58 -1.35 
582.87 53.34 -1.11 
582.87 53.34 -0.35 
582.81 53.39 0.41 
582.74 53.47 1.16 
582.71 53.24 2.58 
583.63 53.19 -1.09 
583.63 53.19 -0.34 
583.60 53.21 0.41 
583.61 53.20 1.16 
568.02 54.08 -0.49 
567.97 54.09 -0.37 
567.93 53.85 5.11 
568.89 54.04 -1.36 
568.77 54.33 0.00 
569.01 53.89 0.53 
568.35 54.22 1.12 
569.66 54.36 -1.46 
569.27 54.18 -0.35 
569.30 54.19 0.52 
570.22 54.20 -0.96 
576.27 54.34 -1.07 
583.21 54.00 -1.35 
583.28 53.78 1.17 
583.16 53.90 1.92 
583.85 54.22 -1.34 
585.46 53.79 -1.37 
567.83 54.63 -1.36 
568.12 54.71 -0.51 
567.63 55.03 0.16 
567.79 54.77 0.64 
568.57 54.68 -1.46 
568.63 54.80 0.14 
568.43 54.92 0.90 
569.46 54.68 -0.48 
569.28 54.98 0.94 
569.87 54.76 -1.46 
570.30 54.82 -0.97 
569.94 54.65 0.02 
569.80 54.87 0.49 
574.65 54.60 -1.35 
580.92 54.56 2.38 
583.26 55.10 2.49 
584.50 54.44 -1.34 
567.97 55.39 -0.79 
568.36 55.21 0.61 
567.71 55.64 0.98 
568.58 55.42 -1.36 
568.55 55.52 -0.74 
568.71 55.19 0.08 
568.58 55.52 0.59 
568.61 55.49 1.04 
569.11 55.64 -0.49 
569.03 55.45 -0.29 
569.42 55.58 0.51 
569.41 55.53 1.54 
569.75 55.64 -1.19 
570.33 55.47 -0.98 
570.52 55.19 -1.46 
570.61 55.73 -0.74 
570.54 55.23 0.22 
575.32 55.20 -1.35 
583.40 55.73 2.45 
589.28 55.70 -0.11 
567.98 56.08 -1.35 
567.94 56.15 -0.43 
567.94 56.23 0.69 
567.85 56.39 1.08 
568.67 56.36 -1.36 
568.61 56.47 -0.43 
568.74 56.18 -0.11 
568.83 56.41 0.79 
568.79 55.86 1.01 
569.37 56.22 -1.46 
569.17 56.14 -0.52 
569.18 56.14 -0.09 
569.39 56.20 0.38 
569.17 56.22 1.18 
569.92 56.01 -1.65 
569.85 56.35 -0.95 
570.18 56.52 -0.10 
569.88 56.13 0.59 
570.62 56.48 -1.39 
571.09 55.94 -0.48 
570.68 56.45 -0.08 
570.64 56.15 1.07 
571.19 56.36 0.84 
579.82 56.14 -0.86 
583.48 55.89 2.09 
587.88 56.52 -1.18 
587.65 56.54 -0.58 
587.66 56.45 0.05 
587.67 56.45 0.54 
587.83 56.37 1.28 
588.27 56.12 -0.65 
588.59 55.97 0.13 
588.49 56.13 0.50 
588.01 56.37 1.02 
588.19 56.39 1.74 
589.06 55.85 -0.60 
589.03 56.13 -0.16 
588.72 56.50 0.61 
588.96 55.95 1.35 
588.66 56.38 1.76 
589.43 56.10 -0.01 
589.38 56.49 0.33 
568.05 56.74 -1.36 
567.82 57.18 -0.03 
568.11 56.62 0.47 
568.23 56.80 1.31 
568.10 56.66 1.86 
568.78 56.93 -0.90 
568.69 57.08 0.46 
568.62 57.22 1.36 
569.32 57.07 -1.36 
569.32 56.95 -0.57 
569.64 56.49 -0.09 
569.51 57.22 0.90 
569.18 56.76 1.11 
569.24 57.04 1.81 
569.88 56.85 -0.97 
570.27 56.76 -0.34 
569.72 56.58 0.74 
570.71 56.90 0.32 
571.25 56.75 -1.41 
571.29 56.71 -0.97 
571.34 57.20 1.47 
571.64 56.89 4.46 
571.88 57.11 -1.43 
571.81 56.64 0.63 
580.02 56.61 -0.87 
583.65 56.69 1.62 
583.59 56.67 2.67 
583.86 56.64 2.24 
584.90 57.20 -0.41 
584.84 57.17 0.66 
584.79 57.15 1.73 
584.73 57.12 2.80 
585.28 56.77 3.65 
586.24 57.18 -0.75 
586.35 57.13 -0.20 
586.20 57.21 0.66 
586.29 57.17 1.30 
586.13 57.21 1.71 
586.90 56.86 -0.65 
586.69 57.06 -0.18 
586.91 56.82 0.52 
586.76 56.89 1.14 
587.12 57.02 1.82 
587.73 56.98 -1.17 
587.44 56.85 -0.70 
587.50 56.68 -0.09 
587.30 56.62 0.53 
587.60 56.78 1.20 
587.43 56.57 1.77 
588.09 56.90 -0.60 
588.20 56.56 0.25 
588.01 56.71 0.88 
588.75 56.94 -1.04 
588.71 56.85 -0.29 
589.04 57.08 1.26 
589.85 56.89 -1.09 
589.80 56.76 0.04 
589.77 56.70 0.60 
589.36 56.70 1.46 
590.53 57.16 -1.11 
590.47 57.03 0.02 
590.42 56.91 1.14 
590.39 56.84 1.70 
568.04 57.83 -1.29 
567.80 57.50 -0.38 
567.81 57.48 0.08 
568.08 57.73 0.33 
567.82 57.47 1.16 
567.88 57.80 1.69 
568.59 57.56 -1.36 
568.53 57.69 -0.83 
568.49 57.75 -0.38 
568.96 57.25 0.38 
568.81 57.85 1.23 
569.13 57.92 -1.23 
569.34 57.68 -0.92 
569.67 57.67 -0.15 
569.63 57.60 0.44 
569.07 57.43 1.02 
570.21 57.68 -1.36 
569.84 57.29 -0.81 
570.35 57.49 0.01 
570.26 57.93 0.62 
569.96 57.79 1.03 
570.54 57.58 -0.59 
570.74 57.83 -0.39 
570.67 57.42 0.95 
570.84 57.45 1.38 
578.82 57.92 -0.97 
584.16 57.80 1.50 
584.24 57.75 2.20 
584.92 57.86 -0.76 
584.89 57.85 -0.06 
584.88 57.89 0.61 
585.05 57.83 1.32 
584.89 57.86 1.70 
584.70 57.42 2.98 
585.42 57.59 -0.78 
585.48 57.55 -0.21 
585.39 57.62 0.57 
585.47 57.60 1.31 
585.44 57.59 1.90 
585.75 57.45 2.91 
586.04 57.37 -0.79 
585.95 57.30 -0.21 
585.84 57.40 0.66 
585.99 57.36 1.35 
585.86 57.40 1.81 
586.67 57.36 0.20 
586.59 57.37 0.59 
586.55 57.29 1.17 
586.81 57.27 1.95 
587.21 57.39 -0.61 
587.63 57.29 0.25 
587.81 57.51 0.36 
587.31 57.82 1.80 
588.49 57.76 -0.55 
588.51 57.59 -0.05 
588.67 57.90 -0.70 
588.62 57.78 0.16 
589.15 57.48 0.96 
588.98 57.85 1.37 
589.51 57.88 -0.46 
589.45 57.75 0.74 
589.43 57.68 1.34 
590.14 57.87 -0.23 
590.15 57.39 0.67 
590.07 57.70 1.15 
568.15 58.01 -1.36 
568.01 58.26 -0.51 
567.87 58.19 0.89 
567.95 58.17 1.23 
568.29 58.16 5.52 
568.41 58.26 -1.36 
568.32 58.36 -0.90 
568.43 58.23 -0.07 
569.01 58.00 0.65 
568.27 58.19 1.31 
569.36 58.39 -1.25 
569.69 58.22 -1.03 
569.23 58.33 0.19 
569.24 58.61 0.73 
569.15 57.97 1.24 
569.50 58.16 1.68 
570.40 58.19 -1.26 
569.92 58.25 -0.84 
570.08 58.08 0.00 
570.75 58.31 -1.03 
570.85 58.23 -0.21 
570.85 58.42 0.30 
571.08 58.50 1.03 
574.95 58.30 -1.01 
583.59 58.54 -0.68 
583.66 58.50 -0.06 
583.60 58.55 0.63 
583.63 58.61 1.31 
583.60 58.63 1.82 
584.13 58.33 -0.71 
584.13 58.28 0.02 
584.03 58.33 0.59 
584.10 58.31 1.36 
584.09 58.32 1.81 
584.63 58.02 -0.76 
584.58 58.01 -0.06 
584.59 58.05 0.61 
584.58 58.02 1.26 
584.58 58.03 1.70 
585.21 58.25 -0.47 
585.46 57.97 0.58 
585.39 58.01 1.22 
585.55 58.55 1.96 
586.19 58.20 1.33 
587.74 58.39 -0.56 
587.42 58.55 0.69 
587.37 58.43 1.16 
588.38 58.28 -0.64 
588.43 58.33 -0.14 
588.29 58.05 0.83 
588.27 57.98 1.32 
589.03 58.58 -0.51 
589.03 58.50 0.25 
589.82 58.14 -0.84 
589.69 58.23 0.03 
589.73 58.60 0.55 
589.71 58.52 1.08 
590.61 58.25 -0.44 
590.49 58.46 0.53 
590.10 58.56 1.41 
591.28 58.58 0.74 
567.89 58.86 -1.29 
567.80 58.78 -0.58 
568.11 59.16 -0.01 
568.02 59.03 0.52 
568.25 58.88 1.93 
568.00 58.66 5.26 
568.67 58.68 -1.37 
568.67 59.25 -0.56 
568.48 58.95 0.26 
568.78 58.88 0.56 
568.86 58.88 1.20 
568.35 59.20 5.21 
569.15 59.00 -1.37 
569.40 58.87 -0.48 
569.35 58.87 0.31 
569.31 59.02 1.09 
570.40 59.13 -0.67 
569.96 59.17 0.08 
569.75 59.21 0.60 
570.19 58.68 1.10 
570.51 58.83 -1.03 
570.45 59.10 -0.28 
571.25 58.74 -0.64 
571.40 58.65 1.04 
581.06 59.19 -0.99 
582.09 59.32 -0.51 
582.08 59.32 -0.07 
582.14 59.31 0.64 
582.08 59.34 1.30 
582.76 58.97 -0.66 
582.72 58.99 -0.07 
582.67 59.03 0.62 
582.70 59.03 1.32 
582.70 59.03 1.78 
583.26 58.75 -0.79 
583.19 58.75 -0.07 
583.22 58.78 0.61 
583.28 58.80 1.35 
583.19 58.85 1.83 
583.19 59.22 2.45 
584.16 58.76 -0.65 
584.13 58.87 0.27 
583.90 58.69 0.46 
583.78 58.68 0.99 
585.04 58.92 2.74 
585.35 58.66 2.63 
585.16 58.76 3.30 
586.41 58.72 -0.79 
586.43 59.32 -0.18 
586.35 59.15 0.79 
586.32 59.07 1.27 
586.28 58.99 1.75 
587.08 59.23 -0.69 
587.04 59.13 -0.20 
587.00 59.03 0.28 
586.91 58.83 1.24 
586.87 58.74 1.71 
587.59 58.92 -0.73 
587.61 58.89 -0.20 
588.21 59.19 1.59 
589.24 59.10 -0.46 
588.74 59.24 0.53 
588.71 59.17 1.08 
589.92 59.21 -1.03 
590.21 58.83 -0.79 
590.28 59.25 0.26 
590.11 59.00 0.67 
591.00 58.95 0.22 
567.95 59.91 -0.79 
567.92 59.22 -0.18 
567.63 59.57 0.62 
567.72 59.61 1.34 
568.76 59.58 -0.55 
568.74 59.46 0.11 
568.72 59.48 0.51 
568.50 59.50 1.43 
569.60 59.97 -1.29 
569.56 59.94 -0.67 
569.58 59.99 0.00 
569.90 59.76 -0.96 
570.09 59.80 -0.25 
569.91 59.53 0.58 
570.10 59.85 1.47 
570.89 59.93 -1.09 
570.28 59.72 0.44 
580.80 59.99 -0.53 
580.80 60.00 -0.05 
580.85 59.99 0.54 
580.77 60.02 1.28 
580.85 59.99 1.87 
581.22 59.78 -0.68 
581.20 59.84 -0.02 
581.29 59.78 0.57 
581.09 59.85 1.28 
581.41 59.82 1.90 
581.90 59.47 -0.47 
581.83 59.48 -0.17 
581.76 59.53 0.61 
581.84 59.51 1.37 
581.95 59.48 1.73 
582.42 59.65 -0.16 
582.54 59.44 0.45 
583.25 59.36 -0.57 
583.43 59.66 2.45 
585.27 59.41 2.74 
586.46 59.40 -0.67 
588.11 59.34 0.79 
588.49 60.01 1.49 
589.10 60.02 -0.19 
589.06 59.51 0.47 
589.03 59.42 0.99 
589.57 59.60 -0.46 
589.36 59.87 0.02 
589.64 59.42 0.80 
589.84 59.88 1.32 
590.61 59.53 -0.74 
590.28 59.54 -0.03 
590.35 59.75 0.66 
590.64 59.87 1.61 
590.29 59.59 1.77 
591.77 59.49 0.21 
591.42 59.68 0.91 
568.18 60.33 -1.14 
567.82 60.45 -0.69 
567.80 60.43 -0.35 
567.89 60.31 0.57 
568.27 60.31 1.38 
568.37 60.04 -1.29 
568.56 60.44 -0.58 
568.33 60.22 -0.19 
568.41 60.38 0.78 
568.57 60.18 1.20 
569.18 60.18 -0.58 
569.68 60.28 -0.39 
569.36 60.07 0.96 
569.69 60.25 1.30 
569.95 60.43 -1.07 
570.14 60.25 0.00 
570.25 60.19 0.65 
570.65 60.19 0.04 
570.60 60.24 0.41 
571.36 60.38 0.06 
580.08 60.38 -0.76 
580.14 60.40 -0.03 
580.08 60.39 0.54 
580.04 60.40 1.30 
580.08 60.40 1.86 
580.54 60.14 -0.76 
580.46 60.17 -0.08 
580.51 60.16 0.62 
580.43 60.19 1.29 
580.62 60.18 1.78 
581.20 60.28 -0.20 
580.98 60.04 1.37 
580.94 60.07 1.92 
581.65 60.44 0.21 
581.77 60.21 1.89 
582.64 60.33 -0.14 
582.60 60.32 0.88 
588.55 60.16 0.25 
589.27 60.14 0.04 
589.24 60.07 0.61 
589.94 60.13 -0.45 
590.66 60.04 -0.43 
591.03 60.26 -0.68 
