# .PCD v0.7 - Point Cloud Data file format
VERSION 0.7
FIELDS x y z
SIZE 4 4 4
TYPE F F F
COUNT 1 1 1
WIDTH 346
HEIGHT 1
VIEWPOINT 0 0 0 1 0 0 0
POINTS 346
DATA ascii
615.71 -133.44 -5.07 
615.00 -131.18 -5.03 
614.53 -127.50 -3.02 
614.95 -127.60 -2.70 
615.29 -127.63 -2.38 
616.53 -127.31 -0.10 
616.83 -127.34 0.60 
614.94 -126.76 -3.13 
615.09 -126.92 -2.64 
615.42 -126.89 -2.77 
615.72 -127.08 -2.42 
615.46 -126.90 -1.83 
616.03 -126.65 -2.91 
616.14 -126.48 -2.16 
616.25 -126.47 -1.67 
616.27 -126.93 -0.41 
616.63 -126.57 -2.05 
616.84 -126.55 -0.07 
617.08 -126.74 0.79 
597.52 -125.79 -5.35 
615.69 -126.32 -2.71 
616.13 -125.90 -2.74 
616.01 -125.75 -2.30 
616.41 -126.16 -1.62 
616.21 -125.76 -1.27 
616.66 -126.07 -2.21 
616.66 -125.84 -1.85 
617.34 -125.99 -2.30 
597.48 -125.25 -3.93 
597.95 -125.17 -5.34 
615.60 -125.70 -2.18 
615.95 -125.61 -2.80 
616.43 -125.31 -2.68 
616.35 -125.38 -1.54 
616.50 -125.42 -1.16 
616.86 -125.44 -2.35 
616.85 -125.34 -1.49 
616.54 -125.06 -1.15 
617.32 -125.70 -2.15 
617.27 -125.37 -1.70 
617.38 -125.09 -0.98 
597.58 -125.02 -3.59 
597.85 -124.95 -4.16 
597.97 -124.36 -3.57 
598.37 -124.98 -3.77 
616.60 -125.02 -2.51 
617.08 -124.83 -1.83 
616.61 -124.71 -1.13 
617.24 -125.01 -2.14 
617.26 -124.76 -1.48 
617.50 -124.68 -1.20 
597.57 -123.92 -4.33 
597.41 -123.89 -3.93 
597.28 -124.21 -3.38 
597.72 -124.24 -4.35 
598.13 -124.09 -3.90 
598.48 -123.80 -3.46 
616.68 -123.64 -2.13 
597.56 -123.04 -4.34 
597.30 -123.17 -3.84 
598.15 -123.14 -4.13 
598.09 -123.62 -3.87 
599.00 -122.98 -4.20 
598.65 -123.60 -3.57 
616.36 -123.35 -2.36 
616.54 -123.43 -2.97 
617.12 -123.11 -2.35 
617.37 -123.28 -2.33 
617.36 -122.98 -1.96 
596.71 -122.93 -4.26 
596.69 -122.44 -3.76 
597.42 -122.64 -4.31 
596.99 -122.76 -4.01 
597.64 -122.62 -5.38 
598.25 -122.72 -4.33 
597.87 -122.60 -3.85 
598.05 -122.68 -3.39 
598.36 -122.28 -5.33 
598.25 -122.72 -4.33 
598.60 -122.31 -3.85 
598.56 -122.29 -3.38 
599.65 -122.82 -3.60 
616.92 -122.60 -2.00 
617.35 -122.67 -1.58 
596.79 -121.83 -4.30 
596.78 -122.01 -4.01 
597.15 -121.82 -3.75 
598.03 -121.86 -4.19 
598.16 -122.09 -3.57 
598.84 -121.91 -5.06 
598.76 -122.20 -3.74 
599.64 -122.05 -4.60 
599.18 -121.68 -3.72 
599.09 -122.22 -3.09 
600.13 -122.14 -4.82 
599.75 -121.56 -4.08 
600.46 -121.71 -5.25 
616.81 -121.69 -1.57 
617.49 -122.16 -1.38 
596.02 -121.21 -3.59 
596.54 -121.38 -4.28 
596.66 -121.19 -3.68 
597.14 -120.94 -4.85 
597.25 -121.04 -4.28 
597.12 -120.85 -3.66 
598.24 -121.21 -3.42 
598.79 -121.40 -5.32 
598.83 -121.35 -4.52 
598.57 -121.41 -3.46 
598.69 -121.01 -3.26 
599.20 -121.31 -5.13 
599.16 -121.39 -3.73 
599.16 -121.42 -3.10 
600.06 -120.93 -5.25 
600.16 -121.30 -4.45 
599.73 -120.97 -3.96 
600.80 -121.28 -5.24 
600.93 -121.30 -4.46 
600.57 -121.41 -4.00 
601.38 -120.86 -5.00 
601.21 -121.15 -4.70 
601.12 -121.06 -3.79 
617.31 -121.19 -2.16 
596.69 -120.33 -3.89 
598.77 -120.41 -4.20 
598.62 -120.40 -3.86 
598.99 -120.83 -3.32 
599.33 -120.59 -4.81 
599.52 -120.48 -4.29 
599.06 -120.33 -3.86 
599.33 -120.70 -3.41 
600.23 -120.23 -5.16 
599.77 -120.45 -4.29 
600.05 -120.40 -3.94 
600.96 -120.36 -5.15 
600.74 -120.68 -4.31 
601.03 -120.54 -3.98 
601.58 -120.54 -4.99 
601.20 -120.33 -4.53 
601.21 -120.29 -3.84 
601.85 -120.69 -4.79 
595.96 -119.80 -4.83 
595.99 -119.92 -4.05 
596.62 -119.92 -5.28 
596.58 -119.75 -4.44 
596.63 -119.98 -3.68 
596.42 -119.83 -3.39 
596.97 -119.73 -5.26 
597.14 -119.98 -4.15 
597.12 -119.61 -3.91 
597.65 -119.97 -4.85 
597.79 -120.02 -3.58 
598.89 -119.84 -3.98 
598.43 -119.99 -3.25 
599.45 -119.79 -4.26 
599.35 -119.52 -3.86 
599.15 -119.55 -3.16 
600.27 -120.02 -4.95 
600.10 -119.59 -3.72 
600.97 -119.68 -5.23 
600.69 -119.97 -4.52 
600.96 -119.80 -3.64 
601.33 -119.88 -4.43 
601.52 -120.10 -3.84 
602.08 -119.57 -5.05 
602.23 -119.69 -4.60 
602.45 -119.47 -3.90 
602.77 -120.08 -4.97 
602.72 -119.90 -4.13 
602.57 -119.63 -4.13 
596.18 -118.97 -5.32 
596.20 -118.83 -4.12 
596.81 -119.32 -4.96 
596.44 -119.32 -4.68 
596.69 -119.38 -3.49 
596.66 -119.39 -3.19 
597.20 -119.42 -5.25 
597.23 -119.23 -4.17 
597.32 -118.93 -4.01 
596.93 -119.00 -3.16 
597.80 -118.93 -4.88 
597.71 -119.02 -4.26 
597.83 -119.34 -3.83 
597.80 -119.10 -3.34 
598.34 -119.13 -4.25 
598.36 -118.87 -3.50 
599.07 -118.91 -4.27 
599.31 -119.33 -3.39 
600.18 -119.29 -5.31 
600.28 -119.11 -4.60 
600.13 -119.13 -3.66 
601.04 -119.05 -5.17 
600.70 -119.34 -4.50 
600.82 -119.12 -4.10 
601.19 -119.38 -5.39 
600.94 -119.39 -4.63 
601.44 -118.99 -4.08 
602.12 -119.35 -5.52 
602.95 -119.02 -5.23 
602.68 -119.35 -3.88 
595.56 -118.27 -5.36 
596.20 -118.49 -4.38 
596.12 -118.55 -3.29 
596.65 -118.51 -5.19 
596.25 -118.32 -4.77 
596.68 -118.34 -3.73 
596.72 -118.41 -3.42 
597.33 -118.20 -5.14 
597.35 -118.58 -4.59 
597.16 -118.51 -3.72 
597.50 -118.25 -3.33 
597.68 -118.42 -4.68 
597.83 -118.19 -3.74 
598.75 -118.07 -4.83 
599.24 -118.64 -4.08 
600.20 -118.48 -5.17 
599.79 -118.35 -4.46 
600.14 -118.68 -3.51 
600.75 -118.34 -5.27 
600.57 -118.43 -4.36 
600.91 -118.13 -4.03 
601.71 -118.48 -5.48 
601.26 -118.22 -4.36 
601.31 -118.67 -3.58 
595.39 -117.39 -4.05 
595.94 -117.67 -4.46 
596.37 -118.00 -4.89 
596.82 -117.60 -4.30 
596.58 -117.58 -3.87 
596.33 -117.86 -3.28 
597.16 -117.59 -5.20 
597.37 -117.80 -4.47 
597.49 -117.86 -3.56 
597.88 -117.84 -4.22 
598.73 -117.80 -4.56 
598.42 -117.43 -3.29 
599.43 -117.54 -5.18 
599.37 -117.87 -4.16 
599.43 -117.54 -4.10 
599.86 -117.34 -4.92 
599.79 -117.56 -4.32 
600.21 -117.82 -3.51 
600.56 -117.86 -5.50 
600.65 -117.79 -4.40 
600.42 -117.72 -3.50 
602.25 -117.62 -3.46 
594.28 -117.09 -4.33 
594.62 -116.90 -3.81 
595.32 -116.97 -4.26 
595.68 -117.22 -4.59 
596.45 -117.26 -4.76 
596.27 -117.00 -3.79 
597.26 -116.63 -4.49 
597.35 -117.00 -4.11 
597.18 -116.93 -2.88 
597.68 -117.17 -4.22 
598.00 -117.06 -3.49 
597.66 -116.96 -3.34 
598.58 -117.16 -4.83 
598.40 -117.11 -4.80 
598.44 -117.02 -3.46 
599.06 -116.97 -4.83 
599.29 -116.88 -4.56 
599.72 -116.97 -5.09 
599.81 -116.66 -4.70 
599.86 -116.70 -3.39 
600.73 -117.07 -3.90 
601.46 -116.71 -4.51 
601.64 -116.78 -3.99 
601.90 -116.68 -4.54 
602.00 -117.17 -4.06 
602.54 -116.74 -3.93 
602.62 -116.84 -3.42 
593.99 -116.22 -5.27 
593.62 -116.53 -4.45 
594.80 -116.26 -5.20 
594.64 -116.60 -4.03 
595.14 -116.22 -5.23 
595.01 -116.47 -4.80 
595.04 -116.35 -4.04 
595.89 -116.15 -4.78 
596.23 -116.07 -5.01 
596.88 -116.29 -3.04 
597.54 -116.06 -4.84 
597.26 -116.63 -4.49 
597.18 -116.25 -2.99 
598.01 -116.21 -3.37 
598.01 -116.21 -3.37 
598.96 -116.27 -5.09 
598.80 -116.11 -4.78 
598.52 -116.48 -3.83 
599.00 -116.31 -3.38 
599.09 -116.08 -5.08 
599.58 -116.58 -4.20 
599.07 -115.96 -3.85 
600.14 -116.17 -5.27 
599.95 -116.30 -4.26 
600.38 -116.42 -4.10 
600.74 -116.63 -4.62 
600.81 -116.17 -3.76 
601.78 -116.16 -3.69 
602.33 -116.16 -3.65 
602.53 -116.55 -3.62 
593.59 -115.61 -4.70 
594.37 -115.85 -4.41 
594.66 -115.76 -4.04 
595.48 -115.51 -4.82 
594.94 -115.53 -4.01 
595.72 -115.31 -4.83 
595.71 -115.62 -4.23 
596.72 -115.26 -4.24 
597.59 -115.47 -4.16 
597.06 -115.64 -3.42 
597.91 -115.34 -4.95 
598.28 -115.73 -4.54 
598.36 -115.39 -5.22 
598.34 -115.84 -4.38 
599.34 -115.81 -5.06 
599.21 -115.89 -4.67 
599.05 -115.56 -3.40 
599.98 -115.28 -5.05 
599.85 -115.42 -3.99 
600.71 -115.65 -3.89 
600.77 -115.70 -3.13 
602.14 -115.91 -3.78 
602.72 -115.80 -4.00 
593.68 -114.93 -4.96 
593.68 -114.58 -4.31 
593.73 -114.66 -3.87 
594.47 -114.77 -5.34 
594.72 -115.11 -4.44 
594.97 -114.60 -5.12 
595.49 -115.11 -4.34 
596.10 -114.79 -4.50 
596.35 -114.95 -5.27 
596.44 -114.82 -4.38 
597.05 -114.68 -4.79 
597.05 -114.93 -4.00 
598.08 -115.19 -4.95 
600.19 -115.00 -5.04 
600.13 -115.09 -4.82 
600.39 -114.73 -3.88 
601.05 -114.94 -3.23 
601.59 -114.81 -3.58 
601.34 -114.67 -3.28 
601.99 -114.75 -3.75 
