# .PCD v0.7 - Point Cloud Data file format
VERSION 0.7
FIELDS x y z
SIZE 4 4 4
TYPE F F F
COUNT 1 1 1
WIDTH 812
HEIGHT 1
VIEWPOINT 0 0 0 1 0 0 0
POINTS 812
DATA ascii
592.98 85.73 -1.20 
593.22 85.62 -0.32 
592.95 85.68 0.43 
592.94 85.66 1.24 
593.86 85.68 -1.07 
593.85 85.65 -0.18 
593.83 85.62 0.70 
593.81 85.59 1.59 
594.61 85.70 -1.17 
594.59 85.67 -0.14 
594.30 85.57 0.61 
594.56 85.63 0.89 
595.02 85.96 -1.11 
595.19 86.07 -0.77 
595.28 85.91 -0.31 
594.97 85.90 0.48 
594.95 85.86 1.28 
594.92 85.83 2.09 
594.96 85.77 2.87 
594.88 85.77 3.70 
595.71 85.81 -1.20 
595.69 85.80 -0.38 
595.66 85.79 1.27 
595.64 85.78 2.09 
595.62 85.77 2.92 
595.60 85.76 3.75 
596.51 86.13 -1.06 
596.50 86.12 -0.40 
596.49 86.11 0.26 
596.48 86.11 0.93 
596.64 86.12 1.77 
596.62 86.11 2.45 
596.61 86.11 3.14 
596.17 85.81 3.72 
597.15 85.84 -0.95 
597.13 85.83 -0.27 
597.12 85.82 0.41 
597.10 85.82 1.10 
597.09 85.81 1.78 
597.08 85.81 2.47 
597.06 85.80 3.15 
597.50 85.49 3.86 
597.60 85.53 -0.95 
597.59 85.52 -0.26 
597.57 85.52 0.42 
597.56 85.51 1.11 
597.54 85.50 1.79 
597.53 85.50 2.48 
601.80 85.54 4.72 
602.28 85.77 5.24 
602.72 86.12 3.23 
602.63 86.12 4.12 
608.63 86.11 3.95 
609.24 86.16 3.73 
609.24 85.90 4.72 
608.89 85.90 5.47 
592.95 86.67 -0.76 
592.89 86.62 0.28 
592.83 86.57 1.32 
593.65 86.45 -1.13 
593.41 86.54 -0.36 
593.39 86.52 0.44 
593.37 86.49 1.23 
593.36 86.84 1.70 
594.24 86.47 -1.03 
594.22 86.44 -0.16 
594.20 86.41 0.72 
594.18 86.38 1.59 
594.72 86.47 -1.30 
594.97 86.54 -1.13 
595.06 86.25 -0.38 
595.02 86.24 1.24 
595.00 86.23 2.06 
594.98 86.22 2.87 
594.97 86.22 3.69 
595.79 86.66 -1.28 
596.04 86.56 -0.73 
595.69 86.29 -0.29 
595.67 86.28 0.50 
595.98 86.54 1.38 
595.95 86.53 2.09 
595.93 86.52 2.80 
595.69 86.58 3.28 
595.58 86.22 3.67 
596.54 86.24 -1.43 
596.24 86.45 -0.96 
596.49 86.23 -0.02 
596.21 86.44 0.40 
596.28 86.21 1.01 
596.26 86.20 1.78 
596.25 86.18 2.54 
596.23 86.17 3.31 
602.38 86.23 4.15 
602.04 86.30 4.70 
603.08 86.65 4.28 
603.01 86.52 4.70 
603.11 86.70 3.39 
606.53 86.80 4.36 
607.18 86.56 3.80 
606.78 86.77 4.54 
607.76 86.55 4.52 
608.63 86.82 4.01 
608.25 86.49 4.61 
609.16 86.27 4.62 
609.13 86.65 5.47 
610.02 86.51 4.18 
609.45 86.66 4.71 
609.98 86.45 5.17 
610.32 86.84 4.65 
593.41 86.92 -1.31 
593.40 86.90 -0.56 
593.83 87.34 -0.34 
593.81 87.32 0.44 
594.00 87.16 1.38 
594.05 87.23 -1.10 
594.03 87.21 -0.27 
594.57 87.18 0.73 
594.55 87.16 1.60 
595.08 87.27 -1.26 
595.06 87.23 -0.29 
595.03 87.18 0.67 
602.28 87.05 4.69 
602.43 87.03 3.97 
603.28 87.56 4.26 
604.20 87.46 3.43 
604.12 87.46 4.32 
604.01 87.48 4.91 
605.17 87.27 4.31 
605.20 87.15 5.09 
605.64 87.02 3.61 
605.28 87.15 4.18 
605.56 87.03 4.53 
606.20 87.38 3.71 
606.45 87.06 4.36 
607.39 87.11 3.85 
607.31 87.11 4.79 
609.86 87.25 4.10 
609.59 87.38 4.76 
610.30 87.53 2.23 
610.18 87.52 2.83 
610.27 87.47 3.20 
610.23 87.42 4.18 
610.11 87.41 4.79 
610.20 87.37 5.15 
592.87 87.64 -1.39 
592.86 87.63 -0.66 
592.84 87.61 0.06 
592.83 87.59 0.79 
592.82 87.58 1.51 
593.85 87.75 -1.27 
593.84 87.73 -0.53 
593.82 87.71 0.20 
593.81 87.69 0.94 
593.80 87.67 1.68 
594.17 88.12 -1.08 
594.16 88.09 -0.32 
594.40 87.94 0.56 
594.38 87.92 1.38 
594.96 87.99 -0.96 
594.94 87.97 -0.11 
594.93 87.94 0.74 
594.91 87.91 1.60 
595.43 88.06 -1.21 
595.66 88.14 -0.05 
602.88 87.75 4.15 
602.63 87.73 4.83 
603.32 87.61 3.38 
603.68 87.73 4.10 
603.60 87.74 4.97 
603.97 87.90 3.44 
603.89 87.90 4.32 
605.06 87.65 3.57 
604.79 87.59 4.12 
604.71 87.59 5.01 
609.93 88.07 4.92 
610.40 87.68 -0.66 
610.29 87.69 -0.08 
610.37 87.63 0.30 
610.14 88.07 4.11 
610.35 88.27 4.79 
610.41 88.26 5.14 
610.81 88.27 -0.03 
611.47 87.87 5.00 
611.89 87.86 5.01 
611.57 87.79 5.15 
592.81 88.47 -0.87 
592.63 88.57 0.11 
592.74 88.40 0.15 
592.68 88.32 1.16 
592.70 88.73 2.11 
593.39 88.55 -1.34 
593.38 88.53 -0.64 
593.37 88.52 0.07 
593.56 88.90 0.62 
593.35 88.49 1.48 
593.48 88.80 1.70 
594.57 88.87 -1.05 
594.26 88.53 -0.51 
594.24 88.51 0.21 
594.52 88.80 1.22 
594.22 88.47 1.66 
595.31 88.73 -0.93 
595.22 88.93 -0.02 
594.77 88.68 0.57 
594.75 88.66 1.38 
595.26 88.65 1.60 
595.78 88.83 -1.17 
595.75 88.78 -0.22 
610.58 88.51 0.34 
610.61 88.28 1.90 
610.51 88.41 2.25 
610.48 88.36 3.21 
610.42 88.29 3.83 
593.05 89.40 -0.79 
592.72 89.46 -0.09 
592.81 89.56 0.41 
592.94 89.28 1.12 
592.82 89.45 1.90 
592.76 89.39 2.76 
593.88 89.39 -0.61 
593.51 89.49 -0.49 
593.86 89.36 0.77 
593.47 89.43 1.52 
594.68 89.31 -1.19 
594.67 89.29 -0.48 
594.65 89.27 0.22 
594.64 89.25 0.93 
594.62 89.23 1.64 
595.06 89.58 -1.15 
595.11 89.54 -0.19 
594.92 89.55 0.47 
594.91 89.53 1.22 
595.66 89.45 -0.90 
595.64 89.42 -0.06 
595.62 89.39 0.77 
593.25 89.99 -0.81 
593.07 90.15 -0.33 
593.27 90.15 0.26 
593.21 90.10 1.11 
593.16 90.04 1.96 
592.91 89.94 2.57 
593.40 90.21 -0.72 
593.62 90.34 -0.51 
593.50 90.11 0.28 
593.44 90.04 1.28 
593.48 90.17 1.55 
594.12 90.08 -1.43 
594.35 90.21 -0.58 
594.34 90.20 0.09 
594.33 90.18 0.76 
594.32 90.16 1.44 
595.32 90.29 -0.98 
595.30 90.27 -0.25 
595.04 90.01 0.23 
595.03 89.99 0.93 
595.02 89.97 1.63 
595.56 90.14 -0.96 
595.98 90.12 -0.04 
595.52 90.09 0.60 
595.51 90.06 1.38 
593.27 90.40 -0.69 
593.30 90.66 1.75 
593.25 90.61 2.62 
593.68 90.42 -1.53 
593.61 90.76 -0.74 
593.42 90.82 -0.27 
593.61 90.74 0.32 
593.64 90.84 1.22 
593.51 90.63 2.02 
593.38 90.63 2.76 
594.52 91.03 -1.32 
594.09 90.46 -1.11 
594.08 90.44 -0.46 
594.05 90.40 0.83 
594.04 90.38 1.48 
594.29 90.74 1.84 
595.36 90.76 -0.86 
594.79 90.97 0.10 
595.39 90.71 0.81 
594.77 90.94 1.41 
595.40 90.68 1.61 
595.68 90.98 -0.95 
595.66 90.95 -0.23 
595.65 90.93 0.49 
595.85 90.75 1.38 
594.00 91.08 -1.62 
593.91 91.44 -0.59 
593.78 91.49 -0.36 
593.95 91.33 0.37 
593.84 91.45 1.22 
593.76 91.28 1.96 
593.59 91.23 2.66 
594.04 91.13 -1.71 
594.27 91.36 -0.87 
594.29 91.34 -0.01 
594.05 91.63 0.34 
594.58 91.28 1.45 
594.68 91.67 1.90 
595.24 91.75 -1.17 
595.22 91.71 0.11 
595.21 91.70 0.75 
595.19 91.68 1.39 
596.04 91.66 -1.63 
595.82 91.44 -1.09 
595.74 91.40 -0.14 
595.99 91.59 0.50 
595.98 91.57 1.22 
595.77 91.37 1.60 
592.99 91.94 0.90 
593.66 92.46 -0.93 
593.67 92.44 -0.12 
593.68 92.41 0.69 
593.99 92.01 1.62 
593.94 91.96 2.51 
594.45 92.16 -1.35 
594.35 92.13 -0.60 
594.39 92.08 -0.35 
594.29 92.07 0.36 
594.20 92.20 1.27 
594.14 92.13 2.22 
594.10 92.16 2.42 
594.71 92.21 -1.03 
594.83 91.86 -0.18 
595.10 92.14 0.81 
595.09 92.12 1.42 
595.53 92.47 -1.06 
595.54 92.11 -0.20 
595.55 92.09 0.52 
595.55 92.07 1.24 
595.54 92.41 1.62 
596.12 92.10 -1.72 
596.11 92.08 -1.05 
593.65 92.48 -1.75 
593.93 92.82 -0.61 
593.82 92.86 -0.04 
593.76 92.96 0.57 
593.77 92.94 1.33 
593.50 92.96 1.63 
594.17 92.96 -1.95 
594.03 92.78 -1.18 
594.57 92.63 -0.48 
594.62 92.86 0.42 
594.56 92.80 1.37 
594.33 92.66 1.67 
594.49 92.87 2.26 
594.83 93.10 -1.47 
594.82 92.85 -1.07 
594.82 93.08 -0.32 
594.73 93.07 0.45 
594.92 93.04 1.40 
595.06 92.58 1.97 
595.08 92.72 2.85 
595.53 92.49 -1.73 
595.62 92.99 -0.97 
596.03 93.09 -0.48 
595.59 92.95 0.21 
595.57 92.92 1.40 
593.19 93.18 -1.73 
592.82 93.49 -0.95 
592.83 93.47 -0.18 
592.84 93.45 0.60 
592.85 93.43 1.37 
592.70 93.39 1.54 
593.69 93.32 -1.70 
593.50 93.39 -0.60 
593.19 93.48 -0.03 
593.34 93.61 0.32 
593.34 93.59 1.03 
594.42 93.43 -1.40 
594.09 93.24 -1.09 
594.44 93.45 -0.24 
594.10 93.21 0.31 
594.45 93.48 0.91 
594.66 93.30 1.72 
594.61 93.24 2.60 
595.07 93.46 -1.38 
595.19 93.83 -1.18 
595.02 93.68 -0.47 
594.97 93.61 0.47 
594.91 93.55 1.42 
594.81 93.54 1.62 
594.96 93.66 2.34 
595.47 93.45 -1.73 
595.66 93.74 -1.02 
595.58 93.65 -0.01 
595.90 93.62 0.80 
595.46 93.38 1.38 
595.44 93.47 2.03 
593.23 94.32 0.61 
593.15 94.22 1.62 
593.38 94.51 -1.41 
593.68 94.47 -1.14 
593.31 94.42 -0.40 
593.45 94.56 0.74 
593.67 94.41 1.47 
594.43 94.55 -1.55 
594.24 94.50 -1.08 
594.43 94.53 -0.35 
594.29 94.07 0.80 
594.43 94.49 1.45 
595.40 94.28 -1.29 
594.93 94.24 -0.95 
595.34 94.22 -0.35 
595.31 94.36 0.53 
595.23 94.38 1.43 
595.14 94.19 1.67 
595.20 94.23 2.40 
595.83 94.47 -1.54 
595.78 94.00 -0.94 
595.66 94.42 -0.29 
595.77 93.97 0.73 
595.74 94.38 1.31 
595.65 94.40 1.90 
596.50 94.54 -1.16 
596.22 93.92 0.06 
593.04 94.83 -1.15 
593.04 94.82 -0.49 
593.04 94.79 0.84 
593.04 94.77 1.51 
594.00 95.03 -1.53 
593.92 94.85 -0.95 
593.97 95.02 -0.28 
593.67 95.13 0.69 
593.54 95.09 1.10 
593.62 95.00 1.79 
593.85 94.60 2.29 
594.41 95.16 -1.42 
594.40 95.15 -0.82 
594.38 95.14 -0.21 
594.37 95.13 0.39 
594.49 94.75 1.33 
594.40 94.66 1.62 
594.92 94.94 -1.38 
594.91 94.93 -0.84 
594.91 94.93 -0.29 
594.89 94.91 0.81 
595.00 95.11 1.06 
594.98 95.10 1.62 
595.74 95.04 -1.22 
595.68 94.97 -0.28 
595.64 95.09 0.59 
595.66 95.03 1.20 
595.47 94.84 1.72 
595.54 94.96 2.45 
596.15 94.89 -1.53 
596.40 94.57 -0.55 
596.18 94.64 0.65 
596.11 95.20 2.16 
597.68 95.25 -1.34 
597.91 94.92 0.12 
597.91 94.92 0.12 
598.91 94.66 0.12 
598.85 94.80 0.33 
617.05 94.90 -0.72 
593.07 95.69 -0.90 
593.05 95.68 -0.29 
593.14 95.60 0.80 
593.14 95.59 1.38 
592.95 95.66 2.02 
593.62 95.36 -1.54 
593.73 95.70 -0.85 
593.73 95.70 -0.29 
593.52 95.70 0.37 
593.71 95.67 1.38 
593.71 95.67 1.38 
594.14 95.45 -1.40 
594.46 95.47 -0.97 
594.34 95.61 -0.05 
594.32 95.60 0.50 
594.31 95.59 1.06 
594.29 95.58 1.61 
595.88 95.48 -1.01 
596.01 95.71 -0.21 
595.98 95.81 0.64 
595.72 95.72 1.25 
595.90 95.58 1.66 
595.87 95.68 2.49 
596.33 95.46 -0.84 
596.23 95.90 0.05 
596.25 95.37 0.16 
596.29 95.56 0.99 
596.16 95.55 2.01 
596.22 95.40 2.49 
596.93 95.72 -0.95 
596.85 95.41 1.57 
597.53 95.33 0.14 
598.18 95.68 0.23 
598.65 95.89 0.17 
616.72 95.84 -0.70 
592.93 96.25 -1.42 
592.92 96.24 -0.86 
593.03 96.49 -0.23 
593.23 96.35 0.49 
592.85 96.49 1.31 
593.20 96.34 1.60 
593.68 96.01 -1.55 
593.67 96.00 -0.98 
593.61 96.11 -0.06 
593.59 96.10 0.49 
593.58 96.09 1.05 
593.69 96.60 1.61 
594.54 96.41 -1.11 
594.18 96.02 -0.22 
594.47 96.45 0.27 
594.38 96.21 0.91 
594.58 96.43 1.84 
595.41 96.54 -1.02 
594.84 96.45 -0.13 
595.15 96.51 1.01 
595.71 96.21 -0.67 
595.91 96.03 0.16 
596.04 96.31 1.30 
595.99 96.27 2.15 
596.32 96.24 -0.83 
596.34 96.45 -0.14 
596.29 96.52 0.68 
596.13 96.02 1.29 
596.23 96.32 1.71 
596.16 96.35 2.53 
597.25 96.43 0.30 
598.00 96.08 -0.04 
598.14 95.99 0.18 
597.85 96.09 0.87 
598.55 96.28 0.24 
598.79 96.14 1.84 
599.05 96.14 -0.06 
598.96 96.43 0.18 
598.92 96.14 0.89 
599.39 96.41 2.06 
599.76 96.44 -0.87 
599.64 96.42 0.11 
599.61 96.41 0.54 
592.67 96.76 -1.34 
592.80 96.68 -1.08 
592.65 96.75 -0.23 
592.67 96.69 0.51 
592.63 96.69 1.04 
593.07 97.12 1.83 
593.55 96.98 1.98 
594.19 96.82 2.06 
596.72 97.24 -1.00 
596.67 97.17 -0.08 
596.61 97.20 0.74 
596.36 96.91 1.35 
596.55 97.04 1.77 
596.50 97.08 2.54 
597.02 97.12 -0.66 
596.95 97.03 0.32 
596.88 96.94 1.30 
596.81 96.86 2.28 
598.02 97.15 -0.57 
597.88 97.14 0.42 
598.11 96.84 0.87 
598.00 96.84 1.80 
597.61 97.13 2.39 
598.35 96.85 -1.01 
598.23 96.85 -0.07 
598.90 96.86 0.25 
598.68 96.74 1.27 
598.74 96.88 1.65 
598.55 96.73 2.25 
599.29 96.98 -1.37 
599.28 96.97 -0.85 
599.27 96.95 -0.33 
599.26 96.94 0.19 
616.32 96.76 -0.68 
593.10 97.56 1.89 
595.05 98.05 0.19 
595.75 97.50 0.22 
596.59 97.70 0.18 
596.54 97.65 1.04 
596.73 97.56 2.07 
597.08 97.59 -0.77 
597.49 97.40 0.00 
596.97 97.58 0.18 
597.37 97.39 0.93 
597.26 97.38 1.85 
597.60 97.41 -0.93 
597.56 97.54 0.46 
598.67 97.50 0.26 
599.26 97.46 -1.18 
599.24 97.42 -0.23 
599.56 98.00 0.31 
615.92 97.67 -0.66 
595.37 98.73 -0.84 
595.30 98.64 0.13 
595.19 98.49 0.45 
595.23 98.55 1.09 
596.54 98.60 0.24 
596.80 98.22 1.95 
597.15 98.29 -1.45 
597.15 98.28 -0.89 
597.12 98.74 0.00 
597.07 98.55 0.41 
596.96 98.60 0.91 
596.91 98.54 1.78 
597.79 98.40 0.41 
598.86 98.47 -0.24 
598.84 98.46 0.25 
614.95 98.42 -0.83 
616.33 98.39 -0.64 
595.61 99.13 -0.80 
595.71 99.41 -0.44 
595.70 99.40 0.21 
595.63 99.31 1.17 
596.29 98.99 -1.46 
596.22 98.91 -0.41 
596.50 99.35 0.37 
597.10 99.46 -0.63 
597.34 99.47 0.02 
597.23 99.00 0.23 
597.28 99.26 0.97 
597.23 99.21 1.83 
598.02 99.13 0.32 
598.31 98.93 0.32 
617.26 99.03 -0.61 
595.79 99.51 -1.43 
595.78 99.49 -0.75 
595.94 99.80 0.26 
595.96 99.95 1.15 
596.43 99.88 0.28 
597.44 99.56 -0.79 
597.39 99.54 0.02 
597.14 99.73 0.31 
597.33 99.43 1.01 
597.73 100.02 0.11 
597.71 99.76 0.52 
597.59 99.89 1.03 
597.63 99.92 1.85 
600.21 99.79 1.07 
600.52 99.80 -1.01 
600.59 99.80 -0.30 
600.43 99.80 0.71 
617.36 99.90 -0.63 
592.89 100.63 -0.97 
592.87 100.61 -0.32 
592.99 100.60 0.32 
593.15 100.57 1.04 
593.89 100.34 -0.40 
593.39 100.49 0.57 
594.26 100.82 0.29 
594.95 100.62 -1.43 
595.01 100.82 -0.65 
595.01 100.81 -0.17 
594.91 100.49 0.33 
595.95 100.56 0.32 
596.22 100.30 -1.32 
596.17 100.23 -0.65 
596.14 100.21 -0.34 
596.34 100.56 0.34 
596.35 100.67 1.23 
597.74 100.24 -0.72 
597.93 100.48 -0.35 
597.95 100.57 0.22 
597.98 100.64 1.03 
597.93 100.59 1.90 
597.92 100.26 2.27 
598.85 100.70 -1.07 
598.63 100.85 -0.39 
598.49 100.85 0.58 
598.55 100.68 0.94 
598.34 100.85 1.55 
598.23 100.86 2.33 
599.35 100.43 0.64 
600.05 100.62 0.53 
601.22 100.85 0.63 
617.13 100.75 -0.62 
592.77 101.32 -1.33 
592.76 101.30 -0.78 
593.00 101.13 -0.30 
593.01 101.11 0.34 
592.73 101.25 0.87 
593.78 101.11 0.30 
594.63 101.39 0.18 
594.78 101.10 -1.41 
595.24 100.97 0.19 
595.68 101.56 -0.71 
595.63 101.49 0.35 
596.56 100.96 -0.56 
596.53 101.05 -0.25 
596.74 101.30 0.43 
596.73 101.38 1.30 
597.29 101.53 -1.13 
596.81 101.39 -0.52 
597.01 101.51 0.81 
596.81 101.51 1.40 
598.05 100.93 -0.74 
597.98 100.92 -0.47 
598.03 101.09 0.63 
598.20 101.36 1.06 
598.15 101.30 1.93 
598.42 101.44 -1.22 
598.33 101.34 -0.23 
598.29 101.53 0.29 
598.28 101.27 1.09 
598.23 101.22 1.95 
599.40 101.08 0.61 
600.71 100.88 0.63 
601.56 101.36 -0.30 
601.61 100.87 0.39 
601.42 100.90 1.32 
601.26 101.31 1.78 
601.91 101.46 -0.17 
601.76 101.46 0.79 
602.02 101.35 1.52 
603.29 101.09 0.21 
592.81 101.99 -0.68 
592.80 101.97 -0.17 
593.09 102.08 0.34 
592.78 101.94 0.85 
593.45 101.94 -0.83 
593.32 101.96 0.12 
593.72 102.03 0.17 
594.37 101.64 0.33 
594.50 101.82 1.17 
595.22 102.20 -0.60 
594.77 101.76 -0.34 
595.10 102.21 0.42 
595.04 102.21 0.93 
595.65 101.69 0.47 
597.43 102.16 -1.13 
596.95 101.68 -0.47 
596.88 101.60 0.46 
597.29 102.00 0.86 
597.61 101.64 0.50 
598.35 101.59 -0.59 
598.59 102.32 -0.33 
598.59 102.20 0.35 
598.51 102.03 1.12 
598.45 101.98 1.99 
600.80 102.17 -0.92 
600.64 102.16 0.08 
600.49 102.15 1.07 
601.10 101.83 0.01 
602.21 101.59 -0.85 
602.04 101.58 0.18 
601.88 101.57 1.21 
593.00 102.65 -0.90 
592.79 102.83 -0.15 
592.94 102.87 0.45 
592.93 102.86 0.90 
593.54 102.89 -1.30 
593.49 102.89 -0.82 
593.45 102.89 -0.34 
593.79 102.57 0.83 
593.75 102.58 1.31 
594.19 102.70 -0.80 
594.12 102.63 -0.14 
594.06 102.63 0.35 
594.43 102.43 0.89 
594.93 102.50 -0.78 
594.88 102.50 -0.28 
594.84 102.50 0.22 
595.04 102.28 1.45 
598.82 102.28 -1.10 
598.59 102.32 -0.33 
598.87 102.77 1.29 
598.91 102.55 1.76 
599.37 102.86 -0.99 
599.38 102.59 -0.26 
599.25 102.59 0.65 
599.07 102.84 0.95 
599.11 102.59 1.55 
602.09 102.33 -0.79 
592.92 103.02 -1.30 
592.88 103.02 -0.83 
592.80 103.25 -0.13 
592.84 103.26 0.45 
593.01 103.02 1.23 
593.33 103.22 -1.11 
593.43 103.41 -0.22 
593.31 103.43 0.73 
594.67 103.01 0.33 
594.54 103.03 1.34 
594.81 103.00 -0.68 
595.24 103.16 -0.23 
595.09 103.18 0.79 
595.02 103.19 1.30 
597.85 103.05 -1.03 
599.32 103.65 -0.88 
599.23 103.61 0.11 
599.13 103.57 1.10 
600.67 103.01 -0.84 
602.56 103.19 -0.91 
593.64 103.68 -0.76 
593.58 103.69 -0.29 
593.45 103.71 0.66 
593.39 103.71 1.13 
597.06 103.81 -0.85 
597.92 104.34 0.61 
598.25 103.91 -0.94 
599.28 103.80 -0.38 
597.46 104.85 -0.75 
597.03 104.43 -0.47 
597.39 104.75 0.33 
597.99 104.38 -0.42 
602.86 104.47 -0.74 
603.37 105.06 -0.65 
603.88 105.66 -0.56 
602.33 105.83 -0.83 
604.16 106.18 -0.65 
604.34 106.29 -0.48 
605.03 106.34 -0.46 
602.63 106.74 -0.72 
604.72 106.99 -0.39 
605.38 107.08 -0.37 
592.88 109.32 0.12 
593.15 109.82 0.16 
592.97 110.32 -0.19 
593.42 110.33 0.20 
603.64 110.31 -0.26 
604.90 110.34 -0.18 
