# .PCD v0.7 - Point Cloud Data file format
VERSION 0.7
FIELDS x y z
SIZE 4 4 4
TYPE F F F
COUNT 1 1 1
WIDTH 291
HEIGHT 1
VIEWPOINT 0 0 0 1 0 0 0
POINTS 291
DATA ascii
592.88 -114.31 -5.41 
592.68 -114.45 -4.77 
593.42 -113.94 -5.15 
594.73 -114.05 -4.46 
595.07 -114.15 -4.98 
594.91 -114.09 -4.21 
597.64 -113.93 -5.28 
607.22 -113.94 -4.99 
592.73 -113.53 -5.32 
592.78 -113.60 -4.84 
592.79 -113.19 -3.98 
594.02 -113.34 -5.34 
593.37 -113.58 -4.48 
594.77 -113.91 -4.76 
595.81 -113.56 -4.70 
598.92 -113.13 -4.45 
598.92 -113.17 -3.94 
592.72 -112.76 -5.18 
593.00 -112.89 -4.56 
592.82 -112.96 -4.32 
593.95 -112.91 -3.92 
598.80 -113.02 -5.42 
598.89 -112.74 -3.92 
599.43 -112.42 -3.86 
599.12 -112.84 -3.12 
593.84 -112.36 -4.14 
597.69 -111.72 -4.88 
598.58 -111.89 -3.91 
599.03 -112.03 -3.80 
597.66 -111.03 -4.17 
597.83 -110.85 -4.15 
603.93 -108.72 -5.07 
603.53 -107.62 -5.02 
592.81 -106.80 -5.84 
600.03 -107.05 -5.22 
602.79 -106.88 -4.98 
600.04 -106.58 -5.21 
602.49 -106.26 -4.96 
604.99 -106.39 -4.61 
599.54 -105.62 -5.54 
600.04 -105.60 -5.20 
602.29 -105.89 -4.94 
606.16 -105.42 -4.57 
605.84 -105.17 -4.57 
601.17 -104.19 -4.89 
605.09 -104.54 -4.55 
613.44 -103.98 -3.91 
600.94 -103.82 -4.88 
604.35 -103.96 -4.53 
613.07 -103.59 -3.90 
612.71 -103.22 -3.90 
611.69 -102.11 -3.88 
606.20 -101.26 -4.00 
609.86 -101.41 -3.90 
611.36 -101.76 -3.87 
605.22 -100.96 -4.02 
596.16 -99.99 -0.02 
596.71 -99.88 -0.01 
597.11 -100.02 0.39 
602.43 -99.84 -1.21 
601.97 -99.81 -0.49 
602.68 -99.79 -2.67 
602.92 -99.85 -1.80 
602.73 -100.18 -1.51 
602.75 -100.34 -0.93 
603.45 -99.92 -4.08 
603.49 -99.84 -3.34 
603.51 -100.00 -2.83 
603.47 -100.23 -1.85 
603.50 -100.45 -1.31 
604.27 -99.95 -3.99 
604.27 -99.94 -3.30 
604.22 -100.13 -2.71 
603.92 -100.18 -2.34 
604.10 -100.01 -1.09 
604.88 -99.96 -3.87 
605.01 -99.85 -3.63 
605.18 -99.86 -2.66 
605.43 -99.85 -3.94 
605.44 -99.83 -3.56 
596.48 -99.18 0.07 
597.09 -99.36 0.41 
597.80 -99.77 0.41 
601.30 -99.07 -1.04 
601.58 -99.58 -0.81 
602.45 -99.09 -3.63 
602.43 -99.10 -2.99 
602.09 -99.47 -2.04 
601.93 -99.51 -1.10 
602.07 -99.54 -0.81 
602.94 -99.72 -4.08 
602.93 -99.72 -3.51 
603.11 -99.49 -2.64 
603.08 -99.47 -2.03 
602.85 -99.63 -1.19 
603.83 -99.69 -2.36 
603.81 -99.65 -1.78 
603.53 -99.32 -1.40 
603.52 -99.36 -0.79 
604.44 -99.58 -4.01 
604.15 -99.82 -3.46 
604.24 -99.73 -1.76 
605.08 -99.60 -3.79 
605.03 -99.61 -3.37 
605.00 -99.62 -3.03 
605.38 -99.22 -3.54 
605.33 -99.54 -1.82 
596.83 -98.77 -0.08 
601.27 -99.04 -0.37 
601.91 -99.05 -3.64 
601.79 -98.52 -2.30 
601.82 -98.95 -0.99 
603.01 -98.94 -3.22 
602.84 -98.84 -1.00 
602.84 -98.95 -0.36 
603.73 -98.98 -0.71 
605.65 -98.90 -3.64 
605.63 -98.90 -2.92 
605.85 -98.66 -0.28 
598.06 -97.73 -4.17 
598.90 -97.77 0.12 
598.37 -98.30 0.51 
601.08 -98.10 -0.19 
601.71 -97.99 -3.63 
601.77 -98.31 -2.97 
601.12 -98.10 -1.59 
601.14 -98.29 -0.91 
601.24 -98.19 0.13 
601.79 -98.31 -3.66 
602.27 -98.12 -2.26 
602.24 -98.10 -1.57 
602.17 -98.13 -0.91 
602.11 -97.91 -0.20 
602.75 -97.96 -0.85 
602.74 -98.08 -0.17 
605.94 -97.86 -0.08 
597.63 -97.24 0.37 
598.36 -97.51 0.05 
598.85 -97.12 0.87 
599.20 -97.00 -0.02 
600.71 -97.17 -1.98 
600.71 -97.32 -1.26 
600.67 -97.21 -0.52 
601.36 -97.34 -3.42 
601.35 -97.41 -2.71 
601.36 -97.61 -2.00 
601.33 -97.07 -0.29 
602.20 -97.48 -3.61 
602.16 -97.38 -2.91 
601.87 -97.13 -1.95 
601.85 -97.16 -1.23 
601.83 -97.17 -0.50 
605.84 -97.18 0.50 
606.40 -97.50 0.48 
598.05 -96.74 0.48 
598.40 -96.68 0.12 
600.59 -96.40 0.34 
601.32 -96.36 -2.45 
601.33 -96.60 -1.73 
601.33 -96.86 -1.01 
604.13 -96.84 -0.29 
604.10 -96.95 0.30 
605.28 -96.71 0.54 
605.75 -96.87 0.35 
600.02 -96.26 -0.20 
600.66 -96.13 -1.70 
600.58 -95.90 -0.14 
601.36 -96.25 -3.95 
601.42 -95.64 0.54 
601.14 -95.66 1.47 
601.86 -96.02 -1.66 
601.84 -96.05 -0.90 
602.39 -95.74 -0.08 
602.39 -96.06 0.64 
604.43 -96.19 0.05 
604.82 -95.91 -0.03 
604.79 -95.73 0.77 
605.32 -95.84 -0.01 
600.21 -94.89 0.75 
599.73 -95.09 1.36 
601.08 -94.95 -0.96 
600.87 -95.01 -0.37 
600.75 -95.06 0.34 
600.39 -95.01 0.59 
600.86 -95.22 1.19 
601.19 -94.93 -3.30 
601.78 -95.04 -2.50 
601.49 -94.91 -2.17 
601.56 -94.97 -1.15 
601.82 -95.04 -3.28 
602.26 -94.98 0.67 
602.88 -94.97 0.71 
602.83 -95.22 1.45 
603.34 -95.31 -0.30 
603.67 -95.53 0.12 
605.12 -94.87 0.46 
605.32 -95.55 0.02 
599.63 -94.53 0.19 
599.50 -94.43 1.02 
599.22 -94.47 1.83 
599.37 -94.75 2.16 
600.19 -94.20 -1.62 
599.68 -94.32 -0.42 
599.96 -94.72 0.39 
599.71 -94.74 1.29 
600.87 -94.24 -3.12 
600.64 -94.33 -2.51 
600.51 -94.37 -1.81 
600.64 -94.34 -1.41 
600.60 -94.72 -0.30 
600.56 -94.75 0.34 
601.49 -94.91 -2.17 
601.21 -94.75 -1.35 
601.21 -94.80 -0.41 
602.29 -94.82 -0.10 
602.09 -94.18 0.69 
602.31 -94.25 1.70 
603.06 -94.35 -0.02 
602.50 -94.38 1.06 
602.84 -94.73 1.54 
602.73 -94.46 2.15 
603.91 -94.25 -0.08 
607.72 -94.43 -4.07 
616.17 -94.41 -3.79 
615.98 -94.44 -3.41 
600.29 -93.65 -2.22 
600.33 -93.67 -1.57 
600.79 -93.50 -3.95 
600.59 -93.72 -3.19 
600.43 -93.60 -2.84 
600.73 -93.60 -2.23 
600.65 -93.65 -1.37 
600.51 -93.67 -0.91 
601.42 -94.03 -3.15 
601.32 -93.90 -2.56 
601.35 -94.07 -2.14 
601.33 -94.13 -1.13 
601.78 -94.10 -0.31 
601.44 -93.83 -0.21 
601.70 -93.86 0.57 
601.71 -93.84 1.62 
602.38 -93.94 -0.76 
601.99 -93.90 -0.06 
601.79 -93.82 0.51 
601.87 -93.89 1.36 
602.13 -93.96 2.38 
602.83 -93.61 1.05 
603.60 -93.80 0.14 
603.54 -93.86 0.93 
608.00 -93.72 -3.99 
608.33 -94.07 -4.04 
615.81 -94.10 -3.80 
616.57 -93.56 -3.72 
598.27 -92.87 -4.05 
598.46 -93.05 -4.16 
599.01 -93.38 -4.06 
600.35 -93.21 -0.25 
600.74 -93.26 -1.00 
600.71 -93.03 -0.46 
600.42 -93.22 0.42 
600.84 -93.32 0.56 
601.45 -93.38 -2.50 
601.12 -93.40 0.92 
614.72 -93.14 -3.81 
615.09 -93.46 -3.81 
616.74 -93.18 -3.30 
597.21 -92.14 -4.05 
597.91 -92.62 -4.05 
599.65 -92.15 -4.07 
615.53 -92.74 -3.73 
596.23 -91.45 -4.04 
596.89 -91.90 -4.05 
599.16 -91.75 -4.07 
600.15 -91.69 0.43 
606.63 -91.68 -3.60 
595.27 -90.79 -4.04 
595.58 -91.00 -4.04 
598.04 -91.33 -4.10 
598.33 -90.90 -4.04 
598.73 -91.05 0.27 
598.90 -91.09 1.32 
599.80 -91.27 0.46 
600.76 -90.95 -0.32 
600.70 -91.00 -0.11 
614.59 -90.71 -3.10 
594.65 -90.36 -4.04 
594.95 -90.58 -4.04 
597.39 -90.17 -4.03 
597.86 -90.53 -4.04 
613.94 -90.40 -3.13 
596.93 -89.82 -4.02 
