# .PCD v0.7 - Point Cloud Data file format
VERSION 0.7
FIELDS x y z
SIZE 4 4 4
TYPE F F F
COUNT 1 1 1
WIDTH 1250
HEIGHT 1
VIEWPOINT 0 0 0 1 0 0 0
POINTS 1250
DATA ascii
616.48 -11.31 -2.08 
611.58 -10.09 -2.17 
609.84 -9.22 -2.12 
607.82 -8.88 -2.11 
608.83 -9.06 -2.11 
594.55 -6.54 -2.31 
611.64 -6.47 -2.14 
593.86 -6.10 -2.31 
612.25 -6.28 -2.13 
603.33 -5.50 -2.15 
604.43 -5.68 -2.15 
611.30 -5.35 -2.15 
611.86 -5.69 -2.14 
598.59 -4.84 -2.26 
611.06 -4.54 -2.15 
597.89 -3.36 -2.27 
597.21 -1.89 -2.28 
598.59 -1.65 -2.37 
599.20 -1.92 -2.37 
596.54 -0.88 -2.38 
597.24 -1.15 -2.37 
595.10 -0.33 -2.39 
595.82 -0.62 -2.38 
615.08 -0.18 3.76 
615.28 -0.29 3.88 
615.82 -0.70 3.30 
593.63 0.27 -2.40 
594.39 -0.02 -2.39 
595.69 0.15 -2.31 
596.97 0.32 -2.23 
597.93 -0.11 -2.23 
614.80 0.19 3.60 
615.71 0.19 3.10 
616.01 0.40 3.17 
616.49 0.56 2.68 
593.00 0.66 -2.40 
595.09 0.79 -2.32 
595.91 0.71 -2.24 
613.58 0.84 1.54 
613.89 0.67 1.53 
614.84 1.25 1.35 
614.92 0.90 2.78 
615.12 1.10 1.34 
615.11 0.62 2.22 
615.56 1.18 2.89 
616.03 1.25 2.64 
615.84 0.80 3.19 
616.99 1.15 3.06 
617.03 0.60 3.30 
617.34 1.05 1.82 
594.48 1.44 -2.33 
613.29 1.34 1.39 
613.95 1.81 1.14 
614.07 1.29 3.55 
614.18 1.66 3.95 
614.88 1.53 3.38 
615.65 1.48 0.90 
615.74 1.48 2.65 
615.73 1.49 3.13 
616.35 1.68 2.50 
617.11 1.68 2.06 
616.67 1.52 3.04 
617.46 1.82 0.77 
617.23 1.87 1.18 
617.38 1.89 1.93 
617.17 1.84 2.74 
593.86 2.09 -2.34 
605.17 2.57 2.38 
606.10 2.59 2.42 
613.59 2.59 4.38 
613.75 2.43 1.34 
614.01 2.66 3.17 
614.10 2.42 3.93 
614.84 2.02 1.07 
614.96 2.30 2.17 
614.63 2.68 2.85 
614.75 2.09 3.47 
615.22 2.67 1.23 
615.58 2.61 2.00 
615.73 2.14 2.51 
616.11 2.66 0.84 
616.16 2.14 2.09 
616.26 2.56 2.61 
616.11 2.35 3.60 
617.08 2.26 0.82 
616.81 2.56 1.58 
616.83 2.41 1.93 
616.58 2.43 2.74 
616.52 2.18 3.18 
617.32 2.15 0.48 
617.22 2.38 1.90 
593.25 2.76 -2.34 
604.46 3.13 2.83 
604.54 3.18 3.15 
604.92 3.36 2.38 
605.85 3.00 2.42 
606.06 3.19 2.56 
607.33 3.22 2.11 
612.92 3.29 0.28 
612.48 3.05 2.27 
613.25 3.37 -1.49 
613.45 3.12 -0.80 
613.61 2.75 0.97 
613.58 2.69 1.34 
613.01 3.37 2.74 
613.52 2.93 3.21 
613.24 3.15 4.40 
613.98 3.36 0.23 
614.05 3.25 0.61 
614.25 3.19 1.26 
614.18 3.09 1.72 
614.05 2.90 2.87 
613.99 3.07 3.09 
613.95 2.74 3.84 
614.82 3.08 0.55 
614.93 2.71 1.25 
614.70 3.33 2.02 
614.67 2.82 3.07 
614.42 2.74 3.11 
615.72 3.07 0.26 
615.59 3.12 0.51 
615.47 3.07 1.34 
615.57 3.22 2.19 
615.42 2.89 2.65 
615.06 3.14 3.76 
615.80 3.26 0.17 
616.06 3.15 0.47 
616.10 3.32 1.46 
616.13 3.06 2.18 
615.94 2.84 2.61 
617.04 3.27 0.69 
616.83 2.98 1.49 
616.66 3.07 2.01 
617.07 3.32 3.13 
617.50 3.08 0.67 
617.52 3.08 1.51 
617.29 3.20 1.97 
593.04 3.44 -2.51 
603.07 4.07 3.77 
604.53 3.79 2.97 
604.50 3.75 3.13 
604.78 3.73 2.38 
604.93 3.44 2.94 
605.74 4.01 1.31 
605.78 4.06 2.21 
605.52 3.90 2.42 
605.34 3.67 3.15 
606.76 3.76 1.93 
605.97 3.49 2.70 
607.27 3.80 1.63 
606.86 3.69 2.08 
610.26 3.86 2.50 
611.02 4.01 -1.19 
611.25 3.63 2.32 
610.87 3.89 2.44 
612.17 4.04 0.64 
612.22 4.00 3.26 
612.89 3.77 -0.77 
613.17 3.73 -1.46 
613.19 3.70 -0.43 
613.54 3.98 0.12 
613.05 3.86 0.32 
613.33 3.78 1.29 
613.36 3.52 1.91 
613.49 3.91 2.84 
613.46 3.89 3.54 
612.95 3.42 4.21 
613.88 3.95 -1.40 
614.01 4.08 -0.51 
613.93 3.78 0.17 
613.95 3.78 0.56 
613.70 3.83 1.35 
614.10 4.04 1.74 
614.10 3.62 2.74 
613.71 3.65 3.58 
613.87 3.60 3.82 
614.96 3.99 -1.49 
615.03 3.71 -0.51 
614.66 3.81 -0.03 
614.69 3.83 0.55 
614.91 3.44 1.28 
614.85 3.64 2.09 
614.73 3.41 2.70 
614.85 3.73 3.56 
614.83 3.71 4.16 
615.64 4.00 -1.14 
615.15 3.75 -0.80 
615.52 3.73 0.07 
615.12 3.58 0.56 
615.36 3.57 1.49 
615.13 3.52 2.18 
615.70 3.67 2.56 
615.38 3.53 3.26 
615.83 3.67 -1.15 
615.90 4.03 -0.50 
616.14 3.97 -0.18 
616.13 3.64 0.76 
615.91 3.89 1.37 
616.17 3.54 2.20 
615.98 3.99 3.35 
616.99 3.53 -0.14 
616.81 3.92 0.68 
616.86 3.98 1.43 
616.80 3.73 1.91 
616.87 3.98 3.49 
617.43 3.87 0.07 
617.24 3.76 0.67 
617.47 3.68 1.59 
617.26 3.80 1.70 
617.17 3.71 3.49 
602.43 4.60 3.54 
602.54 4.22 3.33 
603.06 4.48 4.71 
603.62 4.75 2.50 
603.80 4.22 3.88 
603.62 4.49 4.69 
604.39 4.32 2.96 
604.21 4.12 3.15 
604.92 4.32 1.86 
605.09 4.58 2.50 
604.60 4.48 3.86 
605.44 4.70 1.33 
605.52 4.48 2.22 
605.65 4.27 2.70 
605.49 4.43 3.10 
606.51 4.10 1.20 
606.46 4.58 1.93 
607.02 4.33 1.54 
607.06 4.31 1.92 
607.37 4.23 1.60 
608.06 4.18 1.64 
609.82 4.78 2.42 
610.78 4.29 -1.70 
610.63 4.33 -0.18 
610.68 4.52 2.47 
611.02 4.69 -1.65 
610.92 4.68 -0.53 
610.92 4.44 -0.16 
611.26 4.29 1.89 
611.52 4.69 3.41 
611.26 4.21 4.03 
611.95 4.70 -1.50 
611.73 4.78 -0.76 
611.64 4.62 -0.09 
611.75 4.65 0.30 
611.79 4.70 1.96 
611.75 4.77 2.53 
611.64 4.57 3.68 
612.83 4.62 -1.35 
612.41 4.40 -0.65 
612.51 4.58 -0.04 
612.50 4.39 0.30 
612.71 4.32 1.31 
612.60 4.40 1.81 
612.45 4.33 2.72 
612.63 4.47 3.32 
612.79 4.30 4.19 
613.46 4.34 -1.30 
613.41 4.23 -0.69 
613.42 4.51 -0.04 
613.32 4.47 0.72 
613.29 4.46 1.42 
613.64 4.26 2.19 
613.50 4.68 2.66 
613.16 4.33 3.52 
613.40 4.57 3.79 
614.15 4.41 -1.15 
614.16 4.65 -0.56 
614.01 4.25 0.04 
613.89 4.51 0.48 
613.66 4.67 1.24 
614.26 4.53 1.98 
613.84 4.61 2.88 
613.73 4.16 3.18 
614.90 4.38 -1.12 
614.58 4.39 -0.77 
614.74 4.58 -0.08 
614.81 4.64 0.60 
614.74 4.35 1.19 
614.78 4.36 2.04 
614.88 4.47 2.44 
614.86 4.32 4.13 
615.40 4.10 -1.46 
615.43 4.24 -0.82 
615.45 4.34 0.12 
615.65 4.42 0.65 
615.31 4.54 1.19 
615.52 4.13 1.92 
615.16 4.28 2.43 
615.37 4.51 3.38 
616.17 4.13 0.13 
615.85 4.21 0.53 
616.38 4.15 1.14 
616.34 4.59 1.89 
616.29 4.70 2.68 
615.80 4.22 3.38 
616.06 4.28 3.94 
616.97 4.14 0.08 
616.51 4.42 0.48 
616.83 4.15 1.07 
616.56 4.48 1.74 
617.14 4.41 2.64 
616.55 4.23 3.49 
617.48 4.54 0.65 
617.31 4.11 1.10 
617.54 4.37 2.33 
617.60 4.17 2.62 
603.77 5.40 1.97 
603.70 5.33 2.47 
603.25 4.99 3.64 
603.61 5.14 4.64 
604.37 5.32 1.90 
604.46 4.87 2.49 
603.93 5.43 3.29 
604.89 5.22 1.38 
605.10 5.38 2.22 
605.03 5.33 2.74 
604.74 5.21 3.81 
605.46 5.18 0.87 
605.25 5.01 1.35 
605.87 5.42 2.13 
605.28 5.20 2.94 
606.15 5.48 0.66 
606.53 5.41 1.57 
606.11 5.12 2.19 
606.01 4.87 2.64 
606.29 4.96 3.43 
607.09 5.40 1.16 
606.70 4.79 2.16 
607.82 5.46 0.35 
607.97 5.17 1.63 
609.74 4.98 2.28 
609.82 5.42 3.71 
610.05 5.31 3.83 
610.65 4.81 -0.46 
610.63 4.79 0.04 
610.17 5.15 2.64 
610.18 5.06 3.45 
610.36 4.93 4.12 
611.29 5.30 -1.42 
611.00 5.25 -0.78 
611.11 5.09 -0.15 
611.03 4.83 0.41 
611.04 4.87 1.96 
611.27 4.91 2.44 
611.38 5.17 3.38 
610.88 5.46 4.53 
611.72 5.07 -1.22 
611.87 5.11 -0.68 
611.87 5.08 -0.04 
612.12 5.33 1.91 
612.14 5.10 2.87 
611.99 4.86 3.59 
611.94 4.98 4.27 
612.48 4.95 -0.05 
612.25 5.12 0.38 
612.68 5.43 1.68 
612.97 4.96 2.04 
612.79 4.80 2.79 
612.68 5.34 3.22 
612.31 4.87 4.21 
612.76 4.86 4.63 
613.20 5.18 -1.14 
613.20 5.08 -0.66 
613.44 5.28 0.03 
613.21 5.12 0.66 
613.02 5.02 1.31 
613.45 4.92 2.12 
613.33 4.95 2.72 
613.27 4.87 3.63 
613.68 4.94 -1.37 
613.79 5.06 -0.75 
613.97 5.24 -0.14 
613.76 5.20 0.52 
614.01 5.15 1.26 
613.71 5.29 2.25 
613.82 4.80 2.53 
614.30 5.32 4.05 
614.39 4.97 -1.14 
614.50 5.08 -0.61 
614.63 5.21 -0.08 
614.71 4.79 0.76 
614.39 4.94 1.30 
614.75 5.38 2.23 
614.67 4.98 2.84 
615.02 5.13 3.31 
614.68 4.95 4.05 
615.36 5.08 0.23 
615.51 5.23 0.71 
615.34 5.33 1.44 
615.39 5.06 1.81 
615.45 5.44 2.44 
615.57 4.88 3.28 
616.21 4.82 0.47 
615.88 4.86 1.49 
616.12 4.81 1.94 
616.09 5.12 2.58 
615.98 5.13 3.12 
615.92 5.10 4.82 
617.11 4.97 0.06 
616.61 5.05 0.59 
616.50 5.26 1.00 
617.17 5.00 2.04 
616.86 5.45 2.71 
616.48 4.83 5.00 
617.26 5.44 0.94 
617.15 4.88 1.02 
617.13 5.10 2.34 
617.32 5.06 2.59 
617.53 5.48 3.74 
617.60 4.82 3.79 
617.55 5.22 4.58 
602.23 5.77 3.72 
601.85 5.86 3.83 
603.14 6.18 1.86 
602.81 5.49 3.59 
602.88 6.00 3.98 
603.83 6.03 1.45 
603.42 5.66 2.49 
603.56 5.72 3.33 
603.88 5.94 1.94 
604.17 6.10 2.68 
604.20 5.65 3.44 
604.52 5.80 4.18 
605.06 5.78 0.90 
604.60 5.93 1.22 
604.88 5.84 2.23 
604.80 5.67 2.76 
604.77 5.87 3.10 
604.83 5.72 4.10 
605.29 5.50 0.89 
605.58 5.90 1.54 
605.55 5.69 2.16 
605.44 5.78 2.64 
605.72 5.64 3.47 
605.33 6.07 4.02 
606.44 6.12 0.39 
606.39 5.56 1.41 
606.09 5.74 2.15 
606.53 6.06 2.91 
606.50 5.82 3.87 
607.20 5.50 0.70 
606.89 5.70 1.17 
607.45 5.89 0.74 
607.64 5.94 1.64 
607.71 6.02 1.82 
608.10 5.68 1.81 
608.76 6.16 3.78 
609.10 5.94 3.86 
610.14 5.91 2.65 
609.69 5.71 3.83 
610.32 5.77 2.20 
610.34 5.54 3.74 
611.13 5.50 0.19 
611.43 5.79 1.87 
611.31 5.78 3.70 
611.62 5.57 0.28 
611.59 5.49 0.37 
612.08 5.67 1.40 
611.87 5.49 2.16 
612.03 5.81 2.97 
612.94 5.57 -1.35 
612.85 5.57 -0.81 
612.61 6.09 -0.07 
612.61 6.07 0.65 
612.60 6.02 1.39 
612.67 5.75 2.09 
612.37 5.94 2.78 
612.31 5.86 3.59 
612.38 6.00 3.88 
613.04 5.76 0.16 
613.54 5.51 0.46 
613.52 6.00 1.34 
613.25 5.83 2.28 
613.22 5.61 2.55 
614.11 5.64 -1.09 
614.15 5.68 0.04 
614.17 5.70 0.61 
614.08 5.82 1.48 
614.18 5.91 1.99 
614.30 6.02 2.49 
614.33 6.04 3.53 
613.83 6.15 3.83 
614.64 5.53 0.05 
614.46 5.76 0.77 
614.50 5.59 1.24 
614.70 5.50 1.73 
614.41 5.65 2.70 
614.61 5.85 3.30 
614.77 6.00 3.90 
615.12 5.81 0.71 
615.20 5.51 2.16 
615.32 5.88 2.96 
615.46 5.81 3.30 
615.54 5.55 3.94 
615.90 6.00 1.39 
616.25 5.55 1.87 
615.92 5.63 3.08 
615.80 6.10 3.83 
616.97 5.60 1.28 
616.79 5.87 2.33 
617.40 6.13 0.98 
617.41 5.83 1.22 
617.20 5.59 2.14 
617.48 5.65 2.88 
617.30 5.93 3.72 
617.16 5.52 4.56 
602.11 6.64 1.78 
602.39 6.72 3.59 
602.78 6.62 1.88 
603.06 6.35 2.52 
602.85 6.70 3.36 
602.69 6.34 3.84 
603.74 6.64 1.35 
603.74 6.62 1.93 
603.30 6.43 3.49 
604.54 6.30 1.22 
604.54 6.21 2.24 
604.28 6.62 2.51 
605.03 6.51 1.59 
605.07 6.32 2.19 
604.91 6.71 2.64 
604.76 6.87 3.43 
604.91 6.50 4.03 
605.48 6.79 0.96 
605.62 6.62 1.29 
605.66 6.80 2.13 
605.37 6.64 4.29 
606.24 6.44 0.91 
606.48 6.66 1.40 
606.60 6.75 3.46 
606.18 6.23 3.88 
607.30 6.21 1.66 
606.79 6.61 3.14 
607.99 6.82 1.50 
608.65 6.44 1.36 
608.89 6.26 1.41 
609.03 6.73 2.74 
609.01 6.24 3.71 
608.81 6.35 3.94 
609.80 6.85 2.47 
610.12 6.68 4.63 
610.24 6.25 2.25 
610.53 6.34 3.04 
610.58 6.71 4.51 
611.38 6.47 2.17 
611.27 6.29 3.08 
611.21 6.28 3.19 
610.86 6.85 3.91 
610.97 6.32 4.95 
612.17 6.71 -1.30 
612.24 6.72 -0.54 
612.08 6.67 -0.37 
611.98 6.67 0.76 
611.92 6.62 1.45 
611.73 6.44 2.36 
612.39 6.78 0.21 
612.47 6.51 0.45 
612.42 6.62 1.39 
612.58 6.70 2.10 
612.92 6.40 2.73 
612.50 6.64 3.43 
612.92 6.27 4.10 
613.24 6.77 1.24 
613.14 6.86 2.29 
613.51 6.19 2.84 
613.20 6.57 3.44 
613.49 6.62 3.86 
613.56 6.63 4.59 
614.30 6.64 1.48 
613.94 6.31 2.22 
613.95 6.25 3.03 
614.07 6.34 3.41 
614.16 6.33 3.98 
614.72 6.83 0.70 
614.85 6.42 1.49 
614.86 6.86 1.86 
614.49 6.79 3.06 
614.74 6.78 4.43 
614.75 6.20 5.00 
615.37 6.55 0.69 
615.40 6.80 1.37 
615.54 6.72 3.02 
615.64 6.86 5.02 
616.10 6.42 0.76 
615.96 6.42 1.86 
616.22 6.40 3.31 
616.96 6.24 0.84 
616.67 6.54 1.16 
616.65 6.80 2.45 
616.86 6.64 3.72 
616.80 6.85 4.65 
617.16 6.61 0.33 
617.34 6.28 1.03 
617.29 6.62 2.07 
617.15 6.48 2.42 
617.31 6.43 3.76 
594.41 7.53 4.97 
595.04 7.23 4.64 
595.15 7.01 5.45 
596.09 7.21 2.86 
596.53 7.23 3.26 
597.04 7.45 2.49 
597.88 7.10 2.64 
598.38 7.33 1.98 
600.92 7.42 4.50 
600.79 7.44 5.56 
601.67 7.03 2.00 
601.57 7.23 3.82 
601.12 7.15 4.87 
602.05 7.55 1.76 
602.42 7.20 4.24 
601.78 7.55 5.06 
602.91 6.92 1.54 
602.90 7.32 3.26 
602.72 6.91 4.35 
603.33 7.14 -1.81 
603.34 7.09 -0.86 
603.51 7.56 -0.37 
603.48 7.01 1.95 
603.36 7.19 2.71 
603.57 7.53 4.43 
603.74 7.29 4.80 
603.94 7.36 -1.50 
603.92 7.33 -0.94 
604.35 7.52 0.19 
604.28 7.47 0.64 
603.98 7.53 1.28 
604.16 7.35 1.90 
603.87 7.26 2.54 
604.50 7.54 4.04 
604.50 7.08 0.74 
605.06 7.11 1.54 
604.91 7.25 2.38 
604.91 7.25 2.38 
604.91 7.02 4.02 
605.59 7.12 -1.40 
605.77 7.22 -0.64 
605.92 7.32 -0.27 
605.37 7.28 0.72 
605.64 6.95 1.30 
605.34 6.96 1.94 
605.53 7.06 3.42 
605.82 7.22 3.86 
606.05 7.41 0.10 
606.15 7.47 0.45 
606.20 7.13 1.40 
606.65 7.05 1.02 
607.42 7.31 1.46 
607.44 7.56 1.74 
607.98 7.48 4.18 
608.72 7.22 1.51 
608.21 6.94 1.77 
608.50 6.97 4.14 
608.80 7.47 2.49 
609.56 6.96 4.46 
610.40 7.08 0.88 
610.41 7.24 3.35 
610.68 7.35 4.01 
610.70 7.32 4.90 
610.28 7.07 5.21 
611.54 7.35 -1.20 
611.51 7.30 0.46 
611.13 7.37 1.20 
611.39 7.58 2.34 
610.99 7.20 3.17 
611.20 7.20 4.32 
611.17 7.02 4.73 
611.82 7.30 -1.13 
611.91 7.32 -0.34 
611.83 7.22 0.45 
611.96 7.52 1.15 
612.18 7.06 2.33 
611.76 7.34 3.25 
611.57 7.14 4.16 
612.93 7.45 0.97 
612.27 7.07 1.06 
612.84 7.08 1.97 
612.38 7.21 3.54 
612.81 6.99 3.98 
613.16 7.28 0.96 
613.31 7.15 2.89 
613.08 7.16 3.49 
613.16 7.18 4.26 
613.20 7.17 5.03 
613.69 7.35 0.60 
613.76 7.30 1.22 
613.87 7.28 3.38 
613.78 7.49 4.53 
614.69 7.12 0.75 
614.64 7.28 1.28 
614.98 7.40 1.81 
614.87 7.32 3.12 
614.67 7.10 4.35 
614.89 7.29 5.09 
615.46 7.08 0.67 
615.17 7.43 1.66 
615.33 7.49 1.82 
615.14 7.35 2.80 
615.34 7.37 5.49 
615.67 6.89 6.02 
615.97 7.51 0.68 
615.78 7.06 1.32 
615.96 7.14 2.01 
615.85 7.04 3.01 
616.28 7.38 3.74 
616.37 7.23 3.90 
616.65 7.55 0.40 
616.80 7.04 2.09 
616.72 6.98 3.05 
617.03 7.18 3.45 
616.65 7.03 3.95 
616.80 6.85 4.65 
617.47 7.51 -0.48 
617.40 7.42 0.44 
617.46 7.57 1.34 
617.55 6.94 1.86 
617.52 7.54 2.94 
617.26 7.27 3.14 
617.30 7.34 3.92 
617.31 7.35 4.88 
593.37 8.00 4.33 
594.17 7.74 5.04 
595.21 8.13 5.11 
595.94 8.23 2.27 
595.64 8.11 2.93 
596.56 7.77 0.73 
597.20 7.66 1.53 
596.95 8.02 2.11 
597.53 8.04 2.55 
597.55 7.77 2.14 
597.91 7.63 2.65 
598.35 8.11 1.73 
600.95 8.18 5.27 
601.27 7.76 3.78 
602.08 7.73 1.71 
601.82 7.89 3.66 
602.29 8.16 4.65 
603.13 7.83 -0.82 
602.94 8.27 2.79 
602.61 8.00 3.29 
603.07 7.81 4.25 
603.51 7.64 -1.77 
603.47 7.93 0.11 
603.49 7.91 0.58 
603.46 8.02 1.33 
603.61 7.85 2.42 
603.37 7.75 4.48 
604.17 7.98 -1.47 
604.15 7.95 -0.91 
604.06 7.88 0.21 
604.19 7.89 0.74 
604.51 7.66 1.62 
604.13 7.90 1.78 
604.27 7.95 4.04 
605.16 8.18 -1.39 
605.05 8.08 -0.49 
605.05 8.05 -0.03 
604.98 8.06 0.90 
604.62 8.26 1.35 
605.17 8.09 2.00 
605.02 7.99 3.44 
605.55 7.85 -1.34 
605.73 7.95 -0.60 
605.73 7.90 0.12 
605.71 7.86 0.49 
605.54 7.82 1.30 
605.42 7.85 2.13 
605.28 8.13 2.50 
605.26 7.62 3.31 
605.85 8.23 4.15 
606.44 7.90 1.39 
605.99 7.60 2.16 
606.40 8.13 4.37 
607.25 7.95 1.58 
607.59 7.93 4.29 
608.30 7.76 3.63 
609.37 8.10 3.57 
609.76 7.67 2.29 
609.92 7.90 3.12 
610.05 8.17 4.60 
610.69 8.21 -0.43 
610.49 7.85 0.20 
610.28 7.68 0.54 
610.80 7.61 1.22 
610.35 8.17 3.34 
610.47 8.04 4.46 
611.45 8.22 -1.35 
611.52 8.23 -0.43 
611.08 8.26 0.21 
611.20 8.01 0.47 
611.17 8.23 1.42 
610.98 8.25 2.35 
610.97 8.26 3.14 
611.92 8.24 0.06 
611.97 7.88 0.73 
611.93 7.70 1.32 
611.78 7.86 2.04 
611.83 7.85 2.82 
611.93 7.75 3.26 
612.81 8.14 0.06 
612.64 8.02 0.54 
612.69 7.96 1.85 
612.69 7.99 3.18 
612.29 7.93 3.97 
612.46 8.00 4.69 
613.26 8.11 0.04 
613.27 7.64 0.63 
613.17 8.01 1.32 
613.15 7.88 2.05 
613.45 7.69 2.92 
613.28 8.01 3.38 
613.00 8.18 4.01 
614.11 8.01 0.34 
613.92 7.83 1.00 
613.97 7.69 1.94 
613.67 7.82 3.73 
614.23 7.89 3.84 
613.97 8.15 5.17 
614.60 7.96 0.67 
614.68 7.77 1.51 
614.36 8.11 1.92 
614.48 7.87 3.04 
614.65 7.67 5.56 
615.50 7.95 0.66 
615.72 7.86 1.33 
615.48 8.13 1.78 
616.02 7.93 0.66 
616.17 8.24 1.16 
615.82 8.12 1.97 
616.42 7.89 3.03 
615.97 7.96 3.75 
616.07 7.82 3.91 
616.92 8.11 -0.54 
616.68 7.79 0.06 
616.47 8.28 0.63 
616.75 7.92 1.14 
616.79 7.84 2.08 
616.96 8.19 2.97 
616.93 7.96 3.44 
617.56 7.60 -1.39 
617.20 7.66 3.30 
617.23 7.65 3.80 
592.65 8.46 4.08 
593.53 8.67 3.99 
594.14 8.88 2.74 
594.05 8.77 4.12 
594.97 8.43 3.02 
595.66 8.81 2.32 
595.97 8.97 4.91 
595.61 8.84 5.88 
596.53 8.47 2.54 
597.09 8.61 2.13 
597.12 8.90 2.76 
597.07 8.85 3.22 
598.24 8.32 2.14 
597.60 8.33 2.43 
598.63 8.46 1.39 
600.27 8.58 5.31 
600.54 8.56 5.20 
601.68 8.75 2.20 
601.56 8.78 2.58 
601.52 8.61 3.70 
601.11 8.91 5.89 
601.86 8.96 -1.69 
602.26 8.63 -0.77 
602.40 8.78 2.91 
602.14 8.60 3.34 
602.84 8.68 -1.07 
602.57 8.85 -0.34 
602.95 8.89 2.46 
603.22 8.81 -1.87 
603.57 8.55 -1.40 
603.57 8.54 -0.79 
603.79 8.63 -0.17 
603.39 8.47 0.82 
603.41 8.61 1.99 
603.26 8.58 2.64 
603.36 8.58 4.48 
604.50 8.91 -1.34 
604.31 8.71 -1.01 
604.33 8.68 0.02 
604.17 8.48 0.73 
604.33 8.90 1.38 
604.23 8.40 1.87 
604.24 8.85 2.98 
604.36 8.89 3.52 
604.10 8.81 4.02 
604.84 8.35 -1.44 
604.72 8.49 -0.71 
604.90 8.38 -0.01 
604.85 8.71 0.92 
605.21 8.67 1.25 
604.72 8.80 1.71 
605.09 8.87 3.24 
604.96 8.57 3.93 
605.23 8.63 4.73 
605.34 8.58 0.45 
605.78 8.92 1.49 
605.45 8.79 1.88 
605.47 8.79 2.52 
605.73 8.71 3.42 
605.64 8.53 4.68 
606.07 8.36 2.87 
606.26 8.40 4.75 
608.46 8.74 3.47 
609.36 8.96 5.44 
609.96 8.88 0.27 
609.59 8.89 0.73 
609.58 8.36 3.20 
609.64 8.94 4.40 
610.03 8.69 4.81 
610.70 8.60 0.22 
610.74 8.56 0.63 
610.54 8.37 1.45 
610.37 8.31 2.96 
610.65 8.78 3.51 
610.33 8.53 4.56 
611.29 8.79 0.04 
611.04 8.44 0.43 
611.44 8.76 1.17 
611.50 8.78 3.05 
611.20 8.65 3.28 
611.41 8.51 4.09 
611.75 8.84 0.22 
611.95 8.78 0.72 
612.10 8.66 0.98 
611.67 8.79 2.41 
611.95 8.38 3.78 
611.58 8.87 4.13 
612.10 8.47 4.73 
612.30 8.50 0.06 
612.31 8.64 0.78 
612.60 8.49 1.14 
612.89 8.89 2.75 
612.74 8.98 3.17 
612.50 8.73 4.99 
612.54 8.70 5.33 
612.54 8.72 5.90 
612.96 8.63 0.76 
613.29 8.84 1.43 
613.23 8.64 1.69 
612.98 8.33 3.21 
613.56 8.67 4.00 
613.36 8.41 4.83 
613.60 8.55 5.65 
613.76 8.36 0.44 
614.03 8.45 1.42 
614.10 8.69 2.34 
613.94 8.98 2.67 
613.87 8.39 3.25 
613.91 8.72 5.32 
614.53 8.73 0.64 
614.86 8.64 1.06 
614.73 8.40 2.03 
614.76 8.97 2.72 
614.64 8.56 5.66 
615.31 8.73 0.65 
615.52 8.48 0.99 
615.28 8.47 2.07 
615.36 8.70 2.97 
615.57 8.46 3.77 
615.22 8.58 3.96 
615.78 8.41 -1.18 
616.11 8.31 -0.91 
615.92 8.54 -0.18 
616.08 8.62 0.53 
615.92 8.67 1.93 
616.22 8.85 2.79 
615.77 8.66 3.82 
616.56 8.72 1.02 
616.73 8.87 1.97 
617.00 8.82 3.44 
617.17 8.33 1.33 
617.25 8.39 2.26 
617.41 8.81 3.60 
592.93 9.25 4.04 
593.43 9.33 0.69 
593.35 9.65 3.52 
593.41 9.25 4.01 
594.26 9.11 0.63 
594.68 9.61 2.75 
594.24 9.45 3.49 
594.67 9.62 4.19 
594.54 9.20 5.04 
595.11 9.28 0.97 
595.33 9.45 2.34 
594.86 9.09 3.43 
595.10 9.48 5.78 
596.09 9.53 0.68 
595.77 9.05 2.29 
595.81 9.51 3.59 
596.89 9.48 2.80 
597.33 9.18 1.57 
597.36 9.43 2.07 
596.89 9.48 2.80 
597.94 9.04 1.48 
598.29 9.64 2.13 
598.99 8.99 1.83 
599.99 9.46 4.50 
600.86 9.22 4.73 
600.92 9.62 5.99 
601.61 9.27 -0.70 
601.48 9.29 -0.40 
601.50 9.50 0.61 
601.39 9.48 2.24 
601.33 9.65 2.72 
601.30 9.13 5.31 
602.03 9.29 -1.60 
602.16 9.39 -0.69 
602.09 9.12 -0.37 
602.22 9.06 0.34 
602.72 9.33 -1.45 
602.89 9.35 -0.66 
602.85 9.21 -0.01 
603.12 9.02 0.95 
602.70 9.31 1.87 
602.65 9.36 2.61 
603.42 9.02 -1.39 
603.74 9.32 -0.98 
603.53 9.29 -0.09 
603.29 9.47 0.47 
603.78 9.42 1.43 
603.40 9.36 1.84 
603.76 9.41 3.62 
603.68 9.24 4.11 
603.95 9.52 -1.17 
604.00 9.56 -0.43 
604.06 9.20 0.01 
604.12 9.41 0.81 
604.32 9.52 1.58 
604.35 9.49 2.08 
604.48 9.53 2.58 
604.21 9.56 3.62 
605.07 9.03 -1.41 
605.04 9.00 -0.79 
604.73 9.02 -0.03 
604.80 9.42 0.46 
604.98 9.49 1.08 
604.70 9.56 1.91 
604.59 9.55 3.07 
604.85 9.12 3.12 
604.88 9.36 5.13 
605.29 9.08 2.06 
605.30 9.09 2.75 
605.50 9.20 3.41 
606.03 9.01 1.27 
606.39 9.42 2.19 
606.71 9.68 1.96 
607.22 9.21 3.58 
607.41 9.51 1.12 
608.14 9.20 2.47 
608.71 9.27 3.69 
609.10 9.17 -0.13 
609.12 9.00 3.19 
609.07 9.25 4.26 
609.83 9.31 -0.03 
609.63 9.36 0.43 
610.09 9.65 3.49 
609.61 9.35 4.23 
609.45 9.03 5.08 
610.79 9.15 -0.56 
610.56 9.07 0.04 
610.63 9.01 0.41 
610.44 9.66 1.48 
610.71 9.64 1.85 
610.68 9.07 2.44 
610.23 9.27 3.76 
610.16 9.55 4.78 
610.37 9.56 5.75 
610.97 9.09 -0.45 
610.91 8.89 0.04 
611.21 9.23 0.49 
611.32 9.57 1.08 
611.01 9.56 2.36 
611.24 9.68 3.26 
611.28 9.64 5.09 
611.25 9.57 6.02 
611.74 9.23 0.46 
611.55 9.22 1.84 
612.09 9.22 3.23 
611.93 9.07 4.96 
612.08 9.14 5.82 
611.64 9.58 6.16 
612.47 9.23 0.29 
612.53 9.46 1.38 
612.80 9.01 2.10 
612.31 9.15 3.49 
612.91 9.29 3.80 
612.30 9.20 5.51 
613.09 9.67 0.47 
613.12 9.46 1.23 
613.47 9.67 3.72 
613.83 9.05 0.96 
613.94 9.55 1.31 
614.06 9.63 1.98 
614.07 9.48 2.62 
614.67 9.44 0.64 
614.91 9.23 1.33 
614.86 9.06 1.98 
614.93 9.56 2.66 
614.37 9.56 4.14 
614.83 9.27 5.20 
615.56 9.13 0.68 
615.20 9.44 1.02 
615.53 9.57 2.15 
615.45 9.25 3.83 
616.11 9.11 0.65 
615.94 9.13 1.90 
616.19 9.31 3.00 
616.48 9.61 0.61 
616.87 9.00 2.91 
616.80 9.03 4.75 
617.57 9.26 4.46 
617.50 9.59 4.97 
593.11 9.74 0.61 
592.86 9.94 3.30 
592.99 10.23 4.18 
593.41 10.31 0.62 
594.17 9.83 2.50 
594.12 9.79 3.15 
594.13 9.75 3.81 
594.19 9.96 4.87 
594.87 9.91 0.68 
594.78 9.70 2.69 
595.14 10.25 3.39 
595.17 10.23 4.06 
595.94 10.30 0.37 
595.71 10.13 2.31 
595.46 10.03 2.98 
595.53 10.01 3.62 
595.46 9.76 4.01 
596.65 10.26 1.56 
596.33 10.04 2.21 
596.42 9.84 2.87 
597.33 9.86 1.28 
597.06 9.94 2.09 
596.95 9.98 2.52 
597.78 10.10 2.16 
598.32 10.24 2.65 
600.86 9.99 2.77 
600.82 9.93 4.01 
600.38 9.81 4.78 
601.39 9.77 -1.64 
601.45 9.89 -0.74 
601.70 9.80 0.23 
601.34 10.19 2.80 
602.26 9.88 -1.89 
601.86 9.89 -1.47 
602.10 9.87 -0.78 
602.30 10.02 -0.13 
602.02 9.82 0.81 
602.09 9.69 1.51 
601.82 9.85 2.08 
602.03 9.98 2.70 
602.30 9.99 3.20 
602.63 10.08 -1.55 
602.78 10.08 -0.69 
602.82 10.06 0.03 
603.00 10.00 0.51 
603.01 10.06 0.99 
602.95 9.91 2.08 
602.94 10.24 2.48 
602.53 10.07 3.37 
603.74 9.89 -1.55 
603.70 9.89 -0.77 
603.43 9.97 -0.08 
603.47 9.98 0.74 
603.44 9.84 1.36 
603.47 10.04 1.69 
603.46 9.96 3.84 
603.87 10.04 0.35 
603.89 10.19 1.04 
604.04 10.27 1.77 
603.94 9.82 2.67 
603.85 10.15 3.42 
604.03 10.21 4.00 
604.10 10.37 4.54 
604.65 9.98 2.07 
605.19 10.09 3.52 
605.01 10.25 3.79 
604.83 10.12 5.11 
605.44 10.19 4.10 
606.53 9.90 1.23 
606.88 9.72 1.19 
607.27 10.26 3.57 
607.48 9.71 3.53 
608.40 10.31 4.65 
609.19 9.79 -0.30 
608.99 9.78 3.53 
609.22 10.05 4.55 
609.55 9.66 -0.02 
609.76 10.19 1.44 
609.98 10.16 1.83 
610.13 9.69 2.45 
609.59 9.75 3.60 
609.69 10.05 4.82 
610.40 9.80 0.43 
610.70 9.76 1.46 
610.50 9.99 2.07 
610.77 9.79 4.12 
610.74 10.15 5.13 
610.58 9.81 5.98 
610.90 9.69 0.30 
610.97 10.12 1.39 
610.86 9.84 2.39 
611.38 9.74 4.16 
611.67 10.35 0.78 
611.85 9.94 1.39 
611.90 9.84 3.26 
612.18 10.02 4.18 
612.46 10.34 2.33 
612.30 10.30 3.03 
612.29 9.73 3.89 
613.21 10.19 1.24 
613.15 10.12 1.97 
613.30 9.96 2.40 
613.99 9.80 0.97 
614.22 10.26 1.80 
614.07 9.87 2.59 
614.74 10.19 2.30 
614.52 9.88 2.48 
615.21 9.84 0.66 
615.34 10.05 1.00 
615.72 10.23 2.28 
615.11 10.37 2.46 
615.46 9.69 4.52 
616.07 9.81 1.03 
615.76 9.84 2.30 
615.81 9.88 3.20 
617.22 10.30 4.70 
617.56 10.04 5.23 
594.55 10.44 3.84 
596.55 10.40 2.13 
598.71 10.41 2.84 
601.43 10.42 2.99 
601.97 10.44 -0.76 
602.23 10.47 2.31 
601.82 10.43 2.40 
602.71 10.43 -1.72 
602.67 10.34 -0.66 
604.33 10.43 3.21 
604.23 10.41 4.70 
607.12 10.45 3.54 
608.56 10.41 3.86 
611.74 10.42 2.86 
613.96 10.41 0.99 
614.43 10.44 2.35 
614.56 10.43 2.44 
615.34 10.42 -1.11 
