# .PCD v0.7 - Point Cloud Data file format
VERSION 0.7
FIELDS x y z
SIZE 4 4 4
TYPE F F F
COUNT 1 1 1
WIDTH 2266
HEIGHT 1
VIEWPOINT 0 0 0 1 0 0 0
POINTS 2266
DATA ascii
592.82 10.98 0.25 
592.69 10.97 1.87 
593.69 11.03 -1.97 
593.82 10.98 -0.67 
593.35 10.86 -0.02 
593.73 10.71 0.53 
593.48 10.62 1.30 
593.93 11.14 2.16 
593.67 11.05 2.88 
594.25 10.92 -1.69 
594.37 10.92 -0.95 
594.57 10.68 -0.10 
594.67 11.02 0.68 
594.41 11.06 3.06 
594.34 11.03 3.85 
595.01 10.91 2.41 
594.95 11.00 3.08 
595.08 10.99 3.69 
595.77 10.86 -1.71 
595.56 11.14 -0.62 
595.60 11.12 -0.09 
595.74 10.72 2.26 
595.49 11.08 3.36 
596.14 10.89 -0.65 
596.20 10.87 -0.13 
596.30 10.86 0.38 
596.36 10.84 0.89 
596.77 10.89 1.89 
596.47 10.86 2.29 
597.39 10.97 0.78 
597.50 10.65 0.95 
597.21 10.91 2.05 
597.37 10.94 2.84 
597.71 10.74 0.35 
597.79 10.59 1.52 
597.82 11.15 2.87 
598.31 10.72 0.26 
598.39 11.11 2.38 
600.48 10.83 4.04 
601.55 10.56 0.86 
601.50 10.85 2.42 
601.60 10.73 3.28 
601.90 10.50 -0.27 
602.19 10.58 0.20 
601.87 10.52 1.78 
601.95 10.66 2.86 
602.34 10.91 3.39 
601.91 10.95 3.90 
602.52 10.76 -1.18 
602.65 10.55 -0.24 
602.86 10.74 0.61 
602.81 11.04 1.05 
602.46 10.47 1.96 
602.93 11.09 3.33 
603.15 11.03 1.01 
603.17 10.85 1.71 
603.36 10.95 2.71 
603.43 10.98 3.06 
603.22 10.80 3.86 
603.13 10.91 4.50 
603.41 10.75 5.94 
604.29 10.84 1.05 
603.83 10.67 2.34 
603.97 10.75 3.10 
604.15 10.83 3.86 
604.24 10.98 4.74 
604.09 10.49 5.31 
604.18 10.50 5.83 
604.79 10.53 1.29 
604.72 10.94 1.65 
604.66 10.60 3.42 
604.86 10.70 4.08 
605.03 10.81 4.40 
605.61 10.87 1.34 
606.55 11.08 0.78 
606.01 11.07 1.46 
606.15 10.83 3.60 
607.70 10.75 1.29 
607.98 10.93 2.20 
607.55 11.05 4.29 
607.84 10.58 5.03 
608.29 11.14 1.06 
608.31 10.60 4.42 
608.48 10.92 5.06 
609.08 10.59 1.00 
608.99 10.52 1.84 
609.95 10.58 0.39 
610.52 10.70 0.49 
610.59 11.01 1.41 
610.73 10.84 4.27 
610.83 11.17 2.41 
611.17 10.91 3.91 
611.02 11.01 5.20 
611.16 10.98 5.86 
611.90 10.66 3.39 
611.70 10.68 4.21 
612.77 10.50 1.34 
612.77 11.15 2.89 
612.64 10.83 3.17 
612.95 10.71 1.26 
613.29 10.87 1.97 
613.51 10.71 2.39 
613.43 10.73 5.13 
613.63 10.93 4.84 
616.14 10.91 3.18 
616.33 10.98 5.30 
616.54 10.99 3.40 
616.97 10.71 5.41 
616.64 10.76 5.88 
617.21 11.10 5.45 
617.24 11.01 5.73 
592.91 11.53 0.34 
593.29 11.80 1.99 
593.21 11.76 2.66 
593.15 11.61 3.32 
593.25 11.60 4.05 
593.40 11.43 -0.65 
593.45 11.41 0.00 
593.81 11.31 0.80 
593.66 11.73 0.84 
593.54 11.85 2.07 
593.68 11.84 3.56 
593.67 11.81 4.32 
594.19 11.50 0.63 
594.04 11.20 1.47 
594.39 11.71 1.55 
594.21 11.65 2.38 
594.51 11.68 3.79 
595.13 11.26 -1.45 
595.01 11.50 -0.58 
594.71 11.52 -0.34 
594.92 11.63 0.51 
595.12 11.68 2.12 
595.23 11.55 2.58 
595.16 11.58 3.39 
595.14 11.53 4.34 
595.49 11.26 -0.17 
595.58 11.82 0.66 
595.46 11.38 1.53 
595.87 11.31 2.76 
596.10 11.72 2.96 
595.99 11.65 3.68 
596.53 11.60 0.65 
596.35 11.36 1.66 
596.27 11.79 1.69 
596.24 11.28 2.30 
596.55 11.28 3.51 
596.31 11.57 3.91 
596.14 11.65 4.34 
597.22 11.74 1.77 
597.56 11.19 0.38 
597.96 11.18 2.12 
597.62 11.34 2.77 
598.34 11.18 0.60 
600.15 11.24 4.08 
601.00 11.23 2.46 
601.37 11.77 2.61 
601.25 11.63 2.96 
601.09 11.76 3.74 
602.13 11.41 -1.22 
602.39 11.63 -0.07 
602.39 11.62 0.91 
602.38 11.43 2.16 
601.86 11.30 2.60 
601.77 11.64 3.48 
601.86 11.50 3.89 
602.56 11.56 -0.12 
602.71 11.51 0.65 
602.52 11.50 0.84 
602.62 11.69 1.92 
603.09 11.66 2.74 
602.66 11.56 3.34 
603.08 11.20 3.85 
602.76 11.59 5.98 
603.41 11.67 1.14 
603.34 11.74 3.57 
603.38 11.75 3.70 
603.66 11.83 4.39 
603.11 11.54 5.70 
603.12 11.50 6.70 
604.38 11.59 0.64 
604.01 11.47 1.09 
604.01 11.57 4.74 
604.23 11.22 5.47 
604.10 11.64 5.84 
604.54 11.33 1.31 
604.90 11.53 3.82 
605.34 11.45 1.22 
605.25 11.49 1.68 
605.84 11.68 3.61 
606.29 11.77 0.82 
606.29 11.77 0.82 
606.33 11.32 3.83 
606.75 11.37 1.43 
607.24 11.54 2.43 
606.74 11.57 3.23 
606.63 11.64 4.13 
607.93 11.56 2.22 
607.64 11.22 2.59 
607.37 11.49 3.00 
607.69 11.32 4.17 
607.57 11.45 4.47 
608.06 11.45 1.27 
608.09 11.41 2.56 
608.58 11.26 5.62 
609.31 11.66 -1.56 
609.30 11.19 -1.05 
608.99 11.56 -0.32 
609.25 11.56 0.66 
609.23 11.27 1.00 
609.66 11.38 -0.62 
609.67 11.44 0.00 
609.70 11.40 0.40 
609.90 11.59 1.04 
610.20 11.26 0.65 
610.15 11.37 2.49 
610.79 11.53 3.32 
610.57 11.62 3.90 
610.62 11.36 4.48 
610.51 11.58 5.22 
611.19 11.35 3.25 
611.30 11.75 3.89 
611.39 11.53 4.36 
610.88 11.18 5.42 
611.24 11.28 5.95 
610.90 11.18 6.43 
611.91 11.54 3.21 
611.77 11.68 4.09 
612.84 11.37 2.31 
612.38 11.67 2.98 
612.73 11.48 4.01 
612.87 11.85 5.34 
613.16 11.44 1.34 
613.24 11.48 2.12 
613.56 11.23 3.93 
613.71 11.51 1.03 
613.87 11.39 1.94 
613.80 11.72 4.43 
613.82 11.66 5.05 
615.70 11.47 5.61 
616.29 11.19 1.91 
616.14 11.28 4.97 
616.99 11.40 4.45 
616.42 11.53 5.61 
616.75 11.76 5.80 
593.17 12.09 1.56 
592.65 11.92 4.04 
593.99 12.34 -1.61 
593.69 12.24 -0.04 
593.59 12.14 0.70 
593.33 12.57 2.18 
593.91 11.98 2.57 
593.34 12.27 3.33 
593.64 11.90 4.31 
594.46 12.10 -1.70 
594.48 12.07 -1.01 
594.54 12.32 -0.08 
594.48 12.42 0.53 
594.22 12.50 1.11 
594.71 12.04 1.83 
594.55 12.46 3.18 
594.34 12.43 3.78 
594.11 12.49 5.01 
594.83 12.24 -1.64 
595.01 12.29 -0.81 
595.02 12.29 0.01 
595.15 12.35 0.54 
595.34 12.14 1.72 
595.18 12.20 2.31 
595.14 12.51 2.99 
594.82 11.95 3.76 
596.09 12.26 0.15 
596.08 12.29 1.18 
596.09 12.15 1.80 
595.71 12.18 2.37 
595.89 12.56 3.33 
595.57 11.97 4.47 
596.44 12.17 0.18 
596.26 12.35 1.70 
596.19 12.12 2.64 
596.46 12.15 3.25 
596.18 12.57 4.19 
596.56 12.02 4.79 
597.14 12.51 0.04 
596.95 12.00 0.32 
597.25 12.49 1.13 
597.06 11.95 2.24 
596.82 12.19 3.84 
597.65 12.52 0.94 
597.63 12.27 2.70 
598.88 12.43 0.79 
598.28 12.42 0.88 
600.24 11.89 3.03 
599.93 12.24 4.33 
600.94 12.32 2.58 
600.69 12.21 4.22 
600.41 12.15 4.93 
601.14 11.94 2.49 
601.39 11.98 3.53 
601.06 12.14 4.20 
601.99 12.22 -1.18 
602.20 12.26 -0.18 
602.34 12.28 0.81 
602.01 12.35 0.94 
602.04 12.32 1.96 
601.91 12.49 3.60 
601.76 12.03 3.88 
602.34 12.33 4.92 
602.68 12.16 2.45 
602.93 12.21 3.32 
602.63 12.34 3.64 
603.65 12.46 0.72 
603.62 11.90 1.38 
603.22 12.27 4.18 
603.42 12.25 4.86 
603.72 12.53 5.22 
603.80 12.39 5.87 
604.08 12.21 0.68 
604.30 12.26 1.32 
604.22 12.26 1.72 
603.85 11.87 5.21 
604.93 12.49 1.02 
605.04 12.49 3.68 
605.81 12.37 0.54 
605.49 12.26 0.97 
605.56 11.90 3.48 
605.67 12.21 3.89 
606.00 12.47 0.56 
606.45 12.14 1.09 
606.30 12.21 3.62 
606.68 12.54 3.21 
607.24 12.43 4.50 
607.56 12.52 2.88 
607.94 12.27 3.10 
608.45 12.23 0.75 
608.56 11.87 1.19 
608.65 12.36 1.82 
608.03 12.15 2.40 
608.89 11.88 -1.57 
609.26 12.15 2.08 
608.80 12.19 2.47 
610.02 12.53 4.42 
610.18 12.37 4.23 
610.80 12.12 4.44 
610.87 11.88 5.97 
612.19 12.44 2.33 
612.08 12.41 3.19 
611.97 12.27 4.86 
612.47 12.51 1.94 
612.91 12.17 2.31 
612.56 12.50 2.96 
612.48 12.53 4.97 
613.08 11.88 1.94 
612.93 11.94 2.73 
613.10 12.48 4.81 
613.93 12.37 4.75 
613.70 12.34 5.14 
614.54 12.50 4.66 
615.21 12.05 -0.98 
615.67 12.47 1.20 
615.68 12.42 5.55 
616.28 12.50 3.33 
615.96 11.99 5.02 
616.27 12.34 5.57 
615.80 12.52 5.78 
616.70 12.22 0.81 
616.55 12.31 3.77 
616.65 12.36 4.60 
617.25 11.99 4.56 
593.03 13.21 -0.61 
593.05 13.20 -0.26 
592.71 13.24 0.21 
593.18 12.82 2.68 
592.73 13.04 3.62 
592.87 13.25 4.12 
592.91 13.11 5.34 
593.72 13.13 -1.47 
593.43 13.24 -1.26 
593.62 12.93 -0.25 
593.59 12.91 0.27 
593.83 12.69 0.94 
593.98 13.14 2.13 
593.78 12.93 2.56 
593.99 12.67 3.42 
594.71 12.89 -1.64 
594.32 12.90 -1.07 
594.32 12.91 -0.03 
594.24 13.07 0.27 
594.39 13.04 1.91 
594.59 13.09 2.36 
594.46 12.84 3.53 
594.31 12.91 3.89 
594.98 12.59 -1.68 
594.73 12.82 -0.89 
594.85 13.10 -0.06 
595.14 13.07 0.31 
594.81 13.03 1.25 
595.12 12.98 2.19 
595.17 12.58 2.40 
594.97 13.10 3.00 
595.01 13.09 3.76 
595.41 13.05 5.12 
595.75 13.08 -0.26 
595.75 12.80 0.53 
595.48 13.23 1.20 
595.44 13.04 1.68 
595.72 13.13 2.43 
595.82 13.15 3.23 
595.60 12.65 3.75 
595.43 13.23 4.77 
596.47 12.77 -0.07 
596.68 13.11 0.67 
596.67 12.88 1.05 
596.49 13.04 2.67 
596.84 12.62 -0.05 
597.47 12.96 0.67 
597.15 12.92 1.14 
596.90 12.92 2.09 
597.16 12.86 2.43 
598.00 13.06 0.12 
597.88 12.99 0.53 
597.99 12.66 1.02 
597.74 12.67 2.61 
598.24 12.78 0.49 
598.75 13.25 1.00 
598.66 13.04 1.76 
599.99 12.83 2.97 
600.33 12.80 4.13 
600.14 12.93 5.02 
599.80 13.04 5.26 
600.74 13.02 2.61 
600.84 13.26 3.35 
600.40 12.78 4.22 
601.33 12.71 3.32 
602.21 12.75 0.77 
602.27 13.23 2.85 
602.26 13.21 3.99 
602.38 12.67 4.96 
602.59 12.89 1.81 
602.64 12.87 2.85 
602.97 12.99 3.86 
602.98 13.23 4.72 
602.64 12.75 5.98 
603.51 12.78 0.74 
603.13 13.04 1.52 
603.56 12.95 1.74 
603.22 12.67 4.91 
603.34 13.26 5.56 
603.77 12.59 6.46 
604.18 12.59 0.27 
604.16 13.22 1.14 
605.12 13.09 0.61 
604.72 12.80 1.05 
605.64 12.84 0.61 
605.38 13.27 1.05 
606.17 12.70 0.25 
606.33 12.84 1.41 
606.28 12.86 4.10 
607.08 12.86 1.05 
606.83 13.07 2.47 
606.68 13.13 4.20 
607.39 12.80 2.75 
607.78 13.06 4.57 
608.60 12.80 2.67 
608.62 13.00 2.99 
612.10 12.75 5.25 
612.73 13.14 2.29 
613.57 12.97 5.20 
614.11 13.16 4.96 
614.62 13.25 5.42 
615.31 12.76 1.33 
616.05 12.81 3.34 
616.31 12.91 4.83 
616.99 12.98 -0.68 
616.53 13.13 3.16 
592.91 13.53 -1.65 
593.04 13.74 -0.94 
592.98 13.77 -0.16 
592.79 13.50 0.40 
593.02 13.94 1.05 
592.98 13.35 2.09 
593.11 13.58 2.88 
592.61 13.78 3.50 
592.73 13.60 3.87 
592.67 13.65 4.50 
593.72 13.57 -1.53 
593.79 13.67 -1.06 
593.52 13.79 -0.25 
593.50 13.91 0.22 
593.91 13.57 1.37 
593.78 13.71 2.08 
593.81 13.51 2.41 
593.94 13.89 3.31 
593.85 13.45 4.00 
593.43 13.38 4.74 
594.12 13.50 -1.54 
594.03 13.64 -1.02 
594.29 13.55 -0.09 
594.30 13.55 0.34 
594.02 13.36 0.86 
594.67 13.86 1.89 
594.45 13.50 2.51 
594.41 13.48 3.35 
594.42 13.69 3.99 
595.14 13.47 -0.36 
595.02 13.39 0.57 
595.19 13.89 1.52 
594.74 13.60 1.90 
595.24 13.87 2.95 
595.30 13.90 3.83 
595.25 13.78 5.36 
595.69 13.48 -0.25 
595.82 13.32 0.56 
595.95 13.50 2.16 
596.10 13.49 3.20 
595.88 13.88 4.17 
595.42 13.76 5.23 
596.13 13.30 -0.25 
596.30 13.38 0.55 
596.40 13.91 1.91 
596.32 13.30 3.31 
597.06 13.81 -0.20 
597.17 13.33 0.23 
597.43 13.38 1.71 
597.18 13.54 2.87 
598.12 13.52 1.29 
598.90 13.92 0.74 
599.06 13.95 3.98 
600.06 13.59 2.68 
599.79 13.79 2.95 
600.08 13.41 4.13 
600.45 13.69 3.85 
601.58 13.47 -1.30 
602.70 13.39 3.89 
602.62 13.32 4.96 
603.71 13.95 1.09 
603.13 13.32 1.55 
604.28 13.79 0.59 
604.42 13.77 1.22 
604.96 13.58 0.41 
604.86 13.59 1.07 
605.39 13.34 0.19 
605.63 13.55 1.68 
607.27 13.29 4.50 
608.37 13.33 2.92 
610.57 13.92 2.03 
610.14 13.66 4.27 
611.99 13.45 2.30 
611.89 13.40 3.19 
612.14 13.49 4.09 
612.44 13.72 3.44 
612.70 13.51 4.04 
612.35 13.59 4.97 
612.79 13.82 5.65 
613.39 13.44 4.75 
613.41 13.79 5.45 
613.75 13.76 5.15 
614.51 13.42 5.56 
615.52 13.50 4.01 
615.06 13.81 4.54 
615.29 13.41 5.59 
615.24 13.29 5.85 
616.13 13.36 -0.76 
615.98 13.28 3.32 
615.74 13.73 4.62 
616.10 13.41 5.90 
592.81 14.33 -1.55 
592.95 14.40 -1.02 
592.94 14.41 -0.30 
593.11 14.26 0.38 
592.74 14.14 1.43 
592.95 14.16 2.91 
593.10 14.40 3.44 
593.20 14.10 4.13 
592.81 14.55 4.48 
593.61 14.49 -1.69 
593.68 14.44 -0.66 
593.57 14.01 -0.33 
593.48 14.20 0.47 
593.44 14.35 1.03 
593.37 14.28 2.09 
593.66 14.61 2.80 
593.87 14.26 3.03 
593.76 14.24 3.96 
593.76 13.98 4.74 
594.39 14.31 -1.47 
594.56 14.12 -1.02 
594.26 14.54 -0.03 
594.26 14.50 0.44 
594.47 13.99 1.24 
594.19 14.22 1.53 
594.49 14.52 2.39 
594.18 14.42 3.31 
594.46 14.34 4.23 
594.63 14.09 4.65 
594.61 14.09 5.61 
595.37 14.06 -0.85 
594.79 14.14 -0.18 
595.03 14.31 0.38 
595.26 14.29 1.27 
594.72 14.44 2.03 
595.34 14.41 2.49 
595.04 14.22 3.17 
595.69 14.15 0.00 
595.80 14.30 0.61 
595.58 14.25 1.24 
595.96 14.04 1.64 
595.49 14.28 2.70 
595.48 14.19 3.26 
595.81 14.12 3.72 
596.64 14.04 -0.17 
596.22 14.06 0.63 
596.16 14.52 1.15 
596.62 14.10 2.32 
596.42 14.15 2.95 
597.47 14.23 1.37 
597.39 14.26 1.58 
598.15 14.35 1.50 
597.91 14.47 2.13 
597.85 14.65 2.24 
598.40 14.29 0.80 
598.28 14.04 0.84 
598.35 14.03 2.19 
599.10 14.05 0.49 
598.93 14.54 2.16 
598.99 14.58 4.27 
599.10 13.99 4.67 
599.89 14.55 4.00 
601.62 14.02 -1.40 
602.96 14.48 1.19 
603.08 14.12 1.83 
603.05 14.65 6.35 
603.52 14.65 0.75 
603.52 14.02 1.07 
603.55 13.98 1.59 
604.07 14.38 0.52 
604.17 14.61 0.92 
604.86 14.41 0.59 
604.59 14.16 0.92 
605.13 14.40 4.20 
605.22 14.20 0.48 
605.84 14.37 3.59 
605.88 14.45 4.72 
606.25 14.09 3.07 
606.58 14.22 4.04 
606.86 14.22 4.60 
610.61 14.41 0.86 
610.11 14.27 1.78 
610.56 14.51 2.42 
610.64 14.55 4.58 
611.03 14.21 1.03 
610.95 14.05 2.37 
611.33 14.29 5.04 
611.56 14.08 2.41 
611.75 14.03 4.91 
613.09 14.51 4.84 
613.81 14.48 5.13 
615.73 14.14 4.75 
592.72 14.85 -1.65 
592.98 15.23 -1.07 
592.61 15.08 -0.24 
593.00 14.90 0.23 
593.18 15.10 1.44 
593.15 14.94 3.47 
593.07 15.09 3.98 
592.87 14.80 4.96 
593.38 14.81 -1.67 
593.58 14.72 -1.08 
593.72 15.15 -0.12 
593.86 15.14 0.37 
593.40 14.95 1.20 
593.44 14.95 2.12 
593.52 15.35 2.36 
593.56 14.93 3.01 
593.98 15.16 4.02 
593.67 15.21 4.92 
593.47 14.76 5.12 
594.11 15.10 1.34 
594.31 15.10 1.82 
594.49 15.04 2.36 
594.42 15.30 3.43 
594.65 14.95 4.21 
594.06 14.76 5.05 
595.35 15.26 0.68 
595.32 15.02 0.83 
594.98 15.03 1.67 
595.17 15.10 2.32 
595.32 15.01 3.25 
595.13 15.02 4.17 
595.69 14.76 -0.21 
595.70 14.79 0.70 
596.02 15.16 1.73 
595.82 15.11 3.76 
596.69 14.95 1.96 
597.14 14.73 2.10 
597.42 14.80 2.30 
597.73 15.12 0.59 
598.04 15.30 4.10 
598.40 14.78 0.59 
598.54 15.22 2.19 
598.46 14.75 4.34 
599.43 15.34 4.07 
602.32 15.27 5.69 
603.08 15.24 0.82 
602.50 15.10 1.68 
602.43 14.85 6.09 
603.37 14.92 0.79 
603.34 15.32 1.11 
603.99 15.10 0.05 
603.81 14.89 0.44 
603.91 14.81 1.08 
604.25 15.19 4.53 
604.83 14.74 0.08 
604.58 14.73 0.35 
605.62 14.89 3.41 
605.56 14.91 4.39 
605.42 14.82 5.29 
606.17 15.18 3.46 
606.18 15.03 4.63 
606.59 14.98 5.46 
606.63 14.71 5.24 
609.24 15.32 4.43 
610.79 15.17 5.08 
610.82 14.70 0.76 
611.06 15.14 1.04 
611.01 15.10 2.01 
611.37 14.90 4.10 
611.36 15.29 4.89 
611.60 15.30 5.16 
612.34 15.34 5.10 
612.46 15.26 5.79 
612.93 15.16 5.69 
592.86 15.79 0.02 
593.08 15.41 0.43 
593.04 15.69 2.00 
592.98 16.04 2.80 
592.87 15.65 3.46 
593.01 15.88 4.99 
593.28 15.98 5.13 
593.32 15.48 -0.86 
593.39 15.53 0.03 
593.34 15.39 0.34 
593.55 16.02 1.94 
593.94 15.78 2.63 
593.73 15.55 3.24 
593.40 15.88 4.56 
593.44 15.70 5.79 
594.70 15.66 0.93 
594.09 15.52 2.10 
594.38 15.72 2.69 
594.57 15.67 3.97 
594.07 15.70 4.73 
594.15 16.02 5.03 
594.85 15.57 0.76 
594.87 15.59 0.84 
595.07 15.67 1.98 
594.72 15.72 2.35 
595.40 15.67 4.04 
595.75 15.77 0.50 
595.51 15.86 1.52 
595.67 15.41 1.81 
595.79 15.60 3.79 
596.17 15.86 0.75 
596.21 15.91 0.84 
596.95 15.65 0.68 
597.51 15.68 1.15 
597.57 15.42 0.62 
597.53 15.99 1.47 
598.26 15.65 1.04 
598.52 15.77 4.19 
598.82 15.68 5.13 
601.18 15.65 5.70 
601.16 15.69 5.84 
601.65 15.80 6.75 
602.19 15.51 6.13 
601.75 15.76 6.56 
602.91 15.52 0.21 
602.78 15.41 0.86 
603.16 15.44 -0.06 
603.65 15.53 0.42 
603.12 15.47 0.84 
603.94 15.58 0.04 
604.71 15.56 5.06 
605.42 15.76 5.39 
609.48 15.86 5.69 
609.52 15.81 5.86 
610.85 15.65 4.74 
611.66 15.77 6.07 
612.81 15.48 4.86 
612.25 15.47 6.16 
614.42 15.93 6.97 
614.45 15.71 7.41 
615.08 15.85 5.69 
615.55 15.89 6.19 
616.73 15.62 5.77 
592.69 16.40 -0.26 
592.79 16.52 1.57 
593.29 16.17 2.85 
593.15 16.35 3.02 
593.13 16.08 5.30 
593.40 16.72 0.88 
593.33 16.68 1.93 
593.76 16.63 2.36 
593.48 16.33 3.47 
593.68 16.49 5.73 
594.12 16.70 -0.01 
594.16 16.75 0.48 
594.19 16.31 1.26 
594.26 16.28 1.78 
594.36 16.16 2.49 
594.66 16.09 4.22 
594.48 16.29 4.68 
594.61 16.30 5.58 
594.42 16.33 6.00 
594.77 16.17 0.78 
595.08 16.10 0.96 
595.10 16.43 1.64 
594.86 16.63 2.31 
595.33 16.49 4.15 
594.84 16.34 4.73 
595.51 16.50 0.75 
596.00 16.69 2.01 
595.76 16.49 3.83 
596.57 16.24 0.85 
596.52 16.29 2.09 
596.12 16.50 2.35 
596.88 16.32 1.16 
597.41 16.69 2.02 
597.63 16.73 1.34 
598.11 16.08 4.37 
598.07 16.38 5.09 
598.58 16.19 4.05 
598.49 16.11 5.10 
601.78 16.13 6.20 
602.95 16.45 1.00 
603.52 16.13 0.82 
603.16 16.72 0.95 
612.08 16.43 5.07 
614.11 16.28 6.78 
615.05 16.31 5.33 
615.28 16.49 6.35 
616.04 16.09 5.80 
593.16 17.01 1.38 
593.01 16.83 2.78 
592.92 16.83 4.73 
594.01 17.08 1.00 
593.41 17.22 1.70 
593.67 17.24 2.37 
593.40 16.78 3.94 
593.61 17.18 5.51 
594.12 16.97 0.01 
594.51 17.16 0.63 
594.01 17.08 1.00 
594.47 17.08 1.76 
594.30 16.98 2.53 
594.33 17.26 4.62 
594.38 17.01 5.11 
595.33 17.15 0.79 
595.05 16.78 1.46 
595.32 17.10 4.22 
594.86 17.39 4.66 
594.73 16.95 5.55 
595.73 17.11 3.84 
596.97 17.11 1.95 
598.07 17.06 1.98 
598.81 17.12 -1.55 
598.26 16.84 5.03 
602.61 17.34 0.98 
606.17 17.36 -1.47 
606.92 16.90 -1.47 
607.75 17.29 -1.33 
611.92 17.34 4.76 
611.73 17.12 5.07 
611.60 17.16 5.74 
593.11 18.16 0.57 
593.06 17.72 2.15 
593.06 17.56 2.55 
593.47 17.76 1.41 
593.99 17.82 1.55 
594.01 18.00 5.63 
593.46 17.56 5.93 
594.33 17.92 0.56 
594.53 18.03 1.40 
594.11 18.14 1.72 
594.14 17.70 3.50 
594.64 17.78 3.83 
594.41 17.87 4.62 
594.40 17.71 5.95 
594.66 17.74 0.48 
595.21 17.50 1.50 
595.24 17.85 1.53 
595.20 17.61 4.26 
594.94 17.54 4.88 
594.78 17.76 5.04 
596.74 18.03 -1.64 
597.80 17.57 -1.60 
605.40 17.83 -1.47 
606.99 17.80 -1.34 
610.90 17.79 -0.79 
613.04 17.94 -1.14 
593.24 18.71 0.61 
593.28 18.63 1.22 
593.24 18.43 5.64 
593.93 18.28 0.61 
593.54 18.82 1.49 
593.40 18.53 2.17 
593.46 18.60 2.27 
593.83 18.56 4.33 
593.90 18.53 5.54 
593.68 18.39 5.89 
594.32 18.69 0.57 
594.52 18.45 1.44 
594.13 18.59 1.60 
594.12 18.64 3.51 
594.66 18.56 3.83 
594.06 18.59 4.53 
594.35 18.39 5.94 
595.22 18.20 1.56 
594.96 18.47 5.00 
595.75 18.54 -1.69 
603.87 18.84 -1.47 
604.69 18.34 -1.47 
605.26 18.79 -1.37 
606.21 18.32 -1.35 
607.27 18.57 -1.47 
610.18 18.37 -0.77 
592.78 18.90 2.50 
593.42 18.93 2.20 
593.48 19.32 2.23 
594.01 19.54 4.35 
593.76 19.18 5.88 
594.38 19.15 0.61 
594.20 19.55 1.83 
594.32 19.27 4.83 
601.99 19.41 -1.57 
603.02 19.37 -1.47 
604.37 19.31 -1.38 
609.37 18.91 -0.76 
592.79 19.95 -1.62 
593.44 19.57 2.31 
601.03 19.96 -1.58 
602.14 19.91 -1.47 
594.56 20.41 -1.74 
599.76 20.60 -1.59 
601.22 20.48 -1.48 
613.32 21.11 -1.24 
594.31 21.74 -1.76 
611.24 21.83 -1.16 
612.12 22.13 -1.09 
612.23 22.07 -1.08 
594.19 22.41 -1.76 
611.63 22.47 -0.99 
612.42 22.47 -1.17 
614.13 22.48 -0.96 
616.84 22.81 -0.67 
616.92 22.60 -0.42 
617.24 22.56 -0.68 
617.50 22.62 -0.38 
606.21 23.75 -1.14 
610.88 23.48 0.65 
611.92 23.70 0.06 
612.84 23.62 0.44 
613.27 23.47 0.53 
614.18 23.13 -0.95 
614.60 23.15 -0.95 
616.85 23.35 -0.62 
616.76 23.56 0.05 
617.33 23.32 -0.79 
617.32 23.19 -0.47 
607.58 24.13 -1.05 
609.72 24.13 -1.00 
610.29 24.44 -1.12 
610.73 23.89 0.07 
611.28 24.28 0.10 
611.20 24.29 0.46 
612.15 24.02 -0.59 
612.01 24.35 -0.25 
612.19 24.32 0.31 
612.30 24.07 -0.78 
612.39 24.40 0.03 
612.70 24.06 0.59 
613.16 24.26 0.04 
613.35 24.21 0.21 
617.03 24.07 0.06 
617.35 24.13 -0.17 
605.90 24.74 -1.17 
606.36 24.80 -1.12 
607.51 24.50 -1.04 
608.58 24.85 -1.07 
609.19 24.86 -0.58 
608.78 25.09 -0.23 
609.71 25.11 0.13 
610.43 25.12 -0.60 
611.06 24.95 -0.87 
611.12 24.84 -0.19 
611.36 24.85 0.48 
611.57 25.11 -0.60 
611.85 25.00 -0.27 
611.87 25.01 0.46 
612.48 25.06 -0.83 
612.57 24.99 -0.19 
612.40 24.82 0.39 
612.30 25.01 0.94 
613.05 24.78 -0.01 
613.13 25.31 0.49 
613.76 24.90 0.35 
616.33 24.79 2.67 
616.94 24.74 -0.23 
616.79 24.89 2.66 
603.61 25.85 -0.88 
604.03 25.35 -1.29 
605.95 25.61 -1.11 
607.25 25.34 -1.04 
608.48 25.24 -1.06 
609.20 25.19 -0.57 
608.91 25.71 0.99 
609.54 25.83 -0.98 
610.02 25.68 -0.28 
610.03 25.86 0.49 
610.60 25.54 -0.66 
610.48 25.39 -0.25 
610.66 25.55 0.51 
610.15 25.80 0.86 
611.11 25.25 -0.66 
611.02 25.57 -0.21 
611.00 25.46 0.19 
611.96 25.40 -0.56 
612.10 25.61 0.47 
611.71 25.62 0.88 
612.32 25.42 -0.21 
612.56 25.41 0.39 
612.38 25.47 0.77 
612.53 25.78 2.32 
613.00 25.58 -0.13 
613.26 25.58 0.41 
613.95 25.64 0.15 
614.16 25.79 2.16 
615.47 25.21 2.90 
616.35 25.26 2.60 
616.88 25.68 2.91 
617.20 25.48 2.76 
617.49 25.72 3.17 
603.48 26.33 -0.87 
605.00 26.50 0.64 
605.71 26.05 -1.11 
606.26 26.46 -0.87 
606.15 26.27 0.18 
607.69 26.21 -0.01 
607.99 26.10 0.52 
608.35 26.39 0.03 
608.18 26.36 0.54 
609.35 26.31 -0.72 
609.12 25.90 -0.19 
609.22 26.22 0.60 
609.04 26.02 1.00 
609.55 26.37 -0.58 
610.06 26.30 -0.26 
609.83 26.33 0.19 
610.09 26.23 0.86 
610.23 26.20 -0.60 
610.38 26.43 -0.19 
610.22 26.34 0.20 
610.37 25.98 0.86 
610.93 26.22 -0.73 
611.41 26.02 -0.40 
610.99 26.01 0.43 
611.36 26.37 0.83 
611.82 26.26 0.11 
611.91 26.18 0.69 
611.56 26.55 0.84 
612.68 25.92 -0.15 
612.78 25.89 0.31 
612.35 26.17 0.85 
612.54 26.46 2.11 
612.64 26.41 2.63 
612.73 26.10 3.45 
613.15 26.18 -0.08 
613.28 26.17 0.45 
612.94 26.46 2.74 
613.97 26.34 -0.18 
613.75 26.39 0.44 
614.10 26.32 2.18 
613.78 26.12 2.27 
614.62 26.42 2.05 
615.34 26.43 2.66 
615.54 26.15 2.97 
616.29 26.47 2.44 
615.95 26.41 3.18 
616.76 26.33 3.07 
617.27 26.48 3.02 
602.05 27.04 -0.93 
604.49 27.26 -0.23 
605.00 26.50 0.64 
605.90 26.80 0.00 
606.52 26.71 0.00 
606.09 26.76 0.60 
606.61 27.15 0.66 
607.82 26.90 -0.88 
607.56 27.07 -0.57 
607.58 27.03 0.30 
607.32 27.05 1.01 
607.92 27.15 3.06 
608.53 26.86 -0.94 
608.67 27.08 -0.25 
608.35 26.66 0.35 
608.18 27.04 3.34 
609.08 26.69 -0.59 
609.33 26.95 -0.25 
609.13 27.23 0.30 
609.32 26.95 2.74 
609.86 26.50 -0.10 
609.92 26.88 0.29 
609.47 26.68 1.03 
609.64 27.17 2.71 
610.21 26.73 -0.24 
610.30 26.96 0.57 
610.24 26.91 0.99 
611.25 27.17 -0.18 
611.21 26.89 0.42 
611.42 26.67 0.71 
611.92 26.65 0.12 
612.74 27.03 -0.10 
612.82 26.69 0.35 
612.80 27.19 0.83 
612.68 27.02 1.96 
612.66 26.70 2.30 
612.99 27.03 -0.42 
613.43 26.60 0.63 
613.09 26.82 0.86 
613.09 26.99 1.76 
613.32 27.13 2.53 
613.36 26.75 2.98 
613.67 26.71 0.10 
613.79 26.90 0.26 
613.71 27.00 2.06 
613.76 26.84 2.30 
614.31 27.15 2.04 
614.61 26.71 2.81 
615.39 27.27 2.21 
615.28 27.15 2.40 
615.22 26.92 3.05 
616.08 26.82 2.72 
616.15 26.64 3.33 
616.64 26.90 2.72 
616.61 27.10 3.35 
601.24 27.85 -0.94 
602.16 27.53 4.29 
601.97 27.52 4.49 
602.89 27.96 3.83 
603.19 27.33 -0.87 
603.13 27.70 4.32 
603.71 27.89 4.41 
603.89 27.73 0.02 
604.14 27.91 0.44 
604.12 27.87 0.83 
603.82 27.58 4.33 
605.65 27.94 -0.90 
605.26 27.78 -0.30 
605.44 27.66 0.17 
606.41 27.63 -0.94 
606.29 27.59 -0.11 
606.32 27.77 0.21 
607.03 27.52 -0.70 
607.12 27.56 -0.24 
606.84 27.62 0.41 
607.46 27.72 -0.71 
607.41 27.40 -0.36 
607.46 27.73 0.26 
608.46 27.73 -0.54 
608.53 27.58 -0.06 
608.20 27.79 0.53 
608.28 27.35 3.25 
609.03 27.51 -0.18 
609.04 27.68 0.21 
609.30 27.57 3.14 
609.73 27.63 -0.46 
609.87 27.36 0.24 
609.95 27.53 0.99 
609.62 27.74 3.11 
610.37 27.44 -0.19 
610.58 27.68 0.35 
610.34 27.76 2.89 
611.18 27.90 -0.35 
610.99 27.42 0.53 
611.16 27.67 1.07 
612.00 27.65 0.00 
611.80 27.47 1.03 
612.09 27.72 1.53 
612.53 27.48 -0.10 
612.30 27.67 1.91 
612.45 27.47 2.40 
612.40 27.35 3.01 
613.40 27.42 1.88 
613.21 27.70 2.45 
613.26 27.83 3.02 
614.22 27.60 2.22 
613.78 27.57 2.42 
614.43 27.83 1.95 
614.65 27.76 2.78 
615.33 27.60 2.72 
615.15 27.67 2.97 
615.21 27.86 4.12 
616.04 27.38 2.45 
615.71 27.90 3.31 
616.78 27.51 3.57 
617.45 27.46 3.56 
617.40 27.29 3.65 
596.35 28.50 -1.22 
599.50 28.20 -0.90 
602.25 28.46 -1.21 
602.13 28.03 4.33 
602.89 28.24 4.23 
603.15 28.19 3.90 
603.63 28.42 4.44 
604.44 28.59 -0.68 
603.97 28.10 -0.34 
604.48 28.43 0.50 
604.15 28.51 3.76 
603.97 28.03 4.33 
605.16 28.36 -0.42 
605.82 28.20 -0.68 
605.45 28.31 -0.16 
605.73 28.44 0.45 
606.15 28.12 -0.89 
606.32 28.45 -0.05 
606.46 28.07 0.23 
606.99 28.17 -0.58 
606.97 28.60 -0.27 
606.83 28.17 0.23 
607.01 28.35 0.90 
607.81 28.13 -0.62 
607.50 28.27 0.01 
607.95 28.41 0.32 
607.80 28.51 0.90 
608.26 28.18 -0.63 
608.17 28.21 0.03 
608.34 28.28 0.59 
608.02 28.49 2.83 
608.53 28.48 3.20 
609.22 28.45 -0.14 
609.31 28.45 0.31 
609.62 28.38 0.06 
609.83 28.29 0.59 
610.05 28.50 0.95 
609.56 28.66 2.49 
609.98 28.27 3.12 
610.34 28.44 -0.07 
610.78 28.14 0.46 
610.80 28.61 1.45 
610.66 28.29 2.86 
610.61 28.33 2.93 
611.50 28.26 0.80 
611.18 28.65 1.43 
610.94 28.45 1.80 
611.25 28.37 2.51 
610.88 28.45 2.93 
611.60 28.60 1.78 
611.77 28.59 2.50 
611.52 27.98 2.95 
612.63 28.59 1.98 
612.53 28.63 2.70 
612.74 28.33 2.95 
612.22 28.50 3.65 
613.02 28.56 1.84 
613.36 28.52 2.58 
612.95 28.26 3.03 
613.51 28.52 4.08 
613.66 28.23 1.93 
613.83 28.53 2.32 
613.63 28.08 3.07 
614.01 28.61 4.19 
614.54 28.15 2.52 
614.71 28.46 3.04 
615.35 28.40 2.32 
615.26 28.04 3.13 
615.73 27.98 3.11 
593.17 29.34 -1.09 
595.38 29.25 2.51 
598.19 29.23 -0.92 
599.95 29.06 -1.63 
600.29 29.22 -0.80 
600.37 29.09 -1.70 
602.08 28.93 -0.36 
601.98 28.90 0.52 
602.56 28.87 4.49 
603.63 29.28 -0.26 
603.80 29.21 0.24 
603.54 28.80 4.09 
603.15 29.05 4.54 
604.38 29.20 -0.87 
604.35 29.01 -0.43 
604.29 29.11 0.38 
603.92 28.73 3.86 
604.92 29.07 -0.88 
604.74 28.95 -0.15 
604.94 29.08 0.39 
605.54 29.11 -0.59 
605.58 28.93 -0.20 
605.51 29.02 0.21 
606.37 28.99 -0.29 
606.35 28.95 0.21 
606.40 29.21 0.88 
607.07 28.84 -0.15 
606.87 29.13 0.60 
607.76 29.12 -0.18 
607.62 28.91 0.27 
607.76 28.85 3.09 
608.40 28.99 -0.18 
608.48 28.93 0.24 
608.70 29.04 2.84 
609.32 28.88 -0.16 
609.32 28.97 2.77 
609.62 28.77 -0.15 
610.10 28.68 0.36 
609.32 28.97 2.77 
609.82 29.16 3.16 
610.23 28.83 0.38 
610.26 28.85 1.23 
610.30 28.67 2.61 
610.46 28.84 2.96 
611.25 28.83 0.71 
611.21 28.96 1.05 
611.24 28.92 1.86 
611.14 28.97 2.28 
611.34 29.28 3.21 
611.95 29.33 1.27 
611.87 29.27 2.01 
611.84 28.90 2.61 
612.06 28.97 3.25 
611.85 29.08 3.77 
612.79 28.99 -0.58 
612.68 29.19 -0.21 
612.57 29.02 0.38 
612.68 28.99 1.34 
612.50 28.89 1.78 
612.74 29.12 2.48 
612.51 29.07 2.99 
612.51 28.96 3.63 
613.55 28.90 -0.73 
613.26 28.76 -0.28 
613.01 29.34 0.70 
613.15 28.96 1.49 
613.33 28.78 1.78 
613.12 28.95 2.62 
613.04 28.70 3.37 
613.61 28.82 0.18 
613.63 29.21 1.30 
613.81 29.34 2.02 
613.90 29.29 2.44 
614.12 29.16 3.11 
614.21 29.11 3.98 
614.69 29.36 2.37 
614.76 28.73 3.47 
593.52 29.80 -1.06 
594.66 29.86 -1.10 
595.31 29.94 3.05 
595.68 29.80 2.34 
596.16 29.66 2.82 
596.40 30.02 2.96 
597.69 30.01 -1.32 
597.67 29.86 2.75 
598.75 29.53 -0.85 
599.02 29.74 -1.28 
599.50 29.61 -1.23 
599.00 29.70 4.27 
600.24 29.41 -1.67 
599.70 29.71 -1.20 
599.82 29.96 3.54 
600.35 29.57 -0.39 
601.46 30.04 3.76 
603.00 29.99 -0.70 
602.81 29.70 -0.27 
602.43 29.99 0.17 
603.54 29.89 -0.92 
603.62 29.88 -0.17 
603.41 29.64 0.39 
603.36 29.96 4.06 
603.44 29.58 4.40 
604.44 29.51 -0.83 
604.24 29.38 -0.20 
603.97 29.64 0.25 
604.17 29.93 3.58 
604.30 29.67 3.92 
604.64 29.66 -0.58 
604.91 29.55 0.01 
604.86 29.76 0.38 
605.80 29.43 -0.58 
605.34 29.70 -0.32 
605.60 29.41 0.50 
605.46 29.66 0.84 
606.59 29.42 -0.76 
606.35 29.72 -0.19 
606.51 29.62 0.41 
607.14 29.56 -0.27 
607.72 29.66 -0.01 
607.60 29.61 0.64 
607.63 29.65 2.53 
608.19 29.73 0.12 
608.08 29.78 0.70 
608.14 29.37 1.03 
608.66 29.89 2.47 
608.76 29.39 -0.14 
609.28 29.53 0.60 
608.77 29.38 2.39 
608.85 29.41 2.97 
609.62 29.67 2.72 
609.74 29.38 3.19 
610.45 29.72 2.77 
610.18 29.49 3.18 
611.50 29.53 1.48 
611.51 29.60 1.90 
611.16 29.58 2.33 
611.26 29.80 3.08 
611.12 29.78 3.67 
612.03 29.77 -0.58 
611.82 29.74 -0.33 
612.00 29.63 0.70 
611.94 29.80 1.14 
611.93 29.90 1.94 
611.93 29.54 2.54 
611.96 29.50 3.29 
611.76 29.54 3.77 
612.39 29.55 -0.60 
612.58 29.68 -0.29 
612.56 29.61 0.67 
612.48 29.55 1.26 
612.57 29.69 1.92 
612.53 29.81 2.44 
612.28 29.54 3.10 
612.80 29.96 4.00 
613.15 29.54 -0.13 
613.08 29.64 0.17 
613.27 29.60 1.39 
613.18 29.66 1.81 
613.18 29.73 2.51 
613.15 29.93 3.09 
613.86 29.48 -0.23 
613.97 29.72 0.38 
613.91 29.68 1.44 
614.09 29.55 2.03 
614.13 29.65 2.45 
614.05 29.55 3.91 
614.34 30.02 -0.18 
614.31 29.58 1.44 
614.35 29.41 1.88 
614.54 29.79 2.44 
614.60 30.02 3.24 
615.08 29.98 2.26 
615.14 29.75 3.09 
616.12 29.84 2.37 
616.12 29.84 2.37 
616.83 29.86 2.09 
616.55 30.04 2.42 
617.26 29.97 2.28 
593.76 30.22 -1.27 
595.40 30.43 4.04 
596.01 30.68 -0.96 
595.62 30.43 2.39 
595.46 30.47 3.08 
596.77 30.47 2.32 
596.65 30.45 3.66 
596.82 30.53 -0.25 
597.27 30.19 2.91 
598.06 30.26 -1.36 
597.83 30.68 -0.29 
597.54 30.67 2.29 
598.84 30.54 -0.91 
598.21 30.38 -0.43 
599.38 30.56 4.02 
600.28 30.34 -0.91 
599.80 30.35 3.35 
600.06 30.71 4.37 
600.59 30.75 3.48 
600.39 30.69 3.94 
601.29 30.57 -0.28 
601.57 30.49 0.41 
600.93 30.42 3.26 
601.49 30.34 3.76 
602.14 30.44 -0.71 
602.14 30.72 -0.21 
602.09 30.41 0.36 
601.86 30.63 3.76 
602.32 30.47 4.52 
602.70 30.32 -0.89 
602.61 30.42 -0.18 
603.08 30.47 0.63 
603.01 30.70 3.98 
603.43 30.56 -0.60 
603.47 30.24 -0.05 
603.42 30.49 0.27 
603.45 30.49 0.95 
603.15 30.48 3.39 
603.19 30.20 4.10 
603.98 30.26 -0.89 
604.26 30.39 -0.40 
603.97 30.31 0.35 
604.25 30.46 0.83 
604.01 30.68 3.35 
604.18 30.43 4.03 
604.01 30.32 4.15 
605.08 30.41 -0.74 
604.93 30.35 -0.35 
604.91 30.25 0.65 
604.52 30.10 1.05 
605.46 30.15 -0.77 
605.71 30.58 -0.24 
605.50 30.32 0.39 
606.12 30.07 -0.21 
606.89 30.36 -0.50 
607.26 30.35 2.43 
607.37 30.31 -0.46 
607.85 30.39 2.13 
607.68 30.51 2.25 
608.45 30.26 2.37 
608.78 30.16 2.57 
610.00 30.38 2.81 
609.84 30.36 3.47 
610.62 30.42 2.20 
610.25 30.53 2.47 
610.34 30.10 3.01 
611.39 30.65 -0.58 
611.28 30.55 1.97 
611.39 30.44 2.86 
611.38 30.51 2.94 
611.33 30.57 3.73 
611.87 30.24 -0.65 
612.00 30.14 -0.24 
612.07 30.41 0.40 
611.95 30.08 1.28 
612.08 30.46 1.91 
612.05 30.26 2.62 
611.79 30.07 3.16 
612.53 30.28 -0.75 
612.36 30.38 -0.05 
612.46 30.45 0.48 
612.68 30.35 1.37 
612.59 30.27 1.83 
612.61 30.22 2.59 
612.54 30.43 3.11 
613.26 30.47 -0.25 
613.18 30.11 0.51 
613.42 30.16 1.04 
613.21 30.43 1.82 
613.12 30.30 2.41 
613.49 30.66 3.24 
613.66 30.53 -0.64 
613.69 30.76 1.46 
613.72 30.34 2.00 
613.91 30.08 2.52 
613.64 30.27 3.04 
614.80 30.73 1.88 
614.66 30.31 2.46 
614.52 30.29 3.17 
615.54 30.32 2.36 
615.83 30.46 2.05 
616.15 30.29 2.39 
616.90 30.61 2.12 
616.80 30.32 2.28 
617.26 30.10 2.15 
594.83 30.99 1.88 
595.34 31.18 2.47 
595.31 30.80 3.32 
595.89 30.92 -1.48 
595.43 31.09 2.60 
595.67 31.27 3.32 
596.28 31.10 -1.42 
596.45 30.96 2.53 
596.50 31.46 3.10 
597.28 31.09 -1.29 
596.93 30.85 -1.03 
597.18 31.25 2.50 
597.06 31.21 2.98 
598.29 31.43 3.49 
598.21 31.42 4.06 
599.46 31.03 4.41 
599.87 31.42 -0.72 
599.86 31.38 -0.47 
599.85 31.36 0.51 
600.20 31.24 2.81 
600.04 31.31 3.43 
599.92 31.05 4.22 
600.69 31.05 -1.00 
600.39 31.14 -0.45 
600.31 31.10 0.25 
600.86 31.03 3.33 
600.35 31.17 4.01 
601.50 31.12 -0.86 
601.32 31.11 -0.27 
601.20 31.23 0.18 
601.22 31.40 2.75 
601.61 31.24 3.19 
601.53 31.25 3.69 
601.91 31.06 -0.78 
601.95 31.12 -0.06 
602.24 30.86 0.30 
601.71 31.22 2.69 
602.41 30.81 3.17 
601.92 31.08 3.63 
603.00 31.02 -1.14 
602.75 31.09 -0.17 
602.44 31.24 0.35 
602.49 30.95 3.33 
602.75 31.07 3.72 
603.47 31.03 -0.85 
603.39 31.00 -0.32 
603.43 31.24 0.43 
603.46 30.97 3.10 
603.48 31.28 3.80 
604.12 30.92 -0.61 
604.21 31.45 -0.10 
603.86 30.89 0.56 
603.93 31.26 3.02 
604.20 30.96 4.10 
604.73 31.21 -0.59 
604.95 31.05 0.12 
604.99 30.96 0.59 
604.81 31.25 4.24 
605.22 31.36 -0.32 
606.31 31.43 2.29 
606.12 31.02 3.37 
607.08 30.88 2.02 
606.92 30.94 2.80 
607.13 31.22 3.31 
607.70 31.35 2.55 
607.50 31.39 3.21 
608.44 30.89 2.54 
609.30 30.89 3.08 
610.23 31.00 3.58 
611.46 30.91 1.32 
611.25 30.90 1.90 
610.86 30.97 2.37 
611.16 31.08 3.35 
611.05 31.27 3.72 
611.55 30.86 0.98 
611.74 31.46 1.70 
611.73 31.14 2.69 
611.82 31.15 3.36 
612.63 30.91 -0.10 
612.26 31.07 1.04 
612.39 31.20 2.07 
612.76 30.95 2.45 
612.89 31.05 3.20 
613.33 30.73 2.62 
613.84 30.87 2.91 
614.85 31.16 3.38 
615.21 31.31 2.71 
615.38 31.13 3.38 
615.94 30.96 2.44 
616.49 31.34 2.33 
617.20 30.98 2.52 
593.76 32.13 2.05 
594.23 32.09 -1.69 
594.22 31.94 1.99 
596.04 32.03 2.51 
595.88 31.80 3.34 
596.48 31.76 2.63 
596.60 32.02 3.14 
596.56 32.06 3.98 
597.53 31.74 2.40 
597.49 31.47 2.99 
598.09 32.04 -0.28 
597.44 31.56 2.44 
597.75 31.84 3.03 
598.28 32.16 -0.46 
598.51 31.78 0.26 
598.24 32.09 2.31 
598.67 31.70 3.50 
599.45 31.91 -1.22 
599.49 31.71 -0.34 
599.16 31.97 0.20 
598.98 31.55 2.91 
600.03 31.90 -0.71 
599.80 31.88 -0.35 
599.67 31.74 0.28 
600.18 31.48 4.23 
599.67 31.53 4.41 
600.77 31.53 -0.85 
600.59 31.88 -0.37 
600.39 31.47 0.15 
600.68 31.83 2.94 
600.59 31.85 3.58 
600.56 31.58 4.03 
601.34 31.85 -0.65 
601.19 31.88 -0.21 
601.70 31.53 0.72 
601.37 31.86 2.79 
601.24 32.10 3.55 
602.00 31.90 -0.78 
602.15 31.70 -0.37 
601.86 31.97 0.60 
601.93 31.53 2.72 
601.83 31.56 3.22 
602.77 31.84 -0.70 
602.74 31.98 -0.17 
602.76 31.72 0.14 
602.50 31.64 2.12 
602.89 32.12 2.72 
603.00 31.86 3.38 
602.42 31.78 3.80 
603.39 31.79 -0.16 
603.64 31.95 0.13 
603.46 32.01 3.19 
603.71 31.82 3.71 
603.81 31.87 -0.64 
604.00 31.61 -0.26 
603.87 32.06 2.06 
604.33 31.90 2.65 
604.00 31.77 3.15 
604.19 31.48 4.17 
605.01 31.69 -0.79 
604.77 31.97 2.64 
604.60 31.78 4.43 
605.36 31.99 2.17 
605.53 31.68 3.54 
606.67 31.61 2.36 
606.33 31.84 3.03 
607.05 31.91 2.52 
606.92 31.60 3.44 
607.83 31.76 2.78 
607.40 32.01 3.40 
608.70 31.79 3.01 
610.06 31.76 2.50 
610.76 32.07 2.13 
610.92 31.60 2.42 
610.92 31.60 2.42 
611.24 31.76 3.05 
612.04 31.76 2.72 
612.76 31.76 2.00 
613.27 31.70 1.90 
613.01 31.48 2.25 
613.33 31.97 3.39 
614.07 31.63 1.82 
613.92 31.96 2.46 
614.01 31.86 3.39 
614.89 32.09 2.77 
614.33 31.48 3.67 
615.35 31.79 2.60 
615.29 31.93 3.14 
616.07 31.50 2.36 
616.68 31.61 2.48 
617.60 31.65 2.38 
592.92 32.62 -1.02 
593.90 32.43 -1.83 
593.75 32.47 -1.11 
593.79 32.70 2.12 
595.51 32.83 2.09 
596.00 32.70 2.57 
596.08 32.28 3.38 
596.59 32.86 0.34 
596.58 32.71 2.20 
596.45 32.48 2.56 
596.78 32.36 3.32 
596.94 32.78 0.30 
597.45 32.69 2.02 
597.04 32.45 2.45 
597.02 32.43 3.14 
597.88 32.61 -0.73 
597.75 32.82 -0.18 
597.70 32.85 0.35 
597.60 32.52 2.21 
597.86 32.84 2.53 
597.57 32.77 2.96 
598.39 32.53 -0.73 
598.44 32.53 -0.17 
598.40 32.60 0.38 
598.50 32.61 2.39 
599.18 32.48 -0.59 
599.29 32.38 -0.09 
599.25 32.29 0.24 
599.00 32.25 2.19 
599.28 32.47 2.33 
600.08 32.38 -0.89 
599.90 32.49 -0.11 
599.96 32.46 0.16 
600.40 32.33 -0.82 
600.42 32.53 -0.32 
600.70 32.18 0.26 
600.76 32.28 3.54 
600.47 32.40 3.69 
601.13 32.32 -0.32 
601.02 32.84 0.17 
601.35 32.56 2.95 
601.10 32.19 2.93 
601.49 32.49 3.94 
602.06 32.42 -0.66 
601.92 32.30 -0.30 
602.20 32.74 1.64 
602.30 32.68 2.25 
602.13 32.53 3.38 
602.35 32.39 3.91 
602.79 32.25 -0.66 
602.74 32.51 -0.38 
602.88 32.34 2.79 
602.89 32.83 3.11 
603.30 32.62 -0.67 
603.11 32.72 -0.09 
603.25 32.84 0.41 
603.25 32.82 2.20 
603.40 32.31 2.29 
603.43 32.58 3.25 
603.76 32.33 3.76 
603.57 32.84 4.70 
604.23 32.54 2.30 
603.94 32.37 3.23 
604.08 32.52 3.71 
604.76 32.68 -0.43 
604.83 32.39 2.71 
604.80 32.58 3.24 
604.97 32.44 3.76 
604.95 32.72 4.38 
605.49 32.22 -0.70 
605.22 32.64 -0.40 
605.37 32.33 0.52 
605.56 32.55 2.22 
605.42 32.77 2.56 
605.36 32.31 3.11 
606.07 32.63 2.17 
606.53 32.43 2.38 
605.99 32.86 4.35 
606.71 32.76 2.67 
606.91 32.61 3.47 
607.47 32.35 2.31 
607.92 32.85 2.98 
608.45 32.52 2.84 
608.58 32.20 3.01 
609.06 32.22 2.70 
609.20 32.39 3.09 
610.46 32.32 2.88 
611.00 32.62 2.15 
611.33 32.52 3.57 
612.09 32.73 3.23 
612.77 32.42 2.03 
612.60 32.72 3.41 
613.25 32.18 2.17 
613.04 32.48 2.45 
613.23 32.35 3.40 
614.18 32.75 2.16 
614.00 32.45 2.83 
613.84 32.69 3.20 
614.72 32.81 1.80 
614.41 32.46 3.38 
614.67 32.32 3.80 
615.32 32.67 2.50 
615.42 32.56 2.93 
616.05 32.79 2.80 
615.72 32.35 3.25 
616.19 32.40 3.75 
616.47 32.70 2.80 
616.53 32.78 3.43 
616.79 32.37 4.01 
617.34 32.30 4.18 
592.69 33.34 -1.38 
593.32 33.21 -1.11 
593.48 33.45 2.00 
594.16 33.13 1.52 
594.46 33.25 2.48 
595.10 33.30 1.55 
595.75 33.55 -0.63 
595.79 33.22 2.13 
595.74 33.53 2.71 
595.42 32.96 3.29 
596.54 33.24 -0.96 
596.79 33.28 -0.01 
596.77 33.04 0.37 
596.19 33.47 1.55 
596.66 33.37 2.62 
596.22 33.24 3.34 
597.25 33.29 -0.95 
597.14 33.29 -0.22 
596.84 33.27 0.16 
597.41 33.52 2.09 
597.16 33.15 2.46 
597.16 33.15 3.25 
598.16 33.21 -1.05 
597.66 33.38 -0.05 
597.82 33.14 0.38 
597.58 33.33 2.40 
598.10 33.04 3.11 
597.92 33.23 3.77 
598.57 33.26 -0.75 
598.64 33.13 -0.26 
598.53 33.00 0.44 
598.89 33.23 0.84 
598.67 33.37 2.58 
598.88 33.22 3.10 
598.66 32.99 3.93 
599.27 33.08 -0.55 
599.30 33.29 -0.55 
599.33 33.31 0.24 
599.21 33.14 0.84 
599.43 32.95 2.72 
599.58 33.52 3.15 
600.17 33.25 -0.75 
600.23 33.10 0.04 
599.61 33.46 0.32 
600.28 33.51 3.67 
600.34 33.00 -0.28 
600.73 33.04 0.65 
600.69 33.23 2.99 
601.20 33.53 -0.25 
601.21 33.13 0.71 
601.23 33.48 3.01 
602.19 33.37 2.91 
602.03 33.30 3.54 
601.94 33.19 4.05 
603.03 33.28 1.10 
602.89 33.01 2.17 
602.63 33.50 2.89 
603.02 33.16 3.17 
603.76 32.89 -0.73 
603.70 33.44 -0.45 
603.31 33.35 0.50 
603.43 33.51 1.50 
603.10 33.22 1.68 
603.55 32.88 2.80 
603.40 33.16 3.32 
603.59 32.98 3.92 
603.87 33.25 -0.71 
604.22 33.08 -0.36 
604.39 33.52 1.43 
604.19 33.17 2.68 
603.85 33.35 3.32 
604.79 32.89 -0.41 
604.84 33.20 0.20 
604.83 33.46 0.98 
604.94 33.48 2.00 
604.83 33.17 2.87 
604.81 33.20 3.27 
605.15 33.16 3.84 
605.24 33.06 0.21 
605.26 33.22 1.39 
605.67 33.22 2.05 
605.32 33.29 2.56 
605.51 33.08 3.01 
605.39 33.49 3.89 
606.34 33.34 2.47 
606.42 33.12 3.73 
607.13 33.47 2.79 
607.18 33.36 3.21 
606.72 33.31 3.75 
607.54 33.49 2.78 
607.63 33.32 3.17 
607.40 33.56 3.77 
608.48 33.26 2.71 
608.39 33.44 3.26 
609.05 33.03 3.15 
608.99 33.30 3.63 
609.47 33.09 2.89 
610.44 33.48 -1.10 
611.25 32.88 2.13 
611.20 33.13 2.87 
612.17 33.29 3.27 
612.12 33.07 4.03 
612.46 33.47 2.86 
612.53 33.06 3.22 
613.07 33.19 2.64 
613.49 33.40 3.01 
614.24 33.24 2.08 
613.83 32.96 2.70 
613.75 33.12 3.34 
614.34 33.13 1.79 
614.65 33.18 3.01 
615.12 33.51 2.89 
615.22 33.03 3.45 
615.16 33.44 3.72 
616.00 33.28 2.74 
616.04 33.40 3.81 
616.73 33.26 2.95 
616.68 33.45 3.78 
593.29 33.98 1.03 
593.23 34.05 2.05 
594.00 33.90 1.21 
593.68 34.03 2.04 
594.60 33.73 -0.97 
594.66 33.80 1.86 
595.09 34.03 -0.67 
595.29 34.23 -0.30 
595.04 34.23 1.94 
595.88 33.80 -0.95 
595.94 33.95 -0.26 
595.91 34.05 0.13 
596.06 33.72 1.98 
595.61 34.26 2.73 
595.82 33.71 3.36 
596.40 33.92 -1.02 
596.52 34.09 -0.10 
596.55 33.95 0.45 
596.55 33.88 2.19 
596.65 34.03 2.65 
596.47 33.80 3.41 
597.12 33.75 -0.68 
597.16 33.95 -0.13 
597.00 33.73 0.20 
597.34 34.11 2.20 
597.17 33.98 2.62 
597.41 33.70 3.27 
598.04 33.83 -0.59 
598.06 33.71 -0.06 
597.95 33.74 0.47 
597.72 33.84 2.26 
598.53 33.80 -0.29 
598.23 33.76 0.21 
598.54 33.71 2.22 
598.80 33.87 2.58 
598.29 34.19 3.20 
599.42 34.11 -0.45 
599.38 33.58 2.64 
598.99 34.15 3.87 
600.11 34.11 3.55 
600.92 33.96 2.43 
600.62 34.21 3.05 
601.15 33.66 2.07 
601.49 33.98 3.14 
601.75 34.18 2.72 
602.03 34.01 3.58 
602.63 33.94 -0.39 
602.82 33.66 0.95 
602.87 33.62 1.58 
602.90 33.89 2.34 
602.75 33.68 3.04 
602.43 34.12 3.65 
603.16 33.90 -0.62 
603.66 33.88 0.09 
603.68 33.76 0.57 
603.71 33.88 1.16 
603.49 33.74 1.88 
603.54 33.92 2.88 
603.39 33.70 3.26 
603.87 33.72 0.54 
604.09 33.81 1.40 
604.17 33.82 2.04 
604.19 34.03 2.54 
604.12 33.93 2.84 
603.95 34.09 4.03 
604.92 33.67 1.43 
605.05 34.04 1.70 
604.56 34.03 2.55 
604.83 33.98 2.98 
605.21 34.22 2.03 
605.22 34.23 2.55 
605.49 34.19 3.26 
605.49 33.99 3.98 
606.47 33.66 2.62 
606.40 34.10 3.33 
606.43 34.06 3.79 
606.96 34.01 2.64 
606.99 33.77 3.23 
607.01 34.15 4.21 
607.94 33.51 2.77 
607.78 33.65 3.17 
608.34 34.16 2.14 
608.26 33.69 2.36 
608.70 33.77 3.27 
608.69 34.10 3.72 
609.29 34.21 2.19 
609.46 33.97 1.88 
610.05 33.89 2.24 
610.40 33.98 -1.11 
612.91 33.60 2.93 
613.15 33.91 2.99 
613.89 33.87 2.01 
614.25 33.73 2.40 
614.87 33.66 3.39 
615.06 34.14 2.91 
615.41 34.06 3.17 
615.61 33.93 3.83 
616.19 33.86 3.37 
615.96 34.17 3.63 
616.73 34.00 3.80 
593.19 34.78 2.07 
593.18 34.31 2.57 
593.69 34.87 -1.54 
593.83 34.91 -1.06 
593.90 34.89 -0.06 
593.79 34.77 1.97 
593.56 34.77 2.49 
594.23 34.69 -1.49 
594.44 34.59 -0.81 
594.61 34.65 0.00 
594.28 34.94 0.15 
594.68 34.50 1.48 
594.21 34.95 1.93 
594.94 34.46 -0.98 
595.07 34.47 -0.31 
594.93 34.39 0.36 
595.03 34.82 1.47 
595.18 34.64 1.92 
594.79 34.28 2.36 
596.00 34.57 -0.86 
595.90 34.55 -0.01 
595.98 34.62 0.14 
595.66 34.95 1.90 
595.61 34.26 2.73 
595.82 35.02 3.46 
596.39 34.63 -0.65 
596.45 34.58 -0.36 
596.46 34.54 0.73 
596.68 34.39 2.27 
597.48 34.45 -0.77 
597.34 34.51 -0.09 
597.36 34.57 0.30 
597.10 34.52 0.90 
597.21 34.63 2.49 
597.48 34.50 3.12 
597.70 34.27 -0.57 
597.67 34.59 0.18 
597.61 34.85 2.03 
597.65 34.47 2.31 
597.80 34.81 2.95 
598.36 34.58 0.14 
598.53 34.69 2.78 
598.77 34.57 3.38 
598.66 34.50 3.93 
599.38 34.95 2.74 
599.27 34.59 3.34 
598.99 34.63 3.95 
599.81 34.47 3.14 
600.46 34.31 3.56 
601.10 34.45 3.78 
602.15 34.90 1.32 
602.33 34.49 2.76 
602.27 34.50 3.18 
602.16 34.49 3.64 
602.83 34.42 -0.22 
602.70 34.66 1.39 
602.97 34.91 1.90 
602.83 34.69 2.37 
602.84 34.41 3.10 
602.76 34.43 3.68 
603.29 34.36 0.77 
603.45 34.39 1.07 
603.33 34.57 1.96 
603.31 34.63 2.56 
603.75 34.44 2.93 
603.82 34.29 -0.41 
604.49 34.30 1.50 
604.23 34.57 1.86 
604.14 34.57 2.41 
603.98 34.84 3.55 
604.86 34.37 2.11 
604.97 34.52 2.61 
604.98 34.46 3.09 
605.00 34.30 4.07 
605.40 34.64 1.27 
605.51 34.34 2.05 
605.36 34.55 2.61 
605.58 34.64 3.32 
606.02 34.45 2.57 
606.15 34.59 3.01 
606.27 34.46 3.94 
606.98 34.48 2.57 
607.07 34.51 3.15 
607.14 34.50 3.89 
606.63 34.78 4.40 
607.92 34.59 2.11 
607.62 34.36 2.59 
607.63 34.92 2.94 
607.73 34.29 3.81 
608.34 34.16 2.14 
608.61 34.38 2.55 
608.47 34.81 2.98 
608.69 34.90 4.02 
609.06 34.32 2.00 
609.05 34.83 2.91 
609.09 34.68 3.27 
609.73 34.73 2.89 
610.30 34.27 -0.72 
613.37 34.31 3.11 
614.17 34.71 2.02 
614.04 34.32 2.92 
614.54 34.28 1.86 
614.54 34.86 3.37 
615.45 34.45 3.35 
616.63 34.38 -0.90 
592.92 35.35 -0.81 
593.28 35.29 -0.37 
592.79 35.39 1.07 
593.09 35.46 1.60 
593.82 35.11 -1.28 
593.65 35.40 -0.75 
593.52 35.43 -0.37 
593.87 35.36 0.26 
593.64 35.13 1.20 
593.66 35.04 1.69 
593.52 35.20 2.50 
594.31 35.36 -1.59 
594.15 35.15 -0.95 
594.38 35.15 0.01 
594.37 35.28 0.20 
594.66 35.29 1.08 
594.35 35.40 2.02 
594.41 35.23 2.57 
594.89 35.25 -0.58 
595.03 35.21 -0.39 
595.08 35.45 0.79 
595.41 35.27 1.99 
595.31 35.14 2.83 
595.80 35.14 -0.49 
595.63 35.06 0.80 
595.55 35.40 0.96 
595.61 35.33 2.17 
595.85 35.06 2.26 
595.82 35.02 3.46 
596.30 35.41 -0.93 
596.18 35.31 -0.05 
596.77 35.31 0.60 
596.46 35.38 2.13 
596.46 35.05 2.76 
597.06 35.25 -0.32 
597.06 35.27 0.15 
597.19 35.33 2.04 
597.49 35.34 2.47 
596.93 35.33 3.56 
597.65 35.00 2.08 
597.72 35.06 2.45 
597.81 34.98 3.52 
598.87 35.00 -0.29 
598.51 35.16 2.77 
598.51 35.33 3.00 
599.43 35.03 1.73 
599.18 34.93 2.53 
599.26 35.13 3.37 
599.09 35.20 4.03 
600.26 35.18 2.75 
600.21 35.38 3.46 
600.36 35.03 2.93 
601.53 35.35 1.27 
602.23 35.47 0.10 
602.02 35.31 1.33 
602.12 35.27 1.83 
602.48 35.17 0.35 
602.54 34.84 1.19 
602.65 35.04 1.93 
603.24 35.05 3.55 
603.24 35.01 4.28 
603.98 35.33 2.88 
604.08 34.97 3.22 
604.02 35.28 4.25 
604.81 34.99 2.03 
604.72 35.03 2.58 
604.91 35.11 3.17 
605.17 35.03 3.66 
605.63 35.42 2.72 
605.84 35.25 3.93 
606.37 35.34 2.28 
606.46 35.11 2.97 
606.08 35.31 4.14 
607.05 35.17 2.64 
607.01 35.06 2.94 
606.92 35.23 4.27 
607.58 34.97 2.12 
607.78 34.97 2.65 
607.79 35.13 3.14 
608.19 35.43 2.52 
608.36 35.18 3.49 
609.23 34.97 2.18 
609.01 35.46 2.57 
609.01 35.40 3.06 
608.88 35.31 4.11 
609.59 34.99 2.63 
613.52 35.03 2.89 
614.13 35.05 1.93 
613.69 35.12 2.35 
614.49 35.13 2.61 
614.31 35.35 2.93 
615.25 35.07 3.39 
