# .PCD v0.7 - Point Cloud Data file format
VERSION 0.7
FIELDS x y z
SIZE 4 4 4
TYPE F F F
COUNT 1 1 1
WIDTH 1909
HEIGHT 1
VIEWPOINT 0 0 0 1 0 0 0
POINTS 1909
DATA ascii
592.95 35.76 -1.14 
592.86 35.57 -0.81 
593.24 35.79 -0.32 
592.92 35.85 1.11 
592.93 35.67 2.04 
593.46 35.53 -1.11 
593.82 36.10 -0.87 
593.69 35.61 -0.21 
593.88 35.97 0.91 
593.60 35.93 1.15 
593.62 35.59 2.58 
594.46 35.71 -1.08 
594.30 35.82 -0.68 
594.13 35.61 -0.18 
594.50 35.90 1.02 
594.37 35.97 1.50 
594.56 35.79 2.09 
594.33 35.90 2.67 
594.71 35.68 -1.12 
595.19 35.71 -0.62 
594.80 35.72 -0.31 
595.08 35.73 0.88 
595.06 35.92 1.41 
594.80 35.84 1.95 
595.01 35.87 3.02 
595.40 35.79 -0.60 
595.63 35.79 -0.30 
595.69 35.79 0.99 
595.92 35.73 1.87 
595.65 36.08 2.48 
595.58 36.02 3.33 
596.15 35.49 -1.10 
596.51 35.61 -0.19 
596.46 35.64 0.25 
596.79 35.82 0.90 
596.68 35.93 1.67 
596.56 35.77 2.04 
596.25 36.16 4.38 
597.45 35.77 1.03 
597.04 35.55 1.66 
597.08 35.92 2.18 
597.12 35.62 2.70 
598.01 36.05 0.90 
597.86 35.77 1.98 
597.95 35.75 2.56 
598.80 35.65 2.18 
598.37 35.52 2.49 
599.33 35.63 2.33 
599.06 35.49 2.89 
599.97 35.91 2.47 
600.68 35.85 2.40 
600.49 35.83 2.63 
601.56 35.51 1.76 
601.63 35.93 2.83 
601.92 35.97 0.92 
601.96 35.93 1.83 
602.51 35.51 0.56 
602.74 35.82 1.82 
603.10 35.61 3.10 
602.95 36.01 3.29 
603.46 36.02 2.81 
603.28 35.63 3.55 
603.57 36.06 4.99 
603.41 35.66 6.21 
603.92 35.85 3.08 
603.85 35.68 3.55 
603.91 36.16 5.38 
604.71 35.92 2.59 
605.02 36.14 3.71 
605.39 35.84 2.73 
605.58 35.89 3.64 
605.80 35.69 3.98 
606.52 35.75 2.78 
606.34 35.94 3.33 
606.84 35.58 2.92 
606.76 35.84 3.48 
607.13 35.68 4.26 
607.85 35.59 2.75 
607.81 35.99 3.60 
607.49 35.83 4.28 
608.48 35.49 3.09 
608.77 35.59 2.19 
608.92 35.56 3.00 
609.02 35.93 3.32 
608.74 35.69 4.14 
609.67 35.70 3.11 
610.01 35.47 3.20 
592.63 36.24 -1.10 
592.92 36.47 -0.63 
593.09 36.39 -0.31 
593.04 36.36 1.49 
593.03 36.46 2.95 
593.48 36.45 -1.14 
593.81 36.37 -0.71 
593.84 36.58 -0.29 
593.93 36.25 0.93 
593.63 36.60 1.57 
593.46 36.71 1.94 
593.35 36.87 2.97 
593.62 36.85 4.79 
593.79 36.31 5.30 
594.38 36.43 -0.66 
594.10 36.53 -0.20 
594.38 36.49 1.11 
594.35 36.42 1.36 
594.24 36.68 1.85 
594.37 36.73 3.91 
595.02 36.40 -0.96 
595.28 36.47 0.93 
595.16 36.49 1.51 
595.18 36.41 1.85 
594.87 36.79 2.70 
595.40 36.67 4.38 
595.56 36.73 0.97 
595.71 36.45 1.44 
595.93 36.51 1.95 
595.79 36.64 3.02 
595.91 36.27 4.49 
596.52 36.63 -1.16 
596.56 36.85 -0.94 
596.24 36.79 1.01 
596.42 36.75 1.51 
596.48 36.68 2.12 
596.84 36.79 -0.89 
596.99 36.83 1.04 
597.26 36.67 1.50 
597.05 36.50 2.30 
597.27 36.22 4.16 
598.13 36.52 1.83 
597.79 36.82 2.87 
598.22 36.77 0.75 
598.36 36.68 1.96 
598.63 36.47 2.62 
598.51 36.84 4.20 
599.31 36.69 0.27 
599.18 36.48 0.98 
599.42 36.88 1.20 
599.15 36.71 2.23 
599.22 36.43 3.15 
600.16 36.26 -0.98 
600.03 36.54 0.67 
599.64 36.73 1.24 
599.98 36.68 2.38 
599.77 36.35 2.73 
600.09 36.77 3.17 
600.70 36.76 1.66 
600.47 36.60 1.89 
600.38 36.72 2.62 
601.27 36.85 1.58 
601.49 36.37 2.35 
601.03 36.17 2.95 
601.30 36.72 3.24 
601.81 36.90 1.41 
601.71 36.51 2.44 
601.79 36.74 2.77 
602.54 36.59 2.41 
602.42 36.68 2.57 
603.20 36.44 2.41 
603.27 36.34 2.68 
603.51 36.30 3.57 
603.26 36.26 4.39 
603.28 36.20 6.38 
603.86 36.38 3.59 
603.91 36.16 5.38 
605.17 36.35 3.09 
604.74 36.22 3.89 
605.48 36.70 2.73 
605.77 36.39 3.39 
606.51 36.61 2.96 
606.11 36.52 3.41 
606.29 36.50 5.05 
606.79 36.78 3.44 
606.96 36.33 4.04 
607.57 36.19 2.49 
607.72 36.49 4.35 
608.40 36.83 3.01 
608.37 36.69 3.84 
609.76 36.79 -0.63 
610.34 36.33 -0.76 
593.28 37.04 -1.21 
593.13 37.18 -0.39 
592.79 37.02 0.31 
592.92 37.49 0.93 
592.96 37.27 1.55 
592.92 36.99 2.01 
592.77 37.47 2.99 
593.58 37.20 -1.18 
593.47 37.25 -0.28 
593.88 37.01 0.66 
593.94 37.08 1.28 
593.69 36.99 2.99 
593.96 37.39 4.25 
593.99 37.21 4.82 
594.17 37.06 -0.28 
594.27 37.35 1.03 
594.38 37.27 1.36 
594.44 37.00 1.91 
594.62 37.52 3.95 
594.54 37.43 5.45 
595.08 36.98 0.08 
595.22 37.21 1.58 
595.03 37.30 2.22 
594.87 37.36 2.69 
594.79 37.01 4.64 
596.07 37.38 -0.64 
596.08 37.48 0.33 
595.61 37.13 1.33 
595.96 36.97 2.03 
595.48 37.09 2.95 
595.78 36.95 3.24 
595.65 37.08 4.44 
596.68 37.15 -0.69 
596.49 37.16 0.02 
596.51 37.41 0.76 
596.53 37.17 1.34 
596.57 37.21 2.00 
596.22 37.38 2.69 
597.02 37.08 -0.93 
597.31 37.51 -0.25 
597.11 37.53 0.84 
597.05 37.41 1.28 
597.17 37.31 2.02 
596.88 37.37 2.80 
597.34 37.10 3.24 
597.97 37.32 0.77 
597.79 37.43 1.35 
597.83 36.93 2.13 
597.81 37.37 3.01 
597.67 37.39 3.88 
598.27 36.99 0.65 
598.75 37.26 1.46 
598.45 37.11 1.80 
598.34 37.13 2.56 
598.21 37.23 3.73 
598.33 37.38 4.50 
598.52 36.99 5.05 
598.93 36.97 0.83 
599.31 37.22 1.36 
599.32 37.07 1.96 
599.55 37.42 2.70 
599.19 37.39 3.18 
599.28 37.02 4.16 
600.03 37.17 1.48 
599.93 37.39 1.91 
599.75 37.18 2.52 
600.60 37.42 1.31 
600.46 37.23 1.76 
600.51 37.00 2.66 
601.11 37.15 1.37 
601.53 37.51 2.14 
601.62 37.49 2.72 
601.81 36.90 1.41 
601.78 37.39 2.45 
601.94 37.25 3.12 
601.80 37.36 3.27 
601.89 37.28 5.59 
602.47 36.91 2.29 
602.53 37.38 2.48 
602.54 36.93 3.82 
602.44 37.41 3.89 
603.10 37.08 6.47 
603.66 37.35 2.52 
603.26 36.91 3.59 
603.76 37.32 4.16 
604.03 37.51 3.08 
603.95 37.12 3.61 
603.98 37.33 4.47 
604.83 37.19 2.66 
605.67 36.95 4.54 
605.80 37.15 5.14 
606.16 37.36 2.91 
607.25 37.50 2.59 
607.05 37.52 5.67 
607.58 36.90 4.00 
608.42 37.12 3.86 
611.68 37.39 4.90 
617.42 36.90 -0.48 
592.99 38.13 -1.08 
592.88 38.10 1.16 
593.05 38.12 2.32 
593.46 37.78 0.98 
593.68 37.95 1.38 
593.71 37.93 1.80 
593.94 38.03 4.38 
594.34 37.63 0.88 
594.37 37.92 1.42 
594.39 38.12 2.13 
594.40 37.63 3.44 
594.32 38.23 4.16 
595.06 37.79 -1.20 
595.30 37.96 -0.79 
594.98 38.11 -0.22 
595.19 38.09 0.80 
594.95 37.71 1.21 
594.71 37.65 1.93 
595.21 37.84 2.50 
595.71 37.65 0.31 
595.70 37.83 0.88 
595.69 37.77 1.12 
595.49 37.61 1.87 
596.08 37.91 2.85 
596.48 38.03 0.77 
596.67 37.99 1.16 
596.70 37.94 1.82 
596.57 38.04 3.66 
597.11 37.53 0.84 
597.09 37.86 1.24 
597.04 37.73 2.19 
596.88 37.74 2.80 
597.50 37.63 3.26 
597.81 37.61 -0.74 
597.59 37.76 -0.18 
597.53 37.75 0.89 
597.83 37.88 1.19 
597.74 37.94 2.13 
597.88 38.01 2.96 
598.15 38.01 3.30 
597.94 37.59 4.50 
598.77 38.13 -0.95 
598.54 37.71 1.03 
598.62 37.64 1.57 
598.56 37.90 1.83 
598.57 37.81 2.59 
598.43 37.63 3.80 
599.48 38.11 1.39 
599.16 37.67 1.93 
599.10 37.83 2.47 
599.97 37.81 1.58 
599.89 38.04 1.83 
599.70 37.66 2.62 
599.69 37.65 3.43 
600.50 37.82 1.15 
600.93 37.88 2.42 
600.97 37.88 2.93 
601.37 38.05 2.28 
601.33 38.20 2.74 
601.84 37.71 2.11 
601.87 37.61 3.03 
602.19 38.19 3.81 
602.19 38.19 5.23 
602.72 37.75 2.28 
602.72 38.17 2.64 
602.53 38.22 4.16 
603.79 37.88 2.59 
603.12 37.75 5.48 
603.64 37.62 6.41 
604.11 38.12 2.85 
604.07 37.73 3.39 
604.04 38.23 7.23 
604.74 38.10 2.78 
604.70 37.90 3.43 
605.03 37.82 4.27 
604.59 38.10 6.22 
605.84 37.87 2.71 
606.23 37.73 2.96 
606.53 37.65 5.12 
606.27 38.01 5.88 
606.82 37.99 2.82 
606.66 37.63 3.80 
606.66 37.63 5.08 
607.51 37.69 4.09 
607.32 37.65 5.01 
607.76 37.93 5.60 
610.10 37.75 -1.19 
592.79 38.87 1.01 
593.03 38.40 1.23 
593.18 38.87 2.32 
592.67 38.82 3.09 
593.42 38.71 -0.83 
593.71 38.69 0.15 
593.91 38.27 1.04 
593.52 38.64 1.33 
593.90 38.95 2.91 
594.00 38.79 4.17 
594.19 38.35 -1.08 
594.12 38.58 -0.49 
594.69 38.86 0.11 
594.38 38.51 0.75 
594.08 38.66 1.11 
594.55 38.80 1.86 
594.42 38.94 4.24 
595.00 38.29 0.04 
594.92 38.56 0.96 
595.03 38.54 1.32 
596.05 38.72 1.61 
595.42 38.29 2.47 
596.10 38.47 4.34 
596.50 38.82 0.88 
596.15 38.71 1.53 
596.26 38.63 2.08 
596.49 38.95 2.70 
596.37 38.48 3.18 
596.58 38.32 4.20 
596.94 38.57 -0.70 
597.09 38.49 1.33 
597.31 38.76 1.72 
596.94 38.81 3.02 
596.92 38.88 3.75 
597.92 38.62 1.77 
597.92 38.62 1.77 
598.08 38.65 2.71 
597.57 38.84 3.29 
597.52 38.65 5.09 
598.73 38.86 -0.96 
598.59 38.63 1.53 
598.52 38.43 1.88 
598.53 38.66 2.57 
598.28 38.54 3.39 
599.26 38.30 1.35 
599.26 38.38 2.07 
599.08 38.45 2.83 
599.80 38.89 0.77 
599.91 38.72 1.46 
599.68 38.56 2.02 
599.65 38.28 2.55 
600.86 38.60 0.79 
600.71 39.01 1.37 
600.98 38.31 2.33 
600.92 38.31 2.75 
601.48 38.43 3.41 
602.42 38.80 2.36 
602.76 38.82 2.53 
602.50 38.57 3.28 
602.81 38.31 3.87 
603.16 38.36 2.66 
603.49 38.49 3.71 
603.31 38.43 4.83 
603.97 38.41 3.42 
604.15 38.40 4.35 
603.98 38.29 6.41 
604.32 38.76 6.83 
605.10 38.84 2.29 
605.00 38.44 2.89 
604.99 38.79 6.23 
605.08 38.65 7.08 
605.55 38.65 -1.20 
605.56 38.70 2.61 
605.77 38.72 3.36 
605.85 38.48 6.08 
606.02 38.61 2.43 
606.32 38.81 3.11 
607.06 38.41 5.81 
606.72 38.92 6.02 
607.21 38.52 6.73 
592.66 39.54 0.22 
593.24 39.03 1.28 
592.88 39.37 2.44 
592.97 39.40 2.92 
593.58 39.32 -0.82 
593.76 39.01 0.78 
593.86 39.45 1.29 
594.00 39.15 1.91 
593.78 39.59 2.95 
594.11 39.54 1.01 
594.23 39.18 1.52 
594.06 39.07 2.18 
594.93 39.59 0.88 
594.84 39.59 1.71 
595.01 38.98 2.38 
595.39 39.42 2.60 
595.46 39.05 1.05 
596.06 39.60 1.39 
595.82 39.02 1.88 
595.53 39.54 3.92 
596.12 38.97 1.02 
596.39 38.97 1.70 
596.47 39.48 2.60 
596.63 39.02 5.18 
596.78 39.00 5.35 
597.16 39.23 1.34 
597.36 39.39 2.08 
597.25 39.19 3.07 
597.92 39.24 1.55 
598.20 39.17 1.97 
597.85 39.00 2.82 
597.60 39.05 3.43 
598.69 39.60 -0.97 
598.67 39.22 0.95 
598.47 39.21 1.16 
598.54 39.38 2.20 
598.61 39.54 2.90 
598.81 39.14 3.55 
599.49 39.13 -0.75 
599.23 39.04 1.48 
599.12 39.42 3.12 
599.58 39.57 3.16 
600.09 39.64 0.91 
599.90 39.12 1.36 
599.89 39.66 2.19 
599.66 39.29 2.48 
600.46 39.08 0.81 
600.63 39.04 1.13 
600.83 39.48 2.19 
600.57 39.23 2.50 
600.45 39.20 4.12 
601.09 39.05 0.73 
601.29 39.40 2.18 
601.77 39.12 2.25 
602.07 39.46 5.71 
602.89 39.02 5.19 
602.44 39.41 5.67 
603.26 39.43 2.80 
603.61 39.24 3.50 
604.39 39.24 2.68 
604.14 39.14 3.22 
604.66 39.32 2.19 
604.65 39.57 2.76 
605.43 38.97 2.35 
605.27 39.19 2.50 
605.82 39.23 3.37 
606.41 39.14 5.90 
606.31 39.19 6.09 
606.00 39.58 6.71 
613.12 39.00 5.46 
592.84 40.16 1.01 
592.94 40.06 1.23 
592.74 39.97 2.42 
592.93 39.74 4.14 
593.37 39.78 0.88 
593.56 40.23 1.28 
593.32 39.74 2.04 
593.62 40.10 2.98 
593.55 40.11 3.99 
594.44 40.35 1.39 
594.52 39.70 2.17 
594.12 39.79 2.95 
594.89 40.11 1.37 
594.73 40.24 2.01 
595.31 39.67 2.67 
595.55 39.80 1.57 
595.55 39.96 1.98 
595.43 39.94 3.67 
595.57 40.02 4.33 
596.01 39.88 4.90 
596.79 40.04 1.58 
596.67 40.15 2.33 
596.50 39.90 3.84 
596.98 40.02 1.56 
597.36 40.07 2.18 
598.20 39.82 0.76 
597.80 39.91 1.49 
597.76 39.99 2.86 
598.91 40.09 0.62 
598.63 39.94 1.23 
598.38 39.88 1.88 
598.60 39.68 2.54 
598.86 40.32 3.77 
599.15 39.72 -1.27 
599.46 39.98 0.89 
599.23 39.92 1.50 
599.65 40.15 2.16 
599.15 39.72 2.55 
599.59 40.23 3.61 
599.99 39.91 -1.08 
599.73 40.19 0.68 
599.94 40.11 1.27 
599.86 40.19 1.97 
599.85 39.90 2.82 
599.95 40.32 3.63 
600.51 39.68 0.46 
600.89 40.00 1.94 
600.67 39.85 2.69 
600.69 39.70 3.65 
602.34 40.04 1.19 
602.16 40.21 2.48 
602.04 40.21 7.57 
602.56 39.88 3.24 
602.69 40.09 5.68 
603.69 39.77 3.75 
603.64 39.73 6.36 
604.06 39.73 2.97 
604.50 40.27 4.41 
604.06 39.79 6.12 
604.68 39.88 2.88 
605.12 40.10 6.31 
605.63 39.92 2.67 
605.50 40.04 6.29 
606.06 39.83 2.89 
606.48 40.13 5.23 
606.70 39.70 5.91 
612.47 39.93 5.61 
612.95 39.91 4.93 
616.40 39.85 -1.31 
616.16 40.29 -0.84 
616.48 39.69 -0.84 
592.94 40.86 0.95 
593.17 40.80 1.23 
592.94 40.49 2.45 
593.58 40.61 0.80 
593.50 40.75 1.23 
593.77 40.61 1.80 
594.43 40.38 0.60 
594.54 40.82 2.11 
594.68 40.95 3.19 
594.80 40.74 1.23 
595.03 40.91 2.43 
594.97 40.67 2.60 
595.73 40.74 1.59 
595.81 40.42 2.35 
595.94 40.64 2.65 
595.65 40.47 3.31 
596.56 40.51 1.61 
596.12 40.64 2.72 
597.18 40.74 1.69 
597.37 41.02 1.89 
597.52 40.83 1.63 
597.89 40.49 2.28 
598.37 40.49 -0.99 
598.68 40.62 1.65 
598.33 40.78 2.11 
598.29 40.44 3.15 
598.80 40.98 3.77 
599.43 40.67 1.82 
599.60 40.45 2.71 
599.16 40.50 3.82 
599.44 40.70 3.88 
599.98 40.84 1.75 
599.85 40.51 1.85 
600.66 40.77 2.44 
600.87 40.92 6.01 
601.06 40.40 1.71 
601.07 40.88 3.02 
601.56 40.67 3.42 
601.20 40.52 5.89 
601.92 40.39 3.91 
602.08 41.06 5.79 
602.73 40.57 -1.29 
602.48 40.67 6.56 
603.52 40.59 -1.27 
603.59 40.63 5.17 
603.12 40.70 6.62 
604.22 40.80 3.55 
604.22 40.91 4.32 
605.68 40.77 6.29 
605.92 40.64 5.43 
606.09 40.54 6.25 
606.90 41.06 6.47 
615.85 40.83 -0.45 
592.70 41.08 1.28 
593.12 41.30 1.88 
593.80 41.45 1.36 
593.63 41.74 1.90 
593.80 41.08 2.65 
594.64 41.63 1.48 
594.11 41.11 2.17 
594.09 41.49 3.01 
594.79 41.34 1.24 
595.08 41.26 2.01 
595.06 41.26 2.72 
595.74 41.32 1.64 
595.61 41.40 2.16 
596.48 41.52 1.42 
596.74 41.07 2.21 
596.60 41.26 3.29 
596.97 41.44 1.54 
597.49 41.35 1.94 
597.29 41.38 3.34 
597.97 41.45 -1.01 
598.14 41.08 2.24 
598.05 41.62 3.74 
598.74 41.30 1.73 
598.38 41.58 3.61 
599.54 41.20 1.65 
599.34 41.26 3.97 
601.32 41.20 5.91 
601.52 41.49 5.98 
602.04 41.10 3.92 
602.61 41.17 2.97 
602.58 41.73 3.92 
605.26 41.72 6.28 
606.38 41.60 6.21 
608.04 41.33 -0.73 
593.01 42.00 1.76 
593.93 41.86 1.38 
593.32 41.99 2.25 
594.58 42.46 1.58 
594.46 41.81 2.07 
594.43 42.46 2.48 
595.15 41.96 1.54 
595.31 42.23 1.78 
595.17 41.84 2.50 
595.88 42.14 1.58 
596.03 42.04 2.08 
595.89 41.82 3.17 
596.22 42.18 1.73 
596.70 42.33 2.20 
596.66 42.29 2.87 
596.87 41.83 1.04 
597.08 41.92 1.65 
598.03 42.19 -1.02 
597.73 41.89 2.57 
597.70 42.03 3.74 
598.33 41.77 1.40 
601.27 41.80 3.50 
601.57 42.22 5.85 
601.18 42.04 5.99 
604.16 42.10 6.87 
610.58 42.23 -0.71 
614.24 42.36 -0.85 
593.60 43.14 1.61 
593.57 43.14 3.36 
593.59 42.97 3.88 
594.19 42.80 1.39 
594.58 42.93 1.95 
594.95 42.83 1.49 
595.12 42.68 1.88 
595.85 42.82 1.57 
595.59 42.53 1.82 
595.83 42.66 3.32 
596.16 42.68 1.74 
597.81 43.00 -1.03 
601.32 42.66 -1.22 
601.89 43.05 -1.21 
604.24 42.56 6.48 
605.68 42.52 6.09 
593.00 43.59 1.73 
593.69 43.76 1.63 
593.43 43.39 1.82 
593.33 43.67 3.73 
594.20 43.51 1.60 
594.50 43.18 2.74 
594.40 43.76 3.68 
594.75 43.42 1.42 
594.93 43.22 1.99 
597.28 43.30 -0.70 
597.99 43.71 -1.04 
601.24 43.50 -1.24 
614.77 43.45 -0.84 
592.80 43.88 1.74 
593.18 44.15 1.85 
592.72 44.54 2.50 
593.52 44.03 1.56 
593.57 44.18 1.91 
593.81 43.94 3.51 
598.17 44.42 -1.05 
601.16 44.38 -1.25 
603.47 44.03 -1.28 
609.66 44.44 -0.71 
595.65 44.80 -0.71 
598.35 45.14 -1.05 
601.29 44.90 -1.21 
603.17 44.61 -1.28 
604.41 44.85 -1.20 
605.89 44.70 6.41 
598.53 45.87 -1.06 
612.92 45.87 -0.84 
616.65 45.75 -0.87 
616.62 45.34 7.22 
617.21 45.78 7.44 
598.72 46.60 -1.07 
601.00 46.20 -1.28 
602.92 46.14 -1.29 
612.64 46.63 -0.84 
616.47 46.41 -0.87 
616.58 46.50 6.54 
617.36 46.13 6.40 
598.47 46.86 -1.17 
609.25 47.11 -1.02 
616.29 47.09 -0.87 
616.29 47.09 -0.87 
616.75 47.28 6.51 
617.10 46.89 7.14 
617.33 47.29 6.20 
598.28 47.98 -1.19 
613.56 47.66 -0.96 
602.41 48.32 -0.62 
611.26 48.50 7.42 
611.61 48.72 6.67 
613.31 48.51 -0.96 
598.29 48.96 -1.20 
600.72 49.19 -1.32 
601.78 49.35 -0.62 
608.19 49.22 -0.68 
610.79 48.80 7.28 
610.64 48.81 7.84 
611.83 49.30 7.31 
613.05 49.40 -0.97 
599.35 50.09 -1.24 
607.89 49.72 -1.05 
610.66 49.63 7.80 
610.78 49.78 8.09 
611.27 49.67 7.21 
611.41 50.16 8.38 
611.98 50.09 7.25 
611.52 49.62 8.71 
612.95 49.59 -0.46 
597.88 50.38 -1.22 
611.36 50.53 7.18 
611.27 50.60 8.00 
611.45 50.98 8.35 
597.74 52.17 -0.37 
598.89 52.13 -1.23 
600.11 52.04 -1.15 
601.20 51.74 -1.35 
616.72 52.20 2.45 
616.71 52.22 3.25 
616.70 52.24 4.05 
616.68 52.25 4.86 
617.24 52.25 -0.58 
617.23 52.26 0.17 
617.41 51.91 2.43 
617.40 51.92 3.22 
617.39 51.94 4.01 
617.37 51.95 4.81 
593.50 52.95 -0.46 
598.07 52.89 -0.38 
600.32 52.87 -1.16 
601.37 52.64 -1.36 
615.30 52.81 2.50 
615.29 52.83 3.32 
615.27 52.85 4.14 
615.76 52.89 -0.60 
615.76 52.90 0.17 
615.75 52.91 0.95 
615.74 52.93 1.73 
616.02 52.51 2.48 
616.01 52.52 3.28 
615.72 52.96 4.07 
615.98 52.56 4.91 
616.52 52.54 -0.59 
616.51 52.55 0.17 
616.51 52.56 0.93 
616.50 52.57 1.70 
617.10 52.82 2.64 
616.49 52.59 3.23 
616.48 52.61 4.01 
616.47 52.62 4.78 
617.23 52.27 0.92 
617.22 52.29 1.67 
617.22 52.30 2.43 
617.14 52.96 2.59 
617.21 52.31 3.19 
617.20 52.32 3.95 
617.20 52.33 4.72 
600.07 53.02 -1.30 
601.50 53.60 -1.37 
611.91 53.15 -0.81 
614.21 53.51 -0.62 
614.20 53.52 0.18 
613.85 53.41 0.89 
613.83 53.43 1.72 
614.18 53.55 1.78 
614.17 53.56 2.58 
613.80 53.46 3.39 
613.78 53.48 4.23 
614.14 53.61 5.01 
614.64 53.06 -0.75 
614.99 53.21 0.18 
614.60 53.09 0.88 
614.59 53.11 1.70 
614.57 53.13 2.53 
614.96 53.26 3.33 
614.95 53.27 4.13 
614.94 53.29 4.93 
615.21 53.56 1.88 
615.18 53.57 2.66 
615.69 53.56 3.46 
615.11 53.62 4.24 
615.08 53.64 5.04 
616.37 52.98 -0.62 
616.30 53.63 -0.30 
616.29 53.65 0.50 
616.41 53.55 1.39 
616.40 53.57 2.19 
616.26 53.69 2.89 
616.26 53.71 3.69 
616.40 53.29 4.24 
615.74 53.38 5.01 
617.03 53.32 -0.29 
617.02 53.34 0.49 
617.01 53.35 1.27 
616.45 53.23 1.81 
617.00 53.38 2.85 
616.99 53.40 3.64 
616.98 53.41 4.44 
617.08 53.32 4.57 
617.38 53.58 -0.08 
617.59 53.24 0.60 
617.43 53.54 1.32 
617.32 53.63 2.08 
617.58 53.28 2.89 
617.12 52.98 3.39 
617.11 53.00 4.20 
617.57 53.32 5.20 
598.60 54.08 -1.24 
600.53 53.71 -1.17 
610.17 54.36 -0.83 
612.19 54.21 3.47 
612.17 54.23 4.33 
612.14 54.25 5.20 
612.29 54.11 -0.81 
612.55 54.19 0.18 
612.54 54.21 1.01 
612.52 54.22 1.83 
612.51 54.24 2.66 
612.50 54.25 3.50 
612.49 54.26 4.33 
612.48 54.28 5.18 
613.20 54.35 -0.54 
613.06 53.79 0.05 
613.38 53.87 0.99 
613.03 53.83 1.73 
613.37 53.88 1.80 
613.01 53.85 2.58 
613.35 53.91 3.44 
613.33 53.92 4.26 
613.33 53.93 5.09 
613.85 54.11 0.28 
613.81 54.13 1.08 
614.18 54.19 1.85 
614.16 54.21 2.68 
613.70 54.20 3.48 
614.11 54.25 4.37 
613.63 54.24 5.11 
614.80 54.32 -0.31 
614.79 54.34 0.51 
614.58 53.79 1.09 
614.55 53.81 1.87 
614.97 53.83 2.66 
614.48 53.85 3.46 
614.93 53.87 4.32 
614.85 54.25 4.74 
615.57 53.99 -0.30 
615.56 54.01 0.50 
615.55 54.02 1.31 
615.54 54.04 2.11 
615.64 53.90 3.03 
615.52 54.07 3.74 
615.63 53.92 3.86 
615.51 54.09 4.56 
615.96 54.36 -0.14 
616.32 54.19 1.33 
616.27 53.67 2.09 
616.26 53.69 2.89 
616.40 54.17 3.46 
616.25 53.72 4.50 
616.98 54.32 -0.69 
616.77 54.44 -0.12 
616.76 54.35 0.62 
616.75 54.36 1.33 
616.88 54.14 2.45 
616.75 54.30 2.62 
616.88 54.23 3.34 
616.82 54.24 4.04 
616.72 53.99 5.02 
617.38 53.77 -1.06 
617.18 54.01 -0.66 
617.39 54.15 -0.13 
617.43 54.14 0.66 
617.46 54.13 1.46 
617.26 54.01 1.90 
617.23 54.10 2.75 
617.30 54.01 3.37 
617.32 54.01 4.11 
617.48 53.97 4.77 
595.50 54.65 -1.36 
598.96 54.87 -1.25 
600.65 54.55 -1.18 
601.76 54.45 -1.38 
605.39 54.91 -0.75 
610.79 54.90 -0.67 
610.77 54.91 0.18 
610.76 54.93 1.04 
610.74 54.94 1.89 
610.73 54.96 2.75 
610.71 54.98 3.62 
610.70 54.99 4.49 
610.69 55.01 5.36 
611.69 54.53 -0.66 
611.68 54.55 0.18 
611.70 54.96 1.04 
611.66 54.98 1.86 
611.64 54.59 2.71 
611.57 55.03 3.52 
611.53 55.06 4.36 
611.60 54.64 5.27 
612.50 54.62 -0.57 
612.38 54.70 1.87 
612.34 54.72 2.68 
612.30 54.75 3.51 
612.26 54.77 4.33 
613.19 55.01 -0.33 
613.17 55.03 0.52 
613.16 55.04 1.36 
613.32 54.91 2.29 
613.30 54.93 3.15 
613.01 54.47 3.49 
612.97 54.49 4.31 
613.27 54.97 4.87 
614.00 54.66 -0.32 
613.99 54.67 0.51 
613.98 54.69 1.34 
613.97 54.71 2.17 
613.95 54.73 3.01 
613.94 54.75 3.85 
614.09 54.61 3.95 
613.93 54.77 4.69 
614.88 54.81 -1.12 
614.89 54.50 -0.87 
614.87 54.83 -0.32 
614.86 54.84 0.48 
614.85 54.86 1.29 
614.76 54.37 2.14 
614.75 54.39 2.97 
614.82 54.90 3.72 
614.81 54.92 4.53 
614.73 54.42 4.62 
615.66 54.94 -1.43 
615.30 54.93 -0.98 
615.58 54.84 -0.19 
615.39 54.94 0.59 
615.39 54.95 1.37 
615.41 54.97 2.43 
615.38 54.97 2.95 
615.42 54.84 3.32 
615.42 54.86 4.13 
615.41 54.88 4.94 
615.36 55.01 5.34 
616.21 54.65 -1.16 
616.14 54.88 -0.78 
616.10 54.90 -0.04 
616.19 54.77 0.67 
616.22 54.76 1.45 
616.01 54.96 2.21 
616.18 54.76 2.61 
615.89 54.76 3.32 
616.23 54.69 4.18 
616.26 54.68 4.52 
616.60 54.89 -1.44 
616.71 54.62 -0.60 
616.75 54.63 -0.05 
616.82 54.72 0.63 
616.58 54.63 1.48 
616.55 54.65 2.23 
616.94 54.67 2.63 
616.69 54.78 3.68 
616.95 54.52 3.89 
616.88 54.97 4.56 
617.60 54.42 0.14 
617.60 54.53 0.70 
617.57 54.55 1.46 
617.54 54.57 2.22 
617.52 54.59 2.99 
617.22 54.55 3.70 
617.41 54.58 4.03 
617.37 54.62 4.82 
599.32 55.68 -1.25 
601.16 55.14 -1.18 
605.35 55.20 -0.70 
608.92 55.58 -0.70 
608.91 55.60 0.18 
608.89 55.62 1.07 
608.87 55.63 1.96 
608.85 55.65 2.85 
608.84 55.67 3.74 
608.82 55.68 4.64 
609.89 55.19 -0.69 
609.88 55.21 0.18 
609.86 55.22 1.05 
609.84 55.24 1.92 
609.83 55.26 2.80 
609.81 55.28 3.67 
610.02 55.66 4.41 
609.80 55.29 4.56 
610.31 55.49 -0.67 
610.26 55.51 0.17 
610.22 55.54 1.01 
610.17 55.57 1.85 
610.12 55.60 2.70 
610.79 55.35 4.38 
611.06 55.19 -0.63 
611.01 55.22 0.20 
610.97 55.25 1.03 
610.92 55.27 1.86 
610.88 55.30 2.70 
610.83 55.32 3.54 
611.66 55.60 1.48 
611.64 55.63 2.35 
611.62 55.65 3.23 
611.59 55.67 4.12 
611.57 55.70 5.01 
612.34 55.37 -0.33 
612.32 55.39 0.52 
612.31 55.41 1.38 
612.50 55.26 2.32 
612.28 55.45 3.10 
612.47 55.28 3.19 
612.45 55.31 4.06 
612.43 55.33 4.94 
613.44 55.74 -1.02 
613.44 55.75 -0.20 
613.43 55.76 0.62 
613.60 55.56 2.62 
613.59 55.57 3.46 
613.11 55.10 3.91 
613.10 55.12 4.76 
614.25 55.73 -1.16 
613.96 55.50 -0.93 
614.13 55.67 -0.21 
614.17 55.69 0.44 
614.11 55.69 1.20 
614.19 55.69 1.87 
614.09 55.71 2.61 
613.95 55.20 3.78 
614.29 55.66 3.99 
614.26 55.74 4.64 
614.67 55.56 -1.21 
614.71 55.56 -0.65 
614.74 55.47 0.24 
614.75 55.56 0.84 
614.77 55.55 1.58 
614.62 55.66 2.25 
614.70 55.42 2.59 
614.76 55.69 3.42 
614.69 55.74 4.28 
614.70 55.63 4.62 
614.76 55.68 5.27 
615.30 55.09 -1.13 
615.23 55.27 -0.49 
615.48 55.32 -0.25 
615.29 55.24 0.84 
615.31 55.23 1.59 
615.08 55.35 1.86 
615.38 55.40 2.93 
615.20 55.46 3.67 
615.17 55.46 3.89 
615.39 55.22 4.64 
615.72 55.29 -1.33 
615.86 55.28 -0.62 
615.86 55.10 -0.04 
615.90 55.21 0.50 
616.02 55.24 1.49 
616.14 55.54 2.16 
615.95 55.20 2.59 
616.13 55.19 3.66 
615.99 55.10 4.16 
616.18 55.16 4.75 
616.50 55.15 -0.88 
616.47 55.17 -0.11 
616.82 55.36 0.47 
616.79 55.38 1.26 
616.76 55.41 2.05 
616.50 55.75 2.73 
616.82 55.75 3.30 
617.08 55.43 4.34 
616.72 55.22 4.69 
617.24 55.27 -0.47 
617.22 55.30 0.33 
617.15 55.50 0.86 
617.19 55.32 1.12 
617.16 55.35 1.92 
617.35 55.07 2.85 
617.32 55.10 3.64 
617.58 55.38 4.29 
617.47 55.37 5.00 
606.87 56.41 -0.74 
606.85 56.43 0.18 
606.98 56.36 0.92 
606.83 56.45 1.10 
606.91 56.41 2.80 
606.88 56.44 3.74 
607.98 56.36 -0.78 
607.92 56.39 0.09 
607.86 56.42 0.96 
607.88 56.02 1.08 
607.81 56.45 1.84 
607.84 56.08 2.77 
607.81 56.11 3.70 
607.80 56.10 4.73 
608.67 56.10 0.98 
608.62 56.13 1.84 
608.57 56.16 2.71 
608.51 56.19 3.58 
608.46 56.22 4.46 
608.78 56.04 -0.74 
608.73 56.07 0.12 
609.15 56.23 1.94 
609.11 56.26 2.86 
609.08 56.28 3.78 
609.24 55.97 4.44 
609.04 56.31 4.70 
609.55 55.79 -0.70 
609.50 55.82 0.15 
609.45 55.85 1.00 
609.85 56.39 2.42 
610.02 55.89 2.83 
609.98 55.91 3.73 
609.79 56.44 4.24 
609.77 56.46 5.16 
610.56 56.14 -0.35 
610.53 56.18 1.42 
610.51 56.20 2.31 
610.49 56.22 3.20 
610.71 56.05 4.18 
610.69 56.07 5.08 
611.45 55.77 0.53 
611.43 55.78 1.40 
611.42 55.81 2.27 
611.40 55.83 3.15 
611.38 55.85 4.03 
611.36 55.86 4.92 
611.60 56.36 -0.73 
611.59 56.38 0.14 
611.58 56.40 1.01 
611.57 56.42 1.88 
611.56 56.44 2.75 
611.55 56.46 3.62 
612.64 55.92 -0.71 
612.32 56.29 -0.20 
612.32 56.31 0.64 
612.37 56.46 1.21 
612.78 56.46 1.83 
612.60 55.99 2.68 
612.60 56.56 3.31 
612.59 56.02 4.40 
612.28 56.37 4.89 
613.15 56.34 -1.28 
613.16 56.21 -0.93 
613.23 56.34 -0.08 
613.39 56.39 0.49 
613.27 56.33 1.43 
613.25 56.34 1.99 
613.45 56.29 3.00 
613.24 56.44 3.64 
613.41 56.28 4.39 
613.08 56.31 4.76 
613.68 56.17 -1.13 
613.81 55.99 -0.83 
613.80 56.04 -0.08 
613.97 56.00 0.70 
613.99 55.99 1.47 
614.02 55.92 1.84 
614.10 56.10 2.65 
614.06 56.14 3.50 
614.01 56.17 4.35 
614.10 55.96 4.59 
614.19 56.01 5.28 
614.71 55.82 -1.52 
614.76 55.88 -0.64 
614.46 55.84 -0.12 
614.61 55.78 0.71 
614.38 55.89 1.41 
614.34 55.91 2.17 
614.49 55.81 2.88 
614.53 55.80 3.70 
614.57 55.78 3.87 
614.44 56.41 4.63 
615.23 56.14 -1.31 
615.59 56.06 -0.38 
615.27 55.90 -0.15 
615.24 55.92 0.63 
615.20 55.95 1.42 
615.48 56.15 2.05 
615.38 55.99 3.02 
615.41 56.20 3.68 
615.34 56.02 3.88 
615.06 56.05 4.61 
615.94 56.06 0.30 
616.20 56.10 0.70 
615.91 56.09 1.11 
615.88 56.12 1.92 
616.09 55.80 2.86 
615.81 56.17 3.56 
616.16 56.08 4.43 
615.98 56.26 5.09 
616.09 56.13 5.30 
616.58 56.40 0.06 
616.47 55.78 3.55 
616.69 56.04 4.33 
616.74 55.81 5.04 
617.12 56.06 3.27 
599.69 56.50 -1.25 
605.78 56.85 -0.76 
605.75 56.87 0.18 
605.73 56.89 1.12 
605.71 56.91 2.07 
605.69 56.93 3.02 
605.88 56.88 3.80 
605.66 56.95 3.97 
605.84 56.91 4.77 
606.30 57.01 -0.86 
606.24 57.05 0.03 
606.18 57.08 0.92 
606.11 57.12 1.82 
605.92 56.85 2.83 
607.15 56.68 -0.82 
607.09 56.71 0.06 
607.03 56.75 0.94 
606.97 56.78 1.83 
606.91 56.81 2.72 
606.85 56.84 3.62 
606.76 56.51 3.89 
606.74 56.53 4.83 
607.32 56.89 1.04 
607.75 56.48 2.71 
607.69 56.51 3.60 
607.63 56.55 4.49 
608.70 56.87 -0.38 
608.32 56.48 0.11 
608.63 56.94 2.38 
608.21 56.56 2.89 
608.61 56.96 3.30 
608.58 56.99 4.23 
608.13 56.61 4.76 
609.59 56.76 -1.08 
609.57 56.78 -0.18 
609.56 56.79 0.72 
609.55 56.81 1.62 
609.60 56.52 2.34 
609.53 56.83 2.53 
609.52 56.86 3.44 
609.50 56.88 4.35 
609.54 56.58 5.07 
609.49 56.90 5.27 
610.51 56.83 -0.74 
610.50 56.85 0.15 
610.49 56.87 1.03 
610.48 56.89 1.92 
610.47 56.91 2.82 
610.46 56.93 3.71 
610.44 56.95 4.62 
611.18 57.09 0.13 
611.20 56.78 0.66 
611.29 57.08 1.18 
611.19 56.81 2.39 
611.21 57.16 3.44 
611.17 56.85 5.02 
612.07 57.13 -1.22 
611.85 56.96 -0.97 
611.97 57.16 -0.22 
612.01 57.15 0.69 
612.07 57.10 1.30 
611.87 56.99 1.84 
612.07 56.90 2.70 
612.00 57.10 3.60 
611.93 57.00 4.53 
611.94 56.94 4.54 
612.55 56.70 -1.17 
612.53 56.73 -0.63 
612.55 56.73 0.10 
612.71 56.75 0.49 
612.66 56.87 1.34 
612.55 56.79 2.03 
612.67 56.78 2.65 
612.62 56.77 3.62 
612.70 56.82 4.49 
612.76 56.54 4.59 
612.43 57.01 5.29 
613.60 57.16 -0.46 
612.98 56.66 -0.32 
613.03 56.64 0.61 
613.24 56.54 1.36 
612.97 56.61 2.06 
612.95 56.67 2.54 
612.99 56.76 3.45 
613.05 56.64 4.40 
613.04 56.74 4.45 
613.03 56.67 5.29 
614.28 56.82 -0.43 
614.03 56.61 -0.20 
614.03 56.76 0.41 
614.20 56.88 1.22 
613.94 56.83 2.16 
613.88 56.72 3.01 
614.08 56.98 3.71 
613.84 56.90 3.93 
613.80 56.79 4.65 
614.61 56.80 0.26 
614.90 56.47 0.41 
614.87 56.50 1.23 
614.83 56.70 1.91 
614.79 56.55 2.87 
614.46 56.93 3.60 
614.43 56.96 4.45 
614.55 56.50 4.79 
614.54 56.89 5.49 
615.25 56.48 1.10 
615.21 56.52 1.93 
615.18 56.54 2.75 
615.14 56.57 3.59 
615.11 56.61 4.42 
615.21 56.72 5.13 
616.25 56.58 3.39 
616.42 56.49 1.71 
600.05 57.35 -1.26 
603.44 57.78 -0.81 
603.42 57.80 0.18 
603.39 57.82 1.16 
603.37 57.84 2.15 
603.77 57.79 3.92 
603.73 57.82 4.92 
604.46 57.74 -0.04 
604.39 57.78 0.88 
603.86 57.72 1.92 
604.25 57.85 2.74 
604.51 57.41 4.05 
604.49 57.43 5.03 
604.63 57.31 -0.78 
604.61 57.33 0.18 
604.59 57.35 1.14 
604.92 57.26 1.90 
604.89 57.29 2.87 
605.10 57.53 3.66 
605.10 57.53 3.66 
605.03 57.57 4.59 
605.43 57.35 -0.91 
605.36 57.39 0.00 
605.30 57.43 0.90 
605.23 57.46 1.82 
605.21 57.77 2.99 
606.37 57.27 0.09 
606.33 57.30 1.04 
606.60 57.79 1.50 
606.57 57.82 2.46 
606.20 57.38 3.92 
605.92 57.22 4.55 
606.16 57.42 4.90 
607.30 57.83 2.65 
607.28 57.85 3.60 
607.36 57.75 -1.13 
607.34 57.77 -0.19 
607.33 57.79 0.76 
607.31 57.81 1.70 
607.62 57.37 2.42 
607.59 57.40 3.36 
607.57 57.42 4.30 
607.55 57.44 5.26 
608.50 57.24 -1.10 
608.35 57.44 -1.04 
608.08 57.62 -0.26 
608.47 57.28 0.74 
608.45 57.30 1.66 
608.44 57.32 2.59 
608.42 57.34 3.52 
608.41 57.37 4.45 
608.39 57.39 5.39 
608.80 57.78 -1.13 
609.37 57.32 -0.76 
609.36 57.34 0.15 
608.78 57.81 0.70 
609.35 57.36 1.06 
609.33 57.38 1.97 
609.32 57.40 2.89 
609.31 57.42 3.81 
609.30 57.44 4.73 
610.04 57.25 -1.10 
609.89 57.67 -0.77 
609.86 57.70 0.13 
610.03 57.28 0.68 
610.02 57.29 1.57 
609.80 57.76 1.94 
610.01 57.31 2.46 
610.11 57.74 4.27 
610.06 57.78 5.07 
610.55 57.66 -1.17 
610.60 57.72 -0.54 
610.73 57.50 -0.02 
610.69 57.77 0.48 
610.53 57.82 1.41 
610.61 57.82 2.19 
610.49 57.67 2.78 
610.49 57.85 3.71 
610.52 57.96 4.30 
610.54 57.74 4.77 
611.11 57.61 -1.10 
611.09 57.54 -0.78 
611.10 57.54 -0.04 
611.19 57.57 0.68 
611.24 57.56 1.58 
611.16 57.52 2.20 
611.11 57.53 2.89 
611.23 57.59 3.47 
611.22 57.51 4.46 
611.23 57.73 5.31 
611.84 57.08 -1.18 
611.58 57.36 -0.71 
611.83 57.27 0.01 
611.82 57.28 0.49 
611.87 57.26 1.45 
611.65 57.34 2.26 
611.74 57.22 2.96 
611.75 57.46 3.38 
611.89 57.35 4.50 
611.84 57.38 5.30 
612.74 57.36 -0.26 
612.70 57.39 0.55 
612.82 57.63 1.19 
612.61 57.46 2.20 
612.57 57.48 3.02 
612.52 57.52 3.85 
612.48 57.55 4.69 
613.21 57.64 0.22 
613.56 57.19 0.37 
613.52 57.23 1.20 
613.16 57.28 2.16 
613.11 57.56 2.88 
613.05 57.77 3.64 
613.21 57.36 4.49 
613.29 57.71 4.66 
613.21 57.76 5.60 
613.68 57.46 0.08 
613.88 57.25 1.08 
613.84 57.28 1.93 
613.80 57.31 2.77 
613.76 57.34 3.62 
613.73 57.38 4.48 
614.37 57.46 1.76 
614.41 57.19 5.18 
600.26 58.44 -1.27 
602.20 58.27 -0.83 
602.17 58.30 0.17 
602.14 58.32 1.18 
602.12 58.34 2.20 
602.09 58.36 3.21 
602.06 58.39 4.24 
602.03 58.41 5.26 
602.65 58.43 -1.07 
602.57 58.47 -0.12 
602.79 58.17 0.93 
602.75 58.20 1.94 
602.70 58.23 2.96 
602.66 58.27 3.98 
602.61 58.30 5.01 
603.61 58.06 -1.01 
603.53 58.10 -0.08 
603.46 58.14 0.86 
603.38 58.18 1.80 
603.34 57.87 3.15 
603.23 58.26 3.70 
603.31 57.89 4.14 
603.28 57.91 5.15 
604.28 58.11 0.06 
604.19 58.17 2.04 
604.14 58.20 3.03 
604.18 57.89 3.68 
604.09 58.24 4.04 
604.11 57.93 4.62 
604.81 58.46 2.59 
604.77 58.49 3.59 
604.74 58.53 4.59 
605.45 58.31 3.48 
605.42 58.34 4.47 
606.17 58.27 -1.15 
606.15 58.30 -0.19 
606.14 58.32 0.77 
606.12 58.34 1.74 
606.10 58.36 2.71 
606.08 58.38 3.69 
606.51 57.87 4.38 
606.06 58.41 4.67 
606.91 58.36 -0.79 
606.90 58.38 0.17 
606.89 58.41 1.12 
606.87 58.43 2.09 
606.86 58.45 3.05 
606.84 58.47 4.02 
606.83 58.50 4.99 
607.48 58.35 -1.16 
607.48 58.36 -0.22 
607.47 58.38 0.72 
607.46 58.39 1.66 
607.45 58.41 2.61 
607.44 58.42 3.55 
607.43 58.44 4.50 
607.43 58.45 5.46 
608.48 58.32 -0.80 
608.45 58.39 -0.27 
608.15 57.87 1.09 
608.39 58.41 2.00 
608.12 57.91 2.97 
608.69 58.56 3.86 
608.09 57.96 4.86 
609.05 58.51 -1.22 
609.25 58.42 -0.45 
609.04 58.32 -0.05 
609.10 58.55 0.87 
609.10 58.55 1.58 
609.03 58.36 1.88 
608.99 58.39 2.65 
609.24 58.47 4.50 
608.75 57.88 5.30 
609.74 58.14 -1.14 
609.95 58.22 -0.69 
609.96 58.21 0.04 
609.70 58.38 0.59 
609.75 58.36 1.47 
609.74 58.31 1.93 
609.76 58.30 2.73 
609.79 58.29 3.54 
609.80 58.35 4.26 
609.81 58.23 4.78 
609.97 58.45 5.33 
610.42 57.99 -1.18 
610.43 58.14 -0.68 
610.36 58.01 -0.20 
610.40 57.99 0.68 
610.44 57.98 1.56 
610.34 57.95 2.29 
610.33 57.96 3.00 
610.48 57.98 3.44 
610.52 57.96 4.30 
610.61 58.09 5.32 
611.45 58.06 -1.16 
611.47 58.39 -0.57 
611.42 58.43 0.29 
611.35 58.12 0.50 
611.30 58.16 1.34 
611.26 58.19 2.18 
611.48 58.34 3.08 
611.21 58.52 3.95 
611.11 58.30 4.73 
610.98 58.41 5.66 
611.79 58.47 -0.69 
611.74 58.51 0.18 
611.70 58.55 1.05 
612.11 58.04 1.17 
612.06 58.08 2.03 
612.01 58.11 2.89 
611.96 58.15 3.76 
611.85 57.91 3.87 
611.80 57.95 4.71 
612.29 58.45 -0.04 
612.44 58.10 1.06 
612.40 58.14 1.93 
612.36 58.17 2.79 
612.31 58.21 3.67 
612.27 58.25 4.54 
612.60 58.35 5.30 
613.04 57.93 -0.08 
600.06 59.26 3.12 
600.55 59.10 -1.16 
600.86 58.90 -0.87 
600.82 58.92 0.17 
600.80 58.94 1.20 
600.76 58.97 2.24 
600.35 59.24 3.05 
600.73 58.99 3.29 
600.70 59.02 4.34 
600.67 59.05 5.39 
601.69 58.63 -0.09 
601.46 58.98 0.81 
601.38 59.03 1.79 
601.30 59.07 2.77 
601.21 59.11 3.75 
601.50 58.76 4.05 
601.45 58.80 5.09 
601.98 59.04 1.05 
602.34 58.59 2.75 
602.26 58.64 3.72 
601.81 59.15 4.16 
601.75 59.19 5.21 
603.03 58.65 3.08 
602.97 58.69 4.10 
602.92 58.72 5.13 
603.13 58.59 1.05 
603.68 58.94 2.64 
603.64 58.97 3.65 
603.60 59.01 4.68 
604.34 58.77 2.55 
604.31 58.80 3.55 
604.28 58.83 4.56 
604.83 58.95 -1.20 
604.81 58.98 -0.20 
604.79 59.00 0.79 
604.76 59.02 1.79 
604.91 58.70 2.78 
604.72 59.07 3.79 
604.70 59.10 4.79 
606.09 58.94 -1.19 
606.08 58.96 -0.22 
606.07 58.98 0.75 
606.06 58.99 1.72 
606.05 59.01 2.69 
606.04 59.02 3.66 
606.03 59.04 4.64 
607.30 59.15 -1.08 
606.97 59.02 -0.84 
606.94 59.05 0.13 
606.91 59.08 1.10 
606.81 59.17 4.02 
606.78 59.20 5.00 
607.78 59.21 -1.16 
607.60 59.35 -0.54 
607.92 59.20 0.09 
607.88 59.28 0.49 
607.90 58.99 1.08 
607.86 59.03 1.86 
607.89 59.29 2.67 
607.88 59.28 3.52 
607.90 59.22 4.53 
607.93 59.22 4.65 
608.27 58.94 -1.16 
608.42 58.91 -0.76 
608.43 58.91 -0.04 
608.39 59.05 0.77 
608.26 59.07 1.27 
608.42 59.05 2.21 
608.36 59.06 2.75 
608.51 58.97 3.49 
608.41 59.05 4.37 
608.20 59.01 4.95 
608.91 58.84 -1.14 
608.91 58.67 -0.76 
608.92 58.67 -0.04 
608.99 58.81 0.59 
608.95 58.67 1.40 
609.02 58.75 1.97 
609.05 58.74 2.78 
609.08 58.67 3.50 
609.08 58.72 4.22 
608.74 58.75 4.66 
609.33 58.82 5.34 
609.43 58.59 -0.67 
609.47 58.57 0.27 
609.56 58.68 2.03 
609.45 58.75 3.67 
610.54 58.69 -0.80 
610.75 58.76 1.23 
610.63 58.84 3.10 
610.78 59.12 3.71 
610.57 58.89 4.04 
610.50 58.94 4.99 
610.98 58.96 0.16 
610.93 59.00 1.04 
610.88 59.04 1.93 
610.83 59.07 2.82 
611.22 58.58 3.77 
611.17 58.62 4.66 
612.06 58.64 -0.33 
611.65 58.58 1.93 
611.60 58.62 2.81 
611.56 58.66 3.69 
611.77 58.84 4.39 
611.72 58.88 5.35 
599.31 59.63 -1.20 
599.48 59.45 -0.90 
599.44 59.47 0.16 
599.36 59.81 0.76 
599.41 59.50 1.23 
599.37 59.52 2.30 
599.09 59.77 3.10 
599.34 59.55 3.37 
599.03 59.81 4.19 
598.98 59.85 5.28 
600.25 59.47 2.78 
600.16 59.52 3.78 
600.29 59.28 4.12 
600.07 59.57 4.79 
600.60 59.30 -1.18 
600.52 59.34 -0.20 
600.43 59.39 0.79 
600.73 59.55 2.10 
600.61 59.63 4.23 
600.54 59.67 5.30 
601.31 59.92 1.67 
601.27 59.96 2.73 
602.41 59.51 4.76 
602.50 59.44 2.68 
602.45 59.47 3.72 
603.48 59.57 -0.21 
603.45 59.60 0.81 
603.80 59.44 1.61 
603.43 59.62 1.83 
603.78 59.47 2.62 
603.75 59.49 3.64 
603.38 59.67 3.89 
603.73 59.52 4.67 
603.85 59.40 -0.42 
603.83 59.42 0.59 
604.60 59.58 -1.23 
604.59 59.60 -0.23 
604.58 59.62 0.77 
604.57 59.63 1.77 
604.56 59.65 2.78 
604.56 59.67 3.78 
605.19 59.93 4.16 
604.54 59.68 4.79 
605.36 59.77 -0.87 
605.29 59.84 1.13 
605.25 59.87 2.14 
606.23 59.91 -1.36 
606.33 60.06 -0.72 
606.40 60.00 -0.04 
606.60 59.72 0.98 
606.54 59.76 1.80 
606.57 59.79 3.42 
606.53 59.81 4.11 
606.99 59.76 -1.21 
606.90 59.73 -0.75 
606.93 59.74 0.08 
606.86 59.79 0.70 
606.87 59.78 1.42 
606.88 59.78 2.13 
606.89 59.79 2.86 
606.90 59.79 3.59 
607.04 59.79 4.11 
607.04 59.85 4.81 
607.41 59.46 -1.32 
607.41 59.46 -0.62 
607.55 59.50 0.05 
607.69 59.43 0.68 
607.70 59.42 1.41 
607.69 59.38 2.03 
607.71 59.37 2.80 
607.75 59.42 3.63 
607.71 59.44 4.14 
607.44 59.50 4.65 
608.52 59.59 1.07 
608.26 59.43 1.98 
608.19 59.47 2.82 
608.63 59.57 3.19 
608.58 59.52 5.94 
609.12 59.71 -0.71 
609.39 59.89 0.10 
609.33 59.94 1.01 
608.98 59.80 1.20 
608.92 59.85 2.16 
608.85 59.90 3.13 
609.22 59.50 4.10 
609.12 59.57 5.13 
609.40 59.75 5.79 
609.44 59.85 -0.80 
610.00 59.44 -0.10 
609.87 59.51 0.88 
609.88 59.27 1.22 
610.09 59.51 1.93 
609.63 59.64 2.85 
609.99 59.59 3.74 
609.93 59.95 4.48 
609.62 59.46 5.04 
610.24 59.38 -0.76 
610.19 59.42 0.13 
610.14 59.46 1.03 
610.80 59.43 5.41 
610.99 59.30 2.50 
610.93 59.34 3.46 
610.87 59.38 4.43 
598.02 60.03 -0.93 
598.04 60.34 2.79 
597.94 60.40 3.83 
598.34 60.20 -0.30 
598.24 60.25 0.73 
599.44 60.13 -0.03 
599.31 60.21 2.13 
599.25 60.25 3.21 
599.18 60.29 4.31 
598.98 60.00 4.84 
601.22 59.99 3.79 
601.17 60.03 4.86 
602.41 59.99 -0.43 
602.07 60.20 -0.22 
602.04 60.23 0.83 
602.36 60.04 1.65 
602.02 60.25 1.88 
602.00 60.28 2.94 
602.31 60.09 3.74 
601.97 60.31 3.99 
602.28 60.12 4.80 
603.10 60.18 2.86 
603.09 60.20 3.90 
603.08 60.21 4.94 
603.73 60.44 0.13 
603.12 60.15 0.80 
603.11 60.16 1.83 
605.12 60.23 0.95 
605.02 60.30 2.00 
604.92 60.37 3.07 
604.81 60.44 4.15 
605.79 60.39 -1.18 
605.85 60.38 -0.65 
605.63 60.42 0.14 
605.63 60.43 0.84 
605.85 60.33 1.41 
605.87 60.39 2.18 
605.88 60.37 2.66 
605.87 60.34 3.56 
605.88 60.34 4.29 
605.98 60.25 -1.36 
606.11 60.32 -0.57 
606.22 60.17 0.06 
606.24 60.15 0.85 
606.17 60.29 1.23 
606.20 60.28 2.14 
606.14 60.27 2.86 
606.38 60.06 3.57 
606.14 60.22 4.16 
606.21 60.28 4.74 
606.70 59.98 -1.09 
606.85 59.94 -0.65 
606.90 59.85 0.06 
606.62 59.99 0.68 
606.97 60.12 1.09 
606.94 59.90 2.06 
606.66 59.99 2.87 
606.86 59.85 3.44 
606.77 60.01 4.20 
606.82 60.25 5.33 
607.98 60.41 2.16 
607.91 60.45 3.14 
608.60 60.41 -0.84 
608.54 60.46 0.08 
608.06 60.35 1.18 
608.70 60.00 5.08 
608.98 60.41 -0.81 
609.28 59.98 1.93 
609.22 60.02 2.84 
609.17 60.07 3.76 
609.11 60.11 4.69 
609.86 60.00 5.47 
