# .PCD v0.7 - Point Cloud Data file format
VERSION 0.7
FIELDS x y z
SIZE 4 4 4
TYPE F F F
COUNT 1 1 1
WIDTH 2486
HEIGHT 1
VIEWPOINT 0 0 0 1 0 0 0
POINTS 2486
DATA ascii
623.42 43.10 5.66 
623.67 42.85 5.89 
629.16 42.83 -0.48 
629.99 42.77 -0.59 
630.08 42.67 4.58 
629.92 42.60 5.34 
630.49 42.87 -0.99 
630.47 42.68 -0.28 
630.31 42.68 5.16 
630.93 43.12 -0.49 
631.02 43.00 4.51 
632.11 42.83 3.48 
632.26 42.85 4.18 
632.09 42.52 4.53 
631.96 42.86 5.24 
632.61 42.57 -0.60 
632.41 42.87 4.89 
632.63 42.91 5.58 
632.58 42.73 6.20 
633.58 42.65 -0.58 
633.64 42.71 3.06 
633.67 42.63 3.73 
633.76 42.51 -0.76 
634.16 43.10 2.49 
633.73 42.54 3.61 
634.77 43.11 2.75 
634.84 42.63 3.26 
634.96 42.49 3.71 
635.31 42.84 -0.68 
635.47 42.96 2.77 
635.67 43.13 3.18 
635.54 42.85 3.77 
636.43 42.98 -0.78 
636.06 42.55 2.61 
636.04 42.74 3.15 
635.93 42.72 4.27 
636.81 42.68 -0.34 
637.10 42.78 2.77 
636.85 42.95 3.42 
637.04 42.79 3.64 
637.26 42.60 -0.67 
637.26 42.57 3.70 
638.03 42.95 -0.43 
638.37 43.13 6.54 
639.23 43.15 5.40 
639.12 42.65 6.43 
638.93 42.93 7.57 
639.06 42.96 8.29 
639.51 42.69 6.32 
639.73 42.68 7.41 
639.96 42.64 8.62 
640.51 42.71 -0.30 
640.68 42.98 0.50 
640.51 42.65 1.31 
640.69 42.90 2.07 
640.54 42.54 2.64 
640.55 42.54 3.19 
640.09 42.51 4.64 
640.24 42.64 5.38 
640.37 42.91 7.80 
640.95 42.84 0.22 
640.95 42.84 0.22 
641.07 42.43 1.01 
641.18 43.08 1.65 
641.21 42.96 2.74 
641.05 42.72 4.03 
640.83 42.99 5.64 
641.05 42.77 8.26 
640.85 42.92 8.70 
642.02 42.64 -0.20 
641.73 42.82 0.44 
641.73 42.80 0.91 
641.68 42.84 2.01 
641.98 42.61 2.52 
641.79 43.10 4.86 
641.91 42.99 5.12 
642.24 43.06 -0.22 
642.43 43.07 0.34 
642.17 42.89 1.11 
642.22 42.73 2.06 
642.29 42.78 2.65 
642.60 42.97 5.71 
618.94 43.70 -0.65 
619.76 43.61 -0.94 
629.30 43.52 -0.46 
629.90 43.28 -0.57 
630.11 43.73 -0.46 
630.82 43.68 4.36 
630.23 43.34 4.58 
630.23 43.34 5.36 
630.97 43.21 -1.01 
631.29 43.39 -0.33 
631.25 43.69 4.70 
631.66 43.42 5.00 
631.94 43.37 5.13 
632.72 43.46 -0.99 
632.80 43.42 2.76 
632.34 43.52 3.12 
632.75 43.57 6.05 
633.69 43.84 -0.57 
633.70 43.59 2.55 
633.12 43.49 3.52 
634.10 43.31 -0.87 
634.07 43.59 2.75 
633.78 43.67 3.37 
634.06 43.78 5.65 
633.75 43.80 5.83 
634.68 43.88 -0.67 
634.55 43.68 2.80 
634.82 43.55 3.14 
635.39 43.40 -0.40 
635.44 43.24 2.68 
635.60 43.48 3.39 
635.63 43.22 3.71 
635.51 43.55 5.33 
636.34 43.26 -0.69 
636.29 43.70 3.70 
635.98 43.20 3.75 
636.09 43.52 5.14 
637.06 43.22 -0.72 
636.85 43.64 -0.33 
636.65 43.17 3.67 
636.66 43.82 3.98 
636.79 43.25 5.12 
637.87 43.75 -0.44 
637.69 43.33 5.05 
637.63 43.87 5.44 
637.97 43.68 -0.01 
638.59 43.85 5.41 
638.24 43.52 6.01 
638.57 43.58 6.71 
638.40 43.75 7.66 
639.28 43.60 -0.65 
638.68 43.54 5.49 
638.94 43.38 6.31 
638.99 43.73 6.65 
638.89 43.46 7.51 
638.92 43.69 8.60 
639.73 43.40 8.45 
639.76 43.52 8.83 
639.92 43.44 9.43 
640.70 43.38 5.00 
640.02 43.49 7.50 
640.68 43.27 8.30 
640.09 43.22 8.77 
641.05 43.29 0.55 
640.89 43.25 1.54 
640.90 43.18 2.29 
640.75 43.27 5.12 
641.78 43.18 1.65 
642.03 43.44 3.50 
641.51 43.67 4.09 
641.46 43.53 4.63 
641.99 43.20 6.12 
642.12 43.23 -0.21 
642.45 43.43 0.51 
642.45 43.43 1.08 
642.55 43.22 2.23 
642.45 43.39 2.54 
642.20 43.48 5.45 
618.72 44.30 -0.65 
629.89 43.97 -0.14 
630.52 44.21 -0.60 
631.13 44.08 -0.47 
631.08 44.00 4.46 
631.92 44.18 -0.55 
632.02 43.88 2.80 
632.30 44.44 3.01 
632.81 44.05 -0.95 
632.78 44.30 2.80 
632.42 44.53 5.44 
633.55 44.11 2.90 
633.66 44.53 3.02 
633.37 44.05 5.78 
634.24 44.51 -0.60 
634.00 44.03 2.85 
634.05 44.17 3.20 
634.61 43.94 -0.79 
635.05 44.09 2.86 
634.45 44.10 3.26 
634.97 44.18 4.97 
635.34 44.43 -0.28 
635.30 43.90 3.21 
635.23 44.49 4.90 
635.56 44.03 5.13 
636.06 44.27 3.94 
636.83 44.34 4.82 
637.51 44.29 -0.23 
637.61 44.28 4.79 
637.69 44.55 6.07 
638.41 44.27 4.75 
638.46 44.06 5.40 
638.78 43.93 -0.75 
639.23 44.33 4.70 
639.13 44.10 5.55 
639.15 44.35 5.96 
638.84 44.13 6.85 
639.24 44.50 7.87 
638.91 44.42 8.71 
639.77 44.05 -0.65 
639.71 44.48 4.16 
639.99 44.43 4.80 
639.51 44.14 5.25 
639.89 44.01 5.91 
639.76 44.01 7.81 
640.40 44.30 4.79 
640.55 43.97 5.19 
640.90 43.99 4.13 
640.93 44.09 4.48 
641.37 44.44 5.45 
641.59 44.19 -0.58 
641.45 44.52 5.02 
641.65 44.49 5.34 
642.17 44.03 4.79 
642.19 44.19 5.38 
619.46 44.76 -0.94 
630.62 44.90 -0.56 
631.26 44.74 -0.46 
631.26 44.74 -0.46 
632.15 45.10 -0.91 
632.26 45.15 5.17 
632.54 45.00 -1.15 
632.61 45.18 -0.48 
632.66 45.16 0.33 
632.71 45.14 1.14 
632.98 45.10 1.79 
632.56 44.63 2.99 
632.89 45.05 5.04 
632.66 44.62 5.43 
633.07 45.08 -1.09 
633.03 45.07 2.62 
633.05 45.18 3.08 
633.04 45.14 4.97 
633.02 44.71 5.16 
634.21 45.02 3.43 
634.07 45.13 4.71 
633.77 44.60 5.17 
635.14 44.90 -0.82 
634.68 45.00 4.68 
634.60 44.73 5.14 
635.14 44.90 -0.82 
635.15 45.16 3.85 
635.43 44.88 4.66 
635.34 44.66 5.15 
636.26 45.29 4.21 
636.28 44.98 4.61 
636.90 44.57 -0.32 
636.56 45.23 3.89 
637.00 44.90 4.63 
637.35 45.16 3.85 
637.87 45.06 4.54 
637.36 45.09 6.14 
637.83 45.14 8.74 
637.90 45.14 9.40 
638.58 44.69 -0.50 
637.98 45.19 3.70 
638.35 44.94 4.26 
638.44 44.64 4.59 
638.43 44.72 6.02 
638.30 44.66 8.35 
637.98 44.66 9.30 
638.87 45.21 3.66 
638.80 45.10 3.95 
639.13 44.73 4.53 
638.92 44.88 5.67 
639.14 44.58 7.79 
639.00 45.18 8.70 
639.48 45.12 3.66 
639.64 45.04 3.77 
639.44 45.04 4.81 
639.93 45.07 5.52 
639.46 44.97 7.59 
639.56 44.99 8.40 
640.29 45.22 3.63 
640.40 45.14 3.86 
640.69 44.62 4.89 
640.33 44.66 5.25 
640.36 45.12 5.95 
641.29 45.25 3.67 
640.79 44.68 4.05 
641.02 44.74 4.53 
641.26 45.01 5.13 
641.55 44.71 -0.29 
641.47 45.20 0.99 
641.59 45.25 4.67 
641.78 44.95 5.63 
641.85 44.82 6.33 
642.38 45.24 5.25 
642.17 44.60 5.94 
630.90 45.88 -0.05 
630.72 45.87 0.45 
630.89 45.75 4.96 
631.30 45.92 -1.22 
631.45 45.77 -0.45 
631.45 45.77 -0.45 
631.11 45.73 1.39 
631.14 45.73 2.15 
631.16 45.72 2.91 
631.20 45.71 3.68 
630.99 45.54 5.10 
631.76 45.91 -0.66 
632.06 45.92 0.08 
632.01 45.53 0.35 
631.89 45.87 1.14 
631.89 45.81 2.12 
631.92 45.80 2.90 
631.96 45.79 3.70 
632.08 45.80 3.87 
631.88 45.73 5.06 
632.12 45.51 5.32 
632.50 45.45 -1.07 
632.59 45.45 -0.28 
632.50 45.90 0.65 
632.98 45.62 1.34 
632.50 45.47 2.12 
632.51 45.90 2.74 
632.84 45.78 3.25 
633.01 45.63 4.14 
632.40 45.68 4.79 
632.44 45.70 5.31 
633.38 45.45 -1.10 
633.42 45.78 1.31 
633.43 45.78 2.01 
633.44 45.77 2.72 
633.46 45.77 3.42 
633.47 45.77 4.14 
633.29 45.61 4.63 
634.07 45.67 4.19 
633.96 45.34 4.63 
634.64 45.94 -0.59 
634.85 45.51 4.15 
634.94 45.39 4.47 
635.23 45.83 -0.74 
635.21 45.89 3.69 
635.55 45.41 4.20 
635.54 45.59 4.82 
635.88 45.67 3.69 
636.00 45.60 3.71 
636.14 45.39 4.91 
636.89 45.44 -0.32 
636.77 45.45 3.57 
636.53 45.83 4.11 
636.87 45.37 4.90 
636.79 45.49 9.25 
637.30 45.42 3.67 
637.51 45.95 4.35 
637.47 45.31 4.42 
637.82 45.40 7.32 
637.69 45.66 8.71 
637.56 45.89 9.68 
638.53 45.79 2.91 
638.10 45.58 3.53 
638.31 45.43 4.38 
637.98 45.59 4.99 
638.56 45.92 5.64 
638.42 45.60 8.69 
637.97 45.61 9.70 
639.07 45.87 -0.17 
638.84 45.61 3.52 
639.07 45.43 4.35 
639.00 45.61 4.87 
639.15 45.45 5.61 
639.08 45.90 6.07 
639.44 45.41 3.61 
639.96 45.38 4.37 
639.54 45.59 5.22 
639.65 45.70 5.87 
640.67 45.89 0.95 
640.48 45.31 3.49 
640.60 45.48 4.29 
640.09 45.78 4.95 
640.04 45.68 5.41 
640.06 45.67 5.84 
640.81 45.85 2.97 
640.85 45.96 3.29 
641.32 45.91 4.73 
640.70 45.79 5.41 
641.84 45.58 -0.16 
642.08 45.96 1.04 
642.01 45.86 1.86 
642.10 45.42 2.57 
641.89 45.60 3.58 
642.05 45.49 4.07 
641.92 45.60 4.43 
641.76 45.46 5.21 
642.33 45.74 -0.75 
642.32 45.45 -0.31 
642.31 45.57 0.39 
642.21 45.75 1.06 
642.49 45.87 1.88 
642.43 45.77 2.69 
642.33 45.45 3.39 
642.40 45.83 3.98 
642.53 45.77 5.48 
629.17 46.57 5.02 
629.80 46.48 -0.75 
629.82 46.48 -0.02 
629.84 46.47 0.71 
630.18 46.57 1.18 
630.03 46.36 2.14 
630.05 46.35 2.90 
629.56 46.66 4.40 
630.03 46.21 5.08 
630.14 46.41 5.28 
630.78 46.26 -1.42 
630.67 46.27 -1.19 
630.62 46.53 -0.19 
630.33 46.66 0.25 
630.27 46.57 0.99 
630.31 46.56 1.79 
630.60 46.04 2.90 
630.63 46.03 3.67 
630.51 46.66 4.87 
630.25 46.27 5.31 
631.53 45.98 -1.54 
631.16 46.40 -0.81 
631.04 46.51 -0.20 
631.31 46.62 0.81 
631.09 46.31 1.14 
631.14 46.28 2.03 
631.17 46.40 2.80 
631.54 46.48 3.46 
631.54 46.48 4.17 
631.13 46.45 4.87 
631.71 46.40 -0.99 
631.66 46.43 -0.44 
631.76 46.45 0.80 
631.87 46.00 0.99 
631.77 46.38 2.23 
631.90 46.39 2.77 
631.79 46.37 3.65 
631.80 46.37 4.37 
631.91 46.26 4.88 
631.77 46.01 5.15 
632.43 46.33 -0.77 
632.92 46.05 -0.08 
632.44 46.33 0.62 
632.83 46.02 1.08 
632.95 46.06 2.02 
632.48 46.34 2.98 
632.97 46.05 3.43 
632.78 46.23 4.33 
632.88 46.06 4.45 
633.57 46.10 4.14 
633.34 46.09 4.89 
634.08 46.01 -0.99 
634.31 46.48 3.91 
634.08 46.01 4.90 
634.51 46.52 -0.25 
634.55 46.50 3.41 
635.00 46.32 3.92 
634.49 46.00 4.65 
635.69 46.24 3.42 
635.24 46.58 4.12 
635.91 46.57 -0.68 
636.24 46.66 -0.20 
636.40 46.59 2.87 
635.89 46.12 3.26 
636.12 46.18 4.36 
636.59 46.02 3.27 
636.83 46.09 4.35 
637.20 46.50 7.86 
637.66 46.63 0.85 
637.63 46.49 1.80 
637.60 46.35 2.76 
637.29 46.04 4.29 
637.69 46.30 5.08 
637.80 46.52 5.19 
637.16 46.42 7.61 
637.43 46.56 8.71 
637.56 46.05 9.43 
638.58 46.03 -0.52 
637.92 46.56 2.10 
638.40 46.27 4.37 
639.30 46.32 2.95 
639.07 46.58 5.00 
639.03 46.22 5.13 
639.85 46.23 0.91 
639.33 46.45 2.08 
639.95 46.05 2.97 
640.00 46.28 3.08 
639.31 46.37 5.34 
639.90 46.64 5.86 
640.19 46.67 -0.31 
640.15 46.60 0.53 
640.10 46.50 1.37 
640.28 46.32 2.41 
640.28 46.32 2.41 
640.61 46.00 3.10 
641.07 46.35 -0.07 
641.02 46.28 0.76 
640.97 46.18 1.60 
641.40 46.08 1.84 
640.91 46.07 2.44 
641.08 46.60 4.80 
640.79 46.62 5.26 
641.57 46.31 -0.60 
641.52 46.25 0.20 
641.76 46.24 0.21 
641.71 46.17 1.02 
641.91 46.29 2.06 
641.91 46.27 2.52 
641.90 46.23 3.46 
641.90 46.21 3.93 
642.04 46.45 4.79 
642.32 46.11 -0.53 
642.37 46.03 0.24 
642.54 46.04 1.11 
642.44 46.76 2.02 
642.54 46.36 2.65 
642.42 46.35 3.48 
642.30 46.33 4.33 
642.18 46.43 4.95 
627.49 47.33 4.91 
628.39 47.17 -0.63 
628.40 47.18 0.05 
628.40 47.18 0.73 
628.42 47.25 1.40 
628.44 47.25 2.14 
628.42 47.20 2.78 
628.43 47.21 3.47 
628.43 47.21 4.17 
629.38 47.24 -0.58 
628.91 47.27 -0.34 
629.32 46.77 0.72 
628.98 47.25 1.20 
628.95 46.98 2.14 
628.85 47.05 2.92 
628.99 46.97 3.63 
629.46 47.29 4.93 
630.06 46.85 -1.46 
629.55 47.29 -0.76 
630.07 47.32 -0.04 
629.61 46.94 0.21 
629.60 47.18 1.15 
629.54 47.18 1.99 
629.76 47.20 2.80 
630.03 47.34 3.66 
629.80 46.87 4.19 
629.98 47.06 4.82 
630.34 46.85 -0.78 
630.50 46.93 0.17 
630.71 47.04 0.56 
630.56 46.91 1.09 
630.51 46.78 1.92 
630.36 46.84 2.78 
630.56 47.06 3.48 
630.56 47.07 4.20 
630.60 46.80 4.78 
631.47 46.78 -0.57 
630.99 47.16 -0.06 
631.48 46.89 0.63 
631.00 47.17 1.33 
631.01 47.17 2.03 
631.01 47.17 2.74 
630.96 46.95 3.57 
631.03 47.18 4.15 
631.43 47.00 4.42 
630.92 47.30 5.15 
631.82 47.09 -0.49 
631.82 47.09 -0.49 
631.94 46.67 0.88 
631.93 46.69 2.99 
631.92 46.70 3.69 
631.78 47.12 4.00 
631.92 46.70 4.41 
632.82 47.16 -0.54 
632.38 47.20 3.55 
632.80 47.00 3.86 
633.67 46.73 3.84 
634.11 47.14 3.11 
634.23 46.72 3.89 
633.83 46.90 4.54 
635.02 46.77 -1.09 
634.79 46.99 3.12 
635.70 46.87 -0.75 
635.32 47.19 -0.22 
635.57 46.73 2.84 
635.26 46.75 3.02 
635.25 46.97 4.21 
636.40 47.33 -0.68 
636.46 47.00 -0.23 
636.44 46.90 0.80 
636.42 46.75 1.83 
636.32 47.07 7.75 
636.96 47.08 -0.11 
636.93 47.00 0.83 
636.90 46.86 1.77 
636.87 46.72 2.71 
636.88 47.04 4.57 
637.31 47.16 -0.64 
637.69 46.71 -0.09 
637.28 47.07 0.26 
637.25 46.97 1.17 
637.22 46.84 2.08 
637.52 47.21 5.30 
637.22 47.14 7.43 
637.86 46.93 8.27 
637.98 46.79 0.28 
637.95 46.69 1.19 
637.94 47.21 4.37 
638.11 46.99 4.46 
638.58 47.24 5.11 
638.60 47.05 6.41 
638.78 47.24 5.08 
639.07 47.26 5.33 
638.75 47.16 6.04 
639.91 46.88 -0.71 
639.40 46.67 0.36 
639.83 46.67 4.43 
639.74 46.87 5.28 
639.47 47.07 6.46 
640.19 46.67 -0.31 
640.62 46.69 0.93 
640.70 47.34 4.35 
640.23 47.15 5.05 
640.52 47.31 5.33 
640.36 47.35 6.08 
640.34 47.06 6.51 
640.89 47.07 0.03 
641.41 47.02 0.95 
641.05 46.99 4.03 
640.93 46.95 4.86 
640.87 46.90 5.62 
642.01 47.25 -0.15 
641.90 47.25 1.07 
641.70 47.24 2.73 
641.92 46.94 3.12 
641.80 46.93 3.98 
641.73 46.92 4.42 
642.28 46.95 -0.14 
642.56 47.18 0.69 
642.45 46.78 1.57 
642.44 46.76 2.02 
642.59 46.98 2.80 
642.27 47.03 3.41 
642.45 46.84 3.89 
626.31 48.05 -0.62 
626.31 48.06 0.07 
626.31 48.06 0.76 
627.32 47.84 -0.78 
627.33 47.85 -0.05 
627.37 47.61 0.75 
626.85 47.84 1.45 
627.38 47.63 2.12 
626.85 47.86 2.83 
626.86 47.86 3.53 
626.86 47.87 4.23 
626.87 47.87 4.94 
627.91 48.04 -1.36 
627.79 48.11 -0.86 
627.79 47.95 -0.31 
627.81 47.93 0.45 
627.84 47.93 1.21 
627.91 47.55 2.14 
627.91 47.42 2.80 
627.91 47.43 3.49 
627.92 47.43 4.19 
628.31 47.81 -1.62 
628.58 47.97 -0.95 
628.23 47.86 0.11 
628.23 47.87 0.73 
628.24 47.87 1.36 
628.24 47.88 1.99 
628.24 47.88 2.62 
628.42 47.86 3.32 
628.46 47.85 4.14 
628.46 47.76 4.77 
629.37 47.74 -0.57 
629.13 47.74 0.02 
629.08 47.91 0.66 
629.27 48.05 1.17 
629.08 47.93 2.08 
629.07 47.94 2.80 
629.15 47.81 3.62 
629.07 47.96 4.24 
629.31 47.45 4.82 
629.84 47.46 -1.27 
629.85 47.46 -0.58 
629.85 47.46 0.12 
629.74 47.56 0.57 
629.58 47.63 1.37 
629.58 47.64 2.08 
629.80 47.86 2.55 
629.80 47.86 3.25 
629.81 47.87 3.95 
630.00 47.74 4.64 
629.91 47.91 5.19 
630.51 47.44 -0.06 
630.52 47.44 0.64 
630.52 48.01 1.34 
630.53 47.45 2.04 
630.37 47.44 2.66 
630.53 47.46 3.45 
630.43 47.59 3.73 
630.43 47.60 4.45 
630.42 47.61 5.17 
630.96 47.69 3.51 
631.21 47.52 3.97 
631.96 47.81 -0.56 
631.67 47.47 3.53 
632.57 47.64 -0.53 
633.66 47.51 2.91 
634.35 47.83 -0.50 
634.15 47.40 3.16 
636.28 47.77 -0.62 
637.14 47.61 -0.70 
636.63 47.90 4.70 
637.12 47.85 5.30 
637.17 47.77 5.95 
636.62 47.56 7.62 
637.81 48.06 4.35 
637.83 47.78 4.56 
637.56 47.98 5.75 
638.12 47.87 4.78 
638.50 47.77 5.35 
637.92 47.70 5.99 
638.81 48.04 5.06 
638.77 47.88 5.55 
639.74 47.49 -1.16 
639.73 47.85 4.92 
639.46 47.48 5.12 
639.54 47.37 6.04 
640.51 47.85 -1.13 
640.49 48.01 -0.01 
640.24 48.00 4.96 
640.57 47.61 5.70 
640.36 47.40 6.16 
640.94 47.30 0.04 
640.85 47.52 3.70 
641.09 47.67 4.06 
640.90 47.83 4.95 
642.08 47.88 -0.62 
642.05 47.86 -0.18 
642.00 47.82 0.73 
642.06 47.90 0.95 
641.86 47.75 2.10 
642.10 47.40 2.52 
641.68 47.68 3.51 
642.01 47.73 3.86 
642.43 47.73 -0.71 
642.53 47.58 0.16 
642.49 48.03 0.61 
642.45 48.02 1.10 
642.16 47.43 2.06 
642.58 47.64 2.57 
642.44 47.61 3.58 
642.32 47.59 4.12 
642.13 47.37 4.97 
618.13 48.44 -1.00 
624.69 48.74 -1.33 
624.69 48.74 -0.62 
624.69 48.75 0.08 
625.24 48.53 0.78 
625.24 48.53 1.48 
625.24 48.54 2.18 
625.24 48.55 2.89 
625.25 48.56 3.60 
625.25 48.57 4.32 
625.77 48.28 -0.62 
625.78 48.29 0.07 
625.78 48.29 0.77 
625.78 48.30 1.47 
625.85 48.73 2.12 
625.79 48.32 2.87 
625.79 48.33 3.58 
625.79 48.33 4.29 
625.79 48.34 5.00 
626.30 48.43 -0.76 
626.21 48.67 0.13 
626.21 48.67 0.77 
626.21 48.68 1.41 
626.22 48.69 2.06 
626.22 48.69 2.71 
626.39 48.45 3.59 
626.23 48.71 4.01 
626.33 48.10 4.97 
626.93 48.65 -1.45 
627.20 48.58 -0.67 
627.24 48.57 0.17 
626.73 48.47 0.76 
626.91 48.58 1.13 
627.24 48.28 2.02 
627.39 48.52 2.71 
626.79 48.54 3.49 
626.82 48.58 4.09 
627.26 48.30 4.60 
627.87 48.21 -1.54 
627.58 48.29 -0.69 
627.91 48.60 -0.17 
627.91 48.61 0.45 
628.07 48.52 1.37 
627.62 48.57 1.84 
628.06 48.54 2.81 
628.02 48.45 3.44 
627.94 48.65 4.19 
627.75 48.24 4.58 
628.60 48.24 -1.35 
628.40 48.35 -0.78 
628.57 48.55 -0.06 
628.41 48.36 0.44 
628.58 48.22 1.37 
628.58 48.23 2.09 
628.57 48.24 2.80 
628.43 48.40 3.53 
628.43 48.41 4.15 
628.53 48.61 4.67 
628.90 48.14 -0.17 
629.06 48.28 0.64 
629.06 48.28 1.34 
629.01 48.29 1.83 
629.01 48.29 2.53 
629.07 48.30 3.46 
629.07 48.31 4.18 
629.02 48.32 4.66 
628.89 48.53 5.23 
630.02 48.55 -0.54 
630.02 48.53 0.04 
629.90 48.55 0.36 
629.91 48.53 1.02 
629.91 48.44 1.79 
629.89 48.47 2.87 
629.88 48.48 3.41 
630.04 48.53 4.14 
630.38 48.39 0.18 
630.60 48.76 0.94 
630.47 48.76 2.16 
630.36 48.29 2.84 
630.78 48.42 3.54 
630.77 48.39 4.09 
632.20 48.43 -0.71 
632.91 48.56 -0.63 
633.70 48.67 -0.52 
634.26 48.14 -0.56 
635.72 48.35 -0.48 
635.68 48.76 6.38 
636.14 48.15 -0.83 
636.27 48.65 -0.49 
636.09 48.58 4.59 
636.21 48.37 5.79 
636.90 48.67 5.53 
636.82 48.39 5.84 
637.54 48.57 4.66 
637.64 48.09 5.46 
637.78 48.32 5.98 
638.41 48.30 4.54 
638.19 48.51 5.45 
638.19 48.65 6.27 
638.97 48.36 4.83 
638.81 48.19 5.43 
638.61 48.33 5.89 
639.63 48.14 -1.17 
639.83 48.44 4.16 
639.78 48.13 4.69 
639.68 48.53 6.15 
640.34 48.35 -1.12 
640.17 48.41 -0.03 
640.19 48.76 3.99 
640.42 48.22 4.93 
640.24 48.29 5.78 
640.16 48.32 6.31 
641.26 48.60 -0.81 
640.94 48.67 3.61 
640.83 48.33 3.91 
641.75 48.77 -0.80 
642.10 48.35 1.61 
641.96 48.32 2.62 
641.57 48.42 3.59 
641.73 48.79 4.03 
642.43 48.43 -0.75 
642.23 48.39 0.13 
642.19 48.38 0.62 
642.15 48.37 1.11 
642.12 48.71 3.24 
642.36 48.23 4.08 
642.56 48.39 4.80 
623.58 49.22 -0.63 
623.58 49.23 0.09 
623.58 49.24 0.80 
623.58 49.24 1.51 
623.57 49.25 2.23 
623.57 49.26 2.95 
623.57 49.27 3.68 
623.57 49.28 4.41 
624.14 48.98 -0.63 
624.14 48.99 0.08 
624.14 49.00 0.79 
624.14 49.00 1.50 
624.14 49.01 2.22 
624.14 49.02 2.93 
624.14 49.03 3.65 
624.14 49.04 4.37 
624.78 49.36 -0.67 
625.18 49.11 0.13 
624.82 49.31 0.68 
624.83 49.32 1.40 
624.84 49.32 2.12 
624.85 49.32 2.84 
624.64 49.36 3.45 
624.80 49.38 4.35 
625.19 49.16 4.75 
625.74 49.38 -1.22 
625.81 49.34 -0.63 
625.69 49.29 -0.08 
625.69 48.88 0.78 
625.62 49.18 1.23 
625.64 49.18 1.97 
625.66 49.17 2.72 
625.65 49.23 3.30 
625.71 49.16 4.22 
625.73 49.40 4.55 
626.36 49.28 -1.43 
626.37 49.28 -0.80 
626.37 49.29 -0.16 
626.37 49.30 0.47 
626.37 49.31 1.11 
626.10 49.12 1.99 
626.32 49.39 2.59 
626.32 49.40 3.29 
626.32 49.41 3.99 
626.24 49.11 4.56 
626.96 49.12 -1.28 
627.21 48.83 -0.91 
627.21 48.84 -0.21 
627.13 49.15 0.54 
626.90 49.07 1.09 
626.86 49.15 1.88 
626.86 49.16 2.57 
627.02 49.05 3.47 
626.91 49.11 4.27 
626.86 49.18 4.66 
627.44 48.84 -1.27 
627.44 48.85 -0.57 
627.60 49.12 -0.06 
627.59 49.12 0.64 
627.59 49.13 1.35 
627.59 49.14 2.06 
627.59 49.14 2.77 
627.59 49.15 3.48 
627.54 49.18 3.98 
627.85 49.13 4.53 
628.48 49.17 -0.26 
628.48 49.18 0.35 
628.56 49.14 1.24 
628.48 49.21 2.17 
628.57 49.16 2.44 
628.48 49.22 3.40 
628.48 49.23 4.01 
628.42 49.35 4.94 
629.06 48.91 0.04 
628.98 48.95 0.34 
629.06 48.92 1.23 
628.98 48.97 2.15 
628.98 48.98 2.75 
629.15 49.15 3.25 
629.47 48.80 3.94 
629.47 48.81 4.55 
629.79 49.30 -0.63 
629.93 48.95 -0.26 
629.61 48.88 0.38 
629.94 48.91 0.94 
630.10 49.18 1.82 
630.09 49.18 2.70 
630.08 49.18 3.58 
629.82 49.33 3.72 
629.95 48.82 4.55 
630.51 48.79 -0.51 
630.61 48.98 -0.29 
630.63 49.08 0.42 
630.62 49.06 1.31 
630.61 49.04 2.20 
630.69 48.99 2.38 
630.85 49.21 3.19 
630.84 49.16 4.31 
631.46 49.37 -0.25 
631.45 49.34 0.30 
631.43 49.29 1.40 
631.42 49.27 1.95 
631.42 49.24 2.50 
631.07 49.02 3.07 
631.05 48.97 4.18 
631.75 49.30 -0.94 
632.57 48.98 -0.56 
632.75 49.46 -0.40 
633.26 48.98 -0.52 
633.15 48.97 -0.26 
634.78 48.80 -0.51 
634.63 48.90 4.67 
635.50 48.84 4.36 
635.40 49.41 4.65 
635.12 49.37 5.37 
636.27 48.65 -0.49 
636.25 49.32 4.32 
635.95 49.33 4.90 
636.36 49.19 5.47 
636.14 49.45 6.02 
636.75 49.28 -0.84 
637.01 49.42 4.66 
636.54 49.33 5.63 
636.79 49.04 5.83 
637.36 49.46 -0.74 
637.72 49.24 -0.29 
637.84 49.19 4.74 
637.84 49.29 5.32 
638.56 48.99 -0.88 
638.25 49.33 4.24 
638.49 48.89 4.94 
638.17 49.43 5.78 
638.79 49.31 -0.88 
638.75 49.46 3.60 
639.09 48.92 4.11 
639.07 49.42 4.42 
639.64 48.97 -0.77 
639.75 49.26 -0.42 
639.65 49.44 3.73 
639.47 48.83 5.13 
639.91 48.99 5.86 
640.31 49.19 -0.68 
641.00 48.85 -0.63 
640.98 49.20 2.90 
641.93 49.02 -1.06 
641.73 48.79 4.03 
641.91 49.24 4.68 
642.31 49.38 -1.10 
642.21 49.44 -0.30 
642.58 48.82 1.97 
642.19 49.30 2.91 
642.20 49.19 3.04 
642.21 49.19 4.70 
622.47 49.99 -0.73 
622.43 49.75 0.09 
621.84 50.01 0.82 
621.84 50.02 1.55 
621.83 50.03 2.29 
622.42 49.79 3.00 
621.83 50.04 3.03 
622.42 49.80 3.74 
622.42 49.81 4.48 
623.01 49.49 -0.63 
623.01 49.50 0.09 
623.01 49.51 0.81 
623.01 49.52 1.53 
622.96 50.02 2.18 
623.00 49.54 2.98 
622.96 50.04 3.55 
622.96 50.05 4.24 
622.96 50.05 4.93 
623.80 49.91 -1.38 
623.80 49.92 -0.67 
623.53 49.77 0.14 
623.53 49.78 0.81 
623.80 49.93 1.46 
623.53 49.79 2.16 
623.53 49.80 2.83 
623.53 49.81 3.51 
623.80 49.95 4.33 
623.53 49.82 4.88 
624.29 49.64 -1.38 
624.13 50.16 -0.78 
624.15 50.16 -0.06 
624.32 49.97 0.35 
624.36 49.97 1.13 
624.39 49.96 1.92 
624.43 49.95 2.70 
624.01 50.12 3.31 
624.09 49.59 4.16 
623.99 50.15 4.75 
624.86 49.65 -1.22 
625.13 49.89 -0.96 
625.14 49.90 -0.27 
625.14 49.91 0.41 
624.97 49.62 1.13 
625.14 49.92 1.78 
625.15 49.93 2.47 
624.75 49.94 3.24 
625.15 49.95 3.86 
625.15 49.96 4.56 
625.83 49.52 -1.44 
625.77 49.57 -0.87 
625.77 49.58 -0.18 
625.77 49.59 0.52 
625.77 49.60 1.21 
625.77 49.61 1.91 
625.77 49.62 2.61 
625.68 49.58 3.51 
625.77 49.64 4.02 
625.77 49.65 4.73 
626.40 50.01 -1.52 
626.40 50.02 -0.89 
626.40 50.03 -0.26 
626.40 50.04 0.37 
626.47 50.04 1.30 
626.30 50.02 2.04 
626.27 50.04 2.65 
626.24 50.07 3.26 
626.40 50.09 4.18 
626.40 50.10 4.83 
627.01 49.77 -0.56 
627.13 49.94 -0.16 
626.94 49.82 0.36 
627.01 49.81 1.29 
627.01 49.82 1.90 
627.01 49.84 2.58 
626.92 49.74 3.21 
626.89 49.76 3.82 
626.78 49.78 4.56 
627.54 49.55 -0.56 
627.66 49.71 -0.15 
627.54 49.57 0.66 
627.54 49.58 1.27 
627.54 49.59 1.88 
627.46 49.64 2.84 
627.57 49.62 3.13 
627.46 49.65 4.09 
627.46 49.66 4.73 
628.08 49.75 5.13 
628.17 49.50 -0.15 
628.56 49.92 0.90 
628.19 49.66 2.72 
628.16 49.68 3.31 
628.46 50.00 3.87 
628.44 50.02 4.47 
629.37 49.71 -0.80 
629.36 49.72 0.07 
629.42 49.78 0.86 
629.42 50.13 1.47 
629.43 50.11 2.15 
629.43 50.09 2.83 
629.34 49.76 3.56 
629.31 49.87 4.30 
629.13 49.75 5.07 
629.77 50.10 0.16 
629.76 50.10 1.03 
629.75 50.09 1.89 
629.74 50.09 2.75 
629.73 50.08 3.62 
630.45 49.54 -0.56 
630.41 50.09 -0.27 
630.68 49.99 0.38 
630.50 49.99 1.08 
630.49 49.99 1.94 
630.48 49.98 2.81 
630.42 49.99 3.48 
630.42 49.97 4.11 
631.40 49.85 -0.24 
631.15 49.89 0.42 
631.37 49.75 2.01 
631.35 49.70 3.14 
631.34 49.64 4.27 
631.79 50.06 -0.81 
631.78 50.04 -0.24 
631.77 50.01 0.32 
631.76 49.96 1.44 
631.75 49.93 2.01 
631.74 49.90 2.57 
631.72 49.85 3.70 
633.14 49.79 -0.56 
633.42 50.01 -0.23 
633.73 50.16 -0.53 
634.24 49.50 5.31 
634.59 49.55 5.59 
635.11 50.14 -0.59 
635.18 49.80 -0.29 
635.62 49.74 4.17 
635.72 49.81 4.92 
635.51 49.94 6.10 
635.84 49.71 -0.51 
636.15 49.84 4.63 
636.17 50.01 5.73 
636.23 49.53 5.89 
637.02 49.64 -0.84 
637.08 49.94 -0.30 
636.98 49.81 4.28 
637.09 50.03 5.05 
636.80 49.69 5.43 
637.51 49.88 -0.76 
637.53 50.16 -0.31 
637.66 49.75 4.34 
637.49 49.84 4.83 
637.45 49.89 5.38 
637.92 49.60 -1.08 
637.96 50.14 -0.28 
637.96 49.54 3.52 
638.32 49.93 4.63 
638.80 49.65 -0.89 
638.64 49.83 3.52 
639.45 49.93 -0.75 
639.79 50.10 3.82 
640.28 49.85 -0.76 
640.66 49.59 -0.41 
640.78 49.69 -1.06 
641.05 49.77 -0.41 
640.87 49.79 2.84 
641.27 50.03 3.85 
641.88 49.56 -1.21 
641.99 49.95 -1.00 
641.85 49.99 2.65 
641.88 49.92 3.87 
642.15 49.94 -1.01 
642.49 50.15 2.68 
642.47 49.64 4.68 
620.26 50.30 -1.06 
620.01 50.81 1.59 
620.01 50.82 2.35 
620.00 50.84 3.10 
619.99 50.85 3.87 
619.99 50.86 4.63 
620.65 50.51 -0.65 
620.63 50.54 1.58 
620.63 50.55 2.33 
620.62 50.57 3.08 
620.62 50.58 3.83 
620.61 50.59 4.59 
621.25 50.25 -0.65 
621.24 50.27 0.83 
621.24 50.28 1.57 
621.24 50.29 2.31 
621.23 50.30 3.05 
621.23 50.31 3.80 
621.22 50.33 4.55 
622.34 50.75 -1.39 
622.41 50.58 -0.73 
622.34 50.71 -0.04 
622.33 50.77 0.73 
622.35 50.73 1.38 
622.32 50.78 2.16 
622.32 50.79 2.87 
622.31 50.79 3.59 
622.35 50.80 4.06 
622.34 50.81 4.79 
622.95 50.79 -0.90 
622.99 50.77 -0.15 
622.99 50.78 0.52 
622.96 50.67 1.24 
622.99 50.80 1.88 
622.99 50.66 2.69 
623.01 50.66 3.42 
622.97 50.72 3.99 
622.99 50.72 4.73 
623.59 50.50 -0.82 
623.53 50.55 -0.18 
623.53 50.56 0.54 
623.59 50.53 1.18 
623.50 50.52 1.96 
623.52 50.59 2.69 
623.52 50.61 3.42 
623.48 50.45 4.00 
623.48 50.47 4.61 
624.17 50.23 -1.48 
624.17 50.24 -0.82 
624.07 50.47 0.05 
624.11 50.32 0.53 
624.02 50.39 1.12 
624.10 50.34 1.96 
624.20 50.42 2.60 
624.25 50.41 3.46 
624.30 50.39 4.32 
624.23 50.27 4.54 
624.30 50.76 5.14 
625.12 50.55 -0.80 
625.11 50.56 -0.09 
625.10 50.57 0.63 
625.09 50.59 1.35 
625.08 50.60 2.07 
625.04 50.67 2.60 
625.06 50.62 3.52 
625.06 50.63 4.25 
625.02 50.71 4.79 
624.86 50.43 5.12 
625.63 50.25 -1.50 
625.62 50.26 -0.79 
625.61 50.27 -0.08 
625.61 50.28 0.63 
625.60 50.29 1.35 
625.59 50.36 2.06 
625.56 50.39 2.69 
625.72 50.48 3.27 
625.70 50.50 3.90 
625.67 50.44 4.61 
626.59 50.17 0.44 
626.40 50.05 1.00 
626.02 50.73 2.86 
626.37 50.17 3.22 
626.34 50.19 3.83 
626.69 50.43 4.70 
627.13 50.61 -0.32 
626.90 50.26 0.35 
626.84 50.31 1.57 
626.78 50.36 2.81 
626.98 50.73 3.40 
626.96 50.75 4.03 
626.93 50.77 4.67 
626.91 50.79 5.31 
627.74 50.55 0.25 
627.68 50.59 1.42 
627.65 50.61 2.00 
627.77 50.33 2.72 
627.75 50.35 3.33 
627.73 50.37 3.95 
627.71 50.39 4.57 
627.68 50.41 5.19 
628.50 50.25 0.27 
628.45 50.29 1.40 
628.20 50.84 2.01 
628.17 50.86 2.58 
628.57 50.23 4.39 
628.30 50.39 4.88 
628.76 50.44 5.13 
629.41 50.19 -0.56 
629.22 50.41 -0.23 
629.04 50.43 0.37 
629.25 50.72 1.42 
629.22 50.33 1.92 
629.03 50.25 2.47 
629.03 50.27 3.34 
628.96 50.72 4.23 
628.92 50.51 4.76 
630.06 50.20 0.19 
629.93 50.76 0.88 
630.05 50.20 1.05 
630.04 50.20 1.90 
630.03 50.19 2.76 
630.02 50.19 3.63 
630.80 50.55 -0.27 
630.77 50.57 0.39 
630.77 50.55 1.10 
630.78 50.53 1.81 
630.78 50.52 2.52 
630.75 50.46 3.23 
630.79 50.48 3.94 
631.46 50.64 -0.62 
630.92 50.60 0.67 
631.40 50.56 1.37 
631.39 50.53 1.95 
630.93 50.56 2.55 
631.38 50.47 3.10 
631.41 50.33 3.90 
631.41 50.31 4.48 
632.14 50.77 -0.82 
632.13 50.74 -0.24 
632.12 50.71 0.34 
632.11 50.68 0.91 
631.68 50.38 2.06 
631.67 50.35 2.64 
632.07 50.57 3.22 
631.65 50.30 3.79 
633.34 50.70 -0.55 
633.89 50.58 -0.54 
634.55 50.51 -0.38 
634.94 50.26 5.73 
635.62 50.40 -0.29 
635.52 50.75 4.81 
635.55 50.56 5.65 
635.79 50.75 5.85 
636.15 50.83 0.57 
636.18 50.85 3.20 
636.19 50.86 4.08 
636.40 50.51 4.96 
636.10 50.55 5.53 
636.53 50.57 -1.05 
636.89 50.57 4.75 
636.89 50.80 5.62 
637.56 50.34 -0.83 
637.62 50.82 -0.45 
637.60 50.82 0.39 
637.58 50.81 1.23 
637.57 50.81 2.07 
637.55 50.81 2.92 
637.71 50.62 4.21 
637.40 50.17 4.68 
637.83 50.21 5.90 
638.29 50.50 -0.74 
638.03 50.36 -0.31 
638.24 50.69 4.38 
638.19 50.38 4.58 
639.17 50.67 -0.78 
639.52 50.56 -0.89 
639.65 50.42 3.51 
640.31 50.40 -1.08 
640.02 50.42 -0.48 
640.74 50.65 -1.04 
641.25 50.70 4.38 
641.41 50.53 4.53 
642.01 50.50 -1.00 
641.89 50.24 2.67 
641.72 50.48 4.52 
642.52 50.79 -0.54 
642.13 50.33 4.60 
618.73 51.33 2.39 
618.73 51.35 3.16 
618.72 51.36 3.93 
618.71 51.37 4.71 
619.37 51.11 3.13 
619.36 51.13 3.90 
619.35 51.13 4.67 
620.18 50.97 -1.07 
620.88 51.53 -1.46 
620.88 51.54 -0.75 
620.88 51.55 -0.05 
620.88 51.56 0.66 
620.70 51.43 1.89 
621.08 51.41 2.47 
621.07 51.42 3.23 
621.07 51.43 3.99 
620.63 51.49 4.84 
621.74 51.09 -1.26 
621.66 51.38 -0.99 
621.66 51.39 -0.27 
621.65 51.40 0.45 
621.65 51.41 1.17 
621.65 51.42 1.90 
621.65 51.43 2.63 
621.65 51.45 3.36 
621.65 51.45 4.09 
621.68 51.19 4.71 
622.14 51.30 -0.75 
622.26 51.13 -0.27 
622.26 51.14 0.44 
622.26 51.21 1.17 
622.26 51.16 1.88 
622.26 51.17 2.60 
622.26 51.18 3.32 
622.26 51.19 4.05 
622.26 51.20 4.78 
622.95 51.42 -0.94 
622.75 51.26 0.00 
622.65 51.02 0.66 
622.81 51.49 1.35 
622.61 51.27 1.93 
622.65 51.26 2.74 
622.83 51.17 3.41 
622.87 51.16 4.25 
622.71 51.13 4.53 
623.17 51.42 5.20 
623.58 51.21 -1.25 
623.58 51.22 -0.59 
623.56 51.18 -0.27 
623.58 51.24 0.74 
623.57 51.26 1.40 
623.57 51.27 2.07 
623.57 51.28 2.73 
623.57 51.29 3.40 
623.57 51.30 4.08 
623.57 51.31 4.76 
623.74 51.09 5.17 
624.19 50.96 -0.58 
624.15 50.93 -0.26 
624.19 50.98 0.72 
624.18 50.99 1.38 
624.18 51.00 2.03 
624.37 51.13 2.74 
624.18 51.03 3.35 
624.32 51.18 4.04 
623.98 51.33 4.83 
624.67 51.00 -0.67 
624.90 50.88 -0.16 
625.23 51.13 2.92 
625.19 51.15 3.57 
625.16 51.18 4.23 
625.12 51.21 4.90 
625.40 50.99 -0.31 
625.95 51.37 0.22 
625.89 51.41 1.46 
625.82 51.46 2.71 
625.79 51.48 3.34 
625.35 51.49 4.21 
625.32 51.52 4.88 
626.63 51.40 -0.35 
626.33 50.97 0.92 
626.46 51.50 2.03 
626.20 51.35 2.78 
626.22 51.05 3.47 
626.15 51.40 4.07 
626.17 51.09 4.76 
626.09 51.44 5.37 
627.13 50.88 0.88 
626.82 50.99 1.44 
626.79 51.01 2.04 
627.06 50.94 2.72 
627.03 50.96 3.35 
627.10 51.37 5.04 
626.96 51.02 5.24 
627.49 50.96 3.71 
628.04 50.93 4.90 
628.10 51.02 5.15 
628.48 51.12 -0.30 
628.48 51.16 0.55 
628.49 51.21 1.39 
628.49 51.26 2.24 
628.50 51.31 3.08 
628.51 51.35 3.93 
629.51 51.04 -0.27 
629.43 51.09 0.79 
629.00 51.53 1.41 
629.31 51.16 2.40 
629.48 51.15 3.16 
629.18 51.23 4.05 
629.13 51.26 4.60 
629.03 50.98 5.20 
629.81 51.34 -0.26 
629.82 51.18 0.21 
629.65 51.22 1.41 
629.83 51.40 1.75 
629.82 51.41 2.59 
629.81 51.19 3.46 
630.02 51.42 3.91 
630.02 51.37 4.97 
630.00 51.54 5.12 
630.72 51.20 -0.63 
630.92 51.35 -0.28 
630.86 51.15 0.38 
630.70 51.19 1.05 
630.69 51.19 1.90 
630.68 51.18 2.74 
630.67 51.18 3.59 
630.82 51.11 3.77 
630.92 51.35 -0.28 
630.93 51.33 0.37 
630.93 51.31 1.02 
630.93 51.29 1.67 
630.83 51.12 2.92 
631.08 51.22 3.31 
631.08 51.20 3.91 
631.02 51.44 5.30 
631.99 51.05 -0.61 
632.04 50.96 -0.32 
631.74 51.09 0.45 
631.78 51.38 1.42 
631.72 51.01 2.21 
631.99 51.01 2.70 
631.76 51.29 3.20 
632.02 51.56 4.06 
631.96 50.93 4.48 
632.51 51.45 -0.61 
632.48 51.48 -0.23 
632.47 51.45 0.36 
632.45 51.39 1.54 
632.44 51.36 2.13 
632.43 51.33 2.72 
632.42 51.30 3.31 
632.41 51.27 3.91 
633.50 51.14 -0.55 
633.57 51.15 -0.38 
634.77 51.30 -0.53 
635.10 51.14 5.29 
634.68 51.42 5.81 
635.46 51.30 -0.71 
635.73 51.19 4.17 
635.54 51.09 4.87 
635.44 51.07 5.63 
635.39 51.48 5.97 
636.51 51.25 -0.14 
636.11 50.97 3.57 
636.36 51.50 3.79 
636.41 51.08 4.81 
636.48 51.44 5.71 
636.69 51.19 -1.03 
636.92 51.47 -0.14 
636.82 51.46 3.56 
636.81 51.26 4.51 
636.67 51.18 5.53 
636.66 51.32 5.83 
637.43 51.02 -0.40 
637.43 51.02 0.43 
637.42 51.02 1.26 
637.42 51.01 2.09 
637.41 51.01 2.92 
637.62 51.42 3.63 
637.41 51.01 3.75 
637.41 51.01 4.58 
637.47 50.98 6.01 
638.32 51.34 -0.83 
638.10 50.97 -0.27 
638.37 51.34 4.15 
637.98 51.03 4.90 
639.30 51.31 -0.72 
638.79 51.32 0.19 
638.95 51.38 4.31 
639.53 51.37 -0.77 
640.69 51.11 -1.22 
640.10 51.44 -0.89 
640.42 51.45 -0.48 
640.15 51.09 4.13 
640.72 51.24 -1.03 
640.75 51.01 3.60 
641.02 51.12 4.19 
641.89 51.16 -0.98 
642.35 51.09 -0.97 
618.11 51.81 -0.97 
617.93 51.99 0.17 
617.93 52.00 0.91 
617.92 52.01 1.65 
617.92 52.02 2.40 
618.07 51.63 3.19 
618.06 51.65 3.97 
617.90 52.05 4.65 
619.01 52.04 -0.34 
618.90 52.12 3.38 
618.88 52.14 4.14 
618.86 52.16 4.90 
619.18 52.13 1.75 
619.17 52.14 2.53 
619.16 52.16 3.30 
619.48 51.93 4.12 
619.46 51.95 4.88 
619.87 52.06 -0.95 
619.86 52.07 -0.19 
619.86 52.08 0.56 
619.85 52.10 1.32 
619.84 52.11 2.08 
619.89 52.16 2.78 
619.89 52.18 3.50 
619.82 52.15 4.38 
619.79 51.92 4.82 
620.88 51.58 -1.41 
620.81 51.89 -1.08 
620.50 51.84 -0.19 
620.58 52.14 0.41 
620.93 51.82 1.24 
620.94 51.82 1.96 
620.45 51.95 2.71 
620.82 51.65 3.58 
620.97 51.82 4.12 
621.03 51.69 4.88 
621.21 51.95 -1.22 
621.64 52.05 -0.60 
621.16 51.85 -0.04 
621.43 51.62 0.39 
621.52 51.96 1.49 
621.17 51.80 1.92 
621.20 51.79 2.68 
621.48 51.90 3.36 
621.26 51.79 4.22 
621.11 51.69 4.82 
622.31 51.77 -0.60 
622.30 51.78 0.08 
622.30 51.79 0.76 
622.30 51.80 1.45 
622.30 51.82 2.13 
622.30 51.83 2.82 
622.29 51.84 3.51 
622.29 51.86 4.20 
622.30 51.77 4.55 
622.52 52.03 -0.87 
623.04 51.76 -0.12 
623.03 51.77 0.61 
622.94 51.80 1.51 
623.00 51.80 2.07 
622.93 51.90 2.63 
622.92 51.91 3.37 
622.83 51.90 4.19 
622.94 51.87 5.05 
623.76 51.74 -0.36 
623.46 51.78 1.60 
623.48 51.57 1.89 
623.44 51.80 2.37 
623.41 51.82 3.15 
623.39 51.83 3.92 
623.37 51.85 4.71 
623.44 51.98 5.11 
624.44 52.18 0.90 
624.37 52.23 2.24 
624.48 51.92 3.63 
624.32 51.60 4.32 
624.28 51.63 5.01 
624.97 51.83 0.20 
624.93 51.85 0.84 
624.86 51.90 2.13 
625.24 51.84 4.17 
625.03 52.22 5.27 
625.45 51.68 -0.40 
626.44 51.65 -0.33 
626.24 51.76 2.70 
626.20 51.79 3.32 
626.16 51.81 3.94 
626.12 51.83 4.57 
627.20 51.92 -0.64 
627.24 52.19 -0.38 
627.20 51.95 0.21 
627.20 51.97 1.05 
627.20 51.99 1.89 
627.20 52.02 2.73 
627.20 52.04 3.57 
627.54 51.84 -0.57 
627.55 51.90 0.27 
627.56 51.95 1.10 
627.57 52.01 1.94 
627.58 52.06 2.78 
628.10 51.78 3.62 
628.02 51.82 4.78 
627.96 51.85 5.37 
628.77 51.89 -0.52 
628.43 51.59 -0.32 
628.64 51.97 0.57 
628.30 52.15 3.37 
628.79 51.81 4.35 
628.15 52.24 4.53 
628.31 52.15 5.38 
629.01 51.57 2.25 
629.01 51.61 3.08 
629.02 51.65 3.92 
629.89 51.65 -0.20 
629.80 51.77 0.35 
629.80 51.72 1.47 
630.00 51.67 1.89 
629.86 51.62 2.53 
629.80 51.66 3.16 
629.72 51.63 3.78 
629.73 51.58 4.95 
630.71 52.03 -0.59 
630.45 51.88 -0.28 
630.45 51.86 0.32 
630.91 51.59 1.46 
630.65 51.76 1.73 
630.64 51.75 2.56 
630.46 51.75 3.29 
630.21 52.00 4.07 
630.21 51.98 4.62 
631.42 51.79 -0.60 
631.43 51.89 -0.24 
631.42 51.73 0.70 
631.02 52.25 1.20 
631.01 52.24 2.03 
631.23 52.23 2.98 
631.37 51.81 3.37 
631.38 51.79 3.98 
632.62 51.90 -0.62 
632.47 52.16 0.04 
633.37 52.24 -0.82 
634.32 51.99 -0.54 
634.16 51.67 5.29 
634.86 51.83 -0.55 
634.66 51.80 -0.17 
634.54 52.12 5.05 
635.69 51.66 4.96 
636.20 51.96 -0.71 
636.43 51.87 4.15 
635.95 51.70 4.83 
636.37 52.04 5.16 
636.08 52.21 5.83 
636.86 51.79 -1.02 
636.57 51.79 0.56 
636.60 51.82 3.14 
637.15 51.80 4.26 
636.62 51.83 4.86 
637.18 51.73 5.56 
637.49 51.90 -0.35 
637.80 51.86 0.43 
637.79 51.85 1.24 
637.79 51.85 2.06 
637.78 51.85 2.88 
637.78 51.85 3.69 
637.78 51.85 4.52 
638.11 51.92 -1.05 
637.80 51.86 -0.38 
637.98 51.69 0.39 
637.97 51.68 1.22 
637.95 51.68 2.05 
637.93 51.68 2.88 
638.35 51.66 3.46 
637.92 51.67 3.71 
638.23 51.89 4.51 
638.82 51.97 -0.83 
639.01 52.24 0.20 
638.62 52.00 4.84 
639.49 51.75 -0.79 
640.28 52.03 -1.31 
640.30 51.72 -0.89 
640.80 52.25 -0.89 
640.87 51.74 -0.36 
641.90 51.78 -0.97 
642.19 51.89 -0.60 
617.88 52.64 0.21 
617.76 52.55 1.13 
617.85 52.67 1.78 
617.83 52.69 2.57 
617.82 52.70 3.36 
617.80 52.72 4.16 
618.26 52.40 4.92 
618.93 52.66 -0.78 
618.43 52.73 -0.28 
618.42 52.74 0.48 
618.42 52.76 1.24 
618.51 52.68 2.12 
618.41 52.78 2.78 
618.40 52.80 3.55 
618.39 52.81 4.33 
618.48 52.72 4.47 
618.39 52.83 5.11 
619.59 52.71 -1.22 
619.20 52.83 -1.05 
619.44 52.75 -0.32 
619.33 52.74 0.35 
619.49 52.75 1.16 
619.51 52.74 1.90 
619.46 52.80 2.67 
619.33 52.84 3.36 
619.59 52.74 4.16 
619.04 52.66 5.04 
620.20 52.86 -1.25 
620.26 52.69 -0.62 
620.24 52.78 -0.10 
620.35 52.67 0.45 
620.09 52.78 1.27 
620.13 52.58 1.90 
620.16 52.58 2.68 
620.20 52.57 3.47 
620.23 52.65 4.08 
619.98 52.41 4.83 
620.96 52.33 -1.31 
620.96 52.34 -0.61 
620.92 52.63 0.04 
620.94 52.55 0.82 
620.80 52.42 1.29 
621.07 52.58 1.87 
620.84 52.60 2.86 
620.99 52.29 3.25 
620.92 52.57 3.94 
620.81 52.73 4.47 
621.47 52.30 -1.41 
621.46 52.31 -0.68 
621.37 52.58 0.17 
621.43 52.34 0.78 
621.39 52.70 1.33 
621.37 52.72 2.07 
621.36 52.73 2.82 
621.34 52.75 3.57 
621.61 52.87 3.89 
621.57 52.90 4.62 
621.99 52.34 -0.88 
621.97 52.35 -0.15 
621.95 52.37 0.59 
621.87 52.51 1.15 
621.86 52.53 1.90 
621.84 52.54 2.64 
621.83 52.56 3.40 
621.87 52.45 4.32 
622.36 52.27 4.89 
622.44 52.94 5.27 
622.80 52.83 0.16 
622.72 52.74 0.25 
622.68 52.32 2.39 
622.64 52.35 3.09 
622.52 52.88 3.81 
622.55 52.41 4.51 
623.28 52.77 3.69 
623.49 52.41 4.42 
623.64 52.49 4.89 
623.46 52.44 5.13 
623.92 52.31 0.19 
623.97 52.84 3.52 
624.27 52.30 4.28 
624.24 52.33 4.97 
625.08 52.32 4.06 
625.04 52.35 4.71 
625.00 52.37 5.37 
626.69 52.67 1.08 
626.68 52.65 1.91 
626.66 52.62 2.75 
626.65 52.60 3.58 
626.68 52.85 4.92 
626.72 52.72 -0.58 
627.05 52.82 -0.04 
627.09 52.28 1.37 
626.68 52.65 1.91 
626.98 52.34 2.55 
626.87 52.74 3.09 
626.87 52.40 3.75 
628.56 52.83 4.35 
629.00 52.86 -0.29 
629.32 52.93 0.62 
629.31 52.92 1.49 
629.50 52.77 2.15 
629.65 52.98 2.70 
629.30 52.89 3.21 
629.16 52.76 4.10 
629.82 52.60 -1.26 
630.18 52.78 -0.73 
629.73 52.87 -0.46 
630.18 52.76 0.61 
629.75 52.62 1.15 
629.76 52.68 1.95 
629.77 52.73 2.75 
630.14 52.81 3.32 
629.68 52.82 3.74 
630.48 52.93 -1.44 
630.58 52.74 -0.45 
630.67 52.83 0.19 
630.66 52.78 0.25 
630.55 52.72 1.20 
630.66 52.71 1.86 
630.64 52.82 2.61 
630.63 52.82 3.42 
630.52 52.69 3.69 
630.79 52.66 4.91 
631.22 52.35 -0.17 
631.11 52.43 0.43 
631.10 52.41 1.26 
631.04 52.60 2.28 
631.03 52.59 3.12 
631.03 52.59 3.12 
631.06 52.35 3.77 
631.82 52.52 -0.83 
631.79 52.73 -0.23 
631.72 52.40 0.50 
632.08 52.84 0.99 
631.67 52.44 2.82 
631.68 52.39 4.05 
632.74 52.54 -0.30 
632.79 52.73 0.39 
633.37 52.24 -0.82 
633.32 52.52 -0.22 
633.23 52.89 0.77 
634.22 52.49 -1.12 
633.81 52.60 -0.20 
634.72 52.40 -0.53 
635.05 52.83 -0.15 
634.59 52.41 5.33 
635.47 52.27 -0.54 
635.88 52.58 -0.54 
636.11 52.78 4.44 
637.02 52.39 -1.00 
636.97 52.71 -0.28 
636.98 52.72 0.56 
636.99 52.73 1.40 
637.00 52.73 2.24 
637.01 52.74 3.08 
637.02 52.75 3.92 
636.98 52.46 4.46 
637.51 52.48 -0.78 
638.55 52.65 -1.67 
638.43 52.83 -1.03 
638.16 52.67 -0.37 
638.16 52.67 0.43 
638.34 52.52 1.20 
638.15 52.66 2.03 
638.31 52.52 2.84 
638.14 52.66 3.64 
638.13 52.65 4.45 
638.78 52.67 -1.89 
639.04 52.28 -0.83 
638.62 52.53 -0.20 
639.07 52.75 3.37 
639.03 52.28 4.07 
638.89 52.56 4.47 
639.33 52.59 -1.88 
639.84 52.44 -0.79 
639.65 52.84 -0.42 
640.42 52.64 -0.75 
640.98 52.52 -0.90 
641.72 52.78 -0.98 
642.23 52.82 -0.83 
618.23 53.50 -0.76 
618.15 53.46 -0.30 
618.14 53.47 0.45 
617.93 53.27 1.33 
617.92 53.28 2.04 
617.81 53.35 2.82 
618.11 53.53 3.46 
617.90 53.33 4.20 
617.88 53.61 4.61 
618.78 53.31 -1.38 
618.71 53.22 -0.76 
618.90 53.15 -0.29 
618.85 53.46 0.54 
618.88 53.50 1.29 
618.59 53.33 1.78 
618.71 53.27 2.77 
618.78 53.36 3.32 
618.87 53.40 3.93 
618.85 53.24 4.90 
618.31 52.99 5.12 
619.45 53.29 -1.33 
619.28 53.09 -0.64 
619.34 53.10 -0.17 
619.48 53.13 0.45 
619.34 53.24 1.20 
619.66 53.21 1.77 
619.04 53.57 2.72 
619.65 53.13 3.22 
619.41 53.44 3.85 
619.36 53.47 4.61 
620.34 53.28 -0.94 
620.22 53.47 -0.37 
619.82 53.24 0.75 
620.28 53.34 1.32 
620.26 53.36 2.07 
620.08 53.25 2.94 
620.22 53.40 3.60 
619.91 53.05 3.93 
620.03 53.30 4.55 
620.54 52.98 -0.54 
620.88 52.98 -0.18 
620.86 53.00 0.57 
620.84 53.02 1.32 
620.74 53.19 1.90 
620.72 53.21 2.66 
620.71 53.23 3.43 
620.69 53.25 4.19 
620.67 53.27 4.97 
621.67 53.25 0.24 
621.63 53.28 0.97 
621.41 53.44 4.66 
621.37 53.47 5.42 
622.08 53.41 3.08 
622.03 53.44 3.82 
621.99 53.47 4.55 
621.95 53.50 5.29 
622.57 53.58 4.35 
626.64 53.05 2.94 
626.56 53.10 3.55 
626.20 53.60 4.36 
626.39 53.19 4.80 
628.65 52.99 -0.16 
629.41 53.40 -0.63 
629.40 53.39 0.18 
629.40 53.46 0.38 
629.39 53.46 1.21 
629.38 53.44 2.05 
629.35 53.36 2.64 
629.33 53.35 3.46 
629.35 53.52 3.83 
630.08 53.45 -0.63 
630.10 53.06 0.07 
629.92 53.33 0.70 
630.14 53.22 1.00 
630.12 53.21 1.80 
630.11 53.20 2.62 
630.01 53.39 3.40 
629.91 53.41 3.90 
630.37 53.44 -1.41 
630.36 53.32 -0.73 
630.49 53.26 -0.20 
630.45 53.35 0.32 
630.86 53.15 1.34 
630.86 53.13 1.88 
630.86 53.08 2.96 
630.50 53.12 3.28 
630.44 53.25 3.94 
630.87 53.27 4.75 
630.85 52.98 5.14 
630.86 53.20 0.26 
631.00 52.97 0.94 
631.08 53.54 1.90 
631.22 53.59 2.61 
631.21 53.56 3.14 
630.98 53.15 4.16 
631.24 53.32 4.71 
631.95 53.05 -0.82 
631.96 53.20 -0.23 
631.97 53.30 0.74 
632.75 53.26 -0.86 
632.41 53.64 -0.21 
633.50 53.31 -0.68 
633.22 53.03 0.50 
633.48 53.25 5.25 
634.35 53.00 -1.10 
634.31 53.09 -0.25 
635.04 53.65 -1.86 
634.49 53.36 -0.61 
635.05 53.27 -0.27 
635.48 53.63 -0.54 
635.76 53.44 -0.29 
635.58 53.61 1.42 
635.59 53.62 2.28 
635.60 53.63 3.14 
635.61 53.64 4.00 
635.62 53.65 4.87 
636.10 52.97 -1.14 
636.28 53.13 -0.40 
636.30 53.23 0.45 
636.29 53.23 1.27 
636.28 53.22 2.10 
636.28 53.22 2.92 
636.47 53.25 3.10 
636.48 53.25 3.95 
636.27 53.22 4.58 
637.11 53.40 -0.54 
637.14 53.20 -0.24 
636.89 53.29 0.48 
636.97 53.53 3.05 
637.31 53.55 -0.97 
637.72 53.59 -0.27 
637.75 53.52 4.10 
637.72 53.02 4.46 
638.08 53.43 -0.69 
638.35 53.56 -0.52 
638.49 53.44 2.01 
638.49 53.44 2.80 
638.48 53.44 3.59 
638.48 53.44 4.39 
638.73 53.34 -0.41 
638.71 53.34 0.39 
638.70 53.34 1.19 
638.68 53.33 1.99 
638.67 53.33 2.80 
638.65 53.33 3.60 
638.64 53.33 4.41 
639.83 53.12 -1.61 
639.88 53.14 -0.83 
639.76 53.15 -0.42 
639.73 53.55 3.31 
639.67 53.21 3.99 
639.51 53.35 4.42 
640.47 53.35 -1.59 
640.44 53.29 -1.13 
641.20 53.67 -1.26 
641.11 53.46 -0.96 
641.70 53.46 -1.11 
642.26 53.41 -1.14 
618.00 53.89 -0.96 
618.03 53.80 -0.15 
618.07 53.79 0.66 
617.87 54.01 1.27 
617.79 53.71 1.90 
617.85 53.86 2.64 
617.97 53.94 3.16 
618.02 53.92 4.07 
618.29 53.99 4.73 
618.77 53.84 -0.77 
618.59 53.76 0.10 
618.52 53.79 0.73 
618.55 54.33 1.29 
618.55 53.99 1.65 
618.65 53.74 2.77 
618.48 54.05 3.16 
618.63 53.96 3.75 
618.75 54.07 4.60 
619.42 54.34 -0.56 
619.18 53.96 -0.23 
619.16 53.98 0.54 
619.13 54.00 1.30 
619.59 53.87 1.91 
619.57 53.89 2.68 
619.55 53.91 3.46 
619.53 53.93 4.24 
619.41 53.98 4.87 
620.23 54.01 0.86 
619.71 53.67 1.31 
620.27 54.00 4.80 
620.46 53.86 1.73 
620.42 53.89 2.49 
620.85 54.02 3.93 
620.80 54.05 4.69 
620.75 54.08 5.46 
621.53 54.04 0.17 
621.23 54.21 3.77 
621.17 54.24 4.51 
624.53 54.20 3.76 
628.30 54.07 -0.55 
628.61 53.98 0.87 
628.32 54.17 1.03 
628.33 54.21 1.82 
628.34 54.26 2.61 
628.35 54.31 3.40 
628.27 53.99 4.30 
629.47 53.92 0.07 
629.25 54.07 0.88 
628.91 54.13 1.47 
629.03 53.95 1.81 
629.24 54.06 2.52 
629.23 54.05 3.34 
629.01 53.94 4.27 
629.68 53.98 -0.90 
629.59 54.18 -0.26 
629.55 54.17 0.53 
629.52 54.17 1.31 
629.49 54.16 2.10 
630.10 54.23 2.63 
629.55 53.94 3.07 
629.52 53.93 3.87 
630.66 54.06 -0.21 
630.74 53.70 1.56 
631.54 54.20 -0.30 
631.31 54.04 0.28 
631.47 53.80 1.26 
631.30 53.97 1.92 
631.30 53.94 2.47 
631.30 53.90 3.57 
631.02 53.68 4.35 
631.10 53.71 4.80 
631.68 54.29 -0.02 
631.87 53.95 0.37 
631.65 54.28 5.08 
632.07 54.25 5.57 
632.47 54.06 -0.14 
633.69 54.09 -0.86 
633.54 53.72 -0.21 
633.05 54.09 5.60 
634.67 54.12 -1.85 
634.93 53.70 -0.61 
635.04 53.83 4.64 
635.48 54.15 -1.19 
635.58 53.80 -0.13 
635.64 53.75 0.39 
635.63 53.74 1.20 
635.62 53.74 2.01 
635.61 53.73 2.82 
635.60 53.73 3.63 
635.59 53.72 4.45 
635.85 54.01 -0.54 
636.23 54.11 -0.42 
635.88 54.01 0.36 
635.87 54.00 1.15 
635.86 54.00 1.94 
635.85 53.99 2.73 
635.84 53.99 3.53 
635.83 53.98 4.33 
636.69 53.89 -0.39 
636.69 53.89 0.41 
636.68 53.88 1.20 
636.73 54.01 2.07 
636.67 53.88 2.80 
636.66 53.87 3.60 
636.71 54.01 4.51 
637.47 54.13 -0.96 
637.77 53.96 -0.55 
637.36 54.26 1.20 
637.35 54.26 2.03 
637.34 54.26 2.85 
637.34 54.26 3.68 
638.24 53.76 -1.21 
638.38 53.70 -0.70 
638.09 54.16 -0.27 
638.28 53.87 0.39 
638.47 54.10 1.22 
638.47 54.09 2.00 
638.46 54.09 2.79 
638.29 53.96 3.69 
638.46 54.09 4.37 
638.23 53.87 4.43 
638.89 53.99 -1.85 
638.72 53.97 -0.70 
638.66 54.20 0.38 
638.75 53.82 3.45 
639.57 54.22 -1.82 
639.95 54.13 -1.02 
639.33 53.94 -0.18 
640.37 54.10 -1.00 
641.35 54.02 -1.22 
640.91 53.87 -0.98 
641.65 54.31 -1.35 
641.74 54.02 -1.07 
642.16 53.86 -1.31 
617.64 54.39 -0.62 
617.62 54.51 -0.06 
618.04 54.65 0.50 
618.01 54.68 1.28 
617.98 54.70 2.06 
617.96 54.72 2.84 
617.93 54.75 3.63 
618.23 54.91 4.11 
618.09 54.41 4.63 
618.78 54.75 0.09 
618.37 54.80 0.74 
618.42 54.59 1.13 
618.40 54.61 1.92 
618.38 54.63 2.70 
618.34 54.47 3.40 
618.33 54.68 4.29 
618.89 54.51 4.92 
619.42 54.91 0.08 
619.06 54.39 0.76 
619.02 54.41 1.58 
619.27 54.44 1.77 
619.62 54.60 3.26 
619.11 54.55 4.14 
619.06 54.59 4.94 
619.78 54.89 3.15 
619.71 54.93 3.91 
628.09 54.43 -0.59 
628.09 54.45 0.19 
628.17 54.55 1.30 
628.09 54.48 1.76 
628.10 54.54 2.90 
628.08 54.52 3.34 
628.07 54.53 3.71 
628.23 54.56 -0.30 
628.35 54.45 0.66 
628.34 54.47 1.47 
628.34 54.48 2.27 
628.69 54.62 2.84 
628.35 54.31 3.40 
628.33 54.52 3.89 
628.85 54.65 -1.09 
629.48 54.81 -0.21 
629.54 54.57 0.45 
629.45 54.56 1.02 
629.44 54.55 1.83 
629.43 54.55 2.64 
629.42 54.54 3.46 
629.42 54.71 3.97 
629.56 54.60 -1.20 
630.06 54.70 -1.01 
629.60 54.45 -0.47 
629.54 54.57 0.45 
629.55 54.46 1.19 
629.54 54.45 2.01 
629.53 54.44 2.83 
629.52 54.43 3.66 
630.74 54.64 -1.22 
630.30 55.02 -0.70 
630.57 54.58 -0.36 
630.53 54.86 0.96 
631.46 54.50 -1.15 
631.33 54.38 -0.23 
631.53 54.45 0.84 
631.53 54.38 2.50 
631.69 54.93 -0.99 
631.68 54.43 0.03 
632.08 55.02 0.53 
631.81 54.64 1.04 
632.03 54.97 1.61 
631.72 54.58 3.06 
631.65 54.81 3.85 
632.29 54.64 5.05 
632.72 54.86 -1.04 
632.45 55.02 0.42 
632.42 54.92 3.35 
632.42 54.87 4.40 
632.70 54.66 5.67 
633.69 55.01 -1.75 
634.07 54.54 -1.74 
635.03 54.98 -1.03 
635.67 54.86 -1.22 
635.76 54.41 0.55 
635.78 54.43 2.25 
635.79 54.44 3.10 
635.80 54.45 3.96 
636.50 54.56 -0.60 
636.31 54.71 -0.41 
636.09 54.48 0.39 
636.08 54.48 1.19 
636.29 54.70 1.92 
636.28 54.70 2.70 
636.27 54.69 3.49 
636.26 54.69 4.27 
635.82 54.46 4.81 
636.80 54.89 -0.60 
637.03 54.61 -0.37 
637.02 54.61 0.41 
637.02 54.61 1.20 
637.01 54.60 1.98 
637.01 54.60 2.77 
637.00 54.60 3.56 
636.56 54.73 4.18 
637.13 54.77 4.45 
637.62 54.69 -0.94 
637.17 54.78 -0.34 
637.44 54.49 0.44 
637.44 54.49 1.24 
637.44 54.97 2.01 
637.43 54.97 2.83 
637.39 54.42 3.29 
637.44 54.48 4.47 
637.95 54.81 -1.25 
638.45 54.48 -0.56 
638.17 54.84 2.70 
638.32 54.57 4.05 
639.30 54.61 -1.52 
638.70 54.76 -0.57 
639.08 54.79 -0.46 
638.62 54.81 0.53 
638.83 55.02 3.64 
639.79 54.67 -1.02 
639.85 54.37 -0.37 
639.49 54.92 0.40 
639.31 54.81 3.40 
640.24 54.45 -1.79 
640.35 54.76 -0.92 
640.26 54.52 3.87 
641.15 54.79 -1.29 
641.08 54.49 -0.93 
641.45 54.74 -1.36 
641.69 54.55 -1.16 
642.11 54.44 -1.35 
617.70 55.20 -0.11 
617.67 55.23 0.73 
617.76 55.26 1.82 
618.13 55.35 5.01 
627.17 55.72 0.20 
627.14 55.72 0.98 
627.11 55.71 1.76 
627.08 55.71 2.54 
627.06 55.70 3.32 
627.92 55.66 -0.55 
627.86 55.75 0.24 
627.85 55.73 1.00 
627.83 55.70 1.76 
627.82 55.68 2.52 
627.81 55.66 3.29 
627.99 55.75 4.34 
628.12 55.58 0.18 
628.34 55.63 0.48 
628.34 55.66 1.26 
628.34 55.68 2.04 
628.34 55.71 2.82 
628.35 55.74 3.60 
628.66 55.76 3.77 
629.47 55.12 -0.72 
629.13 55.20 0.17 
628.97 55.39 0.50 
629.12 55.19 0.96 
629.11 55.19 1.75 
629.10 55.18 2.55 
629.09 55.18 3.34 
629.08 55.17 4.14 
629.66 55.40 -1.23 
629.61 55.75 -1.01 
629.90 55.18 -0.11 
629.67 55.51 0.45 
629.66 55.49 1.26 
629.65 55.47 2.08 
629.61 55.35 2.79 
629.60 55.53 3.39 
629.55 55.64 3.92 
629.59 55.33 4.42 
629.93 55.70 5.38 
630.50 55.33 -1.35 
630.21 55.60 -0.68 
630.53 55.47 0.32 
630.51 55.14 1.01 
630.39 55.75 3.04 
630.95 55.40 -0.22 
631.37 55.13 0.34 
631.70 55.70 -0.54 
632.16 55.55 -0.26 
632.33 55.38 0.56 
631.65 55.53 0.93 
632.25 55.29 2.18 
632.10 55.38 3.14 
632.09 55.35 3.82 
632.73 55.29 -1.83 
632.45 55.54 -0.25 
632.58 55.73 0.59 
632.42 55.46 1.10 
632.50 55.53 2.03 
632.40 55.39 2.46 
632.38 55.36 3.14 
632.37 55.32 3.82 
632.61 55.37 4.49 
633.01 55.67 5.63 
633.30 55.72 -0.95 
633.22 55.33 0.55 
633.95 55.08 -1.84 
634.41 55.75 -0.08 
634.28 55.51 0.86 
634.40 55.74 1.41 
634.39 55.73 2.15 
634.39 55.72 2.90 
634.38 55.71 3.65 
634.38 55.71 4.40 
634.72 55.71 -0.79 
634.78 55.61 -0.11 
634.71 55.69 0.65 
634.70 55.68 1.38 
634.69 55.68 2.10 
634.68 55.67 2.83 
634.68 55.66 3.56 
634.67 55.65 4.29 
635.28 55.46 -1.01 
636.07 55.16 -0.66 
636.14 55.26 -0.30 
636.17 55.29 2.21 
636.50 55.19 2.75 
636.18 55.30 3.05 
636.19 55.31 3.89 
636.20 55.32 4.73 
636.98 55.50 -0.56 
636.72 55.40 -0.39 
636.72 55.39 0.37 
636.71 55.39 1.14 
636.98 55.42 1.87 
636.69 55.38 2.68 
636.69 55.38 3.45 
636.68 55.37 4.22 
637.63 55.42 -0.62 
637.58 55.52 -0.33 
637.42 55.33 0.42 
637.41 55.33 1.19 
637.56 55.52 2.02 
637.56 55.51 2.81 
637.55 55.51 3.60 
637.39 55.31 4.30 
637.54 55.51 4.39 
638.26 55.74 -1.29 
