# .PCD v0.7 - Point Cloud Data file format
VERSION 0.7
FIELDS x y z
SIZE 4 4 4
TYPE F F F
COUNT 1 1 1
WIDTH 2139
HEIGHT 1
VIEWPOINT 0 0 0 1 0 0 0
POINTS 2139
DATA ascii
647.15 -14.46 4.51 
649.60 -13.84 5.26 
650.79 -14.23 4.70 
653.06 -13.86 3.61 
653.67 -14.30 1.44 
653.66 -14.31 3.38 
654.07 -14.37 0.92 
654.03 -13.92 1.80 
654.38 -14.04 3.38 
654.74 -14.52 1.92 
655.81 -13.89 5.55 
655.65 -14.13 6.40 
656.16 -14.31 1.79 
656.03 -14.07 2.71 
655.97 -13.99 3.64 
656.00 -14.10 4.59 
655.97 -14.11 5.54 
656.14 -14.40 5.97 
657.02 -14.29 -0.07 
656.70 -13.88 1.09 
657.29 -14.26 6.14 
657.80 -14.21 1.07 
657.76 -14.23 2.58 
657.58 -13.97 3.13 
658.04 -14.10 2.90 
658.14 -14.05 3.21 
658.41 -13.95 5.48 
659.25 -14.47 1.37 
659.32 -14.24 2.59 
659.41 -14.35 3.61 
659.42 -14.37 4.62 
659.79 -14.05 0.33 
660.03 -13.87 4.31 
659.49 -14.36 4.78 
660.78 -13.87 1.42 
660.31 -14.05 2.14 
660.45 -14.47 2.95 
660.33 -14.14 3.20 
660.54 -14.43 4.14 
661.40 -14.02 4.02 
661.22 -14.46 5.73 
661.25 -14.06 6.49 
661.52 -14.38 6.84 
661.57 -14.44 3.61 
662.21 -14.43 4.05 
661.84 -13.87 5.77 
662.01 -13.95 7.25 
662.45 -14.04 2.59 
663.20 -13.84 8.19 
663.82 -13.83 5.14 
664.37 -13.86 2.97 
664.39 -13.97 5.14 
665.31 -14.09 0.32 
666.87 -14.41 4.29 
666.75 -14.38 4.93 
667.14 -14.04 5.66 
646.22 -13.44 4.06 
647.41 -13.24 4.08 
647.50 -13.61 4.44 
647.25 -13.28 5.29 
648.95 -13.64 4.29 
651.41 -13.14 3.54 
651.12 -13.59 4.38 
652.16 -13.16 0.99 
652.39 -13.51 4.27 
652.33 -13.81 4.53 
653.06 -13.63 4.74 
654.09 -13.61 1.18 
654.50 -13.38 1.83 
653.89 -13.79 4.18 
653.90 -13.41 4.82 
654.70 -13.27 1.03 
655.26 -13.26 1.88 
655.40 -13.40 4.38 
655.52 -13.23 5.60 
656.25 -13.63 0.95 
656.51 -13.15 5.01 
656.56 -13.39 6.61 
656.94 -13.34 0.03 
657.05 -13.20 0.24 
656.84 -13.14 0.96 
656.73 -13.79 4.58 
656.96 -13.50 6.10 
657.90 -13.73 1.22 
657.47 -13.57 1.82 
657.48 -13.64 2.76 
657.88 -13.32 3.09 
657.54 -13.50 4.57 
657.72 -13.15 5.15 
658.43 -13.66 3.71 
658.27 -13.62 3.95 
658.49 -13.79 4.70 
658.26 -13.72 5.88 
659.36 -13.41 0.36 
659.13 -13.49 0.93 
659.36 -13.61 2.11 
658.76 -13.22 2.33 
659.33 -13.31 3.27 
659.40 -13.43 4.32 
659.32 -13.70 5.74 
660.05 -13.43 1.13 
659.97 -13.78 3.29 
659.92 -13.61 5.43 
660.69 -13.39 1.60 
660.78 -13.50 2.61 
660.84 -13.55 3.29 
660.69 -13.33 3.88 
660.64 -13.68 5.62 
660.85 -13.32 1.74 
660.78 -13.50 2.61 
660.84 -13.55 3.29 
660.83 -13.36 3.81 
661.47 -13.71 6.31 
661.87 -13.15 2.27 
662.09 -13.79 2.67 
661.79 -13.40 3.36 
662.10 -13.29 3.82 
661.85 -13.59 4.67 
661.74 -13.46 6.16 
662.19 -13.79 7.03 
663.19 -13.16 -0.23 
663.18 -13.17 0.81 
663.18 -13.18 1.86 
663.17 -13.21 2.91 
663.17 -13.24 3.96 
663.17 -13.27 5.02 
663.44 -13.19 5.84 
662.99 -13.14 6.98 
663.50 -13.29 7.33 
664.15 -13.54 2.08 
664.29 -13.72 4.04 
663.67 -13.79 5.42 
664.04 -13.60 8.25 
664.57 -13.58 3.81 
665.19 -13.49 -0.23 
665.36 -13.20 1.71 
665.35 -13.50 2.70 
665.08 -13.46 3.07 
665.18 -13.22 3.72 
666.06 -13.35 0.86 
666.12 -13.50 1.94 
665.73 -13.56 4.25 
666.31 -13.40 5.32 
666.91 -13.61 2.43 
666.94 -13.72 4.54 
666.91 -13.15 6.37 
644.24 -12.43 4.55 
647.34 -12.73 4.06 
647.23 -12.62 4.74 
648.02 -13.04 4.32 
648.57 -12.89 5.96 
649.48 -13.08 4.83 
649.08 -12.72 5.77 
649.56 -12.49 6.69 
649.62 -12.63 4.02 
650.02 -13.05 4.68 
651.40 -12.98 3.62 
651.70 -12.61 4.15 
652.84 -12.76 3.32 
652.81 -12.62 4.12 
653.01 -12.42 5.32 
653.29 -12.93 0.57 
653.61 -12.64 2.02 
653.67 -12.75 6.12 
653.95 -12.56 0.13 
654.87 -13.05 1.20 
654.93 -12.56 4.52 
655.46 -12.72 0.00 
655.33 -12.61 0.72 
655.78 -12.46 1.98 
655.78 -12.56 4.56 
655.27 -12.74 6.45 
656.00 -12.86 0.23 
655.94 -12.74 1.15 
656.41 -12.75 1.87 
656.73 -12.53 2.00 
656.83 -12.83 2.92 
657.08 -12.77 6.30 
657.91 -12.45 0.51 
657.69 -12.85 1.96 
657.36 -12.58 3.72 
657.43 -12.76 4.66 
657.72 -12.56 5.75 
658.18 -12.94 2.54 
658.46 -12.75 3.08 
659.30 -12.94 0.58 
659.16 -12.76 1.54 
659.01 -12.65 1.66 
659.19 -12.99 2.94 
658.72 -12.51 3.41 
659.26 -13.07 3.94 
658.92 -13.00 4.67 
659.96 -12.51 0.58 
659.79 -12.74 1.39 
659.77 -12.52 2.12 
660.03 -12.90 3.46 
659.77 -12.67 4.34 
659.64 -12.62 5.19 
660.32 -12.69 2.81 
660.60 -12.73 3.79 
660.79 -12.84 5.14 
661.27 -12.81 1.29 
660.82 -12.89 2.12 
661.23 -12.80 2.83 
660.85 -12.93 3.13 
660.85 -12.91 4.14 
661.94 -12.99 6.27 
662.04 -12.51 7.08 
662.57 -13.08 2.66 
662.82 -12.53 3.08 
662.60 -12.61 3.80 
662.42 -12.88 5.19 
662.43 -13.05 6.59 
663.10 -12.74 2.59 
663.51 -12.73 6.34 
664.07 -12.76 -0.42 
663.99 -12.71 2.62 
664.17 -12.60 3.36 
664.16 -12.79 6.32 
663.89 -12.96 8.11 
664.91 -13.00 -0.08 
664.48 -12.64 1.98 
664.51 -12.74 2.73 
664.98 -12.87 4.72 
664.86 -12.68 5.73 
664.47 -12.74 6.10 
665.61 -13.04 2.37 
665.41 -12.74 3.36 
666.10 -13.04 -0.41 
666.19 -12.89 0.67 
666.91 -12.82 0.64 
666.98 -12.96 1.69 
667.01 -12.72 2.82 
666.75 -12.90 4.10 
667.05 -12.87 4.97 
667.01 -12.83 6.04 
667.13 -12.97 3.90 
643.71 -12.10 4.47 
644.93 -12.09 4.18 
644.87 -11.73 4.47 
645.58 -11.88 4.16 
646.40 -11.95 4.67 
646.43 -11.96 5.16 
647.01 -11.80 1.77 
647.95 -11.83 3.70 
647.69 -12.27 4.35 
647.97 -12.24 4.99 
648.04 -11.77 6.79 
648.80 -11.77 3.20 
648.51 -11.97 4.01 
648.62 -12.15 4.74 
648.23 -12.29 5.46 
648.87 -11.75 6.80 
649.07 -11.83 3.92 
649.75 -12.25 4.51 
650.39 -12.05 1.98 
650.74 -12.38 3.29 
651.43 -11.91 2.92 
651.70 -12.06 3.22 
652.38 -12.31 -0.28 
652.22 -11.95 0.85 
652.02 -12.15 2.00 
652.30 -11.92 2.67 
651.90 -11.81 3.72 
652.26 -12.08 5.85 
653.05 -12.36 2.19 
652.80 -12.06 3.58 
653.24 -12.24 -0.49 
653.35 -11.90 1.82 
653.36 -11.84 2.92 
653.62 -11.98 3.03 
653.29 -11.89 5.09 
653.96 -12.26 3.74 
654.13 -12.14 6.09 
654.55 -12.35 0.00 
655.02 -12.07 0.85 
655.19 -12.11 2.66 
655.11 -11.83 3.62 
654.94 -12.13 3.84 
655.81 -11.89 -0.14 
655.27 -11.84 1.03 
655.81 -12.24 1.97 
655.44 -11.92 2.43 
655.57 -11.77 4.74 
655.61 -12.39 5.53 
655.69 -12.34 7.08 
656.31 -12.08 -0.42 
656.30 -12.07 0.54 
656.10 -11.85 2.36 
656.06 -11.78 4.21 
656.98 -12.06 -0.43 
656.68 -12.24 1.15 
657.41 -11.90 1.95 
657.87 -11.97 4.62 
657.38 -12.07 7.12 
658.40 -12.07 2.67 
658.45 -12.38 3.88 
658.24 -12.01 7.15 
659.35 -12.29 3.26 
659.31 -12.27 3.76 
658.81 -12.41 4.51 
659.21 -12.29 5.60 
658.81 -11.82 6.53 
659.73 -12.26 1.24 
659.52 -12.36 2.25 
659.48 -12.35 3.11 
659.66 -12.35 3.93 
659.97 -11.90 7.56 
660.60 -12.05 0.27 
660.31 -11.73 2.70 
660.28 -12.18 3.44 
660.47 -11.91 3.72 
660.52 -11.97 4.50 
660.27 -12.09 5.43 
661.33 -11.73 3.28 
661.29 -11.78 4.32 
661.24 -12.24 4.57 
661.26 -11.82 5.37 
661.92 -12.08 2.80 
662.09 -12.07 3.62 
661.98 -12.38 6.07 
662.72 -11.98 3.54 
662.49 -11.74 5.12 
662.58 -11.88 6.08 
663.37 -11.87 4.95 
663.01 -11.84 6.84 
664.28 -11.89 1.39 
664.31 -11.78 3.06 
663.89 -11.94 4.39 
663.68 -12.40 6.01 
663.94 -12.16 6.58 
664.70 -12.04 3.28 
664.53 -12.41 7.05 
665.52 -11.72 3.76 
665.65 -12.02 4.82 
665.07 -11.86 5.36 
665.63 -12.01 5.87 
665.74 -12.10 2.75 
666.25 -11.78 3.69 
666.01 -12.25 5.40 
666.37 -12.14 6.25 
666.41 -11.80 7.49 
666.25 -12.39 8.37 
666.65 -11.80 3.42 
666.76 -12.12 4.45 
666.86 -12.34 6.55 
666.82 -11.75 7.29 
667.01 -12.00 8.41 
667.58 -12.41 3.79 
667.57 -12.06 4.94 
667.20 -12.17 6.31 
644.46 -11.32 4.40 
647.25 -11.08 4.08 
647.15 -11.12 4.88 
647.44 -11.31 5.67 
647.11 -11.60 6.01 
647.67 -11.08 1.44 
648.04 -11.65 1.77 
648.20 -11.29 2.39 
648.19 -11.32 3.22 
648.00 -11.50 3.85 
647.54 -11.60 4.88 
647.86 -11.20 5.49 
647.81 -11.11 6.31 
648.23 -11.09 -0.89 
648.24 -11.19 -0.07 
648.24 -11.29 0.75 
648.24 -11.36 1.57 
648.73 -11.16 3.18 
648.74 -11.41 3.92 
648.57 -11.29 7.17 
649.50 -11.27 0.72 
649.43 -11.26 1.56 
649.53 -11.23 2.93 
649.59 -11.38 3.29 
649.59 -11.46 4.14 
649.61 -11.04 4.81 
649.51 -11.37 5.92 
649.84 -11.32 3.09 
650.28 -11.48 5.03 
650.24 -11.43 5.88 
650.36 -11.14 3.48 
650.67 -11.12 4.00 
651.05 -11.07 5.00 
651.05 -11.32 5.58 
651.24 -11.25 6.19 
652.83 -11.16 3.41 
652.93 -11.26 4.09 
653.08 -11.55 6.82 
653.45 -11.28 3.12 
653.64 -11.11 6.81 
653.97 -11.56 1.64 
653.94 -11.48 2.69 
654.05 -11.41 3.79 
654.23 -11.46 4.53 
654.62 -11.60 2.21 
655.04 -11.58 4.56 
655.68 -11.45 0.63 
655.65 -11.51 2.73 
655.33 -11.56 3.36 
656.03 -11.65 3.27 
656.16 -11.36 6.01 
656.96 -11.61 0.54 
656.88 -11.38 1.49 
656.62 -11.50 2.67 
656.67 -11.69 3.65 
657.22 -11.68 3.89 
656.65 -11.67 4.62 
656.64 -11.66 5.60 
657.50 -11.33 1.44 
658.00 -11.38 2.69 
657.58 -11.30 3.64 
657.71 -11.29 4.80 
658.68 -11.30 1.89 
658.63 -11.07 2.88 
658.32 -11.06 5.35 
658.08 -11.15 5.97 
659.42 -11.26 2.25 
658.85 -11.52 5.54 
659.31 -11.52 6.26 
659.47 -11.36 3.27 
659.56 -11.32 4.81 
659.57 -11.36 5.75 
660.68 -11.34 0.71 
660.70 -11.16 2.95 
660.45 -11.14 4.39 
660.74 -11.55 4.48 
660.78 -11.68 5.67 
660.59 -11.29 6.54 
660.93 -11.26 0.57 
661.25 -11.12 3.04 
661.05 -11.42 4.22 
660.90 -11.22 4.47 
661.06 -11.65 5.52 
661.95 -11.21 3.02 
662.20 -11.51 5.79 
662.51 -11.50 2.82 
662.57 -11.23 3.10 
662.76 -11.36 5.36 
663.35 -11.53 3.64 
663.13 -11.23 5.14 
664.09 -11.36 1.10 
664.16 -11.04 3.03 
664.02 -11.53 6.79 
664.49 -11.66 1.28 
664.70 -11.62 2.97 
664.58 -11.03 6.29 
664.57 -11.58 6.59 
665.54 -11.35 1.33 
665.62 -11.10 2.84 
665.59 -11.46 4.03 
665.17 -11.65 4.99 
665.19 -11.03 6.61 
666.41 -11.31 4.47 
667.01 -11.14 4.19 
666.86 -11.29 5.75 
667.05 -11.31 7.52 
667.35 -11.21 3.43 
667.47 -11.15 4.15 
667.39 -11.61 4.47 
643.32 -10.36 4.00 
644.21 -10.91 3.76 
644.64 -10.92 4.84 
645.17 -10.40 2.68 
645.02 -10.55 3.89 
645.54 -10.33 3.77 
646.19 -10.51 2.77 
646.34 -10.85 3.81 
647.27 -10.95 3.57 
647.36 -10.52 5.25 
647.65 -10.81 -1.00 
647.66 -10.91 -0.19 
647.67 -11.02 0.62 
648.19 -10.55 2.24 
648.05 -10.57 3.06 
647.93 -10.86 3.88 
647.55 -10.87 4.69 
648.05 -10.67 5.62 
648.15 -10.82 6.33 
648.89 -10.69 -1.13 
648.92 -10.79 -0.30 
648.25 -10.66 0.63 
648.83 -11.02 1.59 
648.77 -10.90 2.40 
648.82 -10.56 3.43 
648.64 -11.02 3.98 
648.50 -10.70 4.99 
648.78 -10.60 5.50 
648.69 -10.79 5.85 
649.47 -10.39 -0.30 
649.29 -10.80 0.74 
649.29 -10.81 1.55 
649.44 -10.40 2.18 
649.40 -10.97 2.38 
649.30 -10.86 3.67 
649.56 -10.68 4.27 
649.25 -10.42 5.54 
650.25 -10.35 0.98 
650.22 -10.34 1.81 
650.21 -10.37 2.64 
650.21 -10.40 3.48 
649.62 -10.99 3.97 
650.61 -10.35 0.93 
650.56 -10.34 1.77 
650.55 -10.37 2.61 
650.54 -10.40 3.45 
650.99 -10.97 4.14 
650.48 -10.41 5.64 
650.85 -11.00 6.10 
651.22 -10.47 2.11 
651.32 -10.80 3.11 
651.30 -10.45 5.66 
651.75 -10.70 3.58 
652.35 -10.37 4.49 
652.28 -10.34 5.60 
651.82 -10.84 5.91 
652.81 -10.84 5.19 
653.73 -10.64 1.95 
653.32 -10.84 5.40 
654.36 -10.84 3.86 
655.00 -10.87 5.01 
654.70 -10.78 5.72 
654.85 -10.39 6.82 
655.68 -10.54 1.39 
655.87 -10.92 4.03 
655.63 -10.37 6.89 
656.35 -10.95 3.82 
656.51 -10.87 5.61 
656.44 -10.37 6.97 
657.12 -10.38 2.05 
656.95 -10.86 3.26 
657.28 -10.96 4.12 
657.10 -10.39 4.81 
657.11 -10.84 6.39 
657.56 -10.62 1.04 
657.38 -10.81 2.71 
657.50 -10.93 3.39 
657.45 -10.37 3.80 
657.38 -10.84 5.67 
658.68 -10.35 4.52 
658.30 -10.84 5.12 
658.31 -10.96 6.15 
658.98 -10.51 1.08 
658.90 -10.43 1.87 
659.22 -10.78 2.85 
659.35 -10.65 6.43 
658.86 -10.89 7.04 
659.94 -10.87 1.11 
659.43 -10.95 2.58 
659.49 -10.76 3.35 
660.03 -10.52 3.85 
659.44 -11.00 4.54 
659.93 -10.74 6.21 
660.74 -10.42 1.01 
660.32 -10.35 2.81 
660.61 -10.58 3.48 
660.28 -10.85 4.53 
660.50 -10.97 5.70 
660.33 -10.58 5.94 
661.11 -10.45 1.31 
661.20 -10.43 2.22 
660.94 -10.71 2.82 
661.36 -10.73 3.28 
661.47 -10.73 4.20 
661.42 -10.38 4.92 
661.30 -10.80 5.52 
661.22 -10.84 7.54 
662.09 -10.77 1.33 
662.08 -10.59 5.60 
662.43 -10.86 3.99 
663.22 -10.74 6.14 
664.09 -10.47 1.28 
664.28 -10.38 3.01 
663.92 -10.44 5.61 
664.74 -10.77 3.23 
664.62 -10.39 4.09 
664.63 -10.51 6.18 
665.31 -10.91 2.15 
665.94 -10.36 3.22 
666.08 -10.41 6.07 
666.05 -10.68 6.67 
666.54 -10.64 6.37 
667.04 -10.73 7.21 
667.45 -10.63 3.70 
667.44 -10.70 4.21 
667.50 -10.71 7.17 
643.89 -9.78 5.77 
644.50 -10.28 3.77 
644.75 -9.66 5.88 
644.83 -10.03 6.54 
646.36 -9.85 5.41 
647.28 -10.10 -0.81 
647.30 -10.20 -0.01 
647.31 -10.31 0.80 
647.31 -10.28 1.60 
647.30 -10.26 2.41 
647.29 -10.23 3.21 
647.29 -10.25 4.03 
647.89 -9.88 -0.80 
647.90 -9.93 0.00 
647.90 -9.98 0.80 
647.89 -9.92 1.60 
647.86 -9.79 2.39 
648.35 -9.81 3.85 
648.40 -10.14 4.74 
649.60 -10.13 3.15 
649.58 -10.10 3.96 
649.11 -10.10 5.62 
650.09 -10.22 -0.36 
650.14 -10.30 0.46 
650.31 -10.09 1.27 
650.07 -10.25 2.09 
650.25 -9.99 2.89 
649.69 -9.94 3.55 
649.94 -9.93 3.83 
650.20 -9.90 4.52 
650.87 -10.02 0.17 
650.66 -9.90 0.47 
650.61 -9.87 1.29 
650.74 -9.94 1.83 
650.56 -9.77 2.64 
650.67 -9.92 3.49 
650.46 -9.63 4.55 
651.36 -9.91 0.68 
651.32 -9.93 1.52 
651.10 -9.93 1.80 
651.64 -10.04 2.67 
651.32 -10.05 3.23 
652.07 -10.08 1.89 
651.77 -9.95 2.95 
651.81 -10.01 3.80 
652.42 -9.71 5.82 
652.58 -10.31 1.96 
652.85 -9.73 2.95 
652.94 -9.63 5.67 
653.30 -10.00 2.22 
653.74 -9.72 2.72 
653.73 -10.25 3.03 
653.65 -9.80 4.02 
654.27 -10.09 4.47 
655.00 -10.30 1.44 
654.53 -9.79 3.65 
655.15 -10.25 4.62 
655.41 -9.64 2.94 
655.54 -9.62 4.60 
655.34 -10.02 5.74 
656.54 -9.93 1.99 
656.26 -9.73 2.97 
655.99 -10.23 3.20 
656.39 -9.72 4.95 
656.98 -9.91 1.78 
656.99 -10.08 3.55 
657.20 -9.74 4.98 
657.48 -10.29 1.74 
657.89 -10.25 2.70 
657.63 -9.74 3.53 
657.92 -9.70 4.66 
658.12 -9.92 0.02 
658.59 -10.07 0.75 
658.17 -10.23 1.93 
658.68 -9.79 3.36 
658.55 -10.11 5.10 
658.22 -9.81 5.14 
659.28 -9.75 1.87 
658.99 -10.24 2.62 
658.72 -10.17 5.90 
659.81 -10.20 0.99 
659.54 -9.93 1.65 
659.51 -9.74 2.95 
660.04 -9.82 3.30 
660.40 -9.86 2.94 
660.75 -10.02 3.66 
660.57 -9.98 5.43 
660.55 -10.04 6.16 
660.94 -9.89 3.45 
661.45 -10.06 4.49 
660.92 -9.94 5.62 
660.85 -9.68 5.87 
661.52 -10.12 6.54 
661.77 -10.25 2.64 
661.57 -9.87 3.30 
661.55 -9.67 4.40 
662.04 -9.76 4.57 
662.16 -10.21 7.14 
662.36 -10.04 1.14 
662.71 -10.18 2.68 
662.27 -9.72 5.58 
662.90 -9.77 7.14 
662.27 -10.20 7.53 
663.08 -10.22 1.25 
663.14 -10.16 3.29 
663.13 -10.08 7.57 
663.78 -9.67 3.31 
663.84 -9.67 3.98 
664.29 -10.20 5.65 
663.90 -10.01 6.15 
664.08 -10.14 6.54 
664.34 -9.92 5.58 
664.68 -9.67 6.16 
664.63 -9.62 7.23 
665.13 -9.76 3.03 
665.39 -10.31 4.56 
665.24 -9.86 6.15 
665.35 -10.25 6.74 
665.80 -9.88 3.08 
665.98 -9.66 5.91 
666.13 -9.93 6.76 
666.80 -10.30 2.73 
666.92 -9.74 3.33 
667.25 -9.87 3.09 
644.19 -8.97 4.86 
644.57 -8.99 5.75 
644.88 -8.96 4.67 
645.38 -9.05 5.77 
644.88 -9.25 5.87 
646.01 -9.51 5.14 
646.56 -9.20 -0.20 
646.56 -9.21 2.44 
646.56 -9.20 3.32 
646.48 -8.96 3.91 
646.39 -8.98 5.72 
646.46 -9.36 6.47 
647.29 -9.28 0.21 
647.30 -9.39 1.02 
647.30 -9.38 1.82 
647.33 -9.55 2.64 
646.87 -8.94 3.91 
647.25 -9.10 6.45 
647.57 -8.95 -0.37 
647.58 -9.06 0.45 
647.95 -9.35 1.82 
647.97 -9.20 2.45 
647.80 -9.53 3.17 
648.07 -9.28 4.48 
647.99 -9.44 5.91 
648.87 -9.16 3.49 
648.68 -9.26 4.23 
648.70 -9.44 5.14 
648.75 -9.26 5.90 
648.46 -9.17 6.97 
649.54 -8.98 2.81 
649.57 -8.97 3.80 
649.57 -8.99 4.64 
650.07 -9.57 -0.72 
650.09 -9.59 2.54 
649.87 -8.99 3.55 
650.03 -9.47 4.17 
649.76 -9.56 4.61 
649.75 -9.56 5.43 
650.60 -9.17 -0.72 
650.66 -9.27 0.91 
650.62 -9.19 1.72 
650.61 -9.17 2.53 
650.64 -9.59 3.51 
650.83 -9.18 3.73 
650.75 -9.10 4.53 
651.13 -9.26 -0.64 
651.16 -9.32 0.17 
651.19 -9.37 0.99 
651.18 -9.35 1.80 
651.53 -9.48 2.58 
651.59 -9.58 3.42 
652.03 -9.45 2.66 
652.37 -9.58 4.31 
652.15 -9.47 4.55 
652.33 -9.51 5.15 
652.93 -9.42 1.83 
652.92 -9.58 5.25 
653.23 -9.11 5.64 
654.49 -9.29 4.94 
654.99 -9.05 2.14 
655.01 -9.29 3.13 
654.74 -9.52 6.21 
655.59 -9.57 2.96 
656.03 -9.40 1.64 
656.10 -9.25 2.66 
656.27 -9.15 3.92 
656.49 -9.04 5.30 
656.87 -9.61 0.73 
656.91 -9.03 1.96 
656.89 -9.14 2.68 
656.72 -9.26 3.72 
657.58 -9.52 0.07 
657.63 -8.94 0.56 
657.40 -9.20 1.78 
657.71 -9.11 2.70 
657.97 -9.49 3.02 
658.64 -9.57 2.65 
658.57 -9.46 4.67 
658.21 -9.05 5.67 
659.15 -9.29 1.58 
659.09 -9.46 3.25 
659.75 -9.11 1.88 
659.95 -9.15 2.52 
659.51 -9.31 3.20 
660.61 -9.31 2.41 
660.65 -9.41 3.30 
660.89 -9.03 2.16 
661.08 -9.23 3.13 
660.97 -9.36 3.89 
661.18 -9.61 4.88 
661.23 -9.40 5.24 
662.10 -9.50 2.99 
662.10 -9.25 3.32 
662.21 -9.28 4.17 
662.02 -9.26 5.45 
662.48 -9.33 0.96 
662.44 -9.56 4.42 
662.82 -9.37 5.68 
662.22 -9.36 5.93 
663.35 -9.54 0.82 
663.19 -9.27 2.76 
663.10 -9.45 3.03 
663.19 -9.20 5.45 
663.69 -9.31 2.85 
663.79 -9.39 6.66 
664.71 -9.33 6.50 
665.86 -8.97 3.63 
665.84 -9.13 4.08 
666.41 -9.31 5.40 
665.94 -9.43 6.16 
666.65 -9.05 2.67 
666.51 -9.46 3.11 
666.97 -9.42 5.24 
667.19 -9.36 2.45 
667.37 -9.30 3.16 
642.87 -8.66 1.49 
643.09 -8.61 2.59 
643.19 -8.70 4.43 
643.36 -8.25 -0.37 
643.90 -8.40 2.63 
643.62 -8.73 3.61 
643.38 -8.50 5.36 
644.24 -8.29 0.46 
644.23 -8.32 1.43 
644.22 -8.32 2.41 
644.63 -8.65 4.69 
644.37 -8.80 5.74 
645.02 -8.47 -0.86 
645.01 -8.62 0.09 
644.99 -8.75 1.03 
644.99 -8.73 1.98 
644.88 -8.43 2.64 
644.85 -8.58 3.65 
644.89 -8.61 5.57 
645.40 -8.46 6.73 
645.66 -8.53 -0.01 
645.65 -8.67 0.92 
645.65 -8.63 1.85 
645.64 -8.68 2.78 
645.75 -8.49 3.41 
645.63 -8.65 4.66 
645.61 -8.62 5.67 
645.58 -8.69 6.69 
646.23 -8.57 -0.12 
646.23 -8.70 0.78 
646.23 -8.64 1.68 
646.22 -8.67 2.59 
646.49 -8.71 5.40 
647.24 -8.84 -0.19 
646.94 -8.36 0.78 
647.24 -8.85 1.55 
646.93 -8.27 1.67 
647.34 -8.38 2.93 
647.12 -8.83 3.73 
646.86 -8.72 4.75 
647.22 -8.85 5.83 
648.18 -8.52 -1.18 
648.18 -8.58 -0.37 
648.19 -8.64 0.45 
648.19 -8.65 1.27 
647.53 -8.61 2.19 
647.67 -8.79 2.60 
648.08 -8.81 3.46 
647.56 -8.91 3.76 
647.56 -8.89 4.59 
647.85 -8.77 5.60 
648.10 -8.47 6.23 
648.22 -8.67 2.19 
648.89 -8.91 2.95 
648.92 -8.85 3.93 
648.38 -8.76 5.35 
649.59 -8.49 6.41 
649.41 -8.61 6.85 
649.96 -8.45 3.06 
650.12 -8.62 6.97 
650.45 -8.66 3.26 
650.89 -8.34 4.91 
650.73 -8.58 5.22 
651.00 -8.38 6.88 
651.52 -8.73 3.40 
651.39 -8.56 4.19 
651.06 -8.85 4.46 
652.00 -8.81 1.86 
651.87 -8.38 4.88 
652.54 -8.50 -0.99 
652.79 -8.57 1.89 
652.94 -8.78 3.36 
652.78 -8.51 4.81 
653.05 -8.56 5.68 
653.57 -8.30 0.61 
655.17 -8.88 5.06 
655.06 -8.57 5.38 
655.89 -8.88 0.72 
655.40 -8.60 1.96 
655.89 -8.42 6.08 
656.50 -8.40 1.63 
655.99 -8.43 3.23 
656.27 -8.79 4.37 
656.40 -8.50 5.07 
657.28 -8.51 2.55 
656.84 -8.25 3.26 
656.89 -8.84 4.90 
657.28 -8.90 5.14 
658.00 -8.60 0.52 
657.36 -8.36 1.95 
657.53 -8.71 2.36 
657.60 -8.78 4.70 
659.00 -8.92 2.81 
660.04 -8.82 1.40 
659.78 -8.83 2.83 
660.21 -8.49 1.94 
661.17 -8.25 2.15 
660.95 -8.59 2.42 
661.96 -8.91 5.23 
662.90 -8.36 2.91 
662.25 -8.51 4.86 
662.72 -8.65 5.77 
663.09 -8.57 5.69 
663.60 -8.90 7.67 
663.79 -8.47 2.95 
663.85 -8.68 3.09 
664.40 -8.52 7.47 
665.54 -8.38 4.71 
665.30 -8.38 5.38 
666.36 -8.28 3.62 
666.38 -8.66 3.84 
666.35 -8.27 5.57 
666.19 -8.89 6.39 
666.76 -8.70 2.81 
666.91 -8.58 3.04 
667.00 -8.68 6.43 
667.46 -8.92 5.07 
667.15 -8.42 5.49 
667.39 -8.91 5.94 
667.30 -8.86 6.63 
643.22 -8.05 -0.42 
643.18 -8.13 0.59 
643.16 -8.08 1.59 
643.13 -8.08 2.60 
642.90 -7.89 3.54 
643.28 -8.20 4.60 
643.32 -7.57 1.50 
643.40 -8.20 6.31 
644.27 -8.12 -0.51 
644.19 -7.92 -0.35 
644.17 -7.99 0.64 
644.16 -7.92 1.62 
644.16 -7.69 2.60 
645.02 -8.17 1.44 
645.02 -7.96 2.40 
644.86 -7.64 4.82 
645.75 -7.71 4.75 
646.37 -7.67 4.55 
646.12 -7.76 5.68 
646.93 -8.08 2.56 
646.92 -7.88 3.44 
646.91 -7.63 4.31 
646.94 -7.54 5.68 
648.10 -7.70 4.66 
649.43 -8.09 3.70 
649.33 -7.61 3.73 
649.43 -7.70 5.73 
649.81 -8.17 3.85 
650.16 -7.55 5.81 
650.33 -7.92 6.35 
651.68 -8.20 -0.98 
651.09 -7.80 6.36 
651.12 -8.20 6.74 
651.85 -7.69 6.36 
651.90 -8.12 6.75 
652.78 -8.00 1.88 
652.72 -7.63 3.75 
652.63 -7.76 6.40 
653.61 -8.16 1.83 
653.17 -7.79 5.84 
654.29 -7.83 1.59 
654.50 -8.13 4.74 
655.11 -8.17 3.18 
654.62 -8.19 5.50 
655.58 -8.06 2.13 
655.99 -7.78 1.95 
656.53 -7.59 5.54 
657.19 -7.70 1.43 
657.02 -7.69 1.62 
656.98 -7.88 5.69 
656.67 -7.84 5.90 
657.91 -7.68 2.33 
657.74 -8.17 4.81 
657.81 -7.78 5.76 
657.92 -7.96 6.30 
658.32 -7.63 2.25 
658.41 -7.89 4.00 
658.57 -7.92 5.29 
658.86 -8.00 6.39 
659.96 -7.99 4.97 
659.57 -8.13 5.12 
660.50 -8.21 1.42 
660.59 -7.81 1.92 
661.11 -8.14 2.39 
661.55 -7.59 2.15 
662.17 -8.19 4.10 
662.59 -7.56 5.05 
662.89 -8.08 5.84 
663.24 -7.90 2.84 
663.26 -8.21 5.55 
664.07 -7.80 2.87 
664.10 -8.00 4.93 
663.64 -7.96 5.74 
664.41 -7.93 2.95 
664.96 -8.09 5.21 
665.21 -7.68 3.09 
665.28 -7.82 4.09 
665.51 -8.21 7.00 
666.19 -8.12 3.49 
665.91 -8.13 5.04 
666.13 -7.97 5.54 
667.06 -7.62 1.46 
666.75 -8.07 3.53 
666.90 -7.72 4.36 
667.07 -8.11 5.14 
667.30 -7.53 3.54 
642.86 -7.00 4.68 
642.93 -7.20 5.53 
643.94 -7.32 5.56 
643.96 -6.87 6.50 
644.69 -6.93 3.99 
644.47 -7.44 4.90 
644.12 -7.12 5.14 
645.03 -7.36 4.29 
645.03 -7.14 5.22 
644.93 -7.00 6.46 
645.27 -7.43 6.63 
645.50 -7.14 4.15 
645.47 -7.22 4.85 
645.75 -7.41 5.65 
646.37 -7.39 5.43 
647.08 -7.39 5.63 
648.01 -7.16 5.55 
647.90 -7.15 6.61 
648.80 -6.97 5.25 
649.36 -7.52 5.77 
649.82 -6.98 4.25 
650.31 -7.02 5.59 
650.83 -7.40 3.00 
651.62 -7.38 5.75 
652.36 -7.39 1.01 
652.30 -7.34 3.26 
651.84 -7.30 3.80 
651.88 -7.50 5.68 
654.31 -7.38 1.83 
655.70 -7.45 2.49 
656.20 -7.34 2.12 
658.38 -6.94 2.31 
658.17 -7.34 4.63 
658.46 -7.34 5.50 
658.77 -6.95 2.24 
661.05 -7.23 1.91 
662.00 -6.99 2.15 
662.77 -6.91 2.11 
663.39 -7.18 4.49 
663.27 -7.38 5.81 
663.72 -7.28 3.54 
664.62 -7.49 -0.71 
664.58 -7.52 0.35 
665.01 -7.20 2.35 
665.12 -7.28 0.28 
665.06 -7.24 1.32 
665.08 -7.51 2.96 
665.14 -7.05 3.82 
665.80 -6.91 0.13 
665.73 -6.83 1.16 
666.41 -7.09 2.80 
666.55 -7.42 6.73 
667.45 -7.34 2.99 
643.00 -6.14 3.19 
642.88 -6.20 4.33 
642.91 -6.60 4.98 
642.99 -6.32 5.42 
643.22 -6.32 5.91 
643.32 -6.12 3.87 
643.44 -6.82 5.11 
644.25 -6.17 0.67 
644.22 -6.17 1.71 
644.17 -6.25 2.76 
644.61 -6.49 3.30 
644.29 -6.65 4.07 
645.02 -6.50 1.75 
645.01 -6.40 2.79 
645.20 -6.43 4.00 
645.80 -6.49 3.87 
646.57 -6.58 6.00 
647.75 -6.53 3.15 
648.51 -6.27 3.60 
648.80 -6.57 6.56 
649.95 -6.18 3.76 
649.67 -6.23 6.53 
650.51 -6.62 5.52 
650.51 -6.17 6.54 
651.32 -6.62 3.18 
651.34 -6.22 6.56 
652.57 -6.71 3.28 
658.34 -6.44 5.19 
660.92 -6.37 2.09 
663.48 -6.24 3.78 
663.79 -6.55 5.34 
664.48 -6.53 1.03 
664.44 -6.41 2.12 
664.82 -6.27 3.92 
665.69 -6.79 2.19 
665.06 -6.78 3.53 
666.37 -6.71 -0.13 
666.29 -6.61 0.89 
666.25 -6.56 1.90 
666.19 -6.48 2.91 
666.32 -6.22 3.22 
666.32 -6.22 4.40 
666.25 -6.13 5.48 
666.30 -6.37 6.54 
667.11 -6.45 0.91 
666.94 -6.12 1.92 
666.93 -6.26 2.61 
666.68 -6.13 4.18 
667.53 -6.61 -0.55 
667.47 -6.54 0.46 
667.39 -6.44 1.46 
667.15 -6.29 6.63 
642.98 -5.60 3.49 
643.20 -5.59 4.69 
642.68 -5.97 5.18 
643.15 -5.64 6.43 
643.24 -6.02 6.94 
643.85 -6.01 1.14 
643.86 -5.84 2.20 
643.88 -5.61 3.24 
644.32 -5.97 -0.37 
645.27 -5.99 3.76 
645.72 -5.56 3.77 
646.06 -5.65 5.84 
646.21 -5.83 4.33 
647.02 -5.54 3.88 
646.94 -5.59 5.84 
647.53 -5.90 3.31 
647.59 -6.10 4.42 
647.81 -5.57 5.85 
648.66 -5.70 5.87 
649.24 -5.62 3.41 
649.14 -5.44 5.94 
652.39 -5.96 6.10 
662.09 -5.50 2.40 
663.32 -5.61 3.74 
663.59 -6.04 6.31 
664.23 -5.47 4.12 
664.31 -5.74 6.11 
664.99 -5.65 3.83 
664.45 -6.08 6.37 
665.19 -5.92 4.29 
665.16 -5.74 6.17 
666.18 -5.98 5.37 
665.74 -5.64 5.86 
666.93 -5.75 5.27 
667.00 -5.97 6.33 
667.24 -6.09 2.54 
667.56 -5.61 3.97 
667.48 -5.56 4.95 
667.52 -5.71 5.99 
667.48 -5.69 7.00 
642.91 -4.80 4.32 
643.10 -5.27 5.09 
642.64 -5.00 6.85 
643.45 -4.90 3.40 
643.91 -5.34 4.28 
643.91 -5.19 5.31 
644.03 -4.93 3.43 
645.26 -5.07 3.50 
645.10 -5.33 4.81 
645.11 -5.00 5.81 
645.84 -5.09 3.63 
646.36 -5.10 3.84 
646.91 -5.11 3.50 
648.83 -4.76 3.64 
649.05 -5.31 2.80 
649.43 -4.78 3.70 
649.02 -5.22 5.56 
649.87 -5.42 3.18 
649.96 -5.33 5.95 
650.77 -5.31 5.97 
651.57 -5.36 6.00 
662.92 -5.42 3.35 
663.80 -4.87 1.63 
665.01 -4.74 1.95 
664.68 -5.35 2.75 
664.67 -5.20 6.73 
665.71 -4.87 3.55 
665.21 -4.79 4.95 
665.57 -4.84 6.70 
665.84 -5.14 2.51 
665.92 -5.34 5.35 
666.21 -5.30 6.04 
666.37 -4.79 7.01 
667.04 -5.24 6.09 
642.97 -4.59 4.09 
643.55 -4.67 4.10 
645.18 -4.26 3.56 
645.70 -4.04 3.74 
646.38 -4.28 3.40 
646.58 -4.62 3.73 
646.55 -4.28 6.28 
647.31 -4.38 2.75 
647.72 -4.28 3.52 
649.19 -4.61 3.29 
649.65 -4.36 2.38 
659.17 -4.55 7.90 
659.80 -4.27 6.82 
660.02 -4.48 7.93 
660.18 -4.51 3.64 
661.38 -4.64 7.18 
661.27 -4.07 8.18 
661.56 -4.55 4.08 
662.80 -4.68 2.49 
663.55 -4.14 2.59 
664.87 -4.58 3.15 
664.37 -4.27 3.72 
664.45 -4.29 4.89 
664.93 -4.53 6.02 
665.60 -4.62 3.31 
665.33 -4.27 4.94 
665.57 -4.67 5.63 
666.39 -4.65 4.86 
666.50 -4.69 4.85 
666.54 -4.69 5.39 
667.39 -4.22 3.19 
667.19 -4.28 4.18 
667.16 -4.27 5.18 
642.80 -3.55 3.27 
643.40 -3.49 3.04 
644.52 -3.91 3.35 
645.41 -3.39 3.66 
644.89 -3.99 6.20 
645.72 -3.63 3.35 
645.69 -3.52 6.16 
646.44 -3.33 6.16 
646.88 -3.49 2.93 
649.67 -3.95 5.04 
658.71 -3.69 8.02 
659.12 -3.59 3.43 
659.56 -3.90 8.08 
660.63 -3.34 4.26 
661.13 -3.41 7.87 
662.14 -3.76 3.08 
662.13 -4.02 3.90 
662.15 -4.00 4.75 
661.82 -3.34 6.65 
661.84 -3.54 8.01 
662.68 -3.33 1.44 
664.61 -3.53 2.08 
664.71 -3.87 3.93 
665.01 -3.51 9.19 
665.28 -3.35 2.30 
665.48 -3.63 3.13 
665.08 -3.34 7.13 
666.38 -4.02 2.36 
666.11 -3.56 4.29 
666.89 -3.39 4.33 
666.64 -3.95 5.39 
666.73 -3.92 5.90 
667.31 -3.75 4.99 
667.30 -3.43 5.26 
643.13 -2.69 1.92 
643.03 -3.18 3.30 
642.87 -2.91 4.11 
643.31 -3.13 4.48 
643.78 -2.72 1.91 
643.35 -2.73 3.50 
643.40 -2.90 4.14 
643.73 -2.83 4.46 
644.66 -2.96 3.07 
645.25 -2.93 2.64 
646.14 -3.13 3.11 
646.54 -3.17 6.07 
647.26 -2.97 6.06 
648.05 -2.69 5.95 
658.22 -2.88 6.58 
658.46 -2.73 9.79 
659.03 -2.67 2.27 
659.07 -3.30 3.38 
659.94 -2.98 3.37 
659.98 -2.92 6.94 
660.66 -3.23 3.73 
660.28 -3.19 11.32 
661.21 -3.20 3.61 
661.36 -2.80 4.34 
661.06 -2.63 10.89 
661.89 -2.71 9.79 
662.75 -2.76 7.86 
663.59 -2.82 8.97 
664.20 -3.21 9.00 
663.68 -2.71 11.08 
665.47 -2.97 2.66 
665.40 -2.95 9.95 
666.13 -2.93 3.12 
665.89 -3.03 4.10 
666.14 -2.93 6.64 
667.01 -2.72 3.78 
666.67 -2.77 4.76 
667.34 -3.01 2.39 
643.10 -2.37 5.02 
643.88 -2.09 3.89 
644.41 -2.06 3.92 
644.12 -2.48 4.44 
644.90 -1.96 3.94 
645.39 -2.48 5.04 
646.24 -2.22 5.01 
646.96 -2.62 2.65 
653.53 -2.09 8.11 
654.39 -2.17 8.09 
657.43 -2.14 2.16 
657.40 -2.08 7.63 
657.90 -2.09 9.04 
658.64 -2.21 4.67 
658.29 -2.05 9.79 
658.50 -2.39 11.24 
659.39 -2.15 6.05 
659.09 -2.19 6.54 
659.30 -2.38 10.88 
659.21 -2.36 11.90 
659.92 -1.98 5.43 
660.01 -2.12 9.78 
660.75 -2.52 3.32 
660.77 -2.35 6.83 
661.04 -2.53 6.33 
660.98 -2.08 6.65 
661.33 -2.23 7.88 
660.91 -2.55 12.03 
661.14 -2.50 12.24 
661.96 -2.53 3.61 
662.14 -2.60 4.44 
661.88 -2.13 11.03 
662.08 -2.57 13.33 
662.74 -2.19 3.61 
662.77 -2.36 5.55 
662.39 -2.48 8.60 
662.78 -2.45 11.06 
662.55 -2.13 12.03 
662.86 -2.48 12.16 
663.29 -2.59 3.69 
663.46 -2.31 5.05 
663.43 -2.33 6.43 
663.51 -2.42 7.02 
663.39 -2.18 13.18 
664.01 -1.96 3.69 
664.28 -2.04 9.96 
664.45 -2.20 2.62 
664.43 -2.45 3.97 
664.44 -2.10 10.92 
665.16 -2.41 2.07 
665.15 -1.94 3.97 
665.59 -1.99 5.58 
665.12 -2.40 6.12 
665.34 -2.17 6.78 
665.57 -2.17 9.02 
666.25 -2.43 5.03 
666.12 -2.61 6.13 
666.15 -1.96 7.06 
667.03 -2.03 3.11 
667.24 -2.52 4.09 
667.16 -2.43 6.16 
643.74 -1.62 3.68 
644.29 -1.71 3.66 
644.03 -1.67 4.91 
644.68 -1.81 5.79 
644.89 -1.64 3.54 
644.89 -1.64 3.54 
645.90 -1.51 6.45 
647.06 -1.85 6.46 
647.86 -1.45 6.43 
654.16 -1.66 6.62 
655.01 -1.83 6.60 
654.87 -1.29 7.61 
655.26 -1.51 6.88 
655.71 -1.43 7.61 
655.30 -1.36 7.94 
656.15 -1.27 6.80 
656.16 -1.85 7.96 
656.57 -1.71 8.67 
656.88 -1.66 2.54 
657.47 -1.27 7.52 
658.57 -1.89 5.91 
658.38 -1.27 8.51 
659.11 -1.47 8.59 
659.14 -1.81 9.74 
659.85 -1.90 2.23 
659.46 -1.64 3.54 
660.06 -1.25 6.07 
659.63 -1.38 8.52 
660.04 -1.56 8.62 
660.09 -1.82 9.67 
660.25 -1.71 5.13 
660.12 -1.25 11.71 
660.99 -1.37 5.22 
661.33 -1.27 9.92 
661.01 -1.67 11.79 
661.07 -1.40 13.93 
662.05 -1.36 2.51 
661.82 -1.58 5.35 
661.53 -1.62 6.70 
661.67 -1.49 7.84 
661.66 -1.63 10.80 
661.85 -1.55 11.75 
661.93 -1.84 12.92 
662.26 -1.35 5.59 
662.42 -1.92 7.50 
662.44 -1.33 10.79 
663.48 -1.67 3.61 
663.22 -1.57 4.23 
662.98 -1.53 6.68 
663.38 -1.91 10.95 
663.53 -1.34 11.88 
664.13 -1.71 5.02 
663.90 -1.77 5.73 
664.12 -1.44 6.94 
663.68 -1.77 13.07 
664.76 -1.57 3.70 
664.58 -1.89 3.74 
665.83 -1.86 2.07 
666.26 -1.48 2.95 
666.29 -1.48 3.66 
665.84 -1.38 3.97 
665.95 -1.72 6.78 
666.18 -1.34 9.99 
666.75 -1.23 5.05 
666.46 -1.34 5.36 
667.24 -1.90 4.73 
643.97 -0.84 3.02 
644.22 -1.14 3.49 
653.41 -0.90 7.65 
654.24 -1.17 7.65 
654.90 -0.97 8.63 
656.57 -0.84 7.47 
656.64 -1.10 7.52 
656.66 -0.63 8.49 
657.92 -1.20 2.85 
657.38 -1.22 6.45 
657.56 -1.08 8.44 
658.14 -0.95 2.23 
658.29 -0.86 7.44 
659.06 -1.14 -0.06 
659.11 -1.07 1.00 
659.16 -0.63 7.43 
659.73 -0.61 2.25 
659.91 -0.96 5.97 
659.98 -0.76 7.48 
660.03 -0.67 10.52 
660.18 -0.82 0.33 
660.21 -0.98 1.38 
660.59 -1.13 2.23 
660.32 -0.54 2.59 
660.35 -0.72 8.46 
661.39 -0.62 0.10 
661.42 -0.67 1.13 
661.18 -1.00 2.55 
661.50 -1.13 4.27 
661.00 -1.17 12.77 
662.17 -0.93 1.13 
661.99 -0.96 8.59 
661.58 -0.89 8.68 
661.81 -1.05 11.87 
661.54 -1.16 12.82 
661.93 -0.92 14.00 
662.92 -0.77 4.48 
662.76 -0.53 7.57 
662.82 -0.63 8.43 
662.42 -1.05 9.69 
662.48 -0.80 10.60 
662.37 -1.17 12.88 
663.08 -0.66 0.56 
663.04 -0.97 2.13 
663.32 -0.98 5.61 
663.05 -0.61 5.87 
663.00 -0.86 7.48 
663.40 -0.77 10.47 
664.07 -0.55 4.59 
664.05 -0.63 6.62 
664.07 -0.65 7.36 
663.85 -0.93 9.82 
664.00 -0.92 12.92 
664.55 -1.22 2.72 
664.93 -0.59 3.14 
664.63 -1.06 4.40 
664.84 -1.00 6.93 
664.99 -0.77 9.52 
666.34 -0.91 5.02 
666.10 -0.88 9.02 
666.88 -0.76 3.65 
666.94 -0.86 5.34 
667.53 -0.90 2.66 
667.29 -0.84 3.08 
667.55 -1.10 5.77 
667.38 -0.97 6.11 
667.30 -1.11 6.83 
643.33 -0.24 2.99 
655.56 0.05 5.13 
655.23 0.09 8.48 
656.55 0.13 5.28 
655.98 -0.18 6.36 
657.36 -0.26 5.31 
658.39 -0.24 4.15 
658.20 -0.27 7.73 
659.02 -0.44 7.71 
659.08 -0.08 8.35 
659.65 0.12 5.59 
661.09 -0.08 7.41 
662.10 -0.03 2.14 
661.61 -0.05 2.51 
662.20 -0.48 6.53 
661.90 -0.19 7.47 
662.86 -0.38 0.08 
662.90 -0.27 1.10 
662.23 -0.26 2.14 
663.37 -0.28 0.37 
663.37 0.13 1.37 
663.11 -0.10 5.21 
663.15 -0.19 6.53 
663.53 -0.34 7.59 
663.11 -0.50 11.71 
664.13 0.00 0.32 
664.18 0.10 1.32 
663.91 0.07 6.14 
664.29 -0.41 9.69 
664.56 0.05 7.78 
665.45 -0.06 -0.11 
665.30 0.02 0.86 
665.54 -0.15 2.91 
665.24 -0.36 5.68 
665.53 -0.13 10.73 
666.30 -0.22 -0.02 
666.10 -0.01 0.96 
665.96 0.17 4.68 
665.75 -0.05 6.47 
665.92 0.06 6.68 
666.53 -0.08 3.16 
666.88 0.00 4.00 
666.71 -0.17 9.04 
667.54 -0.28 3.66 
667.58 -0.44 5.37 
667.56 -0.51 6.32 
654.96 0.27 8.41 
655.44 0.76 8.66 
655.94 0.69 4.19 
656.17 0.61 4.51 
656.75 0.35 4.18 
657.42 0.67 8.27 
658.17 0.53 5.25 
658.19 0.50 6.23 
658.95 0.81 4.17 
658.95 0.75 5.21 
658.89 0.86 6.65 
659.08 0.18 8.30 
659.80 0.56 6.21 
660.60 0.21 4.19 
660.43 0.49 6.93 
660.92 0.59 3.17 
661.51 0.18 5.44 
661.37 0.66 8.34 
661.32 0.53 11.37 
661.69 0.48 3.28 
662.13 0.44 4.13 
662.14 0.25 7.62 
662.82 0.77 7.58 
662.39 0.54 10.23 
662.46 0.32 11.32 
663.53 0.50 2.59 
664.23 0.25 2.31 
664.28 0.74 6.97 
663.96 0.40 8.15 
663.99 0.49 10.34 
664.06 0.80 12.41 
664.76 0.38 0.60 
664.77 0.23 1.59 
664.52 0.68 2.85 
664.57 0.83 4.64 
664.99 0.50 6.58 
664.86 0.59 10.17 
664.47 0.84 11.50 
665.21 0.34 1.08 
665.44 0.76 2.58 
665.08 0.62 5.77 
665.53 0.55 7.06 
665.60 0.57 10.33 
666.02 0.18 2.69 
666.30 0.81 7.00 
666.32 0.58 7.40 
666.22 0.45 10.66 
666.78 0.53 1.73 
666.95 0.64 2.72 
666.92 0.55 4.90 
666.47 0.22 6.48 
667.04 0.45 7.19 
667.53 0.61 0.14 
667.27 0.86 2.13 
667.17 0.46 7.48 
667.31 0.58 9.07 
653.65 1.04 8.41 
654.47 0.95 8.38 
658.20 0.92 7.20 
658.35 1.37 12.19 
658.38 1.39 13.22 
659.16 1.29 12.19 
659.19 1.24 13.25 
659.61 1.00 6.74 
659.76 1.04 8.46 
660.57 1.14 6.12 
660.44 1.41 7.38 
660.77 1.31 12.39 
661.20 1.14 6.02 
661.69 1.00 4.95 
661.57 1.32 5.60 
662.14 1.08 6.08 
662.63 1.26 5.13 
663.29 1.56 5.66 
663.24 0.98 12.20 
664.21 0.90 5.67 
664.88 1.35 3.87 
664.63 0.96 7.23 
664.44 1.09 10.43 
665.28 1.34 7.23 
665.63 1.14 11.09 
666.42 1.35 5.65 
666.14 1.00 6.53 
665.88 1.06 7.73 
666.07 1.14 8.50 
666.28 1.17 10.18 
666.69 1.07 -0.23 
666.64 1.12 0.75 
666.82 1.51 6.50 
667.04 1.46 7.06 
666.83 1.28 10.54 
667.56 1.50 0.05 
667.33 1.14 1.10 
667.27 1.51 2.71 
667.55 1.38 5.23 
657.38 1.85 8.44 
658.12 2.23 8.34 
658.89 2.19 8.31 
658.88 1.80 9.02 
659.22 1.73 13.37 
659.65 1.75 9.06 
659.94 1.71 12.32 
660.02 1.59 13.37 
661.21 1.85 7.19 
661.62 1.86 5.29 
662.61 1.99 5.53 
662.67 1.74 6.24 
663.43 1.69 5.60 
663.10 1.63 8.27 
664.03 1.67 3.83 
663.86 2.21 5.34 
663.92 1.73 6.38 
664.46 1.68 5.40 
664.34 1.82 6.37 
664.97 2.17 11.24 
664.62 2.07 12.07 
665.49 1.64 5.55 
666.16 1.70 4.88 
666.02 2.23 5.17 
666.13 1.75 6.00 
666.83 1.79 2.61 
666.57 1.94 6.42 
666.92 1.70 6.86 
667.50 1.60 1.01 
667.45 1.67 1.97 
667.36 1.87 2.91 
667.27 2.08 3.85 
667.31 2.12 4.71 
667.29 1.82 6.07 
667.52 1.74 10.50 
660.36 2.35 8.04 
660.65 2.40 8.94 
661.41 2.32 9.01 
664.76 2.59 4.65 
664.72 2.47 7.46 
664.44 2.58 10.94 
665.17 2.40 4.94 
666.05 2.54 6.42 
666.72 2.73 5.68 
667.01 2.31 6.90 
667.10 2.28 7.65 
667.14 2.40 4.78 
667.24 2.88 5.41 
660.93 3.30 8.70 
665.49 3.20 5.20 
665.72 3.43 2.91 
660.37 4.19 8.58 
660.13 3.89 8.62 
662.95 3.85 2.71 
663.46 3.99 8.64 
664.23 4.10 1.19 
664.24 4.13 2.23 
663.69 4.10 2.67 
664.80 3.90 8.88 
665.43 4.34 4.49 
665.82 4.08 0.08 
666.63 4.25 -0.34 
666.66 4.31 0.62 
666.62 3.87 5.75 
656.96 4.68 3.02 
657.62 4.86 2.87 
657.51 4.97 3.58 
658.44 4.42 4.75 
659.03 4.82 3.48 
659.19 4.87 4.68 
659.98 5.07 3.12 
660.29 4.87 4.76 
660.89 4.93 4.77 
662.09 4.99 4.98 
661.86 4.70 8.51 
663.47 4.63 5.18 
663.70 4.50 5.86 
663.88 4.70 8.36 
664.69 4.91 5.19 
664.51 4.44 6.09 
665.38 4.60 -0.06 
665.42 4.70 1.98 
665.53 4.49 4.93 
665.11 4.98 7.34 
665.64 4.65 8.53 
665.93 4.39 2.03 
665.91 5.04 2.74 
665.94 4.52 7.40 
666.69 4.38 1.58 
666.72 4.45 2.53 
666.98 4.98 4.72 
666.94 4.43 7.59 
667.26 4.98 5.78 
656.24 5.62 2.02 
656.12 5.63 3.31 
657.86 5.66 2.93 
657.36 5.49 3.14 
658.48 5.57 2.23 
658.37 5.30 2.82 
658.30 5.43 3.50 
659.10 5.72 2.77 
659.50 5.19 2.93 
660.20 5.59 2.89 
660.77 5.52 7.35 
660.16 5.30 8.19 
661.18 5.46 3.22 
660.99 5.23 4.72 
660.87 5.16 8.63 
661.69 5.55 4.68 
661.58 5.27 7.71 
662.88 5.25 5.05 
662.45 5.48 5.83 
662.29 5.54 7.65 
663.48 5.51 -0.91 
663.56 5.18 3.43 
663.03 5.49 7.65 
663.18 5.39 8.30 
664.12 5.70 3.50 
664.29 5.33 7.29 
663.78 5.62 8.56 
663.98 5.59 10.11 
664.83 5.11 0.72 
664.85 5.17 1.70 
664.69 5.22 8.30 
665.23 5.15 7.19 
665.41 5.37 8.26 
665.88 5.65 8.34 
666.26 5.46 10.11 
666.96 5.12 4.93 
666.46 5.39 8.80 
667.13 5.41 4.57 
667.48 5.52 6.22 
657.02 6.09 3.27 
658.27 6.31 3.06 
659.19 6.00 2.19 
659.81 6.25 2.71 
660.66 5.91 3.05 
661.39 6.08 2.89 
661.33 6.10 6.67 
661.47 5.95 7.26 
660.91 5.82 8.04 
661.55 6.45 2.82 
661.83 5.88 3.16 
662.45 6.33 3.10 
662.66 5.83 4.87 
662.63 6.34 6.67 
662.44 5.88 7.37 
662.45 6.11 9.17 
663.25 6.44 -1.05 
663.53 6.23 3.68 
663.32 6.14 4.80 
663.11 6.30 7.30 
663.22 5.99 10.96 
663.62 5.83 1.73 
663.67 6.34 3.30 
664.05 6.42 4.99 
664.16 6.15 5.57 
663.69 5.95 9.27 
664.54 6.13 3.54 
664.55 6.24 6.77 
664.38 5.79 8.37 
665.36 6.19 3.10 
665.32 6.23 5.31 
665.07 6.24 6.18 
665.10 5.83 8.34 
665.57 5.90 8.65 
665.19 6.04 10.12 
666.38 6.22 0.98 
665.92 6.18 2.76 
665.95 6.23 4.73 
665.83 6.15 6.17 
667.05 6.29 0.58 
667.09 6.35 1.50 
666.61 5.95 6.19 
666.58 5.80 8.28 
666.55 6.20 9.13 
667.58 5.96 4.98 
667.32 6.04 5.24 
667.46 5.84 6.33 
667.33 5.87 8.26 
657.90 6.60 3.22 
659.51 6.90 2.78 
659.81 6.52 3.31 
660.57 6.81 2.12 
660.51 6.72 2.66 
660.55 7.05 3.22 
661.25 7.16 2.09 
662.20 6.93 2.79 
662.16 6.50 7.15 
661.63 6.50 7.87 
662.52 7.12 -0.91 
662.65 6.99 2.79 
662.81 7.14 7.02 
663.28 6.87 -0.91 
663.06 6.78 3.03 
663.38 6.71 5.52 
663.09 7.02 11.63 
663.93 7.00 3.25 
663.73 6.79 6.32 
664.26 7.13 7.08 
663.75 6.76 7.22 
664.29 7.12 10.80 
665.01 6.72 0.16 
664.76 6.63 1.89 
664.87 7.08 3.32 
664.70 6.64 5.00 
664.74 7.04 7.24 
665.03 6.79 2.12 
665.20 6.62 3.21 
665.34 6.91 12.59 
665.97 7.03 1.95 
666.08 6.67 3.61 
666.19 7.17 5.08 
666.19 6.52 5.27 
666.26 6.75 6.36 
665.92 7.06 7.99 
666.70 6.91 3.62 
667.06 6.83 4.79 
667.36 6.89 6.26 
659.17 7.68 1.99 
658.78 7.19 3.17 
658.93 7.83 5.56 
659.51 7.58 1.81 
659.62 7.75 3.12 
660.29 7.56 2.71 
660.41 7.75 4.07 
661.88 7.42 -0.95 
662.01 7.70 6.06 
662.84 7.44 2.75 
662.62 7.28 5.48 
662.78 7.28 6.45 
663.48 7.70 -0.86 
663.27 7.43 2.75 
663.65 7.28 2.97 
664.00 7.21 7.48 
664.30 7.40 11.63 
664.51 7.44 3.24 
664.32 7.48 6.22 
664.74 7.49 6.78 
665.42 7.27 -0.27 
665.45 7.32 0.67 
665.44 7.49 3.33 
665.33 7.53 7.14 
665.16 7.47 11.50 
665.85 7.55 2.07 
666.23 7.75 3.06 
665.88 7.38 7.55 
665.86 7.82 12.32 
666.51 7.45 1.96 
666.66 7.26 2.77 
666.85 7.71 3.57 
666.96 7.27 5.29 
666.81 7.18 6.42 
666.48 7.83 6.72 
666.50 7.76 7.59 
667.37 7.73 3.19 
667.30 7.75 6.45 
667.32 7.86 7.67 
658.55 8.52 5.34 
661.97 8.44 3.91 
662.54 8.12 2.02 
663.40 7.94 6.35 
663.59 7.92 10.48 
664.05 8.49 2.67 
664.10 7.93 6.34 
664.22 8.30 10.38 
664.80 8.28 2.84 
664.97 7.93 7.03 
664.81 8.31 8.61 
664.69 8.40 10.47 
664.87 8.34 10.76 
665.64 8.35 3.23 
665.04 8.34 5.88 
665.41 8.30 6.87 
665.60 7.88 11.48 
665.75 8.16 1.26 
666.36 8.06 2.15 
665.94 8.34 2.67 
666.15 7.92 3.13 
666.03 8.00 4.30 
666.18 7.99 5.43 
665.88 8.11 7.02 
666.20 8.26 11.37 
667.03 7.89 1.96 
666.65 7.97 3.26 
667.00 8.04 4.33 
666.84 8.30 5.37 
666.57 8.05 5.90 
667.05 8.26 7.55 
667.54 8.35 1.97 
667.30 8.37 3.56 
667.28 8.00 4.91 
667.34 7.97 5.91 
656.37 9.02 4.85 
657.14 9.13 4.81 
657.60 9.27 5.46 
658.51 8.74 4.62 
659.18 8.84 4.60 
659.06 9.27 5.86 
659.83 9.13 4.55 
660.03 9.16 5.75 
659.78 8.99 5.88 
660.12 8.71 5.70 
661.11 9.17 3.49 
661.17 8.64 5.36 
661.86 9.22 4.36 
661.84 9.20 5.01 
661.89 9.22 5.26 
662.42 9.22 -0.15 
662.45 9.07 0.75 
662.54 9.01 2.08 
662.61 9.01 2.95 
662.67 9.01 3.82 
662.74 9.04 4.69 
662.57 8.79 5.38 
662.86 9.16 6.43 
662.92 9.21 7.31 
663.36 9.16 3.76 
663.20 9.15 5.32 
663.57 8.96 6.42 
663.78 9.21 0.25 
663.86 9.05 1.11 
664.02 8.86 4.32 
664.27 9.27 4.83 
664.19 9.14 5.46 
665.02 9.00 4.85 
664.91 8.95 5.44 
664.78 8.59 7.62 
665.48 8.92 2.39 
665.65 8.64 5.44 
665.29 8.77 10.36 
666.40 8.79 6.90 
665.85 9.24 10.23 
666.32 8.81 12.04 
666.33 9.00 12.89 
666.79 9.03 1.42 
667.03 9.15 2.71 
667.08 8.88 3.37 
667.05 8.95 6.85 
666.83 9.19 7.67 
667.55 8.61 3.16 
667.45 9.15 6.60 
667.53 8.91 8.32 
667.34 9.24 11.10 
656.96 9.88 5.42 
657.64 9.96 4.48 
657.37 9.97 6.73 
658.32 9.65 4.47 
658.67 9.75 5.78 
658.37 9.65 5.83 
659.03 9.94 3.51 
658.72 9.83 4.68 
659.35 9.43 5.77 
659.72 9.65 3.51 
659.43 9.46 5.63 
660.41 9.38 3.50 
660.47 9.68 5.00 
660.72 9.32 5.68 
660.92 9.93 4.61 
661.12 9.88 5.27 
661.28 9.77 5.91 
662.14 9.40 -0.82 
661.71 9.45 -0.12 
661.74 9.43 0.77 
661.77 9.38 1.66 
661.80 9.35 2.55 
661.75 9.82 4.10 
661.64 9.44 5.57 
662.87 9.56 -0.88 
662.31 9.95 1.84 
662.33 9.90 2.75 
662.37 9.88 4.57 
662.74 9.95 5.45 
663.53 9.77 -0.95 
663.57 9.76 -0.12 
663.61 9.75 0.71 
663.13 9.63 1.16 
663.19 9.64 2.01 
663.27 9.40 2.88 
663.09 9.81 4.56 
663.54 9.49 5.75 
663.05 9.61 5.90 
664.27 9.85 0.26 
664.30 9.82 1.08 
663.69 9.70 2.37 
663.73 9.66 3.21 
663.67 9.76 4.11 
663.91 9.69 5.08 
663.84 9.71 5.73 
663.99 9.97 5.99 
663.88 9.73 6.58 
663.95 9.52 7.47 
663.96 9.90 8.39 
664.32 9.70 1.51 
664.34 9.79 1.90 
664.40 9.46 2.36 
664.32 9.71 4.14 
664.51 9.51 4.89 
664.46 9.74 5.23 
664.52 9.70 6.92 
664.57 9.61 7.79 
664.55 9.93 9.98 
665.62 9.84 0.21 
665.09 9.80 4.38 
665.17 9.65 4.85 
665.12 9.80 5.22 
665.15 9.79 6.06 
665.29 9.36 7.84 
665.27 9.78 10.01 
666.00 9.79 -0.64 
665.88 9.35 2.71 
665.82 9.79 4.82 
666.00 9.80 8.44 
665.96 9.41 9.82 
665.97 9.73 10.02 
666.72 9.31 2.71 
666.43 9.95 4.33 
666.71 9.28 6.55 
666.82 9.82 12.63 
667.22 9.61 -0.01 
667.43 9.89 2.54 
667.18 9.68 4.35 
667.34 9.44 9.07 
667.20 9.81 10.67 
667.45 9.88 11.73 
656.31 10.33 5.40 
657.00 10.41 5.78 
657.67 10.00 5.81 
658.36 10.44 3.51 
658.43 10.19 4.84 
658.52 10.13 5.85 
659.14 10.33 4.97 
658.77 10.10 5.57 
659.80 9.98 4.99 
660.41 10.21 4.12 
660.22 10.19 4.60 
660.45 10.17 5.24 
661.06 10.39 4.39 
661.64 10.33 3.64 
661.73 10.12 4.41 
661.83 10.45 5.01 
662.17 10.47 7.14 
661.88 10.04 7.42 
662.28 10.02 0.03 
662.29 10.00 0.93 
662.51 10.16 5.04 
662.26 10.45 5.81 
663.02 10.43 0.91 
663.04 10.23 1.81 
663.00 10.22 3.55 
664.19 10.07 -0.14 
663.66 10.18 3.54 
664.81 10.36 -0.57 
664.83 10.41 0.24 
664.87 10.38 1.05 
664.92 10.27 1.87 
664.99 10.04 2.70 
664.86 10.20 4.95 
664.37 10.42 5.97 
664.37 10.02 10.91 
665.55 9.99 -0.61 
665.68 10.45 2.54 
665.19 10.43 4.33 
665.33 9.98 5.13 
665.09 10.28 6.82 
665.26 10.09 8.37 
666.29 10.45 0.06 
666.35 10.29 0.87 
666.02 10.31 2.46 
666.07 10.30 3.26 
665.76 10.41 4.99 
666.22 10.37 5.69 
665.81 10.42 6.64 
666.32 10.36 7.34 
666.40 10.30 8.18 
666.28 10.20 10.00 
666.31 10.42 10.45 
666.43 10.06 1.69 
666.50 10.21 4.97 
666.48 10.27 5.22 
666.54 10.35 5.83 
666.79 10.23 7.75 
666.47 10.24 9.04 
666.95 10.23 9.98 
666.63 10.09 10.79 
666.72 9.98 11.69 
667.13 10.36 4.96 
667.15 10.08 8.22 
