# .PCD v0.7 - Point Cloud Data file format
VERSION 0.7
FIELDS x y z
SIZE 4 4 4
TYPE F F F
COUNT 1 1 1
WIDTH 406
HEIGHT 1
VIEWPOINT 0 0 0 1 0 0 0
POINTS 406
DATA ascii
667.96 85.98 0.08 
667.77 85.50 0.91 
668.44 85.93 0.27 
668.81 85.74 0.76 
669.57 86.10 0.59 
669.62 86.03 1.40 
670.20 85.65 0.29 
670.20 85.64 0.72 
671.67 85.84 0.53 
671.44 85.80 1.12 
671.74 86.18 1.60 
671.76 86.15 3.29 
671.97 85.66 0.53 
672.01 85.67 1.06 
672.04 85.68 1.96 
672.04 85.68 2.32 
672.05 85.68 3.05 
671.95 85.97 6.64 
671.84 85.96 7.70 
672.98 85.47 0.38 
672.55 85.59 0.85 
672.59 85.60 1.64 
672.71 85.63 2.44 
673.42 85.89 0.48 
676.38 85.62 0.93 
676.76 85.65 0.94 
667.80 86.37 0.28 
667.87 86.78 0.98 
668.39 86.26 0.58 
669.09 86.75 1.41 
669.96 86.55 1.15 
670.85 86.86 0.83 
671.75 86.51 0.54 
671.44 86.58 1.34 
671.44 86.58 1.68 
671.58 86.51 2.37 
671.59 86.51 2.88 
672.51 86.20 0.49 
672.19 86.20 1.27 
672.23 86.21 1.65 
671.91 86.58 2.36 
671.97 86.28 3.09 
671.94 86.33 4.78 
672.08 86.54 7.06 
671.98 86.53 8.05 
672.90 86.32 0.41 
673.29 86.57 0.72 
674.29 86.20 0.66 
674.18 86.28 0.88 
675.69 86.62 0.91 
668.17 87.42 1.28 
668.98 87.45 0.32 
668.52 87.43 1.43 
669.38 87.18 0.32 
669.22 86.92 1.16 
670.20 87.10 0.38 
670.42 87.48 0.77 
669.75 87.25 4.39 
670.65 87.09 0.56 
670.72 87.22 1.25 
670.73 87.22 1.90 
670.73 87.22 2.38 
671.12 87.02 2.90 
671.33 87.20 0.49 
671.34 87.20 0.84 
671.37 87.22 1.54 
672.41 87.31 0.65 
672.07 87.19 5.11 
672.22 87.19 5.65 
672.18 87.16 6.58 
672.10 87.14 7.51 
673.00 86.95 0.65 
673.05 87.19 0.88 
673.10 87.33 4.44 
673.36 87.14 0.69 
675.66 87.50 1.14 
676.59 87.56 1.14 
667.74 87.73 1.19 
667.94 88.14 1.44 
669.26 88.08 5.68 
670.28 87.73 0.64 
669.95 87.93 1.10 
670.20 87.82 1.89 
670.20 87.82 2.37 
670.67 87.57 1.11 
670.50 87.66 1.90 
670.55 87.73 2.25 
671.01 88.06 4.52 
671.31 87.97 0.65 
671.27 88.24 5.43 
671.97 87.75 3.04 
674.02 87.81 0.91 
674.84 87.62 1.14 
675.88 88.27 5.54 
676.28 88.20 4.53 
669.05 88.30 1.22 
669.24 88.45 3.60 
669.70 88.66 4.64 
669.92 88.61 0.65 
669.93 88.62 1.13 
669.86 88.79 2.07 
669.92 88.76 3.78 
669.95 88.75 4.64 
669.97 88.68 5.50 
670.02 88.76 6.39 
670.84 88.29 0.64 
670.66 88.62 5.49 
672.32 88.71 4.69 
672.09 88.72 5.49 
672.61 88.88 0.92 
672.82 88.90 4.63 
673.30 88.36 0.91 
674.29 88.75 6.17 
675.09 88.78 5.60 
677.23 88.84 4.80 
668.92 89.42 0.63 
668.62 89.56 0.83 
668.73 89.58 3.66 
668.74 89.30 5.52 
668.51 89.62 5.72 
669.37 89.15 0.64 
669.50 89.30 5.52 
669.22 89.52 5.68 
669.45 89.47 6.50 
670.20 89.39 0.71 
670.05 89.61 0.90 
670.51 88.97 4.64 
670.94 89.37 5.37 
671.65 89.45 5.38 
671.14 89.53 5.62 
672.26 89.24 5.60 
672.89 89.24 1.14 
673.08 89.09 4.74 
673.85 89.43 3.94 
674.84 89.38 5.49 
675.47 89.30 5.64 
667.93 90.23 0.45 
667.92 89.92 1.31 
668.06 89.67 5.57 
667.79 89.68 5.76 
668.69 90.06 0.49 
668.69 90.21 4.73 
668.43 89.95 5.38 
668.58 89.95 6.04 
669.31 90.12 0.54 
669.17 90.33 0.90 
669.50 89.92 4.84 
669.34 90.35 5.44 
669.91 90.10 0.53 
670.32 89.74 5.42 
670.04 90.31 5.66 
670.57 89.83 0.53 
670.87 90.15 5.70 
670.53 89.94 6.53 
671.60 90.08 3.31 
671.26 90.17 6.57 
672.23 89.82 1.14 
671.86 89.74 5.66 
673.15 89.87 5.45 
673.90 90.08 4.60 
674.46 89.97 3.61 
674.13 90.30 4.70 
675.03 90.35 5.74 
675.52 90.36 5.66 
675.39 89.78 6.56 
676.08 89.80 4.71 
676.11 89.77 6.64 
676.22 90.24 7.35 
676.93 90.14 4.93 
667.80 90.44 0.48 
667.74 91.04 4.73 
668.84 90.57 0.52 
668.43 90.65 0.72 
668.95 90.98 4.62 
669.36 90.75 0.48 
669.60 90.76 4.69 
670.17 90.58 4.57 
670.17 90.88 6.15 
670.89 91.00 1.16 
670.85 91.06 3.93 
670.46 90.42 6.39 
671.57 90.41 1.15 
671.40 90.38 3.38 
671.71 90.97 4.99 
672.10 90.93 4.80 
671.87 90.40 6.40 
672.73 90.64 3.90 
672.65 90.60 4.91 
674.04 90.93 4.73 
674.39 90.42 5.58 
674.07 90.44 5.65 
675.70 90.97 7.46 
676.39 90.74 5.89 
668.31 91.68 0.67 
668.19 91.57 4.86 
667.71 91.51 5.47 
668.96 91.12 0.54 
668.37 91.35 1.24 
668.36 91.21 4.75 
669.43 91.27 0.69 
669.72 91.57 4.06 
669.45 91.17 4.81 
669.55 91.33 4.95 
670.19 91.76 3.93 
671.20 91.18 0.86 
671.40 91.16 3.87 
671.53 91.28 5.01 
672.06 91.77 3.15 
671.88 91.16 3.98 
672.35 91.07 4.88 
672.05 91.68 5.87 
672.74 91.08 6.51 
672.80 91.24 7.72 
673.55 91.31 6.79 
673.60 91.36 7.75 
674.20 91.29 3.95 
674.37 91.47 5.03 
673.99 91.68 5.69 
674.94 91.42 2.07 
675.12 91.12 5.47 
675.75 91.11 5.02 
675.80 91.45 5.69 
675.74 91.17 6.57 
676.54 91.31 6.61 
676.82 91.56 7.83 
679.00 91.55 7.67 
679.73 91.34 7.66 
680.47 91.16 7.66 
667.95 91.80 0.66 
667.76 92.22 1.27 
667.70 91.94 4.13 
667.77 92.43 5.71 
667.68 92.09 6.36 
668.55 92.17 0.80 
668.84 91.96 4.91 
668.94 92.12 5.55 
669.70 92.40 3.07 
669.67 92.38 3.92 
669.57 92.35 5.59 
669.11 91.99 5.98 
670.31 91.92 1.17 
670.30 92.43 4.07 
670.94 91.90 3.17 
671.60 92.07 3.23 
671.56 92.03 4.16 
672.07 91.81 5.52 
672.49 92.45 5.72 
672.90 92.05 3.90 
673.11 92.31 4.87 
673.02 91.97 5.88 
673.33 91.89 3.96 
673.61 92.41 4.90 
673.96 91.85 4.75 
674.48 92.20 5.77 
674.67 92.45 4.88 
675.93 91.88 1.45 
675.92 92.01 3.89 
675.89 91.83 4.80 
676.01 91.91 4.96 
676.32 92.37 4.81 
676.81 92.13 5.15 
677.75 92.11 5.96 
677.69 92.38 7.09 
667.87 92.48 5.92 
667.72 92.82 6.62 
668.90 93.16 1.20 
669.02 92.63 5.74 
669.61 92.54 1.18 
669.21 92.92 3.39 
670.19 92.90 4.18 
670.10 92.71 5.82 
670.53 92.52 4.49 
672.40 92.81 3.87 
672.38 93.08 6.66 
672.60 92.81 4.69 
672.79 92.79 6.49 
673.47 93.10 4.90 
673.54 92.60 5.00 
674.70 92.78 6.04 
675.52 92.98 5.22 
676.05 92.62 2.07 
677.02 92.85 5.89 
677.79 92.85 4.93 
668.93 93.18 6.53 
669.47 93.48 5.93 
671.64 93.57 4.21 
671.77 93.79 5.91 
671.76 93.60 6.74 
672.18 93.26 6.56 
673.16 93.57 4.95 
672.87 93.69 5.80 
673.35 93.55 4.31 
673.28 93.83 6.04 
674.00 93.49 4.03 
675.52 93.32 4.01 
675.62 93.57 5.00 
675.66 93.48 6.23 
675.74 93.72 7.23 
676.70 93.22 5.93 
677.39 93.46 6.14 
678.01 93.42 5.98 
678.83 93.42 6.32 
668.66 94.38 4.76 
669.55 94.40 4.14 
669.73 94.43 6.87 
670.15 94.44 4.24 
670.40 94.48 5.13 
670.42 94.56 6.01 
670.86 93.89 4.16 
670.92 94.18 5.01 
670.92 94.26 5.86 
671.07 93.92 8.21 
671.59 94.39 3.35 
671.80 94.33 4.26 
671.68 94.43 5.21 
671.66 94.15 6.05 
671.65 93.96 6.89 
671.82 93.89 7.21 
672.23 93.99 4.15 
672.24 93.99 4.99 
672.47 93.98 5.94 
672.37 94.28 6.96 
672.62 94.30 4.11 
672.65 93.88 4.33 
672.65 94.35 5.27 
673.82 94.03 3.38 
673.35 93.88 5.21 
675.01 93.92 7.24 
675.93 93.99 7.23 
675.94 94.42 8.07 
676.34 94.37 5.09 
668.23 95.23 6.20 
668.93 95.05 4.86 
669.63 94.80 7.03 
670.32 94.89 5.26 
670.33 95.02 6.17 
670.43 94.81 6.93 
671.09 94.71 3.43 
671.31 95.15 8.13 
671.85 95.11 1.71 
673.01 95.11 5.13 
672.85 94.71 7.32 
673.60 95.03 5.15 
674.31 94.67 5.12 
675.70 94.65 5.11 
676.74 94.64 7.10 
667.66 95.89 4.99 
667.73 95.47 5.67 
668.28 95.81 6.52 
668.90 95.92 3.46 
669.04 95.68 4.54 
668.65 95.81 5.43 
668.67 95.59 6.20 
668.36 95.66 7.08 
669.06 95.36 5.27 
669.27 95.89 6.24 
669.59 95.45 6.90 
671.05 95.54 1.76 
671.68 95.78 5.20 
672.16 95.43 8.19 
672.62 95.50 5.26 
673.73 95.39 6.93 
673.38 95.83 7.12 
674.78 95.95 5.41 
675.19 95.87 6.14 
675.49 95.75 5.40 
668.24 96.29 4.96 
668.26 96.01 5.74 
668.25 96.38 7.29 
668.34 96.30 3.56 
668.89 96.46 4.39 
668.90 96.13 6.57 
669.36 96.50 3.56 
669.59 96.13 4.35 
671.10 96.01 3.58 
671.13 96.33 4.52 
671.41 96.26 4.30 
671.20 96.13 5.33 
671.70 96.16 6.14 
671.69 95.98 7.00 
671.24 96.48 7.21 
673.33 96.21 7.28 
674.92 96.51 6.32 
674.80 95.98 7.27 
668.24 97.30 4.62 
668.17 96.98 7.16 
668.34 97.01 4.53 
669.71 96.95 4.58 
669.09 97.21 7.33 
669.77 96.70 4.46 
671.03 96.79 7.13 
671.23 97.29 7.44 
674.61 96.81 6.26 
674.29 97.24 6.42 
667.82 97.89 4.88 
668.03 97.55 5.98 
668.81 97.72 5.13 
668.80 97.70 5.97 
669.53 97.45 5.55 
669.18 97.45 5.66 
669.81 97.97 6.57 
670.47 98.04 5.73 
671.24 97.64 5.59 
669.09 98.48 4.67 
670.12 98.65 5.71 
669.77 98.15 6.61 
