# .PCD v0.7 - Point Cloud Data file format
VERSION 0.7
FIELDS x y z
SIZE 4 4 4
TYPE F F F
COUNT 1 1 1
WIDTH 1000
HEIGHT 1
VIEWPOINT 0 0 0 1 0 0 0
POINTS 1000
DATA ascii
668.31 -14.45 4.47 
668.28 -13.39 4.33 
668.10 -13.32 4.94 
667.94 -12.79 4.37 
668.70 -12.67 4.93 
669.11 -11.86 4.16 
667.97 -11.20 6.18 
667.82 -11.60 6.32 
668.54 -11.14 6.35 
670.41 -11.30 4.62 
668.63 -10.65 6.20 
669.06 -10.27 6.37 
669.48 -10.91 7.50 
669.95 -10.78 4.38 
668.23 -10.25 7.20 
668.97 -9.83 4.78 
668.86 -9.68 5.81 
668.63 -9.62 7.10 
669.13 -10.04 6.10 
669.67 -9.86 6.35 
670.20 -9.82 4.60 
669.98 -9.62 5.61 
670.02 -9.70 6.67 
669.83 -10.04 7.45 
670.07 -9.78 7.73 
670.97 -10.02 5.23 
671.94 -9.69 5.47 
668.56 -9.47 5.72 
669.47 -9.45 5.33 
669.50 -9.55 6.36 
669.35 -9.11 7.14 
670.60 -9.31 6.50 
671.43 -9.22 5.51 
668.10 -8.22 2.30 
667.86 -8.44 6.26 
668.54 -8.19 2.86 
669.86 -8.20 2.46 
669.87 -8.25 3.64 
670.35 -8.74 6.19 
671.77 -8.37 4.87 
671.58 -8.82 5.71 
671.53 -8.81 6.76 
671.81 -8.42 5.50 
668.98 -7.67 4.19 
668.81 -7.52 5.14 
668.71 -7.71 5.72 
669.19 -7.85 3.24 
669.66 -8.03 3.45 
669.45 -7.84 4.43 
669.25 -7.67 5.40 
670.22 -7.60 4.46 
670.37 -7.63 6.05 
670.45 -7.61 3.65 
670.47 -7.47 4.40 
670.68 -7.75 5.43 
673.17 -8.03 5.82 
668.93 -7.05 3.16 
668.75 -6.88 4.09 
668.97 -7.05 4.36 
668.94 -7.04 5.38 
668.38 -7.09 6.04 
668.77 -7.22 6.32 
669.20 -7.28 1.26 
669.44 -7.02 2.73 
669.08 -6.81 4.69 
669.39 -7.14 5.79 
669.50 -6.82 7.36 
671.05 -7.12 4.52 
671.09 -7.03 5.41 
671.05 -6.92 5.86 
671.12 -7.23 5.56 
671.39 -6.90 6.38 
671.84 -7.29 6.37 
674.29 -6.77 5.86 
667.76 -6.31 0.27 
667.73 -6.30 1.26 
667.71 -6.31 2.25 
668.58 -6.16 0.92 
668.84 -6.59 1.39 
668.67 -6.40 2.32 
668.49 -6.21 3.24 
668.36 -6.08 4.16 
668.57 -6.70 5.01 
669.48 -6.18 1.41 
669.02 -6.48 2.10 
669.50 -6.70 4.60 
670.21 -6.24 4.17 
670.31 -6.39 5.16 
670.32 -6.22 5.55 
670.59 -6.20 3.77 
670.53 -6.17 4.76 
671.03 -6.54 5.76 
670.78 -6.45 6.26 
671.56 -6.57 6.58 
672.37 -6.12 5.47 
672.32 -6.06 6.17 
667.84 -6.02 2.05 
667.70 -5.83 3.01 
667.93 -5.84 3.47 
667.87 -5.79 4.47 
668.21 -5.93 5.07 
668.63 -5.78 1.09 
668.38 -5.92 2.84 
668.31 -5.84 3.80 
669.29 -5.83 0.94 
669.20 -5.73 1.90 
669.84 -5.54 4.25 
670.37 -5.56 8.03 
670.42 -5.93 2.77 
670.55 -5.71 5.52 
671.14 -5.97 5.46 
672.09 -5.88 5.06 
672.40 -5.60 5.80 
674.01 -5.71 5.49 
674.16 -5.56 5.77 
667.92 -5.31 5.65 
668.97 -4.81 2.17 
668.89 -4.71 5.36 
668.86 -5.33 6.25 
669.03 -5.33 2.68 
669.29 -5.16 3.55 
669.66 -5.14 4.81 
670.65 -4.98 4.22 
670.69 -4.85 7.19 
671.11 -5.01 4.43 
671.32 -5.23 5.45 
672.14 -4.85 5.00 
671.95 -5.20 6.22 
667.66 -4.11 4.86 
668.38 -4.04 6.27 
669.30 -4.53 6.21 
670.16 -4.39 4.62 
670.12 -4.52 5.77 
669.72 -4.03 7.15 
670.53 -4.35 4.54 
670.72 -4.61 5.52 
670.81 -4.48 6.49 
671.42 -4.29 3.88 
671.62 -4.48 5.17 
671.71 -4.56 6.45 
671.71 -4.56 6.45 
672.14 -4.31 6.17 
672.29 -4.03 6.48 
672.37 -4.49 7.30 
672.74 -4.25 6.07 
673.28 -4.21 5.46 
673.25 -4.19 6.54 
673.31 -4.21 7.34 
667.74 -3.53 3.48 
668.23 -3.56 5.84 
667.85 -3.83 6.43 
667.92 -3.82 7.57 
668.51 -3.73 5.35 
669.64 -3.68 4.54 
669.43 -3.27 6.10 
669.22 -3.40 7.00 
670.41 -3.72 4.15 
670.08 -3.64 4.99 
670.17 -3.30 5.67 
669.99 -3.91 7.20 
670.84 -3.72 3.39 
670.90 -3.80 4.36 
670.51 -3.50 5.24 
670.97 -3.90 6.74 
670.88 -3.32 7.94 
671.34 -3.63 4.04 
671.62 -3.41 4.40 
671.70 -3.88 5.36 
671.35 -3.88 7.37 
672.36 -3.35 4.54 
672.11 -3.79 4.93 
672.01 -3.54 6.62 
673.24 -3.58 6.08 
673.60 -3.39 6.52 
668.03 -3.12 4.82 
667.96 -3.19 6.16 
668.30 -2.64 6.91 
668.18 -2.75 7.34 
668.76 -2.59 4.33 
669.40 -2.86 4.07 
669.10 -3.06 4.63 
669.29 -2.73 4.89 
669.52 -3.19 6.76 
669.70 -2.85 7.02 
670.15 -3.00 4.03 
669.78 -2.75 4.66 
670.31 -2.83 5.05 
670.08 -2.58 5.86 
670.04 -2.63 6.78 
670.89 -3.16 4.17 
670.94 -2.61 5.40 
671.08 -3.03 7.86 
671.34 -3.22 3.82 
671.65 -2.89 4.55 
671.47 -2.79 7.98 
672.05 -2.76 4.41 
672.11 -2.77 5.08 
672.25 -2.74 7.11 
673.05 -2.73 5.15 
674.16 -2.73 7.62 
668.08 -1.94 3.20 
667.78 -1.91 4.09 
667.61 -2.28 4.52 
667.79 -2.51 7.27 
668.65 -1.92 4.05 
668.56 -2.47 4.81 
668.53 -2.07 7.40 
669.53 -1.91 2.27 
669.48 -2.26 3.53 
669.57 -2.43 4.46 
669.80 -2.25 4.07 
670.17 -2.06 4.64 
669.87 -2.25 4.87 
670.36 -2.33 5.61 
670.09 -2.29 6.64 
670.73 -2.55 4.06 
670.76 -2.39 4.55 
671.22 -2.02 4.08 
671.68 -1.94 4.82 
671.27 -2.22 7.19 
671.55 -2.38 7.86 
672.33 -2.41 4.06 
672.03 -2.18 4.24 
672.60 -2.52 5.63 
672.58 -1.94 6.82 
673.90 -1.89 4.95 
673.95 -1.92 6.04 
674.55 -2.44 7.21 
675.86 -1.99 5.51 
676.03 -2.40 5.65 
668.21 -1.59 3.32 
668.06 -1.50 3.77 
667.83 -1.76 4.31 
668.34 -1.33 4.09 
668.54 -1.60 7.97 
669.60 -1.29 3.65 
669.16 -1.80 4.31 
669.99 -1.42 3.17 
670.34 -1.80 4.10 
670.28 -1.84 4.37 
670.34 -1.63 4.86 
670.82 -1.29 4.11 
670.56 -1.36 4.48 
670.58 -1.42 5.39 
670.61 -1.70 6.66 
671.71 -1.50 4.11 
671.52 -1.38 6.74 
671.68 -1.59 7.19 
672.27 -1.47 8.13 
673.10 -1.51 4.12 
672.60 -1.75 4.20 
672.89 -1.70 7.43 
673.28 -1.20 5.27 
673.87 -1.56 6.41 
673.99 -1.72 5.90 
668.08 -0.77 3.11 
668.01 -0.48 5.18 
668.94 -0.99 3.11 
668.67 -1.06 3.79 
669.49 -0.91 3.08 
669.23 -0.55 3.79 
669.60 -1.10 4.30 
669.59 -0.73 5.99 
669.30 -0.72 7.79 
669.97 -0.57 2.75 
669.75 -0.77 3.85 
670.42 -0.94 2.66 
670.52 -0.72 3.15 
670.97 -0.73 4.47 
670.51 -0.84 6.06 
670.61 -1.05 6.40 
671.24 -0.64 2.95 
671.27 -0.74 4.13 
671.16 -0.69 4.72 
671.63 -0.52 4.96 
671.76 -1.09 6.03 
671.58 -0.60 6.72 
672.00 -0.75 7.76 
672.58 -0.78 3.13 
672.53 -0.69 4.24 
672.85 -0.87 5.02 
672.93 -0.61 6.33 
672.96 -0.66 7.30 
674.37 -0.60 4.40 
676.17 -0.91 6.08 
668.05 0.10 2.79 
667.65 -0.37 3.48 
667.68 -0.06 4.78 
667.68 0.10 6.04 
667.65 -0.19 6.82 
668.64 0.22 1.49 
668.60 0.22 2.41 
668.57 0.20 3.33 
668.87 -0.03 5.59 
668.55 -0.08 7.08 
669.64 -0.10 3.10 
669.29 -0.42 4.56 
669.05 -0.40 6.76 
669.96 0.07 3.13 
670.25 -0.38 4.08 
670.71 -0.07 2.27 
670.85 -0.31 3.19 
670.65 -0.32 3.68 
671.08 -0.34 6.44 
670.81 0.22 7.02 
671.45 0.08 3.23 
671.15 0.19 3.69 
671.36 -0.09 4.47 
671.54 -0.43 6.60 
672.01 0.12 4.08 
672.13 -0.41 5.11 
671.94 -0.30 6.01 
672.50 -0.18 6.81 
673.06 -0.38 5.33 
672.91 -0.39 5.81 
673.46 -0.31 3.07 
673.57 -0.42 4.21 
673.78 -0.18 5.28 
673.40 -0.17 7.95 
675.27 0.03 4.95 
668.11 0.61 1.63 
667.99 0.76 2.55 
667.98 0.69 5.57 
668.05 0.62 6.70 
668.47 0.25 1.11 
668.78 0.82 2.59 
668.78 0.88 3.27 
668.52 0.70 5.50 
668.70 0.94 5.59 
669.11 0.43 3.13 
669.03 0.50 4.04 
669.29 0.73 4.65 
669.05 0.40 4.97 
669.04 0.38 5.89 
669.05 0.30 6.83 
669.53 0.59 7.47 
670.15 0.77 3.34 
670.13 0.76 4.24 
670.11 0.73 5.14 
670.11 0.69 6.06 
670.53 0.54 2.20 
670.99 0.35 3.53 
671.10 0.59 4.79 
670.83 0.30 5.11 
671.69 0.39 2.70 
671.53 0.80 3.56 
671.48 0.33 4.70 
671.76 0.29 4.94 
671.20 0.68 7.62 
672.10 0.38 4.42 
671.98 0.59 5.31 
671.82 0.62 6.03 
672.63 0.30 2.39 
672.68 0.57 3.40 
673.16 0.80 3.99 
672.72 0.67 6.72 
672.54 0.78 7.70 
673.81 0.69 4.52 
674.28 0.60 5.06 
674.23 0.79 6.25 
675.22 0.43 5.33 
674.61 0.60 7.04 
675.59 0.83 4.81 
677.80 0.90 5.85 
667.68 1.19 4.34 
668.11 1.42 5.56 
667.62 1.42 7.03 
668.32 1.03 2.35 
668.83 1.41 3.04 
668.51 1.49 4.58 
668.55 1.06 6.35 
669.55 1.27 0.41 
669.41 1.46 1.31 
669.25 1.40 2.66 
669.10 1.34 2.85 
669.30 1.22 4.47 
669.24 1.47 5.42 
669.10 1.28 6.32 
669.89 1.36 0.15 
669.96 1.21 1.05 
669.98 1.13 1.95 
670.07 1.37 2.25 
670.25 1.27 4.69 
669.96 1.18 5.75 
670.54 1.59 0.67 
670.86 1.31 2.25 
670.81 1.19 2.95 
670.81 1.32 4.71 
670.94 1.44 5.37 
670.56 1.60 5.56 
670.79 1.22 6.85 
671.16 1.23 4.53 
671.59 1.08 6.17 
672.10 1.43 1.50 
671.98 1.21 2.28 
672.04 1.41 3.23 
672.49 1.57 3.94 
672.12 0.96 4.82 
672.33 1.29 5.06 
672.48 1.52 6.13 
672.81 1.54 3.75 
672.73 1.38 4.72 
672.82 0.96 5.10 
672.77 1.03 5.87 
673.34 0.98 3.68 
673.82 1.16 4.31 
673.25 1.40 4.90 
673.54 1.49 6.16 
674.39 0.95 4.08 
674.42 1.18 4.48 
674.27 1.60 5.22 
674.51 0.97 7.37 
675.01 1.60 5.88 
675.29 1.29 7.17 
676.48 1.32 5.74 
676.80 1.64 6.54 
668.23 1.77 1.99 
668.23 2.22 2.50 
667.91 1.88 4.67 
668.21 2.34 4.87 
668.22 2.26 6.89 
668.90 2.12 4.83 
668.81 2.23 4.89 
668.89 2.17 6.28 
669.14 2.21 0.82 
669.51 2.01 2.53 
669.18 1.75 3.09 
669.03 1.95 3.96 
670.37 1.78 1.55 
670.22 1.95 2.42 
670.17 2.17 3.05 
669.92 2.29 4.14 
669.80 2.05 5.42 
669.79 1.98 6.37 
669.79 1.88 7.34 
670.55 1.66 0.17 
670.47 1.75 1.07 
670.37 1.78 1.55 
670.67 2.24 2.63 
670.63 2.01 4.98 
670.50 1.94 6.50 
671.21 2.09 0.50 
671.24 1.79 1.58 
671.42 1.79 2.08 
671.38 1.81 2.96 
671.39 1.88 5.25 
671.26 2.32 5.92 
671.25 2.14 6.62 
671.54 1.75 7.53 
672.43 2.00 1.95 
672.32 2.15 2.62 
672.33 1.79 3.02 
672.19 2.23 3.47 
672.21 2.18 4.34 
672.20 2.15 5.21 
672.44 2.34 6.15 
672.08 1.77 6.99 
672.57 2.07 0.66 
672.64 1.76 2.84 
673.39 1.86 3.26 
673.61 1.97 3.74 
673.39 1.82 4.16 
673.86 2.19 5.14 
673.29 2.16 6.68 
674.22 2.00 4.15 
674.02 1.85 5.84 
674.87 2.19 3.82 
675.03 2.10 4.86 
674.80 2.11 5.23 
675.98 1.82 7.22 
676.08 2.00 5.36 
676.26 1.75 6.10 
676.34 1.71 7.21 
667.85 2.90 5.19 
668.89 2.68 2.67 
668.70 2.96 4.64 
668.88 2.73 5.30 
668.66 2.48 5.67 
668.36 2.94 6.48 
669.02 2.44 1.75 
669.14 2.57 2.85 
669.53 2.40 5.88 
669.48 2.99 6.26 
670.40 2.88 1.68 
670.32 2.99 4.59 
669.78 2.45 4.99 
670.09 2.50 5.70 
670.42 2.93 0.75 
670.81 2.48 3.10 
670.62 2.69 3.95 
670.47 2.84 4.80 
670.56 2.71 7.59 
671.76 2.53 1.22 
671.73 2.49 2.27 
671.36 2.35 3.26 
671.70 2.65 4.03 
671.56 2.42 4.26 
671.50 2.77 4.85 
671.67 2.41 5.98 
671.85 2.46 0.35 
672.04 2.45 1.06 
672.24 2.96 2.99 
672.23 2.88 4.95 
672.53 2.87 2.81 
672.68 2.85 5.09 
673.54 2.36 6.11 
673.85 2.98 6.72 
673.36 2.46 7.10 
674.52 2.45 4.35 
674.96 2.57 3.70 
675.11 2.54 4.50 
675.03 2.51 5.85 
674.99 2.74 6.87 
675.48 2.46 5.28 
675.73 2.65 5.93 
676.59 2.44 5.45 
676.64 2.85 5.77 
676.85 2.93 5.70 
668.12 3.44 4.81 
667.91 3.31 5.47 
668.66 3.08 4.49 
668.51 3.41 5.49 
669.62 3.64 4.84 
669.46 3.44 5.07 
670.29 3.71 3.93 
670.15 3.38 4.61 
670.20 3.15 5.61 
670.93 3.39 2.62 
671.03 3.27 4.58 
670.45 3.52 5.35 
670.96 3.23 6.50 
671.62 3.59 4.32 
671.44 3.73 5.14 
672.27 3.14 1.75 
672.07 3.28 2.58 
671.87 3.42 3.41 
671.84 3.42 3.49 
671.84 3.42 4.25 
672.13 3.19 5.94 
672.86 3.56 3.27 
672.75 3.36 4.76 
673.07 3.20 5.47 
673.19 3.69 6.12 
672.95 3.42 7.48 
672.96 3.66 7.81 
673.90 3.27 2.37 
673.42 3.74 5.35 
674.32 3.51 4.76 
674.14 3.58 6.81 
676.13 3.51 4.67 
676.12 3.66 6.00 
676.35 3.73 6.36 
677.07 3.46 5.79 
668.30 3.81 6.23 
668.07 4.31 7.07 
668.95 4.06 7.17 
669.32 3.85 5.49 
669.57 4.18 6.14 
669.32 4.34 6.35 
670.13 3.88 5.50 
671.01 3.86 5.48 
671.66 4.26 5.42 
671.46 3.91 6.47 
672.37 4.31 2.30 
672.07 4.06 5.09 
673.43 3.87 3.52 
673.37 3.82 4.47 
673.30 4.00 5.96 
674.15 3.84 4.07 
674.10 4.18 4.64 
674.50 4.43 5.09 
674.00 3.92 6.07 
674.48 4.27 7.30 
674.97 3.84 5.28 
675.66 4.04 4.18 
675.81 3.86 5.30 
676.40 3.81 6.41 
677.25 4.02 6.63 
667.87 4.48 6.84 
668.39 4.95 6.28 
668.38 4.64 7.82 
669.63 4.81 5.00 
669.16 4.70 6.06 
669.20 4.98 6.73 
669.23 5.09 7.45 
670.10 4.68 2.77 
670.06 4.75 6.76 
670.91 4.73 5.41 
671.13 4.58 5.63 
672.17 4.83 3.17 
672.66 4.89 3.16 
673.01 4.82 3.99 
672.65 4.68 4.54 
672.72 4.73 5.41 
673.10 5.11 5.56 
672.72 4.53 6.57 
673.83 4.87 4.03 
673.91 4.77 5.62 
673.46 4.82 7.50 
673.92 5.13 5.86 
674.13 5.13 7.53 
676.18 5.04 4.82 
676.27 4.77 5.42 
677.16 5.13 5.52 
678.09 4.47 6.73 
678.39 4.70 6.55 
668.13 5.67 7.16 
668.73 5.77 3.15 
668.46 5.46 6.71 
669.65 5.33 2.51 
669.69 5.36 2.91 
669.69 5.28 4.48 
669.07 5.62 6.26 
669.46 5.76 7.91 
670.11 5.20 3.56 
670.15 5.29 5.23 
670.69 5.66 3.59 
671.10 5.43 5.39 
670.83 5.51 6.48 
671.71 5.54 2.71 
671.50 5.75 2.87 
671.65 5.19 5.45 
671.69 5.79 5.65 
671.44 5.78 7.11 
672.26 5.57 3.16 
672.22 5.25 4.49 
671.87 5.81 5.47 
672.34 5.55 7.12 
673.49 5.51 5.14 
673.70 5.48 5.59 
674.14 5.83 5.18 
674.43 5.71 5.65 
674.51 5.64 7.44 
674.65 5.23 6.17 
675.26 5.82 7.51 
675.63 5.53 7.64 
676.50 5.69 5.31 
678.38 5.34 5.67 
667.89 6.12 0.09 
667.94 6.20 1.93 
667.82 6.53 3.65 
668.87 6.10 -0.08 
668.89 6.13 0.84 
668.91 6.16 1.75 
668.93 6.19 2.67 
668.79 6.48 2.85 
668.65 6.15 5.21 
669.00 6.38 6.34 
669.59 6.18 2.89 
669.37 6.08 4.45 
669.34 6.38 6.21 
670.35 6.25 3.08 
669.86 6.06 6.39 
670.44 6.20 3.33 
670.82 6.18 4.66 
670.53 6.05 5.20 
670.73 5.90 6.11 
670.55 6.04 7.09 
671.51 6.37 -0.13 
671.53 6.34 0.78 
671.54 6.31 1.69 
671.22 6.16 3.62 
671.37 5.90 5.52 
672.42 6.38 2.57 
672.13 6.36 4.01 
671.81 6.25 5.27 
672.47 6.52 6.55 
672.50 6.39 7.06 
673.53 6.27 6.43 
673.41 6.17 7.06 
674.24 5.85 5.43 
674.85 6.08 5.24 
674.69 6.25 5.67 
675.71 6.43 5.19 
675.81 6.20 6.00 
676.53 6.35 5.20 
676.15 5.92 5.81 
677.59 5.91 5.44 
668.29 6.81 2.55 
668.25 7.01 3.66 
667.71 6.89 4.91 
668.18 6.58 6.31 
668.18 7.21 7.00 
668.49 6.97 4.11 
668.86 6.65 5.00 
669.09 6.67 3.44 
669.46 7.17 5.43 
669.84 6.63 0.62 
669.88 6.73 1.52 
669.91 6.83 2.42 
670.35 6.70 3.02 
670.81 7.01 0.68 
670.85 7.13 1.57 
671.07 6.60 3.37 
671.04 6.63 6.05 
671.63 7.13 3.39 
671.75 6.67 3.64 
671.29 6.82 4.73 
671.55 6.77 6.38 
671.62 6.58 7.06 
672.40 6.80 0.23 
672.34 6.67 1.11 
672.28 6.55 1.99 
671.97 7.11 2.87 
672.43 6.95 4.03 
672.46 6.75 5.32 
672.83 7.07 7.15 
673.78 7.10 3.06 
673.78 6.79 7.24 
675.12 6.83 4.82 
675.03 6.84 5.30 
674.73 6.56 6.57 
675.42 6.64 5.53 
675.49 7.24 7.34 
676.54 6.74 5.28 
676.24 6.87 5.61 
677.37 6.80 4.95 
677.04 6.99 5.90 
668.00 7.63 3.34 
668.03 7.50 4.89 
668.80 7.50 1.61 
668.69 7.80 3.40 
668.95 7.56 3.91 
668.35 7.93 4.39 
668.73 7.33 5.25 
668.93 7.51 6.96 
669.17 7.62 -0.08 
669.19 7.65 0.81 
669.22 7.68 1.70 
669.15 7.54 3.62 
669.66 7.64 4.62 
669.23 7.93 4.97 
669.08 7.88 5.94 
669.57 7.70 6.27 
670.02 7.35 2.91 
669.94 7.64 3.88 
670.04 7.27 6.00 
670.89 7.25 2.46 
670.51 7.76 2.95 
670.90 7.45 4.55 
671.01 7.84 5.98 
671.75 7.58 -0.09 
671.24 7.55 -0.03 
671.77 7.55 0.79 
671.79 7.52 1.68 
671.80 7.50 2.57 
671.17 7.92 2.91 
671.27 7.73 3.82 
672.47 7.94 1.20 
672.41 7.82 2.06 
672.09 7.57 3.20 
672.09 7.74 3.45 
671.91 7.85 5.50 
672.94 7.46 2.10 
673.59 7.50 5.82 
673.37 7.94 6.80 
674.28 7.75 3.19 
674.25 7.63 3.63 
674.18 7.52 6.74 
674.59 7.65 7.27 
675.22 7.86 2.57 
674.97 7.81 5.97 
675.61 7.27 5.35 
675.89 7.92 6.62 
675.89 7.91 7.44 
676.38 7.60 5.44 
676.20 7.89 5.84 
677.30 7.76 5.62 
676.71 7.46 7.26 
668.23 8.32 2.61 
667.84 8.15 3.22 
667.88 8.26 5.36 
668.24 8.22 5.92 
667.78 8.32 6.49 
667.72 8.36 7.57 
667.86 8.32 7.65 
668.66 8.27 2.99 
669.00 8.11 3.66 
668.84 7.98 4.53 
668.43 8.58 4.94 
668.34 8.41 5.60 
668.41 8.49 6.58 
669.47 8.42 3.26 
669.72 8.37 4.97 
669.11 8.37 5.60 
670.13 8.14 1.46 
670.16 8.24 2.33 
670.05 8.57 2.93 
669.86 8.57 3.63 
670.32 8.33 4.46 
670.21 8.50 4.82 
670.02 8.45 5.94 
671.07 8.22 0.63 
670.94 8.21 2.99 
670.79 8.56 5.29 
671.11 8.34 1.50 
671.15 8.46 2.37 
671.98 8.18 -0.09 
672.03 8.34 3.18 
672.52 8.06 0.34 
672.69 8.15 3.34 
672.70 8.61 3.94 
672.87 8.04 7.19 
673.33 8.38 0.17 
673.34 8.31 1.05 
673.35 8.24 1.94 
673.36 8.17 2.82 
673.59 8.25 5.51 
674.18 8.39 -0.50 
674.36 8.35 0.40 
674.20 8.26 1.26 
674.22 8.19 2.15 
674.18 8.59 2.99 
674.03 8.42 7.08 
675.03 8.19 2.50 
675.17 8.16 5.73 
674.71 8.51 6.46 
674.89 8.22 7.12 
675.54 8.55 2.64 
668.03 8.80 1.97 
668.04 9.08 2.44 
668.06 9.00 3.18 
667.79 8.92 3.55 
668.10 8.78 4.78 
668.17 9.10 7.49 
668.57 9.15 0.08 
668.61 9.22 1.79 
668.53 8.96 2.58 
668.79 8.96 3.06 
668.66 9.07 4.80 
668.41 8.75 7.64 
669.09 9.10 2.65 
669.54 8.83 3.15 
669.60 8.80 3.90 
669.29 9.23 4.85 
669.11 8.92 5.91 
669.17 8.66 7.72 
669.98 8.84 2.67 
669.87 9.00 3.11 
669.95 9.05 3.45 
670.25 9.30 4.21 
669.76 8.98 7.73 
670.46 9.00 2.96 
670.49 8.87 3.87 
670.77 9.28 4.75 
671.51 9.11 2.06 
671.37 8.67 3.02 
671.93 8.85 -0.06 
671.94 8.83 0.80 
671.96 8.80 1.67 
672.22 9.11 2.31 
672.49 8.87 3.39 
671.88 8.80 3.86 
672.00 8.91 4.62 
671.96 9.20 5.45 
672.64 9.25 0.44 
672.58 9.14 1.28 
672.53 9.03 2.12 
673.10 8.86 3.37 
673.03 9.15 3.97 
672.92 9.06 4.44 
672.68 9.29 5.56 
673.57 8.92 3.72 
673.56 9.11 6.31 
674.53 8.99 0.36 
674.54 8.91 1.20 
674.55 8.84 2.04 
674.50 9.33 2.15 
674.15 8.76 3.16 
674.57 8.68 3.74 
675.16 9.29 0.99 
675.18 9.23 1.83 
675.08 8.69 2.57 
674.77 8.87 2.93 
675.20 9.10 3.52 
675.03 9.00 6.35 
675.20 8.90 6.96 
676.01 9.28 2.66 
676.25 8.75 6.74 
676.31 8.70 7.13 
677.43 9.26 6.93 
678.22 8.96 2.74 
678.62 8.68 2.82 
668.20 9.92 -0.68 
667.80 9.36 1.18 
667.84 9.44 1.37 
668.05 10.02 2.72 
668.26 9.47 3.55 
667.94 9.46 4.36 
668.06 9.72 6.64 
668.39 9.87 -0.75 
668.99 9.36 2.59 
668.56 9.40 3.19 
668.77 9.51 5.06 
668.71 9.83 6.79 
668.73 9.43 6.99 
669.43 9.76 2.61 
669.06 9.78 3.21 
669.53 9.37 5.07 
670.33 9.37 0.55 
670.36 9.47 1.40 
669.94 9.90 2.68 
669.87 9.60 3.03 
669.92 9.42 3.90 
669.79 9.37 5.33 
670.19 9.46 5.85 
669.80 9.39 6.46 
670.68 9.70 3.31 
670.56 9.56 3.65 
670.70 9.40 4.15 
671.04 9.56 5.73 
671.31 9.62 1.43 
671.35 9.73 2.28 
671.29 9.88 3.02 
671.30 9.70 3.45 
671.40 10.04 5.84 
672.11 10.03 0.81 
672.13 10.01 1.65 
672.19 9.61 2.77 
672.19 9.61 2.77 
672.36 9.63 4.15 
672.36 9.63 4.15 
672.16 10.02 5.88 
672.84 9.81 2.35 
673.09 9.58 3.25 
672.59 10.02 4.09 
673.47 9.54 1.07 
673.48 9.48 1.93 
673.39 9.68 3.18 
673.58 9.62 3.40 
673.90 9.88 6.41 
674.43 9.51 0.44 
674.47 9.42 1.29 
674.50 9.53 2.49 
674.59 9.76 2.88 
673.99 9.86 4.17 
674.05 9.63 5.77 
674.84 9.51 2.78 
675.28 9.99 3.51 
674.72 9.84 5.88 
675.76 9.50 2.83 
675.77 9.44 3.71 
675.98 9.72 6.70 
677.31 9.46 2.78 
678.10 9.97 1.85 
678.51 9.65 1.89 
667.74 10.30 -0.74 
668.10 10.47 2.42 
668.15 10.43 7.18 
668.76 10.24 1.20 
668.56 10.43 2.73 
668.86 10.45 4.77 
668.53 10.28 6.60 
668.96 10.16 7.36 
669.40 10.23 2.32 
669.64 10.47 3.31 
669.63 10.25 4.76 
669.19 10.32 6.77 
670.28 10.06 2.54 
670.02 10.35 3.11 
670.40 10.12 4.75 
670.72 10.44 2.57 
670.80 10.06 3.23 
670.90 10.06 3.66 
670.66 10.05 5.81 
671.12 10.38 3.50 
671.13 10.09 4.72 
671.40 10.30 6.01 
672.09 10.05 -0.03 
672.49 10.28 4.14 
672.75 10.39 0.54 
672.70 10.28 1.35 
673.11 10.16 4.58 
672.71 10.43 6.01 
672.86 10.32 6.27 
673.45 10.13 3.28 
673.50 10.34 3.49 
673.67 10.44 4.83 
673.75 10.23 5.52 
674.56 10.15 -0.11 
674.22 10.25 1.90 
673.99 10.35 3.44 
674.32 10.41 6.04 
675.24 10.18 1.02 
675.26 10.12 1.84 
675.27 10.06 2.67 
674.61 10.44 2.76 
675.25 10.07 3.45 
675.20 10.06 7.10 
675.71 10.26 0.76 
675.72 10.21 1.59 
675.73 10.15 2.42 
675.75 10.10 3.26 
677.32 10.43 1.50 
677.34 10.38 2.34 
677.36 10.33 3.20 
677.80 10.19 0.99 
677.83 10.14 1.86 
677.46 10.34 2.18 
677.48 10.29 3.03 
